passes_logs/2026/01/08/R4.6S_Anadyr/R4.6S_Anadyr__20260108_041616_FENGYUN_3E_rec.log

#Pass ID: 20260108_041616_FENGYUN 3E
#Satellite: FENGYUN 3E
#Configuration: FENGYUN 3E
#almurnet v.1.7.20251203
#Start time: 2026-01-08 04:16:17

#Version: 2.2.20231116
#Station: R4.6S_Anadyr
#Location: 177.4865 lon 64.73178 lat
#TLE: 1 49008U 21062A   26005.56299987  .00000339  00000+0  18069-3 0  9991
#TLE: 2 49008  98.7472  10.8019 0001562 158.0357 202.0886 14.19884907233502

#Time	Az	El	Level	Level2	SNR	BER	BlckErr	Temp	State	Recorded	gain1	gain2
2026-01-08 04:16:17.96	150.64	0.08	-48.9	-63.8	3.5	1.51e+00	0	34	0	0	60	56251
2026-01-08 04:16:18.97	150.64	0.14	-48.7	-59.9	3.6	8.45e-01	0	35	104	0	60	35857
2026-01-08 04:16:19.98	150.64	0.20	-48.8	-60.0	3.6	8.44e-01	0	35	104	0	60	36105
2026-01-08 04:16:20.99	150.64	0.26	-48.7	-60.0	3.6	8.46e-01	0	35	104	0	60	35964
2026-01-08 04:16:22.00	150.63	0.32	-48.7	-60.0	3.6	8.45e-01	0	35	104	0	60	36107
2026-01-08 04:16:23.01	150.63	0.38	-48.8	-60.0	3.6	8.45e-01	0	35	104	0	60	36279
2026-01-08 04:16:24.02	150.63	0.45	-48.8	-60.1	3.6	8.45e-01	0	35	104	0	60	36366
2026-01-08 04:16:25.03	150.62	0.51	-48.8	-60.1	3.6	8.46e-01	0	35	104	0	60	36377
2026-01-08 04:16:26.04	150.62	0.57	-48.8	-60.0	3.6	8.46e-01	0	35	104	0	60	36297
2026-01-08 04:16:27.05	150.62	0.63	-48.8	-59.9	3.6	8.47e-01	0	35	104	0	60	35897
2026-01-08 04:16:28.06	150.61	0.69	-48.4	-59.9	3.6	8.45e-01	0	36	104	0	60	35682
2026-01-08 04:16:29.07	150.61	0.76	-48.4	-59.8	3.6	8.45e-01	0	36	104	0	60	35315
2026-01-08 04:16:30.08	150.61	0.82	-48.3	-59.6	3.6	8.46e-01	0	36	104	0	60	34661
2026-01-08 04:16:31.09	150.60	0.88	-48.2	-59.4	3.6	8.46e-01	0	36	104	0	60	33692
2026-01-08 04:16:32.10	150.60	0.94	-48.0	-59.2	3.6	8.45e-01	0	36	104	0	60	32934
2026-01-08 04:16:33.10	150.60	1.00	-47.8	-58.9	3.6	8.45e-01	0	36	104	0	60	32028
2026-01-08 04:16:34.11	150.59	1.07	-47.3	-58.6	3.6	8.46e-01	0	36	104	0	60	30616
2026-01-08 04:16:35.12	150.59	1.13	-47.2	-58.4	3.6	8.45e-01	0	36	104	0	60	29997
2026-01-08 04:16:36.13	150.59	1.19	-47.2	-58.5	3.5	8.45e-01	0	36	104	0	60	30340
2026-01-08 04:16:37.14	150.58	1.26	-47.2	-58.4	3.6	8.44e-01	0	36	104	0	60	30087
2026-01-08 04:16:38.15	150.58	1.32	-47.2	-58.4	3.6	8.45e-01	0	36	104	0	60	30183
2026-01-08 04:16:39.16	150.58	1.38	-47.2	-58.4	3.6	8.45e-01	0	36	104	0	60	30048
2026-01-08 04:16:40.17	150.57	1.45	-47.2	-58.4	3.6	8.45e-01	0	36	104	0	60	30157
2026-01-08 04:16:41.18	150.57	1.51	-47.2	-58.4	3.6	8.44e-01	0	36	104	0	60	30056
2026-01-08 04:16:42.19	150.57	1.57	-47.2	-58.4	3.6	8.45e-01	0	36	104	0	60	29931
2026-01-08 04:16:43.20	150.56	1.64	-47.2	-58.4	3.6	8.45e-01	0	36	104	0	60	30205
2026-01-08 04:16:44.21	150.56	1.70	-47.2	-58.4	3.5	8.45e-01	0	36	104	0	60	29955
2026-01-08 04:16:45.22	150.55	1.77	-47.2	-58.3	3.6	8.45e-01	0	36	104	0	60	29585
2026-01-08 04:16:46.23	150.55	1.83	-47.2	-58.3	3.6	8.45e-01	0	36	104	0	60	29756
2026-01-08 04:16:47.24	150.55	1.90	-47.2	-58.2	3.6	8.46e-01	0	36	104	0	60	29411
2026-01-08 04:16:48.25	150.54	1.96	-47.2	-58.2	3.6	8.45e-01	0	36	104	0	60	29358
2026-01-08 04:16:49.26	150.54	2.03	-47.2	-58.1	3.6	8.45e-01	0	36	104	0	60	29048
2026-01-08 04:16:50.27	150.54	2.09	-47.1	-58.0	3.6	8.45e-01	0	36	104	0	60	28733
2026-01-08 04:16:51.28	150.53	2.16	-47.1	-58.0	3.6	8.45e-01	0	36	104	0	60	28579
2026-01-08 04:16:52.29	150.53	2.22	-47.1	-57.9	3.6	8.44e-01	0	36	104	0	60	28515
2026-01-08 04:16:53.30	150.52	2.29	-47.1	-57.9	3.6	8.45e-01	0	36	104	0	60	28513
2026-01-08 04:16:54.31	150.52	2.35	-47.1	-57.9	3.6	8.46e-01	0	36	104	0	60	28444
2026-01-08 04:16:55.31	150.52	2.42	-47.1	-57.8	3.6	8.45e-01	0	36	104	0	60	28176
2026-01-08 04:16:56.32	150.51	2.48	-47.1	-57.8	3.6	8.46e-01	0	36	104	0	60	27905
2026-01-08 04:16:57.33	150.51	2.55	-47.1	-57.6	3.6	8.46e-01	0	36	104	0	60	27493
2026-01-08 04:16:58.34	150.50	2.62	-47.1	-57.5	3.6	8.46e-01	0	36	104	0	60	26956
2026-01-08 04:16:59.35	150.50	2.68	-47.1	-57.5	3.6	8.46e-01	0	36	104	0	60	27051
2026-01-08 04:17:00.36	150.50	2.75	-47.1	-57.7	3.6	8.45e-01	0	36	104	0	60	27680
2026-01-08 04:17:01.37	150.49	2.81	-47.1	-58.0	3.6	8.46e-01	0	36	104	0	60	28668
2026-01-08 04:17:02.38	150.49	2.88	-47.2	-58.1	3.6	8.45e-01	0	36	104	0	60	29199
2026-01-08 04:17:03.39	150.48	2.95	-47.1	-57.2	3.6	8.45e-01	0	36	104	0	60	26231
2026-01-08 04:17:04.40	150.48	3.02	-46.7	-54.5	4.2	8.43e-01	0	36	104	0	60	19217
2026-01-08 04:17:05.41	150.47	3.08	-45.9	-50.4	6.1	4.60e-01	0	36	0	1048576	60	11938
2026-01-08 04:17:06.42	150.47	3.15	-44.8	-48.0	8.8	6.12e-02	0	36	0	8388608	60	9127
2026-01-08 04:17:07.43	150.47	3.22	-43.4	-45.7	11.9	1.41e-03	0	36	0	15728640	60	6944
2026-01-08 04:17:08.44	150.46	3.29	-41.8	-43.5	14.0	1.37e-05	0	36	0	23068672	58	6071
2026-01-08 04:17:09.45	150.46	3.35	-40.3	-41.6	16.0	0.00e+00	0	36	0	30408704	54	6133
2026-01-08 04:17:10.46	150.45	3.42	-39.0	-40.1	17.6	0.00e+00	0	36	0	37748736	52	5769
2026-01-08 04:17:11.47	150.45	3.49	-38.0	-39.0	18.7	0.00e+00	0	36	0	45088768	50	5719
2026-01-08 04:17:12.48	150.44	3.56	-37.0	-37.9	19.5	0.00e+00	0	36	0	52428800	48	5687
2026-01-08 04:17:13.49	150.44	3.63	-36.4	-37.2	20.2	0.00e+00	0	36	0	59768832	46	5892
2026-01-08 04:17:14.50	150.43	3.70	-36.0	-36.9	20.5	0.00e+00	0	36	0	67108864	46	5639
2026-01-08 04:17:15.51	150.43	3.77	-36.2	-37.0	20.4	0.00e+00	0	36	0	74448896	46	5758
2026-01-08 04:17:16.52	150.43	3.84	-38.7	-39.9	15.0	0.00e+00	0	36	0	80740352	46	7954
2026-01-08 04:17:17.53	150.42	3.90	-35.8	-36.5	21.6	5.23e-03	0	36	0	88080384	48	4843
2026-01-08 04:17:18.54	150.42	3.97	-36.3	-37.2	18.9	0.00e+00	0	36	0	94371840	44	6587
2026-01-08 04:17:19.55	150.41	4.04	-41.1	-42.5	15.0	8.12e-04	0	36	0	101711872	56	6064
2026-01-08 04:17:20.56	150.41	4.11	-36.3	-37.2	19.4	1.10e-06	0	36	0	109051904	44	6548
2026-01-08 04:17:21.57	150.40	4.18	-40.8	-42.0	16.3	4.39e-02	0	36	0	114294784	60	4563
2026-01-08 04:17:22.58	150.40	4.25	-37.1	-38.0	19.4	0.00e+00	0	36	0	121634816	48	5703
2026-01-08 04:17:23.58	150.39	4.32	-37.6	-38.5	19.4	0.00e+00	0	36	0	128974848	48	6090
2026-01-08 04:17:24.60	150.39	4.40	-36.9	-37.8	19.8	0.00e+00	0	36	0	136314880	48	5614
2026-01-08 04:17:25.60	150.38	4.47	-36.0	-36.8	20.7	0.00e+00	0	36	0	143654912	46	5612
2026-01-08 04:17:26.61	150.38	4.54	-35.5	-36.2	21.3	0.00e+00	0	36	0	150994944	44	5893
2026-01-08 04:17:27.62	150.37	4.61	-35.7	-36.5	21.3	0.00e+00	0	36	0	158334976	44	6090
2026-01-08 04:17:28.63	150.37	4.68	-35.0	-35.8	21.6	0.00e+00	0	36	0	165675008	44	5577
2026-01-08 04:17:29.64	150.36	4.75	-34.7	-35.5	22.1	0.00e+00	0	36	0	173015040	44	5398
2026-01-08 04:17:30.65	150.36	4.82	-34.4	-35.1	22.4	0.00e+00	0	36	0	180355072	42	5819
2026-01-08 04:17:31.66	150.35	4.89	-34.4	-35.2	22.6	0.00e+00	0	36	0	187695104	42	5840
2026-01-08 04:17:32.67	150.35	4.97	-34.3	-35.1	22.5	0.00e+00	0	36	0	193986560	42	5780
2026-01-08 04:17:33.68	150.34	5.04	-34.5	-35.2	22.4	0.00e+00	0	36	0	202375168	42	5850
2026-01-08 04:17:34.69	150.33	5.11	-34.4	-35.1	22.4	0.00e+00	0	36	0	209715200	42	5817
2026-01-08 04:17:35.70	150.33	5.18	-34.2	-35.0	22.7	0.00e+00	0	36	0	216006656	42	5699
2026-01-08 04:17:36.71	150.32	5.26	-34.3	-35.0	22.6	0.00e+00	0	36	0	223346688	42	5753
2026-01-08 04:17:37.72	150.32	5.33	-33.9	-34.6	23.0	0.00e+00	0	36	0	230686720	42	5492
2026-01-08 04:17:38.73	150.31	5.40	-34.1	-34.8	22.9	0.00e+00	0	36	0	238026752	42	5573
2026-01-08 04:17:39.74	150.31	5.48	-34.0	-34.7	23.0	0.00e+00	0	36	0	245366784	42	5526
2026-01-08 04:17:40.75	150.30	5.55	-33.8	-34.5	23.2	0.00e+00	0	36	0	252706816	42	5423
2026-01-08 04:17:41.76	150.30	5.63	-33.9	-34.6	23.1	0.00e+00	0	36	0	260046848	42	5463
2026-01-08 04:17:42.77	150.29	5.70	-33.9	-34.6	23.1	0.00e+00	0	36	0	267386880	40	6125
2026-01-08 04:17:43.78	150.28	5.77	-33.8	-34.5	23.2	0.00e+00	0	36	0	274726912	40	6048
2026-01-08 04:17:44.79	150.28	5.85	-33.9	-34.6	23.1	0.00e+00	0	36	0	282066944	40	6134
2026-01-08 04:17:45.80	150.27	5.92	-33.7	-34.4	23.2	0.00e+00	0	36	0	289406976	40	6024
2026-01-08 04:17:46.80	150.27	6.00	-33.8	-34.5	23.2	0.00e+00	0	36	0	296747008	40	6082
2026-01-08 04:17:47.82	150.26	6.07	-33.7	-34.4	23.3	0.00e+00	0	36	0	304087040	40	6012
2026-01-08 04:17:48.82	150.25	6.15	-33.7	-34.4	23.5	0.00e+00	0	36	0	311427072	40	5976
2026-01-08 04:17:49.84	150.25	6.22	-33.6	-34.2	23.5	0.00e+00	0	36	0	318767104	40	5891
2026-01-08 04:17:50.85	150.24	6.30	-33.5	-34.2	23.5	0.00e+00	0	36	0	326107136	40	5879
2026-01-08 04:17:51.85	150.24	6.38	-33.6	-34.3	23.5	0.00e+00	0	36	0	333447168	40	5908
2026-01-08 04:17:52.86	150.23	6.45	-33.5	-34.2	23.6	0.00e+00	0	36	0	340787200	40	5832
2026-01-08 04:17:53.87	150.22	6.53	-33.5	-34.2	23.5	0.00e+00	0	36	0	347078656	40	5866
2026-01-08 04:17:54.89	150.22	6.61	-33.7	-34.4	23.4	0.00e+00	0	36	0	355467264	40	5984
2026-01-08 04:17:55.89	150.21	6.68	-33.4	-34.1	23.7	0.00e+00	0	36	0	362807296	40	5806
2026-01-08 04:17:56.90	150.21	6.76	-33.4	-34.1	23.7	0.00e+00	0	36	0	369098752	40	5808
2026-01-08 04:17:57.91	150.20	6.84	-33.5	-34.2	23.6	0.00e+00	0	36	0	376438784	40	5848
2026-01-08 04:17:58.92	150.19	6.92	-33.4	-34.1	23.7	0.00e+00	0	36	0	383778816	40	5789
2026-01-08 04:17:59.93	150.19	6.99	-33.3	-34.0	23.8	0.00e+00	0	36	0	391118848	40	5729
2026-01-08 04:18:00.94	150.18	7.07	-33.4	-34.0	23.9	0.00e+00	0	36	0	398458880	40	5761
2026-01-08 04:18:01.95	150.17	7.15	-33.4	-34.1	23.8	0.00e+00	0	36	0	405798912	40	5770
2026-01-08 04:18:02.96	150.17	7.23	-33.5	-34.1	23.7	0.00e+00	0	36	0	413138944	40	5816
2026-01-08 04:18:03.97	150.16	7.31	-33.3	-34.0	23.8	0.00e+00	0	36	0	420478976	40	5738
2026-01-08 04:18:04.98	150.15	7.39	-33.3	-33.9	23.9	0.00e+00	0	36	0	427819008	40	5693
2026-01-08 04:18:05.99	150.15	7.47	-33.2	-33.9	23.9	0.00e+00	0	36	0	435159040	40	5637
2026-01-08 04:18:06.99	150.14	7.55	-33.2	-33.9	24.0	0.00e+00	0	36	0	442499072	40	5638
2026-01-08 04:18:08.00	150.13	7.63	-33.2	-33.9	23.9	0.00e+00	0	36	0	449839104	40	5681
2026-01-08 04:18:09.01	150.12	7.71	-33.1	-33.8	24.1	0.00e+00	0	36	0	457179136	40	5584
2026-01-08 04:18:10.02	150.12	7.79	-33.0	-33.7	24.1	0.00e+00	0	36	0	464519168	40	5527
2026-01-08 04:18:11.03	150.11	7.87	-33.0	-33.7	24.1	0.00e+00	0	36	0	471859200	40	5548
2026-01-08 04:18:12.04	150.10	7.95	-33.1	-33.8	24.2	0.00e+00	0	36	0	479199232	40	5567
2026-01-08 04:18:13.05	150.10	8.03	-32.9	-33.6	24.3	0.00e+00	0	37	0	486539264	40	5460
2026-01-08 04:18:14.06	150.09	8.11	-33.0	-33.7	24.1	0.00e+00	0	36	0	492830720	40	5517
2026-01-08 04:18:15.07	150.08	8.19	-33.3	-34.0	23.8	0.00e+00	0	37	0	500170752	40	5716
2026-01-08 04:18:16.08	150.07	8.27	-33.2	-33.9	23.9	0.00e+00	0	37	0	508559360	40	5655
2026-01-08 04:18:17.09	150.07	8.36	-33.1	-33.7	24.1	0.00e+00	0	36	0	514850816	40	5551
2026-01-08 04:18:18.10	150.06	8.44	-32.7	-33.4	24.5	0.00e+00	0	37	0	522190848	38	5971
2026-01-08 04:18:19.11	150.05	8.52	-32.9	-33.6	24.2	0.00e+00	0	36	0	529530880	38	6131
2026-01-08 04:18:20.12	150.04	8.60	-32.8	-33.5	24.4	0.00e+00	0	37	0	536870912	38	6037
2026-01-08 04:18:21.12	150.04	8.69	-32.8	-33.5	24.4	0.00e+00	0	37	0	544210944	38	6056
2026-01-08 04:18:22.13	150.03	8.77	-32.8	-33.4	24.4	0.00e+00	0	37	0	551550976	38	6027
2026-01-08 04:18:23.14	150.02	8.85	-32.6	-33.3	24.6	0.00e+00	0	37	0	558891008	38	5919
2026-01-08 04:18:24.15	150.01	8.94	-32.9	-33.5	24.4	0.00e+00	0	37	0	566231040	38	6077
2026-01-08 04:18:25.15	150.00	9.02	-32.9	-33.6	24.4	0.00e+00	0	37	0	573571072	38	6133
2026-01-08 04:18:26.16	150.00	9.11	-32.7	-33.3	24.7	0.00e+00	0	36	0	580911104	38	5941
2026-01-08 04:18:27.17	149.99	9.19	-32.6	-33.2	24.7	0.00e+00	0	37	0	588251136	38	5882
2026-01-08 04:18:28.18	149.98	9.28	-32.4	-33.1	24.8	0.00e+00	0	37	0	595591168	38	5767
2026-01-08 04:18:29.19	149.97	9.36	-32.4	-33.1	24.9	0.00e+00	0	37	0	602931200	38	5794
2026-01-08 04:18:30.20	149.96	9.45	-32.6	-33.2	24.7	0.00e+00	0	37	0	610271232	38	5868
2026-01-08 04:18:31.21	149.95	9.54	-32.5	-33.2	24.8	0.00e+00	0	37	0	617611264	38	5838
2026-01-08 04:18:32.22	149.95	9.62	-32.3	-33.0	24.9	0.00e+00	0	37	0	623902720	38	5706
2026-01-08 04:18:33.23	149.94	9.71	-32.3	-33.0	25.0	0.00e+00	0	37	0	632291328	38	5714
2026-01-08 04:18:34.24	149.93	9.80	-32.3	-32.9	25.0	0.00e+00	0	36	0	639631360	38	5667
2026-01-08 04:18:35.25	149.92	9.88	-32.4	-33.0	25.0	0.00e+00	0	37	0	645922816	38	5739
2026-01-08 04:18:36.26	149.91	9.97	-32.3	-33.0	24.9	0.00e+00	0	37	0	653262848	38	5708
2026-01-08 04:18:37.27	149.90	10.06	-32.3	-32.9	25.0	0.00e+00	0	37	0	660602880	38	5680
2026-01-08 04:18:38.28	149.89	10.15	-32.4	-33.0	24.9	0.00e+00	0	37	0	667942912	38	5731
2026-01-08 04:18:39.29	149.89	10.24	-32.4	-33.1	24.9	0.00e+00	0	37	0	675282944	38	5791
2026-01-08 04:18:40.30	149.88	10.33	-32.2	-32.8	25.1	0.00e+00	0	37	0	682622976	38	5599
2026-01-08 04:18:41.30	149.87	10.41	-32.2	-32.8	25.1	0.00e+00	0	37	0	689963008	38	5610
2026-01-08 04:18:42.31	149.86	10.50	-32.3	-32.9	25.0	0.00e+00	0	37	0	697303040	38	5683
2026-01-08 04:18:43.32	149.85	10.59	-32.1	-32.7	25.2	0.00e+00	0	37	0	704643072	38	5526
2026-01-08 04:18:44.33	149.84	10.68	-32.2	-32.9	25.1	0.00e+00	0	37	0	711983104	38	5657
2026-01-08 04:18:45.34	149.83	10.77	-32.0	-32.6	25.4	0.00e+00	0	37	0	719323136	38	5464
2026-01-08 04:18:46.36	149.82	10.87	-32.2	-32.9	25.1	0.00e+00	0	37	0	726663168	38	5633
2026-01-08 04:18:47.37	149.81	10.96	-32.3	-32.9	25.1	0.00e+00	0	37	0	734003200	38	5673
2026-01-08 04:18:48.38	149.80	11.05	-32.0	-32.7	25.3	0.00e+00	0	37	0	741343232	38	5517
2026-01-08 04:18:49.39	149.79	11.14	-31.9	-32.6	25.4	0.00e+00	0	37	0	748683264	38	5447
2026-01-08 04:18:50.40	149.78	11.23	-32.0	-32.7	25.3	0.00e+00	0	37	0	756023296	38	5521
2026-01-08 04:18:51.40	149.77	11.33	-31.9	-32.5	25.4	0.00e+00	0	37	0	763363328	36	6084
2026-01-08 04:18:52.41	149.76	11.42	-31.8	-32.5	25.5	0.00e+00	0	37	0	769654784	36	6034
2026-01-08 04:18:53.42	149.75	11.51	-31.9	-32.5	25.5	0.00e+00	0	37	0	776994816	36	6072
2026-01-08 04:18:54.43	149.74	11.61	-31.9	-32.5	25.4	0.00e+00	0	37	0	785383424	36	6066
2026-01-08 04:18:55.44	149.73	11.70	-31.9	-32.6	25.4	0.00e+00	0	37	0	791674880	36	6126
2026-01-08 04:18:56.45	149.72	11.79	-31.8	-32.5	25.6	0.00e+00	0	37	0	799014912	36	6036
2026-01-08 04:18:57.46	149.71	11.89	-31.8	-32.4	25.5	0.00e+00	0	37	0	806354944	36	6025
2026-01-08 04:18:58.47	149.70	11.98	-31.8	-32.4	25.6	0.00e+00	0	37	0	813694976	36	5993
2026-01-08 04:18:59.48	149.69	12.08	-31.8	-32.4	25.6	0.00e+00	0	37	0	821035008	36	6010
2026-01-08 04:19:00.49	149.68	12.18	-31.8	-32.4	25.5	0.00e+00	0	37	0	828375040	36	6000
2026-01-08 04:19:01.50	149.67	12.27	-31.7	-32.3	25.6	0.00e+00	0	37	0	835715072	36	5934
2026-01-08 04:19:02.51	149.66	12.37	-31.7	-32.4	25.6	0.00e+00	0	37	0	843055104	36	5966
2026-01-08 04:19:03.52	149.65	12.47	-31.7	-32.3	25.7	0.00e+00	0	37	0	850395136	36	5911
2026-01-08 04:19:04.53	149.64	12.56	-31.7	-32.4	25.7	0.00e+00	0	37	0	857735168	36	5979
2026-01-08 04:19:05.54	149.62	12.66	-31.8	-32.4	25.6	0.00e+00	0	37	0	865075200	36	6000
2026-01-08 04:19:06.55	149.61	12.76	-31.7	-32.3	25.7	0.00e+00	0	37	0	872415232	36	5956
2026-01-08 04:19:07.56	149.60	12.86	-31.6	-32.3	25.6	0.00e+00	0	37	0	879755264	36	5902
2026-01-08 04:19:08.57	149.59	12.96	-31.5	-32.2	25.7	0.00e+00	0	37	0	887095296	36	5836
2026-01-08 04:19:09.58	149.58	13.06	-31.8	-32.4	25.6	0.00e+00	0	37	0	894435328	36	6002
2026-01-08 04:19:10.59	149.57	13.16	-31.7	-32.3	25.7	0.00e+00	0	37	0	901775360	36	5946
2026-01-08 04:19:11.60	149.56	13.26	-31.5	-32.1	25.8	0.00e+00	0	37	0	909115392	36	5810
2026-01-08 04:19:12.60	149.54	13.36	-31.5	-32.2	25.8	0.00e+00	0	37	0	916455424	36	5835
2026-01-08 04:19:13.61	149.53	13.46	-31.6	-32.2	25.7	0.00e+00	0	37	0	922746880	36	5875
2026-01-08 04:19:14.62	149.52	13.56	-31.7	-32.3	25.7	0.00e+00	0	37	0	930086912	36	5959
2026-01-08 04:19:15.63	149.51	13.66	-31.7	-32.3	25.7	0.00e+00	0	37	0	938475520	36	5933
2026-01-08 04:19:16.64	149.50	13.76	-31.7	-32.3	25.7	0.00e+00	0	37	0	944766976	36	5952
2026-01-08 04:19:17.65	149.48	13.87	-31.8	-32.4	25.7	0.00e+00	0	37	0	952107008	36	5992
2026-01-08 04:19:18.66	149.47	13.97	-31.8	-32.4	25.6	0.00e+00	0	37	0	959447040	36	6032
2026-01-08 04:19:19.67	149.46	14.07	-32.0	-32.7	25.4	0.00e+00	0	37	0	966787072	36	6178
2026-01-08 04:19:20.68	149.45	14.18	-31.5	-32.2	25.9	0.00e+00	0	37	0	974127104	36	5831
2026-01-08 04:19:21.69	149.43	14.28	-31.4	-32.0	26.0	0.00e+00	0	37	0	981467136	36	5732
2026-01-08 04:19:22.70	149.42	14.39	-31.5	-32.1	25.9	0.00e+00	0	37	0	988807168	36	5805
2026-01-08 04:19:23.71	149.41	14.49	-31.2	-31.8	26.1	0.00e+00	0	37	0	996147200	36	5619
2026-01-08 04:19:24.72	149.39	14.60	-31.2	-31.8	26.1	0.00e+00	0	37	0	1003487232	36	5624
2026-01-08 04:19:25.72	149.38	14.70	-31.2	-31.8	26.2	0.00e+00	0	37	0	1010827264	36	5603
2026-01-08 04:19:26.73	149.37	14.81	-31.2	-31.8	26.1	0.00e+00	0	37	0	1018167296	36	5629
2026-01-08 04:19:27.74	149.35	14.92	-31.2	-31.9	26.1	0.00e+00	0	37	0	1025507328	36	5636
2026-01-08 04:19:28.75	149.34	15.03	-31.1	-31.7	26.2	0.00e+00	0	37	0	1032847360	36	5528
2026-01-08 04:19:29.76	149.33	15.13	-31.1	-31.7	26.2	0.00e+00	0	37	0	1040187392	36	5555
2026-01-08 04:19:30.77	149.31	15.24	-31.3	-31.9	26.1	0.00e+00	0	37	0	1046478848	36	5660
2026-01-08 04:19:31.78	149.30	15.35	-31.0	-31.7	26.3	0.00e+00	0	37	0	1054867456	36	5524
2026-01-08 04:19:32.79	149.28	15.46	-31.0	-31.6	26.3	0.00e+00	0	37	0	1062207488	36	5499
2026-01-08 04:19:33.80	149.27	15.57	-30.8	-31.5	26.4	0.00e+00	0	37	0	1068498944	36	5385
2026-01-08 04:19:34.81	149.26	15.68	-31.1	-31.7	26.4	0.00e+00	0	37	0	1075838976	36	5507
2026-01-08 04:19:35.83	149.24	15.80	-30.9	-31.5	26.4	0.00e+00	0	37	0	1083179008	36	5416
2026-01-08 04:19:36.84	149.23	15.91	-30.9	-31.5	26.4	0.00e+00	0	37	0	1090519040	36	5412
2026-01-08 04:19:37.85	149.21	16.02	-31.0	-31.7	26.3	0.00e+00	0	37	0	1097859072	36	5503
2026-01-08 04:19:38.86	149.20	16.13	-30.9	-31.5	26.4	0.00e+00	0	37	0	1105199104	36	5428
2026-01-08 04:19:39.87	149.18	16.25	-30.8	-31.5	26.4	0.00e+00	0	37	0	1112539136	36	5378
2026-01-08 04:19:40.88	149.17	16.36	-30.9	-31.6	26.4	0.00e+00	0	37	0	1119879168	36	5445
2026-01-08 04:19:41.88	149.15	16.47	-30.6	-31.2	26.7	0.00e+00	0	37	0	1127219200	34	5865
2026-01-08 04:19:42.89	149.14	16.59	-30.4	-31.0	26.8	0.00e+00	0	37	0	1134559232	34	5750
2026-01-08 04:19:43.90	149.12	16.70	-30.4	-31.1	26.8	0.00e+00	0	37	0	1141899264	34	5770
2026-01-08 04:19:44.91	149.11	16.82	-30.5	-31.1	26.7	0.00e+00	0	37	0	1149239296	34	5815
2026-01-08 04:19:45.92	149.09	16.94	-30.4	-31.0	26.8	0.00e+00	0	37	0	1156579328	34	5736
2026-01-08 04:19:46.93	149.07	17.05	-30.4	-31.0	26.9	0.00e+00	0	37	0	1163919360	34	5718
2026-01-08 04:19:47.94	149.06	17.17	-30.4	-31.0	26.9	0.00e+00	0	37	0	1171259392	34	5737
2026-01-08 04:19:48.95	149.04	17.29	-30.2	-30.9	26.9	0.00e+00	0	37	0	1178599424	34	5636
2026-01-08 04:19:49.96	149.02	17.41	-30.3	-30.9	26.9	0.00e+00	0	37	0	1185939456	34	5678
2026-01-08 04:19:50.97	149.01	17.53	-30.3	-30.9	26.9	0.00e+00	0	37	0	1193279488	34	5653
2026-01-08 04:19:51.97	148.99	17.65	-30.4	-31.0	26.9	0.00e+00	0	37	0	1199570944	34	5750
2026-01-08 04:19:52.98	148.97	17.77	-30.2	-30.8	27.0	0.00e+00	0	37	0	1207959552	34	5619
2026-01-08 04:19:53.99	148.96	17.89	-30.0	-30.7	27.2	0.00e+00	0	37	0	1215299584	34	5505
2026-01-08 04:19:55.00	148.94	18.01	-30.1	-30.7	27.2	0.00e+00	0	37	0	1221591040	34	5540
2026-01-08 04:19:56.01	148.92	18.13	-30.0	-30.6	27.2	0.00e+00	0	37	0	1228931072	34	5475
2026-01-08 04:19:57.02	148.90	18.25	-30.1	-30.7	27.1	0.00e+00	0	37	0	1236271104	34	5551
2026-01-08 04:19:58.03	148.89	18.38	-30.0	-30.6	27.2	0.00e+00	0	37	0	1243611136	34	5464
2026-01-08 04:19:59.04	148.87	18.50	-30.0	-30.6	27.2	0.00e+00	0	37	0	1250951168	34	5465
2026-01-08 04:20:00.05	148.85	18.63	-30.0	-30.6	27.2	0.00e+00	0	37	0	1258291200	34	5475
2026-01-08 04:20:01.06	148.83	18.75	-30.1	-30.7	27.1	0.00e+00	0	37	0	1265631232	34	5512
2026-01-08 04:20:02.07	148.81	18.88	-30.0	-30.6	27.2	0.00e+00	0	37	0	1272971264	34	5476
2026-01-08 04:20:03.08	148.80	19.01	-30.1	-30.7	27.0	0.00e+00	0	37	0	1280311296	34	5551
2026-01-08 04:20:04.09	148.78	19.13	-30.1	-30.7	27.1	0.00e+00	0	37	0	1287651328	34	5525
2026-01-08 04:20:05.10	148.76	19.26	-30.0	-30.6	27.1	0.00e+00	0	37	0	1294991360	34	5479
2026-01-08 04:20:06.11	148.74	19.39	-30.3	-30.9	26.9	0.00e+00	0	37	0	1302331392	34	5688
2026-01-08 04:20:07.12	148.72	19.52	-30.4	-31.0	26.9	0.00e+00	0	37	0	1309671424	34	5698
2026-01-08 04:20:08.13	148.70	19.65	-30.3	-30.9	27.0	0.00e+00	0	37	0	1317011456	34	5691
2026-01-08 04:20:09.14	148.68	19.78	-30.4	-31.0	26.9	0.00e+00	0	37	0	1324351488	34	5743
2026-01-08 04:20:10.15	148.66	19.91	-30.5	-31.1	26.9	0.00e+00	0	37	0	1331691520	34	5784
2026-01-08 04:20:11.16	148.64	20.04	-30.0	-30.6	27.2	0.00e+00	0	37	0	1339031552	34	5480
2026-01-08 04:20:12.17	148.62	20.18	-30.0	-30.6	27.3	0.00e+00	0	37	0	1346371584	34	5468
2026-01-08 04:20:13.18	148.60	20.31	-29.9	-30.5	27.3	0.00e+00	0	37	0	1353711616	34	5397
2026-01-08 04:20:14.19	148.58	20.44	-30.1	-30.7	27.2	0.00e+00	0	37	0	1361051648	34	5515
2026-01-08 04:20:15.20	148.56	20.58	-29.9	-30.5	27.4	0.00e+00	0	37	0	1368391680	34	5392
2026-01-08 04:20:16.21	148.53	20.71	-29.9	-30.5	27.3	0.00e+00	0	37	0	1374683136	34	5429
2026-01-08 04:20:17.22	148.51	20.85	-29.9	-30.5	27.3	0.00e+00	0	37	0	1382023168	34	5409
2026-01-08 04:20:18.23	148.49	20.99	-29.9	-30.5	27.3	0.00e+00	0	37	0	1389363200	34	5422
2026-01-08 04:20:19.24	148.47	21.13	-30.0	-30.6	27.3	0.00e+00	0	37	0	1396703232	34	5449
2026-01-08 04:20:20.25	148.45	21.26	-29.9	-30.6	27.2	0.00e+00	0	37	0	1404043264	34	5440
2026-01-08 04:20:21.25	148.43	21.40	-29.9	-30.5	27.4	0.00e+00	0	37	0	1411383296	34	5400
2026-01-08 04:20:22.26	148.40	21.54	-29.9	-30.5	27.3	0.00e+00	0	37	0	1418723328	34	5409
2026-01-08 04:20:23.27	148.38	21.68	-29.9	-30.5	27.4	0.00e+00	0	37	0	1426063360	34	5413
2026-01-08 04:20:24.28	148.36	21.82	-30.1	-30.7	27.1	0.00e+00	0	37	0	1433403392	34	5540
2026-01-08 04:20:25.29	148.33	21.97	-30.0	-30.6	27.3	0.00e+00	0	37	0	1440743424	34	5452
2026-01-08 04:20:26.30	148.31	22.11	-29.9	-30.5	27.4	0.00e+00	0	37	0	1448083456	34	5396
2026-01-08 04:20:27.31	148.29	22.25	-29.9	-30.5	27.4	0.00e+00	0	37	0	1455423488	34	5392
2026-01-08 04:20:28.32	148.26	22.40	-30.0	-30.6	27.4	0.00e+00	0	37	0	1462763520	34	5464
2026-01-08 04:20:29.33	148.24	22.54	-29.8	-30.4	27.6	0.00e+00	0	37	0	1470103552	34	5329
2026-01-08 04:20:30.34	148.21	22.69	-29.9	-30.5	27.4	0.00e+00	0	37	0	1477443584	34	5408
2026-01-08 04:20:31.35	148.19	22.84	-30.0	-30.6	27.3	0.00e+00	0	37	0	1484783616	34	5489
2026-01-08 04:20:32.36	148.16	22.99	-30.1	-30.7	27.3	0.00e+00	0	37	0	1492123648	34	5516
2026-01-08 04:20:33.37	148.14	23.14	-29.7	-30.3	27.6	0.00e+00	0	37	0	1498415104	32	5908
2026-01-08 04:20:34.38	148.11	23.29	-29.8	-30.4	27.5	0.00e+00	0	37	0	1506803712	32	5998
2026-01-08 04:20:35.39	148.09	23.44	-29.6	-30.2	27.6	0.00e+00	0	37	0	1514143744	32	5878
2026-01-08 04:20:36.40	148.06	23.59	-29.6	-30.2	27.7	0.00e+00	0	37	0	1520435200	32	5839
2026-01-08 04:20:37.41	148.03	23.74	-29.5	-30.1	27.6	0.00e+00	0	37	0	1527775232	32	5789
2026-01-08 04:20:38.42	148.01	23.89	-29.4	-30.0	27.8	0.00e+00	0	37	0	1535115264	32	5739
2026-01-08 04:20:39.43	147.98	24.05	-29.5	-30.1	27.7	0.00e+00	0	37	0	1542455296	32	5770
2026-01-08 04:20:40.44	147.95	24.20	-29.3	-29.9	27.8	0.00e+00	0	37	0	1549795328	32	5665
2026-01-08 04:20:41.44	147.92	24.36	-29.2	-29.8	27.9	0.00e+00	0	37	0	1557135360	32	5582
2026-01-08 04:20:42.45	147.90	24.52	-29.3	-29.9	27.9	0.00e+00	0	37	0	1564475392	32	5650
2026-01-08 04:20:43.46	147.87	24.67	-29.1	-29.7	27.8	0.00e+00	0	37	0	1571815424	32	5556
2026-01-08 04:20:44.47	147.84	24.83	-29.2	-29.8	28.0	0.00e+00	0	37	0	1579155456	32	5594
2026-01-08 04:20:45.48	147.81	24.99	-29.0	-29.6	28.1	0.00e+00	0	37	0	1586495488	32	5488
2026-01-08 04:20:46.49	147.78	25.15	-29.1	-29.7	28.1	0.00e+00	0	37	0	1593835520	32	5515
2026-01-08 04:20:47.50	147.75	25.31	-29.0	-29.6	28.1	0.00e+00	0	37	0	1601175552	32	5450
2026-01-08 04:20:48.51	147.72	25.48	-28.9	-29.5	28.2	0.00e+00	0	37	0	1608515584	32	5410
2026-01-08 04:20:49.52	147.69	25.64	-28.9	-29.5	28.2	0.00e+00	0	37	0	1615855616	32	5394
2026-01-08 04:20:50.52	147.66	25.80	-28.8	-29.4	28.2	0.00e+00	0	37	0	1623195648	32	5358
2026-01-08 04:20:51.53	147.63	25.97	-28.9	-29.4	28.2	0.00e+00	0	37	0	1630535680	30	6021
2026-01-08 04:20:52.54	147.60	26.14	-28.9	-29.4	28.2	0.00e+00	0	37	0	1637875712	30	6027
2026-01-08 04:20:53.55	147.57	26.31	-28.9	-29.5	28.1	0.00e+00	0	37	0	1645215744	30	6037
2026-01-08 04:20:54.56	147.54	26.47	-28.8	-29.3	28.3	0.00e+00	0	37	0	1651507200	30	5961
2026-01-08 04:20:55.57	147.50	26.64	-28.8	-29.4	28.3	0.00e+00	0	37	0	1658847232	30	5990
2026-01-08 04:20:56.58	147.47	26.82	-28.7	-29.3	28.4	0.00e+00	0	37	0	1667235840	30	5898
2026-01-08 04:20:57.59	147.44	26.99	-28.9	-29.5	28.3	0.00e+00	0	37	0	1673527296	30	6043
2026-01-08 04:20:58.60	147.40	27.16	-28.8	-29.4	28.2	0.00e+00	0	37	0	1680867328	30	6025
2026-01-08 04:20:59.61	147.37	27.34	-28.8	-29.4	28.3	0.00e+00	0	37	0	1688207360	30	6004
2026-01-08 04:21:00.62	147.33	27.51	-28.9	-29.5	28.2	0.00e+00	0	37	0	1695547392	30	6076
2026-01-08 04:21:01.63	147.30	27.69	-28.8	-29.4	28.3	0.00e+00	0	37	0	1702887424	30	6030
2026-01-08 04:21:02.64	147.26	27.86	-28.9	-29.5	28.2	0.00e+00	0	37	0	1710227456	30	6045
2026-01-08 04:21:03.65	147.23	28.04	-28.9	-29.5	28.3	0.00e+00	0	37	0	1717567488	30	6053
2026-01-08 04:21:04.66	147.19	28.22	-28.9	-29.5	28.2	0.00e+00	0	37	0	1724907520	30	6059
2026-01-08 04:21:05.67	147.16	28.40	-28.8	-29.4	28.2	0.00e+00	0	37	0	1732247552	30	6013
2026-01-08 04:21:06.68	147.12	28.59	-28.9	-29.5	28.2	0.00e+00	0	37	0	1739587584	30	6068
2026-01-08 04:21:07.69	147.08	28.77	-29.0	-29.6	28.1	0.00e+00	0	37	0	1746927616	30	6104
2026-01-08 04:21:08.70	147.04	28.95	-28.8	-29.4	28.3	0.00e+00	0	37	0	1754267648	30	5994
2026-01-08 04:21:09.71	147.00	29.14	-29.0	-29.6	28.1	0.00e+00	0	37	0	1761607680	30	6151
2026-01-08 04:21:10.72	146.97	29.33	-28.9	-29.5	28.2	0.00e+00	0	37	0	1768947712	30	6053
2026-01-08 04:21:11.73	146.93	29.52	-28.7	-29.3	28.3	0.00e+00	0	37	0	1775239168	30	5927
2026-01-08 04:21:12.73	146.89	29.70	-28.7	-29.3	28.5	0.00e+00	0	37	0	1783627776	30	5899
2026-01-08 04:21:13.74	146.85	29.89	-28.5	-29.1	28.5	0.00e+00	0	37	0	1790967808	30	5801
2026-01-08 04:21:14.75	146.80	30.09	-28.6	-29.2	28.4	0.00e+00	0	37	0	1797259264	30	5873
2026-01-08 04:21:15.76	146.76	30.28	-28.5	-29.1	28.5	0.00e+00	0	37	0	1804599296	30	5821
2026-01-08 04:21:16.77	146.72	30.47	-28.5	-29.1	28.4	0.00e+00	0	37	0	1811939328	30	5779
2026-01-08 04:21:17.78	146.68	30.67	-28.6	-29.2	28.5	0.00e+00	0	37	0	1819279360	30	5873
2026-01-08 04:21:18.79	146.64	30.87	-28.7	-29.2	28.5	0.00e+00	0	37	0	1826619392	30	5895
2026-01-08 04:21:19.80	146.59	31.07	-28.6	-29.2	28.4	0.00e+00	0	37	0	1833959424	30	5885
2026-01-08 04:21:20.81	146.55	31.27	-28.7	-29.3	28.4	0.00e+00	0	37	0	1841299456	30	5958
2026-01-08 04:21:21.82	146.50	31.47	-28.9	-29.5	28.3	0.00e+00	0	37	0	1848639488	30	6046
2026-01-08 04:21:22.83	146.46	31.67	-28.9	-29.5	28.2	0.00e+00	0	37	0	1855979520	30	6082
2026-01-08 04:21:23.83	146.41	31.87	-28.9	-29.5	28.3	0.00e+00	0	37	0	1863319552	30	6081
2026-01-08 04:21:24.84	146.36	32.08	-29.0	-29.6	28.0	0.00e+00	0	37	0	1870659584	30	6112
2026-01-08 04:21:25.85	146.32	32.28	-29.1	-29.7	28.1	0.00e+00	0	37	0	1877999616	30	6178
2026-01-08 04:21:26.86	146.27	32.49	-29.0	-29.6	28.1	0.00e+00	0	37	0	1885339648	30	6115
2026-01-08 04:21:27.87	146.22	32.70	-29.1	-29.7	28.1	0.00e+00	0	37	0	1892679680	30	6231
2026-01-08 04:21:28.88	146.17	32.91	-28.9	-29.5	28.3	0.00e+00	0	37	0	1900019712	30	6039
2026-01-08 04:21:29.89	146.12	33.13	-28.8	-29.4	28.4	0.00e+00	0	37	0	1907359744	30	5976
2026-01-08 04:21:30.90	146.07	33.34	-28.8	-29.4	28.3	0.00e+00	0	37	0	1914699776	30	5988
2026-01-08 04:21:31.91	146.02	33.55	-28.9	-29.4	28.2	0.00e+00	0	37	0	1922039808	30	6028
2026-01-08 04:21:32.92	145.97	33.77	-29.0	-29.6	28.2	0.00e+00	0	37	0	1928331264	30	6143
2026-01-08 04:21:33.93	145.91	33.99	-29.1	-29.7	28.1	0.00e+00	0	37	0	1936719872	30	6174
2026-01-08 04:21:34.94	145.86	34.21	-28.9	-29.5	28.1	0.00e+00	0	37	0	1944059904	30	6069
2026-01-08 04:21:35.95	145.80	34.43	-29.1	-29.7	28.1	0.00e+00	0	37	0	1950351360	30	6207
2026-01-08 04:21:36.96	145.75	34.65	-29.0	-29.6	28.3	0.00e+00	0	37	0	1957691392	30	6125
2026-01-08 04:21:37.96	145.69	34.88	-28.9	-29.5	28.3	0.00e+00	0	37	0	1965031424	30	6039
2026-01-08 04:21:38.97	145.64	35.10	-28.9	-29.4	28.3	0.00e+00	0	37	0	1972371456	30	6032
2026-01-08 04:21:39.99	145.58	35.33	-28.7	-29.3	28.4	0.00e+00	0	37	0	1979711488	30	5933
2026-01-08 04:21:40.99	145.52	35.56	-28.6	-29.2	28.5	0.00e+00	0	37	0	1987051520	30	5884
2026-01-08 04:21:42.00	145.46	35.79	-28.8	-29.4	28.4	0.00e+00	0	37	0	1994391552	30	5979
2026-01-08 04:21:43.01	145.40	36.02	-28.8	-29.4	28.3	0.00e+00	0	37	0	2001731584	30	6006
2026-01-08 04:21:44.02	145.34	36.26	-28.9	-29.5	28.3	0.00e+00	0	37	0	2009071616	30	6063
2026-01-08 04:21:45.03	145.28	36.49	-29.0	-29.6	28.1	0.00e+00	0	37	0	2016411648	30	6139
2026-01-08 04:21:46.04	145.21	36.73	-29.0	-29.6	28.1	0.00e+00	0	37	0	2023751680	30	6153
2026-01-08 04:21:47.05	145.15	36.97	-29.3	-29.9	27.9	0.00e+00	0	37	0	2031091712	30	6374
2026-01-08 04:21:48.06	145.08	37.21	-29.1	-29.7	28.0	0.00e+00	0	37	0	2038431744	30	6180
2026-01-08 04:21:49.07	145.02	37.46	-29.2	-29.8	28.0	0.00e+00	0	37	0	2045771776	30	6276
2026-01-08 04:21:50.08	144.95	37.70	-29.2	-29.8	28.0	0.00e+00	0	37	0	2053111808	30	6316
2026-01-08 04:21:51.08	144.88	37.94	-29.1	-29.7	28.1	0.00e+00	0	37	0	2060451840	30	6234
2026-01-08 04:21:52.09	144.81	38.19	-29.2	-29.8	28.0	0.00e+00	0	37	0	2067791872	30	6268
2026-01-08 04:21:53.10	144.74	38.44	-29.1	-29.7	28.1	0.00e+00	0	37	0	2074083328	30	6198
2026-01-08 04:21:54.11	144.67	38.69	-29.2	-29.8	28.1	0.00e+00	0	37	0	2081423360	30	6256
2026-01-08 04:21:55.13	144.60	38.95	-29.1	-29.7	28.1	0.00e+00	0	37	0	2088763392	30	6221
2026-01-08 04:21:56.13	144.52	39.20	-29.2	-29.8	28.1	0.00e+00	0	37	0	2096103424	30	6272
2026-01-08 04:21:57.14	144.45	39.46	-29.1	-29.7	28.2	0.00e+00	0	37	0	2103443456	30	6234
2026-01-08 04:21:58.15	144.37	39.72	-29.1	-29.7	28.3	0.00e+00	0	37	0	2110783488	30	6188
2026-01-08 04:21:59.16	144.29	39.98	-29.2	-29.8	28.1	0.00e+00	0	37	0	2118123520	30	6265
2026-01-08 04:22:00.17	144.21	40.24	-29.1	-29.7	28.2	0.00e+00	0	37	0	2125463552	30	6207
2026-01-08 04:22:01.18	144.13	40.51	-29.0	-29.5	28.2	0.00e+00	0	37	0	2132803584	30	6099
2026-01-08 04:22:02.19	144.05	40.77	-29.0	-29.6	28.2	0.00e+00	0	37	0	2140143616	30	6107
2026-01-08 04:22:03.20	143.97	41.04	-29.0	-29.6	28.1	0.00e+00	0	37	0	2147483648	30	6131
2026-01-08 04:22:04.21	143.88	41.31	-29.0	-29.5	28.0	0.00e+00	0	37	0	2154823680	30	6103
2026-01-08 04:22:05.22	143.80	41.58	-28.9	-29.4	28.3	0.00e+00	0	37	0	2162163712	30	6033
2026-01-08 04:22:06.23	143.71	41.86	-29.0	-29.5	28.3	0.00e+00	0	37	0	2169503744	30	6096
2026-01-08 04:22:07.24	143.62	42.14	-28.7	-29.3	28.4	0.00e+00	0	37	0	2176843776	30	5932
2026-01-08 04:22:08.25	143.53	42.41	-28.8	-29.4	28.4	0.00e+00	0	37	0	2184183808	30	5971
2026-01-08 04:22:09.26	143.43	42.69	-28.8	-29.4	28.3	0.00e+00	0	37	0	2191523840	30	5979
2026-01-08 04:22:10.27	143.34	42.98	-28.9	-29.5	28.2	0.00e+00	0	37	0	2198863872	30	6044
2026-01-08 04:22:11.28	143.24	43.26	-29.0	-29.5	28.2	0.00e+00	0	37	0	2206203904	30	6097
2026-01-08 04:22:12.29	143.15	43.55	-29.1	-29.7	28.1	0.00e+00	0	37	0	2213543936	30	6209
2026-01-08 04:22:13.30	143.05	43.83	-29.2	-29.8	28.1	0.00e+00	0	37	0	2220883968	30	6283
2026-01-08 04:22:14.31	142.94	44.13	-29.4	-30.0	28.0	0.00e+00	0	37	0	2227175424	30	6399
2026-01-08 04:22:15.32	142.84	44.42	-29.7	-30.3	27.7	0.00e+00	0	37	0	2234515456	30	6621
2026-01-08 04:22:16.33	142.74	44.71	-29.7	-30.3	27.7	0.00e+00	0	37	0	2242904064	30	6625
2026-01-08 04:22:17.34	142.63	45.01	-29.8	-30.4	27.7	0.00e+00	0	37	0	2249195520	32	6003
2026-01-08 04:22:18.35	142.52	45.31	-29.9	-30.5	27.6	0.00e+00	0	37	0	2256535552	32	6071
2026-01-08 04:22:19.36	142.41	45.61	-29.8	-30.4	27.7	0.00e+00	0	37	0	2263875584	32	6002
2026-01-08 04:22:20.37	142.29	45.91	-29.4	-30.0	27.6	0.00e+00	0	37	0	2271215616	32	5708
2026-01-08 04:22:21.38	142.18	46.22	-29.8	-30.4	27.7	0.00e+00	0	37	0	2278555648	32	5992
2026-01-08 04:22:22.39	142.06	46.52	-29.7	-30.3	27.6	0.00e+00	0	37	0	2285895680	32	5935
2026-01-08 04:22:23.40	141.94	46.83	-29.8	-30.3	27.7	0.00e+00	0	37	0	2293235712	32	5949
2026-01-08 04:22:24.41	141.81	47.15	-29.7	-30.3	27.8	0.00e+00	0	37	0	2300575744	32	5933
2026-01-08 04:22:25.42	141.69	47.46	-29.9	-30.5	27.7	0.00e+00	0	37	0	2307915776	32	6047
2026-01-08 04:22:26.43	141.56	47.78	-30.1	-30.6	27.3	0.00e+00	0	37	0	2315255808	32	6173
2026-01-08 04:22:27.44	141.43	48.09	-30.3	-30.9	27.4	0.00e+00	0	37	0	2322595840	32	6346
2026-01-08 04:22:28.44	141.29	48.41	-30.3	-30.9	27.2	0.00e+00	0	37	0	2329935872	32	6365
2026-01-08 04:22:29.45	141.15	48.73	-30.4	-31.0	27.1	0.00e+00	0	37	0	2337275904	32	6410
2026-01-08 04:22:30.46	141.01	49.06	-30.5	-31.1	27.0	0.00e+00	0	37	0	2344615936	34	5777
2026-01-08 04:22:31.47	140.87	49.38	-30.4	-31.0	27.1	0.00e+00	0	37	0	2350907392	34	5754
2026-01-08 04:22:32.48	140.72	49.71	-30.3	-30.9	27.3	0.00e+00	0	37	0	2359296000	34	5669
2026-01-08 04:22:33.49	140.58	50.04	-30.2	-30.8	27.2	0.00e+00	0	37	0	2366636032	34	5624
2026-01-08 04:22:34.50	140.42	50.38	-30.2	-30.8	27.3	0.00e+00	0	37	0	2372927488	34	5616
2026-01-08 04:22:35.51	140.27	50.71	-30.3	-30.9	27.2	0.00e+00	0	37	0	2380267520	34	5664
2026-01-08 04:22:36.52	140.10	51.05	-30.3	-30.9	27.3	0.00e+00	0	37	0	2387607552	34	5638
2026-01-08 04:22:37.53	139.94	51.39	-30.1	-30.7	27.1	0.00e+00	0	37	0	2394947584	34	5542
2026-01-08 04:22:38.54	139.77	51.73	-30.3	-30.9	27.3	0.00e+00	0	37	0	2402287616	34	5638
2026-01-08 04:22:39.55	139.60	52.08	-30.3	-30.9	27.2	0.00e+00	0	37	0	2409627648	34	5658
2026-01-08 04:22:40.56	139.43	52.42	-30.5	-31.1	27.1	0.00e+00	0	37	0	2416967680	34	5803
2026-01-08 04:22:41.57	139.24	52.77	-30.3	-30.9	27.1	0.00e+00	0	37	0	2424307712	34	5652
2026-01-08 04:22:42.58	139.06	53.12	-30.4	-31.0	26.9	0.00e+00	0	37	0	2431647744	34	5731
2026-01-08 04:22:43.59	138.87	53.48	-30.5	-31.1	27.0	0.00e+00	0	37	0	2438987776	34	5778
2026-01-08 04:22:44.60	138.68	53.83	-30.4	-31.0	27.0	0.00e+00	0	37	0	2446327808	34	5742
2026-01-08 04:22:45.61	138.48	54.19	-30.4	-31.1	26.9	0.00e+00	0	37	0	2453667840	34	5768
2026-01-08 04:22:46.62	138.27	54.55	-30.6	-31.2	27.0	0.00e+00	0	37	0	2461007872	34	5846
2026-01-08 04:22:47.63	138.06	54.91	-30.1	-30.7	27.3	0.00e+00	0	37	0	2468347904	34	5538
2026-01-08 04:22:48.64	137.85	55.27	-30.1	-30.6	27.2	0.00e+00	0	37	0	2475687936	34	5502
2026-01-08 04:22:49.65	137.63	55.64	-30.2	-30.8	27.3	0.00e+00	0	37	0	2483027968	34	5604
2026-01-08 04:22:50.66	137.40	56.01	-30.6	-31.2	27.0	0.00e+00	0	37	0	2490368000	34	5841
2026-01-08 04:22:51.67	137.17	56.38	-30.9	-31.5	26.3	0.00e+00	0	37	0	2497708032	34	6088
2026-01-08 04:22:52.68	136.93	56.75	-30.9	-31.5	26.6	0.00e+00	0	37	0	2505048064	34	6095
2026-01-08 04:22:53.69	136.69	57.12	-30.8	-31.4	26.8	0.00e+00	0	37	0	2512388096	34	5980
2026-01-08 04:22:54.70	136.43	57.50	-30.8	-31.4	26.7	0.00e+00	0	37	0	2519728128	34	6032
2026-01-08 04:22:55.71	136.17	57.88	-30.4	-31.0	27.1	0.00e+00	0	37	0	2526019584	34	5754
2026-01-08 04:22:56.72	135.91	58.26	-30.5	-31.1	26.9	0.00e+00	0	37	0	2533359616	34	5785
2026-01-08 04:22:57.73	135.63	58.64	-30.6	-31.2	27.0	0.00e+00	0	37	0	2541748224	34	5854
2026-01-08 04:22:58.74	135.35	59.02	-30.5	-31.1	27.0	0.00e+00	0	37	0	2548039680	34	5794
2026-01-08 04:22:59.75	135.06	59.40	-30.8	-31.4	26.7	0.00e+00	0	37	0	2555379712	34	5984
2026-01-08 04:23:00.76	134.75	59.79	-30.9	-31.6	26.7	0.00e+00	0	37	0	2562719744	34	6112
2026-01-08 04:23:01.77	134.44	60.18	-30.5	-31.1	27.1	0.00e+00	0	37	0	2570059776	34	5766
2026-01-08 04:23:02.78	134.13	60.57	-30.1	-30.7	27.4	0.00e+00	0	37	0	2577399808	34	5553
2026-01-08 04:23:03.79	133.80	60.96	-29.9	-30.5	27.5	0.00e+00	0	37	0	2584739840	34	5409
2026-01-08 04:23:04.80	133.46	61.35	-30.0	-30.6	27.4	0.00e+00	0	37	0	2592079872	34	5455
2026-01-08 04:23:05.81	133.10	61.75	-29.9	-30.5	27.5	0.00e+00	0	37	0	2599419904	34	5387
2026-01-08 04:23:06.82	132.74	62.14	-30.4	-31.0	27.4	0.00e+00	0	37	0	2606759936	32	6398
2026-01-08 04:23:07.83	132.37	62.54	-29.7	-30.3	27.4	0.00e+00	0	37	0	2614099968	32	5944
2026-01-08 04:23:08.84	131.98	62.94	-29.5	-30.1	27.8	0.00e+00	0	37	0	2621440000	32	5787
2026-01-08 04:23:09.85	131.58	63.34	-29.2	-29.8	27.9	0.00e+00	0	37	0	2628780032	32	5599
2026-01-08 04:23:10.86	131.16	63.74	-29.3	-29.9	27.9	0.00e+00	0	37	0	2636120064	32	5664
2026-01-08 04:23:11.87	130.74	64.14	-29.6	-30.2	27.7	0.00e+00	0	37	0	2643460096	32	5867
2026-01-08 04:23:12.88	130.29	64.54	-29.2	-29.8	28.0	0.00e+00	0	37	0	2650800128	32	5621
2026-01-08 04:23:13.89	129.83	64.94	-28.9	-29.5	28.2	0.00e+00	0	37	0	2658140160	32	5378
2026-01-08 04:23:14.90	129.35	65.34	-28.8	-29.4	28.4	0.00e+00	0	37	0	2665480192	30	6004
2026-01-08 04:23:15.91	128.86	65.75	-28.6	-29.2	28.5	0.00e+00	0	37	0	2672820224	30	5863
2026-01-08 04:23:16.92	128.34	66.15	-28.7	-29.3	27.8	0.00e+00	0	37	0	2679111680	30	5910
2026-01-08 04:23:17.93	127.81	66.56	-29.4	-30.0	28.0	0.00e+00	0	37	0	2687500288	30	6459
2026-01-08 04:23:18.94	127.26	66.96	-29.1	-29.7	28.1	0.00e+00	0	37	0	2694840320	30	6235
2026-01-08 04:23:19.95	126.68	67.36	-29.0	-29.6	28.3	0.00e+00	0	37	0	2701131776	30	6111
2026-01-08 04:23:20.96	126.08	67.77	-29.0	-29.6	28.1	0.00e+00	0	37	0	2708471808	30	6134
2026-01-08 04:23:21.96	125.46	68.17	-28.9	-29.4	28.3	0.00e+00	0	37	0	2715811840	30	6030
2026-01-08 04:23:22.98	124.81	68.57	-28.5	-29.0	28.1	0.00e+00	0	37	0	2723151872	30	5742
2026-01-08 04:23:23.98	124.14	68.97	-29.2	-29.8	28.1	0.00e+00	0	37	0	2730491904	30	6269
2026-01-08 04:23:24.99	123.44	69.37	-29.3	-29.9	27.9	0.00e+00	0	37	0	2737831936	30	6384
2026-01-08 04:23:26.00	122.70	69.77	-29.6	-30.2	27.7	0.00e+00	0	37	0	2745171968	30	6594
2026-01-08 04:23:27.01	121.94	70.17	-29.8	-30.4	27.0	0.00e+00	0	37	0	2752512000	32	6008
2026-01-08 04:23:28.02	121.14	70.57	-30.1	-30.7	27.3	0.00e+00	0	37	0	2759852032	32	6241
2026-01-08 04:23:29.03	120.30	70.96	-29.5	-30.1	27.7	0.00e+00	0	37	0	2767192064	32	5791
2026-01-08 04:23:30.04	119.43	71.35	-29.5	-30.1	27.7	0.00e+00	0	37	0	2774532096	32	5775
2026-01-08 04:23:31.05	118.52	71.74	-29.1	-29.6	28.1	0.00e+00	0	37	0	2781872128	32	5502
2026-01-08 04:23:32.06	117.56	72.12	-29.0	-29.6	28.1	0.00e+00	0	37	0	2789212160	32	5482
2026-01-08 04:23:33.07	116.56	72.51	-29.3	-29.8	28.2	0.00e+00	0	37	0	2796552192	32	5627
2026-01-08 04:23:34.08	115.52	72.88	-28.8	-29.4	28.3	0.00e+00	0	37	0	2802843648	32	5349
2026-01-08 04:23:35.09	114.42	73.26	-28.6	-29.2	28.4	0.00e+00	0	37	0	2811232256	30	5852
2026-01-08 04:23:36.10	113.28	73.62	-28.4	-29.0	28.5	0.00e+00	0	37	0	2818572288	30	5723
2026-01-08 04:23:37.11	112.07	73.99	-28.5	-29.1	28.6	0.00e+00	0	37	0	2824863744	30	5790
2026-01-08 04:23:38.12	110.81	74.34	-29.0	-29.6	27.8	0.00e+00	0	37	0	2832203776	30	6160
2026-01-08 04:23:39.12	109.51	74.69	-29.1	-29.7	28.2	0.00e+00	0	37	0	2839543808	30	6190
2026-01-08 04:23:40.13	108.12	75.03	-28.7	-29.3	28.4	0.00e+00	0	37	0	2846883840	30	5897
2026-01-08 04:23:41.14	106.67	75.37	-28.5	-29.1	28.4	0.00e+00	0	37	0	2854223872	30	5800
2026-01-08 04:23:42.15	105.15	75.69	-28.1	-28.7	28.6	0.00e+00	0	37	0	2861563904	30	5551
2026-01-08 04:23:43.16	103.56	76.01	-28.1	-28.7	28.8	0.00e+00	0	37	0	2868903936	30	5503
2026-01-08 04:23:44.17	101.89	76.32	-28.1	-28.7	28.8	0.00e+00	0	37	0	2876243968	30	5522
2026-01-08 04:23:45.18	100.15	76.61	-28.5	-29.1	28.5	0.00e+00	0	37	0	2883584000	30	5793
2026-01-08 04:23:46.19	98.32	76.89	-28.4	-29.0	28.6	0.00e+00	0	37	0	2890924032	30	5711
2026-01-08 04:23:47.20	96.42	77.16	-28.3	-28.9	28.5	0.00e+00	0	37	0	2898264064	30	5647
2026-01-08 04:23:48.21	94.43	77.42	-27.6	-28.1	29.1	0.00e+00	0	37	0	2905604096	30	5185
2026-01-08 04:23:49.22	92.36	77.66	-27.4	-27.9	29.2	0.00e+00	0	37	0	2912944128	28	5681
2026-01-08 04:23:50.23	90.21	77.88	-27.6	-28.1	29.1	0.00e+00	0	37	0	2920284160	28	5826
2026-01-08 04:23:51.24	87.97	78.09	-27.9	-28.4	28.7	0.00e+00	0	37	0	2927624192	28	6031
2026-01-08 04:23:52.25	85.66	78.28	-27.9	-28.5	29.0	0.00e+00	0	37	0	2934964224	28	6036
2026-01-08 04:23:53.26	83.28	78.45	-27.6	-28.1	29.0	0.00e+00	0	37	0	2942304256	28	5815
2026-01-08 04:23:54.27	80.83	78.60	-27.6	-28.2	29.3	0.00e+00	0	37	0	2949644288	28	5837
2026-01-08 04:23:55.28	78.31	78.73	-27.5	-28.0	29.2	0.00e+00	0	37	0	2956984320	28	5746
2026-01-08 04:23:56.29	75.74	78.84	-28.0	-28.6	28.8	0.00e+00	0	37	0	2964324352	28	6113
2026-01-08 04:23:57.30	73.13	78.92	-28.2	-28.8	28.6	0.00e+00	0	37	0	2971664384	28	6301
2026-01-08 04:23:58.31	70.48	78.99	-27.8	-28.4	28.8	0.00e+00	0	37	0	2977955840	28	5985
2026-01-08 04:23:59.32	67.80	79.03	-27.5	-28.0	29.2	0.00e+00	0	37	0	2985295872	28	5750
2026-01-08 04:24:00.32	65.14	79.04	-27.1	-27.7	29.3	0.00e+00	0	37	0	2992635904	28	5533
2026-01-08 04:24:01.33	62.45	79.03	-27.1	-27.7	29.4	0.00e+00	0	37	0	2999975936	28	5549
2026-01-08 04:24:02.34	59.77	79.00	-27.2	-27.8	29.3	0.00e+00	0	37	0	3007315968	28	5580
2026-01-08 04:24:03.35	57.11	78.95	-27.4	-28.0	28.9	0.00e+00	0	37	0	3014656000	28	5717
2026-01-08 04:24:04.36	54.48	78.87	-27.7	-28.3	28.8	0.00e+00	0	37	0	3021996032	28	5914
2026-01-08 04:24:05.37	51.89	78.77	-27.7	-28.2	29.0	0.00e+00	0	37	0	3029336064	28	5890
2026-01-08 04:24:06.38	49.36	78.64	-27.4	-28.0	29.2	0.00e+00	0	37	0	3036676096	28	5729
2026-01-08 04:24:07.39	46.89	78.50	-27.3	-27.9	29.1	0.00e+00	0	37	0	3044016128	28	5660
2026-01-08 04:24:08.40	44.49	78.34	-27.3	-27.9	29.1	0.00e+00	0	37	0	3051356160	28	5640
2026-01-08 04:24:09.41	42.15	78.15	-27.8	-28.4	28.8	0.00e+00	0	37	0	3058696192	28	5967
2026-01-08 04:24:10.42	39.90	77.95	-27.7	-28.3	28.6	0.00e+00	0	37	0	3066036224	28	5938
2026-01-08 04:24:11.43	37.72	77.73	-27.5	-28.1	28.8	0.00e+00	0	37	0	3073376256	28	5768
2026-01-08 04:24:12.44	35.63	77.50	-27.6	-28.2	29.1	0.00e+00	0	37	0	3080716288	28	5849
2026-01-08 04:24:13.45	33.61	77.24	-27.9	-28.5	28.8	0.00e+00	0	37	0	3088056320	28	6049
2026-01-08 04:24:14.46	31.68	76.98	-28.2	-28.8	28.6	0.00e+00	0	37	0	3095396352	28	6275
2026-01-08 04:24:15.47	29.84	76.70	-28.2	-28.7	28.6	0.00e+00	0	37	0	3101687808	28	6233
2026-01-08 04:24:16.48	28.07	76.41	-28.0	-28.6	28.8	0.00e+00	0	37	0	3109027840	28	6160
2026-01-08 04:24:17.48	26.39	76.11	-28.1	-28.7	28.8	0.00e+00	0	37	0	3117416448	28	6198
2026-01-08 04:24:18.50	24.76	75.79	-28.5	-29.1	28.7	0.00e+00	0	37	0	3123707904	28	6480
2026-01-08 04:24:19.50	23.23	75.47	-28.5	-29.1	28.5	0.00e+00	0	37	0	3131047936	28	6520
2026-01-08 04:24:20.52	21.75	75.14	-28.7	-29.3	28.3	0.00e+00	0	37	0	3138387968	28	6619
2026-01-08 04:24:21.52	20.36	74.80	-28.5	-29.1	28.4	0.00e+00	0	37	0	3145728000	28	6504
2026-01-08 04:24:22.53	19.02	74.46	-28.8	-29.4	28.3	0.00e+00	0	37	0	3153068032	30	6007
2026-01-08 04:24:23.54	17.74	74.10	-28.7	-29.3	28.3	0.00e+00	0	37	0	3160408064	30	5907
2026-01-08 04:24:24.55	16.52	73.74	-28.7	-29.3	28.3	0.00e+00	0	37	0	3167748096	30	5918
2026-01-08 04:24:25.55	15.37	73.38	-28.5	-29.1	28.5	0.00e+00	0	37	0	3175088128	30	5773
2026-01-08 04:24:26.56	14.26	73.01	-28.7	-29.3	28.2	0.00e+00	0	37	0	3182428160	30	5947
2026-01-08 04:24:27.57	13.20	72.63	-29.1	-29.7	28.1	0.00e+00	0	37	0	3189768192	30	6231
2026-01-08 04:24:28.58	12.19	72.25	-29.1	-29.7	28.0	0.00e+00	0	37	0	3197108224	30	6225
2026-01-08 04:24:29.59	11.22	71.87	-29.1	-29.7	28.0	0.00e+00	0	37	0	3204448256	30	6209
2026-01-08 04:24:30.60	10.29	71.48	-29.2	-29.9	27.9	0.00e+00	0	37	0	3211788288	30	6329
2026-01-08 04:24:31.61	9.41	71.09	-29.3	-29.9	27.9	0.00e+00	0	37	0	3219128320	30	6372
2026-01-08 04:24:32.62	8.56	70.70	-29.2	-29.8	27.9	0.00e+00	0	37	0	3226468352	30	6246
2026-01-08 04:24:33.63	7.75	70.31	-28.9	-29.5	28.2	0.00e+00	0	37	0	3233808384	30	6038
2026-01-08 04:24:34.64	6.98	69.91	-28.8	-29.4	28.3	0.00e+00	0	37	0	3241148416	30	5972
2026-01-08 04:24:35.64	6.24	69.52	-29.1	-29.7	28.0	0.00e+00	0	37	0	3248488448	30	6219
2026-01-08 04:24:36.65	5.53	69.12	-29.1	-29.7	28.0	0.00e+00	0	37	0	3254779904	30	6233
2026-01-08 04:24:37.66	4.84	68.72	-29.1	-29.7	27.9	0.00e+00	0	37	0	3262119936	30	6243
2026-01-08 04:24:38.68	4.18	68.31	-29.0	-29.6	28.2	0.00e+00	0	37	0	3269459968	30	6163
2026-01-08 04:24:39.68	3.55	67.91	-29.1	-29.7	27.9	0.00e+00	0	37	0	3276800000	30	6177
2026-01-08 04:24:40.70	2.94	67.50	-29.1	-29.7	27.9	0.00e+00	0	37	0	3284140032	30	6218
2026-01-08 04:24:41.70	2.37	67.10	-28.9	-29.5	28.1	0.00e+00	0	37	0	3291480064	30	6050
2026-01-08 04:24:42.71	1.80	66.70	-28.7	-29.3	28.0	0.00e+00	0	37	0	3298820096	30	5904
2026-01-08 04:24:43.72	1.26	66.30	-28.8	-29.4	28.3	0.00e+00	0	37	0	3306160128	30	5991
2026-01-08 04:24:44.73	0.75	65.89	-29.1	-29.7	28.0	0.00e+00	0	37	0	3313500160	30	6231
2026-01-08 04:24:45.74	0.24	65.49	-29.2	-29.8	27.8	0.00e+00	0	37	0	3320840192	30	6303
2026-01-08 04:24:46.75	359.76	65.09	-29.2	-29.8	27.9	0.00e+00	0	37	0	3328180224	30	6296
2026-01-08 04:24:47.76	359.30	64.69	-29.2	-29.8	28.1	0.00e+00	0	37	0	3335520256	30	6250
2026-01-08 04:24:48.77	358.85	64.29	-29.2	-29.8	28.0	0.00e+00	0	37	0	3342860288	30	6267
2026-01-08 04:24:49.78	358.41	63.89	-29.5	-30.1	27.6	0.00e+00	0	37	0	3350200320	30	6472
2026-01-08 04:24:50.79	357.99	63.49	-29.8	-30.4	27.5	0.00e+00	0	37	0	3357540352	30	6712
2026-01-08 04:24:51.80	357.59	63.09	-30.1	-30.7	27.1	0.00e+00	0	37	0	3364880384	32	6191
2026-01-08 04:24:52.81	357.20	62.69	-30.0	-30.6	27.3	0.00e+00	0	37	0	3372220416	32	6147
2026-01-08 04:24:53.82	356.82	62.29	-30.1	-30.7	27.1	0.00e+00	0	37	0	3378511872	32	6175
2026-01-08 04:24:54.82	356.46	61.90	-30.2	-30.8	27.2	0.00e+00	0	37	0	3385851904	32	6251
2026-01-08 04:24:55.84	356.10	61.50	-30.4	-31.0	27.1	0.00e+00	0	37	0	3394240512	32	6461
2026-01-08 04:24:56.85	355.76	61.11	-30.4	-31.0	26.8	0.00e+00	0	37	0	3400531968	32	6453
2026-01-08 04:24:57.86	355.42	60.72	-30.4	-31.0	26.9	0.00e+00	0	37	0	3407872000	32	6442
2026-01-08 04:24:58.86	355.10	60.34	-30.3	-30.9	27.1	0.00e+00	0	37	0	3415212032	32	6384
2026-01-08 04:24:59.88	354.79	59.94	-30.2	-30.8	27.2	0.00e+00	0	37	0	3422552064	32	6286
2026-01-08 04:25:00.88	354.49	59.56	-30.3	-30.9	27.0	0.00e+00	0	37	0	3429892096	32	6350
2026-01-08 04:25:01.89	354.19	59.18	-30.5	-31.1	26.9	0.00e+00	0	37	0	3437232128	32	6512
2026-01-08 04:25:02.90	353.91	58.79	-30.6	-31.2	27.0	0.00e+00	0	37	0	3444572160	32	6580
2026-01-08 04:25:03.92	353.63	58.41	-30.7	-31.3	26.6	0.00e+00	0	37	0	3451912192	32	6646
2026-01-08 04:25:04.92	353.36	58.03	-30.5	-31.1	26.8	0.00e+00	0	37	0	3459252224	34	5784
2026-01-08 04:25:05.93	353.10	57.66	-30.2	-30.8	27.2	0.00e+00	0	37	0	3466592256	34	5607
2026-01-08 04:25:06.94	352.84	57.28	-30.2	-30.8	27.3	0.00e+00	0	37	0	3473932288	34	5596
2026-01-08 04:25:07.95	352.60	56.91	-30.4	-31.0	26.9	0.00e+00	0	37	0	3481272320	34	5716
2026-01-08 04:25:08.96	352.36	56.54	-30.5	-31.1	26.7	0.00e+00	0	37	0	3488612352	34	5828
2026-01-08 04:25:09.97	352.12	56.17	-30.5	-31.1	27.0	0.00e+00	0	37	0	3495952384	34	5806
2026-01-08 04:25:10.98	351.89	55.80	-30.6	-31.2	26.8	0.00e+00	0	37	0	3503292416	34	5831
2026-01-08 04:25:11.99	351.67	55.43	-30.3	-30.9	27.1	0.00e+00	0	37	0	3510632448	34	5689
2026-01-08 04:25:13.00	351.45	55.07	-30.2	-30.8	26.8	0.00e+00	0	37	0	3517972480	34	5603
2026-01-08 04:25:14.01	351.24	54.71	-30.5	-31.1	27.0	0.00e+00	0	37	0	3525312512	34	5762
2026-01-08 04:25:15.02	351.04	54.35	-30.6	-31.2	27.0	0.00e+00	0	37	0	3531603968	34	5881
2026-01-08 04:25:16.03	350.84	53.99	-30.6	-31.2	26.4	0.00e+00	0	37	0	3539992576	34	5839
2026-01-08 04:25:17.04	350.64	53.64	-30.2	-30.8	27.2	0.00e+00	0	37	0	3547332608	34	5613
2026-01-08 04:25:18.05	350.45	53.29	-30.0	-30.6	26.6	0.00e+00	0	37	0	3553624064	34	5453
2026-01-08 04:25:19.06	350.26	52.93	-30.1	-30.7	27.1	0.00e+00	0	37	0	3560964096	34	5539
2026-01-08 04:25:20.07	350.08	52.59	-30.2	-30.8	26.7	0.00e+00	0	37	0	3568304128	34	5618
2026-01-08 04:25:21.08	349.91	52.24	-30.4	-31.0	27.1	0.00e+00	0	37	0	3575644160	34	5740
2026-01-08 04:25:22.09	349.73	51.90	-30.4	-31.0	27.0	0.00e+00	0	37	0	3582984192	34	5747
2026-01-08 04:25:23.10	349.56	51.55	-30.2	-30.8	26.9	0.00e+00	0	37	0	3590324224	34	5616
2026-01-08 04:25:24.10	349.40	51.22	-30.4	-31.0	27.1	0.00e+00	0	37	0	3597664256	34	5727
2026-01-08 04:25:25.11	349.24	50.88	-30.3	-30.9	26.8	0.00e+00	0	37	0	3605004288	34	5632
2026-01-08 04:25:26.12	349.08	50.54	-30.3	-30.9	27.1	0.00e+00	0	37	0	3612344320	34	5639
2026-01-08 04:25:27.14	348.93	50.21	-30.2	-30.9	27.0	0.00e+00	0	37	0	3619684352	34	5637
2026-01-08 04:25:28.14	348.78	49.88	-30.2	-30.8	27.1	0.00e+00	0	37	0	3627024384	34	5604
2026-01-08 04:25:29.16	348.63	49.55	-30.0	-30.6	27.4	0.00e+00	0	37	0	3634364416	34	5492
2026-01-08 04:25:30.16	348.49	49.22	-29.9	-30.5	27.5	0.00e+00	0	37	0	3641704448	34	5378
2026-01-08 04:25:31.17	348.34	48.90	-30.0	-30.6	27.4	0.00e+00	0	37	0	3649044480	34	5458
2026-01-08 04:25:32.18	348.21	48.58	-30.0	-30.6	27.4	0.00e+00	0	37	0	3656384512	34	5482
2026-01-08 04:25:33.19	348.07	48.26	-30.1	-30.7	27.4	0.00e+00	0	37	0	3663724544	34	5509
2026-01-08 04:25:34.20	347.94	47.94	-29.9	-30.5	27.4	0.00e+00	0	37	0	3671064576	34	5432
2026-01-08 04:25:35.21	347.81	47.62	-29.9	-30.5	27.3	0.00e+00	0	37	0	3677356032	34	5382
2026-01-08 04:25:36.22	347.68	47.31	-30.0	-30.6	27.5	0.00e+00	0	37	0	3684696064	34	5448
2026-01-08 04:25:37.23	347.56	47.00	-29.5	-30.1	27.8	0.00e+00	0	37	0	3693084672	32	5799
2026-01-08 04:25:38.24	347.44	46.69	-29.6	-30.2	27.8	0.00e+00	0	37	0	3699376128	32	5846
2026-01-08 04:25:39.25	347.32	46.38	-29.4	-30.0	27.5	0.00e+00	0	37	0	3706716160	32	5730
2026-01-08 04:25:40.26	347.20	46.08	-29.4	-29.9	27.9	0.00e+00	0	37	0	3714056192	32	5694
2026-01-08 04:25:41.26	347.09	45.78	-29.3	-29.9	27.7	0.00e+00	0	37	0	3721396224	32	5681
2026-01-08 04:25:42.27	346.97	45.47	-29.2	-29.8	28.1	0.00e+00	0	37	0	3728736256	32	5591
2026-01-08 04:25:43.28	346.86	45.18	-29.2	-29.8	27.7	0.00e+00	0	37	0	3736076288	32	5606
2026-01-08 04:25:44.29	346.76	44.88	-29.1	-29.7	28.2	0.00e+00	0	37	0	3743416320	32	5555
2026-01-08 04:25:45.30	346.65	44.58	-29.1	-29.7	28.1	0.00e+00	0	37	0	3750756352	32	5525
2026-01-08 04:25:46.31	346.55	44.29	-29.1	-29.7	27.8	0.00e+00	0	37	0	3758096384	32	5559
2026-01-08 04:25:47.32	346.44	44.00	-29.1	-29.7	28.0	0.00e+00	0	37	0	3765436416	32	5529
2026-01-08 04:25:48.33	346.34	43.71	-29.0	-29.6	28.0	0.00e+00	0	37	0	3772776448	32	5499
2026-01-08 04:25:49.34	346.25	43.43	-28.9	-29.5	26.5	0.00e+00	0	37	0	3780116480	32	5418
2026-01-08 04:25:50.35	346.15	43.14	-29.2	-29.8	27.9	0.00e+00	0	37	0	3787456512	32	5584
2026-01-08 04:25:51.36	346.05	42.86	-28.9	-29.5	27.7	0.00e+00	0	37	0	3794796544	32	5415
2026-01-08 04:25:52.36	345.96	42.58	-28.9	-29.5	28.0	0.00e+00	0	37	0	3802136576	32	5421
2026-01-08 04:25:53.37	345.87	42.31	-28.9	-29.4	28.1	0.00e+00	0	37	0	3808428032	32	5375
2026-01-08 04:25:54.39	345.78	42.03	-28.8	-29.4	27.1	0.00e+00	0	37	0	3816816640	32	5355
2026-01-08 04:25:55.39	345.69	41.75	-28.9	-29.5	27.4	0.00e+00	0	37	0	3824156672	32	5398
2026-01-08 04:25:56.40	345.61	41.48	-29.0	-29.6	27.9	0.00e+00	0	37	0	3830448128	32	5473
2026-01-08 04:25:57.41	345.52	41.21	-29.0	-29.6	28.0	0.00e+00	0	37	0	3837788160	32	5479
2026-01-08 04:25:58.42	345.44	40.94	-29.2	-29.8	27.9	0.00e+00	0	37	0	3845128192	32	5616
2026-01-08 04:25:59.43	345.36	40.68	-29.2	-29.8	27.6	0.00e+00	0	37	0	3852468224	32	5591
2026-01-08 04:26:00.44	345.27	40.41	-29.2	-29.8	28.0	0.00e+00	0	37	0	3859808256	32	5588
2026-01-08 04:26:01.45	345.20	40.15	-29.3	-29.9	27.9	0.00e+00	0	37	0	3867148288	32	5680
2026-01-08 04:26:02.46	345.12	39.89	-29.4	-30.0	27.7	0.00e+00	0	37	0	3874488320	32	5711
2026-01-08 04:26:03.47	345.04	39.63	-29.3	-29.9	27.9	0.00e+00	0	37	0	3881828352	32	5695
2026-01-08 04:26:04.48	344.96	39.37	-29.3	-29.9	27.4	0.00e+00	0	37	0	3889168384	32	5664
2026-01-08 04:26:05.49	344.89	39.12	-29.3	-29.9	26.7	0.00e+00	0	37	0	3896508416	32	5656
2026-01-08 04:26:06.50	344.82	38.86	-29.3	-29.9	28.0	0.00e+00	0	37	0	3903848448	32	5640
2026-01-08 04:26:07.51	344.75	38.61	-29.1	-29.7	28.0	0.00e+00	0	37	0	3911188480	32	5550
2026-01-08 04:26:08.52	344.67	38.36	-29.2	-29.8	28.0	0.00e+00	0	37	0	3918528512	32	5598
2026-01-08 04:26:09.53	344.60	38.12	-29.3	-29.9	28.1	0.00e+00	0	37	0	3925868544	32	5632
2026-01-08 04:26:10.54	344.54	37.87	-29.1	-29.7	28.1	0.00e+00	0	37	0	3933208576	32	5527
2026-01-08 04:26:11.55	344.47	37.62	-29.1	-29.7	28.0	0.00e+00	0	37	0	3940548608	32	5547
2026-01-08 04:26:12.56	344.40	37.38	-28.9	-29.5	28.2	0.00e+00	0	37	0	3947888640	32	5384
2026-01-08 04:26:13.57	344.34	37.14	-28.9	-29.5	28.2	0.00e+00	0	37	0	3954180096	32	5396
2026-01-08 04:26:14.58	344.27	36.90	-29.0	-29.6	27.5	0.00e+00	0	37	0	3962568704	32	5445
2026-01-08 04:26:15.59	344.21	36.66	-29.1	-29.7	27.9	0.00e+00	0	37	0	3969908736	32	5533
2026-01-08 04:26:16.60	344.15	36.43	-29.0	-29.6	28.1	0.00e+00	0	37	0	3976200192	32	5474
2026-01-08 04:26:17.61	344.09	36.19	-29.2	-29.8	28.1	0.00e+00	0	37	0	3983540224	32	5586
2026-01-08 04:26:18.62	344.03	35.96	-29.1	-29.7	27.6	0.00e+00	0	37	0	3990880256	32	5543
2026-01-08 04:26:19.63	343.97	35.73	-29.0	-29.6	28.2	0.00e+00	0	37	0	3998220288	32	5460
2026-01-08 04:26:20.64	343.91	35.50	-28.8	-29.4	28.0	0.00e+00	0	37	0	4005560320	32	5344
2026-01-08 04:26:21.65	343.85	35.27	-28.6	-29.2	28.4	0.00e+00	0	37	0	4012900352	30	5855
2026-01-08 04:26:22.66	343.79	35.05	-28.5	-29.1	28.5	0.00e+00	0	37	0	4020240384	30	5810
2026-01-08 04:26:23.67	343.74	34.82	-28.4	-29.0	28.6	0.00e+00	0	37	0	4027580416	30	5741
2026-01-08 04:26:24.68	343.68	34.60	-28.5	-29.1	28.5	0.00e+00	0	37	0	4034920448	30	5787
2026-01-08 04:26:25.69	343.63	34.38	-28.3	-28.9	28.6	0.00e+00	0	37	0	4042260480	30	5684
2026-01-08 04:26:26.70	343.57	34.16	-28.4	-28.9	28.7	0.00e+00	0	37	0	4049600512	30	5688
2026-01-08 04:26:27.71	343.52	33.94	-28.2	-28.8	28.8	0.00e+00	0	37	0	4056940544	30	5596
2026-01-08 04:26:28.72	343.47	33.72	-28.4	-29.0	28.5	0.00e+00	0	37	0	4064280576	30	5712
2026-01-08 04:26:29.73	343.42	33.51	-28.3	-28.9	28.7	0.00e+00	0	37	0	4071620608	30	5657
2026-01-08 04:26:30.74	343.37	33.29	-28.5	-29.1	28.4	0.00e+00	0	37	0	4078960640	30	5799
2026-01-08 04:26:31.75	343.32	33.08	-28.4	-29.0	28.6	0.00e+00	0	37	0	4086300672	30	5721
2026-01-08 04:26:32.76	343.27	32.87	-28.6	-29.2	28.5	0.00e+00	0	37	0	4093640704	30	5832
2026-01-08 04:26:33.77	343.22	32.66	-28.5	-29.1	28.2	0.00e+00	0	37	0	4100980736	30	5777
2026-01-08 04:26:34.78	343.17	32.45	-28.5	-29.1	28.5	0.00e+00	0	37	0	4108320768	30	5809
2026-01-08 04:26:35.79	343.12	32.24	-28.7	-29.3	28.4	0.00e+00	0	37	0	4115660800	30	5937
2026-01-08 04:26:36.80	343.08	32.04	-28.6	-29.2	28.3	0.00e+00	0	37	0	4123000832	30	5872
2026-01-08 04:26:37.81	343.03	31.84	-28.7	-29.3	28.3	0.00e+00	0	37	0	4129292288	30	5952
2026-01-08 04:26:38.82	342.98	31.63	-28.7	-29.2	28.4	0.00e+00	0	37	0	4136632320	30	5891
2026-01-08 04:26:39.83	342.94	31.43	-28.8	-29.3	28.3	0.00e+00	0	37	0	4145020928	30	5956
2026-01-08 04:26:40.83	342.90	31.23	-28.7	-29.3	28.4	0.00e+00	0	37	0	4151312384	30	5946
2026-01-08 04:26:41.84	342.85	31.04	-28.8	-29.3	28.3	0.00e+00	0	37	0	4158652416	30	5958
2026-01-08 04:26:42.86	342.81	30.84	-28.8	-29.4	28.3	0.00e+00	0	37	0	4165992448	30	5989
2026-01-08 04:26:43.86	342.77	30.64	-28.8	-29.4	28.2	0.00e+00	0	37	0	4173332480	30	5988
2026-01-08 04:26:44.87	342.72	30.45	-28.9	-29.5	28.2	0.00e+00	0	37	0	4180672512	30	6041
2026-01-08 04:26:45.88	342.68	30.25	-29.0	-29.6	27.4	0.00e+00	0	37	0	4188012544	30	6104
2026-01-08 04:26:46.89	342.64	30.06	-29.0	-29.6	28.0	0.00e+00	0	37	0	4195352576	30	6111
2026-01-08 04:26:47.90	342.60	29.87	-28.9	-29.5	28.1	0.00e+00	0	37	0	4202692608	30	6099
2026-01-08 04:26:48.90	342.56	29.68	-29.0	-29.6	28.1	0.00e+00	0	37	0	4210032640	30	6159
2026-01-08 04:26:49.91	342.52	29.50	-29.0	-29.6	28.1	0.00e+00	0	37	0	4217372672	30	6162
2026-01-08 04:26:50.92	342.48	29.31	-29.0	-29.6	28.2	0.00e+00	0	37	0	4224712704	30	6141
2026-01-08 04:26:51.93	342.45	29.12	-29.0	-29.6	28.0	0.00e+00	0	37	0	4232052736	30	6131
2026-01-08 04:26:52.94	342.41	28.94	-29.1	-29.7	28.0	0.00e+00	0	37	0	4239392768	30	6212
2026-01-08 04:26:53.95	342.37	28.75	-29.0	-29.6	28.1	0.00e+00	0	37	0	4246732800	30	6154
2026-01-08 04:26:54.96	342.33	28.57	-29.0	-29.6	28.0	0.00e+00	0	37	0	4253024256	30	6138
2026-01-08 04:26:55.97	342.30	28.39	-29.1	-29.7	28.0	0.00e+00	0	37	0	4260364288	30	6174
2026-01-08 04:26:56.98	342.26	28.21	-29.0	-29.6	28.1	0.00e+00	0	37	0	4268752896	30	6163
2026-01-08 04:26:57.99	342.23	28.03	-29.2	-29.8	27.7	0.00e+00	0	37	0	4275044352	30	6269
2026-01-08 04:26:59.00	342.19	27.86	-29.0	-29.6	28.0	0.00e+00	0	37	0	4282384384	30	6165
2026-01-08 04:27:00.01	342.16	27.68	-29.1	-29.7	28.0	0.00e+00	0	37	0	4289724416	30	6187
2026-01-08 04:27:01.02	342.12	27.50	-29.1	-29.7	28.0	0.00e+00	0	37	0	4297064448	30	6195
2026-01-08 04:27:02.03	342.09	27.33	-29.0	-29.6	28.0	0.00e+00	0	37	0	4304404480	30	6144
2026-01-08 04:27:03.04	342.06	27.16	-29.0	-29.6	28.0	0.00e+00	0	37	0	4311744512	30	6159
2026-01-08 04:27:04.04	342.02	26.99	-29.1	-29.7	28.1	0.00e+00	0	37	0	4319084544	30	6209
2026-01-08 04:27:05.05	341.99	26.81	-29.1	-29.7	27.9	0.00e+00	0	37	0	4326424576	30	6228
2026-01-08 04:27:06.06	341.96	26.64	-29.1	-29.7	27.9	0.00e+00	0	37	0	4333764608	30	6221
2026-01-08 04:27:07.08	341.93	26.47	-29.1	-29.7	27.6	0.00e+00	0	37	0	4341104640	30	6236
2026-01-08 04:27:08.09	341.89	26.31	-29.3	-29.9	27.8	0.00e+00	0	37	0	4348444672	30	6362
2026-01-08 04:27:09.10	341.86	26.14	-29.4	-30.0	27.8	0.00e+00	0	37	0	4355784704	30	6394
2026-01-08 04:27:10.11	341.83	25.97	-29.5	-30.1	27.8	0.00e+00	0	37	0	4363124736	30	6488
2026-01-08 04:27:11.12	341.80	25.81	-29.3	-29.9	27.8	0.00e+00	0	37	0	4370464768	30	6381
2026-01-08 04:27:12.12	341.77	25.65	-29.4	-30.0	27.6	0.00e+00	0	37	0	4377804800	30	6419
2026-01-08 04:27:13.13	341.74	25.48	-29.5	-30.1	27.7	0.00e+00	0	37	0	4385144832	30	6488
2026-01-08 04:27:14.14	341.71	25.32	-29.5	-30.1	27.6	0.00e+00	0	37	0	4392484864	30	6522
2026-01-08 04:27:15.16	341.68	25.16	-29.6	-30.2	27.6	0.00e+00	0	37	0	4399824896	30	6544
2026-01-08 04:27:16.16	341.66	25.00	-29.4	-30.1	27.7	0.00e+00	0	37	0	4406116352	30	6465
2026-01-08 04:27:17.17	341.63	24.84	-29.4	-30.0	27.5	0.00e+00	0	37	0	4413456384	30	6452
2026-01-08 04:27:18.18	341.60	24.68	-29.6	-30.2	27.6	0.00e+00	0	37	0	4421844992	30	6553
2026-01-08 04:27:19.19	341.57	24.53	-29.6	-30.2	27.4	0.00e+00	0	37	0	4428136448	30	6604
2026-01-08 04:27:20.20	341.54	24.37	-29.5	-30.1	27.6	0.00e+00	0	37	0	4435476480	30	6507
2026-01-08 04:27:21.21	341.52	24.22	-29.4	-30.0	27.7	0.00e+00	0	37	0	4442816512	30	6441
2026-01-08 04:27:22.22	341.49	24.06	-29.4	-30.0	27.8	0.00e+00	0	37	0	4450156544	30	6455
2026-01-08 04:27:23.23	341.46	23.91	-29.5	-30.1	27.5	0.00e+00	0	37	0	4457496576	30	6506
2026-01-08 04:27:24.24	341.44	23.76	-29.4	-30.0	27.7	0.00e+00	0	37	0	4464836608	30	6406
2026-01-08 04:27:25.25	341.41	23.60	-29.4	-30.0	27.7	0.00e+00	0	37	0	4472176640	30	6394
2026-01-08 04:27:26.26	341.39	23.45	-29.4	-30.0	27.6	0.00e+00	0	37	0	4479516672	30	6399
2026-01-08 04:27:27.27	341.36	23.30	-29.3	-29.9	27.8	0.00e+00	0	37	0	4486856704	30	6372
2026-01-08 04:27:28.28	341.34	23.15	-29.4	-30.0	27.6	0.00e+00	0	37	0	4494196736	30	6431
2026-01-08 04:27:29.29	341.31	23.01	-29.4	-30.0	27.7	0.00e+00	0	37	0	4501536768	30	6415
2026-01-08 04:27:30.30	341.29	22.86	-29.5	-30.1	27.7	0.00e+00	0	37	0	4508876800	30	6496
2026-01-08 04:27:31.31	341.26	22.71	-29.5	-30.1	27.7	0.00e+00	0	37	0	4516216832	30	6504
2026-01-08 04:27:32.32	341.24	22.57	-29.5	-30.1	27.6	0.00e+00	0	37	0	4523556864	30	6471
2026-01-08 04:27:33.33	341.22	22.42	-29.5	-30.1	27.6	0.00e+00	0	37	0	4530896896	30	6496
2026-01-08 04:27:34.34	341.19	22.28	-29.5	-30.1	27.7	0.00e+00	0	37	0	4538236928	30	6516
2026-01-08 04:27:35.35	341.17	22.13	-29.6	-30.2	27.6	0.00e+00	0	37	0	4545576960	30	6578
2026-01-08 04:27:36.36	341.15	21.99	-29.5	-30.1	27.7	0.00e+00	0	37	0	4551868416	32	5797
2026-01-08 04:27:37.37	341.12	21.85	-29.5	-30.1	27.6	0.00e+00	0	37	0	4559208448	32	5821
2026-01-08 04:27:38.38	341.10	21.71	-29.6	-30.2	27.6	0.00e+00	0	37	0	4567597056	32	5846
2026-01-08 04:27:39.39	341.08	21.57	-29.6	-30.2	27.6	0.00e+00	0	37	0	4573888512	32	5871
2026-01-08 04:27:40.40	341.06	21.43	-29.6	-30.2	27.6	0.00e+00	0	37	0	4581228544	32	5839
2026-01-08 04:27:41.41	341.04	21.29	-29.7	-30.2	27.4	0.00e+00	0	37	0	4588568576	32	5892
2026-01-08 04:27:42.42	341.01	21.15	-29.7	-30.3	27.5	0.00e+00	0	37	0	4595908608	32	5925
2026-01-08 04:27:43.42	340.99	21.02	-29.7	-30.3	27.4	0.00e+00	0	37	0	4603248640	32	5923
2026-01-08 04:27:44.44	340.97	20.88	-29.7	-30.3	27.5	0.00e+00	0	37	0	4610588672	32	5933
2026-01-08 04:27:45.44	340.95	20.75	-29.8	-30.4	27.4	0.00e+00	0	37	0	4617928704	32	6001
2026-01-08 04:27:46.45	340.93	20.61	-29.8	-30.4	27.3	0.00e+00	0	37	0	4625268736	32	6012
2026-01-08 04:27:47.46	340.91	20.48	-29.7	-30.3	27.3	0.00e+00	0	37	0	4632608768	32	5906
