passes_logs/2026/01/08/R4.6S_Anadyr/R4.6S_Anadyr__20260108_233055_SUOMI_NPP_rec.log

#Pass ID: 20260108_233055_SUOMI NPP
#Satellite: SUOMI NPP
#Configuration: NPP
#almurnet v.1.7.20251203
#Start time: 2026-01-08 23:30:58

#Version: 2.2.20231116
#Station: R4.6S_Anadyr
#Location: 177.4865 lon 64.73178 lat
#TLE: 1 37849U 11061A   26008.05542337  .00000108  00000+0  71976-4 0  9997
#TLE: 2 37849  98.7805 310.1641 0002540  75.6410 284.5048 14.19523335735721

#Time	Az	El	Level	Level2	SNR	BER	BlckErr	Temp	State	Recorded	gain1	gain2
2026-01-08 23:30:58.54	137.17	0.20	-48.3	-62.0	3.3	1.54e+00	0	33	0	0	60	45708
2026-01-08 23:30:59.55	137.15	0.26	-48.3	-63.5	3.6	1.51e+00	0	33	104	0	60	54059
2026-01-08 23:31:00.56	137.13	0.32	-48.3	-63.6	3.6	1.51e+00	0	33	104	0	60	54525
2026-01-08 23:31:01.57	137.11	0.38	-48.4	-63.6	3.6	1.51e+00	0	33	104	0	60	54764
2026-01-08 23:31:02.58	137.09	0.44	-48.4	-63.6	3.6	1.51e+00	0	33	104	0	60	54702
2026-01-08 23:31:03.59	137.08	0.50	-48.4	-63.6	3.6	1.51e+00	0	33	104	0	60	54932
2026-01-08 23:31:04.59	137.06	0.57	-48.3	-63.5	3.6	1.51e+00	0	33	104	0	60	53839
2026-01-08 23:31:05.60	137.04	0.63	-48.1	-63.4	3.6	1.51e+00	0	33	104	0	60	53596
2026-01-08 23:31:06.62	137.02	0.69	-48.1	-63.4	3.6	1.51e+00	0	33	104	0	60	53214
2026-01-08 23:31:07.63	137.00	0.75	-47.9	-63.2	3.6	1.51e+00	0	33	104	0	60	52198
2026-01-08 23:31:08.64	136.98	0.81	-47.9	-63.1	3.6	1.51e+00	0	33	104	0	60	51808
2026-01-08 23:31:09.64	136.96	0.87	-47.7	-62.9	3.6	1.51e+00	0	33	104	0	60	50643
2026-01-08 23:31:10.65	136.94	0.93	-47.3	-62.7	3.6	1.51e+00	0	33	104	0	60	49187
2026-01-08 23:31:11.66	136.92	1.00	-47.1	-62.3	3.6	1.51e+00	0	33	104	0	60	47140
2026-01-08 23:31:12.67	136.90	1.06	-46.7	-61.9	3.6	1.51e+00	0	33	104	0	60	45050
2026-01-08 23:31:13.68	136.88	1.12	-46.7	-62.0	3.6	1.51e+00	0	33	104	0	60	45250
2026-01-08 23:31:14.69	136.86	1.18	-46.7	-61.9	3.6	1.51e+00	0	33	104	0	60	45034
2026-01-08 23:31:15.70	136.84	1.25	-46.7	-62.0	3.6	1.51e+00	0	34	104	0	60	45291
2026-01-08 23:31:16.71	136.82	1.31	-46.7	-61.9	3.6	1.51e+00	0	34	104	0	60	45096
2026-01-08 23:31:17.72	136.80	1.37	-46.7	-62.0	3.6	1.51e+00	0	33	104	0	60	45296
2026-01-08 23:31:18.72	136.79	1.43	-46.7	-62.0	3.6	1.51e+00	0	34	104	0	60	45381
2026-01-08 23:31:19.74	136.76	1.50	-46.7	-61.9	3.6	1.51e+00	0	34	104	0	60	45241
2026-01-08 23:31:20.74	136.74	1.56	-46.7	-61.9	3.6	1.51e+00	0	34	104	0	60	44922
2026-01-08 23:31:21.76	136.72	1.62	-46.7	-61.8	3.6	1.51e+00	0	34	104	0	60	44665
2026-01-08 23:31:22.77	136.70	1.69	-46.6	-61.6	3.6	1.51e+00	0	33	104	0	60	43610
2026-01-08 23:31:23.77	136.68	1.75	-46.6	-61.7	3.6	1.51e+00	0	34	104	0	60	43891
2026-01-08 23:31:24.78	136.66	1.81	-46.6	-61.5	3.6	1.51e+00	0	34	104	0	60	42994
2026-01-08 23:31:25.79	136.64	1.88	-46.6	-61.4	3.6	1.51e+00	0	33	104	0	60	42667
2026-01-08 23:31:26.80	136.62	1.94	-46.6	-61.5	3.6	1.51e+00	0	34	104	0	60	42843
2026-01-08 23:31:27.81	136.60	2.01	-46.6	-61.7	3.6	1.51e+00	0	34	104	0	60	43982
2026-01-08 23:31:28.83	136.58	2.07	-46.7	-61.8	3.6	1.51e+00	0	34	104	0	60	44477
2026-01-08 23:31:29.84	136.56	2.13	-46.7	-61.9	3.6	1.51e+00	0	34	104	0	60	45225
2026-01-08 23:31:30.85	136.54	2.20	-46.7	-61.9	3.6	1.51e+00	0	34	104	0	60	44943
2026-01-08 23:31:31.86	136.52	2.26	-46.7	-61.9	3.6	1.51e+00	0	34	104	0	60	45051
2026-01-08 23:31:32.87	136.49	2.33	-46.6	-61.8	3.6	1.51e+00	0	34	104	0	60	44514
2026-01-08 23:31:33.88	136.47	2.39	-46.6	-61.7	3.6	1.51e+00	0	34	104	0	60	43773
2026-01-08 23:31:34.88	136.45	2.46	-46.6	-61.5	3.6	1.51e+00	0	34	104	0	60	42892
2026-01-08 23:31:35.90	136.43	2.52	-46.6	-61.3	3.6	1.51e+00	0	34	104	0	60	41747
2026-01-08 23:31:36.91	136.41	2.59	-46.6	-60.9	3.6	1.51e+00	0	34	104	0	60	40207
2026-01-08 23:31:37.92	136.38	2.65	-46.6	-60.6	3.6	1.51e+00	0	34	104	0	60	38530
2026-01-08 23:31:38.93	136.36	2.72	-46.6	-60.3	3.6	1.51e+00	0	34	104	0	60	37404
2026-01-08 23:31:39.94	136.34	2.79	-46.6	-60.1	3.6	1.51e+00	0	34	104	0	60	36740
2026-01-08 23:31:40.95	136.32	2.85	-46.6	-60.6	3.6	1.51e+00	0	34	104	0	60	38842
2026-01-08 23:31:41.96	136.30	2.92	-46.6	-61.3	3.6	1.51e+00	0	34	104	0	60	41924
2026-01-08 23:31:42.97	136.27	2.98	-46.6	-61.4	3.6	1.51e+00	0	34	104	0	60	42593
2026-01-08 23:31:43.98	136.25	3.05	-46.5	-59.3	3.6	1.51e+00	0	34	104	0	60	33405
2026-01-08 23:31:44.99	136.23	3.12	-46.3	-55.8	5.2	1.13e+00	90	34	0	0	60	22288
2026-01-08 23:31:46.00	136.20	3.18	-45.8	-52.5	7.6	1.35e-01	0	34	0	1048576	60	15199
2026-01-08 23:31:47.01	136.18	3.25	-45.1	-50.1	10.5	1.72e-02	92	34	0	3145728	60	11518
2026-01-08 23:31:48.02	136.16	3.32	-44.2	-48.1	12.7	7.74e-04	0	34	0	5242880	60	9139
2026-01-08 23:31:49.03	136.14	3.39	-43.4	-46.4	14.5	7.00e-07	92	34	0	7340032	60	7568
2026-01-08 23:31:50.04	136.11	3.45	-42.6	-45.1	15.8	0.00e+00	0	34	0	9437184	58	7324
2026-01-08 23:31:51.05	136.09	3.52	-41.9	-44.1	16.7	0.00e+00	92	34	0	10485760	58	6503
2026-01-08 23:31:52.06	136.06	3.59	-41.8	-44.0	16.9	0.00e+00	22	34	0	12582912	56	7178
2026-01-08 23:31:53.07	136.04	3.66	-41.5	-43.6	17.2	0.00e+00	0	34	0	14680064	56	6866
2026-01-08 23:31:54.08	136.02	3.72	-47.0	-61.6	3.6	1.06e+00	0	34	104	15728640	60	43421
2026-01-08 23:31:55.09	135.99	3.79	-39.4	-40.8	18.7	1.46e+00	0	34	104	15728640	52	6251
2026-01-08 23:31:56.10	135.97	3.86	-46.5	-61.7	3.6	7.40e-01	0	34	104	15728640	60	43803
2026-01-08 23:31:57.11	135.94	3.93	-46.3	-55.2	4.4	1.49e+00	0	34	104	15728640	60	20725
2026-01-08 23:31:58.12	135.92	4.00	-44.8	-49.6	11.1	0.00e+00	92	34	0	15728640	60	10935
2026-01-08 23:31:59.13	135.90	4.07	-40.7	-42.4	18.5	1.56e-04	81	34	0	17825792	56	5975
2026-01-08 23:32:00.14	135.87	4.14	-39.5	-40.9	19.8	0.00e+00	92	34	0	19922944	52	6370
2026-01-08 23:32:01.15	135.85	4.21	-38.6	-39.8	20.9	0.00e+00	92	34	0	20971520	50	6255
2026-01-08 23:32:02.15	135.82	4.27	-38.5	-39.7	20.8	0.00e+00	0	34	0	23068672	50	6222
2026-01-08 23:32:03.17	135.80	4.34	-38.7	-39.9	20.6	0.00e+00	83	34	0	25165824	50	6390
2026-01-08 23:32:04.17	135.77	4.41	-38.6	-39.7	20.9	0.00e+00	0	34	0	27262976	50	6245
2026-01-08 23:32:05.18	135.75	4.48	-38.5	-39.6	21.0	0.00e+00	92	34	0	29360128	50	6163
2026-01-08 23:32:06.19	135.72	4.55	-38.4	-39.5	21.2	0.00e+00	21	34	0	30408704	50	6070
2026-01-08 23:32:07.20	135.69	4.62	-38.3	-39.4	21.1	0.00e+00	92	34	0	32505856	50	6011
2026-01-08 23:32:08.21	135.67	4.69	-38.3	-39.4	21.4	0.00e+00	90	34	0	34603008	50	6028
2026-01-08 23:32:09.22	135.64	4.76	-38.3	-39.4	21.3	0.00e+00	0	34	0	36700160	50	6022
2026-01-08 23:32:10.23	135.62	4.84	-38.1	-39.3	21.4	0.00e+00	90	34	0	38797312	50	5918
2026-01-08 23:32:11.24	135.59	4.91	-38.1	-39.3	21.3	0.00e+00	0	34	0	40894464	50	5915
2026-01-08 23:32:12.25	135.56	4.98	-38.1	-39.2	21.4	0.00e+00	92	34	0	41943040	50	5882
2026-01-08 23:32:13.26	135.54	5.05	-38.2	-39.4	21.3	0.00e+00	12	34	0	44040192	50	6011
2026-01-08 23:32:14.26	135.51	5.12	-38.2	-39.3	21.3	0.00e+00	92	34	0	46137344	50	5962
2026-01-08 23:32:15.27	135.49	5.19	-38.0	-39.1	21.5	0.00e+00	92	34	0	48234496	50	5810
2026-01-08 23:32:16.28	135.46	5.26	-38.0	-39.1	21.6	0.00e+00	13	34	0	50331648	50	5822
2026-01-08 23:32:17.29	135.43	5.34	-38.0	-39.1	21.5	0.00e+00	92	34	0	51380224	50	5809
2026-01-08 23:32:18.30	135.40	5.41	-37.8	-38.9	21.7	0.00e+00	0	34	0	53477376	50	5684
2026-01-08 23:32:19.31	135.38	5.48	-37.8	-38.8	21.8	0.00e+00	92	34	0	55574528	50	5608
2026-01-08 23:32:20.32	135.35	5.55	-37.7	-38.7	21.9	0.00e+00	0	34	0	57671680	48	6225
2026-01-08 23:32:21.33	135.32	5.63	-37.9	-38.9	21.8	0.00e+00	91	34	0	59768832	48	6372
2026-01-08 23:32:22.34	135.29	5.70	-37.7	-38.7	22.0	0.00e+00	79	34	0	60817408	48	6221
2026-01-08 23:32:23.34	135.27	5.77	-37.6	-38.6	22.1	0.00e+00	30	34	0	62914560	48	6136
2026-01-08 23:32:24.35	135.24	5.84	-37.4	-38.5	22.1	0.00e+00	92	34	0	65011712	48	6037
2026-01-08 23:32:25.36	135.21	5.92	-37.6	-38.6	22.0	0.00e+00	0	34	0	67108864	48	6147
2026-01-08 23:32:26.37	135.18	5.99	-37.7	-38.7	21.9	0.00e+00	90	34	0	69206016	48	6215
2026-01-08 23:32:27.38	135.15	6.07	-37.8	-38.9	21.9	0.00e+00	0	34	0	70254592	48	6323
2026-01-08 23:32:28.39	135.12	6.14	-37.6	-38.7	22.1	0.00e+00	91	34	0	72351744	48	6184
2026-01-08 23:32:29.40	135.10	6.22	-37.6	-38.7	22.1	0.00e+00	84	34	0	74448896	48	6208
2026-01-08 23:32:30.40	135.07	6.29	-37.6	-38.6	22.1	0.00e+00	91	34	0	76546048	48	6172
2026-01-08 23:32:31.42	135.04	6.36	-37.5	-38.6	22.1	0.00e+00	91	34	0	78643200	48	6127
2026-01-08 23:32:32.43	135.01	6.44	-37.4	-38.5	22.3	0.00e+00	0	34	0	79691776	48	6045
2026-01-08 23:32:33.44	134.98	6.52	-37.5	-38.5	22.1	0.00e+00	90	34	0	81788928	48	6082
2026-01-08 23:32:34.45	134.95	6.59	-37.5	-38.5	22.1	0.00e+00	0	34	0	83886080	48	6089
2026-01-08 23:32:35.46	134.92	6.67	-37.5	-38.5	22.2	0.00e+00	91	34	0	85983232	48	6084
2026-01-08 23:32:36.47	134.89	6.74	-37.4	-38.4	22.3	0.00e+00	40	34	0	88080384	48	6020
2026-01-08 23:32:37.48	134.86	6.82	-37.4	-38.4	22.3	0.00e+00	90	34	0	89128960	48	5990
2026-01-08 23:32:38.49	134.83	6.90	-37.2	-38.2	22.4	0.00e+00	90	34	0	91226112	48	5881
2026-01-08 23:32:39.50	134.80	6.97	-37.2	-38.2	22.6	0.00e+00	0	34	0	93323264	48	5852
2026-01-08 23:32:40.50	134.77	7.05	-37.1	-38.1	22.5	0.00e+00	90	34	0	95420416	48	5811
2026-01-08 23:32:41.51	134.74	7.12	-37.1	-38.1	22.5	0.00e+00	0	34	0	97517568	48	5804
2026-01-08 23:32:42.52	134.70	7.20	-37.3	-38.3	22.4	0.00e+00	90	34	0	98566144	48	5918
2026-01-08 23:32:43.53	134.67	7.28	-37.3	-38.3	22.4	0.00e+00	0	34	0	100663296	48	5920
2026-01-08 23:32:44.54	134.64	7.36	-37.2	-38.2	22.5	0.00e+00	92	34	0	102760448	48	5874
2026-01-08 23:32:45.55	134.61	7.44	-37.2	-38.2	22.5	0.00e+00	92	34	0	104857600	48	5843
2026-01-08 23:32:46.56	134.58	7.51	-37.2	-38.3	22.5	0.00e+00	0	34	0	106954752	48	5907
2026-01-08 23:32:47.57	134.55	7.59	-37.3	-38.3	22.3	0.00e+00	90	34	0	109051904	48	5960
2026-01-08 23:32:48.57	134.51	7.67	-37.4	-38.5	22.3	0.00e+00	0	34	0	110100480	48	6037
2026-01-08 23:32:49.58	134.48	7.75	-37.2	-38.3	22.5	0.00e+00	89	34	0	112197632	48	5900
2026-01-08 23:32:50.59	134.45	7.83	-37.5	-38.5	22.3	0.00e+00	9	34	0	114294784	48	6100
2026-01-08 23:32:51.60	134.42	7.91	-37.4	-38.5	22.3	0.00e+00	92	34	0	116391936	48	6063
2026-01-08 23:32:52.61	134.38	7.99	-37.3	-38.4	22.4	0.00e+00	92	34	0	118489088	48	6002
2026-01-08 23:32:53.62	134.35	8.07	-37.6	-38.7	22.2	0.00e+00	17	34	0	119537664	48	6192
2026-01-08 23:32:54.63	134.32	8.15	-37.7	-38.7	22.1	0.00e+00	92	34	0	121634816	48	6236
2026-01-08 23:32:55.64	134.28	8.23	-37.8	-38.9	22.1	0.00e+00	0	34	0	123731968	48	6352
2026-01-08 23:32:56.65	134.25	8.31	-37.6	-38.7	22.2	0.00e+00	91	34	0	125829120	48	6189
2026-01-08 23:32:57.66	134.22	8.39	-37.6	-38.6	22.2	0.00e+00	0	34	0	127926272	48	6143
2026-01-08 23:32:58.67	134.18	8.47	-37.3	-38.3	22.6	0.00e+00	90	34	0	128974848	48	5916
2026-01-08 23:32:59.68	134.15	8.55	-37.1	-38.1	22.7	0.00e+00	92	34	0	131072000	48	5820
2026-01-08 23:33:00.68	134.11	8.63	-37.3	-38.3	22.6	0.00e+00	74	34	0	133169152	48	5949
2026-01-08 23:33:01.69	134.08	8.71	-37.1	-38.1	22.7	0.00e+00	92	34	0	135266304	48	5797
2026-01-08 23:33:02.70	134.04	8.80	-37.1	-38.1	22.7	0.00e+00	0	34	0	137363456	48	5764
2026-01-08 23:33:03.71	134.01	8.88	-37.3	-38.3	22.6	0.00e+00	92	34	0	138412032	48	5901
2026-01-08 23:33:04.72	133.97	8.96	-37.1	-38.1	22.7	0.00e+00	0	34	0	140509184	48	5779
2026-01-08 23:33:05.72	133.94	9.04	-37.2	-38.2	22.6	0.00e+00	92	34	0	142606336	48	5848
2026-01-08 23:33:06.73	133.90	9.13	-37.1	-38.1	22.7	0.00e+00	92	34	0	144703488	48	5772
2026-01-08 23:33:07.74	133.86	9.21	-37.2	-38.2	22.7	0.00e+00	92	34	0	146800640	48	5843
2026-01-08 23:33:08.75	133.83	9.29	-37.0	-38.0	22.8	0.00e+00	92	34	0	147849216	48	5739
2026-01-08 23:33:09.76	133.79	9.38	-37.2	-38.1	22.7	0.00e+00	0	34	0	149946368	48	5826
2026-01-08 23:33:10.77	133.75	9.46	-37.2	-38.2	22.7	0.00e+00	92	34	0	152043520	48	5862
2026-01-08 23:33:11.77	133.72	9.54	-37.0	-37.9	22.9	0.00e+00	0	34	0	154140672	48	5683
2026-01-08 23:33:12.78	133.68	9.63	-37.2	-38.2	22.7	0.00e+00	88	34	0	156237824	48	5861
2026-01-08 23:33:13.79	133.64	9.71	-37.3	-38.3	22.6	0.00e+00	0	34	0	157286400	48	5952
2026-01-08 23:33:14.80	133.61	9.80	-37.2	-38.2	22.7	0.00e+00	92	34	0	159383552	48	5867
2026-01-08 23:33:15.81	133.57	9.89	-37.2	-38.2	22.7	0.00e+00	92	34	0	161480704	48	5874
2026-01-08 23:33:16.82	133.53	9.97	-37.1	-38.1	22.8	0.00e+00	0	34	0	163577856	48	5807
2026-01-08 23:33:17.83	133.49	10.06	-36.9	-37.9	22.9	0.00e+00	92	34	0	165675008	48	5640
2026-01-08 23:33:18.84	133.45	10.14	-36.8	-37.8	23.1	0.00e+00	0	34	0	166723584	48	5610
2026-01-08 23:33:19.85	133.41	10.23	-36.8	-37.7	23.1	0.00e+00	91	34	0	168820736	46	6228
2026-01-08 23:33:20.86	133.37	10.32	-36.8	-37.7	23.1	0.00e+00	25	34	0	170917888	46	6226
2026-01-08 23:33:21.87	133.33	10.41	-36.8	-37.8	23.1	0.00e+00	90	34	0	173015040	46	6248
2026-01-08 23:33:22.88	133.29	10.49	-36.7	-37.7	23.1	0.00e+00	91	34	0	175112192	46	6193
2026-01-08 23:33:23.88	133.25	10.58	-36.8	-37.7	23.1	0.00e+00	0	34	0	176160768	46	6214
2026-01-08 23:33:24.89	133.21	10.67	-36.6	-37.5	23.3	0.00e+00	79	34	0	178257920	46	6073
2026-01-08 23:33:25.90	133.17	10.76	-36.6	-37.5	23.2	0.00e+00	0	34	0	180355072	46	6089
2026-01-08 23:33:26.91	133.13	10.85	-36.7	-37.6	23.2	0.00e+00	92	34	0	182452224	46	6128
2026-01-08 23:33:27.92	133.09	10.93	-36.5	-37.4	23.3	0.00e+00	0	34	0	184549376	46	6016
2026-01-08 23:33:28.93	133.05	11.02	-36.5	-37.4	23.4	0.00e+00	90	34	0	185597952	46	5980
2026-01-08 23:33:29.94	133.01	11.11	-36.6	-37.5	23.3	0.00e+00	23	34	0	187695104	46	6058
2026-01-08 23:33:30.95	132.97	11.20	-36.4	-37.3	23.3	0.00e+00	0	34	0	189792256	46	5904
2026-01-08 23:33:31.96	132.92	11.29	-36.4	-37.3	23.5	0.00e+00	64	34	0	191889408	46	5903
2026-01-08 23:33:32.97	132.88	11.39	-36.3	-37.2	23.3	0.00e+00	0	34	0	193986560	46	5847
2026-01-08 23:33:33.98	132.84	11.48	-36.3	-37.2	23.6	0.00e+00	92	34	0	195035136	46	5836
2026-01-08 23:33:34.99	132.80	11.57	-36.2	-37.1	23.1	0.00e+00	0	34	0	197132288	46	5802
2026-01-08 23:33:36.00	132.75	11.66	-36.2	-37.1	23.7	0.00e+00	92	34	0	199229440	46	5772
2026-01-08 23:33:37.01	132.71	11.75	-36.2	-37.1	23.6	0.00e+00	54	34	0	201326592	46	5771
2026-01-08 23:33:38.01	132.67	11.84	-36.0	-36.9	23.5	0.00e+00	0	34	0	203423744	46	5667
2026-01-08 23:33:39.02	132.62	11.94	-36.2	-37.0	23.7	0.00e+00	92	34	0	205520896	46	5758
2026-01-08 23:33:40.03	132.58	12.03	-36.1	-37.0	23.6	0.00e+00	0	34	0	206569472	46	5732
2026-01-08 23:33:41.04	132.53	12.12	-36.0	-36.9	23.7	0.00e+00	92	34	0	208666624	46	5654
2026-01-08 23:33:42.05	132.49	12.22	-36.2	-37.1	23.6	0.00e+00	0	34	0	210763776	46	5785
2026-01-08 23:33:43.06	132.44	12.31	-36.2	-37.1	23.6	0.00e+00	92	34	0	212860928	46	5790
2026-01-08 23:33:44.07	132.40	12.40	-36.0	-36.9	23.8	0.00e+00	15	34	0	214958080	46	5653
2026-01-08 23:33:45.08	132.35	12.50	-36.1	-36.9	23.7	0.00e+00	92	34	0	216006656	46	5685
2026-01-08 23:33:46.09	132.30	12.59	-36.2	-37.1	23.8	0.00e+00	90	34	0	218103808	46	5784
2026-01-08 23:33:47.10	132.26	12.69	-36.1	-37.0	23.9	0.00e+00	0	34	0	220200960	46	5704
2026-01-08 23:33:48.11	132.21	12.78	-36.1	-37.0	23.7	0.00e+00	92	34	0	222298112	46	5697
2026-01-08 23:33:49.11	132.16	12.88	-35.9	-36.7	24.1	0.00e+00	0	34	0	224395264	46	5532
2026-01-08 23:33:50.12	132.12	12.98	-36.0	-36.8	23.8	0.00e+00	52	34	0	225443840	46	5602
2026-01-08 23:33:51.13	132.07	13.07	-35.9	-36.7	24.0	0.00e+00	0	34	0	227540992	46	5548
2026-01-08 23:33:52.14	132.02	13.17	-36.0	-36.8	23.9	0.00e+00	90	34	0	229638144	46	5623
2026-01-08 23:33:53.15	131.97	13.27	-36.2	-37.0	23.8	0.00e+00	92	34	0	231735296	46	5752
2026-01-08 23:33:54.16	131.92	13.37	-35.7	-36.5	24.1	0.00e+00	0	34	0	233832448	46	5418
2026-01-08 23:33:55.17	131.87	13.46	-35.7	-36.5	24.0	0.00e+00	92	34	0	234881024	44	6103
2026-01-08 23:33:56.18	131.82	13.56	-35.9	-36.8	23.9	0.00e+00	0	34	0	236978176	44	6247
2026-01-08 23:33:57.19	131.77	13.66	-35.7	-36.5	24.1	0.00e+00	89	34	0	239075328	44	6071
2026-01-08 23:33:58.20	131.72	13.76	-35.8	-36.6	24.0	0.00e+00	0	34	0	241172480	44	6161
2026-01-08 23:33:59.20	131.67	13.86	-35.9	-36.8	23.9	0.00e+00	92	34	0	243269632	44	6260
2026-01-08 23:34:00.22	131.62	13.96	-35.9	-36.7	23.9	0.00e+00	92	34	0	244318208	44	6223
2026-01-08 23:34:01.23	131.57	14.06	-35.9	-36.7	24.1	0.00e+00	0	34	0	246415360	44	6223
2026-01-08 23:34:02.23	131.52	14.16	-35.9	-36.7	23.9	0.00e+00	78	34	0	248512512	44	6227
2026-01-08 23:34:03.24	131.47	14.26	-35.9	-36.7	24.0	0.00e+00	6	34	0	250609664	44	6239
2026-01-08 23:34:04.25	131.41	14.37	-36.0	-36.9	23.8	0.00e+00	92	34	0	252706816	44	6337
2026-01-08 23:34:05.26	131.36	14.47	-36.0	-36.9	23.9	0.00e+00	0	34	0	253755392	44	6359
2026-01-08 23:34:06.27	131.31	14.57	-35.9	-36.7	24.0	0.00e+00	90	34	0	255852544	44	6242
2026-01-08 23:34:07.28	131.25	14.67	-35.9	-36.8	23.8	0.00e+00	88	34	0	257949696	44	6246
2026-01-08 23:34:08.29	131.20	14.78	-35.9	-36.7	24.1	0.00e+00	0	34	0	260046848	44	6239
2026-01-08 23:34:09.30	131.15	14.88	-35.9	-36.7	24.0	0.00e+00	92	34	0	262144000	44	6236
2026-01-08 23:34:10.31	131.09	14.99	-35.9	-36.7	24.1	0.00e+00	0	34	0	263192576	44	6202
2026-01-08 23:34:11.32	131.04	15.09	-35.9	-36.8	23.9	0.00e+00	90	34	0	265289728	44	6248
2026-01-08 23:34:12.33	130.98	15.19	-35.9	-36.8	24.0	0.00e+00	0	34	0	267386880	44	6273
2026-01-08 23:34:13.34	130.92	15.30	-35.9	-36.8	24.0	0.00e+00	90	34	0	269484032	44	6246
2026-01-08 23:34:14.34	130.87	15.41	-36.0	-36.8	23.9	0.00e+00	27	34	0	271581184	44	6295
2026-01-08 23:34:15.35	130.81	15.51	-36.0	-36.8	24.1	0.00e+00	63	34	0	272629760	44	6283
2026-01-08 23:34:16.36	130.75	15.62	-35.9	-36.7	24.0	0.00e+00	92	34	0	274726912	44	6215
2026-01-08 23:34:17.37	130.70	15.73	-35.8	-36.7	24.1	0.00e+00	0	34	0	276824064	44	6198
2026-01-08 23:34:18.37	130.64	15.83	-36.0	-36.8	24.0	0.00e+00	92	34	0	278921216	44	6293
2026-01-08 23:34:19.38	130.58	15.94	-35.6	-36.5	24.3	0.00e+00	0	34	0	281018368	44	6052
2026-01-08 23:34:20.39	130.52	16.05	-35.8	-36.6	24.1	0.00e+00	92	34	0	282066944	44	6140
2026-01-08 23:34:21.40	130.46	16.16	-35.7	-36.6	24.3	0.00e+00	28	34	0	284164096	44	6104
2026-01-08 23:34:22.41	130.40	16.27	-35.5	-36.4	24.3	0.00e+00	90	34	0	286261248	44	5984
2026-01-08 23:34:23.42	130.34	16.38	-35.6	-36.4	24.3	0.00e+00	92	34	0	288358400	44	6006
2026-01-08 23:34:24.43	130.28	16.49	-35.8	-36.6	24.1	0.00e+00	0	34	0	290455552	44	6169
2026-01-08 23:34:25.44	130.22	16.60	-35.7	-36.5	24.1	0.00e+00	91	34	0	291504128	44	6081
2026-01-08 23:34:26.44	130.16	16.71	-35.7	-36.5	24.2	0.00e+00	0	34	0	293601280	44	6076
2026-01-08 23:34:27.45	130.09	16.82	-36.0	-36.8	24.0	0.00e+00	92	34	0	295698432	44	6295
2026-01-08 23:34:28.46	130.03	16.93	-35.9	-36.7	24.1	0.00e+00	22	34	0	297795584	44	6225
2026-01-08 23:34:29.47	129.97	17.05	-36.0	-36.8	23.9	0.00e+00	90	34	0	299892736	44	6296
2026-01-08 23:34:30.48	129.90	17.16	-35.9	-36.7	24.0	0.00e+00	92	34	0	301989888	44	6245
2026-01-08 23:34:31.49	129.84	17.27	-35.8	-36.7	24.1	0.00e+00	0	34	0	303038464	44	6220
2026-01-08 23:34:32.50	129.77	17.39	-35.7	-36.5	24.2	0.00e+00	92	34	0	305135616	44	6073
2026-01-08 23:34:33.51	129.71	17.50	-35.9	-36.7	24.1	0.00e+00	0	34	0	307232768	44	6236
2026-01-08 23:34:34.52	129.64	17.62	-36.0	-36.8	24.0	0.00e+00	90	34	0	309329920	44	6313
2026-01-08 23:34:35.53	129.58	17.73	-35.9	-36.8	24.0	0.00e+00	0	34	0	311427072	44	6253
2026-01-08 23:34:36.54	129.51	17.85	-35.8	-36.7	24.0	0.00e+00	91	34	0	312475648	44	6209
2026-01-08 23:34:37.55	129.44	17.97	-36.1	-37.0	23.9	0.00e+00	92	34	0	314572800	44	6422
2026-01-08 23:34:38.56	129.37	18.08	-36.1	-37.0	23.8	0.00e+00	0	34	0	316669952	44	6446
2026-01-08 23:34:39.57	129.30	18.20	-36.2	-37.1	23.7	0.00e+00	48	34	0	318767104	44	6476
2026-01-08 23:34:40.58	129.23	18.32	-36.4	-37.3	23.6	0.00e+00	0	34	0	320864256	44	6675
2026-01-08 23:34:41.58	129.17	18.44	-36.5	-37.4	23.6	0.00e+00	90	34	0	321912832	44	6762
2026-01-08 23:34:42.59	129.09	18.56	-36.5	-37.4	23.7	0.00e+00	0	34	0	324009984	44	6699
2026-01-08 23:34:43.60	129.02	18.68	-36.6	-37.5	23.4	0.00e+00	92	34	0	326107136	44	6846
2026-01-08 23:34:44.61	128.95	18.80	-35.9	-36.8	24.1	0.00e+00	92	34	0	328204288	44	6249
2026-01-08 23:34:45.62	128.88	18.92	-35.9	-36.7	24.1	0.00e+00	8	34	0	330301440	44	6202
2026-01-08 23:34:46.63	128.81	19.04	-35.9	-36.8	24.0	0.00e+00	92	34	0	331350016	44	6266
2026-01-08 23:34:47.64	128.73	19.16	-35.8	-36.6	24.1	0.00e+00	0	34	0	333447168	44	6127
2026-01-08 23:34:48.65	128.66	19.29	-36.0	-36.8	24.0	0.00e+00	71	34	0	335544320	44	6277
2026-01-08 23:34:49.66	128.59	19.41	-35.9	-36.7	24.1	0.00e+00	0	34	0	337641472	44	6219
2026-01-08 23:34:50.67	128.51	19.53	-36.2	-37.0	23.9	0.00e+00	92	34	0	339738624	44	6433
2026-01-08 23:34:51.68	128.43	19.66	-36.1	-36.9	23.9	0.00e+00	0	34	0	340787200	44	6387
2026-01-08 23:34:52.69	128.36	19.78	-36.1	-37.0	23.9	0.00e+00	92	34	0	342884352	44	6394
2026-01-08 23:34:53.70	128.28	19.91	-36.1	-36.9	24.0	0.00e+00	92	34	0	344981504	44	6387
2026-01-08 23:34:54.71	128.20	20.03	-36.1	-37.0	24.0	0.00e+00	0	34	0	347078656	44	6404
2026-01-08 23:34:55.72	128.12	20.16	-36.5	-37.3	23.6	0.00e+00	63	34	0	349175808	44	6679
2026-01-08 23:34:56.72	128.05	20.29	-36.4	-37.2	23.6	0.00e+00	0	34	0	350224384	44	6596
2026-01-08 23:34:57.73	127.97	20.41	-36.4	-37.3	23.7	0.00e+00	92	34	0	352321536	44	6648
2026-01-08 23:34:58.74	127.89	20.54	-37.0	-37.9	23.4	0.00e+00	17	34	0	354418688	46	6324
2026-01-08 23:34:59.75	127.80	20.67	-36.7	-37.5	23.6	0.00e+00	92	34	0	356515840	46	6100
2026-01-08 23:35:00.76	127.72	20.80	-36.7	-37.6	23.7	0.00e+00	92	34	0	358612992	46	6124
2026-01-08 23:35:01.77	127.64	20.93	-36.8	-37.7	23.4	0.00e+00	0	34	0	359661568	46	6199
2026-01-08 23:35:02.78	127.56	21.06	-37.0	-37.9	23.3	0.00e+00	92	34	0	361758720	46	6365
2026-01-08 23:35:03.79	127.47	21.19	-37.0	-38.0	23.0	0.00e+00	0	34	0	363855872	46	6391
2026-01-08 23:35:04.80	127.39	21.32	-37.0	-38.0	23.2	0.00e+00	92	34	0	365953024	46	6415
2026-01-08 23:35:05.81	127.30	21.46	-37.4	-38.3	22.9	0.00e+00	0	34	0	368050176	46	6669
2026-01-08 23:35:06.81	127.22	21.59	-37.1	-38.0	23.3	0.00e+00	92	34	0	370147328	46	6436
2026-01-08 23:35:07.82	127.13	21.72	-36.9	-37.8	23.4	0.00e+00	91	34	0	371195904	46	6294
2026-01-08 23:35:08.83	127.04	21.86	-37.0	-37.9	23.2	0.00e+00	0	34	0	373293056	46	6375
2026-01-08 23:35:09.84	126.95	21.99	-37.1	-38.0	23.2	0.00e+00	92	34	0	375390208	46	6423
2026-01-08 23:35:10.85	126.86	22.13	-37.6	-38.5	22.8	0.00e+00	0	34	0	377487360	46	6829
2026-01-08 23:35:11.86	126.77	22.27	-37.9	-38.9	22.6	0.00e+00	51	34	0	379584512	48	6379
2026-01-08 23:35:12.87	126.68	22.40	-37.4	-38.3	23.0	0.00e+00	0	34	0	380633088	48	5957
2026-01-08 23:35:13.88	126.59	22.54	-37.2	-38.2	23.1	0.00e+00	90	34	0	382730240	48	5844
2026-01-08 23:35:14.89	126.50	22.68	-37.2	-38.1	23.2	0.00e+00	90	34	0	384827392	48	5809
2026-01-08 23:35:15.90	126.40	22.82	-37.0	-38.0	23.3	0.00e+00	0	34	0	386924544	48	5716
2026-01-08 23:35:16.91	126.31	22.96	-37.1	-38.0	23.3	0.00e+00	90	34	0	389021696	48	5732
2026-01-08 23:35:17.92	126.21	23.10	-36.7	-37.6	23.5	0.00e+00	0	34	0	390070272	46	6149
2026-01-08 23:35:18.93	126.12	23.24	-36.9	-37.8	23.4	0.00e+00	80	34	0	392167424	46	6269
2026-01-08 23:35:19.94	126.02	23.38	-37.3	-38.2	23.3	0.00e+00	0	34	0	394264576	46	6579
2026-01-08 23:35:20.95	125.92	23.52	-36.9	-37.8	23.4	0.00e+00	90	34	0	396361728	46	6296
2026-01-08 23:35:21.96	125.82	23.67	-37.1	-38.0	23.2	0.00e+00	28	34	0	398458880	46	6437
2026-01-08 23:35:22.96	125.72	23.81	-37.4	-38.4	23.0	0.00e+00	4	34	0	399507456	46	6700
2026-01-08 23:35:23.97	125.62	23.95	-37.6	-38.6	22.8	0.00e+00	90	35	0	401604608	48	6138
2026-01-08 23:35:24.98	125.52	24.10	-38.0	-39.0	22.4	0.00e+00	0	34	0	403701760	48	6451
2026-01-08 23:35:25.99	125.42	24.25	-37.9	-38.9	22.5	0.00e+00	76	34	0	405798912	48	6364
2026-01-08 23:35:27.00	125.31	24.39	-38.1	-39.2	22.4	0.00e+00	0	34	0	407896064	48	6549
2026-01-08 23:35:28.01	125.21	24.54	-38.0	-39.1	22.4	0.00e+00	92	34	0	408944640	48	6481
2026-01-08 23:35:29.02	125.10	24.69	-38.0	-39.0	22.5	0.00e+00	27	34	0	411041792	48	6430
2026-01-08 23:35:30.02	125.00	24.84	-37.9	-38.9	22.4	0.00e+00	0	35	0	413138944	48	6381
2026-01-08 23:35:31.03	124.89	24.99	-37.9	-38.9	22.5	0.00e+00	92	34	0	415236096	48	6318
2026-01-08 23:35:32.04	124.78	25.14	-37.7	-38.7	22.7	0.00e+00	0	35	0	417333248	48	6176
2026-01-08 23:35:32.96	124.68	25.27	-37.9	-38.9	22.5	0.00e+00	44	34	0	418381824	48	6373
2026-01-08 23:35:33.97	124.57	25.42	-37.5	-38.5	22.8	0.00e+00	0	34	0	420478976	48	6056
2026-01-08 23:35:34.98	124.46	25.58	-37.3	-38.3	23.3	0.00e+00	74	34	0	422576128	48	5932
2026-01-08 23:35:35.99	124.34	25.73	-36.9	-37.8	23.4	0.00e+00	0	34	0	424673280	48	5604
2026-01-08 23:35:37.00	124.23	25.88	-37.1	-38.0	23.3	0.00e+00	92	34	0	426770432	48	5726
2026-01-08 23:35:38.01	124.11	26.04	-37.0	-37.9	23.3	0.00e+00	90	34	0	427819008	48	5674
2026-01-08 23:35:39.02	124.00	26.20	-37.7	-38.7	22.6	0.00e+00	0	34	0	429916160	48	6211
2026-01-08 23:35:40.03	123.88	26.35	-37.9	-38.9	22.6	0.00e+00	88	34	0	432013312	48	6365
2026-01-08 23:35:41.04	123.76	26.51	-38.2	-39.3	22.0	0.00e+00	14	34	0	434110464	48	6619
2026-01-08 23:35:42.05	123.64	26.67	-38.2	-39.2	22.3	0.00e+00	85	34	0	436207616	48	6559
2026-01-08 23:35:43.06	123.52	26.83	-38.3	-39.3	22.4	0.00e+00	0	35	0	437256192	48	6678
2026-01-08 23:35:44.07	123.39	26.98	-38.1	-39.1	22.4	0.00e+00	82	35	0	439353344	48	6524
2026-01-08 23:35:45.08	123.27	27.15	-37.8	-38.7	22.7	0.00e+00	88	34	0	441450496	48	6239
2026-01-08 23:35:46.09	123.15	27.31	-37.6	-38.5	22.9	0.00e+00	0	34	0	443547648	48	6066
2026-01-08 23:35:47.10	123.02	27.47	-37.2	-38.1	23.2	0.00e+00	91	34	0	445644800	48	5813
2026-01-08 23:35:48.11	122.89	27.63	-37.0	-37.9	23.4	0.00e+00	0	34	0	446693376	48	5639
2026-01-08 23:35:49.12	122.76	27.79	-37.7	-38.6	22.9	0.00e+00	90	35	0	448790528	48	6141
2026-01-08 23:35:50.13	122.63	27.96	-37.2	-38.1	23.2	0.00e+00	6	34	0	450887680	48	5787
2026-01-08 23:35:51.14	122.50	28.12	-37.4	-38.3	23.0	0.00e+00	92	34	0	452984832	48	5935
2026-01-08 23:35:52.15	122.36	28.29	-37.4	-38.3	23.1	0.00e+00	92	35	0	455081984	48	5960
2026-01-08 23:35:53.16	122.23	28.46	-37.2	-38.1	23.3	0.00e+00	0	35	0	456130560	48	5799
2026-01-08 23:35:54.17	122.09	28.62	-37.0	-37.8	23.4	0.00e+00	91	35	0	458227712	48	5626
2026-01-08 23:35:55.17	121.96	28.79	-37.3	-38.2	23.5	0.00e+00	0	34	0	460324864	48	5883
2026-01-08 23:35:56.19	121.82	28.96	-37.1	-38.0	23.2	0.00e+00	91	34	0	462422016	48	5732
2026-01-08 23:35:57.20	121.68	29.13	-37.9	-38.8	22.9	0.00e+00	0	34	0	464519168	48	6284
2026-01-08 23:35:58.21	121.53	29.30	-37.8	-38.8	22.6	0.00e+00	92	34	0	466616320	48	6270
2026-01-08 23:35:59.21	121.39	29.47	-37.6	-38.6	22.8	0.00e+00	0	35	0	467664896	48	6124
2026-01-08 23:36:00.22	121.25	29.64	-37.8	-38.7	22.7	0.00e+00	63	34	0	469762048	48	6227
2026-01-08 23:36:01.23	121.10	29.82	-37.7	-38.6	22.8	0.00e+00	92	34	0	471859200	48	6156
2026-01-08 23:36:02.24	120.95	29.99	-37.9	-38.9	22.6	0.00e+00	0	34	0	473956352	48	6330
2026-01-08 23:36:03.25	120.80	30.17	-38.0	-39.0	22.5	0.00e+00	89	34	0	476053504	48	6405
2026-01-08 23:36:04.26	120.65	30.34	-38.4	-39.4	22.2	0.00e+00	0	34	0	477102080	48	6714
2026-01-08 23:36:05.27	120.49	30.52	-39.1	-40.2	21.7	0.00e+00	92	35	0	479199232	50	6559
2026-01-08 23:36:06.28	120.34	30.70	-39.2	-40.4	21.5	0.00e+00	0	35	0	481296384	50	6721
2026-01-08 23:36:07.28	120.18	30.87	-39.4	-40.6	21.3	0.00e+00	92	34	0	483393536	50	6851
2026-01-08 23:36:08.30	120.02	31.05	-38.9	-40.0	21.7	0.00e+00	92	34	0	485490688	50	6435
2026-01-08 23:36:09.30	119.86	31.23	-39.0	-40.1	21.7	0.00e+00	0	34	0	486539264	50	6515
2026-01-08 23:36:10.31	119.70	31.41	-38.7	-39.8	21.8	0.00e+00	92	34	0	488636416	50	6291
2026-01-08 23:36:11.32	119.54	31.60	-38.4	-39.4	22.2	0.00e+00	0	34	0	490733568	50	5976
2026-01-08 23:36:12.33	119.37	31.78	-38.6	-39.6	22.0	0.00e+00	90	35	0	492830720	50	6159
2026-01-08 23:36:13.34	119.20	31.96	-39.0	-40.1	21.7	0.00e+00	0	35	0	494927872	50	6528
2026-01-08 23:36:14.35	119.03	32.15	-39.2	-40.3	21.4	0.00e+00	92	34	0	495976448	50	6686
2026-01-08 23:36:15.35	118.86	32.33	-39.6	-40.8	21.2	0.00e+00	90	35	0	498073600	50	7068
2026-01-08 23:36:16.36	118.69	32.51	-39.6	-40.8	20.9	0.00e+00	0	34	0	500170752	52	6272
2026-01-08 23:36:17.37	118.51	32.70	-39.8	-41.1	20.8	0.00e+00	90	34	0	502267904	52	6470
2026-01-08 23:36:18.38	118.33	32.89	-39.7	-40.9	20.9	0.00e+00	0	35	0	504365056	52	6376
2026-01-08 23:36:19.39	118.15	33.08	-39.6	-40.8	21.1	0.00e+00	92	35	0	505413632	52	6281
2026-01-08 23:36:20.40	117.97	33.27	-39.5	-40.6	21.3	0.00e+00	0	35	0	507510784	52	6169
2026-01-08 23:36:21.41	117.79	33.46	-39.8	-41.0	21.0	0.00e+00	91	35	0	509607936	52	6419
2026-01-08 23:36:22.42	117.60	33.65	-39.6	-40.8	21.0	0.00e+00	42	35	0	511705088	52	6252
2026-01-08 23:36:23.43	117.41	33.84	-40.1	-41.4	20.1	0.00e+00	0	35	0	513802240	52	6723
2026-01-08 23:36:24.44	117.22	34.03	-40.6	-42.0	20.0	0.00e+00	92	35	0	514850816	52	7199
2026-01-08 23:36:25.45	117.03	34.23	-41.0	-42.4	19.7	0.00e+00	0	35	0	516947968	54	6708
2026-01-08 23:36:26.46	116.83	34.42	-41.2	-42.7	19.3	0.00e+00	92	35	0	519045120	54	6999
2026-01-08 23:36:27.46	116.63	34.61	-41.4	-42.9	19.1	0.00e+00	0	35	0	521142272	54	7169
2026-01-08 23:36:28.47	116.43	34.81	-41.4	-43.0	19.2	0.00e+00	92	34	0	523239424	56	6408
2026-01-08 23:36:29.48	116.23	35.01	-40.9	-42.3	19.9	0.00e+00	59	35	0	524288000	56	5929
2026-01-08 23:36:30.49	116.02	35.21	-40.5	-41.8	20.2	0.00e+00	84	34	0	526385152	54	6272
2026-01-08 23:36:31.50	115.82	35.40	-40.1	-41.4	20.4	0.00e+00	92	35	0	528482304	54	5985
2026-01-08 23:36:32.51	115.60	35.60	-40.1	-41.3	20.6	0.00e+00	0	35	0	530579456	54	5958
2026-01-08 23:36:33.52	115.39	35.80	-39.7	-40.8	20.7	0.00e+00	90	35	0	532676608	52	6293
2026-01-08 23:36:34.53	115.17	36.00	-39.3	-40.4	21.4	0.00e+00	0	35	0	534773760	52	6007
2026-01-08 23:36:35.54	114.96	36.21	-39.4	-40.5	21.2	0.00e+00	92	35	0	535822336	52	6072
2026-01-08 23:36:36.55	114.73	36.41	-38.9	-39.9	21.9	0.00e+00	26	34	0	537919488	52	5676
2026-01-08 23:36:37.56	114.51	36.61	-38.2	-39.2	22.5	0.00e+00	92	34	0	540016640	50	5855
2026-01-08 23:36:38.57	114.28	36.82	-38.0	-39.0	22.8	0.00e+00	92	35	0	542113792	50	5715
2026-01-08 23:36:39.58	114.05	37.02	-38.0	-38.9	22.6	0.00e+00	0	34	0	544210944	48	6362
2026-01-08 23:36:40.59	113.82	37.23	-38.2	-39.2	22.5	0.00e+00	90	35	0	545259520	48	6540
2026-01-08 23:36:41.59	113.59	37.43	-38.1	-39.1	22.5	0.00e+00	0	35	0	547356672	48	6472
2026-01-08 23:36:42.60	113.35	37.64	-37.8	-38.7	22.7	0.00e+00	89	35	0	549453824	48	6210
2026-01-08 23:36:43.61	113.10	37.84	-38.7	-39.7	21.6	0.00e+00	0	35	0	551550976	48	6947
2026-01-08 23:36:44.62	112.86	38.05	-38.4	-39.4	22.1	0.00e+00	92	35	0	553648128	48	6724
2026-01-08 23:36:45.63	112.61	38.26	-39.2	-40.3	21.3	0.00e+00	92	35	0	554696704	50	6665
2026-01-08 23:36:46.64	112.36	38.47	-39.3	-40.5	21.4	0.00e+00	0	35	0	556793856	50	6771
2026-01-08 23:36:47.65	112.10	38.68	-39.5	-40.7	21.0	0.00e+00	92	35	0	558891008	52	6212
2026-01-08 23:36:48.66	111.84	38.89	-39.7	-40.9	21.1	0.00e+00	0	35	0	560988160	52	6372
2026-01-08 23:36:49.67	111.58	39.10	-39.6	-40.7	21.2	0.00e+00	92	35	0	563085312	52	6222
2026-01-08 23:36:50.68	111.32	39.32	-40.0	-41.3	20.5	0.00e+00	0	35	0	564133888	52	6633
2026-01-08 23:36:51.69	111.05	39.53	-40.0	-41.3	20.9	0.00e+00	90	35	0	566231040	52	6626
2026-01-08 23:36:52.70	110.78	39.74	-40.7	-42.0	19.8	0.00e+00	92	35	0	568328192	52	7248
2026-01-08 23:36:53.70	110.50	39.95	-41.2	-42.7	19.6	0.00e+00	0	35	0	570425344	54	6962
2026-01-08 23:36:54.71	110.22	40.17	-40.8	-42.2	20.0	0.00e+00	92	35	0	572522496	54	6546
2026-01-08 23:36:55.72	109.94	40.38	-40.7	-42.1	19.8	0.00e+00	0	35	0	573571072	54	6514
2026-01-08 23:36:56.73	109.65	40.60	-39.9	-41.1	21.0	0.00e+00	92	35	0	575668224	52	6486
2026-01-08 23:36:57.74	109.36	40.81	-39.5	-40.8	21.1	0.00e+00	0	35	0	577765376	52	6257
2026-01-08 23:36:58.75	109.07	41.03	-40.2	-41.7	20.3	0.00e+00	92	35	0	579862528	52	6949
2026-01-08 23:36:59.76	108.77	41.25	-40.8	-42.4	19.6	0.00e+00	29	35	0	581959680	54	6749
2026-01-08 23:37:00.77	108.46	41.46	-40.0	-41.4	20.5	0.00e+00	63	35	0	583008256	54	5968
2026-01-08 23:37:01.78	108.16	41.68	-39.8	-41.1	20.9	0.00e+00	92	35	0	585105408	54	5796
2026-01-08 23:37:02.79	107.84	41.90	-39.3	-40.4	21.5	0.00e+00	0	35	0	587202560	52	6024
2026-01-08 23:37:03.80	107.53	42.12	-38.8	-39.9	21.9	0.00e+00	91	35	0	589299712	52	5647
2026-01-08 23:37:04.81	107.21	42.33	-38.6	-39.6	22.1	0.00e+00	0	35	0	591396864	50	6127
2026-01-08 23:37:05.82	106.88	42.55	-37.9	-38.8	22.7	0.00e+00	91	35	0	592445440	50	5611
2026-01-08 23:37:06.83	106.56	42.77	-38.1	-39.1	22.5	0.00e+00	90	34	0	594542592	50	5791
2026-01-08 23:37:07.84	106.22	42.99	-38.4	-39.4	22.3	0.00e+00	90	35	0	596639744	50	6029
2026-01-08 23:37:08.84	105.89	43.21	-38.6	-39.7	22.2	0.00e+00	92	35	0	598736896	50	6179
2026-01-08 23:37:09.85	105.54	43.43	-38.6	-39.6	22.1	0.00e+00	0	34	0	600834048	50	6147
2026-01-08 23:37:10.86	105.20	43.65	-39.3	-40.5	21.5	0.00e+00	47	35	0	601882624	50	6776
2026-01-08 23:37:11.87	104.84	43.87	-39.3	-40.4	21.2	0.00e+00	0	34	0	603979776	50	6727
2026-01-08 23:37:12.88	104.49	44.09	-40.0	-41.2	20.7	0.00e+00	90	34	0	606076928	52	6592
2026-01-08 23:37:13.88	104.13	44.30	-40.3	-41.5	20.5	0.00e+00	30	35	0	608174080	52	6833
2026-01-08 23:37:14.89	103.76	44.52	-40.7	-42.1	20.1	0.00e+00	92	35	0	610271232	54	6476
2026-01-08 23:37:15.90	103.39	44.74	-41.0	-42.5	19.5	0.00e+00	90	34	0	611319808	54	6792
2026-01-08 23:37:16.91	103.01	44.96	-41.2	-42.8	20.0	0.00e+00	0	35	0	613416960	54	7019
2026-01-08 23:37:17.92	102.63	45.18	-40.2	-41.5	20.5	0.00e+00	46	35	0	615514112	54	6057
2026-01-08 23:37:18.93	102.24	45.40	-39.6	-40.7	21.2	0.00e+00	0	35	0	617611264	52	6233
2026-01-08 23:37:19.94	101.85	45.62	-39.5	-40.6	21.2	0.00e+00	92	35	0	619708416	52	6152
2026-01-08 23:37:20.95	101.45	45.83	-39.2	-40.3	21.4	0.00e+00	0	35	0	620756992	52	5949
2026-01-08 23:37:21.96	101.04	46.05	-39.1	-40.2	21.6	0.00e+00	92	35	0	622854144	52	5850
2026-01-08 23:37:22.97	100.63	46.27	-38.5	-39.5	22.2	0.00e+00	91	35	0	624951296	50	6094
2026-01-08 23:37:23.98	100.22	46.48	-38.3	-39.3	22.3	0.00e+00	0	35	0	627048448	50	5934
2026-01-08 23:37:24.99	99.79	46.70	-37.7	-38.6	22.9	0.00e+00	91	35	0	629145600	48	6108
2026-01-08 23:37:26.00	99.37	46.91	-38.0	-39.0	22.7	0.00e+00	0	35	0	631242752	48	6391
2026-01-08 23:37:27.00	98.94	47.13	-37.9	-38.8	22.8	0.00e+00	90	35	0	632291328	48	6313
2026-01-08 23:37:28.01	98.50	47.34	-38.0	-38.9	22.5	0.00e+00	0	35	0	634388480	48	6376
2026-01-08 23:37:29.02	98.05	47.55	-38.7	-39.8	22.0	0.00e+00	92	35	0	636485632	48	7054
2026-01-08 23:37:30.03	97.60	47.77	-39.2	-40.3	21.2	0.00e+00	15	35	0	638582784	50	6675
2026-01-08 23:37:31.04	97.14	47.98	-39.3	-40.4	21.5	0.00e+00	0	35	0	640679936	50	6747
2026-01-08 23:37:32.05	96.68	48.19	-38.8	-39.9	22.1	0.00e+00	78	35	0	641728512	50	6366
2026-01-08 23:37:33.06	96.21	48.40	-38.6	-39.6	22.3	0.00e+00	0	35	0	643825664	50	6164
2026-01-08 23:37:34.06	95.73	48.60	-38.3	-39.3	22.4	0.00e+00	24	35	0	645922816	50	5927
2026-01-08 23:37:35.07	95.25	48.81	-38.6	-39.6	22.1	0.00e+00	0	35	0	648019968	50	6163
2026-01-08 23:37:36.08	94.76	49.02	-38.5	-39.6	22.0	0.00e+00	91	35	0	650117120	50	6137
2026-01-08 23:37:37.09	94.26	49.22	-37.8	-38.8	22.7	0.00e+00	89	35	0	651165696	50	5584
2026-01-08 23:37:38.10	93.76	49.42	-37.4	-38.4	23.2	0.00e+00	80	35	0	653262848	48	6032
2026-01-08 23:37:39.11	93.25	49.62	-36.7	-37.5	23.7	0.00e+00	90	35	0	655360000	46	6085
2026-01-08 23:37:40.11	92.74	49.82	-36.0	-36.8	24.4	0.00e+00	0	35	0	657457152	46	5571
2026-01-08 23:37:41.12	92.21	50.02	-35.7	-36.4	24.5	0.00e+00	92	35	0	659554304	44	6028
2026-01-08 23:37:42.13	91.68	50.22	-36.3	-37.1	23.8	0.00e+00	0	35	0	660602880	44	6488
2026-01-08 23:37:43.14	91.14	50.41	-36.6	-37.4	23.6	0.00e+00	90	35	0	662700032	44	6749
2026-01-08 23:37:44.15	90.60	50.60	-36.5	-37.4	24.0	0.00e+00	55	35	0	664797184	46	5975
2026-01-08 23:37:45.16	90.05	50.79	-35.7	-36.5	24.5	0.00e+00	91	35	0	666894336	44	6058
2026-01-08 23:37:46.17	89.49	50.98	-35.5	-36.3	24.4	0.00e+00	92	35	0	668991488	44	5897
2026-01-08 23:37:47.18	88.92	51.17	-36.3	-37.2	24.1	0.00e+00	0	35	0	670040064	44	6544
2026-01-08 23:37:48.19	88.35	51.35	-36.9	-37.7	23.5	0.00e+00	57	35	0	672137216	46	6213
2026-01-08 23:37:49.20	87.77	51.53	-37.3	-38.3	23.2	0.00e+00	0	35	0	674234368	46	6635
2026-01-08 23:37:50.21	87.19	51.71	-37.2	-38.1	23.4	0.00e+00	90	35	0	676331520	46	6539
2026-01-08 23:37:51.22	86.59	51.89	-36.8	-37.7	23.7	0.00e+00	0	35	0	678428672	46	6188
2026-01-08 23:37:52.23	85.99	52.06	-36.2	-37.0	24.1	0.00e+00	90	35	0	679477248	46	5734
2026-01-08 23:37:53.23	85.39	52.23	-36.8	-37.7	23.6	0.00e+00	92	35	0	681574400	46	6192
2026-01-08 23:37:54.24	84.77	52.40	-37.2	-38.2	23.1	0.00e+00	0	35	0	683671552	46	6570
2026-01-08 23:37:55.25	84.15	52.57	-37.8	-38.8	22.3	0.00e+00	32	34	0	685768704	48	6303
2026-01-08 23:37:56.26	83.52	52.73	-37.1	-38.1	23.4	0.00e+00	0	34	0	687865856	48	5767
2026-01-08 23:37:57.27	82.89	52.89	-36.5	-37.3	24.0	0.00e+00	90	35	0	688914432	46	5926
2026-01-08 23:37:58.28	82.24	53.05	-36.2	-37.0	24.1	0.00e+00	9	34	0	691011584	46	5726
2026-01-08 23:37:59.29	81.59	53.20	-35.8	-36.5	24.4	0.00e+00	92	35	0	693108736	46	5429
2026-01-08 23:38:00.30	80.94	53.35	-35.3	-36.1	24.7	0.00e+00	92	35	0	695205888	44	5794
2026-01-08 23:38:01.31	80.27	53.50	-35.4	-36.2	24.5	0.00e+00	0	35	0	697303040	44	5855
2026-01-08 23:38:02.32	79.60	53.64	-35.9	-36.7	24.2	0.00e+00	92	35	0	699400192	44	6219
2026-01-08 23:38:03.33	78.93	53.78	-36.3	-37.1	24.0	0.00e+00	0	35	0	700448768	44	6538
2026-01-08 23:38:04.34	78.25	53.92	-36.4	-37.2	23.9	0.00e+00	92	35	0	702545920	44	6584
2026-01-08 23:38:05.35	77.56	54.05	-36.9	-37.8	23.4	0.00e+00	0	35	0	704643072	46	6307
2026-01-08 23:38:06.36	76.86	54.18	-36.8	-37.8	23.6	0.00e+00	91	35	0	706740224	46	6248
2026-01-08 23:38:07.37	76.16	54.30	-36.2	-37.0	24.1	0.00e+00	32	35	0	707788800	46	5758
2026-01-08 23:38:08.37	75.46	54.42	-36.2	-37.0	24.1	0.00e+00	0	35	0	709885952	46	5755
2026-01-08 23:38:09.38	74.74	54.53	-36.2	-37.0	24.0	0.00e+00	29	35	0	711983104	46	5724
2026-01-08 23:38:10.39	74.03	54.65	-36.4	-37.2	24.0	0.00e+00	0	35	0	714080256	46	5852
2026-01-08 23:38:11.40	73.30	54.75	-36.1	-37.0	24.0	0.00e+00	92	35	0	716177408	46	5718
2026-01-08 23:38:12.40	72.58	54.85	-36.5	-37.3	23.8	0.00e+00	0	35	0	717225984	46	5954
2026-01-08 23:38:13.41	71.84	54.95	-36.3	-37.1	24.1	0.00e+00	92	35	0	719323136	46	5823
2026-01-08 23:38:14.42	71.10	55.05	-35.6	-36.4	24.5	0.00e+00	0	34	0	721420288	46	5344
2026-01-08 23:38:15.43	70.36	55.14	-35.0	-35.7	25.0	0.00e+00	0	35	0	723517440	44	5562
2026-01-08 23:38:16.43	69.61	55.22	-34.7	-35.4	25.3	0.00e+00	92	35	0	725614592	42	6029
2026-01-08 23:38:17.44	68.86	55.30	-34.2	-34.9	25.6	0.00e+00	0	35	0	727711744	42	5674
2026-01-08 23:38:18.45	68.10	55.37	-33.8	-34.5	25.7	0.00e+00	92	35	0	728760320	40	6095
2026-01-08 23:38:19.46	67.34	55.44	-34.5	-35.2	25.3	0.00e+00	0	35	0	730857472	40	6603
2026-01-08 23:38:20.47	66.58	55.51	-34.8	-35.7	25.0	0.00e+00	87	34	0	732954624	40	6936
2026-01-08 23:38:21.47	65.81	55.57	-34.1	-34.8	25.5	0.00e+00	26	34	0	735051776	42	5607
2026-01-08 23:38:22.48	65.04	55.62	-34.4	-35.1	25.4	0.00e+00	0	34	0	737148928	42	5804
2026-01-08 23:38:23.49	64.27	55.67	-34.0	-34.7	25.7	0.00e+00	92	35	0	738197504	42	5531
2026-01-08 23:38:24.50	63.49	55.72	-33.4	-34.1	26.1	0.00e+00	0	35	0	740294656	40	5814
2026-01-08 23:38:25.51	62.71	55.76	-33.2	-33.8	26.1	0.00e+00	39	35	0	742391808	40	5626
2026-01-08 23:38:26.52	61.93	55.79	-34.0	-34.8	25.5	0.00e+00	0	35	0	744488960	40	6251
2026-01-08 23:38:27.53	61.14	55.82	-34.9	-35.7	25.1	0.00e+00	92	35	0	746586112	40	6952
2026-01-08 23:38:28.54	60.36	55.84	-34.5	-35.3	25.2	0.00e+00	0	35	0	747634688	42	5903
2026-01-08 23:38:29.54	59.58	55.86	-34.5	-35.2	25.3	0.00e+00	92	35	0	749731840	42	5892
2026-01-08 23:38:30.55	58.79	55.88	-34.1	-34.8	25.5	0.00e+00	92	35	0	751828992	42	5602
2026-01-08 23:38:31.56	58.00	55.88	-33.9	-34.6	25.7	0.00e+00	0	35	0	753926144	42	5471
2026-01-08 23:38:32.57	57.22	55.89	-34.3	-35.0	25.5	0.00e+00	92	34	0	756023296	42	5737
2026-01-08 23:38:33.58	56.43	55.88	-34.6	-35.3	25.3	0.00e+00	0	35	0	757071872	42	5952
2026-01-08 23:38:34.59	55.64	55.88	-34.4	-35.2	25.3	0.00e+00	89	35	0	759169024	42	5857
2026-01-08 23:38:35.60	54.85	55.86	-34.2	-35.0	25.5	0.00e+00	0	35	0	761266176	42	5709
2026-01-08 23:38:36.61	54.07	55.84	-34.4	-35.2	25.4	0.00e+00	92	35	0	763363328	42	5837
2026-01-08 23:38:37.62	53.28	55.82	-34.3	-35.0	25.5	0.00e+00	92	35	0	765460480	42	5727
2026-01-08 23:38:38.63	52.50	55.79	-34.8	-35.5	25.1	0.00e+00	0	35	0	766509056	42	6098
2026-01-08 23:38:39.64	51.72	55.76	-34.6	-35.4	25.2	0.00e+00	92	35	0	768606208	42	5985
2026-01-08 23:38:40.65	50.94	55.72	-34.4	-35.1	25.1	0.00e+00	0	35	0	770703360	42	5810
2026-01-08 23:38:41.66	50.16	55.67	-34.4	-35.2	25.3	0.00e+00	80	35	0	772800512	42	5842
2026-01-08 23:38:42.66	49.39	55.62	-34.2	-34.9	25.5	0.00e+00	0	35	0	774897664	42	5669
2026-01-08 23:38:43.67	48.62	55.57	-33.3	-34.0	26.1	0.00e+00	92	35	0	775946240	40	5713
2026-01-08 23:38:44.68	47.85	55.51	-32.6	-33.3	26.1	0.00e+00	68	35	0	778043392	38	5917
2026-01-08 23:38:45.69	47.09	55.44	-33.2	-33.9	26.1	0.00e+00	0	35	0	780140544	38	6348
2026-01-08 23:38:46.70	46.33	55.37	-33.2	-33.9	26.0	0.00e+00	81	35	0	782237696	38	6376
2026-01-08 23:38:47.71	45.57	55.30	-33.0	-33.7	26.4	0.00e+00	0	35	0	784334848	38	6226
2026-01-08 23:38:48.72	44.81	55.22	-33.1	-33.8	26.2	0.00e+00	75	35	0	785383424	38	6248
2026-01-08 23:38:49.73	44.07	55.14	-33.2	-33.9	26.2	0.00e+00	0	35	0	787480576	38	6324
2026-01-08 23:38:50.74	43.32	55.05	-33.1	-33.8	26.3	0.00e+00	92	35	0	789577728	38	6279
2026-01-08 23:38:51.75	42.58	54.95	-32.8	-33.5	26.4	0.00e+00	29	35	0	791674880	38	6071
2026-01-08 23:38:52.76	41.85	54.85	-33.3	-34.0	25.8	0.00e+00	0	35	0	793772032	38	6416
2026-01-08 23:38:53.77	41.12	54.75	-33.3	-33.9	26.1	0.00e+00	92	35	0	794820608	38	6375
2026-01-08 23:38:54.78	40.39	54.64	-33.8	-34.5	25.8	0.00e+00	0	35	0	796917760	40	6073
2026-01-08 23:38:55.78	39.68	54.53	-34.7	-35.5	25.1	0.00e+00	90	35	0	799014912	40	6794
2026-01-08 23:38:56.79	38.97	54.42	-34.7	-35.4	25.0	0.00e+00	0	35	0	801112064	42	6015
2026-01-08 23:38:57.80	38.26	54.30	-34.8	-35.5	25.2	0.00e+00	90	35	0	803209216	42	6092
2026-01-08 23:38:58.81	37.56	54.18	-34.4	-35.1	25.4	0.00e+00	0	34	0	804257792	42	5799
2026-01-08 23:38:59.82	36.87	54.05	-35.2	-36.0	24.9	0.00e+00	0	35	0	806354944	42	6414
2026-01-08 23:39:00.83	36.18	53.92	-35.5	-36.3	24.4	0.00e+00	92	35	0	808452096	44	5927
2026-01-08 23:39:01.84	35.50	53.78	-36.5	-37.4	24.0	0.00e+00	0	35	0	810549248	44	6694
2026-01-08 23:39:02.85	34.82	53.64	-36.4	-37.2	23.9	0.00e+00	92	35	0	812646400	44	6596
2026-01-08 23:39:03.86	34.15	53.50	-36.8	-37.7	23.6	0.00e+00	0	35	0	813694976	46	6195
2026-01-08 23:39:04.87	33.49	53.35	-37.6	-38.5	22.9	0.00e+00	92	35	0	815792128	46	6837
2026-01-08 23:39:05.88	32.83	53.20	-36.7	-37.5	23.9	0.00e+00	0	35	0	817889280	46	6051
2026-01-08 23:39:06.89	32.18	53.05	-36.4	-37.2	24.0	0.00e+00	0	35	0	819986432	46	5865
2026-01-08 23:39:07.90	31.54	52.89	-37.2	-38.2	23.2	0.00e+00	92	34	0	822083584	46	6564
2026-01-08 23:39:08.91	30.91	52.73	-37.4	-38.4	22.9	0.00e+00	0	34	0	824180736	46	6710
2026-01-08 23:39:09.92	30.28	52.57	-36.7	-37.5	23.7	0.00e+00	25	35	0	825229312	46	6075
2026-01-08 23:39:10.93	29.66	52.41	-36.5	-37.3	24.0	0.00e+00	0	35	0	827326464	46	5947
2026-01-08 23:39:11.93	29.05	52.24	-35.4	-36.1	24.8	0.00e+00	92	35	0	829423616	44	5807
2026-01-08 23:39:12.94	28.44	52.07	-35.5	-36.3	24.6	0.00e+00	0	35	0	831520768	44	5947
2026-01-08 23:39:13.95	27.84	51.89	-37.4	-38.4	23.2	0.00e+00	42	35	0	833617920	46	6697
2026-01-08 23:39:14.96	27.25	51.72	-37.8	-38.8	22.9	0.00e+00	31	35	0	834666496	48	6273
2026-01-08 23:39:15.97	26.67	51.54	-36.6	-37.5	23.8	0.00e+00	0	35	0	836763648	48	5419
2026-01-08 23:39:16.98	26.09	51.36	-35.9	-36.7	24.3	0.00e+00	0	35	0	838860800	46	5517
2026-01-08 23:39:17.99	25.52	51.17	-35.3	-36.1	24.7	0.00e+00	0	35	0	840957952	44	5785
2026-01-08 23:39:19.00	24.95	50.99	-35.2	-36.0	24.7	0.00e+00	24	35	0	843055104	44	5711
2026-01-08 23:39:20.01	24.39	50.80	-36.0	-36.9	24.3	0.00e+00	0	35	0	844103680	44	6320
2026-01-08 23:39:21.02	23.84	50.61	-36.6	-37.5	23.7	0.00e+00	48	35	0	846200832	44	6782
2026-01-08 23:39:22.03	23.30	50.42	-36.4	-37.2	23.8	0.00e+00	0	35	0	848297984	44	6588
2026-01-08 23:39:23.03	22.77	50.22	-36.4	-37.2	23.7	0.00e+00	0	35	0	850395136	44	6592
2026-01-08 23:39:24.05	22.23	50.03	-36.5	-37.3	23.8	0.00e+00	52	35	0	852492288	44	6669
2026-01-08 23:39:25.06	21.71	49.83	-37.2	-38.2	23.3	0.00e+00	0	35	0	853540864	46	6544
2026-01-08 23:39:26.07	21.19	49.63	-37.4	-38.3	23.2	0.00e+00	38	35	0	855638016	46	6684
2026-01-08 23:39:27.07	20.69	49.43	-38.2	-39.2	22.4	0.00e+00	0	35	0	857735168	48	6603
2026-01-08 23:39:28.08	20.19	49.23	-37.9	-38.9	22.8	0.00e+00	92	35	0	859832320	48	6337
2026-01-08 23:39:29.09	19.69	49.03	-38.0	-39.0	22.6	0.00e+00	0	35	0	861929472	48	6392
2026-01-08 23:39:30.10	19.20	48.82	-38.3	-39.2	22.1	0.00e+00	0	35	0	862978048	48	6611
2026-01-08 23:39:31.11	18.72	48.61	-39.0	-40.1	21.7	0.00e+00	73	35	0	865075200	50	6478
2026-01-08 23:39:32.12	18.24	48.41	-40.2	-41.5	20.5	0.00e+00	0	34	0	867172352	52	6808
2026-01-08 23:39:33.13	17.77	48.20	-41.7	-43.4	18.9	0.00e+00	92	34	0	869269504	54	7514
2026-01-08 23:39:34.14	17.31	47.99	-41.4	-43.0	19.3	0.00e+00	16	35	0	871366656	56	6406
2026-01-08 23:39:35.15	16.85	47.78	-40.4	-41.7	20.3	0.00e+00	92	35	0	872415232	54	6218
2026-01-08 23:39:36.16	16.40	47.57	-39.8	-41.1	20.8	0.00e+00	0	35	0	874512384	52	6483
2026-01-08 23:39:37.17	15.96	47.35	-40.0	-41.3	20.9	0.00e+00	0	35	0	876609536	52	6620
2026-01-08 23:39:38.18	15.52	47.14	-38.9	-40.0	21.8	0.00e+00	92	35	0	878706688	52	5709
2026-01-08 23:39:39.19	15.09	46.93	-38.5	-39.5	22.3	0.00e+00	0	35	0	880803840	50	6053
2026-01-08 23:39:40.20	14.66	46.71	-38.6	-39.7	22.0	0.00e+00	92	35	0	881852416	50	6180
2026-01-08 23:39:41.21	14.24	46.50	-38.9	-40.0	21.7	0.00e+00	5	34	0	883949568	50	6400
2026-01-08 23:39:42.22	13.82	46.28	-38.8	-39.8	22.0	0.00e+00	92	35	0	886046720	50	6284
2026-01-08 23:39:43.23	13.41	46.06	-38.4	-39.3	22.5	0.00e+00	0	35	0	888143872	50	5954
2026-01-08 23:39:44.24	13.01	45.85	-38.2	-39.2	22.3	0.00e+00	56	35	0	890241024	50	5885
2026-01-08 23:39:45.25	12.61	45.63	-38.0	-39.0	22.6	0.00e+00	37	35	0	892338176	48	6395
2026-01-08 23:39:46.25	12.22	45.41	-38.9	-40.0	21.8	0.00e+00	0	35	0	893386752	48	7252
2026-01-08 23:39:47.27	11.83	45.19	-40.6	-42.1	19.9	0.00e+00	90	35	0	895483904	52	7284
2026-01-08 23:39:48.28	11.45	44.98	-41.9	-43.6	18.6	0.00e+00	0	35	0	897581056	56	6864
2026-01-08 23:39:49.29	11.07	44.76	-41.0	-42.4	19.8	0.00e+00	92	35	0	899678208	56	5997
2026-01-08 23:39:50.29	10.71	44.54	-39.8	-41.0	21.0	0.00e+00	0	35	0	901775360	54	5710
2026-01-08 23:39:51.31	10.34	44.32	-39.3	-40.5	21.5	0.00e+00	92	35	0	902823936	52	6046
2026-01-08 23:39:52.32	9.97	44.10	-38.9	-40.0	21.9	0.00e+00	31	35	0	904921088	52	5700
2026-01-08 23:39:53.33	9.62	43.88	-39.2	-40.3	21.5	0.00e+00	0	35	0	907018240	52	5942
2026-01-08 23:39:54.33	9.27	43.67	-39.5	-40.6	21.7	0.00e+00	49	35	0	909115392	52	6136
2026-01-08 23:39:55.34	8.92	43.45	-38.6	-39.6	22.2	0.00e+00	0	35	0	911212544	50	6130
2026-01-08 23:39:56.35	8.58	43.23	-37.9	-38.8	22.8	0.00e+00	68	35	0	912261120	50	5619
2026-01-08 23:39:57.36	8.24	43.01	-36.9	-37.7	23.7	0.00e+00	0	35	0	914358272	48	5550
2026-01-08 23:39:58.37	7.91	42.79	-36.9	-37.7	23.6	0.00e+00	90	35	0	916455424	46	6232
2026-01-08 23:39:59.38	7.58	42.58	-37.3	-38.2	23.0	0.00e+00	25	35	0	918552576	46	6584
2026-01-08 23:40:00.38	7.26	42.36	-37.7	-38.7	22.8	0.00e+00	0	35	0	920649728	46	6940
2026-01-08 23:40:01.39	6.94	42.14	-38.3	-39.3	22.2	0.00e+00	83	35	0	921698304	48	6651
2026-01-08 23:40:02.40	6.63	41.93	-39.4	-40.6	21.4	0.00e+00	0	35	0	923795456	50	6861
2026-01-08 23:40:03.41	6.32	41.71	-40.2	-41.6	20.2	0.00e+00	80	35	0	925892608	52	6876
2026-01-08 23:40:04.42	6.01	41.49	-40.8	-42.3	19.9	0.00e+00	0	35	0	927989760	54	6638
2026-01-08 23:40:05.43	5.71	41.28	-39.8	-41.1	20.9	0.00e+00	63	35	0	930086912	54	5770
2026-01-08 23:40:06.44	5.41	41.06	-39.4	-40.5	21.4	0.00e+00	17	35	0	931135488	52	6069
2026-01-08 23:40:07.45	5.12	40.84	-39.4	-40.5	21.4	0.00e+00	0	35	0	933232640	52	6091
2026-01-08 23:40:08.46	4.83	40.63	-39.1	-40.2	21.6	0.00e+00	90	35	0	935329792	52	5855
2026-01-08 23:40:09.47	4.54	40.41	-39.8	-41.0	20.8	0.00e+00	0	35	0	937426944	52	6464
2026-01-08 23:40:10.48	4.26	40.20	-40.3	-41.7	20.2	0.00e+00	69	35	0	939524096	52	6960
2026-01-08 23:40:11.49	3.98	39.99	-39.9	-41.1	20.8	0.00e+00	0	35	0	940572672	52	6515
2026-01-08 23:40:12.50	3.70	39.77	-39.5	-40.8	21.0	0.00e+00	92	35	0	942669824	52	6263
2026-01-08 23:40:13.51	3.43	39.56	-39.2	-40.3	21.6	0.00e+00	0	35	0	944766976	52	5942
2026-01-08 23:40:14.52	3.16	39.35	-39.4	-40.6	21.3	0.00e+00	0	35	0	946864128	52	6162
2026-01-08 23:40:15.53	2.90	39.14	-40.0	-41.2	21.1	0.00e+00	76	35	0	948961280	52	6581
2026-01-08 23:40:16.54	2.64	38.93	-40.2	-41.5	20.2	0.00e+00	0	35	0	950009856	52	6827
2026-01-08 23:40:17.55	2.38	38.72	-40.9	-42.4	19.4	0.00e+00	24	35	0	952107008	54	6726
2026-01-08 23:40:18.56	2.12	38.51	-40.4	-41.7	20.3	0.00e+00	0	35	0	954204160	54	6245
2026-01-08 23:40:19.57	1.87	38.30	-40.0	-41.3	20.6	0.00e+00	91	35	0	956301312	54	5957
2026-01-08 23:40:20.57	1.63	38.09	-39.2	-40.3	21.5	0.00e+00	0	35	0	958398464	52	5962
2026-01-08 23:40:21.58	1.38	37.88	-38.7	-39.7	22.0	0.00e+00	0	35	0	960495616	52	5556
2026-01-08 23:40:22.59	1.14	37.68	-38.0	-39.0	22.7	0.00e+00	92	35	0	961544192	50	5714
2026-01-08 23:40:23.60	0.90	37.47	-37.9	-38.8	22.7	0.00e+00	0	35	0	963641344	50	5605
2026-01-08 23:40:24.61	0.67	37.27	-38.6	-39.6	21.9	0.00e+00	26	35	0	965738496	50	6111
2026-01-08 23:40:25.62	0.44	37.06	-39.4	-40.5	21.4	0.00e+00	0	35	0	967835648	50	6831
2026-01-08 23:40:26.63	0.21	36.86	-38.8	-39.8	21.9	0.00e+00	92	35	0	969932800	50	6317
2026-01-08 23:40:27.64	359.98	36.65	-39.2	-40.3	21.5	0.00e+00	0	35	0	970981376	50	6632
2026-01-08 23:40:28.65	359.76	36.45	-39.2	-40.3	21.6	0.00e+00	21	35	0	973078528	50	6616
2026-01-08 23:40:29.66	359.54	36.25	-39.3	-40.4	21.5	0.00e+00	92	35	0	975175680	50	6746
2026-01-08 23:40:30.67	359.32	36.05	-39.5	-40.7	21.2	0.00e+00	0	35	0	977272832	50	6931
2026-01-08 23:40:31.68	359.10	35.85	-38.5	-39.6	22.2	0.00e+00	29	35	0	979369984	50	6111
2026-01-08 23:40:32.68	358.89	35.65	-38.3	-39.3	22.2	0.00e+00	0	35	0	980418560	50	5926
2026-01-08 23:40:33.69	358.68	35.45	-38.5	-39.6	22.2	0.00e+00	92	35	0	982515712	50	6123
2026-01-08 23:40:34.70	358.47	35.26	-39.0	-40.1	21.2	0.00e+00	0	35	0	984612864	50	6473
2026-01-08 23:40:35.71	358.27	35.06	-40.5	-41.9	20.2	0.00e+00	68	35	0	986710016	52	7122
2026-01-08 23:40:36.72	358.07	34.86	-40.7	-42.1	20.0	0.00e+00	25	35	0	988807168	54	6503
2026-01-08 23:40:37.73	357.87	34.67	-40.4	-41.6	20.6	0.00e+00	0	35	0	989855744	54	6173
2026-01-08 23:40:38.74	357.67	34.47	-39.0	-40.1	21.8	0.00e+00	22	35	0	991952896	52	5762
2026-01-08 23:40:39.75	357.47	34.28	-39.3	-40.5	21.8	0.00e+00	0	35	0	994050048	52	6045
2026-01-08 23:40:40.76	357.28	34.09	-39.4	-40.5	21.2	0.00e+00	0	35	0	996147200	52	6078
2026-01-08 23:40:41.77	357.09	33.89	-39.9	-41.2	20.7	0.00e+00	0	35	0	998244352	52	6588
2026-01-08 23:40:42.78	356.90	33.70	-40.1	-41.5	20.5	0.00e+00	0	35	0	999292928	52	6813
2026-01-08 23:40:43.78	356.72	33.51	-40.1	-41.5	20.5	0.00e+00	0	35	0	1001390080	52	6808
2026-01-08 23:40:44.79	356.53	33.32	-39.5	-40.7	21.4	0.00e+00	0	35	0	1003487232	52	6235
2026-01-08 23:40:45.80	356.35	33.14	-39.0	-40.1	21.6	0.00e+00	46	35	0	1005584384	52	5810
2026-01-08 23:40:46.81	356.17	32.95	-39.2	-40.4	21.3	0.00e+00	0	35	0	1007681536	52	6008
2026-01-08 23:40:47.82	355.99	32.76	-39.3	-40.5	21.3	0.00e+00	6	35	0	1008730112	52	6099
2026-01-08 23:40:48.83	355.82	32.57	-39.3	-40.5	21.3	0.00e+00	0	35	0	1010827264	52	6091
2026-01-08 23:40:49.84	355.64	32.39	-38.8	-40.0	21.8	0.00e+00	0	35	0	1012924416	52	5706
2026-01-08 23:40:50.85	355.47	32.20	-38.6	-39.6	22.0	0.00e+00	0	35	0	1015021568	50	6152
2026-01-08 23:40:51.86	355.30	32.02	-37.5	-38.4	23.0	0.00e+00	0	35	0	1017118720	48	6008
2026-01-08 23:40:52.87	355.14	31.84	-37.5	-38.4	22.8	0.00e+00	92	35	0	1018167296	48	6014
2026-01-08 23:40:53.88	354.97	31.66	-38.1	-39.1	22.2	0.00e+00	0	35	0	1020264448	48	6517
2026-01-08 23:40:54.89	354.81	31.47	-39.1	-40.3	21.3	0.00e+00	92	35	0	1022361600	50	6621
2026-01-08 23:40:55.90	354.64	31.29	-39.6	-40.9	20.8	0.00e+00	0	35	0	1024458752	50	7122
2026-01-08 23:40:56.90	354.49	31.12	-39.7	-41.0	20.9	0.00e+00	0	35	0	1026555904	52	6425
2026-01-08 23:40:57.91	354.33	30.94	-39.1	-40.3	21.6	0.00e+00	0	35	0	1027604480	52	5911
2026-01-08 23:40:58.92	354.17	30.76	-38.3	-39.3	22.4	0.00e+00	0	35	0	1029701632	50	5911
2026-01-08 23:40:59.93	354.02	30.58	-37.5	-38.4	23.0	0.00e+00	85	35	0	1031798784	48	6018
2026-01-08 23:41:00.94	353.86	30.41	-37.5	-38.5	23.0	0.00e+00	0	35	0	1033895936	48	6043
2026-01-08 23:41:01.95	353.71	30.23	-37.5	-38.4	22.8	0.00e+00	71	35	0	1035993088	48	6022
2026-01-08 23:41:02.95	353.56	30.06	-37.6	-38.6	22.9	0.00e+00	0	35	0	1037041664	48	6123
2026-01-08 23:41:03.96	353.41	29.89	-37.9	-38.8	22.8	0.00e+00	0	35	0	1039138816	48	6295
2026-01-08 23:41:04.97	353.27	29.71	-37.4	-38.3	23.1	0.00e+00	0	35	0	1041235968	48	5926
2026-01-08 23:41:05.98	353.12	29.54	-36.9	-37.8	23.4	0.00e+00	0	35	0	1043333120	48	5588
2026-01-08 23:41:06.99	352.98	29.37	-36.7	-37.6	23.6	0.00e+00	0	35	0	1045430272	46	6136
2026-01-08 23:41:08.00	352.84	29.20	-36.8	-37.7	23.6	0.00e+00	0	35	0	1046478848	46	6174
2026-01-08 23:41:09.01	352.70	29.03	-37.0	-37.9	23.4	0.00e+00	45	35	0	1048576000	46	6362
2026-01-08 23:41:10.02	352.56	28.86	-38.0	-39.0	22.5	0.00e+00	0	35	0	1050673152	48	6398
2026-01-08 23:41:11.02	352.42	28.70	-38.4	-39.4	22.1	0.00e+00	0	35	0	1052770304	48	6763
2026-01-08 23:41:12.03	352.29	28.53	-38.6	-39.7	22.1	0.00e+00	0	35	0	1054867456	50	6197
2026-01-08 23:41:13.04	352.15	28.36	-38.6	-39.7	22.2	0.00e+00	0	35	0	1056964608	50	6197
2026-01-08 23:41:14.05	352.02	28.20	-38.4	-39.4	22.2	0.00e+00	81	35	0	1058013184	50	6025
2026-01-08 23:41:15.06	351.89	28.03	-38.3	-39.3	22.4	0.00e+00	0	35	0	1060110336	50	5929
2026-01-08 23:41:16.07	351.76	27.87	-38.1	-39.1	22.4	0.00e+00	83	35	0	1062207488	50	5809
2026-01-08 23:41:17.08	351.63	27.71	-38.2	-39.2	22.2	0.00e+00	0	35	0	1064304640	50	5875
2026-01-08 23:41:18.09	351.50	27.54	-38.5	-39.6	22.2	0.00e+00	91	35	0	1066401792	50	6123
2026-01-08 23:41:19.10	351.38	27.38	-38.5	-39.5	22.2	0.00e+00	0	35	0	1067450368	50	6102
2026-01-08 23:41:20.11	351.25	27.22	-38.1	-39.2	22.5	0.00e+00	0	35	0	1069547520	50	5862
2026-01-08 23:41:21.12	351.13	27.06	-38.0	-39.0	22.6	0.00e+00	0	35	0	1071644672	50	5721
2026-01-08 23:41:22.13	351.01	26.90	-37.6	-38.6	22.8	0.00e+00	0	35	0	1073741824	50	5464
2026-01-08 23:41:23.14	350.89	26.75	-37.6	-38.6	22.9	0.00e+00	95	35	0	1075838976	48	6107
2026-01-08 23:41:24.14	350.77	26.59	-37.3	-38.2	23.1	0.00e+00	0	35	0	1076887552	48	5864
2026-01-08 23:41:25.15	350.65	26.43	-37.4	-38.3	23.0	0.00e+00	90	35	0	1078984704	48	5955
2026-01-08 23:41:26.16	350.53	26.28	-37.4	-38.3	22.9	0.00e+00	0	35	0	1081081856	48	5962
2026-01-08 23:41:27.17	350.41	26.12	-37.8	-38.8	22.5	0.00e+00	0	35	0	1083179008	48	6292
2026-01-08 23:41:28.18	350.30	25.97	-38.2	-39.3	22.2	0.00e+00	17	35	0	1085276160	48	6651
2026-01-08 23:41:29.19	350.19	25.81	-38.6	-39.7	21.8	0.00e+00	0	35	0	1086324736	48	7000
2026-01-08 23:41:30.20	350.07	25.66	-39.3	-40.5	21.3	0.00e+00	25	35	0	1088421888	50	6819
2026-01-08 23:41:31.21	349.96	25.51	-38.9	-40.1	21.5	0.00e+00	0	35	0	1090519040	50	6483
2026-01-08 23:41:32.22	349.85	25.36	-38.9	-40.1	21.6	0.00e+00	92	35	0	1092616192	50	6476
2026-01-08 23:41:33.23	349.74	25.21	-38.9	-40.1	21.4	0.00e+00	0	35	0	1094713344	50	6465
2026-01-08 23:41:34.24	349.63	25.06	-38.9	-40.0	21.7	0.00e+00	0	35	0	1095761920	50	6414
2026-01-08 23:41:35.25	349.53	24.91	-38.8	-39.8	21.8	0.00e+00	0	35	0	1097859072	50	6307
2026-01-08 23:41:36.26	349.42	24.76	-38.9	-40.0	21.6	0.00e+00	0	35	0	1099956224	50	6462
2026-01-08 23:41:37.27	349.31	24.61	-38.8	-39.9	21.8	0.00e+00	69	35	0	1102053376	50	6324
2026-01-08 23:41:38.27	349.21	24.47	-39.0	-40.1	21.6	0.00e+00	0	35	0	1104150528	50	6536
2026-01-08 23:41:39.28	349.11	24.32	-38.9	-40.0	21.7	0.00e+00	39	35	0	1105199104	50	6459
2026-01-08 23:41:40.29	349.01	24.18	-38.7	-39.8	21.9	0.00e+00	0	35	0	1107296256	50	6255
2026-01-08 23:41:41.30	348.90	24.03	-38.4	-39.5	22.1	0.00e+00	6	35	0	1109393408	50	6046
2026-01-08 23:41:42.31	348.80	23.89	-38.4	-39.4	22.2	0.00e+00	0	35	0	1111490560	50	6002
2026-01-08 23:41:43.32	348.70	23.74	-38.2	-39.2	22.4	0.00e+00	0	35	0	1113587712	50	5831
2026-01-08 23:41:44.33	348.61	23.60	-38.3	-39.3	22.3	0.00e+00	70	35	0	1114636288	50	5907
2026-01-08 23:41:45.33	348.51	23.46	-38.3	-39.4	22.1	0.00e+00	0	35	0	1116733440	50	5968
2026-01-08 23:41:46.35	348.41	23.32	-38.2	-39.3	22.1	0.00e+00	72	35	0	1118830592	50	5899
2026-01-08 23:41:47.35	348.32	23.18	-38.5	-39.5	21.9	0.00e+00	0	35	0	1120927744	50	6059
2026-01-08 23:41:48.36	348.22	23.04	-38.6	-39.7	21.8	0.00e+00	70	35	0	1123024896	50	6205
2026-01-08 23:41:49.37	348.13	22.90	-38.2	-39.2	22.5	0.00e+00	0	35	0	1125122048	50	5885
2026-01-08 23:41:50.38	348.03	22.76	-38.0	-39.0	22.4	0.00e+00	0	35	0	1126170624	50	5737
2026-01-08 23:41:51.38	347.94	22.62	-37.7	-38.6	22.8	0.00e+00	0	35	0	1128267776	48	6163
2026-01-08 23:41:52.40	347.85	22.48	-37.7	-38.6	22.7	0.00e+00	0	35	0	1130364928	48	6170
2026-01-08 23:41:53.40	347.76	22.35	-37.2	-38.1	23.0	0.00e+00	58	35	0	1132462080	48	5818
2026-01-08 23:41:54.41	347.67	22.21	-37.2	-38.1	23.1	0.00e+00	0	35	0	1133510656	48	5828
2026-01-08 23:41:55.42	347.58	22.08	-37.0	-37.9	23.3	0.00e+00	31	35	0	1135607808	48	5642
2026-01-08 23:41:56.43	347.49	21.94	-36.9	-37.8	23.4	0.00e+00	0	35	0	1137704960	48	5570
2026-01-08 23:41:57.44	347.41	21.81	-37.2	-38.2	23.1	0.00e+00	0	35	0	1139802112	48	5852
2026-01-08 23:41:58.44	347.32	21.68	-37.3	-38.3	23.0	0.00e+00	0	35	0	1141899264	48	5940
2026-01-08 23:41:59.45	347.24	21.54	-37.7	-38.7	22.8	0.00e+00	0	35	0	1142947840	48	6230
2026-01-08 23:42:00.46	347.15	21.41	-37.8	-38.8	22.6	0.00e+00	20	35	0	1145044992	48	6303
2026-01-08 23:42:01.47	347.07	21.28	-38.3	-39.4	22.0	0.00e+00	0	35	0	1147142144	48	6759
2026-01-08 23:42:02.48	346.98	21.15	-38.7	-39.9	21.7	0.00e+00	92	35	0	1149239296	48	7106
2026-01-08 23:42:03.49	346.90	21.02	-39.1	-40.4	21.1	0.00e+00	0	35	0	1151336448	50	6709
2026-01-08 23:42:04.50	346.82	20.89	-39.4	-40.7	21.0	0.00e+00	0	35	0	1153433600	50	6975
2026-01-08 23:42:05.50	346.74	20.76	-39.5	-40.8	20.9	0.00e+00	0	35	0	1154482176	50	7051
2026-01-08 23:42:06.51	346.66	20.63	-39.8	-41.1	20.7	0.00e+00	0	35	0	1156579328	52	6491
2026-01-08 23:42:07.52	346.58	20.50	-39.6	-40.8	20.8	0.00e+00	84	35	0	1158676480	52	6297
2026-01-08 23:42:08.53	346.50	20.38	-39.4	-40.7	20.9	0.00e+00	0	35	0	1160773632	52	6179
2026-01-08 23:42:09.53	346.42	20.25	-39.3	-40.5	21.0	0.00e+00	92	35	0	1162870784	52	6069
2026-01-08 23:42:10.54	346.34	20.13	-39.0	-40.2	21.4	0.00e+00	0	35	0	1163919360	52	5863
2026-01-08 23:42:11.55	346.27	20.00	-38.7	-39.8	21.7	0.00e+00	0	35	0	1166016512	52	5611
2026-01-08 23:42:12.56	346.19	19.87	-38.4	-39.4	22.1	0.00e+00	0	35	0	1168113664	50	6013
2026-01-08 23:42:13.57	346.11	19.75	-38.6	-39.7	21.9	0.00e+00	0	35	0	1170210816	50	6192
2026-01-08 23:42:14.58	346.04	19.63	-38.2	-39.3	22.2	0.00e+00	23	35	0	1172307968	50	5930
2026-01-08 23:42:15.59	345.96	19.50	-37.8	-38.8	22.5	0.00e+00	0	35	0	1173356544	50	5629
2026-01-08 23:42:16.60	345.89	19.38	-37.7	-38.7	22.6	0.00e+00	92	35	0	1175453696	48	6182
2026-01-08 23:42:17.61	345.82	19.26	-37.3	-38.3	22.8	0.00e+00	0	35	0	1177550848	48	5922
2026-01-08 23:42:18.62	345.74	19.14	-37.1	-38.1	23.2	0.00e+00	90	35	0	1179648000	48	5770
2026-01-08 23:42:19.63	345.67	19.01	-36.7	-37.6	23.5	0.00e+00	0	35	0	1181745152	46	6140
2026-01-08 23:42:20.64	345.60	18.89	-36.7	-37.6	23.5	0.00e+00	0	35	0	1182793728	46	6123
2026-01-08 23:42:21.64	345.53	18.78	-36.4	-37.2	23.7	0.00e+00	35	35	0	1184890880	46	5895
2026-01-08 23:42:22.65	345.46	18.66	-36.3	-37.1	23.8	0.00e+00	0	35	0	1186988032	46	5796
2026-01-08 23:42:23.66	345.39	18.54	-36.0	-36.8	24.0	0.00e+00	19	35	0	1189085184	46	5624
2026-01-08 23:42:24.67	345.32	18.42	-36.2	-37.0	23.9	0.00e+00	0	35	0	1191182336	46	5732
2026-01-08 23:42:25.68	345.25	18.30	-36.4	-37.2	23.8	0.00e+00	92	35	0	1192230912	46	5853
2026-01-08 23:42:26.69	345.18	18.18	-36.0	-36.8	24.1	0.00e+00	0	35	0	1194328064	46	5619
2026-01-08 23:42:27.70	345.12	18.07	-36.4	-37.3	23.7	0.00e+00	0	35	0	1196425216	46	5910
2026-01-08 23:42:28.71	345.05	17.95	-36.0	-36.9	24.0	0.00e+00	21	35	0	1198522368	46	5637
2026-01-08 23:42:29.72	344.98	17.83	-36.1	-37.0	23.9	0.00e+00	10	35	0	1200619520	46	5710
2026-01-08 23:42:30.73	344.92	17.72	-36.3	-37.2	23.7	0.00e+00	20	35	0	1201668096	46	5859
