passes_logs/2025/01/08/SPB_Silybum_02/SPB_Silybum_02__20250108_133132_AQUA_rec.log

#Pass ID: 20250108_133132_AQUA
#Satellite: AQUA
#Configuration: AQUA
#Start time: 2025-01-08 13:31:33

#Version: 2.0.20230423
#Station: SPB_Silybum_02
#Location: 30.233357 lon 59.946436 lat
#TLE: 1 27424U 02022A   25007.87424311  .00002334  00000+0  48938-3 0  9995
#TLE: 2 27424  98.3576 324.4746 0001447 118.7932 262.7333 14.60655264206582

#Time	Az	El	Level	Level2	SNR	BER	Gain	Gain2
2025-01-08 13:31:35.90	233.34	4.14	
2025-01-08 13:31:36.11	233.37	4.16	
2025-01-08 13:31:36.31	233.39	4.16	
2025-01-08 13:31:36.52	233.42	4.17	
2025-01-08 13:31:36.72	233.44	4.18	
2025-01-08 13:31:36.93	233.47	4.19	
2025-01-08 13:31:37.13	233.49	4.20	
2025-01-08 13:31:37.34	233.52	4.21	
2025-01-08 13:31:37.54	233.54	4.22	
2025-01-08 13:31:37.75	233.57	4.23	
2025-01-08 13:31:37.95	233.60	4.24	
2025-01-08 13:31:38.16	233.62	4.25	
2025-01-08 13:31:38.37	233.65	4.26	
2025-01-08 13:31:38.57	233.67	4.27	
2025-01-08 13:31:38.78	233.70	4.28	
2025-01-08 13:31:38.98	233.72	4.29	
2025-01-08 13:31:39.19	233.75	4.30	
2025-01-08 13:31:39.39	233.77	4.31	
2025-01-08 13:31:39.60	233.80	4.32	
2025-01-08 13:31:39.81	233.83	4.33	
2025-01-08 13:31:40.01	233.85	4.34	
2025-01-08 13:31:40.22	233.88	4.35	
2025-01-08 13:31:40.43	233.91	4.36	
2025-01-08 13:31:40.63	233.93	4.37	
2025-01-08 13:31:40.83	233.96	4.38	
2025-01-08 13:31:41.04	233.98	4.39	
2025-01-08 13:31:41.25	234.01	4.40	
2025-01-08 13:31:41.45	234.03	4.41	
2025-01-08 13:31:41.66	234.06	4.42	
2025-01-08 13:31:41.88	234.09	4.43	
2025-01-08 13:31:42.08	234.11	4.44	
2025-01-08 13:31:42.29	234.14	4.45	
2025-01-08 13:31:42.49	234.16	4.46	
2025-01-08 13:31:42.70	234.19	4.47	
2025-01-08 13:31:42.90	234.22	4.48	
2025-01-08 13:31:43.10	234.24	4.49	
2025-01-08 13:31:43.31	234.27	4.50	
2025-01-08 13:31:43.52	234.29	4.51	
2025-01-08 13:31:43.72	234.32	4.52	
2025-01-08 13:31:43.94	234.35	4.53	
2025-01-08 13:31:44.15	234.37	4.54	
2025-01-08 13:31:44.35	234.40	4.55	
2025-01-08 13:31:44.56	234.43	4.56	
2025-01-08 13:31:44.76	234.45	4.57	
2025-01-08 13:31:44.97	234.48	4.58	
2025-01-08 13:31:45.17	234.50	4.59	
2025-01-08 13:31:45.38	234.53	4.60	
2025-01-08 13:31:45.58	234.56	4.61	
2025-01-08 13:31:45.79	234.58	4.62	
2025-01-08 13:31:45.99	234.61	4.63	
2025-01-08 13:31:46.20	234.64	4.64	
2025-01-08 13:31:46.40	234.66	4.65	
2025-01-08 13:31:46.61	234.69	4.66	
2025-01-08 13:31:46.82	234.71	4.67	
2025-01-08 13:31:47.02	234.74	4.68	
2025-01-08 13:31:47.22	234.77	4.69	
2025-01-08 13:31:47.43	234.79	4.70	
2025-01-08 13:31:47.63	234.82	4.71	
2025-01-08 13:31:47.84	234.85	4.72	
2025-01-08 13:31:48.05	234.87	4.73	
2025-01-08 13:31:48.25	234.90	4.74	
2025-01-08 13:31:48.45	234.92	4.75	
2025-01-08 13:31:48.66	234.95	4.76	
2025-01-08 13:31:48.86	234.98	4.77	
2025-01-08 13:31:49.07	235.00	4.78	
2025-01-08 13:31:49.27	235.03	4.79	
2025-01-08 13:31:49.48	235.06	4.80	
2025-01-08 13:31:49.69	235.08	4.81	
2025-01-08 13:31:49.89	235.11	4.82	
2025-01-08 13:31:50.10	235.14	4.83	
2025-01-08 13:31:50.30	235.16	4.84	
2025-01-08 13:31:50.50	235.19	4.85	
2025-01-08 13:31:50.71	235.22	4.86	
2025-01-08 13:31:50.91	235.24	4.87	
2025-01-08 13:31:51.12	235.27	4.88	
2025-01-08 13:31:51.32	235.30	4.89	
2025-01-08 13:31:51.53	235.32	4.90	
2025-01-08 13:31:51.73	235.35	4.91	
2025-01-08 13:31:51.94	235.38	4.92	
2025-01-08 13:31:52.15	235.40	4.93	
2025-01-08 13:31:52.35	235.43	4.94	
2025-01-08 13:31:52.56	235.46	4.95	
2025-01-08 13:31:52.76	235.48	4.96	
2025-01-08 13:31:52.97	235.51	4.97	
2025-01-08 13:31:53.17	235.54	4.98	
2025-01-08 13:31:53.38	235.56	4.99	
2025-01-08 13:31:53.58	235.59	5.00	
2025-01-08 13:31:53.79	235.62	5.01	
2025-01-08 13:31:53.99	235.64	5.02	
2025-01-08 13:31:54.20	235.67	5.03	
2025-01-08 13:31:54.40	235.70	5.04	
2025-01-08 13:31:54.61	235.73	5.05	
2025-01-08 13:31:54.81	235.75	5.06	
2025-01-08 13:31:55.02	235.78	5.07	
2025-01-08 13:31:55.23	235.81	5.08	
2025-01-08 13:31:55.44	235.84	5.09	
2025-01-08 13:31:55.64	235.86	5.10	
2025-01-08 13:31:55.85	235.89	5.11	
2025-01-08 13:31:56.05	235.92	5.12	
2025-01-08 13:31:56.25	235.94	5.13	
2025-01-08 13:31:56.46	235.97	5.14	
2025-01-08 13:31:56.66	236.00	5.15	
2025-01-08 13:31:56.86	236.02	5.16	
2025-01-08 13:31:57.07	236.05	5.17	
2025-01-08 13:31:57.28	236.08	5.18	
2025-01-08 13:31:57.48	236.11	5.19	
2025-01-08 13:31:57.69	236.13	5.20	
2025-01-08 13:31:57.89	236.16	5.21	
2025-01-08 13:31:58.10	236.19	5.22	
2025-01-08 13:31:58.30	236.21	5.23	
2025-01-08 13:31:58.51	236.24	5.24	
2025-01-08 13:31:58.71	236.27	5.25	
2025-01-08 13:31:58.92	236.30	5.26	
2025-01-08 13:31:59.12	236.32	5.27	
2025-01-08 13:31:59.33	236.35	5.28	
2025-01-08 13:31:59.53	236.38	5.29	
2025-01-08 13:31:59.74	236.41	5.30	
2025-01-08 13:31:59.94	236.43	5.31	
2025-01-08 13:32:00.15	236.46	5.32	
2025-01-08 13:32:00.35	236.49	5.33	
2025-01-08 13:32:00.56	236.52	5.34	
2025-01-08 13:32:00.76	236.54	5.34	
2025-01-08 13:32:00.97	236.57	5.35	
2025-01-08 13:32:01.17	236.60	5.36	
2025-01-08 13:32:01.38	236.63	5.37	
2025-01-08 13:32:01.59	236.66	5.38	
2025-01-08 13:32:01.79	236.68	5.39	
2025-01-08 13:32:01.99	236.71	5.40	
2025-01-08 13:32:02.20	236.74	5.41	
2025-01-08 13:32:02.41	236.77	5.42	
2025-01-08 13:32:02.61	236.79	5.43	
2025-01-08 13:32:02.81	236.82	5.44	
2025-01-08 13:32:03.02	236.85	5.45	
2025-01-08 13:32:03.22	236.88	5.46	
2025-01-08 13:32:03.43	236.90	5.47	
2025-01-08 13:32:03.63	236.93	5.48	
2025-01-08 13:32:03.84	236.96	5.49	
2025-01-08 13:32:04.04	236.99	5.50	
2025-01-08 13:32:04.25	237.02	5.51	
2025-01-08 13:32:04.45	237.04	5.52	
2025-01-08 13:32:04.66	237.07	5.53	
2025-01-08 13:32:04.86	237.10	5.54	
2025-01-08 13:32:05.07	237.13	5.55	
2025-01-08 13:32:05.27	237.16	5.56	
2025-01-08 13:32:05.48	237.18	5.57	
2025-01-08 13:32:05.68	237.21	5.58	
2025-01-08 13:32:05.89	237.24	5.59	
2025-01-08 13:32:06.09	237.27	5.60	
2025-01-08 13:32:06.30	237.30	5.61	
2025-01-08 13:32:06.50	237.32	5.62	
2025-01-08 13:32:06.71	237.35	5.63	
2025-01-08 13:32:06.91	237.38	5.64	
2025-01-08 13:32:07.12	237.41	5.65	
2025-01-08 13:32:07.32	237.44	5.66	
2025-01-08 13:32:07.53	237.47	5.67	
2025-01-08 13:32:07.73	237.49	5.68	
2025-01-08 13:32:07.94	237.52	5.69	
2025-01-08 13:32:08.14	237.55	5.70	
2025-01-08 13:32:08.34	237.58	5.71	
2025-01-08 13:32:08.55	237.61	5.72	
2025-01-08 13:32:08.76	237.63	5.73	
2025-01-08 13:32:08.96	237.66	5.74	
2025-01-08 13:32:09.17	237.69	5.75	
2025-01-08 13:32:09.37	237.72	5.76	
2025-01-08 13:32:09.58	237.75	5.77	
2025-01-08 13:32:09.78	237.78	5.78	
2025-01-08 13:32:09.99	237.81	5.79	
2025-01-08 13:32:10.19	237.83	5.80	
2025-01-08 13:32:10.40	237.86	5.81	
2025-01-08 13:32:10.60	237.89	5.82	
2025-01-08 13:32:10.81	237.92	5.83	
2025-01-08 13:32:11.01	237.95	5.84	
2025-01-08 13:32:11.22	237.98	5.85	
2025-01-08 13:32:11.42	238.00	5.86	
2025-01-08 13:32:11.63	238.03	5.87	
2025-01-08 13:32:11.83	238.06	5.87	
2025-01-08 13:32:12.04	238.09	5.88	
2025-01-08 13:32:12.24	238.12	5.89	
2025-01-08 13:32:12.45	238.15	5.90	
2025-01-08 13:32:12.65	238.18	5.91	
2025-01-08 13:32:12.86	238.21	5.92	
2025-01-08 13:32:13.06	238.23	5.93	
2025-01-08 13:32:13.27	238.26	5.94	
2025-01-08 13:32:13.48	238.29	5.95	
2025-01-08 13:32:13.68	238.32	5.96	
2025-01-08 13:32:13.88	238.35	5.97	
2025-01-08 13:32:14.09	238.38	5.98	
2025-01-08 13:32:14.29	238.41	5.99	
2025-01-08 13:32:14.50	238.44	6.00	
2025-01-08 13:32:14.70	238.46	6.01	
2025-01-08 13:32:14.90	238.49	6.02	
2025-01-08 13:32:15.11	238.52	6.03	
2025-01-08 13:32:15.32	238.55	6.04	
2025-01-08 13:32:15.52	238.58	6.05	
2025-01-08 13:32:15.73	238.61	6.06	
2025-01-08 13:32:15.94	238.64	6.07	
2025-01-08 13:32:16.14	238.67	6.08	
2025-01-08 13:32:16.35	238.70	6.09	
2025-01-08 13:32:16.55	238.73	6.10	
2025-01-08 13:32:16.75	238.75	6.11	
2025-01-08 13:32:16.96	238.78	6.12	
2025-01-08 13:32:17.16	238.81	6.13	
2025-01-08 13:32:17.37	238.84	6.14	
2025-01-08 13:32:17.57	238.87	6.15	
2025-01-08 13:32:17.78	238.90	6.16	
2025-01-08 13:32:17.98	238.93	6.17	
2025-01-08 13:32:18.19	238.96	6.18	
2025-01-08 13:32:18.39	238.99	6.19	
2025-01-08 13:32:18.60	239.02	6.20	
2025-01-08 13:32:18.81	239.05	6.21	
2025-01-08 13:32:19.01	239.08	6.22	
2025-01-08 13:32:19.21	239.11	6.23	
2025-01-08 13:32:19.42	239.14	6.24	
2025-01-08 13:32:19.62	239.16	6.24	
2025-01-08 13:32:19.83	239.19	6.25	
2025-01-08 13:32:20.03	239.22	6.26	
2025-01-08 13:32:20.24	239.25	6.27	
2025-01-08 13:32:20.44	239.28	6.28	
2025-01-08 13:32:20.65	239.31	6.29	
2025-01-08 13:32:20.85	239.34	6.30	
2025-01-08 13:32:21.06	239.37	6.31	
2025-01-08 13:32:21.26	239.40	6.32	
2025-01-08 13:32:21.47	239.43	6.33	
2025-01-08 13:32:21.67	239.46	6.34	
2025-01-08 13:32:21.88	239.49	6.35	
2025-01-08 13:32:22.08	239.52	6.36	
2025-01-08 13:32:22.29	239.55	6.37	
2025-01-08 13:32:22.49	239.58	6.38	
2025-01-08 13:32:22.70	239.61	6.39	
2025-01-08 13:32:22.90	239.64	6.40	
2025-01-08 13:32:23.11	239.67	6.41	
2025-01-08 13:32:23.31	239.70	6.42	
2025-01-08 13:32:23.52	239.73	6.43	
2025-01-08 13:32:23.72	239.76	6.44	
2025-01-08 13:32:23.93	239.79	6.45	
2025-01-08 13:32:24.13	239.82	6.46	
2025-01-08 13:32:24.34	239.85	6.47	
2025-01-08 13:32:24.54	239.88	6.48	
2025-01-08 13:32:24.75	239.91	6.49	
2025-01-08 13:32:24.95	239.94	6.50	
2025-01-08 13:32:25.16	239.97	6.51	
2025-01-08 13:32:25.36	240.00	6.52	
2025-01-08 13:32:25.57	240.03	6.53	
2025-01-08 13:32:25.77	240.06	6.54	
2025-01-08 13:32:25.98	240.09	6.54	
2025-01-08 13:32:26.18	240.12	6.55	
2025-01-08 13:32:26.39	240.15	6.56	
2025-01-08 13:32:26.59	240.18	6.57	
2025-01-08 13:32:26.80	240.21	6.58	
2025-01-08 13:32:27.00	240.24	6.59	
2025-01-08 13:32:27.21	240.27	6.60	
2025-01-08 13:32:27.42	240.30	6.61	
2025-01-08 13:32:27.62	240.33	6.62	
2025-01-08 13:32:27.83	240.36	6.63	
2025-01-08 13:32:28.03	240.39	6.64	
2025-01-08 13:32:28.24	240.42	6.65	
2025-01-08 13:32:28.44	240.45	6.66	
2025-01-08 13:32:28.64	240.48	6.67	
2025-01-08 13:32:28.85	240.51	6.68	
2025-01-08 13:32:29.05	240.54	6.69	
2025-01-08 13:32:29.26	240.57	6.70	
2025-01-08 13:32:29.46	240.60	6.71	
2025-01-08 13:32:29.67	240.63	6.72	
2025-01-08 13:32:29.88	240.66	6.73	
2025-01-08 13:32:30.08	240.69	6.74	
2025-01-08 13:32:30.29	240.72	6.75	
2025-01-08 13:32:30.49	240.75	6.76	
2025-01-08 13:32:30.70	240.78	6.77	
2025-01-08 13:32:30.90	240.81	6.78	
2025-01-08 13:32:31.11	240.85	6.79	
2025-01-08 13:32:31.31	240.88	6.79	
2025-01-08 13:32:31.51	240.91	6.80	
2025-01-08 13:32:31.72	240.94	6.81	
2025-01-08 13:32:31.92	240.97	6.82	
2025-01-08 13:32:32.13	241.00	6.83	
2025-01-08 13:32:32.33	241.03	6.84	
2025-01-08 13:32:32.54	241.06	6.85	
2025-01-08 13:32:32.74	241.09	6.86	
2025-01-08 13:32:32.96	241.12	6.87	
2025-01-08 13:32:33.17	241.15	6.88	
2025-01-08 13:32:33.37	241.18	6.89	
2025-01-08 13:32:33.58	241.22	6.90	
2025-01-08 13:32:33.79	241.25	6.91	
2025-01-08 13:32:33.99	241.28	6.92	
2025-01-08 13:32:34.20	241.31	6.93	
2025-01-08 13:32:34.40	241.34	6.94	
2025-01-08 13:32:34.61	241.37	6.95	
2025-01-08 13:32:34.82	241.40	6.96	
2025-01-08 13:32:35.02	241.43	6.97	
2025-01-08 13:32:35.22	241.46	6.98	
2025-01-08 13:32:35.43	241.49	6.99	
2025-01-08 13:32:35.64	241.53	7.00	
2025-01-08 13:32:35.84	241.56	7.01	
2025-01-08 13:32:36.05	241.59	7.02	
2025-01-08 13:32:36.25	241.62	7.02	
2025-01-08 13:32:36.46	241.65	7.03	
2025-01-08 13:32:36.66	241.68	7.04	
2025-01-08 13:32:36.87	241.71	7.05	
2025-01-08 13:32:37.07	241.74	7.06	
2025-01-08 13:32:37.28	241.78	7.07	
2025-01-08 13:32:37.48	241.81	7.08	
2025-01-08 13:32:37.69	241.84	7.09	
2025-01-08 13:32:37.89	241.87	7.10	
2025-01-08 13:32:38.10	241.90	7.11	
2025-01-08 13:32:38.30	241.93	7.12	
2025-01-08 13:32:38.51	241.96	7.13	
2025-01-08 13:32:38.71	241.99	7.14	
2025-01-08 13:32:38.92	242.03	7.15	
2025-01-08 13:32:39.12	242.06	7.16	
2025-01-08 13:32:39.33	242.09	7.17	
2025-01-08 13:32:39.53	242.12	7.18	
2025-01-08 13:32:39.74	242.15	7.19	
2025-01-08 13:32:39.94	242.18	7.20	
2025-01-08 13:32:40.15	242.21	7.21	
2025-01-08 13:32:40.35	242.25	7.21	
2025-01-08 13:32:40.56	242.28	7.22	
2025-01-08 13:32:40.76	242.31	7.23	
2025-01-08 13:32:40.97	242.34	7.24	
2025-01-08 13:32:41.18	242.37	7.25	
2025-01-08 13:32:41.38	242.40	7.26	
2025-01-08 13:32:41.59	242.44	7.27	
2025-01-08 13:32:41.79	242.47	7.28	
2025-01-08 13:32:42.00	242.50	7.29	
2025-01-08 13:32:42.20	242.53	7.30	
2025-01-08 13:32:42.41	242.56	7.31	
2025-01-08 13:32:42.63	242.60	7.32	
2025-01-08 13:32:42.83	242.63	7.33	
2025-01-08 13:32:43.04	242.66	7.34	
2025-01-08 13:32:43.24	242.69	7.35	
2025-01-08 13:32:43.45	242.72	7.36	
2025-01-08 13:32:43.65	242.76	7.37	
2025-01-08 13:32:43.86	242.79	7.38	
2025-01-08 13:32:44.06	242.82	7.39	
2025-01-08 13:32:44.26	242.85	7.39	
2025-01-08 13:32:44.47	242.88	7.40	
2025-01-08 13:32:44.67	242.91	7.41	
2025-01-08 13:32:44.88	242.95	7.42	
2025-01-08 13:32:45.08	242.98	7.43	
2025-01-08 13:32:45.29	243.01	7.44	
2025-01-08 13:32:45.49	243.04	7.45	
2025-01-08 13:32:45.70	243.08	7.46	
2025-01-08 13:32:45.90	243.11	7.47	
2025-01-08 13:32:46.11	243.14	7.48	
2025-01-08 13:32:46.31	243.17	7.49	
2025-01-08 13:32:46.52	243.20	7.50	
2025-01-08 13:32:46.72	243.24	7.51	
2025-01-08 13:32:46.93	243.27	7.52	
2025-01-08 13:32:47.13	243.30	7.53	
2025-01-08 13:32:47.34	243.33	7.53	
2025-01-08 13:32:47.55	243.37	7.54	
2025-01-08 13:32:47.75	243.40	7.55	
2025-01-08 13:32:47.95	243.43	7.56	
2025-01-08 13:32:48.16	243.46	7.57	
2025-01-08 13:32:48.36	243.49	7.58	
2025-01-08 13:32:48.57	243.53	7.59	
2025-01-08 13:32:48.77	243.56	7.60	
2025-01-08 13:32:48.99	243.59	7.61	
2025-01-08 13:32:49.20	243.63	7.62	
2025-01-08 13:32:49.40	243.66	7.63	
2025-01-08 13:32:49.61	243.69	7.64	
2025-01-08 13:32:49.81	243.72	7.65	
2025-01-08 13:32:50.01	243.76	7.66	
2025-01-08 13:32:50.22	243.79	7.67	
2025-01-08 13:32:50.42	243.82	7.67	
2025-01-08 13:32:50.63	243.85	7.68	
2025-01-08 13:32:50.84	243.89	7.69	
2025-01-08 13:32:51.04	243.92	7.70	
2025-01-08 13:32:51.25	243.95	7.71	
2025-01-08 13:32:51.45	243.98	7.72	
2025-01-08 13:32:51.66	244.02	7.73	
2025-01-08 13:32:51.86	244.05	7.74	
2025-01-08 13:32:52.07	244.08	7.75	
2025-01-08 13:32:52.27	244.12	7.76	
2025-01-08 13:32:52.47	244.15	7.77	
2025-01-08 13:32:52.68	244.18	7.78	
2025-01-08 13:32:52.89	244.21	7.79	
2025-01-08 13:32:53.09	244.25	7.80	
2025-01-08 13:32:53.29	244.28	7.80	
2025-01-08 13:32:53.50	244.31	7.81	
2025-01-08 13:32:53.70	244.34	7.82	
2025-01-08 13:32:53.91	244.38	7.83	
2025-01-08 13:32:54.12	244.41	7.84	
2025-01-08 13:32:54.33	244.45	7.85	
2025-01-08 13:32:54.54	244.48	7.86	
2025-01-08 13:32:54.75	244.51	7.87	
2025-01-08 13:32:54.95	244.55	7.88	
2025-01-08 13:32:55.16	244.58	7.89	
2025-01-08 13:32:55.36	244.61	7.90	
2025-01-08 13:32:55.56	244.64	7.91	
2025-01-08 13:32:55.77	244.68	7.92	
2025-01-08 13:32:55.97	244.71	7.92	
2025-01-08 13:32:56.17	244.74	7.93	
2025-01-08 13:32:56.38	244.78	7.94	
2025-01-08 13:32:56.58	244.81	7.95	
2025-01-08 13:32:56.79	244.84	7.96	
2025-01-08 13:32:57.00	244.88	7.97	
2025-01-08 13:32:57.21	244.91	7.98	
2025-01-08 13:32:57.41	244.94	7.99	
2025-01-08 13:32:57.62	244.98	8.00	
2025-01-08 13:32:57.82	245.01	8.01	
2025-01-08 13:32:58.03	245.05	8.02	
2025-01-08 13:32:58.24	245.08	8.03	
2025-01-08 13:32:58.44	245.11	8.04	
2025-01-08 13:32:58.65	245.15	8.04	
2025-01-08 13:32:58.85	245.18	8.05	
2025-01-08 13:32:59.06	245.21	8.06	
2025-01-08 13:32:59.26	245.25	8.07	
2025-01-08 13:32:59.47	245.28	8.08	
2025-01-08 13:32:59.67	245.31	8.09	
2025-01-08 13:32:59.88	245.35	8.10	
2025-01-08 13:33:00.08	245.38	8.11	
2025-01-08 13:33:00.29	245.42	8.12	
2025-01-08 13:33:00.49	245.45	8.13	
2025-01-08 13:33:00.70	245.48	8.14	
2025-01-08 13:33:00.90	245.52	8.14	
2025-01-08 13:33:01.11	245.55	8.15	
2025-01-08 13:33:01.31	245.58	8.16	
2025-01-08 13:33:01.52	245.62	8.17	
2025-01-08 13:33:01.72	245.65	8.18	
2025-01-08 13:33:01.93	245.69	8.19	
2025-01-08 13:33:02.13	245.72	8.20	
2025-01-08 13:33:02.34	245.75	8.21	
2025-01-08 13:33:02.55	245.79	8.22	
2025-01-08 13:33:02.75	245.82	8.23	
2025-01-08 13:33:02.96	245.86	8.24	
2025-01-08 13:33:03.16	245.89	8.24	
2025-01-08 13:33:03.37	245.92	8.25	
2025-01-08 13:33:03.58	245.96	8.26	
2025-01-08 13:33:03.78	245.99	8.27	
2025-01-08 13:33:03.98	246.02	8.28	
2025-01-08 13:33:04.19	246.06	8.29	
2025-01-08 13:33:04.39	246.09	8.30	
2025-01-08 13:33:04.60	246.13	8.31	
2025-01-08 13:33:04.80	246.16	8.32	
2025-01-08 13:33:05.01	246.20	8.33	
2025-01-08 13:33:05.21	246.23	8.33	
2025-01-08 13:33:05.42	246.26	8.34	
2025-01-08 13:33:05.63	246.30	8.35	
2025-01-08 13:33:05.83	246.33	8.36	
2025-01-08 13:33:06.03	246.37	8.37	
2025-01-08 13:33:06.24	246.40	8.38	
2025-01-08 13:33:06.45	246.44	8.39	
2025-01-08 13:33:06.65	246.47	8.40	
2025-01-08 13:33:06.86	246.51	8.41	
2025-01-08 13:33:07.06	246.54	8.42	
2025-01-08 13:33:07.27	246.57	8.42	
2025-01-08 13:33:07.47	246.61	8.43	
2025-01-08 13:33:07.68	246.64	8.44	
2025-01-08 13:33:07.88	246.68	8.45	
2025-01-08 13:33:08.08	246.71	8.46	
2025-01-08 13:33:08.29	246.75	8.47	
2025-01-08 13:33:08.50	246.78	8.48	
2025-01-08 13:33:08.70	246.81	8.49	
2025-01-08 13:33:08.91	246.85	8.50	
2025-01-08 13:33:09.11	246.88	8.50	
2025-01-08 13:33:09.31	246.92	8.51	
2025-01-08 13:33:09.52	246.95	8.52	
2025-01-08 13:33:09.73	246.99	8.53	
2025-01-08 13:33:09.93	247.02	8.54	
2025-01-08 13:33:10.14	247.06	8.55	
2025-01-08 13:33:10.34	247.09	8.56	
2025-01-08 13:33:10.55	247.13	8.57	
2025-01-08 13:33:10.75	247.16	8.58	
2025-01-08 13:33:10.96	247.20	8.58	
2025-01-08 13:33:11.16	247.23	8.59	
2025-01-08 13:33:11.36	247.26	8.60	
2025-01-08 13:33:11.57	247.30	8.61	
2025-01-08 13:33:11.78	247.34	8.62	
2025-01-08 13:33:11.98	247.37	8.63	
2025-01-08 13:33:12.19	247.41	8.64	
2025-01-08 13:33:12.39	247.44	8.65	
2025-01-08 13:33:12.60	247.48	8.65	
2025-01-08 13:33:12.80	247.51	8.66	
2025-01-08 13:33:13.01	247.55	8.67	
2025-01-08 13:33:13.21	247.58	8.68	
2025-01-08 13:33:13.42	247.62	8.69	
2025-01-08 13:33:13.62	247.65	8.70	
2025-01-08 13:33:13.83	247.69	8.71	
2025-01-08 13:33:14.03	247.72	8.72	
2025-01-08 13:33:14.23	247.75	8.72	
2025-01-08 13:33:14.44	247.79	8.73	
2025-01-08 13:33:14.64	247.83	8.74	
2025-01-08 13:33:14.85	247.86	8.75	
2025-01-08 13:33:15.05	247.90	8.76	
2025-01-08 13:33:15.26	247.93	8.77	
2025-01-08 13:33:15.46	247.97	8.78	
2025-01-08 13:33:15.66	248.00	8.79	
2025-01-08 13:33:15.87	248.04	8.79	
2025-01-08 13:33:16.08	248.07	8.80	
2025-01-08 13:33:16.28	248.11	8.81	
2025-01-08 13:33:16.49	248.14	8.82	
2025-01-08 13:33:16.69	248.18	8.83	
2025-01-08 13:33:16.90	248.21	8.84	
2025-01-08 13:33:17.10	248.25	8.85	
2025-01-08 13:33:17.31	248.29	8.86	
2025-01-08 13:33:17.51	248.32	8.86	
2025-01-08 13:33:17.72	248.36	8.87	
2025-01-08 13:33:17.92	248.39	8.88	
2025-01-08 13:33:18.13	248.43	8.89	
2025-01-08 13:33:18.34	248.46	8.90	
2025-01-08 13:33:18.54	248.50	8.91	
2025-01-08 13:33:18.75	248.54	8.92	
2025-01-08 13:33:18.96	248.57	8.93	
2025-01-08 13:33:19.17	248.61	8.93	
2025-01-08 13:33:19.37	248.64	8.94	
2025-01-08 13:33:19.58	248.68	8.95	
2025-01-08 13:33:19.78	248.71	8.96	
2025-01-08 13:33:19.99	248.75	8.97	
2025-01-08 13:33:20.19	248.79	8.98	
2025-01-08 13:33:20.40	248.82	8.99	
2025-01-08 13:33:20.60	248.86	8.99	
2025-01-08 13:33:20.81	248.89	9.00	
2025-01-08 13:33:21.02	248.93	9.01	
2025-01-08 13:33:21.23	248.97	9.02	
2025-01-08 13:33:21.44	249.00	9.03	
2025-01-08 13:33:21.64	249.04	9.04	
2025-01-08 13:33:21.85	249.08	9.05	
2025-01-08 13:33:22.05	249.11	9.05	
2025-01-08 13:33:22.25	249.15	9.06	
2025-01-08 13:33:22.46	249.18	9.07	
2025-01-08 13:33:22.67	249.22	9.08	
2025-01-08 13:33:22.87	249.26	9.09	
2025-01-08 13:33:23.08	249.29	9.10	
2025-01-08 13:33:23.28	249.33	9.11	
2025-01-08 13:33:23.49	249.37	9.11	
2025-01-08 13:33:23.70	249.40	9.12	
2025-01-08 13:33:23.90	249.44	9.13	
2025-01-08 13:33:24.11	249.47	9.14	
2025-01-08 13:33:24.31	249.51	9.15	
2025-01-08 13:33:24.52	249.55	9.16	
2025-01-08 13:33:24.72	249.58	9.16	
2025-01-08 13:33:24.93	249.62	9.17	
2025-01-08 13:33:25.13	249.66	9.18	
2025-01-08 13:33:25.34	249.69	9.19	
2025-01-08 13:33:25.54	249.73	9.20	
2025-01-08 13:33:25.75	249.77	9.21	
2025-01-08 13:33:25.95	249.80	9.22	
2025-01-08 13:33:26.16	249.84	9.22	
2025-01-08 13:33:26.36	249.87	9.23	
2025-01-08 13:33:26.57	249.91	9.24	
2025-01-08 13:33:26.77	249.95	9.25	
2025-01-08 13:33:26.98	249.98	9.26	
2025-01-08 13:33:27.18	250.02	9.27	
2025-01-08 13:33:27.38	250.06	9.27	
2025-01-08 13:33:27.59	250.09	9.28	
2025-01-08 13:33:27.81	250.13	9.29	
2025-01-08 13:33:28.01	250.17	9.30	
2025-01-08 13:33:28.22	250.21	9.31	
2025-01-08 13:33:28.42	250.24	9.32	
2025-01-08 13:33:28.63	250.28	9.33	
2025-01-08 13:33:28.84	250.32	9.33	
2025-01-08 13:33:29.04	250.35	9.34	
2025-01-08 13:33:29.24	250.39	9.35	
2025-01-08 13:33:29.45	250.43	9.36	
2025-01-08 13:33:29.65	250.46	9.37	
2025-01-08 13:33:29.86	250.50	9.37	
2025-01-08 13:33:30.06	250.54	9.38	
2025-01-08 13:33:30.27	250.57	9.39	
2025-01-08 13:33:30.47	250.61	9.40	
2025-01-08 13:33:30.69	250.65	9.41	
2025-01-08 13:33:30.89	250.68	9.42	
2025-01-08 13:33:31.10	250.72	9.42	
2025-01-08 13:33:31.30	250.76	9.43	
2025-01-08 13:33:31.51	250.80	9.44	
2025-01-08 13:33:31.73	250.84	9.45	
2025-01-08 13:33:31.93	250.87	9.46	
2025-01-08 13:33:32.14	250.91	9.47	
2025-01-08 13:33:32.34	250.95	9.47	
2025-01-08 13:33:32.55	250.98	9.48	
2025-01-08 13:33:32.75	251.02	9.49	
2025-01-08 13:33:32.96	251.06	9.50	
2025-01-08 13:33:33.16	251.09	9.51	
2025-01-08 13:33:33.37	251.13	9.52	
2025-01-08 13:33:33.58	251.17	9.52	
2025-01-08 13:33:33.78	251.21	9.53	
2025-01-08 13:33:33.98	251.24	9.54	
2025-01-08 13:33:34.19	251.28	9.55	
2025-01-08 13:33:34.40	251.32	9.56	
2025-01-08 13:33:34.60	251.36	9.56	
2025-01-08 13:33:34.81	251.39	9.57	
2025-01-08 13:33:35.01	251.43	9.58	
2025-01-08 13:33:35.22	251.47	9.59	
2025-01-08 13:33:35.42	251.51	9.60	
2025-01-08 13:33:35.63	251.54	9.61	
2025-01-08 13:33:35.84	251.58	9.61	
2025-01-08 13:33:36.05	251.62	9.62	
2025-01-08 13:33:36.26	251.66	9.63	
2025-01-08 13:33:36.46	251.70	9.64	
2025-01-08 13:33:36.67	251.73	9.65	
2025-01-08 13:33:36.87	251.77	9.65	
2025-01-08 13:33:37.09	251.81	9.66	
2025-01-08 13:33:37.30	251.85	9.67	
2025-01-08 13:33:37.50	251.89	9.68	
2025-01-08 13:33:37.71	251.93	9.69	
2025-01-08 13:33:37.92	251.96	9.70	
2025-01-08 13:33:38.12	252.00	9.70	
2025-01-08 13:33:38.33	252.04	9.71	
2025-01-08 13:33:38.53	252.08	9.72	
2025-01-08 13:33:38.74	252.12	9.73	
2025-01-08 13:33:38.94	252.15	9.74	
2025-01-08 13:33:39.15	252.19	9.74	
2025-01-08 13:33:39.35	252.23	9.75	
2025-01-08 13:33:39.56	252.27	9.76	
2025-01-08 13:33:39.76	252.30	9.77	
2025-01-08 13:33:39.97	252.34	9.78	
2025-01-08 13:33:40.17	252.38	9.78	
2025-01-08 13:33:40.38	252.42	9.79	
2025-01-08 13:33:40.58	252.45	9.80	
2025-01-08 13:33:40.79	252.49	9.81	
2025-01-08 13:33:40.99	252.53	9.81	
2025-01-08 13:33:41.20	252.57	9.82	
2025-01-08 13:33:41.40	252.61	9.83	
2025-01-08 13:33:41.61	252.65	9.84	
2025-01-08 13:33:41.81	252.68	9.85	
2025-01-08 13:33:42.02	252.72	9.85	
2025-01-08 13:33:42.22	252.76	9.86	
2025-01-08 13:33:42.43	252.80	9.87	
2025-01-08 13:33:42.63	252.84	9.88	
2025-01-08 13:33:42.84	252.87	9.89	
2025-01-08 13:33:43.04	252.91	9.89	
2025-01-08 13:33:43.25	252.95	9.90	
2025-01-08 13:33:43.45	252.99	9.91	
2025-01-08 13:33:43.66	253.03	9.92	
2025-01-08 13:33:43.86	253.07	9.92	
2025-01-08 13:33:44.07	253.10	9.93	
2025-01-08 13:33:44.28	253.14	9.94	
2025-01-08 13:33:44.48	253.18	9.95	
2025-01-08 13:33:44.68	253.22	9.96	
2025-01-08 13:33:44.89	253.26	9.96	
2025-01-08 13:33:45.10	253.30	9.97	
2025-01-08 13:33:45.30	253.33	9.98	
2025-01-08 13:33:45.51	253.37	9.99	
2025-01-08 13:33:45.71	253.41	9.99	
2025-01-08 13:33:45.92	253.45	10.00	
2025-01-08 13:33:46.13	253.49	10.01	
2025-01-08 13:33:46.33	253.53	10.02	
2025-01-08 13:33:46.54	253.57	10.03	
2025-01-08 13:33:46.74	253.61	10.03	
2025-01-08 13:33:46.94	253.64	10.04	
2025-01-08 13:33:47.15	253.68	10.05	
2025-01-08 13:33:47.36	253.72	10.06	
2025-01-08 13:33:47.56	253.76	10.06	
2025-01-08 13:33:47.76	253.80	10.07	
2025-01-08 13:33:47.97	253.84	10.08	
2025-01-08 13:33:48.17	253.88	10.09	
2025-01-08 13:33:48.38	253.91	10.09	
2025-01-08 13:33:48.58	253.95	10.10	
2025-01-08 13:33:48.78	253.99	10.11	
2025-01-08 13:33:48.99	254.03	10.12	
2025-01-08 13:33:49.20	254.07	10.12	
2025-01-08 13:33:49.40	254.11	10.13	
2025-01-08 13:33:49.61	254.15	10.14	
2025-01-08 13:33:49.81	254.19	10.15	
2025-01-08 13:33:50.02	254.23	10.15	
2025-01-08 13:33:50.22	254.26	10.16	
2025-01-08 13:33:50.43	254.30	10.17	
2025-01-08 13:33:50.63	254.34	10.18	
2025-01-08 13:33:50.84	254.38	10.18	
2025-01-08 13:33:51.04	254.42	10.19	
2025-01-08 13:33:51.25	254.46	10.20	
2025-01-08 13:33:51.45	254.50	10.21	
2025-01-08 13:33:51.66	254.54	10.21	
2025-01-08 13:33:51.86	254.58	10.22	
2025-01-08 13:33:52.07	254.62	10.23	
2025-01-08 13:33:52.27	254.65	10.24	
2025-01-08 13:33:52.48	254.69	10.24	
2025-01-08 13:33:52.69	254.73	10.25	
2025-01-08 13:33:52.89	254.77	10.26	
2025-01-08 13:33:53.11	254.82	10.27	
2025-01-08 13:33:53.31	254.85	10.27	
2025-01-08 13:33:53.52	254.89	10.28	
2025-01-08 13:33:53.72	254.93	10.29	
2025-01-08 13:33:53.93	254.97	10.30	
2025-01-08 13:33:54.13	255.01	10.30	
2025-01-08 13:33:54.34	255.05	10.31	
2025-01-08 13:33:54.54	255.09	10.32	
2025-01-08 13:33:54.75	255.13	10.33	
2025-01-08 13:33:54.95	255.17	10.33	
2025-01-08 13:33:55.15	255.21	10.34	
2025-01-08 13:33:55.36	255.25	10.35	
2025-01-08 13:33:55.56	255.29	10.36	
2025-01-08 13:33:55.77	255.33	10.36	
2025-01-08 13:33:55.97	255.36	10.37	
2025-01-08 13:33:56.17	255.40	10.38	
2025-01-08 13:33:56.38	255.44	10.38	
2025-01-08 13:33:56.59	255.48	10.39	
2025-01-08 13:33:56.79	255.52	10.40	
2025-01-08 13:33:57.00	255.56	10.41	
2025-01-08 13:33:57.20	255.60	10.41	
2025-01-08 13:33:57.41	255.64	10.42	
2025-01-08 13:33:57.61	255.68	10.43	
2025-01-08 13:33:57.82	255.72	10.44	
2025-01-08 13:33:58.02	255.76	10.44	
2025-01-08 13:33:58.23	255.80	10.45	
2025-01-08 13:33:58.43	255.84	10.46	
2025-01-08 13:33:58.64	255.88	10.46	
2025-01-08 13:33:58.84	255.92	10.47	
2025-01-08 13:33:59.05	255.96	10.48	
2025-01-08 13:33:59.25	256.00	10.49	
2025-01-08 13:33:59.46	256.04	10.49	
2025-01-08 13:33:59.66	256.08	10.50	
2025-01-08 13:33:59.87	256.12	10.51	
2025-01-08 13:34:00.07	256.16	10.51	
2025-01-08 13:34:00.28	256.20	10.52	
2025-01-08 13:34:00.48	256.24	10.53	
2025-01-08 13:34:00.69	256.28	10.54	
2025-01-08 13:34:00.89	256.32	10.54	
2025-01-08 13:34:01.10	256.36	10.55	
2025-01-08 13:34:01.30	256.40	10.56	
2025-01-08 13:34:01.51	256.44	10.56	
2025-01-08 13:34:01.71	256.48	10.57	
2025-01-08 13:34:01.92	256.52	10.58	
2025-01-08 13:34:02.12	256.56	10.58	
2025-01-08 13:34:02.33	256.60	10.59	
2025-01-08 13:34:02.53	256.64	10.60	
2025-01-08 13:34:02.73	256.68	10.61	
2025-01-08 13:34:02.94	256.72	10.61	
2025-01-08 13:34:03.15	256.76	10.62	
2025-01-08 13:34:03.35	256.80	10.63	
2025-01-08 13:34:03.56	256.84	10.63	
2025-01-08 13:34:03.76	256.88	10.64	
2025-01-08 13:34:03.96	256.92	10.65	
2025-01-08 13:34:04.17	256.96	10.65	
2025-01-08 13:34:04.37	257.00	10.66	
2025-01-08 13:34:04.58	257.04	10.67	
2025-01-08 13:34:04.78	257.08	10.67	
2025-01-08 13:34:04.99	257.12	10.68	
2025-01-08 13:34:05.19	257.16	10.69	
2025-01-08 13:34:05.40	257.21	10.70	
2025-01-08 13:34:05.60	257.24	10.70	
2025-01-08 13:34:05.80	257.28	10.71	
2025-01-08 13:34:06.01	257.33	10.72	
2025-01-08 13:34:06.22	257.37	10.72	
2025-01-08 13:34:06.42	257.41	10.73	
2025-01-08 13:34:06.63	257.45	10.74	
2025-01-08 13:34:06.83	257.49	10.74	
2025-01-08 13:34:07.04	257.53	10.75	
2025-01-08 13:34:07.24	257.57	10.76	
2025-01-08 13:34:07.45	257.61	10.76	
2025-01-08 13:34:07.65	257.65	10.77	
2025-01-08 13:34:07.86	257.69	10.78	
2025-01-08 13:34:08.06	257.73	10.78	
2025-01-08 13:34:08.27	257.77	10.79	
2025-01-08 13:34:08.48	257.82	10.80	
2025-01-08 13:34:08.68	257.86	10.80	
2025-01-08 13:34:08.89	257.90	10.81	
2025-01-08 13:34:09.09	257.94	10.82	
2025-01-08 13:34:09.30	257.98	10.82	
2025-01-08 13:34:09.50	258.02	10.83	
2025-01-08 13:34:09.71	258.06	10.84	
2025-01-08 13:34:09.91	258.10	10.84	
2025-01-08 13:34:10.11	258.14	10.85	
2025-01-08 13:34:10.32	258.18	10.86	
2025-01-08 13:34:10.52	258.22	10.86	
2025-01-08 13:34:10.73	258.26	10.87	
2025-01-08 13:34:10.94	258.31	10.88	
2025-01-08 13:34:11.14	258.35	10.88	
2025-01-08 13:34:11.35	258.39	10.89	
2025-01-08 13:34:11.55	258.43	10.90	
2025-01-08 13:34:11.76	258.47	10.90	
2025-01-08 13:34:11.96	258.51	10.91	
2025-01-08 13:34:12.17	258.55	10.92	
2025-01-08 13:34:12.37	258.59	10.92	
2025-01-08 13:34:12.58	258.63	10.93	
2025-01-08 13:34:12.78	258.67	10.94	
2025-01-08 13:34:12.99	258.72	10.94	
2025-01-08 13:34:13.19	258.76	10.95	
2025-01-08 13:34:13.40	258.80	10.95	
2025-01-08 13:34:13.60	258.84	10.96	
2025-01-08 13:34:13.81	258.88	10.97	
2025-01-08 13:34:14.01	258.92	10.97	
2025-01-08 13:34:14.22	258.96	10.98	
2025-01-08 13:34:14.42	259.00	10.99	
2025-01-08 13:34:14.62	259.05	10.99	
2025-01-08 13:34:14.83	259.09	11.00	
2025-01-08 13:34:15.04	259.13	11.01	
2025-01-08 13:34:15.24	259.17	11.01	
2025-01-08 13:34:15.44	259.21	11.02	
2025-01-08 13:34:15.65	259.25	11.02	
2025-01-08 13:34:15.86	259.30	11.03	
2025-01-08 13:34:16.06	259.34	11.04	
2025-01-08 13:34:16.27	259.38	11.04	
2025-01-08 13:34:16.47	259.42	11.05	
2025-01-08 13:34:16.67	259.46	11.06	
2025-01-08 13:34:16.88	259.50	11.06	
2025-01-08 13:34:17.09	259.54	11.07	
2025-01-08 13:34:17.29	259.58	11.07	
2025-01-08 13:34:17.50	259.63	11.08	
2025-01-08 13:34:17.70	259.67	11.09	
2025-01-08 13:34:17.91	259.71	11.09	
2025-01-08 13:34:18.11	259.75	11.10	
2025-01-08 13:34:18.31	259.79	11.11	
2025-01-08 13:34:18.52	259.83	11.11	
2025-01-08 13:34:18.72	259.88	11.12	
2025-01-08 13:34:18.93	259.92	11.12	
2025-01-08 13:34:19.13	259.96	11.13	
2025-01-08 13:34:19.34	260.00	11.14	
2025-01-08 13:34:19.54	260.04	11.14	
2025-01-08 13:34:19.75	260.09	11.15	
2025-01-08 13:34:19.95	260.13	11.15	
2025-01-08 13:34:20.16	260.17	11.16	
2025-01-08 13:34:20.36	260.21	11.17	
2025-01-08 13:34:20.57	260.25	11.17	
2025-01-08 13:34:20.77	260.29	11.18	
2025-01-08 13:34:20.98	260.34	11.19	
2025-01-08 13:34:21.19	260.38	11.19	
2025-01-08 13:34:21.39	260.42	11.20	
2025-01-08 13:34:21.60	260.46	11.20	
2025-01-08 13:34:21.80	260.50	11.21	
2025-01-08 13:34:22.01	260.55	11.22	
2025-01-08 13:34:22.21	260.59	11.22	
2025-01-08 13:34:22.42	260.63	11.23	
2025-01-08 13:34:22.62	260.67	11.23	
2025-01-08 13:34:22.83	260.72	11.24	
2025-01-08 13:34:23.03	260.76	11.25	
2025-01-08 13:34:23.24	260.80	11.25	
2025-01-08 13:34:23.44	260.84	11.26	
2025-01-08 13:34:23.65	260.88	11.26	
2025-01-08 13:34:23.85	260.92	11.27	
2025-01-08 13:34:24.06	260.97	11.27	
2025-01-08 13:34:24.27	261.01	11.28	
2025-01-08 13:34:24.47	261.05	11.29	
2025-01-08 13:34:24.68	261.10	11.29	
2025-01-08 13:34:24.88	261.14	11.30	
2025-01-08 13:34:25.08	261.18	11.30	
2025-01-08 13:34:25.29	261.22	11.31	
2025-01-08 13:34:25.50	261.26	11.32	
2025-01-08 13:34:25.70	261.31	11.32	
2025-01-08 13:34:25.91	261.35	11.33	
2025-01-08 13:34:26.11	261.39	11.33	
2025-01-08 13:34:26.31	261.43	11.34	
2025-01-08 13:34:26.52	261.48	11.34	
2025-01-08 13:34:26.73	261.52	11.35	
2025-01-08 13:34:26.93	261.56	11.36	
2025-01-08 13:34:27.14	261.60	11.36	
2025-01-08 13:34:27.34	261.64	11.37	
2025-01-08 13:34:27.55	261.69	11.37	
2025-01-08 13:34:27.75	261.73	11.38	
2025-01-08 13:34:27.96	261.77	11.38	
2025-01-08 13:34:28.16	261.81	11.39	
2025-01-08 13:34:28.38	261.86	11.40	
2025-01-08 13:34:28.59	261.90	11.40	
2025-01-08 13:34:28.79	261.95	11.41	
2025-01-08 13:34:28.99	261.99	11.41	
2025-01-08 13:34:29.20	262.03	11.42	
2025-01-08 13:34:29.41	262.07	11.42	
2025-01-08 13:34:29.61	262.12	11.43	
2025-01-08 13:34:29.82	262.16	11.43	
2025-01-08 13:34:30.02	262.20	11.44	
2025-01-08 13:34:30.23	262.24	11.45	
2025-01-08 13:34:30.43	262.29	11.45	
2025-01-08 13:34:30.64	262.33	11.46	
2025-01-08 13:34:30.84	262.37	11.46	
2025-01-08 13:34:31.05	262.42	11.47	
2025-01-08 13:34:31.25	262.46	11.47	
2025-01-08 13:34:31.46	262.50	11.48	
2025-01-08 13:34:31.66	262.54	11.48	
2025-01-08 13:34:31.87	262.59	11.49	
2025-01-08 13:34:32.07	262.63	11.49	
2025-01-08 13:34:32.28	262.67	11.50	
2025-01-08 13:34:32.48	262.71	11.51	
2025-01-08 13:34:32.69	262.76	11.51	
2025-01-08 13:34:32.89	262.80	11.52	
2025-01-08 13:34:33.10	262.84	11.52	
2025-01-08 13:34:33.30	262.89	11.53	
2025-01-08 13:34:33.51	262.93	11.53	
2025-01-08 13:34:33.71	262.97	11.54	
2025-01-08 13:34:33.91	263.01	11.54	
2025-01-08 13:34:34.12	263.06	11.55	
2025-01-08 13:34:34.33	263.10	11.55	
2025-01-08 13:34:34.53	263.14	11.56	
2025-01-08 13:34:34.74	263.19	11.56	
2025-01-08 13:34:34.94	263.23	11.57	
2025-01-08 13:34:35.14	263.27	11.57	
2025-01-08 13:34:35.35	263.32	11.58	
2025-01-08 13:34:35.56	263.36	11.58	
2025-01-08 13:34:35.76	263.40	11.59	
2025-01-08 13:34:35.96	263.44	11.59	
2025-01-08 13:34:36.17	263.49	11.60	
2025-01-08 13:34:36.37	263.53	11.61	
2025-01-08 13:34:36.58	263.57	11.61	
2025-01-08 13:34:36.78	263.62	11.62	
2025-01-08 13:34:36.99	263.66	11.62	
2025-01-08 13:34:37.19	263.70	11.63	
2025-01-08 13:34:37.40	263.75	11.63	
2025-01-08 13:34:37.60	263.79	11.64	
2025-01-08 13:34:37.81	263.83	11.64	
2025-01-08 13:34:38.01	263.88	11.65	
2025-01-08 13:34:38.22	263.92	11.65	
2025-01-08 13:34:38.42	263.96	11.66	
2025-01-08 13:34:38.63	264.01	11.66	
2025-01-08 13:34:38.83	264.05	11.67	
2025-01-08 13:34:39.04	264.09	11.67	
2025-01-08 13:34:39.24	264.14	11.68	
2025-01-08 13:34:39.45	264.18	11.68	
2025-01-08 13:34:39.65	264.22	11.69	
2025-01-08 13:34:39.86	264.27	11.69	
2025-01-08 13:34:40.06	264.31	11.70	
2025-01-08 13:34:40.27	264.35	11.70	
2025-01-08 13:34:40.47	264.40	11.71	
2025-01-08 13:34:40.68	264.44	11.71	
2025-01-08 13:34:40.89	264.49	11.72	
2025-01-08 13:34:41.09	264.53	11.72	
2025-01-08 13:34:41.29	264.57	11.72	
2025-01-08 13:34:41.50	264.62	11.73	
2025-01-08 13:34:41.71	264.66	11.73	
2025-01-08 13:34:41.91	264.70	11.74	
2025-01-08 13:34:42.12	264.75	11.74	
2025-01-08 13:34:42.32	264.79	11.75	
2025-01-08 13:34:42.53	264.83	11.75	
2025-01-08 13:34:42.74	264.88	11.76	
2025-01-08 13:34:42.94	264.92	11.76	
2025-01-08 13:34:43.15	264.97	11.77	
2025-01-08 13:34:43.35	265.01	11.77	
2025-01-08 13:34:43.55	265.05	11.78	
2025-01-08 13:34:43.76	265.10	11.78	
2025-01-08 13:34:43.96	265.14	11.79	
2025-01-08 13:34:44.17	265.18	11.79	
2025-01-08 13:34:44.37	265.23	11.80	
2025-01-08 13:34:44.58	265.27	11.80	
2025-01-08 13:34:44.79	265.32	11.81	
2025-01-08 13:34:44.99	265.36	11.81	
2025-01-08 13:34:45.20	265.40	11.81	
2025-01-08 13:34:45.40	265.45	11.82	
2025-01-08 13:34:45.61	265.49	11.82	
2025-01-08 13:34:45.81	265.53	11.83	
2025-01-08 13:34:46.02	265.58	11.83	
2025-01-08 13:34:46.23	265.62	11.84	
2025-01-08 13:34:46.43	265.67	11.84	
2025-01-08 13:34:46.63	265.71	11.85	
2025-01-08 13:34:46.84	265.75	11.85	
2025-01-08 13:34:47.04	265.80	11.85	
2025-01-08 13:34:47.25	265.84	11.86	
2025-01-08 13:34:47.45	265.89	11.86	
2025-01-08 13:34:47.66	265.93	11.87	
2025-01-08 13:34:47.86	265.97	11.87	
2025-01-08 13:34:48.06	266.02	11.88	
2025-01-08 13:34:48.27	266.06	11.88	
2025-01-08 13:34:48.48	266.11	11.89	
2025-01-08 13:34:48.68	266.15	11.89	
2025-01-08 13:34:48.88	266.19	11.89	
2025-01-08 13:34:49.09	266.24	11.90	
2025-01-08 13:34:49.30	266.28	11.90	
2025-01-08 13:34:49.50	266.33	11.91	
2025-01-08 13:34:49.70	266.37	11.91	
2025-01-08 13:34:49.91	266.41	11.92	
2025-01-08 13:34:50.12	266.46	11.92	
2025-01-08 13:34:50.32	266.50	11.92	
2025-01-08 13:34:50.52	266.54	11.93	
2025-01-08 13:34:50.73	266.59	11.93	
2025-01-08 13:34:50.93	266.63	11.94	
2025-01-08 13:34:51.14	266.68	11.94	
2025-01-08 13:34:51.34	266.72	11.94	
2025-01-08 13:34:51.55	266.77	11.95	
2025-01-08 13:34:51.75	266.81	11.95	
2025-01-08 13:34:51.96	266.86	11.96	
2025-01-08 13:34:52.16	266.90	11.96	
2025-01-08 13:34:52.37	266.94	11.97	
2025-01-08 13:34:52.58	266.99	11.97	
2025-01-08 13:34:52.78	267.03	11.97	
2025-01-08 13:34:52.99	267.08	11.98	
2025-01-08 13:34:53.19	267.12	11.98	
2025-01-08 13:34:53.40	267.17	11.99	
2025-01-08 13:34:53.61	267.21	11.99	
2025-01-08 13:34:53.81	267.26	11.99	
2025-01-08 13:34:54.03	267.30	12.00	
2025-01-08 13:34:54.24	267.35	12.00	
2025-01-08 13:34:54.44	267.39	12.01	
2025-01-08 13:34:54.65	267.44	12.01	
2025-01-08 13:34:54.85	267.48	12.01	
2025-01-08 13:34:55.05	267.52	12.02	
2025-01-08 13:34:55.26	267.57	12.02	
2025-01-08 13:34:55.47	267.61	12.03	
2025-01-08 13:34:55.67	267.66	12.03	
2025-01-08 13:34:55.87	267.70	12.03	
2025-01-08 13:34:56.09	267.75	12.04	
2025-01-08 13:34:56.29	267.79	12.04	
2025-01-08 13:34:56.50	267.84	12.05	
2025-01-08 13:34:56.70	267.88	12.05	
2025-01-08 13:34:56.91	267.93	12.05	
2025-01-08 13:34:57.11	267.97	12.06	
2025-01-08 13:34:57.32	268.02	12.06	
2025-01-08 13:34:57.52	268.06	12.06	
2025-01-08 13:34:57.73	268.11	12.07	
2025-01-08 13:34:57.94	268.15	12.07	
2025-01-08 13:34:58.14	268.19	12.08	
2025-01-08 13:34:58.35	268.24	12.08	
2025-01-08 13:34:58.55	268.28	12.08	
2025-01-08 13:34:58.76	268.33	12.09	
2025-01-08 13:34:58.96	268.37	12.09	
2025-01-08 13:34:59.17	268.42	12.09	
2025-01-08 13:34:59.37	268.46	12.10	
2025-01-08 13:34:59.57	268.51	12.10	
2025-01-08 13:34:59.78	268.55	12.10	
2025-01-08 13:34:59.99	268.60	12.11	
2025-01-08 13:35:00.19	268.64	12.11	
2025-01-08 13:35:00.39	268.68	12.11	
2025-01-08 13:35:00.60	268.73	12.12	
2025-01-08 13:35:00.81	268.78	12.12	
2025-01-08 13:35:01.01	268.82	12.13	
2025-01-08 13:35:01.22	268.87	12.13	
2025-01-08 13:35:01.42	268.91	12.13	
2025-01-08 13:35:01.63	268.96	12.14	
2025-01-08 13:35:01.83	269.00	12.14	
2025-01-08 13:35:02.04	269.05	12.14	
2025-01-08 13:35:02.25	269.09	12.15	
2025-01-08 13:35:02.45	269.14	12.15	
2025-01-08 13:35:02.65	269.18	12.15	
2025-01-08 13:35:02.86	269.22	12.16	
2025-01-08 13:35:03.06	269.27	12.16	
2025-01-08 13:35:03.27	269.31	12.16	
2025-01-08 13:35:03.47	269.36	12.17	
2025-01-08 13:35:03.68	269.40	12.17	
2025-01-08 13:35:03.88	269.45	12.17	
2025-01-08 13:35:04.09	269.49	12.18	
2025-01-08 13:35:04.29	269.54	12.18	
2025-01-08 13:35:04.50	269.58	12.18	
2025-01-08 13:35:04.72	269.63	12.19	
2025-01-08 13:35:04.92	269.68	12.19	
2025-01-08 13:35:05.13	269.72	12.19	
2025-01-08 13:35:05.33	269.77	12.20	
2025-01-08 13:35:05.53	269.81	12.20	
2025-01-08 13:35:05.75	269.86	12.20	
2025-01-08 13:35:05.96	269.90	12.21	
2025-01-08 13:35:06.17	269.95	12.21	
2025-01-08 13:35:06.37	269.99	12.21	
2025-01-08 13:35:06.58	270.04	12.22	
2025-01-08 13:35:06.78	270.08	12.22	
2025-01-08 13:35:06.99	270.13	12.22	
2025-01-08 13:35:07.19	270.17	12.22	
2025-01-08 13:35:07.40	270.22	12.23	
2025-01-08 13:35:07.61	270.27	12.23	
2025-01-08 13:35:07.81	270.31	12.23	
2025-01-08 13:35:08.01	270.35	12.24	
2025-01-08 13:35:08.22	270.40	12.24	
2025-01-08 13:35:08.43	270.45	12.24	
2025-01-08 13:35:08.63	270.49	12.25	
2025-01-08 13:35:08.83	270.54	12.25	
2025-01-08 13:35:09.04	270.58	12.25	
2025-01-08 13:35:09.25	270.63	12.25	
2025-01-08 13:35:09.45	270.67	12.26	
2025-01-08 13:35:09.65	270.72	12.26	
2025-01-08 13:35:09.86	270.76	12.26	
2025-01-08 13:35:10.06	270.81	12.27	
2025-01-08 13:35:10.27	270.85	12.27	
2025-01-08 13:35:10.48	270.90	12.27	
2025-01-08 13:35:10.68	270.94	12.27	
2025-01-08 13:35:10.89	270.99	12.28	
2025-01-08 13:35:11.09	271.03	12.28	
2025-01-08 13:35:11.30	271.08	12.28	
2025-01-08 13:35:11.50	271.12	12.28	
2025-01-08 13:35:11.71	271.17	12.29	
2025-01-08 13:35:11.91	271.21	12.29	
2025-01-08 13:35:12.12	271.26	12.29	
2025-01-08 13:35:12.32	271.31	12.30	
2025-01-08 13:35:12.52	271.35	12.30	
2025-01-08 13:35:12.73	271.40	12.30	
2025-01-08 13:35:12.94	271.44	12.30	
2025-01-08 13:35:13.15	271.49	12.31	
2025-01-08 13:35:13.36	271.54	12.31	
2025-01-08 13:35:13.56	271.58	12.31	
2025-01-08 13:35:13.77	271.63	12.31	
2025-01-08 13:35:13.97	271.67	12.32	
2025-01-08 13:35:14.18	271.72	12.32	
2025-01-08 13:35:14.38	271.76	12.32	
2025-01-08 13:35:14.59	271.81	12.32	
2025-01-08 13:35:14.79	271.85	12.33	
2025-01-08 13:35:14.99	271.90	12.33	
2025-01-08 13:35:15.20	271.94	12.33	
2025-01-08 13:35:15.42	271.99	12.33	
2025-01-08 13:35:15.62	272.04	12.34	
2025-01-08 13:35:15.83	272.08	12.34	
2025-01-08 13:35:16.03	272.13	12.34	
2025-01-08 13:35:16.24	272.17	12.34	
2025-01-08 13:35:16.44	272.22	12.35	
2025-01-08 13:35:16.65	272.26	12.35	
2025-01-08 13:35:16.85	272.31	12.35	
2025-01-08 13:35:17.06	272.36	12.35	
2025-01-08 13:35:17.27	272.40	12.36	
2025-01-08 13:35:17.47	272.45	12.36	
2025-01-08 13:35:17.68	272.49	12.36	
2025-01-08 13:35:17.88	272.54	12.36	
2025-01-08 13:35:18.09	272.58	12.37	
2025-01-08 13:35:18.29	272.63	12.37	
2025-01-08 13:35:18.50	272.67	12.37	
2025-01-08 13:35:18.70	272.72	12.37	
2025-01-08 13:35:18.91	272.77	12.37	
2025-01-08 13:35:19.12	272.81	12.38	
2025-01-08 13:35:19.32	272.86	12.38	
2025-01-08 13:35:19.52	272.90	12.38	
2025-01-08 13:35:19.73	272.95	12.38	
2025-01-08 13:35:19.94	272.99	12.38	
2025-01-08 13:35:20.14	273.04	12.39	
2025-01-08 13:35:20.35	273.09	12.39	
2025-01-08 13:35:20.55	273.13	12.39	
2025-01-08 13:35:20.77	273.18	12.39	
2025-01-08 13:35:20.97	273.22	12.40	
2025-01-08 13:35:21.18	273.27	12.40	
2025-01-08 13:35:21.39	273.32	12.40	
2025-01-08 13:35:21.59	273.36	12.40	
2025-01-08 13:35:21.80	273.41	12.40	
2025-01-08 13:35:22.00	273.45	12.41	
2025-01-08 13:35:22.21	273.50	12.41	
2025-01-08 13:35:22.41	273.54	12.41	
2025-01-08 13:35:22.62	273.59	12.41	
2025-01-08 13:35:22.82	273.64	12.41	
2025-01-08 13:35:23.03	273.68	12.41	
2025-01-08 13:35:23.23	273.73	12.42	
2025-01-08 13:35:23.44	273.77	12.42	
2025-01-08 13:35:23.64	273.82	12.42	
2025-01-08 13:35:23.84	273.86	12.42	
2025-01-08 13:35:24.05	273.91	12.42	
2025-01-08 13:35:24.25	273.95	12.43	
2025-01-08 13:35:24.46	274.00	12.43	
2025-01-08 13:35:24.67	274.05	12.43	
2025-01-08 13:35:24.87	274.09	12.43	
2025-01-08 13:35:25.07	274.14	12.43	
2025-01-08 13:35:25.28	274.18	12.43	
2025-01-08 13:35:25.48	274.23	12.44	
2025-01-08 13:35:25.69	274.28	12.44	
2025-01-08 13:35:25.89	274.32	12.44	
2025-01-08 13:35:26.10	274.37	12.44	
2025-01-08 13:35:26.30	274.41	12.44	
2025-01-08 13:35:26.51	274.46	12.44	
2025-01-08 13:35:26.71	274.50	12.45	
2025-01-08 13:35:26.92	274.55	12.45	
2025-01-08 13:35:27.13	274.60	12.45	
2025-01-08 13:35:27.34	274.64	12.45	
2025-01-08 13:35:27.54	274.69	12.45	
2025-01-08 13:35:27.75	274.74	12.45	
2025-01-08 13:35:27.96	274.78	12.46	
2025-01-08 13:35:28.16	274.83	12.46	
2025-01-08 13:35:28.37	274.87	12.46	
2025-01-08 13:35:28.57	274.92	12.46	
2025-01-08 13:35:28.78	274.97	12.46	
2025-01-08 13:35:28.98	275.01	12.46	
2025-01-08 13:35:29.19	275.06	12.46	
2025-01-08 13:35:29.39	275.10	12.47	
2025-01-08 13:35:29.60	275.15	12.47	
2025-01-08 13:35:29.80	275.19	12.47	
2025-01-08 13:35:30.01	275.24	12.47	
2025-01-08 13:35:30.21	275.29	12.47	
2025-01-08 13:35:30.42	275.33	12.47	
2025-01-08 13:35:30.62	275.38	12.47	
2025-01-08 13:35:30.83	275.42	12.47	
2025-01-08 13:35:31.03	275.47	12.48	
2025-01-08 13:35:31.24	275.52	12.48	
2025-01-08 13:35:31.44	275.56	12.48	
2025-01-08 13:35:31.65	275.61	12.48	
2025-01-08 13:35:31.86	275.65	12.48	
2025-01-08 13:35:32.06	275.70	12.48	
2025-01-08 13:35:32.27	275.75	12.48	
2025-01-08 13:35:32.47	275.79	12.48	
2025-01-08 13:35:32.67	275.84	12.49	
2025-01-08 13:35:32.88	275.88	12.49	
2025-01-08 13:35:33.08	275.93	12.49	
2025-01-08 13:35:33.29	275.97	12.49	
2025-01-08 13:35:33.49	276.02	12.49	
2025-01-08 13:35:33.70	276.07	12.49	
2025-01-08 13:35:33.91	276.11	12.49	
2025-01-08 13:35:34.11	276.16	12.49	
2025-01-08 13:35:34.32	276.21	12.49	
2025-01-08 13:35:34.52	276.25	12.49	
2025-01-08 13:35:34.72	276.29	12.50	
2025-01-08 13:35:34.93	276.34	12.50	
2025-01-08 13:35:35.14	276.39	12.50	
2025-01-08 13:35:35.34	276.43	12.50	
2025-01-08 13:35:35.55	276.48	12.50	
2025-01-08 13:35:35.75	276.53	12.50	
2025-01-08 13:35:35.95	276.57	12.50	
2025-01-08 13:35:36.16	276.62	12.50	
2025-01-08 13:35:36.36	276.66	12.50	
2025-01-08 13:35:36.57	276.71	12.50	
2025-01-08 13:35:36.77	276.75	12.50	
2025-01-08 13:35:36.98	276.80	12.51	
2025-01-08 13:35:37.18	276.85	12.51	
2025-01-08 13:35:37.39	276.89	12.51	
2025-01-08 13:35:37.60	276.94	12.51	
2025-01-08 13:35:37.80	276.99	12.51	
2025-01-08 13:35:38.01	277.03	12.51	
2025-01-08 13:35:38.21	277.08	12.51	
2025-01-08 13:35:38.42	277.12	12.51	
2025-01-08 13:35:38.62	277.17	12.51	
2025-01-08 13:35:38.82	277.21	12.51	
2025-01-08 13:35:39.03	277.26	12.51	
2025-01-08 13:35:39.24	277.31	12.51	
2025-01-08 13:35:39.44	277.35	12.51	
2025-01-08 13:35:39.65	277.40	12.51	
2025-01-08 13:35:39.85	277.44	12.52	
2025-01-08 13:35:40.06	277.49	12.52	
2025-01-08 13:35:40.26	277.54	12.52	
2025-01-08 13:35:40.47	277.58	12.52	
2025-01-08 13:35:40.68	277.63	12.52	
2025-01-08 13:35:40.88	277.68	12.52	
2025-01-08 13:35:41.08	277.72	12.52	
2025-01-08 13:35:41.29	277.77	12.52	
2025-01-08 13:35:41.50	277.81	12.52	
2025-01-08 13:35:41.70	277.86	12.52	
2025-01-08 13:35:41.91	277.91	12.52	
2025-01-08 13:35:42.11	277.95	12.52	
2025-01-08 13:35:42.31	278.00	12.52	
2025-01-08 13:35:42.52	278.04	12.52	
2025-01-08 13:35:42.72	278.09	12.52	
2025-01-08 13:35:42.93	278.14	12.52	
2025-01-08 13:35:43.13	278.18	12.52	
2025-01-08 13:35:43.34	278.23	12.52	
2025-01-08 13:35:43.55	278.27	12.52	
2025-01-08 13:35:43.75	278.32	12.52	
2025-01-08 13:35:43.96	278.37	12.52	
2025-01-08 13:35:44.16	278.41	12.52	
2025-01-08 13:35:44.37	278.46	12.52	
2025-01-08 13:35:44.57	278.50	12.52	
2025-01-08 13:35:44.78	278.55	12.52	
2025-01-08 13:35:44.98	278.60	12.52	
2025-01-08 13:35:45.19	278.64	12.52	
2025-01-08 13:35:45.39	278.69	12.52	
2025-01-08 13:35:45.60	278.73	12.53	
2025-01-08 13:35:45.80	278.78	12.53	
2025-01-08 13:35:46.01	278.83	12.53	
2025-01-08 13:35:46.21	278.87	12.53	
2025-01-08 13:35:46.43	278.92	12.53	
2025-01-08 13:35:46.64	278.97	12.53	
2025-01-08 13:35:46.84	279.01	12.53	
2025-01-08 13:35:47.05	279.06	12.53	
2025-01-08 13:35:47.25	279.11	12.53	
2025-01-08 13:35:47.47	279.15	12.53	
2025-01-08 13:35:47.68	279.20	12.53	
2025-01-08 13:35:47.88	279.25	12.53	
2025-01-08 13:35:48.09	279.29	12.53	
2025-01-08 13:35:48.29	279.34	12.53	
2025-01-08 13:35:48.50	279.39	12.53	
2025-01-08 13:35:48.70	279.43	12.53	
2025-01-08 13:35:48.91	279.48	12.53	
2025-01-08 13:35:49.11	279.52	12.52	
2025-01-08 13:35:49.32	279.57	12.52	
2025-01-08 13:35:49.52	279.61	12.52	
2025-01-08 13:35:49.73	279.66	12.52	
2025-01-08 13:35:49.93	279.71	12.52	
2025-01-08 13:35:50.14	279.75	12.52	
2025-01-08 13:35:50.34	279.80	12.52	
2025-01-08 13:35:50.55	279.85	12.52	
2025-01-08 13:35:50.75	279.89	12.52	
2025-01-08 13:35:50.96	279.94	12.52	
2025-01-08 13:35:51.17	279.98	12.52	
2025-01-08 13:35:51.37	280.03	12.52	
2025-01-08 13:35:51.57	280.07	12.52	
2025-01-08 13:35:51.79	280.12	12.52	
2025-01-08 13:35:52.00	280.17	12.52	
2025-01-08 13:35:52.20	280.22	12.52	
2025-01-08 13:35:52.41	280.26	12.52	
2025-01-08 13:35:52.61	280.31	12.52	
2025-01-08 13:35:52.82	280.35	12.52	
2025-01-08 13:35:53.02	280.40	12.52	
2025-01-08 13:35:53.23	280.45	12.52	
2025-01-08 13:35:53.43	280.49	12.52	
2025-01-08 13:35:53.64	280.54	12.52	
2025-01-08 13:35:53.84	280.58	12.52	
2025-01-08 13:35:54.05	280.63	12.52	
2025-01-08 13:35:54.25	280.68	12.52	
2025-01-08 13:35:54.46	280.72	12.52	
2025-01-08 13:35:54.67	280.77	12.52	
2025-01-08 13:35:54.87	280.81	12.51	
2025-01-08 13:35:55.08	280.86	12.51	
2025-01-08 13:35:55.28	280.91	12.51	
2025-01-08 13:35:55.49	280.95	12.51	
2025-01-08 13:35:55.69	281.00	12.51	
2025-01-08 13:35:55.90	281.05	12.51	
2025-01-08 13:35:56.10	281.09	12.51	
2025-01-08 13:35:56.31	281.14	12.51	
2025-01-08 13:35:56.51	281.18	12.51	
2025-01-08 13:35:56.72	281.23	12.51	
2025-01-08 13:35:56.92	281.27	12.51	
2025-01-08 13:35:57.13	281.32	12.51	
2025-01-08 13:35:57.33	281.37	12.51	
2025-01-08 13:35:57.54	281.41	12.51	
2025-01-08 13:35:57.75	281.46	12.50	
2025-01-08 13:35:57.95	281.50	12.50	
2025-01-08 13:35:58.16	281.55	12.50	
2025-01-08 13:35:58.36	281.60	12.50	
2025-01-08 13:35:58.57	281.64	12.50	
2025-01-08 13:35:58.77	281.69	12.50	
2025-01-08 13:35:58.98	281.74	12.50	
2025-01-08 13:35:59.18	281.78	12.50	
2025-01-08 13:35:59.39	281.83	12.50	
2025-01-08 13:35:59.59	281.87	12.50	
2025-01-08 13:35:59.80	281.92	12.50	
2025-01-08 13:36:00.00	281.96	12.49	
2025-01-08 13:36:00.22	282.01	12.49	
2025-01-08 13:36:00.42	282.06	12.49	
2025-01-08 13:36:00.63	282.11	12.49	
2025-01-08 13:36:00.84	282.15	12.49	
2025-01-08 13:36:01.04	282.20	12.49	
2025-01-08 13:36:01.25	282.24	12.49	
2025-01-08 13:36:01.45	282.29	12.49	
2025-01-08 13:36:01.66	282.34	12.49	
2025-01-08 13:36:01.86	282.38	12.49	
2025-01-08 13:36:02.07	282.43	12.48	
2025-01-08 13:36:02.27	282.47	12.48	
2025-01-08 13:36:02.48	282.52	12.48	
2025-01-08 13:36:02.68	282.56	12.48	
2025-01-08 13:36:02.89	282.61	12.48	
2025-01-08 13:36:03.09	282.66	12.48	
2025-01-08 13:36:03.30	282.70	12.48	
2025-01-08 13:36:03.50	282.75	12.48	
2025-01-08 13:36:03.71	282.79	12.47	
2025-01-08 13:36:03.91	282.84	12.47	
2025-01-08 13:36:04.12	282.89	12.47	
2025-01-08 13:36:04.32	282.93	12.47	
2025-01-08 13:36:04.53	282.98	12.47	
2025-01-08 13:36:04.73	283.02	12.47	
2025-01-08 13:36:04.94	283.07	12.47	
2025-01-08 13:36:05.14	283.11	12.46	
2025-01-08 13:36:05.35	283.16	12.46	
2025-01-08 13:36:05.57	283.21	12.46	
2025-01-08 13:36:05.77	283.25	12.46	
2025-01-08 13:36:05.98	283.30	12.46	
2025-01-08 13:36:06.18	283.35	12.46	
2025-01-08 13:36:06.39	283.39	12.46	
2025-01-08 13:36:06.61	283.44	12.45	
2025-01-08 13:36:06.81	283.49	12.45	
2025-01-08 13:36:07.01	283.53	12.45	
2025-01-08 13:36:07.22	283.58	12.45	
2025-01-08 13:36:07.43	283.62	12.45	
2025-01-08 13:36:07.63	283.67	12.45	
2025-01-08 13:36:07.84	283.72	12.45	
2025-01-08 13:36:08.04	283.76	12.44	
2025-01-08 13:36:08.25	283.81	12.44	
2025-01-08 13:36:08.45	283.85	12.44	
2025-01-08 13:36:08.65	283.90	12.44	
2025-01-08 13:36:08.86	283.94	12.44	
2025-01-08 13:36:09.06	283.99	12.44	
2025-01-08 13:36:09.27	284.03	12.43	
2025-01-08 13:36:09.47	284.08	12.43	
2025-01-08 13:36:09.68	284.13	12.43	
2025-01-08 13:36:09.88	284.17	12.43	
2025-01-08 13:36:10.09	284.22	12.43	
2025-01-08 13:36:10.29	284.26	12.43	
2025-01-08 13:36:10.50	284.31	12.42	
2025-01-08 13:36:10.70	284.35	12.42	
2025-01-08 13:36:10.91	284.40	12.42	
2025-01-08 13:36:11.11	284.44	12.42	
2025-01-08 13:36:11.32	284.49	12.42	
2025-01-08 13:36:11.52	284.54	12.41	
2025-01-08 13:36:11.73	284.58	12.41	
2025-01-08 13:36:11.95	284.63	12.41	
2025-01-08 13:36:12.15	284.68	12.41	
2025-01-08 13:36:12.36	284.72	12.41	
2025-01-08 13:36:12.56	284.77	12.40	
2025-01-08 13:36:12.77	284.81	12.40	
2025-01-08 13:36:12.97	284.86	12.40	
2025-01-08 13:36:13.18	284.91	12.40	
2025-01-08 13:36:13.38	284.95	12.40	
2025-01-08 13:36:13.58	284.99	12.39	
2025-01-08 13:36:13.79	285.04	12.39	
2025-01-08 13:36:13.99	285.08	12.39	
2025-01-08 13:36:14.19	285.13	12.39	
2025-01-08 13:36:14.40	285.18	12.39	
2025-01-08 13:36:14.61	285.22	12.38	
2025-01-08 13:36:14.81	285.27	12.38	
2025-01-08 13:36:15.01	285.31	12.38	
2025-01-08 13:36:15.22	285.36	12.38	
2025-01-08 13:36:15.42	285.40	12.38	
2025-01-08 13:36:15.63	285.45	12.37	
2025-01-08 13:36:15.83	285.49	12.37	
2025-01-08 13:36:16.04	285.54	12.37	
2025-01-08 13:36:16.25	285.59	12.37	
2025-01-08 13:36:16.46	285.63	12.36	
2025-01-08 13:36:16.67	285.68	12.36	
2025-01-08 13:36:16.87	285.72	12.36	
2025-01-08 13:36:17.08	285.77	12.36	
2025-01-08 13:36:17.28	285.81	12.36	
2025-01-08 13:36:17.49	285.86	12.35	
2025-01-08 13:36:17.69	285.91	12.35	
2025-01-08 13:36:17.89	285.95	12.35	
2025-01-08 13:36:18.10	286.00	12.35	
2025-01-08 13:36:18.30	286.04	12.34	
2025-01-08 13:36:18.51	286.09	12.34	
2025-01-08 13:36:18.71	286.13	12.34	
2025-01-08 13:36:18.92	286.18	12.34	
2025-01-08 13:36:19.13	286.22	12.33	
2025-01-08 13:36:19.33	286.27	12.33	
2025-01-08 13:36:19.53	286.31	12.33	
2025-01-08 13:36:19.74	286.36	12.33	
2025-01-08 13:36:19.94	286.40	12.32	
2025-01-08 13:36:20.15	286.45	12.32	
2025-01-08 13:36:20.36	286.50	12.32	
2025-01-08 13:36:20.56	286.54	12.32	
2025-01-08 13:36:20.77	286.59	12.31	
2025-01-08 13:36:20.97	286.63	12.31	
2025-01-08 13:36:21.18	286.68	12.31	
2025-01-08 13:36:21.38	286.72	12.31	
2025-01-08 13:36:21.59	286.77	12.30	
2025-01-08 13:36:21.79	286.81	12.30	
2025-01-08 13:36:22.00	286.86	12.30	
2025-01-08 13:36:22.20	286.90	12.30	
2025-01-08 13:36:22.41	286.95	12.29	
2025-01-08 13:36:22.61	286.99	12.29	
2025-01-08 13:36:22.81	287.04	12.29	
2025-01-08 13:36:23.02	287.08	12.29	
2025-01-08 13:36:23.22	287.13	12.28	
2025-01-08 13:36:23.43	287.17	12.28	
2025-01-08 13:36:23.63	287.22	12.28	
2025-01-08 13:36:23.84	287.26	12.27	
2025-01-08 13:36:24.04	287.31	12.27	
2025-01-08 13:36:24.25	287.35	12.27	
2025-01-08 13:36:24.46	287.40	12.27	
2025-01-08 13:36:24.66	287.44	12.26	
2025-01-08 13:36:24.86	287.49	12.26	
2025-01-08 13:36:25.07	287.53	12.26	
2025-01-08 13:36:25.27	287.58	12.25	
2025-01-08 13:36:25.48	287.62	12.25	
2025-01-08 13:36:25.69	287.67	12.25	
2025-01-08 13:36:25.89	287.72	12.25	
2025-01-08 13:36:26.10	287.76	12.24	
2025-01-08 13:36:26.30	287.81	12.24	
2025-01-08 13:36:26.51	287.85	12.24	
2025-01-08 13:36:26.71	287.90	12.23	
2025-01-08 13:36:26.91	287.94	12.23	
2025-01-08 13:36:27.12	287.99	12.23	
2025-01-08 13:36:27.34	288.03	12.22	
2025-01-08 13:36:27.54	288.08	12.22	
2025-01-08 13:36:27.75	288.12	12.22	
2025-01-08 13:36:27.97	288.17	12.21	
2025-01-08 13:36:28.17	288.22	12.21	
2025-01-08 13:36:28.38	288.26	12.21	
2025-01-08 13:36:28.58	288.31	12.21	
2025-01-08 13:36:28.79	288.35	12.20	
2025-01-08 13:36:28.99	288.40	12.20	
2025-01-08 13:36:29.20	288.44	12.20	
2025-01-08 13:36:29.40	288.49	12.19	
2025-01-08 13:36:29.61	288.53	12.19	
2025-01-08 13:36:29.81	288.57	12.19	
2025-01-08 13:36:30.02	288.62	12.18	
2025-01-08 13:36:30.22	288.66	12.18	
2025-01-08 13:36:30.43	288.71	12.18	
2025-01-08 13:36:30.63	288.75	12.17	
2025-01-08 13:36:30.84	288.80	12.17	
2025-01-08 13:36:31.04	288.84	12.17	
2025-01-08 13:36:31.25	288.89	12.16	
2025-01-08 13:36:31.45	288.93	12.16	
2025-01-08 13:36:31.66	288.98	12.16	
2025-01-08 13:36:31.86	289.02	12.15	
2025-01-08 13:36:32.07	289.07	12.15	
2025-01-08 13:36:32.27	289.11	12.15	
2025-01-08 13:36:32.48	289.16	12.14	
2025-01-08 13:36:32.68	289.20	12.14	
2025-01-08 13:36:32.89	289.25	12.14	
2025-01-08 13:36:33.09	289.29	12.13	
2025-01-08 13:36:33.30	289.34	12.13	
2025-01-08 13:36:33.50	289.38	12.13	
2025-01-08 13:36:33.71	289.43	12.12	
2025-01-08 13:36:33.91	289.47	12.12	
2025-01-08 13:36:34.12	289.52	12.12	
2025-01-08 13:36:34.32	289.56	12.11	
2025-01-08 13:36:34.53	289.60	12.11	
2025-01-08 13:36:34.73	289.65	12.11	
2025-01-08 13:36:34.94	289.69	12.10	
2025-01-08 13:36:35.14	289.74	12.10	
2025-01-08 13:36:35.35	289.78	12.09	
2025-01-08 13:36:35.56	289.83	12.09	
2025-01-08 13:36:35.76	289.87	12.09	
2025-01-08 13:36:35.97	289.92	12.08	
2025-01-08 13:36:36.17	289.96	12.08	
2025-01-08 13:36:36.38	290.01	12.08	
2025-01-08 13:36:36.58	290.05	12.07	
2025-01-08 13:36:36.79	290.10	12.07	
2025-01-08 13:36:37.00	290.14	12.06	
2025-01-08 13:36:37.20	290.18	12.06	
2025-01-08 13:36:37.41	290.23	12.06	
2025-01-08 13:36:37.62	290.28	12.05	
2025-01-08 13:36:37.83	290.32	12.05	
2025-01-08 13:36:38.04	290.37	12.05	
2025-01-08 13:36:38.24	290.41	12.04	
2025-01-08 13:36:38.45	290.46	12.04	
2025-01-08 13:36:38.65	290.50	12.03	
2025-01-08 13:36:38.86	290.54	12.03	
2025-01-08 13:36:39.06	290.59	12.03	
2025-01-08 13:36:39.27	290.63	12.02	
2025-01-08 13:36:39.47	290.68	12.02	
2025-01-08 13:36:39.68	290.72	12.01	
2025-01-08 13:36:39.88	290.76	12.01	
2025-01-08 13:36:40.09	290.81	12.01	
2025-01-08 13:36:40.30	290.86	12.00	
2025-01-08 13:36:40.50	290.90	12.00	
2025-01-08 13:36:40.71	290.94	12.00	
2025-01-08 13:36:40.91	290.99	11.99	
2025-01-08 13:36:41.12	291.03	11.99	
2025-01-08 13:36:41.32	291.08	11.98	
2025-01-08 13:36:41.53	291.12	11.98	
2025-01-08 13:36:41.73	291.16	11.98	
2025-01-08 13:36:41.94	291.21	11.97	
2025-01-08 13:36:42.14	291.25	11.97	
2025-01-08 13:36:42.35	291.30	11.96	
2025-01-08 13:36:42.55	291.34	11.96	
2025-01-08 13:36:42.76	291.39	11.95	
2025-01-08 13:36:42.97	291.43	11.95	
2025-01-08 13:36:43.18	291.48	11.95	
2025-01-08 13:36:43.38	291.52	11.94	
2025-01-08 13:36:43.59	291.56	11.94	
2025-01-08 13:36:43.80	291.61	11.93	
2025-01-08 13:36:44.01	291.65	11.93	
2025-01-08 13:36:44.22	291.70	11.92	
2025-01-08 13:36:44.42	291.74	11.92	
2025-01-08 13:36:44.63	291.79	11.92	
2025-01-08 13:36:44.84	291.83	11.91	
2025-01-08 13:36:45.04	291.88	11.91	
2025-01-08 13:36:45.24	291.92	11.90	
2025-01-08 13:36:45.45	291.96	11.90	
2025-01-08 13:36:45.65	292.01	11.90	
2025-01-08 13:36:45.86	292.05	11.89	
2025-01-08 13:36:46.06	292.09	11.89	
2025-01-08 13:36:46.27	292.14	11.88	
2025-01-08 13:36:46.47	292.18	11.88	
2025-01-08 13:36:46.67	292.22	11.87	
2025-01-08 13:36:46.88	292.27	11.87	
2025-01-08 13:36:47.08	292.31	11.86	
2025-01-08 13:36:47.29	292.36	11.86	
2025-01-08 13:36:47.49	292.40	11.86	
2025-01-08 13:36:47.70	292.45	11.85	
2025-01-08 13:36:47.90	292.49	11.85	
2025-01-08 13:36:48.11	292.53	11.84	
2025-01-08 13:36:48.31	292.58	11.84	
2025-01-08 13:36:48.52	292.62	11.83	
2025-01-08 13:36:48.72	292.66	11.83	
2025-01-08 13:36:48.93	292.71	11.82	
2025-01-08 13:36:49.14	292.75	11.82	
2025-01-08 13:36:49.34	292.79	11.82	
2025-01-08 13:36:49.55	292.84	11.81	
2025-01-08 13:36:49.75	292.88	11.81	
2025-01-08 13:36:49.96	292.93	11.80	
2025-01-08 13:36:50.16	292.97	11.80	
2025-01-08 13:36:50.37	293.01	11.79	
2025-01-08 13:36:50.57	293.06	11.79	
2025-01-08 13:36:50.78	293.10	11.78	
2025-01-08 13:36:50.98	293.14	11.78	
2025-01-08 13:36:51.19	293.19	11.77	
2025-01-08 13:36:51.41	293.24	11.77	
2025-01-08 13:36:51.61	293.28	11.76	
2025-01-08 13:36:51.82	293.32	11.76	
2025-01-08 13:36:52.02	293.36	11.75	
2025-01-08 13:36:52.23	293.41	11.75	
2025-01-08 13:36:52.43	293.45	11.75	
2025-01-08 13:36:52.64	293.50	11.74	
2025-01-08 13:36:52.84	293.54	11.74	
2025-01-08 13:36:53.05	293.58	11.73	
2025-01-08 13:36:53.25	293.63	11.73	
2025-01-08 13:36:53.46	293.67	11.72	
2025-01-08 13:36:53.66	293.71	11.72	
2025-01-08 13:36:53.87	293.76	11.71	
2025-01-08 13:36:54.07	293.80	11.71	
2025-01-08 13:36:54.28	293.84	11.70	
2025-01-08 13:36:54.49	293.89	11.70	
2025-01-08 13:36:54.71	293.93	11.69	
2025-01-08 13:36:54.91	293.98	11.69	
2025-01-08 13:36:55.12	294.02	11.68	
2025-01-08 13:36:55.32	294.06	11.68	
2025-01-08 13:36:55.53	294.11	11.67	
2025-01-08 13:36:55.73	294.15	11.67	
2025-01-08 13:36:55.94	294.19	11.66	
2025-01-08 13:36:56.14	294.24	11.66	
2025-01-08 13:36:56.35	294.28	11.65	
2025-01-08 13:36:56.55	294.32	11.65	
2025-01-08 13:36:56.76	294.37	11.64	
2025-01-08 13:36:56.96	294.41	11.64	
2025-01-08 13:36:57.17	294.45	11.63	
2025-01-08 13:36:57.37	294.49	11.63	
2025-01-08 13:36:57.58	294.54	11.62	
2025-01-08 13:36:57.78	294.58	11.62	
2025-01-08 13:36:57.99	294.62	11.61	
2025-01-08 13:36:58.19	294.67	11.61	
2025-01-08 13:36:58.40	294.71	11.60	
2025-01-08 13:36:58.60	294.75	11.60	
2025-01-08 13:36:58.81	294.80	11.59	
2025-01-08 13:36:59.01	294.84	11.59	
2025-01-08 13:36:59.22	294.88	11.58	
2025-01-08 13:36:59.43	294.93	11.58	
2025-01-08 13:36:59.63	294.97	11.57	
2025-01-08 13:36:59.84	295.01	11.57	
2025-01-08 13:37:00.04	295.05	11.56	
2025-01-08 13:37:00.24	295.10	11.56	
2025-01-08 13:37:00.45	295.14	11.55	
2025-01-08 13:37:00.65	295.18	11.54	
2025-01-08 13:37:00.86	295.23	11.54	
2025-01-08 13:37:01.06	295.27	11.53	
2025-01-08 13:37:01.27	295.31	11.53	
2025-01-08 13:37:01.47	295.35	11.52	
2025-01-08 13:37:01.68	295.40	11.52	
2025-01-08 13:37:01.88	295.44	11.51	
2025-01-08 13:37:02.09	295.48	11.51	
2025-01-08 13:37:02.29	295.52	11.50	
2025-01-08 13:37:02.50	295.57	11.50	
2025-01-08 13:37:02.71	295.61	11.49	
2025-01-08 13:37:02.91	295.65	11.49	
2025-01-08 13:37:03.12	295.70	11.48	
2025-01-08 13:37:03.32	295.74	11.48	
2025-01-08 13:37:03.53	295.78	11.47	
2025-01-08 13:37:03.73	295.82	11.46	
2025-01-08 13:37:03.94	295.87	11.46	
2025-01-08 13:37:04.14	295.91	11.45	
2025-01-08 13:37:04.34	295.95	11.45	
2025-01-08 13:37:04.55	295.99	11.44	
2025-01-08 13:37:04.75	296.03	11.44	
2025-01-08 13:37:04.96	296.08	11.43	
2025-01-08 13:37:05.16	296.12	11.43	
2025-01-08 13:37:05.37	296.16	11.42	
2025-01-08 13:37:05.57	296.20	11.42	
2025-01-08 13:37:05.78	296.25	11.41	
2025-01-08 13:37:05.98	296.29	11.40	
2025-01-08 13:37:06.19	296.33	11.40	
2025-01-08 13:37:06.39	296.37	11.39	
2025-01-08 13:37:06.60	296.42	11.39	
2025-01-08 13:37:06.80	296.46	11.38	
2025-01-08 13:37:07.01	296.50	11.38	
2025-01-08 13:37:07.22	296.55	11.37	
2025-01-08 13:37:07.42	296.59	11.36	
2025-01-08 13:37:07.62	296.63	11.36	
2025-01-08 13:37:07.83	296.67	11.35	
2025-01-08 13:37:08.04	296.71	11.35	
2025-01-08 13:37:08.24	296.76	11.34	
2025-01-08 13:37:08.45	296.80	11.34	
2025-01-08 13:37:08.65	296.84	11.33	
2025-01-08 13:37:08.86	296.88	11.32	
2025-01-08 13:37:09.06	296.92	11.32	
2025-01-08 13:37:09.27	296.97	11.31	
2025-01-08 13:37:09.47	297.01	11.31	
2025-01-08 13:37:09.68	297.05	11.30	
2025-01-08 13:37:09.88	297.09	11.30	
2025-01-08 13:37:10.09	297.14	11.29	
