passes_logs/2025/01/08/SPB_Silybum_02/SPB_Silybum_02__20250108_004413_SUOMI_NPP_rec.log

#Pass ID: 20250108_004413_SUOMI NPP
#Satellite: SUOMI NPP
#Configuration: NPP
#Start time: 2025-01-08 00:49:10

#Version: 2.0.20230423
#Station: SPB_Silybum_02
#Location: 30.233357 lon 59.946436 lat
#TLE: 1 37849U 11061A   25007.16649885  .00000287  00000+0  15716-3 0  9990
#TLE: 2 37849  98.7438 308.2547 0001950  52.7817 307.3537 14.19534452683807

#Time	Az	El	Level	Level2	SNR	BER	Gain	Gain2
2025-01-08 00:49:12.96	358.46	42.85	
2025-01-08 00:49:13.16	358.41	42.90	
2025-01-08 00:49:13.37	358.37	42.95	
2025-01-08 00:49:13.57	358.32	43.00	
2025-01-08 00:49:13.78	358.28	43.06	
2025-01-08 00:49:13.98	358.23	43.11	
2025-01-08 00:49:14.18	358.19	43.16	
2025-01-08 00:49:14.39	358.14	43.21	
2025-01-08 00:49:14.59	358.09	43.26	
2025-01-08 00:49:14.80	358.04	43.32	
2025-01-08 00:49:15.00	358.00	43.37	
2025-01-08 00:49:15.21	357.95	43.42	
2025-01-08 00:49:15.42	357.90	43.48	
2025-01-08 00:49:15.63	357.85	43.53	
2025-01-08 00:49:15.83	357.81	43.58	
2025-01-08 00:49:16.03	357.76	43.64	
2025-01-08 00:49:16.24	357.71	43.69	
2025-01-08 00:49:16.45	357.66	43.74	
2025-01-08 00:49:16.65	357.62	43.80	
2025-01-08 00:49:16.85	357.57	43.85	
2025-01-08 00:49:17.06	357.52	43.90	
2025-01-08 00:49:17.27	357.47	43.96	
2025-01-08 00:49:17.47	357.42	44.01	
2025-01-08 00:49:17.68	357.37	44.06	
2025-01-08 00:49:17.88	357.32	44.12	
2025-01-08 00:49:18.09	357.27	44.17	
2025-01-08 00:49:18.29	357.22	44.22	
2025-01-08 00:49:18.50	357.17	44.28	
2025-01-08 00:49:18.71	357.12	44.33	
2025-01-08 00:49:18.91	357.07	44.38	
2025-01-08 00:49:19.12	357.02	44.44	
2025-01-08 00:49:19.32	356.97	44.49	
2025-01-08 00:49:19.53	356.92	44.55	
2025-01-08 00:49:19.73	356.87	44.60	
2025-01-08 00:49:19.94	356.82	44.65	
2025-01-08 00:49:20.14	356.77	44.71	
2025-01-08 00:49:20.35	356.72	44.76	
2025-01-08 00:49:20.56	356.66	44.82	
2025-01-08 00:49:20.76	356.61	44.87	
2025-01-08 00:49:20.97	356.56	44.93	
2025-01-08 00:49:21.17	356.51	44.98	
2025-01-08 00:49:21.37	356.46	45.03	
2025-01-08 00:49:21.58	356.41	45.09	
2025-01-08 00:49:21.79	356.35	45.14	
2025-01-08 00:49:21.99	356.30	45.20	
2025-01-08 00:49:22.20	356.25	45.25	
2025-01-08 00:49:22.40	356.19	45.30	
2025-01-08 00:49:22.61	356.14	45.36	
2025-01-08 00:49:22.82	356.09	45.42	
2025-01-08 00:49:23.02	356.03	45.47	
2025-01-08 00:49:23.23	355.98	45.53	
2025-01-08 00:49:23.43	355.93	45.58	
2025-01-08 00:49:23.64	355.87	45.64	
2025-01-08 00:49:23.85	355.81	45.69	
2025-01-08 00:49:24.05	355.76	45.74	
2025-01-08 00:49:24.26	355.70	45.80	
2025-01-08 00:49:24.46	355.65	45.85	
2025-01-08 00:49:24.67	355.59	45.91	
2025-01-08 00:49:24.87	355.54	45.96	
2025-01-08 00:49:25.08	355.48	46.02	
2025-01-08 00:49:25.28	355.43	46.07	
2025-01-08 00:49:25.49	355.37	46.13	
2025-01-08 00:49:25.69	355.32	46.19	
2025-01-08 00:49:25.90	355.26	46.24	
2025-01-08 00:49:26.10	355.20	46.30	
2025-01-08 00:49:26.31	355.15	46.35	
2025-01-08 00:49:26.53	355.08	46.41	
2025-01-08 00:49:26.73	355.03	46.47	
2025-01-08 00:49:26.94	354.97	46.52	
2025-01-08 00:49:27.14	354.91	46.58	
2025-01-08 00:49:27.35	354.85	46.63	
2025-01-08 00:49:27.55	354.80	46.69	
2025-01-08 00:49:27.76	354.74	46.74	
2025-01-08 00:49:27.97	354.68	46.80	
2025-01-08 00:49:28.17	354.62	46.86	
2025-01-08 00:49:28.38	354.56	46.91	
2025-01-08 00:49:28.58	354.50	46.97	
2025-01-08 00:49:28.79	354.44	47.02	
2025-01-08 00:49:29.00	354.38	47.08	
2025-01-08 00:49:29.20	354.32	47.14	
2025-01-08 00:49:29.41	354.26	47.19	
2025-01-08 00:49:29.61	354.20	47.25	
2025-01-08 00:49:29.82	354.14	47.31	
2025-01-08 00:49:30.02	354.08	47.36	
2025-01-08 00:49:30.23	354.02	47.42	
2025-01-08 00:49:30.44	353.96	47.48	
2025-01-08 00:49:30.64	353.90	47.53	
2025-01-08 00:49:30.86	353.83	47.59	
2025-01-08 00:49:31.06	353.77	47.65	
2025-01-08 00:49:31.27	353.71	47.70	
2025-01-08 00:49:31.48	353.65	47.76	
2025-01-08 00:49:31.68	353.58	47.82	
2025-01-08 00:49:31.89	353.52	47.87	
2025-01-08 00:49:32.09	353.46	47.93	
2025-01-08 00:49:32.30	353.39	47.99	
2025-01-08 00:49:32.50	353.33	48.04	
2025-01-08 00:49:32.71	353.27	48.10	
2025-01-08 00:49:32.91	353.21	48.16	
2025-01-08 00:49:33.12	353.14	48.21	
2025-01-08 00:49:33.32	353.08	48.27	
2025-01-08 00:49:33.53	353.01	48.33	
2025-01-08 00:49:33.74	352.94	48.38	
2025-01-08 00:49:33.94	352.88	48.44	
2025-01-08 00:49:34.15	352.81	48.50	
2025-01-08 00:49:34.35	352.75	48.55	
2025-01-08 00:49:34.55	352.69	48.61	
2025-01-08 00:49:34.76	352.62	48.67	
2025-01-08 00:49:34.96	352.55	48.72	
2025-01-08 00:49:35.17	352.49	48.78	
2025-01-08 00:49:35.38	352.42	48.84	
2025-01-08 00:49:35.58	352.35	48.90	
2025-01-08 00:49:35.79	352.28	48.95	
2025-01-08 00:49:35.99	352.22	49.01	
2025-01-08 00:49:36.20	352.15	49.07	
2025-01-08 00:49:36.40	352.08	49.12	
2025-01-08 00:49:36.61	352.01	49.18	
2025-01-08 00:49:36.81	351.95	49.24	
2025-01-08 00:49:37.01	351.88	49.29	
2025-01-08 00:49:37.22	351.81	49.35	
2025-01-08 00:49:37.42	351.74	49.41	
2025-01-08 00:49:37.63	351.67	49.47	
2025-01-08 00:49:37.83	351.60	49.52	
2025-01-08 00:49:38.04	351.53	49.58	
2025-01-08 00:49:38.24	351.46	49.64	
2025-01-08 00:49:38.44	351.39	49.69	
2025-01-08 00:49:38.65	351.32	49.75	
2025-01-08 00:49:38.85	351.25	49.81	
2025-01-08 00:49:39.05	351.18	49.86	
2025-01-08 00:49:39.26	351.11	49.92	
2025-01-08 00:49:39.46	351.04	49.98	
2025-01-08 00:49:39.67	350.96	50.04	
2025-01-08 00:49:39.88	350.89	50.10	
2025-01-08 00:49:40.09	350.81	50.16	
2025-01-08 00:49:40.29	350.74	50.21	
2025-01-08 00:49:40.50	350.67	50.27	
2025-01-08 00:49:40.71	350.59	50.33	
2025-01-08 00:49:40.92	350.52	50.39	
2025-01-08 00:49:41.13	350.44	50.45	
2025-01-08 00:49:41.33	350.37	50.51	
2025-01-08 00:49:41.55	350.29	50.57	
2025-01-08 00:49:41.75	350.21	50.62	
2025-01-08 00:49:41.96	350.14	50.68	
2025-01-08 00:49:42.16	350.06	50.74	
2025-01-08 00:49:42.37	349.98	50.80	
2025-01-08 00:49:42.57	349.91	50.86	
2025-01-08 00:49:42.78	349.83	50.92	
2025-01-08 00:49:42.98	349.76	50.97	
2025-01-08 00:49:43.19	349.68	51.03	
2025-01-08 00:49:43.40	349.60	51.09	
2025-01-08 00:49:43.61	349.52	51.15	
2025-01-08 00:49:43.82	349.44	51.21	
2025-01-08 00:49:44.03	349.36	51.27	
2025-01-08 00:49:44.23	349.28	51.32	
2025-01-08 00:49:44.44	349.20	51.38	
2025-01-08 00:49:44.65	349.12	51.44	
2025-01-08 00:49:44.86	349.04	51.50	
2025-01-08 00:49:45.07	348.96	51.56	
2025-01-08 00:49:45.28	348.87	51.62	
2025-01-08 00:49:45.49	348.79	51.68	
2025-01-08 00:49:45.70	348.71	51.74	
2025-01-08 00:49:45.91	348.63	51.80	
2025-01-08 00:49:46.11	348.55	51.86	
2025-01-08 00:49:46.32	348.46	51.92	
2025-01-08 00:49:46.52	348.38	51.97	
2025-01-08 00:49:46.73	348.30	52.03	
2025-01-08 00:49:46.94	348.21	52.09	
2025-01-08 00:49:47.14	348.13	52.15	
2025-01-08 00:49:47.35	348.05	52.21	
2025-01-08 00:49:47.56	347.96	52.27	
2025-01-08 00:49:47.76	347.88	52.33	
2025-01-08 00:49:47.97	347.79	52.39	
2025-01-08 00:49:48.18	347.70	52.44	
2025-01-08 00:49:48.39	347.62	52.50	
2025-01-08 00:49:48.59	347.53	52.56	
2025-01-08 00:49:48.80	347.44	52.62	
2025-01-08 00:49:49.01	347.36	52.68	
2025-01-08 00:49:49.22	347.27	52.74	
2025-01-08 00:49:49.43	347.18	52.80	
2025-01-08 00:49:49.63	347.09	52.86	
2025-01-08 00:49:49.85	347.00	52.92	
2025-01-08 00:49:50.05	346.91	52.98	
2025-01-08 00:49:50.26	346.82	53.04	
2025-01-08 00:49:50.47	346.73	53.09	
2025-01-08 00:49:50.67	346.64	53.15	
2025-01-08 00:49:50.87	346.56	53.21	
2025-01-08 00:49:51.08	346.46	53.27	
2025-01-08 00:49:51.28	346.38	53.32	
2025-01-08 00:49:51.48	346.29	53.38	
2025-01-08 00:49:51.68	346.20	53.44	
2025-01-08 00:49:51.89	346.11	53.50	
2025-01-08 00:49:52.09	346.02	53.55	
2025-01-08 00:49:52.30	345.92	53.61	
2025-01-08 00:49:52.51	345.83	53.67	
2025-01-08 00:49:52.71	345.74	53.73	
2025-01-08 00:49:52.91	345.65	53.79	
2025-01-08 00:49:53.11	345.56	53.84	
2025-01-08 00:49:53.31	345.46	53.90	
2025-01-08 00:49:53.52	345.37	53.96	
2025-01-08 00:49:53.72	345.27	54.02	
2025-01-08 00:49:53.92	345.18	54.07	
2025-01-08 00:49:54.12	345.09	54.13	
2025-01-08 00:49:54.33	344.99	54.19	
2025-01-08 00:49:54.53	344.90	54.25	
2025-01-08 00:49:54.73	344.80	54.30	
2025-01-08 00:49:54.93	344.71	54.36	
2025-01-08 00:49:55.14	344.61	54.42	
2025-01-08 00:49:55.34	344.51	54.47	
2025-01-08 00:49:55.54	344.42	54.53	
2025-01-08 00:49:55.74	344.32	54.59	
2025-01-08 00:49:55.95	344.22	54.65	
2025-01-08 00:49:56.15	344.12	54.70	
2025-01-08 00:49:56.35	344.03	54.76	
2025-01-08 00:49:56.55	343.93	54.82	
2025-01-08 00:49:56.76	343.82	54.88	
2025-01-08 00:49:56.96	343.73	54.93	
2025-01-08 00:49:57.16	343.63	54.99	
2025-01-08 00:49:57.36	343.53	55.04	
2025-01-08 00:49:57.57	343.42	55.10	
2025-01-08 00:49:57.77	343.32	55.16	
2025-01-08 00:49:57.97	343.22	55.22	
2025-01-08 00:49:58.17	343.12	55.27	
2025-01-08 00:49:58.38	343.01	55.33	
2025-01-08 00:49:58.58	342.91	55.39	
2025-01-08 00:49:58.78	342.81	55.44	
2025-01-08 00:49:58.99	342.70	55.50	
2025-01-08 00:49:59.19	342.60	55.56	
2025-01-08 00:49:59.39	342.50	55.61	
2025-01-08 00:49:59.59	342.39	55.67	
2025-01-08 00:49:59.80	342.28	55.73	
2025-01-08 00:50:00.00	342.18	55.78	
2025-01-08 00:50:00.20	342.07	55.84	
2025-01-08 00:50:00.41	341.96	55.90	
2025-01-08 00:50:00.61	341.86	55.96	
2025-01-08 00:50:00.81	341.75	56.01	
2025-01-08 00:50:01.01	341.64	56.07	
2025-01-08 00:50:01.22	341.53	56.12	
2025-01-08 00:50:01.42	341.42	56.18	
2025-01-08 00:50:01.62	341.32	56.24	
2025-01-08 00:50:01.82	341.21	56.29	
2025-01-08 00:50:02.03	341.09	56.35	
2025-01-08 00:50:02.23	340.98	56.41	
2025-01-08 00:50:02.43	340.87	56.46	
2025-01-08 00:50:02.64	340.76	56.52	
2025-01-08 00:50:02.84	340.65	56.57	
2025-01-08 00:50:03.04	340.53	56.63	
2025-01-08 00:50:03.24	340.42	56.68	
2025-01-08 00:50:03.45	340.30	56.74	
2025-01-08 00:50:03.65	340.19	56.80	
2025-01-08 00:50:03.85	340.08	56.85	
2025-01-08 00:50:04.05	339.97	56.91	
2025-01-08 00:50:04.26	339.85	56.96	
2025-01-08 00:50:04.46	339.73	57.02	
2025-01-08 00:50:04.66	339.62	57.07	
2025-01-08 00:50:04.86	339.50	57.13	
2025-01-08 00:50:05.06	339.38	57.18	
2025-01-08 00:50:05.27	339.26	57.24	
2025-01-08 00:50:05.47	339.15	57.30	
2025-01-08 00:50:05.67	339.03	57.35	
2025-01-08 00:50:05.88	338.90	57.41	
2025-01-08 00:50:06.08	338.79	57.46	
2025-01-08 00:50:06.28	338.67	57.52	
2025-01-08 00:50:06.49	338.54	57.57	
2025-01-08 00:50:06.69	338.42	57.63	
2025-01-08 00:50:06.89	338.30	57.68	
2025-01-08 00:50:07.10	338.18	57.74	
2025-01-08 00:50:07.30	338.05	57.79	
2025-01-08 00:50:07.50	337.93	57.85	
2025-01-08 00:50:07.70	337.81	57.90	
2025-01-08 00:50:07.90	337.69	57.95	
2025-01-08 00:50:08.11	337.56	58.01	
2025-01-08 00:50:08.32	337.43	58.07	
2025-01-08 00:50:08.52	337.30	58.12	
2025-01-08 00:50:08.72	337.18	58.17	
2025-01-08 00:50:08.93	337.05	58.23	
2025-01-08 00:50:09.13	336.92	58.28	
2025-01-08 00:50:09.33	336.79	58.34	
2025-01-08 00:50:09.53	336.67	58.39	
2025-01-08 00:50:09.74	336.53	58.44	
2025-01-08 00:50:09.94	336.41	58.50	
2025-01-08 00:50:10.14	336.28	58.55	
2025-01-08 00:50:10.34	336.15	58.60	
2025-01-08 00:50:10.56	336.01	58.66	
2025-01-08 00:50:10.76	335.88	58.71	
2025-01-08 00:50:10.98	335.73	58.77	
2025-01-08 00:50:11.18	335.60	58.82	
2025-01-08 00:50:11.38	335.47	58.87	
2025-01-08 00:50:11.58	335.34	58.93	
2025-01-08 00:50:11.79	335.20	58.98	
2025-01-08 00:50:11.99	335.07	59.03	
2025-01-08 00:50:12.19	334.93	59.09	
2025-01-08 00:50:12.39	334.80	59.14	
2025-01-08 00:50:12.60	334.66	59.19	
2025-01-08 00:50:12.80	334.52	59.24	
2025-01-08 00:50:13.00	334.39	59.29	
2025-01-08 00:50:13.21	334.24	59.35	
2025-01-08 00:50:13.41	334.10	59.40	
2025-01-08 00:50:13.62	333.96	59.45	
2025-01-08 00:50:13.82	333.82	59.50	
2025-01-08 00:50:14.02	333.68	59.56	
2025-01-08 00:50:14.22	333.54	59.61	
2025-01-08 00:50:14.44	333.39	59.66	
2025-01-08 00:50:14.66	333.24	59.72	
2025-01-08 00:50:14.87	333.09	59.77	
2025-01-08 00:50:15.09	332.93	59.83	
2025-01-08 00:50:15.31	332.78	59.88	
2025-01-08 00:50:15.51	332.63	59.93	
2025-01-08 00:50:15.73	332.48	59.99	
2025-01-08 00:50:15.94	332.32	60.04	
2025-01-08 00:50:16.16	332.17	60.09	
2025-01-08 00:50:16.37	332.01	60.14	
2025-01-08 00:50:16.58	331.86	60.20	
2025-01-08 00:50:16.78	331.71	60.25	
2025-01-08 00:50:16.98	331.57	60.29	
2025-01-08 00:50:17.19	331.41	60.35	
2025-01-08 00:50:17.39	331.26	60.39	
2025-01-08 00:50:17.59	331.12	60.44	
2025-01-08 00:50:17.80	330.96	60.49	
2025-01-08 00:50:18.01	330.80	60.55	
2025-01-08 00:50:18.22	330.64	60.60	
2025-01-08 00:50:18.43	330.48	60.65	
2025-01-08 00:50:18.63	330.33	60.69	
2025-01-08 00:50:18.84	330.17	60.74	
2025-01-08 00:50:19.04	330.02	60.79	
2025-01-08 00:50:19.24	329.87	60.84	
2025-01-08 00:50:19.45	329.71	60.89	
2025-01-08 00:50:19.65	329.55	60.94	
2025-01-08 00:50:19.85	329.40	60.98	
2025-01-08 00:50:20.06	329.23	61.03	
2025-01-08 00:50:20.26	329.08	61.08	
2025-01-08 00:50:20.46	328.92	61.13	
2025-01-08 00:50:20.66	328.76	61.17	
2025-01-08 00:50:20.87	328.59	61.22	
2025-01-08 00:50:21.07	328.44	61.27	
2025-01-08 00:50:21.27	328.28	61.31	
2025-01-08 00:50:21.47	328.12	61.36	
2025-01-08 00:50:21.67	327.96	61.40	
2025-01-08 00:50:21.88	327.79	61.45	
2025-01-08 00:50:22.09	327.62	61.50	
2025-01-08 00:50:22.29	327.46	61.55	
2025-01-08 00:50:22.50	327.28	61.59	
2025-01-08 00:50:22.70	327.12	61.64	
2025-01-08 00:50:22.91	326.95	61.68	
2025-01-08 00:50:23.13	326.77	61.73	
2025-01-08 00:50:23.33	326.60	61.78	
2025-01-08 00:50:23.53	326.44	61.82	
2025-01-08 00:50:23.73	326.27	61.86	
2025-01-08 00:50:23.93	326.10	61.91	
2025-01-08 00:50:24.14	325.93	61.95	
2025-01-08 00:50:24.34	325.76	62.00	
2025-01-08 00:50:24.55	325.58	62.04	
2025-01-08 00:50:24.76	325.40	62.09	
2025-01-08 00:50:24.97	325.22	62.13	
2025-01-08 00:50:25.17	325.05	62.18	
2025-01-08 00:50:25.38	324.87	62.22	
2025-01-08 00:50:25.59	324.69	62.26	
2025-01-08 00:50:25.79	324.52	62.31	
2025-01-08 00:50:26.01	324.33	62.35	
2025-01-08 00:50:26.22	324.14	62.40	
2025-01-08 00:50:26.43	323.96	62.44	
2025-01-08 00:50:26.64	323.78	62.48	
2025-01-08 00:50:26.84	323.60	62.52	
2025-01-08 00:50:27.05	323.41	62.57	
2025-01-08 00:50:27.27	323.22	62.61	
2025-01-08 00:50:27.47	323.04	62.65	
2025-01-08 00:50:27.67	322.86	62.69	
2025-01-08 00:50:27.89	322.67	62.73	
2025-01-08 00:50:28.09	322.49	62.77	
2025-01-08 00:50:28.29	322.31	62.81	
2025-01-08 00:50:28.50	322.12	62.85	
2025-01-08 00:50:28.70	321.94	62.89	
2025-01-08 00:50:28.90	321.75	62.93	
2025-01-08 00:50:29.11	321.56	62.97	
2025-01-08 00:50:29.31	321.38	63.01	
2025-01-08 00:50:29.51	321.19	63.05	
2025-01-08 00:50:29.73	320.99	63.09	
2025-01-08 00:50:29.93	320.81	63.13	
2025-01-08 00:50:30.14	320.61	63.17	
2025-01-08 00:50:30.34	320.42	63.20	
2025-01-08 00:50:30.54	320.24	63.24	
2025-01-08 00:50:30.75	320.04	63.28	
2025-01-08 00:50:30.95	319.85	63.31	
2025-01-08 00:50:31.15	319.66	63.35	
2025-01-08 00:50:31.36	319.47	63.39	
2025-01-08 00:50:31.56	319.28	63.42	
2025-01-08 00:50:31.76	319.09	63.46	
2025-01-08 00:50:31.97	318.88	63.50	
2025-01-08 00:50:32.17	318.69	63.53	
2025-01-08 00:50:32.38	318.49	63.57	
2025-01-08 00:50:32.60	318.28	63.60	
2025-01-08 00:50:32.81	318.08	63.64	
2025-01-08 00:50:33.01	317.88	63.67	
2025-01-08 00:50:33.22	317.68	63.71	
2025-01-08 00:50:33.42	317.48	63.74	
2025-01-08 00:50:33.62	317.29	63.78	
2025-01-08 00:50:33.82	317.09	63.81	
2025-01-08 00:50:34.02	316.89	63.84	
2025-01-08 00:50:34.23	316.69	63.87	
2025-01-08 00:50:34.44	316.48	63.91	
2025-01-08 00:50:34.66	316.26	63.94	
2025-01-08 00:50:34.86	316.06	63.97	
2025-01-08 00:50:35.06	315.86	64.01	
2025-01-08 00:50:35.26	315.66	64.04	
2025-01-08 00:50:35.47	315.45	64.07	
2025-01-08 00:50:35.67	315.25	64.10	
2025-01-08 00:50:35.87	315.05	64.13	
2025-01-08 00:50:36.07	314.85	64.16	
2025-01-08 00:50:36.27	314.64	64.19	
2025-01-08 00:50:36.48	314.43	64.22	
2025-01-08 00:50:36.68	314.23	64.25	
2025-01-08 00:50:36.88	314.02	64.28	
2025-01-08 00:50:37.09	313.81	64.31	
2025-01-08 00:50:37.29	313.60	64.33	
2025-01-08 00:50:37.49	313.39	64.36	
2025-01-08 00:50:37.69	313.19	64.39	
2025-01-08 00:50:37.90	312.97	64.42	
2025-01-08 00:50:38.10	312.76	64.44	
2025-01-08 00:50:38.30	312.56	64.47	
2025-01-08 00:50:38.50	312.35	64.50	
2025-01-08 00:50:38.70	312.14	64.52	
2025-01-08 00:50:38.91	311.92	64.55	
2025-01-08 00:50:39.11	311.71	64.58	
2025-01-08 00:50:39.31	311.50	64.60	
2025-01-08 00:50:39.51	311.29	64.62	
2025-01-08 00:50:39.72	311.07	64.65	
2025-01-08 00:50:39.92	310.85	64.67	
2025-01-08 00:50:40.12	310.64	64.70	
2025-01-08 00:50:40.32	310.43	64.72	
2025-01-08 00:50:40.53	310.21	64.75	
2025-01-08 00:50:40.73	309.99	64.77	
2025-01-08 00:50:40.93	309.78	64.79	
2025-01-08 00:50:41.13	309.56	64.81	
2025-01-08 00:50:41.34	309.34	64.84	
2025-01-08 00:50:41.54	309.12	64.86	
2025-01-08 00:50:41.74	308.91	64.88	
2025-01-08 00:50:41.94	308.69	64.90	
2025-01-08 00:50:42.14	308.47	64.92	
2025-01-08 00:50:42.35	308.25	64.94	
2025-01-08 00:50:42.55	308.03	64.96	
2025-01-08 00:50:42.75	307.81	64.98	
2025-01-08 00:50:42.96	307.58	65.00	
2025-01-08 00:50:43.16	307.36	65.02	
2025-01-08 00:50:43.36	307.15	65.04	
2025-01-08 00:50:43.56	306.93	65.06	
2025-01-08 00:50:43.77	306.70	65.08	
2025-01-08 00:50:43.97	306.48	65.10	
2025-01-08 00:50:44.17	306.26	65.11	
2025-01-08 00:50:44.37	306.03	65.13	
2025-01-08 00:50:44.58	305.80	65.15	
2025-01-08 00:50:44.79	305.57	65.17	
2025-01-08 00:50:45.01	305.33	65.18	
2025-01-08 00:50:45.21	305.10	65.20	
2025-01-08 00:50:45.42	304.87	65.21	
2025-01-08 00:50:45.64	304.63	65.23	
2025-01-08 00:50:45.84	304.40	65.25	
2025-01-08 00:50:46.04	304.18	65.26	
2025-01-08 00:50:46.25	303.95	65.27	
2025-01-08 00:50:46.45	303.72	65.29	
2025-01-08 00:50:46.65	303.50	65.30	
2025-01-08 00:50:46.86	303.26	65.32	
2025-01-08 00:50:47.06	303.04	65.33	
2025-01-08 00:50:47.26	302.81	65.34	
2025-01-08 00:50:47.46	302.59	65.35	
2025-01-08 00:50:47.67	302.35	65.36	
2025-01-08 00:50:47.87	302.13	65.37	
2025-01-08 00:50:48.07	301.90	65.39	
2025-01-08 00:50:48.27	301.67	65.40	
2025-01-08 00:50:48.48	301.44	65.41	
2025-01-08 00:50:48.69	301.20	65.42	
2025-01-08 00:50:48.89	300.97	65.43	
2025-01-08 00:50:49.09	300.74	65.44	
2025-01-08 00:50:49.30	300.51	65.44	
2025-01-08 00:50:49.50	300.28	65.45	
2025-01-08 00:50:49.70	300.05	65.46	
2025-01-08 00:50:49.92	299.80	65.47	
2025-01-08 00:50:50.13	299.56	65.48	
2025-01-08 00:50:50.33	299.33	65.48	
2025-01-08 00:50:50.54	299.10	65.49	
2025-01-08 00:50:50.74	298.87	65.50	
2025-01-08 00:50:50.95	298.63	65.50	
2025-01-08 00:50:51.15	298.40	65.51	
2025-01-08 00:50:51.35	298.17	65.51	
2025-01-08 00:50:51.55	297.94	65.52	
2025-01-08 00:50:51.76	297.70	65.52	
2025-01-08 00:50:51.96	297.47	65.53	
2025-01-08 00:50:52.16	297.24	65.53	
2025-01-08 00:50:52.36	297.02	65.53	
2025-01-08 00:50:52.57	296.77	65.54	
2025-01-08 00:50:52.77	296.55	65.54	
2025-01-08 00:50:52.97	296.32	65.54	
2025-01-08 00:50:53.18	296.08	65.54	
2025-01-08 00:50:53.38	295.85	65.55	
2025-01-08 00:50:53.58	295.62	65.55	
2025-01-08 00:50:53.78	295.39	65.55	
2025-01-08 00:50:53.99	295.15	65.55	
2025-01-08 00:50:54.19	294.92	65.55	
2025-01-08 00:50:54.39	294.69	65.55	
2025-01-08 00:50:54.59	294.46	65.55	
2025-01-08 00:50:54.79	294.23	65.55	
2025-01-08 00:50:55.00	293.99	65.54	
2025-01-08 00:50:55.20	293.76	65.54	
2025-01-08 00:50:55.40	293.53	65.54	
2025-01-08 00:50:55.60	293.30	65.54	
2025-01-08 00:50:55.81	293.06	65.53	
2025-01-08 00:50:56.01	292.83	65.53	
2025-01-08 00:50:56.21	292.60	65.53	
2025-01-08 00:50:56.41	292.37	65.52	
2025-01-08 00:50:56.62	292.13	65.52	
2025-01-08 00:50:56.83	291.89	65.52	
2025-01-08 00:50:57.04	291.65	65.51	
2025-01-08 00:50:57.25	291.41	65.50	
2025-01-08 00:50:57.45	291.19	65.50	
2025-01-08 00:50:57.65	290.96	65.49	
2025-01-08 00:50:57.85	290.73	65.49	
2025-01-08 00:50:58.06	290.49	65.48	
2025-01-08 00:50:58.26	290.26	65.47	
2025-01-08 00:50:58.46	290.04	65.46	
2025-01-08 00:50:58.66	289.81	65.46	
2025-01-08 00:50:58.87	289.57	65.45	
2025-01-08 00:50:59.07	289.34	65.44	
2025-01-08 00:50:59.28	289.10	65.43	
2025-01-08 00:50:59.50	288.85	65.42	
2025-01-08 00:50:59.71	288.62	65.41	
2025-01-08 00:50:59.92	288.38	65.40	
2025-01-08 00:51:00.12	288.15	65.39	
2025-01-08 00:51:00.32	287.93	65.38	
2025-01-08 00:51:00.52	287.70	65.37	
2025-01-08 00:51:00.73	287.46	65.35	
2025-01-08 00:51:00.93	287.24	65.34	
2025-01-08 00:51:01.13	287.01	65.33	
2025-01-08 00:51:01.33	286.79	65.32	
2025-01-08 00:51:01.54	286.55	65.30	
2025-01-08 00:51:01.74	286.33	65.29	
2025-01-08 00:51:01.94	286.11	65.28	
2025-01-08 00:51:02.14	285.88	65.26	
2025-01-08 00:51:02.35	285.65	65.25	
2025-01-08 00:51:02.55	285.42	65.23	
2025-01-08 00:51:02.75	285.20	65.22	
2025-01-08 00:51:02.96	284.97	65.20	
2025-01-08 00:51:03.16	284.75	65.19	
2025-01-08 00:51:03.36	284.52	65.17	
2025-01-08 00:51:03.56	284.30	65.16	
2025-01-08 00:51:03.77	284.07	65.14	
2025-01-08 00:51:03.98	283.84	65.12	
2025-01-08 00:51:04.18	283.62	65.10	
2025-01-08 00:51:04.38	283.40	65.09	
2025-01-08 00:51:04.59	283.17	65.07	
2025-01-08 00:51:04.79	282.95	65.05	
2025-01-08 00:51:04.99	282.73	65.03	
2025-01-08 00:51:05.19	282.51	65.01	
2025-01-08 00:51:05.40	282.28	64.99	
2025-01-08 00:51:05.60	282.06	64.97	
2025-01-08 00:51:05.80	281.84	64.95	
2025-01-08 00:51:06.00	281.63	64.93	
2025-01-08 00:51:06.21	281.40	64.91	
2025-01-08 00:51:06.41	281.18	64.89	
2025-01-08 00:51:06.61	280.97	64.87	
2025-01-08 00:51:06.81	280.75	64.85	
2025-01-08 00:51:07.02	280.53	64.82	
2025-01-08 00:51:07.22	280.31	64.80	
2025-01-08 00:51:07.42	280.10	64.78	
2025-01-08 00:51:07.63	279.87	64.76	
2025-01-08 00:51:07.83	279.66	64.73	
2025-01-08 00:51:08.03	279.45	64.71	
2025-01-08 00:51:08.23	279.23	64.69	
2025-01-08 00:51:08.44	279.01	64.66	
2025-01-08 00:51:08.65	278.79	64.63	
2025-01-08 00:51:08.87	278.56	64.61	
2025-01-08 00:51:09.08	278.33	64.58	
2025-01-08 00:51:09.28	278.12	64.56	
2025-01-08 00:51:09.48	277.91	64.53	
2025-01-08 00:51:09.69	277.70	64.50	
2025-01-08 00:51:09.89	277.49	64.48	
2025-01-08 00:51:10.09	277.28	64.45	
2025-01-08 00:51:10.29	277.07	64.42	
2025-01-08 00:51:10.50	276.85	64.40	
2025-01-08 00:51:10.70	276.65	64.37	
2025-01-08 00:51:10.90	276.44	64.34	
2025-01-08 00:51:11.10	276.23	64.31	
2025-01-08 00:51:11.30	276.03	64.28	
2025-01-08 00:51:11.51	275.81	64.25	
2025-01-08 00:51:11.71	275.61	64.23	
2025-01-08 00:51:11.91	275.41	64.20	
2025-01-08 00:51:12.13	275.18	64.16	
2025-01-08 00:51:12.33	274.98	64.13	
2025-01-08 00:51:12.53	274.78	64.10	
2025-01-08 00:51:12.73	274.58	64.07	
2025-01-08 00:51:12.94	274.37	64.04	
2025-01-08 00:51:13.14	274.17	64.01	
2025-01-08 00:51:13.34	273.97	63.98	
2025-01-08 00:51:13.55	273.76	63.95	
2025-01-08 00:51:13.76	273.55	63.91	
2025-01-08 00:51:13.96	273.35	63.88	
2025-01-08 00:51:14.16	273.15	63.85	
2025-01-08 00:51:14.37	272.94	63.82	
2025-01-08 00:51:14.57	272.75	63.78	
2025-01-08 00:51:14.78	272.54	63.75	
2025-01-08 00:51:14.99	272.34	63.71	
2025-01-08 00:51:15.19	272.14	63.68	
2025-01-08 00:51:15.39	271.95	63.65	
2025-01-08 00:51:15.60	271.74	63.61	
2025-01-08 00:51:15.80	271.55	63.58	
2025-01-08 00:51:16.01	271.35	63.54	
2025-01-08 00:51:16.22	271.15	63.50	
2025-01-08 00:51:16.42	270.96	63.47	
2025-01-08 00:51:16.62	270.77	63.43	
2025-01-08 00:51:16.83	270.57	63.40	
2025-01-08 00:51:17.03	270.38	63.36	
2025-01-08 00:51:17.24	270.18	63.32	
2025-01-08 00:51:17.44	269.99	63.29	
2025-01-08 00:51:17.64	269.80	63.25	
2025-01-08 00:51:17.85	269.60	63.21	
2025-01-08 00:51:18.05	269.42	63.17	
2025-01-08 00:51:18.25	269.23	63.14	
2025-01-08 00:51:18.46	269.04	63.10	
2025-01-08 00:51:18.67	268.84	63.06	
2025-01-08 00:51:18.87	268.66	63.02	
2025-01-08 00:51:19.08	268.47	62.98	
2025-01-08 00:51:19.28	268.28	62.94	
2025-01-08 00:51:19.49	268.09	62.90	
2025-01-08 00:51:19.69	267.91	62.86	
2025-01-08 00:51:19.90	267.72	62.82	
2025-01-08 00:51:20.10	267.54	62.78	
2025-01-08 00:51:20.31	267.35	62.74	
2025-01-08 00:51:20.52	267.16	62.70	
2025-01-08 00:51:20.72	266.98	62.66	
2025-01-08 00:51:20.93	266.80	62.62	
2025-01-08 00:51:21.13	266.62	62.57	
2025-01-08 00:51:21.34	266.43	62.53	
2025-01-08 00:51:21.54	266.26	62.49	
2025-01-08 00:51:21.75	266.07	62.45	
2025-01-08 00:51:21.96	265.89	62.40	
2025-01-08 00:51:22.17	265.70	62.36	
2025-01-08 00:51:22.37	265.53	62.32	
2025-01-08 00:51:22.58	265.35	62.28	
2025-01-08 00:51:22.79	265.17	62.23	
2025-01-08 00:51:23.00	264.99	62.19	
2025-01-08 00:51:23.21	264.81	62.14	
2025-01-08 00:51:23.41	264.64	62.10	
2025-01-08 00:51:23.62	264.46	62.05	
2025-01-08 00:51:23.83	264.28	62.01	
2025-01-08 00:51:24.04	264.10	61.96	
2025-01-08 00:51:24.25	263.93	61.92	
2025-01-08 00:51:24.46	263.75	61.87	
2025-01-08 00:51:24.66	263.58	61.83	
2025-01-08 00:51:24.87	263.41	61.78	
2025-01-08 00:51:25.08	263.23	61.74	
2025-01-08 00:51:25.28	263.07	61.69	
2025-01-08 00:51:25.49	262.90	61.64	
2025-01-08 00:51:25.69	262.73	61.60	
2025-01-08 00:51:25.90	262.56	61.55	
2025-01-08 00:51:26.10	262.40	61.51	
2025-01-08 00:51:26.31	262.23	61.46	
2025-01-08 00:51:26.51	262.07	61.41	
2025-01-08 00:51:26.72	261.90	61.37	
2025-01-08 00:51:26.92	261.74	61.32	
2025-01-08 00:51:27.13	261.57	61.27	
2025-01-08 00:51:27.33	261.41	61.23	
2025-01-08 00:51:27.54	261.24	61.18	
2025-01-08 00:51:27.75	261.08	61.13	
2025-01-08 00:51:27.95	260.92	61.08	
2025-01-08 00:51:28.15	260.76	61.03	
2025-01-08 00:51:28.35	260.61	60.99	
2025-01-08 00:51:28.56	260.44	60.94	
2025-01-08 00:51:28.76	260.29	60.89	
2025-01-08 00:51:28.97	260.13	60.84	
2025-01-08 00:51:29.17	259.97	60.79	
2025-01-08 00:51:29.38	259.81	60.74	
2025-01-08 00:51:29.58	259.66	60.70	
2025-01-08 00:51:29.79	259.50	60.64	
2025-01-08 00:51:30.00	259.34	60.59	
2025-01-08 00:51:30.20	259.19	60.55	
2025-01-08 00:51:30.40	259.04	60.50	
2025-01-08 00:51:30.60	258.89	60.45	
2025-01-08 00:51:30.81	258.74	60.40	
2025-01-08 00:51:31.02	258.58	60.35	
2025-01-08 00:51:31.24	258.42	60.29	
2025-01-08 00:51:31.44	258.27	60.24	
2025-01-08 00:51:31.65	258.12	60.19	
2025-01-08 00:51:31.85	257.97	60.14	
2025-01-08 00:51:32.06	257.82	60.09	
2025-01-08 00:51:32.26	257.67	60.04	
2025-01-08 00:51:32.47	257.52	59.99	
2025-01-08 00:51:32.67	257.38	59.94	
2025-01-08 00:51:32.88	257.23	59.89	
2025-01-08 00:51:33.08	257.09	59.84	
2025-01-08 00:51:33.30	256.93	59.78	
2025-01-08 00:51:33.51	256.78	59.73	
2025-01-08 00:51:33.71	256.64	59.68	
2025-01-08 00:51:33.92	256.49	59.62	
2025-01-08 00:51:34.13	256.35	59.57	
2025-01-08 00:51:34.33	256.21	59.52	
2025-01-08 00:51:34.54	256.06	59.46	
2025-01-08 00:51:34.74	255.92	59.41	
2025-01-08 00:51:34.95	255.78	59.36	
2025-01-08 00:51:35.16	255.64	59.31	
2025-01-08 00:51:35.36	255.50	59.25	
2025-01-08 00:51:35.56	255.36	59.20	
2025-01-08 00:51:35.77	255.22	59.15	
2025-01-08 00:51:35.97	255.09	59.10	
2025-01-08 00:51:36.18	254.95	59.04	
2025-01-08 00:51:36.39	254.81	58.99	
2025-01-08 00:51:36.59	254.67	58.94	
2025-01-08 00:51:36.80	254.53	58.88	
2025-01-08 00:51:37.00	254.40	58.83	
2025-01-08 00:51:37.21	254.26	58.77	
2025-01-08 00:51:37.41	254.13	58.72	
2025-01-08 00:51:37.61	254.00	58.67	
2025-01-08 00:51:37.82	253.87	58.61	
2025-01-08 00:51:38.02	253.74	58.56	
2025-01-08 00:51:38.23	253.60	58.50	
2025-01-08 00:51:38.43	253.47	58.45	
2025-01-08 00:51:38.64	253.34	58.40	
2025-01-08 00:51:38.84	253.21	58.34	
2025-01-08 00:51:39.05	253.08	58.29	
2025-01-08 00:51:39.26	252.95	58.23	
2025-01-08 00:51:39.46	252.82	58.18	
2025-01-08 00:51:39.67	252.69	58.12	
2025-01-08 00:51:39.87	252.56	58.07	
2025-01-08 00:51:40.08	252.43	58.01	
2025-01-08 00:51:40.28	252.31	57.96	
2025-01-08 00:51:40.49	252.18	57.90	
2025-01-08 00:51:40.70	252.05	57.84	
2025-01-08 00:51:40.91	251.92	57.79	
2025-01-08 00:51:41.12	251.80	57.73	
2025-01-08 00:51:41.32	251.68	57.68	
2025-01-08 00:51:41.53	251.55	57.62	
2025-01-08 00:51:41.74	251.42	57.56	
2025-01-08 00:51:41.94	251.30	57.51	
2025-01-08 00:51:42.14	251.19	57.45	
2025-01-08 00:51:42.35	251.06	57.40	
2025-01-08 00:51:42.56	250.94	57.34	
2025-01-08 00:51:42.76	250.82	57.28	
2025-01-08 00:51:42.98	250.69	57.22	
2025-01-08 00:51:43.18	250.57	57.17	
2025-01-08 00:51:43.39	250.45	57.11	
2025-01-08 00:51:43.60	250.33	57.05	
2025-01-08 00:51:43.80	250.22	57.00	
2025-01-08 00:51:44.01	250.10	56.94	
2025-01-08 00:51:44.21	249.98	56.89	
2025-01-08 00:51:44.42	249.86	56.83	
2025-01-08 00:51:44.62	249.75	56.77	
2025-01-08 00:51:44.83	249.63	56.72	
2025-01-08 00:51:45.03	249.52	56.66	
2025-01-08 00:51:45.24	249.40	56.60	
2025-01-08 00:51:45.44	249.29	56.55	
2025-01-08 00:51:45.65	249.17	56.49	
2025-01-08 00:51:45.85	249.06	56.43	
2025-01-08 00:51:46.06	248.95	56.38	
2025-01-08 00:51:46.27	248.83	56.32	
2025-01-08 00:51:46.47	248.72	56.26	
2025-01-08 00:51:46.68	248.61	56.20	
2025-01-08 00:51:46.88	248.50	56.15	
2025-01-08 00:51:47.09	248.39	56.09	
2025-01-08 00:51:47.29	248.28	56.03	
2025-01-08 00:51:47.50	248.17	55.97	
2025-01-08 00:51:47.70	248.06	55.92	
2025-01-08 00:51:47.91	247.95	55.86	
2025-01-08 00:51:48.12	247.84	55.80	
2025-01-08 00:51:48.32	247.73	55.74	
2025-01-08 00:51:48.53	247.62	55.69	
2025-01-08 00:51:48.73	247.52	55.63	
2025-01-08 00:51:48.94	247.41	55.57	
2025-01-08 00:51:49.15	247.30	55.51	
2025-01-08 00:51:49.35	247.20	55.46	
2025-01-08 00:51:49.55	247.10	55.40	
2025-01-08 00:51:49.76	246.99	55.34	
2025-01-08 00:51:49.97	246.88	55.28	
2025-01-08 00:51:50.17	246.78	55.22	
2025-01-08 00:51:50.38	246.68	55.17	
2025-01-08 00:51:50.58	246.57	55.11	
2025-01-08 00:51:50.79	246.47	55.05	
2025-01-08 00:51:50.99	246.37	54.99	
2025-01-08 00:51:51.20	246.27	54.93	
2025-01-08 00:51:51.41	246.16	54.88	
2025-01-08 00:51:51.61	246.06	54.82	
2025-01-08 00:51:51.82	245.96	54.76	
2025-01-08 00:51:52.02	245.86	54.70	
2025-01-08 00:51:52.23	245.76	54.64	
2025-01-08 00:51:52.43	245.66	54.59	
2025-01-08 00:51:52.64	245.56	54.53	
2025-01-08 00:51:52.84	245.47	54.47	
2025-01-08 00:51:53.05	245.37	54.41	
2025-01-08 00:51:53.25	245.27	54.35	
2025-01-08 00:51:53.46	245.17	54.29	
2025-01-08 00:51:53.66	245.08	54.24	
2025-01-08 00:51:53.87	244.98	54.18	
2025-01-08 00:51:54.07	244.88	54.12	
2025-01-08 00:51:54.28	244.79	54.06	
2025-01-08 00:51:54.48	244.69	54.01	
2025-01-08 00:51:54.69	244.60	53.95	
2025-01-08 00:51:54.89	244.50	53.89	
2025-01-08 00:51:55.10	244.41	53.83	
2025-01-08 00:51:55.30	244.32	53.77	
2025-01-08 00:51:55.51	244.22	53.71	
2025-01-08 00:51:55.71	244.13	53.66	
2025-01-08 00:51:55.92	244.04	53.60	
2025-01-08 00:51:56.12	243.95	53.54	
2025-01-08 00:51:56.33	243.85	53.48	
2025-01-08 00:51:56.54	243.76	53.42	
2025-01-08 00:51:56.74	243.67	53.36	
2025-01-08 00:51:56.95	243.58	53.30	
2025-01-08 00:51:57.15	243.49	53.25	
2025-01-08 00:51:57.36	243.40	53.19	
2025-01-08 00:51:57.56	243.31	53.13	
2025-01-08 00:51:57.77	243.22	53.07	
2025-01-08 00:51:57.99	243.12	53.01	
2025-01-08 00:51:58.19	243.03	52.95	
2025-01-08 00:51:58.39	242.95	52.89	
2025-01-08 00:51:58.60	242.86	52.83	
2025-01-08 00:51:58.80	242.77	52.78	
2025-01-08 00:51:59.01	242.68	52.72	
2025-01-08 00:51:59.21	242.60	52.66	
2025-01-08 00:51:59.42	242.51	52.60	
2025-01-08 00:51:59.63	242.42	52.54	
2025-01-08 00:51:59.83	242.34	52.48	
2025-01-08 00:52:00.03	242.25	52.43	
2025-01-08 00:52:00.24	242.17	52.37	
2025-01-08 00:52:00.45	242.08	52.31	
2025-01-08 00:52:00.65	242.00	52.25	
2025-01-08 00:52:00.85	241.92	52.19	
2025-01-08 00:52:01.06	241.83	52.13	
2025-01-08 00:52:01.26	241.75	52.08	
2025-01-08 00:52:01.47	241.66	52.02	
2025-01-08 00:52:01.68	241.58	51.96	
2025-01-08 00:52:01.88	241.50	51.90	
2025-01-08 00:52:02.09	241.41	51.84	
2025-01-08 00:52:02.29	241.34	51.78	
2025-01-08 00:52:02.50	241.25	51.72	
2025-01-08 00:52:02.71	241.17	51.66	
2025-01-08 00:52:02.91	241.09	51.61	
2025-01-08 00:52:03.12	241.01	51.55	
2025-01-08 00:52:03.32	240.93	51.49	
2025-01-08 00:52:03.53	240.85	51.43	
2025-01-08 00:52:03.73	240.77	51.37	
2025-01-08 00:52:03.94	240.69	51.31	
2025-01-08 00:52:04.14	240.61	51.26	
2025-01-08 00:52:04.35	240.53	51.20	
2025-01-08 00:52:04.55	240.45	51.14	
2025-01-08 00:52:04.76	240.37	51.08	
2025-01-08 00:52:04.96	240.30	51.02	
2025-01-08 00:52:05.17	240.22	50.97	
2025-01-08 00:52:05.37	240.14	50.91	
2025-01-08 00:52:05.58	240.07	50.85	
2025-01-08 00:52:05.78	239.99	50.79	
2025-01-08 00:52:05.99	239.91	50.73	
2025-01-08 00:52:06.20	239.83	50.67	
2025-01-08 00:52:06.40	239.76	50.62	
2025-01-08 00:52:06.61	239.68	50.56	
2025-01-08 00:52:06.81	239.61	50.50	
2025-01-08 00:52:07.02	239.53	50.44	
2025-01-08 00:52:07.22	239.46	50.39	
2025-01-08 00:52:07.43	239.39	50.33	
2025-01-08 00:52:07.63	239.31	50.27	
2025-01-08 00:52:07.84	239.24	50.21	
2025-01-08 00:52:08.04	239.17	50.15	
2025-01-08 00:52:08.24	239.10	50.10	
2025-01-08 00:52:08.45	239.02	50.04	
2025-01-08 00:52:08.65	238.95	49.98	
2025-01-08 00:52:08.86	238.88	49.92	
2025-01-08 00:52:09.07	238.80	49.86	
2025-01-08 00:52:09.27	238.73	49.81	
2025-01-08 00:52:09.48	238.66	49.75	
2025-01-08 00:52:09.68	238.59	49.69	
2025-01-08 00:52:09.88	238.52	49.64	
2025-01-08 00:52:10.09	238.45	49.58	
2025-01-08 00:52:10.30	238.38	49.52	
2025-01-08 00:52:10.50	238.31	49.46	
2025-01-08 00:52:10.71	238.24	49.40	
2025-01-08 00:52:10.91	238.17	49.35	
2025-01-08 00:52:11.12	238.10	49.29	
2025-01-08 00:52:11.32	238.03	49.23	
2025-01-08 00:52:11.53	237.96	49.17	
2025-01-08 00:52:11.73	237.89	49.12	
2025-01-08 00:52:11.93	237.83	49.06	
2025-01-08 00:52:12.14	237.76	49.00	
2025-01-08 00:52:12.34	237.69	48.95	
2025-01-08 00:52:12.55	237.62	48.89	
2025-01-08 00:52:12.75	237.56	48.83	
2025-01-08 00:52:12.96	237.49	48.77	
2025-01-08 00:52:13.16	237.42	48.72	
2025-01-08 00:52:13.37	237.35	48.66	
2025-01-08 00:52:13.58	237.29	48.60	
2025-01-08 00:52:13.78	237.22	48.55	
2025-01-08 00:52:14.00	237.15	48.48	
2025-01-08 00:52:14.21	237.08	48.43	
2025-01-08 00:52:14.41	237.02	48.37	
2025-01-08 00:52:14.62	236.95	48.31	
2025-01-08 00:52:14.83	236.89	48.25	
2025-01-08 00:52:15.03	236.83	48.20	
2025-01-08 00:52:15.23	236.76	48.14	
2025-01-08 00:52:15.44	236.70	48.08	
2025-01-08 00:52:15.65	236.63	48.03	
2025-01-08 00:52:15.85	236.57	47.97	
2025-01-08 00:52:16.06	236.50	47.91	
2025-01-08 00:52:16.26	236.44	47.86	
2025-01-08 00:52:16.47	236.38	47.80	
2025-01-08 00:52:16.67	236.32	47.74	
2025-01-08 00:52:16.88	236.25	47.69	
2025-01-08 00:52:17.08	236.19	47.63	
2025-01-08 00:52:17.29	236.13	47.57	
2025-01-08 00:52:17.49	236.07	47.52	
2025-01-08 00:52:17.70	236.01	47.46	
2025-01-08 00:52:17.90	235.95	47.41	
2025-01-08 00:52:18.11	235.88	47.35	
2025-01-08 00:52:18.31	235.83	47.29	
2025-01-08 00:52:18.52	235.76	47.24	
2025-01-08 00:52:18.73	235.70	47.18	
2025-01-08 00:52:18.93	235.64	47.12	
2025-01-08 00:52:19.14	235.58	47.07	
2025-01-08 00:52:19.34	235.52	47.01	
2025-01-08 00:52:19.55	235.46	46.95	
2025-01-08 00:52:19.75	235.40	46.90	
2025-01-08 00:52:19.96	235.34	46.84	
2025-01-08 00:52:20.16	235.29	46.79	
2025-01-08 00:52:20.38	235.22	46.73	
2025-01-08 00:52:20.58	235.17	46.67	
2025-01-08 00:52:20.79	235.11	46.62	
2025-01-08 00:52:20.99	235.05	46.56	
2025-01-08 00:52:21.20	234.99	46.50	
2025-01-08 00:52:21.40	234.93	46.45	
2025-01-08 00:52:21.61	234.88	46.39	
2025-01-08 00:52:21.81	234.82	46.34	
2025-01-08 00:52:22.02	234.76	46.28	
2025-01-08 00:52:22.22	234.71	46.23	
2025-01-08 00:52:22.43	234.65	46.17	
2025-01-08 00:52:22.63	234.59	46.12	
2025-01-08 00:52:22.84	234.54	46.06	
2025-01-08 00:52:23.06	234.48	46.00	
2025-01-08 00:52:23.26	234.42	45.95	
2025-01-08 00:52:23.47	234.36	45.89	
2025-01-08 00:52:23.67	234.31	45.84	
2025-01-08 00:52:23.88	234.25	45.78	
2025-01-08 00:52:24.09	234.20	45.72	
2025-01-08 00:52:24.29	234.14	45.67	
2025-01-08 00:52:24.50	234.09	45.61	
2025-01-08 00:52:24.70	234.04	45.56	
2025-01-08 00:52:24.90	233.98	45.51	
2025-01-08 00:52:25.11	233.93	45.45	
2025-01-08 00:52:25.32	233.87	45.39	
2025-01-08 00:52:25.52	233.82	45.34	
2025-01-08 00:52:25.72	233.77	45.29	
2025-01-08 00:52:25.93	233.71	45.23	
2025-01-08 00:52:26.14	233.66	45.18	
2025-01-08 00:52:26.34	233.61	45.12	
2025-01-08 00:52:26.55	233.55	45.07	
2025-01-08 00:52:26.76	233.50	45.01	
2025-01-08 00:52:26.96	233.45	44.96	
2025-01-08 00:52:27.17	233.39	44.90	
2025-01-08 00:52:27.37	233.34	44.85	
2025-01-08 00:52:27.58	233.29	44.79	
2025-01-08 00:52:27.78	233.24	44.74	
2025-01-08 00:52:28.00	233.19	44.68	
2025-01-08 00:52:28.21	233.13	44.63	
2025-01-08 00:52:28.41	233.08	44.57	
2025-01-08 00:52:28.61	233.03	44.52	
2025-01-08 00:52:28.82	232.98	44.47	
2025-01-08 00:52:29.02	232.93	44.41	
2025-01-08 00:52:29.23	232.88	44.36	
2025-01-08 00:52:29.43	232.83	44.31	
2025-01-08 00:52:29.64	232.78	44.25	
2025-01-08 00:52:29.84	232.73	44.20	
2025-01-08 00:52:30.05	232.68	44.14	
2025-01-08 00:52:30.25	232.63	44.09	
2025-01-08 00:52:30.46	232.58	44.04	
2025-01-08 00:52:30.66	232.53	43.98	
2025-01-08 00:52:30.87	232.48	43.93	
2025-01-08 00:52:31.07	232.44	43.88	
2025-01-08 00:52:31.28	232.39	43.82	
2025-01-08 00:52:31.48	232.34	43.77	
2025-01-08 00:52:31.69	232.29	43.72	
2025-01-08 00:52:31.90	232.24	43.66	
2025-01-08 00:52:32.10	232.19	43.61	
2025-01-08 00:52:32.30	232.15	43.56	
2025-01-08 00:52:32.51	232.10	43.50	
2025-01-08 00:52:32.71	232.05	43.45	
2025-01-08 00:52:32.92	232.00	43.40	
2025-01-08 00:52:33.12	231.96	43.34	
2025-01-08 00:52:33.33	231.91	43.29	
2025-01-08 00:52:33.53	231.86	43.24	
2025-01-08 00:52:33.74	231.81	43.19	
2025-01-08 00:52:33.95	231.77	43.13	
2025-01-08 00:52:34.15	231.72	43.08	
2025-01-08 00:52:34.35	231.68	43.03	
2025-01-08 00:52:34.56	231.63	42.97	
2025-01-08 00:52:34.76	231.58	42.92	
2025-01-08 00:52:34.97	231.54	42.87	
2025-01-08 00:52:35.17	231.49	42.82	
2025-01-08 00:52:35.38	231.45	42.76	
2025-01-08 00:52:35.58	231.40	42.71	
2025-01-08 00:52:35.79	231.35	42.66	
2025-01-08 00:52:36.00	231.31	42.61	
2025-01-08 00:52:36.20	231.26	42.56	
2025-01-08 00:52:36.41	231.22	42.50	
2025-01-08 00:52:36.61	231.17	42.45	
2025-01-08 00:52:36.82	231.13	42.40	
2025-01-08 00:52:37.03	231.08	42.35	
2025-01-08 00:52:37.23	231.04	42.29	
2025-01-08 00:52:37.44	231.00	42.24	
2025-01-08 00:52:37.64	230.95	42.19	
2025-01-08 00:52:37.85	230.91	42.14	
2025-01-08 00:52:38.05	230.87	42.09	
2025-01-08 00:52:38.26	230.82	42.03	
2025-01-08 00:52:38.46	230.78	41.98	
2025-01-08 00:52:38.67	230.73	41.93	
2025-01-08 00:52:38.87	230.69	41.88	
2025-01-08 00:52:39.08	230.65	41.83	
2025-01-08 00:52:39.28	230.61	41.78	
2025-01-08 00:52:39.49	230.56	41.73	
2025-01-08 00:52:39.71	230.52	41.67	
2025-01-08 00:52:39.91	230.48	41.62	
2025-01-08 00:52:40.12	230.43	41.57	
2025-01-08 00:52:40.32	230.39	41.52	
2025-01-08 00:52:40.53	230.35	41.47	
2025-01-08 00:52:40.73	230.31	41.42	
2025-01-08 00:52:40.94	230.26	41.36	
2025-01-08 00:52:41.14	230.22	41.31	
2025-01-08 00:52:41.35	230.18	41.26	
2025-01-08 00:52:41.56	230.14	41.21	
2025-01-08 00:52:41.76	230.10	41.16	
2025-01-08 00:52:41.97	230.06	41.11	
2025-01-08 00:52:42.17	230.02	41.06	
2025-01-08 00:52:42.38	229.97	41.01	
2025-01-08 00:52:42.58	229.94	40.96	
2025-01-08 00:52:42.79	229.89	40.91	
2025-01-08 00:52:42.99	229.85	40.86	
2025-01-08 00:52:43.20	229.81	40.81	
2025-01-08 00:52:43.41	229.77	40.76	
2025-01-08 00:52:43.61	229.73	40.71	
2025-01-08 00:52:43.82	229.69	40.65	
2025-01-08 00:52:44.02	229.65	40.61	
2025-01-08 00:52:44.23	229.61	40.55	
2025-01-08 00:52:44.43	229.57	40.51	
2025-01-08 00:52:44.64	229.53	40.45	
2025-01-08 00:52:44.84	229.50	40.41	
2025-01-08 00:52:45.05	229.46	40.35	
2025-01-08 00:52:45.25	229.42	40.31	
2025-01-08 00:52:45.46	229.38	40.26	
2025-01-08 00:52:45.66	229.34	40.21	
2025-01-08 00:52:45.87	229.30	40.16	
2025-01-08 00:52:46.07	229.26	40.11	
2025-01-08 00:52:46.28	229.22	40.06	
2025-01-08 00:52:46.48	229.19	40.01	
2025-01-08 00:52:46.69	229.15	39.96	
2025-01-08 00:52:46.90	229.11	39.91	
2025-01-08 00:52:47.10	229.07	39.86	
2025-01-08 00:52:47.31	229.03	39.81	
2025-01-08 00:52:47.51	228.99	39.76	
2025-01-08 00:52:47.72	228.96	39.71	
2025-01-08 00:52:47.92	228.92	39.66	
2025-01-08 00:52:48.13	228.88	39.61	
2025-01-08 00:52:48.33	228.84	39.56	
2025-01-08 00:52:48.54	228.81	39.51	
2025-01-08 00:52:48.75	228.77	39.46	
2025-01-08 00:52:48.95	228.73	39.42	
2025-01-08 00:52:49.15	228.70	39.37	
2025-01-08 00:52:49.36	228.66	39.32	
2025-01-08 00:52:49.56	228.62	39.27	
2025-01-08 00:52:49.77	228.59	39.22	
2025-01-08 00:52:49.97	228.55	39.17	
2025-01-08 00:52:50.18	228.51	39.12	
2025-01-08 00:52:50.38	228.48	39.08	
2025-01-08 00:52:50.59	228.44	39.03	
2025-01-08 00:52:50.79	228.41	38.98	
2025-01-08 00:52:51.00	228.37	38.93	
2025-01-08 00:52:51.20	228.33	38.88	
2025-01-08 00:52:51.41	228.30	38.84	
2025-01-08 00:52:51.61	228.26	38.79	
2025-01-08 00:52:51.82	228.23	38.74	
2025-01-08 00:52:52.02	228.19	38.69	
2025-01-08 00:52:52.23	228.16	38.64	
2025-01-08 00:52:52.45	228.12	38.59	
2025-01-08 00:52:52.65	228.08	38.55	
2025-01-08 00:52:52.86	228.05	38.50	
2025-01-08 00:52:53.06	228.01	38.45	
2025-01-08 00:52:53.27	227.98	38.40	
2025-01-08 00:52:53.47	227.95	38.35	
2025-01-08 00:52:53.68	227.91	38.31	
2025-01-08 00:52:53.88	227.88	38.26	
2025-01-08 00:52:54.09	227.84	38.21	
2025-01-08 00:52:54.30	227.81	38.16	
2025-01-08 00:52:54.50	227.77	38.12	
2025-01-08 00:52:54.70	227.74	38.07	
2025-01-08 00:52:54.91	227.71	38.02	
2025-01-08 00:52:55.12	227.67	37.97	
2025-01-08 00:52:55.32	227.64	37.93	
2025-01-08 00:52:55.53	227.60	37.88	
2025-01-08 00:52:55.73	227.57	37.83	
2025-01-08 00:52:55.94	227.54	37.79	
2025-01-08 00:52:56.14	227.50	37.74	
2025-01-08 00:52:56.35	227.47	37.69	
2025-01-08 00:52:56.55	227.44	37.65	
2025-01-08 00:52:56.75	227.41	37.60	
2025-01-08 00:52:56.96	227.37	37.55	
2025-01-08 00:52:57.17	227.34	37.50	
2025-01-08 00:52:57.37	227.31	37.46	
2025-01-08 00:52:57.58	227.27	37.41	
2025-01-08 00:52:57.78	227.24	37.37	
2025-01-08 00:52:57.99	227.21	37.32	
2025-01-08 00:52:58.19	227.18	37.27	
2025-01-08 00:52:58.40	227.14	37.23	
2025-01-08 00:52:58.61	227.11	37.18	
2025-01-08 00:52:58.82	227.08	37.13	
2025-01-08 00:52:59.03	227.05	37.08	
2025-01-08 00:52:59.23	227.01	37.04	
2025-01-08 00:52:59.44	226.98	36.99	
2025-01-08 00:52:59.64	226.95	36.95	
2025-01-08 00:52:59.85	226.92	36.90	
2025-01-08 00:53:00.05	226.89	36.86	
2025-01-08 00:53:00.25	226.86	36.81	
2025-01-08 00:53:00.46	226.83	36.76	
2025-01-08 00:53:00.67	226.79	36.72	
2025-01-08 00:53:00.87	226.76	36.67	
2025-01-08 00:53:01.08	226.73	36.63	
2025-01-08 00:53:01.28	226.70	36.58	
2025-01-08 00:53:01.48	226.67	36.54	
2025-01-08 00:53:01.69	226.64	36.49	
2025-01-08 00:53:01.89	226.61	36.45	
2025-01-08 00:53:02.10	226.58	36.40	
2025-01-08 00:53:02.30	226.55	36.36	
2025-01-08 00:53:02.51	226.52	36.31	
2025-01-08 00:53:02.72	226.49	36.26	
2025-01-08 00:53:02.92	226.46	36.22	
2025-01-08 00:53:03.13	226.43	36.17	
2025-01-08 00:53:03.33	226.40	36.13	
2025-01-08 00:53:03.54	226.37	36.08	
2025-01-08 00:53:03.74	226.34	36.04	
2025-01-08 00:53:03.95	226.31	35.99	
2025-01-08 00:53:04.15	226.28	35.95	
2025-01-08 00:53:04.36	226.25	35.90	
2025-01-08 00:53:04.56	226.22	35.86	
2025-01-08 00:53:04.77	226.19	35.81	
2025-01-08 00:53:04.98	226.16	35.77	
2025-01-08 00:53:05.18	226.13	35.73	
2025-01-08 00:53:05.38	226.10	35.68	
2025-01-08 00:53:05.59	226.07	35.64	
2025-01-08 00:53:05.79	226.04	35.59	
2025-01-08 00:53:06.00	226.01	35.55	
2025-01-08 00:53:06.21	225.98	35.50	
2025-01-08 00:53:06.41	225.95	35.46	
2025-01-08 00:53:06.62	225.92	35.41	
2025-01-08 00:53:06.82	225.90	35.37	
2025-01-08 00:53:07.03	225.87	35.33	
2025-01-08 00:53:07.23	225.84	35.28	
2025-01-08 00:53:07.45	225.81	35.24	
2025-01-08 00:53:07.66	225.78	35.19	
2025-01-08 00:53:07.86	225.75	35.15	
2025-01-08 00:53:08.07	225.72	35.10	
2025-01-08 00:53:08.27	225.70	35.06	
2025-01-08 00:53:08.49	225.67	35.01	
2025-01-08 00:53:08.69	225.64	34.97	
2025-01-08 00:53:08.90	225.61	34.93	
2025-01-08 00:53:09.10	225.58	34.88	
2025-01-08 00:53:09.31	225.55	34.84	
2025-01-08 00:53:09.51	225.53	34.80	
2025-01-08 00:53:09.72	225.50	34.75	
2025-01-08 00:53:09.92	225.47	34.71	
2025-01-08 00:53:10.13	225.44	34.67	
2025-01-08 00:53:10.34	225.42	34.62	
2025-01-08 00:53:10.54	225.39	34.58	
2025-01-08 00:53:10.74	225.36	34.54	
2025-01-08 00:53:10.95	225.33	34.49	
2025-01-08 00:53:11.16	225.31	34.45	
2025-01-08 00:53:11.36	225.28	34.41	
2025-01-08 00:53:11.57	225.25	34.36	
2025-01-08 00:53:11.77	225.23	34.32	
2025-01-08 00:53:11.98	225.20	34.28	
2025-01-08 00:53:12.18	225.17	34.24	
2025-01-08 00:53:12.39	225.15	34.19	
2025-01-08 00:53:12.59	225.12	34.15	
2025-01-08 00:53:12.81	225.09	34.11	
2025-01-08 00:53:13.01	225.07	34.06	
2025-01-08 00:53:13.22	225.04	34.02	
2025-01-08 00:53:13.43	225.01	33.98	
2025-01-08 00:53:13.63	224.99	33.94	
2025-01-08 00:53:13.85	224.96	33.89	
2025-01-08 00:53:14.06	224.93	33.85	
2025-01-08 00:53:14.26	224.91	33.81	
2025-01-08 00:53:14.47	224.88	33.76	
2025-01-08 00:53:14.67	224.85	33.72	
2025-01-08 00:53:14.89	224.83	33.68	
2025-01-08 00:53:15.09	224.80	33.64	
2025-01-08 00:53:15.30	224.78	33.59	
2025-01-08 00:53:15.50	224.75	33.55	
2025-01-08 00:53:15.72	224.72	33.51	
2025-01-08 00:53:15.93	224.70	33.46	
2025-01-08 00:53:16.13	224.67	33.42	
2025-01-08 00:53:16.34	224.65	33.38	
2025-01-08 00:53:16.55	224.62	33.34	
2025-01-08 00:53:16.75	224.60	33.30	
2025-01-08 00:53:16.96	224.57	33.25	
2025-01-08 00:53:17.16	224.55	33.21	
2025-01-08 00:53:17.37	224.52	33.17	
2025-01-08 00:53:17.57	224.50	33.13	
2025-01-08 00:53:17.78	224.47	33.09	
2025-01-08 00:53:17.98	224.45	33.05	
2025-01-08 00:53:18.19	224.42	33.01	
2025-01-08 00:53:18.39	224.40	32.97	
2025-01-08 00:53:18.60	224.37	32.92	
2025-01-08 00:53:18.80	224.35	32.88	
2025-01-08 00:53:19.00	224.32	32.84	
2025-01-08 00:53:19.21	224.30	32.80	
2025-01-08 00:53:19.41	224.27	32.76	
2025-01-08 00:53:19.62	224.25	32.72	
2025-01-08 00:53:19.82	224.23	32.68	
2025-01-08 00:53:20.03	224.20	32.64	
2025-01-08 00:53:20.25	224.18	32.59	
2025-01-08 00:53:20.45	224.15	32.55	
2025-01-08 00:53:20.66	224.13	32.51	
2025-01-08 00:53:20.86	224.10	32.47	
2025-01-08 00:53:21.07	224.08	32.43	
2025-01-08 00:53:21.27	224.06	32.39	
2025-01-08 00:53:21.48	224.03	32.35	
2025-01-08 00:53:21.68	224.01	32.31	
2025-01-08 00:53:21.89	223.98	32.27	
2025-01-08 00:53:22.09	223.96	32.23	
2025-01-08 00:53:22.30	223.94	32.19	
2025-01-08 00:53:22.50	223.91	32.15	
2025-01-08 00:53:22.71	223.89	32.11	
2025-01-08 00:53:22.91	223.87	32.07	
2025-01-08 00:53:23.12	223.84	32.03	
2025-01-08 00:53:23.33	223.82	31.99	
2025-01-08 00:53:23.53	223.80	31.95	
2025-01-08 00:53:23.74	223.77	31.91	
2025-01-08 00:53:23.94	223.75	31.87	
2025-01-08 00:53:24.15	223.73	31.83	
2025-01-08 00:53:24.35	223.71	31.79	
2025-01-08 00:53:24.56	223.68	31.75	
2025-01-08 00:53:24.76	223.66	31.71	
2025-01-08 00:53:24.97	223.64	31.67	
2025-01-08 00:53:25.18	223.61	31.63	
2025-01-08 00:53:25.38	223.59	31.59	
2025-01-08 00:53:25.59	223.57	31.55	
2025-01-08 00:53:25.79	223.55	31.51	
2025-01-08 00:53:26.00	223.52	31.47	
2025-01-08 00:53:26.20	223.50	31.43	
2025-01-08 00:53:26.41	223.48	31.39	
2025-01-08 00:53:26.61	223.46	31.35	
2025-01-08 00:53:26.82	223.43	31.31	
2025-01-08 00:53:27.03	223.41	31.27	
2025-01-08 00:53:27.23	223.39	31.24	
2025-01-08 00:53:27.44	223.37	31.20	
2025-01-08 00:53:27.64	223.35	31.16	
2025-01-08 00:53:27.85	223.32	31.12	
2025-01-08 00:53:28.05	223.30	31.08	
2025-01-08 00:53:28.26	223.28	31.04	
2025-01-08 00:53:28.46	223.26	31.00	
2025-01-08 00:53:28.67	223.24	30.96	
2025-01-08 00:53:28.87	223.21	30.92	
2025-01-08 00:53:29.07	223.19	30.89	
2025-01-08 00:53:29.28	223.17	30.85	
2025-01-08 00:53:29.49	223.15	30.81	
2025-01-08 00:53:29.69	223.13	30.77	
2025-01-08 00:53:29.89	223.11	30.73	
2025-01-08 00:53:30.10	223.09	30.69	
2025-01-08 00:53:30.30	223.06	30.66	
2025-01-08 00:53:30.51	223.04	30.62	
2025-01-08 00:53:30.72	223.02	30.58	
2025-01-08 00:53:30.92	223.00	30.54	
2025-01-08 00:53:31.13	222.98	30.50	
2025-01-08 00:53:31.33	222.96	30.46	
2025-01-08 00:53:31.54	222.94	30.42	
2025-01-08 00:53:31.74	222.92	30.39	
2025-01-08 00:53:31.95	222.89	30.35	
2025-01-08 00:53:32.16	222.87	30.31	
2025-01-08 00:53:32.37	222.85	30.27	
2025-01-08 00:53:32.57	222.83	30.23	
2025-01-08 00:53:32.78	222.81	30.19	
2025-01-08 00:53:32.98	222.79	30.16	
2025-01-08 00:53:33.19	222.77	30.12	
2025-01-08 00:53:33.39	222.75	30.08	
2025-01-08 00:53:33.60	222.73	30.04	
2025-01-08 00:53:33.80	222.71	30.01	
2025-01-08 00:53:34.01	222.69	29.97	
2025-01-08 00:53:34.21	222.67	29.93	
2025-01-08 00:53:34.42	222.65	29.89	
2025-01-08 00:53:34.63	222.63	29.86	
2025-01-08 00:53:34.83	222.61	29.82	
2025-01-08 00:53:35.04	222.59	29.78	
2025-01-08 00:53:35.26	222.56	29.74	
2025-01-08 00:53:35.46	222.54	29.70	
2025-01-08 00:53:35.67	222.52	29.67	
2025-01-08 00:53:35.88	222.50	29.63	
2025-01-08 00:53:36.08	222.48	29.59	
2025-01-08 00:53:36.28	222.46	29.56	
2025-01-08 00:53:36.49	222.44	29.52	
2025-01-08 00:53:36.70	222.42	29.48	
2025-01-08 00:53:36.90	222.40	29.44	
2025-01-08 00:53:37.11	222.38	29.41	
2025-01-08 00:53:37.31	222.37	29.37	
2025-01-08 00:53:37.52	222.35	29.33	
2025-01-08 00:53:37.72	222.33	29.30	
2025-01-08 00:53:37.93	222.31	29.26	
2025-01-08 00:53:38.13	222.29	29.22	
2025-01-08 00:53:38.33	222.27	29.19	
2025-01-08 00:53:38.54	222.25	29.15	
2025-01-08 00:53:38.74	222.23	29.11	
2025-01-08 00:53:38.95	222.21	29.08	
2025-01-08 00:53:39.16	222.19	29.04	
2025-01-08 00:53:39.36	222.17	29.00	
2025-01-08 00:53:39.56	222.15	28.97	
2025-01-08 00:53:39.77	222.13	28.93	
2025-01-08 00:53:39.97	222.11	28.90	
2025-01-08 00:53:40.18	222.09	28.86	
2025-01-08 00:53:40.39	222.08	28.82	
2025-01-08 00:53:40.59	222.06	28.79	
2025-01-08 00:53:40.79	222.04	28.75	
2025-01-08 00:53:41.00	222.02	28.71	
2025-01-08 00:53:41.21	222.00	28.68	
2025-01-08 00:53:41.41	221.98	28.64	
2025-01-08 00:53:41.62	221.96	28.61	
2025-01-08 00:53:41.82	221.94	28.57	
2025-01-08 00:53:42.03	221.93	28.53	
2025-01-08 00:53:42.23	221.91	28.50	
2025-01-08 00:53:42.44	221.89	28.46	
2025-01-08 00:53:42.66	221.87	28.42	
2025-01-08 00:53:42.86	221.85	28.39	
2025-01-08 00:53:43.07	221.83	28.35	
2025-01-08 00:53:43.27	221.81	28.32	
2025-01-08 00:53:43.48	221.79	28.28	
2025-01-08 00:53:43.68	221.78	28.25	
2025-01-08 00:53:43.89	221.76	28.21	
2025-01-08 00:53:44.09	221.74	28.18	
2025-01-08 00:53:44.30	221.72	28.14	
2025-01-08 00:53:44.51	221.70	28.10	
2025-01-08 00:53:44.71	221.69	28.07	
2025-01-08 00:53:44.92	221.67	28.03	
2025-01-08 00:53:45.12	221.65	28.00	
2025-01-08 00:53:45.33	221.63	27.96	
2025-01-08 00:53:45.53	221.61	27.93	
2025-01-08 00:53:45.75	221.59	27.89	
2025-01-08 00:53:45.95	221.58	27.86	
2025-01-08 00:53:46.16	221.56	27.82	
2025-01-08 00:53:46.36	221.54	27.79	
2025-01-08 00:53:46.57	221.52	27.75	
2025-01-08 00:53:46.77	221.51	27.72	
2025-01-08 00:53:46.99	221.49	27.68	
2025-01-08 00:53:47.20	221.47	27.64	
2025-01-08 00:53:47.40	221.45	27.61	
2025-01-08 00:53:47.61	221.43	27.57	
2025-01-08 00:53:47.81	221.42	27.54	
2025-01-08 00:53:48.02	221.40	27.50	
2025-01-08 00:53:48.22	221.38	27.47	
2025-01-08 00:53:48.43	221.36	27.43	
2025-01-08 00:53:48.64	221.35	27.40	
2025-01-08 00:53:48.84	221.33	27.37	
2025-01-08 00:53:49.05	221.31	27.33	
2025-01-08 00:53:49.25	221.30	27.30	
2025-01-08 00:53:49.46	221.28	27.26	
2025-01-08 00:53:49.66	221.26	27.23	
2025-01-08 00:53:49.87	221.24	27.19	
2025-01-08 00:53:50.07	221.23	27.16	
2025-01-08 00:53:50.28	221.21	27.12	
2025-01-08 00:53:50.48	221.19	27.09	
2025-01-08 00:53:50.69	221.18	27.06	
2025-01-08 00:53:50.90	221.16	27.02	
2025-01-08 00:53:51.10	221.14	26.99	
2025-01-08 00:53:51.31	221.12	26.95	
2025-01-08 00:53:51.51	221.11	26.92	
2025-01-08 00:53:51.72	221.09	26.89	
2025-01-08 00:53:51.92	221.07	26.85	
2025-01-08 00:53:52.13	221.06	26.82	
2025-01-08 00:53:52.33	221.04	26.78	
2025-01-08 00:53:52.54	221.02	26.75	
2025-01-08 00:53:52.75	221.01	26.72	
2025-01-08 00:53:52.95	220.99	26.68	
2025-01-08 00:53:53.16	220.97	26.65	
2025-01-08 00:53:53.36	220.96	26.62	
2025-01-08 00:53:53.56	220.94	26.58	
2025-01-08 00:53:53.77	220.93	26.55	
2025-01-08 00:53:53.98	220.91	26.51	
2025-01-08 00:53:54.18	220.89	26.48	
2025-01-08 00:53:54.39	220.88	26.45	
2025-01-08 00:53:54.59	220.86	26.41	
2025-01-08 00:53:54.81	220.84	26.38	
2025-01-08 00:53:55.02	220.83	26.34	
2025-01-08 00:53:55.22	220.81	26.31	
2025-01-08 00:53:55.42	220.79	26.28	
2025-01-08 00:53:55.63	220.78	26.25	
2025-01-08 00:53:55.83	220.76	26.21	
2025-01-08 00:53:56.04	220.75	26.18	
2025-01-08 00:53:56.25	220.73	26.15	
2025-01-08 00:53:56.45	220.71	26.11	
2025-01-08 00:53:56.66	220.70	26.08	
2025-01-08 00:53:56.86	220.68	26.05	
2025-01-08 00:53:57.06	220.67	26.02	
2025-01-08 00:53:57.27	220.65	25.98	
2025-01-08 00:53:57.48	220.63	25.95	
2025-01-08 00:53:57.69	220.62	25.91	
2025-01-08 00:53:57.90	220.60	25.88	
2025-01-08 00:53:58.11	220.59	25.85	
2025-01-08 00:53:58.31	220.57	25.82	
2025-01-08 00:53:58.52	220.56	25.78	
2025-01-08 00:53:58.72	220.54	25.75	
2025-01-08 00:53:58.93	220.52	25.72	
2025-01-08 00:53:59.13	220.51	25.69	
2025-01-08 00:53:59.34	220.49	25.65	
2025-01-08 00:53:59.55	220.48	25.62	
2025-01-08 00:53:59.75	220.46	25.59	
2025-01-08 00:53:59.95	220.45	25.56	
2025-01-08 00:54:00.16	220.43	25.52	
2025-01-08 00:54:00.36	220.42	25.49	
2025-01-08 00:54:00.57	220.40	25.46	
2025-01-08 00:54:00.77	220.39	25.43	
2025-01-08 00:54:00.98	220.37	25.39	
2025-01-08 00:54:01.18	220.36	25.36	
2025-01-08 00:54:01.39	220.34	25.33	
2025-01-08 00:54:01.60	220.33	25.30	
2025-01-08 00:54:01.80	220.31	25.27	
2025-01-08 00:54:02.01	220.30	25.23	
2025-01-08 00:54:02.21	220.28	25.20	
2025-01-08 00:54:02.42	220.27	25.17	
2025-01-08 00:54:02.63	220.25	25.14	
2025-01-08 00:54:02.83	220.24	25.10	
2025-01-08 00:54:03.03	220.22	25.07	
2025-01-08 00:54:03.24	220.21	25.04	
2025-01-08 00:54:03.45	220.19	25.01	
2025-01-08 00:54:03.65	220.18	24.98	
2025-01-08 00:54:03.86	220.16	24.94	
2025-01-08 00:54:04.06	220.15	24.91	
2025-01-08 00:54:04.27	220.13	24.88	
2025-01-08 00:54:04.47	220.12	24.85	
2025-01-08 00:54:04.68	220.10	24.82	
2025-01-08 00:54:04.88	220.09	24.79	
2025-01-08 00:54:05.09	220.07	24.76	
2025-01-08 00:54:05.29	220.06	24.72	
2025-01-08 00:54:05.50	220.04	24.69	
2025-01-08 00:54:05.71	220.03	24.66	
2025-01-08 00:54:05.91	220.01	24.63	
2025-01-08 00:54:06.11	220.00	24.60	
2025-01-08 00:54:06.32	219.99	24.57	
2025-01-08 00:54:06.53	219.97	24.54	
2025-01-08 00:54:06.73	219.96	24.50	
2025-01-08 00:54:06.94	219.94	24.47	
2025-01-08 00:54:07.14	219.93	24.44	
2025-01-08 00:54:07.35	219.91	24.41	
2025-01-08 00:54:07.55	219.90	24.38	
2025-01-08 00:54:07.76	219.89	24.35	
2025-01-08 00:54:07.96	219.87	24.32	
2025-01-08 00:54:08.17	219.86	24.29	
2025-01-08 00:54:08.37	219.84	24.26	
2025-01-08 00:54:08.58	219.83	24.22	
2025-01-08 00:54:08.78	219.82	24.19	
2025-01-08 00:54:08.99	219.80	24.16	
2025-01-08 00:54:09.19	219.79	24.13	
2025-01-08 00:54:09.40	219.77	24.10	
2025-01-08 00:54:09.60	219.76	24.07	
2025-01-08 00:54:09.81	219.75	24.04	
2025-01-08 00:54:10.02	219.73	24.01	
2025-01-08 00:54:10.22	219.72	23.98	
2025-01-08 00:54:10.42	219.70	23.95	
2025-01-08 00:54:10.63	219.69	23.92	
2025-01-08 00:54:10.84	219.68	23.89	
2025-01-08 00:54:11.04	219.66	23.86	
2025-01-08 00:54:11.24	219.65	23.83	
2025-01-08 00:54:11.45	219.64	23.80	
2025-01-08 00:54:11.65	219.62	23.77	
2025-01-08 00:54:11.86	219.61	23.74	
2025-01-08 00:54:12.06	219.59	23.71	
2025-01-08 00:54:12.27	219.58	23.67	
2025-01-08 00:54:12.47	219.57	23.65	
2025-01-08 00:54:12.68	219.55	23.61	
2025-01-08 00:54:12.88	219.54	23.59	
2025-01-08 00:54:13.09	219.53	23.55	
2025-01-08 00:54:13.30	219.51	23.52	
2025-01-08 00:54:13.50	219.50	23.49	
2025-01-08 00:54:13.71	219.49	23.46	
2025-01-08 00:54:13.91	219.47	23.43	
2025-01-08 00:54:14.12	219.46	23.40	
2025-01-08 00:54:14.32	219.45	23.37	
2025-01-08 00:54:14.53	219.43	23.34	
2025-01-08 00:54:14.73	219.42	23.31	
2025-01-08 00:54:14.94	219.41	23.28	
2025-01-08 00:54:15.14	219.39	23.25	
2025-01-08 00:54:15.35	219.38	23.22	
2025-01-08 00:54:15.55	219.37	23.20	
2025-01-08 00:54:15.76	219.35	23.16	
2025-01-08 00:54:15.96	219.34	23.14	
2025-01-08 00:54:16.17	219.33	23.11	
2025-01-08 00:54:16.37	219.32	23.08	
2025-01-08 00:54:16.58	219.30	23.05	
2025-01-08 00:54:16.78	219.29	23.02	
2025-01-08 00:54:16.99	219.28	22.99	
2025-01-08 00:54:17.19	219.26	22.96	
2025-01-08 00:54:17.40	219.25	22.93	
2025-01-08 00:54:17.61	219.24	22.90	
2025-01-08 00:54:17.81	219.22	22.87	
2025-01-08 00:54:18.01	219.21	22.84	
2025-01-08 00:54:18.22	219.20	22.81	
2025-01-08 00:54:18.43	219.19	22.78	
2025-01-08 00:54:18.63	219.17	22.75	
2025-01-08 00:54:18.84	219.16	22.72	
2025-01-08 00:54:19.04	219.15	22.69	
2025-01-08 00:54:19.25	219.13	22.66	
2025-01-08 00:54:19.45	219.12	22.64	
2025-01-08 00:54:19.66	219.11	22.61	
2025-01-08 00:54:19.87	219.10	22.58	
2025-01-08 00:54:20.08	219.08	22.55	
2025-01-08 00:54:20.29	219.07	22.52	
2025-01-08 00:54:20.50	219.06	22.49	
2025-01-08 00:54:20.70	219.05	22.46	
2025-01-08 00:54:20.91	219.03	22.43	
2025-01-08 00:54:21.11	219.02	22.40	
2025-01-08 00:54:21.32	219.01	22.37	
2025-01-08 00:54:21.53	219.00	22.34	
2025-01-08 00:54:21.73	218.98	22.31	
2025-01-08 00:54:21.94	218.97	22.28	
2025-01-08 00:54:22.14	218.96	22.26	
2025-01-08 00:54:22.35	218.95	22.23	
2025-01-08 00:54:22.55	218.93	22.20	
2025-01-08 00:54:22.76	218.92	22.17	
2025-01-08 00:54:22.96	218.91	22.14	
2025-01-08 00:54:23.17	218.90	22.11	
2025-01-08 00:54:23.37	218.89	22.08	
2025-01-08 00:54:23.58	218.87	22.06	
2025-01-08 00:54:23.78	218.86	22.03	
2025-01-08 00:54:23.99	218.85	22.00	
2025-01-08 00:54:24.19	218.84	21.97	
2025-01-08 00:54:24.40	218.82	21.94	
2025-01-08 00:54:24.60	218.81	21.91	
2025-01-08 00:54:24.81	218.80	21.88	
2025-01-08 00:54:25.01	218.79	21.86	
2025-01-08 00:54:25.22	218.78	21.83	
2025-01-08 00:54:25.42	218.76	21.80	
2025-01-08 00:54:25.63	218.75	21.77	
2025-01-08 00:54:25.83	218.74	21.74	
2025-01-08 00:54:26.04	218.73	21.72	
2025-01-08 00:54:26.25	218.72	21.69	
2025-01-08 00:54:26.45	218.70	21.66	
2025-01-08 00:54:26.66	218.69	21.63	
2025-01-08 00:54:26.87	218.68	21.60	
2025-01-08 00:54:27.07	218.67	21.57	
2025-01-08 00:54:27.28	218.66	21.55	
2025-01-08 00:54:27.48	218.65	21.52	
2025-01-08 00:54:27.69	218.63	21.49	
2025-01-08 00:54:27.89	218.62	21.46	
2025-01-08 00:54:28.10	218.61	21.43	
2025-01-08 00:54:28.31	218.60	21.41	
2025-01-08 00:54:28.52	218.59	21.38	
2025-01-08 00:54:28.73	218.57	21.35	
2025-01-08 00:54:28.93	218.56	21.32	
2025-01-08 00:54:29.14	218.55	21.29	
2025-01-08 00:54:29.35	218.54	21.26	
2025-01-08 00:54:29.55	218.53	21.24	
2025-01-08 00:54:29.76	218.52	21.21	
2025-01-08 00:54:29.96	218.51	21.18	
2025-01-08 00:54:30.17	218.49	21.15	
2025-01-08 00:54:30.37	218.48	21.13	
2025-01-08 00:54:30.58	218.47	21.10	
2025-01-08 00:54:30.78	218.46	21.07	
2025-01-08 00:54:30.99	218.45	21.04	
2025-01-08 00:54:31.20	218.44	21.02	
2025-01-08 00:54:31.40	218.43	20.99	
2025-01-08 00:54:31.61	218.41	20.96	
2025-01-08 00:54:31.81	218.40	20.94	
2025-01-08 00:54:32.02	218.39	20.91	
2025-01-08 00:54:32.22	218.38	20.88	
2025-01-08 00:54:32.43	218.37	20.85	
2025-01-08 00:54:32.63	218.36	20.83	
2025-01-08 00:54:32.84	218.35	20.80	
2025-01-08 00:54:33.04	218.34	20.77	
2025-01-08 00:54:33.25	218.32	20.74	
2025-01-08 00:54:33.45	218.31	20.72	
2025-01-08 00:54:33.66	218.30	20.69	
2025-01-08 00:54:33.86	218.29	20.66	
2025-01-08 00:54:34.08	218.28	20.63	
2025-01-08 00:54:34.29	218.27	20.61	
2025-01-08 00:54:34.49	218.26	20.58	
2025-01-08 00:54:34.70	218.25	20.55	
2025-01-08 00:54:34.90	218.24	20.53	
2025-01-08 00:54:35.11	218.22	20.50	
2025-01-08 00:54:35.31	218.21	20.47	
2025-01-08 00:54:35.52	218.20	20.45	
2025-01-08 00:54:35.73	218.19	20.42	
2025-01-08 00:54:35.93	218.18	20.39	
2025-01-08 00:54:36.13	218.17	20.37	
2025-01-08 00:54:36.34	218.16	20.34	
2025-01-08 00:54:36.55	218.15	20.31	
2025-01-08 00:54:36.75	218.14	20.29	
2025-01-08 00:54:36.96	218.13	20.26	
2025-01-08 00:54:37.16	218.12	20.23	
2025-01-08 00:54:37.37	218.10	20.20	
2025-01-08 00:54:37.57	218.09	20.18	
2025-01-08 00:54:37.78	218.08	20.15	
2025-01-08 00:54:37.98	218.07	20.13	
2025-01-08 00:54:38.19	218.06	20.10	
2025-01-08 00:54:38.39	218.05	20.07	
2025-01-08 00:54:38.60	218.04	20.05	
2025-01-08 00:54:38.80	218.03	20.02	
2025-01-08 00:54:39.01	218.02	19.99	
2025-01-08 00:54:39.21	218.01	19.97	
2025-01-08 00:54:39.42	218.00	19.94	
2025-01-08 00:54:39.62	217.99	19.91	
2025-01-08 00:54:39.83	217.98	19.89	
2025-01-08 00:54:40.03	217.97	19.86	
2025-01-08 00:54:40.24	217.96	19.84	
2025-01-08 00:54:40.44	217.95	19.81	
2025-01-08 00:54:40.65	217.94	19.78	
2025-01-08 00:54:40.86	217.92	19.76	
2025-01-08 00:54:41.06	217.91	19.73	
2025-01-08 00:54:41.27	217.90	19.70	
2025-01-08 00:54:41.47	217.89	19.68	
2025-01-08 00:54:41.68	217.88	19.65	
2025-01-08 00:54:41.88	217.87	19.63	
2025-01-08 00:54:42.09	217.86	19.60	
2025-01-08 00:54:42.30	217.85	19.57	
2025-01-08 00:54:42.50	217.84	19.55	
2025-01-08 00:54:42.71	217.83	19.52	
2025-01-08 00:54:42.91	217.82	19.50	
2025-01-08 00:54:43.12	217.81	19.47	
2025-01-08 00:54:43.32	217.80	19.44	
