passes_logs/2025/01/08/SPB_Silybum_02/SPB_Silybum_02__20250108_101420_AQUA_rec.log

#Pass ID: 20250108_101420_AQUA
#Satellite: AQUA
#Configuration: AQUA
#Start time: 2025-01-08 10:14:19

#Version: 2.0.20230423
#Station: SPB_Silybum_02
#Location: 30.233357 lon 59.946436 lat
#TLE: 1 27424U 02022A   25007.87424311  .00002334  00000+0  48938-3 0  9995
#TLE: 2 27424  98.3576 324.4746 0001447 118.7932 262.7333 14.60655264206582

#Time	Az	El	Level	Level2	SNR	BER	Gain	Gain2
2025-01-08 10:14:21.45	125.59	4.07	
2025-01-08 10:14:21.66	125.58	4.08	
2025-01-08 10:14:21.86	125.57	4.10	
2025-01-08 10:14:22.07	125.56	4.11	
2025-01-08 10:14:22.28	125.55	4.13	
2025-01-08 10:14:22.48	125.53	4.14	
2025-01-08 10:14:22.69	125.52	4.15	
2025-01-08 10:14:22.89	125.51	4.17	
2025-01-08 10:14:23.10	125.50	4.18	
2025-01-08 10:14:23.30	125.49	4.20	
2025-01-08 10:14:23.51	125.48	4.21	
2025-01-08 10:14:23.71	125.46	4.22	
2025-01-08 10:14:23.92	125.45	4.24	
2025-01-08 10:14:24.13	125.44	4.25	
2025-01-08 10:14:24.33	125.43	4.27	
2025-01-08 10:14:24.54	125.42	4.28	
2025-01-08 10:14:24.74	125.40	4.29	
2025-01-08 10:14:24.95	125.39	4.31	
2025-01-08 10:14:25.15	125.38	4.32	
2025-01-08 10:14:25.36	125.37	4.34	
2025-01-08 10:14:25.56	125.36	4.35	
2025-01-08 10:14:25.77	125.34	4.36	
2025-01-08 10:14:25.97	125.33	4.38	
2025-01-08 10:14:26.18	125.32	4.39	
2025-01-08 10:14:26.38	125.31	4.41	
2025-01-08 10:14:26.59	125.30	4.42	
2025-01-08 10:14:26.79	125.29	4.43	
2025-01-08 10:14:27.00	125.27	4.45	
2025-01-08 10:14:27.20	125.26	4.46	
2025-01-08 10:14:27.41	125.25	4.48	
2025-01-08 10:14:27.61	125.24	4.49	
2025-01-08 10:14:27.82	125.22	4.50	
2025-01-08 10:14:28.02	125.21	4.52	
2025-01-08 10:14:28.23	125.20	4.53	
2025-01-08 10:14:28.43	125.19	4.55	
2025-01-08 10:14:28.64	125.18	4.56	
2025-01-08 10:14:28.84	125.16	4.58	
2025-01-08 10:14:29.05	125.15	4.59	
2025-01-08 10:14:29.25	125.14	4.60	
2025-01-08 10:14:29.46	125.13	4.62	
2025-01-08 10:14:29.66	125.12	4.63	
2025-01-08 10:14:29.87	125.10	4.65	
2025-01-08 10:14:30.07	125.09	4.66	
2025-01-08 10:14:30.28	125.08	4.67	
2025-01-08 10:14:30.48	125.07	4.69	
2025-01-08 10:14:30.69	125.05	4.70	
2025-01-08 10:14:30.89	125.04	4.72	
2025-01-08 10:14:31.10	125.03	4.73	
2025-01-08 10:14:31.30	125.02	4.75	
2025-01-08 10:14:31.51	125.01	4.76	
2025-01-08 10:14:31.71	124.99	4.77	
2025-01-08 10:14:31.92	124.98	4.79	
2025-01-08 10:14:32.14	124.97	4.80	
2025-01-08 10:14:32.34	124.96	4.82	
2025-01-08 10:14:32.55	124.94	4.83	
2025-01-08 10:14:32.75	124.93	4.85	
2025-01-08 10:14:32.96	124.92	4.86	
2025-01-08 10:14:33.16	124.91	4.88	
2025-01-08 10:14:33.37	124.89	4.89	
2025-01-08 10:14:33.57	124.88	4.90	
2025-01-08 10:14:33.78	124.87	4.92	
2025-01-08 10:14:33.99	124.86	4.93	
2025-01-08 10:14:34.19	124.84	4.95	
2025-01-08 10:14:34.39	124.83	4.96	
2025-01-08 10:14:34.60	124.82	4.98	
2025-01-08 10:14:34.81	124.81	4.99	
2025-01-08 10:14:35.01	124.79	5.00	
2025-01-08 10:14:35.22	124.78	5.02	
2025-01-08 10:14:35.42	124.77	5.03	
2025-01-08 10:14:35.63	124.76	5.05	
2025-01-08 10:14:35.83	124.74	5.06	
2025-01-08 10:14:36.04	124.73	5.08	
2025-01-08 10:14:36.24	124.72	5.09	
2025-01-08 10:14:36.45	124.71	5.11	
2025-01-08 10:14:36.65	124.69	5.12	
2025-01-08 10:14:36.86	124.68	5.13	
2025-01-08 10:14:37.07	124.67	5.15	
2025-01-08 10:14:37.27	124.66	5.16	
2025-01-08 10:14:37.49	124.64	5.18	
2025-01-08 10:14:37.70	124.63	5.19	
2025-01-08 10:14:37.90	124.62	5.21	
2025-01-08 10:14:38.11	124.60	5.22	
2025-01-08 10:14:38.31	124.59	5.24	
2025-01-08 10:14:38.51	124.58	5.25	
2025-01-08 10:14:38.72	124.57	5.27	
2025-01-08 10:14:38.93	124.55	5.28	
2025-01-08 10:14:39.13	124.54	5.30	
2025-01-08 10:14:39.34	124.53	5.31	
2025-01-08 10:14:39.54	124.51	5.32	
2025-01-08 10:14:39.75	124.50	5.34	
2025-01-08 10:14:39.95	124.49	5.35	
2025-01-08 10:14:40.16	124.48	5.37	
2025-01-08 10:14:40.37	124.46	5.38	
2025-01-08 10:14:40.57	124.45	5.40	
2025-01-08 10:14:40.78	124.44	5.41	
2025-01-08 10:14:40.98	124.42	5.43	
2025-01-08 10:14:41.19	124.41	5.44	
2025-01-08 10:14:41.40	124.40	5.46	
2025-01-08 10:14:41.60	124.38	5.47	
2025-01-08 10:14:41.81	124.37	5.49	
2025-01-08 10:14:42.01	124.36	5.50	
2025-01-08 10:14:42.22	124.35	5.52	
2025-01-08 10:14:42.42	124.33	5.53	
2025-01-08 10:14:42.63	124.32	5.54	
2025-01-08 10:14:42.85	124.31	5.56	
2025-01-08 10:14:43.05	124.29	5.57	
2025-01-08 10:14:43.26	124.28	5.59	
2025-01-08 10:14:43.46	124.27	5.60	
2025-01-08 10:14:43.67	124.25	5.62	
2025-01-08 10:14:43.87	124.24	5.63	
2025-01-08 10:14:44.08	124.23	5.65	
2025-01-08 10:14:44.28	124.21	5.66	
2025-01-08 10:14:44.49	124.20	5.68	
2025-01-08 10:14:44.69	124.19	5.69	
2025-01-08 10:14:44.90	124.17	5.71	
2025-01-08 10:14:45.10	124.16	5.72	
2025-01-08 10:14:45.31	124.15	5.74	
2025-01-08 10:14:45.51	124.13	5.75	
2025-01-08 10:14:45.72	124.12	5.77	
2025-01-08 10:14:45.92	124.11	5.78	
2025-01-08 10:14:46.13	124.09	5.80	
2025-01-08 10:14:46.33	124.08	5.81	
2025-01-08 10:14:46.54	124.07	5.83	
2025-01-08 10:14:46.74	124.05	5.84	
2025-01-08 10:14:46.95	124.04	5.86	
2025-01-08 10:14:47.15	124.03	5.87	
2025-01-08 10:14:47.36	124.01	5.89	
2025-01-08 10:14:47.56	124.00	5.90	
2025-01-08 10:14:47.77	123.99	5.91	
2025-01-08 10:14:47.97	123.97	5.93	
2025-01-08 10:14:48.18	123.96	5.94	
2025-01-08 10:14:48.38	123.95	5.96	
2025-01-08 10:14:48.59	123.93	5.97	
2025-01-08 10:14:48.79	123.92	5.99	
2025-01-08 10:14:49.00	123.91	6.00	
2025-01-08 10:14:49.20	123.89	6.02	
2025-01-08 10:14:49.41	123.88	6.03	
2025-01-08 10:14:49.61	123.87	6.05	
2025-01-08 10:14:49.82	123.85	6.06	
2025-01-08 10:14:50.02	123.84	6.08	
2025-01-08 10:14:50.23	123.82	6.09	
2025-01-08 10:14:50.43	123.81	6.11	
2025-01-08 10:14:50.64	123.80	6.12	
2025-01-08 10:14:50.84	123.78	6.14	
2025-01-08 10:14:51.05	123.77	6.15	
2025-01-08 10:14:51.25	123.76	6.17	
2025-01-08 10:14:51.46	123.74	6.18	
2025-01-08 10:14:51.66	123.73	6.20	
2025-01-08 10:14:51.87	123.72	6.21	
2025-01-08 10:14:52.07	123.70	6.23	
2025-01-08 10:14:52.28	123.69	6.24	
2025-01-08 10:14:52.48	123.67	6.26	
2025-01-08 10:14:52.69	123.66	6.27	
2025-01-08 10:14:52.89	123.65	6.29	
2025-01-08 10:14:53.10	123.63	6.30	
2025-01-08 10:14:53.30	123.62	6.32	
2025-01-08 10:14:53.51	123.60	6.33	
2025-01-08 10:14:53.71	123.59	6.35	
2025-01-08 10:14:53.92	123.58	6.36	
2025-01-08 10:14:54.12	123.56	6.38	
2025-01-08 10:14:54.33	123.55	6.39	
2025-01-08 10:14:54.53	123.54	6.41	
2025-01-08 10:14:54.74	123.52	6.42	
2025-01-08 10:14:54.95	123.51	6.44	
2025-01-08 10:14:55.15	123.49	6.46	
2025-01-08 10:14:55.36	123.48	6.47	
2025-01-08 10:14:55.56	123.47	6.49	
2025-01-08 10:14:55.77	123.45	6.50	
2025-01-08 10:14:55.97	123.44	6.52	
2025-01-08 10:14:56.18	123.42	6.53	
2025-01-08 10:14:56.38	123.41	6.55	
2025-01-08 10:14:56.59	123.39	6.56	
2025-01-08 10:14:56.79	123.38	6.58	
2025-01-08 10:14:57.00	123.37	6.59	
2025-01-08 10:14:57.21	123.35	6.61	
2025-01-08 10:14:57.41	123.34	6.62	
2025-01-08 10:14:57.62	123.32	6.64	
2025-01-08 10:14:57.82	123.31	6.65	
2025-01-08 10:14:58.03	123.29	6.67	
2025-01-08 10:14:58.24	123.28	6.68	
2025-01-08 10:14:58.44	123.27	6.70	
2025-01-08 10:14:58.65	123.25	6.71	
2025-01-08 10:14:58.85	123.24	6.73	
2025-01-08 10:14:59.06	123.22	6.75	
2025-01-08 10:14:59.27	123.21	6.76	
2025-01-08 10:14:59.47	123.19	6.78	
2025-01-08 10:14:59.68	123.18	6.79	
2025-01-08 10:14:59.88	123.17	6.81	
2025-01-08 10:15:00.09	123.15	6.82	
2025-01-08 10:15:00.29	123.14	6.84	
2025-01-08 10:15:00.50	123.12	6.85	
2025-01-08 10:15:00.70	123.11	6.87	
2025-01-08 10:15:00.91	123.09	6.88	
2025-01-08 10:15:01.11	123.08	6.90	
2025-01-08 10:15:01.32	123.06	6.91	
2025-01-08 10:15:01.53	123.05	6.93	
2025-01-08 10:15:01.73	123.03	6.95	
2025-01-08 10:15:01.94	123.02	6.96	
2025-01-08 10:15:02.14	123.01	6.98	
2025-01-08 10:15:02.35	122.99	6.99	
2025-01-08 10:15:02.55	122.98	7.01	
2025-01-08 10:15:02.76	122.96	7.02	
2025-01-08 10:15:02.96	122.95	7.04	
2025-01-08 10:15:03.17	122.93	7.05	
2025-01-08 10:15:03.37	122.92	7.07	
2025-01-08 10:15:03.58	122.90	7.09	
2025-01-08 10:15:03.79	122.89	7.10	
2025-01-08 10:15:03.99	122.87	7.12	
2025-01-08 10:15:04.21	122.86	7.13	
2025-01-08 10:15:04.41	122.84	7.15	
2025-01-08 10:15:04.62	122.83	7.16	
2025-01-08 10:15:04.82	122.81	7.18	
2025-01-08 10:15:05.03	122.80	7.20	
2025-01-08 10:15:05.23	122.78	7.21	
2025-01-08 10:15:05.44	122.77	7.23	
2025-01-08 10:15:05.65	122.75	7.24	
2025-01-08 10:15:05.85	122.74	7.26	
2025-01-08 10:15:06.06	122.72	7.27	
2025-01-08 10:15:06.26	122.71	7.29	
2025-01-08 10:15:06.47	122.69	7.30	
2025-01-08 10:15:06.68	122.68	7.32	
2025-01-08 10:15:06.88	122.66	7.34	
2025-01-08 10:15:07.09	122.65	7.35	
2025-01-08 10:15:07.29	122.63	7.37	
2025-01-08 10:15:07.50	122.62	7.38	
2025-01-08 10:15:07.70	122.60	7.40	
2025-01-08 10:15:07.91	122.59	7.41	
2025-01-08 10:15:08.11	122.57	7.43	
2025-01-08 10:15:08.32	122.56	7.45	
2025-01-08 10:15:08.52	122.54	7.46	
2025-01-08 10:15:08.73	122.53	7.48	
2025-01-08 10:15:08.93	122.51	7.49	
2025-01-08 10:15:09.14	122.50	7.51	
2025-01-08 10:15:09.34	122.48	7.52	
2025-01-08 10:15:09.55	122.47	7.54	
2025-01-08 10:15:09.75	122.45	7.56	
2025-01-08 10:15:09.96	122.44	7.57	
2025-01-08 10:15:10.16	122.42	7.59	
2025-01-08 10:15:10.37	122.41	7.60	
2025-01-08 10:15:10.57	122.39	7.62	
2025-01-08 10:15:10.78	122.38	7.64	
2025-01-08 10:15:10.98	122.36	7.65	
2025-01-08 10:15:11.19	122.34	7.67	
2025-01-08 10:15:11.39	122.33	7.68	
2025-01-08 10:15:11.60	122.31	7.70	
2025-01-08 10:15:11.80	122.30	7.71	
2025-01-08 10:15:12.01	122.28	7.73	
2025-01-08 10:15:12.21	122.27	7.75	
2025-01-08 10:15:12.42	122.25	7.76	
2025-01-08 10:15:12.62	122.24	7.78	
2025-01-08 10:15:12.83	122.22	7.79	
2025-01-08 10:15:13.03	122.21	7.81	
2025-01-08 10:15:13.24	122.19	7.83	
2025-01-08 10:15:13.44	122.17	7.84	
2025-01-08 10:15:13.65	122.16	7.86	
2025-01-08 10:15:13.87	122.14	7.87	
2025-01-08 10:15:14.07	122.13	7.89	
2025-01-08 10:15:14.28	122.11	7.91	
2025-01-08 10:15:14.49	122.09	7.92	
2025-01-08 10:15:14.69	122.08	7.94	
2025-01-08 10:15:14.89	122.06	7.95	
2025-01-08 10:15:15.10	122.05	7.97	
2025-01-08 10:15:15.30	122.03	7.99	
2025-01-08 10:15:15.51	122.02	8.00	
2025-01-08 10:15:15.72	122.00	8.02	
2025-01-08 10:15:15.92	121.98	8.03	
2025-01-08 10:15:16.13	121.97	8.05	
2025-01-08 10:15:16.33	121.95	8.07	
2025-01-08 10:15:16.54	121.94	8.08	
2025-01-08 10:15:16.74	121.92	8.10	
2025-01-08 10:15:16.95	121.90	8.12	
2025-01-08 10:15:17.15	121.89	8.13	
2025-01-08 10:15:17.36	121.87	8.15	
2025-01-08 10:15:17.56	121.86	8.16	
2025-01-08 10:15:17.77	121.84	8.18	
2025-01-08 10:15:17.97	121.83	8.20	
2025-01-08 10:15:18.19	121.81	8.21	
2025-01-08 10:15:18.40	121.79	8.23	
2025-01-08 10:15:18.60	121.78	8.25	
2025-01-08 10:15:18.81	121.76	8.26	
2025-01-08 10:15:19.02	121.74	8.28	
2025-01-08 10:15:19.22	121.73	8.29	
2025-01-08 10:15:19.43	121.71	8.31	
2025-01-08 10:15:19.63	121.69	8.33	
2025-01-08 10:15:19.84	121.68	8.34	
2025-01-08 10:15:20.04	121.66	8.36	
2025-01-08 10:15:20.25	121.65	8.38	
2025-01-08 10:15:20.45	121.63	8.39	
2025-01-08 10:15:20.66	121.61	8.41	
2025-01-08 10:15:20.86	121.60	8.42	
2025-01-08 10:15:21.07	121.58	8.44	
2025-01-08 10:15:21.27	121.56	8.46	
2025-01-08 10:15:21.48	121.55	8.47	
2025-01-08 10:15:21.68	121.53	8.49	
2025-01-08 10:15:21.88	121.52	8.51	
2025-01-08 10:15:22.09	121.50	8.52	
2025-01-08 10:15:22.29	121.48	8.54	
2025-01-08 10:15:22.50	121.47	8.55	
2025-01-08 10:15:22.71	121.45	8.57	
2025-01-08 10:15:22.91	121.43	8.59	
2025-01-08 10:15:23.12	121.42	8.60	
2025-01-08 10:15:23.32	121.40	8.62	
2025-01-08 10:15:23.53	121.38	8.64	
2025-01-08 10:15:23.73	121.37	8.65	
2025-01-08 10:15:23.94	121.35	8.67	
2025-01-08 10:15:24.15	121.33	8.69	
2025-01-08 10:15:24.35	121.32	8.70	
2025-01-08 10:15:24.57	121.30	8.72	
2025-01-08 10:15:24.78	121.28	8.74	
2025-01-08 10:15:24.99	121.26	8.75	
2025-01-08 10:15:25.19	121.25	8.77	
2025-01-08 10:15:25.40	121.23	8.79	
2025-01-08 10:15:25.60	121.21	8.80	
2025-01-08 10:15:25.81	121.20	8.82	
2025-01-08 10:15:26.01	121.18	8.84	
2025-01-08 10:15:26.22	121.16	8.85	
2025-01-08 10:15:26.42	121.15	8.87	
2025-01-08 10:15:26.63	121.13	8.89	
2025-01-08 10:15:26.83	121.11	8.90	
2025-01-08 10:15:27.04	121.10	8.92	
2025-01-08 10:15:27.24	121.08	8.94	
2025-01-08 10:15:27.45	121.06	8.95	
2025-01-08 10:15:27.66	121.05	8.97	
2025-01-08 10:15:27.86	121.03	8.99	
2025-01-08 10:15:28.07	121.01	9.00	
2025-01-08 10:15:28.27	120.99	9.02	
2025-01-08 10:15:28.48	120.98	9.04	
2025-01-08 10:15:28.68	120.96	9.05	
2025-01-08 10:15:28.89	120.94	9.07	
2025-01-08 10:15:29.09	120.93	9.09	
2025-01-08 10:15:29.30	120.91	9.10	
2025-01-08 10:15:29.51	120.89	9.12	
2025-01-08 10:15:29.71	120.87	9.14	
2025-01-08 10:15:29.91	120.86	9.15	
2025-01-08 10:15:30.12	120.84	9.17	
2025-01-08 10:15:30.33	120.82	9.19	
2025-01-08 10:15:30.53	120.81	9.20	
2025-01-08 10:15:30.74	120.79	9.22	
2025-01-08 10:15:30.94	120.77	9.24	
2025-01-08 10:15:31.15	120.75	9.25	
2025-01-08 10:15:31.35	120.74	9.27	
2025-01-08 10:15:31.56	120.72	9.29	
2025-01-08 10:15:31.76	120.70	9.30	
2025-01-08 10:15:31.97	120.68	9.32	
2025-01-08 10:15:32.17	120.67	9.34	
2025-01-08 10:15:32.38	120.65	9.35	
2025-01-08 10:15:32.59	120.63	9.37	
2025-01-08 10:15:32.79	120.61	9.39	
2025-01-08 10:15:33.01	120.59	9.41	
2025-01-08 10:15:33.21	120.58	9.42	
2025-01-08 10:15:33.42	120.56	9.44	
2025-01-08 10:15:33.62	120.54	9.46	
2025-01-08 10:15:33.83	120.52	9.47	
2025-01-08 10:15:34.03	120.51	9.49	
2025-01-08 10:15:34.24	120.49	9.51	
2025-01-08 10:15:34.45	120.47	9.52	
2025-01-08 10:15:34.65	120.45	9.54	
2025-01-08 10:15:34.86	120.43	9.56	
2025-01-08 10:15:35.07	120.42	9.58	
2025-01-08 10:15:35.27	120.40	9.59	
2025-01-08 10:15:35.48	120.38	9.61	
2025-01-08 10:15:35.68	120.36	9.63	
2025-01-08 10:15:35.89	120.35	9.64	
2025-01-08 10:15:36.09	120.33	9.66	
2025-01-08 10:15:36.30	120.31	9.68	
2025-01-08 10:15:36.50	120.29	9.69	
2025-01-08 10:15:36.72	120.27	9.71	
2025-01-08 10:15:36.92	120.25	9.73	
2025-01-08 10:15:37.13	120.24	9.75	
2025-01-08 10:15:37.33	120.22	9.76	
2025-01-08 10:15:37.54	120.20	9.78	
2025-01-08 10:15:37.74	120.18	9.80	
2025-01-08 10:15:37.95	120.16	9.82	
2025-01-08 10:15:38.16	120.15	9.83	
2025-01-08 10:15:38.36	120.13	9.85	
2025-01-08 10:15:38.57	120.11	9.87	
2025-01-08 10:15:38.77	120.09	9.88	
2025-01-08 10:15:38.98	120.07	9.90	
2025-01-08 10:15:39.18	120.05	9.92	
2025-01-08 10:15:39.39	120.04	9.94	
2025-01-08 10:15:39.59	120.02	9.95	
2025-01-08 10:15:39.80	120.00	9.97	
2025-01-08 10:15:40.01	119.98	9.99	
2025-01-08 10:15:40.21	119.96	10.00	
2025-01-08 10:15:40.42	119.94	10.02	
2025-01-08 10:15:40.62	119.93	10.04	
2025-01-08 10:15:40.83	119.91	10.06	
2025-01-08 10:15:41.03	119.89	10.07	
2025-01-08 10:15:41.24	119.87	10.09	
2025-01-08 10:15:41.44	119.85	10.11	
2025-01-08 10:15:41.66	119.83	10.13	
2025-01-08 10:15:41.87	119.81	10.14	
2025-01-08 10:15:42.07	119.79	10.16	
2025-01-08 10:15:42.28	119.78	10.18	
2025-01-08 10:15:42.49	119.76	10.20	
2025-01-08 10:15:42.70	119.74	10.21	
2025-01-08 10:15:42.91	119.72	10.23	
2025-01-08 10:15:43.12	119.70	10.25	
2025-01-08 10:15:43.32	119.68	10.27	
2025-01-08 10:15:43.53	119.66	10.29	
2025-01-08 10:15:43.75	119.64	10.30	
2025-01-08 10:15:43.95	119.62	10.32	
2025-01-08 10:15:44.16	119.60	10.34	
2025-01-08 10:15:44.36	119.59	10.36	
2025-01-08 10:15:44.56	119.57	10.37	
2025-01-08 10:15:44.77	119.55	10.39	
2025-01-08 10:15:44.97	119.53	10.41	
2025-01-08 10:15:45.18	119.51	10.43	
2025-01-08 10:15:45.39	119.49	10.44	
2025-01-08 10:15:45.59	119.47	10.46	
2025-01-08 10:15:45.80	119.45	10.48	
2025-01-08 10:15:46.00	119.43	10.50	
2025-01-08 10:15:46.21	119.41	10.51	
2025-01-08 10:15:46.41	119.40	10.53	
2025-01-08 10:15:46.62	119.38	10.55	
2025-01-08 10:15:46.82	119.36	10.57	
2025-01-08 10:15:47.03	119.34	10.58	
2025-01-08 10:15:47.23	119.32	10.60	
2025-01-08 10:15:47.44	119.30	10.62	
2025-01-08 10:15:47.64	119.28	10.64	
2025-01-08 10:15:47.85	119.26	10.65	
2025-01-08 10:15:48.05	119.24	10.67	
2025-01-08 10:15:48.26	119.22	10.69	
2025-01-08 10:15:48.46	119.20	10.71	
2025-01-08 10:15:48.67	119.18	10.73	
2025-01-08 10:15:48.87	119.16	10.74	
2025-01-08 10:15:49.08	119.14	10.76	
2025-01-08 10:15:49.28	119.12	10.78	
2025-01-08 10:15:49.49	119.10	10.80	
2025-01-08 10:15:49.69	119.09	10.81	
2025-01-08 10:15:49.91	119.06	10.83	
2025-01-08 10:15:50.11	119.05	10.85	
2025-01-08 10:15:50.32	119.03	10.87	
2025-01-08 10:15:50.52	119.01	10.88	
2025-01-08 10:15:50.73	118.99	10.90	
2025-01-08 10:15:50.94	118.97	10.92	
2025-01-08 10:15:51.14	118.95	10.94	
2025-01-08 10:15:51.34	118.93	10.96	
2025-01-08 10:15:51.55	118.91	10.97	
2025-01-08 10:15:51.76	118.89	10.99	
2025-01-08 10:15:51.96	118.87	11.01	
2025-01-08 10:15:52.17	118.85	11.03	
2025-01-08 10:15:52.37	118.83	11.05	
2025-01-08 10:15:52.58	118.81	11.06	
2025-01-08 10:15:52.78	118.79	11.08	
2025-01-08 10:15:52.99	118.77	11.10	
2025-01-08 10:15:53.19	118.75	11.12	
2025-01-08 10:15:53.40	118.73	11.14	
2025-01-08 10:15:53.60	118.71	11.15	
2025-01-08 10:15:53.81	118.69	11.17	
2025-01-08 10:15:54.02	118.67	11.19	
2025-01-08 10:15:54.22	118.65	11.21	
2025-01-08 10:15:54.44	118.63	11.23	
2025-01-08 10:15:54.64	118.61	11.24	
2025-01-08 10:15:54.85	118.59	11.26	
2025-01-08 10:15:55.05	118.57	11.28	
2025-01-08 10:15:55.26	118.54	11.30	
2025-01-08 10:15:55.46	118.53	11.32	
2025-01-08 10:15:55.67	118.50	11.34	
2025-01-08 10:15:55.88	118.48	11.35	
2025-01-08 10:15:56.08	118.46	11.37	
2025-01-08 10:15:56.29	118.44	11.39	
2025-01-08 10:15:56.49	118.42	11.41	
2025-01-08 10:15:56.70	118.40	11.43	
2025-01-08 10:15:56.90	118.38	11.44	
2025-01-08 10:15:57.11	118.36	11.46	
2025-01-08 10:15:57.31	118.34	11.48	
2025-01-08 10:15:57.52	118.32	11.50	
2025-01-08 10:15:57.72	118.30	11.52	
2025-01-08 10:15:57.93	118.28	11.53	
2025-01-08 10:15:58.13	118.26	11.55	
2025-01-08 10:15:58.34	118.24	11.57	
2025-01-08 10:15:58.55	118.22	11.59	
2025-01-08 10:15:58.75	118.20	11.61	
2025-01-08 10:15:58.95	118.18	11.63	
2025-01-08 10:15:59.16	118.15	11.64	
2025-01-08 10:15:59.37	118.13	11.66	
2025-01-08 10:15:59.57	118.11	11.68	
2025-01-08 10:15:59.78	118.09	11.70	
2025-01-08 10:15:59.98	118.07	11.72	
2025-01-08 10:16:00.19	118.05	11.74	
2025-01-08 10:16:00.39	118.03	11.75	
2025-01-08 10:16:00.60	118.01	11.77	
2025-01-08 10:16:00.80	117.99	11.79	
2025-01-08 10:16:01.01	117.97	11.81	
2025-01-08 10:16:01.21	117.94	11.83	
2025-01-08 10:16:01.42	117.92	11.85	
2025-01-08 10:16:01.62	117.90	11.86	
2025-01-08 10:16:01.83	117.88	11.88	
2025-01-08 10:16:02.03	117.86	11.90	
2025-01-08 10:16:02.24	117.84	11.92	
2025-01-08 10:16:02.44	117.82	11.94	
2025-01-08 10:16:02.65	117.80	11.96	
2025-01-08 10:16:02.86	117.77	11.98	
2025-01-08 10:16:03.06	117.75	11.99	
2025-01-08 10:16:03.27	117.73	12.01	
2025-01-08 10:16:03.47	117.71	12.03	
2025-01-08 10:16:03.68	117.69	12.05	
2025-01-08 10:16:03.88	117.67	12.07	
2025-01-08 10:16:04.09	117.65	12.09	
2025-01-08 10:16:04.29	117.62	12.10	
2025-01-08 10:16:04.50	117.60	12.12	
2025-01-08 10:16:04.71	117.58	12.14	
2025-01-08 10:16:04.91	117.56	12.16	
2025-01-08 10:16:05.13	117.54	12.18	
2025-01-08 10:16:05.33	117.51	12.20	
2025-01-08 10:16:05.54	117.49	12.22	
2025-01-08 10:16:05.74	117.47	12.24	
2025-01-08 10:16:05.95	117.45	12.25	
2025-01-08 10:16:06.17	117.43	12.27	
2025-01-08 10:16:06.37	117.40	12.29	
2025-01-08 10:16:06.58	117.38	12.31	
2025-01-08 10:16:06.78	117.36	12.33	
2025-01-08 10:16:06.99	117.34	12.35	
2025-01-08 10:16:07.19	117.32	12.37	
2025-01-08 10:16:07.40	117.29	12.39	
2025-01-08 10:16:07.61	117.27	12.41	
2025-01-08 10:16:07.81	117.25	12.42	
2025-01-08 10:16:08.01	117.23	12.44	
2025-01-08 10:16:08.22	117.21	12.46	
2025-01-08 10:16:08.42	117.18	12.48	
2025-01-08 10:16:08.63	117.16	12.50	
2025-01-08 10:16:08.84	117.14	12.52	
2025-01-08 10:16:09.04	117.12	12.54	
2025-01-08 10:16:09.25	117.09	12.56	
2025-01-08 10:16:09.45	117.07	12.57	
2025-01-08 10:16:09.66	117.05	12.59	
2025-01-08 10:16:09.87	117.03	12.61	
2025-01-08 10:16:10.07	117.01	12.63	
2025-01-08 10:16:10.28	116.98	12.65	
2025-01-08 10:16:10.48	116.96	12.67	
2025-01-08 10:16:10.68	116.94	12.69	
2025-01-08 10:16:10.89	116.92	12.71	
2025-01-08 10:16:11.09	116.89	12.73	
2025-01-08 10:16:11.30	116.87	12.75	
2025-01-08 10:16:11.50	116.85	12.76	
2025-01-08 10:16:11.71	116.82	12.78	
2025-01-08 10:16:11.93	116.80	12.80	
2025-01-08 10:16:12.13	116.78	12.82	
2025-01-08 10:16:12.34	116.76	12.84	
2025-01-08 10:16:12.54	116.73	12.86	
2025-01-08 10:16:12.75	116.71	12.88	
2025-01-08 10:16:12.95	116.69	12.90	
2025-01-08 10:16:13.16	116.66	12.92	
2025-01-08 10:16:13.37	116.64	12.94	
2025-01-08 10:16:13.57	116.62	12.96	
2025-01-08 10:16:13.78	116.59	12.98	
2025-01-08 10:16:13.98	116.57	12.99	
2025-01-08 10:16:14.19	116.55	13.01	
2025-01-08 10:16:14.39	116.53	13.03	
2025-01-08 10:16:14.59	116.50	13.05	
2025-01-08 10:16:14.80	116.48	13.07	
2025-01-08 10:16:15.01	116.46	13.09	
2025-01-08 10:16:15.21	116.43	13.11	
2025-01-08 10:16:15.42	116.41	13.13	
2025-01-08 10:16:15.62	116.39	13.15	
2025-01-08 10:16:15.83	116.36	13.17	
2025-01-08 10:16:16.03	116.34	13.19	
2025-01-08 10:16:16.24	116.32	13.21	
2025-01-08 10:16:16.45	116.29	13.23	
2025-01-08 10:16:16.65	116.27	13.24	
2025-01-08 10:16:16.86	116.25	13.26	
2025-01-08 10:16:17.06	116.22	13.28	
2025-01-08 10:16:17.27	116.20	13.30	
2025-01-08 10:16:17.47	116.18	13.32	
2025-01-08 10:16:17.68	116.15	13.34	
2025-01-08 10:16:17.88	116.13	13.36	
2025-01-08 10:16:18.09	116.10	13.38	
2025-01-08 10:16:18.29	116.08	13.40	
2025-01-08 10:16:18.50	116.06	13.42	
2025-01-08 10:16:18.70	116.03	13.44	
2025-01-08 10:16:18.91	116.01	13.46	
2025-01-08 10:16:19.11	115.99	13.48	
2025-01-08 10:16:19.32	115.96	13.50	
2025-01-08 10:16:19.52	115.94	13.52	
2025-01-08 10:16:19.73	115.91	13.54	
2025-01-08 10:16:19.93	115.89	13.55	
2025-01-08 10:16:20.14	115.87	13.57	
2025-01-08 10:16:20.34	115.84	13.59	
2025-01-08 10:16:20.55	115.82	13.61	
2025-01-08 10:16:20.75	115.79	13.63	
2025-01-08 10:16:20.96	115.77	13.65	
2025-01-08 10:16:21.18	115.74	13.67	
2025-01-08 10:16:21.38	115.72	13.69	
2025-01-08 10:16:21.59	115.69	13.71	
2025-01-08 10:16:21.80	115.67	13.73	
2025-01-08 10:16:22.00	115.65	13.75	
2025-01-08 10:16:22.21	115.62	13.77	
2025-01-08 10:16:22.41	115.60	13.79	
2025-01-08 10:16:22.62	115.57	13.81	
2025-01-08 10:16:22.82	115.55	13.83	
2025-01-08 10:16:23.03	115.52	13.85	
2025-01-08 10:16:23.23	115.50	13.87	
2025-01-08 10:16:23.44	115.47	13.89	
2025-01-08 10:16:23.64	115.45	13.91	
2025-01-08 10:16:23.85	115.43	13.93	
2025-01-08 10:16:24.05	115.40	13.95	
2025-01-08 10:16:24.26	115.38	13.97	
2025-01-08 10:16:24.46	115.35	13.99	
2025-01-08 10:16:24.67	115.33	14.01	
2025-01-08 10:16:24.88	115.30	14.03	
2025-01-08 10:16:25.08	115.28	14.05	
2025-01-08 10:16:25.29	115.25	14.07	
2025-01-08 10:16:25.49	115.23	14.09	
2025-01-08 10:16:25.70	115.20	14.11	
2025-01-08 10:16:25.90	115.18	14.13	
2025-01-08 10:16:26.11	115.15	14.15	
2025-01-08 10:16:26.31	115.13	14.17	
2025-01-08 10:16:26.52	115.10	14.19	
2025-01-08 10:16:26.73	115.08	14.21	
2025-01-08 10:16:26.93	115.05	14.23	
2025-01-08 10:16:27.14	115.03	14.25	
2025-01-08 10:16:27.34	115.00	14.27	
2025-01-08 10:16:27.55	114.97	14.29	
2025-01-08 10:16:27.75	114.95	14.31	
2025-01-08 10:16:27.96	114.92	14.33	
2025-01-08 10:16:28.16	114.90	14.35	
2025-01-08 10:16:28.37	114.87	14.37	
2025-01-08 10:16:28.57	114.85	14.39	
2025-01-08 10:16:28.78	114.82	14.41	
2025-01-08 10:16:28.98	114.80	14.43	
2025-01-08 10:16:29.19	114.77	14.45	
2025-01-08 10:16:29.40	114.74	14.47	
2025-01-08 10:16:29.60	114.72	14.49	
2025-01-08 10:16:29.81	114.69	14.51	
2025-01-08 10:16:30.01	114.67	14.53	
2025-01-08 10:16:30.22	114.64	14.55	
2025-01-08 10:16:30.43	114.62	14.57	
2025-01-08 10:16:30.63	114.59	14.59	
2025-01-08 10:16:30.84	114.56	14.61	
2025-01-08 10:16:31.04	114.54	14.63	
2025-01-08 10:16:31.25	114.51	14.65	
2025-01-08 10:16:31.45	114.49	14.67	
2025-01-08 10:16:31.66	114.46	14.69	
2025-01-08 10:16:31.86	114.43	14.71	
2025-01-08 10:16:32.07	114.41	14.73	
2025-01-08 10:16:32.28	114.38	14.75	
2025-01-08 10:16:32.48	114.36	14.77	
2025-01-08 10:16:32.69	114.33	14.79	
2025-01-08 10:16:32.91	114.30	14.81	
2025-01-08 10:16:33.11	114.27	14.83	
2025-01-08 10:16:33.32	114.25	14.85	
2025-01-08 10:16:33.52	114.22	14.87	
2025-01-08 10:16:33.73	114.19	14.89	
2025-01-08 10:16:33.93	114.17	14.91	
2025-01-08 10:16:34.14	114.14	14.93	
2025-01-08 10:16:34.34	114.12	14.95	
2025-01-08 10:16:34.55	114.09	14.97	
2025-01-08 10:16:34.76	114.06	15.00	
2025-01-08 10:16:34.96	114.04	15.02	
2025-01-08 10:16:35.16	114.01	15.04	
2025-01-08 10:16:35.37	113.98	15.06	
2025-01-08 10:16:35.58	113.95	15.08	
2025-01-08 10:16:35.78	113.93	15.10	
2025-01-08 10:16:35.98	113.90	15.12	
2025-01-08 10:16:36.19	113.87	15.14	
2025-01-08 10:16:36.40	113.85	15.16	
2025-01-08 10:16:36.60	113.82	15.18	
2025-01-08 10:16:36.81	113.79	15.20	
2025-01-08 10:16:37.01	113.77	15.22	
2025-01-08 10:16:37.22	113.74	15.24	
2025-01-08 10:16:37.42	113.71	15.26	
2025-01-08 10:16:37.63	113.68	15.28	
2025-01-08 10:16:37.83	113.66	15.30	
2025-01-08 10:16:38.04	113.63	15.32	
2025-01-08 10:16:38.24	113.60	15.34	
2025-01-08 10:16:38.45	113.58	15.36	
2025-01-08 10:16:38.65	113.55	15.38	
2025-01-08 10:16:38.86	113.52	15.41	
2025-01-08 10:16:39.07	113.49	15.43	
2025-01-08 10:16:39.27	113.47	15.45	
2025-01-08 10:16:39.47	113.44	15.47	
2025-01-08 10:16:39.68	113.41	15.49	
2025-01-08 10:16:39.89	113.38	15.51	
2025-01-08 10:16:40.09	113.35	15.53	
2025-01-08 10:16:40.30	113.33	15.55	
2025-01-08 10:16:40.51	113.30	15.57	
2025-01-08 10:16:40.71	113.27	15.59	
2025-01-08 10:16:40.91	113.24	15.61	
2025-01-08 10:16:41.12	113.22	15.63	
2025-01-08 10:16:41.33	113.19	15.66	
2025-01-08 10:16:41.53	113.16	15.68	
2025-01-08 10:16:41.74	113.13	15.70	
2025-01-08 10:16:41.94	113.10	15.72	
2025-01-08 10:16:42.15	113.07	15.74	
2025-01-08 10:16:42.35	113.05	15.76	
2025-01-08 10:16:42.55	113.02	15.78	
2025-01-08 10:16:42.76	112.99	15.80	
2025-01-08 10:16:42.97	112.96	15.82	
2025-01-08 10:16:43.17	112.93	15.84	
2025-01-08 10:16:43.38	112.91	15.86	
2025-01-08 10:16:43.58	112.88	15.88	
2025-01-08 10:16:43.79	112.85	15.91	
2025-01-08 10:16:43.99	112.82	15.93	
2025-01-08 10:16:44.20	112.79	15.95	
2025-01-08 10:16:44.40	112.76	15.97	
2025-01-08 10:16:44.61	112.73	15.99	
2025-01-08 10:16:44.81	112.71	16.01	
2025-01-08 10:16:45.02	112.68	16.03	
2025-01-08 10:16:45.22	112.65	16.05	
2025-01-08 10:16:45.43	112.62	16.07	
2025-01-08 10:16:45.63	112.59	16.09	
2025-01-08 10:16:45.84	112.56	16.12	
2025-01-08 10:16:46.04	112.53	16.14	
2025-01-08 10:16:46.25	112.50	16.16	
2025-01-08 10:16:46.45	112.48	16.18	
2025-01-08 10:16:46.66	112.45	16.20	
2025-01-08 10:16:46.86	112.42	16.22	
2025-01-08 10:16:47.07	112.39	16.24	
2025-01-08 10:16:47.27	112.36	16.26	
2025-01-08 10:16:47.48	112.33	16.28	
2025-01-08 10:16:47.68	112.30	16.31	
2025-01-08 10:16:47.89	112.27	16.33	
2025-01-08 10:16:48.09	112.24	16.35	
2025-01-08 10:16:48.29	112.21	16.37	
2025-01-08 10:16:48.50	112.18	16.39	
2025-01-08 10:16:48.71	112.15	16.41	
2025-01-08 10:16:48.92	112.12	16.43	
2025-01-08 10:16:49.13	112.09	16.46	
2025-01-08 10:16:49.33	112.06	16.48	
2025-01-08 10:16:49.54	112.03	16.50	
2025-01-08 10:16:49.75	112.00	16.52	
2025-01-08 10:16:49.95	111.97	16.54	
2025-01-08 10:16:50.16	111.94	16.56	
2025-01-08 10:16:50.36	111.91	16.58	
2025-01-08 10:16:50.57	111.88	16.61	
2025-01-08 10:16:50.77	111.85	16.63	
2025-01-08 10:16:50.98	111.82	16.65	
2025-01-08 10:16:51.18	111.79	16.67	
2025-01-08 10:16:51.39	111.76	16.69	
2025-01-08 10:16:51.59	111.73	16.71	
2025-01-08 10:16:51.80	111.70	16.73	
2025-01-08 10:16:52.00	111.67	16.75	
2025-01-08 10:16:52.22	111.64	16.78	
2025-01-08 10:16:52.43	111.61	16.80	
2025-01-08 10:16:52.63	111.58	16.82	
2025-01-08 10:16:52.84	111.55	16.84	
2025-01-08 10:16:53.04	111.52	16.86	
2025-01-08 10:16:53.25	111.49	16.89	
2025-01-08 10:16:53.45	111.46	16.91	
2025-01-08 10:16:53.66	111.43	16.93	
2025-01-08 10:16:53.87	111.40	16.95	
2025-01-08 10:16:54.07	111.37	16.97	
2025-01-08 10:16:54.27	111.34	16.99	
2025-01-08 10:16:54.48	111.30	17.02	
2025-01-08 10:16:54.69	111.27	17.04	
2025-01-08 10:16:54.89	111.24	17.06	
2025-01-08 10:16:55.10	111.21	17.08	
2025-01-08 10:16:55.30	111.18	17.10	
2025-01-08 10:16:55.51	111.15	17.12	
2025-01-08 10:16:55.71	111.12	17.15	
2025-01-08 10:16:55.92	111.09	17.17	
2025-01-08 10:16:56.13	111.05	17.19	
2025-01-08 10:16:56.33	111.02	17.21	
2025-01-08 10:16:56.54	110.99	17.23	
2025-01-08 10:16:56.74	110.96	17.25	
2025-01-08 10:16:56.95	110.93	17.28	
2025-01-08 10:16:57.15	110.90	17.30	
2025-01-08 10:16:57.36	110.87	17.32	
2025-01-08 10:16:57.56	110.84	17.34	
2025-01-08 10:16:57.77	110.80	17.36	
2025-01-08 10:16:57.97	110.77	17.39	
2025-01-08 10:16:58.18	110.74	17.41	
2025-01-08 10:16:58.39	110.71	17.43	
2025-01-08 10:16:58.59	110.68	17.45	
2025-01-08 10:16:58.80	110.64	17.47	
2025-01-08 10:16:59.00	110.61	17.50	
2025-01-08 10:16:59.21	110.58	17.52	
2025-01-08 10:16:59.41	110.55	17.54	
2025-01-08 10:16:59.62	110.52	17.56	
2025-01-08 10:16:59.82	110.48	17.58	
2025-01-08 10:17:00.03	110.45	17.61	
2025-01-08 10:17:00.23	110.42	17.63	
2025-01-08 10:17:00.44	110.39	17.65	
2025-01-08 10:17:00.64	110.36	17.67	
2025-01-08 10:17:00.85	110.32	17.69	
2025-01-08 10:17:01.05	110.29	17.71	
2025-01-08 10:17:01.26	110.26	17.74	
2025-01-08 10:17:01.46	110.23	17.76	
2025-01-08 10:17:01.67	110.19	17.78	
2025-01-08 10:17:01.87	110.16	17.80	
2025-01-08 10:17:02.08	110.13	17.83	
2025-01-08 10:17:02.29	110.09	17.85	
2025-01-08 10:17:02.49	110.06	17.87	
2025-01-08 10:17:02.70	110.03	17.89	
2025-01-08 10:17:02.90	110.00	17.91	
2025-01-08 10:17:03.11	109.96	17.94	
2025-01-08 10:17:03.31	109.93	17.96	
2025-01-08 10:17:03.52	109.90	17.98	
2025-01-08 10:17:03.72	109.86	18.00	
2025-01-08 10:17:03.94	109.83	18.03	
2025-01-08 10:17:04.15	109.80	18.05	
2025-01-08 10:17:04.35	109.76	18.07	
2025-01-08 10:17:04.56	109.73	18.09	
2025-01-08 10:17:04.77	109.69	18.12	
2025-01-08 10:17:04.97	109.66	18.14	
2025-01-08 10:17:05.17	109.63	18.16	
2025-01-08 10:17:05.38	109.60	18.18	
2025-01-08 10:17:05.59	109.56	18.21	
2025-01-08 10:17:05.79	109.53	18.23	
2025-01-08 10:17:06.00	109.49	18.25	
2025-01-08 10:17:06.20	109.46	18.27	
2025-01-08 10:17:06.41	109.43	18.30	
2025-01-08 10:17:06.61	109.39	18.32	
2025-01-08 10:17:06.82	109.36	18.34	
2025-01-08 10:17:07.02	109.33	18.36	
2025-01-08 10:17:07.23	109.29	18.38	
2025-01-08 10:17:07.43	109.26	18.41	
2025-01-08 10:17:07.64	109.22	18.43	
2025-01-08 10:17:07.84	109.19	18.45	
2025-01-08 10:17:08.05	109.15	18.47	
2025-01-08 10:17:08.25	109.12	18.50	
2025-01-08 10:17:08.46	109.09	18.52	
2025-01-08 10:17:08.66	109.05	18.54	
2025-01-08 10:17:08.87	109.02	18.56	
2025-01-08 10:17:09.08	108.98	18.59	
2025-01-08 10:17:09.29	108.95	18.61	
2025-01-08 10:17:09.50	108.91	18.63	
2025-01-08 10:17:09.71	108.88	18.66	
2025-01-08 10:17:09.91	108.84	18.68	
2025-01-08 10:17:10.12	108.81	18.70	
2025-01-08 10:17:10.32	108.77	18.72	
2025-01-08 10:17:10.52	108.74	18.75	
2025-01-08 10:17:10.73	108.70	18.77	
2025-01-08 10:17:10.93	108.67	18.79	
2025-01-08 10:17:11.14	108.63	18.81	
2025-01-08 10:17:11.34	108.60	18.84	
2025-01-08 10:17:11.55	108.56	18.86	
2025-01-08 10:17:11.75	108.53	18.88	
2025-01-08 10:17:11.97	108.49	18.91	
2025-01-08 10:17:12.17	108.46	18.93	
2025-01-08 10:17:12.38	108.42	18.95	
2025-01-08 10:17:12.58	108.39	18.97	
2025-01-08 10:17:12.79	108.35	19.00	
2025-01-08 10:17:12.99	108.32	19.02	
2025-01-08 10:17:13.20	108.28	19.04	
2025-01-08 10:17:13.40	108.24	19.06	
2025-01-08 10:17:13.62	108.21	19.09	
2025-01-08 10:17:13.83	108.17	19.11	
2025-01-08 10:17:14.03	108.13	19.13	
2025-01-08 10:17:14.24	108.10	19.16	
2025-01-08 10:17:14.44	108.06	19.18	
2025-01-08 10:17:14.65	108.03	19.20	
2025-01-08 10:17:14.85	107.99	19.23	
2025-01-08 10:17:15.06	107.95	19.25	
2025-01-08 10:17:15.26	107.92	19.27	
2025-01-08 10:17:15.47	107.88	19.29	
2025-01-08 10:17:15.67	107.85	19.32	
2025-01-08 10:17:15.88	107.81	19.34	
2025-01-08 10:17:16.08	107.77	19.36	
2025-01-08 10:17:16.29	107.74	19.39	
2025-01-08 10:17:16.50	107.70	19.41	
2025-01-08 10:17:16.70	107.66	19.43	
2025-01-08 10:17:16.91	107.63	19.46	
2025-01-08 10:17:17.11	107.59	19.48	
2025-01-08 10:17:17.31	107.55	19.50	
2025-01-08 10:17:17.52	107.52	19.52	
2025-01-08 10:17:17.72	107.48	19.55	
2025-01-08 10:17:17.93	107.44	19.57	
2025-01-08 10:17:18.13	107.41	19.59	
2025-01-08 10:17:18.34	107.37	19.62	
2025-01-08 10:17:18.55	107.33	19.64	
2025-01-08 10:17:18.75	107.30	19.66	
2025-01-08 10:17:18.95	107.26	19.68	
2025-01-08 10:17:19.16	107.22	19.71	
2025-01-08 10:17:19.37	107.18	19.73	
2025-01-08 10:17:19.57	107.15	19.75	
2025-01-08 10:17:19.78	107.11	19.78	
2025-01-08 10:17:19.98	107.07	19.80	
2025-01-08 10:17:20.19	107.03	19.82	
2025-01-08 10:17:20.40	106.99	19.85	
2025-01-08 10:17:20.60	106.96	19.87	
2025-01-08 10:17:20.80	106.92	19.89	
2025-01-08 10:17:21.02	106.88	19.92	
2025-01-08 10:17:21.23	106.84	19.94	
2025-01-08 10:17:21.43	106.80	19.96	
2025-01-08 10:17:21.64	106.77	19.99	
2025-01-08 10:17:21.85	106.73	20.01	
2025-01-08 10:17:22.05	106.69	20.03	
2025-01-08 10:17:22.26	106.65	20.06	
2025-01-08 10:17:22.46	106.61	20.08	
2025-01-08 10:17:22.67	106.57	20.11	
2025-01-08 10:17:22.87	106.54	20.13	
2025-01-08 10:17:23.08	106.50	20.15	
2025-01-08 10:17:23.28	106.46	20.17	
2025-01-08 10:17:23.49	106.42	20.20	
2025-01-08 10:17:23.69	106.38	20.22	
2025-01-08 10:17:23.90	106.34	20.25	
2025-01-08 10:17:24.10	106.31	20.27	
2025-01-08 10:17:24.30	106.27	20.29	
2025-01-08 10:17:24.51	106.23	20.31	
2025-01-08 10:17:24.72	106.19	20.34	
2025-01-08 10:17:24.92	106.15	20.36	
2025-01-08 10:17:25.13	106.11	20.39	
2025-01-08 10:17:25.33	106.07	20.41	
2025-01-08 10:17:25.54	106.03	20.43	
2025-01-08 10:17:25.74	105.99	20.45	
2025-01-08 10:17:25.95	105.95	20.48	
2025-01-08 10:17:26.15	105.92	20.50	
2025-01-08 10:17:26.36	105.87	20.53	
2025-01-08 10:17:26.57	105.83	20.55	
2025-01-08 10:17:26.77	105.80	20.57	
2025-01-08 10:17:26.98	105.76	20.60	
2025-01-08 10:17:27.19	105.71	20.62	
2025-01-08 10:17:27.39	105.68	20.64	
2025-01-08 10:17:27.60	105.64	20.67	
2025-01-08 10:17:27.80	105.60	20.69	
2025-01-08 10:17:28.01	105.56	20.71	
2025-01-08 10:17:28.21	105.52	20.74	
2025-01-08 10:17:28.41	105.48	20.76	
2025-01-08 10:17:28.62	105.44	20.79	
2025-01-08 10:17:28.83	105.40	20.81	
2025-01-08 10:17:29.03	105.36	20.83	
2025-01-08 10:17:29.24	105.31	20.86	
2025-01-08 10:17:29.44	105.28	20.88	
2025-01-08 10:17:29.65	105.23	20.90	
2025-01-08 10:17:29.85	105.19	20.93	
2025-01-08 10:17:30.06	105.15	20.95	
2025-01-08 10:17:30.26	105.11	20.97	
2025-01-08 10:17:30.47	105.07	21.00	
2025-01-08 10:17:30.67	105.03	21.02	
2025-01-08 10:17:30.88	104.99	21.05	
2025-01-08 10:17:31.08	104.95	21.07	
2025-01-08 10:17:31.29	104.91	21.09	
2025-01-08 10:17:31.50	104.87	21.12	
2025-01-08 10:17:31.70	104.83	21.14	
2025-01-08 10:17:31.91	104.78	21.16	
2025-01-08 10:17:32.11	104.74	21.19	
2025-01-08 10:17:32.31	104.70	21.21	
2025-01-08 10:17:32.52	104.66	21.24	
2025-01-08 10:17:32.72	104.62	21.26	
2025-01-08 10:17:32.93	104.58	21.28	
2025-01-08 10:17:33.13	104.54	21.31	
2025-01-08 10:17:33.34	104.49	21.33	
2025-01-08 10:17:33.54	104.45	21.35	
2025-01-08 10:17:33.75	104.41	21.38	
2025-01-08 10:17:33.95	104.37	21.40	
2025-01-08 10:17:34.15	104.33	21.42	
2025-01-08 10:17:34.36	104.29	21.45	
2025-01-08 10:17:34.56	104.25	21.47	
2025-01-08 10:17:34.76	104.20	21.50	
2025-01-08 10:17:34.97	104.16	21.52	
2025-01-08 10:17:35.17	104.12	21.54	
2025-01-08 10:17:35.38	104.08	21.57	
2025-01-08 10:17:35.58	104.04	21.59	
2025-01-08 10:17:35.79	103.99	21.61	
2025-01-08 10:17:35.99	103.95	21.64	
2025-01-08 10:17:36.20	103.91	21.66	
2025-01-08 10:17:36.40	103.87	21.69	
2025-01-08 10:17:36.61	103.82	21.71	
2025-01-08 10:17:36.82	103.78	21.73	
2025-01-08 10:17:37.02	103.74	21.76	
2025-01-08 10:17:37.23	103.69	21.78	
2025-01-08 10:17:37.43	103.65	21.81	
2025-01-08 10:17:37.64	103.61	21.83	
2025-01-08 10:17:37.84	103.56	21.85	
2025-01-08 10:17:38.04	103.52	21.88	
2025-01-08 10:17:38.25	103.48	21.90	
2025-01-08 10:17:38.46	103.43	21.93	
2025-01-08 10:17:38.66	103.39	21.95	
2025-01-08 10:17:38.87	103.35	21.97	
2025-01-08 10:17:39.07	103.30	22.00	
2025-01-08 10:17:39.28	103.26	22.02	
2025-01-08 10:17:39.48	103.22	22.05	
2025-01-08 10:17:39.69	103.17	22.07	
2025-01-08 10:17:39.90	103.13	22.10	
2025-01-08 10:17:40.10	103.08	22.12	
2025-01-08 10:17:40.31	103.04	22.14	
2025-01-08 10:17:40.51	103.00	22.17	
2025-01-08 10:17:40.72	102.95	22.19	
2025-01-08 10:17:40.92	102.91	22.21	
2025-01-08 10:17:41.13	102.86	22.24	
2025-01-08 10:17:41.35	102.81	22.27	
2025-01-08 10:17:41.55	102.77	22.29	
2025-01-08 10:17:41.76	102.73	22.31	
2025-01-08 10:17:41.96	102.68	22.34	
2025-01-08 10:17:42.17	102.64	22.36	
2025-01-08 10:17:42.38	102.59	22.39	
2025-01-08 10:17:42.58	102.55	22.41	
2025-01-08 10:17:42.79	102.50	22.43	
2025-01-08 10:17:42.99	102.46	22.46	
2025-01-08 10:17:43.20	102.41	22.48	
2025-01-08 10:17:43.40	102.37	22.51	
2025-01-08 10:17:43.61	102.32	22.53	
2025-01-08 10:17:43.81	102.28	22.55	
2025-01-08 10:17:44.02	102.23	22.58	
2025-01-08 10:17:44.22	102.19	22.60	
2025-01-08 10:17:44.43	102.14	22.63	
2025-01-08 10:17:44.63	102.09	22.65	
2025-01-08 10:17:44.84	102.05	22.68	
2025-01-08 10:17:45.04	102.00	22.70	
2025-01-08 10:17:45.25	101.96	22.72	
2025-01-08 10:17:45.45	101.91	22.75	
2025-01-08 10:17:45.66	101.86	22.77	
2025-01-08 10:17:45.86	101.82	22.80	
2025-01-08 10:17:46.07	101.77	22.82	
2025-01-08 10:17:46.27	101.73	22.85	
2025-01-08 10:17:46.48	101.68	22.87	
2025-01-08 10:17:46.68	101.63	22.89	
2025-01-08 10:17:46.89	101.59	22.92	
2025-01-08 10:17:47.10	101.54	22.94	
2025-01-08 10:17:47.30	101.49	22.97	
2025-01-08 10:17:47.51	101.45	22.99	
2025-01-08 10:17:47.71	101.40	23.02	
2025-01-08 10:17:47.91	101.36	23.04	
2025-01-08 10:17:48.12	101.31	23.06	
2025-01-08 10:17:48.33	101.26	23.09	
2025-01-08 10:17:48.53	101.21	23.11	
2025-01-08 10:17:48.74	101.17	23.14	
2025-01-08 10:17:48.94	101.12	23.16	
2025-01-08 10:17:49.15	101.07	23.19	
2025-01-08 10:17:49.35	101.02	23.21	
2025-01-08 10:17:49.56	100.98	23.23	
2025-01-08 10:17:49.76	100.93	23.26	
2025-01-08 10:17:49.97	100.88	23.28	
2025-01-08 10:17:50.17	100.83	23.31	
2025-01-08 10:17:50.37	100.79	23.33	
2025-01-08 10:17:50.58	100.74	23.36	
2025-01-08 10:17:50.78	100.69	23.38	
2025-01-08 10:17:50.99	100.64	23.40	
2025-01-08 10:17:51.19	100.60	23.43	
2025-01-08 10:17:51.40	100.55	23.45	
2025-01-08 10:17:51.60	100.50	23.48	
2025-01-08 10:17:51.81	100.45	23.50	
2025-01-08 10:17:52.01	100.40	23.53	
2025-01-08 10:17:52.22	100.35	23.55	
2025-01-08 10:17:52.43	100.30	23.58	
2025-01-08 10:17:52.63	100.26	23.60	
2025-01-08 10:17:52.84	100.21	23.62	
2025-01-08 10:17:53.05	100.16	23.65	
2025-01-08 10:17:53.26	100.11	23.67	
2025-01-08 10:17:53.46	100.06	23.70	
2025-01-08 10:17:53.67	100.01	23.72	
2025-01-08 10:17:53.88	99.96	23.75	
2025-01-08 10:17:54.08	99.91	23.77	
2025-01-08 10:17:54.29	99.86	23.80	
2025-01-08 10:17:54.49	99.81	23.82	
2025-01-08 10:17:54.70	99.76	23.85	
2025-01-08 10:17:54.90	99.71	23.87	
2025-01-08 10:17:55.10	99.67	23.89	
2025-01-08 10:17:55.31	99.62	23.92	
2025-01-08 10:17:55.52	99.56	23.94	
2025-01-08 10:17:55.73	99.51	23.97	
2025-01-08 10:17:55.94	99.46	23.99	
2025-01-08 10:17:56.14	99.41	24.02	
2025-01-08 10:17:56.35	99.36	24.04	
2025-01-08 10:17:56.55	99.31	24.07	
2025-01-08 10:17:56.76	99.26	24.09	
2025-01-08 10:17:56.97	99.21	24.12	
2025-01-08 10:17:57.17	99.16	24.14	
2025-01-08 10:17:57.38	99.11	24.16	
2025-01-08 10:17:57.58	99.06	24.19	
2025-01-08 10:17:57.79	99.01	24.21	
2025-01-08 10:17:57.99	98.96	24.24	
2025-01-08 10:17:58.20	98.91	24.26	
2025-01-08 10:17:58.42	98.85	24.29	
2025-01-08 10:17:58.62	98.80	24.31	
2025-01-08 10:17:58.83	98.75	24.34	
2025-01-08 10:17:59.03	98.70	24.36	
2025-01-08 10:17:59.24	98.65	24.39	
2025-01-08 10:17:59.44	98.60	24.41	
2025-01-08 10:17:59.65	98.55	24.44	
2025-01-08 10:17:59.85	98.50	24.46	
2025-01-08 10:18:00.06	98.44	24.48	
2025-01-08 10:18:00.26	98.39	24.51	
2025-01-08 10:18:00.47	98.34	24.53	
2025-01-08 10:18:00.67	98.29	24.56	
2025-01-08 10:18:00.88	98.24	24.58	
2025-01-08 10:18:01.08	98.19	24.61	
2025-01-08 10:18:01.29	98.13	24.63	
2025-01-08 10:18:01.49	98.08	24.65	
2025-01-08 10:18:01.70	98.03	24.68	
2025-01-08 10:18:01.91	97.97	24.70	
2025-01-08 10:18:02.11	97.92	24.73	
2025-01-08 10:18:02.32	97.87	24.75	
2025-01-08 10:18:02.52	97.82	24.78	
2025-01-08 10:18:02.72	97.77	24.80	
2025-01-08 10:18:02.93	97.71	24.83	
2025-01-08 10:18:03.14	97.66	24.85	
2025-01-08 10:18:03.34	97.61	24.87	
2025-01-08 10:18:03.55	97.55	24.90	
2025-01-08 10:18:03.75	97.50	24.92	
2025-01-08 10:18:03.96	97.45	24.95	
2025-01-08 10:18:04.16	97.40	24.97	
2025-01-08 10:18:04.37	97.34	25.00	
2025-01-08 10:18:04.57	97.29	25.02	
2025-01-08 10:18:04.79	97.23	25.05	
2025-01-08 10:18:04.99	97.18	25.07	
2025-01-08 10:18:05.20	97.12	25.10	
2025-01-08 10:18:05.40	97.07	25.12	
2025-01-08 10:18:05.61	97.02	25.15	
2025-01-08 10:18:05.81	96.96	25.17	
2025-01-08 10:18:06.02	96.91	25.19	
2025-01-08 10:18:06.23	96.85	25.22	
2025-01-08 10:18:06.43	96.80	25.24	
2025-01-08 10:18:06.64	96.74	25.27	
2025-01-08 10:18:06.84	96.69	25.29	
2025-01-08 10:18:07.05	96.64	25.32	
2025-01-08 10:18:07.25	96.58	25.34	
2025-01-08 10:18:07.46	96.53	25.37	
2025-01-08 10:18:07.66	96.47	25.39	
2025-01-08 10:18:07.86	96.42	25.41	
2025-01-08 10:18:08.07	96.36	25.44	
2025-01-08 10:18:08.28	96.31	25.46	
2025-01-08 10:18:08.48	96.25	25.49	
2025-01-08 10:18:08.69	96.20	25.51	
2025-01-08 10:18:08.89	96.14	25.54	
2025-01-08 10:18:09.10	96.09	25.56	
2025-01-08 10:18:09.30	96.03	25.58	
2025-01-08 10:18:09.51	95.98	25.61	
2025-01-08 10:18:09.71	95.92	25.63	
2025-01-08 10:18:09.92	95.86	25.66	
2025-01-08 10:18:10.12	95.81	25.68	
2025-01-08 10:18:10.33	95.75	25.71	
2025-01-08 10:18:10.54	95.70	25.73	
2025-01-08 10:18:10.74	95.64	25.75	
2025-01-08 10:18:10.95	95.58	25.78	
2025-01-08 10:18:11.15	95.53	25.80	
2025-01-08 10:18:11.36	95.47	25.83	
2025-01-08 10:18:11.56	95.42	25.85	
2025-01-08 10:18:11.77	95.36	25.88	
2025-01-08 10:18:11.98	95.30	25.90	
2025-01-08 10:18:12.19	95.24	25.93	
2025-01-08 10:18:12.40	95.18	25.95	
2025-01-08 10:18:12.60	95.13	25.97	
2025-01-08 10:18:12.81	95.07	26.00	
2025-01-08 10:18:13.01	95.01	26.02	
2025-01-08 10:18:13.22	94.96	26.05	
2025-01-08 10:18:13.42	94.90	26.07	
2025-01-08 10:18:13.63	94.84	26.10	
2025-01-08 10:18:13.83	94.79	26.12	
2025-01-08 10:18:14.04	94.73	26.15	
2025-01-08 10:18:14.24	94.67	26.17	
2025-01-08 10:18:14.45	94.61	26.19	
2025-01-08 10:18:14.66	94.55	26.22	
2025-01-08 10:18:14.86	94.50	26.24	
2025-01-08 10:18:15.07	94.44	26.27	
2025-01-08 10:18:15.28	94.38	26.29	
2025-01-08 10:18:15.48	94.32	26.31	
2025-01-08 10:18:15.69	94.26	26.34	
2025-01-08 10:18:15.89	94.20	26.36	
2025-01-08 10:18:16.10	94.14	26.39	
2025-01-08 10:18:16.30	94.09	26.41	
2025-01-08 10:18:16.52	94.02	26.44	
2025-01-08 10:18:16.73	93.96	26.46	
2025-01-08 10:18:16.93	93.91	26.49	
2025-01-08 10:18:17.14	93.85	26.51	
2025-01-08 10:18:17.34	93.79	26.53	
2025-01-08 10:18:17.55	93.73	26.56	
2025-01-08 10:18:17.75	93.67	26.58	
2025-01-08 10:18:17.96	93.61	26.61	
2025-01-08 10:18:18.17	93.55	26.63	
2025-01-08 10:18:18.37	93.49	26.65	
2025-01-08 10:18:18.58	93.43	26.68	
2025-01-08 10:18:18.78	93.37	26.70	
2025-01-08 10:18:18.99	93.31	26.73	
2025-01-08 10:18:19.20	93.25	26.75	
2025-01-08 10:18:19.40	93.19	26.77	
2025-01-08 10:18:19.61	93.13	26.80	
2025-01-08 10:18:19.81	93.07	26.82	
2025-01-08 10:18:20.02	93.01	26.85	
2025-01-08 10:18:20.22	92.95	26.87	
2025-01-08 10:18:20.43	92.89	26.89	
2025-01-08 10:18:20.63	92.83	26.92	
2025-01-08 10:18:20.83	92.77	26.94	
2025-01-08 10:18:21.04	92.71	26.97	
2025-01-08 10:18:21.24	92.65	26.99	
2025-01-08 10:18:21.45	92.59	27.01	
2025-01-08 10:18:21.66	92.52	27.04	
2025-01-08 10:18:21.86	92.46	27.06	
2025-01-08 10:18:22.07	92.40	27.09	
2025-01-08 10:18:22.27	92.34	27.11	
2025-01-08 10:18:22.48	92.28	27.13	
2025-01-08 10:18:22.69	92.22	27.16	
2025-01-08 10:18:22.90	92.15	27.18	
2025-01-08 10:18:23.11	92.09	27.21	
2025-01-08 10:18:23.31	92.03	27.23	
2025-01-08 10:18:23.52	91.97	27.25	
2025-01-08 10:18:23.72	91.91	27.28	
2025-01-08 10:18:23.93	91.84	27.30	
2025-01-08 10:18:24.13	91.78	27.32	
2025-01-08 10:18:24.34	91.72	27.35	
2025-01-08 10:18:24.54	91.66	27.37	
2025-01-08 10:18:24.75	91.59	27.40	
2025-01-08 10:18:24.95	91.53	27.42	
2025-01-08 10:18:25.16	91.47	27.44	
2025-01-08 10:18:25.37	91.40	27.47	
2025-01-08 10:18:25.57	91.34	27.49	
2025-01-08 10:18:25.78	91.28	27.51	
2025-01-08 10:18:25.98	91.22	27.54	
2025-01-08 10:18:26.19	91.15	27.56	
2025-01-08 10:18:26.39	91.09	27.58	
2025-01-08 10:18:26.60	91.03	27.61	
2025-01-08 10:18:26.80	90.96	27.63	
2025-01-08 10:18:27.01	90.90	27.66	
2025-01-08 10:18:27.23	90.83	27.68	
2025-01-08 10:18:27.43	90.77	27.70	
2025-01-08 10:18:27.64	90.70	27.73	
2025-01-08 10:18:27.84	90.64	27.75	
2025-01-08 10:18:28.05	90.58	27.77	
2025-01-08 10:18:28.27	90.51	27.80	
2025-01-08 10:18:28.47	90.44	27.82	
2025-01-08 10:18:28.68	90.38	27.85	
2025-01-08 10:18:28.88	90.32	27.87	
2025-01-08 10:18:29.09	90.25	27.89	
2025-01-08 10:18:29.29	90.19	27.92	
2025-01-08 10:18:29.50	90.12	27.94	
2025-01-08 10:18:29.70	90.06	27.96	
2025-01-08 10:18:29.91	89.99	27.99	
2025-01-08 10:18:30.12	89.92	28.01	
2025-01-08 10:18:30.32	89.86	28.03	
2025-01-08 10:18:30.52	89.80	28.05	
2025-01-08 10:18:30.73	89.73	28.08	
2025-01-08 10:18:30.93	89.67	28.10	
2025-01-08 10:18:31.14	89.60	28.12	
2025-01-08 10:18:31.35	89.53	28.15	
2025-01-08 10:18:31.55	89.47	28.17	
2025-01-08 10:18:31.75	89.40	28.19	
2025-01-08 10:18:31.96	89.34	28.22	
2025-01-08 10:18:32.17	89.27	28.24	
2025-01-08 10:18:32.37	89.21	28.26	
2025-01-08 10:18:32.59	89.13	28.29	
2025-01-08 10:18:32.79	89.07	28.31	
2025-01-08 10:18:33.00	89.00	28.33	
2025-01-08 10:18:33.20	88.94	28.36	
2025-01-08 10:18:33.41	88.87	28.38	
2025-01-08 10:18:33.61	88.80	28.40	
2025-01-08 10:18:33.82	88.74	28.42	
2025-01-08 10:18:34.03	88.67	28.45	
2025-01-08 10:18:34.23	88.60	28.47	
2025-01-08 10:18:34.44	88.53	28.49	
2025-01-08 10:18:34.65	88.46	28.52	
2025-01-08 10:18:34.86	88.40	28.54	
2025-01-08 10:18:35.07	88.33	28.56	
2025-01-08 10:18:35.27	88.26	28.58	
2025-01-08 10:18:35.48	88.19	28.61	
2025-01-08 10:18:35.68	88.13	28.63	
2025-01-08 10:18:35.88	88.06	28.65	
2025-01-08 10:18:36.09	87.99	28.68	
2025-01-08 10:18:36.29	87.92	28.70	
2025-01-08 10:18:36.50	87.85	28.72	
2025-01-08 10:18:36.70	87.79	28.74	
2025-01-08 10:18:36.91	87.72	28.77	
2025-01-08 10:18:37.11	87.65	28.79	
2025-01-08 10:18:37.32	87.58	28.81	
2025-01-08 10:18:37.53	87.51	28.83	
2025-01-08 10:18:37.73	87.44	28.86	
2025-01-08 10:18:37.95	87.37	28.88	
2025-01-08 10:18:38.16	87.30	28.90	
2025-01-08 10:18:38.36	87.23	28.92	
2025-01-08 10:18:38.57	87.16	28.95	
2025-01-08 10:18:38.77	87.09	28.97	
2025-01-08 10:18:38.98	87.02	28.99	
2025-01-08 10:18:39.18	86.96	29.01	
2025-01-08 10:18:39.39	86.89	29.04	
2025-01-08 10:18:39.59	86.82	29.06	
2025-01-08 10:18:39.80	86.75	29.08	
2025-01-08 10:18:40.00	86.68	29.10	
2025-01-08 10:18:40.21	86.61	29.12	
2025-01-08 10:18:40.41	86.54	29.15	
2025-01-08 10:18:40.62	86.47	29.17	
2025-01-08 10:18:40.83	86.39	29.19	
2025-01-08 10:18:41.03	86.33	29.21	
2025-01-08 10:18:41.24	86.25	29.23	
2025-01-08 10:18:41.45	86.18	29.26	
2025-01-08 10:18:41.65	86.11	29.28	
2025-01-08 10:18:41.86	86.04	29.30	
2025-01-08 10:18:42.06	85.97	29.32	
2025-01-08 10:18:42.27	85.90	29.34	
2025-01-08 10:18:42.47	85.83	29.36	
2025-01-08 10:18:42.68	85.76	29.39	
2025-01-08 10:18:42.89	85.69	29.41	
2025-01-08 10:18:43.09	85.62	29.43	
2025-01-08 10:18:43.30	85.54	29.45	
2025-01-08 10:18:43.50	85.47	29.47	
2025-01-08 10:18:43.71	85.40	29.50	
2025-01-08 10:18:43.91	85.33	29.52	
2025-01-08 10:18:44.12	85.26	29.54	
2025-01-08 10:18:44.34	85.18	29.56	
2025-01-08 10:18:44.54	85.11	29.58	
2025-01-08 10:18:44.75	85.04	29.60	
2025-01-08 10:18:44.95	84.97	29.63	
2025-01-08 10:18:45.16	84.89	29.65	
2025-01-08 10:18:45.36	84.82	29.67	
2025-01-08 10:18:45.57	84.75	29.69	
2025-01-08 10:18:45.77	84.68	29.71	
2025-01-08 10:18:45.98	84.60	29.73	
2025-01-08 10:18:46.18	84.53	29.75	
2025-01-08 10:18:46.39	84.46	29.77	
2025-01-08 10:18:46.60	84.38	29.80	
2025-01-08 10:18:46.80	84.31	29.82	
2025-01-08 10:18:47.01	84.24	29.84	
2025-01-08 10:18:47.21	84.16	29.86	
2025-01-08 10:18:47.42	84.09	29.88	
2025-01-08 10:18:47.62	84.02	29.90	
2025-01-08 10:18:47.82	83.95	29.92	
2025-01-08 10:18:48.03	83.87	29.94	
2025-01-08 10:18:48.24	83.79	29.96	
2025-01-08 10:18:48.44	83.72	29.98	
2025-01-08 10:18:48.65	83.65	30.00	
2025-01-08 10:18:48.85	83.58	30.02	
2025-01-08 10:18:49.06	83.50	30.05	
2025-01-08 10:18:49.27	83.42	30.07	
2025-01-08 10:18:49.47	83.35	30.09	
2025-01-08 10:18:49.67	83.28	30.11	
2025-01-08 10:18:49.88	83.20	30.13	
2025-01-08 10:18:50.09	83.13	30.15	
2025-01-08 10:18:50.29	83.05	30.17	
2025-01-08 10:18:50.50	82.98	30.19	
2025-01-08 10:18:50.70	82.90	30.21	
2025-01-08 10:18:50.91	82.83	30.23	
2025-01-08 10:18:51.11	82.75	30.25	
2025-01-08 10:18:51.32	82.68	30.27	
2025-01-08 10:18:51.52	82.60	30.29	
2025-01-08 10:18:51.74	82.52	30.31	
2025-01-08 10:18:51.95	82.44	30.33	
2025-01-08 10:18:52.15	82.37	30.35	
2025-01-08 10:18:52.36	82.29	30.37	
2025-01-08 10:18:52.56	82.22	30.39	
2025-01-08 10:18:52.77	82.14	30.41	
2025-01-08 10:18:52.97	82.07	30.43	
2025-01-08 10:18:53.18	81.99	30.45	
2025-01-08 10:18:53.38	81.92	30.47	
2025-01-08 10:18:53.59	81.84	30.49	
2025-01-08 10:18:53.80	81.76	30.51	
2025-01-08 10:18:54.00	81.69	30.53	
2025-01-08 10:18:54.21	81.61	30.55	
2025-01-08 10:18:54.41	81.53	30.57	
2025-01-08 10:18:54.62	81.45	30.59	
2025-01-08 10:18:54.82	81.38	30.61	
2025-01-08 10:18:55.03	81.30	30.63	
2025-01-08 10:18:55.23	81.22	30.65	
2025-01-08 10:18:55.44	81.15	30.67	
2025-01-08 10:18:55.64	81.07	30.69	
2025-01-08 10:18:55.85	80.99	30.71	
2025-01-08 10:18:56.05	80.92	30.73	
2025-01-08 10:18:56.26	80.84	30.75	
2025-01-08 10:18:56.46	80.76	30.77	
2025-01-08 10:18:56.67	80.68	30.79	
2025-01-08 10:18:56.87	80.61	30.80	
2025-01-08 10:18:57.08	80.53	30.82	
2025-01-08 10:18:57.28	80.45	30.84	
2025-01-08 10:18:57.49	80.37	30.86	
2025-01-08 10:18:57.70	80.29	30.88	
2025-01-08 10:18:57.90	80.21	30.90	
2025-01-08 10:18:58.12	80.13	30.92	
2025-01-08 10:18:58.32	80.05	30.94	
2025-01-08 10:18:58.53	79.97	30.96	
2025-01-08 10:18:58.73	79.90	30.98	
2025-01-08 10:18:58.94	79.82	30.99	
2025-01-08 10:18:59.14	79.74	31.01	
2025-01-08 10:18:59.35	79.66	31.03	
2025-01-08 10:18:59.55	79.58	31.05	
2025-01-08 10:18:59.76	79.50	31.07	
2025-01-08 10:18:59.97	79.42	31.09	
2025-01-08 10:19:00.17	79.34	31.11	
2025-01-08 10:19:00.37	79.26	31.12	
2025-01-08 10:19:00.58	79.18	31.14	
2025-01-08 10:19:00.79	79.10	31.16	
2025-01-08 10:19:00.99	79.02	31.18	
2025-01-08 10:19:01.20	78.94	31.20	
2025-01-08 10:19:01.40	78.86	31.21	
2025-01-08 10:19:01.61	78.78	31.23	
2025-01-08 10:19:01.81	78.70	31.25	
2025-01-08 10:19:02.02	78.62	31.27	
2025-01-08 10:19:02.22	78.54	31.29	
2025-01-08 10:19:02.43	78.46	31.31	
2025-01-08 10:19:02.63	78.38	31.32	
2025-01-08 10:19:02.84	78.30	31.34	
2025-01-08 10:19:03.05	78.22	31.36	
2025-01-08 10:19:03.25	78.14	31.38	
2025-01-08 10:19:03.45	78.06	31.39	
2025-01-08 10:19:03.66	77.98	31.41	
2025-01-08 10:19:03.87	77.90	31.43	
2025-01-08 10:19:04.07	77.82	31.45	
2025-01-08 10:19:04.28	77.73	31.46	
2025-01-08 10:19:04.48	77.65	31.48	
2025-01-08 10:19:04.69	77.57	31.50	
2025-01-08 10:19:04.89	77.49	31.52	
2025-01-08 10:19:05.10	77.41	31.53	
2025-01-08 10:19:05.30	77.33	31.55	
2025-01-08 10:19:05.51	77.24	31.57	
2025-01-08 10:19:05.71	77.16	31.58	
2025-01-08 10:19:05.92	77.08	31.60	
2025-01-08 10:19:06.12	77.00	31.62	
2025-01-08 10:19:06.33	76.92	31.63	
2025-01-08 10:19:06.53	76.84	31.65	
2025-01-08 10:19:06.75	76.75	31.67	
2025-01-08 10:19:06.96	76.66	31.69	
2025-01-08 10:19:07.16	76.58	31.70	
2025-01-08 10:19:07.37	76.50	31.72	
2025-01-08 10:19:07.58	76.42	31.74	
2025-01-08 10:19:07.78	76.34	31.75	
2025-01-08 10:19:07.99	76.25	31.77	
2025-01-08 10:19:08.20	76.17	31.79	
2025-01-08 10:19:08.40	76.08	31.80	
2025-01-08 10:19:08.61	76.00	31.82	
2025-01-08 10:19:08.81	75.92	31.83	
2025-01-08 10:19:09.01	75.84	31.85	
2025-01-08 10:19:09.22	75.75	31.87	
2025-01-08 10:19:09.43	75.67	31.88	
2025-01-08 10:19:09.63	75.59	31.90	
2025-01-08 10:19:09.83	75.50	31.91	
2025-01-08 10:19:10.04	75.42	31.93	
2025-01-08 10:19:10.25	75.33	31.95	
2025-01-08 10:19:10.46	75.25	31.96	
2025-01-08 10:19:10.66	75.17	31.98	
2025-01-08 10:19:10.87	75.08	31.99	
2025-01-08 10:19:11.07	75.00	32.01	
2025-01-08 10:19:11.28	74.91	32.02	
2025-01-08 10:19:11.48	74.83	32.04	
2025-01-08 10:19:11.69	74.74	32.05	
2025-01-08 10:19:11.90	74.66	32.07	
2025-01-08 10:19:12.11	74.57	32.09	
2025-01-08 10:19:12.32	74.48	32.10	
2025-01-08 10:19:12.52	74.40	32.12	
2025-01-08 10:19:12.73	74.32	32.13	
2025-01-08 10:19:12.94	74.23	32.15	
2025-01-08 10:19:13.16	74.14	32.16	
2025-01-08 10:19:13.36	74.06	32.18	
2025-01-08 10:19:13.57	73.97	32.19	
2025-01-08 10:19:13.77	73.89	32.21	
2025-01-08 10:19:13.98	73.80	32.22	
2025-01-08 10:19:14.18	73.71	32.24	
2025-01-08 10:19:14.39	73.63	32.25	
2025-01-08 10:19:14.59	73.54	32.27	
2025-01-08 10:19:14.80	73.46	32.28	
2025-01-08 10:19:15.01	73.37	32.30	
2025-01-08 10:19:15.21	73.29	32.31	
2025-01-08 10:19:15.42	73.20	32.32	
2025-01-08 10:19:15.62	73.11	32.34	
2025-01-08 10:19:15.83	73.03	32.35	
2025-01-08 10:19:16.03	72.94	32.37	
2025-01-08 10:19:16.25	72.85	32.38	
2025-01-08 10:19:16.45	72.77	32.39	
2025-01-08 10:19:16.66	72.68	32.41	
2025-01-08 10:19:16.86	72.59	32.42	
2025-01-08 10:19:17.07	72.51	32.44	
2025-01-08 10:19:17.27	72.42	32.45	
2025-01-08 10:19:17.48	72.33	32.46	
2025-01-08 10:19:17.68	72.25	32.48	
2025-01-08 10:19:17.89	72.16	32.49	
2025-01-08 10:19:18.10	72.07	32.50	
2025-01-08 10:19:18.30	71.99	32.52	
2025-01-08 10:19:18.52	71.89	32.53	
2025-01-08 10:19:18.73	71.81	32.54	
2025-01-08 10:19:18.93	71.72	32.56	
2025-01-08 10:19:19.14	71.63	32.57	
2025-01-08 10:19:19.34	71.55	32.58	
2025-01-08 10:19:19.56	71.45	32.60	
2025-01-08 10:19:19.77	71.36	32.61	
2025-01-08 10:19:19.97	71.28	32.62	
2025-01-08 10:19:20.18	71.19	32.64	
2025-01-08 10:19:20.38	71.10	32.65	
2025-01-08 10:19:20.59	71.01	32.66	
2025-01-08 10:19:20.79	70.93	32.67	
2025-01-08 10:19:21.00	70.84	32.69	
2025-01-08 10:19:21.20	70.75	32.70	
2025-01-08 10:19:21.41	70.66	32.71	
2025-01-08 10:19:21.63	70.57	32.72	
2025-01-08 10:19:21.83	70.48	32.74	
2025-01-08 10:19:22.04	70.39	32.75	
2025-01-08 10:19:22.25	70.30	32.76	
2025-01-08 10:19:22.45	70.22	32.77	
2025-01-08 10:19:22.66	70.13	32.78	
2025-01-08 10:19:22.86	70.04	32.80	
2025-01-08 10:19:23.07	69.95	32.81	
2025-01-08 10:19:23.27	69.86	32.82	
2025-01-08 10:19:23.48	69.77	32.83	
2025-01-08 10:19:23.68	69.69	32.84	
2025-01-08 10:19:23.89	69.60	32.85	
2025-01-08 10:19:24.10	69.51	32.87	
2025-01-08 10:19:24.30	69.42	32.88	
2025-01-08 10:19:24.51	69.33	32.89	
2025-01-08 10:19:24.71	69.24	32.90	
2025-01-08 10:19:24.92	69.15	32.91	
2025-01-08 10:19:25.12	69.06	32.92	
2025-01-08 10:19:25.33	68.97	32.93	
2025-01-08 10:19:25.53	68.89	32.94	
2025-01-08 10:19:25.74	68.79	32.95	
2025-01-08 10:19:25.94	68.71	32.96	
2025-01-08 10:19:26.15	68.62	32.97	
2025-01-08 10:19:26.35	68.53	32.99	
2025-01-08 10:19:26.56	68.44	33.00	
2025-01-08 10:19:26.76	68.35	33.01	
2025-01-08 10:19:26.97	68.26	33.02	
2025-01-08 10:19:27.17	68.17	33.03	
2025-01-08 10:19:27.38	68.08	33.04	
2025-01-08 10:19:27.58	67.99	33.05	
2025-01-08 10:19:27.79	67.90	33.06	
2025-01-08 10:19:27.99	67.81	33.07	
2025-01-08 10:19:28.20	67.72	33.08	
2025-01-08 10:19:28.40	67.63	33.09	
2025-01-08 10:19:28.61	67.54	33.10	
2025-01-08 10:19:28.82	67.45	33.11	
2025-01-08 10:19:29.02	67.36	33.12	
2025-01-08 10:19:29.22	67.27	33.13	
2025-01-08 10:19:29.43	67.18	33.14	
2025-01-08 10:19:29.63	67.09	33.14	
2025-01-08 10:19:29.84	67.00	33.15	
2025-01-08 10:19:30.05	66.91	33.16	
2025-01-08 10:19:30.25	66.82	33.17	
2025-01-08 10:19:30.45	66.73	33.18	
2025-01-08 10:19:30.66	66.64	33.19	
2025-01-08 10:19:30.87	66.55	33.20	
2025-01-08 10:19:31.07	66.46	33.21	
2025-01-08 10:19:31.27	66.37	33.22	
2025-01-08 10:19:31.48	66.28	33.23	
2025-01-08 10:19:31.69	66.18	33.23	
2025-01-08 10:19:31.89	66.09	33.24	
2025-01-08 10:19:32.10	66.00	33.25	
2025-01-08 10:19:32.30	65.91	33.26	
2025-01-08 10:19:32.51	65.82	33.27	
2025-01-08 10:19:32.71	65.73	33.28	
2025-01-08 10:19:32.92	65.64	33.28	
2025-01-08 10:19:33.12	65.55	33.29	
2025-01-08 10:19:33.33	65.46	33.30	
2025-01-08 10:19:33.53	65.37	33.31	
2025-01-08 10:19:33.74	65.27	33.32	
2025-01-08 10:19:33.94	65.18	33.32	
2025-01-08 10:19:34.15	65.09	33.33	
2025-01-08 10:19:34.35	65.00	33.34	
2025-01-08 10:19:34.56	64.91	33.35	
2025-01-08 10:19:34.76	64.82	33.35	
2025-01-08 10:19:34.97	64.73	33.36	
2025-01-08 10:19:35.18	64.63	33.37	
2025-01-08 10:19:35.38	64.54	33.38	
2025-01-08 10:19:35.59	64.45	33.38	
2025-01-08 10:19:35.79	64.36	33.39	
2025-01-08 10:19:36.00	64.27	33.40	
2025-01-08 10:19:36.20	64.18	33.40	
2025-01-08 10:19:36.40	64.09	33.41	
2025-01-08 10:19:36.62	63.99	33.42	
2025-01-08 10:19:36.83	63.89	33.43	
2025-01-08 10:19:37.03	63.80	33.43	
2025-01-08 10:19:37.24	63.71	33.44	
2025-01-08 10:19:37.45	63.62	33.44	
2025-01-08 10:19:37.65	63.53	33.45	
2025-01-08 10:19:37.86	63.43	33.46	
2025-01-08 10:19:38.06	63.34	33.46	
2025-01-08 10:19:38.27	63.25	33.47	
2025-01-08 10:19:38.48	63.15	33.48	
2025-01-08 10:19:38.69	63.06	33.48	
2025-01-08 10:19:38.90	62.97	33.49	
2025-01-08 10:19:39.10	62.88	33.49	
2025-01-08 10:19:39.31	62.78	33.50	
2025-01-08 10:19:39.51	62.69	33.50	
2025-01-08 10:19:39.71	62.60	33.51	
2025-01-08 10:19:39.92	62.51	33.52	
2025-01-08 10:19:40.13	62.41	33.52	
2025-01-08 10:19:40.33	62.32	33.53	
2025-01-08 10:19:40.54	62.23	33.53	
2025-01-08 10:19:40.74	62.14	33.54	
2025-01-08 10:19:40.94	62.05	33.54	
2025-01-08 10:19:41.15	61.95	33.55	
2025-01-08 10:19:41.35	61.86	33.55	
2025-01-08 10:19:41.56	61.77	33.56	
2025-01-08 10:19:41.76	61.68	33.56	
2025-01-08 10:19:41.98	61.58	33.57	
2025-01-08 10:19:42.19	61.48	33.57	
2025-01-08 10:19:42.39	61.39	33.57	
2025-01-08 10:19:42.60	61.30	33.58	
2025-01-08 10:19:42.81	61.20	33.58	
2025-01-08 10:19:43.01	61.11	33.59	
2025-01-08 10:19:43.22	61.02	33.59	
2025-01-08 10:19:43.42	60.93	33.60	
2025-01-08 10:19:43.63	60.83	33.60	
2025-01-08 10:19:43.83	60.74	33.60	
2025-01-08 10:19:44.04	60.64	33.61	
2025-01-08 10:19:44.24	60.55	33.61	
2025-01-08 10:19:44.45	60.46	33.61	
2025-01-08 10:19:44.65	60.37	33.62	
2025-01-08 10:19:44.85	60.28	33.62	
2025-01-08 10:19:45.06	60.18	33.63	
2025-01-08 10:19:45.26	60.09	33.63	
2025-01-08 10:19:45.47	60.00	33.63	
2025-01-08 10:19:45.68	59.90	33.63	
2025-01-08 10:19:45.88	59.81	33.64	
2025-01-08 10:19:46.08	59.72	33.64	
2025-01-08 10:19:46.29	59.62	33.64	
2025-01-08 10:19:46.49	59.53	33.65	
2025-01-08 10:19:46.70	59.44	33.65	
2025-01-08 10:19:46.90	59.35	33.65	
2025-01-08 10:19:47.11	59.25	33.65	
2025-01-08 10:19:47.31	59.16	33.66	
2025-01-08 10:19:47.51	59.07	33.66	
2025-01-08 10:19:47.72	58.97	33.66	
2025-01-08 10:19:47.93	58.88	33.66	
2025-01-08 10:19:48.13	58.79	33.67	
2025-01-08 10:19:48.34	58.69	33.67	
2025-01-08 10:19:48.54	58.60	33.67	
2025-01-08 10:19:48.75	58.51	33.67	
2025-01-08 10:19:48.95	58.42	33.67	
2025-01-08 10:19:49.16	58.32	33.67	
2025-01-08 10:19:49.38	58.22	33.68	
2025-01-08 10:19:49.58	58.13	33.68	
2025-01-08 10:19:49.79	58.03	33.68	
2025-01-08 10:19:50.00	57.94	33.68	
2025-01-08 10:19:50.20	57.85	33.68	
2025-01-08 10:19:50.41	57.75	33.68	
2025-01-08 10:19:50.61	57.66	33.68	
2025-01-08 10:19:50.82	57.56	33.69	
2025-01-08 10:19:51.03	57.47	33.69	
2025-01-08 10:19:51.23	57.38	33.69	
2025-01-08 10:19:51.44	57.28	33.69	
2025-01-08 10:19:51.64	57.19	33.69	
2025-01-08 10:19:51.85	57.10	33.69	
2025-01-08 10:19:52.05	57.00	33.69	
2025-01-08 10:19:52.26	56.91	33.69	
2025-01-08 10:19:52.46	56.82	33.69	
2025-01-08 10:19:52.67	56.72	33.69	
2025-01-08 10:19:52.87	56.63	33.69	
2025-01-08 10:19:53.08	56.54	33.69	
2025-01-08 10:19:53.28	56.44	33.69	
2025-01-08 10:19:53.49	56.35	33.69	
2025-01-08 10:19:53.71	56.25	33.69	
2025-01-08 10:19:53.91	56.16	33.69	
2025-01-08 10:19:54.12	56.06	33.69	
2025-01-08 10:19:54.33	55.97	33.69	
2025-01-08 10:19:54.53	55.88	33.69	
2025-01-08 10:19:54.73	55.78	33.69	
2025-01-08 10:19:54.94	55.69	33.69	
2025-01-08 10:19:55.15	55.59	33.69	
2025-01-08 10:19:55.35	55.50	33.69	
2025-01-08 10:19:55.56	55.41	33.69	
2025-01-08 10:19:55.76	55.32	33.68	
2025-01-08 10:19:55.97	55.22	33.68	
2025-01-08 10:19:56.18	55.12	33.68	
2025-01-08 10:19:56.38	55.03	33.68	
2025-01-08 10:19:56.59	54.94	33.68	
2025-01-08 10:19:56.79	54.85	33.68	
2025-01-08 10:19:57.00	54.75	33.68	
2025-01-08 10:19:57.20	54.66	33.67	
2025-01-08 10:19:57.41	54.57	33.67	
2025-01-08 10:19:57.61	54.47	33.67	
2025-01-08 10:19:57.82	54.38	33.67	
2025-01-08 10:19:58.02	54.29	33.67	
