passes_logs/2025/01/08/SPB_Silybum_02/SPB_Silybum_02__20250108_095334_TERRA_rec.log

#Pass ID: 20250108_095334_TERRA
#Satellite: TERRA
#Configuration: TERRA
#Start time: 2025-01-08 09:53:33

#Version: 2.0.20230423
#Station: SPB_Silybum_02
#Location: 30.233357 lon 59.946436 lat
#TLE: 1 25994U 99068A   25007.79031535  .00001159  00000+0  24884-3 0  9992
#TLE: 2 25994  98.0229  71.0496 0003578  86.9116 340.1593 14.60381232333028

#Time	Az	El	Level	Level2	SNR	BER	Gain	Gain2
2025-01-08 09:53:35.65	10.19	4.09	
2025-01-08 09:53:35.86	10.18	4.11	
2025-01-08 09:53:36.07	10.16	4.12	
2025-01-08 09:53:36.28	10.15	4.13	
2025-01-08 09:53:36.49	10.13	4.15	
2025-01-08 09:53:36.69	10.12	4.16	
2025-01-08 09:53:36.90	10.10	4.17	
2025-01-08 09:53:37.10	10.09	4.19	
2025-01-08 09:53:37.32	10.07	4.20	
2025-01-08 09:53:37.53	10.05	4.21	
2025-01-08 09:53:37.73	10.04	4.23	
2025-01-08 09:53:37.94	10.02	4.24	
2025-01-08 09:53:38.14	10.01	4.25	
2025-01-08 09:53:38.35	9.99	4.27	
2025-01-08 09:53:38.55	9.98	4.28	
2025-01-08 09:53:38.75	9.96	4.29	
2025-01-08 09:53:38.96	9.95	4.31	
2025-01-08 09:53:39.17	9.93	4.32	
2025-01-08 09:53:39.37	9.92	4.33	
2025-01-08 09:53:39.57	9.90	4.34	
2025-01-08 09:53:39.78	9.89	4.36	
2025-01-08 09:53:39.98	9.87	4.37	
2025-01-08 09:53:40.19	9.86	4.38	
2025-01-08 09:53:40.39	9.84	4.40	
2025-01-08 09:53:40.60	9.82	4.41	
2025-01-08 09:53:40.80	9.81	4.42	
2025-01-08 09:53:41.01	9.79	4.44	
2025-01-08 09:53:41.21	9.78	4.45	
2025-01-08 09:53:41.42	9.76	4.46	
2025-01-08 09:53:41.62	9.75	4.48	
2025-01-08 09:53:41.83	9.73	4.49	
2025-01-08 09:53:42.03	9.72	4.50	
2025-01-08 09:53:42.24	9.70	4.52	
2025-01-08 09:53:42.45	9.68	4.53	
2025-01-08 09:53:42.65	9.67	4.54	
2025-01-08 09:53:42.85	9.65	4.56	
2025-01-08 09:53:43.06	9.64	4.57	
2025-01-08 09:53:43.27	9.62	4.58	
2025-01-08 09:53:43.47	9.61	4.60	
2025-01-08 09:53:43.67	9.59	4.61	
2025-01-08 09:53:43.88	9.58	4.62	
2025-01-08 09:53:44.09	9.56	4.64	
2025-01-08 09:53:44.29	9.54	4.65	
2025-01-08 09:53:44.50	9.53	4.66	
2025-01-08 09:53:44.71	9.51	4.68	
2025-01-08 09:53:44.91	9.50	4.69	
2025-01-08 09:53:45.12	9.48	4.71	
2025-01-08 09:53:45.32	9.46	4.72	
2025-01-08 09:53:45.53	9.45	4.73	
2025-01-08 09:53:45.73	9.43	4.75	
2025-01-08 09:53:45.94	9.42	4.76	
2025-01-08 09:53:46.14	9.40	4.77	
2025-01-08 09:53:46.35	9.38	4.79	
2025-01-08 09:53:46.55	9.37	4.80	
2025-01-08 09:53:46.76	9.35	4.81	
2025-01-08 09:53:46.96	9.34	4.83	
2025-01-08 09:53:47.17	9.32	4.84	
2025-01-08 09:53:47.38	9.30	4.85	
2025-01-08 09:53:47.58	9.29	4.87	
2025-01-08 09:53:47.79	9.27	4.88	
2025-01-08 09:53:47.99	9.26	4.89	
2025-01-08 09:53:48.20	9.24	4.91	
2025-01-08 09:53:48.40	9.22	4.92	
2025-01-08 09:53:48.61	9.21	4.93	
2025-01-08 09:53:48.82	9.19	4.95	
2025-01-08 09:53:49.02	9.18	4.96	
2025-01-08 09:53:49.23	9.16	4.97	
2025-01-08 09:53:49.43	9.14	4.99	
2025-01-08 09:53:49.64	9.13	5.00	
2025-01-08 09:53:49.84	9.11	5.01	
2025-01-08 09:53:50.05	9.09	5.03	
2025-01-08 09:53:50.25	9.08	5.04	
2025-01-08 09:53:50.45	9.06	5.06	
2025-01-08 09:53:50.66	9.05	5.07	
2025-01-08 09:53:50.87	9.03	5.08	
2025-01-08 09:53:51.07	9.01	5.10	
2025-01-08 09:53:51.28	9.00	5.11	
2025-01-08 09:53:51.48	8.98	5.12	
2025-01-08 09:53:51.69	8.96	5.14	
2025-01-08 09:53:51.90	8.95	5.15	
2025-01-08 09:53:52.10	8.93	5.16	
2025-01-08 09:53:52.30	8.92	5.18	
2025-01-08 09:53:52.51	8.90	5.19	
2025-01-08 09:53:52.72	8.88	5.21	
2025-01-08 09:53:52.92	8.87	5.22	
2025-01-08 09:53:53.13	8.85	5.23	
2025-01-08 09:53:53.33	8.83	5.25	
2025-01-08 09:53:53.54	8.82	5.26	
2025-01-08 09:53:53.74	8.80	5.27	
2025-01-08 09:53:53.95	8.78	5.29	
2025-01-08 09:53:54.15	8.77	5.30	
2025-01-08 09:53:54.36	8.75	5.31	
2025-01-08 09:53:54.56	8.73	5.33	
2025-01-08 09:53:54.77	8.72	5.34	
2025-01-08 09:53:54.97	8.70	5.35	
2025-01-08 09:53:55.18	8.68	5.37	
2025-01-08 09:53:55.38	8.67	5.38	
2025-01-08 09:53:55.59	8.65	5.40	
2025-01-08 09:53:55.79	8.63	5.41	
2025-01-08 09:53:56.00	8.62	5.42	
2025-01-08 09:53:56.21	8.60	5.44	
2025-01-08 09:53:56.41	8.58	5.45	
2025-01-08 09:53:56.62	8.57	5.47	
2025-01-08 09:53:56.82	8.55	5.48	
2025-01-08 09:53:57.03	8.53	5.49	
2025-01-08 09:53:57.24	8.51	5.51	
2025-01-08 09:53:57.44	8.50	5.52	
2025-01-08 09:53:57.66	8.48	5.53	
2025-01-08 09:53:57.86	8.46	5.55	
2025-01-08 09:53:58.07	8.45	5.56	
2025-01-08 09:53:58.27	8.43	5.58	
2025-01-08 09:53:58.48	8.41	5.59	
2025-01-08 09:53:58.68	8.40	5.60	
2025-01-08 09:53:58.89	8.38	5.62	
2025-01-08 09:53:59.10	8.36	5.63	
2025-01-08 09:53:59.30	8.34	5.64	
2025-01-08 09:53:59.52	8.33	5.66	
2025-01-08 09:53:59.72	8.31	5.67	
2025-01-08 09:53:59.93	8.29	5.69	
2025-01-08 09:54:00.13	8.28	5.70	
2025-01-08 09:54:00.34	8.26	5.71	
2025-01-08 09:54:00.55	8.24	5.73	
2025-01-08 09:54:00.75	8.22	5.74	
2025-01-08 09:54:00.96	8.21	5.76	
2025-01-08 09:54:01.16	8.19	5.77	
2025-01-08 09:54:01.37	8.17	5.78	
2025-01-08 09:54:01.58	8.15	5.80	
2025-01-08 09:54:01.78	8.14	5.81	
2025-01-08 09:54:01.98	8.12	5.83	
2025-01-08 09:54:02.19	8.10	5.84	
2025-01-08 09:54:02.40	8.09	5.85	
2025-01-08 09:54:02.60	8.07	5.87	
2025-01-08 09:54:02.81	8.05	5.88	
2025-01-08 09:54:03.01	8.03	5.89	
2025-01-08 09:54:03.22	8.02	5.91	
2025-01-08 09:54:03.42	8.00	5.92	
2025-01-08 09:54:03.63	7.98	5.94	
2025-01-08 09:54:03.83	7.96	5.95	
2025-01-08 09:54:04.05	7.95	5.97	
2025-01-08 09:54:04.26	7.93	5.98	
2025-01-08 09:54:04.46	7.91	5.99	
2025-01-08 09:54:04.67	7.89	6.01	
2025-01-08 09:54:04.88	7.87	6.02	
2025-01-08 09:54:05.08	7.86	6.04	
2025-01-08 09:54:05.29	7.84	6.05	
2025-01-08 09:54:05.49	7.82	6.06	
2025-01-08 09:54:05.70	7.80	6.08	
2025-01-08 09:54:05.90	7.79	6.09	
2025-01-08 09:54:06.10	7.77	6.10	
2025-01-08 09:54:06.31	7.75	6.12	
2025-01-08 09:54:06.52	7.73	6.13	
2025-01-08 09:54:06.72	7.72	6.15	
2025-01-08 09:54:06.93	7.70	6.16	
2025-01-08 09:54:07.13	7.68	6.18	
2025-01-08 09:54:07.34	7.66	6.19	
2025-01-08 09:54:07.54	7.65	6.20	
2025-01-08 09:54:07.75	7.63	6.22	
2025-01-08 09:54:07.95	7.61	6.23	
2025-01-08 09:54:08.16	7.59	6.25	
2025-01-08 09:54:08.38	7.57	6.26	
2025-01-08 09:54:08.58	7.55	6.27	
2025-01-08 09:54:08.79	7.54	6.29	
2025-01-08 09:54:08.99	7.52	6.30	
2025-01-08 09:54:09.20	7.50	6.32	
2025-01-08 09:54:09.40	7.48	6.33	
2025-01-08 09:54:09.61	7.46	6.34	
2025-01-08 09:54:09.81	7.45	6.36	
2025-01-08 09:54:10.02	7.43	6.37	
2025-01-08 09:54:10.23	7.41	6.39	
2025-01-08 09:54:10.44	7.39	6.40	
2025-01-08 09:54:10.65	7.37	6.42	
2025-01-08 09:54:10.85	7.36	6.43	
2025-01-08 09:54:11.06	7.34	6.44	
2025-01-08 09:54:11.26	7.32	6.46	
2025-01-08 09:54:11.47	7.30	6.47	
2025-01-08 09:54:11.67	7.28	6.49	
2025-01-08 09:54:11.88	7.26	6.50	
2025-01-08 09:54:12.09	7.25	6.52	
2025-01-08 09:54:12.29	7.23	6.53	
2025-01-08 09:54:12.50	7.21	6.54	
2025-01-08 09:54:12.70	7.19	6.56	
2025-01-08 09:54:12.91	7.17	6.57	
2025-01-08 09:54:13.12	7.15	6.59	
2025-01-08 09:54:13.32	7.14	6.60	
2025-01-08 09:54:13.53	7.12	6.62	
2025-01-08 09:54:13.73	7.10	6.63	
2025-01-08 09:54:13.94	7.08	6.64	
2025-01-08 09:54:14.14	7.06	6.66	
2025-01-08 09:54:14.35	7.04	6.67	
2025-01-08 09:54:14.56	7.02	6.69	
2025-01-08 09:54:14.77	7.01	6.70	
2025-01-08 09:54:14.98	6.99	6.72	
2025-01-08 09:54:15.18	6.97	6.73	
2025-01-08 09:54:15.39	6.95	6.74	
2025-01-08 09:54:15.60	6.93	6.76	
2025-01-08 09:54:15.80	6.91	6.77	
2025-01-08 09:54:16.01	6.89	6.79	
2025-01-08 09:54:16.22	6.87	6.80	
2025-01-08 09:54:16.42	6.86	6.82	
2025-01-08 09:54:16.63	6.84	6.83	
2025-01-08 09:54:16.83	6.82	6.84	
2025-01-08 09:54:17.04	6.80	6.86	
2025-01-08 09:54:17.25	6.78	6.87	
2025-01-08 09:54:17.45	6.76	6.89	
2025-01-08 09:54:17.66	6.74	6.90	
2025-01-08 09:54:17.86	6.72	6.92	
2025-01-08 09:54:18.07	6.71	6.93	
2025-01-08 09:54:18.27	6.69	6.94	
2025-01-08 09:54:18.48	6.67	6.96	
2025-01-08 09:54:18.68	6.65	6.97	
2025-01-08 09:54:18.89	6.63	6.99	
2025-01-08 09:54:19.09	6.61	7.00	
2025-01-08 09:54:19.30	6.59	7.02	
2025-01-08 09:54:19.51	6.57	7.03	
2025-01-08 09:54:19.71	6.55	7.05	
2025-01-08 09:54:19.92	6.53	7.06	
2025-01-08 09:54:20.12	6.52	7.07	
2025-01-08 09:54:20.33	6.50	7.09	
2025-01-08 09:54:20.53	6.48	7.10	
2025-01-08 09:54:20.74	6.46	7.12	
2025-01-08 09:54:20.94	6.44	7.13	
2025-01-08 09:54:21.15	6.42	7.15	
2025-01-08 09:54:21.35	6.40	7.16	
2025-01-08 09:54:21.56	6.38	7.18	
2025-01-08 09:54:21.76	6.36	7.19	
2025-01-08 09:54:21.97	6.34	7.20	
2025-01-08 09:54:22.17	6.32	7.22	
2025-01-08 09:54:22.38	6.30	7.23	
2025-01-08 09:54:22.58	6.29	7.25	
2025-01-08 09:54:22.79	6.27	7.26	
2025-01-08 09:54:22.99	6.25	7.28	
2025-01-08 09:54:23.20	6.23	7.29	
2025-01-08 09:54:23.41	6.21	7.31	
2025-01-08 09:54:23.61	6.19	7.32	
2025-01-08 09:54:23.82	6.17	7.33	
2025-01-08 09:54:24.02	6.15	7.35	
2025-01-08 09:54:24.23	6.13	7.36	
2025-01-08 09:54:24.43	6.11	7.38	
2025-01-08 09:54:24.64	6.09	7.39	
2025-01-08 09:54:24.84	6.07	7.41	
2025-01-08 09:54:25.05	6.05	7.42	
2025-01-08 09:54:25.26	6.03	7.44	
2025-01-08 09:54:25.47	6.01	7.45	
2025-01-08 09:54:25.68	5.99	7.47	
2025-01-08 09:54:25.89	5.97	7.48	
2025-01-08 09:54:26.09	5.95	7.50	
2025-01-08 09:54:26.29	5.93	7.51	
2025-01-08 09:54:26.50	5.91	7.52	
2025-01-08 09:54:26.70	5.89	7.54	
2025-01-08 09:54:26.91	5.87	7.55	
2025-01-08 09:54:27.12	5.85	7.57	
2025-01-08 09:54:27.32	5.83	7.58	
2025-01-08 09:54:27.52	5.81	7.60	
2025-01-08 09:54:27.73	5.79	7.61	
2025-01-08 09:54:27.94	5.77	7.63	
2025-01-08 09:54:28.14	5.75	7.64	
2025-01-08 09:54:28.35	5.73	7.66	
2025-01-08 09:54:28.55	5.71	7.67	
2025-01-08 09:54:28.76	5.69	7.69	
2025-01-08 09:54:28.97	5.67	7.70	
2025-01-08 09:54:29.17	5.65	7.71	
2025-01-08 09:54:29.38	5.63	7.73	
2025-01-08 09:54:29.58	5.61	7.74	
2025-01-08 09:54:29.79	5.59	7.76	
2025-01-08 09:54:29.99	5.57	7.77	
2025-01-08 09:54:30.20	5.55	7.79	
2025-01-08 09:54:30.40	5.53	7.80	
2025-01-08 09:54:30.61	5.51	7.82	
2025-01-08 09:54:30.81	5.49	7.83	
2025-01-08 09:54:31.02	5.47	7.85	
2025-01-08 09:54:31.22	5.45	7.86	
2025-01-08 09:54:31.43	5.43	7.88	
2025-01-08 09:54:31.64	5.41	7.89	
2025-01-08 09:54:31.84	5.39	7.91	
2025-01-08 09:54:32.04	5.37	7.92	
2025-01-08 09:54:32.25	5.35	7.94	
2025-01-08 09:54:32.46	5.33	7.95	
2025-01-08 09:54:32.66	5.31	7.96	
2025-01-08 09:54:32.87	5.29	7.98	
2025-01-08 09:54:33.07	5.27	7.99	
2025-01-08 09:54:33.28	5.25	8.01	
2025-01-08 09:54:33.48	5.23	8.02	
2025-01-08 09:54:33.69	5.21	8.04	
2025-01-08 09:54:33.89	5.19	8.05	
2025-01-08 09:54:34.09	5.17	8.07	
2025-01-08 09:54:34.30	5.15	8.08	
2025-01-08 09:54:34.51	5.13	8.10	
2025-01-08 09:54:34.71	5.11	8.11	
2025-01-08 09:54:34.92	5.08	8.13	
2025-01-08 09:54:35.12	5.06	8.14	
2025-01-08 09:54:35.33	5.04	8.16	
2025-01-08 09:54:35.53	5.02	8.17	
2025-01-08 09:54:35.74	5.00	8.19	
2025-01-08 09:54:35.95	4.98	8.20	
2025-01-08 09:54:36.15	4.96	8.22	
2025-01-08 09:54:36.36	4.94	8.23	
2025-01-08 09:54:36.56	4.92	8.25	
2025-01-08 09:54:36.77	4.90	8.26	
2025-01-08 09:54:36.97	4.88	8.28	
2025-01-08 09:54:37.19	4.85	8.29	
2025-01-08 09:54:37.40	4.83	8.31	
2025-01-08 09:54:37.60	4.81	8.32	
2025-01-08 09:54:37.81	4.79	8.34	
2025-01-08 09:54:38.01	4.77	8.35	
2025-01-08 09:54:38.22	4.75	8.37	
2025-01-08 09:54:38.42	4.73	8.38	
2025-01-08 09:54:38.63	4.71	8.40	
2025-01-08 09:54:38.84	4.69	8.41	
2025-01-08 09:54:39.04	4.66	8.43	
2025-01-08 09:54:39.25	4.64	8.44	
2025-01-08 09:54:39.45	4.62	8.46	
2025-01-08 09:54:39.66	4.60	8.47	
2025-01-08 09:54:39.86	4.58	8.49	
2025-01-08 09:54:40.07	4.56	8.50	
2025-01-08 09:54:40.27	4.54	8.52	
2025-01-08 09:54:40.48	4.52	8.53	
2025-01-08 09:54:40.68	4.49	8.55	
2025-01-08 09:54:40.89	4.47	8.56	
2025-01-08 09:54:41.09	4.45	8.58	
2025-01-08 09:54:41.30	4.43	8.59	
2025-01-08 09:54:41.51	4.41	8.61	
2025-01-08 09:54:41.72	4.39	8.62	
2025-01-08 09:54:41.92	4.37	8.64	
2025-01-08 09:54:42.13	4.34	8.65	
2025-01-08 09:54:42.33	4.32	8.67	
2025-01-08 09:54:42.55	4.30	8.68	
2025-01-08 09:54:42.76	4.28	8.70	
2025-01-08 09:54:42.96	4.26	8.71	
2025-01-08 09:54:43.17	4.23	8.73	
2025-01-08 09:54:43.37	4.21	8.74	
2025-01-08 09:54:43.58	4.19	8.76	
2025-01-08 09:54:43.79	4.17	8.78	
2025-01-08 09:54:43.99	4.15	8.79	
2025-01-08 09:54:44.20	4.12	8.81	
2025-01-08 09:54:44.40	4.10	8.82	
2025-01-08 09:54:44.60	4.08	8.83	
2025-01-08 09:54:44.81	4.06	8.85	
2025-01-08 09:54:45.01	4.04	8.87	
2025-01-08 09:54:45.22	4.02	8.88	
2025-01-08 09:54:45.42	3.99	8.90	
2025-01-08 09:54:45.63	3.97	8.91	
2025-01-08 09:54:45.83	3.95	8.93	
2025-01-08 09:54:46.04	3.93	8.94	
2025-01-08 09:54:46.24	3.91	8.96	
2025-01-08 09:54:46.45	3.88	8.97	
2025-01-08 09:54:46.65	3.86	8.99	
2025-01-08 09:54:46.85	3.84	9.00	
2025-01-08 09:54:47.06	3.82	9.02	
2025-01-08 09:54:47.27	3.80	9.03	
2025-01-08 09:54:47.47	3.77	9.05	
2025-01-08 09:54:47.68	3.75	9.06	
2025-01-08 09:54:47.88	3.73	9.08	
2025-01-08 09:54:48.09	3.71	9.09	
2025-01-08 09:54:48.29	3.69	9.11	
2025-01-08 09:54:48.50	3.66	9.12	
2025-01-08 09:54:48.70	3.64	9.14	
2025-01-08 09:54:48.91	3.62	9.15	
2025-01-08 09:54:49.11	3.60	9.17	
2025-01-08 09:54:49.32	3.57	9.18	
2025-01-08 09:54:49.52	3.55	9.20	
2025-01-08 09:54:49.73	3.53	9.22	
2025-01-08 09:54:49.94	3.51	9.23	
2025-01-08 09:54:50.14	3.48	9.25	
2025-01-08 09:54:50.35	3.46	9.26	
2025-01-08 09:54:50.55	3.44	9.28	
2025-01-08 09:54:50.76	3.42	9.29	
2025-01-08 09:54:50.96	3.39	9.31	
2025-01-08 09:54:51.16	3.37	9.32	
2025-01-08 09:54:51.37	3.35	9.34	
2025-01-08 09:54:51.58	3.32	9.35	
2025-01-08 09:54:51.78	3.30	9.37	
2025-01-08 09:54:51.99	3.28	9.38	
2025-01-08 09:54:52.19	3.26	9.40	
2025-01-08 09:54:52.40	3.23	9.41	
2025-01-08 09:54:52.60	3.21	9.43	
2025-01-08 09:54:52.81	3.19	9.45	
2025-01-08 09:54:53.01	3.17	9.46	
2025-01-08 09:54:53.22	3.14	9.48	
2025-01-08 09:54:53.42	3.12	9.49	
2025-01-08 09:54:53.63	3.10	9.51	
2025-01-08 09:54:53.83	3.07	9.52	
2025-01-08 09:54:54.04	3.05	9.54	
2025-01-08 09:54:54.24	3.03	9.55	
2025-01-08 09:54:54.45	3.00	9.57	
2025-01-08 09:54:54.65	2.98	9.58	
2025-01-08 09:54:54.86	2.96	9.60	
2025-01-08 09:54:55.06	2.94	9.61	
2025-01-08 09:54:55.27	2.91	9.63	
2025-01-08 09:54:55.47	2.89	9.65	
2025-01-08 09:54:55.68	2.87	9.66	
2025-01-08 09:54:55.88	2.84	9.68	
2025-01-08 09:54:56.09	2.82	9.69	
2025-01-08 09:54:56.29	2.80	9.71	
2025-01-08 09:54:56.50	2.77	9.72	
2025-01-08 09:54:56.70	2.75	9.74	
2025-01-08 09:54:56.91	2.73	9.75	
2025-01-08 09:54:57.12	2.70	9.77	
2025-01-08 09:54:57.32	2.68	9.79	
2025-01-08 09:54:57.52	2.66	9.80	
2025-01-08 09:54:57.73	2.63	9.82	
2025-01-08 09:54:57.94	2.61	9.83	
2025-01-08 09:54:58.14	2.59	9.85	
2025-01-08 09:54:58.35	2.56	9.86	
2025-01-08 09:54:58.55	2.54	9.88	
2025-01-08 09:54:58.76	2.51	9.89	
2025-01-08 09:54:58.96	2.49	9.91	
2025-01-08 09:54:59.17	2.47	9.93	
2025-01-08 09:54:59.37	2.44	9.94	
2025-01-08 09:54:59.58	2.42	9.96	
2025-01-08 09:54:59.78	2.40	9.97	
2025-01-08 09:54:59.99	2.37	9.99	
2025-01-08 09:55:00.19	2.35	10.00	
2025-01-08 09:55:00.40	2.32	10.02	
2025-01-08 09:55:00.60	2.30	10.03	
2025-01-08 09:55:00.82	2.27	10.05	
2025-01-08 09:55:01.03	2.25	10.07	
2025-01-08 09:55:01.23	2.23	10.08	
2025-01-08 09:55:01.44	2.20	10.10	
2025-01-08 09:55:01.64	2.18	10.11	
2025-01-08 09:55:01.85	2.15	10.13	
2025-01-08 09:55:02.05	2.13	10.14	
2025-01-08 09:55:02.26	2.11	10.16	
2025-01-08 09:55:02.46	2.08	10.18	
2025-01-08 09:55:02.67	2.06	10.19	
2025-01-08 09:55:02.89	2.03	10.21	
2025-01-08 09:55:03.09	2.01	10.22	
2025-01-08 09:55:03.30	1.98	10.24	
2025-01-08 09:55:03.51	1.96	10.26	
2025-01-08 09:55:03.71	1.93	10.27	
2025-01-08 09:55:03.92	1.91	10.29	
2025-01-08 09:55:04.12	1.89	10.30	
2025-01-08 09:55:04.33	1.86	10.32	
2025-01-08 09:55:04.53	1.84	10.33	
2025-01-08 09:55:04.74	1.81	10.35	
2025-01-08 09:55:04.94	1.79	10.37	
2025-01-08 09:55:05.15	1.76	10.38	
2025-01-08 09:55:05.35	1.74	10.40	
2025-01-08 09:55:05.56	1.71	10.41	
2025-01-08 09:55:05.77	1.69	10.43	
2025-01-08 09:55:05.97	1.66	10.45	
2025-01-08 09:55:06.18	1.64	10.46	
2025-01-08 09:55:06.38	1.62	10.48	
2025-01-08 09:55:06.59	1.59	10.49	
2025-01-08 09:55:06.80	1.56	10.51	
2025-01-08 09:55:07.00	1.54	10.52	
2025-01-08 09:55:07.20	1.52	10.54	
2025-01-08 09:55:07.41	1.49	10.56	
2025-01-08 09:55:07.62	1.47	10.57	
2025-01-08 09:55:07.82	1.44	10.59	
2025-01-08 09:55:08.03	1.42	10.60	
2025-01-08 09:55:08.23	1.39	10.62	
2025-01-08 09:55:08.43	1.37	10.64	
2025-01-08 09:55:08.64	1.34	10.65	
2025-01-08 09:55:08.85	1.32	10.67	
2025-01-08 09:55:09.05	1.29	10.68	
2025-01-08 09:55:09.26	1.26	10.70	
2025-01-08 09:55:09.46	1.24	10.72	
2025-01-08 09:55:09.67	1.21	10.73	
2025-01-08 09:55:09.87	1.19	10.75	
2025-01-08 09:55:10.09	1.16	10.76	
2025-01-08 09:55:10.29	1.14	10.78	
2025-01-08 09:55:10.50	1.11	10.80	
2025-01-08 09:55:10.71	1.09	10.81	
2025-01-08 09:55:10.91	1.06	10.83	
2025-01-08 09:55:11.11	1.04	10.84	
2025-01-08 09:55:11.32	1.01	10.86	
2025-01-08 09:55:11.52	0.99	10.88	
2025-01-08 09:55:11.73	0.96	10.89	
2025-01-08 09:55:11.94	0.93	10.91	
2025-01-08 09:55:12.14	0.91	10.92	
2025-01-08 09:55:12.35	0.88	10.94	
2025-01-08 09:55:12.55	0.86	10.96	
2025-01-08 09:55:12.75	0.83	10.97	
2025-01-08 09:55:12.96	0.81	10.99	
2025-01-08 09:55:13.17	0.78	11.00	
2025-01-08 09:55:13.37	0.75	11.02	
2025-01-08 09:55:13.58	0.73	11.04	
2025-01-08 09:55:13.78	0.70	11.05	
2025-01-08 09:55:13.99	0.68	11.07	
2025-01-08 09:55:14.19	0.65	11.08	
2025-01-08 09:55:14.40	0.63	11.10	
2025-01-08 09:55:14.60	0.60	11.12	
2025-01-08 09:55:14.81	0.57	11.13	
2025-01-08 09:55:15.02	0.55	11.15	
2025-01-08 09:55:15.22	0.52	11.16	
2025-01-08 09:55:15.43	0.49	11.18	
2025-01-08 09:55:15.63	0.47	11.20	
2025-01-08 09:55:15.84	0.44	11.21	
2025-01-08 09:55:16.04	0.42	11.23	
2025-01-08 09:55:16.25	0.39	11.24	
2025-01-08 09:55:16.45	0.36	11.26	
2025-01-08 09:55:16.65	0.34	11.28	
2025-01-08 09:55:16.86	0.31	11.29	
2025-01-08 09:55:17.06	0.29	11.31	
2025-01-08 09:55:17.27	0.26	11.32	
2025-01-08 09:55:17.47	0.23	11.34	
2025-01-08 09:55:17.68	0.21	11.36	
2025-01-08 09:55:17.88	0.18	11.37	
2025-01-08 09:55:18.09	0.15	11.39	
2025-01-08 09:55:18.29	0.13	11.41	
2025-01-08 09:55:18.50	0.10	11.42	
2025-01-08 09:55:18.71	0.07	11.44	
2025-01-08 09:55:18.91	0.05	11.45	
2025-01-08 09:55:19.12	0.02	11.47	
2025-01-08 09:55:19.32	359.99	11.49	
2025-01-08 09:55:19.53	359.97	11.50	
2025-01-08 09:55:19.73	359.94	11.52	
2025-01-08 09:55:19.94	359.91	11.54	
2025-01-08 09:55:20.14	359.89	11.55	
2025-01-08 09:55:20.35	359.86	11.57	
2025-01-08 09:55:20.55	359.83	11.58	
2025-01-08 09:55:20.76	359.81	11.60	
2025-01-08 09:55:20.96	359.78	11.62	
2025-01-08 09:55:21.17	359.75	11.63	
2025-01-08 09:55:21.37	359.73	11.65	
2025-01-08 09:55:21.58	359.70	11.67	
2025-01-08 09:55:21.78	359.67	11.68	
2025-01-08 09:55:21.99	359.64	11.70	
2025-01-08 09:55:22.19	359.62	11.71	
2025-01-08 09:55:22.40	359.59	11.73	
2025-01-08 09:55:22.60	359.56	11.75	
2025-01-08 09:55:22.81	359.54	11.76	
2025-01-08 09:55:23.01	359.51	11.78	
2025-01-08 09:55:23.22	359.48	11.80	
2025-01-08 09:55:23.42	359.45	11.81	
2025-01-08 09:55:23.63	359.43	11.83	
2025-01-08 09:55:23.83	359.40	11.84	
2025-01-08 09:55:24.04	359.37	11.86	
2025-01-08 09:55:24.24	359.34	11.88	
2025-01-08 09:55:24.45	359.32	11.89	
2025-01-08 09:55:24.65	359.29	11.91	
2025-01-08 09:55:24.86	359.26	11.93	
2025-01-08 09:55:25.06	359.23	11.94	
2025-01-08 09:55:25.26	359.21	11.96	
2025-01-08 09:55:25.47	359.18	11.97	
2025-01-08 09:55:25.67	359.15	11.99	
2025-01-08 09:55:25.88	359.12	12.01	
2025-01-08 09:55:26.09	359.10	12.02	
2025-01-08 09:55:26.29	359.07	12.04	
2025-01-08 09:55:26.50	359.04	12.06	
2025-01-08 09:55:26.70	359.01	12.07	
2025-01-08 09:55:26.91	358.98	12.09	
2025-01-08 09:55:27.11	358.96	12.11	
2025-01-08 09:55:27.32	358.93	12.12	
2025-01-08 09:55:27.52	358.90	12.14	
2025-01-08 09:55:27.73	358.87	12.16	
2025-01-08 09:55:27.93	358.84	12.17	
2025-01-08 09:55:28.14	358.82	12.19	
2025-01-08 09:55:28.35	358.79	12.21	
2025-01-08 09:55:28.55	358.76	12.22	
2025-01-08 09:55:28.76	358.73	12.24	
2025-01-08 09:55:28.96	358.70	12.25	
2025-01-08 09:55:29.17	358.67	12.27	
2025-01-08 09:55:29.38	358.65	12.29	
2025-01-08 09:55:29.58	358.62	12.30	
2025-01-08 09:55:29.78	358.59	12.32	
2025-01-08 09:55:29.99	358.56	12.34	
2025-01-08 09:55:30.20	358.53	12.35	
2025-01-08 09:55:30.40	358.50	12.37	
2025-01-08 09:55:30.61	358.47	12.39	
2025-01-08 09:55:30.81	358.45	12.40	
2025-01-08 09:55:31.02	358.42	12.42	
2025-01-08 09:55:31.22	358.39	12.44	
2025-01-08 09:55:31.43	358.36	12.45	
2025-01-08 09:55:31.64	358.33	12.47	
2025-01-08 09:55:31.84	358.30	12.49	
2025-01-08 09:55:32.05	358.27	12.50	
2025-01-08 09:55:32.25	358.25	12.52	
2025-01-08 09:55:32.46	358.22	12.54	
2025-01-08 09:55:32.66	358.19	12.55	
2025-01-08 09:55:32.88	358.16	12.57	
2025-01-08 09:55:33.09	358.13	12.59	
2025-01-08 09:55:33.29	358.10	12.60	
2025-01-08 09:55:33.50	358.07	12.62	
2025-01-08 09:55:33.70	358.04	12.64	
2025-01-08 09:55:33.91	358.01	12.65	
2025-01-08 09:55:34.11	357.98	12.67	
2025-01-08 09:55:34.32	357.95	12.69	
2025-01-08 09:55:34.52	357.92	12.70	
2025-01-08 09:55:34.73	357.89	12.72	
2025-01-08 09:55:34.93	357.87	12.74	
2025-01-08 09:55:35.14	357.84	12.75	
2025-01-08 09:55:35.34	357.81	12.77	
2025-01-08 09:55:35.55	357.78	12.79	
2025-01-08 09:55:35.76	357.75	12.80	
2025-01-08 09:55:35.96	357.72	12.82	
2025-01-08 09:55:36.16	357.69	12.84	
2025-01-08 09:55:36.37	357.66	12.85	
2025-01-08 09:55:36.58	357.63	12.87	
2025-01-08 09:55:36.78	357.60	12.89	
2025-01-08 09:55:36.99	357.57	12.90	
2025-01-08 09:55:37.19	357.54	12.92	
2025-01-08 09:55:37.40	357.51	12.94	
2025-01-08 09:55:37.61	357.48	12.95	
2025-01-08 09:55:37.82	357.45	12.97	
2025-01-08 09:55:38.02	357.42	12.99	
2025-01-08 09:55:38.23	357.39	13.00	
2025-01-08 09:55:38.44	357.36	13.02	
2025-01-08 09:55:38.64	357.33	13.04	
2025-01-08 09:55:38.85	357.30	13.05	
2025-01-08 09:55:39.05	357.27	13.07	
2025-01-08 09:55:39.26	357.24	13.09	
2025-01-08 09:55:39.46	357.21	13.10	
2025-01-08 09:55:39.67	357.18	13.12	
2025-01-08 09:55:39.88	357.15	13.14	
2025-01-08 09:55:40.08	357.12	13.16	
2025-01-08 09:55:40.28	357.09	13.17	
2025-01-08 09:55:40.49	357.06	13.19	
2025-01-08 09:55:40.70	357.03	13.21	
2025-01-08 09:55:40.90	357.00	13.22	
2025-01-08 09:55:41.11	356.97	13.24	
2025-01-08 09:55:41.31	356.94	13.26	
2025-01-08 09:55:41.52	356.90	13.27	
2025-01-08 09:55:41.72	356.88	13.29	
2025-01-08 09:55:41.93	356.84	13.31	
2025-01-08 09:55:42.13	356.81	13.32	
2025-01-08 09:55:42.35	356.78	13.34	
2025-01-08 09:55:42.55	356.75	13.36	
2025-01-08 09:55:42.76	356.72	13.37	
2025-01-08 09:55:42.96	356.69	13.39	
2025-01-08 09:55:43.17	356.66	13.41	
2025-01-08 09:55:43.37	356.63	13.42	
2025-01-08 09:55:43.58	356.60	13.44	
2025-01-08 09:55:43.78	356.57	13.46	
2025-01-08 09:55:43.99	356.53	13.48	
2025-01-08 09:55:44.20	356.50	13.49	
2025-01-08 09:55:44.40	356.47	13.51	
2025-01-08 09:55:44.62	356.44	13.53	
2025-01-08 09:55:44.82	356.41	13.54	
2025-01-08 09:55:45.03	356.38	13.56	
2025-01-08 09:55:45.23	356.35	13.58	
2025-01-08 09:55:45.44	356.31	13.59	
2025-01-08 09:55:45.64	356.28	13.61	
2025-01-08 09:55:45.85	356.25	13.63	
2025-01-08 09:55:46.05	356.22	13.65	
2025-01-08 09:55:46.26	356.19	13.66	
2025-01-08 09:55:46.46	356.16	13.68	
2025-01-08 09:55:46.67	356.13	13.70	
2025-01-08 09:55:46.87	356.10	13.71	
2025-01-08 09:55:47.08	356.06	13.73	
2025-01-08 09:55:47.28	356.03	13.75	
2025-01-08 09:55:47.49	356.00	13.76	
2025-01-08 09:55:47.69	355.97	13.78	
2025-01-08 09:55:47.90	355.94	13.80	
2025-01-08 09:55:48.10	355.91	13.81	
2025-01-08 09:55:48.31	355.87	13.83	
2025-01-08 09:55:48.51	355.84	13.85	
2025-01-08 09:55:48.72	355.81	13.87	
2025-01-08 09:55:48.92	355.78	13.88	
2025-01-08 09:55:49.13	355.75	13.90	
2025-01-08 09:55:49.33	355.72	13.92	
2025-01-08 09:55:49.54	355.68	13.93	
2025-01-08 09:55:49.75	355.65	13.95	
2025-01-08 09:55:49.95	355.62	13.97	
2025-01-08 09:55:50.15	355.59	13.98	
2025-01-08 09:55:50.36	355.55	14.00	
2025-01-08 09:55:50.56	355.52	14.02	
2025-01-08 09:55:50.77	355.49	14.04	
2025-01-08 09:55:50.97	355.46	14.05	
2025-01-08 09:55:51.18	355.43	14.07	
2025-01-08 09:55:51.39	355.39	14.09	
2025-01-08 09:55:51.59	355.36	14.10	
2025-01-08 09:55:51.80	355.33	14.12	
2025-01-08 09:55:52.01	355.29	14.14	
2025-01-08 09:55:52.22	355.26	14.16	
2025-01-08 09:55:52.42	355.23	14.17	
2025-01-08 09:55:52.63	355.20	14.19	
2025-01-08 09:55:52.83	355.16	14.21	
2025-01-08 09:55:53.04	355.13	14.22	
2025-01-08 09:55:53.24	355.10	14.24	
2025-01-08 09:55:53.45	355.06	14.26	
2025-01-08 09:55:53.66	355.03	14.28	
2025-01-08 09:55:53.86	355.00	14.29	
2025-01-08 09:55:54.06	354.97	14.31	
2025-01-08 09:55:54.27	354.93	14.33	
2025-01-08 09:55:54.48	354.90	14.34	
2025-01-08 09:55:54.68	354.87	14.36	
2025-01-08 09:55:54.89	354.83	14.38	
2025-01-08 09:55:55.10	354.80	14.40	
2025-01-08 09:55:55.31	354.77	14.41	
2025-01-08 09:55:55.51	354.73	14.43	
2025-01-08 09:55:55.72	354.70	14.45	
2025-01-08 09:55:55.92	354.67	14.46	
2025-01-08 09:55:56.13	354.63	14.48	
2025-01-08 09:55:56.33	354.60	14.50	
2025-01-08 09:55:56.54	354.57	14.52	
2025-01-08 09:55:56.75	354.53	14.53	
2025-01-08 09:55:56.95	354.50	14.55	
2025-01-08 09:55:57.16	354.46	14.57	
2025-01-08 09:55:57.36	354.43	14.58	
2025-01-08 09:55:57.56	354.40	14.60	
2025-01-08 09:55:57.77	354.37	14.62	
2025-01-08 09:55:57.97	354.33	14.64	
2025-01-08 09:55:58.18	354.30	14.65	
2025-01-08 09:55:58.38	354.26	14.67	
2025-01-08 09:55:58.58	354.23	14.69	
2025-01-08 09:55:58.79	354.20	14.70	
2025-01-08 09:55:59.00	354.16	14.72	
2025-01-08 09:55:59.20	354.13	14.74	
2025-01-08 09:55:59.41	354.09	14.76	
2025-01-08 09:55:59.61	354.06	14.77	
2025-01-08 09:55:59.82	354.03	14.79	
2025-01-08 09:56:00.02	353.99	14.81	
2025-01-08 09:56:00.23	353.96	14.83	
2025-01-08 09:56:00.43	353.92	14.84	
2025-01-08 09:56:00.64	353.89	14.86	
2025-01-08 09:56:00.84	353.86	14.88	
2025-01-08 09:56:01.05	353.82	14.89	
2025-01-08 09:56:01.25	353.79	14.91	
2025-01-08 09:56:01.46	353.75	14.93	
2025-01-08 09:56:01.66	353.72	14.95	
2025-01-08 09:56:01.87	353.68	14.96	
2025-01-08 09:56:02.07	353.65	14.98	
2025-01-08 09:56:02.28	353.61	15.00	
2025-01-08 09:56:02.49	353.58	15.02	
2025-01-08 09:56:02.69	353.54	15.03	
2025-01-08 09:56:02.89	353.51	15.05	
2025-01-08 09:56:03.10	353.48	15.07	
2025-01-08 09:56:03.31	353.44	15.08	
2025-01-08 09:56:03.51	353.41	15.10	
2025-01-08 09:56:03.73	353.37	15.12	
2025-01-08 09:56:03.93	353.33	15.14	
2025-01-08 09:56:04.14	353.30	15.15	
2025-01-08 09:56:04.34	353.26	15.17	
2025-01-08 09:56:04.55	353.23	15.19	
2025-01-08 09:56:04.75	353.19	15.21	
2025-01-08 09:56:04.96	353.16	15.22	
2025-01-08 09:56:05.16	353.12	15.24	
2025-01-08 09:56:05.37	353.09	15.26	
2025-01-08 09:56:05.57	353.05	15.27	
2025-01-08 09:56:05.78	353.02	15.29	
2025-01-08 09:56:05.98	352.98	15.31	
2025-01-08 09:56:06.19	352.95	15.33	
2025-01-08 09:56:06.39	352.91	15.34	
2025-01-08 09:56:06.60	352.88	15.36	
2025-01-08 09:56:06.81	352.84	15.38	
2025-01-08 09:56:07.01	352.80	15.40	
2025-01-08 09:56:07.21	352.77	15.41	
2025-01-08 09:56:07.42	352.73	15.43	
2025-01-08 09:56:07.63	352.70	15.45	
2025-01-08 09:56:07.83	352.66	15.47	
2025-01-08 09:56:08.03	352.63	15.48	
2025-01-08 09:56:08.24	352.59	15.50	
2025-01-08 09:56:08.44	352.55	15.52	
2025-01-08 09:56:08.65	352.52	15.53	
2025-01-08 09:56:08.86	352.48	15.55	
2025-01-08 09:56:09.07	352.44	15.57	
2025-01-08 09:56:09.28	352.41	15.59	
2025-01-08 09:56:09.48	352.37	15.60	
2025-01-08 09:56:09.69	352.33	15.62	
2025-01-08 09:56:09.89	352.30	15.64	
2025-01-08 09:56:10.10	352.26	15.66	
2025-01-08 09:56:10.30	352.23	15.67	
2025-01-08 09:56:10.51	352.19	15.69	
2025-01-08 09:56:10.72	352.15	15.71	
2025-01-08 09:56:10.92	352.12	15.73	
2025-01-08 09:56:11.12	352.08	15.74	
2025-01-08 09:56:11.33	352.04	15.76	
2025-01-08 09:56:11.54	352.01	15.78	
2025-01-08 09:56:11.74	351.97	15.80	
2025-01-08 09:56:11.95	351.93	15.81	
2025-01-08 09:56:12.15	351.90	15.83	
2025-01-08 09:56:12.36	351.86	15.85	
2025-01-08 09:56:12.56	351.82	15.87	
2025-01-08 09:56:12.77	351.79	15.88	
2025-01-08 09:56:12.97	351.75	15.90	
2025-01-08 09:56:13.18	351.71	15.92	
2025-01-08 09:56:13.40	351.67	15.94	
2025-01-08 09:56:13.60	351.64	15.95	
2025-01-08 09:56:13.81	351.60	15.97	
2025-01-08 09:56:14.01	351.56	15.99	
2025-01-08 09:56:14.22	351.52	16.01	
2025-01-08 09:56:14.42	351.49	16.02	
2025-01-08 09:56:14.63	351.45	16.04	
2025-01-08 09:56:14.84	351.41	16.06	
2025-01-08 09:56:15.04	351.37	16.08	
2025-01-08 09:56:15.25	351.34	16.09	
2025-01-08 09:56:15.45	351.30	16.11	
2025-01-08 09:56:15.65	351.26	16.13	
2025-01-08 09:56:15.86	351.22	16.15	
2025-01-08 09:56:16.07	351.19	16.16	
2025-01-08 09:56:16.27	351.15	16.18	
2025-01-08 09:56:16.47	351.11	16.20	
2025-01-08 09:56:16.68	351.07	16.22	
2025-01-08 09:56:16.88	351.04	16.23	
2025-01-08 09:56:17.09	351.00	16.25	
2025-01-08 09:56:17.30	350.96	16.27	
2025-01-08 09:56:17.50	350.92	16.28	
2025-01-08 09:56:17.71	350.88	16.30	
2025-01-08 09:56:17.91	350.85	16.32	
2025-01-08 09:56:18.12	350.81	16.34	
2025-01-08 09:56:18.33	350.77	16.36	
2025-01-08 09:56:18.53	350.73	16.37	
2025-01-08 09:56:18.75	350.69	16.39	
2025-01-08 09:56:18.95	350.65	16.41	
2025-01-08 09:56:19.16	350.61	16.43	
2025-01-08 09:56:19.37	350.57	16.44	
2025-01-08 09:56:19.57	350.54	16.46	
2025-01-08 09:56:19.79	350.49	16.48	
2025-01-08 09:56:20.00	350.45	16.50	
2025-01-08 09:56:20.20	350.42	16.51	
2025-01-08 09:56:20.41	350.38	16.53	
2025-01-08 09:56:20.61	350.34	16.55	
2025-01-08 09:56:20.82	350.30	16.57	
2025-01-08 09:56:21.02	350.26	16.58	
2025-01-08 09:56:21.23	350.22	16.60	
2025-01-08 09:56:21.43	350.18	16.62	
2025-01-08 09:56:21.64	350.14	16.64	
2025-01-08 09:56:21.84	350.11	16.65	
2025-01-08 09:56:22.05	350.07	16.67	
2025-01-08 09:56:22.25	350.03	16.69	
2025-01-08 09:56:22.46	349.99	16.71	
2025-01-08 09:56:22.66	349.95	16.72	
2025-01-08 09:56:22.86	349.91	16.74	
2025-01-08 09:56:23.07	349.87	16.76	
2025-01-08 09:56:23.28	349.83	16.78	
2025-01-08 09:56:23.48	349.79	16.79	
2025-01-08 09:56:23.69	349.75	16.81	
2025-01-08 09:56:23.89	349.71	16.83	
2025-01-08 09:56:24.10	349.67	16.85	
2025-01-08 09:56:24.30	349.64	16.86	
2025-01-08 09:56:24.51	349.59	16.88	
2025-01-08 09:56:24.71	349.56	16.90	
2025-01-08 09:56:24.92	349.52	16.92	
2025-01-08 09:56:25.12	349.48	16.93	
2025-01-08 09:56:25.33	349.44	16.95	
2025-01-08 09:56:25.53	349.40	16.97	
2025-01-08 09:56:25.74	349.36	16.99	
2025-01-08 09:56:25.94	349.32	17.00	
2025-01-08 09:56:26.15	349.28	17.02	
2025-01-08 09:56:26.36	349.23	17.04	
2025-01-08 09:56:26.56	349.20	17.06	
2025-01-08 09:56:26.76	349.16	17.07	
2025-01-08 09:56:26.97	349.12	17.09	
2025-01-08 09:56:27.18	349.07	17.11	
2025-01-08 09:56:27.38	349.03	17.13	
2025-01-08 09:56:27.58	349.00	17.14	
2025-01-08 09:56:27.79	348.95	17.16	
2025-01-08 09:56:28.00	348.91	17.18	
2025-01-08 09:56:28.20	348.87	17.20	
2025-01-08 09:56:28.41	348.83	17.21	
2025-01-08 09:56:28.61	348.79	17.23	
2025-01-08 09:56:28.82	348.75	17.25	
2025-01-08 09:56:29.02	348.71	17.26	
2025-01-08 09:56:29.23	348.67	17.28	
2025-01-08 09:56:29.43	348.63	17.30	
2025-01-08 09:56:29.64	348.59	17.32	
2025-01-08 09:56:29.84	348.55	17.33	
2025-01-08 09:56:30.05	348.50	17.35	
2025-01-08 09:56:30.26	348.46	17.37	
2025-01-08 09:56:30.46	348.42	17.39	
2025-01-08 09:56:30.66	348.38	17.40	
2025-01-08 09:56:30.87	348.34	17.42	
2025-01-08 09:56:31.07	348.30	17.44	
2025-01-08 09:56:31.29	348.26	17.46	
2025-01-08 09:56:31.50	348.21	17.48	
2025-01-08 09:56:31.70	348.17	17.49	
2025-01-08 09:56:31.90	348.13	17.51	
2025-01-08 09:56:32.11	348.09	17.53	
2025-01-08 09:56:32.33	348.05	17.55	
2025-01-08 09:56:32.54	348.00	17.56	
2025-01-08 09:56:32.74	347.96	17.58	
2025-01-08 09:56:32.95	347.92	17.60	
2025-01-08 09:56:33.16	347.88	17.62	
2025-01-08 09:56:33.36	347.84	17.63	
2025-01-08 09:56:33.57	347.79	17.65	
2025-01-08 09:56:33.77	347.75	17.67	
2025-01-08 09:56:33.98	347.71	17.69	
2025-01-08 09:56:34.18	347.67	17.70	
2025-01-08 09:56:34.39	347.63	17.72	
2025-01-08 09:56:34.60	347.58	17.74	
2025-01-08 09:56:34.80	347.54	17.76	
2025-01-08 09:56:35.01	347.50	17.77	
2025-01-08 09:56:35.21	347.46	17.79	
2025-01-08 09:56:35.42	347.41	17.81	
2025-01-08 09:56:35.62	347.37	17.83	
2025-01-08 09:56:35.83	347.33	17.84	
2025-01-08 09:56:36.03	347.29	17.86	
2025-01-08 09:56:36.24	347.24	17.88	
2025-01-08 09:56:36.44	347.20	17.90	
2025-01-08 09:56:36.66	347.16	17.91	
2025-01-08 09:56:36.87	347.11	17.93	
2025-01-08 09:56:37.07	347.07	17.95	
2025-01-08 09:56:37.28	347.03	17.97	
2025-01-08 09:56:37.48	346.98	17.98	
2025-01-08 09:56:37.68	346.94	18.00	
2025-01-08 09:56:37.89	346.90	18.02	
2025-01-08 09:56:38.09	346.86	18.04	
2025-01-08 09:56:38.30	346.81	18.05	
2025-01-08 09:56:38.50	346.77	18.07	
2025-01-08 09:56:38.71	346.73	18.09	
2025-01-08 09:56:38.91	346.68	18.10	
2025-01-08 09:56:39.12	346.64	18.12	
2025-01-08 09:56:39.32	346.60	18.14	
2025-01-08 09:56:39.53	346.55	18.16	
2025-01-08 09:56:39.73	346.51	18.17	
2025-01-08 09:56:39.94	346.47	18.19	
2025-01-08 09:56:40.14	346.42	18.21	
2025-01-08 09:56:40.35	346.38	18.23	
2025-01-08 09:56:40.55	346.34	18.24	
2025-01-08 09:56:40.76	346.29	18.26	
2025-01-08 09:56:40.97	346.25	18.28	
2025-01-08 09:56:41.18	346.20	18.30	
2025-01-08 09:56:41.39	346.16	18.31	
2025-01-08 09:56:41.59	346.11	18.33	
2025-01-08 09:56:41.80	346.07	18.35	
2025-01-08 09:56:42.00	346.03	18.37	
2025-01-08 09:56:42.21	345.98	18.38	
2025-01-08 09:56:42.41	345.94	18.40	
2025-01-08 09:56:42.62	345.89	18.42	
2025-01-08 09:56:42.82	345.85	18.44	
2025-01-08 09:56:43.03	345.80	18.45	
2025-01-08 09:56:43.23	345.76	18.47	
2025-01-08 09:56:43.44	345.72	18.49	
2025-01-08 09:56:43.64	345.67	18.50	
2025-01-08 09:56:43.85	345.63	18.52	
2025-01-08 09:56:44.05	345.58	18.54	
2025-01-08 09:56:44.26	345.54	18.56	
2025-01-08 09:56:44.46	345.49	18.57	
2025-01-08 09:56:44.67	345.45	18.59	
2025-01-08 09:56:44.87	345.40	18.61	
2025-01-08 09:56:45.08	345.36	18.63	
2025-01-08 09:56:45.28	345.31	18.64	
2025-01-08 09:56:45.49	345.27	18.66	
2025-01-08 09:56:45.70	345.22	18.68	
2025-01-08 09:56:45.90	345.18	18.70	
2025-01-08 09:56:46.11	345.13	18.71	
2025-01-08 09:56:46.31	345.09	18.73	
2025-01-08 09:56:46.51	345.04	18.75	
2025-01-08 09:56:46.72	345.00	18.76	
2025-01-08 09:56:46.92	344.95	18.78	
2025-01-08 09:56:47.13	344.91	18.80	
2025-01-08 09:56:47.35	344.86	18.82	
2025-01-08 09:56:47.55	344.81	18.83	
2025-01-08 09:56:47.76	344.77	18.85	
2025-01-08 09:56:47.96	344.72	18.87	
2025-01-08 09:56:48.17	344.68	18.89	
2025-01-08 09:56:48.37	344.63	18.90	
2025-01-08 09:56:48.58	344.58	18.92	
2025-01-08 09:56:48.78	344.54	18.94	
2025-01-08 09:56:48.99	344.49	18.95	
2025-01-08 09:56:49.19	344.45	18.97	
2025-01-08 09:56:49.40	344.40	18.99	
2025-01-08 09:56:49.60	344.35	19.01	
2025-01-08 09:56:49.81	344.31	19.02	
2025-01-08 09:56:50.02	344.26	19.04	
2025-01-08 09:56:50.22	344.22	19.06	
2025-01-08 09:56:50.43	344.17	19.07	
2025-01-08 09:56:50.63	344.12	19.09	
2025-01-08 09:56:50.84	344.07	19.11	
2025-01-08 09:56:51.04	344.03	19.13	
2025-01-08 09:56:51.25	343.98	19.14	
2025-01-08 09:56:51.45	343.94	19.16	
2025-01-08 09:56:51.67	343.89	19.18	
2025-01-08 09:56:51.88	343.84	19.20	
2025-01-08 09:56:52.08	343.79	19.21	
2025-01-08 09:56:52.29	343.75	19.23	
2025-01-08 09:56:52.49	343.70	19.25	
2025-01-08 09:56:52.70	343.65	19.26	
2025-01-08 09:56:52.90	343.61	19.28	
2025-01-08 09:56:53.11	343.56	19.30	
2025-01-08 09:56:53.32	343.51	19.32	
2025-01-08 09:56:53.52	343.46	19.33	
2025-01-08 09:56:53.72	343.42	19.35	
2025-01-08 09:56:53.93	343.37	19.37	
2025-01-08 09:56:54.14	343.32	19.38	
2025-01-08 09:56:54.34	343.27	19.40	
2025-01-08 09:56:54.55	343.23	19.42	
2025-01-08 09:56:54.75	343.18	19.43	
2025-01-08 09:56:54.96	343.13	19.45	
2025-01-08 09:56:55.17	343.08	19.47	
2025-01-08 09:56:55.37	343.04	19.49	
2025-01-08 09:56:55.58	342.99	19.50	
2025-01-08 09:56:55.78	342.94	19.52	
2025-01-08 09:56:55.99	342.89	19.54	
2025-01-08 09:56:56.19	342.84	19.55	
2025-01-08 09:56:56.40	342.79	19.57	
2025-01-08 09:56:56.60	342.75	19.59	
2025-01-08 09:56:56.81	342.70	19.60	
2025-01-08 09:56:57.01	342.65	19.62	
2025-01-08 09:56:57.22	342.60	19.64	
2025-01-08 09:56:57.42	342.56	19.66	
2025-01-08 09:56:57.63	342.51	19.67	
2025-01-08 09:56:57.83	342.46	19.69	
2025-01-08 09:56:58.04	342.41	19.71	
2025-01-08 09:56:58.24	342.36	19.72	
2025-01-08 09:56:58.45	342.31	19.74	
2025-01-08 09:56:58.65	342.27	19.76	
2025-01-08 09:56:58.86	342.22	19.77	
2025-01-08 09:56:59.06	342.17	19.79	
2025-01-08 09:56:59.27	342.12	19.81	
2025-01-08 09:56:59.48	342.07	19.82	
2025-01-08 09:56:59.68	342.02	19.84	
2025-01-08 09:56:59.89	341.97	19.86	
2025-01-08 09:57:00.09	341.92	19.87	
2025-01-08 09:57:00.30	341.87	19.89	
2025-01-08 09:57:00.50	341.82	19.91	
2025-01-08 09:57:00.72	341.77	19.93	
2025-01-08 09:57:00.92	341.72	19.94	
2025-01-08 09:57:01.13	341.67	19.96	
2025-01-08 09:57:01.34	341.62	19.98	
2025-01-08 09:57:01.54	341.57	19.99	
2025-01-08 09:57:01.75	341.52	20.01	
2025-01-08 09:57:01.95	341.48	20.03	
2025-01-08 09:57:02.16	341.42	20.04	
2025-01-08 09:57:02.38	341.37	20.06	
2025-01-08 09:57:02.58	341.32	20.08	
2025-01-08 09:57:02.79	341.27	20.09	
2025-01-08 09:57:02.99	341.22	20.11	
2025-01-08 09:57:03.20	341.17	20.13	
2025-01-08 09:57:03.40	341.12	20.14	
2025-01-08 09:57:03.60	341.08	20.16	
2025-01-08 09:57:03.81	341.02	20.18	
2025-01-08 09:57:04.01	340.98	20.19	
2025-01-08 09:57:04.22	340.92	20.21	
2025-01-08 09:57:04.42	340.87	20.23	
2025-01-08 09:57:04.63	340.82	20.24	
2025-01-08 09:57:04.83	340.77	20.26	
2025-01-08 09:57:05.04	340.72	20.28	
2025-01-08 09:57:05.25	340.67	20.29	
2025-01-08 09:57:05.45	340.62	20.31	
2025-01-08 09:57:05.65	340.57	20.33	
2025-01-08 09:57:05.86	340.52	20.34	
2025-01-08 09:57:06.06	340.47	20.36	
2025-01-08 09:57:06.27	340.42	20.38	
2025-01-08 09:57:06.47	340.37	20.39	
2025-01-08 09:57:06.68	340.32	20.41	
2025-01-08 09:57:06.88	340.27	20.43	
2025-01-08 09:57:07.09	340.22	20.44	
2025-01-08 09:57:07.30	340.16	20.46	
2025-01-08 09:57:07.50	340.11	20.48	
2025-01-08 09:57:07.70	340.06	20.49	
2025-01-08 09:57:07.91	340.01	20.51	
2025-01-08 09:57:08.12	339.96	20.52	
2025-01-08 09:57:08.32	339.91	20.54	
2025-01-08 09:57:08.53	339.86	20.56	
2025-01-08 09:57:08.73	339.81	20.57	
2025-01-08 09:57:08.94	339.75	20.59	
2025-01-08 09:57:09.14	339.70	20.61	
2025-01-08 09:57:09.35	339.65	20.62	
2025-01-08 09:57:09.55	339.60	20.64	
2025-01-08 09:57:09.77	339.54	20.66	
2025-01-08 09:57:09.98	339.49	20.67	
2025-01-08 09:57:10.18	339.44	20.69	
2025-01-08 09:57:10.39	339.39	20.71	
2025-01-08 09:57:10.60	339.34	20.72	
2025-01-08 09:57:10.80	339.28	20.74	
2025-01-08 09:57:11.00	339.23	20.75	
2025-01-08 09:57:11.21	339.18	20.77	
2025-01-08 09:57:11.42	339.13	20.79	
2025-01-08 09:57:11.62	339.08	20.80	
2025-01-08 09:57:11.82	339.02	20.82	
2025-01-08 09:57:12.03	338.97	20.84	
2025-01-08 09:57:12.24	338.92	20.85	
2025-01-08 09:57:12.44	338.87	20.87	
2025-01-08 09:57:12.65	338.81	20.88	
2025-01-08 09:57:12.85	338.76	20.90	
2025-01-08 09:57:13.06	338.71	20.92	
2025-01-08 09:57:13.28	338.65	20.93	
2025-01-08 09:57:13.48	338.60	20.95	
2025-01-08 09:57:13.69	338.55	20.97	
2025-01-08 09:57:13.89	338.49	20.98	
2025-01-08 09:57:14.09	338.44	21.00	
2025-01-08 09:57:14.30	338.39	21.01	
2025-01-08 09:57:14.51	338.33	21.03	
2025-01-08 09:57:14.71	338.28	21.05	
2025-01-08 09:57:14.92	338.23	21.06	
2025-01-08 09:57:15.12	338.18	21.08	
2025-01-08 09:57:15.33	338.12	21.09	
2025-01-08 09:57:15.53	338.07	21.11	
2025-01-08 09:57:15.74	338.01	21.13	
2025-01-08 09:57:15.95	337.96	21.14	
2025-01-08 09:57:16.15	337.91	21.16	
2025-01-08 09:57:16.35	337.85	21.17	
2025-01-08 09:57:16.56	337.80	21.19	
2025-01-08 09:57:16.77	337.74	21.21	
2025-01-08 09:57:16.97	337.69	21.22	
2025-01-08 09:57:17.18	337.64	21.24	
2025-01-08 09:57:17.38	337.58	21.25	
2025-01-08 09:57:17.59	337.53	21.27	
2025-01-08 09:57:17.79	337.48	21.28	
2025-01-08 09:57:18.00	337.42	21.30	
2025-01-08 09:57:18.20	337.37	21.32	
2025-01-08 09:57:18.40	337.32	21.33	
2025-01-08 09:57:18.61	337.26	21.35	
2025-01-08 09:57:18.81	337.21	21.36	
2025-01-08 09:57:19.02	337.15	21.38	
2025-01-08 09:57:19.23	337.10	21.39	
2025-01-08 09:57:19.45	337.04	21.41	
2025-01-08 09:57:19.65	336.98	21.43	
2025-01-08 09:57:19.86	336.93	21.44	
2025-01-08 09:57:20.06	336.88	21.46	
2025-01-08 09:57:20.27	336.82	21.47	
2025-01-08 09:57:20.49	336.76	21.49	
2025-01-08 09:57:20.69	336.71	21.51	
2025-01-08 09:57:20.90	336.65	21.52	
2025-01-08 09:57:21.10	336.60	21.54	
2025-01-08 09:57:21.31	336.54	21.55	
2025-01-08 09:57:21.51	336.49	21.57	
2025-01-08 09:57:21.72	336.43	21.58	
2025-01-08 09:57:21.92	336.38	21.60	
2025-01-08 09:57:22.13	336.32	21.61	
2025-01-08 09:57:22.34	336.26	21.63	
2025-01-08 09:57:22.54	336.21	21.64	
2025-01-08 09:57:22.74	336.16	21.66	
2025-01-08 09:57:22.95	336.10	21.68	
2025-01-08 09:57:23.16	336.04	21.69	
2025-01-08 09:57:23.36	335.99	21.71	
2025-01-08 09:57:23.57	335.93	21.72	
2025-01-08 09:57:23.77	335.88	21.74	
2025-01-08 09:57:23.98	335.82	21.75	
2025-01-08 09:57:24.18	335.76	21.77	
2025-01-08 09:57:24.39	335.71	21.78	
2025-01-08 09:57:24.59	335.65	21.80	
2025-01-08 09:57:24.79	335.60	21.81	
2025-01-08 09:57:25.00	335.54	21.83	
2025-01-08 09:57:25.21	335.48	21.84	
2025-01-08 09:57:25.41	335.43	21.86	
2025-01-08 09:57:25.62	335.37	21.87	
2025-01-08 09:57:25.83	335.31	21.89	
2025-01-08 09:57:26.04	335.26	21.90	
2025-01-08 09:57:26.24	335.20	21.92	
2025-01-08 09:57:26.45	335.14	21.93	
2025-01-08 09:57:26.65	335.09	21.95	
2025-01-08 09:57:26.87	335.03	21.97	
2025-01-08 09:57:27.08	334.97	21.98	
2025-01-08 09:57:27.28	334.91	22.00	
2025-01-08 09:57:27.49	334.86	22.01	
2025-01-08 09:57:27.69	334.80	22.03	
2025-01-08 09:57:27.90	334.74	22.04	
2025-01-08 09:57:28.10	334.69	22.06	
2025-01-08 09:57:28.31	334.63	22.07	
2025-01-08 09:57:28.51	334.57	22.09	
2025-01-08 09:57:28.71	334.52	22.10	
2025-01-08 09:57:28.92	334.46	22.11	
2025-01-08 09:57:29.12	334.40	22.13	
2025-01-08 09:57:29.33	334.34	22.14	
2025-01-08 09:57:29.54	334.29	22.16	
2025-01-08 09:57:29.74	334.23	22.17	
2025-01-08 09:57:29.95	334.17	22.19	
2025-01-08 09:57:30.17	334.11	22.20	
2025-01-08 09:57:30.37	334.05	22.22	
2025-01-08 09:57:30.58	333.99	22.23	
2025-01-08 09:57:30.78	333.94	22.25	
2025-01-08 09:57:30.99	333.88	22.26	
2025-01-08 09:57:31.21	333.82	22.28	
2025-01-08 09:57:31.41	333.76	22.29	
2025-01-08 09:57:31.62	333.70	22.31	
2025-01-08 09:57:31.82	333.64	22.32	
2025-01-08 09:57:32.03	333.58	22.34	
2025-01-08 09:57:32.23	333.53	22.35	
2025-01-08 09:57:32.44	333.47	22.37	
2025-01-08 09:57:32.65	333.41	22.38	
2025-01-08 09:57:32.85	333.35	22.39	
2025-01-08 09:57:33.06	333.29	22.41	
2025-01-08 09:57:33.26	333.24	22.42	
2025-01-08 09:57:33.47	333.18	22.44	
2025-01-08 09:57:33.67	333.12	22.45	
2025-01-08 09:57:33.88	333.06	22.47	
2025-01-08 09:57:34.08	333.00	22.48	
2025-01-08 09:57:34.29	332.94	22.50	
2025-01-08 09:57:34.49	332.88	22.51	
2025-01-08 09:57:34.70	332.82	22.52	
2025-01-08 09:57:34.91	332.76	22.54	
2025-01-08 09:57:35.11	332.71	22.55	
2025-01-08 09:57:35.32	332.65	22.57	
2025-01-08 09:57:35.52	332.59	22.58	
2025-01-08 09:57:35.72	332.53	22.59	
2025-01-08 09:57:35.93	332.47	22.61	
2025-01-08 09:57:36.13	332.41	22.62	
2025-01-08 09:57:36.34	332.35	22.64	
2025-01-08 09:57:36.54	332.29	22.65	
2025-01-08 09:57:36.75	332.23	22.66	
2025-01-08 09:57:36.96	332.17	22.68	
2025-01-08 09:57:37.16	332.11	22.69	
2025-01-08 09:57:37.37	332.05	22.71	
2025-01-08 09:57:37.57	331.99	22.72	
2025-01-08 09:57:37.78	331.93	22.73	
2025-01-08 09:57:37.98	331.88	22.75	
2025-01-08 09:57:38.19	331.81	22.76	
2025-01-08 09:57:38.39	331.76	22.78	
2025-01-08 09:57:38.60	331.69	22.79	
2025-01-08 09:57:38.80	331.64	22.80	
2025-01-08 09:57:39.01	331.57	22.82	
2025-01-08 09:57:39.21	331.52	22.83	
2025-01-08 09:57:39.42	331.45	22.84	
2025-01-08 09:57:39.62	331.40	22.86	
2025-01-08 09:57:39.83	331.33	22.87	
2025-01-08 09:57:40.03	331.28	22.89	
2025-01-08 09:57:40.24	331.21	22.90	
2025-01-08 09:57:40.45	331.15	22.91	
2025-01-08 09:57:40.65	331.09	22.93	
2025-01-08 09:57:40.86	331.03	22.94	
2025-01-08 09:57:41.06	330.97	22.95	
2025-01-08 09:57:41.27	330.91	22.97	
2025-01-08 09:57:41.47	330.85	22.98	
2025-01-08 09:57:41.68	330.79	22.99	
2025-01-08 09:57:41.88	330.73	23.01	
2025-01-08 09:57:42.09	330.67	23.02	
2025-01-08 09:57:42.29	330.61	23.03	
2025-01-08 09:57:42.50	330.55	23.05	
2025-01-08 09:57:42.70	330.49	23.06	
2025-01-08 09:57:42.91	330.42	23.07	
2025-01-08 09:57:43.11	330.36	23.09	
2025-01-08 09:57:43.32	330.30	23.10	
2025-01-08 09:57:43.52	330.24	23.11	
2025-01-08 09:57:43.73	330.18	23.13	
2025-01-08 09:57:43.93	330.12	23.14	
2025-01-08 09:57:44.14	330.06	23.15	
2025-01-08 09:57:44.34	330.00	23.17	
2025-01-08 09:57:44.55	329.93	23.18	
2025-01-08 09:57:44.75	329.87	23.19	
2025-01-08 09:57:44.96	329.81	23.20	
2025-01-08 09:57:45.16	329.75	23.22	
2025-01-08 09:57:45.37	329.69	23.23	
2025-01-08 09:57:45.57	329.63	23.24	
2025-01-08 09:57:45.78	329.56	23.26	
2025-01-08 09:57:45.99	329.50	23.27	
2025-01-08 09:57:46.19	329.44	23.28	
2025-01-08 09:57:46.40	329.38	23.30	
2025-01-08 09:57:46.60	329.32	23.31	
2025-01-08 09:57:46.81	329.25	23.32	
2025-01-08 09:57:47.01	329.19	23.33	
2025-01-08 09:57:47.22	329.13	23.35	
2025-01-08 09:57:47.42	329.07	23.36	
2025-01-08 09:57:47.63	329.00	23.37	
2025-01-08 09:57:47.83	328.94	23.38	
2025-01-08 09:57:48.04	328.88	23.40	
2025-01-08 09:57:48.24	328.82	23.41	
2025-01-08 09:57:48.46	328.75	23.42	
2025-01-08 09:57:48.66	328.69	23.43	
2025-01-08 09:57:48.87	328.63	23.45	
2025-01-08 09:57:49.07	328.57	23.46	
2025-01-08 09:57:49.28	328.50	23.47	
2025-01-08 09:57:49.48	328.44	23.48	
2025-01-08 09:57:49.69	328.38	23.50	
2025-01-08 09:57:49.89	328.31	23.51	
2025-01-08 09:57:50.10	328.25	23.52	
2025-01-08 09:57:50.30	328.19	23.53	
2025-01-08 09:57:50.51	328.12	23.55	
2025-01-08 09:57:50.71	328.06	23.56	
2025-01-08 09:57:50.92	328.00	23.57	
2025-01-08 09:57:51.12	327.94	23.58	
2025-01-08 09:57:51.33	327.87	23.59	
2025-01-08 09:57:51.53	327.81	23.61	
2025-01-08 09:57:51.74	327.75	23.62	
2025-01-08 09:57:51.94	327.68	23.63	
2025-01-08 09:57:52.15	327.62	23.64	
2025-01-08 09:57:52.35	327.56	23.65	
2025-01-08 09:57:52.56	327.49	23.67	
2025-01-08 09:57:52.76	327.43	23.68	
2025-01-08 09:57:52.97	327.36	23.69	
2025-01-08 09:57:53.18	327.30	23.70	
2025-01-08 09:57:53.38	327.24	23.71	
2025-01-08 09:57:53.59	327.17	23.73	
2025-01-08 09:57:53.79	327.11	23.74	
2025-01-08 09:57:54.00	327.04	23.75	
2025-01-08 09:57:54.20	326.98	23.76	
2025-01-08 09:57:54.40	326.92	23.77	
2025-01-08 09:57:54.61	326.85	23.78	
2025-01-08 09:57:54.81	326.79	23.79	
2025-01-08 09:57:55.02	326.73	23.81	
2025-01-08 09:57:55.23	326.66	23.82	
2025-01-08 09:57:55.43	326.60	23.83	
2025-01-08 09:57:55.64	326.53	23.84	
2025-01-08 09:57:55.84	326.47	23.85	
2025-01-08 09:57:56.05	326.40	23.86	
2025-01-08 09:57:56.25	326.34	23.87	
2025-01-08 09:57:56.46	326.27	23.89	
2025-01-08 09:57:56.66	326.21	23.90	
2025-01-08 09:57:56.87	326.14	23.91	
2025-01-08 09:57:57.07	326.08	23.92	
2025-01-08 09:57:57.28	326.02	23.93	
2025-01-08 09:57:57.48	325.95	23.94	
2025-01-08 09:57:57.69	325.89	23.95	
2025-01-08 09:57:57.89	325.82	23.96	
2025-01-08 09:57:58.10	325.76	23.98	
2025-01-08 09:57:58.30	325.69	23.99	
2025-01-08 09:57:58.51	325.63	24.00	
2025-01-08 09:57:58.71	325.56	24.01	
2025-01-08 09:57:58.92	325.50	24.02	
2025-01-08 09:57:59.12	325.43	24.03	
2025-01-08 09:57:59.33	325.37	24.04	
2025-01-08 09:57:59.53	325.30	24.05	
2025-01-08 09:57:59.74	325.24	24.06	
2025-01-08 09:57:59.95	325.17	24.07	
2025-01-08 09:58:00.15	325.11	24.08	
2025-01-08 09:58:00.35	325.04	24.09	
2025-01-08 09:58:00.56	324.97	24.11	
2025-01-08 09:58:00.77	324.91	24.12	
2025-01-08 09:58:00.97	324.84	24.13	
2025-01-08 09:58:01.17	324.78	24.14	
2025-01-08 09:58:01.38	324.71	24.15	
2025-01-08 09:58:01.58	324.65	24.16	
2025-01-08 09:58:01.79	324.58	24.17	
2025-01-08 09:58:01.99	324.52	24.18	
2025-01-08 09:58:02.20	324.45	24.19	
2025-01-08 09:58:02.40	324.39	24.20	
2025-01-08 09:58:02.61	324.32	24.21	
2025-01-08 09:58:02.81	324.25	24.22	
2025-01-08 09:58:03.02	324.19	24.23	
2025-01-08 09:58:03.23	324.12	24.24	
2025-01-08 09:58:03.44	324.05	24.25	
2025-01-08 09:58:03.65	323.98	24.26	
2025-01-08 09:58:03.86	323.92	24.27	
2025-01-08 09:58:04.06	323.85	24.28	
2025-01-08 09:58:04.27	323.78	24.29	
2025-01-08 09:58:04.47	323.72	24.30	
2025-01-08 09:58:04.67	323.65	24.31	
2025-01-08 09:58:04.88	323.59	24.32	
2025-01-08 09:58:05.09	323.52	24.33	
2025-01-08 09:58:05.29	323.45	24.34	
2025-01-08 09:58:05.50	323.38	24.35	
2025-01-08 09:58:05.70	323.32	24.36	
2025-01-08 09:58:05.91	323.25	24.37	
2025-01-08 09:58:06.11	323.19	24.38	
2025-01-08 09:58:06.32	323.12	24.39	
2025-01-08 09:58:06.52	323.05	24.40	
2025-01-08 09:58:06.73	322.98	24.41	
2025-01-08 09:58:06.93	322.92	24.42	
2025-01-08 09:58:07.14	322.85	24.43	
2025-01-08 09:58:07.34	322.79	24.44	
2025-01-08 09:58:07.55	322.72	24.45	
2025-01-08 09:58:07.75	322.65	24.46	
2025-01-08 09:58:07.96	322.58	24.47	
2025-01-08 09:58:08.16	322.52	24.47	
2025-01-08 09:58:08.37	322.45	24.48	
2025-01-08 09:58:08.57	322.38	24.49	
2025-01-08 09:58:08.78	322.31	24.50	
2025-01-08 09:58:08.98	322.25	24.51	
2025-01-08 09:58:09.19	322.18	24.52	
2025-01-08 09:58:09.40	322.11	24.53	
2025-01-08 09:58:09.60	322.05	24.54	
2025-01-08 09:58:09.81	321.98	24.55	
2025-01-08 09:58:10.01	321.91	24.56	
2025-01-08 09:58:10.22	321.84	24.57	
2025-01-08 09:58:10.42	321.78	24.57	
2025-01-08 09:58:10.63	321.71	24.58	
2025-01-08 09:58:10.83	321.64	24.59	
2025-01-08 09:58:11.03	321.57	24.60	
2025-01-08 09:58:11.24	321.51	24.61	
2025-01-08 09:58:11.44	321.44	24.62	
2025-01-08 09:58:11.65	321.37	24.63	
2025-01-08 09:58:11.85	321.30	24.64	
2025-01-08 09:58:12.06	321.23	24.64	
2025-01-08 09:58:12.27	321.16	24.65	
2025-01-08 09:58:12.47	321.10	24.66	
2025-01-08 09:58:12.68	321.03	24.67	
2025-01-08 09:58:12.88	320.96	24.68	
2025-01-08 09:58:13.09	320.89	24.69	
2025-01-08 09:58:13.29	320.83	24.69	
2025-01-08 09:58:13.50	320.76	24.70	
2025-01-08 09:58:13.70	320.69	24.71	
2025-01-08 09:58:13.91	320.62	24.72	
2025-01-08 09:58:14.11	320.55	24.73	
2025-01-08 09:58:14.32	320.48	24.74	
2025-01-08 09:58:14.52	320.42	24.74	
2025-01-08 09:58:14.73	320.35	24.75	
2025-01-08 09:58:14.93	320.28	24.76	
2025-01-08 09:58:15.14	320.21	24.77	
2025-01-08 09:58:15.34	320.14	24.78	
2025-01-08 09:58:15.55	320.07	24.78	
2025-01-08 09:58:15.75	320.01	24.79	
2025-01-08 09:58:15.96	319.94	24.80	
2025-01-08 09:58:16.16	319.87	24.81	
2025-01-08 09:58:16.37	319.80	24.82	
2025-01-08 09:58:16.57	319.73	24.82	
2025-01-08 09:58:16.78	319.66	24.83	
2025-01-08 09:58:16.99	319.59	24.84	
2025-01-08 09:58:17.19	319.52	24.85	
2025-01-08 09:58:17.40	319.45	24.85	
2025-01-08 09:58:17.60	319.39	24.86	
2025-01-08 09:58:17.81	319.32	24.87	
2025-01-08 09:58:18.01	319.25	24.88	
2025-01-08 09:58:18.21	319.18	24.88	
2025-01-08 09:58:18.42	319.11	24.89	
2025-01-08 09:58:18.62	319.04	24.90	
2025-01-08 09:58:18.83	318.97	24.90	
2025-01-08 09:58:19.03	318.91	24.91	
2025-01-08 09:58:19.24	318.83	24.92	
2025-01-08 09:58:19.45	318.76	24.93	
2025-01-08 09:58:19.65	318.70	24.93	
2025-01-08 09:58:19.86	318.63	24.94	
2025-01-08 09:58:20.06	318.56	24.95	
2025-01-08 09:58:20.27	318.49	24.95	
2025-01-08 09:58:20.47	318.42	24.96	
2025-01-08 09:58:20.68	318.35	24.97	
2025-01-08 09:58:20.88	318.28	24.97	
2025-01-08 09:58:21.09	318.21	24.98	
2025-01-08 09:58:21.29	318.14	24.99	
2025-01-08 09:58:21.50	318.07	25.00	
2025-01-08 09:58:21.70	318.00	25.00	
2025-01-08 09:58:21.91	317.93	25.01	
2025-01-08 09:58:22.12	317.86	25.02	
2025-01-08 09:58:22.32	317.79	25.02	
2025-01-08 09:58:22.53	317.72	25.03	
2025-01-08 09:58:22.73	317.65	25.03	
2025-01-08 09:58:22.94	317.58	25.04	
2025-01-08 09:58:23.14	317.51	25.05	
2025-01-08 09:58:23.35	317.44	25.05	
2025-01-08 09:58:23.55	317.37	25.06	
2025-01-08 09:58:23.76	317.30	25.07	
2025-01-08 09:58:23.96	317.24	25.07	
2025-01-08 09:58:24.17	317.16	25.08	
2025-01-08 09:58:24.37	317.10	25.08	
2025-01-08 09:58:24.58	317.02	25.09	
2025-01-08 09:58:24.80	316.95	25.10	
2025-01-08 09:58:25.00	316.88	25.10	
2025-01-08 09:58:25.21	316.81	25.11	
2025-01-08 09:58:25.42	316.74	25.11	
2025-01-08 09:58:25.62	316.67	25.12	
2025-01-08 09:58:25.83	316.60	25.13	
2025-01-08 09:58:26.03	316.53	25.13	
2025-01-08 09:58:26.24	316.46	25.14	
2025-01-08 09:58:26.44	316.39	25.14	
2025-01-08 09:58:26.65	316.32	25.15	
2025-01-08 09:58:26.85	316.25	25.15	
2025-01-08 09:58:27.06	316.18	25.16	
2025-01-08 09:58:27.27	316.10	25.17	
2025-01-08 09:58:27.47	316.04	25.17	
2025-01-08 09:58:27.68	315.96	25.18	
2025-01-08 09:58:27.88	315.90	25.18	
2025-01-08 09:58:28.09	315.82	25.19	
2025-01-08 09:58:28.29	315.75	25.19	
2025-01-08 09:58:28.50	315.68	25.20	
2025-01-08 09:58:28.71	315.61	25.20	
2025-01-08 09:58:28.91	315.54	25.21	
2025-01-08 09:58:29.12	315.47	25.21	
2025-01-08 09:58:29.32	315.40	25.22	
2025-01-08 09:58:29.53	315.33	25.22	
2025-01-08 09:58:29.73	315.26	25.23	
2025-01-08 09:58:29.94	315.19	25.23	
2025-01-08 09:58:30.14	315.12	25.24	
2025-01-08 09:58:30.35	315.05	25.24	
2025-01-08 09:58:30.55	314.98	25.25	
2025-01-08 09:58:30.76	314.90	25.25	
2025-01-08 09:58:30.96	314.84	25.26	
2025-01-08 09:58:31.18	314.76	25.26	
2025-01-08 09:58:31.39	314.69	25.27	
2025-01-08 09:58:31.59	314.62	25.27	
2025-01-08 09:58:31.80	314.55	25.27	
2025-01-08 09:58:32.00	314.48	25.28	
2025-01-08 09:58:32.20	314.41	25.28	
2025-01-08 09:58:32.41	314.33	25.29	
2025-01-08 09:58:32.62	314.26	25.29	
2025-01-08 09:58:32.82	314.19	25.30	
2025-01-08 09:58:33.03	314.12	25.30	
2025-01-08 09:58:33.23	314.05	25.30	
2025-01-08 09:58:33.44	313.98	25.31	
2025-01-08 09:58:33.65	313.91	25.31	
2025-01-08 09:58:33.85	313.84	25.32	
2025-01-08 09:58:34.06	313.76	25.32	
2025-01-08 09:58:34.26	313.69	25.33	
2025-01-08 09:58:34.47	313.62	25.33	
2025-01-08 09:58:34.67	313.55	25.33	
2025-01-08 09:58:34.88	313.48	25.34	
2025-01-08 09:58:35.08	313.41	25.34	
2025-01-08 09:58:35.29	313.34	25.34	
2025-01-08 09:58:35.49	313.27	25.35	
2025-01-08 09:58:35.69	313.20	25.35	
2025-01-08 09:58:35.90	313.13	25.35	
2025-01-08 09:58:36.10	313.06	25.36	
2025-01-08 09:58:36.31	312.98	25.36	
2025-01-08 09:58:36.51	312.91	25.37	
2025-01-08 09:58:36.72	312.84	25.37	
2025-01-08 09:58:36.92	312.77	25.37	
2025-01-08 09:58:37.13	312.70	25.38	
2025-01-08 09:58:37.34	312.63	25.38	
2025-01-08 09:58:37.54	312.56	25.38	
2025-01-08 09:58:37.75	312.48	25.38	
2025-01-08 09:58:37.95	312.41	25.39	
2025-01-08 09:58:38.16	312.34	25.39	
2025-01-08 09:58:38.37	312.27	25.39	
2025-01-08 09:58:38.57	312.20	25.40	
2025-01-08 09:58:38.77	312.13	25.40	
2025-01-08 09:58:38.98	312.06	25.40	
2025-01-08 09:58:39.19	311.98	25.41	
2025-01-08 09:58:39.39	311.91	25.41	
2025-01-08 09:58:39.60	311.84	25.41	
2025-01-08 09:58:39.80	311.77	25.41	
2025-01-08 09:58:40.01	311.70	25.42	
2025-01-08 09:58:40.21	311.63	25.42	
2025-01-08 09:58:40.42	311.55	25.42	
2025-01-08 09:58:40.62	311.48	25.42	
2025-01-08 09:58:40.84	311.41	25.43	
2025-01-08 09:58:41.05	311.33	25.43	
2025-01-08 09:58:41.25	311.26	25.43	
2025-01-08 09:58:41.46	311.19	25.43	
2025-01-08 09:58:41.66	311.12	25.44	
2025-01-08 09:58:41.87	311.05	25.44	
2025-01-08 09:58:42.07	310.98	25.44	
2025-01-08 09:58:42.28	310.90	25.44	
2025-01-08 09:58:42.48	310.83	25.44	
2025-01-08 09:58:42.69	310.76	25.45	
2025-01-08 09:58:42.89	310.69	25.45	
2025-01-08 09:58:43.10	310.62	25.45	
2025-01-08 09:58:43.30	310.55	25.45	
2025-01-08 09:58:43.51	310.47	25.45	
2025-01-08 09:58:43.72	310.40	25.46	
2025-01-08 09:58:43.92	310.33	25.46	
2025-01-08 09:58:44.13	310.26	25.46	
2025-01-08 09:58:44.33	310.19	25.46	
2025-01-08 09:58:44.54	310.11	25.46	
2025-01-08 09:58:44.75	310.04	25.46	
2025-01-08 09:58:44.95	309.97	25.47	
2025-01-08 09:58:45.16	309.90	25.47	
2025-01-08 09:58:45.36	309.83	25.47	
2025-01-08 09:58:45.57	309.75	25.47	
2025-01-08 09:58:45.77	309.68	25.47	
2025-01-08 09:58:45.98	309.61	25.47	
2025-01-08 09:58:46.18	309.54	25.47	
2025-01-08 09:58:46.39	309.47	25.47	
2025-01-08 09:58:46.59	309.40	25.48	
2025-01-08 09:58:46.80	309.32	25.48	
2025-01-08 09:58:47.01	309.25	25.48	
2025-01-08 09:58:47.21	309.18	25.48	
2025-01-08 09:58:47.42	309.11	25.48	
2025-01-08 09:58:47.62	309.04	25.48	
2025-01-08 09:58:47.83	308.96	25.48	
2025-01-08 09:58:48.03	308.89	25.48	
2025-01-08 09:58:48.25	308.82	25.48	
2025-01-08 09:58:48.45	308.75	25.48	
2025-01-08 09:58:48.66	308.67	25.48	
2025-01-08 09:58:48.87	308.60	25.49	
2025-01-08 09:58:49.07	308.53	25.49	
2025-01-08 09:58:49.28	308.46	25.49	
2025-01-08 09:58:49.48	308.38	25.49	
2025-01-08 09:58:49.69	308.31	25.49	
2025-01-08 09:58:49.89	308.24	25.49	
2025-01-08 09:58:50.10	308.17	25.49	
2025-01-08 09:58:50.30	308.10	25.49	
2025-01-08 09:58:50.51	308.02	25.49	
2025-01-08 09:58:50.71	307.95	25.49	
2025-01-08 09:58:50.92	307.88	25.49	
2025-01-08 09:58:51.13	307.81	25.49	
2025-01-08 09:58:51.33	307.74	25.49	
2025-01-08 09:58:51.53	307.67	25.49	
2025-01-08 09:58:51.74	307.59	25.49	
2025-01-08 09:58:51.95	307.52	25.49	
2025-01-08 09:58:52.15	307.45	25.49	
2025-01-08 09:58:52.36	307.38	25.49	
2025-01-08 09:58:52.56	307.31	25.49	
2025-01-08 09:58:52.77	307.23	25.49	
2025-01-08 09:58:52.97	307.16	25.49	
2025-01-08 09:58:53.18	307.09	25.49	
2025-01-08 09:58:53.39	307.02	25.49	
2025-01-08 09:58:53.59	306.95	25.49	
2025-01-08 09:58:53.79	306.88	25.48	
2025-01-08 09:58:54.00	306.80	25.48	
2025-01-08 09:58:54.21	306.73	25.48	
2025-01-08 09:58:54.41	306.66	25.48	
2025-01-08 09:58:54.62	306.58	25.48	
2025-01-08 09:58:54.82	306.51	25.48	
2025-01-08 09:58:55.03	306.44	25.48	
2025-01-08 09:58:55.23	306.37	25.48	
2025-01-08 09:58:55.44	306.30	25.48	
2025-01-08 09:58:55.64	306.23	25.48	
2025-01-08 09:58:55.85	306.15	25.48	
2025-01-08 09:58:56.05	306.08	25.48	
2025-01-08 09:58:56.26	306.01	25.47	
2025-01-08 09:58:56.46	305.94	25.47	
2025-01-08 09:58:56.67	305.87	25.47	
2025-01-08 09:58:56.87	305.80	25.47	
2025-01-08 09:58:57.07	305.73	25.47	
2025-01-08 09:58:57.29	305.65	25.47	
2025-01-08 09:58:57.50	305.58	25.47	
2025-01-08 09:58:57.70	305.51	25.47	
2025-01-08 09:58:57.91	305.43	25.46	
2025-01-08 09:58:58.11	305.36	25.46	
2025-01-08 09:58:58.32	305.29	25.46	
2025-01-08 09:58:58.52	305.22	25.46	
2025-01-08 09:58:58.73	305.15	25.46	
2025-01-08 09:58:58.93	305.08	25.46	
2025-01-08 09:58:59.14	305.00	25.45	
2025-01-08 09:58:59.34	304.93	25.45	
2025-01-08 09:58:59.55	304.86	25.45	
2025-01-08 09:58:59.76	304.79	25.45	
2025-01-08 09:58:59.96	304.72	25.45	
2025-01-08 09:59:00.16	304.65	25.44	
2025-01-08 09:59:00.37	304.57	25.44	
2025-01-08 09:59:00.57	304.50	25.44	
2025-01-08 09:59:00.78	304.43	25.44	
2025-01-08 09:59:00.98	304.36	25.44	
2025-01-08 09:59:01.19	304.29	25.43	
2025-01-08 09:59:01.39	304.22	25.43	
2025-01-08 09:59:01.60	304.14	25.43	
2025-01-08 09:59:01.80	304.07	25.43	
2025-01-08 09:59:02.01	304.00	25.42	
2025-01-08 09:59:02.21	303.93	25.42	
2025-01-08 09:59:02.42	303.86	25.42	
2025-01-08 09:59:02.62	303.79	25.42	
2025-01-08 09:59:02.83	303.71	25.41	
2025-01-08 09:59:03.03	303.64	25.41	
2025-01-08 09:59:03.24	303.57	25.41	
2025-01-08 09:59:03.44	303.50	25.41	
2025-01-08 09:59:03.65	303.43	25.40	
2025-01-08 09:59:03.85	303.36	25.40	
2025-01-08 09:59:04.06	303.29	25.40	
2025-01-08 09:59:04.26	303.22	25.39	
2025-01-08 09:59:04.47	303.14	25.39	
2025-01-08 09:59:04.67	303.07	25.39	
2025-01-08 09:59:04.88	303.00	25.38	
2025-01-08 09:59:05.08	302.93	25.38	
2025-01-08 09:59:05.28	302.86	25.38	
2025-01-08 09:59:05.49	302.79	25.37	
2025-01-08 09:59:05.70	302.71	25.37	
2025-01-08 09:59:05.91	302.64	25.37	
2025-01-08 09:59:06.11	302.57	25.36	
2025-01-08 09:59:06.32	302.50	25.36	
2025-01-08 09:59:06.52	302.43	25.36	
2025-01-08 09:59:06.73	302.36	25.35	
2025-01-08 09:59:06.94	302.28	25.35	
2025-01-08 09:59:07.14	302.21	25.35	
2025-01-08 09:59:07.35	302.14	25.34	
2025-01-08 09:59:07.57	302.06	25.34	
2025-01-08 09:59:07.77	302.00	25.34	
2025-01-08 09:59:07.98	301.92	25.33	
2025-01-08 09:59:08.18	301.85	25.33	
2025-01-08 09:59:08.39	301.78	25.32	
2025-01-08 09:59:08.61	301.70	25.32	
2025-01-08 09:59:08.81	301.63	25.32	
2025-01-08 09:59:09.02	301.56	25.31	
2025-01-08 09:59:09.22	301.49	25.31	
2025-01-08 09:59:09.43	301.42	25.30	
2025-01-08 09:59:09.65	301.34	25.30	
2025-01-08 09:59:09.85	301.27	25.30	
2025-01-08 09:59:10.06	301.20	25.29	
2025-01-08 09:59:10.27	301.13	25.29	
2025-01-08 09:59:10.47	301.06	25.28	
2025-01-08 09:59:10.69	300.98	25.28	
2025-01-08 09:59:10.90	300.91	25.27	
2025-01-08 09:59:11.10	300.84	25.27	
2025-01-08 09:59:11.31	300.77	25.26	
2025-01-08 09:59:11.52	300.70	25.26	
2025-01-08 09:59:11.72	300.63	25.25	
2025-01-08 09:59:11.93	300.56	25.25	
2025-01-08 09:59:12.13	300.49	25.24	
2025-01-08 09:59:12.35	300.41	25.24	
2025-01-08 09:59:12.56	300.34	25.23	
2025-01-08 09:59:12.76	300.27	25.23	
2025-01-08 09:59:12.96	300.20	25.23	
2025-01-08 09:59:13.17	300.13	25.22	
2025-01-08 09:59:13.37	300.06	25.22	
2025-01-08 09:59:13.58	299.99	25.21	
2025-01-08 09:59:13.78	299.92	25.21	
2025-01-08 09:59:13.99	299.85	25.20	
2025-01-08 09:59:14.19	299.78	25.19	
2025-01-08 09:59:14.40	299.71	25.19	
2025-01-08 09:59:14.61	299.63	25.18	
