passes_logs/2025/01/08/SPB_Silybum_02/SPB_Silybum_02__20250108_072010_SUOMI_NPP_rec.log

#Pass ID: 20250108_072010_SUOMI NPP
#Satellite: SUOMI NPP
#Configuration: NPP
#Start time: 2025-01-08 07:20:09

#Version: 2.0.20230423
#Station: SPB_Silybum_02
#Location: 30.233357 lon 59.946436 lat
#TLE: 1 37849U 11061A   25007.80086614  .00000261  00000+0  14474-3 0  9998
#TLE: 2 37849  98.7439 308.8810 0001922  51.6815 308.4534 14.19534813683891

#Time	Az	El	Level	Level2	SNR	BER	Gain	Gain2
2025-01-08 07:20:11.19	74.93	4.03	
2025-01-08 07:20:11.40	74.91	4.04	
2025-01-08 07:20:11.60	74.89	4.05	
2025-01-08 07:20:11.81	74.87	4.06	
2025-01-08 07:20:12.02	74.85	4.07	
2025-01-08 07:20:12.22	74.82	4.08	
2025-01-08 07:20:12.44	74.80	4.09	
2025-01-08 07:20:12.64	74.78	4.10	
2025-01-08 07:20:12.85	74.76	4.11	
2025-01-08 07:20:13.06	74.74	4.12	
2025-01-08 07:20:13.26	74.72	4.13	
2025-01-08 07:20:13.46	74.69	4.14	
2025-01-08 07:20:13.67	74.67	4.15	
2025-01-08 07:20:13.87	74.65	4.16	
2025-01-08 07:20:14.08	74.63	4.17	
2025-01-08 07:20:14.28	74.61	4.18	
2025-01-08 07:20:14.49	74.59	4.19	
2025-01-08 07:20:14.70	74.56	4.20	
2025-01-08 07:20:14.91	74.54	4.21	
2025-01-08 07:20:15.12	74.52	4.22	
2025-01-08 07:20:15.32	74.50	4.23	
2025-01-08 07:20:15.53	74.47	4.24	
2025-01-08 07:20:15.75	74.45	4.25	
2025-01-08 07:20:15.96	74.43	4.26	
2025-01-08 07:20:16.16	74.41	4.27	
2025-01-08 07:20:16.37	74.39	4.28	
2025-01-08 07:20:16.57	74.36	4.29	
2025-01-08 07:20:16.79	74.34	4.30	
2025-01-08 07:20:16.99	74.32	4.31	
2025-01-08 07:20:17.20	74.30	4.32	
2025-01-08 07:20:17.41	74.27	4.33	
2025-01-08 07:20:17.61	74.25	4.34	
2025-01-08 07:20:17.82	74.23	4.35	
2025-01-08 07:20:18.02	74.21	4.36	
2025-01-08 07:20:18.22	74.19	4.37	
2025-01-08 07:20:18.43	74.16	4.38	
2025-01-08 07:20:18.64	74.14	4.39	
2025-01-08 07:20:18.84	74.12	4.40	
2025-01-08 07:20:19.05	74.10	4.41	
2025-01-08 07:20:19.25	74.08	4.42	
2025-01-08 07:20:19.46	74.05	4.43	
2025-01-08 07:20:19.66	74.03	4.44	
2025-01-08 07:20:19.87	74.01	4.45	
2025-01-08 07:20:20.07	73.99	4.46	
2025-01-08 07:20:20.28	73.97	4.47	
2025-01-08 07:20:20.48	73.94	4.48	
2025-01-08 07:20:20.69	73.92	4.49	
2025-01-08 07:20:20.89	73.90	4.50	
2025-01-08 07:20:21.10	73.88	4.51	
2025-01-08 07:20:21.30	73.85	4.52	
2025-01-08 07:20:21.51	73.83	4.53	
2025-01-08 07:20:21.71	73.81	4.54	
2025-01-08 07:20:21.92	73.79	4.55	
2025-01-08 07:20:22.14	73.76	4.56	
2025-01-08 07:20:22.34	73.74	4.57	
2025-01-08 07:20:22.55	73.72	4.58	
2025-01-08 07:20:22.76	73.70	4.59	
2025-01-08 07:20:22.96	73.67	4.60	
2025-01-08 07:20:23.17	73.65	4.61	
2025-01-08 07:20:23.37	73.63	4.62	
2025-01-08 07:20:23.58	73.61	4.63	
2025-01-08 07:20:23.78	73.58	4.64	
2025-01-08 07:20:23.99	73.56	4.65	
2025-01-08 07:20:24.19	73.54	4.66	
2025-01-08 07:20:24.40	73.52	4.67	
2025-01-08 07:20:24.60	73.49	4.68	
2025-01-08 07:20:24.81	73.47	4.69	
2025-01-08 07:20:25.01	73.45	4.70	
2025-01-08 07:20:25.23	73.43	4.71	
2025-01-08 07:20:25.43	73.40	4.72	
2025-01-08 07:20:25.64	73.38	4.73	
2025-01-08 07:20:25.84	73.36	4.74	
2025-01-08 07:20:26.05	73.34	4.75	
2025-01-08 07:20:26.25	73.31	4.76	
2025-01-08 07:20:26.46	73.29	4.77	
2025-01-08 07:20:26.66	73.27	4.78	
2025-01-08 07:20:26.87	73.24	4.79	
2025-01-08 07:20:27.08	73.22	4.80	
2025-01-08 07:20:27.28	73.20	4.81	
2025-01-08 07:20:27.50	73.18	4.82	
2025-01-08 07:20:27.71	73.15	4.83	
2025-01-08 07:20:27.91	73.13	4.84	
2025-01-08 07:20:28.12	73.11	4.85	
2025-01-08 07:20:28.33	73.08	4.86	
2025-01-08 07:20:28.53	73.06	4.87	
2025-01-08 07:20:28.74	73.04	4.88	
2025-01-08 07:20:28.94	73.02	4.89	
2025-01-08 07:20:29.15	72.99	4.90	
2025-01-08 07:20:29.35	72.97	4.91	
2025-01-08 07:20:29.56	72.95	4.92	
2025-01-08 07:20:29.76	72.92	4.93	
2025-01-08 07:20:29.97	72.90	4.94	
2025-01-08 07:20:30.18	72.88	4.95	
2025-01-08 07:20:30.38	72.85	4.96	
2025-01-08 07:20:30.58	72.83	4.97	
2025-01-08 07:20:30.79	72.81	4.98	
2025-01-08 07:20:31.00	72.79	4.99	
2025-01-08 07:20:31.20	72.76	5.00	
2025-01-08 07:20:31.41	72.74	5.01	
2025-01-08 07:20:31.61	72.72	5.01	
2025-01-08 07:20:31.82	72.69	5.03	
2025-01-08 07:20:32.02	72.67	5.03	
2025-01-08 07:20:32.23	72.65	5.04	
2025-01-08 07:20:32.44	72.62	5.05	
2025-01-08 07:20:32.64	72.60	5.06	
2025-01-08 07:20:32.84	72.58	5.07	
2025-01-08 07:20:33.05	72.55	5.08	
2025-01-08 07:20:33.25	72.53	5.09	
2025-01-08 07:20:33.46	72.51	5.10	
2025-01-08 07:20:33.67	72.48	5.11	
2025-01-08 07:20:33.89	72.46	5.12	
2025-01-08 07:20:34.09	72.44	5.13	
2025-01-08 07:20:34.30	72.41	5.14	
2025-01-08 07:20:34.50	72.39	5.15	
2025-01-08 07:20:34.71	72.37	5.16	
2025-01-08 07:20:34.91	72.34	5.17	
2025-01-08 07:20:35.12	72.32	5.18	
2025-01-08 07:20:35.32	72.30	5.19	
2025-01-08 07:20:35.53	72.27	5.20	
2025-01-08 07:20:35.73	72.25	5.21	
2025-01-08 07:20:35.94	72.23	5.22	
2025-01-08 07:20:36.14	72.20	5.23	
2025-01-08 07:20:36.35	72.18	5.24	
2025-01-08 07:20:36.55	72.16	5.25	
2025-01-08 07:20:36.76	72.13	5.26	
2025-01-08 07:20:36.96	72.11	5.27	
2025-01-08 07:20:37.17	72.09	5.28	
2025-01-08 07:20:37.37	72.06	5.29	
2025-01-08 07:20:37.57	72.04	5.30	
2025-01-08 07:20:37.78	72.02	5.31	
2025-01-08 07:20:37.99	71.99	5.32	
2025-01-08 07:20:38.19	71.97	5.33	
2025-01-08 07:20:38.39	71.95	5.34	
2025-01-08 07:20:38.60	71.92	5.35	
2025-01-08 07:20:38.80	71.90	5.36	
2025-01-08 07:20:39.01	71.87	5.37	
2025-01-08 07:20:39.21	71.85	5.38	
2025-01-08 07:20:39.42	71.83	5.39	
2025-01-08 07:20:39.63	71.80	5.40	
2025-01-08 07:20:39.83	71.78	5.41	
2025-01-08 07:20:40.04	71.76	5.42	
2025-01-08 07:20:40.24	71.73	5.43	
2025-01-08 07:20:40.44	71.71	5.44	
2025-01-08 07:20:40.65	71.69	5.45	
2025-01-08 07:20:40.85	71.66	5.46	
2025-01-08 07:20:41.06	71.64	5.47	
2025-01-08 07:20:41.26	71.61	5.48	
2025-01-08 07:20:41.47	71.59	5.49	
2025-01-08 07:20:41.67	71.57	5.50	
2025-01-08 07:20:41.88	71.54	5.51	
2025-01-08 07:20:42.09	71.52	5.52	
2025-01-08 07:20:42.29	71.50	5.53	
2025-01-08 07:20:42.50	71.47	5.54	
2025-01-08 07:20:42.70	71.45	5.55	
2025-01-08 07:20:42.91	71.42	5.56	
2025-01-08 07:20:43.11	71.40	5.57	
2025-01-08 07:20:43.32	71.38	5.58	
2025-01-08 07:20:43.52	71.35	5.59	
2025-01-08 07:20:43.74	71.33	5.60	
2025-01-08 07:20:43.94	71.30	5.61	
2025-01-08 07:20:44.15	71.28	5.62	
2025-01-08 07:20:44.35	71.25	5.62	
2025-01-08 07:20:44.56	71.23	5.63	
2025-01-08 07:20:44.76	71.21	5.64	
2025-01-08 07:20:44.97	71.18	5.65	
2025-01-08 07:20:45.17	71.16	5.66	
2025-01-08 07:20:45.38	71.13	5.67	
2025-01-08 07:20:45.60	71.11	5.68	
2025-01-08 07:20:45.80	71.08	5.69	
2025-01-08 07:20:46.01	71.06	5.70	
2025-01-08 07:20:46.22	71.03	5.71	
2025-01-08 07:20:46.42	71.01	5.72	
2025-01-08 07:20:46.62	70.99	5.73	
2025-01-08 07:20:46.83	70.96	5.74	
2025-01-08 07:20:47.04	70.94	5.75	
2025-01-08 07:20:47.24	70.91	5.76	
2025-01-08 07:20:47.45	70.89	5.77	
2025-01-08 07:20:47.65	70.87	5.78	
2025-01-08 07:20:47.86	70.84	5.79	
2025-01-08 07:20:48.06	70.82	5.80	
2025-01-08 07:20:48.27	70.79	5.81	
2025-01-08 07:20:48.47	70.77	5.82	
2025-01-08 07:20:48.68	70.74	5.83	
2025-01-08 07:20:48.88	70.72	5.84	
2025-01-08 07:20:49.09	70.69	5.85	
2025-01-08 07:20:49.29	70.67	5.86	
2025-01-08 07:20:49.50	70.65	5.87	
2025-01-08 07:20:49.71	70.62	5.88	
2025-01-08 07:20:49.91	70.60	5.89	
2025-01-08 07:20:50.11	70.57	5.90	
2025-01-08 07:20:50.32	70.55	5.91	
2025-01-08 07:20:50.53	70.52	5.92	
2025-01-08 07:20:50.73	70.50	5.93	
2025-01-08 07:20:50.94	70.47	5.94	
2025-01-08 07:20:51.14	70.45	5.95	
2025-01-08 07:20:51.35	70.42	5.96	
2025-01-08 07:20:51.55	70.40	5.97	
2025-01-08 07:20:51.76	70.38	5.98	
2025-01-08 07:20:51.96	70.35	5.99	
2025-01-08 07:20:52.17	70.33	6.00	
2025-01-08 07:20:52.39	70.30	6.01	
2025-01-08 07:20:52.59	70.28	6.02	
2025-01-08 07:20:52.80	70.25	6.03	
2025-01-08 07:20:53.01	70.22	6.04	
2025-01-08 07:20:53.21	70.20	6.05	
2025-01-08 07:20:53.42	70.18	6.06	
2025-01-08 07:20:53.62	70.15	6.07	
2025-01-08 07:20:53.83	70.13	6.08	
2025-01-08 07:20:54.03	70.10	6.09	
2025-01-08 07:20:54.24	70.08	6.10	
2025-01-08 07:20:54.44	70.05	6.11	
2025-01-08 07:20:54.64	70.03	6.11	
2025-01-08 07:20:54.85	70.00	6.12	
2025-01-08 07:20:55.06	69.98	6.13	
2025-01-08 07:20:55.26	69.95	6.14	
2025-01-08 07:20:55.46	69.93	6.15	
2025-01-08 07:20:55.67	69.90	6.16	
2025-01-08 07:20:55.88	69.88	6.17	
2025-01-08 07:20:56.08	69.85	6.18	
2025-01-08 07:20:56.29	69.83	6.19	
2025-01-08 07:20:56.49	69.80	6.20	
2025-01-08 07:20:56.70	69.78	6.21	
2025-01-08 07:20:56.91	69.75	6.22	
2025-01-08 07:20:57.11	69.73	6.23	
2025-01-08 07:20:57.32	69.70	6.24	
2025-01-08 07:20:57.52	69.68	6.25	
2025-01-08 07:20:57.73	69.65	6.26	
2025-01-08 07:20:57.93	69.63	6.27	
2025-01-08 07:20:58.14	69.60	6.28	
2025-01-08 07:20:58.34	69.58	6.29	
2025-01-08 07:20:58.56	69.55	6.30	
2025-01-08 07:20:58.76	69.52	6.31	
2025-01-08 07:20:58.97	69.50	6.32	
2025-01-08 07:20:59.17	69.47	6.33	
2025-01-08 07:20:59.38	69.45	6.34	
2025-01-08 07:20:59.58	69.42	6.35	
2025-01-08 07:20:59.79	69.40	6.36	
2025-01-08 07:21:00.00	69.37	6.37	
2025-01-08 07:21:00.20	69.35	6.38	
2025-01-08 07:21:00.41	69.32	6.39	
2025-01-08 07:21:00.62	69.29	6.40	
2025-01-08 07:21:00.83	69.27	6.41	
2025-01-08 07:21:01.03	69.24	6.42	
2025-01-08 07:21:01.24	69.22	6.43	
2025-01-08 07:21:01.44	69.19	6.44	
2025-01-08 07:21:01.65	69.17	6.45	
2025-01-08 07:21:01.85	69.14	6.46	
2025-01-08 07:21:02.06	69.12	6.47	
2025-01-08 07:21:02.27	69.09	6.48	
2025-01-08 07:21:02.47	69.07	6.49	
2025-01-08 07:21:02.68	69.04	6.49	
2025-01-08 07:21:02.88	69.01	6.50	
2025-01-08 07:21:03.08	68.99	6.51	
2025-01-08 07:21:03.29	68.96	6.52	
2025-01-08 07:21:03.50	68.94	6.53	
2025-01-08 07:21:03.70	68.91	6.54	
2025-01-08 07:21:03.90	68.89	6.55	
2025-01-08 07:21:04.11	68.86	6.56	
2025-01-08 07:21:04.32	68.83	6.57	
2025-01-08 07:21:04.52	68.81	6.58	
2025-01-08 07:21:04.73	68.78	6.59	
2025-01-08 07:21:04.93	68.76	6.60	
2025-01-08 07:21:05.14	68.73	6.61	
2025-01-08 07:21:05.34	68.71	6.62	
2025-01-08 07:21:05.55	68.68	6.63	
2025-01-08 07:21:05.76	68.65	6.64	
2025-01-08 07:21:05.96	68.63	6.65	
2025-01-08 07:21:06.17	68.60	6.66	
2025-01-08 07:21:06.37	68.58	6.67	
2025-01-08 07:21:06.58	68.55	6.68	
2025-01-08 07:21:06.78	68.52	6.69	
2025-01-08 07:21:06.99	68.50	6.70	
2025-01-08 07:21:07.19	68.47	6.71	
2025-01-08 07:21:07.40	68.45	6.72	
2025-01-08 07:21:07.60	68.42	6.73	
2025-01-08 07:21:07.81	68.39	6.74	
2025-01-08 07:21:08.03	68.37	6.75	
2025-01-08 07:21:08.23	68.34	6.76	
2025-01-08 07:21:08.44	68.31	6.77	
2025-01-08 07:21:08.64	68.29	6.78	
2025-01-08 07:21:08.85	68.26	6.78	
2025-01-08 07:21:09.07	68.23	6.80	
2025-01-08 07:21:09.27	68.21	6.80	
2025-01-08 07:21:09.48	68.18	6.81	
2025-01-08 07:21:09.68	68.16	6.82	
2025-01-08 07:21:09.89	68.13	6.83	
2025-01-08 07:21:10.10	68.10	6.84	
2025-01-08 07:21:10.30	68.08	6.85	
2025-01-08 07:21:10.50	68.05	6.86	
2025-01-08 07:21:10.71	68.03	6.87	
2025-01-08 07:21:10.91	68.00	6.88	
2025-01-08 07:21:11.11	67.97	6.89	
2025-01-08 07:21:11.32	67.95	6.90	
2025-01-08 07:21:11.53	67.92	6.91	
2025-01-08 07:21:11.73	67.89	6.92	
2025-01-08 07:21:11.94	67.87	6.93	
2025-01-08 07:21:12.15	67.84	6.94	
2025-01-08 07:21:12.35	67.81	6.95	
2025-01-08 07:21:12.56	67.79	6.96	
2025-01-08 07:21:12.76	67.76	6.97	
2025-01-08 07:21:12.96	67.74	6.98	
2025-01-08 07:21:13.16	67.71	6.99	
2025-01-08 07:21:13.37	67.68	7.00	
2025-01-08 07:21:13.57	67.66	7.01	
2025-01-08 07:21:13.78	67.63	7.02	
2025-01-08 07:21:13.98	67.60	7.02	
2025-01-08 07:21:14.19	67.58	7.03	
2025-01-08 07:21:14.39	67.55	7.04	
2025-01-08 07:21:14.60	67.52	7.05	
2025-01-08 07:21:14.81	67.50	7.06	
2025-01-08 07:21:15.01	67.47	7.07	
2025-01-08 07:21:15.22	67.44	7.08	
2025-01-08 07:21:15.42	67.42	7.09	
2025-01-08 07:21:15.63	67.39	7.10	
2025-01-08 07:21:15.83	67.36	7.11	
2025-01-08 07:21:16.04	67.34	7.12	
2025-01-08 07:21:16.25	67.31	7.13	
2025-01-08 07:21:16.45	67.28	7.14	
2025-01-08 07:21:16.66	67.26	7.15	
2025-01-08 07:21:16.86	67.23	7.16	
2025-01-08 07:21:17.07	67.20	7.17	
2025-01-08 07:21:17.27	67.18	7.18	
2025-01-08 07:21:17.48	67.15	7.19	
2025-01-08 07:21:17.68	67.12	7.20	
2025-01-08 07:21:17.89	67.10	7.21	
2025-01-08 07:21:18.09	67.07	7.22	
2025-01-08 07:21:18.30	67.04	7.23	
2025-01-08 07:21:18.50	67.02	7.23	
2025-01-08 07:21:18.71	66.99	7.24	
2025-01-08 07:21:18.91	66.96	7.25	
2025-01-08 07:21:19.12	66.93	7.26	
2025-01-08 07:21:19.32	66.91	7.27	
2025-01-08 07:21:19.53	66.88	7.28	
2025-01-08 07:21:19.73	66.85	7.29	
2025-01-08 07:21:19.94	66.83	7.30	
2025-01-08 07:21:20.14	66.80	7.31	
2025-01-08 07:21:20.35	66.77	7.32	
2025-01-08 07:21:20.56	66.74	7.33	
2025-01-08 07:21:20.76	66.72	7.34	
2025-01-08 07:21:20.96	66.69	7.35	
2025-01-08 07:21:21.17	66.66	7.36	
2025-01-08 07:21:21.37	66.64	7.37	
2025-01-08 07:21:21.58	66.61	7.38	
2025-01-08 07:21:21.78	66.58	7.39	
2025-01-08 07:21:21.99	66.56	7.40	
2025-01-08 07:21:22.19	66.53	7.41	
2025-01-08 07:21:22.40	66.50	7.42	
2025-01-08 07:21:22.60	66.47	7.42	
2025-01-08 07:21:22.81	66.45	7.43	
2025-01-08 07:21:23.01	66.42	7.44	
2025-01-08 07:21:23.21	66.39	7.45	
2025-01-08 07:21:23.42	66.37	7.46	
2025-01-08 07:21:23.62	66.34	7.47	
2025-01-08 07:21:23.83	66.31	7.48	
2025-01-08 07:21:24.03	66.28	7.49	
2025-01-08 07:21:24.24	66.26	7.50	
2025-01-08 07:21:24.44	66.23	7.51	
2025-01-08 07:21:24.65	66.20	7.52	
2025-01-08 07:21:24.86	66.17	7.53	
2025-01-08 07:21:25.06	66.15	7.54	
2025-01-08 07:21:25.27	66.12	7.55	
2025-01-08 07:21:25.47	66.09	7.56	
2025-01-08 07:21:25.68	66.06	7.57	
2025-01-08 07:21:25.88	66.04	7.58	
2025-01-08 07:21:26.09	66.01	7.59	
2025-01-08 07:21:26.29	65.98	7.59	
2025-01-08 07:21:26.50	65.95	7.60	
2025-01-08 07:21:26.70	65.93	7.61	
2025-01-08 07:21:26.91	65.90	7.62	
2025-01-08 07:21:27.11	65.87	7.63	
2025-01-08 07:21:27.32	65.84	7.64	
2025-01-08 07:21:27.52	65.82	7.65	
2025-01-08 07:21:27.73	65.79	7.66	
2025-01-08 07:21:27.94	65.76	7.67	
2025-01-08 07:21:28.14	65.73	7.68	
2025-01-08 07:21:28.35	65.70	7.69	
2025-01-08 07:21:28.55	65.68	7.70	
2025-01-08 07:21:28.76	65.65	7.71	
2025-01-08 07:21:28.96	65.62	7.72	
2025-01-08 07:21:29.17	65.59	7.73	
2025-01-08 07:21:29.37	65.56	7.74	
2025-01-08 07:21:29.58	65.54	7.74	
2025-01-08 07:21:29.78	65.51	7.75	
2025-01-08 07:21:29.99	65.48	7.76	
2025-01-08 07:21:30.20	65.45	7.77	
2025-01-08 07:21:30.40	65.42	7.78	
2025-01-08 07:21:30.61	65.40	7.79	
2025-01-08 07:21:30.81	65.37	7.80	
2025-01-08 07:21:31.02	65.34	7.81	
2025-01-08 07:21:31.22	65.31	7.82	
2025-01-08 07:21:31.43	65.28	7.83	
2025-01-08 07:21:31.63	65.26	7.84	
2025-01-08 07:21:31.84	65.23	7.85	
2025-01-08 07:21:32.04	65.20	7.86	
2025-01-08 07:21:32.25	65.17	7.87	
2025-01-08 07:21:32.46	65.14	7.88	
2025-01-08 07:21:32.66	65.12	7.89	
2025-01-08 07:21:32.87	65.09	7.89	
2025-01-08 07:21:33.07	65.06	7.90	
2025-01-08 07:21:33.28	65.03	7.91	
2025-01-08 07:21:33.49	65.00	7.92	
2025-01-08 07:21:33.69	64.97	7.93	
2025-01-08 07:21:33.90	64.94	7.94	
2025-01-08 07:21:34.10	64.92	7.95	
2025-01-08 07:21:34.31	64.89	7.96	
2025-01-08 07:21:34.51	64.86	7.97	
2025-01-08 07:21:34.72	64.83	7.98	
2025-01-08 07:21:34.92	64.80	7.99	
2025-01-08 07:21:35.13	64.78	8.00	
2025-01-08 07:21:35.33	64.75	8.01	
2025-01-08 07:21:35.54	64.72	8.02	
2025-01-08 07:21:35.74	64.69	8.02	
2025-01-08 07:21:35.95	64.66	8.03	
2025-01-08 07:21:36.16	64.63	8.04	
2025-01-08 07:21:36.36	64.60	8.05	
2025-01-08 07:21:36.57	64.58	8.06	
2025-01-08 07:21:36.77	64.55	8.07	
2025-01-08 07:21:36.98	64.52	8.08	
2025-01-08 07:21:37.18	64.49	8.09	
2025-01-08 07:21:37.39	64.46	8.10	
2025-01-08 07:21:37.59	64.43	8.11	
2025-01-08 07:21:37.80	64.40	8.12	
2025-01-08 07:21:38.00	64.38	8.13	
2025-01-08 07:21:38.21	64.35	8.14	
2025-01-08 07:21:38.41	64.32	8.15	
2025-01-08 07:21:38.62	64.29	8.15	
2025-01-08 07:21:38.82	64.26	8.16	
2025-01-08 07:21:39.03	64.23	8.17	
2025-01-08 07:21:39.23	64.20	8.18	
2025-01-08 07:21:39.44	64.17	8.19	
2025-01-08 07:21:39.64	64.15	8.20	
2025-01-08 07:21:39.85	64.12	8.21	
2025-01-08 07:21:40.07	64.09	8.22	
2025-01-08 07:21:40.27	64.06	8.23	
2025-01-08 07:21:40.48	64.03	8.24	
2025-01-08 07:21:40.69	64.00	8.25	
2025-01-08 07:21:40.89	63.97	8.26	
2025-01-08 07:21:41.10	63.94	8.27	
2025-01-08 07:21:41.30	63.91	8.27	
2025-01-08 07:21:41.51	63.88	8.28	
2025-01-08 07:21:41.71	63.86	8.29	
2025-01-08 07:21:41.92	63.83	8.30	
2025-01-08 07:21:42.12	63.80	8.31	
2025-01-08 07:21:42.33	63.77	8.32	
2025-01-08 07:21:42.53	63.74	8.33	
2025-01-08 07:21:42.74	63.71	8.34	
2025-01-08 07:21:42.95	63.68	8.35	
2025-01-08 07:21:43.15	63.65	8.36	
2025-01-08 07:21:43.35	63.62	8.37	
2025-01-08 07:21:43.56	63.59	8.38	
2025-01-08 07:21:43.76	63.56	8.38	
2025-01-08 07:21:43.97	63.53	8.39	
2025-01-08 07:21:44.18	63.50	8.40	
2025-01-08 07:21:44.38	63.48	8.41	
2025-01-08 07:21:44.58	63.45	8.42	
2025-01-08 07:21:44.79	63.42	8.43	
2025-01-08 07:21:44.99	63.39	8.44	
2025-01-08 07:21:45.20	63.36	8.45	
2025-01-08 07:21:45.42	63.33	8.46	
2025-01-08 07:21:45.62	63.30	8.47	
2025-01-08 07:21:45.83	63.27	8.48	
2025-01-08 07:21:46.03	63.24	8.49	
2025-01-08 07:21:46.24	63.21	8.49	
2025-01-08 07:21:46.44	63.18	8.50	
2025-01-08 07:21:46.65	63.15	8.51	
2025-01-08 07:21:46.85	63.12	8.52	
2025-01-08 07:21:47.06	63.09	8.53	
2025-01-08 07:21:47.26	63.06	8.54	
2025-01-08 07:21:47.47	63.03	8.55	
2025-01-08 07:21:47.67	63.01	8.56	
2025-01-08 07:21:47.88	62.98	8.57	
2025-01-08 07:21:48.08	62.95	8.58	
2025-01-08 07:21:48.29	62.92	8.59	
2025-01-08 07:21:48.49	62.89	8.59	
2025-01-08 07:21:48.70	62.86	8.60	
2025-01-08 07:21:48.90	62.83	8.61	
2025-01-08 07:21:49.11	62.80	8.62	
2025-01-08 07:21:49.32	62.77	8.63	
2025-01-08 07:21:49.52	62.74	8.64	
2025-01-08 07:21:49.72	62.71	8.65	
2025-01-08 07:21:49.93	62.68	8.66	
2025-01-08 07:21:50.13	62.65	8.67	
2025-01-08 07:21:50.34	62.62	8.68	
2025-01-08 07:21:50.54	62.59	8.68	
2025-01-08 07:21:50.75	62.56	8.69	
2025-01-08 07:21:50.96	62.53	8.70	
2025-01-08 07:21:51.16	62.50	8.71	
2025-01-08 07:21:51.37	62.47	8.72	
2025-01-08 07:21:51.58	62.44	8.73	
2025-01-08 07:21:51.78	62.41	8.74	
2025-01-08 07:21:51.98	62.38	8.75	
2025-01-08 07:21:52.19	62.35	8.76	
2025-01-08 07:21:52.39	62.32	8.77	
2025-01-08 07:21:52.60	62.29	8.77	
2025-01-08 07:21:52.81	62.26	8.78	
2025-01-08 07:21:53.01	62.23	8.79	
2025-01-08 07:21:53.22	62.20	8.80	
2025-01-08 07:21:53.42	62.17	8.81	
2025-01-08 07:21:53.63	62.14	8.82	
2025-01-08 07:21:53.83	62.11	8.83	
2025-01-08 07:21:54.04	62.08	8.84	
2025-01-08 07:21:54.24	62.05	8.85	
2025-01-08 07:21:54.45	62.02	8.86	
2025-01-08 07:21:54.65	61.99	8.86	
2025-01-08 07:21:54.86	61.96	8.87	
2025-01-08 07:21:55.06	61.93	8.88	
2025-01-08 07:21:55.27	61.90	8.89	
2025-01-08 07:21:55.48	61.87	8.90	
2025-01-08 07:21:55.68	61.84	8.91	
2025-01-08 07:21:55.89	61.81	8.92	
2025-01-08 07:21:56.09	61.78	8.93	
2025-01-08 07:21:56.30	61.75	8.94	
2025-01-08 07:21:56.50	61.72	8.94	
2025-01-08 07:21:56.71	61.69	8.95	
2025-01-08 07:21:56.91	61.66	8.96	
2025-01-08 07:21:57.12	61.63	8.97	
2025-01-08 07:21:57.32	61.60	8.98	
2025-01-08 07:21:57.53	61.57	8.99	
2025-01-08 07:21:57.73	61.54	9.00	
2025-01-08 07:21:57.94	61.50	9.01	
2025-01-08 07:21:58.14	61.47	9.02	
2025-01-08 07:21:58.35	61.44	9.02	
2025-01-08 07:21:58.56	61.41	9.03	
2025-01-08 07:21:58.76	61.38	9.04	
2025-01-08 07:21:58.97	61.35	9.05	
2025-01-08 07:21:59.18	61.32	9.06	
2025-01-08 07:21:59.39	61.29	9.07	
2025-01-08 07:21:59.60	61.26	9.08	
2025-01-08 07:21:59.80	61.23	9.09	
2025-01-08 07:22:00.01	61.20	9.10	
2025-01-08 07:22:00.21	61.17	9.10	
2025-01-08 07:22:00.42	61.13	9.11	
2025-01-08 07:22:00.62	61.10	9.12	
2025-01-08 07:22:00.83	61.07	9.13	
2025-01-08 07:22:01.03	61.04	9.14	
2025-01-08 07:22:01.24	61.01	9.15	
2025-01-08 07:22:01.44	60.98	9.16	
2025-01-08 07:22:01.65	60.95	9.17	
2025-01-08 07:22:01.86	60.92	9.17	
2025-01-08 07:22:02.06	60.89	9.18	
2025-01-08 07:22:02.27	60.86	9.19	
2025-01-08 07:22:02.47	60.83	9.20	
2025-01-08 07:22:02.68	60.80	9.21	
2025-01-08 07:22:02.88	60.77	9.22	
2025-01-08 07:22:03.09	60.73	9.23	
2025-01-08 07:22:03.29	60.70	9.24	
2025-01-08 07:22:03.50	60.67	9.24	
2025-01-08 07:22:03.70	60.64	9.25	
2025-01-08 07:22:03.91	60.61	9.26	
2025-01-08 07:22:04.11	60.58	9.27	
2025-01-08 07:22:04.32	60.55	9.28	
2025-01-08 07:22:04.53	60.52	9.29	
2025-01-08 07:22:04.73	60.49	9.30	
2025-01-08 07:22:04.93	60.46	9.31	
2025-01-08 07:22:05.14	60.42	9.31	
2025-01-08 07:22:05.35	60.39	9.32	
2025-01-08 07:22:05.55	60.36	9.33	
2025-01-08 07:22:05.76	60.33	9.34	
2025-01-08 07:22:05.96	60.30	9.35	
2025-01-08 07:22:06.17	60.27	9.36	
2025-01-08 07:22:06.37	60.24	9.37	
2025-01-08 07:22:06.58	60.21	9.38	
2025-01-08 07:22:06.78	60.17	9.38	
2025-01-08 07:22:06.99	60.14	9.39	
2025-01-08 07:22:07.20	60.11	9.40	
2025-01-08 07:22:07.40	60.08	9.41	
2025-01-08 07:22:07.61	60.05	9.42	
2025-01-08 07:22:07.81	60.02	9.43	
2025-01-08 07:22:08.02	59.99	9.44	
2025-01-08 07:22:08.22	59.95	9.44	
2025-01-08 07:22:08.43	59.92	9.45	
2025-01-08 07:22:08.63	59.89	9.46	
2025-01-08 07:22:08.84	59.86	9.47	
2025-01-08 07:22:09.04	59.83	9.48	
2025-01-08 07:22:09.25	59.80	9.49	
2025-01-08 07:22:09.45	59.77	9.50	
2025-01-08 07:22:09.66	59.73	9.50	
2025-01-08 07:22:09.86	59.70	9.51	
2025-01-08 07:22:10.07	59.67	9.52	
2025-01-08 07:22:10.27	59.64	9.53	
2025-01-08 07:22:10.48	59.61	9.54	
2025-01-08 07:22:10.69	59.58	9.55	
2025-01-08 07:22:10.89	59.54	9.56	
2025-01-08 07:22:11.10	59.51	9.56	
2025-01-08 07:22:11.30	59.48	9.57	
2025-01-08 07:22:11.51	59.45	9.58	
2025-01-08 07:22:11.71	59.42	9.59	
2025-01-08 07:22:11.92	59.39	9.60	
2025-01-08 07:22:12.12	59.35	9.61	
2025-01-08 07:22:12.33	59.32	9.62	
2025-01-08 07:22:12.53	59.29	9.62	
2025-01-08 07:22:12.74	59.26	9.63	
2025-01-08 07:22:12.94	59.23	9.64	
2025-01-08 07:22:13.15	59.19	9.65	
2025-01-08 07:22:13.35	59.16	9.66	
2025-01-08 07:22:13.56	59.13	9.67	
2025-01-08 07:22:13.77	59.10	9.67	
2025-01-08 07:22:13.97	59.07	9.68	
2025-01-08 07:22:14.18	59.03	9.69	
2025-01-08 07:22:14.38	59.00	9.70	
2025-01-08 07:22:14.59	58.97	9.71	
2025-01-08 07:22:14.79	58.94	9.72	
2025-01-08 07:22:15.00	58.91	9.73	
2025-01-08 07:22:15.20	58.88	9.73	
2025-01-08 07:22:15.42	58.84	9.74	
2025-01-08 07:22:15.63	58.81	9.75	
2025-01-08 07:22:15.83	58.78	9.76	
2025-01-08 07:22:16.04	58.74	9.77	
2025-01-08 07:22:16.24	58.71	9.78	
2025-01-08 07:22:16.44	58.68	9.78	
2025-01-08 07:22:16.65	58.65	9.79	
2025-01-08 07:22:16.85	58.62	9.80	
2025-01-08 07:22:17.06	58.58	9.81	
2025-01-08 07:22:17.27	58.55	9.82	
2025-01-08 07:22:17.47	58.52	9.83	
2025-01-08 07:22:17.67	58.49	9.83	
2025-01-08 07:22:17.88	58.46	9.84	
2025-01-08 07:22:18.09	58.42	9.85	
2025-01-08 07:22:18.29	58.39	9.86	
2025-01-08 07:22:18.50	58.36	9.87	
2025-01-08 07:22:18.70	58.33	9.88	
2025-01-08 07:22:18.91	58.29	9.88	
2025-01-08 07:22:19.11	58.26	9.89	
2025-01-08 07:22:19.32	58.23	9.90	
2025-01-08 07:22:19.53	58.20	9.91	
2025-01-08 07:22:19.73	58.16	9.92	
2025-01-08 07:22:19.94	58.13	9.93	
2025-01-08 07:22:20.14	58.10	9.93	
2025-01-08 07:22:20.35	58.07	9.94	
2025-01-08 07:22:20.55	58.03	9.95	
2025-01-08 07:22:20.75	58.00	9.96	
2025-01-08 07:22:20.96	57.97	9.97	
2025-01-08 07:22:21.17	57.94	9.98	
2025-01-08 07:22:21.37	57.90	9.98	
2025-01-08 07:22:21.58	57.87	9.99	
2025-01-08 07:22:21.78	57.84	10.00	
2025-01-08 07:22:21.99	57.81	10.01	
2025-01-08 07:22:22.19	57.77	10.02	
2025-01-08 07:22:22.40	57.74	10.03	
2025-01-08 07:22:22.60	57.71	10.03	
2025-01-08 07:22:22.81	57.67	10.04	
2025-01-08 07:22:23.01	57.64	10.05	
2025-01-08 07:22:23.22	57.61	10.06	
2025-01-08 07:22:23.43	57.58	10.07	
2025-01-08 07:22:23.63	57.54	10.07	
2025-01-08 07:22:23.84	57.51	10.08	
2025-01-08 07:22:24.04	57.48	10.09	
2025-01-08 07:22:24.25	57.44	10.10	
2025-01-08 07:22:24.45	57.41	10.11	
2025-01-08 07:22:24.66	57.38	10.12	
2025-01-08 07:22:24.86	57.35	10.12	
2025-01-08 07:22:25.08	57.31	10.13	
2025-01-08 07:22:25.29	57.28	10.14	
2025-01-08 07:22:25.49	57.25	10.15	
2025-01-08 07:22:25.70	57.21	10.16	
2025-01-08 07:22:25.90	57.18	10.16	
2025-01-08 07:22:26.12	57.14	10.17	
2025-01-08 07:22:26.33	57.11	10.18	
2025-01-08 07:22:26.54	57.08	10.19	
2025-01-08 07:22:26.74	57.04	10.20	
2025-01-08 07:22:26.95	57.01	10.21	
2025-01-08 07:22:27.17	56.98	10.21	
2025-01-08 07:22:27.37	56.94	10.22	
2025-01-08 07:22:27.58	56.91	10.23	
2025-01-08 07:22:27.78	56.88	10.24	
2025-01-08 07:22:27.99	56.84	10.25	
2025-01-08 07:22:28.19	56.81	10.25	
2025-01-08 07:22:28.40	56.78	10.26	
2025-01-08 07:22:28.60	56.74	10.27	
2025-01-08 07:22:28.81	56.71	10.28	
2025-01-08 07:22:29.01	56.68	10.29	
2025-01-08 07:22:29.22	56.64	10.29	
2025-01-08 07:22:29.42	56.61	10.30	
2025-01-08 07:22:29.63	56.58	10.31	
2025-01-08 07:22:29.83	56.54	10.32	
2025-01-08 07:22:30.04	56.51	10.33	
2025-01-08 07:22:30.24	56.48	10.33	
2025-01-08 07:22:30.45	56.44	10.34	
2025-01-08 07:22:30.65	56.41	10.35	
2025-01-08 07:22:30.86	56.38	10.36	
2025-01-08 07:22:31.06	56.34	10.37	
2025-01-08 07:22:31.27	56.31	10.37	
2025-01-08 07:22:31.47	56.28	10.38	
2025-01-08 07:22:31.68	56.24	10.39	
2025-01-08 07:22:31.89	56.21	10.40	
2025-01-08 07:22:32.09	56.18	10.41	
2025-01-08 07:22:32.30	56.14	10.41	
2025-01-08 07:22:32.50	56.11	10.42	
2025-01-08 07:22:32.71	56.07	10.43	
2025-01-08 07:22:32.91	56.04	10.44	
2025-01-08 07:22:33.12	56.01	10.45	
2025-01-08 07:22:33.33	55.97	10.45	
2025-01-08 07:22:33.54	55.94	10.46	
2025-01-08 07:22:33.75	55.90	10.47	
2025-01-08 07:22:33.96	55.87	10.48	
2025-01-08 07:22:34.16	55.84	10.48	
2025-01-08 07:22:34.37	55.80	10.49	
2025-01-08 07:22:34.57	55.77	10.50	
2025-01-08 07:22:34.78	55.73	10.51	
2025-01-08 07:22:34.99	55.70	10.52	
2025-01-08 07:22:35.19	55.67	10.52	
2025-01-08 07:22:35.40	55.63	10.53	
2025-01-08 07:22:35.60	55.60	10.54	
2025-01-08 07:22:35.81	55.56	10.55	
2025-01-08 07:22:36.01	55.53	10.56	
2025-01-08 07:22:36.22	55.50	10.56	
2025-01-08 07:22:36.42	55.46	10.57	
2025-01-08 07:22:36.63	55.43	10.58	
2025-01-08 07:22:36.83	55.40	10.59	
2025-01-08 07:22:37.04	55.36	10.59	
2025-01-08 07:22:37.24	55.33	10.60	
2025-01-08 07:22:37.45	55.29	10.61	
2025-01-08 07:22:37.66	55.26	10.62	
2025-01-08 07:22:37.86	55.22	10.62	
2025-01-08 07:22:38.06	55.19	10.63	
2025-01-08 07:22:38.28	55.16	10.64	
2025-01-08 07:22:38.49	55.12	10.65	
2025-01-08 07:22:38.69	55.09	10.66	
2025-01-08 07:22:38.89	55.05	10.66	
2025-01-08 07:22:39.10	55.02	10.67	
2025-01-08 07:22:39.31	54.98	10.68	
2025-01-08 07:22:39.51	54.95	10.69	
2025-01-08 07:22:39.71	54.92	10.69	
2025-01-08 07:22:39.92	54.88	10.70	
2025-01-08 07:22:40.12	54.85	10.71	
2025-01-08 07:22:40.33	54.81	10.72	
2025-01-08 07:22:40.53	54.78	10.72	
2025-01-08 07:22:40.74	54.74	10.73	
2025-01-08 07:22:40.94	54.71	10.74	
2025-01-08 07:22:41.15	54.68	10.75	
2025-01-08 07:22:41.35	54.64	10.75	
2025-01-08 07:22:41.56	54.61	10.76	
2025-01-08 07:22:41.77	54.57	10.77	
2025-01-08 07:22:41.97	54.54	10.78	
2025-01-08 07:22:42.18	54.50	10.79	
2025-01-08 07:22:42.38	54.47	10.79	
2025-01-08 07:22:42.59	54.43	10.80	
2025-01-08 07:22:42.79	54.40	10.81	
2025-01-08 07:22:43.00	54.37	10.82	
2025-01-08 07:22:43.20	54.33	10.82	
2025-01-08 07:22:43.41	54.30	10.83	
2025-01-08 07:22:43.62	54.26	10.84	
2025-01-08 07:22:43.82	54.23	10.85	
2025-01-08 07:22:44.03	54.19	10.85	
2025-01-08 07:22:44.24	54.16	10.86	
2025-01-08 07:22:44.44	54.12	10.87	
2025-01-08 07:22:44.65	54.09	10.88	
2025-01-08 07:22:44.85	54.05	10.88	
2025-01-08 07:22:45.06	54.02	10.89	
2025-01-08 07:22:45.26	53.98	10.90	
2025-01-08 07:22:45.46	53.95	10.90	
2025-01-08 07:22:45.67	53.91	10.91	
2025-01-08 07:22:45.87	53.88	10.92	
2025-01-08 07:22:46.08	53.85	10.93	
2025-01-08 07:22:46.28	53.81	10.93	
2025-01-08 07:22:46.49	53.78	10.94	
2025-01-08 07:22:46.69	53.74	10.95	
2025-01-08 07:22:46.90	53.71	10.96	
2025-01-08 07:22:47.10	53.67	10.96	
2025-01-08 07:22:47.31	53.64	10.97	
2025-01-08 07:22:47.51	53.60	10.98	
2025-01-08 07:22:47.72	53.57	10.99	
2025-01-08 07:22:47.93	53.53	10.99	
2025-01-08 07:22:48.13	53.50	11.00	
2025-01-08 07:22:48.34	53.46	11.01	
2025-01-08 07:22:48.54	53.43	11.01	
2025-01-08 07:22:48.75	53.39	11.02	
2025-01-08 07:22:48.95	53.36	11.03	
2025-01-08 07:22:49.16	53.32	11.04	
2025-01-08 07:22:49.36	53.29	11.04	
2025-01-08 07:22:49.58	53.25	11.05	
2025-01-08 07:22:49.79	53.21	11.06	
2025-01-08 07:22:49.99	53.18	11.07	
2025-01-08 07:22:50.20	53.14	11.07	
2025-01-08 07:22:50.41	53.11	11.08	
2025-01-08 07:22:50.61	53.07	11.09	
2025-01-08 07:22:50.81	53.04	11.10	
2025-01-08 07:22:51.02	53.00	11.10	
2025-01-08 07:22:51.23	52.97	11.11	
2025-01-08 07:22:51.43	52.93	11.12	
2025-01-08 07:22:51.64	52.90	11.12	
2025-01-08 07:22:51.84	52.86	11.13	
2025-01-08 07:22:52.05	52.83	11.14	
2025-01-08 07:22:52.25	52.79	11.15	
2025-01-08 07:22:52.45	52.76	11.15	
2025-01-08 07:22:52.66	52.72	11.16	
2025-01-08 07:22:52.87	52.68	11.17	
2025-01-08 07:22:53.07	52.65	11.17	
2025-01-08 07:22:53.28	52.61	11.18	
2025-01-08 07:22:53.48	52.58	11.19	
2025-01-08 07:22:53.69	52.54	11.20	
2025-01-08 07:22:53.90	52.51	11.20	
2025-01-08 07:22:54.10	52.47	11.21	
2025-01-08 07:22:54.31	52.44	11.22	
2025-01-08 07:22:54.51	52.40	11.22	
2025-01-08 07:22:54.72	52.36	11.23	
2025-01-08 07:22:54.92	52.33	11.24	
2025-01-08 07:22:55.13	52.29	11.24	
2025-01-08 07:22:55.33	52.26	11.25	
2025-01-08 07:22:55.54	52.22	11.26	
2025-01-08 07:22:55.74	52.19	11.27	
2025-01-08 07:22:55.94	52.15	11.27	
2025-01-08 07:22:56.15	52.12	11.28	
2025-01-08 07:22:56.36	52.08	11.29	
2025-01-08 07:22:56.56	52.05	11.29	
2025-01-08 07:22:56.77	52.01	11.30	
2025-01-08 07:22:56.98	51.97	11.31	
2025-01-08 07:22:57.18	51.94	11.31	
2025-01-08 07:22:57.39	51.90	11.32	
2025-01-08 07:22:57.59	51.87	11.33	
2025-01-08 07:22:57.80	51.83	11.34	
2025-01-08 07:22:58.00	51.79	11.34	
2025-01-08 07:22:58.21	51.76	11.35	
2025-01-08 07:22:58.41	51.72	11.36	
2025-01-08 07:22:58.62	51.69	11.36	
2025-01-08 07:22:58.83	51.65	11.37	
2025-01-08 07:22:59.03	51.61	11.38	
2025-01-08 07:22:59.25	51.58	11.38	
2025-01-08 07:22:59.45	51.54	11.39	
2025-01-08 07:22:59.66	51.50	11.40	
2025-01-08 07:22:59.86	51.47	11.40	
2025-01-08 07:23:00.07	51.43	11.41	
2025-01-08 07:23:00.27	51.40	11.42	
2025-01-08 07:23:00.48	51.36	11.42	
2025-01-08 07:23:00.68	51.33	11.43	
2025-01-08 07:23:00.89	51.29	11.44	
2025-01-08 07:23:01.10	51.25	11.45	
2025-01-08 07:23:01.30	51.22	11.45	
2025-01-08 07:23:01.51	51.18	11.46	
2025-01-08 07:23:01.71	51.14	11.47	
2025-01-08 07:23:01.92	51.11	11.47	
2025-01-08 07:23:02.12	51.07	11.48	
2025-01-08 07:23:02.33	51.04	11.49	
2025-01-08 07:23:02.53	51.00	11.49	
2025-01-08 07:23:02.74	50.96	11.50	
2025-01-08 07:23:02.94	50.93	11.51	
2025-01-08 07:23:03.15	50.89	11.51	
2025-01-08 07:23:03.36	50.85	11.52	
2025-01-08 07:23:03.56	50.82	11.53	
2025-01-08 07:23:03.77	50.78	11.53	
2025-01-08 07:23:03.97	50.75	11.54	
2025-01-08 07:23:04.18	50.71	11.55	
2025-01-08 07:23:04.38	50.67	11.55	
2025-01-08 07:23:04.59	50.64	11.56	
2025-01-08 07:23:04.79	50.60	11.57	
2025-01-08 07:23:05.00	50.56	11.57	
2025-01-08 07:23:05.21	50.53	11.58	
2025-01-08 07:23:05.41	50.49	11.59	
2025-01-08 07:23:05.62	50.45	11.59	
2025-01-08 07:23:05.82	50.42	11.60	
2025-01-08 07:23:06.03	50.38	11.60	
2025-01-08 07:23:06.23	50.35	11.61	
2025-01-08 07:23:06.44	50.31	11.62	
2025-01-08 07:23:06.64	50.27	11.62	
2025-01-08 07:23:06.85	50.24	11.63	
2025-01-08 07:23:07.05	50.20	11.64	
2025-01-08 07:23:07.26	50.16	11.64	
2025-01-08 07:23:07.46	50.13	11.65	
2025-01-08 07:23:07.67	50.09	11.66	
2025-01-08 07:23:07.87	50.05	11.66	
2025-01-08 07:23:08.08	50.02	11.67	
2025-01-08 07:23:08.29	49.98	11.68	
2025-01-08 07:23:08.49	49.94	11.68	
2025-01-08 07:23:08.70	49.91	11.69	
2025-01-08 07:23:08.90	49.87	11.70	
2025-01-08 07:23:09.10	49.83	11.70	
2025-01-08 07:23:09.31	49.80	11.71	
2025-01-08 07:23:09.52	49.76	11.71	
2025-01-08 07:23:09.72	49.72	11.72	
2025-01-08 07:23:09.93	49.69	11.73	
2025-01-08 07:23:10.13	49.65	11.73	
2025-01-08 07:23:10.34	49.61	11.74	
2025-01-08 07:23:10.54	49.58	11.75	
2025-01-08 07:23:10.75	49.54	11.75	
2025-01-08 07:23:10.95	49.50	11.76	
2025-01-08 07:23:11.16	49.46	11.77	
2025-01-08 07:23:11.36	49.43	11.77	
2025-01-08 07:23:11.57	49.39	11.78	
2025-01-08 07:23:11.77	49.35	11.78	
2025-01-08 07:23:11.98	49.32	11.79	
2025-01-08 07:23:12.18	49.28	11.80	
2025-01-08 07:23:12.39	49.24	11.80	
2025-01-08 07:23:12.59	49.21	11.81	
2025-01-08 07:23:12.80	49.17	11.82	
2025-01-08 07:23:13.00	49.13	11.82	
2025-01-08 07:23:13.21	49.10	11.83	
2025-01-08 07:23:13.42	49.06	11.83	
2025-01-08 07:23:13.63	49.02	11.84	
2025-01-08 07:23:13.84	48.98	11.85	
2025-01-08 07:23:14.04	48.95	11.85	
2025-01-08 07:23:14.24	48.91	11.86	
2025-01-08 07:23:14.45	48.87	11.86	
2025-01-08 07:23:14.66	48.83	11.87	
2025-01-08 07:23:14.86	48.80	11.88	
2025-01-08 07:23:15.07	48.76	11.88	
2025-01-08 07:23:15.27	48.72	11.89	
2025-01-08 07:23:15.48	48.68	11.90	
2025-01-08 07:23:15.68	48.65	11.90	
2025-01-08 07:23:15.89	48.61	11.91	
2025-01-08 07:23:16.09	48.57	11.91	
2025-01-08 07:23:16.30	48.54	11.92	
2025-01-08 07:23:16.50	48.50	11.93	
2025-01-08 07:23:16.71	48.46	11.93	
2025-01-08 07:23:16.91	48.43	11.94	
2025-01-08 07:23:17.12	48.39	11.94	
2025-01-08 07:23:17.32	48.35	11.95	
2025-01-08 07:23:17.53	48.31	11.96	
2025-01-08 07:23:17.74	48.27	11.96	
2025-01-08 07:23:17.94	48.24	11.97	
2025-01-08 07:23:18.14	48.20	11.97	
2025-01-08 07:23:18.35	48.16	11.98	
2025-01-08 07:23:18.56	48.13	11.99	
2025-01-08 07:23:18.76	48.09	11.99	
2025-01-08 07:23:18.97	48.05	12.00	
2025-01-08 07:23:19.17	48.01	12.00	
2025-01-08 07:23:19.38	47.98	12.01	
2025-01-08 07:23:19.58	47.94	12.01	
2025-01-08 07:23:19.79	47.90	12.02	
2025-01-08 07:23:20.00	47.86	12.03	
2025-01-08 07:23:20.20	47.83	12.03	
2025-01-08 07:23:20.41	47.79	12.04	
2025-01-08 07:23:20.61	47.75	12.04	
2025-01-08 07:23:20.82	47.71	12.05	
2025-01-08 07:23:21.02	47.68	12.06	
2025-01-08 07:23:21.23	47.64	12.06	
2025-01-08 07:23:21.43	47.60	12.07	
2025-01-08 07:23:21.64	47.56	12.07	
2025-01-08 07:23:21.84	47.52	12.08	
2025-01-08 07:23:22.05	47.49	12.08	
2025-01-08 07:23:22.25	47.45	12.09	
2025-01-08 07:23:22.46	47.41	12.10	
2025-01-08 07:23:22.66	47.37	12.10	
2025-01-08 07:23:22.87	47.34	12.11	
2025-01-08 07:23:23.07	47.30	12.11	
2025-01-08 07:23:23.27	47.26	12.12	
2025-01-08 07:23:23.48	47.22	12.12	
2025-01-08 07:23:23.69	47.18	12.13	
2025-01-08 07:23:23.89	47.15	12.14	
2025-01-08 07:23:24.09	47.11	12.14	
2025-01-08 07:23:24.30	47.07	12.15	
2025-01-08 07:23:24.51	47.03	12.15	
2025-01-08 07:23:24.71	47.00	12.16	
2025-01-08 07:23:24.91	46.96	12.16	
2025-01-08 07:23:25.12	46.92	12.17	
2025-01-08 07:23:25.32	46.88	12.17	
2025-01-08 07:23:25.53	46.85	12.18	
2025-01-08 07:23:25.74	46.81	12.19	
2025-01-08 07:23:25.94	46.77	12.19	
2025-01-08 07:23:26.14	46.73	12.20	
2025-01-08 07:23:26.35	46.69	12.20	
2025-01-08 07:23:26.55	46.66	12.21	
2025-01-08 07:23:26.76	46.62	12.21	
2025-01-08 07:23:26.96	46.58	12.22	
2025-01-08 07:23:27.17	46.54	12.22	
2025-01-08 07:23:27.37	46.50	12.23	
2025-01-08 07:23:27.58	46.47	12.24	
2025-01-08 07:23:27.79	46.43	12.24	
2025-01-08 07:23:27.99	46.39	12.25	
2025-01-08 07:23:28.19	46.35	12.25	
2025-01-08 07:23:28.40	46.31	12.26	
2025-01-08 07:23:28.61	46.27	12.26	
2025-01-08 07:23:28.81	46.24	12.27	
2025-01-08 07:23:29.01	46.20	12.27	
2025-01-08 07:23:29.22	46.16	12.28	
2025-01-08 07:23:29.42	46.12	12.28	
2025-01-08 07:23:29.63	46.08	12.29	
2025-01-08 07:23:29.84	46.05	12.29	
2025-01-08 07:23:30.04	46.01	12.30	
2025-01-08 07:23:30.24	45.97	12.30	
2025-01-08 07:23:30.45	45.93	12.31	
2025-01-08 07:23:30.66	45.89	12.32	
2025-01-08 07:23:30.86	45.86	12.32	
2025-01-08 07:23:31.07	45.82	12.33	
2025-01-08 07:23:31.27	45.78	12.33	
2025-01-08 07:23:31.47	45.74	12.34	
2025-01-08 07:23:31.68	45.70	12.34	
2025-01-08 07:23:31.89	45.66	12.35	
2025-01-08 07:23:32.09	45.63	12.35	
2025-01-08 07:23:32.29	45.59	12.36	
2025-01-08 07:23:32.50	45.55	12.36	
2025-01-08 07:23:32.71	45.51	12.37	
2025-01-08 07:23:32.91	45.47	12.37	
2025-01-08 07:23:33.12	45.43	12.38	
2025-01-08 07:23:33.32	45.40	12.38	
2025-01-08 07:23:33.53	45.36	12.39	
2025-01-08 07:23:33.74	45.32	12.39	
2025-01-08 07:23:33.94	45.28	12.40	
2025-01-08 07:23:34.15	45.24	12.40	
2025-01-08 07:23:34.35	45.20	12.41	
2025-01-08 07:23:34.56	45.16	12.41	
2025-01-08 07:23:34.76	45.13	12.42	
2025-01-08 07:23:34.97	45.09	12.42	
2025-01-08 07:23:35.17	45.05	12.43	
2025-01-08 07:23:35.38	45.01	12.43	
2025-01-08 07:23:35.58	44.97	12.44	
2025-01-08 07:23:35.79	44.93	12.44	
2025-01-08 07:23:36.00	44.89	12.45	
2025-01-08 07:23:36.20	44.85	12.45	
2025-01-08 07:23:36.41	44.82	12.46	
2025-01-08 07:23:36.61	44.78	12.46	
2025-01-08 07:23:36.82	44.74	12.47	
2025-01-08 07:23:37.02	44.70	12.47	
2025-01-08 07:23:37.23	44.66	12.48	
2025-01-08 07:23:37.44	44.62	12.48	
2025-01-08 07:23:37.64	44.58	12.49	
2025-01-08 07:23:37.84	44.55	12.49	
2025-01-08 07:23:38.05	44.51	12.50	
2025-01-08 07:23:38.25	44.47	12.50	
2025-01-08 07:23:38.46	44.43	12.51	
2025-01-08 07:23:38.66	44.39	12.51	
2025-01-08 07:23:38.87	44.35	12.52	
2025-01-08 07:23:39.08	44.31	12.52	
2025-01-08 07:23:39.28	44.27	12.53	
2025-01-08 07:23:39.49	44.23	12.53	
2025-01-08 07:23:39.69	44.20	12.54	
2025-01-08 07:23:39.89	44.16	12.54	
2025-01-08 07:23:40.10	44.12	12.55	
2025-01-08 07:23:40.30	44.08	12.55	
2025-01-08 07:23:40.50	44.04	12.56	
2025-01-08 07:23:40.71	44.00	12.56	
2025-01-08 07:23:40.91	43.96	12.56	
2025-01-08 07:23:41.12	43.92	12.57	
2025-01-08 07:23:41.32	43.89	12.57	
2025-01-08 07:23:41.53	43.85	12.58	
2025-01-08 07:23:41.73	43.81	12.58	
2025-01-08 07:23:41.94	43.77	12.59	
2025-01-08 07:23:42.14	43.73	12.59	
2025-01-08 07:23:42.35	43.69	12.60	
2025-01-08 07:23:42.55	43.65	12.60	
2025-01-08 07:23:42.76	43.61	12.61	
2025-01-08 07:23:42.96	43.57	12.61	
2025-01-08 07:23:43.17	43.53	12.62	
2025-01-08 07:23:43.38	43.49	12.62	
2025-01-08 07:23:43.58	43.46	12.62	
2025-01-08 07:23:43.79	43.42	12.63	
2025-01-08 07:23:43.99	43.38	12.63	
2025-01-08 07:23:44.20	43.34	12.64	
2025-01-08 07:23:44.40	43.30	12.64	
2025-01-08 07:23:44.61	43.26	12.65	
2025-01-08 07:23:44.81	43.22	12.65	
2025-01-08 07:23:45.02	43.18	12.66	
2025-01-08 07:23:45.23	43.14	12.66	
2025-01-08 07:23:45.44	43.10	12.67	
2025-01-08 07:23:45.65	43.06	12.67	
2025-01-08 07:23:45.85	43.02	12.67	
2025-01-08 07:23:46.06	42.98	12.68	
2025-01-08 07:23:46.26	42.95	12.68	
2025-01-08 07:23:46.47	42.91	12.69	
2025-01-08 07:23:46.67	42.87	12.69	
2025-01-08 07:23:46.88	42.83	12.70	
2025-01-08 07:23:47.08	42.79	12.70	
2025-01-08 07:23:47.29	42.75	12.70	
2025-01-08 07:23:47.49	42.71	12.71	
2025-01-08 07:23:47.70	42.67	12.71	
2025-01-08 07:23:47.90	42.63	12.72	
2025-01-08 07:23:48.11	42.59	12.72	
2025-01-08 07:23:48.31	42.55	12.73	
2025-01-08 07:23:48.52	42.51	12.73	
2025-01-08 07:23:48.72	42.47	12.73	
2025-01-08 07:23:48.93	42.43	12.74	
2025-01-08 07:23:49.14	42.39	12.74	
2025-01-08 07:23:49.34	42.35	12.75	
2025-01-08 07:23:49.55	42.31	12.75	
2025-01-08 07:23:49.75	42.28	12.76	
2025-01-08 07:23:49.96	42.24	12.76	
2025-01-08 07:23:50.16	42.20	12.76	
2025-01-08 07:23:50.37	42.16	12.77	
2025-01-08 07:23:50.58	42.12	12.77	
2025-01-08 07:23:50.78	42.08	12.78	
2025-01-08 07:23:50.99	42.04	12.78	
2025-01-08 07:23:51.19	42.00	12.78	
2025-01-08 07:23:51.40	41.96	12.79	
2025-01-08 07:23:51.60	41.92	12.79	
2025-01-08 07:23:51.81	41.88	12.80	
2025-01-08 07:23:52.01	41.84	12.80	
2025-01-08 07:23:52.22	41.80	12.80	
2025-01-08 07:23:52.42	41.76	12.81	
2025-01-08 07:23:52.64	41.72	12.81	
2025-01-08 07:23:52.85	41.68	12.82	
2025-01-08 07:23:53.05	41.64	12.82	
2025-01-08 07:23:53.26	41.60	12.82	
2025-01-08 07:23:53.46	41.56	12.83	
2025-01-08 07:23:53.67	41.52	12.83	
2025-01-08 07:23:53.87	41.48	12.84	
2025-01-08 07:23:54.08	41.44	12.84	
2025-01-08 07:23:54.28	41.40	12.84	
2025-01-08 07:23:54.49	41.36	12.85	
2025-01-08 07:23:54.69	41.32	12.85	
2025-01-08 07:23:54.90	41.28	12.86	
2025-01-08 07:23:55.10	41.24	12.86	
2025-01-08 07:23:55.31	41.20	12.86	
2025-01-08 07:23:55.51	41.16	12.87	
2025-01-08 07:23:55.72	41.12	12.87	
2025-01-08 07:23:55.92	41.09	12.87	
2025-01-08 07:23:56.13	41.04	12.88	
2025-01-08 07:23:56.33	41.01	12.88	
2025-01-08 07:23:56.54	40.97	12.89	
2025-01-08 07:23:56.75	40.92	12.89	
2025-01-08 07:23:56.95	40.89	12.89	
2025-01-08 07:23:57.15	40.85	12.90	
2025-01-08 07:23:57.36	40.81	12.90	
2025-01-08 07:23:57.56	40.77	12.90	
2025-01-08 07:23:57.77	40.73	12.91	
2025-01-08 07:23:57.99	40.68	12.91	
2025-01-08 07:23:58.19	40.64	12.92	
2025-01-08 07:23:58.40	40.60	12.92	
2025-01-08 07:23:58.60	40.57	12.92	
2025-01-08 07:23:58.81	40.52	12.93	
2025-01-08 07:23:59.03	40.48	12.93	
2025-01-08 07:23:59.23	40.44	12.93	
2025-01-08 07:23:59.44	40.40	12.94	
2025-01-08 07:23:59.64	40.36	12.94	
2025-01-08 07:23:59.85	40.32	12.94	
2025-01-08 07:24:00.07	40.28	12.95	
2025-01-08 07:24:00.27	40.24	12.95	
2025-01-08 07:24:00.48	40.20	12.96	
2025-01-08 07:24:00.69	40.16	12.96	
2025-01-08 07:24:00.89	40.12	12.96	
2025-01-08 07:24:01.10	40.08	12.97	
2025-01-08 07:24:01.30	40.04	12.97	
2025-01-08 07:24:01.51	40.00	12.97	
2025-01-08 07:24:01.71	39.96	12.98	
2025-01-08 07:24:01.92	39.92	12.98	
2025-01-08 07:24:02.13	39.88	12.98	
2025-01-08 07:24:02.34	39.84	12.99	
2025-01-08 07:24:02.54	39.80	12.99	
2025-01-08 07:24:02.75	39.76	12.99	
2025-01-08 07:24:02.95	39.72	13.00	
2025-01-08 07:24:03.16	39.68	13.00	
2025-01-08 07:24:03.36	39.64	13.00	
2025-01-08 07:24:03.57	39.60	13.01	
2025-01-08 07:24:03.77	39.56	13.01	
2025-01-08 07:24:03.98	39.52	13.01	
2025-01-08 07:24:04.19	39.47	13.02	
2025-01-08 07:24:04.39	39.44	13.02	
2025-01-08 07:24:04.59	39.40	13.02	
2025-01-08 07:24:04.80	39.36	13.03	
2025-01-08 07:24:05.01	39.31	13.03	
2025-01-08 07:24:05.21	39.28	13.03	
2025-01-08 07:24:05.42	39.23	13.04	
2025-01-08 07:24:05.62	39.20	13.04	
2025-01-08 07:24:05.83	39.15	13.04	
2025-01-08 07:24:06.03	39.11	13.04	
2025-01-08 07:24:06.24	39.07	13.05	
2025-01-08 07:24:06.44	39.03	13.05	
2025-01-08 07:24:06.65	38.99	13.05	
2025-01-08 07:24:06.85	38.95	13.06	
2025-01-08 07:24:07.06	38.91	13.06	
2025-01-08 07:24:07.26	38.87	13.06	
2025-01-08 07:24:07.47	38.83	13.07	
2025-01-08 07:24:07.67	38.79	13.07	
2025-01-08 07:24:07.88	38.75	13.07	
2025-01-08 07:24:08.09	38.71	13.07	
2025-01-08 07:24:08.29	38.67	13.08	
2025-01-08 07:24:08.49	38.63	13.08	
2025-01-08 07:24:08.70	38.59	13.08	
2025-01-08 07:24:08.91	38.55	13.09	
2025-01-08 07:24:09.11	38.51	13.09	
2025-01-08 07:24:09.32	38.47	13.09	
2025-01-08 07:24:09.52	38.43	13.10	
2025-01-08 07:24:09.72	38.39	13.10	
2025-01-08 07:24:09.93	38.35	13.10	
2025-01-08 07:24:10.14	38.31	13.10	
2025-01-08 07:24:10.34	38.27	13.11	
2025-01-08 07:24:10.55	38.23	13.11	
2025-01-08 07:24:10.75	38.19	13.11	
2025-01-08 07:24:10.96	38.15	13.12	
2025-01-08 07:24:11.16	38.11	13.12	
2025-01-08 07:24:11.37	38.07	13.12	
2025-01-08 07:24:11.58	38.02	13.12	
2025-01-08 07:24:11.79	37.98	13.13	
2025-01-08 07:24:12.00	37.94	13.13	
2025-01-08 07:24:12.21	37.90	13.13	
2025-01-08 07:24:12.41	37.86	13.13	
2025-01-08 07:24:12.62	37.82	13.14	
2025-01-08 07:24:12.82	37.78	13.14	
2025-01-08 07:24:13.03	37.74	13.14	
2025-01-08 07:24:13.23	37.70	13.15	
2025-01-08 07:24:13.44	37.66	13.15	
2025-01-08 07:24:13.64	37.62	13.15	
2025-01-08 07:24:13.85	37.58	13.15	
2025-01-08 07:24:14.05	37.54	13.16	
2025-01-08 07:24:14.26	37.50	13.16	
2025-01-08 07:24:14.47	37.45	13.16	
2025-01-08 07:24:14.67	37.41	13.16	
2025-01-08 07:24:14.88	37.37	13.17	
2025-01-08 07:24:15.09	37.33	13.17	
2025-01-08 07:24:15.30	37.29	13.17	
2025-01-08 07:24:15.51	37.25	13.17	
2025-01-08 07:24:15.71	37.21	13.18	
2025-01-08 07:24:15.92	37.17	13.18	
2025-01-08 07:24:16.12	37.13	13.18	
2025-01-08 07:24:16.33	37.09	13.18	
2025-01-08 07:24:16.53	37.05	13.19	
2025-01-08 07:24:16.74	37.00	13.19	
2025-01-08 07:24:16.95	36.96	13.19	
2025-01-08 07:24:17.15	36.92	13.19	
2025-01-08 07:24:17.36	36.88	13.20	
2025-01-08 07:24:17.56	36.84	13.20	
2025-01-08 07:24:17.77	36.80	13.20	
2025-01-08 07:24:17.98	36.76	13.20	
2025-01-08 07:24:18.19	36.72	13.21	
2025-01-08 07:24:18.40	36.68	13.21	
2025-01-08 07:24:18.60	36.64	13.21	
2025-01-08 07:24:18.81	36.59	13.21	
2025-01-08 07:24:19.01	36.56	13.21	
2025-01-08 07:24:19.22	36.51	13.22	
2025-01-08 07:24:19.42	36.47	13.22	
2025-01-08 07:24:19.63	36.43	13.22	
2025-01-08 07:24:19.83	36.39	13.22	
2025-01-08 07:24:20.04	36.35	13.23	
2025-01-08 07:24:20.24	36.31	13.23	
2025-01-08 07:24:20.45	36.27	13.23	
2025-01-08 07:24:20.65	36.23	13.23	
2025-01-08 07:24:20.86	36.19	13.23	
2025-01-08 07:24:21.07	36.15	13.24	
2025-01-08 07:24:21.27	36.11	13.24	
2025-01-08 07:24:21.48	36.06	13.24	
2025-01-08 07:24:21.68	36.03	13.24	
2025-01-08 07:24:21.89	35.98	13.24	
2025-01-08 07:24:22.09	35.94	13.25	
2025-01-08 07:24:22.30	35.90	13.25	
2025-01-08 07:24:22.50	35.86	13.25	
2025-01-08 07:24:22.71	35.82	13.25	
2025-01-08 07:24:22.92	35.78	13.25	
2025-01-08 07:24:23.12	35.74	13.26	
2025-01-08 07:24:23.33	35.70	13.26	
2025-01-08 07:24:23.53	35.66	13.26	
2025-01-08 07:24:23.74	35.62	13.26	
2025-01-08 07:24:23.94	35.58	13.26	
2025-01-08 07:24:24.15	35.53	13.27	
2025-01-08 07:24:24.35	35.49	13.27	
2025-01-08 07:24:24.56	35.45	13.27	
2025-01-08 07:24:24.76	35.41	13.27	
2025-01-08 07:24:24.97	35.37	13.27	
2025-01-08 07:24:25.18	35.33	13.28	
2025-01-08 07:24:25.38	35.29	13.28	
2025-01-08 07:24:25.59	35.25	13.28	
2025-01-08 07:24:25.79	35.21	13.28	
2025-01-08 07:24:26.00	35.17	13.28	
2025-01-08 07:24:26.20	35.13	13.28	
2025-01-08 07:24:26.41	35.08	13.29	
2025-01-08 07:24:26.62	35.04	13.29	
2025-01-08 07:24:26.82	35.00	13.29	
2025-01-08 07:24:27.03	34.96	13.29	
2025-01-08 07:24:27.23	34.92	13.29	
2025-01-08 07:24:27.44	34.88	13.29	
2025-01-08 07:24:27.64	34.84	13.30	
2025-01-08 07:24:27.85	34.80	13.30	
2025-01-08 07:24:28.05	34.76	13.30	
2025-01-08 07:24:28.26	34.72	13.30	
2025-01-08 07:24:28.46	34.68	13.30	
2025-01-08 07:24:28.67	34.63	13.30	
2025-01-08 07:24:28.87	34.59	13.31	
2025-01-08 07:24:29.08	34.55	13.31	
2025-01-08 07:24:29.28	34.51	13.31	
2025-01-08 07:24:29.49	34.47	13.31	
2025-01-08 07:24:29.70	34.43	13.31	
2025-01-08 07:24:29.90	34.39	13.31	
2025-01-08 07:24:30.11	34.35	13.31	
2025-01-08 07:24:30.31	34.31	13.32	
2025-01-08 07:24:30.52	34.26	13.32	
2025-01-08 07:24:30.72	34.22	13.32	
2025-01-08 07:24:30.93	34.18	13.32	
2025-01-08 07:24:31.13	34.14	13.32	
2025-01-08 07:24:31.34	34.10	13.32	
2025-01-08 07:24:31.55	34.06	13.32	
2025-01-08 07:24:31.75	34.02	13.33	
2025-01-08 07:24:31.96	33.98	13.33	
2025-01-08 07:24:32.16	33.94	13.33	
2025-01-08 07:24:32.37	33.89	13.33	
2025-01-08 07:24:32.57	33.85	13.33	
2025-01-08 07:24:32.78	33.81	13.33	
2025-01-08 07:24:32.98	33.77	13.33	
2025-01-08 07:24:33.20	33.73	13.34	
2025-01-08 07:24:33.41	33.69	13.34	
2025-01-08 07:24:33.61	33.65	13.34	
2025-01-08 07:24:33.82	33.61	13.34	
2025-01-08 07:24:34.03	33.56	13.34	
2025-01-08 07:24:34.23	33.52	13.34	
2025-01-08 07:24:34.43	33.48	13.34	
2025-01-08 07:24:34.64	33.44	13.34	
2025-01-08 07:24:34.85	33.40	13.35	
2025-01-08 07:24:35.05	33.36	13.35	
2025-01-08 07:24:35.25	33.32	13.35	
2025-01-08 07:24:35.46	33.28	13.35	
2025-01-08 07:24:35.67	33.24	13.35	
2025-01-08 07:24:35.87	33.20	13.35	
2025-01-08 07:24:36.08	33.15	13.35	
2025-01-08 07:24:36.28	33.11	13.35	
2025-01-08 07:24:36.49	33.07	13.35	
2025-01-08 07:24:36.69	33.03	13.35	
2025-01-08 07:24:36.90	32.99	13.36	
2025-01-08 07:24:37.10	32.95	13.36	
2025-01-08 07:24:37.31	32.91	13.36	
2025-01-08 07:24:37.51	32.87	13.36	
2025-01-08 07:24:37.72	32.82	13.36	
2025-01-08 07:24:37.93	32.78	13.36	
2025-01-08 07:24:38.13	32.74	13.36	
2025-01-08 07:24:38.34	32.70	13.36	
2025-01-08 07:24:38.54	32.66	13.36	
2025-01-08 07:24:38.74	32.62	13.36	
2025-01-08 07:24:38.95	32.58	13.37	
2025-01-08 07:24:39.16	32.54	13.37	
2025-01-08 07:24:39.36	32.50	13.37	
2025-01-08 07:24:39.57	32.45	13.37	
2025-01-08 07:24:39.77	32.41	13.37	
2025-01-08 07:24:39.98	32.37	13.37	
2025-01-08 07:24:40.18	32.33	13.37	
2025-01-08 07:24:40.39	32.29	13.37	
2025-01-08 07:24:40.59	32.25	13.37	
2025-01-08 07:24:40.80	32.21	13.37	
2025-01-08 07:24:41.00	32.17	13.37	
2025-01-08 07:24:41.21	32.13	13.37	
2025-01-08 07:24:41.41	32.09	13.37	
2025-01-08 07:24:41.61	32.05	13.37	
2025-01-08 07:24:41.83	32.00	13.38	
2025-01-08 07:24:42.04	31.96	13.38	
2025-01-08 07:24:42.24	31.92	13.38	
2025-01-08 07:24:42.45	31.88	13.38	
2025-01-08 07:24:42.65	31.84	13.38	
2025-01-08 07:24:42.87	31.79	13.38	
2025-01-08 07:24:43.07	31.75	13.38	
2025-01-08 07:24:43.28	31.71	13.38	
2025-01-08 07:24:43.49	31.67	13.38	
2025-01-08 07:24:43.69	31.63	13.38	
2025-01-08 07:24:43.89	31.59	13.38	
2025-01-08 07:24:44.10	31.55	13.38	
2025-01-08 07:24:44.30	31.51	13.38	
2025-01-08 07:24:44.51	31.46	13.38	
2025-01-08 07:24:44.71	31.42	13.38	
2025-01-08 07:24:44.92	31.38	13.38	
2025-01-08 07:24:45.12	31.34	13.38	
2025-01-08 07:24:45.33	31.30	13.38	
2025-01-08 07:24:45.53	31.26	13.38	
2025-01-08 07:24:45.74	31.22	13.39	
2025-01-08 07:24:45.94	31.18	13.39	
2025-01-08 07:24:46.15	31.14	13.39	
2025-01-08 07:24:46.35	31.10	13.39	
2025-01-08 07:24:46.56	31.05	13.39	
2025-01-08 07:24:46.77	31.01	13.39	
2025-01-08 07:24:46.97	30.97	13.39	
2025-01-08 07:24:47.18	30.93	13.39	
2025-01-08 07:24:47.38	30.89	13.39	
2025-01-08 07:24:47.59	30.85	13.39	
2025-01-08 07:24:47.80	30.80	13.39	
2025-01-08 07:24:48.00	30.76	13.39	
2025-01-08 07:24:48.21	30.72	13.39	
2025-01-08 07:24:48.41	30.68	13.39	
2025-01-08 07:24:48.62	30.64	13.39	
2025-01-08 07:24:48.82	30.60	13.39	
2025-01-08 07:24:49.03	30.56	13.39	
2025-01-08 07:24:49.23	30.52	13.39	
2025-01-08 07:24:49.44	30.48	13.39	
2025-01-08 07:24:49.64	30.44	13.39	
2025-01-08 07:24:49.85	30.39	13.39	
2025-01-08 07:24:50.05	30.35	13.39	
2025-01-08 07:24:50.26	30.31	13.39	
2025-01-08 07:24:50.46	30.27	13.39	
2025-01-08 07:24:50.67	30.23	13.39	
2025-01-08 07:24:50.88	30.19	13.39	
2025-01-08 07:24:51.08	30.15	13.39	
2025-01-08 07:24:51.29	30.10	13.39	
2025-01-08 07:24:51.49	30.06	13.39	
2025-01-08 07:24:51.70	30.02	13.39	
2025-01-08 07:24:51.90	29.98	13.39	
2025-01-08 07:24:52.11	29.94	13.39	
2025-01-08 07:24:52.31	29.90	13.39	
2025-01-08 07:24:52.51	29.86	13.39	
2025-01-08 07:24:52.72	29.82	13.39	
2025-01-08 07:24:52.93	29.78	13.39	
2025-01-08 07:24:53.13	29.74	13.39	
2025-01-08 07:24:53.34	29.69	13.39	
2025-01-08 07:24:53.54	29.65	13.39	
2025-01-08 07:24:53.75	29.61	13.39	
2025-01-08 07:24:53.95	29.57	13.39	
2025-01-08 07:24:54.16	29.53	13.39	
2025-01-08 07:24:54.37	29.49	13.39	
2025-01-08 07:24:54.58	29.44	13.39	
2025-01-08 07:24:54.79	29.40	13.39	
2025-01-08 07:24:55.00	29.36	13.39	
2025-01-08 07:24:55.20	29.32	13.39	
2025-01-08 07:24:55.41	29.28	13.39	
2025-01-08 07:24:55.62	29.24	13.39	
2025-01-08 07:24:55.83	29.19	13.39	
2025-01-08 07:24:56.04	29.15	13.39	
2025-01-08 07:24:56.24	29.11	13.39	
2025-01-08 07:24:56.45	29.07	13.38	
2025-01-08 07:24:56.65	29.03	13.38	
2025-01-08 07:24:56.86	28.99	13.38	
2025-01-08 07:24:57.06	28.95	13.38	
2025-01-08 07:24:57.27	28.91	13.38	
2025-01-08 07:24:57.48	28.86	13.38	
2025-01-08 07:24:57.68	28.82	13.38	
2025-01-08 07:24:57.88	28.78	13.38	
2025-01-08 07:24:58.09	28.74	13.38	
2025-01-08 07:24:58.29	28.70	13.38	
2025-01-08 07:24:58.50	28.66	13.38	
2025-01-08 07:24:58.70	28.62	13.38	
2025-01-08 07:24:58.91	28.58	13.38	
2025-01-08 07:24:59.11	28.54	13.38	
2025-01-08 07:24:59.32	28.49	13.38	
2025-01-08 07:24:59.53	28.45	13.38	
2025-01-08 07:24:59.73	28.41	13.38	
2025-01-08 07:24:59.94	28.37	13.38	
2025-01-08 07:25:00.14	28.33	13.38	
2025-01-08 07:25:00.35	28.29	13.37	
2025-01-08 07:25:00.55	28.25	13.37	
2025-01-08 07:25:00.76	28.21	13.37	
2025-01-08 07:25:00.96	28.17	13.37	
2025-01-08 07:25:01.17	28.12	13.37	
2025-01-08 07:25:01.38	28.08	13.37	
2025-01-08 07:25:01.58	28.04	13.37	
2025-01-08 07:25:01.79	28.00	13.37	
2025-01-08 07:25:01.99	27.96	13.37	
2025-01-08 07:25:02.20	27.92	13.37	
2025-01-08 07:25:02.40	27.88	13.37	
2025-01-08 07:25:02.61	27.84	13.37	
2025-01-08 07:25:02.81	27.80	13.37	
2025-01-08 07:25:03.01	27.76	13.36	
2025-01-08 07:25:03.22	27.71	13.36	
2025-01-08 07:25:03.42	27.67	13.36	
2025-01-08 07:25:03.63	27.63	13.36	
2025-01-08 07:25:03.84	27.59	13.36	
2025-01-08 07:25:04.04	27.55	13.36	
2025-01-08 07:25:04.24	27.51	13.36	
2025-01-08 07:25:04.45	27.47	13.36	
2025-01-08 07:25:04.65	27.43	13.36	
2025-01-08 07:25:04.86	27.38	13.36	
2025-01-08 07:25:05.06	27.34	13.36	
2025-01-08 07:25:05.27	27.30	13.35	
2025-01-08 07:25:05.47	27.26	13.35	
2025-01-08 07:25:05.68	27.22	13.35	
2025-01-08 07:25:05.88	27.18	13.35	
2025-01-08 07:25:06.09	27.14	13.35	
2025-01-08 07:25:06.29	27.10	13.35	
2025-01-08 07:25:06.50	27.06	13.35	
2025-01-08 07:25:06.71	27.01	13.35	
2025-01-08 07:25:06.91	26.97	13.35	
2025-01-08 07:25:07.12	26.93	13.34	
2025-01-08 07:25:07.32	26.89	13.34	
2025-01-08 07:25:07.53	26.85	13.34	
2025-01-08 07:25:07.73	26.81	13.34	
2025-01-08 07:25:07.94	26.77	13.34	
2025-01-08 07:25:08.15	26.73	13.34	
2025-01-08 07:25:08.36	26.68	13.34	
2025-01-08 07:25:08.57	26.64	13.34	
2025-01-08 07:25:08.78	26.60	13.33	
2025-01-08 07:25:08.98	26.56	13.33	
2025-01-08 07:25:09.19	26.52	13.33	
2025-01-08 07:25:09.39	26.48	13.33	
2025-01-08 07:25:09.60	26.44	13.33	
2025-01-08 07:25:09.80	26.40	13.33	
2025-01-08 07:25:10.01	26.36	13.33	
2025-01-08 07:25:10.21	26.32	13.33	
2025-01-08 07:25:10.42	26.27	13.32	
2025-01-08 07:25:10.62	26.23	13.32	
2025-01-08 07:25:10.83	26.19	13.32	
2025-01-08 07:25:11.03	26.15	13.32	
2025-01-08 07:25:11.24	26.11	13.32	
2025-01-08 07:25:11.44	26.07	13.32	
2025-01-08 07:25:11.65	26.03	13.32	
2025-01-08 07:25:11.85	25.99	13.31	
2025-01-08 07:25:12.06	25.95	13.31	
2025-01-08 07:25:12.27	25.90	13.31	
2025-01-08 07:25:12.47	25.86	13.31	
2025-01-08 07:25:12.67	25.82	13.31	
2025-01-08 07:25:12.88	25.78	13.31	
2025-01-08 07:25:13.09	25.74	13.31	
2025-01-08 07:25:13.29	25.70	13.30	
2025-01-08 07:25:13.50	25.66	13.30	
2025-01-08 07:25:13.70	25.62	13.30	
2025-01-08 07:25:13.91	25.58	13.30	
2025-01-08 07:25:14.11	25.54	13.30	
2025-01-08 07:25:14.31	25.50	13.30	
2025-01-08 07:25:14.52	25.46	13.29	
2025-01-08 07:25:14.73	25.41	13.29	
2025-01-08 07:25:14.93	25.37	13.29	
2025-01-08 07:25:15.14	25.33	13.29	
2025-01-08 07:25:15.34	25.29	13.29	
2025-01-08 07:25:15.55	25.25	13.29	
2025-01-08 07:25:15.75	25.21	13.28	
2025-01-08 07:25:15.97	25.17	13.28	
2025-01-08 07:25:16.17	25.13	13.28	
2025-01-08 07:25:16.38	25.09	13.28	
2025-01-08 07:25:16.59	25.04	13.28	
2025-01-08 07:25:16.79	25.00	13.27	
2025-01-08 07:25:16.99	24.96	13.27	
2025-01-08 07:25:17.20	24.92	13.27	
2025-01-08 07:25:17.42	24.88	13.27	
2025-01-08 07:25:17.62	24.84	13.27	
2025-01-08 07:25:17.83	24.80	13.27	
2025-01-08 07:25:18.03	24.76	13.26	
2025-01-08 07:25:18.23	24.72	13.26	
2025-01-08 07:25:18.44	24.68	13.26	
2025-01-08 07:25:18.65	24.63	13.26	
2025-01-08 07:25:18.85	24.59	13.26	
2025-01-08 07:25:19.06	24.55	13.25	
2025-01-08 07:25:19.26	24.51	13.25	
2025-01-08 07:25:19.47	24.47	13.25	
2025-01-08 07:25:19.67	24.43	13.25	
2025-01-08 07:25:19.88	24.39	13.25	
2025-01-08 07:25:20.08	24.35	13.24	
2025-01-08 07:25:20.28	24.31	13.24	
2025-01-08 07:25:20.49	24.27	13.24	
2025-01-08 07:25:20.70	24.23	13.24	
2025-01-08 07:25:20.90	24.19	13.24	
2025-01-08 07:25:21.11	24.15	13.23	
2025-01-08 07:25:21.31	24.11	13.23	
2025-01-08 07:25:21.52	24.06	13.23	
2025-01-08 07:25:21.72	24.02	13.23	
2025-01-08 07:25:21.93	23.98	13.22	
2025-01-08 07:25:22.14	23.94	13.22	
2025-01-08 07:25:22.34	23.90	13.22	
2025-01-08 07:25:22.54	23.86	13.22	
2025-01-08 07:25:22.75	23.82	13.22	
2025-01-08 07:25:22.96	23.78	13.21	
2025-01-08 07:25:23.16	23.74	13.21	
2025-01-08 07:25:23.36	23.70	13.21	
2025-01-08 07:25:23.57	23.66	13.21	
2025-01-08 07:25:23.78	23.62	13.20	
2025-01-08 07:25:23.98	23.58	13.20	
2025-01-08 07:25:24.19	23.54	13.20	
2025-01-08 07:25:24.39	23.50	13.20	
2025-01-08 07:25:24.60	23.45	13.19	
2025-01-08 07:25:24.80	23.41	13.19	
2025-01-08 07:25:25.01	23.37	13.19	
2025-01-08 07:25:25.21	23.33	13.19	
2025-01-08 07:25:25.42	23.29	13.19	
2025-01-08 07:25:25.62	23.25	13.18	
2025-01-08 07:25:25.83	23.21	13.18	
2025-01-08 07:25:26.03	23.17	13.18	
2025-01-08 07:25:26.24	23.13	13.18	
2025-01-08 07:25:26.45	23.09	13.17	
2025-01-08 07:25:26.65	23.05	13.17	
2025-01-08 07:25:26.86	23.01	13.17	
2025-01-08 07:25:27.06	22.97	13.17	
2025-01-08 07:25:27.26	22.93	13.16	
2025-01-08 07:25:27.47	22.89	13.16	
2025-01-08 07:25:27.67	22.85	13.16	
2025-01-08 07:25:27.88	22.81	13.16	
2025-01-08 07:25:28.08	22.77	13.15	
2025-01-08 07:25:28.29	22.73	13.15	
2025-01-08 07:25:28.49	22.69	13.15	
2025-01-08 07:25:28.70	22.64	13.15	
2025-01-08 07:25:28.90	22.60	13.14	
2025-01-08 07:25:29.11	22.56	13.14	
2025-01-08 07:25:29.31	22.52	13.14	
2025-01-08 07:25:29.52	22.48	13.13	
2025-01-08 07:25:29.72	22.44	13.13	
2025-01-08 07:25:29.93	22.40	13.13	
2025-01-08 07:25:30.13	22.36	13.13	
2025-01-08 07:25:30.34	22.32	13.12	
2025-01-08 07:25:30.54	22.28	13.12	
2025-01-08 07:25:30.75	22.24	13.12	
2025-01-08 07:25:30.96	22.20	13.12	
2025-01-08 07:25:31.16	22.16	13.11	
2025-01-08 07:25:31.38	22.12	13.11	
2025-01-08 07:25:31.59	22.08	13.11	
2025-01-08 07:25:31.79	22.04	13.10	
2025-01-08 07:25:31.99	22.00	13.10	
2025-01-08 07:25:32.20	21.96	13.10	
2025-01-08 07:25:32.40	21.92	13.10	
2025-01-08 07:25:32.61	21.87	13.09	
2025-01-08 07:25:32.82	21.83	13.09	
2025-01-08 07:25:33.02	21.79	13.09	
2025-01-08 07:25:33.23	21.75	13.08	
2025-01-08 07:25:33.44	21.71	13.08	
2025-01-08 07:25:33.64	21.67	13.08	
2025-01-08 07:25:33.84	21.63	13.07	
2025-01-08 07:25:34.05	21.59	13.07	
2025-01-08 07:25:34.25	21.55	13.07	
2025-01-08 07:25:34.46	21.51	13.07	
2025-01-08 07:25:34.66	21.47	13.06	
2025-01-08 07:25:34.87	21.43	13.06	
2025-01-08 07:25:35.07	21.39	13.06	
2025-01-08 07:25:35.28	21.35	13.05	
2025-01-08 07:25:35.48	21.31	13.05	
2025-01-08 07:25:35.69	21.27	13.05	
2025-01-08 07:25:35.90	21.23	13.04	
2025-01-08 07:25:36.10	21.19	13.04	
2025-01-08 07:25:36.31	21.15	13.04	
2025-01-08 07:25:36.51	21.11	13.03	
2025-01-08 07:25:36.72	21.07	13.03	
2025-01-08 07:25:36.92	21.03	13.03	
2025-01-08 07:25:37.13	20.99	13.03	
2025-01-08 07:25:37.33	20.95	13.02	
2025-01-08 07:25:37.54	20.91	13.02	
2025-01-08 07:25:37.74	20.87	13.02	
2025-01-08 07:25:37.95	20.83	13.01	
2025-01-08 07:25:38.16	20.79	13.01	
2025-01-08 07:25:38.36	20.75	13.01	
2025-01-08 07:25:38.56	20.71	13.00	
2025-01-08 07:25:38.77	20.67	13.00	
2025-01-08 07:25:38.97	20.63	13.00	
2025-01-08 07:25:39.18	20.59	12.99	
2025-01-08 07:25:39.38	20.55	12.99	
2025-01-08 07:25:39.59	20.51	12.99	
2025-01-08 07:25:39.79	20.47	12.98	
2025-01-08 07:25:40.00	20.43	12.98	
2025-01-08 07:25:40.21	20.39	12.98	
2025-01-08 07:25:40.41	20.35	12.97	
2025-01-08 07:25:40.62	20.31	12.97	
2025-01-08 07:25:40.82	20.27	12.97	
2025-01-08 07:25:41.03	20.23	12.96	
2025-01-08 07:25:41.24	20.19	12.96	
2025-01-08 07:25:41.44	20.15	12.95	
2025-01-08 07:25:41.64	20.11	12.95	
2025-01-08 07:25:41.85	20.07	12.95	
2025-01-08 07:25:42.05	20.03	12.94	
2025-01-08 07:25:42.25	19.99	12.94	
2025-01-08 07:25:42.46	19.95	12.94	
2025-01-08 07:25:42.66	19.91	12.93	
2025-01-08 07:25:42.87	19.87	12.93	
2025-01-08 07:25:43.08	19.83	12.93	
2025-01-08 07:25:43.28	19.79	12.92	
2025-01-08 07:25:43.49	19.75	12.92	
2025-01-08 07:25:43.69	19.71	12.92	
2025-01-08 07:25:43.90	19.67	12.91	
2025-01-08 07:25:44.10	19.63	12.91	
2025-01-08 07:25:44.31	19.59	12.91	
2025-01-08 07:25:44.51	19.55	12.90	
2025-01-08 07:25:44.73	19.51	12.90	
2025-01-08 07:25:44.94	19.47	12.89	
2025-01-08 07:25:45.14	19.43	12.89	
2025-01-08 07:25:45.35	19.39	12.89	
2025-01-08 07:25:45.55	19.35	12.88	
2025-01-08 07:25:45.76	19.31	12.88	
2025-01-08 07:25:45.96	19.27	12.88	
2025-01-08 07:25:46.17	19.23	12.87	
2025-01-08 07:25:46.37	19.19	12.87	
2025-01-08 07:25:46.58	19.15	12.86	
2025-01-08 07:25:46.78	19.11	12.86	
2025-01-08 07:25:46.99	19.07	12.86	
2025-01-08 07:25:47.19	19.03	12.85	
2025-01-08 07:25:47.40	18.99	12.85	
2025-01-08 07:25:47.61	18.95	12.84	
2025-01-08 07:25:47.81	18.91	12.84	
2025-01-08 07:25:48.01	18.88	12.84	
2025-01-08 07:25:48.22	18.83	12.83	
2025-01-08 07:25:48.42	18.80	12.83	
2025-01-08 07:25:48.63	18.76	12.83	
2025-01-08 07:25:48.83	18.72	12.82	
2025-01-08 07:25:49.04	18.68	12.82	
2025-01-08 07:25:49.24	18.64	12.81	
2025-01-08 07:25:49.45	18.60	12.81	
2025-01-08 07:25:49.66	18.56	12.81	
2025-01-08 07:25:49.86	18.52	12.80	
2025-01-08 07:25:50.08	18.48	12.80	
2025-01-08 07:25:50.28	18.44	12.79	
2025-01-08 07:25:50.49	18.40	12.79	
2025-01-08 07:25:50.69	18.36	12.78	
2025-01-08 07:25:50.90	18.32	12.78	
2025-01-08 07:25:51.10	18.28	12.78	
2025-01-08 07:25:51.31	18.24	12.77	
2025-01-08 07:25:51.52	18.20	12.77	
2025-01-08 07:25:51.72	18.16	12.76	
2025-01-08 07:25:51.93	18.12	12.76	
2025-01-08 07:25:52.13	18.08	12.76	
2025-01-08 07:25:52.34	18.04	12.75	
2025-01-08 07:25:52.54	18.00	12.75	
2025-01-08 07:25:52.75	17.96	12.74	
2025-01-08 07:25:52.95	17.92	12.74	
2025-01-08 07:25:53.15	17.89	12.74	
2025-01-08 07:25:53.36	17.85	12.73	
2025-01-08 07:25:53.56	17.81	12.73	
2025-01-08 07:25:53.77	17.77	12.72	
2025-01-08 07:25:53.98	17.73	12.72	
2025-01-08 07:25:54.18	17.69	12.71	
2025-01-08 07:25:54.39	17.65	12.71	
2025-01-08 07:25:54.59	17.61	12.71	
2025-01-08 07:25:54.80	17.57	12.70	
2025-01-08 07:25:55.01	17.53	12.70	
