passes_logs/2025/01/08/SPB_Silybum_02/SPB_Silybum_02__20250108_175220_TERRA_rec.log

#Pass ID: 20250108_175220_TERRA
#Satellite: TERRA
#Configuration: TERRA
#Start time: 2025-01-08 17:52:19

#Version: 2.0.20230423
#Station: SPB_Silybum_02
#Location: 30.233357 lon 59.946436 lat
#TLE: 1 25994U 99068A   25007.79031535  .00001159  00000+0  24884-3 0  9992
#TLE: 2 25994  98.0229  71.0496 0003578  86.9116 340.1593 14.60381232333028

#Time	Az	El	Level	Level2	SNR	BER	Gain	Gain2
2025-01-08 17:52:21.58	141.06	4.09	
2025-01-08 17:52:21.79	141.06	4.11	
2025-01-08 17:52:21.99	141.05	4.12	
2025-01-08 17:52:22.20	141.04	4.14	
2025-01-08 17:52:22.40	141.04	4.15	
2025-01-08 17:52:22.61	141.03	4.17	
2025-01-08 17:52:22.81	141.02	4.18	
2025-01-08 17:52:23.02	141.02	4.20	
2025-01-08 17:52:23.22	141.01	4.21	
2025-01-08 17:52:23.43	141.00	4.23	
2025-01-08 17:52:23.63	141.00	4.24	
2025-01-08 17:52:23.84	140.99	4.25	
2025-01-08 17:52:24.04	140.98	4.27	
2025-01-08 17:52:24.25	140.98	4.28	
2025-01-08 17:52:24.45	140.97	4.30	
2025-01-08 17:52:24.66	140.96	4.31	
2025-01-08 17:52:24.86	140.96	4.33	
2025-01-08 17:52:25.07	140.95	4.34	
2025-01-08 17:52:25.28	140.94	4.36	
2025-01-08 17:52:25.48	140.94	4.37	
2025-01-08 17:52:25.69	140.93	4.39	
2025-01-08 17:52:25.89	140.92	4.40	
2025-01-08 17:52:26.10	140.92	4.42	
2025-01-08 17:52:26.30	140.91	4.43	
2025-01-08 17:52:26.50	140.90	4.45	
2025-01-08 17:52:26.72	140.90	4.46	
2025-01-08 17:52:26.93	140.89	4.48	
2025-01-08 17:52:27.13	140.88	4.49	
2025-01-08 17:52:27.35	140.87	4.51	
2025-01-08 17:52:27.56	140.87	4.52	
2025-01-08 17:52:27.76	140.86	4.54	
2025-01-08 17:52:27.97	140.85	4.55	
2025-01-08 17:52:28.17	140.85	4.57	
2025-01-08 17:52:28.38	140.84	4.58	
2025-01-08 17:52:28.58	140.83	4.60	
2025-01-08 17:52:28.79	140.83	4.61	
2025-01-08 17:52:29.00	140.82	4.63	
2025-01-08 17:52:29.21	140.81	4.64	
2025-01-08 17:52:29.41	140.81	4.66	
2025-01-08 17:52:29.62	140.80	4.67	
2025-01-08 17:52:29.84	140.79	4.69	
2025-01-08 17:52:30.04	140.78	4.70	
2025-01-08 17:52:30.25	140.78	4.72	
2025-01-08 17:52:30.45	140.77	4.73	
2025-01-08 17:52:30.66	140.76	4.75	
2025-01-08 17:52:30.88	140.76	4.76	
2025-01-08 17:52:31.08	140.75	4.78	
2025-01-08 17:52:31.29	140.74	4.79	
2025-01-08 17:52:31.49	140.74	4.81	
2025-01-08 17:52:31.70	140.73	4.82	
2025-01-08 17:52:31.90	140.72	4.84	
2025-01-08 17:52:32.11	140.71	4.85	
2025-01-08 17:52:32.31	140.71	4.87	
2025-01-08 17:52:32.52	140.70	4.88	
2025-01-08 17:52:32.72	140.69	4.90	
2025-01-08 17:52:32.92	140.69	4.91	
2025-01-08 17:52:33.13	140.68	4.93	
2025-01-08 17:52:33.34	140.67	4.94	
2025-01-08 17:52:33.54	140.67	4.96	
2025-01-08 17:52:33.75	140.66	4.97	
2025-01-08 17:52:33.95	140.65	4.99	
2025-01-08 17:52:34.16	140.64	5.00	
2025-01-08 17:52:34.36	140.64	5.02	
2025-01-08 17:52:34.57	140.63	5.03	
2025-01-08 17:52:34.77	140.62	5.05	
2025-01-08 17:52:34.98	140.62	5.06	
2025-01-08 17:52:35.18	140.61	5.08	
2025-01-08 17:52:35.39	140.60	5.09	
2025-01-08 17:52:35.59	140.59	5.11	
2025-01-08 17:52:35.80	140.59	5.12	
2025-01-08 17:52:36.00	140.58	5.14	
2025-01-08 17:52:36.21	140.57	5.15	
2025-01-08 17:52:36.42	140.57	5.17	
2025-01-08 17:52:36.62	140.56	5.18	
2025-01-08 17:52:36.83	140.55	5.20	
2025-01-08 17:52:37.03	140.54	5.21	
2025-01-08 17:52:37.25	140.54	5.23	
2025-01-08 17:52:37.45	140.53	5.25	
2025-01-08 17:52:37.66	140.52	5.26	
2025-01-08 17:52:37.87	140.51	5.28	
2025-01-08 17:52:38.07	140.51	5.29	
2025-01-08 17:52:38.27	140.50	5.31	
2025-01-08 17:52:38.48	140.49	5.32	
2025-01-08 17:52:38.69	140.49	5.34	
2025-01-08 17:52:38.89	140.48	5.35	
2025-01-08 17:52:39.10	140.47	5.37	
2025-01-08 17:52:39.30	140.46	5.38	
2025-01-08 17:52:39.51	140.46	5.40	
2025-01-08 17:52:39.72	140.45	5.42	
2025-01-08 17:52:39.92	140.44	5.43	
2025-01-08 17:52:40.13	140.43	5.45	
2025-01-08 17:52:40.33	140.43	5.46	
2025-01-08 17:52:40.54	140.42	5.48	
2025-01-08 17:52:40.74	140.41	5.49	
2025-01-08 17:52:40.95	140.40	5.51	
2025-01-08 17:52:41.15	140.40	5.52	
2025-01-08 17:52:41.36	140.39	5.54	
2025-01-08 17:52:41.58	140.38	5.55	
2025-01-08 17:52:41.78	140.37	5.57	
2025-01-08 17:52:41.99	140.37	5.59	
2025-01-08 17:52:42.19	140.36	5.60	
2025-01-08 17:52:42.40	140.35	5.62	
2025-01-08 17:52:42.60	140.35	5.63	
2025-01-08 17:52:42.81	140.34	5.65	
2025-01-08 17:52:43.01	140.33	5.66	
2025-01-08 17:52:43.22	140.32	5.68	
2025-01-08 17:52:43.43	140.31	5.69	
2025-01-08 17:52:43.63	140.31	5.71	
2025-01-08 17:52:43.83	140.30	5.72	
2025-01-08 17:52:44.04	140.29	5.74	
2025-01-08 17:52:44.24	140.29	5.76	
2025-01-08 17:52:44.45	140.28	5.77	
2025-01-08 17:52:44.65	140.27	5.79	
2025-01-08 17:52:44.86	140.26	5.80	
2025-01-08 17:52:45.06	140.26	5.82	
2025-01-08 17:52:45.27	140.25	5.83	
2025-01-08 17:52:45.48	140.24	5.85	
2025-01-08 17:52:45.68	140.23	5.87	
2025-01-08 17:52:45.88	140.22	5.88	
2025-01-08 17:52:46.09	140.22	5.90	
2025-01-08 17:52:46.30	140.21	5.91	
2025-01-08 17:52:46.50	140.20	5.93	
2025-01-08 17:52:46.71	140.19	5.94	
2025-01-08 17:52:46.91	140.19	5.96	
2025-01-08 17:52:47.11	140.18	5.97	
2025-01-08 17:52:47.32	140.17	5.99	
2025-01-08 17:52:47.52	140.16	6.01	
2025-01-08 17:52:47.73	140.16	6.02	
2025-01-08 17:52:47.93	140.15	6.04	
2025-01-08 17:52:48.14	140.14	6.05	
2025-01-08 17:52:48.34	140.13	6.07	
2025-01-08 17:52:48.55	140.12	6.08	
2025-01-08 17:52:48.75	140.12	6.10	
2025-01-08 17:52:48.97	140.11	6.12	
2025-01-08 17:52:49.17	140.10	6.13	
2025-01-08 17:52:49.38	140.09	6.15	
2025-01-08 17:52:49.59	140.09	6.16	
2025-01-08 17:52:49.79	140.08	6.18	
2025-01-08 17:52:50.00	140.07	6.20	
2025-01-08 17:52:50.20	140.06	6.21	
2025-01-08 17:52:50.41	140.05	6.23	
2025-01-08 17:52:50.62	140.05	6.24	
2025-01-08 17:52:50.82	140.04	6.26	
2025-01-08 17:52:51.03	140.03	6.28	
2025-01-08 17:52:51.23	140.02	6.29	
2025-01-08 17:52:51.44	140.02	6.31	
2025-01-08 17:52:51.64	140.01	6.32	
2025-01-08 17:52:51.85	140.00	6.34	
2025-01-08 17:52:52.05	139.99	6.36	
2025-01-08 17:52:52.26	139.98	6.37	
2025-01-08 17:52:52.46	139.98	6.39	
2025-01-08 17:52:52.67	139.97	6.40	
2025-01-08 17:52:52.87	139.96	6.42	
2025-01-08 17:52:53.08	139.95	6.44	
2025-01-08 17:52:53.28	139.94	6.45	
2025-01-08 17:52:53.49	139.94	6.47	
2025-01-08 17:52:53.69	139.93	6.48	
2025-01-08 17:52:53.90	139.92	6.50	
2025-01-08 17:52:54.10	139.91	6.52	
2025-01-08 17:52:54.31	139.90	6.53	
2025-01-08 17:52:54.51	139.90	6.55	
2025-01-08 17:52:54.72	139.89	6.56	
2025-01-08 17:52:54.92	139.88	6.58	
2025-01-08 17:52:55.13	139.87	6.60	
2025-01-08 17:52:55.33	139.86	6.61	
2025-01-08 17:52:55.54	139.86	6.63	
2025-01-08 17:52:55.75	139.85	6.64	
2025-01-08 17:52:55.95	139.84	6.66	
2025-01-08 17:52:56.16	139.83	6.68	
2025-01-08 17:52:56.37	139.82	6.69	
2025-01-08 17:52:56.58	139.81	6.71	
2025-01-08 17:52:56.79	139.81	6.73	
2025-01-08 17:52:56.99	139.80	6.74	
2025-01-08 17:52:57.20	139.79	6.76	
2025-01-08 17:52:57.40	139.78	6.77	
2025-01-08 17:52:57.62	139.77	6.79	
2025-01-08 17:52:57.82	139.77	6.81	
2025-01-08 17:52:58.03	139.76	6.82	
2025-01-08 17:52:58.23	139.75	6.84	
2025-01-08 17:52:58.44	139.74	6.86	
2025-01-08 17:52:58.64	139.73	6.87	
2025-01-08 17:52:58.85	139.72	6.89	
2025-01-08 17:52:59.05	139.72	6.91	
2025-01-08 17:52:59.26	139.71	6.92	
2025-01-08 17:52:59.46	139.70	6.94	
2025-01-08 17:52:59.67	139.69	6.96	
2025-01-08 17:52:59.87	139.68	6.97	
2025-01-08 17:53:00.08	139.67	6.99	
2025-01-08 17:53:00.28	139.67	7.00	
2025-01-08 17:53:00.49	139.66	7.02	
2025-01-08 17:53:00.69	139.65	7.04	
2025-01-08 17:53:00.90	139.64	7.05	
2025-01-08 17:53:01.10	139.63	7.07	
2025-01-08 17:53:01.31	139.62	7.09	
2025-01-08 17:53:01.52	139.62	7.10	
2025-01-08 17:53:01.72	139.61	7.12	
2025-01-08 17:53:01.93	139.60	7.14	
2025-01-08 17:53:02.13	139.59	7.15	
2025-01-08 17:53:02.34	139.58	7.17	
2025-01-08 17:53:02.54	139.57	7.18	
2025-01-08 17:53:02.75	139.57	7.20	
2025-01-08 17:53:02.95	139.56	7.22	
2025-01-08 17:53:03.16	139.55	7.23	
2025-01-08 17:53:03.37	139.54	7.25	
2025-01-08 17:53:03.57	139.53	7.27	
2025-01-08 17:53:03.78	139.52	7.28	
2025-01-08 17:53:03.98	139.51	7.30	
2025-01-08 17:53:04.19	139.51	7.32	
2025-01-08 17:53:04.39	139.50	7.33	
2025-01-08 17:53:04.60	139.49	7.35	
2025-01-08 17:53:04.81	139.48	7.37	
2025-01-08 17:53:05.02	139.47	7.39	
2025-01-08 17:53:05.23	139.46	7.40	
2025-01-08 17:53:05.44	139.45	7.42	
2025-01-08 17:53:05.64	139.45	7.44	
2025-01-08 17:53:05.85	139.44	7.45	
2025-01-08 17:53:06.05	139.43	7.47	
2025-01-08 17:53:06.26	139.42	7.49	
2025-01-08 17:53:06.46	139.41	7.50	
2025-01-08 17:53:06.67	139.40	7.52	
2025-01-08 17:53:06.87	139.39	7.54	
2025-01-08 17:53:07.08	139.38	7.55	
2025-01-08 17:53:07.28	139.38	7.57	
2025-01-08 17:53:07.49	139.37	7.59	
2025-01-08 17:53:07.69	139.36	7.60	
2025-01-08 17:53:07.90	139.35	7.62	
2025-01-08 17:53:08.10	139.34	7.64	
2025-01-08 17:53:08.31	139.33	7.65	
2025-01-08 17:53:08.51	139.32	7.67	
2025-01-08 17:53:08.72	139.31	7.69	
2025-01-08 17:53:08.92	139.31	7.70	
2025-01-08 17:53:09.13	139.30	7.72	
2025-01-08 17:53:09.33	139.29	7.74	
2025-01-08 17:53:09.54	139.28	7.75	
2025-01-08 17:53:09.74	139.27	7.77	
2025-01-08 17:53:09.95	139.26	7.79	
2025-01-08 17:53:10.15	139.25	7.80	
2025-01-08 17:53:10.35	139.24	7.82	
2025-01-08 17:53:10.56	139.24	7.84	
2025-01-08 17:53:10.77	139.23	7.86	
2025-01-08 17:53:10.97	139.22	7.87	
2025-01-08 17:53:11.18	139.21	7.89	
2025-01-08 17:53:11.38	139.20	7.91	
2025-01-08 17:53:11.58	139.19	7.92	
2025-01-08 17:53:11.79	139.18	7.94	
2025-01-08 17:53:11.99	139.17	7.96	
2025-01-08 17:53:12.20	139.16	7.97	
2025-01-08 17:53:12.41	139.15	7.99	
2025-01-08 17:53:12.61	139.15	8.01	
2025-01-08 17:53:12.82	139.14	8.03	
2025-01-08 17:53:13.02	139.13	8.04	
2025-01-08 17:53:13.23	139.12	8.06	
2025-01-08 17:53:13.43	139.11	8.08	
2025-01-08 17:53:13.64	139.10	8.09	
2025-01-08 17:53:13.84	139.09	8.11	
2025-01-08 17:53:14.05	139.08	8.13	
2025-01-08 17:53:14.25	139.07	8.15	
2025-01-08 17:53:14.45	139.06	8.16	
2025-01-08 17:53:14.65	139.06	8.18	
2025-01-08 17:53:14.86	139.05	8.20	
2025-01-08 17:53:15.07	139.04	8.21	
2025-01-08 17:53:15.27	139.03	8.23	
2025-01-08 17:53:15.48	139.02	8.25	
2025-01-08 17:53:15.68	139.01	8.27	
2025-01-08 17:53:15.88	139.00	8.28	
2025-01-08 17:53:16.09	138.99	8.30	
2025-01-08 17:53:16.30	138.98	8.32	
2025-01-08 17:53:16.50	138.97	8.33	
2025-01-08 17:53:16.71	138.96	8.35	
2025-01-08 17:53:16.91	138.95	8.37	
2025-01-08 17:53:17.12	138.95	8.39	
2025-01-08 17:53:17.32	138.94	8.40	
2025-01-08 17:53:17.53	138.93	8.42	
2025-01-08 17:53:17.73	138.92	8.44	
2025-01-08 17:53:17.94	138.91	8.46	
2025-01-08 17:53:18.14	138.90	8.47	
2025-01-08 17:53:18.35	138.89	8.49	
2025-01-08 17:53:18.55	138.88	8.51	
2025-01-08 17:53:18.76	138.87	8.53	
2025-01-08 17:53:18.98	138.86	8.54	
2025-01-08 17:53:19.19	138.85	8.56	
2025-01-08 17:53:19.39	138.84	8.58	
2025-01-08 17:53:19.60	138.83	8.60	
2025-01-08 17:53:19.80	138.82	8.61	
2025-01-08 17:53:20.01	138.81	8.63	
2025-01-08 17:53:20.21	138.80	8.65	
2025-01-08 17:53:20.42	138.79	8.67	
2025-01-08 17:53:20.63	138.78	8.69	
2025-01-08 17:53:20.84	138.77	8.70	
2025-01-08 17:53:21.04	138.77	8.72	
2025-01-08 17:53:21.24	138.76	8.74	
2025-01-08 17:53:21.45	138.75	8.76	
2025-01-08 17:53:21.65	138.74	8.77	
2025-01-08 17:53:21.86	138.73	8.79	
2025-01-08 17:53:22.06	138.72	8.81	
2025-01-08 17:53:22.27	138.71	8.83	
2025-01-08 17:53:22.48	138.70	8.84	
2025-01-08 17:53:22.68	138.69	8.86	
2025-01-08 17:53:22.89	138.68	8.88	
2025-01-08 17:53:23.09	138.67	8.90	
2025-01-08 17:53:23.30	138.66	8.92	
2025-01-08 17:53:23.50	138.65	8.93	
2025-01-08 17:53:23.71	138.64	8.95	
2025-01-08 17:53:23.91	138.63	8.97	
2025-01-08 17:53:24.12	138.62	8.99	
2025-01-08 17:53:24.32	138.61	9.00	
2025-01-08 17:53:24.54	138.60	9.02	
2025-01-08 17:53:24.74	138.59	9.04	
2025-01-08 17:53:24.95	138.58	9.06	
2025-01-08 17:53:25.15	138.57	9.08	
2025-01-08 17:53:25.35	138.56	9.09	
2025-01-08 17:53:25.56	138.55	9.11	
2025-01-08 17:53:25.77	138.54	9.13	
2025-01-08 17:53:25.97	138.53	9.15	
2025-01-08 17:53:26.18	138.52	9.17	
2025-01-08 17:53:26.38	138.51	9.18	
2025-01-08 17:53:26.59	138.50	9.20	
2025-01-08 17:53:26.79	138.49	9.22	
2025-01-08 17:53:27.00	138.48	9.24	
2025-01-08 17:53:27.20	138.47	9.26	
2025-01-08 17:53:27.41	138.46	9.27	
2025-01-08 17:53:27.61	138.45	9.29	
2025-01-08 17:53:27.82	138.44	9.31	
2025-01-08 17:53:28.02	138.43	9.33	
2025-01-08 17:53:28.23	138.42	9.35	
2025-01-08 17:53:28.43	138.41	9.36	
2025-01-08 17:53:28.64	138.40	9.38	
2025-01-08 17:53:28.84	138.39	9.40	
2025-01-08 17:53:29.05	138.38	9.42	
2025-01-08 17:53:29.25	138.37	9.44	
2025-01-08 17:53:29.46	138.36	9.45	
2025-01-08 17:53:29.67	138.35	9.47	
2025-01-08 17:53:29.88	138.34	9.49	
2025-01-08 17:53:30.08	138.33	9.51	
2025-01-08 17:53:30.28	138.32	9.53	
2025-01-08 17:53:30.49	138.31	9.55	
2025-01-08 17:53:30.71	138.30	9.57	
2025-01-08 17:53:30.91	138.29	9.58	
2025-01-08 17:53:31.12	138.28	9.60	
2025-01-08 17:53:31.32	138.27	9.62	
2025-01-08 17:53:31.53	138.26	9.64	
2025-01-08 17:53:31.74	138.25	9.66	
2025-01-08 17:53:31.95	138.24	9.68	
2025-01-08 17:53:32.16	138.23	9.69	
2025-01-08 17:53:32.36	138.22	9.71	
2025-01-08 17:53:32.57	138.21	9.73	
2025-01-08 17:53:32.77	138.20	9.75	
2025-01-08 17:53:32.98	138.19	9.77	
2025-01-08 17:53:33.18	138.18	9.79	
2025-01-08 17:53:33.39	138.17	9.80	
2025-01-08 17:53:33.60	138.16	9.82	
2025-01-08 17:53:33.80	138.15	9.84	
2025-01-08 17:53:34.00	138.14	9.86	
2025-01-08 17:53:34.21	138.13	9.88	
2025-01-08 17:53:34.41	138.12	9.90	
2025-01-08 17:53:34.62	138.10	9.92	
2025-01-08 17:53:34.83	138.09	9.93	
2025-01-08 17:53:35.05	138.08	9.95	
2025-01-08 17:53:35.25	138.07	9.97	
2025-01-08 17:53:35.46	138.06	9.99	
2025-01-08 17:53:35.66	138.05	10.01	
2025-01-08 17:53:35.87	138.04	10.03	
2025-01-08 17:53:36.07	138.03	10.05	
2025-01-08 17:53:36.28	138.02	10.07	
2025-01-08 17:53:36.48	138.01	10.08	
2025-01-08 17:53:36.69	138.00	10.10	
2025-01-08 17:53:36.89	137.99	10.12	
2025-01-08 17:53:37.11	137.98	10.14	
2025-01-08 17:53:37.32	137.97	10.16	
2025-01-08 17:53:37.52	137.96	10.18	
2025-01-08 17:53:37.73	137.94	10.20	
2025-01-08 17:53:37.93	137.93	10.22	
2025-01-08 17:53:38.14	137.92	10.23	
2025-01-08 17:53:38.34	137.91	10.25	
2025-01-08 17:53:38.55	137.90	10.27	
2025-01-08 17:53:38.75	137.89	10.29	
2025-01-08 17:53:38.96	137.88	10.31	
2025-01-08 17:53:39.16	137.87	10.33	
2025-01-08 17:53:39.36	137.86	10.35	
2025-01-08 17:53:39.57	137.85	10.37	
2025-01-08 17:53:39.78	137.84	10.39	
2025-01-08 17:53:39.98	137.83	10.40	
2025-01-08 17:53:40.19	137.81	10.42	
2025-01-08 17:53:40.39	137.80	10.44	
2025-01-08 17:53:40.60	137.79	10.46	
2025-01-08 17:53:40.80	137.78	10.48	
2025-01-08 17:53:41.01	137.77	10.50	
2025-01-08 17:53:41.21	137.76	10.52	
2025-01-08 17:53:41.41	137.75	10.54	
2025-01-08 17:53:41.62	137.74	10.55	
2025-01-08 17:53:41.83	137.73	10.57	
2025-01-08 17:53:42.03	137.72	10.59	
2025-01-08 17:53:42.24	137.71	10.61	
2025-01-08 17:53:42.44	137.69	10.63	
2025-01-08 17:53:42.65	137.68	10.65	
2025-01-08 17:53:42.85	137.67	10.67	
2025-01-08 17:53:43.06	137.66	10.69	
2025-01-08 17:53:43.26	137.65	10.71	
2025-01-08 17:53:43.47	137.64	10.73	
2025-01-08 17:53:43.67	137.63	10.75	
2025-01-08 17:53:43.88	137.62	10.77	
2025-01-08 17:53:44.08	137.61	10.78	
2025-01-08 17:53:44.29	137.59	10.80	
2025-01-08 17:53:44.49	137.58	10.82	
2025-01-08 17:53:44.70	137.57	10.84	
2025-01-08 17:53:44.90	137.56	10.86	
2025-01-08 17:53:45.11	137.55	10.88	
2025-01-08 17:53:45.32	137.54	10.90	
2025-01-08 17:53:45.52	137.53	10.92	
2025-01-08 17:53:45.73	137.52	10.94	
2025-01-08 17:53:45.93	137.50	10.96	
2025-01-08 17:53:46.14	137.49	10.98	
2025-01-08 17:53:46.34	137.48	11.00	
2025-01-08 17:53:46.55	137.47	11.02	
2025-01-08 17:53:46.77	137.46	11.04	
2025-01-08 17:53:46.97	137.45	11.06	
2025-01-08 17:53:47.18	137.43	11.08	
2025-01-08 17:53:47.38	137.42	11.09	
2025-01-08 17:53:47.59	137.41	11.11	
2025-01-08 17:53:47.79	137.40	11.13	
2025-01-08 17:53:48.00	137.39	11.15	
2025-01-08 17:53:48.20	137.38	11.17	
2025-01-08 17:53:48.41	137.37	11.19	
2025-01-08 17:53:48.62	137.35	11.21	
2025-01-08 17:53:48.82	137.34	11.23	
2025-01-08 17:53:49.02	137.33	11.25	
2025-01-08 17:53:49.23	137.32	11.27	
2025-01-08 17:53:49.44	137.31	11.29	
2025-01-08 17:53:49.64	137.30	11.31	
2025-01-08 17:53:49.84	137.28	11.33	
2025-01-08 17:53:50.05	137.27	11.35	
2025-01-08 17:53:50.25	137.26	11.37	
2025-01-08 17:53:50.46	137.25	11.39	
2025-01-08 17:53:50.66	137.24	11.41	
2025-01-08 17:53:50.87	137.23	11.43	
2025-01-08 17:53:51.07	137.21	11.45	
2025-01-08 17:53:51.28	137.20	11.47	
2025-01-08 17:53:51.49	137.19	11.49	
2025-01-08 17:53:51.69	137.18	11.51	
2025-01-08 17:53:51.90	137.17	11.53	
2025-01-08 17:53:52.10	137.16	11.55	
2025-01-08 17:53:52.31	137.14	11.57	
2025-01-08 17:53:52.51	137.13	11.59	
2025-01-08 17:53:52.72	137.12	11.61	
2025-01-08 17:53:52.93	137.11	11.63	
2025-01-08 17:53:53.13	137.10	11.65	
2025-01-08 17:53:53.33	137.08	11.67	
2025-01-08 17:53:53.54	137.07	11.69	
2025-01-08 17:53:53.74	137.06	11.71	
2025-01-08 17:53:53.95	137.05	11.73	
2025-01-08 17:53:54.15	137.04	11.75	
2025-01-08 17:53:54.36	137.02	11.77	
2025-01-08 17:53:54.56	137.01	11.79	
2025-01-08 17:53:54.77	137.00	11.81	
2025-01-08 17:53:54.97	136.99	11.83	
2025-01-08 17:53:55.18	136.98	11.85	
2025-01-08 17:53:55.38	136.96	11.87	
2025-01-08 17:53:55.59	136.95	11.89	
2025-01-08 17:53:55.79	136.94	11.91	
2025-01-08 17:53:56.00	136.93	11.93	
2025-01-08 17:53:56.21	136.91	11.95	
2025-01-08 17:53:56.41	136.90	11.97	
2025-01-08 17:53:56.62	136.89	11.99	
2025-01-08 17:53:56.82	136.88	12.01	
2025-01-08 17:53:57.03	136.86	12.03	
2025-01-08 17:53:57.23	136.85	12.05	
2025-01-08 17:53:57.44	136.84	12.07	
2025-01-08 17:53:57.64	136.83	12.09	
2025-01-08 17:53:57.85	136.82	12.11	
2025-01-08 17:53:58.05	136.80	12.13	
2025-01-08 17:53:58.26	136.79	12.15	
2025-01-08 17:53:58.46	136.78	12.17	
2025-01-08 17:53:58.67	136.77	12.19	
2025-01-08 17:53:58.87	136.75	12.21	
2025-01-08 17:53:59.08	136.74	12.23	
2025-01-08 17:53:59.29	136.73	12.25	
2025-01-08 17:53:59.49	136.72	12.27	
2025-01-08 17:53:59.70	136.70	12.29	
2025-01-08 17:53:59.90	136.69	12.31	
2025-01-08 17:54:00.10	136.68	12.33	
2025-01-08 17:54:00.31	136.67	12.35	
2025-01-08 17:54:00.52	136.65	12.37	
2025-01-08 17:54:00.72	136.64	12.39	
2025-01-08 17:54:00.93	136.63	12.42	
2025-01-08 17:54:01.13	136.62	12.44	
2025-01-08 17:54:01.34	136.60	12.46	
2025-01-08 17:54:01.54	136.59	12.48	
2025-01-08 17:54:01.74	136.58	12.50	
2025-01-08 17:54:01.95	136.56	12.52	
2025-01-08 17:54:02.15	136.55	12.54	
2025-01-08 17:54:02.36	136.54	12.56	
2025-01-08 17:54:02.56	136.53	12.58	
2025-01-08 17:54:02.77	136.51	12.60	
2025-01-08 17:54:02.97	136.50	12.62	
2025-01-08 17:54:03.18	136.49	12.64	
2025-01-08 17:54:03.39	136.47	12.66	
2025-01-08 17:54:03.59	136.46	12.68	
2025-01-08 17:54:03.80	136.45	12.70	
2025-01-08 17:54:04.00	136.44	12.73	
2025-01-08 17:54:04.21	136.42	12.75	
2025-01-08 17:54:04.41	136.41	12.77	
2025-01-08 17:54:04.62	136.40	12.79	
2025-01-08 17:54:04.82	136.38	12.81	
2025-01-08 17:54:05.03	136.37	12.83	
2025-01-08 17:54:05.23	136.36	12.85	
2025-01-08 17:54:05.44	136.34	12.87	
2025-01-08 17:54:05.64	136.33	12.89	
2025-01-08 17:54:05.85	136.32	12.91	
2025-01-08 17:54:06.05	136.30	12.93	
2025-01-08 17:54:06.26	136.29	12.96	
2025-01-08 17:54:06.46	136.28	12.98	
2025-01-08 17:54:06.67	136.26	13.00	
2025-01-08 17:54:06.88	136.25	13.02	
2025-01-08 17:54:07.08	136.24	13.04	
2025-01-08 17:54:07.29	136.22	13.06	
2025-01-08 17:54:07.49	136.21	13.08	
2025-01-08 17:54:07.70	136.20	13.10	
2025-01-08 17:54:07.90	136.19	13.12	
2025-01-08 17:54:08.11	136.17	13.15	
2025-01-08 17:54:08.31	136.16	13.17	
2025-01-08 17:54:08.52	136.14	13.19	
2025-01-08 17:54:08.72	136.13	13.21	
2025-01-08 17:54:08.93	136.12	13.23	
2025-01-08 17:54:09.13	136.10	13.25	
2025-01-08 17:54:09.34	136.09	13.27	
2025-01-08 17:54:09.54	136.08	13.29	
2025-01-08 17:54:09.75	136.06	13.32	
2025-01-08 17:54:09.95	136.05	13.34	
2025-01-08 17:54:10.17	136.04	13.36	
2025-01-08 17:54:10.38	136.02	13.38	
2025-01-08 17:54:10.58	136.01	13.40	
2025-01-08 17:54:10.79	135.99	13.42	
2025-01-08 17:54:11.00	135.98	13.45	
2025-01-08 17:54:11.20	135.97	13.47	
2025-01-08 17:54:11.41	135.95	13.49	
2025-01-08 17:54:11.61	135.94	13.51	
2025-01-08 17:54:11.82	135.93	13.53	
2025-01-08 17:54:12.02	135.91	13.55	
2025-01-08 17:54:12.23	135.90	13.58	
2025-01-08 17:54:12.43	135.88	13.60	
2025-01-08 17:54:12.64	135.87	13.62	
2025-01-08 17:54:12.84	135.86	13.64	
2025-01-08 17:54:13.04	135.84	13.66	
2025-01-08 17:54:13.25	135.83	13.68	
2025-01-08 17:54:13.45	135.82	13.70	
2025-01-08 17:54:13.66	135.80	13.73	
2025-01-08 17:54:13.87	135.79	13.75	
2025-01-08 17:54:14.07	135.77	13.77	
2025-01-08 17:54:14.28	135.76	13.79	
2025-01-08 17:54:14.48	135.74	13.81	
2025-01-08 17:54:14.69	135.73	13.84	
2025-01-08 17:54:14.89	135.72	13.86	
2025-01-08 17:54:15.10	135.70	13.88	
2025-01-08 17:54:15.31	135.69	13.90	
2025-01-08 17:54:15.51	135.67	13.92	
2025-01-08 17:54:15.71	135.66	13.95	
2025-01-08 17:54:15.92	135.65	13.97	
2025-01-08 17:54:16.13	135.63	13.99	
2025-01-08 17:54:16.33	135.62	14.01	
2025-01-08 17:54:16.53	135.60	14.03	
2025-01-08 17:54:16.74	135.59	14.06	
2025-01-08 17:54:16.94	135.57	14.08	
2025-01-08 17:54:17.15	135.56	14.10	
2025-01-08 17:54:17.36	135.54	14.12	
2025-01-08 17:54:17.56	135.53	14.14	
2025-01-08 17:54:17.76	135.52	14.17	
2025-01-08 17:54:17.97	135.50	14.19	
2025-01-08 17:54:18.18	135.49	14.21	
2025-01-08 17:54:18.38	135.47	14.23	
2025-01-08 17:54:18.59	135.46	14.26	
2025-01-08 17:54:18.79	135.44	14.28	
2025-01-08 17:54:18.99	135.43	14.30	
2025-01-08 17:54:19.20	135.41	14.32	
2025-01-08 17:54:19.41	135.40	14.34	
2025-01-08 17:54:19.61	135.39	14.37	
2025-01-08 17:54:19.81	135.37	14.39	
2025-01-08 17:54:20.02	135.36	14.41	
2025-01-08 17:54:20.23	135.34	14.43	
2025-01-08 17:54:20.43	135.33	14.46	
2025-01-08 17:54:20.64	135.31	14.48	
2025-01-08 17:54:20.84	135.30	14.50	
2025-01-08 17:54:21.05	135.28	14.52	
2025-01-08 17:54:21.25	135.27	14.54	
2025-01-08 17:54:21.46	135.25	14.57	
2025-01-08 17:54:21.67	135.24	14.59	
2025-01-08 17:54:21.87	135.22	14.61	
2025-01-08 17:54:22.07	135.21	14.63	
2025-01-08 17:54:22.28	135.19	14.66	
2025-01-08 17:54:22.49	135.18	14.68	
2025-01-08 17:54:22.69	135.16	14.70	
2025-01-08 17:54:22.90	135.15	14.73	
2025-01-08 17:54:23.10	135.13	14.75	
2025-01-08 17:54:23.31	135.12	14.77	
2025-01-08 17:54:23.51	135.10	14.79	
2025-01-08 17:54:23.72	135.09	14.82	
2025-01-08 17:54:23.93	135.07	14.84	
2025-01-08 17:54:24.13	135.06	14.86	
2025-01-08 17:54:24.34	135.04	14.89	
2025-01-08 17:54:24.54	135.03	14.91	
2025-01-08 17:54:24.75	135.01	14.93	
2025-01-08 17:54:24.95	134.99	14.95	
2025-01-08 17:54:25.15	134.98	14.98	
2025-01-08 17:54:25.36	134.96	15.00	
2025-01-08 17:54:25.56	134.95	15.02	
2025-01-08 17:54:25.77	134.93	15.05	
2025-01-08 17:54:25.97	134.92	15.07	
2025-01-08 17:54:26.17	134.90	15.09	
2025-01-08 17:54:26.38	134.89	15.11	
2025-01-08 17:54:26.59	134.87	15.14	
2025-01-08 17:54:26.79	134.86	15.16	
2025-01-08 17:54:27.00	134.84	15.18	
2025-01-08 17:54:27.20	134.83	15.21	
2025-01-08 17:54:27.41	134.81	15.23	
2025-01-08 17:54:27.61	134.79	15.25	
2025-01-08 17:54:27.82	134.78	15.28	
2025-01-08 17:54:28.02	134.76	15.30	
2025-01-08 17:54:28.23	134.75	15.32	
2025-01-08 17:54:28.43	134.73	15.35	
2025-01-08 17:54:28.64	134.71	15.37	
2025-01-08 17:54:28.84	134.70	15.39	
2025-01-08 17:54:29.05	134.68	15.42	
2025-01-08 17:54:29.25	134.67	15.44	
2025-01-08 17:54:29.45	134.65	15.46	
2025-01-08 17:54:29.66	134.64	15.48	
2025-01-08 17:54:29.87	134.62	15.51	
2025-01-08 17:54:30.07	134.60	15.53	
2025-01-08 17:54:30.28	134.59	15.56	
2025-01-08 17:54:30.50	134.57	15.58	
2025-01-08 17:54:30.70	134.55	15.60	
2025-01-08 17:54:30.91	134.54	15.63	
2025-01-08 17:54:31.12	134.52	15.65	
2025-01-08 17:54:31.32	134.51	15.67	
2025-01-08 17:54:31.53	134.49	15.70	
2025-01-08 17:54:31.73	134.47	15.72	
2025-01-08 17:54:31.94	134.46	15.75	
2025-01-08 17:54:32.15	134.44	15.77	
2025-01-08 17:54:32.35	134.42	15.79	
2025-01-08 17:54:32.56	134.41	15.82	
2025-01-08 17:54:32.76	134.39	15.84	
2025-01-08 17:54:32.97	134.37	15.87	
2025-01-08 17:54:33.17	134.36	15.89	
2025-01-08 17:54:33.38	134.34	15.91	
2025-01-08 17:54:33.58	134.33	15.94	
2025-01-08 17:54:33.79	134.31	15.96	
2025-01-08 17:54:33.99	134.29	15.98	
2025-01-08 17:54:34.20	134.28	16.01	
2025-01-08 17:54:34.40	134.26	16.03	
2025-01-08 17:54:34.61	134.24	16.06	
2025-01-08 17:54:34.81	134.23	16.08	
2025-01-08 17:54:35.02	134.21	16.10	
2025-01-08 17:54:35.22	134.19	16.13	
2025-01-08 17:54:35.43	134.18	16.15	
2025-01-08 17:54:35.63	134.16	16.17	
2025-01-08 17:54:35.85	134.14	16.20	
2025-01-08 17:54:36.06	134.12	16.23	
2025-01-08 17:54:36.26	134.11	16.25	
2025-01-08 17:54:36.47	134.09	16.27	
2025-01-08 17:54:36.67	134.07	16.30	
2025-01-08 17:54:36.88	134.06	16.32	
2025-01-08 17:54:37.09	134.04	16.35	
2025-01-08 17:54:37.29	134.02	16.37	
2025-01-08 17:54:37.50	134.01	16.40	
2025-01-08 17:54:37.70	133.99	16.42	
2025-01-08 17:54:37.91	133.97	16.44	
2025-01-08 17:54:38.11	133.95	16.47	
2025-01-08 17:54:38.32	133.94	16.49	
2025-01-08 17:54:38.52	133.92	16.52	
2025-01-08 17:54:38.73	133.90	16.54	
2025-01-08 17:54:38.93	133.89	16.56	
2025-01-08 17:54:39.14	133.87	16.59	
2025-01-08 17:54:39.34	133.85	16.61	
2025-01-08 17:54:39.55	133.83	16.64	
2025-01-08 17:54:39.76	133.82	16.66	
2025-01-08 17:54:39.96	133.80	16.69	
2025-01-08 17:54:40.16	133.78	16.71	
2025-01-08 17:54:40.37	133.76	16.74	
2025-01-08 17:54:40.57	133.75	16.76	
2025-01-08 17:54:40.78	133.73	16.79	
2025-01-08 17:54:40.98	133.71	16.81	
2025-01-08 17:54:41.19	133.69	16.84	
2025-01-08 17:54:41.39	133.68	16.86	
2025-01-08 17:54:41.60	133.66	16.89	
2025-01-08 17:54:41.80	133.64	16.91	
2025-01-08 17:54:42.01	133.62	16.93	
2025-01-08 17:54:42.21	133.61	16.96	
2025-01-08 17:54:42.42	133.59	16.98	
2025-01-08 17:54:42.62	133.57	17.01	
2025-01-08 17:54:42.83	133.55	17.03	
2025-01-08 17:54:43.04	133.53	17.06	
2025-01-08 17:54:43.24	133.52	17.08	
2025-01-08 17:54:43.44	133.50	17.11	
2025-01-08 17:54:43.65	133.48	17.13	
2025-01-08 17:54:43.85	133.46	17.16	
2025-01-08 17:54:44.06	133.44	17.18	
2025-01-08 17:54:44.27	133.43	17.21	
2025-01-08 17:54:44.47	133.41	17.23	
2025-01-08 17:54:44.68	133.39	17.26	
2025-01-08 17:54:44.89	133.37	17.29	
2025-01-08 17:54:45.09	133.35	17.31	
2025-01-08 17:54:45.30	133.34	17.34	
2025-01-08 17:54:45.50	133.32	17.36	
2025-01-08 17:54:45.71	133.30	17.39	
2025-01-08 17:54:45.91	133.28	17.41	
2025-01-08 17:54:46.12	133.26	17.44	
2025-01-08 17:54:46.32	133.24	17.46	
2025-01-08 17:54:46.53	133.23	17.49	
2025-01-08 17:54:46.73	133.21	17.51	
2025-01-08 17:54:46.94	133.19	17.54	
2025-01-08 17:54:47.14	133.17	17.56	
2025-01-08 17:54:47.35	133.15	17.59	
2025-01-08 17:54:47.55	133.13	17.61	
2025-01-08 17:54:47.76	133.11	17.64	
2025-01-08 17:54:47.96	133.10	17.66	
2025-01-08 17:54:48.17	133.08	17.69	
2025-01-08 17:54:48.37	133.06	17.72	
2025-01-08 17:54:48.58	133.04	17.74	
2025-01-08 17:54:48.78	133.02	17.77	
2025-01-08 17:54:48.99	133.00	17.79	
2025-01-08 17:54:49.19	132.98	17.82	
2025-01-08 17:54:49.40	132.96	17.84	
2025-01-08 17:54:49.60	132.95	17.87	
2025-01-08 17:54:49.81	132.93	17.90	
2025-01-08 17:54:50.01	132.91	17.92	
2025-01-08 17:54:50.22	132.89	17.95	
2025-01-08 17:54:50.42	132.87	17.97	
2025-01-08 17:54:50.63	132.85	18.00	
2025-01-08 17:54:50.83	132.83	18.02	
2025-01-08 17:54:51.04	132.81	18.05	
2025-01-08 17:54:51.24	132.79	18.08	
2025-01-08 17:54:51.45	132.77	18.10	
2025-01-08 17:54:51.65	132.75	18.13	
2025-01-08 17:54:51.86	132.73	18.16	
2025-01-08 17:54:52.06	132.72	18.18	
2025-01-08 17:54:52.27	132.70	18.21	
2025-01-08 17:54:52.47	132.68	18.23	
2025-01-08 17:54:52.68	132.66	18.26	
2025-01-08 17:54:52.88	132.64	18.29	
2025-01-08 17:54:53.08	132.62	18.31	
2025-01-08 17:54:53.29	132.60	18.34	
2025-01-08 17:54:53.49	132.58	18.36	
2025-01-08 17:54:53.70	132.56	18.39	
2025-01-08 17:54:53.91	132.54	18.42	
2025-01-08 17:54:54.11	132.52	18.44	
2025-01-08 17:54:54.32	132.50	18.47	
2025-01-08 17:54:54.52	132.48	18.50	
2025-01-08 17:54:54.73	132.46	18.52	
2025-01-08 17:54:54.93	132.44	18.55	
2025-01-08 17:54:55.14	132.42	18.58	
2025-01-08 17:54:55.34	132.40	18.60	
2025-01-08 17:54:55.55	132.38	18.63	
2025-01-08 17:54:55.75	132.36	18.65	
2025-01-08 17:54:55.96	132.34	18.68	
2025-01-08 17:54:56.16	132.32	18.71	
2025-01-08 17:54:56.37	132.30	18.73	
2025-01-08 17:54:56.58	132.28	18.76	
2025-01-08 17:54:56.78	132.26	18.79	
2025-01-08 17:54:56.99	132.24	18.82	
2025-01-08 17:54:57.19	132.22	18.84	
2025-01-08 17:54:57.40	132.20	18.87	
2025-01-08 17:54:57.60	132.18	18.89	
2025-01-08 17:54:57.81	132.16	18.92	
2025-01-08 17:54:58.01	132.14	18.95	
2025-01-08 17:54:58.22	132.12	18.98	
2025-01-08 17:54:58.42	132.10	19.00	
2025-01-08 17:54:58.63	132.08	19.03	
2025-01-08 17:54:58.83	132.06	19.06	
2025-01-08 17:54:59.04	132.03	19.08	
2025-01-08 17:54:59.24	132.01	19.11	
2025-01-08 17:54:59.45	131.99	19.14	
2025-01-08 17:54:59.65	131.97	19.16	
2025-01-08 17:54:59.86	131.95	19.19	
2025-01-08 17:55:00.07	131.93	19.22	
2025-01-08 17:55:00.27	131.91	19.25	
2025-01-08 17:55:00.47	131.89	19.27	
2025-01-08 17:55:00.68	131.87	19.30	
2025-01-08 17:55:00.89	131.85	19.33	
2025-01-08 17:55:01.09	131.83	19.36	
2025-01-08 17:55:01.30	131.80	19.38	
2025-01-08 17:55:01.50	131.78	19.41	
2025-01-08 17:55:01.70	131.76	19.44	
2025-01-08 17:55:01.91	131.74	19.46	
2025-01-08 17:55:02.11	131.72	19.49	
2025-01-08 17:55:02.32	131.70	19.52	
2025-01-08 17:55:02.52	131.68	19.55	
2025-01-08 17:55:02.73	131.66	19.57	
2025-01-08 17:55:02.93	131.63	19.60	
2025-01-08 17:55:03.14	131.61	19.63	
2025-01-08 17:55:03.34	131.59	19.66	
2025-01-08 17:55:03.55	131.57	19.68	
2025-01-08 17:55:03.75	131.55	19.71	
2025-01-08 17:55:03.96	131.53	19.74	
2025-01-08 17:55:04.17	131.50	19.77	
2025-01-08 17:55:04.37	131.48	19.80	
2025-01-08 17:55:04.57	131.46	19.82	
2025-01-08 17:55:04.78	131.44	19.85	
2025-01-08 17:55:04.99	131.42	19.88	
2025-01-08 17:55:05.19	131.40	19.91	
2025-01-08 17:55:05.39	131.37	19.93	
2025-01-08 17:55:05.60	131.35	19.96	
2025-01-08 17:55:05.82	131.33	19.99	
2025-01-08 17:55:06.02	131.31	20.02	
2025-01-08 17:55:06.23	131.28	20.05	
2025-01-08 17:55:06.43	131.26	20.08	
2025-01-08 17:55:06.64	131.24	20.10	
2025-01-08 17:55:06.84	131.22	20.13	
2025-01-08 17:55:07.05	131.20	20.16	
2025-01-08 17:55:07.25	131.17	20.19	
2025-01-08 17:55:07.46	131.15	20.22	
2025-01-08 17:55:07.66	131.13	20.24	
2025-01-08 17:55:07.87	131.11	20.27	
2025-01-08 17:55:08.07	131.08	20.30	
2025-01-08 17:55:08.28	131.06	20.33	
2025-01-08 17:55:08.48	131.04	20.36	
2025-01-08 17:55:08.69	131.02	20.39	
2025-01-08 17:55:08.89	130.99	20.41	
2025-01-08 17:55:09.10	130.97	20.44	
2025-01-08 17:55:09.30	130.95	20.47	
2025-01-08 17:55:09.51	130.92	20.50	
2025-01-08 17:55:09.72	130.90	20.53	
2025-01-08 17:55:09.92	130.88	20.56	
2025-01-08 17:55:10.12	130.86	20.59	
2025-01-08 17:55:10.33	130.83	20.61	
2025-01-08 17:55:10.54	130.81	20.64	
2025-01-08 17:55:10.74	130.79	20.67	
2025-01-08 17:55:10.94	130.76	20.70	
2025-01-08 17:55:11.16	130.74	20.73	
2025-01-08 17:55:11.36	130.72	20.76	
2025-01-08 17:55:11.57	130.69	20.79	
2025-01-08 17:55:11.77	130.67	20.82	
2025-01-08 17:55:11.98	130.65	20.85	
2025-01-08 17:55:12.19	130.62	20.88	
2025-01-08 17:55:12.39	130.60	20.90	
2025-01-08 17:55:12.60	130.58	20.93	
2025-01-08 17:55:12.80	130.55	20.96	
2025-01-08 17:55:13.01	130.53	20.99	
2025-01-08 17:55:13.21	130.50	21.02	
2025-01-08 17:55:13.41	130.48	21.05	
2025-01-08 17:55:13.62	130.46	21.08	
2025-01-08 17:55:13.83	130.43	21.11	
2025-01-08 17:55:14.03	130.41	21.14	
2025-01-08 17:55:14.24	130.39	21.17	
2025-01-08 17:55:14.44	130.36	21.20	
2025-01-08 17:55:14.65	130.34	21.23	
2025-01-08 17:55:14.85	130.31	21.25	
2025-01-08 17:55:15.06	130.29	21.28	
2025-01-08 17:55:15.27	130.26	21.31	
2025-01-08 17:55:15.47	130.24	21.34	
2025-01-08 17:55:15.68	130.22	21.37	
2025-01-08 17:55:15.88	130.19	21.40	
2025-01-08 17:55:16.08	130.17	21.43	
2025-01-08 17:55:16.29	130.14	21.46	
2025-01-08 17:55:16.50	130.12	21.49	
2025-01-08 17:55:16.70	130.09	21.52	
2025-01-08 17:55:16.91	130.07	21.55	
2025-01-08 17:55:17.12	130.04	21.58	
2025-01-08 17:55:17.33	130.02	21.61	
2025-01-08 17:55:17.53	130.00	21.64	
2025-01-08 17:55:17.74	129.97	21.67	
2025-01-08 17:55:17.94	129.95	21.70	
2025-01-08 17:55:18.15	129.92	21.73	
2025-01-08 17:55:18.36	129.89	21.76	
2025-01-08 17:55:18.56	129.87	21.79	
2025-01-08 17:55:18.76	129.85	21.82	
2025-01-08 17:55:18.97	129.82	21.85	
2025-01-08 17:55:19.18	129.79	21.88	
2025-01-08 17:55:19.38	129.77	21.91	
2025-01-08 17:55:19.58	129.75	21.94	
2025-01-08 17:55:19.79	129.72	21.97	
2025-01-08 17:55:20.00	129.69	22.00	
2025-01-08 17:55:20.20	129.67	22.03	
2025-01-08 17:55:20.41	129.64	22.06	
2025-01-08 17:55:20.61	129.62	22.09	
2025-01-08 17:55:20.82	129.59	22.12	
2025-01-08 17:55:21.02	129.57	22.15	
2025-01-08 17:55:21.23	129.54	22.18	
2025-01-08 17:55:21.43	129.52	22.21	
2025-01-08 17:55:21.64	129.49	22.24	
2025-01-08 17:55:21.84	129.46	22.27	
2025-01-08 17:55:22.05	129.44	22.30	
2025-01-08 17:55:22.26	129.41	22.33	
2025-01-08 17:55:22.46	129.39	22.36	
2025-01-08 17:55:22.67	129.36	22.40	
2025-01-08 17:55:22.87	129.33	22.43	
2025-01-08 17:55:23.08	129.31	22.46	
2025-01-08 17:55:23.28	129.28	22.49	
2025-01-08 17:55:23.49	129.25	22.52	
2025-01-08 17:55:23.69	129.23	22.55	
2025-01-08 17:55:23.89	129.20	22.58	
2025-01-08 17:55:24.10	129.18	22.61	
2025-01-08 17:55:24.31	129.15	22.64	
2025-01-08 17:55:24.51	129.12	22.67	
2025-01-08 17:55:24.72	129.10	22.70	
2025-01-08 17:55:24.92	129.07	22.73	
2025-01-08 17:55:25.13	129.04	22.76	
2025-01-08 17:55:25.33	129.02	22.80	
2025-01-08 17:55:25.54	128.99	22.83	
2025-01-08 17:55:25.74	128.96	22.86	
2025-01-08 17:55:25.95	128.94	22.89	
2025-01-08 17:55:26.15	128.91	22.92	
2025-01-08 17:55:26.36	128.88	22.95	
2025-01-08 17:55:26.56	128.86	22.98	
2025-01-08 17:55:26.77	128.83	23.01	
2025-01-08 17:55:26.97	128.80	23.04	
2025-01-08 17:55:27.17	128.77	23.07	
2025-01-08 17:55:27.38	128.75	23.11	
2025-01-08 17:55:27.59	128.72	23.14	
2025-01-08 17:55:27.79	128.69	23.17	
2025-01-08 17:55:28.00	128.66	23.20	
2025-01-08 17:55:28.22	128.63	23.24	
2025-01-08 17:55:28.42	128.61	23.27	
2025-01-08 17:55:28.63	128.58	23.30	
2025-01-08 17:55:28.83	128.55	23.33	
2025-01-08 17:55:29.04	128.52	23.36	
2025-01-08 17:55:29.24	128.50	23.39	
2025-01-08 17:55:29.45	128.47	23.43	
2025-01-08 17:55:29.65	128.44	23.46	
2025-01-08 17:55:29.86	128.41	23.49	
2025-01-08 17:55:30.06	128.38	23.52	
2025-01-08 17:55:30.27	128.36	23.55	
2025-01-08 17:55:30.47	128.33	23.58	
2025-01-08 17:55:30.68	128.30	23.62	
2025-01-08 17:55:30.88	128.27	23.65	
2025-01-08 17:55:31.09	128.24	23.68	
2025-01-08 17:55:31.29	128.21	23.71	
2025-01-08 17:55:31.49	128.19	23.74	
2025-01-08 17:55:31.70	128.16	23.78	
2025-01-08 17:55:31.91	128.13	23.81	
2025-01-08 17:55:32.11	128.10	23.84	
2025-01-08 17:55:32.32	128.07	23.87	
2025-01-08 17:55:32.52	128.04	23.90	
2025-01-08 17:55:32.72	128.01	23.94	
2025-01-08 17:55:32.93	127.98	23.97	
2025-01-08 17:55:33.13	127.96	24.00	
2025-01-08 17:55:33.34	127.93	24.03	
2025-01-08 17:55:33.54	127.90	24.06	
2025-01-08 17:55:33.75	127.87	24.10	
2025-01-08 17:55:33.95	127.84	24.13	
2025-01-08 17:55:34.16	127.81	24.16	
2025-01-08 17:55:34.37	127.78	24.20	
2025-01-08 17:55:34.57	127.75	24.23	
2025-01-08 17:55:34.77	127.72	24.26	
2025-01-08 17:55:34.98	127.69	24.29	
2025-01-08 17:55:35.18	127.66	24.32	
2025-01-08 17:55:35.39	127.63	24.36	
2025-01-08 17:55:35.59	127.60	24.39	
2025-01-08 17:55:35.80	127.57	24.42	
2025-01-08 17:55:36.00	127.54	24.46	
2025-01-08 17:55:36.21	127.51	24.49	
2025-01-08 17:55:36.41	127.48	24.52	
2025-01-08 17:55:36.62	127.45	24.56	
2025-01-08 17:55:36.82	127.42	24.59	
2025-01-08 17:55:37.03	127.39	24.62	
2025-01-08 17:55:37.23	127.36	24.65	
2025-01-08 17:55:37.44	127.33	24.69	
2025-01-08 17:55:37.65	127.30	24.72	
2025-01-08 17:55:37.85	127.27	24.75	
2025-01-08 17:55:38.06	127.24	24.79	
2025-01-08 17:55:38.26	127.21	24.82	
2025-01-08 17:55:38.47	127.18	24.85	
2025-01-08 17:55:38.67	127.15	24.89	
2025-01-08 17:55:38.87	127.12	24.92	
2025-01-08 17:55:39.08	127.09	24.95	
2025-01-08 17:55:39.29	127.05	24.99	
2025-01-08 17:55:39.49	127.02	25.02	
2025-01-08 17:55:39.70	126.99	25.05	
2025-01-08 17:55:39.91	126.96	25.09	
2025-01-08 17:55:40.11	126.93	25.12	
2025-01-08 17:55:40.32	126.90	25.16	
2025-01-08 17:55:40.53	126.87	25.19	
2025-01-08 17:55:40.73	126.83	25.22	
2025-01-08 17:55:40.94	126.80	25.26	
2025-01-08 17:55:41.14	126.77	25.29	
2025-01-08 17:55:41.35	126.74	25.32	
2025-01-08 17:55:41.55	126.71	25.36	
2025-01-08 17:55:41.76	126.68	25.39	
2025-01-08 17:55:41.96	126.64	25.43	
2025-01-08 17:55:42.18	126.61	25.46	
2025-01-08 17:55:42.39	126.58	25.50	
2025-01-08 17:55:42.59	126.55	25.53	
2025-01-08 17:55:42.80	126.51	25.56	
2025-01-08 17:55:43.00	126.48	25.60	
2025-01-08 17:55:43.21	126.45	25.63	
2025-01-08 17:55:43.41	126.42	25.67	
2025-01-08 17:55:43.62	126.38	25.70	
2025-01-08 17:55:43.83	126.35	25.74	
2025-01-08 17:55:44.03	126.32	25.77	
2025-01-08 17:55:44.23	126.29	25.80	
2025-01-08 17:55:44.44	126.25	25.84	
2025-01-08 17:55:44.64	126.22	25.87	
2025-01-08 17:55:44.85	126.19	25.91	
2025-01-08 17:55:45.05	126.15	25.94	
2025-01-08 17:55:45.26	126.12	25.98	
2025-01-08 17:55:45.46	126.09	26.01	
2025-01-08 17:55:45.67	126.05	26.04	
2025-01-08 17:55:45.87	126.02	26.08	
2025-01-08 17:55:46.07	125.99	26.11	
2025-01-08 17:55:46.28	125.95	26.15	
2025-01-08 17:55:46.48	125.92	26.18	
2025-01-08 17:55:46.69	125.89	26.22	
2025-01-08 17:55:46.89	125.85	26.25	
2025-01-08 17:55:47.10	125.82	26.29	
2025-01-08 17:55:47.31	125.79	26.32	
2025-01-08 17:55:47.52	125.75	26.36	
2025-01-08 17:55:47.73	125.72	26.39	
2025-01-08 17:55:47.93	125.68	26.43	
2025-01-08 17:55:48.14	125.65	26.46	
2025-01-08 17:55:48.34	125.61	26.50	
2025-01-08 17:55:48.55	125.58	26.53	
2025-01-08 17:55:48.75	125.54	26.57	
2025-01-08 17:55:48.96	125.51	26.60	
2025-01-08 17:55:49.16	125.48	26.64	
2025-01-08 17:55:49.37	125.44	26.68	
2025-01-08 17:55:49.59	125.40	26.71	
2025-01-08 17:55:49.79	125.37	26.75	
2025-01-08 17:55:50.00	125.33	26.78	
2025-01-08 17:55:50.20	125.30	26.82	
2025-01-08 17:55:50.40	125.26	26.85	
2025-01-08 17:55:50.61	125.23	26.89	
2025-01-08 17:55:50.82	125.19	26.93	
2025-01-08 17:55:51.02	125.16	26.96	
2025-01-08 17:55:51.23	125.12	27.00	
2025-01-08 17:55:51.43	125.09	27.03	
2025-01-08 17:55:51.64	125.05	27.07	
2025-01-08 17:55:51.84	125.02	27.10	
2025-01-08 17:55:52.05	124.98	27.14	
2025-01-08 17:55:52.25	124.94	27.17	
2025-01-08 17:55:52.46	124.91	27.21	
2025-01-08 17:55:52.66	124.87	27.25	
2025-01-08 17:55:52.87	124.84	27.28	
2025-01-08 17:55:53.07	124.80	27.32	
2025-01-08 17:55:53.28	124.76	27.35	
2025-01-08 17:55:53.48	124.73	27.39	
2025-01-08 17:55:53.69	124.69	27.43	
2025-01-08 17:55:53.89	124.65	27.46	
2025-01-08 17:55:54.10	124.62	27.50	
2025-01-08 17:55:54.30	124.58	27.53	
2025-01-08 17:55:54.51	124.54	27.57	
2025-01-08 17:55:54.71	124.51	27.61	
2025-01-08 17:55:54.92	124.47	27.64	
2025-01-08 17:55:55.12	124.43	27.68	
2025-01-08 17:55:55.33	124.40	27.72	
2025-01-08 17:55:55.53	124.36	27.75	
2025-01-08 17:55:55.74	124.32	27.79	
2025-01-08 17:55:55.94	124.28	27.82	
2025-01-08 17:55:56.15	124.25	27.86	
2025-01-08 17:55:56.35	124.21	27.90	
2025-01-08 17:55:56.56	124.17	27.93	
2025-01-08 17:55:56.76	124.13	27.97	
2025-01-08 17:55:56.97	124.10	28.01	
2025-01-08 17:55:57.17	124.06	28.04	
2025-01-08 17:55:57.38	124.02	28.08	
2025-01-08 17:55:57.59	123.98	28.12	
2025-01-08 17:55:57.79	123.94	28.15	
2025-01-08 17:55:58.00	123.90	28.19	
2025-01-08 17:55:58.20	123.87	28.23	
2025-01-08 17:55:58.41	123.83	28.27	
2025-01-08 17:55:58.61	123.79	28.30	
2025-01-08 17:55:58.82	123.75	28.34	
2025-01-08 17:55:59.02	123.71	28.38	
2025-01-08 17:55:59.24	123.67	28.42	
2025-01-08 17:55:59.44	123.63	28.45	
2025-01-08 17:55:59.65	123.59	28.49	
2025-01-08 17:55:59.85	123.55	28.53	
2025-01-08 17:56:00.06	123.51	28.57	
2025-01-08 17:56:00.26	123.48	28.60	
2025-01-08 17:56:00.46	123.44	28.64	
2025-01-08 17:56:00.67	123.40	28.68	
2025-01-08 17:56:00.88	123.36	28.71	
2025-01-08 17:56:01.08	123.32	28.75	
2025-01-08 17:56:01.28	123.28	28.79	
2025-01-08 17:56:01.49	123.24	28.83	
2025-01-08 17:56:01.70	123.20	28.86	
2025-01-08 17:56:01.90	123.16	28.90	
2025-01-08 17:56:02.11	123.12	28.94	
2025-01-08 17:56:02.31	123.08	28.98	
2025-01-08 17:56:02.51	123.04	29.01	
2025-01-08 17:56:02.72	123.00	29.05	
2025-01-08 17:56:02.92	122.96	29.09	
2025-01-08 17:56:03.13	122.91	29.13	
2025-01-08 17:56:03.34	122.87	29.17	
2025-01-08 17:56:03.54	122.83	29.20	
2025-01-08 17:56:03.74	122.79	29.24	
2025-01-08 17:56:03.95	122.75	29.28	
2025-01-08 17:56:04.15	122.71	29.32	
2025-01-08 17:56:04.36	122.67	29.35	
2025-01-08 17:56:04.56	122.63	29.39	
2025-01-08 17:56:04.77	122.58	29.43	
2025-01-08 17:56:04.97	122.54	29.47	
2025-01-08 17:56:05.18	122.50	29.51	
2025-01-08 17:56:05.39	122.46	29.55	
2025-01-08 17:56:05.60	122.42	29.59	
2025-01-08 17:56:05.81	122.37	29.62	
2025-01-08 17:56:06.02	122.33	29.66	
2025-01-08 17:56:06.22	122.29	29.70	
2025-01-08 17:56:06.42	122.25	29.74	
2025-01-08 17:56:06.63	122.20	29.78	
2025-01-08 17:56:06.83	122.16	29.82	
2025-01-08 17:56:07.04	122.12	29.86	
2025-01-08 17:56:07.24	122.08	29.89	
2025-01-08 17:56:07.44	122.03	29.93	
2025-01-08 17:56:07.65	121.99	29.97	
2025-01-08 17:56:07.85	121.95	30.01	
2025-01-08 17:56:08.06	121.90	30.05	
2025-01-08 17:56:08.27	121.86	30.09	
2025-01-08 17:56:08.47	121.82	30.13	
2025-01-08 17:56:08.67	121.77	30.16	
2025-01-08 17:56:08.88	121.73	30.20	
2025-01-08 17:56:09.08	121.69	30.24	
2025-01-08 17:56:09.29	121.64	30.28	
2025-01-08 17:56:09.49	121.60	30.32	
2025-01-08 17:56:09.70	121.55	30.36	
2025-01-08 17:56:09.90	121.51	30.40	
2025-01-08 17:56:10.11	121.47	30.44	
2025-01-08 17:56:10.31	121.42	30.48	
2025-01-08 17:56:10.52	121.38	30.52	
2025-01-08 17:56:10.72	121.33	30.55	
2025-01-08 17:56:10.93	121.29	30.59	
2025-01-08 17:56:11.13	121.24	30.63	
2025-01-08 17:56:11.34	121.20	30.67	
2025-01-08 17:56:11.54	121.15	30.71	
2025-01-08 17:56:11.75	121.11	30.75	
2025-01-08 17:56:11.95	121.06	30.79	
2025-01-08 17:56:12.16	121.02	30.83	
2025-01-08 17:56:12.37	120.97	30.87	
2025-01-08 17:56:12.57	120.93	30.91	
2025-01-08 17:56:12.78	120.88	30.95	
2025-01-08 17:56:12.98	120.83	30.99	
2025-01-08 17:56:13.19	120.79	31.03	
2025-01-08 17:56:13.39	120.74	31.07	
2025-01-08 17:56:13.60	120.69	31.11	
2025-01-08 17:56:13.80	120.65	31.15	
2025-01-08 17:56:14.01	120.60	31.19	
2025-01-08 17:56:14.21	120.56	31.23	
2025-01-08 17:56:14.42	120.51	31.27	
2025-01-08 17:56:14.62	120.46	31.31	
2025-01-08 17:56:14.83	120.41	31.35	
2025-01-08 17:56:15.03	120.37	31.39	
2025-01-08 17:56:15.24	120.32	31.43	
2025-01-08 17:56:15.44	120.27	31.47	
2025-01-08 17:56:15.65	120.22	31.51	
2025-01-08 17:56:15.85	120.18	31.55	
2025-01-08 17:56:16.06	120.13	31.59	
2025-01-08 17:56:16.26	120.08	31.63	
2025-01-08 17:56:16.47	120.03	31.67	
2025-01-08 17:56:16.67	119.99	31.71	
2025-01-08 17:56:16.88	119.94	31.75	
2025-01-08 17:56:17.08	119.89	31.79	
2025-01-08 17:56:17.29	119.84	31.83	
2025-01-08 17:56:17.50	119.79	31.87	
2025-01-08 17:56:17.70	119.74	31.91	
2025-01-08 17:56:17.91	119.69	31.95	
2025-01-08 17:56:18.11	119.65	31.99	
2025-01-08 17:56:18.31	119.60	32.03	
2025-01-08 17:56:18.52	119.55	32.07	
2025-01-08 17:56:18.72	119.50	32.11	
2025-01-08 17:56:18.93	119.45	32.15	
2025-01-08 17:56:19.14	119.40	32.20	
2025-01-08 17:56:19.34	119.35	32.24	
2025-01-08 17:56:19.54	119.30	32.28	
2025-01-08 17:56:19.75	119.25	32.32	
2025-01-08 17:56:19.96	119.20	32.36	
2025-01-08 17:56:20.16	119.15	32.40	
2025-01-08 17:56:20.37	119.10	32.44	
2025-01-08 17:56:20.57	119.05	32.48	
2025-01-08 17:56:20.78	119.00	32.52	
2025-01-08 17:56:20.98	118.95	32.56	
2025-01-08 17:56:21.19	118.89	32.61	
2025-01-08 17:56:21.39	118.84	32.65	
2025-01-08 17:56:21.60	118.79	32.69	
2025-01-08 17:56:21.80	118.74	32.73	
2025-01-08 17:56:22.01	118.69	32.77	
2025-01-08 17:56:22.21	118.64	32.81	
2025-01-08 17:56:22.42	118.59	32.85	
2025-01-08 17:56:22.62	118.54	32.89	
2025-01-08 17:56:22.82	118.48	32.93	
2025-01-08 17:56:23.03	118.43	32.98	
2025-01-08 17:56:23.23	118.38	33.02	
2025-01-08 17:56:23.44	118.33	33.06	
2025-01-08 17:56:23.64	118.28	33.10	
2025-01-08 17:56:23.85	118.22	33.14	
2025-01-08 17:56:24.06	118.17	33.18	
2025-01-08 17:56:24.26	118.12	33.22	
2025-01-08 17:56:24.46	118.06	33.26	
2025-01-08 17:56:24.67	118.01	33.31	
2025-01-08 17:56:24.87	117.96	33.35	
2025-01-08 17:56:25.08	117.90	33.39	
2025-01-08 17:56:25.29	117.85	33.43	
2025-01-08 17:56:25.49	117.79	33.47	
2025-01-08 17:56:25.70	117.74	33.52	
2025-01-08 17:56:25.90	117.69	33.56	
2025-01-08 17:56:26.11	117.63	33.60	
2025-01-08 17:56:26.32	117.58	33.64	
2025-01-08 17:56:26.52	117.52	33.68	
2025-01-08 17:56:26.73	117.47	33.73	
2025-01-08 17:56:26.94	117.41	33.77	
2025-01-08 17:56:27.15	117.35	33.81	
2025-01-08 17:56:27.36	117.30	33.86	
2025-01-08 17:56:27.57	117.24	33.90	
2025-01-08 17:56:27.77	117.19	33.94	
2025-01-08 17:56:27.97	117.13	33.98	
2025-01-08 17:56:28.18	117.08	34.03	
2025-01-08 17:56:28.38	117.02	34.07	
2025-01-08 17:56:28.59	116.96	34.11	
2025-01-08 17:56:28.80	116.91	34.15	
2025-01-08 17:56:29.00	116.85	34.19	
2025-01-08 17:56:29.21	116.79	34.24	
2025-01-08 17:56:29.41	116.74	34.28	
2025-01-08 17:56:29.62	116.68	34.32	
2025-01-08 17:56:29.82	116.62	34.36	
2025-01-08 17:56:30.03	116.57	34.41	
2025-01-08 17:56:30.23	116.51	34.45	
2025-01-08 17:56:30.44	116.45	34.49	
2025-01-08 17:56:30.64	116.39	34.53	
2025-01-08 17:56:30.85	116.34	34.58	
2025-01-08 17:56:31.05	116.28	34.62	
2025-01-08 17:56:31.26	116.22	34.66	
2025-01-08 17:56:31.46	116.16	34.70	
2025-01-08 17:56:31.67	116.10	34.75	
2025-01-08 17:56:31.87	116.05	34.79	
2025-01-08 17:56:32.08	115.99	34.83	
2025-01-08 17:56:32.30	115.92	34.88	
2025-01-08 17:56:32.50	115.87	34.92	
2025-01-08 17:56:32.71	115.80	34.96	
2025-01-08 17:56:32.91	115.75	35.01	
2025-01-08 17:56:33.12	115.69	35.05	
2025-01-08 17:56:33.32	115.63	35.09	
2025-01-08 17:56:33.53	115.57	35.14	
2025-01-08 17:56:33.73	115.51	35.18	
2025-01-08 17:56:33.94	115.45	35.22	
2025-01-08 17:56:34.14	115.39	35.26	
2025-01-08 17:56:34.35	115.33	35.31	
2025-01-08 17:56:34.55	115.27	35.35	
2025-01-08 17:56:34.76	115.20	35.39	
2025-01-08 17:56:34.96	115.14	35.44	
2025-01-08 17:56:35.17	115.08	35.48	
2025-01-08 17:56:35.37	115.02	35.52	
2025-01-08 17:56:35.58	114.96	35.57	
2025-01-08 17:56:35.78	114.90	35.61	
2025-01-08 17:56:35.99	114.84	35.65	
2025-01-08 17:56:36.19	114.78	35.70	
2025-01-08 17:56:36.40	114.71	35.74	
2025-01-08 17:56:36.60	114.65	35.78	
2025-01-08 17:56:36.81	114.59	35.83	
2025-01-08 17:56:37.02	114.52	35.87	
2025-01-08 17:56:37.22	114.46	35.91	
2025-01-08 17:56:37.43	114.40	35.96	
2025-01-08 17:56:37.63	114.34	36.00	
2025-01-08 17:56:37.84	114.27	36.05	
2025-01-08 17:56:38.04	114.21	36.09	
2025-01-08 17:56:38.25	114.14	36.13	
2025-01-08 17:56:38.45	114.08	36.17	
2025-01-08 17:56:38.66	114.02	36.22	
2025-01-08 17:56:38.86	113.95	36.26	
2025-01-08 17:56:39.07	113.89	36.31	
2025-01-08 17:56:39.28	113.82	36.35	
2025-01-08 17:56:39.48	113.76	36.39	
2025-01-08 17:56:39.69	113.69	36.44	
2025-01-08 17:56:39.89	113.63	36.48	
2025-01-08 17:56:40.09	113.56	36.52	
2025-01-08 17:56:40.30	113.50	36.57	
2025-01-08 17:56:40.51	113.43	36.61	
2025-01-08 17:56:40.71	113.37	36.66	
2025-01-08 17:56:40.91	113.30	36.70	
2025-01-08 17:56:41.12	113.23	36.74	
2025-01-08 17:56:41.33	113.17	36.79	
2025-01-08 17:56:41.53	113.10	36.83	
2025-01-08 17:56:41.74	113.03	36.88	
2025-01-08 17:56:41.94	112.97	36.92	
2025-01-08 17:56:42.15	112.90	36.96	
2025-01-08 17:56:42.36	112.83	37.01	
2025-01-08 17:56:42.56	112.76	37.05	
2025-01-08 17:56:42.76	112.70	37.09	
2025-01-08 17:56:42.97	112.63	37.14	
2025-01-08 17:56:43.17	112.56	37.18	
2025-01-08 17:56:43.38	112.49	37.23	
2025-01-08 17:56:43.58	112.42	37.27	
2025-01-08 17:56:43.79	112.35	37.32	
2025-01-08 17:56:43.99	112.29	37.36	
2025-01-08 17:56:44.20	112.22	37.40	
2025-01-08 17:56:44.40	112.15	37.45	
2025-01-08 17:56:44.61	112.08	37.49	
2025-01-08 17:56:44.82	112.01	37.54	
2025-01-08 17:56:45.02	111.94	37.58	
2025-01-08 17:56:45.23	111.87	37.62	
2025-01-08 17:56:45.43	111.80	37.67	
2025-01-08 17:56:45.64	111.73	37.71	
2025-01-08 17:56:45.84	111.66	37.76	
2025-01-08 17:56:46.05	111.59	37.80	
2025-01-08 17:56:46.25	111.52	37.84	
2025-01-08 17:56:46.46	111.44	37.89	
2025-01-08 17:56:46.66	111.37	37.93	
2025-01-08 17:56:46.87	111.30	37.98	
2025-01-08 17:56:47.08	111.23	38.02	
2025-01-08 17:56:47.28	111.16	38.07	
2025-01-08 17:56:47.49	111.08	38.11	
2025-01-08 17:56:47.69	111.01	38.16	
2025-01-08 17:56:47.90	110.94	38.20	
2025-01-08 17:56:48.10	110.87	38.24	
2025-01-08 17:56:48.31	110.79	38.29	
2025-01-08 17:56:48.51	110.72	38.33	
2025-01-08 17:56:48.72	110.65	38.38	
2025-01-08 17:56:48.93	110.57	38.42	
2025-01-08 17:56:49.13	110.50	38.47	
2025-01-08 17:56:49.34	110.42	38.51	
2025-01-08 17:56:49.54	110.35	38.55	
2025-01-08 17:56:49.75	110.27	38.60	
2025-01-08 17:56:49.95	110.20	38.64	
2025-01-08 17:56:50.16	110.12	38.69	
2025-01-08 17:56:50.36	110.05	38.73	
2025-01-08 17:56:50.57	109.97	38.78	
2025-01-08 17:56:50.77	109.90	38.82	
2025-01-08 17:56:50.98	109.82	38.87	
2025-01-08 17:56:51.18	109.75	38.91	
2025-01-08 17:56:51.39	109.67	38.96	
2025-01-08 17:56:51.59	109.60	39.00	
2025-01-08 17:56:51.80	109.52	39.04	
2025-01-08 17:56:52.00	109.44	39.09	
2025-01-08 17:56:52.21	109.37	39.13	
2025-01-08 17:56:52.41	109.29	39.18	
2025-01-08 17:56:52.62	109.21	39.22	
2025-01-08 17:56:52.82	109.13	39.26	
2025-01-08 17:56:53.03	109.06	39.31	
2025-01-08 17:56:53.24	108.98	39.36	
2025-01-08 17:56:53.44	108.90	39.40	
2025-01-08 17:56:53.65	108.82	39.44	
2025-01-08 17:56:53.85	108.74	39.49	
2025-01-08 17:56:54.06	108.66	39.53	
2025-01-08 17:56:54.26	108.58	39.58	
2025-01-08 17:56:54.47	108.50	39.62	
2025-01-08 17:56:54.67	108.43	39.67	
2025-01-08 17:56:54.88	108.34	39.71	
2025-01-08 17:56:55.08	108.27	39.75	
2025-01-08 17:56:55.29	108.18	39.80	
2025-01-08 17:56:55.49	108.10	39.84	
2025-01-08 17:56:55.70	108.02	39.89	
2025-01-08 17:56:55.91	107.94	39.93	
2025-01-08 17:56:56.11	107.86	39.98	
2025-01-08 17:56:56.31	107.78	40.02	
2025-01-08 17:56:56.52	107.70	40.07	
2025-01-08 17:56:56.72	107.62	40.11	
2025-01-08 17:56:56.93	107.53	40.15	
2025-01-08 17:56:57.13	107.45	40.20	
2025-01-08 17:56:57.33	107.37	40.24	
2025-01-08 17:56:57.54	107.29	40.29	
2025-01-08 17:56:57.75	107.20	40.33	
2025-01-08 17:56:57.95	107.12	40.38	
2025-01-08 17:56:58.15	107.04	40.42	
2025-01-08 17:56:58.36	106.95	40.46	
2025-01-08 17:56:58.57	106.87	40.51	
2025-01-08 17:56:58.77	106.79	40.55	
2025-01-08 17:56:58.97	106.70	40.60	
2025-01-08 17:56:59.18	106.62	40.64	
2025-01-08 17:56:59.38	106.53	40.68	
2025-01-08 17:56:59.59	106.45	40.73	
2025-01-08 17:56:59.79	106.36	40.77	
2025-01-08 17:57:00.00	106.28	40.82	
2025-01-08 17:57:00.20	106.19	40.86	
2025-01-08 17:57:00.41	106.10	40.91	
2025-01-08 17:57:00.62	106.02	40.95	
2025-01-08 17:57:00.82	105.93	40.99	
2025-01-08 17:57:01.03	105.84	41.04	
2025-01-08 17:57:01.23	105.76	41.08	
2025-01-08 17:57:01.43	105.67	41.13	
2025-01-08 17:57:01.64	105.58	41.17	
2025-01-08 17:57:01.85	105.49	41.22	
2025-01-08 17:57:02.05	105.41	41.26	
2025-01-08 17:57:02.26	105.32	41.30	
2025-01-08 17:57:02.46	105.23	41.35	
2025-01-08 17:57:02.67	105.14	41.39	
2025-01-08 17:57:02.87	105.05	41.43	
2025-01-08 17:57:03.08	104.96	41.48	
2025-01-08 17:57:03.28	104.88	41.52	
2025-01-08 17:57:03.49	104.78	41.57	
2025-01-08 17:57:03.70	104.69	41.61	
2025-01-08 17:57:03.90	104.60	41.65	
2025-01-08 17:57:04.11	104.51	41.70	
2025-01-08 17:57:04.31	104.42	41.74	
2025-01-08 17:57:04.51	104.33	41.78	
2025-01-08 17:57:04.72	104.24	41.83	
2025-01-08 17:57:04.93	104.15	41.87	
2025-01-08 17:57:05.13	104.06	41.92	
2025-01-08 17:57:05.33	103.97	41.96	
2025-01-08 17:57:05.54	103.87	42.00	
2025-01-08 17:57:05.74	103.78	42.05	
2025-01-08 17:57:05.95	103.69	42.09	
2025-01-08 17:57:06.16	103.59	42.14	
2025-01-08 17:57:06.36	103.50	42.18	
2025-01-08 17:57:06.56	103.41	42.22	
2025-01-08 17:57:06.77	103.31	42.27	
2025-01-08 17:57:06.97	103.22	42.31	
2025-01-08 17:57:07.18	103.13	42.35	
2025-01-08 17:57:07.39	103.03	42.40	
2025-01-08 17:57:07.59	102.94	42.44	
2025-01-08 17:57:07.80	102.84	42.48	
2025-01-08 17:57:08.00	102.75	42.52	
2025-01-08 17:57:08.21	102.65	42.57	
2025-01-08 17:57:08.41	102.55	42.61	
2025-01-08 17:57:08.61	102.46	42.65	
2025-01-08 17:57:08.82	102.36	42.70	
2025-01-08 17:57:09.03	102.26	42.74	
2025-01-08 17:57:09.23	102.17	42.78	
2025-01-08 17:57:09.44	102.07	42.83	
2025-01-08 17:57:09.64	101.97	42.87	
2025-01-08 17:57:09.85	101.87	42.91	
2025-01-08 17:57:10.05	101.78	42.95	
2025-01-08 17:57:10.26	101.68	43.00	
2025-01-08 17:57:10.46	101.58	43.04	
2025-01-08 17:57:10.68	101.48	43.09	
2025-01-08 17:57:10.89	101.37	43.13	
2025-01-08 17:57:11.09	101.28	43.17	
2025-01-08 17:57:11.30	101.18	43.21	
2025-01-08 17:57:11.50	101.08	43.26	
2025-01-08 17:57:11.70	100.98	43.30	
2025-01-08 17:57:11.91	100.88	43.34	
2025-01-08 17:57:12.11	100.78	43.38	
2025-01-08 17:57:12.32	100.68	43.43	
2025-01-08 17:57:12.53	100.57	43.47	
2025-01-08 17:57:12.73	100.47	43.51	
2025-01-08 17:57:12.94	100.37	43.55	
2025-01-08 17:57:13.14	100.27	43.59	
2025-01-08 17:57:13.34	100.17	43.64	
2025-01-08 17:57:13.55	100.07	43.68	
2025-01-08 17:57:13.75	99.97	43.72	
2025-01-08 17:57:13.97	99.85	43.76	
2025-01-08 17:57:14.18	99.75	43.81	
2025-01-08 17:57:14.38	99.65	43.85	
2025-01-08 17:57:14.59	99.54	43.89	
2025-01-08 17:57:14.80	99.43	43.93	
2025-01-08 17:57:15.00	99.33	43.97	
2025-01-08 17:57:15.21	99.23	44.02	
2025-01-08 17:57:15.41	99.12	44.06	
2025-01-08 17:57:15.62	99.01	44.10	
2025-01-08 17:57:15.82	98.91	44.14	
2025-01-08 17:57:16.02	98.81	44.18	
2025-01-08 17:57:16.23	98.70	44.22	
2025-01-08 17:57:16.43	98.60	44.26	
2025-01-08 17:57:16.64	98.49	44.30	
2025-01-08 17:57:16.84	98.38	44.35	
2025-01-08 17:57:17.05	98.27	44.39	
2025-01-08 17:57:17.25	98.17	44.43	
2025-01-08 17:57:17.46	98.06	44.47	
2025-01-08 17:57:17.67	97.95	44.51	
2025-01-08 17:57:17.87	97.84	44.55	
2025-01-08 17:57:18.07	97.73	44.59	
2025-01-08 17:57:18.28	97.62	44.63	
2025-01-08 17:57:18.48	97.52	44.67	
2025-01-08 17:57:18.69	97.40	44.71	
2025-01-08 17:57:18.89	97.30	44.75	
2025-01-08 17:57:19.10	97.18	44.79	
2025-01-08 17:57:19.30	97.08	44.83	
2025-01-08 17:57:19.51	96.96	44.87	
2025-01-08 17:57:19.71	96.85	44.91	
2025-01-08 17:57:19.92	96.74	44.95	
2025-01-08 17:57:20.12	96.63	44.99	
2025-01-08 17:57:20.32	96.52	45.03	
2025-01-08 17:57:20.53	96.41	45.07	
2025-01-08 17:57:20.74	96.29	45.11	
2025-01-08 17:57:20.94	96.18	45.15	
2025-01-08 17:57:21.15	96.07	45.19	
2025-01-08 17:57:21.35	95.96	45.23	
2025-01-08 17:57:21.56	95.84	45.27	
2025-01-08 17:57:21.76	95.73	45.31	
2025-01-08 17:57:21.97	95.61	45.35	
2025-01-08 17:57:22.18	95.50	45.39	
2025-01-08 17:57:22.38	95.38	45.43	
2025-01-08 17:57:22.58	95.27	45.46	
2025-01-08 17:57:22.79	95.15	45.50	
2025-01-08 17:57:22.99	95.04	45.54	
2025-01-08 17:57:23.20	94.92	45.58	
2025-01-08 17:57:23.40	94.81	45.62	
2025-01-08 17:57:23.61	94.69	45.66	
2025-01-08 17:57:23.81	94.58	45.70	
2025-01-08 17:57:24.02	94.46	45.74	
2025-01-08 17:57:24.22	94.34	45.77	
2025-01-08 17:57:24.43	94.22	45.81	
2025-01-08 17:57:24.63	94.11	45.85	
2025-01-08 17:57:24.84	93.99	45.89	
2025-01-08 17:57:25.04	93.87	45.92	
2025-01-08 17:57:25.25	93.75	45.96	
2025-01-08 17:57:25.46	93.63	46.00	
2025-01-08 17:57:25.66	93.51	46.04	
2025-01-08 17:57:25.86	93.39	46.08	
2025-01-08 17:57:26.07	93.27	46.11	
2025-01-08 17:57:26.27	93.15	46.15	
2025-01-08 17:57:26.48	93.03	46.19	
2025-01-08 17:57:26.68	92.91	46.22	
2025-01-08 17:57:26.89	92.79	46.26	
2025-01-08 17:57:27.09	92.67	46.30	
2025-01-08 17:57:27.30	92.55	46.34	
2025-01-08 17:57:27.50	92.43	46.37	
2025-01-08 17:57:27.71	92.30	46.41	
2025-01-08 17:57:27.91	92.18	46.44	
2025-01-08 17:57:28.12	92.06	46.48	
2025-01-08 17:57:28.32	91.94	46.52	
2025-01-08 17:57:28.53	91.81	46.55	
2025-01-08 17:57:28.74	91.68	46.59	
2025-01-08 17:57:28.94	91.56	46.62	
2025-01-08 17:57:29.15	91.44	46.66	
2025-01-08 17:57:29.35	91.31	46.70	
2025-01-08 17:57:29.55	91.19	46.73	
2025-01-08 17:57:29.76	91.06	46.77	
2025-01-08 17:57:29.96	90.94	46.80	
2025-01-08 17:57:30.17	90.81	46.84	
2025-01-08 17:57:30.37	90.69	46.87	
2025-01-08 17:57:30.57	90.57	46.91	
2025-01-08 17:57:30.77	90.44	46.94	
2025-01-08 17:57:30.97	90.32	46.97	
2025-01-08 17:57:31.19	90.18	47.01	
2025-01-08 17:57:31.39	90.06	47.04	
2025-01-08 17:57:31.60	89.93	47.08	
2025-01-08 17:57:31.81	89.80	47.11	
2025-01-08 17:57:32.01	89.67	47.15	
2025-01-08 17:57:32.22	89.54	47.18	
2025-01-08 17:57:32.42	89.42	47.21	
2025-01-08 17:57:32.62	89.29	47.25	
2025-01-08 17:57:32.83	89.16	47.28	
2025-01-08 17:57:33.04	89.03	47.32	
2025-01-08 17:57:33.24	88.90	47.35	
2025-01-08 17:57:33.45	88.77	47.38	
2025-01-08 17:57:33.65	88.64	47.41	
2025-01-08 17:57:33.86	88.50	47.45	
2025-01-08 17:57:34.06	88.38	47.48	
2025-01-08 17:57:34.26	88.25	47.51	
2025-01-08 17:57:34.47	88.11	47.54	
2025-01-08 17:57:34.68	87.98	47.58	
2025-01-08 17:57:34.88	87.85	47.61	
2025-01-08 17:57:35.09	87.71	47.64	
2025-01-08 17:57:35.29	87.58	47.67	
2025-01-08 17:57:35.51	87.44	47.71	
2025-01-08 17:57:35.71	87.31	47.74	
2025-01-08 17:57:35.92	87.18	47.77	
2025-01-08 17:57:36.13	87.04	47.80	
2025-01-08 17:57:36.33	86.91	47.83	
2025-01-08 17:57:36.53	86.78	47.86	
2025-01-08 17:57:36.74	86.64	47.89	
2025-01-08 17:57:36.94	86.51	47.92	
2025-01-08 17:57:37.15	86.37	47.96	
2025-01-08 17:57:37.35	86.24	47.99	
2025-01-08 17:57:37.56	86.10	48.02	
2025-01-08 17:57:37.76	85.97	48.05	
2025-01-08 17:57:37.97	85.83	48.08	
2025-01-08 17:57:38.18	85.69	48.11	
2025-01-08 17:57:38.38	85.55	48.14	
2025-01-08 17:57:38.59	85.41	48.17	
2025-01-08 17:57:38.79	85.28	48.19	
2025-01-08 17:57:39.00	85.14	48.22	
2025-01-08 17:57:39.20	85.00	48.25	
2025-01-08 17:57:39.41	84.86	48.28	
2025-01-08 17:57:39.61	84.73	48.31	
2025-01-08 17:57:39.82	84.59	48.34	
2025-01-08 17:57:40.02	84.45	48.37	
2025-01-08 17:57:40.23	84.31	48.40	
2025-01-08 17:57:40.44	84.16	48.43	
2025-01-08 17:57:40.64	84.03	48.45	
2025-01-08 17:57:40.84	83.89	48.48	
2025-01-08 17:57:41.05	83.75	48.51	
2025-01-08 17:57:41.26	83.61	48.54	
2025-01-08 17:57:41.46	83.47	48.56	
2025-01-08 17:57:41.67	83.32	48.59	
2025-01-08 17:57:41.87	83.19	48.62	
2025-01-08 17:57:42.08	83.04	48.64	
2025-01-08 17:57:42.29	82.90	48.67	
2025-01-08 17:57:42.49	82.76	48.70	
2025-01-08 17:57:42.69	82.62	48.72	
2025-01-08 17:57:42.90	82.47	48.75	
2025-01-08 17:57:43.11	82.33	48.78	
2025-01-08 17:57:43.31	82.19	48.80	
2025-01-08 17:57:43.52	82.04	48.83	
2025-01-08 17:57:43.72	81.90	48.85	
2025-01-08 17:57:43.93	81.75	48.88	
2025-01-08 17:57:44.13	81.61	48.90	
2025-01-08 17:57:44.34	81.47	48.93	
2025-01-08 17:57:44.54	81.33	48.95	
2025-01-08 17:57:44.75	81.18	48.98	
2025-01-08 17:57:44.95	81.04	49.00	
2025-01-08 17:57:45.16	80.89	49.02	
2025-01-08 17:57:45.36	80.75	49.05	
2025-01-08 17:57:45.57	80.60	49.07	
2025-01-08 17:57:45.78	80.45	49.10	
2025-01-08 17:57:45.99	80.30	49.12	
2025-01-08 17:57:46.20	80.15	49.14	
2025-01-08 17:57:46.41	80.00	49.17	
2025-01-08 17:57:46.61	79.86	49.19	
2025-01-08 17:57:46.82	79.71	49.21	
2025-01-08 17:57:47.04	79.55	49.24	
2025-01-08 17:57:47.24	79.41	49.26	
2025-01-08 17:57:47.45	79.25	49.28	
2025-01-08 17:57:47.65	79.11	49.30	
2025-01-08 17:57:47.86	78.96	49.32	
2025-01-08 17:57:48.06	78.81	49.35	
2025-01-08 17:57:48.27	78.66	49.37	
2025-01-08 17:57:48.47	78.52	49.39	
2025-01-08 17:57:48.68	78.37	49.41	
2025-01-08 17:57:48.88	78.22	49.43	
2025-01-08 17:57:49.09	78.07	49.45	
2025-01-08 17:57:49.29	77.92	49.47	
2025-01-08 17:57:49.50	77.77	49.49	
2025-01-08 17:57:49.70	77.62	49.51	
2025-01-08 17:57:49.91	77.47	49.53	
2025-01-08 17:57:50.11	77.32	49.55	
2025-01-08 17:57:50.33	77.16	49.57	
2025-01-08 17:57:50.54	77.01	49.59	
2025-01-08 17:57:50.74	76.86	49.61	
2025-01-08 17:57:50.95	76.71	49.63	
2025-01-08 17:57:51.15	76.56	49.64	
2025-01-08 17:57:51.36	76.40	49.66	
2025-01-08 17:57:51.56	76.26	49.68	
2025-01-08 17:57:51.77	76.10	49.70	
2025-01-08 17:57:51.97	75.95	49.72	
2025-01-08 17:57:52.18	75.80	49.73	
2025-01-08 17:57:52.38	75.65	49.75	
2025-01-08 17:57:52.59	75.49	49.77	
2025-01-08 17:57:52.79	75.34	49.79	
2025-01-08 17:57:53.00	75.19	49.80	
2025-01-08 17:57:53.20	75.04	49.82	
2025-01-08 17:57:53.41	74.88	49.83	
2025-01-08 17:57:53.61	74.73	49.85	
2025-01-08 17:57:53.82	74.58	49.87	
2025-01-08 17:57:54.02	74.43	49.88	
2025-01-08 17:57:54.23	74.27	49.90	
2025-01-08 17:57:54.44	74.11	49.91	
2025-01-08 17:57:54.64	73.96	49.93	
2025-01-08 17:57:54.84	73.81	49.94	
2025-01-08 17:57:55.05	73.65	49.96	
2025-01-08 17:57:55.26	73.50	49.97	
2025-01-08 17:57:55.46	73.34	49.99	
