passes_logs/2025/01/08/SPB_Silybum_02/SPB_Silybum_02__20250108_063828_TERRA_rec.log

#Pass ID: 20250108_063828_TERRA
#Satellite: TERRA
#Configuration: TERRA
#Start time: 2025-01-08 06:38:27

#Version: 2.0.20230423
#Station: SPB_Silybum_02
#Location: 30.233357 lon 59.946436 lat
#TLE: 1 25994U 99068A   25007.79031535  .00001159  00000+0  24884-3 0  9992
#TLE: 2 25994  98.0229  71.0496 0003578  86.9116 340.1593 14.60381232333028

#Time	Az	El	Level	Level2	SNR	BER	Gain	Gain2
2025-01-08 06:38:29.76	29.49	4.09	
2025-01-08 06:38:29.96	29.51	4.10	
2025-01-08 06:38:30.17	29.54	4.11	
2025-01-08 06:38:30.37	29.56	4.13	
2025-01-08 06:38:30.58	29.58	4.14	
2025-01-08 06:38:30.79	29.60	4.15	
2025-01-08 06:38:30.99	29.62	4.16	
2025-01-08 06:38:31.20	29.64	4.17	
2025-01-08 06:38:31.40	29.66	4.18	
2025-01-08 06:38:31.60	29.68	4.20	
2025-01-08 06:38:31.81	29.70	4.21	
2025-01-08 06:38:32.02	29.73	4.22	
2025-01-08 06:38:32.22	29.75	4.23	
2025-01-08 06:38:32.43	29.77	4.24	
2025-01-08 06:38:32.63	29.79	4.25	
2025-01-08 06:38:32.84	29.81	4.26	
2025-01-08 06:38:33.05	29.83	4.28	
2025-01-08 06:38:33.25	29.85	4.29	
2025-01-08 06:38:33.46	29.87	4.30	
2025-01-08 06:38:33.66	29.90	4.31	
2025-01-08 06:38:33.87	29.92	4.32	
2025-01-08 06:38:34.07	29.94	4.33	
2025-01-08 06:38:34.28	29.96	4.35	
2025-01-08 06:38:34.48	29.98	4.36	
2025-01-08 06:38:34.69	30.00	4.37	
2025-01-08 06:38:34.89	30.02	4.38	
2025-01-08 06:38:35.10	30.05	4.39	
2025-01-08 06:38:35.30	30.07	4.40	
2025-01-08 06:38:35.51	30.09	4.42	
2025-01-08 06:38:35.72	30.11	4.43	
2025-01-08 06:38:35.92	30.13	4.44	
2025-01-08 06:38:36.13	30.15	4.45	
2025-01-08 06:38:36.33	30.17	4.46	
2025-01-08 06:38:36.54	30.20	4.47	
2025-01-08 06:38:36.74	30.22	4.48	
2025-01-08 06:38:36.95	30.24	4.50	
2025-01-08 06:38:37.15	30.26	4.51	
2025-01-08 06:38:37.36	30.28	4.52	
2025-01-08 06:38:37.57	30.30	4.53	
2025-01-08 06:38:37.78	30.33	4.54	
2025-01-08 06:38:37.98	30.35	4.55	
2025-01-08 06:38:38.19	30.37	4.57	
2025-01-08 06:38:38.39	30.39	4.58	
2025-01-08 06:38:38.59	30.41	4.59	
2025-01-08 06:38:38.80	30.43	4.60	
2025-01-08 06:38:39.01	30.46	4.61	
2025-01-08 06:38:39.21	30.48	4.62	
2025-01-08 06:38:39.42	30.50	4.64	
2025-01-08 06:38:39.62	30.52	4.65	
2025-01-08 06:38:39.83	30.54	4.66	
2025-01-08 06:38:40.03	30.57	4.67	
2025-01-08 06:38:40.24	30.59	4.68	
2025-01-08 06:38:40.44	30.61	4.69	
2025-01-08 06:38:40.65	30.63	4.71	
2025-01-08 06:38:40.85	30.65	4.72	
2025-01-08 06:38:41.06	30.68	4.73	
2025-01-08 06:38:41.26	30.70	4.74	
2025-01-08 06:38:41.47	30.72	4.75	
2025-01-08 06:38:41.68	30.74	4.76	
2025-01-08 06:38:41.88	30.76	4.78	
2025-01-08 06:38:42.08	30.78	4.79	
2025-01-08 06:38:42.29	30.81	4.80	
2025-01-08 06:38:42.50	30.83	4.81	
2025-01-08 06:38:42.70	30.85	4.82	
2025-01-08 06:38:42.90	30.87	4.83	
2025-01-08 06:38:43.11	30.90	4.85	
2025-01-08 06:38:43.31	30.92	4.86	
2025-01-08 06:38:43.52	30.94	4.87	
2025-01-08 06:38:43.72	30.96	4.88	
2025-01-08 06:38:43.93	30.98	4.89	
2025-01-08 06:38:44.13	31.01	4.90	
2025-01-08 06:38:44.34	31.03	4.92	
2025-01-08 06:38:44.54	31.05	4.93	
2025-01-08 06:38:44.75	31.07	4.94	
2025-01-08 06:38:44.95	31.09	4.95	
2025-01-08 06:38:45.16	31.12	4.96	
2025-01-08 06:38:45.36	31.14	4.97	
2025-01-08 06:38:45.57	31.16	4.99	
2025-01-08 06:38:45.77	31.18	5.00	
2025-01-08 06:38:45.98	31.21	5.01	
2025-01-08 06:38:46.18	31.23	5.02	
2025-01-08 06:38:46.39	31.25	5.03	
2025-01-08 06:38:46.59	31.27	5.04	
2025-01-08 06:38:46.80	31.30	5.06	
2025-01-08 06:38:47.00	31.32	5.07	
2025-01-08 06:38:47.22	31.34	5.08	
2025-01-08 06:38:47.43	31.37	5.09	
2025-01-08 06:38:47.63	31.39	5.10	
2025-01-08 06:38:47.84	31.41	5.12	
2025-01-08 06:38:48.04	31.43	5.13	
2025-01-08 06:38:48.25	31.46	5.14	
2025-01-08 06:38:48.45	31.48	5.15	
2025-01-08 06:38:48.65	31.50	5.16	
2025-01-08 06:38:48.86	31.52	5.17	
2025-01-08 06:38:49.07	31.55	5.19	
2025-01-08 06:38:49.27	31.57	5.20	
2025-01-08 06:38:49.48	31.59	5.21	
2025-01-08 06:38:49.68	31.61	5.22	
2025-01-08 06:38:49.89	31.64	5.23	
2025-01-08 06:38:50.09	31.66	5.24	
2025-01-08 06:38:50.30	31.68	5.26	
2025-01-08 06:38:50.50	31.70	5.27	
2025-01-08 06:38:50.71	31.73	5.28	
2025-01-08 06:38:50.91	31.75	5.29	
2025-01-08 06:38:51.12	31.77	5.30	
2025-01-08 06:38:51.34	31.80	5.32	
2025-01-08 06:38:51.54	31.82	5.33	
2025-01-08 06:38:51.74	31.84	5.34	
2025-01-08 06:38:51.95	31.87	5.35	
2025-01-08 06:38:52.15	31.89	5.36	
2025-01-08 06:38:52.36	31.91	5.37	
2025-01-08 06:38:52.56	31.93	5.39	
2025-01-08 06:38:52.77	31.96	5.40	
2025-01-08 06:38:52.97	31.98	5.41	
2025-01-08 06:38:53.18	32.00	5.42	
2025-01-08 06:38:53.39	32.03	5.43	
2025-01-08 06:38:53.60	32.05	5.45	
2025-01-08 06:38:53.81	32.07	5.46	
2025-01-08 06:38:54.01	32.10	5.47	
2025-01-08 06:38:54.22	32.12	5.48	
2025-01-08 06:38:54.43	32.14	5.49	
2025-01-08 06:38:54.63	32.17	5.50	
2025-01-08 06:38:54.83	32.19	5.52	
2025-01-08 06:38:55.04	32.21	5.53	
2025-01-08 06:38:55.24	32.24	5.54	
2025-01-08 06:38:55.45	32.26	5.55	
2025-01-08 06:38:55.65	32.28	5.56	
2025-01-08 06:38:55.86	32.31	5.58	
2025-01-08 06:38:56.06	32.33	5.59	
2025-01-08 06:38:56.27	32.35	5.60	
2025-01-08 06:38:56.48	32.38	5.61	
2025-01-08 06:38:56.68	32.40	5.62	
2025-01-08 06:38:56.88	32.42	5.63	
2025-01-08 06:38:57.09	32.45	5.65	
2025-01-08 06:38:57.29	32.47	5.66	
2025-01-08 06:38:57.50	32.49	5.67	
2025-01-08 06:38:57.70	32.52	5.68	
2025-01-08 06:38:57.91	32.54	5.69	
2025-01-08 06:38:58.11	32.56	5.71	
2025-01-08 06:38:58.32	32.59	5.72	
2025-01-08 06:38:58.52	32.61	5.73	
2025-01-08 06:38:58.73	32.63	5.74	
2025-01-08 06:38:58.93	32.66	5.75	
2025-01-08 06:38:59.14	32.68	5.76	
2025-01-08 06:38:59.34	32.70	5.78	
2025-01-08 06:38:59.55	32.73	5.79	
2025-01-08 06:38:59.75	32.75	5.80	
2025-01-08 06:38:59.96	32.78	5.81	
2025-01-08 06:39:00.16	32.80	5.82	
2025-01-08 06:39:00.37	32.82	5.84	
2025-01-08 06:39:00.57	32.85	5.85	
2025-01-08 06:39:00.78	32.87	5.86	
2025-01-08 06:39:00.98	32.89	5.87	
2025-01-08 06:39:01.19	32.92	5.88	
2025-01-08 06:39:01.39	32.94	5.89	
2025-01-08 06:39:01.60	32.97	5.91	
2025-01-08 06:39:01.81	32.99	5.92	
2025-01-08 06:39:02.01	33.01	5.93	
2025-01-08 06:39:02.23	33.04	5.94	
2025-01-08 06:39:02.43	33.06	5.95	
2025-01-08 06:39:02.64	33.09	5.97	
2025-01-08 06:39:02.84	33.11	5.98	
2025-01-08 06:39:03.05	33.14	5.99	
2025-01-08 06:39:03.27	33.16	6.00	
2025-01-08 06:39:03.47	33.18	6.02	
2025-01-08 06:39:03.68	33.21	6.03	
2025-01-08 06:39:03.88	33.23	6.04	
2025-01-08 06:39:04.08	33.26	6.05	
2025-01-08 06:39:04.29	33.28	6.06	
2025-01-08 06:39:04.49	33.30	6.07	
2025-01-08 06:39:04.69	33.33	6.09	
2025-01-08 06:39:04.90	33.35	6.10	
2025-01-08 06:39:05.10	33.38	6.11	
2025-01-08 06:39:05.31	33.40	6.12	
2025-01-08 06:39:05.51	33.43	6.13	
2025-01-08 06:39:05.72	33.45	6.15	
2025-01-08 06:39:05.92	33.47	6.16	
2025-01-08 06:39:06.13	33.50	6.17	
2025-01-08 06:39:06.33	33.52	6.18	
2025-01-08 06:39:06.54	33.55	6.19	
2025-01-08 06:39:06.75	33.57	6.21	
2025-01-08 06:39:06.96	33.60	6.22	
2025-01-08 06:39:07.16	33.62	6.23	
2025-01-08 06:39:07.37	33.65	6.24	
2025-01-08 06:39:07.57	33.67	6.25	
2025-01-08 06:39:07.78	33.69	6.27	
2025-01-08 06:39:07.99	33.72	6.28	
2025-01-08 06:39:08.19	33.74	6.29	
2025-01-08 06:39:08.40	33.77	6.30	
2025-01-08 06:39:08.60	33.79	6.31	
2025-01-08 06:39:08.81	33.82	6.33	
2025-01-08 06:39:09.01	33.84	6.34	
2025-01-08 06:39:09.22	33.87	6.35	
2025-01-08 06:39:09.42	33.89	6.36	
2025-01-08 06:39:09.63	33.92	6.37	
2025-01-08 06:39:09.83	33.94	6.38	
2025-01-08 06:39:10.04	33.97	6.40	
2025-01-08 06:39:10.25	33.99	6.41	
2025-01-08 06:39:10.45	34.02	6.42	
2025-01-08 06:39:10.65	34.04	6.43	
2025-01-08 06:39:10.86	34.06	6.45	
2025-01-08 06:39:11.06	34.09	6.46	
2025-01-08 06:39:11.27	34.11	6.47	
2025-01-08 06:39:11.47	34.14	6.48	
2025-01-08 06:39:11.68	34.16	6.49	
2025-01-08 06:39:11.88	34.19	6.50	
2025-01-08 06:39:12.09	34.21	6.52	
2025-01-08 06:39:12.29	34.24	6.53	
2025-01-08 06:39:12.50	34.26	6.54	
2025-01-08 06:39:12.70	34.29	6.55	
2025-01-08 06:39:12.90	34.31	6.56	
2025-01-08 06:39:13.11	34.34	6.58	
2025-01-08 06:39:13.32	34.36	6.59	
2025-01-08 06:39:13.52	34.39	6.60	
2025-01-08 06:39:13.73	34.41	6.61	
2025-01-08 06:39:13.93	34.44	6.62	
2025-01-08 06:39:14.14	34.46	6.64	
2025-01-08 06:39:14.34	34.49	6.65	
2025-01-08 06:39:14.55	34.51	6.66	
2025-01-08 06:39:14.75	34.54	6.67	
2025-01-08 06:39:14.96	34.56	6.68	
2025-01-08 06:39:15.16	34.59	6.70	
2025-01-08 06:39:15.37	34.62	6.71	
2025-01-08 06:39:15.57	34.64	6.72	
2025-01-08 06:39:15.78	34.67	6.73	
2025-01-08 06:39:15.98	34.69	6.74	
2025-01-08 06:39:16.19	34.72	6.76	
2025-01-08 06:39:16.39	34.74	6.77	
2025-01-08 06:39:16.60	34.77	6.78	
2025-01-08 06:39:16.80	34.79	6.79	
2025-01-08 06:39:17.01	34.82	6.80	
2025-01-08 06:39:17.21	34.84	6.82	
2025-01-08 06:39:17.42	34.87	6.83	
2025-01-08 06:39:17.62	34.89	6.84	
2025-01-08 06:39:17.83	34.92	6.85	
2025-01-08 06:39:18.03	34.95	6.86	
2025-01-08 06:39:18.25	34.97	6.88	
2025-01-08 06:39:18.45	35.00	6.89	
2025-01-08 06:39:18.66	35.02	6.90	
2025-01-08 06:39:18.87	35.05	6.91	
2025-01-08 06:39:19.07	35.07	6.93	
2025-01-08 06:39:19.28	35.10	6.94	
2025-01-08 06:39:19.48	35.13	6.95	
2025-01-08 06:39:19.69	35.15	6.96	
2025-01-08 06:39:19.89	35.18	6.97	
2025-01-08 06:39:20.10	35.20	6.99	
2025-01-08 06:39:20.31	35.23	7.00	
2025-01-08 06:39:20.52	35.26	7.01	
2025-01-08 06:39:20.72	35.28	7.02	
2025-01-08 06:39:20.93	35.31	7.03	
2025-01-08 06:39:21.14	35.34	7.05	
2025-01-08 06:39:21.34	35.36	7.06	
2025-01-08 06:39:21.54	35.39	7.07	
2025-01-08 06:39:21.75	35.41	7.08	
2025-01-08 06:39:21.95	35.44	7.09	
2025-01-08 06:39:22.16	35.46	7.11	
2025-01-08 06:39:22.36	35.49	7.12	
2025-01-08 06:39:22.57	35.52	7.13	
2025-01-08 06:39:22.77	35.54	7.14	
2025-01-08 06:39:22.98	35.57	7.16	
2025-01-08 06:39:23.19	35.60	7.17	
2025-01-08 06:39:23.39	35.62	7.18	
2025-01-08 06:39:23.60	35.65	7.19	
2025-01-08 06:39:23.80	35.67	7.20	
2025-01-08 06:39:24.01	35.70	7.22	
2025-01-08 06:39:24.21	35.73	7.23	
2025-01-08 06:39:24.42	35.75	7.24	
2025-01-08 06:39:24.62	35.78	7.25	
2025-01-08 06:39:24.83	35.80	7.26	
2025-01-08 06:39:25.03	35.83	7.28	
2025-01-08 06:39:25.24	35.86	7.29	
2025-01-08 06:39:25.44	35.88	7.30	
2025-01-08 06:39:25.64	35.91	7.31	
2025-01-08 06:39:25.85	35.94	7.32	
2025-01-08 06:39:26.06	35.96	7.34	
2025-01-08 06:39:26.26	35.99	7.35	
2025-01-08 06:39:26.47	36.02	7.36	
2025-01-08 06:39:26.67	36.04	7.37	
2025-01-08 06:39:26.88	36.07	7.39	
2025-01-08 06:39:27.08	36.09	7.40	
2025-01-08 06:39:27.29	36.12	7.41	
2025-01-08 06:39:27.49	36.15	7.42	
2025-01-08 06:39:27.70	36.17	7.43	
2025-01-08 06:39:27.90	36.20	7.45	
2025-01-08 06:39:28.11	36.23	7.46	
2025-01-08 06:39:28.31	36.25	7.47	
2025-01-08 06:39:28.52	36.28	7.48	
2025-01-08 06:39:28.72	36.31	7.49	
2025-01-08 06:39:28.93	36.34	7.51	
2025-01-08 06:39:29.13	36.36	7.52	
2025-01-08 06:39:29.34	36.39	7.53	
2025-01-08 06:39:29.54	36.41	7.54	
2025-01-08 06:39:29.75	36.44	7.56	
2025-01-08 06:39:29.97	36.47	7.57	
2025-01-08 06:39:30.17	36.50	7.58	
2025-01-08 06:39:30.38	36.52	7.59	
2025-01-08 06:39:30.58	36.55	7.60	
2025-01-08 06:39:30.79	36.58	7.62	
2025-01-08 06:39:30.99	36.61	7.63	
2025-01-08 06:39:31.20	36.63	7.64	
2025-01-08 06:39:31.40	36.66	7.65	
2025-01-08 06:39:31.61	36.69	7.67	
2025-01-08 06:39:31.81	36.71	7.68	
2025-01-08 06:39:32.02	36.74	7.69	
2025-01-08 06:39:32.22	36.77	7.70	
2025-01-08 06:39:32.43	36.80	7.71	
2025-01-08 06:39:32.63	36.82	7.73	
2025-01-08 06:39:32.84	36.85	7.74	
2025-01-08 06:39:33.04	36.88	7.75	
2025-01-08 06:39:33.24	36.90	7.76	
2025-01-08 06:39:33.45	36.93	7.77	
2025-01-08 06:39:33.65	36.96	7.79	
2025-01-08 06:39:33.86	36.99	7.80	
2025-01-08 06:39:34.06	37.01	7.81	
2025-01-08 06:39:34.27	37.04	7.82	
2025-01-08 06:39:34.47	37.07	7.83	
2025-01-08 06:39:34.68	37.09	7.85	
2025-01-08 06:39:34.88	37.12	7.86	
2025-01-08 06:39:35.09	37.15	7.87	
2025-01-08 06:39:35.29	37.18	7.88	
2025-01-08 06:39:35.50	37.20	7.90	
2025-01-08 06:39:35.70	37.23	7.91	
2025-01-08 06:39:35.91	37.26	7.92	
2025-01-08 06:39:36.11	37.29	7.93	
2025-01-08 06:39:36.32	37.31	7.94	
2025-01-08 06:39:36.52	37.34	7.96	
2025-01-08 06:39:36.72	37.37	7.97	
2025-01-08 06:39:36.93	37.40	7.98	
2025-01-08 06:39:37.14	37.43	7.99	
2025-01-08 06:39:37.34	37.45	8.00	
2025-01-08 06:39:37.55	37.48	8.02	
2025-01-08 06:39:37.75	37.51	8.03	
2025-01-08 06:39:37.96	37.54	8.04	
2025-01-08 06:39:38.16	37.56	8.05	
2025-01-08 06:39:38.37	37.59	8.07	
2025-01-08 06:39:38.57	37.62	8.08	
2025-01-08 06:39:38.78	37.65	8.09	
2025-01-08 06:39:38.98	37.67	8.10	
2025-01-08 06:39:39.19	37.70	8.11	
2025-01-08 06:39:39.39	37.73	8.13	
2025-01-08 06:39:39.59	37.76	8.14	
2025-01-08 06:39:39.80	37.79	8.15	
2025-01-08 06:39:40.01	37.82	8.16	
2025-01-08 06:39:40.21	37.84	8.18	
2025-01-08 06:39:40.42	37.87	8.19	
2025-01-08 06:39:40.62	37.90	8.20	
2025-01-08 06:39:40.82	37.93	8.21	
2025-01-08 06:39:41.03	37.96	8.22	
2025-01-08 06:39:41.23	37.98	8.24	
2025-01-08 06:39:41.44	38.01	8.25	
2025-01-08 06:39:41.64	38.04	8.26	
2025-01-08 06:39:41.84	38.07	8.27	
2025-01-08 06:39:42.05	38.10	8.29	
2025-01-08 06:39:42.25	38.12	8.30	
2025-01-08 06:39:42.46	38.15	8.31	
2025-01-08 06:39:42.66	38.18	8.32	
2025-01-08 06:39:42.87	38.21	8.33	
2025-01-08 06:39:43.07	38.24	8.35	
2025-01-08 06:39:43.28	38.27	8.36	
2025-01-08 06:39:43.48	38.29	8.37	
2025-01-08 06:39:43.69	38.32	8.38	
2025-01-08 06:39:43.89	38.35	8.39	
2025-01-08 06:39:44.10	38.38	8.41	
2025-01-08 06:39:44.31	38.41	8.42	
2025-01-08 06:39:44.51	38.44	8.43	
2025-01-08 06:39:44.72	38.47	8.44	
2025-01-08 06:39:44.93	38.50	8.46	
2025-01-08 06:39:45.14	38.53	8.47	
2025-01-08 06:39:45.34	38.55	8.48	
2025-01-08 06:39:45.55	38.58	8.49	
2025-01-08 06:39:45.75	38.61	8.51	
2025-01-08 06:39:45.96	38.64	8.52	
2025-01-08 06:39:46.16	38.67	8.53	
2025-01-08 06:39:46.37	38.70	8.54	
2025-01-08 06:39:46.57	38.73	8.55	
2025-01-08 06:39:46.78	38.76	8.57	
2025-01-08 06:39:46.99	38.78	8.58	
2025-01-08 06:39:47.19	38.81	8.59	
2025-01-08 06:39:47.40	38.84	8.60	
2025-01-08 06:39:47.61	38.87	8.62	
2025-01-08 06:39:47.81	38.90	8.63	
2025-01-08 06:39:48.01	38.93	8.64	
2025-01-08 06:39:48.22	38.96	8.65	
2025-01-08 06:39:48.43	38.99	8.67	
2025-01-08 06:39:48.63	39.02	8.68	
2025-01-08 06:39:48.84	39.05	8.69	
2025-01-08 06:39:49.04	39.07	8.70	
2025-01-08 06:39:49.25	39.10	8.71	
2025-01-08 06:39:49.45	39.13	8.73	
2025-01-08 06:39:49.66	39.16	8.74	
2025-01-08 06:39:49.86	39.19	8.75	
2025-01-08 06:39:50.07	39.22	8.76	
2025-01-08 06:39:50.27	39.25	8.77	
2025-01-08 06:39:50.47	39.28	8.79	
2025-01-08 06:39:50.68	39.31	8.80	
2025-01-08 06:39:50.89	39.34	8.81	
2025-01-08 06:39:51.09	39.37	8.82	
2025-01-08 06:39:51.30	39.40	8.84	
2025-01-08 06:39:51.50	39.43	8.85	
2025-01-08 06:39:51.71	39.46	8.86	
2025-01-08 06:39:51.91	39.49	8.87	
2025-01-08 06:39:52.12	39.52	8.89	
2025-01-08 06:39:52.33	39.55	8.90	
2025-01-08 06:39:52.54	39.58	8.91	
2025-01-08 06:39:52.74	39.61	8.92	
2025-01-08 06:39:52.95	39.64	8.93	
2025-01-08 06:39:53.16	39.67	8.95	
2025-01-08 06:39:53.36	39.69	8.96	
2025-01-08 06:39:53.57	39.73	8.97	
2025-01-08 06:39:53.77	39.75	8.98	
2025-01-08 06:39:53.98	39.78	9.00	
2025-01-08 06:39:54.18	39.81	9.01	
2025-01-08 06:39:54.39	39.84	9.02	
2025-01-08 06:39:54.59	39.87	9.03	
2025-01-08 06:39:54.79	39.90	9.04	
2025-01-08 06:39:55.00	39.93	9.06	
2025-01-08 06:39:55.21	39.96	9.07	
2025-01-08 06:39:55.41	39.99	9.08	
2025-01-08 06:39:55.61	40.02	9.09	
2025-01-08 06:39:55.82	40.05	9.11	
2025-01-08 06:39:56.02	40.08	9.12	
2025-01-08 06:39:56.23	40.11	9.13	
2025-01-08 06:39:56.44	40.14	9.14	
2025-01-08 06:39:56.65	40.17	9.16	
2025-01-08 06:39:56.86	40.21	9.17	
2025-01-08 06:39:57.06	40.24	9.18	
2025-01-08 06:39:57.27	40.27	9.19	
2025-01-08 06:39:57.48	40.30	9.21	
2025-01-08 06:39:57.68	40.33	9.22	
2025-01-08 06:39:57.89	40.36	9.23	
2025-01-08 06:39:58.09	40.39	9.24	
2025-01-08 06:39:58.30	40.42	9.25	
2025-01-08 06:39:58.50	40.45	9.27	
2025-01-08 06:39:58.71	40.48	9.28	
2025-01-08 06:39:58.91	40.51	9.29	
2025-01-08 06:39:59.12	40.54	9.30	
2025-01-08 06:39:59.32	40.57	9.32	
2025-01-08 06:39:59.53	40.60	9.33	
2025-01-08 06:39:59.73	40.63	9.34	
2025-01-08 06:39:59.93	40.66	9.35	
2025-01-08 06:40:00.15	40.69	9.36	
2025-01-08 06:40:00.36	40.72	9.38	
2025-01-08 06:40:00.56	40.75	9.39	
2025-01-08 06:40:00.77	40.79	9.40	
2025-01-08 06:40:00.97	40.82	9.41	
2025-01-08 06:40:01.18	40.85	9.43	
2025-01-08 06:40:01.38	40.88	9.44	
2025-01-08 06:40:01.59	40.91	9.45	
2025-01-08 06:40:01.79	40.94	9.46	
2025-01-08 06:40:02.01	40.97	9.48	
2025-01-08 06:40:02.22	41.00	9.49	
2025-01-08 06:40:02.42	41.03	9.50	
2025-01-08 06:40:02.63	41.06	9.51	
2025-01-08 06:40:02.83	41.09	9.53	
2025-01-08 06:40:03.04	41.13	9.54	
2025-01-08 06:40:03.24	41.16	9.55	
2025-01-08 06:40:03.45	41.19	9.56	
2025-01-08 06:40:03.65	41.22	9.57	
2025-01-08 06:40:03.86	41.25	9.59	
2025-01-08 06:40:04.06	41.28	9.60	
2025-01-08 06:40:04.27	41.31	9.61	
2025-01-08 06:40:04.47	41.34	9.62	
2025-01-08 06:40:04.68	41.37	9.64	
2025-01-08 06:40:04.88	41.41	9.65	
2025-01-08 06:40:05.09	41.44	9.66	
2025-01-08 06:40:05.29	41.47	9.67	
2025-01-08 06:40:05.50	41.50	9.68	
2025-01-08 06:40:05.70	41.53	9.70	
2025-01-08 06:40:05.91	41.56	9.71	
2025-01-08 06:40:06.11	41.59	9.72	
2025-01-08 06:40:06.32	41.63	9.73	
2025-01-08 06:40:06.52	41.66	9.75	
2025-01-08 06:40:06.73	41.69	9.76	
2025-01-08 06:40:06.94	41.72	9.77	
2025-01-08 06:40:07.14	41.75	9.78	
2025-01-08 06:40:07.34	41.78	9.79	
2025-01-08 06:40:07.55	41.81	9.81	
2025-01-08 06:40:07.76	41.85	9.82	
2025-01-08 06:40:07.96	41.88	9.83	
2025-01-08 06:40:08.16	41.91	9.84	
2025-01-08 06:40:08.37	41.94	9.86	
2025-01-08 06:40:08.57	41.97	9.87	
2025-01-08 06:40:08.78	42.00	9.88	
2025-01-08 06:40:08.98	42.03	9.89	
2025-01-08 06:40:09.19	42.07	9.91	
2025-01-08 06:40:09.40	42.10	9.92	
2025-01-08 06:40:09.60	42.13	9.93	
2025-01-08 06:40:09.81	42.16	9.94	
2025-01-08 06:40:10.01	42.19	9.95	
2025-01-08 06:40:10.22	42.23	9.97	
2025-01-08 06:40:10.42	42.26	9.98	
2025-01-08 06:40:10.64	42.29	9.99	
2025-01-08 06:40:10.85	42.33	10.00	
2025-01-08 06:40:11.05	42.36	10.02	
2025-01-08 06:40:11.26	42.39	10.03	
2025-01-08 06:40:11.46	42.42	10.04	
2025-01-08 06:40:11.68	42.46	10.05	
2025-01-08 06:40:11.89	42.49	10.07	
2025-01-08 06:40:12.09	42.52	10.08	
2025-01-08 06:40:12.30	42.55	10.09	
2025-01-08 06:40:12.50	42.58	10.10	
2025-01-08 06:40:12.70	42.62	10.11	
2025-01-08 06:40:12.91	42.65	10.13	
2025-01-08 06:40:13.11	42.68	10.14	
2025-01-08 06:40:13.32	42.71	10.15	
2025-01-08 06:40:13.53	42.75	10.16	
2025-01-08 06:40:13.73	42.78	10.18	
2025-01-08 06:40:13.93	42.81	10.19	
2025-01-08 06:40:14.14	42.84	10.20	
2025-01-08 06:40:14.35	42.88	10.21	
2025-01-08 06:40:14.55	42.91	10.22	
2025-01-08 06:40:14.76	42.94	10.24	
2025-01-08 06:40:14.96	42.97	10.25	
2025-01-08 06:40:15.17	43.01	10.26	
2025-01-08 06:40:15.37	43.04	10.27	
2025-01-08 06:40:15.57	43.07	10.29	
2025-01-08 06:40:15.78	43.10	10.30	
2025-01-08 06:40:15.98	43.14	10.31	
2025-01-08 06:40:16.19	43.17	10.32	
2025-01-08 06:40:16.39	43.20	10.33	
2025-01-08 06:40:16.60	43.23	10.35	
2025-01-08 06:40:16.80	43.27	10.36	
2025-01-08 06:40:17.01	43.30	10.37	
2025-01-08 06:40:17.21	43.33	10.38	
2025-01-08 06:40:17.42	43.37	10.40	
2025-01-08 06:40:17.62	43.40	10.41	
2025-01-08 06:40:17.83	43.43	10.42	
2025-01-08 06:40:18.03	43.46	10.43	
2025-01-08 06:40:18.24	43.50	10.44	
2025-01-08 06:40:18.44	43.53	10.46	
2025-01-08 06:40:18.65	43.56	10.47	
2025-01-08 06:40:18.86	43.60	10.48	
2025-01-08 06:40:19.06	43.63	10.49	
2025-01-08 06:40:19.27	43.66	10.51	
2025-01-08 06:40:19.47	43.70	10.52	
2025-01-08 06:40:19.67	43.73	10.53	
2025-01-08 06:40:19.88	43.76	10.54	
2025-01-08 06:40:20.08	43.80	10.55	
2025-01-08 06:40:20.29	43.83	10.57	
2025-01-08 06:40:20.50	43.86	10.58	
2025-01-08 06:40:20.70	43.90	10.59	
2025-01-08 06:40:20.91	43.93	10.60	
2025-01-08 06:40:21.11	43.96	10.62	
2025-01-08 06:40:21.32	44.00	10.63	
2025-01-08 06:40:21.52	44.03	10.64	
2025-01-08 06:40:21.73	44.06	10.65	
2025-01-08 06:40:21.93	44.10	10.66	
2025-01-08 06:40:22.14	44.13	10.68	
2025-01-08 06:40:22.34	44.16	10.69	
2025-01-08 06:40:22.55	44.20	10.70	
2025-01-08 06:40:22.75	44.23	10.71	
2025-01-08 06:40:22.96	44.27	10.73	
2025-01-08 06:40:23.16	44.30	10.74	
2025-01-08 06:40:23.37	44.33	10.75	
2025-01-08 06:40:23.57	44.37	10.76	
2025-01-08 06:40:23.78	44.40	10.77	
2025-01-08 06:40:23.98	44.43	10.79	
2025-01-08 06:40:24.19	44.47	10.80	
2025-01-08 06:40:24.39	44.50	10.81	
2025-01-08 06:40:24.60	44.54	10.82	
2025-01-08 06:40:24.80	44.57	10.83	
2025-01-08 06:40:25.01	44.60	10.85	
2025-01-08 06:40:25.21	44.64	10.86	
2025-01-08 06:40:25.42	44.67	10.87	
2025-01-08 06:40:25.62	44.71	10.88	
2025-01-08 06:40:25.82	44.74	10.90	
2025-01-08 06:40:26.03	44.77	10.91	
2025-01-08 06:40:26.23	44.81	10.92	
2025-01-08 06:40:26.44	44.84	10.93	
2025-01-08 06:40:26.66	44.88	10.94	
2025-01-08 06:40:26.86	44.91	10.96	
2025-01-08 06:40:27.07	44.95	10.97	
2025-01-08 06:40:27.27	44.98	10.98	
2025-01-08 06:40:27.48	45.02	10.99	
2025-01-08 06:40:27.69	45.05	11.01	
2025-01-08 06:40:27.90	45.09	11.02	
2025-01-08 06:40:28.10	45.12	11.03	
2025-01-08 06:40:28.31	45.16	11.04	
2025-01-08 06:40:28.52	45.19	11.06	
2025-01-08 06:40:28.72	45.22	11.07	
2025-01-08 06:40:28.92	45.26	11.08	
2025-01-08 06:40:29.13	45.29	11.09	
2025-01-08 06:40:29.33	45.33	11.10	
2025-01-08 06:40:29.54	45.36	11.12	
2025-01-08 06:40:29.76	45.40	11.13	
2025-01-08 06:40:29.96	45.43	11.14	
2025-01-08 06:40:30.17	45.47	11.15	
2025-01-08 06:40:30.37	45.50	11.16	
2025-01-08 06:40:30.58	45.54	11.18	
2025-01-08 06:40:30.79	45.57	11.19	
2025-01-08 06:40:31.00	45.61	11.20	
2025-01-08 06:40:31.21	45.65	11.21	
2025-01-08 06:40:31.41	45.68	11.23	
2025-01-08 06:40:31.62	45.72	11.24	
2025-01-08 06:40:31.82	45.75	11.25	
2025-01-08 06:40:32.03	45.79	11.26	
2025-01-08 06:40:32.23	45.82	11.27	
2025-01-08 06:40:32.44	45.86	11.29	
2025-01-08 06:40:32.65	45.89	11.30	
2025-01-08 06:40:32.85	45.93	11.31	
2025-01-08 06:40:33.05	45.96	11.32	
2025-01-08 06:40:33.26	46.00	11.33	
2025-01-08 06:40:33.47	46.03	11.35	
2025-01-08 06:40:33.67	46.07	11.36	
2025-01-08 06:40:33.88	46.10	11.37	
2025-01-08 06:40:34.08	46.14	11.38	
2025-01-08 06:40:34.29	46.17	11.40	
2025-01-08 06:40:34.49	46.21	11.41	
2025-01-08 06:40:34.70	46.24	11.42	
2025-01-08 06:40:34.90	46.28	11.43	
2025-01-08 06:40:35.11	46.32	11.44	
2025-01-08 06:40:35.31	46.35	11.46	
2025-01-08 06:40:35.52	46.39	11.47	
2025-01-08 06:40:35.72	46.42	11.48	
2025-01-08 06:40:35.93	46.46	11.49	
2025-01-08 06:40:36.15	46.50	11.50	
2025-01-08 06:40:36.35	46.53	11.52	
2025-01-08 06:40:36.56	46.57	11.53	
2025-01-08 06:40:36.77	46.60	11.54	
2025-01-08 06:40:36.97	46.64	11.55	
2025-01-08 06:40:37.17	46.67	11.56	
2025-01-08 06:40:37.38	46.71	11.58	
2025-01-08 06:40:37.59	46.75	11.59	
2025-01-08 06:40:37.79	46.78	11.60	
2025-01-08 06:40:38.00	46.82	11.61	
2025-01-08 06:40:38.20	46.85	11.63	
2025-01-08 06:40:38.40	46.89	11.64	
2025-01-08 06:40:38.61	46.93	11.65	
2025-01-08 06:40:38.81	46.96	11.66	
2025-01-08 06:40:39.02	47.00	11.67	
2025-01-08 06:40:39.22	47.03	11.68	
2025-01-08 06:40:39.43	47.07	11.70	
2025-01-08 06:40:39.63	47.11	11.71	
2025-01-08 06:40:39.84	47.14	11.72	
2025-01-08 06:40:40.04	47.18	11.73	
2025-01-08 06:40:40.25	47.21	11.75	
2025-01-08 06:40:40.46	47.25	11.76	
2025-01-08 06:40:40.67	47.29	11.77	
2025-01-08 06:40:40.88	47.33	11.78	
2025-01-08 06:40:41.08	47.36	11.79	
2025-01-08 06:40:41.29	47.40	11.81	
2025-01-08 06:40:41.49	47.43	11.82	
2025-01-08 06:40:41.69	47.47	11.83	
2025-01-08 06:40:41.90	47.51	11.84	
2025-01-08 06:40:42.11	47.54	11.85	
2025-01-08 06:40:42.31	47.58	11.87	
2025-01-08 06:40:42.52	47.62	11.88	
2025-01-08 06:40:42.72	47.65	11.89	
2025-01-08 06:40:42.93	47.69	11.90	
2025-01-08 06:40:43.13	47.73	11.91	
2025-01-08 06:40:43.34	47.76	11.93	
2025-01-08 06:40:43.54	47.80	11.94	
2025-01-08 06:40:43.75	47.84	11.95	
2025-01-08 06:40:43.95	47.87	11.96	
2025-01-08 06:40:44.16	47.91	11.97	
2025-01-08 06:40:44.36	47.95	11.98	
2025-01-08 06:40:44.57	47.99	12.00	
2025-01-08 06:40:44.77	48.02	12.01	
2025-01-08 06:40:44.98	48.06	12.02	
2025-01-08 06:40:45.18	48.10	12.03	
2025-01-08 06:40:45.38	48.13	12.04	
2025-01-08 06:40:45.59	48.17	12.06	
2025-01-08 06:40:45.79	48.21	12.07	
2025-01-08 06:40:46.00	48.24	12.08	
2025-01-08 06:40:46.20	48.28	12.09	
2025-01-08 06:40:46.41	48.32	12.10	
2025-01-08 06:40:46.61	48.35	12.12	
2025-01-08 06:40:46.82	48.39	12.13	
2025-01-08 06:40:47.02	48.43	12.14	
2025-01-08 06:40:47.23	48.47	12.15	
2025-01-08 06:40:47.43	48.50	12.16	
2025-01-08 06:40:47.64	48.54	12.17	
2025-01-08 06:40:47.84	48.58	12.19	
2025-01-08 06:40:48.05	48.62	12.20	
2025-01-08 06:40:48.26	48.65	12.21	
2025-01-08 06:40:48.46	48.69	12.22	
2025-01-08 06:40:48.66	48.73	12.23	
2025-01-08 06:40:48.87	48.77	12.25	
2025-01-08 06:40:49.07	48.80	12.26	
2025-01-08 06:40:49.28	48.84	12.27	
2025-01-08 06:40:49.49	48.88	12.28	
2025-01-08 06:40:49.69	48.92	12.29	
2025-01-08 06:40:49.90	48.96	12.31	
2025-01-08 06:40:50.10	48.99	12.32	
2025-01-08 06:40:50.31	49.03	12.33	
2025-01-08 06:40:50.51	49.07	12.34	
2025-01-08 06:40:50.72	49.11	12.35	
2025-01-08 06:40:50.92	49.14	12.36	
2025-01-08 06:40:51.13	49.18	12.38	
2025-01-08 06:40:51.33	49.22	12.39	
2025-01-08 06:40:51.54	49.26	12.40	
2025-01-08 06:40:51.74	49.30	12.41	
2025-01-08 06:40:51.95	49.33	12.42	
2025-01-08 06:40:52.15	49.37	12.43	
2025-01-08 06:40:52.35	49.41	12.45	
2025-01-08 06:40:52.56	49.45	12.46	
2025-01-08 06:40:52.76	49.48	12.47	
2025-01-08 06:40:52.97	49.52	12.48	
2025-01-08 06:40:53.17	49.56	12.49	
2025-01-08 06:40:53.38	49.60	12.50	
2025-01-08 06:40:53.58	49.64	12.52	
2025-01-08 06:40:53.79	49.68	12.53	
2025-01-08 06:40:53.99	49.71	12.54	
2025-01-08 06:40:54.20	49.75	12.55	
2025-01-08 06:40:54.41	49.79	12.56	
2025-01-08 06:40:54.62	49.83	12.58	
2025-01-08 06:40:54.83	49.87	12.59	
2025-01-08 06:40:55.03	49.91	12.60	
2025-01-08 06:40:55.24	49.95	12.61	
2025-01-08 06:40:55.44	49.99	12.62	
2025-01-08 06:40:55.64	50.02	12.63	
2025-01-08 06:40:55.85	50.06	12.65	
2025-01-08 06:40:56.05	50.10	12.66	
2025-01-08 06:40:56.26	50.14	12.67	
2025-01-08 06:40:56.46	50.18	12.68	
2025-01-08 06:40:56.67	50.22	12.69	
2025-01-08 06:40:56.88	50.26	12.70	
2025-01-08 06:40:57.08	50.30	12.72	
2025-01-08 06:40:57.29	50.34	12.73	
2025-01-08 06:40:57.49	50.37	12.74	
2025-01-08 06:40:57.70	50.41	12.75	
2025-01-08 06:40:57.90	50.45	12.76	
2025-01-08 06:40:58.11	50.49	12.77	
2025-01-08 06:40:58.31	50.53	12.79	
2025-01-08 06:40:58.52	50.57	12.80	
2025-01-08 06:40:58.72	50.61	12.81	
2025-01-08 06:40:58.93	50.65	12.82	
2025-01-08 06:40:59.14	50.69	12.83	
2025-01-08 06:40:59.34	50.73	12.84	
2025-01-08 06:40:59.55	50.77	12.86	
2025-01-08 06:40:59.75	50.80	12.87	
2025-01-08 06:40:59.96	50.85	12.88	
2025-01-08 06:41:00.16	50.88	12.89	
2025-01-08 06:41:00.37	50.92	12.90	
2025-01-08 06:41:00.57	50.96	12.91	
2025-01-08 06:41:00.78	51.00	12.93	
2025-01-08 06:41:00.98	51.04	12.94	
2025-01-08 06:41:01.19	51.08	12.95	
2025-01-08 06:41:01.40	51.12	12.96	
2025-01-08 06:41:01.60	51.16	12.97	
2025-01-08 06:41:01.81	51.20	12.98	
2025-01-08 06:41:02.01	51.24	12.99	
2025-01-08 06:41:02.22	51.28	13.01	
2025-01-08 06:41:02.42	51.32	13.02	
2025-01-08 06:41:02.63	51.36	13.03	
2025-01-08 06:41:02.83	51.40	13.04	
2025-01-08 06:41:03.04	51.44	13.05	
2025-01-08 06:41:03.24	51.48	13.06	
2025-01-08 06:41:03.44	51.52	13.07	
2025-01-08 06:41:03.64	51.56	13.09	
2025-01-08 06:41:03.85	51.60	13.10	
2025-01-08 06:41:04.05	51.64	13.11	
2025-01-08 06:41:04.26	51.68	13.12	
2025-01-08 06:41:04.46	51.72	13.13	
2025-01-08 06:41:04.67	51.76	13.14	
2025-01-08 06:41:04.87	51.80	13.15	
2025-01-08 06:41:05.08	51.84	13.17	
2025-01-08 06:41:05.28	51.88	13.18	
2025-01-08 06:41:05.49	51.92	13.19	
2025-01-08 06:41:05.69	51.96	13.20	
2025-01-08 06:41:05.90	52.00	13.21	
2025-01-08 06:41:06.10	52.04	13.22	
2025-01-08 06:41:06.31	52.08	13.23	
2025-01-08 06:41:06.51	52.12	13.25	
2025-01-08 06:41:06.72	52.16	13.26	
2025-01-08 06:41:06.92	52.20	13.27	
2025-01-08 06:41:07.13	52.24	13.28	
2025-01-08 06:41:07.33	52.28	13.29	
2025-01-08 06:41:07.54	52.32	13.30	
2025-01-08 06:41:07.74	52.36	13.31	
2025-01-08 06:41:07.95	52.40	13.33	
2025-01-08 06:41:08.16	52.44	13.34	
2025-01-08 06:41:08.36	52.48	13.35	
2025-01-08 06:41:08.57	52.52	13.36	
2025-01-08 06:41:08.77	52.56	13.37	
2025-01-08 06:41:08.98	52.61	13.38	
2025-01-08 06:41:09.18	52.65	13.39	
2025-01-08 06:41:09.39	52.69	13.40	
2025-01-08 06:41:09.59	52.73	13.42	
2025-01-08 06:41:09.80	52.77	13.43	
2025-01-08 06:41:10.00	52.81	13.44	
2025-01-08 06:41:10.21	52.85	13.45	
2025-01-08 06:41:10.41	52.89	13.46	
2025-01-08 06:41:10.62	52.93	13.47	
2025-01-08 06:41:10.82	52.97	13.48	
2025-01-08 06:41:11.03	53.01	13.50	
2025-01-08 06:41:11.23	53.05	13.51	
2025-01-08 06:41:11.44	53.10	13.52	
2025-01-08 06:41:11.64	53.14	13.53	
2025-01-08 06:41:11.85	53.18	13.54	
2025-01-08 06:41:12.05	53.22	13.55	
2025-01-08 06:41:12.26	53.26	13.56	
2025-01-08 06:41:12.46	53.30	13.57	
2025-01-08 06:41:12.67	53.34	13.58	
2025-01-08 06:41:12.87	53.38	13.60	
2025-01-08 06:41:13.08	53.43	13.61	
2025-01-08 06:41:13.28	53.47	13.62	
2025-01-08 06:41:13.48	53.51	13.63	
2025-01-08 06:41:13.69	53.55	13.64	
2025-01-08 06:41:13.90	53.59	13.65	
2025-01-08 06:41:14.10	53.63	13.66	
2025-01-08 06:41:14.31	53.68	13.67	
2025-01-08 06:41:14.51	53.72	13.68	
2025-01-08 06:41:14.71	53.76	13.70	
2025-01-08 06:41:14.92	53.80	13.71	
2025-01-08 06:41:15.13	53.84	13.72	
2025-01-08 06:41:15.33	53.88	13.73	
2025-01-08 06:41:15.54	53.93	13.74	
2025-01-08 06:41:15.74	53.97	13.75	
2025-01-08 06:41:15.95	54.01	13.76	
2025-01-08 06:41:16.15	54.05	13.77	
2025-01-08 06:41:16.36	54.09	13.78	
2025-01-08 06:41:16.57	54.14	13.80	
2025-01-08 06:41:16.77	54.18	13.81	
2025-01-08 06:41:16.97	54.22	13.82	
2025-01-08 06:41:17.18	54.26	13.83	
2025-01-08 06:41:17.38	54.30	13.84	
2025-01-08 06:41:17.59	54.34	13.85	
2025-01-08 06:41:17.79	54.39	13.86	
2025-01-08 06:41:18.00	54.43	13.87	
2025-01-08 06:41:18.20	54.47	13.88	
2025-01-08 06:41:18.41	54.51	13.89	
2025-01-08 06:41:18.61	54.55	13.91	
2025-01-08 06:41:18.82	54.60	13.92	
2025-01-08 06:41:19.02	54.64	13.93	
2025-01-08 06:41:19.23	54.68	13.94	
2025-01-08 06:41:19.43	54.72	13.95	
2025-01-08 06:41:19.64	54.77	13.96	
2025-01-08 06:41:19.84	54.81	13.97	
2025-01-08 06:41:20.05	54.85	13.98	
2025-01-08 06:41:20.25	54.89	13.99	
2025-01-08 06:41:20.46	54.94	14.00	
2025-01-08 06:41:20.66	54.98	14.01	
2025-01-08 06:41:20.87	55.02	14.03	
2025-01-08 06:41:21.07	55.06	14.04	
2025-01-08 06:41:21.28	55.11	14.05	
2025-01-08 06:41:21.48	55.15	14.06	
2025-01-08 06:41:21.69	55.19	14.07	
2025-01-08 06:41:21.89	55.23	14.08	
2025-01-08 06:41:22.09	55.28	14.09	
2025-01-08 06:41:22.30	55.32	14.10	
2025-01-08 06:41:22.51	55.36	14.11	
2025-01-08 06:41:22.71	55.41	14.12	
2025-01-08 06:41:22.92	55.45	14.13	
2025-01-08 06:41:23.12	55.49	14.14	
2025-01-08 06:41:23.33	55.54	14.16	
2025-01-08 06:41:23.53	55.58	14.17	
2025-01-08 06:41:23.74	55.62	14.18	
2025-01-08 06:41:23.94	55.66	14.19	
2025-01-08 06:41:24.15	55.71	14.20	
2025-01-08 06:41:24.35	55.75	14.21	
2025-01-08 06:41:24.56	55.79	14.22	
2025-01-08 06:41:24.76	55.84	14.23	
2025-01-08 06:41:24.97	55.88	14.24	
2025-01-08 06:41:25.17	55.92	14.25	
2025-01-08 06:41:25.38	55.97	14.26	
2025-01-08 06:41:25.58	56.01	14.27	
2025-01-08 06:41:25.79	56.05	14.28	
2025-01-08 06:41:26.00	56.10	14.29	
2025-01-08 06:41:26.20	56.14	14.30	
2025-01-08 06:41:26.40	56.18	14.32	
2025-01-08 06:41:26.61	56.23	14.33	
2025-01-08 06:41:26.81	56.27	14.34	
2025-01-08 06:41:27.02	56.32	14.35	
2025-01-08 06:41:27.23	56.36	14.36	
2025-01-08 06:41:27.43	56.40	14.37	
2025-01-08 06:41:27.63	56.45	14.38	
2025-01-08 06:41:27.84	56.49	14.39	
2025-01-08 06:41:28.04	56.53	14.40	
2025-01-08 06:41:28.25	56.58	14.41	
2025-01-08 06:41:28.46	56.62	14.42	
2025-01-08 06:41:28.66	56.66	14.43	
2025-01-08 06:41:28.87	56.71	14.44	
2025-01-08 06:41:29.07	56.75	14.45	
2025-01-08 06:41:29.28	56.80	14.46	
2025-01-08 06:41:29.48	56.84	14.47	
2025-01-08 06:41:29.69	56.89	14.48	
2025-01-08 06:41:29.89	56.93	14.49	
2025-01-08 06:41:30.09	56.97	14.50	
2025-01-08 06:41:30.30	57.02	14.52	
2025-01-08 06:41:30.50	57.06	14.53	
2025-01-08 06:41:30.71	57.11	14.54	
2025-01-08 06:41:30.91	57.15	14.55	
2025-01-08 06:41:31.12	57.19	14.56	
2025-01-08 06:41:31.32	57.24	14.57	
2025-01-08 06:41:31.53	57.28	14.58	
2025-01-08 06:41:31.73	57.33	14.59	
2025-01-08 06:41:31.94	57.37	14.60	
2025-01-08 06:41:32.14	57.41	14.61	
2025-01-08 06:41:32.35	57.46	14.62	
2025-01-08 06:41:32.55	57.50	14.63	
2025-01-08 06:41:32.76	57.55	14.64	
2025-01-08 06:41:32.96	57.59	14.65	
2025-01-08 06:41:33.16	57.64	14.66	
2025-01-08 06:41:33.37	57.68	14.67	
2025-01-08 06:41:33.57	57.72	14.68	
2025-01-08 06:41:33.78	57.77	14.69	
2025-01-08 06:41:33.98	57.81	14.70	
2025-01-08 06:41:34.19	57.86	14.71	
2025-01-08 06:41:34.39	57.90	14.72	
2025-01-08 06:41:34.60	57.95	14.73	
2025-01-08 06:41:34.80	57.99	14.74	
2025-01-08 06:41:35.01	58.04	14.75	
2025-01-08 06:41:35.21	58.08	14.76	
2025-01-08 06:41:35.41	58.13	14.77	
2025-01-08 06:41:35.62	58.17	14.78	
2025-01-08 06:41:35.82	58.22	14.79	
2025-01-08 06:41:36.03	58.26	14.80	
2025-01-08 06:41:36.23	58.31	14.81	
2025-01-08 06:41:36.44	58.35	14.82	
2025-01-08 06:41:36.65	58.40	14.83	
2025-01-08 06:41:36.85	58.44	14.84	
2025-01-08 06:41:37.05	58.49	14.85	
2025-01-08 06:41:37.26	58.53	14.86	
2025-01-08 06:41:37.46	58.58	14.87	
2025-01-08 06:41:37.67	58.62	14.88	
2025-01-08 06:41:37.87	58.67	14.89	
2025-01-08 06:41:38.08	58.71	14.90	
2025-01-08 06:41:38.28	58.76	14.91	
2025-01-08 06:41:38.49	58.81	14.92	
2025-01-08 06:41:38.69	58.85	14.93	
2025-01-08 06:41:38.90	58.90	14.94	
2025-01-08 06:41:39.10	58.94	14.95	
2025-01-08 06:41:39.30	58.98	14.96	
2025-01-08 06:41:39.51	59.03	14.97	
2025-01-08 06:41:39.72	59.08	14.98	
2025-01-08 06:41:39.92	59.12	14.99	
2025-01-08 06:41:40.13	59.17	15.00	
2025-01-08 06:41:40.33	59.21	15.01	
2025-01-08 06:41:40.54	59.26	15.02	
2025-01-08 06:41:40.74	59.31	15.03	
2025-01-08 06:41:40.95	59.35	15.04	
2025-01-08 06:41:41.15	59.40	15.05	
2025-01-08 06:41:41.36	59.44	15.06	
2025-01-08 06:41:41.57	59.49	15.07	
2025-01-08 06:41:41.77	59.54	15.08	
2025-01-08 06:41:41.98	59.58	15.09	
2025-01-08 06:41:42.18	59.63	15.10	
2025-01-08 06:41:42.38	59.67	15.11	
2025-01-08 06:41:42.59	59.72	15.12	
2025-01-08 06:41:42.79	59.76	15.13	
2025-01-08 06:41:43.00	59.81	15.14	
2025-01-08 06:41:43.21	59.86	15.15	
2025-01-08 06:41:43.41	59.90	15.16	
2025-01-08 06:41:43.62	59.95	15.17	
2025-01-08 06:41:43.82	60.00	15.18	
2025-01-08 06:41:44.03	60.04	15.19	
2025-01-08 06:41:44.23	60.09	15.20	
2025-01-08 06:41:44.43	60.13	15.21	
2025-01-08 06:41:44.64	60.18	15.22	
2025-01-08 06:41:44.84	60.23	15.23	
2025-01-08 06:41:45.06	60.28	15.24	
2025-01-08 06:41:45.26	60.32	15.25	
2025-01-08 06:41:45.47	60.37	15.26	
2025-01-08 06:41:45.67	60.41	15.27	
2025-01-08 06:41:45.88	60.46	15.28	
2025-01-08 06:41:46.08	60.51	15.29	
2025-01-08 06:41:46.29	60.56	15.30	
2025-01-08 06:41:46.49	60.60	15.31	
2025-01-08 06:41:46.70	60.65	15.32	
2025-01-08 06:41:46.90	60.69	15.32	
2025-01-08 06:41:47.11	60.74	15.33	
2025-01-08 06:41:47.31	60.79	15.34	
2025-01-08 06:41:47.52	60.84	15.35	
2025-01-08 06:41:47.72	60.88	15.36	
2025-01-08 06:41:47.93	60.93	15.37	
2025-01-08 06:41:48.13	60.98	15.38	
2025-01-08 06:41:48.34	61.02	15.39	
2025-01-08 06:41:48.54	61.07	15.40	
2025-01-08 06:41:48.75	61.12	15.41	
2025-01-08 06:41:48.95	61.16	15.42	
2025-01-08 06:41:49.16	61.21	15.43	
2025-01-08 06:41:49.36	61.26	15.44	
2025-01-08 06:41:49.57	61.31	15.45	
2025-01-08 06:41:49.78	61.35	15.46	
2025-01-08 06:41:49.98	61.40	15.47	
2025-01-08 06:41:50.19	61.45	15.48	
2025-01-08 06:41:50.39	61.49	15.48	
2025-01-08 06:41:50.60	61.54	15.49	
2025-01-08 06:41:50.80	61.59	15.50	
2025-01-08 06:41:51.01	61.64	15.51	
2025-01-08 06:41:51.21	61.68	15.52	
2025-01-08 06:41:51.42	61.73	15.53	
2025-01-08 06:41:51.63	61.78	15.54	
2025-01-08 06:41:51.83	61.83	15.55	
2025-01-08 06:41:52.03	61.87	15.56	
2025-01-08 06:41:52.24	61.92	15.57	
2025-01-08 06:41:52.44	61.97	15.58	
2025-01-08 06:41:52.65	62.02	15.59	
2025-01-08 06:41:52.85	62.06	15.60	
2025-01-08 06:41:53.06	62.11	15.60	
2025-01-08 06:41:53.26	62.16	15.61	
2025-01-08 06:41:53.47	62.21	15.62	
2025-01-08 06:41:53.67	62.25	15.63	
2025-01-08 06:41:53.88	62.30	15.64	
2025-01-08 06:41:54.08	62.35	15.65	
2025-01-08 06:41:54.29	62.40	15.66	
2025-01-08 06:41:54.49	62.44	15.67	
2025-01-08 06:41:54.70	62.49	15.68	
2025-01-08 06:41:54.91	62.54	15.69	
2025-01-08 06:41:55.11	62.59	15.69	
2025-01-08 06:41:55.31	62.64	15.70	
2025-01-08 06:41:55.52	62.69	15.71	
2025-01-08 06:41:55.72	62.73	15.72	
2025-01-08 06:41:55.93	62.78	15.73	
2025-01-08 06:41:56.13	62.83	15.74	
2025-01-08 06:41:56.34	62.88	15.75	
2025-01-08 06:41:56.54	62.92	15.76	
2025-01-08 06:41:56.75	62.97	15.77	
2025-01-08 06:41:56.96	63.02	15.78	
2025-01-08 06:41:57.16	63.07	15.78	
2025-01-08 06:41:57.37	63.12	15.79	
2025-01-08 06:41:57.57	63.17	15.80	
2025-01-08 06:41:57.78	63.22	15.81	
2025-01-08 06:41:57.99	63.27	15.82	
2025-01-08 06:41:58.19	63.31	15.83	
2025-01-08 06:41:58.40	63.36	15.84	
2025-01-08 06:41:58.60	63.41	15.85	
2025-01-08 06:41:58.81	63.46	15.85	
2025-01-08 06:41:59.01	63.51	15.86	
2025-01-08 06:41:59.22	63.56	15.87	
2025-01-08 06:41:59.43	63.61	15.88	
2025-01-08 06:41:59.64	63.66	15.89	
2025-01-08 06:41:59.84	63.70	15.90	
2025-01-08 06:42:00.05	63.75	15.91	
2025-01-08 06:42:00.25	63.80	15.92	
2025-01-08 06:42:00.45	63.85	15.92	
2025-01-08 06:42:00.66	63.90	15.93	
2025-01-08 06:42:00.87	63.95	15.94	
2025-01-08 06:42:01.07	64.00	15.95	
2025-01-08 06:42:01.28	64.05	15.96	
2025-01-08 06:42:01.48	64.09	15.97	
2025-01-08 06:42:01.69	64.14	15.98	
2025-01-08 06:42:01.89	64.19	15.98	
2025-01-08 06:42:02.10	64.24	15.99	
2025-01-08 06:42:02.30	64.29	16.00	
2025-01-08 06:42:02.51	64.34	16.01	
2025-01-08 06:42:02.71	64.39	16.02	
2025-01-08 06:42:02.92	64.44	16.03	
2025-01-08 06:42:03.12	64.48	16.03	
2025-01-08 06:42:03.33	64.53	16.04	
2025-01-08 06:42:03.53	64.58	16.05	
2025-01-08 06:42:03.74	64.63	16.06	
2025-01-08 06:42:03.94	64.68	16.07	
2025-01-08 06:42:04.15	64.73	16.08	
2025-01-08 06:42:04.35	64.78	16.08	
2025-01-08 06:42:04.56	64.83	16.09	
2025-01-08 06:42:04.76	64.88	16.10	
2025-01-08 06:42:04.97	64.93	16.11	
2025-01-08 06:42:05.17	64.98	16.12	
2025-01-08 06:42:05.38	65.03	16.13	
2025-01-08 06:42:05.58	65.08	16.13	
2025-01-08 06:42:05.80	65.13	16.14	
2025-01-08 06:42:06.00	65.18	16.15	
2025-01-08 06:42:06.21	65.23	16.16	
2025-01-08 06:42:06.42	65.28	16.17	
2025-01-08 06:42:06.62	65.33	16.17	
2025-01-08 06:42:06.82	65.37	16.18	
2025-01-08 06:42:07.03	65.43	16.19	
2025-01-08 06:42:07.24	65.48	16.20	
2025-01-08 06:42:07.44	65.52	16.21	
2025-01-08 06:42:07.66	65.58	16.22	
2025-01-08 06:42:07.87	65.63	16.22	
2025-01-08 06:42:08.07	65.68	16.23	
2025-01-08 06:42:08.27	65.73	16.24	
2025-01-08 06:42:08.48	65.78	16.25	
2025-01-08 06:42:08.68	65.83	16.26	
2025-01-08 06:42:08.89	65.88	16.26	
2025-01-08 06:42:09.09	65.93	16.27	
2025-01-08 06:42:09.30	65.98	16.28	
2025-01-08 06:42:09.50	66.03	16.29	
2025-01-08 06:42:09.71	66.08	16.29	
2025-01-08 06:42:09.92	66.13	16.30	
2025-01-08 06:42:10.12	66.18	16.31	
2025-01-08 06:42:10.33	66.23	16.32	
2025-01-08 06:42:10.53	66.28	16.33	
2025-01-08 06:42:10.74	66.33	16.33	
2025-01-08 06:42:10.94	66.38	16.34	
2025-01-08 06:42:11.14	66.43	16.35	
2025-01-08 06:42:11.35	66.48	16.36	
2025-01-08 06:42:11.56	66.53	16.36	
2025-01-08 06:42:11.76	66.58	16.37	
2025-01-08 06:42:11.97	66.63	16.38	
2025-01-08 06:42:12.17	66.68	16.39	
2025-01-08 06:42:12.38	66.73	16.40	
2025-01-08 06:42:12.58	66.78	16.40	
2025-01-08 06:42:12.79	66.83	16.41	
2025-01-08 06:42:12.99	66.88	16.42	
2025-01-08 06:42:13.20	66.93	16.43	
2025-01-08 06:42:13.40	66.98	16.43	
2025-01-08 06:42:13.60	67.03	16.44	
2025-01-08 06:42:13.81	67.08	16.45	
2025-01-08 06:42:14.02	67.13	16.46	
2025-01-08 06:42:14.22	67.18	16.46	
2025-01-08 06:42:14.42	67.23	16.47	
2025-01-08 06:42:14.63	67.28	16.48	
2025-01-08 06:42:14.84	67.34	16.49	
2025-01-08 06:42:15.04	67.39	16.49	
2025-01-08 06:42:15.25	67.44	16.50	
2025-01-08 06:42:15.45	67.49	16.51	
2025-01-08 06:42:15.66	67.54	16.52	
2025-01-08 06:42:15.86	67.59	16.52	
2025-01-08 06:42:16.07	67.64	16.53	
2025-01-08 06:42:16.27	67.69	16.54	
2025-01-08 06:42:16.48	67.74	16.54	
2025-01-08 06:42:16.68	67.79	16.55	
2025-01-08 06:42:16.89	67.84	16.56	
2025-01-08 06:42:17.09	67.89	16.57	
2025-01-08 06:42:17.30	67.95	16.57	
2025-01-08 06:42:17.50	68.00	16.58	
2025-01-08 06:42:17.71	68.05	16.59	
2025-01-08 06:42:17.91	68.10	16.59	
2025-01-08 06:42:18.12	68.15	16.60	
2025-01-08 06:42:18.32	68.20	16.61	
2025-01-08 06:42:18.53	68.25	16.62	
2025-01-08 06:42:18.73	68.30	16.62	
2025-01-08 06:42:18.94	68.35	16.63	
2025-01-08 06:42:19.15	68.41	16.64	
2025-01-08 06:42:19.35	68.46	16.64	
2025-01-08 06:42:19.56	68.51	16.65	
2025-01-08 06:42:19.77	68.56	16.66	
2025-01-08 06:42:19.98	68.61	16.67	
2025-01-08 06:42:20.18	68.66	16.67	
2025-01-08 06:42:20.39	68.72	16.68	
2025-01-08 06:42:20.59	68.77	16.69	
2025-01-08 06:42:20.80	68.82	16.69	
2025-01-08 06:42:21.00	68.87	16.70	
2025-01-08 06:42:21.21	68.92	16.71	
2025-01-08 06:42:21.41	68.97	16.71	
2025-01-08 06:42:21.61	69.02	16.72	
2025-01-08 06:42:21.82	69.08	16.73	
2025-01-08 06:42:22.02	69.13	16.73	
2025-01-08 06:42:22.23	69.18	16.74	
2025-01-08 06:42:22.43	69.23	16.75	
2025-01-08 06:42:22.64	69.28	16.75	
2025-01-08 06:42:22.84	69.33	16.76	
2025-01-08 06:42:23.05	69.38	16.77	
2025-01-08 06:42:23.25	69.44	16.77	
2025-01-08 06:42:23.46	69.49	16.78	
2025-01-08 06:42:23.66	69.54	16.79	
2025-01-08 06:42:23.87	69.59	16.79	
2025-01-08 06:42:24.07	69.64	16.80	
2025-01-08 06:42:24.28	69.69	16.81	
2025-01-08 06:42:24.48	69.75	16.81	
2025-01-08 06:42:24.69	69.80	16.82	
2025-01-08 06:42:24.89	69.85	16.83	
2025-01-08 06:42:25.10	69.90	16.83	
2025-01-08 06:42:25.30	69.95	16.84	
2025-01-08 06:42:25.51	70.01	16.85	
2025-01-08 06:42:25.71	70.06	16.85	
2025-01-08 06:42:25.92	70.11	16.86	
2025-01-08 06:42:26.12	70.16	16.87	
2025-01-08 06:42:26.33	70.21	16.87	
2025-01-08 06:42:26.53	70.26	16.88	
2025-01-08 06:42:26.74	70.32	16.89	
2025-01-08 06:42:26.94	70.37	16.89	
2025-01-08 06:42:27.15	70.42	16.90	
2025-01-08 06:42:27.35	70.47	16.90	
2025-01-08 06:42:27.56	70.53	16.91	
2025-01-08 06:42:27.76	70.58	16.92	
2025-01-08 06:42:27.97	70.63	16.92	
2025-01-08 06:42:28.17	70.68	16.93	
2025-01-08 06:42:28.38	70.74	16.93	
2025-01-08 06:42:28.58	70.79	16.94	
2025-01-08 06:42:28.79	70.84	16.95	
2025-01-08 06:42:28.99	70.89	16.95	
2025-01-08 06:42:29.19	70.94	16.96	
2025-01-08 06:42:29.40	71.00	16.97	
2025-01-08 06:42:29.60	71.05	16.97	
2025-01-08 06:42:29.81	71.10	16.98	
2025-01-08 06:42:30.01	71.15	16.98	
2025-01-08 06:42:30.22	71.21	16.99	
2025-01-08 06:42:30.42	71.26	17.00	
2025-01-08 06:42:30.63	71.31	17.00	
2025-01-08 06:42:30.83	71.36	17.01	
2025-01-08 06:42:31.04	71.42	17.01	
2025-01-08 06:42:31.24	71.47	17.02	
2025-01-08 06:42:31.44	71.52	17.02	
2025-01-08 06:42:31.65	71.57	17.03	
2025-01-08 06:42:31.85	71.62	17.04	
2025-01-08 06:42:32.06	71.68	17.04	
2025-01-08 06:42:32.26	71.73	17.05	
2025-01-08 06:42:32.47	71.78	17.05	
2025-01-08 06:42:32.67	71.83	17.06	
2025-01-08 06:42:32.88	71.89	17.07	
2025-01-08 06:42:33.08	71.94	17.07	
2025-01-08 06:42:33.29	71.99	17.08	
2025-01-08 06:42:33.49	72.05	17.08	
2025-01-08 06:42:33.70	72.10	17.09	
2025-01-08 06:42:33.90	72.15	17.09	
2025-01-08 06:42:34.11	72.20	17.10	
2025-01-08 06:42:34.32	72.26	17.10	
2025-01-08 06:42:34.52	72.31	17.11	
2025-01-08 06:42:34.72	72.36	17.12	
2025-01-08 06:42:34.93	72.42	17.12	
2025-01-08 06:42:35.14	72.47	17.13	
2025-01-08 06:42:35.34	72.52	17.13	
2025-01-08 06:42:35.55	72.58	17.14	
2025-01-08 06:42:35.75	72.63	17.14	
2025-01-08 06:42:35.95	72.68	17.15	
2025-01-08 06:42:36.16	72.73	17.15	
2025-01-08 06:42:36.37	72.79	17.16	
2025-01-08 06:42:36.57	72.84	17.16	
2025-01-08 06:42:36.78	72.90	17.17	
2025-01-08 06:42:36.98	72.95	17.18	
2025-01-08 06:42:37.19	73.00	17.18	
2025-01-08 06:42:37.39	73.05	17.19	
2025-01-08 06:42:37.60	73.11	17.19	
2025-01-08 06:42:37.80	73.16	17.20	
2025-01-08 06:42:38.01	73.21	17.20	
2025-01-08 06:42:38.21	73.27	17.21	
2025-01-08 06:42:38.42	73.32	17.21	
2025-01-08 06:42:38.62	73.37	17.22	
2025-01-08 06:42:38.83	73.43	17.22	
2025-01-08 06:42:39.03	73.48	17.23	
2025-01-08 06:42:39.24	73.53	17.23	
2025-01-08 06:42:39.44	73.59	17.24	
2025-01-08 06:42:39.65	73.64	17.24	
2025-01-08 06:42:39.85	73.69	17.25	
2025-01-08 06:42:40.06	73.75	17.25	
2025-01-08 06:42:40.26	73.80	17.26	
2025-01-08 06:42:40.47	73.85	17.26	
2025-01-08 06:42:40.67	73.91	17.27	
2025-01-08 06:42:40.88	73.96	17.27	
2025-01-08 06:42:41.08	74.01	17.28	
2025-01-08 06:42:41.29	74.07	17.28	
2025-01-08 06:42:41.49	74.12	17.29	
2025-01-08 06:42:41.70	74.18	17.29	
2025-01-08 06:42:41.90	74.23	17.30	
2025-01-08 06:42:42.11	74.28	17.30	
2025-01-08 06:42:42.31	74.34	17.31	
2025-01-08 06:42:42.52	74.39	17.31	
2025-01-08 06:42:42.72	74.44	17.31	
2025-01-08 06:42:42.93	74.50	17.32	
2025-01-08 06:42:43.15	74.56	17.32	
2025-01-08 06:42:43.35	74.61	17.33	
2025-01-08 06:42:43.56	74.66	17.33	
2025-01-08 06:42:43.76	74.72	17.34	
2025-01-08 06:42:43.97	74.77	17.34	
2025-01-08 06:42:44.17	74.82	17.35	
2025-01-08 06:42:44.38	74.88	17.35	
2025-01-08 06:42:44.58	74.93	17.36	
2025-01-08 06:42:44.79	74.99	17.36	
2025-01-08 06:42:45.00	75.04	17.37	
2025-01-08 06:42:45.20	75.09	17.37	
2025-01-08 06:42:45.41	75.15	17.37	
2025-01-08 06:42:45.61	75.20	17.38	
2025-01-08 06:42:45.82	75.26	17.38	
2025-01-08 06:42:46.02	75.31	17.39	
2025-01-08 06:42:46.23	75.36	17.39	
2025-01-08 06:42:46.43	75.42	17.40	
2025-01-08 06:42:46.64	75.47	17.40	
2025-01-08 06:42:46.84	75.52	17.40	
2025-01-08 06:42:47.05	75.58	17.41	
2025-01-08 06:42:47.25	75.63	17.41	
2025-01-08 06:42:47.46	75.69	17.42	
2025-01-08 06:42:47.66	75.74	17.42	
2025-01-08 06:42:47.87	75.80	17.43	
2025-01-08 06:42:48.07	75.85	17.43	
2025-01-08 06:42:48.28	75.90	17.43	
2025-01-08 06:42:48.48	75.96	17.44	
2025-01-08 06:42:48.69	76.01	17.44	
2025-01-08 06:42:48.89	76.07	17.45	
2025-01-08 06:42:49.10	76.12	17.45	
2025-01-08 06:42:49.30	76.17	17.45	
2025-01-08 06:42:49.51	76.23	17.46	
2025-01-08 06:42:49.71	76.28	17.46	
2025-01-08 06:42:49.92	76.34	17.47	
2025-01-08 06:42:50.12	76.39	17.47	
2025-01-08 06:42:50.33	76.45	17.47	
2025-01-08 06:42:50.53	76.50	17.48	
2025-01-08 06:42:50.74	76.55	17.48	
2025-01-08 06:42:50.94	76.61	17.48	
2025-01-08 06:42:51.14	76.66	17.49	
2025-01-08 06:42:51.35	76.72	17.49	
2025-01-08 06:42:51.55	76.77	17.50	
2025-01-08 06:42:51.76	76.83	17.50	
2025-01-08 06:42:51.97	76.88	17.50	
2025-01-08 06:42:52.17	76.93	17.51	
2025-01-08 06:42:52.38	76.99	17.51	
2025-01-08 06:42:52.58	77.04	17.51	
2025-01-08 06:42:52.79	77.10	17.52	
2025-01-08 06:42:52.99	77.15	17.52	
2025-01-08 06:42:53.20	77.21	17.52	
2025-01-08 06:42:53.40	77.26	17.53	
2025-01-08 06:42:53.61	77.32	17.53	
2025-01-08 06:42:53.81	77.37	17.54	
2025-01-08 06:42:54.02	77.43	17.54	
2025-01-08 06:42:54.23	77.48	17.54	
2025-01-08 06:42:54.43	77.53	17.55	
2025-01-08 06:42:54.64	77.59	17.55	
2025-01-08 06:42:54.86	77.65	17.55	
2025-01-08 06:42:55.06	77.70	17.56	
2025-01-08 06:42:55.27	77.76	17.56	
2025-01-08 06:42:55.47	77.81	17.56	
2025-01-08 06:42:55.68	77.87	17.57	
2025-01-08 06:42:55.88	77.92	17.57	
2025-01-08 06:42:56.09	77.98	17.57	
2025-01-08 06:42:56.30	78.03	17.58	
2025-01-08 06:42:56.50	78.09	17.58	
2025-01-08 06:42:56.70	78.14	17.58	
2025-01-08 06:42:56.91	78.20	17.58	
2025-01-08 06:42:57.11	78.25	17.59	
2025-01-08 06:42:57.32	78.30	17.59	
2025-01-08 06:42:57.52	78.36	17.59	
2025-01-08 06:42:57.73	78.41	17.60	
2025-01-08 06:42:57.93	78.47	17.60	
2025-01-08 06:42:58.13	78.52	17.60	
2025-01-08 06:42:58.34	78.58	17.61	
2025-01-08 06:42:58.55	78.63	17.61	
2025-01-08 06:42:58.75	78.69	17.61	
2025-01-08 06:42:58.96	78.74	17.61	
2025-01-08 06:42:59.16	78.80	17.62	
2025-01-08 06:42:59.36	78.85	17.62	
2025-01-08 06:42:59.57	78.91	17.62	
2025-01-08 06:42:59.77	78.96	17.63	
2025-01-08 06:42:59.98	79.02	17.63	
2025-01-08 06:43:00.20	79.07	17.63	
2025-01-08 06:43:00.40	79.13	17.63	
2025-01-08 06:43:00.61	79.18	17.64	
2025-01-08 06:43:00.81	79.24	17.64	
2025-01-08 06:43:01.02	79.29	17.64	
2025-01-08 06:43:01.22	79.35	17.64	
2025-01-08 06:43:01.43	79.40	17.65	
2025-01-08 06:43:01.63	79.46	17.65	
2025-01-08 06:43:01.84	79.51	17.65	
2025-01-08 06:43:02.05	79.57	17.65	
2025-01-08 06:43:02.25	79.62	17.66	
2025-01-08 06:43:02.45	79.68	17.66	
2025-01-08 06:43:02.66	79.73	17.66	
2025-01-08 06:43:02.87	79.79	17.66	
2025-01-08 06:43:03.07	79.84	17.67	
2025-01-08 06:43:03.27	79.90	17.67	
2025-01-08 06:43:03.48	79.95	17.67	
2025-01-08 06:43:03.68	80.01	17.67	
2025-01-08 06:43:03.89	80.06	17.68	
2025-01-08 06:43:04.09	80.12	17.68	
2025-01-08 06:43:04.30	80.17	17.68	
2025-01-08 06:43:04.50	80.23	17.68	
2025-01-08 06:43:04.71	80.28	17.68	
2025-01-08 06:43:04.91	80.34	17.69	
2025-01-08 06:43:05.12	80.39	17.69	
2025-01-08 06:43:05.32	80.45	17.69	
2025-01-08 06:43:05.52	80.50	17.69	
2025-01-08 06:43:05.73	80.56	17.70	
2025-01-08 06:43:05.94	80.61	17.70	
2025-01-08 06:43:06.14	80.67	17.70	
2025-01-08 06:43:06.35	80.72	17.70	
2025-01-08 06:43:06.56	80.78	17.70	
2025-01-08 06:43:06.76	80.84	17.71	
2025-01-08 06:43:06.96	80.89	17.71	
2025-01-08 06:43:07.17	80.95	17.71	
2025-01-08 06:43:07.38	81.00	17.71	
2025-01-08 06:43:07.58	81.06	17.71	
2025-01-08 06:43:07.79	81.11	17.71	
2025-01-08 06:43:07.99	81.17	17.72	
2025-01-08 06:43:08.19	81.22	17.72	
2025-01-08 06:43:08.40	81.28	17.72	
2025-01-08 06:43:08.61	81.33	17.72	
2025-01-08 06:43:08.81	81.39	17.72	
2025-01-08 06:43:09.02	81.44	17.73	
2025-01-08 06:43:09.22	81.50	17.73	
2025-01-08 06:43:09.43	81.55	17.73	
2025-01-08 06:43:09.64	81.61	17.73	
2025-01-08 06:43:09.84	81.66	17.73	
2025-01-08 06:43:10.04	81.72	17.73	
2025-01-08 06:43:10.25	81.78	17.73	
2025-01-08 06:43:10.45	81.83	17.74	
2025-01-08 06:43:10.66	81.89	17.74	
2025-01-08 06:43:10.86	81.94	17.74	
2025-01-08 06:43:11.07	82.00	17.74	
2025-01-08 06:43:11.27	82.05	17.74	
2025-01-08 06:43:11.48	82.11	17.74	
2025-01-08 06:43:11.68	82.16	17.74	
2025-01-08 06:43:11.88	82.21	17.75	
2025-01-08 06:43:12.09	82.27	17.75	
2025-01-08 06:43:12.29	82.33	17.75	
2025-01-08 06:43:12.50	82.38	17.75	
2025-01-08 06:43:12.70	82.44	17.75	
2025-01-08 06:43:12.90	82.49	17.75	
2025-01-08 06:43:13.11	82.55	17.75	
2025-01-08 06:43:13.32	82.60	17.75	
2025-01-08 06:43:13.52	82.66	17.76	
2025-01-08 06:43:13.73	82.71	17.76	
2025-01-08 06:43:13.93	82.77	17.76	
2025-01-08 06:43:14.14	82.83	17.76	
2025-01-08 06:43:14.34	82.88	17.76	
2025-01-08 06:43:14.55	82.94	17.76	
2025-01-08 06:43:14.76	82.99	17.76	
2025-01-08 06:43:14.96	83.05	17.76	
2025-01-08 06:43:15.16	83.10	17.76	
2025-01-08 06:43:15.37	83.16	17.76	
2025-01-08 06:43:15.58	83.21	17.77	
2025-01-08 06:43:15.78	83.27	17.77	
2025-01-08 06:43:15.99	83.32	17.77	
2025-01-08 06:43:16.19	83.38	17.77	
2025-01-08 06:43:16.40	83.44	17.77	
2025-01-08 06:43:16.60	83.49	17.77	
2025-01-08 06:43:16.81	83.55	17.77	
2025-01-08 06:43:17.01	83.60	17.77	
2025-01-08 06:43:17.23	83.66	17.77	
2025-01-08 06:43:17.44	83.72	17.77	
2025-01-08 06:43:17.64	83.77	17.77	
2025-01-08 06:43:17.85	83.83	17.77	
2025-01-08 06:43:18.05	83.88	17.77	
2025-01-08 06:43:18.27	83.94	17.78	
2025-01-08 06:43:18.47	84.00	17.78	
2025-01-08 06:43:18.68	84.05	17.78	
2025-01-08 06:43:18.89	84.11	17.78	
2025-01-08 06:43:19.09	84.16	17.78	
2025-01-08 06:43:19.29	84.22	17.78	
2025-01-08 06:43:19.50	84.27	17.78	
2025-01-08 06:43:19.70	84.33	17.78	
2025-01-08 06:43:19.91	84.38	17.78	
2025-01-08 06:43:20.11	84.44	17.78	
2025-01-08 06:43:20.32	84.50	17.78	
2025-01-08 06:43:20.54	84.56	17.78	
2025-01-08 06:43:20.74	84.61	17.78	
2025-01-08 06:43:20.95	84.67	17.78	
2025-01-08 06:43:21.15	84.72	17.78	
2025-01-08 06:43:21.36	84.78	17.78	
2025-01-08 06:43:21.57	84.83	17.78	
2025-01-08 06:43:21.78	84.89	17.78	
2025-01-08 06:43:21.99	84.95	17.78	
2025-01-08 06:43:22.19	85.00	17.78	
2025-01-08 06:43:22.40	85.06	17.78	
2025-01-08 06:43:22.62	85.12	17.78	
2025-01-08 06:43:22.82	85.17	17.78	
2025-01-08 06:43:23.03	85.23	17.78	
2025-01-08 06:43:23.23	85.28	17.78	
2025-01-08 06:43:23.44	85.34	17.78	
2025-01-08 06:43:23.64	85.39	17.78	
2025-01-08 06:43:23.84	85.45	17.78	
2025-01-08 06:43:24.05	85.51	17.78	
2025-01-08 06:43:24.25	85.56	17.78	
2025-01-08 06:43:24.46	85.62	17.78	
2025-01-08 06:43:24.66	85.67	17.78	
2025-01-08 06:43:24.87	85.73	17.78	
2025-01-08 06:43:25.08	85.78	17.78	
2025-01-08 06:43:25.28	85.84	17.78	
2025-01-08 06:43:25.49	85.89	17.78	
2025-01-08 06:43:25.69	85.95	17.78	
2025-01-08 06:43:25.89	86.00	17.78	
2025-01-08 06:43:26.10	86.06	17.78	
2025-01-08 06:43:26.31	86.12	17.78	
2025-01-08 06:43:26.51	86.17	17.78	
2025-01-08 06:43:26.72	86.23	17.78	
2025-01-08 06:43:26.92	86.28	17.78	
2025-01-08 06:43:27.13	86.34	17.78	
2025-01-08 06:43:27.33	86.39	17.78	
2025-01-08 06:43:27.54	86.45	17.77	
2025-01-08 06:43:27.75	86.51	17.77	
2025-01-08 06:43:27.96	86.56	17.77	
2025-01-08 06:43:28.17	86.62	17.77	
2025-01-08 06:43:28.37	86.67	17.77	
2025-01-08 06:43:28.58	86.73	17.77	
2025-01-08 06:43:28.78	86.78	17.77	
2025-01-08 06:43:28.99	86.84	17.77	
2025-01-08 06:43:29.19	86.90	17.77	
2025-01-08 06:43:29.40	86.95	17.77	
2025-01-08 06:43:29.60	87.01	17.77	
2025-01-08 06:43:29.81	87.06	17.77	
2025-01-08 06:43:30.01	87.12	17.77	
2025-01-08 06:43:30.22	87.17	17.76	
2025-01-08 06:43:30.43	87.23	17.76	
2025-01-08 06:43:30.63	87.29	17.76	
2025-01-08 06:43:30.84	87.34	17.76	
2025-01-08 06:43:31.04	87.40	17.76	
2025-01-08 06:43:31.25	87.45	17.76	
2025-01-08 06:43:31.45	87.51	17.76	
2025-01-08 06:43:31.66	87.56	17.76	
2025-01-08 06:43:31.86	87.62	17.76	
2025-01-08 06:43:32.07	87.67	17.76	
2025-01-08 06:43:32.27	87.73	17.75	
2025-01-08 06:43:32.48	87.78	17.75	
2025-01-08 06:43:32.68	87.84	17.75	
2025-01-08 06:43:32.89	87.90	17.75	
2025-01-08 06:43:33.09	87.95	17.75	
2025-01-08 06:43:33.29	88.00	17.75	
2025-01-08 06:43:33.50	88.06	17.75	
2025-01-08 06:43:33.70	88.11	17.75	
2025-01-08 06:43:33.91	88.17	17.74	
2025-01-08 06:43:34.12	88.23	17.74	
2025-01-08 06:43:34.32	88.28	17.74	
2025-01-08 06:43:34.53	88.34	17.74	
2025-01-08 06:43:34.73	88.39	17.74	
2025-01-08 06:43:34.94	88.45	17.74	
2025-01-08 06:43:35.14	88.50	17.74	
2025-01-08 06:43:35.35	88.56	17.73	
2025-01-08 06:43:35.55	88.61	17.73	
2025-01-08 06:43:35.75	88.67	17.73	
2025-01-08 06:43:35.96	88.72	17.73	
2025-01-08 06:43:36.16	88.78	17.73	
2025-01-08 06:43:36.37	88.83	17.73	
2025-01-08 06:43:36.57	88.89	17.72	
2025-01-08 06:43:36.78	88.95	17.72	
2025-01-08 06:43:36.98	89.00	17.72	
2025-01-08 06:43:37.19	89.06	17.72	
2025-01-08 06:43:37.40	89.11	17.72	
2025-01-08 06:43:37.60	89.17	17.72	
2025-01-08 06:43:37.81	89.22	17.71	
2025-01-08 06:43:38.01	89.28	17.71	
2025-01-08 06:43:38.22	89.33	17.71	
2025-01-08 06:43:38.42	89.39	17.71	
2025-01-08 06:43:38.64	89.45	17.71	
2025-01-08 06:43:38.84	89.50	17.71	
2025-01-08 06:43:39.05	89.56	17.70	
2025-01-08 06:43:39.25	89.61	17.70	
2025-01-08 06:43:39.46	89.67	17.70	
2025-01-08 06:43:39.66	89.72	17.70	
2025-01-08 06:43:39.87	89.78	17.69	
2025-01-08 06:43:40.07	89.83	17.69	
2025-01-08 06:43:40.28	89.89	17.69	
2025-01-08 06:43:40.48	89.94	17.69	
2025-01-08 06:43:40.69	90.00	17.69	
2025-01-08 06:43:40.89	90.05	17.68	
2025-01-08 06:43:41.10	90.11	17.68	
2025-01-08 06:43:41.30	90.16	17.68	
2025-01-08 06:43:41.51	90.22	17.68	
2025-01-08 06:43:41.71	90.27	17.68	
2025-01-08 06:43:41.92	90.33	17.67	
2025-01-08 06:43:42.12	90.38	17.67	
2025-01-08 06:43:42.33	90.44	17.67	
2025-01-08 06:43:42.53	90.49	17.67	
2025-01-08 06:43:42.74	90.55	17.66	
2025-01-08 06:43:42.94	90.60	17.66	
2025-01-08 06:43:43.15	90.66	17.66	
2025-01-08 06:43:43.35	90.71	17.66	
2025-01-08 06:43:43.56	90.77	17.65	
2025-01-08 06:43:43.76	90.82	17.65	
2025-01-08 06:43:43.97	90.88	17.65	
2025-01-08 06:43:44.19	90.94	17.65	
2025-01-08 06:43:44.39	90.99	17.64	
2025-01-08 06:43:44.60	91.05	17.64	
2025-01-08 06:43:44.80	91.10	17.64	
2025-01-08 06:43:45.00	91.16	17.64	
2025-01-08 06:43:45.21	91.21	17.63	
2025-01-08 06:43:45.41	91.27	17.63	
2025-01-08 06:43:45.62	91.32	17.63	
2025-01-08 06:43:45.82	91.38	17.62	
2025-01-08 06:43:46.03	91.43	17.62	
2025-01-08 06:43:46.23	91.49	17.62	
2025-01-08 06:43:46.44	91.54	17.62	
2025-01-08 06:43:46.64	91.60	17.61	
2025-01-08 06:43:46.85	91.65	17.61	
2025-01-08 06:43:47.05	91.70	17.61	
2025-01-08 06:43:47.26	91.76	17.60	
2025-01-08 06:43:47.47	91.82	17.60	
2025-01-08 06:43:47.67	91.87	17.60	
2025-01-08 06:43:47.88	91.93	17.60	
2025-01-08 06:43:48.08	91.98	17.59	
2025-01-08 06:43:48.29	92.04	17.59	
2025-01-08 06:43:48.49	92.09	17.59	
2025-01-08 06:43:48.70	92.15	17.58	
2025-01-08 06:43:48.90	92.20	17.58	
2025-01-08 06:43:49.11	92.26	17.58	
2025-01-08 06:43:49.33	92.31	17.57	
2025-01-08 06:43:49.53	92.37	17.57	
2025-01-08 06:43:49.74	92.42	17.57	
2025-01-08 06:43:49.95	92.48	17.56	
2025-01-08 06:43:50.15	92.53	17.56	
2025-01-08 06:43:50.35	92.59	17.56	
2025-01-08 06:43:50.56	92.64	17.55	
2025-01-08 06:43:50.77	92.70	17.55	
2025-01-08 06:43:50.97	92.75	17.55	
2025-01-08 06:43:51.18	92.81	17.54	
2025-01-08 06:43:51.38	92.86	17.54	
2025-01-08 06:43:51.59	92.92	17.54	
2025-01-08 06:43:51.79	92.97	17.53	
2025-01-08 06:43:52.00	93.03	17.53	
2025-01-08 06:43:52.20	93.08	17.53	
2025-01-08 06:43:52.42	93.14	17.52	
2025-01-08 06:43:52.63	93.19	17.52	
2025-01-08 06:43:52.83	93.25	17.52	
2025-01-08 06:43:53.04	93.30	17.51	
2025-01-08 06:43:53.24	93.36	17.51	
2025-01-08 06:43:53.44	93.41	17.51	
2025-01-08 06:43:53.65	93.46	17.50	
2025-01-08 06:43:53.85	93.52	17.50	
2025-01-08 06:43:54.06	93.57	17.49	
2025-01-08 06:43:54.26	93.63	17.49	
2025-01-08 06:43:54.47	93.68	17.49	
2025-01-08 06:43:54.67	93.74	17.48	
2025-01-08 06:43:54.88	93.79	17.48	
2025-01-08 06:43:55.08	93.84	17.48	
2025-01-08 06:43:55.29	93.90	17.47	
2025-01-08 06:43:55.49	93.95	17.47	
2025-01-08 06:43:55.70	94.01	17.46	
2025-01-08 06:43:55.90	94.06	17.46	
2025-01-08 06:43:56.11	94.12	17.46	
2025-01-08 06:43:56.32	94.17	17.45	
2025-01-08 06:43:56.52	94.23	17.45	
2025-01-08 06:43:56.72	94.28	17.44	
2025-01-08 06:43:56.93	94.33	17.44	
2025-01-08 06:43:57.14	94.39	17.44	
2025-01-08 06:43:57.34	94.44	17.43	
2025-01-08 06:43:57.55	94.50	17.43	
2025-01-08 06:43:57.76	94.55	17.42	
2025-01-08 06:43:57.97	94.61	17.42	
2025-01-08 06:43:58.17	94.66	17.42	
2025-01-08 06:43:58.37	94.72	17.41	
2025-01-08 06:43:58.58	94.77	17.41	
2025-01-08 06:43:58.78	94.82	17.40	
2025-01-08 06:43:58.99	94.88	17.40	
2025-01-08 06:43:59.19	94.93	17.39	
2025-01-08 06:43:59.40	94.99	17.39	
2025-01-08 06:43:59.60	95.04	17.39	
2025-01-08 06:43:59.81	95.10	17.38	
2025-01-08 06:44:00.01	95.15	17.38	
2025-01-08 06:44:00.22	95.20	17.37	
2025-01-08 06:44:00.42	95.26	17.37	
2025-01-08 06:44:00.63	95.31	17.36	
2025-01-08 06:44:00.83	95.36	17.36	
2025-01-08 06:44:01.03	95.42	17.35	
2025-01-08 06:44:01.24	95.47	17.35	
2025-01-08 06:44:01.44	95.52	17.35	
2025-01-08 06:44:01.65	95.58	17.34	
2025-01-08 06:44:01.86	95.63	17.34	
2025-01-08 06:44:02.06	95.69	17.33	
2025-01-08 06:44:02.26	95.74	17.33	
2025-01-08 06:44:02.47	95.79	17.32	
2025-01-08 06:44:02.67	95.85	17.32	
2025-01-08 06:44:02.88	95.90	17.31	
2025-01-08 06:44:03.10	95.96	17.31	
2025-01-08 06:44:03.30	96.01	17.30	
2025-01-08 06:44:03.51	96.07	17.30	
2025-01-08 06:44:03.72	96.12	17.29	
2025-01-08 06:44:03.92	96.17	17.29	
2025-01-08 06:44:04.13	96.23	17.28	
2025-01-08 06:44:04.33	96.28	17.28	
2025-01-08 06:44:04.54	96.34	17.27	
2025-01-08 06:44:04.74	96.39	17.27	
2025-01-08 06:44:04.95	96.44	17.26	
2025-01-08 06:44:05.15	96.50	17.26	
2025-01-08 06:44:05.36	96.55	17.25	
2025-01-08 06:44:05.56	96.60	17.25	
2025-01-08 06:44:05.77	96.66	17.24	
2025-01-08 06:44:05.98	96.71	17.24	
2025-01-08 06:44:06.18	96.77	17.23	
2025-01-08 06:44:06.38	96.82	17.23	
2025-01-08 06:44:06.59	96.87	17.22	
2025-01-08 06:44:06.80	96.93	17.22	
2025-01-08 06:44:07.00	96.98	17.21	
2025-01-08 06:44:07.21	97.03	17.21	
2025-01-08 06:44:07.41	97.09	17.20	
2025-01-08 06:44:07.62	97.14	17.20	
2025-01-08 06:44:07.82	97.19	17.19	
2025-01-08 06:44:08.03	97.25	17.19	
2025-01-08 06:44:08.23	97.30	17.18	
2025-01-08 06:44:08.43	97.35	17.18	
2025-01-08 06:44:08.64	97.41	17.17	
2025-01-08 06:44:08.84	97.46	17.17	
2025-01-08 06:44:09.05	97.51	17.16	
2025-01-08 06:44:09.26	97.57	17.16	
2025-01-08 06:44:09.46	97.62	17.15	
2025-01-08 06:44:09.67	97.67	17.15	
2025-01-08 06:44:09.87	97.73	17.14	
2025-01-08 06:44:10.08	97.78	17.13	
2025-01-08 06:44:10.28	97.83	17.13	
2025-01-08 06:44:10.49	97.89	17.12	
2025-01-08 06:44:10.69	97.94	17.12	
2025-01-08 06:44:10.90	97.99	17.11	
2025-01-08 06:44:11.10	98.04	17.11	
2025-01-08 06:44:11.31	98.10	17.10	
2025-01-08 06:44:11.51	98.15	17.10	
2025-01-08 06:44:11.72	98.20	17.09	
2025-01-08 06:44:11.92	98.26	17.08	
2025-01-08 06:44:12.13	98.31	17.08	
2025-01-08 06:44:12.33	98.36	17.07	
