passes_logs/2025/01/08/SPB_Silybum_02/SPB_Silybum_02__20250108_085730_SUOMI_NPP_rec.log

#Pass ID: 20250108_085730_SUOMI NPP
#Satellite: SUOMI NPP
#Configuration: NPP
#Start time: 2025-01-08 08:57:31

#Version: 2.0.20230423
#Station: SPB_Silybum_02
#Location: 30.233357 lon 59.946436 lat
#TLE: 1 37849U 11061A   25007.80086614  .00000261  00000+0  14474-3 0  9998
#TLE: 2 37849  98.7439 308.8810 0001922  51.6815 308.4534 14.19534813683891

#Time	Az	El	Level	Level2	SNR	BER	Gain	Gain2
2025-01-08 08:57:33.71	121.31	4.19	
2025-01-08 08:57:33.91	121.30	4.20	
2025-01-08 08:57:34.11	121.29	4.22	
2025-01-08 08:57:34.32	121.27	4.23	
2025-01-08 08:57:34.53	121.26	4.24	
2025-01-08 08:57:34.73	121.25	4.26	
2025-01-08 08:57:34.94	121.24	4.27	
2025-01-08 08:57:35.14	121.23	4.28	
2025-01-08 08:57:35.35	121.22	4.30	
2025-01-08 08:57:35.55	121.21	4.31	
2025-01-08 08:57:35.76	121.20	4.32	
2025-01-08 08:57:35.97	121.19	4.34	
2025-01-08 08:57:36.17	121.18	4.35	
2025-01-08 08:57:36.37	121.16	4.36	
2025-01-08 08:57:36.58	121.15	4.38	
2025-01-08 08:57:36.79	121.14	4.39	
2025-01-08 08:57:36.99	121.13	4.40	
2025-01-08 08:57:37.19	121.12	4.42	
2025-01-08 08:57:37.40	121.11	4.43	
2025-01-08 08:57:37.61	121.10	4.45	
2025-01-08 08:57:37.81	121.09	4.46	
2025-01-08 08:57:38.02	121.08	4.47	
2025-01-08 08:57:38.24	121.06	4.49	
2025-01-08 08:57:38.44	121.05	4.50	
2025-01-08 08:57:38.65	121.04	4.51	
2025-01-08 08:57:38.85	121.03	4.53	
2025-01-08 08:57:39.06	121.02	4.54	
2025-01-08 08:57:39.26	121.01	4.55	
2025-01-08 08:57:39.47	121.00	4.57	
2025-01-08 08:57:39.68	120.98	4.58	
2025-01-08 08:57:39.88	120.97	4.59	
2025-01-08 08:57:40.09	120.96	4.61	
2025-01-08 08:57:40.29	120.95	4.62	
2025-01-08 08:57:40.50	120.94	4.63	
2025-01-08 08:57:40.70	120.93	4.65	
2025-01-08 08:57:40.91	120.92	4.66	
2025-01-08 08:57:41.12	120.91	4.68	
2025-01-08 08:57:41.32	120.89	4.69	
2025-01-08 08:57:41.52	120.88	4.70	
2025-01-08 08:57:41.73	120.87	4.72	
2025-01-08 08:57:41.94	120.86	4.73	
2025-01-08 08:57:42.14	120.85	4.74	
2025-01-08 08:57:42.35	120.84	4.76	
2025-01-08 08:57:42.55	120.83	4.77	
2025-01-08 08:57:42.75	120.81	4.78	
2025-01-08 08:57:42.96	120.80	4.80	
2025-01-08 08:57:43.17	120.79	4.81	
2025-01-08 08:57:43.37	120.78	4.82	
2025-01-08 08:57:43.58	120.77	4.84	
2025-01-08 08:57:43.79	120.76	4.85	
2025-01-08 08:57:43.99	120.75	4.87	
2025-01-08 08:57:44.19	120.73	4.88	
2025-01-08 08:57:44.40	120.72	4.89	
2025-01-08 08:57:44.60	120.71	4.91	
2025-01-08 08:57:44.81	120.70	4.92	
2025-01-08 08:57:45.02	120.69	4.93	
2025-01-08 08:57:45.22	120.68	4.95	
2025-01-08 08:57:45.43	120.66	4.96	
2025-01-08 08:57:45.63	120.65	4.97	
2025-01-08 08:57:45.84	120.64	4.99	
2025-01-08 08:57:46.04	120.63	5.00	
2025-01-08 08:57:46.25	120.62	5.02	
2025-01-08 08:57:46.45	120.61	5.03	
2025-01-08 08:57:46.66	120.60	5.04	
2025-01-08 08:57:46.86	120.58	5.06	
2025-01-08 08:57:47.07	120.57	5.07	
2025-01-08 08:57:47.28	120.56	5.08	
2025-01-08 08:57:47.48	120.55	5.10	
2025-01-08 08:57:47.69	120.54	5.11	
2025-01-08 08:57:47.89	120.53	5.12	
2025-01-08 08:57:48.10	120.51	5.14	
2025-01-08 08:57:48.30	120.50	5.15	
2025-01-08 08:57:48.51	120.49	5.17	
2025-01-08 08:57:48.71	120.48	5.18	
2025-01-08 08:57:48.93	120.47	5.19	
2025-01-08 08:57:49.14	120.45	5.21	
2025-01-08 08:57:49.34	120.44	5.22	
2025-01-08 08:57:49.55	120.43	5.24	
2025-01-08 08:57:49.75	120.42	5.25	
2025-01-08 08:57:49.96	120.41	5.26	
2025-01-08 08:57:50.16	120.40	5.28	
2025-01-08 08:57:50.37	120.38	5.29	
2025-01-08 08:57:50.57	120.37	5.30	
2025-01-08 08:57:50.78	120.36	5.32	
2025-01-08 08:57:50.98	120.35	5.33	
2025-01-08 08:57:51.19	120.34	5.35	
2025-01-08 08:57:51.39	120.32	5.36	
2025-01-08 08:57:51.60	120.31	5.37	
2025-01-08 08:57:51.81	120.30	5.39	
2025-01-08 08:57:52.01	120.29	5.40	
2025-01-08 08:57:52.21	120.28	5.41	
2025-01-08 08:57:52.42	120.26	5.43	
2025-01-08 08:57:52.63	120.25	5.44	
2025-01-08 08:57:52.83	120.24	5.46	
2025-01-08 08:57:53.04	120.23	5.47	
2025-01-08 08:57:53.24	120.22	5.48	
2025-01-08 08:57:53.45	120.20	5.50	
2025-01-08 08:57:53.65	120.19	5.51	
2025-01-08 08:57:53.86	120.18	5.53	
2025-01-08 08:57:54.06	120.17	5.54	
2025-01-08 08:57:54.27	120.16	5.55	
2025-01-08 08:57:54.47	120.14	5.57	
2025-01-08 08:57:54.68	120.13	5.58	
2025-01-08 08:57:54.88	120.12	5.60	
2025-01-08 08:57:55.09	120.11	5.61	
2025-01-08 08:57:55.29	120.10	5.62	
2025-01-08 08:57:55.50	120.08	5.64	
2025-01-08 08:57:55.70	120.07	5.65	
2025-01-08 08:57:55.91	120.06	5.67	
2025-01-08 08:57:56.12	120.05	5.68	
2025-01-08 08:57:56.32	120.04	5.69	
2025-01-08 08:57:56.52	120.02	5.71	
2025-01-08 08:57:56.73	120.01	5.72	
2025-01-08 08:57:56.94	120.00	5.74	
2025-01-08 08:57:57.14	119.99	5.75	
2025-01-08 08:57:57.35	119.97	5.76	
2025-01-08 08:57:57.55	119.96	5.78	
2025-01-08 08:57:57.76	119.95	5.79	
2025-01-08 08:57:57.96	119.94	5.81	
2025-01-08 08:57:58.17	119.92	5.82	
2025-01-08 08:57:58.38	119.91	5.83	
2025-01-08 08:57:58.59	119.90	5.85	
2025-01-08 08:57:58.80	119.89	5.86	
2025-01-08 08:57:59.00	119.87	5.88	
2025-01-08 08:57:59.21	119.86	5.89	
2025-01-08 08:57:59.41	119.85	5.90	
2025-01-08 08:57:59.62	119.84	5.92	
2025-01-08 08:57:59.82	119.83	5.93	
2025-01-08 08:58:00.03	119.81	5.95	
2025-01-08 08:58:00.25	119.80	5.96	
2025-01-08 08:58:00.45	119.79	5.98	
2025-01-08 08:58:00.66	119.77	5.99	
2025-01-08 08:58:00.86	119.76	6.00	
2025-01-08 08:58:01.07	119.75	6.02	
2025-01-08 08:58:01.28	119.74	6.03	
2025-01-08 08:58:01.48	119.72	6.05	
2025-01-08 08:58:01.68	119.71	6.06	
2025-01-08 08:58:01.89	119.70	6.07	
2025-01-08 08:58:02.10	119.69	6.09	
2025-01-08 08:58:02.30	119.67	6.10	
2025-01-08 08:58:02.51	119.66	6.12	
2025-01-08 08:58:02.71	119.65	6.13	
2025-01-08 08:58:02.92	119.64	6.15	
2025-01-08 08:58:03.12	119.62	6.16	
2025-01-08 08:58:03.33	119.61	6.17	
2025-01-08 08:58:03.54	119.60	6.19	
2025-01-08 08:58:03.74	119.59	6.20	
2025-01-08 08:58:03.94	119.57	6.22	
2025-01-08 08:58:04.15	119.56	6.23	
2025-01-08 08:58:04.36	119.55	6.25	
2025-01-08 08:58:04.56	119.54	6.26	
2025-01-08 08:58:04.77	119.52	6.27	
2025-01-08 08:58:04.98	119.51	6.29	
2025-01-08 08:58:05.19	119.50	6.30	
2025-01-08 08:58:05.39	119.48	6.32	
2025-01-08 08:58:05.60	119.47	6.33	
2025-01-08 08:58:05.80	119.46	6.35	
2025-01-08 08:58:06.01	119.45	6.36	
2025-01-08 08:58:06.21	119.43	6.37	
2025-01-08 08:58:06.42	119.42	6.39	
2025-01-08 08:58:06.62	119.41	6.40	
2025-01-08 08:58:06.83	119.39	6.42	
2025-01-08 08:58:07.03	119.38	6.43	
2025-01-08 08:58:07.24	119.37	6.45	
2025-01-08 08:58:07.45	119.36	6.46	
2025-01-08 08:58:07.65	119.34	6.47	
2025-01-08 08:58:07.86	119.33	6.49	
2025-01-08 08:58:08.06	119.32	6.50	
2025-01-08 08:58:08.27	119.30	6.52	
2025-01-08 08:58:08.47	119.29	6.53	
2025-01-08 08:58:08.68	119.28	6.55	
2025-01-08 08:58:08.89	119.27	6.56	
2025-01-08 08:58:09.09	119.25	6.57	
2025-01-08 08:58:09.29	119.24	6.59	
2025-01-08 08:58:09.50	119.23	6.60	
2025-01-08 08:58:09.71	119.21	6.62	
2025-01-08 08:58:09.91	119.20	6.63	
2025-01-08 08:58:10.12	119.19	6.65	
2025-01-08 08:58:10.32	119.17	6.66	
2025-01-08 08:58:10.53	119.16	6.68	
2025-01-08 08:58:10.73	119.15	6.69	
2025-01-08 08:58:10.94	119.13	6.70	
2025-01-08 08:58:11.14	119.12	6.72	
2025-01-08 08:58:11.35	119.11	6.73	
2025-01-08 08:58:11.55	119.10	6.75	
2025-01-08 08:58:11.76	119.08	6.76	
2025-01-08 08:58:11.97	119.07	6.78	
2025-01-08 08:58:12.17	119.06	6.79	
2025-01-08 08:58:12.38	119.04	6.81	
2025-01-08 08:58:12.58	119.03	6.82	
2025-01-08 08:58:12.79	119.02	6.83	
2025-01-08 08:58:12.99	119.00	6.85	
2025-01-08 08:58:13.20	118.99	6.86	
2025-01-08 08:58:13.41	118.98	6.88	
2025-01-08 08:58:13.62	118.96	6.89	
2025-01-08 08:58:13.83	118.95	6.91	
2025-01-08 08:58:14.03	118.94	6.92	
2025-01-08 08:58:14.24	118.92	6.94	
2025-01-08 08:58:14.44	118.91	6.95	
2025-01-08 08:58:14.65	118.90	6.97	
2025-01-08 08:58:14.85	118.88	6.98	
2025-01-08 08:58:15.06	118.87	7.00	
2025-01-08 08:58:15.26	118.86	7.01	
2025-01-08 08:58:15.47	118.84	7.02	
2025-01-08 08:58:15.67	118.83	7.04	
2025-01-08 08:58:15.88	118.82	7.05	
2025-01-08 08:58:16.08	118.80	7.07	
2025-01-08 08:58:16.29	118.79	7.08	
2025-01-08 08:58:16.49	118.78	7.10	
2025-01-08 08:58:16.71	118.76	7.11	
2025-01-08 08:58:16.91	118.75	7.13	
2025-01-08 08:58:17.12	118.73	7.14	
2025-01-08 08:58:17.32	118.72	7.16	
2025-01-08 08:58:17.53	118.71	7.17	
2025-01-08 08:58:17.73	118.69	7.19	
2025-01-08 08:58:17.94	118.68	7.20	
2025-01-08 08:58:18.14	118.67	7.21	
2025-01-08 08:58:18.35	118.65	7.23	
2025-01-08 08:58:18.55	118.64	7.24	
2025-01-08 08:58:18.76	118.63	7.26	
2025-01-08 08:58:18.96	118.61	7.27	
2025-01-08 08:58:19.17	118.60	7.29	
2025-01-08 08:58:19.37	118.59	7.30	
2025-01-08 08:58:19.58	118.57	7.32	
2025-01-08 08:58:19.78	118.56	7.33	
2025-01-08 08:58:19.99	118.54	7.35	
2025-01-08 08:58:20.20	118.53	7.36	
2025-01-08 08:58:20.40	118.52	7.38	
2025-01-08 08:58:20.61	118.50	7.39	
2025-01-08 08:58:20.81	118.49	7.41	
2025-01-08 08:58:21.02	118.47	7.42	
2025-01-08 08:58:21.22	118.46	7.44	
2025-01-08 08:58:21.43	118.45	7.45	
2025-01-08 08:58:21.64	118.43	7.47	
2025-01-08 08:58:21.84	118.42	7.48	
2025-01-08 08:58:22.04	118.41	7.49	
2025-01-08 08:58:22.25	118.39	7.51	
2025-01-08 08:58:22.45	118.38	7.52	
2025-01-08 08:58:22.66	118.36	7.54	
2025-01-08 08:58:22.87	118.35	7.55	
2025-01-08 08:58:23.07	118.34	7.57	
2025-01-08 08:58:23.27	118.32	7.58	
2025-01-08 08:58:23.48	118.31	7.60	
2025-01-08 08:58:23.69	118.29	7.61	
2025-01-08 08:58:23.89	118.28	7.63	
2025-01-08 08:58:24.09	118.27	7.64	
2025-01-08 08:58:24.30	118.25	7.66	
2025-01-08 08:58:24.51	118.24	7.67	
2025-01-08 08:58:24.71	118.22	7.69	
2025-01-08 08:58:24.92	118.21	7.70	
2025-01-08 08:58:25.12	118.20	7.72	
2025-01-08 08:58:25.33	118.18	7.73	
2025-01-08 08:58:25.54	118.17	7.75	
2025-01-08 08:58:25.74	118.15	7.76	
2025-01-08 08:58:25.95	118.14	7.78	
2025-01-08 08:58:26.16	118.12	7.79	
2025-01-08 08:58:26.36	118.11	7.81	
2025-01-08 08:58:26.56	118.10	7.82	
2025-01-08 08:58:26.77	118.08	7.84	
2025-01-08 08:58:26.97	118.07	7.85	
2025-01-08 08:58:27.18	118.05	7.87	
2025-01-08 08:58:27.38	118.04	7.88	
2025-01-08 08:58:27.59	118.03	7.90	
2025-01-08 08:58:27.79	118.01	7.91	
2025-01-08 08:58:28.00	118.00	7.93	
2025-01-08 08:58:28.20	117.98	7.94	
2025-01-08 08:58:28.41	117.97	7.96	
2025-01-08 08:58:28.61	117.95	7.97	
2025-01-08 08:58:28.82	117.94	7.99	
2025-01-08 08:58:29.02	117.93	8.00	
2025-01-08 08:58:29.23	117.91	8.02	
2025-01-08 08:58:29.43	117.90	8.03	
2025-01-08 08:58:29.64	117.88	8.05	
2025-01-08 08:58:29.85	117.87	8.06	
2025-01-08 08:58:30.05	117.85	8.08	
2025-01-08 08:58:30.26	117.84	8.09	
2025-01-08 08:58:30.46	117.82	8.11	
2025-01-08 08:58:30.67	117.81	8.12	
2025-01-08 08:58:30.87	117.80	8.14	
2025-01-08 08:58:31.08	117.78	8.15	
2025-01-08 08:58:31.28	117.77	8.17	
2025-01-08 08:58:31.49	117.75	8.18	
2025-01-08 08:58:31.70	117.74	8.20	
2025-01-08 08:58:31.90	117.72	8.21	
2025-01-08 08:58:32.11	117.71	8.23	
2025-01-08 08:58:32.31	117.69	8.24	
2025-01-08 08:58:32.52	117.68	8.26	
2025-01-08 08:58:32.74	117.66	8.27	
2025-01-08 08:58:32.94	117.65	8.29	
2025-01-08 08:58:33.15	117.63	8.31	
2025-01-08 08:58:33.35	117.62	8.32	
2025-01-08 08:58:33.56	117.60	8.34	
2025-01-08 08:58:33.76	117.59	8.35	
2025-01-08 08:58:33.97	117.58	8.37	
2025-01-08 08:58:34.17	117.56	8.38	
2025-01-08 08:58:34.38	117.55	8.40	
2025-01-08 08:58:34.59	117.53	8.41	
2025-01-08 08:58:34.79	117.52	8.43	
2025-01-08 08:58:35.00	117.50	8.44	
2025-01-08 08:58:35.20	117.49	8.46	
2025-01-08 08:58:35.41	117.47	8.47	
2025-01-08 08:58:35.61	117.46	8.49	
2025-01-08 08:58:35.82	117.44	8.50	
2025-01-08 08:58:36.03	117.43	8.52	
2025-01-08 08:58:36.23	117.41	8.53	
2025-01-08 08:58:36.44	117.40	8.55	
2025-01-08 08:58:36.65	117.38	8.57	
2025-01-08 08:58:36.85	117.37	8.58	
2025-01-08 08:58:37.06	117.35	8.60	
2025-01-08 08:58:37.26	117.34	8.61	
2025-01-08 08:58:37.47	117.32	8.63	
2025-01-08 08:58:37.67	117.31	8.64	
2025-01-08 08:58:37.88	117.29	8.66	
2025-01-08 08:58:38.08	117.28	8.67	
2025-01-08 08:58:38.29	117.26	8.69	
2025-01-08 08:58:38.49	117.25	8.70	
2025-01-08 08:58:38.70	117.23	8.72	
2025-01-08 08:58:38.91	117.22	8.73	
2025-01-08 08:58:39.11	117.20	8.75	
2025-01-08 08:58:39.32	117.19	8.76	
2025-01-08 08:58:39.52	117.17	8.78	
2025-01-08 08:58:39.73	117.15	8.80	
2025-01-08 08:58:39.93	117.14	8.81	
2025-01-08 08:58:40.13	117.13	8.83	
2025-01-08 08:58:40.34	117.11	8.84	
2025-01-08 08:58:40.55	117.09	8.86	
2025-01-08 08:58:40.75	117.08	8.87	
2025-01-08 08:58:40.96	117.06	8.89	
2025-01-08 08:58:41.16	117.05	8.90	
2025-01-08 08:58:41.37	117.03	8.92	
2025-01-08 08:58:41.57	117.02	8.93	
2025-01-08 08:58:41.78	117.00	8.95	
2025-01-08 08:58:41.98	116.99	8.97	
2025-01-08 08:58:42.19	116.97	8.98	
2025-01-08 08:58:42.39	116.96	9.00	
2025-01-08 08:58:42.60	116.94	9.01	
2025-01-08 08:58:42.80	116.93	9.03	
2025-01-08 08:58:43.01	116.91	9.04	
2025-01-08 08:58:43.22	116.89	9.06	
2025-01-08 08:58:43.42	116.88	9.07	
2025-01-08 08:58:43.62	116.86	9.09	
2025-01-08 08:58:43.83	116.85	9.11	
2025-01-08 08:58:44.03	116.83	9.12	
2025-01-08 08:58:44.24	116.82	9.14	
2025-01-08 08:58:44.44	116.80	9.15	
2025-01-08 08:58:44.65	116.79	9.17	
2025-01-08 08:58:44.86	116.77	9.18	
2025-01-08 08:58:45.06	116.75	9.20	
2025-01-08 08:58:45.27	116.74	9.21	
2025-01-08 08:58:45.47	116.72	9.23	
2025-01-08 08:58:45.68	116.71	9.25	
2025-01-08 08:58:45.88	116.69	9.26	
2025-01-08 08:58:46.09	116.68	9.28	
2025-01-08 08:58:46.29	116.66	9.29	
2025-01-08 08:58:46.50	116.64	9.31	
2025-01-08 08:58:46.70	116.63	9.32	
2025-01-08 08:58:46.91	116.61	9.34	
2025-01-08 08:58:47.12	116.60	9.36	
2025-01-08 08:58:47.32	116.58	9.37	
2025-01-08 08:58:47.53	116.56	9.39	
2025-01-08 08:58:47.73	116.55	9.40	
2025-01-08 08:58:47.94	116.53	9.42	
2025-01-08 08:58:48.14	116.52	9.43	
2025-01-08 08:58:48.35	116.50	9.45	
2025-01-08 08:58:48.55	116.49	9.47	
2025-01-08 08:58:48.76	116.47	9.48	
2025-01-08 08:58:48.96	116.45	9.50	
2025-01-08 08:58:49.17	116.44	9.51	
2025-01-08 08:58:49.38	116.42	9.53	
2025-01-08 08:58:49.58	116.41	9.54	
2025-01-08 08:58:49.79	116.39	9.56	
2025-01-08 08:58:49.99	116.37	9.58	
2025-01-08 08:58:50.20	116.36	9.59	
2025-01-08 08:58:50.40	116.34	9.61	
2025-01-08 08:58:50.61	116.32	9.62	
2025-01-08 08:58:50.83	116.31	9.64	
2025-01-08 08:58:51.03	116.29	9.66	
2025-01-08 08:58:51.24	116.28	9.67	
2025-01-08 08:58:51.44	116.26	9.69	
2025-01-08 08:58:51.65	116.24	9.70	
2025-01-08 08:58:51.85	116.23	9.72	
2025-01-08 08:58:52.06	116.21	9.74	
2025-01-08 08:58:52.26	116.19	9.75	
2025-01-08 08:58:52.47	116.18	9.77	
2025-01-08 08:58:52.67	116.16	9.78	
2025-01-08 08:58:52.88	116.15	9.80	
2025-01-08 08:58:53.08	116.13	9.81	
2025-01-08 08:58:53.29	116.11	9.83	
2025-01-08 08:58:53.49	116.10	9.85	
2025-01-08 08:58:53.70	116.08	9.86	
2025-01-08 08:58:53.90	116.06	9.88	
2025-01-08 08:58:54.11	116.05	9.89	
2025-01-08 08:58:54.31	116.03	9.91	
2025-01-08 08:58:54.52	116.01	9.93	
2025-01-08 08:58:54.72	116.00	9.94	
2025-01-08 08:58:54.93	115.98	9.96	
2025-01-08 08:58:55.13	115.97	9.97	
2025-01-08 08:58:55.34	115.95	9.99	
2025-01-08 08:58:55.55	115.93	10.01	
2025-01-08 08:58:55.75	115.92	10.02	
2025-01-08 08:58:55.96	115.90	10.04	
2025-01-08 08:58:56.16	115.88	10.05	
2025-01-08 08:58:56.37	115.87	10.07	
2025-01-08 08:58:56.57	115.85	10.09	
2025-01-08 08:58:56.78	115.83	10.10	
2025-01-08 08:58:56.99	115.81	10.12	
2025-01-08 08:58:57.19	115.80	10.13	
2025-01-08 08:58:57.40	115.78	10.15	
2025-01-08 08:58:57.60	115.77	10.17	
2025-01-08 08:58:57.81	115.75	10.18	
2025-01-08 08:58:58.01	115.73	10.20	
2025-01-08 08:58:58.22	115.71	10.22	
2025-01-08 08:58:58.42	115.70	10.23	
2025-01-08 08:58:58.63	115.68	10.25	
2025-01-08 08:58:58.83	115.66	10.26	
2025-01-08 08:58:59.04	115.65	10.28	
2025-01-08 08:58:59.25	115.63	10.30	
2025-01-08 08:58:59.45	115.61	10.31	
2025-01-08 08:58:59.66	115.60	10.33	
2025-01-08 08:58:59.86	115.58	10.34	
2025-01-08 08:59:00.07	115.56	10.36	
2025-01-08 08:59:00.27	115.55	10.38	
2025-01-08 08:59:00.48	115.53	10.39	
2025-01-08 08:59:00.68	115.51	10.41	
2025-01-08 08:59:00.89	115.49	10.43	
2025-01-08 08:59:01.09	115.48	10.44	
2025-01-08 08:59:01.30	115.46	10.46	
2025-01-08 08:59:01.50	115.44	10.47	
2025-01-08 08:59:01.71	115.43	10.49	
2025-01-08 08:59:01.91	115.41	10.51	
2025-01-08 08:59:02.12	115.39	10.52	
2025-01-08 08:59:02.33	115.37	10.54	
2025-01-08 08:59:02.53	115.36	10.56	
2025-01-08 08:59:02.74	115.34	10.57	
2025-01-08 08:59:02.94	115.32	10.59	
2025-01-08 08:59:03.14	115.31	10.60	
2025-01-08 08:59:03.35	115.29	10.62	
2025-01-08 08:59:03.56	115.27	10.64	
2025-01-08 08:59:03.76	115.25	10.65	
2025-01-08 08:59:03.97	115.24	10.67	
2025-01-08 08:59:04.17	115.22	10.69	
2025-01-08 08:59:04.38	115.20	10.70	
2025-01-08 08:59:04.58	115.18	10.72	
2025-01-08 08:59:04.79	115.17	10.74	
2025-01-08 08:59:04.99	115.15	10.75	
2025-01-08 08:59:05.20	115.13	10.77	
2025-01-08 08:59:05.41	115.11	10.79	
2025-01-08 08:59:05.61	115.10	10.80	
2025-01-08 08:59:05.83	115.08	10.82	
2025-01-08 08:59:06.03	115.06	10.84	
2025-01-08 08:59:06.24	115.04	10.85	
2025-01-08 08:59:06.45	115.02	10.87	
2025-01-08 08:59:06.65	115.01	10.88	
2025-01-08 08:59:06.86	114.99	10.90	
2025-01-08 08:59:07.06	114.97	10.92	
2025-01-08 08:59:07.27	114.95	10.93	
2025-01-08 08:59:07.47	114.94	10.95	
2025-01-08 08:59:07.68	114.92	10.97	
2025-01-08 08:59:07.88	114.90	10.98	
2025-01-08 08:59:08.09	114.88	11.00	
2025-01-08 08:59:08.30	114.87	11.02	
2025-01-08 08:59:08.50	114.85	11.03	
2025-01-08 08:59:08.71	114.83	11.05	
2025-01-08 08:59:08.91	114.81	11.07	
2025-01-08 08:59:09.12	114.79	11.08	
2025-01-08 08:59:09.32	114.78	11.10	
2025-01-08 08:59:09.53	114.76	11.12	
2025-01-08 08:59:09.74	114.74	11.13	
2025-01-08 08:59:09.94	114.72	11.15	
2025-01-08 08:59:10.15	114.70	11.17	
2025-01-08 08:59:10.35	114.69	11.18	
2025-01-08 08:59:10.56	114.67	11.20	
2025-01-08 08:59:10.76	114.65	11.22	
2025-01-08 08:59:10.97	114.63	11.23	
2025-01-08 08:59:11.17	114.61	11.25	
2025-01-08 08:59:11.38	114.60	11.27	
2025-01-08 08:59:11.58	114.58	11.28	
2025-01-08 08:59:11.79	114.56	11.30	
2025-01-08 08:59:11.99	114.54	11.32	
2025-01-08 08:59:12.20	114.52	11.33	
2025-01-08 08:59:12.41	114.50	11.35	
2025-01-08 08:59:12.61	114.49	11.37	
2025-01-08 08:59:12.82	114.47	11.38	
2025-01-08 08:59:13.02	114.45	11.40	
2025-01-08 08:59:13.22	114.43	11.42	
2025-01-08 08:59:13.43	114.41	11.43	
2025-01-08 08:59:13.64	114.40	11.45	
2025-01-08 08:59:13.84	114.38	11.47	
2025-01-08 08:59:14.05	114.36	11.48	
2025-01-08 08:59:14.25	114.34	11.50	
2025-01-08 08:59:14.46	114.32	11.52	
2025-01-08 08:59:14.66	114.30	11.53	
2025-01-08 08:59:14.87	114.29	11.55	
2025-01-08 08:59:15.07	114.27	11.57	
2025-01-08 08:59:15.28	114.25	11.58	
2025-01-08 08:59:15.49	114.23	11.60	
2025-01-08 08:59:15.70	114.21	11.62	
2025-01-08 08:59:15.91	114.19	11.64	
2025-01-08 08:59:16.11	114.17	11.65	
2025-01-08 08:59:16.32	114.15	11.67	
2025-01-08 08:59:16.52	114.14	11.69	
2025-01-08 08:59:16.73	114.12	11.70	
2025-01-08 08:59:16.94	114.10	11.72	
2025-01-08 08:59:17.14	114.08	11.74	
2025-01-08 08:59:17.35	114.06	11.75	
2025-01-08 08:59:17.55	114.04	11.77	
2025-01-08 08:59:17.76	114.02	11.79	
2025-01-08 08:59:17.96	114.00	11.80	
2025-01-08 08:59:18.17	113.99	11.82	
2025-01-08 08:59:18.37	113.97	11.84	
2025-01-08 08:59:18.58	113.95	11.86	
2025-01-08 08:59:18.78	113.93	11.87	
2025-01-08 08:59:18.99	113.91	11.89	
2025-01-08 08:59:19.19	113.89	11.91	
2025-01-08 08:59:19.40	113.87	11.92	
2025-01-08 08:59:19.60	113.85	11.94	
2025-01-08 08:59:19.81	113.83	11.96	
2025-01-08 08:59:20.01	113.82	11.97	
2025-01-08 08:59:20.22	113.80	11.99	
2025-01-08 08:59:20.42	113.78	12.01	
2025-01-08 08:59:20.63	113.76	12.03	
2025-01-08 08:59:20.84	113.74	12.04	
2025-01-08 08:59:21.04	113.72	12.06	
2025-01-08 08:59:21.25	113.70	12.08	
2025-01-08 08:59:21.46	113.68	12.09	
2025-01-08 08:59:21.66	113.66	12.11	
2025-01-08 08:59:21.86	113.64	12.13	
2025-01-08 08:59:22.07	113.62	12.15	
2025-01-08 08:59:22.28	113.60	12.16	
2025-01-08 08:59:22.48	113.59	12.18	
2025-01-08 08:59:22.69	113.57	12.20	
2025-01-08 08:59:22.89	113.55	12.21	
2025-01-08 08:59:23.10	113.53	12.23	
2025-01-08 08:59:23.30	113.51	12.25	
2025-01-08 08:59:23.51	113.49	12.27	
2025-01-08 08:59:23.71	113.47	12.28	
2025-01-08 08:59:23.92	113.45	12.30	
2025-01-08 08:59:24.12	113.43	12.32	
2025-01-08 08:59:24.33	113.41	12.33	
2025-01-08 08:59:24.53	113.39	12.35	
2025-01-08 08:59:24.74	113.37	12.37	
2025-01-08 08:59:24.94	113.35	12.39	
2025-01-08 08:59:25.14	113.33	12.40	
2025-01-08 08:59:25.35	113.31	12.42	
2025-01-08 08:59:25.55	113.29	12.44	
2025-01-08 08:59:25.76	113.27	12.45	
2025-01-08 08:59:25.96	113.25	12.47	
2025-01-08 08:59:26.17	113.23	12.49	
2025-01-08 08:59:26.37	113.22	12.51	
2025-01-08 08:59:26.58	113.20	12.52	
2025-01-08 08:59:26.78	113.18	12.54	
2025-01-08 08:59:26.99	113.16	12.56	
2025-01-08 08:59:27.19	113.14	12.57	
2025-01-08 08:59:27.40	113.12	12.59	
2025-01-08 08:59:27.60	113.10	12.61	
2025-01-08 08:59:27.81	113.08	12.63	
2025-01-08 08:59:28.01	113.06	12.64	
2025-01-08 08:59:28.22	113.04	12.66	
2025-01-08 08:59:28.42	113.02	12.68	
2025-01-08 08:59:28.63	113.00	12.70	
2025-01-08 08:59:28.84	112.98	12.71	
2025-01-08 08:59:29.04	112.96	12.73	
2025-01-08 08:59:29.25	112.94	12.75	
2025-01-08 08:59:29.45	112.92	12.77	
2025-01-08 08:59:29.66	112.90	12.78	
2025-01-08 08:59:29.87	112.88	12.80	
2025-01-08 08:59:30.07	112.86	12.82	
2025-01-08 08:59:30.28	112.84	12.84	
2025-01-08 08:59:30.48	112.82	12.85	
2025-01-08 08:59:30.69	112.79	12.87	
2025-01-08 08:59:30.89	112.78	12.89	
2025-01-08 08:59:31.10	112.75	12.91	
2025-01-08 08:59:31.30	112.73	12.92	
2025-01-08 08:59:31.51	112.71	12.94	
2025-01-08 08:59:31.71	112.69	12.96	
2025-01-08 08:59:31.92	112.67	12.98	
2025-01-08 08:59:32.12	112.65	12.99	
2025-01-08 08:59:32.33	112.63	13.01	
2025-01-08 08:59:32.54	112.61	13.03	
2025-01-08 08:59:32.74	112.59	13.05	
2025-01-08 08:59:32.95	112.57	13.06	
2025-01-08 08:59:33.15	112.55	13.08	
2025-01-08 08:59:33.36	112.53	13.10	
2025-01-08 08:59:33.56	112.51	13.12	
2025-01-08 08:59:33.77	112.49	13.13	
2025-01-08 08:59:33.97	112.47	13.15	
2025-01-08 08:59:34.18	112.45	13.17	
2025-01-08 08:59:34.38	112.43	13.19	
2025-01-08 08:59:34.59	112.41	13.20	
2025-01-08 08:59:34.79	112.39	13.22	
2025-01-08 08:59:34.99	112.37	13.24	
2025-01-08 08:59:35.20	112.34	13.26	
2025-01-08 08:59:35.40	112.32	13.27	
2025-01-08 08:59:35.61	112.30	13.29	
2025-01-08 08:59:35.81	112.28	13.31	
2025-01-08 08:59:36.02	112.26	13.33	
2025-01-08 08:59:36.23	112.24	13.35	
2025-01-08 08:59:36.43	112.22	13.36	
2025-01-08 08:59:36.64	112.20	13.38	
2025-01-08 08:59:36.84	112.18	13.40	
2025-01-08 08:59:37.05	112.16	13.42	
2025-01-08 08:59:37.25	112.14	13.43	
2025-01-08 08:59:37.46	112.11	13.45	
2025-01-08 08:59:37.66	112.09	13.47	
2025-01-08 08:59:37.86	112.07	13.49	
2025-01-08 08:59:38.07	112.05	13.51	
2025-01-08 08:59:38.27	112.03	13.52	
2025-01-08 08:59:38.49	112.01	13.54	
2025-01-08 08:59:38.70	111.99	13.56	
2025-01-08 08:59:38.90	111.97	13.58	
2025-01-08 08:59:39.11	111.94	13.60	
2025-01-08 08:59:39.31	111.92	13.61	
2025-01-08 08:59:39.52	111.90	13.63	
2025-01-08 08:59:39.72	111.88	13.65	
2025-01-08 08:59:39.93	111.86	13.67	
2025-01-08 08:59:40.13	111.84	13.68	
2025-01-08 08:59:40.34	111.82	13.70	
2025-01-08 08:59:40.55	111.79	13.72	
2025-01-08 08:59:40.75	111.77	13.74	
2025-01-08 08:59:40.96	111.75	13.76	
2025-01-08 08:59:41.16	111.73	13.77	
2025-01-08 08:59:41.37	111.71	13.79	
2025-01-08 08:59:41.57	111.69	13.81	
2025-01-08 08:59:41.77	111.67	13.83	
2025-01-08 08:59:41.98	111.64	13.85	
2025-01-08 08:59:42.18	111.62	13.86	
2025-01-08 08:59:42.39	111.60	13.88	
2025-01-08 08:59:42.59	111.58	13.90	
2025-01-08 08:59:42.80	111.56	13.92	
2025-01-08 08:59:43.00	111.54	13.94	
2025-01-08 08:59:43.22	111.51	13.95	
2025-01-08 08:59:43.43	111.49	13.97	
2025-01-08 08:59:43.63	111.47	13.99	
2025-01-08 08:59:43.84	111.45	14.01	
2025-01-08 08:59:44.04	111.42	14.03	
2025-01-08 08:59:44.25	111.40	14.05	
2025-01-08 08:59:44.45	111.38	14.06	
2025-01-08 08:59:44.66	111.36	14.08	
2025-01-08 08:59:44.86	111.34	14.10	
2025-01-08 08:59:45.07	111.31	14.12	
2025-01-08 08:59:45.27	111.29	14.14	
2025-01-08 08:59:45.48	111.27	14.15	
2025-01-08 08:59:45.68	111.25	14.17	
2025-01-08 08:59:45.89	111.23	14.19	
2025-01-08 08:59:46.09	111.20	14.21	
2025-01-08 08:59:46.30	111.18	14.23	
2025-01-08 08:59:46.50	111.16	14.24	
2025-01-08 08:59:46.71	111.14	14.26	
2025-01-08 08:59:46.91	111.12	14.28	
2025-01-08 08:59:47.12	111.09	14.30	
2025-01-08 08:59:47.32	111.07	14.32	
2025-01-08 08:59:47.52	111.05	14.33	
2025-01-08 08:59:47.73	111.03	14.35	
2025-01-08 08:59:47.93	111.00	14.37	
2025-01-08 08:59:48.14	110.98	14.39	
2025-01-08 08:59:48.34	110.96	14.41	
2025-01-08 08:59:48.55	110.94	14.43	
2025-01-08 08:59:48.75	110.91	14.44	
2025-01-08 08:59:48.96	110.89	14.46	
2025-01-08 08:59:49.16	110.87	14.48	
2025-01-08 08:59:49.37	110.85	14.50	
2025-01-08 08:59:49.57	110.82	14.52	
2025-01-08 08:59:49.78	110.80	14.54	
2025-01-08 08:59:49.98	110.78	14.55	
2025-01-08 08:59:50.19	110.76	14.57	
2025-01-08 08:59:50.40	110.73	14.59	
2025-01-08 08:59:50.60	110.71	14.61	
2025-01-08 08:59:50.81	110.69	14.63	
2025-01-08 08:59:51.01	110.66	14.65	
2025-01-08 08:59:51.22	110.64	14.66	
2025-01-08 08:59:51.42	110.62	14.68	
2025-01-08 08:59:51.63	110.59	14.70	
2025-01-08 08:59:51.83	110.57	14.72	
2025-01-08 08:59:52.04	110.55	14.74	
2025-01-08 08:59:52.24	110.53	14.76	
2025-01-08 08:59:52.45	110.50	14.77	
2025-01-08 08:59:52.65	110.48	14.79	
2025-01-08 08:59:52.86	110.46	14.81	
2025-01-08 08:59:53.06	110.43	14.83	
2025-01-08 08:59:53.27	110.41	14.85	
2025-01-08 08:59:53.47	110.39	14.87	
2025-01-08 08:59:53.68	110.36	14.89	
2025-01-08 08:59:53.88	110.34	14.90	
2025-01-08 08:59:54.08	110.32	14.92	
2025-01-08 08:59:54.29	110.29	14.94	
2025-01-08 08:59:54.50	110.27	14.96	
2025-01-08 08:59:54.70	110.25	14.98	
2025-01-08 08:59:54.91	110.22	15.00	
2025-01-08 08:59:55.11	110.20	15.01	
2025-01-08 08:59:55.32	110.18	15.03	
2025-01-08 08:59:55.53	110.15	15.05	
2025-01-08 08:59:55.73	110.13	15.07	
2025-01-08 08:59:55.94	110.11	15.09	
2025-01-08 08:59:56.14	110.08	15.11	
2025-01-08 08:59:56.35	110.06	15.13	
2025-01-08 08:59:56.55	110.04	15.14	
2025-01-08 08:59:56.76	110.01	15.16	
2025-01-08 08:59:56.96	109.99	15.18	
2025-01-08 08:59:57.17	109.96	15.20	
2025-01-08 08:59:57.37	109.94	15.22	
2025-01-08 08:59:57.58	109.92	15.24	
2025-01-08 08:59:57.78	109.89	15.26	
2025-01-08 08:59:57.99	109.87	15.28	
2025-01-08 08:59:58.19	109.85	15.29	
2025-01-08 08:59:58.40	109.82	15.31	
2025-01-08 08:59:58.60	109.80	15.33	
2025-01-08 08:59:58.81	109.77	15.35	
2025-01-08 08:59:59.02	109.75	15.37	
2025-01-08 08:59:59.22	109.73	15.39	
2025-01-08 08:59:59.43	109.70	15.41	
2025-01-08 08:59:59.63	109.68	15.43	
2025-01-08 08:59:59.84	109.65	15.44	
2025-01-08 09:00:00.04	109.63	15.46	
2025-01-08 09:00:00.26	109.60	15.48	
2025-01-08 09:00:00.47	109.58	15.50	
2025-01-08 09:00:00.67	109.55	15.52	
2025-01-08 09:00:00.88	109.53	15.54	
2025-01-08 09:00:01.08	109.51	15.56	
2025-01-08 09:00:01.29	109.48	15.58	
2025-01-08 09:00:01.49	109.46	15.60	
2025-01-08 09:00:01.70	109.43	15.62	
2025-01-08 09:00:01.91	109.41	15.63	
2025-01-08 09:00:02.11	109.38	15.65	
2025-01-08 09:00:02.31	109.36	15.67	
2025-01-08 09:00:02.53	109.33	15.69	
2025-01-08 09:00:02.73	109.31	15.71	
2025-01-08 09:00:02.94	109.28	15.73	
2025-01-08 09:00:03.15	109.26	15.75	
2025-01-08 09:00:03.35	109.23	15.77	
2025-01-08 09:00:03.56	109.21	15.79	
2025-01-08 09:00:03.76	109.19	15.80	
2025-01-08 09:00:03.97	109.16	15.82	
2025-01-08 09:00:04.17	109.14	15.84	
2025-01-08 09:00:04.38	109.11	15.86	
2025-01-08 09:00:04.58	109.09	15.88	
2025-01-08 09:00:04.79	109.06	15.90	
2025-01-08 09:00:04.99	109.04	15.92	
2025-01-08 09:00:05.20	109.01	15.94	
2025-01-08 09:00:05.40	108.99	15.96	
2025-01-08 09:00:05.61	108.96	15.98	
2025-01-08 09:00:05.81	108.94	15.99	
2025-01-08 09:00:06.01	108.91	16.01	
2025-01-08 09:00:06.22	108.89	16.03	
2025-01-08 09:00:06.43	108.86	16.05	
2025-01-08 09:00:06.63	108.84	16.07	
2025-01-08 09:00:06.84	108.81	16.09	
2025-01-08 09:00:07.04	108.79	16.11	
2025-01-08 09:00:07.25	108.76	16.13	
2025-01-08 09:00:07.45	108.73	16.15	
2025-01-08 09:00:07.66	108.71	16.17	
2025-01-08 09:00:07.86	108.68	16.19	
2025-01-08 09:00:08.07	108.66	16.20	
2025-01-08 09:00:08.28	108.63	16.22	
2025-01-08 09:00:08.48	108.61	16.24	
2025-01-08 09:00:08.69	108.58	16.26	
2025-01-08 09:00:08.89	108.56	16.28	
2025-01-08 09:00:09.10	108.53	16.30	
2025-01-08 09:00:09.30	108.50	16.32	
2025-01-08 09:00:09.51	108.48	16.34	
2025-01-08 09:00:09.71	108.45	16.36	
2025-01-08 09:00:09.92	108.43	16.38	
2025-01-08 09:00:10.12	108.40	16.40	
2025-01-08 09:00:10.33	108.38	16.42	
2025-01-08 09:00:10.53	108.35	16.43	
2025-01-08 09:00:10.74	108.32	16.45	
2025-01-08 09:00:10.94	108.30	16.47	
2025-01-08 09:00:11.15	108.27	16.49	
2025-01-08 09:00:11.36	108.25	16.51	
2025-01-08 09:00:11.56	108.22	16.53	
2025-01-08 09:00:11.77	108.19	16.55	
2025-01-08 09:00:11.97	108.17	16.57	
2025-01-08 09:00:12.18	108.14	16.59	
2025-01-08 09:00:12.38	108.12	16.61	
2025-01-08 09:00:12.59	108.09	16.63	
2025-01-08 09:00:12.79	108.06	16.65	
2025-01-08 09:00:13.00	108.04	16.67	
2025-01-08 09:00:13.20	108.01	16.69	
2025-01-08 09:00:13.41	107.98	16.71	
2025-01-08 09:00:13.62	107.96	16.73	
2025-01-08 09:00:13.82	107.93	16.74	
2025-01-08 09:00:14.03	107.90	16.76	
2025-01-08 09:00:14.23	107.88	16.78	
2025-01-08 09:00:14.43	107.85	16.80	
2025-01-08 09:00:14.64	107.83	16.82	
2025-01-08 09:00:14.85	107.80	16.84	
2025-01-08 09:00:15.05	107.77	16.86	
2025-01-08 09:00:15.27	107.74	16.88	
2025-01-08 09:00:15.47	107.72	16.90	
2025-01-08 09:00:15.68	107.69	16.92	
2025-01-08 09:00:15.89	107.66	16.94	
2025-01-08 09:00:16.09	107.64	16.96	
2025-01-08 09:00:16.31	107.61	16.98	
2025-01-08 09:00:16.52	107.58	17.00	
2025-01-08 09:00:16.72	107.56	17.02	
2025-01-08 09:00:16.93	107.53	17.04	
2025-01-08 09:00:17.14	107.50	17.06	
2025-01-08 09:00:17.34	107.47	17.08	
2025-01-08 09:00:17.55	107.45	17.10	
2025-01-08 09:00:17.75	107.42	17.12	
2025-01-08 09:00:17.96	107.39	17.14	
2025-01-08 09:00:18.16	107.37	17.16	
2025-01-08 09:00:18.37	107.34	17.18	
2025-01-08 09:00:18.57	107.31	17.20	
2025-01-08 09:00:18.78	107.28	17.22	
2025-01-08 09:00:18.98	107.26	17.24	
2025-01-08 09:00:19.19	107.23	17.26	
2025-01-08 09:00:19.39	107.20	17.27	
2025-01-08 09:00:19.60	107.17	17.29	
2025-01-08 09:00:19.80	107.15	17.31	
2025-01-08 09:00:20.01	107.12	17.33	
2025-01-08 09:00:20.21	107.09	17.35	
2025-01-08 09:00:20.42	107.06	17.37	
2025-01-08 09:00:20.62	107.04	17.39	
2025-01-08 09:00:20.83	107.01	17.41	
2025-01-08 09:00:21.03	106.98	17.43	
2025-01-08 09:00:21.24	106.95	17.45	
2025-01-08 09:00:21.45	106.93	17.47	
2025-01-08 09:00:21.65	106.90	17.49	
2025-01-08 09:00:21.86	106.87	17.51	
2025-01-08 09:00:22.06	106.84	17.53	
2025-01-08 09:00:22.27	106.82	17.55	
2025-01-08 09:00:22.47	106.79	17.57	
2025-01-08 09:00:22.67	106.76	17.59	
2025-01-08 09:00:22.88	106.73	17.61	
2025-01-08 09:00:23.09	106.70	17.63	
2025-01-08 09:00:23.29	106.68	17.65	
2025-01-08 09:00:23.50	106.65	17.67	
2025-01-08 09:00:23.70	106.62	17.69	
2025-01-08 09:00:23.91	106.59	17.71	
2025-01-08 09:00:24.11	106.56	17.73	
2025-01-08 09:00:24.32	106.53	17.75	
2025-01-08 09:00:24.52	106.51	17.77	
2025-01-08 09:00:24.73	106.48	17.79	
2025-01-08 09:00:24.93	106.45	17.81	
2025-01-08 09:00:25.14	106.42	17.83	
2025-01-08 09:00:25.34	106.39	17.85	
2025-01-08 09:00:25.55	106.36	17.87	
2025-01-08 09:00:25.75	106.34	17.89	
2025-01-08 09:00:25.96	106.31	17.91	
2025-01-08 09:00:26.16	106.28	17.93	
2025-01-08 09:00:26.37	106.25	17.95	
2025-01-08 09:00:26.57	106.22	17.97	
2025-01-08 09:00:26.78	106.19	17.99	
2025-01-08 09:00:26.99	106.16	18.01	
2025-01-08 09:00:27.19	106.14	18.03	
2025-01-08 09:00:27.40	106.11	18.05	
2025-01-08 09:00:27.60	106.08	18.07	
2025-01-08 09:00:27.81	106.05	18.09	
2025-01-08 09:00:28.01	106.02	18.11	
2025-01-08 09:00:28.22	105.99	18.13	
2025-01-08 09:00:28.42	105.96	18.15	
2025-01-08 09:00:28.63	105.93	18.17	
2025-01-08 09:00:28.84	105.90	18.19	
2025-01-08 09:00:29.04	105.88	18.21	
2025-01-08 09:00:29.24	105.85	18.23	
2025-01-08 09:00:29.45	105.82	18.25	
2025-01-08 09:00:29.65	105.79	18.27	
2025-01-08 09:00:29.86	105.76	18.29	
2025-01-08 09:00:30.07	105.73	18.31	
2025-01-08 09:00:30.28	105.70	18.33	
2025-01-08 09:00:30.49	105.67	18.35	
2025-01-08 09:00:30.69	105.64	18.37	
2025-01-08 09:00:30.90	105.61	18.39	
2025-01-08 09:00:31.11	105.58	18.41	
2025-01-08 09:00:31.31	105.55	18.43	
2025-01-08 09:00:31.51	105.52	18.45	
2025-01-08 09:00:31.72	105.49	18.47	
2025-01-08 09:00:31.92	105.46	18.49	
2025-01-08 09:00:32.13	105.43	18.51	
2025-01-08 09:00:32.33	105.40	18.53	
2025-01-08 09:00:32.54	105.37	18.55	
2025-01-08 09:00:32.74	105.34	18.57	
2025-01-08 09:00:32.95	105.31	18.59	
2025-01-08 09:00:33.16	105.28	18.61	
2025-01-08 09:00:33.36	105.25	18.63	
2025-01-08 09:00:33.57	105.22	18.65	
2025-01-08 09:00:33.77	105.19	18.67	
2025-01-08 09:00:33.98	105.16	18.69	
2025-01-08 09:00:34.19	105.13	18.71	
2025-01-08 09:00:34.39	105.10	18.73	
2025-01-08 09:00:34.59	105.07	18.75	
2025-01-08 09:00:34.80	105.04	18.77	
2025-01-08 09:00:35.01	105.01	18.80	
2025-01-08 09:00:35.21	104.98	18.82	
2025-01-08 09:00:35.42	104.95	18.84	
2025-01-08 09:00:35.62	104.92	18.86	
2025-01-08 09:00:35.83	104.89	18.88	
2025-01-08 09:00:36.04	104.86	18.90	
2025-01-08 09:00:36.24	104.83	18.92	
2025-01-08 09:00:36.45	104.80	18.94	
2025-01-08 09:00:36.65	104.77	18.96	
2025-01-08 09:00:36.86	104.74	18.98	
2025-01-08 09:00:37.06	104.71	19.00	
2025-01-08 09:00:37.27	104.68	19.02	
2025-01-08 09:00:37.48	104.64	19.04	
2025-01-08 09:00:37.68	104.61	19.06	
2025-01-08 09:00:37.89	104.58	19.08	
2025-01-08 09:00:38.09	104.55	19.10	
2025-01-08 09:00:38.30	104.52	19.12	
2025-01-08 09:00:38.50	104.49	19.14	
2025-01-08 09:00:38.71	104.46	19.16	
2025-01-08 09:00:38.91	104.43	19.18	
2025-01-08 09:00:39.12	104.40	19.20	
2025-01-08 09:00:39.32	104.37	19.22	
2025-01-08 09:00:39.53	104.33	19.24	
2025-01-08 09:00:39.73	104.30	19.26	
2025-01-08 09:00:39.94	104.27	19.29	
2025-01-08 09:00:40.14	104.24	19.31	
2025-01-08 09:00:40.35	104.21	19.33	
2025-01-08 09:00:40.56	104.18	19.35	
2025-01-08 09:00:40.76	104.15	19.37	
2025-01-08 09:00:40.96	104.12	19.39	
2025-01-08 09:00:41.17	104.08	19.41	
2025-01-08 09:00:41.38	104.05	19.43	
2025-01-08 09:00:41.58	104.02	19.45	
2025-01-08 09:00:41.79	103.99	19.47	
2025-01-08 09:00:41.99	103.96	19.49	
2025-01-08 09:00:42.20	103.92	19.51	
2025-01-08 09:00:42.40	103.89	19.53	
2025-01-08 09:00:42.61	103.86	19.55	
2025-01-08 09:00:42.82	103.83	19.57	
2025-01-08 09:00:43.02	103.80	19.59	
2025-01-08 09:00:43.22	103.77	19.61	
2025-01-08 09:00:43.43	103.73	19.64	
2025-01-08 09:00:43.64	103.70	19.66	
2025-01-08 09:00:43.84	103.67	19.68	
2025-01-08 09:00:44.04	103.64	19.70	
2025-01-08 09:00:44.25	103.61	19.72	
2025-01-08 09:00:44.46	103.57	19.74	
2025-01-08 09:00:44.67	103.54	19.76	
2025-01-08 09:00:44.87	103.51	19.78	
2025-01-08 09:00:45.08	103.47	19.80	
2025-01-08 09:00:45.28	103.44	19.82	
2025-01-08 09:00:45.49	103.41	19.84	
2025-01-08 09:00:45.69	103.38	19.86	
2025-01-08 09:00:45.90	103.34	19.88	
2025-01-08 09:00:46.10	103.31	19.90	
2025-01-08 09:00:46.31	103.28	19.93	
2025-01-08 09:00:46.51	103.25	19.95	
2025-01-08 09:00:46.72	103.21	19.97	
2025-01-08 09:00:46.92	103.18	19.99	
2025-01-08 09:00:47.13	103.15	20.01	
2025-01-08 09:00:47.33	103.12	20.03	
2025-01-08 09:00:47.54	103.08	20.05	
2025-01-08 09:00:47.74	103.05	20.07	
2025-01-08 09:00:47.95	103.02	20.09	
2025-01-08 09:00:48.16	102.98	20.11	
2025-01-08 09:00:48.36	102.95	20.13	
2025-01-08 09:00:48.57	102.92	20.15	
2025-01-08 09:00:48.77	102.89	20.17	
2025-01-08 09:00:48.98	102.85	20.20	
2025-01-08 09:00:49.18	102.82	20.22	
2025-01-08 09:00:49.39	102.78	20.24	
2025-01-08 09:00:49.59	102.75	20.26	
2025-01-08 09:00:49.80	102.72	20.28	
2025-01-08 09:00:50.01	102.68	20.30	
2025-01-08 09:00:50.21	102.65	20.32	
2025-01-08 09:00:50.42	102.62	20.34	
2025-01-08 09:00:50.62	102.58	20.36	
2025-01-08 09:00:50.83	102.55	20.38	
2025-01-08 09:00:51.03	102.52	20.40	
2025-01-08 09:00:51.24	102.48	20.43	
2025-01-08 09:00:51.45	102.45	20.45	
2025-01-08 09:00:51.65	102.42	20.47	
2025-01-08 09:00:51.85	102.38	20.49	
2025-01-08 09:00:52.06	102.35	20.51	
2025-01-08 09:00:52.27	102.31	20.53	
2025-01-08 09:00:52.47	102.28	20.55	
2025-01-08 09:00:52.69	102.24	20.57	
2025-01-08 09:00:52.90	102.21	20.59	
2025-01-08 09:00:53.10	102.17	20.62	
2025-01-08 09:00:53.31	102.14	20.64	
2025-01-08 09:00:53.51	102.11	20.66	
2025-01-08 09:00:53.72	102.07	20.68	
2025-01-08 09:00:53.92	102.04	20.70	
2025-01-08 09:00:54.13	102.00	20.72	
2025-01-08 09:00:54.33	101.97	20.74	
2025-01-08 09:00:54.54	101.93	20.76	
2025-01-08 09:00:54.74	101.90	20.78	
2025-01-08 09:00:54.95	101.87	20.80	
2025-01-08 09:00:55.15	101.83	20.83	
2025-01-08 09:00:55.36	101.80	20.85	
2025-01-08 09:00:55.56	101.76	20.87	
2025-01-08 09:00:55.76	101.73	20.89	
2025-01-08 09:00:55.97	101.69	20.91	
2025-01-08 09:00:56.18	101.66	20.93	
2025-01-08 09:00:56.38	101.62	20.95	
2025-01-08 09:00:56.59	101.59	20.97	
2025-01-08 09:00:56.79	101.55	20.99	
2025-01-08 09:00:57.00	101.52	21.01	
2025-01-08 09:00:57.20	101.48	21.04	
2025-01-08 09:00:57.40	101.45	21.06	
2025-01-08 09:00:57.61	101.41	21.08	
2025-01-08 09:00:57.82	101.38	21.10	
2025-01-08 09:00:58.02	101.34	21.12	
2025-01-08 09:00:58.22	101.31	21.14	
2025-01-08 09:00:58.43	101.27	21.16	
2025-01-08 09:00:58.63	101.24	21.18	
2025-01-08 09:00:58.84	101.20	21.20	
2025-01-08 09:00:59.04	101.17	21.22	
2025-01-08 09:00:59.25	101.13	21.25	
2025-01-08 09:00:59.45	101.10	21.27	
2025-01-08 09:00:59.66	101.06	21.29	
2025-01-08 09:00:59.86	101.02	21.31	
2025-01-08 09:01:00.07	100.99	21.33	
2025-01-08 09:01:00.27	100.95	21.35	
2025-01-08 09:01:00.48	100.92	21.37	
2025-01-08 09:01:00.68	100.88	21.39	
2025-01-08 09:01:00.89	100.84	21.42	
2025-01-08 09:01:01.09	100.81	21.44	
2025-01-08 09:01:01.30	100.77	21.46	
2025-01-08 09:01:01.50	100.74	21.48	
2025-01-08 09:01:01.71	100.70	21.50	
2025-01-08 09:01:01.92	100.66	21.52	
2025-01-08 09:01:02.12	100.63	21.54	
2025-01-08 09:01:02.32	100.59	21.56	
2025-01-08 09:01:02.53	100.55	21.59	
2025-01-08 09:01:02.74	100.52	21.61	
2025-01-08 09:01:02.94	100.48	21.63	
2025-01-08 09:01:03.15	100.44	21.65	
2025-01-08 09:01:03.35	100.41	21.67	
2025-01-08 09:01:03.55	100.37	21.69	
2025-01-08 09:01:03.76	100.34	21.71	
2025-01-08 09:01:03.97	100.30	21.73	
2025-01-08 09:01:04.17	100.26	21.76	
2025-01-08 09:01:04.38	100.22	21.78	
2025-01-08 09:01:04.58	100.19	21.80	
2025-01-08 09:01:04.79	100.15	21.82	
2025-01-08 09:01:04.99	100.11	21.84	
2025-01-08 09:01:05.20	100.08	21.86	
2025-01-08 09:01:05.41	100.04	21.88	
2025-01-08 09:01:05.62	100.00	21.91	
2025-01-08 09:01:05.82	99.96	21.93	
2025-01-08 09:01:06.03	99.93	21.95	
2025-01-08 09:01:06.24	99.89	21.97	
2025-01-08 09:01:06.44	99.85	21.99	
2025-01-08 09:01:06.65	99.81	22.01	
2025-01-08 09:01:06.85	99.78	22.03	
2025-01-08 09:01:07.06	99.74	22.06	
2025-01-08 09:01:07.26	99.70	22.08	
2025-01-08 09:01:07.47	99.66	22.10	
2025-01-08 09:01:07.67	99.63	22.12	
2025-01-08 09:01:07.88	99.59	22.14	
2025-01-08 09:01:08.09	99.55	22.16	
2025-01-08 09:01:08.29	99.51	22.18	
2025-01-08 09:01:08.50	99.47	22.21	
2025-01-08 09:01:08.70	99.44	22.23	
2025-01-08 09:01:08.91	99.40	22.25	
2025-01-08 09:01:09.11	99.36	22.27	
2025-01-08 09:01:09.32	99.32	22.29	
2025-01-08 09:01:09.53	99.28	22.31	
2025-01-08 09:01:09.73	99.25	22.33	
2025-01-08 09:01:09.94	99.21	22.36	
2025-01-08 09:01:10.14	99.17	22.38	
2025-01-08 09:01:10.35	99.13	22.40	
2025-01-08 09:01:10.55	99.09	22.42	
2025-01-08 09:01:10.75	99.06	22.44	
2025-01-08 09:01:10.96	99.02	22.46	
2025-01-08 09:01:11.17	98.98	22.48	
2025-01-08 09:01:11.37	98.94	22.51	
2025-01-08 09:01:11.58	98.90	22.53	
2025-01-08 09:01:11.78	98.86	22.55	
2025-01-08 09:01:11.99	98.82	22.57	
2025-01-08 09:01:12.19	98.78	22.59	
2025-01-08 09:01:12.40	98.74	22.61	
2025-01-08 09:01:12.61	98.70	22.64	
2025-01-08 09:01:12.81	98.67	22.66	
2025-01-08 09:01:13.01	98.63	22.68	
2025-01-08 09:01:13.22	98.59	22.70	
2025-01-08 09:01:13.42	98.55	22.72	
2025-01-08 09:01:13.63	98.51	22.74	
2025-01-08 09:01:13.83	98.47	22.76	
2025-01-08 09:01:14.04	98.43	22.78	
2025-01-08 09:01:14.25	98.39	22.81	
2025-01-08 09:01:14.45	98.35	22.83	
2025-01-08 09:01:14.66	98.31	22.85	
2025-01-08 09:01:14.86	98.27	22.87	
2025-01-08 09:01:15.07	98.23	22.89	
2025-01-08 09:01:15.27	98.19	22.91	
2025-01-08 09:01:15.47	98.16	22.93	
2025-01-08 09:01:15.68	98.11	22.96	
2025-01-08 09:01:15.88	98.08	22.98	
2025-01-08 09:01:16.09	98.04	23.00	
2025-01-08 09:01:16.29	98.00	23.02	
2025-01-08 09:01:16.50	97.96	23.04	
2025-01-08 09:01:16.70	97.92	23.06	
2025-01-08 09:01:16.91	97.88	23.09	
2025-01-08 09:01:17.12	97.83	23.11	
2025-01-08 09:01:17.32	97.80	23.13	
2025-01-08 09:01:17.53	97.75	23.15	
2025-01-08 09:01:17.73	97.71	23.17	
2025-01-08 09:01:17.94	97.67	23.19	
2025-01-08 09:01:18.14	97.63	23.21	
2025-01-08 09:01:18.35	97.59	23.24	
2025-01-08 09:01:18.55	97.55	23.26	
2025-01-08 09:01:18.76	97.51	23.28	
2025-01-08 09:01:18.97	97.47	23.30	
2025-01-08 09:01:19.17	97.43	23.32	
2025-01-08 09:01:19.38	97.39	23.35	
2025-01-08 09:01:19.58	97.35	23.37	
2025-01-08 09:01:19.79	97.31	23.39	
2025-01-08 09:01:19.99	97.27	23.41	
2025-01-08 09:01:20.20	97.22	23.43	
2025-01-08 09:01:20.40	97.18	23.45	
2025-01-08 09:01:20.61	97.14	23.47	
2025-01-08 09:01:20.82	97.10	23.50	
2025-01-08 09:01:21.02	97.06	23.52	
2025-01-08 09:01:21.23	97.02	23.54	
2025-01-08 09:01:21.43	96.98	23.56	
2025-01-08 09:01:21.64	96.94	23.58	
2025-01-08 09:01:21.84	96.90	23.60	
2025-01-08 09:01:22.05	96.85	23.63	
2025-01-08 09:01:22.25	96.81	23.65	
2025-01-08 09:01:22.46	96.77	23.67	
2025-01-08 09:01:22.66	96.73	23.69	
2025-01-08 09:01:22.87	96.69	23.71	
2025-01-08 09:01:23.08	96.64	23.73	
2025-01-08 09:01:23.28	96.60	23.76	
2025-01-08 09:01:23.49	96.56	23.78	
2025-01-08 09:01:23.69	96.52	23.80	
2025-01-08 09:01:23.90	96.48	23.82	
2025-01-08 09:01:24.10	96.43	23.84	
2025-01-08 09:01:24.31	96.39	23.86	
2025-01-08 09:01:24.52	96.35	23.89	
2025-01-08 09:01:24.72	96.31	23.91	
2025-01-08 09:01:24.93	96.26	23.93	
2025-01-08 09:01:25.13	96.22	23.95	
2025-01-08 09:01:25.34	96.18	23.97	
2025-01-08 09:01:25.54	96.14	23.99	
2025-01-08 09:01:25.75	96.09	24.02	
2025-01-08 09:01:25.96	96.05	24.04	
2025-01-08 09:01:26.16	96.01	24.06	
2025-01-08 09:01:26.37	95.97	24.08	
2025-01-08 09:01:26.57	95.92	24.10	
2025-01-08 09:01:26.78	95.88	24.12	
2025-01-08 09:01:26.99	95.84	24.15	
2025-01-08 09:01:27.20	95.79	24.17	
2025-01-08 09:01:27.40	95.75	24.19	
2025-01-08 09:01:27.61	95.71	24.21	
2025-01-08 09:01:27.81	95.66	24.23	
2025-01-08 09:01:28.02	95.62	24.25	
2025-01-08 09:01:28.22	95.58	24.28	
2025-01-08 09:01:28.43	95.53	24.30	
2025-01-08 09:01:28.63	95.49	24.32	
2025-01-08 09:01:28.84	95.45	24.34	
2025-01-08 09:01:29.04	95.40	24.36	
2025-01-08 09:01:29.25	95.36	24.38	
2025-01-08 09:01:29.46	95.31	24.41	
2025-01-08 09:01:29.66	95.27	24.43	
2025-01-08 09:01:29.87	95.23	24.45	
2025-01-08 09:01:30.07	95.18	24.47	
2025-01-08 09:01:30.28	95.14	24.49	
2025-01-08 09:01:30.48	95.10	24.51	
2025-01-08 09:01:30.69	95.05	24.54	
2025-01-08 09:01:30.90	95.01	24.56	
2025-01-08 09:01:31.10	94.96	24.58	
2025-01-08 09:01:31.31	94.92	24.60	
2025-01-08 09:01:31.51	94.87	24.62	
2025-01-08 09:01:31.72	94.83	24.64	
2025-01-08 09:01:31.92	94.79	24.67	
2025-01-08 09:01:32.13	94.74	24.69	
2025-01-08 09:01:32.33	94.70	24.71	
2025-01-08 09:01:32.54	94.65	24.73	
2025-01-08 09:01:32.74	94.61	24.75	
2025-01-08 09:01:32.95	94.56	24.77	
2025-01-08 09:01:33.16	94.52	24.80	
2025-01-08 09:01:33.37	94.47	24.82	
2025-01-08 09:01:33.58	94.42	24.84	
2025-01-08 09:01:33.79	94.38	24.86	
2025-01-08 09:01:33.99	94.33	24.88	
2025-01-08 09:01:34.20	94.29	24.91	
2025-01-08 09:01:34.40	94.24	24.93	
2025-01-08 09:01:34.61	94.20	24.95	
2025-01-08 09:01:34.81	94.15	24.97	
2025-01-08 09:01:35.02	94.11	24.99	
2025-01-08 09:01:35.22	94.06	25.01	
2025-01-08 09:01:35.43	94.02	25.03	
2025-01-08 09:01:35.63	93.97	25.06	
2025-01-08 09:01:35.84	93.93	25.08	
2025-01-08 09:01:36.04	93.88	25.10	
2025-01-08 09:01:36.25	93.84	25.12	
2025-01-08 09:01:36.45	93.79	25.14	
2025-01-08 09:01:36.66	93.74	25.16	
2025-01-08 09:01:36.86	93.70	25.19	
2025-01-08 09:01:37.07	93.65	25.21	
2025-01-08 09:01:37.27	93.61	25.23	
2025-01-08 09:01:37.48	93.56	25.25	
2025-01-08 09:01:37.68	93.51	25.27	
2025-01-08 09:01:37.89	93.47	25.29	
2025-01-08 09:01:38.10	93.42	25.32	
2025-01-08 09:01:38.30	93.38	25.34	
2025-01-08 09:01:38.50	93.33	25.36	
2025-01-08 09:01:38.71	93.28	25.38	
2025-01-08 09:01:38.92	93.23	25.40	
2025-01-08 09:01:39.12	93.19	25.42	
2025-01-08 09:01:39.33	93.14	25.44	
2025-01-08 09:01:39.53	93.10	25.47	
2025-01-08 09:01:39.74	93.05	25.49	
2025-01-08 09:01:39.94	93.00	25.51	
2025-01-08 09:01:40.15	92.95	25.53	
2025-01-08 09:01:40.35	92.91	25.55	
2025-01-08 09:01:40.56	92.86	25.57	
2025-01-08 09:01:40.76	92.81	25.59	
2025-01-08 09:01:40.97	92.77	25.62	
2025-01-08 09:01:41.17	92.72	25.64	
2025-01-08 09:01:41.38	92.67	25.66	
2025-01-08 09:01:41.59	92.62	25.68	
2025-01-08 09:01:41.79	92.58	25.70	
2025-01-08 09:01:42.00	92.53	25.72	
2025-01-08 09:01:42.21	92.48	25.75	
2025-01-08 09:01:42.41	92.43	25.77	
2025-01-08 09:01:42.62	92.39	25.79	
2025-01-08 09:01:42.82	92.34	25.81	
2025-01-08 09:01:43.03	92.29	25.83	
2025-01-08 09:01:43.23	92.24	25.85	
2025-01-08 09:01:43.44	92.19	25.87	
2025-01-08 09:01:43.64	92.15	25.90	
2025-01-08 09:01:43.85	92.10	25.92	
2025-01-08 09:01:44.05	92.05	25.94	
2025-01-08 09:01:44.26	92.00	25.96	
2025-01-08 09:01:44.46	91.95	25.98	
2025-01-08 09:01:44.67	91.91	26.00	
2025-01-08 09:01:44.88	91.86	26.03	
2025-01-08 09:01:45.08	91.81	26.05	
2025-01-08 09:01:45.29	91.76	26.07	
2025-01-08 09:01:45.49	91.71	26.09	
2025-01-08 09:01:45.70	91.66	26.11	
2025-01-08 09:01:45.91	91.61	26.13	
2025-01-08 09:01:46.11	91.56	26.15	
2025-01-08 09:01:46.31	91.52	26.17	
2025-01-08 09:01:46.52	91.47	26.20	
2025-01-08 09:01:46.73	91.42	26.22	
2025-01-08 09:01:46.93	91.37	26.24	
2025-01-08 09:01:47.14	91.32	26.26	
2025-01-08 09:01:47.34	91.27	26.28	
2025-01-08 09:01:47.55	91.22	26.30	
2025-01-08 09:01:47.75	91.17	26.32	
2025-01-08 09:01:47.96	91.12	26.35	
2025-01-08 09:01:48.16	91.07	26.37	
2025-01-08 09:01:48.37	91.02	26.39	
2025-01-08 09:01:48.57	90.97	26.41	
2025-01-08 09:01:48.78	90.92	26.43	
2025-01-08 09:01:48.98	90.87	26.45	
2025-01-08 09:01:49.19	90.82	26.47	
2025-01-08 09:01:49.39	90.78	26.49	
2025-01-08 09:01:49.60	90.72	26.52	
2025-01-08 09:01:49.80	90.68	26.54	
2025-01-08 09:01:50.01	90.62	26.56	
2025-01-08 09:01:50.21	90.58	26.58	
2025-01-08 09:01:50.42	90.52	26.60	
2025-01-08 09:01:50.62	90.48	26.62	
2025-01-08 09:01:50.83	90.42	26.64	
2025-01-08 09:01:51.04	90.37	26.66	
2025-01-08 09:01:51.24	90.32	26.69	
2025-01-08 09:01:51.45	90.27	26.71	
2025-01-08 09:01:51.65	90.22	26.73	
2025-01-08 09:01:51.86	90.17	26.75	
2025-01-08 09:01:52.06	90.12	26.77	
2025-01-08 09:01:52.27	90.07	26.79	
2025-01-08 09:01:52.47	90.02	26.81	
2025-01-08 09:01:52.68	89.97	26.83	
2025-01-08 09:01:52.88	89.92	26.85	
2025-01-08 09:01:53.09	89.86	26.88	
2025-01-08 09:01:53.29	89.81	26.90	
2025-01-08 09:01:53.50	89.76	26.92	
2025-01-08 09:01:53.70	89.71	26.94	
2025-01-08 09:01:53.91	89.66	26.96	
2025-01-08 09:01:54.12	89.61	26.98	
2025-01-08 09:01:54.32	89.56	27.00	
2025-01-08 09:01:54.53	89.50	27.02	
2025-01-08 09:01:54.73	89.45	27.04	
2025-01-08 09:01:54.94	89.40	27.07	
2025-01-08 09:01:55.15	89.35	27.09	
2025-01-08 09:01:55.35	89.30	27.11	
2025-01-08 09:01:55.56	89.24	27.13	
2025-01-08 09:01:55.76	89.19	27.15	
2025-01-08 09:01:55.97	89.14	27.17	
2025-01-08 09:01:56.17	89.09	27.19	
2025-01-08 09:01:56.38	89.04	27.21	
2025-01-08 09:01:56.58	88.99	27.23	
2025-01-08 09:01:56.79	88.93	27.26	
2025-01-08 09:01:56.99	88.88	27.28	
2025-01-08 09:01:57.20	88.83	27.30	
2025-01-08 09:01:57.40	88.78	27.32	
2025-01-08 09:01:57.61	88.72	27.34	
2025-01-08 09:01:57.81	88.67	27.36	
2025-01-08 09:01:58.02	88.62	27.38	
2025-01-08 09:01:58.23	88.56	27.40	
2025-01-08 09:01:58.43	88.51	27.42	
2025-01-08 09:01:58.64	88.46	27.44	
2025-01-08 09:01:58.84	88.41	27.46	
2025-01-08 09:01:59.05	88.35	27.49	
2025-01-08 09:01:59.25	88.30	27.51	
2025-01-08 09:01:59.46	88.25	27.53	
2025-01-08 09:01:59.67	88.19	27.55	
2025-01-08 09:01:59.87	88.14	27.57	
2025-01-08 09:02:00.09	88.08	27.59	
2025-01-08 09:02:00.29	88.03	27.61	
2025-01-08 09:02:00.50	87.97	27.63	
2025-01-08 09:02:00.70	87.92	27.65	
2025-01-08 09:02:00.91	87.87	27.67	
2025-01-08 09:02:01.11	87.81	27.69	
2025-01-08 09:02:01.32	87.76	27.72	
2025-01-08 09:02:01.52	87.71	27.74	
2025-01-08 09:02:01.73	87.65	27.76	
2025-01-08 09:02:01.94	87.60	27.78	
2025-01-08 09:02:02.15	87.54	27.80	
2025-01-08 09:02:02.36	87.49	27.82	
2025-01-08 09:02:02.57	87.43	27.84	
2025-01-08 09:02:02.77	87.38	27.86	
2025-01-08 09:02:02.98	87.32	27.88	
2025-01-08 09:02:03.20	87.26	27.90	
2025-01-08 09:02:03.40	87.21	27.92	
2025-01-08 09:02:03.61	87.15	27.95	
2025-01-08 09:02:03.81	87.10	27.97	
2025-01-08 09:02:04.02	87.04	27.99	
2025-01-08 09:02:04.22	86.99	28.01	
2025-01-08 09:02:04.43	86.93	28.03	
2025-01-08 09:02:04.63	86.88	28.05	
2025-01-08 09:02:04.84	86.82	28.07	
2025-01-08 09:02:05.04	86.77	28.09	
2025-01-08 09:02:05.25	86.71	28.11	
2025-01-08 09:02:05.45	86.66	28.13	
2025-01-08 09:02:05.66	86.60	28.15	
2025-01-08 09:02:05.87	86.55	28.17	
2025-01-08 09:02:06.07	86.49	28.19	
2025-01-08 09:02:06.28	86.44	28.21	
2025-01-08 09:02:06.50	86.38	28.23	
2025-01-08 09:02:06.70	86.32	28.25	
2025-01-08 09:02:06.91	86.27	28.27	
2025-01-08 09:02:07.11	86.21	28.29	
2025-01-08 09:02:07.32	86.15	28.31	
2025-01-08 09:02:07.54	86.09	28.34	
2025-01-08 09:02:07.74	86.04	28.36	
2025-01-08 09:02:07.95	85.98	28.38	
2025-01-08 09:02:08.15	85.93	28.40	
2025-01-08 09:02:08.36	85.87	28.42	
2025-01-08 09:02:08.56	85.81	28.44	
2025-01-08 09:02:08.76	85.76	28.46	
2025-01-08 09:02:08.97	85.70	28.48	
2025-01-08 09:02:09.18	85.64	28.50	
2025-01-08 09:02:09.38	85.59	28.52	
2025-01-08 09:02:09.59	85.53	28.54	
2025-01-08 09:02:09.79	85.48	28.56	
2025-01-08 09:02:10.00	85.42	28.58	
2025-01-08 09:02:10.20	85.36	28.60	
2025-01-08 09:02:10.41	85.30	28.62	
2025-01-08 09:02:10.61	85.25	28.64	
2025-01-08 09:02:10.82	85.19	28.66	
2025-01-08 09:02:11.02	85.13	28.68	
2025-01-08 09:02:11.23	85.07	28.70	
2025-01-08 09:02:11.43	85.02	28.72	
2025-01-08 09:02:11.64	84.96	28.74	
2025-01-08 09:02:11.84	84.90	28.76	
2025-01-08 09:02:12.05	84.85	28.78	
2025-01-08 09:02:12.26	84.79	28.80	
2025-01-08 09:02:12.46	84.73	28.82	
2025-01-08 09:02:12.67	84.67	28.84	
2025-01-08 09:02:12.87	84.61	28.86	
2025-01-08 09:02:13.08	84.56	28.88	
2025-01-08 09:02:13.28	84.50	28.90	
2025-01-08 09:02:13.49	84.44	28.92	
2025-01-08 09:02:13.69	84.38	28.94	
2025-01-08 09:02:13.89	84.33	28.95	
2025-01-08 09:02:14.10	84.27	28.97	
2025-01-08 09:02:14.31	84.21	28.99	
2025-01-08 09:02:14.52	84.15	29.01	
2025-01-08 09:02:14.72	84.09	29.03	
2025-01-08 09:02:14.92	84.03	29.05	
2025-01-08 09:02:15.13	83.97	29.07	
2025-01-08 09:02:15.34	83.91	29.09	
2025-01-08 09:02:15.54	83.86	29.11	
2025-01-08 09:02:15.75	83.80	29.13	
2025-01-08 09:02:15.95	83.74	29.15	
2025-01-08 09:02:16.16	83.68	29.17	
2025-01-08 09:02:16.36	83.62	29.19	
2025-01-08 09:02:16.57	83.56	29.21	
2025-01-08 09:02:16.78	83.50	29.23	
2025-01-08 09:02:16.98	83.44	29.25	
2025-01-08 09:02:17.20	83.38	29.27	
2025-01-08 09:02:17.40	83.32	29.29	
2025-01-08 09:02:17.61	83.26	29.31	
2025-01-08 09:02:17.82	83.20	29.33	
2025-01-08 09:02:18.02	83.14	29.35	
2025-01-08 09:02:18.22	83.08	29.37	
2025-01-08 09:02:18.43	83.02	29.39	
2025-01-08 09:02:18.64	82.96	29.41	
2025-01-08 09:02:18.84	82.90	29.42	
2025-01-08 09:02:19.05	82.84	29.44	
2025-01-08 09:02:19.25	82.78	29.46	
2025-01-08 09:02:19.45	82.72	29.48	
2025-01-08 09:02:19.66	82.66	29.50	
2025-01-08 09:02:19.87	82.60	29.52	
2025-01-08 09:02:20.07	82.54	29.54	
2025-01-08 09:02:20.27	82.48	29.56	
2025-01-08 09:02:20.48	82.42	29.58	
2025-01-08 09:02:20.68	82.36	29.60	
2025-01-08 09:02:20.89	82.30	29.61	
2025-01-08 09:02:21.10	82.24	29.63	
2025-01-08 09:02:21.30	82.18	29.65	
2025-01-08 09:02:21.51	82.11	29.67	
2025-01-08 09:02:21.71	82.05	29.69	
2025-01-08 09:02:21.92	81.99	29.71	
2025-01-08 09:02:22.12	81.93	29.73	
2025-01-08 09:02:22.33	81.87	29.75	
2025-01-08 09:02:22.53	81.81	29.77	
2025-01-08 09:02:22.73	81.75	29.78	
2025-01-08 09:02:22.94	81.69	29.80	
2025-01-08 09:02:23.15	81.62	29.82	
2025-01-08 09:02:23.35	81.56	29.84	
2025-01-08 09:02:23.57	81.50	29.86	
2025-01-08 09:02:23.78	81.44	29.88	
2025-01-08 09:02:23.98	81.38	29.90	
2025-01-08 09:02:24.19	81.31	29.92	
2025-01-08 09:02:24.39	81.25	29.94	
2025-01-08 09:02:24.60	81.19	29.95	
2025-01-08 09:02:24.80	81.13	29.97	
2025-01-08 09:02:25.01	81.06	29.99	
2025-01-08 09:02:25.21	81.00	30.01	
2025-01-08 09:02:25.42	80.94	30.03	
2025-01-08 09:02:25.62	80.88	30.05	
2025-01-08 09:02:25.83	80.82	30.06	
2025-01-08 09:02:26.03	80.76	30.08	
2025-01-08 09:02:26.24	80.69	30.10	
2025-01-08 09:02:26.45	80.63	30.12	
2025-01-08 09:02:26.65	80.57	30.14	
2025-01-08 09:02:26.86	80.50	30.16	
2025-01-08 09:02:27.06	80.44	30.17	
2025-01-08 09:02:27.27	80.38	30.19	
2025-01-08 09:02:27.47	80.31	30.21	
2025-01-08 09:02:27.68	80.25	30.23	
2025-01-08 09:02:27.88	80.19	30.25	
2025-01-08 09:02:28.09	80.12	30.27	
2025-01-08 09:02:28.29	80.06	30.28	
2025-01-08 09:02:28.50	80.00	30.30	
2025-01-08 09:02:28.70	79.94	30.32	
2025-01-08 09:02:28.91	79.87	30.34	
2025-01-08 09:02:29.11	79.81	30.36	
2025-01-08 09:02:29.32	79.74	30.37	
2025-01-08 09:02:29.52	79.68	30.39	
2025-01-08 09:02:29.73	79.62	30.41	
2025-01-08 09:02:29.93	79.55	30.43	
2025-01-08 09:02:30.14	79.49	30.45	
2025-01-08 09:02:30.34	79.43	30.46	
2025-01-08 09:02:30.55	79.36	30.48	
2025-01-08 09:02:30.76	79.30	30.50	
2025-01-08 09:02:30.96	79.23	30.52	
2025-01-08 09:02:31.17	79.17	30.53	
2025-01-08 09:02:31.37	79.11	30.55	
2025-01-08 09:02:31.58	79.04	30.57	
2025-01-08 09:02:31.79	78.97	30.59	
2025-01-08 09:02:31.99	78.91	30.60	
2025-01-08 09:02:32.19	78.85	30.62	
2025-01-08 09:02:32.40	78.78	30.64	
2025-01-08 09:02:32.60	78.72	30.66	
2025-01-08 09:02:32.81	78.65	30.67	
2025-01-08 09:02:33.02	78.59	30.69	
2025-01-08 09:02:33.22	78.52	30.71	
2025-01-08 09:02:33.42	78.46	30.73	
2025-01-08 09:02:33.63	78.39	30.74	
2025-01-08 09:02:33.83	78.33	30.76	
2025-01-08 09:02:34.04	78.26	30.78	
2025-01-08 09:02:34.24	78.20	30.79	
2025-01-08 09:02:34.45	78.13	30.81	
2025-01-08 09:02:34.66	78.06	30.83	
2025-01-08 09:02:34.86	78.00	30.85	
2025-01-08 09:02:35.07	77.93	30.86	
2025-01-08 09:02:35.27	77.87	30.88	
2025-01-08 09:02:35.48	77.80	30.90	
2025-01-08 09:02:35.68	77.74	30.91	
2025-01-08 09:02:35.89	77.67	30.93	
2025-01-08 09:02:36.09	77.61	30.95	
2025-01-08 09:02:36.30	77.54	30.97	
2025-01-08 09:02:36.50	77.48	30.98	
2025-01-08 09:02:36.71	77.41	31.00	
2025-01-08 09:02:36.91	77.34	31.02	
2025-01-08 09:02:37.12	77.28	31.03	
2025-01-08 09:02:37.32	77.21	31.05	
2025-01-08 09:02:37.53	77.14	31.07	
2025-01-08 09:02:37.73	77.08	31.08	
2025-01-08 09:02:37.94	77.01	31.10	
2025-01-08 09:02:38.14	76.95	31.12	
2025-01-08 09:02:38.35	76.88	31.13	
2025-01-08 09:02:38.55	76.81	31.15	
2025-01-08 09:02:38.76	76.74	31.17	
2025-01-08 09:02:38.96	76.68	31.18	
2025-01-08 09:02:39.17	76.61	31.20	
2025-01-08 09:02:39.38	76.54	31.21	
2025-01-08 09:02:39.58	76.48	31.23	
2025-01-08 09:02:39.79	76.41	31.25	
2025-01-08 09:02:39.99	76.34	31.26	
2025-01-08 09:02:40.20	76.27	31.28	
2025-01-08 09:02:40.40	76.21	31.30	
2025-01-08 09:02:40.60	76.14	31.31	
2025-01-08 09:02:40.81	76.07	31.33	
2025-01-08 09:02:41.01	76.01	31.34	
2025-01-08 09:02:41.22	75.94	31.36	
2025-01-08 09:02:41.43	75.87	31.38	
2025-01-08 09:02:41.63	75.80	31.39	
2025-01-08 09:02:41.84	75.73	31.41	
2025-01-08 09:02:42.04	75.67	31.42	
2025-01-08 09:02:42.25	75.60	31.44	
2025-01-08 09:02:42.46	75.53	31.46	
2025-01-08 09:02:42.67	75.46	31.47	
2025-01-08 09:02:42.88	75.39	31.49	
2025-01-08 09:02:43.08	75.32	31.50	
2025-01-08 09:02:43.29	75.25	31.52	
2025-01-08 09:02:43.49	75.19	31.54	
2025-01-08 09:02:43.70	75.12	31.55	
2025-01-08 09:02:43.90	75.05	31.57	
2025-01-08 09:02:44.11	74.98	31.58	
2025-01-08 09:02:44.31	74.91	31.60	
2025-01-08 09:02:44.52	74.84	31.61	
2025-01-08 09:02:44.72	74.77	31.63	
2025-01-08 09:02:44.94	74.70	31.64	
2025-01-08 09:02:45.15	74.63	31.66	
2025-01-08 09:02:45.35	74.56	31.68	
2025-01-08 09:02:45.56	74.49	31.69	
2025-01-08 09:02:45.76	74.43	31.71	
2025-01-08 09:02:45.97	74.35	31.72	
2025-01-08 09:02:46.17	74.29	31.74	
2025-01-08 09:02:46.38	74.22	31.75	
2025-01-08 09:02:46.58	74.15	31.77	
2025-01-08 09:02:46.79	74.08	31.78	
2025-01-08 09:02:47.00	74.01	31.80	
2025-01-08 09:02:47.20	73.94	31.81	
2025-01-08 09:02:47.40	73.87	31.83	
2025-01-08 09:02:47.61	73.80	31.84	
2025-01-08 09:02:47.82	73.73	31.86	
2025-01-08 09:02:48.02	73.66	31.87	
2025-01-08 09:02:48.23	73.59	31.89	
2025-01-08 09:02:48.43	73.52	31.90	
2025-01-08 09:02:48.64	73.45	31.92	
2025-01-08 09:02:48.84	73.38	31.93	
2025-01-08 09:02:49.05	73.31	31.94	
2025-01-08 09:02:49.25	73.24	31.96	
2025-01-08 09:02:49.46	73.17	31.97	
2025-01-08 09:02:49.66	73.10	31.99	
2025-01-08 09:02:49.87	73.03	32.00	
2025-01-08 09:02:50.07	72.96	32.02	
2025-01-08 09:02:50.27	72.89	32.03	
2025-01-08 09:02:50.48	72.82	32.04	
2025-01-08 09:02:50.68	72.75	32.06	
2025-01-08 09:02:50.89	72.68	32.07	
2025-01-08 09:02:51.09	72.61	32.09	
2025-01-08 09:02:51.30	72.54	32.10	
2025-01-08 09:02:51.50	72.47	32.11	
2025-01-08 09:02:51.71	72.40	32.13	
2025-01-08 09:02:51.92	72.32	32.14	
2025-01-08 09:02:52.12	72.25	32.16	
2025-01-08 09:02:52.33	72.18	32.17	
2025-01-08 09:02:52.53	72.11	32.18	
2025-01-08 09:02:52.73	72.04	32.20	
2025-01-08 09:02:52.94	71.97	32.21	
2025-01-08 09:02:53.15	71.90	32.23	
2025-01-08 09:02:53.35	71.83	32.24	
2025-01-08 09:02:53.56	71.75	32.25	
2025-01-08 09:02:53.76	71.68	32.27	
2025-01-08 09:02:53.97	71.61	32.28	
2025-01-08 09:02:54.18	71.54	32.29	
2025-01-08 09:02:54.38	71.47	32.31	
2025-01-08 09:02:54.58	71.40	32.32	
2025-01-08 09:02:54.79	71.32	32.33	
2025-01-08 09:02:55.00	71.25	32.35	
2025-01-08 09:02:55.20	71.18	32.36	
2025-01-08 09:02:55.41	71.11	32.37	
2025-01-08 09:02:55.61	71.04	32.39	
2025-01-08 09:02:55.82	70.96	32.40	
2025-01-08 09:02:56.02	70.89	32.41	
2025-01-08 09:02:56.23	70.82	32.43	
2025-01-08 09:02:56.43	70.75	32.44	
2025-01-08 09:02:56.64	70.67	32.45	
2025-01-08 09:02:56.84	70.60	32.47	
2025-01-08 09:02:57.05	70.53	32.48	
2025-01-08 09:02:57.26	70.46	32.49	
2025-01-08 09:02:57.46	70.38	32.50	
2025-01-08 09:02:57.67	70.31	32.52	
2025-01-08 09:02:57.87	70.24	32.53	
2025-01-08 09:02:58.08	70.17	32.54	
2025-01-08 09:02:58.28	70.09	32.55	
2025-01-08 09:02:58.49	70.02	32.57	
2025-01-08 09:02:58.69	69.95	32.58	
2025-01-08 09:02:58.90	69.87	32.59	
2025-01-08 09:02:59.10	69.80	32.60	
2025-01-08 09:02:59.31	69.73	32.62	
2025-01-08 09:02:59.52	69.65	32.63	
2025-01-08 09:02:59.72	69.58	32.64	
2025-01-08 09:02:59.93	69.51	32.65	
2025-01-08 09:03:00.13	69.44	32.67	
2025-01-08 09:03:00.33	69.36	32.68	
2025-01-08 09:03:00.54	69.29	32.69	
2025-01-08 09:03:00.75	69.21	32.70	
2025-01-08 09:03:00.95	69.14	32.71	
2025-01-08 09:03:01.15	69.07	32.73	
2025-01-08 09:03:01.36	69.00	32.74	
2025-01-08 09:03:01.57	68.92	32.75	
2025-01-08 09:03:01.77	68.85	32.76	
2025-01-08 09:03:01.98	68.77	32.77	
2025-01-08 09:03:02.18	68.70	32.78	
2025-01-08 09:03:02.39	68.62	32.80	
2025-01-08 09:03:02.60	68.55	32.81	
2025-01-08 09:03:02.80	68.48	32.82	
2025-01-08 09:03:03.01	68.40	32.83	
2025-01-08 09:03:03.23	68.32	32.84	
2025-01-08 09:03:03.43	68.25	32.85	
2025-01-08 09:03:03.64	68.17	32.87	
2025-01-08 09:03:03.84	68.10	32.88	
2025-01-08 09:03:04.05	68.03	32.89	
2025-01-08 09:03:04.25	67.95	32.90	
2025-01-08 09:03:04.46	67.88	32.91	
2025-01-08 09:03:04.67	67.80	32.92	
2025-01-08 09:03:04.87	67.73	32.93	
2025-01-08 09:03:05.08	67.65	32.94	
2025-01-08 09:03:05.28	67.58	32.95	
2025-01-08 09:03:05.49	67.50	32.97	
2025-01-08 09:03:05.69	67.43	32.98	
2025-01-08 09:03:05.90	67.35	32.99	
2025-01-08 09:03:06.10	67.28	33.00	
2025-01-08 09:03:06.30	67.21	33.01	
2025-01-08 09:03:06.51	67.13	33.02	
2025-01-08 09:03:06.71	67.06	33.03	
2025-01-08 09:03:06.92	66.98	33.04	
2025-01-08 09:03:07.12	66.91	33.05	
2025-01-08 09:03:07.33	66.83	33.06	
2025-01-08 09:03:07.53	66.76	33.07	
2025-01-08 09:03:07.74	66.68	33.08	
2025-01-08 09:03:07.94	66.61	33.09	
2025-01-08 09:03:08.15	66.53	33.10	
2025-01-08 09:03:08.36	66.45	33.11	
2025-01-08 09:03:08.56	66.38	33.12	
2025-01-08 09:03:08.76	66.31	33.13	
2025-01-08 09:03:08.97	66.23	33.14	
2025-01-08 09:03:09.18	66.15	33.15	
2025-01-08 09:03:09.38	66.08	33.16	
2025-01-08 09:03:09.59	66.00	33.17	
2025-01-08 09:03:09.79	65.93	33.18	
2025-01-08 09:03:09.99	65.85	33.19	
2025-01-08 09:03:10.20	65.78	33.20	
