passes_logs/2025/01/08/SPB_Silybum_02/SPB_Silybum_02__20250108_121934_SUOMI_NPP_rec.log

#Pass ID: 20250108_121934_SUOMI NPP
#Satellite: SUOMI NPP
#Configuration: NPP
#Start time: 2025-01-08 12:19:34

#Version: 2.0.20230423
#Station: SPB_Silybum_02
#Location: 30.233357 lon 59.946436 lat
#TLE: 1 37849U 11061A   25007.80086614  .00000261  00000+0  14474-3 0  9998
#TLE: 2 37849  98.7439 308.8810 0001922  51.6815 308.4534 14.19534813683891

#Time	Az	El	Level	Level2	SNR	BER	Gain	Gain2
2025-01-08 12:19:36.89	223.22	4.14	
2025-01-08 12:19:37.10	223.24	4.15	
2025-01-08 12:19:37.31	223.26	4.16	
2025-01-08 12:19:37.52	223.28	4.18	
2025-01-08 12:19:37.72	223.30	4.19	
2025-01-08 12:19:37.93	223.32	4.20	
2025-01-08 12:19:38.13	223.34	4.21	
2025-01-08 12:19:38.34	223.36	4.22	
2025-01-08 12:19:38.54	223.38	4.23	
2025-01-08 12:19:38.75	223.40	4.24	
2025-01-08 12:19:38.95	223.42	4.25	
2025-01-08 12:19:39.16	223.44	4.26	
2025-01-08 12:19:39.36	223.46	4.27	
2025-01-08 12:19:39.57	223.48	4.28	
2025-01-08 12:19:39.78	223.50	4.29	
2025-01-08 12:19:39.98	223.52	4.30	
2025-01-08 12:19:40.18	223.54	4.32	
2025-01-08 12:19:40.39	223.56	4.33	
2025-01-08 12:19:40.60	223.58	4.34	
2025-01-08 12:19:40.80	223.60	4.35	
2025-01-08 12:19:41.01	223.62	4.36	
2025-01-08 12:19:41.21	223.64	4.37	
2025-01-08 12:19:41.42	223.66	4.38	
2025-01-08 12:19:41.62	223.68	4.39	
2025-01-08 12:19:41.83	223.70	4.40	
2025-01-08 12:19:42.03	223.72	4.41	
2025-01-08 12:19:42.24	223.74	4.42	
2025-01-08 12:19:42.44	223.76	4.43	
2025-01-08 12:19:42.65	223.78	4.45	
2025-01-08 12:19:42.85	223.80	4.46	
2025-01-08 12:19:43.06	223.82	4.47	
2025-01-08 12:19:43.27	223.84	4.48	
2025-01-08 12:19:43.47	223.86	4.49	
2025-01-08 12:19:43.68	223.88	4.50	
2025-01-08 12:19:43.88	223.90	4.51	
2025-01-08 12:19:44.09	223.92	4.52	
2025-01-08 12:19:44.29	223.94	4.53	
2025-01-08 12:19:44.50	223.96	4.54	
2025-01-08 12:19:44.70	223.98	4.55	
2025-01-08 12:19:44.91	224.01	4.56	
2025-01-08 12:19:45.11	224.03	4.57	
2025-01-08 12:19:45.32	224.05	4.59	
2025-01-08 12:19:45.52	224.07	4.60	
2025-01-08 12:19:45.73	224.09	4.61	
2025-01-08 12:19:45.94	224.11	4.62	
2025-01-08 12:19:46.14	224.13	4.63	
2025-01-08 12:19:46.35	224.15	4.64	
2025-01-08 12:19:46.55	224.17	4.65	
2025-01-08 12:19:46.75	224.19	4.66	
2025-01-08 12:19:46.96	224.21	4.67	
2025-01-08 12:19:47.17	224.23	4.68	
2025-01-08 12:19:47.37	224.25	4.69	
2025-01-08 12:19:47.58	224.27	4.71	
2025-01-08 12:19:47.78	224.29	4.72	
2025-01-08 12:19:47.98	224.31	4.73	
2025-01-08 12:19:48.19	224.33	4.74	
2025-01-08 12:19:48.40	224.36	4.75	
2025-01-08 12:19:48.60	224.38	4.76	
2025-01-08 12:19:48.81	224.40	4.77	
2025-01-08 12:19:49.01	224.42	4.78	
2025-01-08 12:19:49.22	224.44	4.79	
2025-01-08 12:19:49.42	224.46	4.80	
2025-01-08 12:19:49.63	224.48	4.81	
2025-01-08 12:19:49.84	224.50	4.82	
2025-01-08 12:19:50.05	224.52	4.84	
2025-01-08 12:19:50.25	224.54	4.85	
2025-01-08 12:19:50.46	224.56	4.86	
2025-01-08 12:19:50.66	224.58	4.87	
2025-01-08 12:19:50.87	224.61	4.88	
2025-01-08 12:19:51.07	224.63	4.89	
2025-01-08 12:19:51.29	224.65	4.90	
2025-01-08 12:19:51.50	224.67	4.91	
2025-01-08 12:19:51.70	224.69	4.92	
2025-01-08 12:19:51.90	224.71	4.93	
2025-01-08 12:19:52.11	224.73	4.95	
2025-01-08 12:19:52.32	224.75	4.96	
2025-01-08 12:19:52.52	224.77	4.97	
2025-01-08 12:19:52.73	224.80	4.98	
2025-01-08 12:19:52.93	224.82	4.99	
2025-01-08 12:19:53.14	224.84	5.00	
2025-01-08 12:19:53.34	224.86	5.01	
2025-01-08 12:19:53.55	224.88	5.02	
2025-01-08 12:19:53.75	224.90	5.03	
2025-01-08 12:19:53.96	224.92	5.04	
2025-01-08 12:19:54.16	224.94	5.05	
2025-01-08 12:19:54.37	224.96	5.07	
2025-01-08 12:19:54.57	224.98	5.08	
2025-01-08 12:19:54.78	225.01	5.09	
2025-01-08 12:19:54.98	225.03	5.10	
2025-01-08 12:19:55.19	225.05	5.11	
2025-01-08 12:19:55.39	225.07	5.12	
2025-01-08 12:19:55.60	225.09	5.13	
2025-01-08 12:19:55.80	225.11	5.14	
2025-01-08 12:19:56.01	225.13	5.15	
2025-01-08 12:19:56.23	225.16	5.16	
2025-01-08 12:19:56.43	225.18	5.17	
2025-01-08 12:19:56.64	225.20	5.19	
2025-01-08 12:19:56.84	225.22	5.20	
2025-01-08 12:19:57.05	225.24	5.21	
2025-01-08 12:19:57.25	225.26	5.22	
2025-01-08 12:19:57.46	225.28	5.23	
2025-01-08 12:19:57.67	225.31	5.24	
2025-01-08 12:19:57.87	225.33	5.25	
2025-01-08 12:19:58.07	225.35	5.26	
2025-01-08 12:19:58.28	225.37	5.27	
2025-01-08 12:19:58.50	225.39	5.28	
2025-01-08 12:19:58.70	225.41	5.30	
2025-01-08 12:19:58.91	225.43	5.31	
2025-01-08 12:19:59.11	225.46	5.32	
2025-01-08 12:19:59.32	225.48	5.33	
2025-01-08 12:19:59.52	225.50	5.34	
2025-01-08 12:19:59.73	225.52	5.35	
2025-01-08 12:19:59.94	225.54	5.36	
2025-01-08 12:20:00.14	225.56	5.37	
2025-01-08 12:20:00.35	225.59	5.38	
2025-01-08 12:20:00.56	225.61	5.39	
2025-01-08 12:20:00.77	225.63	5.41	
2025-01-08 12:20:00.97	225.65	5.42	
2025-01-08 12:20:01.18	225.67	5.43	
2025-01-08 12:20:01.39	225.70	5.44	
2025-01-08 12:20:01.59	225.72	5.45	
2025-01-08 12:20:01.80	225.74	5.46	
2025-01-08 12:20:02.00	225.76	5.47	
2025-01-08 12:20:02.21	225.78	5.48	
2025-01-08 12:20:02.41	225.80	5.49	
2025-01-08 12:20:02.62	225.83	5.50	
2025-01-08 12:20:02.82	225.85	5.51	
2025-01-08 12:20:03.03	225.87	5.53	
2025-01-08 12:20:03.23	225.89	5.54	
2025-01-08 12:20:03.44	225.91	5.55	
2025-01-08 12:20:03.66	225.94	5.56	
2025-01-08 12:20:03.86	225.96	5.57	
2025-01-08 12:20:04.07	225.98	5.58	
2025-01-08 12:20:04.27	226.00	5.59	
2025-01-08 12:20:04.48	226.02	5.60	
2025-01-08 12:20:04.68	226.04	5.61	
2025-01-08 12:20:04.89	226.07	5.62	
2025-01-08 12:20:05.09	226.09	5.64	
2025-01-08 12:20:05.30	226.11	5.65	
2025-01-08 12:20:05.50	226.13	5.66	
2025-01-08 12:20:05.71	226.15	5.67	
2025-01-08 12:20:05.91	226.18	5.68	
2025-01-08 12:20:06.12	226.20	5.69	
2025-01-08 12:20:06.32	226.22	5.70	
2025-01-08 12:20:06.53	226.24	5.71	
2025-01-08 12:20:06.73	226.26	5.72	
2025-01-08 12:20:06.94	226.29	5.73	
2025-01-08 12:20:07.14	226.31	5.75	
2025-01-08 12:20:07.35	226.33	5.76	
2025-01-08 12:20:07.56	226.35	5.77	
2025-01-08 12:20:07.76	226.37	5.78	
2025-01-08 12:20:07.97	226.40	5.79	
2025-01-08 12:20:08.17	226.42	5.80	
2025-01-08 12:20:08.38	226.44	5.81	
2025-01-08 12:20:08.58	226.46	5.82	
2025-01-08 12:20:08.79	226.49	5.83	
2025-01-08 12:20:08.99	226.51	5.84	
2025-01-08 12:20:09.20	226.53	5.86	
2025-01-08 12:20:09.40	226.55	5.87	
2025-01-08 12:20:09.61	226.58	5.88	
2025-01-08 12:20:09.81	226.60	5.89	
2025-01-08 12:20:10.02	226.62	5.90	
2025-01-08 12:20:10.22	226.64	5.91	
2025-01-08 12:20:10.43	226.66	5.92	
2025-01-08 12:20:10.64	226.69	5.93	
2025-01-08 12:20:10.84	226.71	5.94	
2025-01-08 12:20:11.04	226.73	5.95	
2025-01-08 12:20:11.25	226.75	5.96	
2025-01-08 12:20:11.46	226.78	5.98	
2025-01-08 12:20:11.66	226.80	5.99	
2025-01-08 12:20:11.87	226.82	6.00	
2025-01-08 12:20:12.07	226.84	6.01	
2025-01-08 12:20:12.28	226.87	6.02	
2025-01-08 12:20:12.49	226.89	6.03	
2025-01-08 12:20:12.70	226.91	6.04	
2025-01-08 12:20:12.90	226.93	6.05	
2025-01-08 12:20:13.11	226.96	6.06	
2025-01-08 12:20:13.32	226.98	6.08	
2025-01-08 12:20:13.53	227.00	6.09	
2025-01-08 12:20:13.73	227.03	6.10	
2025-01-08 12:20:13.94	227.05	6.11	
2025-01-08 12:20:14.15	227.07	6.12	
2025-01-08 12:20:14.35	227.09	6.13	
2025-01-08 12:20:14.56	227.12	6.14	
2025-01-08 12:20:14.76	227.14	6.15	
2025-01-08 12:20:14.97	227.16	6.16	
2025-01-08 12:20:15.17	227.19	6.17	
2025-01-08 12:20:15.38	227.21	6.19	
2025-01-08 12:20:15.58	227.23	6.20	
2025-01-08 12:20:15.78	227.25	6.21	
2025-01-08 12:20:15.99	227.28	6.22	
2025-01-08 12:20:16.20	227.30	6.23	
2025-01-08 12:20:16.40	227.32	6.24	
2025-01-08 12:20:16.61	227.35	6.25	
2025-01-08 12:20:16.81	227.37	6.26	
2025-01-08 12:20:17.02	227.39	6.27	
2025-01-08 12:20:17.22	227.41	6.28	
2025-01-08 12:20:17.43	227.44	6.30	
2025-01-08 12:20:17.63	227.46	6.31	
2025-01-08 12:20:17.84	227.48	6.32	
2025-01-08 12:20:18.04	227.50	6.33	
2025-01-08 12:20:18.25	227.53	6.34	
2025-01-08 12:20:18.45	227.55	6.35	
2025-01-08 12:20:18.66	227.57	6.36	
2025-01-08 12:20:18.86	227.60	6.37	
2025-01-08 12:20:19.07	227.62	6.38	
2025-01-08 12:20:19.27	227.64	6.39	
2025-01-08 12:20:19.48	227.67	6.41	
2025-01-08 12:20:19.68	227.69	6.42	
2025-01-08 12:20:19.89	227.71	6.43	
2025-01-08 12:20:20.09	227.73	6.44	
2025-01-08 12:20:20.30	227.76	6.45	
2025-01-08 12:20:20.50	227.78	6.46	
2025-01-08 12:20:20.71	227.80	6.47	
2025-01-08 12:20:20.91	227.83	6.48	
2025-01-08 12:20:21.12	227.85	6.49	
2025-01-08 12:20:21.32	227.87	6.51	
2025-01-08 12:20:21.53	227.90	6.52	
2025-01-08 12:20:21.74	227.92	6.53	
2025-01-08 12:20:21.94	227.94	6.54	
2025-01-08 12:20:22.15	227.97	6.55	
2025-01-08 12:20:22.35	227.99	6.56	
2025-01-08 12:20:22.56	228.01	6.57	
2025-01-08 12:20:22.77	228.04	6.58	
2025-01-08 12:20:22.97	228.06	6.59	
2025-01-08 12:20:23.17	228.08	6.60	
2025-01-08 12:20:23.38	228.11	6.62	
2025-01-08 12:20:23.59	228.13	6.63	
2025-01-08 12:20:23.79	228.15	6.64	
2025-01-08 12:20:24.00	228.18	6.65	
2025-01-08 12:20:24.20	228.20	6.66	
2025-01-08 12:20:24.40	228.22	6.67	
2025-01-08 12:20:24.61	228.25	6.68	
2025-01-08 12:20:24.81	228.27	6.69	
2025-01-08 12:20:25.02	228.30	6.70	
2025-01-08 12:20:25.22	228.32	6.71	
2025-01-08 12:20:25.43	228.34	6.73	
2025-01-08 12:20:25.63	228.37	6.74	
2025-01-08 12:20:25.84	228.39	6.75	
2025-01-08 12:20:26.04	228.41	6.76	
2025-01-08 12:20:26.25	228.44	6.77	
2025-01-08 12:20:26.45	228.46	6.78	
2025-01-08 12:20:26.66	228.48	6.79	
2025-01-08 12:20:26.86	228.51	6.80	
2025-01-08 12:20:27.07	228.53	6.81	
2025-01-08 12:20:27.27	228.55	6.83	
2025-01-08 12:20:27.48	228.58	6.84	
2025-01-08 12:20:27.68	228.60	6.85	
2025-01-08 12:20:27.89	228.63	6.86	
2025-01-08 12:20:28.10	228.65	6.87	
2025-01-08 12:20:28.30	228.67	6.88	
2025-01-08 12:20:28.51	228.70	6.89	
2025-01-08 12:20:28.71	228.72	6.90	
2025-01-08 12:20:28.92	228.75	6.91	
2025-01-08 12:20:29.12	228.77	6.92	
2025-01-08 12:20:29.33	228.79	6.94	
2025-01-08 12:20:29.53	228.82	6.95	
2025-01-08 12:20:29.74	228.84	6.96	
2025-01-08 12:20:29.94	228.87	6.97	
2025-01-08 12:20:30.15	228.89	6.98	
2025-01-08 12:20:30.35	228.91	6.99	
2025-01-08 12:20:30.56	228.94	7.00	
2025-01-08 12:20:30.76	228.96	7.01	
2025-01-08 12:20:30.97	228.99	7.02	
2025-01-08 12:20:31.17	229.01	7.04	
2025-01-08 12:20:31.38	229.03	7.05	
2025-01-08 12:20:31.58	229.06	7.06	
2025-01-08 12:20:31.79	229.08	7.07	
2025-01-08 12:20:31.99	229.11	7.08	
2025-01-08 12:20:32.20	229.13	7.09	
2025-01-08 12:20:32.41	229.15	7.10	
2025-01-08 12:20:32.61	229.18	7.11	
2025-01-08 12:20:32.82	229.20	7.12	
2025-01-08 12:20:33.02	229.23	7.14	
2025-01-08 12:20:33.23	229.25	7.15	
2025-01-08 12:20:33.43	229.27	7.16	
2025-01-08 12:20:33.63	229.30	7.17	
2025-01-08 12:20:33.84	229.32	7.18	
2025-01-08 12:20:34.05	229.35	7.19	
2025-01-08 12:20:34.25	229.37	7.20	
2025-01-08 12:20:34.46	229.40	7.21	
2025-01-08 12:20:34.66	229.42	7.22	
2025-01-08 12:20:34.87	229.45	7.23	
2025-01-08 12:20:35.07	229.47	7.25	
2025-01-08 12:20:35.28	229.49	7.26	
2025-01-08 12:20:35.48	229.52	7.27	
2025-01-08 12:20:35.68	229.54	7.28	
2025-01-08 12:20:35.89	229.57	7.29	
2025-01-08 12:20:36.10	229.59	7.30	
2025-01-08 12:20:36.30	229.62	7.31	
2025-01-08 12:20:36.51	229.64	7.32	
2025-01-08 12:20:36.71	229.66	7.33	
2025-01-08 12:20:36.92	229.69	7.35	
2025-01-08 12:20:37.12	229.71	7.36	
2025-01-08 12:20:37.33	229.74	7.37	
2025-01-08 12:20:37.53	229.76	7.38	
2025-01-08 12:20:37.74	229.79	7.39	
2025-01-08 12:20:37.94	229.81	7.40	
2025-01-08 12:20:38.15	229.84	7.41	
2025-01-08 12:20:38.35	229.86	7.42	
2025-01-08 12:20:38.56	229.89	7.43	
2025-01-08 12:20:38.76	229.91	7.44	
2025-01-08 12:20:38.97	229.94	7.46	
2025-01-08 12:20:39.17	229.96	7.47	
2025-01-08 12:20:39.38	229.99	7.48	
2025-01-08 12:20:39.58	230.01	7.49	
2025-01-08 12:20:39.79	230.04	7.50	
2025-01-08 12:20:39.99	230.06	7.51	
2025-01-08 12:20:40.20	230.08	7.52	
2025-01-08 12:20:40.40	230.11	7.53	
2025-01-08 12:20:40.61	230.13	7.54	
2025-01-08 12:20:40.81	230.16	7.56	
2025-01-08 12:20:41.02	230.18	7.57	
2025-01-08 12:20:41.22	230.21	7.58	
2025-01-08 12:20:41.43	230.23	7.59	
2025-01-08 12:20:41.63	230.26	7.60	
2025-01-08 12:20:41.84	230.28	7.61	
2025-01-08 12:20:42.04	230.31	7.62	
2025-01-08 12:20:42.25	230.33	7.63	
2025-01-08 12:20:42.45	230.36	7.64	
2025-01-08 12:20:42.66	230.38	7.66	
2025-01-08 12:20:42.87	230.41	7.67	
2025-01-08 12:20:43.07	230.43	7.68	
2025-01-08 12:20:43.28	230.46	7.69	
2025-01-08 12:20:43.48	230.48	7.70	
2025-01-08 12:20:43.69	230.51	7.71	
2025-01-08 12:20:43.89	230.53	7.72	
2025-01-08 12:20:44.10	230.56	7.73	
2025-01-08 12:20:44.30	230.59	7.74	
2025-01-08 12:20:44.51	230.61	7.76	
2025-01-08 12:20:44.71	230.64	7.77	
2025-01-08 12:20:44.92	230.66	7.78	
2025-01-08 12:20:45.12	230.69	7.79	
2025-01-08 12:20:45.34	230.71	7.80	
2025-01-08 12:20:45.55	230.74	7.81	
2025-01-08 12:20:45.75	230.76	7.82	
2025-01-08 12:20:45.96	230.79	7.83	
2025-01-08 12:20:46.17	230.82	7.84	
2025-01-08 12:20:46.39	230.84	7.86	
2025-01-08 12:20:46.59	230.87	7.87	
2025-01-08 12:20:46.80	230.89	7.88	
2025-01-08 12:20:47.00	230.92	7.89	
2025-01-08 12:20:47.21	230.94	7.90	
2025-01-08 12:20:47.41	230.97	7.91	
2025-01-08 12:20:47.62	231.00	7.92	
2025-01-08 12:20:47.82	231.02	7.93	
2025-01-08 12:20:48.03	231.05	7.95	
2025-01-08 12:20:48.23	231.07	7.96	
2025-01-08 12:20:48.44	231.10	7.97	
2025-01-08 12:20:48.64	231.12	7.98	
2025-01-08 12:20:48.85	231.15	7.99	
2025-01-08 12:20:49.05	231.17	8.00	
2025-01-08 12:20:49.26	231.20	8.01	
2025-01-08 12:20:49.46	231.23	8.02	
2025-01-08 12:20:49.67	231.25	8.03	
2025-01-08 12:20:49.87	231.28	8.04	
2025-01-08 12:20:50.08	231.30	8.06	
2025-01-08 12:20:50.28	231.33	8.07	
2025-01-08 12:20:50.49	231.35	8.08	
2025-01-08 12:20:50.69	231.38	8.09	
2025-01-08 12:20:50.90	231.41	8.10	
2025-01-08 12:20:51.11	231.43	8.11	
2025-01-08 12:20:51.31	231.46	8.12	
2025-01-08 12:20:51.52	231.48	8.13	
2025-01-08 12:20:51.73	231.51	8.15	
2025-01-08 12:20:51.94	231.54	8.16	
2025-01-08 12:20:52.15	231.56	8.17	
2025-01-08 12:20:52.35	231.59	8.18	
2025-01-08 12:20:52.55	231.61	8.19	
2025-01-08 12:20:52.76	231.64	8.20	
2025-01-08 12:20:52.97	231.67	8.21	
2025-01-08 12:20:53.17	231.69	8.22	
2025-01-08 12:20:53.38	231.72	8.23	
2025-01-08 12:20:53.58	231.74	8.25	
2025-01-08 12:20:53.79	231.77	8.26	
2025-01-08 12:20:53.99	231.80	8.27	
2025-01-08 12:20:54.20	231.82	8.28	
2025-01-08 12:20:54.40	231.85	8.29	
2025-01-08 12:20:54.61	231.88	8.30	
2025-01-08 12:20:54.82	231.90	8.31	
2025-01-08 12:20:55.03	231.93	8.32	
2025-01-08 12:20:55.24	231.96	8.33	
2025-01-08 12:20:55.44	231.98	8.35	
2025-01-08 12:20:55.65	232.01	8.36	
2025-01-08 12:20:55.85	232.03	8.37	
2025-01-08 12:20:56.06	232.06	8.38	
2025-01-08 12:20:56.26	232.09	8.39	
2025-01-08 12:20:56.47	232.11	8.40	
2025-01-08 12:20:56.67	232.14	8.41	
2025-01-08 12:20:56.88	232.17	8.42	
2025-01-08 12:20:57.08	232.19	8.43	
2025-01-08 12:20:57.29	232.22	8.45	
2025-01-08 12:20:57.49	232.24	8.46	
2025-01-08 12:20:57.70	232.27	8.47	
2025-01-08 12:20:57.90	232.30	8.48	
2025-01-08 12:20:58.11	232.32	8.49	
2025-01-08 12:20:58.31	232.35	8.50	
2025-01-08 12:20:58.52	232.38	8.51	
2025-01-08 12:20:58.72	232.40	8.52	
2025-01-08 12:20:58.93	232.43	8.53	
2025-01-08 12:20:59.13	232.46	8.54	
2025-01-08 12:20:59.34	232.48	8.56	
2025-01-08 12:20:59.54	232.51	8.57	
2025-01-08 12:20:59.75	232.54	8.58	
2025-01-08 12:20:59.95	232.56	8.59	
2025-01-08 12:21:00.15	232.59	8.60	
2025-01-08 12:21:00.36	232.62	8.61	
2025-01-08 12:21:00.57	232.64	8.62	
2025-01-08 12:21:00.77	232.67	8.63	
2025-01-08 12:21:00.98	232.70	8.64	
2025-01-08 12:21:01.18	232.72	8.66	
2025-01-08 12:21:01.38	232.75	8.67	
2025-01-08 12:21:01.59	232.78	8.68	
2025-01-08 12:21:01.80	232.80	8.69	
2025-01-08 12:21:02.00	232.83	8.70	
2025-01-08 12:21:02.21	232.86	8.71	
2025-01-08 12:21:02.42	232.89	8.72	
2025-01-08 12:21:02.63	232.91	8.73	
2025-01-08 12:21:02.84	232.94	8.75	
2025-01-08 12:21:03.04	232.97	8.76	
2025-01-08 12:21:03.25	232.99	8.77	
2025-01-08 12:21:03.47	233.02	8.78	
2025-01-08 12:21:03.67	233.05	8.79	
2025-01-08 12:21:03.88	233.08	8.80	
2025-01-08 12:21:04.09	233.11	8.81	
2025-01-08 12:21:04.29	233.13	8.82	
2025-01-08 12:21:04.49	233.16	8.83	
2025-01-08 12:21:04.70	233.19	8.85	
2025-01-08 12:21:04.90	233.21	8.86	
2025-01-08 12:21:05.11	233.24	8.87	
2025-01-08 12:21:05.32	233.27	8.88	
2025-01-08 12:21:05.52	233.29	8.89	
2025-01-08 12:21:05.73	233.32	8.90	
2025-01-08 12:21:05.93	233.35	8.91	
2025-01-08 12:21:06.14	233.38	8.92	
2025-01-08 12:21:06.34	233.40	8.93	
2025-01-08 12:21:06.55	233.43	8.95	
2025-01-08 12:21:06.75	233.46	8.96	
2025-01-08 12:21:06.96	233.49	8.97	
2025-01-08 12:21:07.16	233.51	8.98	
2025-01-08 12:21:07.37	233.54	8.99	
2025-01-08 12:21:07.57	233.57	9.00	
2025-01-08 12:21:07.78	233.59	9.01	
2025-01-08 12:21:07.98	233.62	9.02	
2025-01-08 12:21:08.19	233.65	9.03	
2025-01-08 12:21:08.40	233.68	9.04	
2025-01-08 12:21:08.60	233.70	9.06	
2025-01-08 12:21:08.82	233.73	9.07	
2025-01-08 12:21:09.03	233.76	9.08	
2025-01-08 12:21:09.23	233.79	9.09	
2025-01-08 12:21:09.44	233.82	9.10	
2025-01-08 12:21:09.64	233.84	9.11	
2025-01-08 12:21:09.85	233.87	9.12	
2025-01-08 12:21:10.05	233.90	9.13	
2025-01-08 12:21:10.26	233.93	9.14	
2025-01-08 12:21:10.46	233.95	9.16	
2025-01-08 12:21:10.67	233.98	9.17	
2025-01-08 12:21:10.87	234.01	9.18	
2025-01-08 12:21:11.08	234.04	9.19	
2025-01-08 12:21:11.28	234.07	9.20	
2025-01-08 12:21:11.49	234.09	9.21	
2025-01-08 12:21:11.70	234.12	9.22	
2025-01-08 12:21:11.90	234.15	9.23	
2025-01-08 12:21:12.11	234.18	9.24	
2025-01-08 12:21:12.31	234.21	9.26	
2025-01-08 12:21:12.52	234.23	9.27	
2025-01-08 12:21:12.72	234.26	9.28	
2025-01-08 12:21:12.93	234.29	9.29	
2025-01-08 12:21:13.13	234.32	9.30	
2025-01-08 12:21:13.33	234.34	9.31	
2025-01-08 12:21:13.54	234.37	9.32	
2025-01-08 12:21:13.75	234.40	9.33	
2025-01-08 12:21:13.95	234.43	9.34	
2025-01-08 12:21:14.16	234.46	9.35	
2025-01-08 12:21:14.36	234.48	9.37	
2025-01-08 12:21:14.57	234.51	9.38	
2025-01-08 12:21:14.77	234.54	9.39	
2025-01-08 12:21:14.98	234.57	9.40	
2025-01-08 12:21:15.18	234.60	9.41	
2025-01-08 12:21:15.39	234.63	9.42	
2025-01-08 12:21:15.59	234.65	9.43	
2025-01-08 12:21:15.80	234.68	9.44	
2025-01-08 12:21:16.00	234.71	9.45	
2025-01-08 12:21:16.21	234.74	9.46	
2025-01-08 12:21:16.41	234.77	9.48	
2025-01-08 12:21:16.62	234.80	9.49	
2025-01-08 12:21:16.82	234.82	9.50	
2025-01-08 12:21:17.03	234.85	9.51	
2025-01-08 12:21:17.23	234.88	9.52	
2025-01-08 12:21:17.44	234.91	9.53	
2025-01-08 12:21:17.64	234.94	9.54	
2025-01-08 12:21:17.85	234.97	9.55	
2025-01-08 12:21:18.06	234.99	9.56	
2025-01-08 12:21:18.26	235.02	9.57	
2025-01-08 12:21:18.46	235.05	9.59	
2025-01-08 12:21:18.67	235.08	9.60	
2025-01-08 12:21:18.88	235.11	9.61	
2025-01-08 12:21:19.08	235.14	9.62	
2025-01-08 12:21:19.29	235.17	9.63	
2025-01-08 12:21:19.49	235.19	9.64	
2025-01-08 12:21:19.70	235.22	9.65	
2025-01-08 12:21:19.91	235.25	9.66	
2025-01-08 12:21:20.11	235.28	9.67	
2025-01-08 12:21:20.32	235.31	9.68	
2025-01-08 12:21:20.52	235.34	9.70	
2025-01-08 12:21:20.73	235.37	9.71	
2025-01-08 12:21:20.93	235.39	9.72	
2025-01-08 12:21:21.14	235.42	9.73	
2025-01-08 12:21:21.35	235.45	9.74	
2025-01-08 12:21:21.55	235.48	9.75	
2025-01-08 12:21:21.76	235.51	9.76	
2025-01-08 12:21:21.96	235.54	9.77	
2025-01-08 12:21:22.17	235.57	9.78	
2025-01-08 12:21:22.37	235.60	9.79	
2025-01-08 12:21:22.58	235.63	9.81	
2025-01-08 12:21:22.78	235.65	9.82	
2025-01-08 12:21:22.99	235.68	9.83	
2025-01-08 12:21:23.19	235.71	9.84	
2025-01-08 12:21:23.40	235.74	9.85	
2025-01-08 12:21:23.61	235.77	9.86	
2025-01-08 12:21:23.82	235.80	9.87	
2025-01-08 12:21:24.02	235.83	9.88	
2025-01-08 12:21:24.23	235.86	9.89	
2025-01-08 12:21:24.43	235.89	9.90	
2025-01-08 12:21:24.64	235.92	9.92	
2025-01-08 12:21:24.84	235.95	9.93	
2025-01-08 12:21:25.05	235.98	9.94	
2025-01-08 12:21:25.25	236.00	9.95	
2025-01-08 12:21:25.46	236.03	9.96	
2025-01-08 12:21:25.66	236.06	9.97	
2025-01-08 12:21:25.87	236.09	9.98	
2025-01-08 12:21:26.07	236.12	9.99	
2025-01-08 12:21:26.28	236.15	10.00	
2025-01-08 12:21:26.49	236.18	10.01	
2025-01-08 12:21:26.69	236.21	10.03	
2025-01-08 12:21:26.89	236.24	10.04	
2025-01-08 12:21:27.10	236.27	10.05	
2025-01-08 12:21:27.31	236.30	10.06	
2025-01-08 12:21:27.51	236.33	10.07	
2025-01-08 12:21:27.72	236.36	10.08	
2025-01-08 12:21:27.92	236.38	10.09	
2025-01-08 12:21:28.13	236.42	10.10	
2025-01-08 12:21:28.33	236.44	10.11	
2025-01-08 12:21:28.54	236.47	10.12	
2025-01-08 12:21:28.74	236.50	10.13	
2025-01-08 12:21:28.95	236.53	10.15	
2025-01-08 12:21:29.15	236.56	10.16	
2025-01-08 12:21:29.36	236.59	10.17	
2025-01-08 12:21:29.56	236.62	10.18	
2025-01-08 12:21:29.77	236.65	10.19	
2025-01-08 12:21:29.98	236.68	10.20	
2025-01-08 12:21:30.19	236.71	10.21	
2025-01-08 12:21:30.40	236.74	10.22	
2025-01-08 12:21:30.60	236.77	10.23	
2025-01-08 12:21:30.81	236.80	10.24	
2025-01-08 12:21:31.01	236.83	10.26	
2025-01-08 12:21:31.22	236.86	10.27	
2025-01-08 12:21:31.42	236.89	10.28	
2025-01-08 12:21:31.63	236.92	10.29	
2025-01-08 12:21:31.83	236.95	10.30	
2025-01-08 12:21:32.04	236.98	10.31	
2025-01-08 12:21:32.24	237.01	10.32	
2025-01-08 12:21:32.45	237.04	10.33	
2025-01-08 12:21:32.65	237.07	10.34	
2025-01-08 12:21:32.86	237.10	10.35	
2025-01-08 12:21:33.06	237.13	10.36	
2025-01-08 12:21:33.27	237.16	10.38	
2025-01-08 12:21:33.47	237.19	10.39	
2025-01-08 12:21:33.68	237.22	10.40	
2025-01-08 12:21:33.88	237.25	10.41	
2025-01-08 12:21:34.09	237.28	10.42	
2025-01-08 12:21:34.29	237.31	10.43	
2025-01-08 12:21:34.50	237.34	10.44	
2025-01-08 12:21:34.70	237.37	10.45	
2025-01-08 12:21:34.91	237.40	10.46	
2025-01-08 12:21:35.12	237.43	10.47	
2025-01-08 12:21:35.32	237.46	10.48	
2025-01-08 12:21:35.52	237.49	10.49	
2025-01-08 12:21:35.73	237.52	10.51	
2025-01-08 12:21:35.94	237.55	10.52	
2025-01-08 12:21:36.14	237.58	10.53	
2025-01-08 12:21:36.35	237.61	10.54	
2025-01-08 12:21:36.55	237.64	10.55	
2025-01-08 12:21:36.76	237.67	10.56	
2025-01-08 12:21:36.96	237.70	10.57	
2025-01-08 12:21:37.17	237.73	10.58	
2025-01-08 12:21:37.37	237.76	10.59	
2025-01-08 12:21:37.57	237.79	10.60	
2025-01-08 12:21:37.78	237.82	10.61	
2025-01-08 12:21:37.98	237.85	10.62	
2025-01-08 12:21:38.19	237.89	10.64	
2025-01-08 12:21:38.40	237.92	10.65	
2025-01-08 12:21:38.61	237.95	10.66	
2025-01-08 12:21:38.81	237.98	10.67	
2025-01-08 12:21:39.02	238.01	10.68	
2025-01-08 12:21:39.22	238.04	10.69	
2025-01-08 12:21:39.43	238.07	10.70	
2025-01-08 12:21:39.63	238.10	10.71	
2025-01-08 12:21:39.84	238.13	10.72	
2025-01-08 12:21:40.04	238.16	10.73	
2025-01-08 12:21:40.25	238.19	10.74	
2025-01-08 12:21:40.45	238.22	10.75	
2025-01-08 12:21:40.66	238.25	10.77	
2025-01-08 12:21:40.88	238.29	10.78	
2025-01-08 12:21:41.08	238.32	10.79	
2025-01-08 12:21:41.29	238.35	10.80	
2025-01-08 12:21:41.49	238.38	10.81	
2025-01-08 12:21:41.70	238.41	10.82	
2025-01-08 12:21:41.90	238.44	10.83	
2025-01-08 12:21:42.11	238.47	10.84	
2025-01-08 12:21:42.32	238.50	10.85	
2025-01-08 12:21:42.52	238.53	10.86	
2025-01-08 12:21:42.73	238.57	10.87	
2025-01-08 12:21:42.93	238.60	10.88	
2025-01-08 12:21:43.14	238.63	10.90	
2025-01-08 12:21:43.34	238.66	10.91	
2025-01-08 12:21:43.55	238.69	10.92	
2025-01-08 12:21:43.75	238.72	10.93	
2025-01-08 12:21:43.96	238.75	10.94	
2025-01-08 12:21:44.16	238.78	10.95	
2025-01-08 12:21:44.37	238.82	10.96	
2025-01-08 12:21:44.57	238.85	10.97	
2025-01-08 12:21:44.78	238.88	10.98	
2025-01-08 12:21:44.98	238.91	10.99	
2025-01-08 12:21:45.19	238.94	11.00	
2025-01-08 12:21:45.39	238.97	11.01	
2025-01-08 12:21:45.60	239.00	11.02	
2025-01-08 12:21:45.80	239.03	11.03	
2025-01-08 12:21:46.01	239.07	11.05	
2025-01-08 12:21:46.21	239.10	11.06	
2025-01-08 12:21:46.42	239.13	11.07	
2025-01-08 12:21:46.62	239.16	11.08	
2025-01-08 12:21:46.83	239.19	11.09	
2025-01-08 12:21:47.04	239.22	11.10	
2025-01-08 12:21:47.24	239.25	11.11	
2025-01-08 12:21:47.44	239.28	11.12	
2025-01-08 12:21:47.65	239.32	11.13	
2025-01-08 12:21:47.85	239.35	11.14	
2025-01-08 12:21:48.06	239.38	11.15	
2025-01-08 12:21:48.26	239.41	11.16	
2025-01-08 12:21:48.46	239.44	11.17	
2025-01-08 12:21:48.67	239.47	11.18	
2025-01-08 12:21:48.88	239.51	11.20	
2025-01-08 12:21:49.08	239.54	11.21	
2025-01-08 12:21:49.29	239.57	11.22	
2025-01-08 12:21:49.50	239.60	11.23	
2025-01-08 12:21:49.71	239.63	11.24	
2025-01-08 12:21:49.91	239.67	11.25	
2025-01-08 12:21:50.11	239.70	11.26	
2025-01-08 12:21:50.32	239.73	11.27	
2025-01-08 12:21:50.52	239.76	11.28	
2025-01-08 12:21:50.73	239.79	11.29	
2025-01-08 12:21:50.93	239.82	11.30	
2025-01-08 12:21:51.14	239.86	11.31	
2025-01-08 12:21:51.35	239.89	11.32	
2025-01-08 12:21:51.55	239.92	11.33	
2025-01-08 12:21:51.76	239.95	11.35	
2025-01-08 12:21:51.96	239.98	11.36	
2025-01-08 12:21:52.17	240.02	11.37	
2025-01-08 12:21:52.37	240.05	11.38	
2025-01-08 12:21:52.58	240.08	11.39	
2025-01-08 12:21:52.78	240.11	11.40	
2025-01-08 12:21:52.99	240.15	11.41	
2025-01-08 12:21:53.20	240.18	11.42	
2025-01-08 12:21:53.40	240.21	11.43	
2025-01-08 12:21:53.62	240.24	11.44	
2025-01-08 12:21:53.82	240.28	11.45	
2025-01-08 12:21:54.03	240.31	11.46	
2025-01-08 12:21:54.24	240.34	11.47	
2025-01-08 12:21:54.44	240.37	11.48	
2025-01-08 12:21:54.65	240.41	11.49	
2025-01-08 12:21:54.85	240.44	11.50	
2025-01-08 12:21:55.06	240.47	11.52	
2025-01-08 12:21:55.26	240.50	11.53	
2025-01-08 12:21:55.47	240.54	11.54	
2025-01-08 12:21:55.67	240.57	11.55	
2025-01-08 12:21:55.87	240.60	11.56	
2025-01-08 12:21:56.08	240.63	11.57	
2025-01-08 12:21:56.28	240.66	11.58	
2025-01-08 12:21:56.49	240.70	11.59	
2025-01-08 12:21:56.70	240.73	11.60	
2025-01-08 12:21:56.90	240.76	11.61	
2025-01-08 12:21:57.11	240.79	11.62	
2025-01-08 12:21:57.31	240.83	11.63	
2025-01-08 12:21:57.52	240.86	11.64	
2025-01-08 12:21:57.72	240.89	11.65	
2025-01-08 12:21:57.93	240.93	11.66	
2025-01-08 12:21:58.13	240.96	11.67	
2025-01-08 12:21:58.34	240.99	11.68	
2025-01-08 12:21:58.55	241.02	11.70	
2025-01-08 12:21:58.75	241.06	11.71	
2025-01-08 12:21:58.95	241.09	11.72	
2025-01-08 12:21:59.16	241.12	11.73	
2025-01-08 12:21:59.37	241.15	11.74	
2025-01-08 12:21:59.57	241.19	11.75	
2025-01-08 12:21:59.78	241.22	11.76	
2025-01-08 12:21:59.98	241.25	11.77	
2025-01-08 12:22:00.19	241.29	11.78	
2025-01-08 12:22:00.39	241.32	11.79	
2025-01-08 12:22:00.60	241.35	11.80	
2025-01-08 12:22:00.80	241.38	11.81	
2025-01-08 12:22:01.01	241.42	11.82	
2025-01-08 12:22:01.21	241.45	11.83	
2025-01-08 12:22:01.42	241.48	11.84	
2025-01-08 12:22:01.62	241.52	11.85	
2025-01-08 12:22:01.83	241.55	11.86	
2025-01-08 12:22:02.03	241.58	11.87	
2025-01-08 12:22:02.24	241.62	11.88	
2025-01-08 12:22:02.44	241.65	11.89	
2025-01-08 12:22:02.65	241.68	11.90	
2025-01-08 12:22:02.85	241.71	11.91	
2025-01-08 12:22:03.06	241.75	11.93	
2025-01-08 12:22:03.26	241.78	11.94	
2025-01-08 12:22:03.47	241.82	11.95	
2025-01-08 12:22:03.68	241.85	11.96	
2025-01-08 12:22:03.88	241.88	11.97	
2025-01-08 12:22:04.09	241.92	11.98	
2025-01-08 12:22:04.29	241.95	11.99	
2025-01-08 12:22:04.50	241.98	12.00	
2025-01-08 12:22:04.71	242.02	12.01	
2025-01-08 12:22:04.91	242.05	12.02	
2025-01-08 12:22:05.12	242.08	12.03	
2025-01-08 12:22:05.32	242.12	12.04	
2025-01-08 12:22:05.53	242.15	12.05	
2025-01-08 12:22:05.73	242.18	12.06	
2025-01-08 12:22:05.94	242.22	12.07	
2025-01-08 12:22:06.14	242.25	12.08	
2025-01-08 12:22:06.36	242.29	12.09	
2025-01-08 12:22:06.56	242.32	12.10	
2025-01-08 12:22:06.77	242.35	12.11	
2025-01-08 12:22:06.97	242.39	12.12	
2025-01-08 12:22:07.18	242.42	12.13	
2025-01-08 12:22:07.39	242.46	12.14	
2025-01-08 12:22:07.59	242.49	12.15	
2025-01-08 12:22:07.80	242.52	12.17	
2025-01-08 12:22:08.00	242.56	12.18	
2025-01-08 12:22:08.21	242.59	12.19	
2025-01-08 12:22:08.42	242.62	12.20	
2025-01-08 12:22:08.62	242.66	12.21	
2025-01-08 12:22:08.82	242.69	12.22	
2025-01-08 12:22:09.03	242.73	12.23	
2025-01-08 12:22:09.24	242.76	12.24	
2025-01-08 12:22:09.44	242.79	12.25	
2025-01-08 12:22:09.64	242.83	12.26	
2025-01-08 12:22:09.85	242.86	12.27	
2025-01-08 12:22:10.06	242.90	12.28	
2025-01-08 12:22:10.26	242.93	12.29	
2025-01-08 12:22:10.47	242.96	12.30	
2025-01-08 12:22:10.67	243.00	12.31	
2025-01-08 12:22:10.88	243.03	12.32	
2025-01-08 12:22:11.08	243.07	12.33	
2025-01-08 12:22:11.29	243.10	12.34	
2025-01-08 12:22:11.49	243.13	12.35	
2025-01-08 12:22:11.70	243.17	12.36	
2025-01-08 12:22:11.90	243.20	12.37	
2025-01-08 12:22:12.11	243.24	12.38	
2025-01-08 12:22:12.31	243.27	12.39	
2025-01-08 12:22:12.52	243.31	12.40	
2025-01-08 12:22:12.72	243.34	12.41	
2025-01-08 12:22:12.93	243.37	12.42	
2025-01-08 12:22:13.13	243.41	12.43	
2025-01-08 12:22:13.34	243.44	12.44	
2025-01-08 12:22:13.54	243.48	12.45	
2025-01-08 12:22:13.75	243.51	12.46	
2025-01-08 12:22:13.95	243.55	12.47	
2025-01-08 12:22:14.15	243.58	12.48	
2025-01-08 12:22:14.36	243.61	12.49	
2025-01-08 12:22:14.57	243.65	12.50	
2025-01-08 12:22:14.77	243.68	12.51	
2025-01-08 12:22:14.97	243.72	12.52	
2025-01-08 12:22:15.18	243.75	12.53	
2025-01-08 12:22:15.38	243.79	12.54	
2025-01-08 12:22:15.59	243.82	12.55	
2025-01-08 12:22:15.79	243.86	12.56	
2025-01-08 12:22:16.00	243.89	12.57	
2025-01-08 12:22:16.21	243.93	12.58	
2025-01-08 12:22:16.42	243.96	12.59	
2025-01-08 12:22:16.63	244.00	12.61	
2025-01-08 12:22:16.83	244.03	12.62	
2025-01-08 12:22:17.04	244.07	12.63	
2025-01-08 12:22:17.25	244.10	12.64	
2025-01-08 12:22:17.46	244.14	12.65	
2025-01-08 12:22:17.66	244.17	12.66	
2025-01-08 12:22:17.87	244.21	12.67	
2025-01-08 12:22:18.08	244.24	12.68	
2025-01-08 12:22:18.28	244.28	12.69	
2025-01-08 12:22:18.49	244.31	12.70	
2025-01-08 12:22:18.69	244.35	12.71	
2025-01-08 12:22:18.90	244.38	12.72	
2025-01-08 12:22:19.10	244.42	12.73	
2025-01-08 12:22:19.31	244.45	12.74	
2025-01-08 12:22:19.52	244.49	12.75	
2025-01-08 12:22:19.72	244.52	12.76	
2025-01-08 12:22:19.92	244.56	12.77	
2025-01-08 12:22:20.13	244.59	12.78	
2025-01-08 12:22:20.33	244.63	12.79	
2025-01-08 12:22:20.54	244.66	12.80	
2025-01-08 12:22:20.74	244.70	12.81	
2025-01-08 12:22:20.95	244.73	12.82	
2025-01-08 12:22:21.16	244.77	12.83	
2025-01-08 12:22:21.36	244.80	12.84	
2025-01-08 12:22:21.57	244.84	12.85	
2025-01-08 12:22:21.77	244.88	12.86	
2025-01-08 12:22:21.98	244.91	12.87	
2025-01-08 12:22:22.18	244.95	12.88	
2025-01-08 12:22:22.39	244.98	12.89	
2025-01-08 12:22:22.59	245.02	12.90	
2025-01-08 12:22:22.80	245.05	12.91	
2025-01-08 12:22:23.00	245.09	12.92	
2025-01-08 12:22:23.21	245.12	12.93	
2025-01-08 12:22:23.41	245.16	12.94	
2025-01-08 12:22:23.61	245.19	12.95	
2025-01-08 12:22:23.82	245.23	12.96	
2025-01-08 12:22:24.03	245.27	12.97	
2025-01-08 12:22:24.23	245.30	12.98	
2025-01-08 12:22:24.44	245.34	12.99	
2025-01-08 12:22:24.66	245.38	13.00	
2025-01-08 12:22:24.86	245.41	13.01	
2025-01-08 12:22:25.07	245.45	13.02	
2025-01-08 12:22:25.27	245.48	13.03	
2025-01-08 12:22:25.48	245.52	13.04	
2025-01-08 12:22:25.68	245.55	13.05	
2025-01-08 12:22:25.89	245.59	13.06	
2025-01-08 12:22:26.09	245.62	13.07	
2025-01-08 12:22:26.30	245.66	13.08	
2025-01-08 12:22:26.51	245.70	13.09	
2025-01-08 12:22:26.72	245.73	13.10	
2025-01-08 12:22:26.92	245.77	13.11	
2025-01-08 12:22:27.13	245.81	13.12	
2025-01-08 12:22:27.33	245.84	13.12	
2025-01-08 12:22:27.54	245.88	13.13	
2025-01-08 12:22:27.75	245.91	13.15	
2025-01-08 12:22:27.95	245.95	13.15	
2025-01-08 12:22:28.16	245.99	13.16	
2025-01-08 12:22:28.36	246.02	13.17	
2025-01-08 12:22:28.57	246.06	13.18	
2025-01-08 12:22:28.77	246.09	13.19	
2025-01-08 12:22:28.98	246.13	13.20	
2025-01-08 12:22:29.18	246.17	13.21	
2025-01-08 12:22:29.39	246.20	13.22	
2025-01-08 12:22:29.59	246.24	13.23	
2025-01-08 12:22:29.80	246.28	13.24	
2025-01-08 12:22:30.00	246.31	13.25	
2025-01-08 12:22:30.21	246.35	13.26	
2025-01-08 12:22:30.42	246.39	13.27	
2025-01-08 12:22:30.62	246.42	13.28	
2025-01-08 12:22:30.83	246.46	13.29	
2025-01-08 12:22:31.03	246.49	13.30	
2025-01-08 12:22:31.23	246.53	13.31	
2025-01-08 12:22:31.44	246.57	13.32	
2025-01-08 12:22:31.65	246.60	13.33	
2025-01-08 12:22:31.85	246.64	13.34	
2025-01-08 12:22:32.06	246.68	13.35	
2025-01-08 12:22:32.26	246.71	13.36	
2025-01-08 12:22:32.46	246.75	13.37	
2025-01-08 12:22:32.67	246.78	13.38	
2025-01-08 12:22:32.87	246.82	13.39	
2025-01-08 12:22:33.08	246.86	13.40	
2025-01-08 12:22:33.28	246.89	13.41	
2025-01-08 12:22:33.49	246.93	13.42	
2025-01-08 12:22:33.69	246.97	13.43	
2025-01-08 12:22:33.90	247.00	13.44	
2025-01-08 12:22:34.10	247.04	13.45	
2025-01-08 12:22:34.31	247.08	13.45	
2025-01-08 12:22:34.51	247.11	13.46	
2025-01-08 12:22:34.72	247.15	13.47	
2025-01-08 12:22:34.93	247.19	13.48	
2025-01-08 12:22:35.13	247.22	13.49	
2025-01-08 12:22:35.34	247.26	13.50	
2025-01-08 12:22:35.54	247.30	13.51	
2025-01-08 12:22:35.75	247.34	13.52	
2025-01-08 12:22:35.95	247.37	13.53	
2025-01-08 12:22:36.16	247.41	13.54	
2025-01-08 12:22:36.36	247.45	13.55	
2025-01-08 12:22:36.56	247.48	13.56	
2025-01-08 12:22:36.77	247.52	13.57	
2025-01-08 12:22:36.97	247.56	13.58	
2025-01-08 12:22:37.18	247.59	13.59	
2025-01-08 12:22:37.39	247.63	13.60	
2025-01-08 12:22:37.59	247.67	13.61	
2025-01-08 12:22:37.79	247.70	13.62	
2025-01-08 12:22:38.00	247.74	13.63	
2025-01-08 12:22:38.21	247.78	13.64	
2025-01-08 12:22:38.41	247.82	13.65	
2025-01-08 12:22:38.62	247.85	13.65	
2025-01-08 12:22:38.82	247.89	13.66	
2025-01-08 12:22:39.03	247.93	13.67	
2025-01-08 12:22:39.23	247.97	13.68	
2025-01-08 12:22:39.44	248.00	13.69	
2025-01-08 12:22:39.64	248.04	13.70	
2025-01-08 12:22:39.85	248.08	13.71	
2025-01-08 12:22:40.05	248.11	13.72	
2025-01-08 12:22:40.26	248.15	13.73	
2025-01-08 12:22:40.47	248.19	13.74	
2025-01-08 12:22:40.67	248.23	13.75	
2025-01-08 12:22:40.88	248.27	13.76	
2025-01-08 12:22:41.08	248.30	13.77	
2025-01-08 12:22:41.29	248.34	13.78	
2025-01-08 12:22:41.49	248.38	13.79	
2025-01-08 12:22:41.70	248.42	13.80	
2025-01-08 12:22:41.90	248.45	13.80	
2025-01-08 12:22:42.11	248.49	13.81	
2025-01-08 12:22:42.31	248.53	13.82	
2025-01-08 12:22:42.52	248.57	13.83	
2025-01-08 12:22:42.72	248.60	13.84	
2025-01-08 12:22:42.93	248.64	13.85	
2025-01-08 12:22:43.13	248.68	13.86	
2025-01-08 12:22:43.34	248.72	13.87	
2025-01-08 12:22:43.54	248.75	13.88	
2025-01-08 12:22:43.75	248.79	13.89	
2025-01-08 12:22:43.95	248.83	13.90	
2025-01-08 12:22:44.16	248.87	13.91	
2025-01-08 12:22:44.36	248.91	13.92	
2025-01-08 12:22:44.57	248.94	13.93	
2025-01-08 12:22:44.78	248.98	13.93	
2025-01-08 12:22:44.98	249.02	13.94	
2025-01-08 12:22:45.18	249.06	13.95	
2025-01-08 12:22:45.39	249.10	13.96	
2025-01-08 12:22:45.60	249.13	13.97	
2025-01-08 12:22:45.80	249.17	13.98	
2025-01-08 12:22:46.00	249.21	13.99	
2025-01-08 12:22:46.21	249.25	14.00	
2025-01-08 12:22:46.42	249.29	14.01	
2025-01-08 12:22:46.62	249.32	14.02	
2025-01-08 12:22:46.83	249.36	14.03	
2025-01-08 12:22:47.03	249.40	14.03	
2025-01-08 12:22:47.24	249.44	14.04	
2025-01-08 12:22:47.44	249.48	14.05	
2025-01-08 12:22:47.65	249.52	14.06	
2025-01-08 12:22:47.85	249.55	14.07	
2025-01-08 12:22:48.06	249.59	14.08	
2025-01-08 12:22:48.27	249.63	14.09	
2025-01-08 12:22:48.47	249.67	14.10	
2025-01-08 12:22:48.68	249.71	14.11	
2025-01-08 12:22:48.88	249.74	14.12	
2025-01-08 12:22:49.09	249.78	14.13	
2025-01-08 12:22:49.29	249.82	14.13	
2025-01-08 12:22:49.50	249.86	14.14	
2025-01-08 12:22:49.70	249.90	14.15	
2025-01-08 12:22:49.91	249.94	14.16	
2025-01-08 12:22:50.12	249.98	14.17	
2025-01-08 12:22:50.32	250.01	14.18	
2025-01-08 12:22:50.52	250.05	14.19	
2025-01-08 12:22:50.73	250.09	14.20	
2025-01-08 12:22:50.93	250.13	14.21	
2025-01-08 12:22:51.14	250.17	14.22	
2025-01-08 12:22:51.34	250.21	14.22	
2025-01-08 12:22:51.55	250.25	14.23	
2025-01-08 12:22:51.75	250.28	14.24	
2025-01-08 12:22:51.96	250.32	14.25	
2025-01-08 12:22:52.16	250.36	14.26	
2025-01-08 12:22:52.37	250.40	14.27	
2025-01-08 12:22:52.57	250.44	14.28	
2025-01-08 12:22:52.77	250.48	14.29	
2025-01-08 12:22:52.98	250.52	14.30	
2025-01-08 12:22:53.18	250.55	14.30	
2025-01-08 12:22:53.39	250.59	14.31	
2025-01-08 12:22:53.60	250.63	14.32	
2025-01-08 12:22:53.81	250.67	14.33	
2025-01-08 12:22:54.02	250.71	14.34	
2025-01-08 12:22:54.22	250.75	14.35	
2025-01-08 12:22:54.43	250.79	14.36	
2025-01-08 12:22:54.63	250.83	14.37	
2025-01-08 12:22:54.84	250.87	14.38	
2025-01-08 12:22:55.05	250.91	14.38	
2025-01-08 12:22:55.25	250.95	14.39	
2025-01-08 12:22:55.46	250.99	14.40	
2025-01-08 12:22:55.66	251.02	14.41	
2025-01-08 12:22:55.87	251.06	14.42	
2025-01-08 12:22:56.07	251.10	14.43	
2025-01-08 12:22:56.28	251.14	14.44	
2025-01-08 12:22:56.48	251.18	14.45	
2025-01-08 12:22:56.68	251.22	14.45	
2025-01-08 12:22:56.89	251.26	14.46	
2025-01-08 12:22:57.10	251.30	14.47	
2025-01-08 12:22:57.30	251.34	14.48	
2025-01-08 12:22:57.51	251.38	14.49	
2025-01-08 12:22:57.71	251.42	14.50	
2025-01-08 12:22:57.92	251.46	14.51	
2025-01-08 12:22:58.13	251.50	14.52	
2025-01-08 12:22:58.33	251.54	14.52	
2025-01-08 12:22:58.53	251.57	14.53	
2025-01-08 12:22:58.74	251.61	14.54	
2025-01-08 12:22:58.94	251.65	14.55	
2025-01-08 12:22:59.15	251.69	14.56	
2025-01-08 12:22:59.35	251.73	14.57	
2025-01-08 12:22:59.56	251.77	14.58	
2025-01-08 12:22:59.76	251.81	14.58	
2025-01-08 12:22:59.98	251.85	14.59	
2025-01-08 12:23:00.18	251.89	14.60	
2025-01-08 12:23:00.39	251.93	14.61	
2025-01-08 12:23:00.60	251.97	14.62	
2025-01-08 12:23:00.80	252.01	14.63	
2025-01-08 12:23:01.02	252.05	14.64	
2025-01-08 12:23:01.22	252.09	14.64	
2025-01-08 12:23:01.43	252.13	14.65	
2025-01-08 12:23:01.64	252.17	14.66	
2025-01-08 12:23:01.84	252.21	14.67	
2025-01-08 12:23:02.04	252.25	14.68	
2025-01-08 12:23:02.25	252.29	14.69	
2025-01-08 12:23:02.46	252.33	14.70	
2025-01-08 12:23:02.66	252.37	14.70	
2025-01-08 12:23:02.87	252.41	14.71	
2025-01-08 12:23:03.07	252.45	14.72	
2025-01-08 12:23:03.28	252.49	14.73	
2025-01-08 12:23:03.48	252.53	14.74	
2025-01-08 12:23:03.69	252.57	14.75	
2025-01-08 12:23:03.89	252.61	14.75	
2025-01-08 12:23:04.10	252.65	14.76	
2025-01-08 12:23:04.30	252.69	14.77	
2025-01-08 12:23:04.51	252.73	14.78	
2025-01-08 12:23:04.72	252.77	14.79	
2025-01-08 12:23:04.92	252.81	14.80	
2025-01-08 12:23:05.13	252.85	14.80	
2025-01-08 12:23:05.33	252.89	14.81	
2025-01-08 12:23:05.54	252.93	14.82	
2025-01-08 12:23:05.74	252.97	14.83	
2025-01-08 12:23:05.95	253.01	14.84	
2025-01-08 12:23:06.16	253.06	14.85	
2025-01-08 12:23:06.36	253.09	14.85	
2025-01-08 12:23:06.57	253.14	14.86	
2025-01-08 12:23:06.77	253.17	14.87	
2025-01-08 12:23:06.98	253.22	14.88	
2025-01-08 12:23:07.19	253.26	14.89	
2025-01-08 12:23:07.39	253.30	14.89	
2025-01-08 12:23:07.59	253.34	14.90	
2025-01-08 12:23:07.80	253.38	14.91	
2025-01-08 12:23:08.01	253.42	14.92	
2025-01-08 12:23:08.21	253.46	14.93	
2025-01-08 12:23:08.42	253.50	14.94	
2025-01-08 12:23:08.62	253.54	14.94	
2025-01-08 12:23:08.83	253.58	14.95	
2025-01-08 12:23:09.05	253.62	14.96	
2025-01-08 12:23:09.25	253.66	14.97	
2025-01-08 12:23:09.46	253.70	14.98	
2025-01-08 12:23:09.66	253.74	14.98	
2025-01-08 12:23:09.87	253.79	14.99	
2025-01-08 12:23:10.08	253.83	15.00	
2025-01-08 12:23:10.28	253.87	15.01	
2025-01-08 12:23:10.49	253.91	15.02	
2025-01-08 12:23:10.69	253.95	15.02	
2025-01-08 12:23:10.90	253.99	15.03	
2025-01-08 12:23:11.10	254.03	15.04	
2025-01-08 12:23:11.31	254.07	15.05	
2025-01-08 12:23:11.51	254.11	15.06	
2025-01-08 12:23:11.71	254.15	15.06	
2025-01-08 12:23:11.93	254.19	15.07	
2025-01-08 12:23:12.13	254.23	15.08	
2025-01-08 12:23:12.34	254.28	15.09	
2025-01-08 12:23:12.55	254.32	15.10	
2025-01-08 12:23:12.75	254.36	15.10	
2025-01-08 12:23:12.96	254.40	15.11	
2025-01-08 12:23:13.16	254.44	15.12	
2025-01-08 12:23:13.37	254.48	15.13	
2025-01-08 12:23:13.57	254.52	15.14	
2025-01-08 12:23:13.78	254.56	15.14	
2025-01-08 12:23:13.98	254.60	15.15	
2025-01-08 12:23:14.19	254.65	15.16	
2025-01-08 12:23:14.39	254.69	15.17	
2025-01-08 12:23:14.60	254.73	15.18	
2025-01-08 12:23:14.81	254.77	15.18	
2025-01-08 12:23:15.01	254.81	15.19	
2025-01-08 12:23:15.22	254.85	15.20	
2025-01-08 12:23:15.42	254.89	15.21	
2025-01-08 12:23:15.63	254.93	15.21	
2025-01-08 12:23:15.83	254.97	15.22	
2025-01-08 12:23:16.04	255.02	15.23	
2025-01-08 12:23:16.24	255.06	15.24	
2025-01-08 12:23:16.44	255.10	15.25	
2025-01-08 12:23:16.65	255.14	15.25	
2025-01-08 12:23:16.85	255.18	15.26	
2025-01-08 12:23:17.06	255.22	15.27	
2025-01-08 12:23:17.26	255.26	15.28	
2025-01-08 12:23:17.47	255.31	15.28	
2025-01-08 12:23:17.67	255.35	15.29	
2025-01-08 12:23:17.88	255.39	15.30	
2025-01-08 12:23:18.08	255.43	15.31	
2025-01-08 12:23:18.29	255.47	15.31	
2025-01-08 12:23:18.49	255.51	15.32	
2025-01-08 12:23:18.70	255.55	15.33	
2025-01-08 12:23:18.90	255.59	15.34	
2025-01-08 12:23:19.11	255.64	15.34	
2025-01-08 12:23:19.31	255.68	15.35	
2025-01-08 12:23:19.52	255.72	15.36	
2025-01-08 12:23:19.72	255.76	15.37	
2025-01-08 12:23:19.93	255.80	15.37	
2025-01-08 12:23:20.13	255.84	15.38	
2025-01-08 12:23:20.34	255.89	15.39	
2025-01-08 12:23:20.54	255.93	15.40	
2025-01-08 12:23:20.75	255.97	15.40	
2025-01-08 12:23:20.95	256.01	15.41	
2025-01-08 12:23:21.16	256.05	15.42	
2025-01-08 12:23:21.38	256.10	15.43	
2025-01-08 12:23:21.58	256.14	15.43	
2025-01-08 12:23:21.79	256.18	15.44	
2025-01-08 12:23:22.00	256.22	15.45	
2025-01-08 12:23:22.20	256.26	15.46	
2025-01-08 12:23:22.42	256.31	15.46	
2025-01-08 12:23:22.62	256.35	15.47	
2025-01-08 12:23:22.83	256.39	15.48	
2025-01-08 12:23:23.03	256.43	15.49	
2025-01-08 12:23:23.24	256.48	15.49	
2025-01-08 12:23:23.44	256.52	15.50	
2025-01-08 12:23:23.65	256.56	15.51	
2025-01-08 12:23:23.85	256.60	15.52	
2025-01-08 12:23:24.06	256.64	15.52	
2025-01-08 12:23:24.26	256.69	15.53	
2025-01-08 12:23:24.47	256.73	15.54	
2025-01-08 12:23:24.67	256.77	15.54	
2025-01-08 12:23:24.88	256.81	15.55	
2025-01-08 12:23:25.08	256.85	15.56	
2025-01-08 12:23:25.29	256.90	15.57	
2025-01-08 12:23:25.50	256.94	15.57	
2025-01-08 12:23:25.70	256.98	15.58	
2025-01-08 12:23:25.91	257.02	15.59	
2025-01-08 12:23:26.11	257.07	15.59	
2025-01-08 12:23:26.32	257.11	15.60	
2025-01-08 12:23:26.52	257.15	15.61	
2025-01-08 12:23:26.73	257.19	15.62	
2025-01-08 12:23:26.93	257.23	15.62	
2025-01-08 12:23:27.14	257.28	15.63	
2025-01-08 12:23:27.34	257.32	15.64	
2025-01-08 12:23:27.55	257.36	15.64	
2025-01-08 12:23:27.77	257.41	15.65	
2025-01-08 12:23:27.97	257.45	15.66	
2025-01-08 12:23:28.18	257.49	15.67	
2025-01-08 12:23:28.38	257.53	15.67	
2025-01-08 12:23:28.59	257.58	15.68	
2025-01-08 12:23:28.79	257.62	15.69	
2025-01-08 12:23:29.00	257.66	15.69	
2025-01-08 12:23:29.21	257.71	15.70	
2025-01-08 12:23:29.41	257.75	15.71	
2025-01-08 12:23:29.62	257.79	15.71	
2025-01-08 12:23:29.82	257.83	15.72	
2025-01-08 12:23:30.03	257.88	15.73	
2025-01-08 12:23:30.23	257.92	15.74	
2025-01-08 12:23:30.44	257.96	15.74	
2025-01-08 12:23:30.64	258.00	15.75	
2025-01-08 12:23:30.85	258.05	15.76	
2025-01-08 12:23:31.05	258.09	15.76	
2025-01-08 12:23:31.26	258.13	15.77	
2025-01-08 12:23:31.46	258.17	15.78	
2025-01-08 12:23:31.67	258.22	15.78	
2025-01-08 12:23:31.87	258.26	15.79	
2025-01-08 12:23:32.08	258.30	15.80	
2025-01-08 12:23:32.28	258.34	15.80	
2025-01-08 12:23:32.49	258.39	15.81	
2025-01-08 12:23:32.70	258.43	15.82	
2025-01-08 12:23:32.90	258.47	15.82	
2025-01-08 12:23:33.10	258.52	15.83	
2025-01-08 12:23:33.31	258.56	15.84	
2025-01-08 12:23:33.51	258.60	15.84	
2025-01-08 12:23:33.72	258.65	15.85	
2025-01-08 12:23:33.92	258.69	15.86	
2025-01-08 12:23:34.13	258.73	15.86	
2025-01-08 12:23:34.33	258.77	15.87	
2025-01-08 12:23:34.54	258.82	15.88	
2025-01-08 12:23:34.74	258.86	15.88	
2025-01-08 12:23:34.95	258.90	15.89	
2025-01-08 12:23:35.15	258.95	15.90	
2025-01-08 12:23:35.36	258.99	15.90	
2025-01-08 12:23:35.57	259.03	15.91	
2025-01-08 12:23:35.77	259.08	15.92	
2025-01-08 12:23:35.97	259.12	15.92	
2025-01-08 12:23:36.18	259.16	15.93	
2025-01-08 12:23:36.38	259.20	15.94	
2025-01-08 12:23:36.59	259.25	15.94	
2025-01-08 12:23:36.80	259.29	15.95	
2025-01-08 12:23:37.00	259.33	15.96	
2025-01-08 12:23:37.21	259.38	15.96	
2025-01-08 12:23:37.41	259.42	15.97	
2025-01-08 12:23:37.62	259.46	15.97	
2025-01-08 12:23:37.82	259.51	15.98	
2025-01-08 12:23:38.03	259.55	15.99	
2025-01-08 12:23:38.23	259.59	15.99	
2025-01-08 12:23:38.44	259.64	16.00	
2025-01-08 12:23:38.64	259.68	16.01	
2025-01-08 12:23:38.85	259.72	16.01	
2025-01-08 12:23:39.05	259.77	16.02	
2025-01-08 12:23:39.26	259.81	16.03	
2025-01-08 12:23:39.48	259.86	16.03	
2025-01-08 12:23:39.68	259.90	16.04	
2025-01-08 12:23:39.89	259.94	16.04	
2025-01-08 12:23:40.10	259.99	16.05	
2025-01-08 12:23:40.30	260.03	16.06	
2025-01-08 12:23:40.51	260.08	16.06	
2025-01-08 12:23:40.71	260.12	16.07	
2025-01-08 12:23:40.92	260.16	16.08	
2025-01-08 12:23:41.12	260.21	16.08	
2025-01-08 12:23:41.33	260.25	16.09	
2025-01-08 12:23:41.53	260.29	16.09	
2025-01-08 12:23:41.74	260.34	16.10	
2025-01-08 12:23:41.94	260.38	16.11	
2025-01-08 12:23:42.15	260.42	16.11	
2025-01-08 12:23:42.36	260.47	16.12	
2025-01-08 12:23:42.56	260.51	16.12	
2025-01-08 12:23:42.77	260.56	16.13	
2025-01-08 12:23:42.97	260.60	16.14	
2025-01-08 12:23:43.18	260.64	16.14	
2025-01-08 12:23:43.38	260.69	16.15	
2025-01-08 12:23:43.59	260.73	16.15	
2025-01-08 12:23:43.79	260.77	16.16	
2025-01-08 12:23:44.00	260.82	16.17	
2025-01-08 12:23:44.20	260.86	16.17	
2025-01-08 12:23:44.41	260.91	16.18	
2025-01-08 12:23:44.61	260.95	16.18	
2025-01-08 12:23:44.82	260.99	16.19	
2025-01-08 12:23:45.02	261.04	16.20	
2025-01-08 12:23:45.23	261.08	16.20	
2025-01-08 12:23:45.43	261.12	16.21	
2025-01-08 12:23:45.64	261.17	16.21	
2025-01-08 12:23:45.85	261.21	16.22	
2025-01-08 12:23:46.05	261.26	16.23	
2025-01-08 12:23:46.26	261.30	16.23	
2025-01-08 12:23:46.46	261.35	16.24	
2025-01-08 12:23:46.67	261.39	16.24	
2025-01-08 12:23:46.87	261.43	16.25	
2025-01-08 12:23:47.08	261.48	16.25	
2025-01-08 12:23:47.28	261.52	16.26	
2025-01-08 12:23:47.49	261.57	16.27	
2025-01-08 12:23:47.69	261.61	16.27	
2025-01-08 12:23:47.90	261.66	16.28	
2025-01-08 12:23:48.10	261.70	16.28	
2025-01-08 12:23:48.31	261.74	16.29	
2025-01-08 12:23:48.51	261.79	16.29	
2025-01-08 12:23:48.72	261.83	16.30	
2025-01-08 12:23:48.92	261.87	16.31	
2025-01-08 12:23:49.13	261.92	16.31	
2025-01-08 12:23:49.33	261.96	16.32	
2025-01-08 12:23:49.54	262.01	16.32	
2025-01-08 12:23:49.74	262.05	16.33	
2025-01-08 12:23:49.95	262.10	16.33	
2025-01-08 12:23:50.17	262.14	16.34	
2025-01-08 12:23:50.37	262.19	16.34	
2025-01-08 12:23:50.58	262.23	16.35	
2025-01-08 12:23:50.78	262.28	16.36	
2025-01-08 12:23:50.99	262.32	16.36	
2025-01-08 12:23:51.19	262.36	16.37	
2025-01-08 12:23:51.40	262.41	16.37	
2025-01-08 12:23:51.60	262.45	16.38	
2025-01-08 12:23:51.81	262.50	16.38	
2025-01-08 12:23:52.01	262.54	16.39	
2025-01-08 12:23:52.22	262.59	16.39	
2025-01-08 12:23:52.42	262.63	16.40	
2025-01-08 12:23:52.63	262.68	16.40	
2025-01-08 12:23:52.83	262.72	16.41	
2025-01-08 12:23:53.04	262.77	16.41	
2025-01-08 12:23:53.24	262.81	16.42	
2025-01-08 12:23:53.45	262.85	16.43	
2025-01-08 12:23:53.65	262.90	16.43	
2025-01-08 12:23:53.86	262.94	16.44	
2025-01-08 12:23:54.06	262.99	16.44	
2025-01-08 12:23:54.27	263.03	16.45	
2025-01-08 12:23:54.48	263.08	16.45	
2025-01-08 12:23:54.68	263.12	16.46	
2025-01-08 12:23:54.89	263.17	16.46	
2025-01-08 12:23:55.10	263.21	16.47	
2025-01-08 12:23:55.30	263.26	16.47	
2025-01-08 12:23:55.51	263.30	16.48	
2025-01-08 12:23:55.71	263.35	16.48	
2025-01-08 12:23:55.92	263.39	16.49	
2025-01-08 12:23:56.13	263.44	16.49	
2025-01-08 12:23:56.33	263.48	16.50	
2025-01-08 12:23:56.54	263.53	16.50	
2025-01-08 12:23:56.74	263.57	16.51	
2025-01-08 12:23:56.95	263.62	16.51	
2025-01-08 12:23:57.15	263.66	16.52	
2025-01-08 12:23:57.36	263.71	16.52	
2025-01-08 12:23:57.56	263.75	16.53	
2025-01-08 12:23:57.77	263.80	16.53	
2025-01-08 12:23:57.97	263.84	16.54	
2025-01-08 12:23:58.18	263.89	16.54	
2025-01-08 12:23:58.39	263.93	16.55	
2025-01-08 12:23:58.59	263.98	16.55	
2025-01-08 12:23:58.80	264.02	16.56	
2025-01-08 12:23:59.00	264.07	16.56	
2025-01-08 12:23:59.21	264.11	16.57	
2025-01-08 12:23:59.41	264.15	16.57	
2025-01-08 12:23:59.62	264.20	16.58	
2025-01-08 12:23:59.84	264.25	16.58	
2025-01-08 12:24:00.04	264.29	16.59	
2025-01-08 12:24:00.25	264.34	16.59	
2025-01-08 12:24:00.45	264.38	16.60	
2025-01-08 12:24:00.66	264.43	16.60	
2025-01-08 12:24:00.86	264.47	16.61	
2025-01-08 12:24:01.07	264.52	16.61	
2025-01-08 12:24:01.27	264.56	16.62	
2025-01-08 12:24:01.48	264.61	16.62	
2025-01-08 12:24:01.68	264.65	16.62	
2025-01-08 12:24:01.89	264.70	16.63	
2025-01-08 12:24:02.09	264.74	16.63	
2025-01-08 12:24:02.30	264.79	16.64	
2025-01-08 12:24:02.50	264.83	16.64	
2025-01-08 12:24:02.71	264.88	16.65	
2025-01-08 12:24:02.91	264.92	16.65	
2025-01-08 12:24:03.12	264.97	16.66	
2025-01-08 12:24:03.32	265.01	16.66	
2025-01-08 12:24:03.53	265.06	16.67	
2025-01-08 12:24:03.74	265.11	16.67	
2025-01-08 12:24:03.94	265.15	16.67	
2025-01-08 12:24:04.15	265.20	16.68	
2025-01-08 12:24:04.35	265.24	16.68	
2025-01-08 12:24:04.56	265.29	16.69	
2025-01-08 12:24:04.76	265.33	16.69	
2025-01-08 12:24:04.97	265.38	16.70	
2025-01-08 12:24:05.17	265.42	16.70	
2025-01-08 12:24:05.38	265.47	16.71	
2025-01-08 12:24:05.58	265.51	16.71	
2025-01-08 12:24:05.79	265.56	16.71	
2025-01-08 12:24:05.99	265.60	16.72	
2025-01-08 12:24:06.20	265.65	16.72	
2025-01-08 12:24:06.40	265.69	16.73	
2025-01-08 12:24:06.61	265.74	16.73	
2025-01-08 12:24:06.81	265.79	16.74	
2025-01-08 12:24:07.02	265.83	16.74	
2025-01-08 12:24:07.23	265.88	16.74	
2025-01-08 12:24:07.43	265.92	16.75	
2025-01-08 12:24:07.64	265.97	16.75	
2025-01-08 12:24:07.84	266.01	16.76	
2025-01-08 12:24:08.05	266.06	16.76	
2025-01-08 12:24:08.25	266.11	16.76	
2025-01-08 12:24:08.46	266.15	16.77	
2025-01-08 12:24:08.66	266.20	16.77	
2025-01-08 12:24:08.87	266.24	16.78	
2025-01-08 12:24:09.07	266.29	16.78	
2025-01-08 12:24:09.28	266.33	16.79	
2025-01-08 12:24:09.48	266.38	16.79	
2025-01-08 12:24:09.69	266.42	16.79	
2025-01-08 12:24:09.89	266.47	16.80	
2025-01-08 12:24:10.10	266.52	16.80	
2025-01-08 12:24:10.30	266.56	16.81	
2025-01-08 12:24:10.52	266.61	16.81	
2025-01-08 12:24:10.72	266.65	16.81	
2025-01-08 12:24:10.93	266.70	16.82	
2025-01-08 12:24:11.14	266.75	16.82	
2025-01-08 12:24:11.34	266.79	16.83	
2025-01-08 12:24:11.54	266.84	16.83	
2025-01-08 12:24:11.75	266.88	16.83	
2025-01-08 12:24:11.96	266.93	16.84	
2025-01-08 12:24:12.16	266.97	16.84	
2025-01-08 12:24:12.37	267.02	16.84	
2025-01-08 12:24:12.57	267.07	16.85	
2025-01-08 12:24:12.78	267.11	16.85	
2025-01-08 12:24:12.99	267.16	16.86	
2025-01-08 12:24:13.19	267.20	16.86	
2025-01-08 12:24:13.40	267.25	16.86	
2025-01-08 12:24:13.60	267.30	16.87	
2025-01-08 12:24:13.81	267.34	16.87	
2025-01-08 12:24:14.02	267.39	16.87	
2025-01-08 12:24:14.22	267.43	16.88	
2025-01-08 12:24:14.43	267.48	16.88	
2025-01-08 12:24:14.63	267.53	16.89	
2025-01-08 12:24:14.85	267.58	16.89	
2025-01-08 12:24:15.06	267.62	16.89	
2025-01-08 12:24:15.26	267.67	16.90	
2025-01-08 12:24:15.47	267.71	16.90	
2025-01-08 12:24:15.68	267.76	16.90	
2025-01-08 12:24:15.88	267.81	16.91	
2025-01-08 12:24:16.09	267.85	16.91	
2025-01-08 12:24:16.29	267.90	16.91	
2025-01-08 12:24:16.50	267.94	16.92	
2025-01-08 12:24:16.71	267.99	16.92	
2025-01-08 12:24:16.91	268.04	16.92	
2025-01-08 12:24:17.12	268.08	16.93	
2025-01-08 12:24:17.33	268.13	16.93	
2025-01-08 12:24:17.54	268.18	16.93	
2025-01-08 12:24:17.74	268.22	16.94	
2025-01-08 12:24:17.95	268.27	16.94	
2025-01-08 12:24:18.15	268.32	16.94	
2025-01-08 12:24:18.36	268.36	16.95	
2025-01-08 12:24:18.56	268.41	16.95	
2025-01-08 12:24:18.77	268.45	16.95	
2025-01-08 12:24:18.98	268.50	16.96	
2025-01-08 12:24:19.18	268.55	16.96	
2025-01-08 12:24:19.39	268.59	16.96	
2025-01-08 12:24:19.59	268.64	16.97	
2025-01-08 12:24:19.80	268.69	16.97	
2025-01-08 12:24:20.00	268.73	16.97	
2025-01-08 12:24:20.21	268.78	16.98	
2025-01-08 12:24:20.41	268.82	16.98	
2025-01-08 12:24:20.62	268.87	16.98	
2025-01-08 12:24:20.82	268.92	16.99	
2025-01-08 12:24:21.03	268.96	16.99	
2025-01-08 12:24:21.23	269.01	16.99	
2025-01-08 12:24:21.44	269.05	17.00	
2025-01-08 12:24:21.65	269.10	17.00	
2025-01-08 12:24:21.85	269.15	17.00	
2025-01-08 12:24:22.06	269.19	17.00	
2025-01-08 12:24:22.26	269.24	17.01	
2025-01-08 12:24:22.47	269.29	17.01	
2025-01-08 12:24:22.67	269.33	17.01	
2025-01-08 12:24:22.88	269.38	17.02	
2025-01-08 12:24:23.09	269.43	17.02	
2025-01-08 12:24:23.29	269.47	17.02	
2025-01-08 12:24:23.49	269.52	17.02	
2025-01-08 12:24:23.70	269.56	17.03	
2025-01-08 12:24:23.90	269.61	17.03	
2025-01-08 12:24:24.11	269.66	17.03	
2025-01-08 12:24:24.32	269.70	17.04	
2025-01-08 12:24:24.52	269.75	17.04	
2025-01-08 12:24:24.73	269.80	17.04	
2025-01-08 12:24:24.94	269.84	17.04	
2025-01-08 12:24:25.14	269.89	17.05	
2025-01-08 12:24:25.35	269.94	17.05	
2025-01-08 12:24:25.55	269.98	17.05	
2025-01-08 12:24:25.76	270.03	17.06	
2025-01-08 12:24:25.96	270.07	17.06	
2025-01-08 12:24:26.17	270.12	17.06	
2025-01-08 12:24:26.37	270.17	17.06	
2025-01-08 12:24:26.58	270.21	17.07	
2025-01-08 12:24:26.78	270.26	17.07	
2025-01-08 12:24:26.99	270.31	17.07	
2025-01-08 12:24:27.19	270.35	17.07	
2025-01-08 12:24:27.40	270.40	17.08	
2025-01-08 12:24:27.61	270.45	17.08	
2025-01-08 12:24:27.82	270.50	17.08	
2025-01-08 12:24:28.03	270.54	17.08	
2025-01-08 12:24:28.23	270.59	17.09	
2025-01-08 12:24:28.44	270.64	17.09	
2025-01-08 12:24:28.64	270.68	17.09	
2025-01-08 12:24:28.85	270.73	17.09	
2025-01-08 12:24:29.06	270.78	17.10	
2025-01-08 12:24:29.26	270.82	17.10	
2025-01-08 12:24:29.47	270.87	17.10	
2025-01-08 12:24:29.67	270.91	17.10	
2025-01-08 12:24:29.88	270.96	17.11	
2025-01-08 12:24:30.08	271.01	17.11	
2025-01-08 12:24:30.29	271.06	17.11	
2025-01-08 12:24:30.50	271.10	17.11	
2025-01-08 12:24:30.70	271.15	17.11	
2025-01-08 12:24:30.91	271.20	17.12	
2025-01-08 12:24:31.11	271.24	17.12	
2025-01-08 12:24:31.32	271.29	17.12	
2025-01-08 12:24:31.52	271.33	17.12	
2025-01-08 12:24:31.73	271.38	17.13	
2025-01-08 12:24:31.94	271.43	17.13	
2025-01-08 12:24:32.14	271.47	17.13	
2025-01-08 12:24:32.35	271.52	17.13	
2025-01-08 12:24:32.57	271.57	17.13	
2025-01-08 12:24:32.77	271.62	17.14	
2025-01-08 12:24:32.99	271.67	17.14	
2025-01-08 12:24:33.19	271.71	17.14	
2025-01-08 12:24:33.40	271.76	17.14	
2025-01-08 12:24:33.61	271.81	17.14	
2025-01-08 12:24:33.81	271.85	17.15	
2025-01-08 12:24:34.02	271.90	17.15	
2025-01-08 12:24:34.22	271.95	17.15	
2025-01-08 12:24:34.43	272.00	17.15	
2025-01-08 12:24:34.63	272.04	17.15	
2025-01-08 12:24:34.84	272.09	17.16	
2025-01-08 12:24:35.04	272.13	17.16	
2025-01-08 12:24:35.25	272.18	17.16	
2025-01-08 12:24:35.45	272.23	17.16	
2025-01-08 12:24:35.66	272.28	17.16	
2025-01-08 12:24:35.87	272.32	17.16	
2025-01-08 12:24:36.07	272.37	17.17	
2025-01-08 12:24:36.27	272.41	17.17	
2025-01-08 12:24:36.48	272.46	17.17	
2025-01-08 12:24:36.69	272.51	17.17	
2025-01-08 12:24:36.89	272.56	17.17	
2025-01-08 12:24:37.10	272.60	17.18	
2025-01-08 12:24:37.30	272.65	17.18	
2025-01-08 12:24:37.51	272.70	17.18	
2025-01-08 12:24:37.72	272.74	17.18	
2025-01-08 12:24:37.92	272.79	17.18	
2025-01-08 12:24:38.13	272.84	17.18	
2025-01-08 12:24:38.33	272.88	17.18	
2025-01-08 12:24:38.53	272.93	17.19	
2025-01-08 12:24:38.74	272.98	17.19	
2025-01-08 12:24:38.94	273.02	17.19	
2025-01-08 12:24:39.15	273.07	17.19	
2025-01-08 12:24:39.35	273.12	17.19	
2025-01-08 12:24:39.56	273.16	17.19	
2025-01-08 12:24:39.77	273.21	17.20	
2025-01-08 12:24:39.97	273.26	17.20	
2025-01-08 12:24:40.18	273.31	17.20	
2025-01-08 12:24:40.38	273.35	17.20	
2025-01-08 12:24:40.59	273.40	17.20	
2025-01-08 12:24:40.79	273.44	17.20	
2025-01-08 12:24:41.00	273.49	17.20	
2025-01-08 12:24:41.20	273.54	17.21	
2025-01-08 12:24:41.41	273.59	17.21	
2025-01-08 12:24:41.61	273.63	17.21	
2025-01-08 12:24:41.82	273.68	17.21	
2025-01-08 12:24:42.02	273.72	17.21	
2025-01-08 12:24:42.23	273.77	17.21	
2025-01-08 12:24:42.43	273.82	17.21	
2025-01-08 12:24:42.64	273.87	17.21	
2025-01-08 12:24:42.84	273.91	17.21	
2025-01-08 12:24:43.05	273.96	17.22	
2025-01-08 12:24:43.25	274.01	17.22	
2025-01-08 12:24:43.46	274.05	17.22	
2025-01-08 12:24:43.68	274.10	17.22	
2025-01-08 12:24:43.88	274.15	17.22	
2025-01-08 12:24:44.09	274.20	17.22	
2025-01-08 12:24:44.29	274.24	17.22	
2025-01-08 12:24:44.50	274.29	17.22	
2025-01-08 12:24:44.70	274.34	17.22	
2025-01-08 12:24:44.91	274.38	17.23	
2025-01-08 12:24:45.11	274.43	17.23	
2025-01-08 12:24:45.32	274.48	17.23	
2025-01-08 12:24:45.53	274.53	17.23	
2025-01-08 12:24:45.73	274.57	17.23	
2025-01-08 12:24:45.94	274.62	17.23	
2025-01-08 12:24:46.14	274.67	17.23	
2025-01-08 12:24:46.35	274.71	17.23	
2025-01-08 12:24:46.55	274.76	17.23	
2025-01-08 12:24:46.75	274.81	17.23	
2025-01-08 12:24:46.96	274.85	17.23	
2025-01-08 12:24:47.16	274.90	17.24	
2025-01-08 12:24:47.37	274.95	17.24	
2025-01-08 12:24:47.58	274.99	17.24	
2025-01-08 12:24:47.78	275.04	17.24	
2025-01-08 12:24:47.99	275.09	17.24	
2025-01-08 12:24:48.19	275.13	17.24	
2025-01-08 12:24:48.40	275.18	17.24	
2025-01-08 12:24:48.60	275.23	17.24	
2025-01-08 12:24:48.81	275.28	17.24	
2025-01-08 12:24:49.03	275.33	17.24	
2025-01-08 12:24:49.23	275.37	17.24	
2025-01-08 12:24:49.44	275.42	17.24	
2025-01-08 12:24:49.64	275.47	17.24	
2025-01-08 12:24:49.85	275.51	17.24	
2025-01-08 12:24:50.07	275.56	17.24	
2025-01-08 12:24:50.27	275.61	17.25	
2025-01-08 12:24:50.48	275.66	17.25	
2025-01-08 12:24:50.68	275.70	17.25	
2025-01-08 12:24:50.89	275.75	17.25	
2025-01-08 12:24:51.09	275.80	17.25	
2025-01-08 12:24:51.30	275.85	17.25	
2025-01-08 12:24:51.51	275.89	17.25	
2025-01-08 12:24:51.71	275.94	17.25	
2025-01-08 12:24:51.91	275.99	17.25	
2025-01-08 12:24:52.12	276.03	17.25	
2025-01-08 12:24:52.32	276.08	17.25	
2025-01-08 12:24:52.53	276.13	17.25	
2025-01-08 12:24:52.74	276.17	17.25	
2025-01-08 12:24:52.94	276.22	17.25	
2025-01-08 12:24:53.15	276.27	17.25	
2025-01-08 12:24:53.35	276.31	17.25	
2025-01-08 12:24:53.56	276.36	17.25	
2025-01-08 12:24:53.76	276.41	17.25	
2025-01-08 12:24:53.97	276.46	17.25	
2025-01-08 12:24:54.18	276.50	17.25	
2025-01-08 12:24:54.38	276.55	17.25	
2025-01-08 12:24:54.58	276.60	17.25	
2025-01-08 12:24:54.79	276.64	17.25	
2025-01-08 12:24:55.00	276.69	17.25	
2025-01-08 12:24:55.20	276.74	17.25	
2025-01-08 12:24:55.42	276.79	17.25	
2025-01-08 12:24:55.63	276.84	17.25	
2025-01-08 12:24:55.83	276.88	17.25	
2025-01-08 12:24:56.04	276.93	17.25	
2025-01-08 12:24:56.24	276.98	17.25	
2025-01-08 12:24:56.45	277.02	17.25	
2025-01-08 12:24:56.65	277.07	17.25	
2025-01-08 12:24:56.86	277.12	17.25	
2025-01-08 12:24:57.06	277.16	17.25	
2025-01-08 12:24:57.27	277.21	17.25	
2025-01-08 12:24:57.47	277.26	17.25	
2025-01-08 12:24:57.68	277.31	17.25	
2025-01-08 12:24:57.88	277.35	17.25	
2025-01-08 12:24:58.09	277.40	17.25	
2025-01-08 12:24:58.29	277.44	17.25	
2025-01-08 12:24:58.50	277.49	17.25	
2025-01-08 12:24:58.70	277.54	17.25	
2025-01-08 12:24:58.91	277.59	17.25	
2025-01-08 12:24:59.11	277.63	17.25	
2025-01-08 12:24:59.32	277.68	17.25	
2025-01-08 12:24:59.52	277.73	17.25	
2025-01-08 12:24:59.73	277.77	17.25	
2025-01-08 12:24:59.93	277.82	17.25	
2025-01-08 12:25:00.14	277.87	17.25	
2025-01-08 12:25:00.34	277.91	17.25	
2025-01-08 12:25:00.55	277.96	17.25	
2025-01-08 12:25:00.75	278.01	17.25	
2025-01-08 12:25:00.96	278.06	17.25	
2025-01-08 12:25:01.16	278.10	17.25	
2025-01-08 12:25:01.37	278.15	17.25	
2025-01-08 12:25:01.57	278.19	17.24	
2025-01-08 12:25:01.78	278.24	17.24	
2025-01-08 12:25:01.98	278.29	17.24	
2025-01-08 12:25:02.19	278.34	17.24	
2025-01-08 12:25:02.39	278.38	17.24	
2025-01-08 12:25:02.60	278.43	17.24	
2025-01-08 12:25:02.80	278.48	17.24	
2025-01-08 12:25:03.01	278.52	17.24	
2025-01-08 12:25:03.21	278.57	17.24	
2025-01-08 12:25:03.42	278.62	17.24	
2025-01-08 12:25:03.62	278.66	17.24	
2025-01-08 12:25:03.83	278.71	17.24	
2025-01-08 12:25:04.03	278.76	17.24	
2025-01-08 12:25:04.24	278.80	17.24	
2025-01-08 12:25:04.45	278.85	17.24	
2025-01-08 12:25:04.65	278.90	17.24	
2025-01-08 12:25:04.86	278.95	17.23	
2025-01-08 12:25:05.07	278.99	17.23	
2025-01-08 12:25:05.28	279.04	17.23	
2025-01-08 12:25:05.49	279.09	17.23	
2025-01-08 12:25:05.69	279.14	17.23	
2025-01-08 12:25:05.90	279.18	17.23	
2025-01-08 12:25:06.10	279.23	17.23	
2025-01-08 12:25:06.31	279.28	17.23	
2025-01-08 12:25:06.51	279.32	17.23	
2025-01-08 12:25:06.71	279.37	17.23	
2025-01-08 12:25:06.92	279.42	17.23	
2025-01-08 12:25:07.13	279.47	17.22	
2025-01-08 12:25:07.33	279.51	17.22	
2025-01-08 12:25:07.54	279.56	17.22	
2025-01-08 12:25:07.74	279.60	17.22	
2025-01-08 12:25:07.95	279.65	17.22	
2025-01-08 12:25:08.15	279.70	17.22	
2025-01-08 12:25:08.36	279.75	17.22	
2025-01-08 12:25:08.56	279.79	17.22	
2025-01-08 12:25:08.77	279.84	17.22	
2025-01-08 12:25:08.98	279.89	17.21	
2025-01-08 12:25:09.18	279.93	17.21	
2025-01-08 12:25:09.39	279.98	17.21	
2025-01-08 12:25:09.59	280.03	17.21	
2025-01-08 12:25:09.80	280.07	17.21	
2025-01-08 12:25:10.00	280.12	17.21	
2025-01-08 12:25:10.21	280.17	17.21	
2025-01-08 12:25:10.41	280.21	17.21	
2025-01-08 12:25:10.62	280.26	17.20	
2025-01-08 12:25:10.82	280.31	17.20	
