passes_logs/2025/01/08/SPB_Silybum_02/SPB_Silybum_02__20250108_193013_TERRA_rec.log

#Pass ID: 20250108_193013_TERRA
#Satellite: TERRA
#Configuration: TERRA
#Start time: 2025-01-08 19:30:12

#Version: 2.0.20230423
#Station: SPB_Silybum_02
#Location: 30.233357 lon 59.946436 lat
#TLE: 1 25994U 99068A   25007.79031535  .00001159  00000+0  24884-3 0  9992
#TLE: 2 25994  98.0229  71.0496 0003578  86.9116 340.1593 14.60381232333028

#Time	Az	El	Level	Level2	SNR	BER	Gain	Gain2
2025-01-08 19:30:14.68	192.15	4.06	
2025-01-08 19:30:14.89	192.16	4.07	
2025-01-08 19:30:15.09	192.17	4.09	
2025-01-08 19:30:15.30	192.18	4.10	
2025-01-08 19:30:15.50	192.20	4.11	
2025-01-08 19:30:15.71	192.21	4.13	
2025-01-08 19:30:15.91	192.22	4.14	
2025-01-08 19:30:16.12	192.23	4.16	
2025-01-08 19:30:16.32	192.24	4.17	
2025-01-08 19:30:16.53	192.26	4.18	
2025-01-08 19:30:16.74	192.27	4.20	
2025-01-08 19:30:16.94	192.28	4.21	
2025-01-08 19:30:17.15	192.29	4.23	
2025-01-08 19:30:17.35	192.31	4.24	
2025-01-08 19:30:17.56	192.32	4.25	
2025-01-08 19:30:17.76	192.33	4.27	
2025-01-08 19:30:17.97	192.34	4.28	
2025-01-08 19:30:18.17	192.36	4.29	
2025-01-08 19:30:18.38	192.37	4.31	
2025-01-08 19:30:18.58	192.38	4.32	
2025-01-08 19:30:18.79	192.39	4.34	
2025-01-08 19:30:18.99	192.40	4.35	
2025-01-08 19:30:19.20	192.42	4.36	
2025-01-08 19:30:19.40	192.43	4.38	
2025-01-08 19:30:19.61	192.44	4.39	
2025-01-08 19:30:19.81	192.45	4.41	
2025-01-08 19:30:20.02	192.47	4.42	
2025-01-08 19:30:20.22	192.48	4.43	
2025-01-08 19:30:20.42	192.49	4.45	
2025-01-08 19:30:20.63	192.50	4.46	
2025-01-08 19:30:20.84	192.52	4.48	
2025-01-08 19:30:21.04	192.53	4.49	
2025-01-08 19:30:21.25	192.54	4.51	
2025-01-08 19:30:21.45	192.55	4.52	
2025-01-08 19:30:21.66	192.57	4.53	
2025-01-08 19:30:21.86	192.58	4.55	
2025-01-08 19:30:22.07	192.59	4.56	
2025-01-08 19:30:22.27	192.60	4.58	
2025-01-08 19:30:22.48	192.62	4.59	
2025-01-08 19:30:22.68	192.63	4.60	
2025-01-08 19:30:22.89	192.64	4.62	
2025-01-08 19:30:23.09	192.65	4.63	
2025-01-08 19:30:23.30	192.67	4.65	
2025-01-08 19:30:23.50	192.68	4.66	
2025-01-08 19:30:23.71	192.69	4.67	
2025-01-08 19:30:23.92	192.71	4.69	
2025-01-08 19:30:24.12	192.72	4.70	
2025-01-08 19:30:24.33	192.73	4.72	
2025-01-08 19:30:24.53	192.74	4.73	
2025-01-08 19:30:24.74	192.76	4.75	
2025-01-08 19:30:24.95	192.77	4.76	
2025-01-08 19:30:25.15	192.78	4.77	
2025-01-08 19:30:25.35	192.79	4.79	
2025-01-08 19:30:25.56	192.81	4.80	
2025-01-08 19:30:25.76	192.82	4.82	
2025-01-08 19:30:25.97	192.83	4.83	
2025-01-08 19:30:26.17	192.85	4.84	
2025-01-08 19:30:26.38	192.86	4.86	
2025-01-08 19:30:26.58	192.87	4.87	
2025-01-08 19:30:26.79	192.88	4.89	
2025-01-08 19:30:26.99	192.90	4.90	
2025-01-08 19:30:27.20	192.91	4.92	
2025-01-08 19:30:27.40	192.92	4.93	
2025-01-08 19:30:27.61	192.94	4.95	
2025-01-08 19:30:27.81	192.95	4.96	
2025-01-08 19:30:28.02	192.96	4.97	
2025-01-08 19:30:28.23	192.98	4.99	
2025-01-08 19:30:28.43	192.99	5.00	
2025-01-08 19:30:28.64	193.00	5.02	
2025-01-08 19:30:28.84	193.01	5.03	
2025-01-08 19:30:29.05	193.03	5.05	
2025-01-08 19:30:29.26	193.04	5.06	
2025-01-08 19:30:29.47	193.05	5.08	
2025-01-08 19:30:29.68	193.07	5.09	
2025-01-08 19:30:29.88	193.08	5.10	
2025-01-08 19:30:30.09	193.09	5.12	
2025-01-08 19:30:30.29	193.11	5.13	
2025-01-08 19:30:30.50	193.12	5.15	
2025-01-08 19:30:30.70	193.13	5.16	
2025-01-08 19:30:30.91	193.15	5.18	
2025-01-08 19:30:31.11	193.16	5.19	
2025-01-08 19:30:31.32	193.17	5.21	
2025-01-08 19:30:31.52	193.18	5.22	
2025-01-08 19:30:31.73	193.20	5.23	
2025-01-08 19:30:31.93	193.21	5.25	
2025-01-08 19:30:32.14	193.22	5.26	
2025-01-08 19:30:32.34	193.24	5.28	
2025-01-08 19:30:32.55	193.25	5.29	
2025-01-08 19:30:32.75	193.26	5.31	
2025-01-08 19:30:32.96	193.28	5.32	
2025-01-08 19:30:33.17	193.29	5.34	
2025-01-08 19:30:33.37	193.30	5.35	
2025-01-08 19:30:33.58	193.32	5.36	
2025-01-08 19:30:33.78	193.33	5.38	
2025-01-08 19:30:33.99	193.34	5.39	
2025-01-08 19:30:34.20	193.36	5.41	
2025-01-08 19:30:34.40	193.37	5.42	
2025-01-08 19:30:34.61	193.38	5.44	
2025-01-08 19:30:34.81	193.40	5.45	
2025-01-08 19:30:35.02	193.41	5.47	
2025-01-08 19:30:35.22	193.42	5.48	
2025-01-08 19:30:35.43	193.44	5.50	
2025-01-08 19:30:35.63	193.45	5.51	
2025-01-08 19:30:35.84	193.47	5.53	
2025-01-08 19:30:36.04	193.48	5.54	
2025-01-08 19:30:36.25	193.49	5.55	
2025-01-08 19:30:36.46	193.51	5.57	
2025-01-08 19:30:36.66	193.52	5.58	
2025-01-08 19:30:36.87	193.53	5.60	
2025-01-08 19:30:37.07	193.55	5.61	
2025-01-08 19:30:37.27	193.56	5.63	
2025-01-08 19:30:37.48	193.57	5.64	
2025-01-08 19:30:37.69	193.59	5.66	
2025-01-08 19:30:37.89	193.60	5.67	
2025-01-08 19:30:38.09	193.61	5.69	
2025-01-08 19:30:38.30	193.63	5.70	
2025-01-08 19:30:38.51	193.64	5.72	
2025-01-08 19:30:38.71	193.65	5.73	
2025-01-08 19:30:38.92	193.67	5.75	
2025-01-08 19:30:39.12	193.68	5.76	
2025-01-08 19:30:39.32	193.70	5.77	
2025-01-08 19:30:39.53	193.71	5.79	
2025-01-08 19:30:39.74	193.72	5.80	
2025-01-08 19:30:39.94	193.74	5.82	
2025-01-08 19:30:40.14	193.75	5.83	
2025-01-08 19:30:40.35	193.76	5.85	
2025-01-08 19:30:40.56	193.78	5.86	
2025-01-08 19:30:40.76	193.79	5.88	
2025-01-08 19:30:40.97	193.81	5.89	
2025-01-08 19:30:41.17	193.82	5.91	
2025-01-08 19:30:41.38	193.83	5.92	
2025-01-08 19:30:41.58	193.85	5.94	
2025-01-08 19:30:41.79	193.86	5.95	
2025-01-08 19:30:41.99	193.87	5.97	
2025-01-08 19:30:42.20	193.89	5.98	
2025-01-08 19:30:42.42	193.90	6.00	
2025-01-08 19:30:42.62	193.92	6.01	
2025-01-08 19:30:42.83	193.93	6.03	
2025-01-08 19:30:43.03	193.95	6.04	
2025-01-08 19:30:43.24	193.96	6.06	
2025-01-08 19:30:43.44	193.97	6.07	
2025-01-08 19:30:43.65	193.99	6.09	
2025-01-08 19:30:43.85	194.00	6.10	
2025-01-08 19:30:44.06	194.02	6.12	
2025-01-08 19:30:44.27	194.03	6.13	
2025-01-08 19:30:44.48	194.04	6.15	
2025-01-08 19:30:44.69	194.06	6.16	
2025-01-08 19:30:44.89	194.07	6.18	
2025-01-08 19:30:45.10	194.09	6.19	
2025-01-08 19:30:45.31	194.10	6.21	
2025-01-08 19:30:45.52	194.12	6.22	
2025-01-08 19:30:45.73	194.13	6.24	
2025-01-08 19:30:45.93	194.14	6.25	
2025-01-08 19:30:46.14	194.16	6.27	
2025-01-08 19:30:46.34	194.17	6.28	
2025-01-08 19:30:46.55	194.19	6.30	
2025-01-08 19:30:46.75	194.20	6.31	
2025-01-08 19:30:46.96	194.22	6.33	
2025-01-08 19:30:47.17	194.23	6.34	
2025-01-08 19:30:47.37	194.24	6.36	
2025-01-08 19:30:47.57	194.26	6.37	
2025-01-08 19:30:47.78	194.27	6.39	
2025-01-08 19:30:47.98	194.29	6.40	
2025-01-08 19:30:48.19	194.30	6.42	
2025-01-08 19:30:48.40	194.32	6.44	
2025-01-08 19:30:48.60	194.33	6.45	
2025-01-08 19:30:48.81	194.34	6.47	
2025-01-08 19:30:49.01	194.36	6.48	
2025-01-08 19:30:49.22	194.37	6.50	
2025-01-08 19:30:49.42	194.39	6.51	
2025-01-08 19:30:49.63	194.40	6.53	
2025-01-08 19:30:49.83	194.42	6.54	
2025-01-08 19:30:50.04	194.43	6.56	
2025-01-08 19:30:50.24	194.45	6.57	
2025-01-08 19:30:50.45	194.46	6.59	
2025-01-08 19:30:50.65	194.47	6.60	
2025-01-08 19:30:50.86	194.49	6.62	
2025-01-08 19:30:51.06	194.50	6.63	
2025-01-08 19:30:51.27	194.52	6.65	
2025-01-08 19:30:51.48	194.53	6.66	
2025-01-08 19:30:51.68	194.55	6.68	
2025-01-08 19:30:51.89	194.56	6.69	
2025-01-08 19:30:52.09	194.58	6.71	
2025-01-08 19:30:52.30	194.59	6.72	
2025-01-08 19:30:52.50	194.61	6.74	
2025-01-08 19:30:52.71	194.62	6.75	
2025-01-08 19:30:52.91	194.64	6.77	
2025-01-08 19:30:53.12	194.65	6.79	
2025-01-08 19:30:53.32	194.66	6.80	
2025-01-08 19:30:53.53	194.68	6.82	
2025-01-08 19:30:53.74	194.69	6.83	
2025-01-08 19:30:53.94	194.71	6.85	
2025-01-08 19:30:54.14	194.72	6.86	
2025-01-08 19:30:54.35	194.74	6.88	
2025-01-08 19:30:54.56	194.75	6.89	
2025-01-08 19:30:54.76	194.77	6.91	
2025-01-08 19:30:54.97	194.78	6.92	
2025-01-08 19:30:55.19	194.80	6.94	
2025-01-08 19:30:55.39	194.81	6.96	
2025-01-08 19:30:55.60	194.83	6.97	
2025-01-08 19:30:55.80	194.84	6.99	
2025-01-08 19:30:56.01	194.86	7.00	
2025-01-08 19:30:56.21	194.87	7.02	
2025-01-08 19:30:56.42	194.89	7.03	
2025-01-08 19:30:56.62	194.90	7.05	
2025-01-08 19:30:56.82	194.92	7.06	
2025-01-08 19:30:57.03	194.93	7.08	
2025-01-08 19:30:57.23	194.95	7.09	
2025-01-08 19:30:57.44	194.96	7.11	
2025-01-08 19:30:57.65	194.98	7.13	
2025-01-08 19:30:57.85	194.99	7.14	
2025-01-08 19:30:58.06	195.01	7.16	
2025-01-08 19:30:58.26	195.02	7.17	
2025-01-08 19:30:58.47	195.04	7.19	
2025-01-08 19:30:58.68	195.06	7.20	
2025-01-08 19:30:58.88	195.07	7.22	
2025-01-08 19:30:59.09	195.09	7.23	
2025-01-08 19:30:59.29	195.10	7.25	
2025-01-08 19:30:59.49	195.12	7.26	
2025-01-08 19:30:59.70	195.13	7.28	
2025-01-08 19:30:59.90	195.15	7.30	
2025-01-08 19:31:00.11	195.16	7.31	
2025-01-08 19:31:00.31	195.18	7.33	
2025-01-08 19:31:00.52	195.19	7.34	
2025-01-08 19:31:00.72	195.21	7.36	
2025-01-08 19:31:00.93	195.22	7.37	
2025-01-08 19:31:01.13	195.24	7.39	
2025-01-08 19:31:01.34	195.25	7.41	
2025-01-08 19:31:01.54	195.27	7.42	
2025-01-08 19:31:01.75	195.28	7.44	
2025-01-08 19:31:01.95	195.30	7.45	
2025-01-08 19:31:02.16	195.31	7.47	
2025-01-08 19:31:02.36	195.33	7.48	
2025-01-08 19:31:02.57	195.35	7.50	
2025-01-08 19:31:02.77	195.36	7.52	
2025-01-08 19:31:02.98	195.38	7.53	
2025-01-08 19:31:03.18	195.39	7.55	
2025-01-08 19:31:03.39	195.41	7.56	
2025-01-08 19:31:03.59	195.42	7.58	
2025-01-08 19:31:03.80	195.44	7.59	
2025-01-08 19:31:04.01	195.45	7.61	
2025-01-08 19:31:04.21	195.47	7.63	
2025-01-08 19:31:04.42	195.49	7.64	
2025-01-08 19:31:04.62	195.50	7.66	
2025-01-08 19:31:04.82	195.52	7.67	
2025-01-08 19:31:05.03	195.53	7.69	
2025-01-08 19:31:05.24	195.55	7.71	
2025-01-08 19:31:05.44	195.56	7.72	
2025-01-08 19:31:05.65	195.58	7.74	
2025-01-08 19:31:05.85	195.60	7.75	
2025-01-08 19:31:06.06	195.61	7.77	
2025-01-08 19:31:06.26	195.63	7.78	
2025-01-08 19:31:06.47	195.64	7.80	
2025-01-08 19:31:06.68	195.66	7.82	
2025-01-08 19:31:06.88	195.67	7.83	
2025-01-08 19:31:07.08	195.69	7.85	
2025-01-08 19:31:07.29	195.71	7.86	
2025-01-08 19:31:07.49	195.72	7.88	
2025-01-08 19:31:07.70	195.74	7.90	
2025-01-08 19:31:07.90	195.75	7.91	
2025-01-08 19:31:08.11	195.77	7.93	
2025-01-08 19:31:08.31	195.79	7.94	
2025-01-08 19:31:08.51	195.80	7.96	
2025-01-08 19:31:08.72	195.82	7.98	
2025-01-08 19:31:08.92	195.83	7.99	
2025-01-08 19:31:09.13	195.85	8.01	
2025-01-08 19:31:09.33	195.87	8.02	
2025-01-08 19:31:09.54	195.88	8.04	
2025-01-08 19:31:09.74	195.90	8.06	
2025-01-08 19:31:09.95	195.91	8.07	
2025-01-08 19:31:10.15	195.93	8.09	
2025-01-08 19:31:10.36	195.95	8.10	
2025-01-08 19:31:10.57	195.96	8.12	
2025-01-08 19:31:10.77	195.98	8.14	
2025-01-08 19:31:10.98	196.00	8.15	
2025-01-08 19:31:11.18	196.01	8.17	
2025-01-08 19:31:11.39	196.03	8.18	
2025-01-08 19:31:11.59	196.04	8.20	
2025-01-08 19:31:11.80	196.06	8.22	
2025-01-08 19:31:12.00	196.08	8.23	
2025-01-08 19:31:12.21	196.09	8.25	
2025-01-08 19:31:12.41	196.11	8.26	
2025-01-08 19:31:12.62	196.13	8.28	
2025-01-08 19:31:12.82	196.14	8.30	
2025-01-08 19:31:13.03	196.16	8.31	
2025-01-08 19:31:13.23	196.17	8.33	
2025-01-08 19:31:13.44	196.19	8.35	
2025-01-08 19:31:13.64	196.21	8.36	
2025-01-08 19:31:13.85	196.22	8.38	
2025-01-08 19:31:14.05	196.24	8.39	
2025-01-08 19:31:14.26	196.26	8.41	
2025-01-08 19:31:14.46	196.27	8.43	
2025-01-08 19:31:14.67	196.29	8.44	
2025-01-08 19:31:14.87	196.31	8.46	
2025-01-08 19:31:15.08	196.32	8.48	
2025-01-08 19:31:15.29	196.34	8.49	
2025-01-08 19:31:15.49	196.36	8.51	
2025-01-08 19:31:15.69	196.37	8.52	
2025-01-08 19:31:15.90	196.39	8.54	
2025-01-08 19:31:16.11	196.41	8.56	
2025-01-08 19:31:16.31	196.42	8.57	
2025-01-08 19:31:16.51	196.44	8.59	
2025-01-08 19:31:16.72	196.46	8.61	
2025-01-08 19:31:16.92	196.47	8.62	
2025-01-08 19:31:17.13	196.49	8.64	
2025-01-08 19:31:17.34	196.51	8.66	
2025-01-08 19:31:17.54	196.52	8.67	
2025-01-08 19:31:17.75	196.54	8.69	
2025-01-08 19:31:17.95	196.56	8.71	
2025-01-08 19:31:18.16	196.57	8.72	
2025-01-08 19:31:18.36	196.59	8.74	
2025-01-08 19:31:18.57	196.61	8.76	
2025-01-08 19:31:18.77	196.62	8.77	
2025-01-08 19:31:18.98	196.64	8.79	
2025-01-08 19:31:19.18	196.66	8.80	
2025-01-08 19:31:19.39	196.68	8.82	
2025-01-08 19:31:19.59	196.69	8.84	
2025-01-08 19:31:19.81	196.71	8.85	
2025-01-08 19:31:20.02	196.73	8.87	
2025-01-08 19:31:20.22	196.74	8.89	
2025-01-08 19:31:20.43	196.76	8.90	
2025-01-08 19:31:20.64	196.78	8.92	
2025-01-08 19:31:20.84	196.80	8.94	
2025-01-08 19:31:21.04	196.81	8.95	
2025-01-08 19:31:21.25	196.83	8.97	
2025-01-08 19:31:21.45	196.85	8.99	
2025-01-08 19:31:21.66	196.87	9.00	
2025-01-08 19:31:21.87	196.88	9.02	
2025-01-08 19:31:22.07	196.90	9.04	
2025-01-08 19:31:22.28	196.92	9.05	
2025-01-08 19:31:22.48	196.93	9.07	
2025-01-08 19:31:22.69	196.95	9.09	
2025-01-08 19:31:22.89	196.97	9.10	
2025-01-08 19:31:23.10	196.99	9.12	
2025-01-08 19:31:23.30	197.00	9.14	
2025-01-08 19:31:23.51	197.02	9.15	
2025-01-08 19:31:23.72	197.04	9.17	
2025-01-08 19:31:23.92	197.06	9.19	
2025-01-08 19:31:24.13	197.07	9.21	
2025-01-08 19:31:24.33	197.09	9.22	
2025-01-08 19:31:24.54	197.11	9.24	
2025-01-08 19:31:24.74	197.13	9.26	
2025-01-08 19:31:24.95	197.14	9.27	
2025-01-08 19:31:25.17	197.16	9.29	
2025-01-08 19:31:25.37	197.18	9.31	
2025-01-08 19:31:25.58	197.20	9.32	
2025-01-08 19:31:25.78	197.22	9.34	
2025-01-08 19:31:25.99	197.23	9.36	
2025-01-08 19:31:26.19	197.25	9.37	
2025-01-08 19:31:26.40	197.27	9.39	
2025-01-08 19:31:26.60	197.29	9.41	
2025-01-08 19:31:26.81	197.30	9.43	
2025-01-08 19:31:27.02	197.32	9.44	
2025-01-08 19:31:27.22	197.34	9.46	
2025-01-08 19:31:27.42	197.36	9.48	
2025-01-08 19:31:27.63	197.38	9.49	
2025-01-08 19:31:27.83	197.39	9.51	
2025-01-08 19:31:28.04	197.41	9.53	
2025-01-08 19:31:28.24	197.43	9.54	
2025-01-08 19:31:28.45	197.45	9.56	
2025-01-08 19:31:28.66	197.47	9.58	
2025-01-08 19:31:28.86	197.48	9.59	
2025-01-08 19:31:29.07	197.50	9.61	
2025-01-08 19:31:29.27	197.52	9.63	
2025-01-08 19:31:29.48	197.54	9.65	
2025-01-08 19:31:29.68	197.55	9.66	
2025-01-08 19:31:29.89	197.57	9.68	
2025-01-08 19:31:30.09	197.59	9.70	
2025-01-08 19:31:30.30	197.61	9.71	
2025-01-08 19:31:30.50	197.63	9.73	
2025-01-08 19:31:30.71	197.65	9.75	
2025-01-08 19:31:30.92	197.66	9.77	
2025-01-08 19:31:31.12	197.68	9.78	
2025-01-08 19:31:31.32	197.70	9.80	
2025-01-08 19:31:31.54	197.72	9.82	
2025-01-08 19:31:31.75	197.74	9.84	
2025-01-08 19:31:31.96	197.76	9.85	
2025-01-08 19:31:32.16	197.77	9.87	
2025-01-08 19:31:32.37	197.79	9.89	
2025-01-08 19:31:32.57	197.81	9.90	
2025-01-08 19:31:32.78	197.83	9.92	
2025-01-08 19:31:32.98	197.85	9.94	
2025-01-08 19:31:33.19	197.87	9.96	
2025-01-08 19:31:33.39	197.88	9.97	
2025-01-08 19:31:33.59	197.90	9.99	
2025-01-08 19:31:33.80	197.92	10.01	
2025-01-08 19:31:34.01	197.94	10.02	
2025-01-08 19:31:34.21	197.96	10.04	
2025-01-08 19:31:34.42	197.98	10.06	
2025-01-08 19:31:34.62	198.00	10.08	
2025-01-08 19:31:34.83	198.01	10.09	
2025-01-08 19:31:35.03	198.03	10.11	
2025-01-08 19:31:35.24	198.05	10.13	
2025-01-08 19:31:35.44	198.07	10.15	
2025-01-08 19:31:35.65	198.09	10.16	
2025-01-08 19:31:35.85	198.11	10.18	
2025-01-08 19:31:36.06	198.13	10.20	
2025-01-08 19:31:36.26	198.14	10.21	
2025-01-08 19:31:36.47	198.16	10.23	
2025-01-08 19:31:36.67	198.18	10.25	
2025-01-08 19:31:36.87	198.20	10.27	
2025-01-08 19:31:37.08	198.22	10.28	
2025-01-08 19:31:37.29	198.24	10.30	
2025-01-08 19:31:37.49	198.26	10.32	
2025-01-08 19:31:37.70	198.28	10.34	
2025-01-08 19:31:37.90	198.30	10.35	
2025-01-08 19:31:38.11	198.32	10.37	
2025-01-08 19:31:38.31	198.33	10.39	
2025-01-08 19:31:38.52	198.35	10.41	
2025-01-08 19:31:38.72	198.37	10.42	
2025-01-08 19:31:38.93	198.39	10.44	
2025-01-08 19:31:39.13	198.41	10.46	
2025-01-08 19:31:39.34	198.43	10.48	
2025-01-08 19:31:39.54	198.45	10.49	
2025-01-08 19:31:39.75	198.47	10.51	
2025-01-08 19:31:39.96	198.49	10.53	
2025-01-08 19:31:40.16	198.51	10.55	
2025-01-08 19:31:40.37	198.53	10.57	
2025-01-08 19:31:40.57	198.54	10.58	
2025-01-08 19:31:40.78	198.56	10.60	
2025-01-08 19:31:40.98	198.58	10.62	
2025-01-08 19:31:41.20	198.60	10.64	
2025-01-08 19:31:41.41	198.62	10.65	
2025-01-08 19:31:41.61	198.64	10.67	
2025-01-08 19:31:41.82	198.66	10.69	
2025-01-08 19:31:42.02	198.68	10.71	
2025-01-08 19:31:42.23	198.70	10.73	
2025-01-08 19:31:42.43	198.72	10.74	
2025-01-08 19:31:42.64	198.74	10.76	
2025-01-08 19:31:42.84	198.76	10.78	
2025-01-08 19:31:43.05	198.78	10.80	
2025-01-08 19:31:43.25	198.80	10.81	
2025-01-08 19:31:43.46	198.82	10.83	
2025-01-08 19:31:43.66	198.84	10.85	
2025-01-08 19:31:43.87	198.86	10.87	
2025-01-08 19:31:44.07	198.88	10.89	
2025-01-08 19:31:44.28	198.90	10.90	
2025-01-08 19:31:44.48	198.92	10.92	
2025-01-08 19:31:44.69	198.94	10.94	
2025-01-08 19:31:44.89	198.96	10.96	
2025-01-08 19:31:45.10	198.98	10.97	
2025-01-08 19:31:45.31	199.00	10.99	
2025-01-08 19:31:45.51	199.02	11.01	
2025-01-08 19:31:45.71	199.03	11.03	
2025-01-08 19:31:45.92	199.06	11.05	
2025-01-08 19:31:46.13	199.08	11.06	
2025-01-08 19:31:46.33	199.09	11.08	
2025-01-08 19:31:46.55	199.12	11.10	
2025-01-08 19:31:46.76	199.14	11.12	
2025-01-08 19:31:46.96	199.16	11.14	
2025-01-08 19:31:47.17	199.18	11.16	
2025-01-08 19:31:47.37	199.20	11.17	
2025-01-08 19:31:47.58	199.22	11.19	
2025-01-08 19:31:47.78	199.24	11.21	
2025-01-08 19:31:47.99	199.26	11.23	
2025-01-08 19:31:48.19	199.28	11.25	
2025-01-08 19:31:48.40	199.30	11.26	
2025-01-08 19:31:48.60	199.32	11.28	
2025-01-08 19:31:48.81	199.34	11.30	
2025-01-08 19:31:49.01	199.36	11.32	
2025-01-08 19:31:49.22	199.38	11.34	
2025-01-08 19:31:49.42	199.40	11.35	
2025-01-08 19:31:49.63	199.42	11.37	
2025-01-08 19:31:49.83	199.44	11.39	
2025-01-08 19:31:50.04	199.46	11.41	
2025-01-08 19:31:50.24	199.48	11.43	
2025-01-08 19:31:50.45	199.50	11.45	
2025-01-08 19:31:50.65	199.52	11.46	
2025-01-08 19:31:50.86	199.54	11.48	
2025-01-08 19:31:51.06	199.56	11.50	
2025-01-08 19:31:51.27	199.58	11.52	
2025-01-08 19:31:51.47	199.60	11.54	
2025-01-08 19:31:51.68	199.62	11.55	
2025-01-08 19:31:51.88	199.64	11.57	
2025-01-08 19:31:52.08	199.66	11.59	
2025-01-08 19:31:52.29	199.69	11.61	
2025-01-08 19:31:52.50	199.71	11.63	
2025-01-08 19:31:52.70	199.73	11.65	
2025-01-08 19:31:52.91	199.75	11.66	
2025-01-08 19:31:53.11	199.77	11.68	
2025-01-08 19:31:53.32	199.79	11.70	
2025-01-08 19:31:53.52	199.81	11.72	
2025-01-08 19:31:53.73	199.83	11.74	
2025-01-08 19:31:53.93	199.85	11.76	
2025-01-08 19:31:54.14	199.87	11.77	
2025-01-08 19:31:54.35	199.89	11.79	
2025-01-08 19:31:54.55	199.92	11.81	
2025-01-08 19:31:54.76	199.94	11.83	
2025-01-08 19:31:54.96	199.96	11.85	
2025-01-08 19:31:55.16	199.98	11.87	
2025-01-08 19:31:55.37	200.00	11.88	
2025-01-08 19:31:55.57	200.02	11.90	
2025-01-08 19:31:55.78	200.04	11.92	
2025-01-08 19:31:55.98	200.06	11.94	
2025-01-08 19:31:56.19	200.08	11.96	
2025-01-08 19:31:56.39	200.10	11.98	
2025-01-08 19:31:56.60	200.13	12.00	
2025-01-08 19:31:56.80	200.15	12.01	
2025-01-08 19:31:57.01	200.17	12.03	
2025-01-08 19:31:57.21	200.19	12.05	
2025-01-08 19:31:57.42	200.21	12.07	
2025-01-08 19:31:57.63	200.23	12.09	
2025-01-08 19:31:57.83	200.25	12.11	
2025-01-08 19:31:58.04	200.28	12.13	
2025-01-08 19:31:58.24	200.30	12.14	
2025-01-08 19:31:58.44	200.32	12.16	
2025-01-08 19:31:58.65	200.34	12.18	
2025-01-08 19:31:58.86	200.36	12.20	
2025-01-08 19:31:59.06	200.38	12.22	
2025-01-08 19:31:59.27	200.41	12.24	
2025-01-08 19:31:59.47	200.43	12.26	
2025-01-08 19:31:59.68	200.45	12.28	
2025-01-08 19:31:59.88	200.47	12.29	
2025-01-08 19:32:00.09	200.49	12.31	
2025-01-08 19:32:00.29	200.51	12.33	
2025-01-08 19:32:00.50	200.54	12.35	
2025-01-08 19:32:00.70	200.56	12.37	
2025-01-08 19:32:00.91	200.58	12.39	
2025-01-08 19:32:01.12	200.60	12.41	
2025-01-08 19:32:01.32	200.62	12.43	
2025-01-08 19:32:01.52	200.64	12.44	
2025-01-08 19:32:01.73	200.67	12.46	
2025-01-08 19:32:01.93	200.69	12.48	
2025-01-08 19:32:02.14	200.71	12.50	
2025-01-08 19:32:02.35	200.73	12.52	
2025-01-08 19:32:02.55	200.76	12.54	
2025-01-08 19:32:02.76	200.78	12.56	
2025-01-08 19:32:02.96	200.80	12.58	
2025-01-08 19:32:03.17	200.82	12.60	
2025-01-08 19:32:03.37	200.84	12.62	
2025-01-08 19:32:03.58	200.87	12.63	
2025-01-08 19:32:03.78	200.89	12.65	
2025-01-08 19:32:03.99	200.91	12.67	
2025-01-08 19:32:04.19	200.93	12.69	
2025-01-08 19:32:04.40	200.96	12.71	
2025-01-08 19:32:04.60	200.98	12.73	
2025-01-08 19:32:04.81	201.00	12.75	
2025-01-08 19:32:05.01	201.02	12.77	
2025-01-08 19:32:05.22	201.05	12.79	
2025-01-08 19:32:05.42	201.07	12.81	
2025-01-08 19:32:05.63	201.09	12.82	
2025-01-08 19:32:05.83	201.11	12.84	
2025-01-08 19:32:06.04	201.14	12.86	
2025-01-08 19:32:06.24	201.16	12.88	
2025-01-08 19:32:06.45	201.18	12.90	
2025-01-08 19:32:06.66	201.20	12.92	
2025-01-08 19:32:06.86	201.23	12.94	
2025-01-08 19:32:07.06	201.25	12.96	
2025-01-08 19:32:07.27	201.27	12.98	
2025-01-08 19:32:07.47	201.29	13.00	
2025-01-08 19:32:07.68	201.32	13.02	
2025-01-08 19:32:07.88	201.34	13.04	
2025-01-08 19:32:08.09	201.36	13.05	
2025-01-08 19:32:08.30	201.39	13.07	
2025-01-08 19:32:08.50	201.41	13.09	
2025-01-08 19:32:08.71	201.43	13.11	
2025-01-08 19:32:08.91	201.46	13.13	
2025-01-08 19:32:09.12	201.48	13.15	
2025-01-08 19:32:09.32	201.50	13.17	
2025-01-08 19:32:09.53	201.53	13.19	
2025-01-08 19:32:09.73	201.55	13.21	
2025-01-08 19:32:09.95	201.57	13.23	
2025-01-08 19:32:10.15	201.60	13.25	
2025-01-08 19:32:10.36	201.62	13.27	
2025-01-08 19:32:10.57	201.64	13.29	
2025-01-08 19:32:10.77	201.67	13.31	
2025-01-08 19:32:10.97	201.69	13.33	
2025-01-08 19:32:11.18	201.71	13.35	
2025-01-08 19:32:11.39	201.74	13.37	
2025-01-08 19:32:11.59	201.76	13.39	
2025-01-08 19:32:11.80	201.78	13.41	
2025-01-08 19:32:12.00	201.81	13.42	
2025-01-08 19:32:12.20	201.83	13.44	
2025-01-08 19:32:12.41	201.85	13.46	
2025-01-08 19:32:12.61	201.88	13.48	
2025-01-08 19:32:12.82	201.90	13.50	
2025-01-08 19:32:13.02	201.92	13.52	
2025-01-08 19:32:13.23	201.95	13.54	
2025-01-08 19:32:13.43	201.97	13.56	
2025-01-08 19:32:13.64	202.00	13.58	
2025-01-08 19:32:13.84	202.02	13.60	
2025-01-08 19:32:14.05	202.04	13.62	
2025-01-08 19:32:14.26	202.07	13.64	
2025-01-08 19:32:14.46	202.09	13.66	
2025-01-08 19:32:14.67	202.11	13.68	
2025-01-08 19:32:14.87	202.14	13.70	
2025-01-08 19:32:15.08	202.16	13.72	
2025-01-08 19:32:15.30	202.19	13.74	
2025-01-08 19:32:15.50	202.21	13.76	
2025-01-08 19:32:15.71	202.24	13.78	
2025-01-08 19:32:15.91	202.26	13.80	
2025-01-08 19:32:16.12	202.28	13.82	
2025-01-08 19:32:16.32	202.31	13.84	
2025-01-08 19:32:16.52	202.33	13.86	
2025-01-08 19:32:16.73	202.36	13.88	
2025-01-08 19:32:16.93	202.38	13.90	
2025-01-08 19:32:17.14	202.41	13.92	
2025-01-08 19:32:17.34	202.43	13.94	
2025-01-08 19:32:17.55	202.45	13.96	
2025-01-08 19:32:17.76	202.48	13.98	
2025-01-08 19:32:17.96	202.50	14.00	
2025-01-08 19:32:18.17	202.53	14.02	
2025-01-08 19:32:18.37	202.55	14.04	
2025-01-08 19:32:18.58	202.58	14.06	
2025-01-08 19:32:18.78	202.60	14.08	
2025-01-08 19:32:18.99	202.63	14.10	
2025-01-08 19:32:19.19	202.65	14.12	
2025-01-08 19:32:19.40	202.68	14.14	
2025-01-08 19:32:19.60	202.70	14.16	
2025-01-08 19:32:19.81	202.73	14.18	
2025-01-08 19:32:20.01	202.75	14.20	
2025-01-08 19:32:20.22	202.77	14.22	
2025-01-08 19:32:20.43	202.80	14.24	
2025-01-08 19:32:20.63	202.82	14.26	
2025-01-08 19:32:20.83	202.85	14.28	
2025-01-08 19:32:21.04	202.87	14.30	
2025-01-08 19:32:21.24	202.90	14.32	
2025-01-08 19:32:21.45	202.92	14.34	
2025-01-08 19:32:21.65	202.95	14.36	
2025-01-08 19:32:21.86	202.97	14.38	
2025-01-08 19:32:22.06	203.00	14.40	
2025-01-08 19:32:22.27	203.02	14.42	
2025-01-08 19:32:22.48	203.05	14.44	
2025-01-08 19:32:22.68	203.08	14.46	
2025-01-08 19:32:22.89	203.10	14.48	
2025-01-08 19:32:23.09	203.13	14.50	
2025-01-08 19:32:23.30	203.15	14.52	
2025-01-08 19:32:23.51	203.18	14.54	
2025-01-08 19:32:23.71	203.20	14.56	
2025-01-08 19:32:23.92	203.23	14.58	
2025-01-08 19:32:24.12	203.25	14.60	
2025-01-08 19:32:24.33	203.28	14.62	
2025-01-08 19:32:24.53	203.30	14.64	
2025-01-08 19:32:24.74	203.33	14.66	
2025-01-08 19:32:24.94	203.36	14.68	
2025-01-08 19:32:25.15	203.38	14.70	
2025-01-08 19:32:25.35	203.41	14.72	
2025-01-08 19:32:25.56	203.43	14.74	
2025-01-08 19:32:25.76	203.46	14.76	
2025-01-08 19:32:25.98	203.49	14.79	
2025-01-08 19:32:26.19	203.51	14.81	
2025-01-08 19:32:26.39	203.54	14.83	
2025-01-08 19:32:26.60	203.56	14.85	
2025-01-08 19:32:26.80	203.59	14.87	
2025-01-08 19:32:27.00	203.62	14.89	
2025-01-08 19:32:27.21	203.64	14.91	
2025-01-08 19:32:27.42	203.67	14.93	
2025-01-08 19:32:27.62	203.69	14.95	
2025-01-08 19:32:27.83	203.72	14.97	
2025-01-08 19:32:28.03	203.75	14.99	
2025-01-08 19:32:28.24	203.77	15.01	
2025-01-08 19:32:28.44	203.80	15.03	
2025-01-08 19:32:28.65	203.83	15.05	
2025-01-08 19:32:28.85	203.85	15.07	
2025-01-08 19:32:29.06	203.88	15.09	
2025-01-08 19:32:29.26	203.90	15.11	
2025-01-08 19:32:29.47	203.93	15.14	
2025-01-08 19:32:29.67	203.96	15.16	
2025-01-08 19:32:29.88	203.98	15.18	
2025-01-08 19:32:30.08	204.01	15.20	
2025-01-08 19:32:30.29	204.04	15.22	
2025-01-08 19:32:30.49	204.06	15.24	
2025-01-08 19:32:30.70	204.09	15.26	
2025-01-08 19:32:30.90	204.12	15.28	
2025-01-08 19:32:31.11	204.14	15.30	
2025-01-08 19:32:31.31	204.17	15.32	
2025-01-08 19:32:31.52	204.20	15.34	
2025-01-08 19:32:31.73	204.23	15.36	
2025-01-08 19:32:31.93	204.25	15.38	
2025-01-08 19:32:32.14	204.28	15.41	
2025-01-08 19:32:32.34	204.31	15.43	
2025-01-08 19:32:32.54	204.33	15.45	
2025-01-08 19:32:32.75	204.36	15.47	
2025-01-08 19:32:32.96	204.39	15.49	
2025-01-08 19:32:33.16	204.41	15.51	
2025-01-08 19:32:33.37	204.44	15.53	
2025-01-08 19:32:33.57	204.47	15.55	
2025-01-08 19:32:33.78	204.50	15.57	
2025-01-08 19:32:33.98	204.52	15.59	
2025-01-08 19:32:34.19	204.55	15.62	
2025-01-08 19:32:34.39	204.58	15.64	
2025-01-08 19:32:34.60	204.61	15.66	
2025-01-08 19:32:34.80	204.63	15.68	
2025-01-08 19:32:35.01	204.66	15.70	
2025-01-08 19:32:35.21	204.69	15.72	
2025-01-08 19:32:35.42	204.72	15.74	
2025-01-08 19:32:35.62	204.74	15.76	
2025-01-08 19:32:35.83	204.77	15.78	
2025-01-08 19:32:36.03	204.80	15.80	
2025-01-08 19:32:36.24	204.83	15.83	
2025-01-08 19:32:36.44	204.85	15.85	
2025-01-08 19:32:36.64	204.88	15.87	
2025-01-08 19:32:36.85	204.91	15.89	
2025-01-08 19:32:37.06	204.94	15.91	
2025-01-08 19:32:37.26	204.97	15.93	
2025-01-08 19:32:37.47	204.99	15.95	
2025-01-08 19:32:37.67	205.02	15.97	
2025-01-08 19:32:37.88	205.05	16.00	
2025-01-08 19:32:38.09	205.08	16.02	
2025-01-08 19:32:38.29	205.11	16.04	
2025-01-08 19:32:38.50	205.14	16.06	
2025-01-08 19:32:38.70	205.16	16.08	
2025-01-08 19:32:38.91	205.19	16.10	
2025-01-08 19:32:39.11	205.22	16.12	
2025-01-08 19:32:39.32	205.25	16.14	
2025-01-08 19:32:39.52	205.28	16.17	
2025-01-08 19:32:39.73	205.31	16.19	
2025-01-08 19:32:39.93	205.33	16.21	
2025-01-08 19:32:40.14	205.36	16.23	
2025-01-08 19:32:40.35	205.39	16.25	
2025-01-08 19:32:40.55	205.42	16.27	
2025-01-08 19:32:40.75	205.45	16.29	
2025-01-08 19:32:40.96	205.48	16.32	
2025-01-08 19:32:41.16	205.50	16.34	
2025-01-08 19:32:41.37	205.53	16.36	
2025-01-08 19:32:41.58	205.56	16.38	
2025-01-08 19:32:41.78	205.59	16.40	
2025-01-08 19:32:41.98	205.62	16.42	
2025-01-08 19:32:42.18	205.65	16.44	
2025-01-08 19:32:42.39	205.68	16.47	
2025-01-08 19:32:42.60	205.71	16.49	
2025-01-08 19:32:42.80	205.74	16.51	
2025-01-08 19:32:43.00	205.76	16.53	
2025-01-08 19:32:43.21	205.79	16.55	
2025-01-08 19:32:43.42	205.82	16.57	
2025-01-08 19:32:43.62	205.85	16.60	
2025-01-08 19:32:43.83	205.88	16.62	
2025-01-08 19:32:44.04	205.91	16.64	
2025-01-08 19:32:44.25	205.94	16.66	
2025-01-08 19:32:44.45	205.97	16.68	
2025-01-08 19:32:44.66	206.00	16.71	
2025-01-08 19:32:44.86	206.03	16.73	
2025-01-08 19:32:45.07	206.06	16.75	
2025-01-08 19:32:45.28	206.09	16.77	
2025-01-08 19:32:45.48	206.12	16.79	
2025-01-08 19:32:45.69	206.15	16.81	
2025-01-08 19:32:45.89	206.18	16.84	
2025-01-08 19:32:46.10	206.21	16.86	
2025-01-08 19:32:46.30	206.24	16.88	
2025-01-08 19:32:46.51	206.27	16.90	
2025-01-08 19:32:46.71	206.30	16.92	
2025-01-08 19:32:46.92	206.33	16.95	
2025-01-08 19:32:47.12	206.36	16.97	
2025-01-08 19:32:47.33	206.39	16.99	
2025-01-08 19:32:47.53	206.42	17.01	
2025-01-08 19:32:47.74	206.45	17.03	
2025-01-08 19:32:47.95	206.48	17.06	
2025-01-08 19:32:48.15	206.51	17.08	
2025-01-08 19:32:48.36	206.54	17.10	
2025-01-08 19:32:48.56	206.57	17.12	
2025-01-08 19:32:48.77	206.60	17.14	
2025-01-08 19:32:48.97	206.63	17.17	
2025-01-08 19:32:49.18	206.66	17.19	
2025-01-08 19:32:49.39	206.69	17.21	
2025-01-08 19:32:49.60	206.73	17.23	
2025-01-08 19:32:49.81	206.76	17.26	
2025-01-08 19:32:50.01	206.79	17.28	
2025-01-08 19:32:50.22	206.82	17.30	
2025-01-08 19:32:50.42	206.85	17.32	
2025-01-08 19:32:50.63	206.88	17.34	
2025-01-08 19:32:50.84	206.91	17.37	
2025-01-08 19:32:51.04	206.94	17.39	
2025-01-08 19:32:51.25	206.97	17.41	
2025-01-08 19:32:51.45	207.00	17.43	
2025-01-08 19:32:51.65	207.03	17.45	
2025-01-08 19:32:51.86	207.07	17.48	
2025-01-08 19:32:52.06	207.10	17.50	
2025-01-08 19:32:52.27	207.13	17.52	
2025-01-08 19:32:52.48	207.16	17.54	
2025-01-08 19:32:52.70	207.19	17.57	
2025-01-08 19:32:52.90	207.22	17.59	
2025-01-08 19:32:53.11	207.26	17.61	
2025-01-08 19:32:53.31	207.29	17.63	
2025-01-08 19:32:53.52	207.32	17.66	
2025-01-08 19:32:53.74	207.35	17.68	
2025-01-08 19:32:53.94	207.38	17.70	
2025-01-08 19:32:54.15	207.42	17.73	
2025-01-08 19:32:54.35	207.45	17.75	
2025-01-08 19:32:54.56	207.48	17.77	
2025-01-08 19:32:54.76	207.51	17.79	
2025-01-08 19:32:54.97	207.54	17.82	
2025-01-08 19:32:55.17	207.57	17.84	
2025-01-08 19:32:55.38	207.61	17.86	
2025-01-08 19:32:55.58	207.64	17.88	
2025-01-08 19:32:55.79	207.67	17.91	
2025-01-08 19:32:55.99	207.70	17.93	
2025-01-08 19:32:56.20	207.73	17.95	
2025-01-08 19:32:56.40	207.77	17.97	
2025-01-08 19:32:56.61	207.80	18.00	
2025-01-08 19:32:56.81	207.83	18.02	
2025-01-08 19:32:57.02	207.86	18.04	
2025-01-08 19:32:57.22	207.89	18.06	
2025-01-08 19:32:57.43	207.93	18.09	
2025-01-08 19:32:57.64	207.96	18.11	
2025-01-08 19:32:57.84	207.99	18.13	
2025-01-08 19:32:58.04	208.02	18.15	
2025-01-08 19:32:58.25	208.06	18.18	
2025-01-08 19:32:58.45	208.09	18.20	
2025-01-08 19:32:58.66	208.12	18.22	
2025-01-08 19:32:58.87	208.16	18.25	
2025-01-08 19:32:59.07	208.19	18.27	
2025-01-08 19:32:59.28	208.22	18.29	
2025-01-08 19:32:59.48	208.25	18.31	
2025-01-08 19:32:59.69	208.29	18.34	
2025-01-08 19:32:59.89	208.32	18.36	
2025-01-08 19:33:00.11	208.36	18.38	
2025-01-08 19:33:00.32	208.39	18.41	
2025-01-08 19:33:00.52	208.42	18.43	
2025-01-08 19:33:00.73	208.46	18.45	
2025-01-08 19:33:00.93	208.49	18.47	
2025-01-08 19:33:01.13	208.52	18.50	
2025-01-08 19:33:01.34	208.55	18.52	
2025-01-08 19:33:01.55	208.59	18.54	
2025-01-08 19:33:01.75	208.62	18.57	
2025-01-08 19:33:01.96	208.66	18.59	
2025-01-08 19:33:02.16	208.69	18.61	
2025-01-08 19:33:02.37	208.72	18.64	
2025-01-08 19:33:02.57	208.76	18.66	
2025-01-08 19:33:02.78	208.79	18.68	
2025-01-08 19:33:02.98	208.82	18.70	
2025-01-08 19:33:03.19	208.86	18.73	
2025-01-08 19:33:03.39	208.89	18.75	
2025-01-08 19:33:03.60	208.93	18.77	
2025-01-08 19:33:03.80	208.96	18.80	
2025-01-08 19:33:04.01	208.99	18.82	
2025-01-08 19:33:04.21	209.03	18.84	
2025-01-08 19:33:04.43	209.06	18.87	
2025-01-08 19:33:04.64	209.10	18.89	
2025-01-08 19:33:04.84	209.13	18.91	
2025-01-08 19:33:05.05	209.17	18.94	
2025-01-08 19:33:05.26	209.20	18.96	
2025-01-08 19:33:05.46	209.24	18.98	
2025-01-08 19:33:05.67	209.27	19.01	
2025-01-08 19:33:05.87	209.30	19.03	
2025-01-08 19:33:06.08	209.34	19.05	
2025-01-08 19:33:06.28	209.37	19.08	
2025-01-08 19:33:06.48	209.41	19.10	
2025-01-08 19:33:06.69	209.44	19.12	
2025-01-08 19:33:06.89	209.48	19.15	
2025-01-08 19:33:07.10	209.51	19.17	
2025-01-08 19:33:07.31	209.55	19.19	
2025-01-08 19:33:07.51	209.58	19.22	
2025-01-08 19:33:07.72	209.62	19.24	
2025-01-08 19:33:07.92	209.65	19.26	
2025-01-08 19:33:08.13	209.69	19.29	
2025-01-08 19:33:08.33	209.72	19.31	
2025-01-08 19:33:08.54	209.76	19.33	
2025-01-08 19:33:08.74	209.79	19.36	
2025-01-08 19:33:08.95	209.83	19.38	
2025-01-08 19:33:09.15	209.86	19.40	
2025-01-08 19:33:09.36	209.90	19.43	
2025-01-08 19:33:09.57	209.94	19.45	
2025-01-08 19:33:09.78	209.97	19.48	
2025-01-08 19:33:09.99	210.01	19.50	
2025-01-08 19:33:10.20	210.05	19.52	
2025-01-08 19:33:10.40	210.08	19.55	
2025-01-08 19:33:10.61	210.12	19.57	
2025-01-08 19:33:10.81	210.15	19.59	
2025-01-08 19:33:11.01	210.19	19.62	
2025-01-08 19:33:11.22	210.22	19.64	
2025-01-08 19:33:11.43	210.26	19.66	
2025-01-08 19:33:11.63	210.30	19.69	
2025-01-08 19:33:11.83	210.33	19.71	
2025-01-08 19:33:12.04	210.37	19.73	
2025-01-08 19:33:12.25	210.41	19.76	
2025-01-08 19:33:12.45	210.44	19.78	
2025-01-08 19:33:12.66	210.48	19.81	
2025-01-08 19:33:12.86	210.51	19.83	
2025-01-08 19:33:13.07	210.55	19.85	
2025-01-08 19:33:13.27	210.59	19.88	
2025-01-08 19:33:13.48	210.62	19.90	
2025-01-08 19:33:13.68	210.66	19.92	
2025-01-08 19:33:13.89	210.70	19.95	
2025-01-08 19:33:14.09	210.73	19.97	
2025-01-08 19:33:14.30	210.77	20.00	
2025-01-08 19:33:14.51	210.81	20.02	
2025-01-08 19:33:14.71	210.84	20.04	
2025-01-08 19:33:14.92	210.88	20.07	
2025-01-08 19:33:15.12	210.92	20.09	
2025-01-08 19:33:15.32	210.95	20.11	
2025-01-08 19:33:15.53	210.99	20.14	
2025-01-08 19:33:15.74	211.03	20.16	
2025-01-08 19:33:15.95	211.07	20.19	
2025-01-08 19:33:16.16	211.11	20.21	
2025-01-08 19:33:16.36	211.14	20.24	
2025-01-08 19:33:16.57	211.18	20.26	
2025-01-08 19:33:16.77	211.22	20.28	
2025-01-08 19:33:16.98	211.26	20.31	
2025-01-08 19:33:17.18	211.29	20.33	
2025-01-08 19:33:17.39	211.33	20.36	
2025-01-08 19:33:17.59	211.37	20.38	
2025-01-08 19:33:17.79	211.41	20.40	
2025-01-08 19:33:18.00	211.45	20.43	
2025-01-08 19:33:18.20	211.48	20.45	
2025-01-08 19:33:18.41	211.52	20.48	
2025-01-08 19:33:18.62	211.56	20.50	
2025-01-08 19:33:18.82	211.60	20.52	
2025-01-08 19:33:19.03	211.64	20.55	
2025-01-08 19:33:19.23	211.67	20.57	
2025-01-08 19:33:19.44	211.71	20.60	
2025-01-08 19:33:19.64	211.75	20.62	
2025-01-08 19:33:19.85	211.79	20.64	
2025-01-08 19:33:20.05	211.83	20.67	
2025-01-08 19:33:20.26	211.87	20.69	
2025-01-08 19:33:20.46	211.90	20.72	
2025-01-08 19:33:20.67	211.94	20.74	
2025-01-08 19:33:20.87	211.98	20.76	
2025-01-08 19:33:21.08	212.02	20.79	
2025-01-08 19:33:21.28	212.06	20.81	
2025-01-08 19:33:21.50	212.10	20.84	
2025-01-08 19:33:21.70	212.14	20.86	
2025-01-08 19:33:21.91	212.18	20.89	
2025-01-08 19:33:22.11	212.22	20.91	
2025-01-08 19:33:22.32	212.26	20.94	
2025-01-08 19:33:22.52	212.30	20.96	
2025-01-08 19:33:22.73	212.34	20.99	
2025-01-08 19:33:22.93	212.37	21.01	
2025-01-08 19:33:23.14	212.42	21.03	
2025-01-08 19:33:23.34	212.45	21.06	
2025-01-08 19:33:23.55	212.49	21.08	
2025-01-08 19:33:23.75	212.53	21.11	
2025-01-08 19:33:23.96	212.57	21.13	
2025-01-08 19:33:24.17	212.61	21.16	
2025-01-08 19:33:24.37	212.65	21.18	
2025-01-08 19:33:24.58	212.69	21.21	
2025-01-08 19:33:24.78	212.73	21.23	
2025-01-08 19:33:25.00	212.78	21.26	
2025-01-08 19:33:25.20	212.82	21.28	
2025-01-08 19:33:25.41	212.86	21.30	
2025-01-08 19:33:25.61	212.90	21.33	
2025-01-08 19:33:25.82	212.94	21.35	
2025-01-08 19:33:26.02	212.98	21.38	
2025-01-08 19:33:26.23	213.02	21.40	
2025-01-08 19:33:26.43	213.06	21.43	
2025-01-08 19:33:26.64	213.10	21.45	
2025-01-08 19:33:26.84	213.14	21.48	
2025-01-08 19:33:27.05	213.18	21.50	
2025-01-08 19:33:27.25	213.22	21.52	
2025-01-08 19:33:27.46	213.26	21.55	
2025-01-08 19:33:27.67	213.30	21.57	
2025-01-08 19:33:27.87	213.34	21.60	
2025-01-08 19:33:28.07	213.38	21.62	
2025-01-08 19:33:28.28	213.43	21.65	
2025-01-08 19:33:28.49	213.47	21.67	
2025-01-08 19:33:28.69	213.51	21.70	
2025-01-08 19:33:28.89	213.55	21.72	
2025-01-08 19:33:29.10	213.59	21.75	
2025-01-08 19:33:29.30	213.63	21.77	
2025-01-08 19:33:29.51	213.67	21.80	
2025-01-08 19:33:29.72	213.72	21.82	
2025-01-08 19:33:29.92	213.76	21.85	
2025-01-08 19:33:30.13	213.80	21.87	
2025-01-08 19:33:30.33	213.84	21.90	
2025-01-08 19:33:30.54	213.88	21.92	
2025-01-08 19:33:30.74	213.92	21.94	
2025-01-08 19:33:30.95	213.97	21.97	
2025-01-08 19:33:31.15	214.01	21.99	
2025-01-08 19:33:31.36	214.05	22.02	
2025-01-08 19:33:31.56	214.09	22.04	
2025-01-08 19:33:31.77	214.13	22.07	
2025-01-08 19:33:31.97	214.18	22.09	
2025-01-08 19:33:32.18	214.22	22.12	
2025-01-08 19:33:32.38	214.26	22.14	
2025-01-08 19:33:32.59	214.30	22.17	
2025-01-08 19:33:32.79	214.35	22.19	
2025-01-08 19:33:33.00	214.39	22.22	
2025-01-08 19:33:33.20	214.43	22.24	
2025-01-08 19:33:33.41	214.48	22.27	
2025-01-08 19:33:33.61	214.52	22.29	
2025-01-08 19:33:33.82	214.56	22.32	
2025-01-08 19:33:34.02	214.60	22.34	
2025-01-08 19:33:34.22	214.65	22.37	
2025-01-08 19:33:34.43	214.69	22.39	
2025-01-08 19:33:34.64	214.73	22.42	
2025-01-08 19:33:34.84	214.78	22.44	
2025-01-08 19:33:35.05	214.82	22.47	
2025-01-08 19:33:35.26	214.86	22.49	
2025-01-08 19:33:35.47	214.91	22.52	
2025-01-08 19:33:35.67	214.95	22.54	
2025-01-08 19:33:35.88	215.00	22.57	
2025-01-08 19:33:36.08	215.04	22.59	
2025-01-08 19:33:36.29	215.08	22.62	
2025-01-08 19:33:36.49	215.13	22.64	
2025-01-08 19:33:36.70	215.17	22.67	
2025-01-08 19:33:36.90	215.21	22.69	
2025-01-08 19:33:37.11	215.26	22.72	
2025-01-08 19:33:37.32	215.31	22.75	
2025-01-08 19:33:37.52	215.35	22.77	
2025-01-08 19:33:37.72	215.39	22.80	
2025-01-08 19:33:37.93	215.44	22.82	
2025-01-08 19:33:38.13	215.48	22.85	
2025-01-08 19:33:38.34	215.53	22.87	
2025-01-08 19:33:38.54	215.57	22.90	
2025-01-08 19:33:38.75	215.62	22.92	
2025-01-08 19:33:38.95	215.66	22.95	
2025-01-08 19:33:39.16	215.70	22.97	
2025-01-08 19:33:39.37	215.75	23.00	
2025-01-08 19:33:39.57	215.79	23.02	
2025-01-08 19:33:39.77	215.84	23.05	
2025-01-08 19:33:39.98	215.88	23.07	
2025-01-08 19:33:40.18	215.93	23.10	
2025-01-08 19:33:40.39	215.98	23.12	
2025-01-08 19:33:40.59	216.02	23.15	
2025-01-08 19:33:40.80	216.07	23.17	
2025-01-08 19:33:41.00	216.11	23.20	
2025-01-08 19:33:41.21	216.16	23.23	
2025-01-08 19:33:41.41	216.20	23.25	
2025-01-08 19:33:41.62	216.25	23.28	
2025-01-08 19:33:41.84	216.30	23.30	
2025-01-08 19:33:42.04	216.34	23.33	
2025-01-08 19:33:42.25	216.39	23.35	
2025-01-08 19:33:42.45	216.43	23.38	
2025-01-08 19:33:42.66	216.48	23.40	
2025-01-08 19:33:42.86	216.53	23.43	
2025-01-08 19:33:43.07	216.57	23.46	
2025-01-08 19:33:43.27	216.62	23.48	
2025-01-08 19:33:43.48	216.67	23.51	
2025-01-08 19:33:43.69	216.71	23.53	
2025-01-08 19:33:43.89	216.76	23.56	
2025-01-08 19:33:44.09	216.81	23.58	
2025-01-08 19:33:44.30	216.85	23.61	
2025-01-08 19:33:44.50	216.90	23.63	
2025-01-08 19:33:44.71	216.95	23.66	
2025-01-08 19:33:44.91	216.99	23.68	
2025-01-08 19:33:45.12	217.04	23.71	
2025-01-08 19:33:45.33	217.09	23.74	
2025-01-08 19:33:45.53	217.13	23.76	
2025-01-08 19:33:45.74	217.18	23.79	
2025-01-08 19:33:45.94	217.23	23.81	
2025-01-08 19:33:46.15	217.28	23.84	
2025-01-08 19:33:46.35	217.32	23.86	
2025-01-08 19:33:46.56	217.37	23.89	
2025-01-08 19:33:46.76	217.42	23.91	
2025-01-08 19:33:46.97	217.47	23.94	
2025-01-08 19:33:47.18	217.52	23.97	
2025-01-08 19:33:47.38	217.56	23.99	
2025-01-08 19:33:47.59	217.61	24.02	
2025-01-08 19:33:47.79	217.66	24.04	
2025-01-08 19:33:48.00	217.71	24.07	
2025-01-08 19:33:48.21	217.76	24.09	
2025-01-08 19:33:48.42	217.81	24.12	
2025-01-08 19:33:48.62	217.86	24.15	
2025-01-08 19:33:48.83	217.91	24.17	
2025-01-08 19:33:49.03	217.95	24.20	
2025-01-08 19:33:49.24	218.00	24.22	
2025-01-08 19:33:49.45	218.05	24.25	
2025-01-08 19:33:49.65	218.10	24.27	
2025-01-08 19:33:49.86	218.15	24.30	
2025-01-08 19:33:50.06	218.20	24.33	
2025-01-08 19:33:50.27	218.25	24.35	
2025-01-08 19:33:50.47	218.30	24.38	
2025-01-08 19:33:50.68	218.35	24.40	
2025-01-08 19:33:50.88	218.39	24.43	
2025-01-08 19:33:51.09	218.44	24.45	
2025-01-08 19:33:51.29	218.49	24.48	
2025-01-08 19:33:51.50	218.54	24.51	
2025-01-08 19:33:51.70	218.59	24.53	
2025-01-08 19:33:51.91	218.64	24.56	
2025-01-08 19:33:52.11	218.69	24.58	
2025-01-08 19:33:52.32	218.74	24.61	
2025-01-08 19:33:52.53	218.79	24.64	
2025-01-08 19:33:52.74	218.85	24.66	
2025-01-08 19:33:52.94	218.89	24.69	
2025-01-08 19:33:53.15	218.95	24.71	
2025-01-08 19:33:53.35	218.99	24.74	
2025-01-08 19:33:53.56	219.05	24.76	
2025-01-08 19:33:53.76	219.10	24.79	
2025-01-08 19:33:53.97	219.15	24.82	
2025-01-08 19:33:54.17	219.20	24.84	
2025-01-08 19:33:54.38	219.25	24.87	
2025-01-08 19:33:54.58	219.30	24.89	
2025-01-08 19:33:54.79	219.35	24.92	
2025-01-08 19:33:54.99	219.40	24.94	
2025-01-08 19:33:55.20	219.45	24.97	
2025-01-08 19:33:55.40	219.50	25.00	
2025-01-08 19:33:55.61	219.55	25.02	
2025-01-08 19:33:55.81	219.60	25.05	
2025-01-08 19:33:56.02	219.66	25.07	
2025-01-08 19:33:56.22	219.71	25.10	
2025-01-08 19:33:56.43	219.76	25.13	
2025-01-08 19:33:56.64	219.81	25.15	
2025-01-08 19:33:56.84	219.86	25.18	
2025-01-08 19:33:57.04	219.91	25.20	
2025-01-08 19:33:57.25	219.97	25.23	
2025-01-08 19:33:57.46	220.02	25.26	
2025-01-08 19:33:57.66	220.07	25.28	
2025-01-08 19:33:57.87	220.12	25.31	
2025-01-08 19:33:58.07	220.18	25.33	
2025-01-08 19:33:58.28	220.23	25.36	
2025-01-08 19:33:58.48	220.28	25.38	
2025-01-08 19:33:58.69	220.33	25.41	
2025-01-08 19:33:58.89	220.39	25.44	
2025-01-08 19:33:59.10	220.44	25.46	
2025-01-08 19:33:59.31	220.49	25.49	
2025-01-08 19:33:59.51	220.54	25.51	
2025-01-08 19:33:59.72	220.60	25.54	
2025-01-08 19:33:59.92	220.65	25.57	
2025-01-08 19:34:00.12	220.70	25.59	
2025-01-08 19:34:00.33	220.76	25.62	
2025-01-08 19:34:00.54	220.81	25.64	
2025-01-08 19:34:00.74	220.86	25.67	
2025-01-08 19:34:00.94	220.92	25.69	
2025-01-08 19:34:01.15	220.97	25.72	
2025-01-08 19:34:01.35	221.02	25.75	
2025-01-08 19:34:01.56	221.08	25.77	
2025-01-08 19:34:01.77	221.13	25.80	
2025-01-08 19:34:01.97	221.19	25.82	
2025-01-08 19:34:02.17	221.24	25.85	
2025-01-08 19:34:02.38	221.29	25.88	
2025-01-08 19:34:02.59	221.35	25.90	
2025-01-08 19:34:02.79	221.40	25.93	
2025-01-08 19:34:03.00	221.46	25.95	
2025-01-08 19:34:03.20	221.51	25.98	
2025-01-08 19:34:03.41	221.57	26.01	
2025-01-08 19:34:03.61	221.62	26.03	
2025-01-08 19:34:03.82	221.68	26.06	
2025-01-08 19:34:04.03	221.73	26.08	
2025-01-08 19:34:04.23	221.79	26.11	
2025-01-08 19:34:04.43	221.84	26.14	
2025-01-08 19:34:04.64	221.90	26.16	
2025-01-08 19:34:04.85	221.95	26.19	
2025-01-08 19:34:05.05	222.01	26.21	
2025-01-08 19:34:05.26	222.06	26.24	
2025-01-08 19:34:05.46	222.12	26.27	
2025-01-08 19:34:05.67	222.17	26.29	
2025-01-08 19:34:05.87	222.23	26.32	
2025-01-08 19:34:06.08	222.29	26.34	
2025-01-08 19:34:06.28	222.34	26.37	
2025-01-08 19:34:06.49	222.40	26.40	
2025-01-08 19:34:06.69	222.45	26.42	
2025-01-08 19:34:06.90	222.51	26.45	
2025-01-08 19:34:07.10	222.56	26.47	
2025-01-08 19:34:07.31	222.62	26.50	
2025-01-08 19:34:07.53	222.68	26.53	
2025-01-08 19:34:07.73	222.74	26.55	
2025-01-08 19:34:07.94	222.80	26.58	
2025-01-08 19:34:08.14	222.85	26.60	
2025-01-08 19:34:08.35	222.91	26.63	
2025-01-08 19:34:08.55	222.97	26.66	
2025-01-08 19:34:08.76	223.02	26.68	
2025-01-08 19:34:08.96	223.08	26.71	
2025-01-08 19:34:09.17	223.14	26.73	
2025-01-08 19:34:09.38	223.20	26.76	
2025-01-08 19:34:09.59	223.25	26.79	
2025-01-08 19:34:09.80	223.31	26.81	
2025-01-08 19:34:10.00	223.37	26.84	
2025-01-08 19:34:10.21	223.43	26.87	
2025-01-08 19:34:10.41	223.49	26.89	
2025-01-08 19:34:10.62	223.54	26.92	
2025-01-08 19:34:10.82	223.60	26.94	
2025-01-08 19:34:11.03	223.66	26.97	
2025-01-08 19:34:11.23	223.72	26.99	
2025-01-08 19:34:11.44	223.78	27.02	
2025-01-08 19:34:11.64	223.83	27.05	
2025-01-08 19:34:11.85	223.89	27.07	
2025-01-08 19:34:12.05	223.95	27.10	
2025-01-08 19:34:12.26	224.01	27.12	
2025-01-08 19:34:12.46	224.07	27.15	
2025-01-08 19:34:12.67	224.13	27.18	
2025-01-08 19:34:12.87	224.19	27.20	
2025-01-08 19:34:13.08	224.25	27.23	
2025-01-08 19:34:13.28	224.30	27.25	
2025-01-08 19:34:13.49	224.36	27.28	
2025-01-08 19:34:13.69	224.42	27.30	
2025-01-08 19:34:13.89	224.48	27.33	
2025-01-08 19:34:14.10	224.54	27.36	
2025-01-08 19:34:14.31	224.60	27.38	
2025-01-08 19:34:14.51	224.66	27.41	
2025-01-08 19:34:14.72	224.72	27.43	
2025-01-08 19:34:14.92	224.78	27.46	
2025-01-08 19:34:15.12	224.84	27.48	
2025-01-08 19:34:15.33	224.90	27.51	
2025-01-08 19:34:15.53	224.96	27.53	
2025-01-08 19:34:15.74	225.02	27.56	
2025-01-08 19:34:15.94	225.08	27.59	
2025-01-08 19:34:16.15	225.14	27.61	
2025-01-08 19:34:16.35	225.20	27.64	
2025-01-08 19:34:16.56	225.26	27.66	
2025-01-08 19:34:16.77	225.32	27.69	
2025-01-08 19:34:16.97	225.38	27.72	
2025-01-08 19:34:17.18	225.45	27.74	
2025-01-08 19:34:17.38	225.51	27.77	
2025-01-08 19:34:17.59	225.57	27.79	
2025-01-08 19:34:17.79	225.63	27.82	
2025-01-08 19:34:18.00	225.69	27.84	
2025-01-08 19:34:18.20	225.75	27.87	
2025-01-08 19:34:18.41	225.81	27.90	
2025-01-08 19:34:18.61	225.87	27.92	
2025-01-08 19:34:18.82	225.94	27.95	
2025-01-08 19:34:19.02	226.00	27.97	
2025-01-08 19:34:19.23	226.06	28.00	
2025-01-08 19:34:19.43	226.12	28.02	
2025-01-08 19:34:19.64	226.19	28.05	
2025-01-08 19:34:19.84	226.25	28.07	
2025-01-08 19:34:20.05	226.31	28.10	
2025-01-08 19:34:20.25	226.37	28.13	
2025-01-08 19:34:20.46	226.43	28.15	
2025-01-08 19:34:20.66	226.50	28.18	
2025-01-08 19:34:20.87	226.56	28.20	
2025-01-08 19:34:21.07	226.62	28.23	
2025-01-08 19:34:21.28	226.69	28.25	
2025-01-08 19:34:21.48	226.75	28.28	
2025-01-08 19:34:21.69	226.81	28.30	
2025-01-08 19:34:21.89	226.87	28.33	
2025-01-08 19:34:22.10	226.94	28.36	
2025-01-08 19:34:22.30	227.00	28.38	
2025-01-08 19:34:22.51	227.07	28.41	
2025-01-08 19:34:22.72	227.13	28.43	
2025-01-08 19:34:22.92	227.19	28.46	
2025-01-08 19:34:23.13	227.26	28.48	
2025-01-08 19:34:23.34	227.32	28.51	
2025-01-08 19:34:23.55	227.39	28.53	
2025-01-08 19:34:23.76	227.46	28.56	
2025-01-08 19:34:23.96	227.52	28.59	
2025-01-08 19:34:24.17	227.58	28.61	
2025-01-08 19:34:24.38	227.65	28.64	
2025-01-08 19:34:24.58	227.71	28.66	
2025-01-08 19:34:24.79	227.78	28.69	
2025-01-08 19:34:24.99	227.84	28.71	
2025-01-08 19:34:25.20	227.91	28.74	
2025-01-08 19:34:25.40	227.97	28.76	
2025-01-08 19:34:25.60	228.04	28.79	
2025-01-08 19:34:25.81	228.10	28.81	
2025-01-08 19:34:26.02	228.17	28.84	
2025-01-08 19:34:26.22	228.23	28.86	
2025-01-08 19:34:26.43	228.30	28.89	
2025-01-08 19:34:26.64	228.37	28.92	
2025-01-08 19:34:26.85	228.44	28.94	
2025-01-08 19:34:27.05	228.50	28.97	
2025-01-08 19:34:27.26	228.57	28.99	
2025-01-08 19:34:27.47	228.64	29.02	
2025-01-08 19:34:27.67	228.70	29.04	
2025-01-08 19:34:27.88	228.77	29.07	
2025-01-08 19:34:28.08	228.83	29.09	
2025-01-08 19:34:28.29	228.90	29.12	
2025-01-08 19:34:28.49	228.97	29.14	
2025-01-08 19:34:28.70	229.03	29.17	
2025-01-08 19:34:28.90	229.10	29.19	
2025-01-08 19:34:29.11	229.17	29.22	
2025-01-08 19:34:29.32	229.24	29.24	
2025-01-08 19:34:29.52	229.30	29.27	
2025-01-08 19:34:29.73	229.37	29.29	
2025-01-08 19:34:29.93	229.44	29.32	
2025-01-08 19:34:30.14	229.51	29.34	
2025-01-08 19:34:30.34	229.57	29.37	
2025-01-08 19:34:30.55	229.64	29.39	
2025-01-08 19:34:30.75	229.71	29.42	
2025-01-08 19:34:30.96	229.78	29.44	
2025-01-08 19:34:31.16	229.84	29.47	
2025-01-08 19:34:31.37	229.91	29.49	
2025-01-08 19:34:31.57	229.98	29.52	
2025-01-08 19:34:31.78	230.05	29.54	
2025-01-08 19:34:31.98	230.12	29.56	
2025-01-08 19:34:32.19	230.19	29.59	
2025-01-08 19:34:32.39	230.25	29.61	
2025-01-08 19:34:32.60	230.32	29.64	
2025-01-08 19:34:32.80	230.39	29.66	
2025-01-08 19:34:33.01	230.46	29.69	
2025-01-08 19:34:33.21	230.53	29.71	
2025-01-08 19:34:33.42	230.60	29.74	
2025-01-08 19:34:33.62	230.67	29.76	
2025-01-08 19:34:33.83	230.74	29.79	
2025-01-08 19:34:34.03	230.81	29.81	
2025-01-08 19:34:34.24	230.88	29.84	
2025-01-08 19:34:34.44	230.94	29.86	
2025-01-08 19:34:34.65	231.02	29.88	
2025-01-08 19:34:34.86	231.09	29.91	
2025-01-08 19:34:35.06	231.16	29.93	
2025-01-08 19:34:35.27	231.23	29.96	
2025-01-08 19:34:35.47	231.30	29.98	
2025-01-08 19:34:35.68	231.37	30.01	
2025-01-08 19:34:35.88	231.44	30.03	
2025-01-08 19:34:36.09	231.51	30.06	
2025-01-08 19:34:36.29	231.58	30.08	
2025-01-08 19:34:36.50	231.65	30.10	
2025-01-08 19:34:36.70	231.72	30.13	
2025-01-08 19:34:36.91	231.79	30.15	
2025-01-08 19:34:37.11	231.86	30.18	
2025-01-08 19:34:37.32	231.94	30.20	
2025-01-08 19:34:37.52	232.00	30.22	
2025-01-08 19:34:37.73	232.08	30.25	
2025-01-08 19:34:37.93	232.15	30.27	
2025-01-08 19:34:38.14	232.22	30.30	
2025-01-08 19:34:38.34	232.29	30.32	
2025-01-08 19:34:38.55	232.36	30.34	
2025-01-08 19:34:38.75	232.43	30.37	
2025-01-08 19:34:38.96	232.51	30.39	
2025-01-08 19:34:39.16	232.58	30.42	
2025-01-08 19:34:39.37	232.65	30.44	
2025-01-08 19:34:39.57	232.72	30.46	
2025-01-08 19:34:39.78	232.80	30.49	
2025-01-08 19:34:39.99	232.87	30.51	
2025-01-08 19:34:40.19	232.94	30.54	
2025-01-08 19:34:40.40	233.02	30.56	
2025-01-08 19:34:40.60	233.09	30.58	
2025-01-08 19:34:40.81	233.16	30.61	
2025-01-08 19:34:41.01	233.24	30.63	
2025-01-08 19:34:41.22	233.31	30.65	
2025-01-08 19:34:41.42	233.38	30.68	
2025-01-08 19:34:41.64	233.46	30.70	
2025-01-08 19:34:41.85	233.54	30.73	
2025-01-08 19:34:42.05	233.61	30.75	
2025-01-08 19:34:42.26	233.68	30.77	
2025-01-08 19:34:42.46	233.76	30.80	
2025-01-08 19:34:42.67	233.83	30.82	
2025-01-08 19:34:42.87	233.90	30.84	
2025-01-08 19:34:43.08	233.98	30.87	
2025-01-08 19:34:43.28	234.05	30.89	
2025-01-08 19:34:43.49	234.13	30.91	
2025-01-08 19:34:43.69	234.20	30.94	
2025-01-08 19:34:43.90	234.28	30.96	
2025-01-08 19:34:44.10	234.35	30.98	
2025-01-08 19:34:44.31	234.43	31.01	
2025-01-08 19:34:44.51	234.50	31.03	
2025-01-08 19:34:44.72	234.58	31.05	
2025-01-08 19:34:44.92	234.65	31.08	
2025-01-08 19:34:45.13	234.73	31.10	
2025-01-08 19:34:45.33	234.80	31.12	
2025-01-08 19:34:45.54	234.88	31.15	
2025-01-08 19:34:45.74	234.95	31.17	
2025-01-08 19:34:45.95	235.03	31.19	
2025-01-08 19:34:46.15	235.10	31.21	
2025-01-08 19:34:46.36	235.18	31.24	
2025-01-08 19:34:46.56	235.26	31.26	
2025-01-08 19:34:46.77	235.33	31.28	
2025-01-08 19:34:46.97	235.41	31.30	
2025-01-08 19:34:47.18	235.49	31.33	
2025-01-08 19:34:47.38	235.56	31.35	
2025-01-08 19:34:47.59	235.64	31.37	
2025-01-08 19:34:47.79	235.71	31.39	
2025-01-08 19:34:48.00	235.79	31.42	
2025-01-08 19:34:48.20	235.87	31.44	
2025-01-08 19:34:48.41	235.95	31.46	
2025-01-08 19:34:48.62	236.03	31.49	
2025-01-08 19:34:48.82	236.10	31.51	
2025-01-08 19:34:49.03	236.18	31.53	
2025-01-08 19:34:49.23	236.26	31.55	
2025-01-08 19:34:49.44	236.34	31.58	
2025-01-08 19:34:49.64	236.41	31.60	
2025-01-08 19:34:49.85	236.49	31.62	
2025-01-08 19:34:50.05	236.57	31.64	
2025-01-08 19:34:50.26	236.65	31.66	
2025-01-08 19:34:50.46	236.72	31.69	
2025-01-08 19:34:50.67	236.80	31.71	
2025-01-08 19:34:50.88	236.88	31.73	
2025-01-08 19:34:51.08	236.96	31.75	
2025-01-08 19:34:51.30	237.05	31.78	
2025-01-08 19:34:51.51	237.13	31.80	
2025-01-08 19:34:51.71	237.20	31.82	
2025-01-08 19:34:51.92	237.28	31.84	
2025-01-08 19:34:52.13	237.36	31.86	
2025-01-08 19:34:52.34	237.45	31.89	
2025-01-08 19:34:52.55	237.53	31.91	
2025-01-08 19:34:52.75	237.60	31.93	
2025-01-08 19:34:52.96	237.69	31.95	
2025-01-08 19:34:53.16	237.76	31.97	
2025-01-08 19:34:53.37	237.84	31.99	
2025-01-08 19:34:53.58	237.93	32.02	
2025-01-08 19:34:53.78	238.00	32.04	
2025-01-08 19:34:53.99	238.09	32.06	
2025-01-08 19:34:54.19	238.16	32.08	
2025-01-08 19:34:54.40	238.25	32.10	
2025-01-08 19:34:54.60	238.32	32.12	
2025-01-08 19:34:54.82	238.41	32.15	
2025-01-08 19:34:55.02	238.49	32.17	
2025-01-08 19:34:55.23	238.57	32.19	
2025-01-08 19:34:55.43	238.65	32.21	
2025-01-08 19:34:55.64	238.73	32.23	
2025-01-08 19:34:55.85	238.82	32.25	
2025-01-08 19:34:56.05	238.90	32.27	
2025-01-08 19:34:56.26	238.98	32.29	
2025-01-08 19:34:56.46	239.06	32.31	
2025-01-08 19:34:56.67	239.14	32.33	
2025-01-08 19:34:56.87	239.22	32.36	
2025-01-08 19:34:57.08	239.30	32.38	
2025-01-08 19:34:57.28	239.38	32.40	
2025-01-08 19:34:57.49	239.47	32.42	
2025-01-08 19:34:57.69	239.55	32.44	
2025-01-08 19:34:57.90	239.63	32.46	
2025-01-08 19:34:58.10	239.71	32.48	
2025-01-08 19:34:58.31	239.80	32.50	
2025-01-08 19:34:58.51	239.88	32.52	
2025-01-08 19:34:58.72	239.96	32.54	
2025-01-08 19:34:58.92	240.04	32.56	
2025-01-08 19:34:59.14	240.13	32.58	
2025-01-08 19:34:59.34	240.21	32.60	
2025-01-08 19:34:59.55	240.30	32.62	
2025-01-08 19:34:59.75	240.38	32.64	
2025-01-08 19:34:59.96	240.46	32.66	
2025-01-08 19:35:00.16	240.54	32.68	
2025-01-08 19:35:00.36	240.62	32.70	
2025-01-08 19:35:00.57	240.71	32.72	
2025-01-08 19:35:00.78	240.79	32.74	
2025-01-08 19:35:00.98	240.88	32.76	
2025-01-08 19:35:01.19	240.96	32.78	
2025-01-08 19:35:01.39	241.04	32.80	
2025-01-08 19:35:01.60	241.13	32.82	
2025-01-08 19:35:01.81	241.22	32.84	
2025-01-08 19:35:02.01	241.30	32.86	
2025-01-08 19:35:02.21	241.38	32.88	
2025-01-08 19:35:02.42	241.47	32.90	
2025-01-08 19:35:02.62	241.55	32.92	
2025-01-08 19:35:02.83	241.63	32.94	
2025-01-08 19:35:03.03	241.72	32.96	
2025-01-08 19:35:03.24	241.80	32.98	
2025-01-08 19:35:03.45	241.89	33.00	
2025-01-08 19:35:03.65	241.97	33.01	
2025-01-08 19:35:03.86	242.06	33.03	
2025-01-08 19:35:04.06	242.14	33.05	
2025-01-08 19:35:04.27	242.23	33.07	
2025-01-08 19:35:04.47	242.31	33.09	
2025-01-08 19:35:04.68	242.40	33.11	
2025-01-08 19:35:04.88	242.48	33.13	
2025-01-08 19:35:05.09	242.57	33.15	
2025-01-08 19:35:05.29	242.66	33.16	
2025-01-08 19:35:05.50	242.74	33.18	
2025-01-08 19:35:05.70	242.83	33.20	
2025-01-08 19:35:05.91	242.92	33.22	
2025-01-08 19:35:06.11	243.00	33.24	
2025-01-08 19:35:06.32	243.09	33.26	
2025-01-08 19:35:06.52	243.17	33.28	
2025-01-08 19:35:06.73	243.26	33.29	
2025-01-08 19:35:06.93	243.35	33.31	
2025-01-08 19:35:07.14	243.43	33.33	
2025-01-08 19:35:07.34	243.52	33.35	
2025-01-08 19:35:07.55	243.61	33.37	
2025-01-08 19:35:07.76	243.70	33.38	
2025-01-08 19:35:07.96	243.78	33.40	
2025-01-08 19:35:08.17	243.87	33.42	
2025-01-08 19:35:08.37	243.96	33.44	
2025-01-08 19:35:08.58	244.04	33.46	
2025-01-08 19:35:08.78	244.13	33.47	
2025-01-08 19:35:08.99	244.22	33.49	
2025-01-08 19:35:09.19	244.30	33.51	
2025-01-08 19:35:09.40	244.39	33.53	
2025-01-08 19:35:09.60	244.48	33.54	
2025-01-08 19:35:09.81	244.57	33.56	
2025-01-08 19:35:10.01	244.66	33.58	
2025-01-08 19:35:10.22	244.75	33.60	
2025-01-08 19:35:10.42	244.83	33.61	
2025-01-08 19:35:10.63	244.92	33.63	
2025-01-08 19:35:10.84	245.01	33.65	
2025-01-08 19:35:11.04	245.10	33.66	
2025-01-08 19:35:11.25	245.19	33.68	
2025-01-08 19:35:11.45	245.28	33.70	
2025-01-08 19:35:11.66	245.37	33.71	
2025-01-08 19:35:11.86	245.45	33.73	
2025-01-08 19:35:12.07	245.54	33.75	
2025-01-08 19:35:12.27	245.63	33.76	
2025-01-08 19:35:12.48	245.72	33.78	
2025-01-08 19:35:12.68	245.81	33.80	
2025-01-08 19:35:12.89	245.90	33.81	
2025-01-08 19:35:13.09	245.99	33.83	
2025-01-08 19:35:13.30	246.08	33.85	
2025-01-08 19:35:13.50	246.17	33.86	
2025-01-08 19:35:13.72	246.26	33.88	
2025-01-08 19:35:13.93	246.35	33.90	
2025-01-08 19:35:14.13	246.44	33.91	
2025-01-08 19:35:14.34	246.53	33.93	
2025-01-08 19:35:14.54	246.62	33.94	
2025-01-08 19:35:14.75	246.71	33.96	
2025-01-08 19:35:14.95	246.80	33.97	
2025-01-08 19:35:15.16	246.89	33.99	
2025-01-08 19:35:15.36	246.98	34.01	
2025-01-08 19:35:15.57	247.07	34.02	
2025-01-08 19:35:15.77	247.16	34.04	
2025-01-08 19:35:15.97	247.25	34.05	
2025-01-08 19:35:16.18	247.34	34.07	
2025-01-08 19:35:16.38	247.43	34.08	
2025-01-08 19:35:16.59	247.53	34.10	
2025-01-08 19:35:16.79	247.61	34.11	
2025-01-08 19:35:16.99	247.70	34.13	
2025-01-08 19:35:17.20	247.80	34.14	
2025-01-08 19:35:17.40	247.88	34.16	
2025-01-08 19:35:17.61	247.98	34.17	
2025-01-08 19:35:17.81	248.07	34.19	
2025-01-08 19:35:18.03	248.17	34.20	
2025-01-08 19:35:18.24	248.26	34.22	
2025-01-08 19:35:18.44	248.35	34.23	
2025-01-08 19:35:18.65	248.44	34.25	
2025-01-08 19:35:18.85	248.53	34.26	
2025-01-08 19:35:19.06	248.63	34.27	
2025-01-08 19:35:19.26	248.72	34.29	
2025-01-08 19:35:19.47	248.81	34.30	
2025-01-08 19:35:19.67	248.90	34.32	
2025-01-08 19:35:19.88	248.99	34.33	
2025-01-08 19:35:20.08	249.08	34.34	
2025-01-08 19:35:20.29	249.18	34.36	
2025-01-08 19:35:20.49	249.27	34.37	
2025-01-08 19:35:20.70	249.36	34.39	
2025-01-08 19:35:20.91	249.46	34.40	
2025-01-08 19:35:21.11	249.55	34.41	
2025-01-08 19:35:21.32	249.64	34.43	
2025-01-08 19:35:21.52	249.73	34.44	
2025-01-08 19:35:21.73	249.83	34.45	
2025-01-08 19:35:21.93	249.92	34.47	
2025-01-08 19:35:22.14	250.01	34.48	
2025-01-08 19:35:22.34	250.10	34.49	
2025-01-08 19:35:22.55	250.20	34.51	
2025-01-08 19:35:22.75	250.29	34.52	
2025-01-08 19:35:22.96	250.39	34.53	
2025-01-08 19:35:23.16	250.48	34.55	
2025-01-08 19:35:23.37	250.57	34.56	
2025-01-08 19:35:23.57	250.66	34.57	
2025-01-08 19:35:23.78	250.76	34.58	
2025-01-08 19:35:23.98	250.85	34.60	
2025-01-08 19:35:24.19	250.95	34.61	
2025-01-08 19:35:24.41	251.05	34.62	
2025-01-08 19:35:24.61	251.14	34.63	
2025-01-08 19:35:24.82	251.24	34.65	
2025-01-08 19:35:25.02	251.33	34.66	
2025-01-08 19:35:25.23	251.42	34.67	
2025-01-08 19:35:25.43	251.52	34.68	
2025-01-08 19:35:25.64	251.61	34.69	
2025-01-08 19:35:25.84	251.70	34.71	
2025-01-08 19:35:26.05	251.80	34.72	
2025-01-08 19:35:26.25	251.89	34.73	
2025-01-08 19:35:26.46	251.99	34.74	
2025-01-08 19:35:26.66	252.08	34.75	
2025-01-08 19:35:26.87	252.18	34.76	
2025-01-08 19:35:27.07	252.27	34.78	
2025-01-08 19:35:27.28	252.37	34.79	
2025-01-08 19:35:27.48	252.46	34.80	
2025-01-08 19:35:27.69	252.56	34.81	
2025-01-08 19:35:27.90	252.66	34.82	
2025-01-08 19:35:28.10	252.75	34.83	
2025-01-08 19:35:28.31	252.85	34.84	
2025-01-08 19:35:28.51	252.94	34.85	
2025-01-08 19:35:28.72	253.04	34.86	
2025-01-08 19:35:28.92	253.13	34.87	
2025-01-08 19:35:29.13	253.23	34.88	
2025-01-08 19:35:29.33	253.32	34.89	
2025-01-08 19:35:29.54	253.42	34.91	
2025-01-08 19:35:29.74	253.51	34.92	
2025-01-08 19:35:29.95	253.61	34.93	
2025-01-08 19:35:30.16	253.71	34.94	
2025-01-08 19:35:30.36	253.80	34.95	
2025-01-08 19:35:30.57	253.90	34.96	
2025-01-08 19:35:30.77	253.99	34.97	
2025-01-08 19:35:30.98	254.09	34.98	
2025-01-08 19:35:31.18	254.18	34.99	
2025-01-08 19:35:31.39	254.28	35.00	
2025-01-08 19:35:31.59	254.37	35.00	
2025-01-08 19:35:31.80	254.47	35.01	
2025-01-08 19:35:32.00	254.57	35.02	
2025-01-08 19:35:32.21	254.67	35.03	
2025-01-08 19:35:32.41	254.76	35.04	
2025-01-08 19:35:32.62	254.86	35.05	
2025-01-08 19:35:32.82	254.95	35.06	
2025-01-08 19:35:33.03	255.05	35.07	
2025-01-08 19:35:33.23	255.14	35.08	
2025-01-08 19:35:33.44	255.24	35.09	
2025-01-08 19:35:33.64	255.34	35.09	
2025-01-08 19:35:33.85	255.44	35.10	
2025-01-08 19:35:34.05	255.53	35.11	
2025-01-08 19:35:34.26	255.63	35.12	
2025-01-08 19:35:34.46	255.72	35.13	
2025-01-08 19:35:34.67	255.82	35.14	
2025-01-08 19:35:34.87	255.92	35.15	
2025-01-08 19:35:35.09	256.02	35.15	
2025-01-08 19:35:35.30	256.12	35.16	
2025-01-08 19:35:35.50	256.22	35.17	
2025-01-08 19:35:35.71	256.32	35.18	
2025-01-08 19:35:35.91	256.41	35.19	
2025-01-08 19:35:36.12	256.51	35.19	
2025-01-08 19:35:36.32	256.60	35.20	
2025-01-08 19:35:36.53	256.70	35.21	
2025-01-08 19:35:36.73	256.80	35.22	
2025-01-08 19:35:36.94	256.90	35.22	
2025-01-08 19:35:37.14	256.99	35.23	
2025-01-08 19:35:37.35	257.09	35.24	
2025-01-08 19:35:37.56	257.19	35.24	
2025-01-08 19:35:37.76	257.29	35.25	
2025-01-08 19:35:37.97	257.39	35.26	
2025-01-08 19:35:38.17	257.48	35.26	
2025-01-08 19:35:38.38	257.58	35.27	
2025-01-08 19:35:38.58	257.68	35.28	
2025-01-08 19:35:38.79	257.78	35.28	
2025-01-08 19:35:38.99	257.87	35.29	
2025-01-08 19:35:39.20	257.97	35.30	
2025-01-08 19:35:39.40	258.07	35.30	
2025-01-08 19:35:39.61	258.17	35.31	
2025-01-08 19:35:39.81	258.27	35.32	
2025-01-08 19:35:40.02	258.37	35.32	
2025-01-08 19:35:40.22	258.46	35.33	
2025-01-08 19:35:40.43	258.56	35.33	
2025-01-08 19:35:40.63	258.66	35.34	
2025-01-08 19:35:40.84	258.76	35.34	
2025-01-08 19:35:41.04	258.85	35.35	
2025-01-08 19:35:41.25	258.95	35.36	
2025-01-08 19:35:41.45	259.05	35.36	
2025-01-08 19:35:41.66	259.15	35.37	
2025-01-08 19:35:41.87	259.25	35.37	
2025-01-08 19:35:42.07	259.35	35.38	
2025-01-08 19:35:42.28	259.45	35.38	
2025-01-08 19:35:42.48	259.54	35.39	
2025-01-08 19:35:42.68	259.64	35.39	
2025-01-08 19:35:42.89	259.74	35.40	
2025-01-08 19:35:43.10	259.84	35.40	
2025-01-08 19:35:43.30	259.94	35.40	
2025-01-08 19:35:43.51	260.04	35.41	
2025-01-08 19:35:43.71	260.13	35.41	
2025-01-08 19:35:43.92	260.23	35.42	
2025-01-08 19:35:44.12	260.33	35.42	
2025-01-08 19:35:44.33	260.43	35.43	
2025-01-08 19:35:44.53	260.53	35.43	
2025-01-08 19:35:44.74	260.63	35.43	
2025-01-08 19:35:44.94	260.72	35.44	
2025-01-08 19:35:45.15	260.83	35.44	
2025-01-08 19:35:45.35	260.92	35.44	
2025-01-08 19:35:45.56	261.02	35.45	
2025-01-08 19:35:45.76	261.12	35.45	
2025-01-08 19:35:45.97	261.22	35.46	
2025-01-08 19:35:46.17	261.32	35.46	
2025-01-08 19:35:46.38	261.42	35.46	
2025-01-08 19:35:46.58	261.51	35.46	
2025-01-08 19:35:46.79	261.62	35.47	
2025-01-08 19:35:46.99	261.71	35.47	
2025-01-08 19:35:47.20	261.81	35.47	
2025-01-08 19:35:47.40	261.91	35.48	
2025-01-08 19:35:47.61	262.01	35.48	
