passes_logs/2025/01/08/SPB_Silybum_02/SPB_Silybum_02__20250108_233922_AQUA_rec.log

#Pass ID: 20250108_233922_AQUA
#Satellite: AQUA
#Configuration: AQUA
#Start time: 2025-01-08 23:39:22

#Version: 2.0.20230423
#Station: SPB_Silybum_02
#Location: 30.233357 lon 59.946436 lat
#TLE: 1 27424U 02022A   25008.15498937  .00002389  00000+0  50057-3 0  9997
#TLE: 2 27424  98.3576 324.7578 0001462 118.2546 298.6643 14.60656725206621

#Time	Az	El	Level	Level2	SNR	BER	Gain	Gain2
2025-01-08 23:39:25.00	29.29	4.13	
2025-01-08 23:39:25.21	29.31	4.15	
2025-01-08 23:39:25.42	29.33	4.16	
2025-01-08 23:39:25.63	29.35	4.17	
2025-01-08 23:39:25.83	29.37	4.18	
2025-01-08 23:39:26.04	29.39	4.19	
2025-01-08 23:39:26.24	29.41	4.21	
2025-01-08 23:39:26.44	29.43	4.22	
2025-01-08 23:39:26.65	29.45	4.23	
2025-01-08 23:39:26.86	29.47	4.24	
2025-01-08 23:39:27.06	29.49	4.25	
2025-01-08 23:39:27.26	29.51	4.26	
2025-01-08 23:39:27.47	29.53	4.28	
2025-01-08 23:39:27.67	29.55	4.29	
2025-01-08 23:39:27.88	29.57	4.30	
2025-01-08 23:39:28.08	29.59	4.31	
2025-01-08 23:39:28.29	29.61	4.32	
2025-01-08 23:39:28.49	29.63	4.34	
2025-01-08 23:39:28.70	29.65	4.35	
2025-01-08 23:39:28.90	29.67	4.36	
2025-01-08 23:39:29.11	29.69	4.37	
2025-01-08 23:39:29.31	29.71	4.38	
2025-01-08 23:39:29.52	29.73	4.40	
2025-01-08 23:39:29.72	29.75	4.41	
2025-01-08 23:39:29.93	29.78	4.42	
2025-01-08 23:39:30.13	29.80	4.43	
2025-01-08 23:39:30.34	29.82	4.44	
2025-01-08 23:39:30.54	29.84	4.45	
2025-01-08 23:39:30.75	29.86	4.47	
2025-01-08 23:39:30.96	29.88	4.48	
2025-01-08 23:39:31.16	29.90	4.49	
2025-01-08 23:39:31.37	29.92	4.50	
2025-01-08 23:39:31.57	29.94	4.51	
2025-01-08 23:39:31.78	29.96	4.53	
2025-01-08 23:39:31.98	29.98	4.54	
2025-01-08 23:39:32.18	30.00	4.55	
2025-01-08 23:39:32.39	30.02	4.56	
2025-01-08 23:39:32.59	30.04	4.57	
2025-01-08 23:39:32.80	30.06	4.59	
2025-01-08 23:39:33.00	30.08	4.60	
2025-01-08 23:39:33.21	30.10	4.61	
2025-01-08 23:39:33.41	30.13	4.62	
2025-01-08 23:39:33.62	30.15	4.63	
2025-01-08 23:39:33.82	30.17	4.65	
2025-01-08 23:39:34.03	30.19	4.66	
2025-01-08 23:39:34.23	30.21	4.67	
2025-01-08 23:39:34.44	30.23	4.68	
2025-01-08 23:39:34.64	30.25	4.69	
2025-01-08 23:39:34.85	30.27	4.71	
2025-01-08 23:39:35.06	30.29	4.72	
2025-01-08 23:39:35.26	30.31	4.73	
2025-01-08 23:39:35.47	30.33	4.74	
2025-01-08 23:39:35.67	30.35	4.75	
2025-01-08 23:39:35.87	30.38	4.77	
2025-01-08 23:39:36.08	30.40	4.78	
2025-01-08 23:39:36.28	30.42	4.79	
2025-01-08 23:39:36.49	30.44	4.80	
2025-01-08 23:39:36.70	30.46	4.81	
2025-01-08 23:39:36.90	30.48	4.83	
2025-01-08 23:39:37.10	30.50	4.84	
2025-01-08 23:39:37.31	30.52	4.85	
2025-01-08 23:39:37.52	30.54	4.86	
2025-01-08 23:39:37.72	30.57	4.87	
2025-01-08 23:39:37.92	30.59	4.89	
2025-01-08 23:39:38.13	30.61	4.90	
2025-01-08 23:39:38.33	30.63	4.91	
2025-01-08 23:39:38.54	30.65	4.92	
2025-01-08 23:39:38.75	30.67	4.93	
2025-01-08 23:39:38.95	30.69	4.95	
2025-01-08 23:39:39.15	30.71	4.96	
2025-01-08 23:39:39.36	30.73	4.97	
2025-01-08 23:39:39.56	30.76	4.98	
2025-01-08 23:39:39.77	30.78	4.99	
2025-01-08 23:39:39.97	30.80	5.01	
2025-01-08 23:39:40.18	30.82	5.02	
2025-01-08 23:39:40.38	30.84	5.03	
2025-01-08 23:39:40.59	30.86	5.04	
2025-01-08 23:39:40.79	30.88	5.05	
2025-01-08 23:39:41.00	30.91	5.07	
2025-01-08 23:39:41.20	30.93	5.08	
2025-01-08 23:39:41.41	30.95	5.09	
2025-01-08 23:39:41.61	30.97	5.10	
2025-01-08 23:39:41.82	30.99	5.12	
2025-01-08 23:39:42.03	31.01	5.13	
2025-01-08 23:39:42.24	31.04	5.14	
2025-01-08 23:39:42.45	31.06	5.15	
2025-01-08 23:39:42.65	31.08	5.16	
2025-01-08 23:39:42.86	31.10	5.18	
2025-01-08 23:39:43.06	31.12	5.19	
2025-01-08 23:39:43.27	31.14	5.20	
2025-01-08 23:39:43.47	31.16	5.21	
2025-01-08 23:39:43.68	31.19	5.22	
2025-01-08 23:39:43.88	31.21	5.24	
2025-01-08 23:39:44.09	31.23	5.25	
2025-01-08 23:39:44.29	31.25	5.26	
2025-01-08 23:39:44.50	31.27	5.27	
2025-01-08 23:39:44.70	31.29	5.29	
2025-01-08 23:39:44.91	31.32	5.30	
2025-01-08 23:39:45.12	31.34	5.31	
2025-01-08 23:39:45.32	31.36	5.32	
2025-01-08 23:39:45.53	31.38	5.33	
2025-01-08 23:39:45.73	31.40	5.35	
2025-01-08 23:39:45.93	31.43	5.36	
2025-01-08 23:39:46.14	31.45	5.37	
2025-01-08 23:39:46.35	31.47	5.38	
2025-01-08 23:39:46.56	31.49	5.40	
2025-01-08 23:39:46.77	31.52	5.41	
2025-01-08 23:39:46.97	31.54	5.42	
2025-01-08 23:39:47.18	31.56	5.43	
2025-01-08 23:39:47.38	31.58	5.44	
2025-01-08 23:39:47.59	31.60	5.46	
2025-01-08 23:39:47.79	31.62	5.47	
2025-01-08 23:39:48.00	31.65	5.48	
2025-01-08 23:39:48.21	31.67	5.49	
2025-01-08 23:39:48.41	31.69	5.51	
2025-01-08 23:39:48.61	31.71	5.52	
2025-01-08 23:39:48.82	31.74	5.53	
2025-01-08 23:39:49.03	31.76	5.54	
2025-01-08 23:39:49.23	31.78	5.55	
2025-01-08 23:39:49.43	31.80	5.57	
2025-01-08 23:39:49.64	31.82	5.58	
2025-01-08 23:39:49.84	31.85	5.59	
2025-01-08 23:39:50.05	31.87	5.60	
2025-01-08 23:39:50.26	31.89	5.62	
2025-01-08 23:39:50.46	31.91	5.63	
2025-01-08 23:39:50.67	31.94	5.64	
2025-01-08 23:39:50.88	31.96	5.65	
2025-01-08 23:39:51.09	31.98	5.66	
2025-01-08 23:39:51.29	32.00	5.68	
2025-01-08 23:39:51.50	32.03	5.69	
2025-01-08 23:39:51.71	32.05	5.70	
2025-01-08 23:39:51.92	32.07	5.71	
2025-01-08 23:39:52.13	32.10	5.73	
2025-01-08 23:39:52.33	32.12	5.74	
2025-01-08 23:39:52.54	32.14	5.75	
2025-01-08 23:39:52.75	32.16	5.76	
2025-01-08 23:39:52.96	32.19	5.78	
2025-01-08 23:39:53.17	32.21	5.79	
2025-01-08 23:39:53.37	32.23	5.80	
2025-01-08 23:39:53.58	32.25	5.81	
2025-01-08 23:39:53.78	32.28	5.83	
2025-01-08 23:39:54.00	32.30	5.84	
2025-01-08 23:39:54.21	32.32	5.85	
2025-01-08 23:39:54.41	32.35	5.86	
2025-01-08 23:39:54.62	32.37	5.88	
2025-01-08 23:39:54.82	32.39	5.89	
2025-01-08 23:39:55.02	32.41	5.90	
2025-01-08 23:39:55.23	32.44	5.91	
2025-01-08 23:39:55.43	32.46	5.92	
2025-01-08 23:39:55.64	32.48	5.94	
2025-01-08 23:39:55.84	32.50	5.95	
2025-01-08 23:39:56.05	32.53	5.96	
2025-01-08 23:39:56.25	32.55	5.97	
2025-01-08 23:39:56.46	32.57	5.99	
2025-01-08 23:39:56.66	32.60	6.00	
2025-01-08 23:39:56.87	32.62	6.01	
2025-01-08 23:39:57.07	32.64	6.02	
2025-01-08 23:39:57.29	32.67	6.04	
2025-01-08 23:39:57.49	32.69	6.05	
2025-01-08 23:39:57.70	32.71	6.06	
2025-01-08 23:39:57.90	32.73	6.07	
2025-01-08 23:39:58.11	32.76	6.09	
2025-01-08 23:39:58.31	32.78	6.10	
2025-01-08 23:39:58.52	32.80	6.11	
2025-01-08 23:39:58.72	32.83	6.12	
2025-01-08 23:39:58.93	32.85	6.13	
2025-01-08 23:39:59.13	32.87	6.15	
2025-01-08 23:39:59.35	32.90	6.16	
2025-01-08 23:39:59.55	32.92	6.17	
2025-01-08 23:39:59.76	32.94	6.18	
2025-01-08 23:39:59.97	32.97	6.20	
2025-01-08 23:40:00.18	32.99	6.21	
2025-01-08 23:40:00.38	33.01	6.22	
2025-01-08 23:40:00.59	33.04	6.23	
2025-01-08 23:40:00.80	33.06	6.25	
2025-01-08 23:40:01.00	33.08	6.26	
2025-01-08 23:40:01.21	33.11	6.27	
2025-01-08 23:40:01.41	33.13	6.28	
2025-01-08 23:40:01.62	33.16	6.30	
2025-01-08 23:40:01.82	33.18	6.31	
2025-01-08 23:40:02.04	33.20	6.32	
2025-01-08 23:40:02.24	33.23	6.33	
2025-01-08 23:40:02.45	33.25	6.35	
2025-01-08 23:40:02.65	33.27	6.36	
2025-01-08 23:40:02.86	33.30	6.37	
2025-01-08 23:40:03.06	33.32	6.38	
2025-01-08 23:40:03.27	33.34	6.40	
2025-01-08 23:40:03.47	33.37	6.41	
2025-01-08 23:40:03.68	33.39	6.42	
2025-01-08 23:40:03.88	33.41	6.43	
2025-01-08 23:40:04.09	33.44	6.45	
2025-01-08 23:40:04.30	33.46	6.46	
2025-01-08 23:40:04.50	33.49	6.47	
2025-01-08 23:40:04.70	33.51	6.48	
2025-01-08 23:40:04.91	33.53	6.50	
2025-01-08 23:40:05.12	33.56	6.51	
2025-01-08 23:40:05.32	33.58	6.52	
2025-01-08 23:40:05.53	33.60	6.53	
2025-01-08 23:40:05.73	33.63	6.55	
2025-01-08 23:40:05.93	33.65	6.56	
2025-01-08 23:40:06.14	33.68	6.57	
2025-01-08 23:40:06.35	33.70	6.58	
2025-01-08 23:40:06.55	33.72	6.59	
2025-01-08 23:40:06.76	33.75	6.61	
2025-01-08 23:40:06.96	33.77	6.62	
2025-01-08 23:40:07.17	33.80	6.63	
2025-01-08 23:40:07.38	33.82	6.65	
2025-01-08 23:40:07.58	33.84	6.66	
2025-01-08 23:40:07.79	33.87	6.67	
2025-01-08 23:40:07.99	33.89	6.68	
2025-01-08 23:40:08.20	33.92	6.70	
2025-01-08 23:40:08.40	33.94	6.71	
2025-01-08 23:40:08.60	33.96	6.72	
2025-01-08 23:40:08.81	33.99	6.73	
2025-01-08 23:40:09.01	34.01	6.74	
2025-01-08 23:40:09.22	34.04	6.76	
2025-01-08 23:40:09.42	34.06	6.77	
2025-01-08 23:40:09.63	34.08	6.78	
2025-01-08 23:40:09.83	34.11	6.79	
2025-01-08 23:40:10.03	34.13	6.81	
2025-01-08 23:40:10.24	34.16	6.82	
2025-01-08 23:40:10.45	34.18	6.83	
2025-01-08 23:40:10.65	34.21	6.84	
2025-01-08 23:40:10.86	34.23	6.86	
2025-01-08 23:40:11.06	34.25	6.87	
2025-01-08 23:40:11.27	34.28	6.88	
2025-01-08 23:40:11.47	34.30	6.89	
2025-01-08 23:40:11.68	34.33	6.91	
2025-01-08 23:40:11.88	34.35	6.92	
2025-01-08 23:40:12.09	34.38	6.93	
2025-01-08 23:40:12.29	34.40	6.94	
2025-01-08 23:40:12.50	34.43	6.96	
2025-01-08 23:40:12.70	34.45	6.97	
2025-01-08 23:40:12.91	34.47	6.98	
2025-01-08 23:40:13.13	34.50	7.00	
2025-01-08 23:40:13.33	34.52	7.01	
2025-01-08 23:40:13.53	34.55	7.02	
2025-01-08 23:40:13.74	34.57	7.03	
2025-01-08 23:40:13.95	34.60	7.05	
2025-01-08 23:40:14.15	34.62	7.06	
2025-01-08 23:40:14.36	34.65	7.07	
2025-01-08 23:40:14.56	34.67	7.08	
2025-01-08 23:40:14.77	34.70	7.10	
2025-01-08 23:40:14.97	34.72	7.11	
2025-01-08 23:40:15.18	34.75	7.12	
2025-01-08 23:40:15.38	34.77	7.13	
2025-01-08 23:40:15.59	34.80	7.15	
2025-01-08 23:40:15.79	34.82	7.16	
2025-01-08 23:40:16.00	34.85	7.17	
2025-01-08 23:40:16.20	34.87	7.18	
2025-01-08 23:40:16.40	34.90	7.20	
2025-01-08 23:40:16.62	34.92	7.21	
2025-01-08 23:40:16.82	34.95	7.22	
2025-01-08 23:40:17.03	34.97	7.23	
2025-01-08 23:40:17.23	35.00	7.25	
2025-01-08 23:40:17.43	35.02	7.26	
2025-01-08 23:40:17.64	35.05	7.27	
2025-01-08 23:40:17.84	35.07	7.28	
2025-01-08 23:40:18.05	35.10	7.30	
2025-01-08 23:40:18.26	35.12	7.31	
2025-01-08 23:40:18.46	35.15	7.32	
2025-01-08 23:40:18.66	35.17	7.33	
2025-01-08 23:40:18.87	35.20	7.35	
2025-01-08 23:40:19.08	35.22	7.36	
2025-01-08 23:40:19.28	35.25	7.37	
2025-01-08 23:40:19.49	35.27	7.39	
2025-01-08 23:40:19.69	35.30	7.40	
2025-01-08 23:40:19.90	35.32	7.41	
2025-01-08 23:40:20.10	35.35	7.42	
2025-01-08 23:40:20.31	35.38	7.44	
2025-01-08 23:40:20.51	35.40	7.45	
2025-01-08 23:40:20.72	35.43	7.46	
2025-01-08 23:40:20.92	35.45	7.47	
2025-01-08 23:40:21.13	35.48	7.49	
2025-01-08 23:40:21.33	35.50	7.50	
2025-01-08 23:40:21.54	35.53	7.51	
2025-01-08 23:40:21.74	35.55	7.52	
2025-01-08 23:40:21.95	35.58	7.54	
2025-01-08 23:40:22.15	35.60	7.55	
2025-01-08 23:40:22.36	35.63	7.56	
2025-01-08 23:40:22.56	35.65	7.58	
2025-01-08 23:40:22.77	35.68	7.59	
2025-01-08 23:40:22.97	35.71	7.60	
2025-01-08 23:40:23.18	35.73	7.61	
2025-01-08 23:40:23.38	35.76	7.63	
2025-01-08 23:40:23.59	35.78	7.64	
2025-01-08 23:40:23.79	35.81	7.65	
2025-01-08 23:40:24.01	35.84	7.66	
2025-01-08 23:40:24.22	35.86	7.68	
2025-01-08 23:40:24.42	35.89	7.69	
2025-01-08 23:40:24.63	35.91	7.70	
2025-01-08 23:40:24.83	35.94	7.72	
2025-01-08 23:40:25.03	35.97	7.73	
2025-01-08 23:40:25.24	35.99	7.74	
2025-01-08 23:40:25.45	36.02	7.75	
2025-01-08 23:40:25.65	36.04	7.77	
2025-01-08 23:40:25.86	36.07	7.78	
2025-01-08 23:40:26.06	36.10	7.79	
2025-01-08 23:40:26.27	36.12	7.80	
2025-01-08 23:40:26.47	36.15	7.82	
2025-01-08 23:40:26.68	36.17	7.83	
2025-01-08 23:40:26.88	36.20	7.84	
2025-01-08 23:40:27.09	36.23	7.86	
2025-01-08 23:40:27.29	36.25	7.87	
2025-01-08 23:40:27.50	36.28	7.88	
2025-01-08 23:40:27.71	36.31	7.89	
2025-01-08 23:40:27.91	36.33	7.91	
2025-01-08 23:40:28.11	36.36	7.92	
2025-01-08 23:40:28.32	36.38	7.93	
2025-01-08 23:40:28.52	36.41	7.94	
2025-01-08 23:40:28.73	36.44	7.96	
2025-01-08 23:40:28.93	36.46	7.97	
2025-01-08 23:40:29.14	36.49	7.98	
2025-01-08 23:40:29.34	36.51	8.00	
2025-01-08 23:40:29.55	36.54	8.01	
2025-01-08 23:40:29.76	36.57	8.02	
2025-01-08 23:40:29.96	36.59	8.03	
2025-01-08 23:40:30.17	36.62	8.05	
2025-01-08 23:40:30.37	36.65	8.06	
2025-01-08 23:40:30.57	36.67	8.07	
2025-01-08 23:40:30.78	36.70	8.08	
2025-01-08 23:40:30.99	36.73	8.10	
2025-01-08 23:40:31.19	36.75	8.11	
2025-01-08 23:40:31.40	36.78	8.12	
2025-01-08 23:40:31.61	36.81	8.14	
2025-01-08 23:40:31.82	36.84	8.15	
2025-01-08 23:40:32.02	36.86	8.16	
2025-01-08 23:40:32.23	36.89	8.17	
2025-01-08 23:40:32.44	36.92	8.19	
2025-01-08 23:40:32.65	36.94	8.20	
2025-01-08 23:40:32.85	36.97	8.21	
2025-01-08 23:40:33.06	37.00	8.23	
2025-01-08 23:40:33.27	37.03	8.24	
2025-01-08 23:40:33.47	37.05	8.25	
2025-01-08 23:40:33.67	37.08	8.26	
2025-01-08 23:40:33.88	37.11	8.28	
2025-01-08 23:40:34.08	37.13	8.29	
2025-01-08 23:40:34.29	37.16	8.30	
2025-01-08 23:40:34.49	37.19	8.32	
2025-01-08 23:40:34.70	37.21	8.33	
2025-01-08 23:40:34.90	37.24	8.34	
2025-01-08 23:40:35.11	37.27	8.35	
2025-01-08 23:40:35.31	37.29	8.37	
2025-01-08 23:40:35.52	37.32	8.38	
2025-01-08 23:40:35.72	37.35	8.39	
2025-01-08 23:40:35.93	37.38	8.41	
2025-01-08 23:40:36.14	37.40	8.42	
2025-01-08 23:40:36.34	37.43	8.43	
2025-01-08 23:40:36.55	37.46	8.44	
2025-01-08 23:40:36.75	37.49	8.46	
2025-01-08 23:40:36.96	37.51	8.47	
2025-01-08 23:40:37.16	37.54	8.48	
2025-01-08 23:40:37.37	37.57	8.50	
2025-01-08 23:40:37.57	37.59	8.51	
2025-01-08 23:40:37.78	37.62	8.52	
2025-01-08 23:40:37.98	37.65	8.53	
2025-01-08 23:40:38.19	37.68	8.55	
2025-01-08 23:40:38.39	37.70	8.56	
2025-01-08 23:40:38.60	37.73	8.57	
2025-01-08 23:40:38.80	37.76	8.59	
2025-01-08 23:40:39.01	37.79	8.60	
2025-01-08 23:40:39.21	37.81	8.61	
2025-01-08 23:40:39.42	37.84	8.62	
2025-01-08 23:40:39.62	37.87	8.64	
2025-01-08 23:40:39.83	37.90	8.65	
2025-01-08 23:40:40.03	37.92	8.66	
2025-01-08 23:40:40.24	37.95	8.68	
2025-01-08 23:40:40.44	37.98	8.69	
2025-01-08 23:40:40.65	38.01	8.70	
2025-01-08 23:40:40.85	38.04	8.71	
2025-01-08 23:40:41.07	38.07	8.73	
2025-01-08 23:40:41.27	38.09	8.74	
2025-01-08 23:40:41.48	38.12	8.75	
2025-01-08 23:40:41.68	38.15	8.77	
2025-01-08 23:40:41.89	38.18	8.78	
2025-01-08 23:40:42.09	38.20	8.79	
2025-01-08 23:40:42.30	38.23	8.80	
2025-01-08 23:40:42.51	38.26	8.82	
2025-01-08 23:40:42.71	38.29	8.83	
2025-01-08 23:40:42.92	38.32	8.84	
2025-01-08 23:40:43.14	38.35	8.86	
2025-01-08 23:40:43.34	38.38	8.87	
2025-01-08 23:40:43.55	38.40	8.88	
2025-01-08 23:40:43.75	38.43	8.90	
2025-01-08 23:40:43.95	38.46	8.91	
2025-01-08 23:40:44.16	38.49	8.92	
2025-01-08 23:40:44.37	38.52	8.93	
2025-01-08 23:40:44.57	38.54	8.95	
2025-01-08 23:40:44.78	38.57	8.96	
2025-01-08 23:40:44.98	38.60	8.97	
2025-01-08 23:40:45.19	38.63	8.99	
2025-01-08 23:40:45.39	38.66	9.00	
2025-01-08 23:40:45.60	38.69	9.01	
2025-01-08 23:40:45.80	38.71	9.02	
2025-01-08 23:40:46.01	38.74	9.04	
2025-01-08 23:40:46.21	38.77	9.05	
2025-01-08 23:40:46.42	38.80	9.06	
2025-01-08 23:40:46.62	38.83	9.08	
2025-01-08 23:40:46.83	38.86	9.09	
2025-01-08 23:40:47.03	38.89	9.10	
2025-01-08 23:40:47.24	38.91	9.12	
2025-01-08 23:40:47.44	38.94	9.13	
2025-01-08 23:40:47.64	38.97	9.14	
2025-01-08 23:40:47.85	39.00	9.15	
2025-01-08 23:40:48.05	39.03	9.17	
2025-01-08 23:40:48.26	39.06	9.18	
2025-01-08 23:40:48.46	39.09	9.19	
2025-01-08 23:40:48.67	39.11	9.21	
2025-01-08 23:40:48.87	39.14	9.22	
2025-01-08 23:40:49.08	39.17	9.23	
2025-01-08 23:40:49.29	39.20	9.24	
2025-01-08 23:40:49.49	39.23	9.26	
2025-01-08 23:40:49.69	39.26	9.27	
2025-01-08 23:40:49.90	39.29	9.28	
2025-01-08 23:40:50.11	39.32	9.30	
2025-01-08 23:40:50.31	39.35	9.31	
2025-01-08 23:40:50.51	39.37	9.32	
2025-01-08 23:40:50.72	39.40	9.33	
2025-01-08 23:40:50.93	39.43	9.35	
2025-01-08 23:40:51.14	39.46	9.36	
2025-01-08 23:40:51.34	39.49	9.37	
2025-01-08 23:40:51.55	39.52	9.39	
2025-01-08 23:40:51.75	39.55	9.40	
2025-01-08 23:40:51.96	39.58	9.41	
2025-01-08 23:40:52.16	39.61	9.43	
2025-01-08 23:40:52.37	39.64	9.44	
2025-01-08 23:40:52.57	39.67	9.45	
2025-01-08 23:40:52.77	39.70	9.46	
2025-01-08 23:40:52.98	39.73	9.48	
2025-01-08 23:40:53.19	39.76	9.49	
2025-01-08 23:40:53.39	39.78	9.50	
2025-01-08 23:40:53.60	39.81	9.52	
2025-01-08 23:40:53.80	39.84	9.53	
2025-01-08 23:40:54.01	39.87	9.54	
2025-01-08 23:40:54.21	39.90	9.55	
2025-01-08 23:40:54.42	39.93	9.57	
2025-01-08 23:40:54.63	39.96	9.58	
2025-01-08 23:40:54.83	39.99	9.59	
2025-01-08 23:40:55.04	40.02	9.61	
2025-01-08 23:40:55.24	40.05	9.62	
2025-01-08 23:40:55.45	40.08	9.63	
2025-01-08 23:40:55.65	40.11	9.65	
2025-01-08 23:40:55.86	40.14	9.66	
2025-01-08 23:40:56.06	40.17	9.67	
2025-01-08 23:40:56.27	40.20	9.69	
2025-01-08 23:40:56.47	40.23	9.70	
2025-01-08 23:40:56.68	40.26	9.71	
2025-01-08 23:40:56.88	40.29	9.72	
2025-01-08 23:40:57.09	40.32	9.74	
2025-01-08 23:40:57.29	40.35	9.75	
2025-01-08 23:40:57.50	40.38	9.76	
2025-01-08 23:40:57.70	40.41	9.78	
2025-01-08 23:40:57.91	40.44	9.79	
2025-01-08 23:40:58.12	40.47	9.80	
2025-01-08 23:40:58.33	40.50	9.82	
2025-01-08 23:40:58.53	40.53	9.83	
2025-01-08 23:40:58.74	40.56	9.84	
2025-01-08 23:40:58.95	40.59	9.86	
2025-01-08 23:40:59.16	40.62	9.87	
2025-01-08 23:40:59.36	40.65	9.88	
2025-01-08 23:40:59.57	40.68	9.89	
2025-01-08 23:40:59.77	40.71	9.91	
2025-01-08 23:40:59.98	40.74	9.92	
2025-01-08 23:41:00.19	40.78	9.93	
2025-01-08 23:41:00.40	40.81	9.95	
2025-01-08 23:41:00.61	40.84	9.96	
2025-01-08 23:41:00.81	40.87	9.97	
2025-01-08 23:41:01.02	40.90	9.99	
2025-01-08 23:41:01.22	40.93	10.00	
2025-01-08 23:41:01.43	40.96	10.01	
2025-01-08 23:41:01.63	40.99	10.02	
2025-01-08 23:41:01.84	41.02	10.04	
2025-01-08 23:41:02.04	41.05	10.05	
2025-01-08 23:41:02.25	41.08	10.06	
2025-01-08 23:41:02.45	41.11	10.08	
2025-01-08 23:41:02.66	41.14	10.09	
2025-01-08 23:41:02.86	41.17	10.10	
2025-01-08 23:41:03.07	41.20	10.12	
2025-01-08 23:41:03.28	41.24	10.13	
2025-01-08 23:41:03.49	41.27	10.14	
2025-01-08 23:41:03.70	41.30	10.16	
2025-01-08 23:41:03.90	41.33	10.17	
2025-01-08 23:41:04.11	41.36	10.18	
2025-01-08 23:41:04.32	41.39	10.20	
2025-01-08 23:41:04.52	41.42	10.21	
2025-01-08 23:41:04.73	41.45	10.22	
2025-01-08 23:41:04.93	41.48	10.23	
2025-01-08 23:41:05.14	41.52	10.25	
2025-01-08 23:41:05.34	41.55	10.26	
2025-01-08 23:41:05.54	41.58	10.27	
2025-01-08 23:41:05.75	41.61	10.29	
2025-01-08 23:41:05.96	41.64	10.30	
2025-01-08 23:41:06.16	41.67	10.31	
2025-01-08 23:41:06.37	41.70	10.33	
2025-01-08 23:41:06.57	41.73	10.34	
2025-01-08 23:41:06.78	41.77	10.35	
2025-01-08 23:41:06.98	41.80	10.36	
2025-01-08 23:41:07.19	41.83	10.38	
2025-01-08 23:41:07.39	41.86	10.39	
2025-01-08 23:41:07.60	41.89	10.40	
2025-01-08 23:41:07.80	41.92	10.42	
2025-01-08 23:41:08.01	41.95	10.43	
2025-01-08 23:41:08.21	41.98	10.44	
2025-01-08 23:41:08.42	42.02	10.46	
2025-01-08 23:41:08.63	42.05	10.47	
2025-01-08 23:41:08.83	42.08	10.48	
2025-01-08 23:41:09.04	42.11	10.50	
2025-01-08 23:41:09.24	42.14	10.51	
2025-01-08 23:41:09.45	42.17	10.52	
2025-01-08 23:41:09.65	42.21	10.53	
2025-01-08 23:41:09.87	42.24	10.55	
2025-01-08 23:41:10.07	42.27	10.56	
2025-01-08 23:41:10.28	42.30	10.57	
2025-01-08 23:41:10.48	42.33	10.59	
2025-01-08 23:41:10.69	42.37	10.60	
2025-01-08 23:41:10.89	42.40	10.61	
2025-01-08 23:41:11.10	42.43	10.63	
2025-01-08 23:41:11.30	42.46	10.64	
2025-01-08 23:41:11.51	42.49	10.65	
2025-01-08 23:41:11.71	42.53	10.67	
2025-01-08 23:41:11.92	42.56	10.68	
2025-01-08 23:41:12.12	42.59	10.69	
2025-01-08 23:41:12.33	42.62	10.70	
2025-01-08 23:41:12.53	42.65	10.72	
2025-01-08 23:41:12.74	42.69	10.73	
2025-01-08 23:41:12.94	42.72	10.74	
2025-01-08 23:41:13.15	42.75	10.76	
2025-01-08 23:41:13.35	42.78	10.77	
2025-01-08 23:41:13.56	42.82	10.78	
2025-01-08 23:41:13.76	42.85	10.80	
2025-01-08 23:41:13.97	42.88	10.81	
2025-01-08 23:41:14.19	42.91	10.82	
2025-01-08 23:41:14.39	42.95	10.84	
2025-01-08 23:41:14.60	42.98	10.85	
2025-01-08 23:41:14.80	43.01	10.86	
2025-01-08 23:41:15.00	43.04	10.87	
2025-01-08 23:41:15.21	43.08	10.89	
2025-01-08 23:41:15.41	43.11	10.90	
2025-01-08 23:41:15.62	43.14	10.91	
2025-01-08 23:41:15.82	43.17	10.93	
2025-01-08 23:41:16.03	43.21	10.94	
2025-01-08 23:41:16.23	43.24	10.95	
2025-01-08 23:41:16.44	43.27	10.97	
2025-01-08 23:41:16.64	43.30	10.98	
2025-01-08 23:41:16.85	43.34	10.99	
2025-01-08 23:41:17.05	43.37	11.00	
2025-01-08 23:41:17.26	43.40	11.02	
2025-01-08 23:41:17.46	43.43	11.03	
2025-01-08 23:41:17.67	43.47	11.04	
2025-01-08 23:41:17.87	43.50	11.06	
2025-01-08 23:41:18.08	43.53	11.07	
2025-01-08 23:41:18.28	43.57	11.08	
2025-01-08 23:41:18.49	43.60	11.10	
2025-01-08 23:41:18.69	43.63	11.11	
2025-01-08 23:41:18.90	43.66	11.12	
2025-01-08 23:41:19.10	43.70	11.14	
2025-01-08 23:41:19.31	43.73	11.15	
2025-01-08 23:41:19.51	43.76	11.16	
2025-01-08 23:41:19.72	43.80	11.17	
2025-01-08 23:41:19.92	43.83	11.19	
2025-01-08 23:41:20.13	43.86	11.20	
2025-01-08 23:41:20.33	43.90	11.21	
2025-01-08 23:41:20.54	43.93	11.23	
2025-01-08 23:41:20.74	43.96	11.24	
2025-01-08 23:41:20.95	44.00	11.25	
2025-01-08 23:41:21.15	44.03	11.27	
2025-01-08 23:41:21.36	44.06	11.28	
2025-01-08 23:41:21.56	44.10	11.29	
2025-01-08 23:41:21.77	44.13	11.31	
2025-01-08 23:41:21.97	44.16	11.32	
2025-01-08 23:41:22.18	44.20	11.33	
2025-01-08 23:41:22.38	44.23	11.34	
2025-01-08 23:41:22.59	44.26	11.36	
2025-01-08 23:41:22.79	44.30	11.37	
2025-01-08 23:41:23.00	44.33	11.38	
2025-01-08 23:41:23.20	44.36	11.40	
2025-01-08 23:41:23.41	44.40	11.41	
2025-01-08 23:41:23.61	44.43	11.42	
2025-01-08 23:41:23.82	44.47	11.44	
2025-01-08 23:41:24.02	44.50	11.45	
2025-01-08 23:41:24.23	44.53	11.46	
2025-01-08 23:41:24.43	44.57	11.47	
2025-01-08 23:41:24.64	44.60	11.49	
2025-01-08 23:41:24.85	44.64	11.50	
2025-01-08 23:41:25.06	44.67	11.51	
2025-01-08 23:41:25.27	44.71	11.53	
2025-01-08 23:41:25.47	44.74	11.54	
2025-01-08 23:41:25.68	44.77	11.55	
2025-01-08 23:41:25.88	44.81	11.57	
2025-01-08 23:41:26.09	44.84	11.58	
2025-01-08 23:41:26.29	44.88	11.59	
2025-01-08 23:41:26.50	44.91	11.61	
2025-01-08 23:41:26.70	44.94	11.62	
2025-01-08 23:41:26.91	44.98	11.63	
2025-01-08 23:41:27.11	45.01	11.64	
2025-01-08 23:41:27.32	45.05	11.66	
2025-01-08 23:41:27.52	45.08	11.67	
2025-01-08 23:41:27.73	45.12	11.68	
2025-01-08 23:41:27.93	45.15	11.70	
2025-01-08 23:41:28.14	45.18	11.71	
2025-01-08 23:41:28.34	45.22	11.72	
2025-01-08 23:41:28.55	45.25	11.74	
2025-01-08 23:41:28.75	45.29	11.75	
2025-01-08 23:41:28.95	45.32	11.76	
2025-01-08 23:41:29.16	45.36	11.77	
2025-01-08 23:41:29.36	45.39	11.79	
2025-01-08 23:41:29.57	45.43	11.80	
2025-01-08 23:41:29.78	45.46	11.81	
2025-01-08 23:41:29.98	45.50	11.83	
2025-01-08 23:41:30.18	45.53	11.84	
2025-01-08 23:41:30.39	45.56	11.85	
2025-01-08 23:41:30.60	45.60	11.87	
2025-01-08 23:41:30.80	45.63	11.88	
2025-01-08 23:41:31.01	45.67	11.89	
2025-01-08 23:41:31.21	45.70	11.90	
2025-01-08 23:41:31.41	45.74	11.92	
2025-01-08 23:41:31.62	45.77	11.93	
2025-01-08 23:41:31.82	45.81	11.94	
2025-01-08 23:41:32.03	45.84	11.96	
2025-01-08 23:41:32.25	45.88	11.97	
2025-01-08 23:41:32.45	45.92	11.98	
2025-01-08 23:41:32.66	45.95	12.00	
2025-01-08 23:41:32.86	45.99	12.01	
2025-01-08 23:41:33.06	46.02	12.02	
2025-01-08 23:41:33.27	46.06	12.03	
2025-01-08 23:41:33.47	46.09	12.05	
2025-01-08 23:41:33.68	46.13	12.06	
2025-01-08 23:41:33.89	46.16	12.07	
2025-01-08 23:41:34.09	46.20	12.09	
2025-01-08 23:41:34.30	46.23	12.10	
2025-01-08 23:41:34.50	46.27	12.11	
2025-01-08 23:41:34.71	46.31	12.13	
2025-01-08 23:41:34.91	46.34	12.14	
2025-01-08 23:41:35.12	46.38	12.15	
2025-01-08 23:41:35.32	46.41	12.16	
2025-01-08 23:41:35.52	46.45	12.18	
2025-01-08 23:41:35.73	46.48	12.19	
2025-01-08 23:41:35.94	46.52	12.20	
2025-01-08 23:41:36.14	46.55	12.22	
2025-01-08 23:41:36.35	46.59	12.23	
2025-01-08 23:41:36.55	46.62	12.24	
2025-01-08 23:41:36.76	46.66	12.26	
2025-01-08 23:41:36.96	46.70	12.27	
2025-01-08 23:41:37.17	46.73	12.28	
2025-01-08 23:41:37.37	46.77	12.29	
2025-01-08 23:41:37.58	46.80	12.31	
2025-01-08 23:41:37.78	46.84	12.32	
2025-01-08 23:41:37.99	46.88	12.33	
2025-01-08 23:41:38.19	46.91	12.35	
2025-01-08 23:41:38.40	46.95	12.36	
2025-01-08 23:41:38.60	46.98	12.37	
2025-01-08 23:41:38.81	47.02	12.39	
2025-01-08 23:41:39.01	47.06	12.40	
2025-01-08 23:41:39.22	47.09	12.41	
2025-01-08 23:41:39.42	47.13	12.42	
2025-01-08 23:41:39.63	47.17	12.44	
2025-01-08 23:41:39.83	47.20	12.45	
2025-01-08 23:41:40.04	47.24	12.46	
2025-01-08 23:41:40.24	47.27	12.48	
2025-01-08 23:41:40.45	47.31	12.49	
2025-01-08 23:41:40.65	47.35	12.50	
2025-01-08 23:41:40.86	47.38	12.51	
2025-01-08 23:41:41.06	47.42	12.53	
2025-01-08 23:41:41.27	47.46	12.54	
2025-01-08 23:41:41.47	47.49	12.55	
2025-01-08 23:41:41.68	47.53	12.57	
2025-01-08 23:41:41.88	47.57	12.58	
2025-01-08 23:41:42.09	47.60	12.59	
2025-01-08 23:41:42.29	47.64	12.60	
2025-01-08 23:41:42.50	47.68	12.62	
2025-01-08 23:41:42.70	47.71	12.63	
2025-01-08 23:41:42.90	47.75	12.64	
2025-01-08 23:41:43.11	47.79	12.66	
2025-01-08 23:41:43.31	47.82	12.67	
2025-01-08 23:41:43.52	47.86	12.68	
2025-01-08 23:41:43.72	47.90	12.69	
2025-01-08 23:41:43.94	47.94	12.71	
2025-01-08 23:41:44.15	47.97	12.72	
2025-01-08 23:41:44.35	48.01	12.73	
2025-01-08 23:41:44.56	48.05	12.75	
2025-01-08 23:41:44.76	48.08	12.76	
2025-01-08 23:41:44.97	48.12	12.77	
2025-01-08 23:41:45.17	48.16	12.79	
2025-01-08 23:41:45.38	48.20	12.80	
2025-01-08 23:41:45.58	48.23	12.81	
2025-01-08 23:41:45.79	48.27	12.82	
2025-01-08 23:41:45.99	48.31	12.84	
2025-01-08 23:41:46.20	48.35	12.85	
2025-01-08 23:41:46.40	48.38	12.86	
2025-01-08 23:41:46.61	48.42	12.88	
2025-01-08 23:41:46.81	48.46	12.89	
2025-01-08 23:41:47.02	48.49	12.90	
2025-01-08 23:41:47.22	48.53	12.91	
2025-01-08 23:41:47.43	48.57	12.93	
2025-01-08 23:41:47.64	48.61	12.94	
2025-01-08 23:41:47.84	48.64	12.95	
2025-01-08 23:41:48.05	48.68	12.97	
2025-01-08 23:41:48.25	48.72	12.98	
2025-01-08 23:41:48.46	48.76	12.99	
2025-01-08 23:41:48.66	48.80	13.00	
2025-01-08 23:41:48.87	48.83	13.02	
2025-01-08 23:41:49.07	48.87	13.03	
2025-01-08 23:41:49.28	48.91	13.04	
2025-01-08 23:41:49.48	48.95	13.05	
2025-01-08 23:41:49.69	48.99	13.07	
2025-01-08 23:41:49.89	49.02	13.08	
2025-01-08 23:41:50.10	49.06	13.09	
2025-01-08 23:41:50.30	49.10	13.11	
2025-01-08 23:41:50.51	49.14	13.12	
2025-01-08 23:41:50.71	49.17	13.13	
2025-01-08 23:41:50.92	49.21	13.14	
2025-01-08 23:41:51.12	49.25	13.16	
2025-01-08 23:41:51.32	49.29	13.17	
2025-01-08 23:41:51.53	49.33	13.18	
2025-01-08 23:41:51.73	49.36	13.19	
2025-01-08 23:41:51.94	49.40	13.21	
2025-01-08 23:41:52.15	49.44	13.22	
2025-01-08 23:41:52.35	49.48	13.23	
2025-01-08 23:41:52.56	49.52	13.25	
2025-01-08 23:41:52.76	49.56	13.26	
2025-01-08 23:41:52.97	49.60	13.27	
2025-01-08 23:41:53.17	49.63	13.28	
2025-01-08 23:41:53.38	49.67	13.30	
2025-01-08 23:41:53.58	49.71	13.31	
2025-01-08 23:41:53.79	49.75	13.32	
2025-01-08 23:41:53.99	49.79	13.34	
2025-01-08 23:41:54.20	49.83	13.35	
2025-01-08 23:41:54.40	49.87	13.36	
2025-01-08 23:41:54.61	49.91	13.37	
2025-01-08 23:41:54.81	49.94	13.39	
2025-01-08 23:41:55.02	49.98	13.40	
2025-01-08 23:41:55.22	50.02	13.41	
2025-01-08 23:41:55.43	50.06	13.42	
2025-01-08 23:41:55.63	50.10	13.44	
2025-01-08 23:41:55.84	50.14	13.45	
2025-01-08 23:41:56.05	50.18	13.46	
2025-01-08 23:41:56.25	50.22	13.48	
2025-01-08 23:41:56.46	50.26	13.49	
2025-01-08 23:41:56.66	50.30	13.50	
2025-01-08 23:41:56.86	50.33	13.51	
2025-01-08 23:41:57.07	50.37	13.53	
2025-01-08 23:41:57.27	50.41	13.54	
2025-01-08 23:41:57.48	50.45	13.55	
2025-01-08 23:41:57.68	50.49	13.56	
2025-01-08 23:41:57.88	50.53	13.58	
2025-01-08 23:41:58.09	50.57	13.59	
2025-01-08 23:41:58.30	50.61	13.60	
2025-01-08 23:41:58.50	50.65	13.61	
2025-01-08 23:41:58.71	50.69	13.63	
2025-01-08 23:41:58.91	50.73	13.64	
2025-01-08 23:41:59.12	50.77	13.65	
2025-01-08 23:41:59.32	50.81	13.66	
2025-01-08 23:41:59.53	50.85	13.68	
2025-01-08 23:41:59.73	50.88	13.69	
2025-01-08 23:41:59.93	50.92	13.70	
2025-01-08 23:42:00.14	50.96	13.71	
2025-01-08 23:42:00.35	51.00	13.73	
2025-01-08 23:42:00.55	51.04	13.74	
2025-01-08 23:42:00.76	51.08	13.75	
2025-01-08 23:42:00.96	51.12	13.77	
2025-01-08 23:42:01.17	51.16	13.78	
2025-01-08 23:42:01.37	51.20	13.79	
2025-01-08 23:42:01.58	51.24	13.80	
2025-01-08 23:42:01.78	51.28	13.82	
2025-01-08 23:42:02.00	51.33	13.83	
2025-01-08 23:42:02.20	51.36	13.84	
2025-01-08 23:42:02.41	51.41	13.85	
2025-01-08 23:42:02.61	51.44	13.87	
2025-01-08 23:42:02.82	51.49	13.88	
2025-01-08 23:42:03.02	51.52	13.89	
2025-01-08 23:42:03.23	51.57	13.90	
2025-01-08 23:42:03.43	51.61	13.92	
2025-01-08 23:42:03.64	51.65	13.93	
2025-01-08 23:42:03.84	51.69	13.94	
2025-01-08 23:42:04.05	51.73	13.95	
2025-01-08 23:42:04.25	51.77	13.97	
2025-01-08 23:42:04.45	51.81	13.98	
2025-01-08 23:42:04.66	51.85	13.99	
2025-01-08 23:42:04.87	51.89	14.00	
2025-01-08 23:42:05.07	51.93	14.02	
2025-01-08 23:42:05.28	51.97	14.03	
2025-01-08 23:42:05.48	52.01	14.04	
2025-01-08 23:42:05.69	52.05	14.05	
2025-01-08 23:42:05.89	52.09	14.07	
2025-01-08 23:42:06.10	52.13	14.08	
2025-01-08 23:42:06.30	52.17	14.09	
2025-01-08 23:42:06.51	52.21	14.10	
2025-01-08 23:42:06.71	52.25	14.12	
2025-01-08 23:42:06.91	52.29	14.13	
2025-01-08 23:42:07.12	52.34	14.14	
2025-01-08 23:42:07.33	52.38	14.15	
2025-01-08 23:42:07.53	52.42	14.17	
2025-01-08 23:42:07.74	52.46	14.18	
2025-01-08 23:42:07.94	52.50	14.19	
2025-01-08 23:42:08.15	52.54	14.20	
2025-01-08 23:42:08.35	52.58	14.21	
2025-01-08 23:42:08.56	52.62	14.23	
2025-01-08 23:42:08.76	52.66	14.24	
2025-01-08 23:42:08.97	52.71	14.25	
2025-01-08 23:42:09.17	52.75	14.26	
2025-01-08 23:42:09.38	52.79	14.28	
2025-01-08 23:42:09.58	52.83	14.29	
2025-01-08 23:42:09.79	52.87	14.30	
2025-01-08 23:42:09.99	52.91	14.31	
2025-01-08 23:42:10.20	52.95	14.33	
2025-01-08 23:42:10.40	53.00	14.34	
2025-01-08 23:42:10.62	53.04	14.35	
2025-01-08 23:42:10.83	53.08	14.36	
2025-01-08 23:42:11.03	53.12	14.38	
2025-01-08 23:42:11.24	53.17	14.39	
2025-01-08 23:42:11.44	53.21	14.40	
2025-01-08 23:42:11.65	53.25	14.41	
2025-01-08 23:42:11.85	53.29	14.42	
2025-01-08 23:42:12.06	53.33	14.44	
2025-01-08 23:42:12.27	53.37	14.45	
2025-01-08 23:42:12.47	53.42	14.46	
2025-01-08 23:42:12.67	53.46	14.47	
2025-01-08 23:42:12.88	53.50	14.49	
2025-01-08 23:42:13.08	53.54	14.50	
2025-01-08 23:42:13.29	53.58	14.51	
2025-01-08 23:42:13.50	53.63	14.52	
2025-01-08 23:42:13.70	53.67	14.54	
2025-01-08 23:42:13.90	53.71	14.55	
2025-01-08 23:42:14.11	53.75	14.56	
2025-01-08 23:42:14.31	53.79	14.57	
2025-01-08 23:42:14.52	53.84	14.58	
2025-01-08 23:42:14.72	53.88	14.60	
2025-01-08 23:42:14.93	53.92	14.61	
2025-01-08 23:42:15.13	53.96	14.62	
2025-01-08 23:42:15.34	54.01	14.63	
2025-01-08 23:42:15.54	54.05	14.64	
2025-01-08 23:42:15.75	54.09	14.66	
2025-01-08 23:42:15.95	54.13	14.67	
2025-01-08 23:42:16.16	54.17	14.68	
2025-01-08 23:42:16.36	54.22	14.69	
2025-01-08 23:42:16.57	54.26	14.71	
2025-01-08 23:42:16.78	54.30	14.72	
2025-01-08 23:42:16.98	54.34	14.73	
2025-01-08 23:42:17.18	54.39	14.74	
2025-01-08 23:42:17.39	54.43	14.75	
2025-01-08 23:42:17.60	54.47	14.77	
2025-01-08 23:42:17.80	54.52	14.78	
2025-01-08 23:42:18.01	54.56	14.79	
2025-01-08 23:42:18.21	54.60	14.80	
2025-01-08 23:42:18.42	54.65	14.81	
2025-01-08 23:42:18.62	54.69	14.83	
2025-01-08 23:42:18.83	54.73	14.84	
2025-01-08 23:42:19.03	54.77	14.85	
2025-01-08 23:42:19.24	54.82	14.86	
2025-01-08 23:42:19.44	54.86	14.87	
2025-01-08 23:42:19.65	54.90	14.89	
2025-01-08 23:42:19.85	54.95	14.90	
2025-01-08 23:42:20.06	54.99	14.91	
2025-01-08 23:42:20.26	55.03	14.92	
2025-01-08 23:42:20.46	55.07	14.93	
2025-01-08 23:42:20.67	55.12	14.95	
2025-01-08 23:42:20.87	55.16	14.96	
2025-01-08 23:42:21.08	55.20	14.97	
2025-01-08 23:42:21.28	55.25	14.98	
2025-01-08 23:42:21.49	55.29	14.99	
2025-01-08 23:42:21.69	55.33	15.01	
2025-01-08 23:42:21.90	55.38	15.02	
2025-01-08 23:42:22.10	55.42	15.03	
2025-01-08 23:42:22.31	55.47	15.04	
2025-01-08 23:42:22.51	55.51	15.05	
2025-01-08 23:42:22.72	55.55	15.07	
2025-01-08 23:42:22.92	55.60	15.08	
2025-01-08 23:42:23.13	55.64	15.09	
2025-01-08 23:42:23.34	55.69	15.10	
2025-01-08 23:42:23.54	55.73	15.11	
2025-01-08 23:42:23.75	55.77	15.12	
2025-01-08 23:42:23.95	55.82	15.14	
2025-01-08 23:42:24.16	55.86	15.15	
2025-01-08 23:42:24.36	55.90	15.16	
2025-01-08 23:42:24.57	55.95	15.17	
2025-01-08 23:42:24.77	55.99	15.18	
2025-01-08 23:42:24.98	56.04	15.20	
2025-01-08 23:42:25.18	56.08	15.21	
2025-01-08 23:42:25.39	56.12	15.22	
2025-01-08 23:42:25.59	56.17	15.23	
2025-01-08 23:42:25.80	56.21	15.24	
2025-01-08 23:42:26.00	56.26	15.25	
2025-01-08 23:42:26.21	56.30	15.27	
2025-01-08 23:42:26.41	56.34	15.28	
2025-01-08 23:42:26.61	56.39	15.29	
2025-01-08 23:42:26.82	56.43	15.30	
2025-01-08 23:42:27.02	56.48	15.31	
2025-01-08 23:42:27.23	56.52	15.32	
2025-01-08 23:42:27.44	56.57	15.34	
2025-01-08 23:42:27.64	56.61	15.35	
2025-01-08 23:42:27.84	56.65	15.36	
2025-01-08 23:42:28.05	56.70	15.37	
2025-01-08 23:42:28.26	56.75	15.38	
2025-01-08 23:42:28.46	56.79	15.39	
2025-01-08 23:42:28.67	56.84	15.41	
2025-01-08 23:42:28.87	56.88	15.42	
2025-01-08 23:42:29.07	56.92	15.43	
2025-01-08 23:42:29.28	56.97	15.44	
2025-01-08 23:42:29.48	57.01	15.45	
2025-01-08 23:42:29.69	57.06	15.46	
2025-01-08 23:42:29.89	57.10	15.47	
2025-01-08 23:42:30.10	57.15	15.49	
2025-01-08 23:42:30.30	57.19	15.50	
2025-01-08 23:42:30.51	57.24	15.51	
2025-01-08 23:42:30.71	57.28	15.52	
2025-01-08 23:42:30.93	57.33	15.53	
2025-01-08 23:42:31.14	57.38	15.55	
2025-01-08 23:42:31.35	57.42	15.56	
2025-01-08 23:42:31.55	57.47	15.57	
2025-01-08 23:42:31.76	57.51	15.58	
2025-01-08 23:42:31.96	57.56	15.59	
2025-01-08 23:42:32.17	57.60	15.60	
2025-01-08 23:42:32.37	57.65	15.61	
2025-01-08 23:42:32.58	57.69	15.63	
2025-01-08 23:42:32.78	57.74	15.64	
2025-01-08 23:42:32.99	57.79	15.65	
2025-01-08 23:42:33.19	57.83	15.66	
2025-01-08 23:42:33.40	57.88	15.67	
2025-01-08 23:42:33.60	57.92	15.68	
2025-01-08 23:42:33.81	57.97	15.69	
2025-01-08 23:42:34.02	58.01	15.71	
2025-01-08 23:42:34.22	58.06	15.72	
2025-01-08 23:42:34.43	58.11	15.73	
2025-01-08 23:42:34.63	58.15	15.74	
2025-01-08 23:42:34.83	58.20	15.75	
2025-01-08 23:42:35.04	58.24	15.76	
2025-01-08 23:42:35.24	58.29	15.77	
2025-01-08 23:42:35.45	58.33	15.78	
2025-01-08 23:42:35.65	58.38	15.80	
2025-01-08 23:42:35.86	58.43	15.81	
2025-01-08 23:42:36.07	58.47	15.82	
2025-01-08 23:42:36.27	58.52	15.83	
2025-01-08 23:42:36.47	58.56	15.84	
2025-01-08 23:42:36.68	58.61	15.85	
2025-01-08 23:42:36.89	58.66	15.86	
2025-01-08 23:42:37.09	58.70	15.87	
2025-01-08 23:42:37.30	58.75	15.89	
2025-01-08 23:42:37.50	58.79	15.90	
2025-01-08 23:42:37.71	58.84	15.91	
2025-01-08 23:42:37.91	58.89	15.92	
2025-01-08 23:42:38.12	58.93	15.93	
2025-01-08 23:42:38.32	58.98	15.94	
2025-01-08 23:42:38.53	59.03	15.95	
2025-01-08 23:42:38.73	59.07	15.96	
2025-01-08 23:42:38.94	59.12	15.97	
2025-01-08 23:42:39.14	59.17	15.99	
2025-01-08 23:42:39.35	59.21	16.00	
2025-01-08 23:42:39.55	59.26	16.01	
2025-01-08 23:42:39.76	59.31	16.02	
2025-01-08 23:42:39.96	59.35	16.03	
2025-01-08 23:42:40.17	59.40	16.04	
2025-01-08 23:42:40.37	59.45	16.05	
2025-01-08 23:42:40.58	59.49	16.06	
2025-01-08 23:42:40.78	59.54	16.07	
2025-01-08 23:42:40.99	59.59	16.09	
2025-01-08 23:42:41.19	59.63	16.10	
2025-01-08 23:42:41.40	59.68	16.11	
2025-01-08 23:42:41.62	59.73	16.12	
2025-01-08 23:42:41.82	59.78	16.13	
2025-01-08 23:42:42.03	59.83	16.14	
2025-01-08 23:42:42.23	59.87	16.15	
2025-01-08 23:42:42.44	59.92	16.16	
2025-01-08 23:42:42.64	59.97	16.17	
2025-01-08 23:42:42.85	60.01	16.18	
2025-01-08 23:42:43.05	60.06	16.19	
2025-01-08 23:42:43.26	60.11	16.21	
2025-01-08 23:42:43.47	60.16	16.22	
2025-01-08 23:42:43.67	60.20	16.23	
2025-01-08 23:42:43.88	60.25	16.24	
2025-01-08 23:42:44.08	60.30	16.25	
2025-01-08 23:42:44.29	60.35	16.26	
2025-01-08 23:42:44.49	60.39	16.27	
2025-01-08 23:42:44.70	60.44	16.28	
2025-01-08 23:42:44.90	60.49	16.29	
2025-01-08 23:42:45.11	60.54	16.30	
2025-01-08 23:42:45.32	60.59	16.31	
2025-01-08 23:42:45.52	60.63	16.32	
2025-01-08 23:42:45.73	60.68	16.34	
2025-01-08 23:42:45.93	60.73	16.35	
2025-01-08 23:42:46.13	60.77	16.36	
2025-01-08 23:42:46.34	60.82	16.37	
2025-01-08 23:42:46.54	60.87	16.38	
2025-01-08 23:42:46.75	60.92	16.39	
2025-01-08 23:42:46.95	60.97	16.40	
2025-01-08 23:42:47.16	61.01	16.41	
2025-01-08 23:42:47.36	61.06	16.42	
2025-01-08 23:42:47.57	61.11	16.43	
2025-01-08 23:42:47.77	61.16	16.44	
2025-01-08 23:42:47.97	61.20	16.45	
2025-01-08 23:42:48.18	61.25	16.46	
2025-01-08 23:42:48.38	61.30	16.47	
2025-01-08 23:42:48.59	61.35	16.48	
2025-01-08 23:42:48.80	61.40	16.49	
2025-01-08 23:42:49.00	61.45	16.50	
2025-01-08 23:42:49.20	61.49	16.51	
2025-01-08 23:42:49.41	61.54	16.53	
2025-01-08 23:42:49.62	61.59	16.54	
2025-01-08 23:42:49.82	61.64	16.55	
2025-01-08 23:42:50.03	61.69	16.56	
2025-01-08 23:42:50.24	61.74	16.57	
2025-01-08 23:42:50.45	61.79	16.58	
2025-01-08 23:42:50.65	61.84	16.59	
2025-01-08 23:42:50.86	61.89	16.60	
2025-01-08 23:42:51.07	61.94	16.61	
2025-01-08 23:42:51.27	61.98	16.62	
2025-01-08 23:42:51.48	62.03	16.63	
2025-01-08 23:42:51.68	62.08	16.64	
2025-01-08 23:42:51.89	62.13	16.65	
2025-01-08 23:42:52.09	62.18	16.66	
2025-01-08 23:42:52.29	62.23	16.67	
2025-01-08 23:42:52.49	62.27	16.68	
2025-01-08 23:42:52.70	62.32	16.69	
2025-01-08 23:42:52.91	62.37	16.70	
2025-01-08 23:42:53.11	62.42	16.71	
2025-01-08 23:42:53.32	62.47	16.72	
2025-01-08 23:42:53.52	62.52	16.73	
2025-01-08 23:42:53.73	62.57	16.74	
2025-01-08 23:42:53.93	62.62	16.75	
2025-01-08 23:42:54.14	62.67	16.76	
2025-01-08 23:42:54.34	62.72	16.77	
2025-01-08 23:42:54.56	62.77	16.78	
2025-01-08 23:42:54.77	62.82	16.79	
2025-01-08 23:42:54.97	62.87	16.80	
2025-01-08 23:42:55.18	62.92	16.81	
2025-01-08 23:42:55.39	62.97	16.82	
2025-01-08 23:42:55.59	63.02	16.83	
2025-01-08 23:42:55.79	63.06	16.84	
2025-01-08 23:42:56.00	63.12	16.85	
2025-01-08 23:42:56.21	63.17	16.86	
2025-01-08 23:42:56.41	63.21	16.87	
2025-01-08 23:42:56.61	63.26	16.88	
2025-01-08 23:42:56.82	63.31	16.89	
2025-01-08 23:42:57.02	63.36	16.90	
2025-01-08 23:42:57.23	63.41	16.91	
2025-01-08 23:42:57.44	63.46	16.92	
2025-01-08 23:42:57.64	63.51	16.93	
2025-01-08 23:42:57.84	63.56	16.94	
2025-01-08 23:42:58.05	63.61	16.95	
2025-01-08 23:42:58.25	63.66	16.96	
2025-01-08 23:42:58.46	63.71	16.97	
2025-01-08 23:42:58.66	63.76	16.98	
2025-01-08 23:42:58.87	63.81	16.99	
2025-01-08 23:42:59.07	63.86	17.00	
2025-01-08 23:42:59.28	63.91	17.01	
2025-01-08 23:42:59.48	63.96	17.02	
2025-01-08 23:42:59.69	64.01	17.03	
2025-01-08 23:42:59.89	64.06	17.04	
2025-01-08 23:43:00.10	64.11	17.05	
2025-01-08 23:43:00.30	64.16	17.06	
2025-01-08 23:43:00.51	64.21	17.07	
2025-01-08 23:43:00.71	64.26	17.08	
2025-01-08 23:43:00.91	64.31	17.09	
2025-01-08 23:43:01.12	64.36	17.10	
2025-01-08 23:43:01.32	64.41	17.11	
2025-01-08 23:43:01.53	64.46	17.12	
2025-01-08 23:43:01.73	64.51	17.13	
2025-01-08 23:43:01.94	64.56	17.14	
2025-01-08 23:43:02.14	64.61	17.15	
2025-01-08 23:43:02.35	64.66	17.16	
2025-01-08 23:43:02.55	64.71	17.17	
2025-01-08 23:43:02.76	64.76	17.18	
2025-01-08 23:43:02.96	64.81	17.18	
2025-01-08 23:43:03.16	64.86	17.19	
2025-01-08 23:43:03.37	64.92	17.20	
2025-01-08 23:43:03.58	64.97	17.21	
2025-01-08 23:43:03.78	65.02	17.22	
2025-01-08 23:43:03.99	65.07	17.23	
2025-01-08 23:43:04.19	65.12	17.24	
2025-01-08 23:43:04.40	65.17	17.25	
2025-01-08 23:43:04.60	65.22	17.26	
2025-01-08 23:43:04.81	65.27	17.27	
2025-01-08 23:43:05.01	65.32	17.28	
2025-01-08 23:43:05.22	65.37	17.29	
2025-01-08 23:43:05.42	65.42	17.30	
2025-01-08 23:43:05.62	65.47	17.31	
2025-01-08 23:43:05.83	65.53	17.32	
2025-01-08 23:43:06.03	65.58	17.32	
2025-01-08 23:43:06.25	65.63	17.33	
2025-01-08 23:43:06.46	65.68	17.34	
2025-01-08 23:43:06.66	65.73	17.35	
2025-01-08 23:43:06.86	65.78	17.36	
2025-01-08 23:43:07.07	65.84	17.37	
2025-01-08 23:43:07.27	65.89	17.38	
2025-01-08 23:43:07.48	65.94	17.39	
2025-01-08 23:43:07.68	65.99	17.40	
2025-01-08 23:43:07.89	66.04	17.41	
2025-01-08 23:43:08.09	66.09	17.42	
2025-01-08 23:43:08.30	66.14	17.43	
2025-01-08 23:43:08.50	66.19	17.43	
2025-01-08 23:43:08.71	66.25	17.44	
2025-01-08 23:43:08.91	66.30	17.45	
2025-01-08 23:43:09.12	66.35	17.46	
2025-01-08 23:43:09.33	66.40	17.47	
2025-01-08 23:43:09.53	66.45	17.48	
2025-01-08 23:43:09.73	66.50	17.49	
2025-01-08 23:43:09.94	66.56	17.50	
2025-01-08 23:43:10.14	66.61	17.51	
2025-01-08 23:43:10.35	66.66	17.51	
2025-01-08 23:43:10.55	66.71	17.52	
2025-01-08 23:43:10.76	66.76	17.53	
2025-01-08 23:43:10.96	66.81	17.54	
2025-01-08 23:43:11.17	66.87	17.55	
2025-01-08 23:43:11.37	66.92	17.56	
2025-01-08 23:43:11.58	66.97	17.57	
2025-01-08 23:43:11.78	67.02	17.58	
2025-01-08 23:43:11.99	67.07	17.58	
2025-01-08 23:43:12.19	67.13	17.59	
2025-01-08 23:43:12.40	67.18	17.60	
2025-01-08 23:43:12.60	67.23	17.61	
2025-01-08 23:43:12.81	67.28	17.62	
2025-01-08 23:43:13.01	67.33	17.63	
2025-01-08 23:43:13.22	67.39	17.64	
2025-01-08 23:43:13.42	67.44	17.65	
2025-01-08 23:43:13.63	67.49	17.65	
2025-01-08 23:43:13.83	67.54	17.66	
2025-01-08 23:43:14.03	67.59	17.67	
2025-01-08 23:43:14.24	67.65	17.68	
2025-01-08 23:43:14.44	67.70	17.69	
2025-01-08 23:43:14.65	67.75	17.70	
2025-01-08 23:43:14.85	67.80	17.70	
2025-01-08 23:43:15.06	67.86	17.71	
2025-01-08 23:43:15.27	67.91	17.72	
2025-01-08 23:43:15.47	67.96	17.73	
2025-01-08 23:43:15.68	68.02	17.74	
2025-01-08 23:43:15.88	68.07	17.75	
2025-01-08 23:43:16.09	68.12	17.76	
2025-01-08 23:43:16.29	68.17	17.76	
2025-01-08 23:43:16.50	68.23	17.77	
2025-01-08 23:43:16.71	68.28	17.78	
2025-01-08 23:43:16.91	68.33	17.79	
2025-01-08 23:43:17.11	68.38	17.80	
2025-01-08 23:43:17.32	68.44	17.80	
2025-01-08 23:43:17.52	68.49	17.81	
2025-01-08 23:43:17.73	68.54	17.82	
2025-01-08 23:43:17.93	68.60	17.83	
2025-01-08 23:43:18.14	68.65	17.84	
2025-01-08 23:43:18.35	68.70	17.85	
2025-01-08 23:43:18.55	68.76	17.85	
2025-01-08 23:43:18.76	68.81	17.86	
2025-01-08 23:43:18.96	68.86	17.87	
2025-01-08 23:43:19.17	68.92	17.88	
2025-01-08 23:43:19.37	68.97	17.89	
2025-01-08 23:43:19.58	69.02	17.89	
2025-01-08 23:43:19.78	69.07	17.90	
2025-01-08 23:43:19.99	69.13	17.91	
2025-01-08 23:43:20.19	69.18	17.92	
2025-01-08 23:43:20.39	69.23	17.93	
2025-01-08 23:43:20.60	69.29	17.93	
2025-01-08 23:43:20.81	69.34	17.94	
2025-01-08 23:43:21.01	69.39	17.95	
2025-01-08 23:43:21.23	69.45	17.96	
2025-01-08 23:43:21.44	69.51	17.97	
2025-01-08 23:43:21.64	69.56	17.97	
2025-01-08 23:43:21.85	69.61	17.98	
2025-01-08 23:43:22.05	69.66	17.99	
2025-01-08 23:43:22.25	69.72	18.00	
2025-01-08 23:43:22.46	69.77	18.00	
2025-01-08 23:43:22.66	69.82	18.01	
2025-01-08 23:43:22.87	69.88	18.02	
2025-01-08 23:43:23.08	69.93	18.03	
2025-01-08 23:43:23.28	69.99	18.03	
2025-01-08 23:43:23.49	70.04	18.04	
2025-01-08 23:43:23.69	70.09	18.05	
2025-01-08 23:43:23.90	70.15	18.06	
2025-01-08 23:43:24.10	70.20	18.07	
2025-01-08 23:43:24.31	70.26	18.07	
2025-01-08 23:43:24.51	70.31	18.08	
2025-01-08 23:43:24.71	70.36	18.09	
2025-01-08 23:43:24.92	70.42	18.09	
2025-01-08 23:43:25.13	70.47	18.10	
2025-01-08 23:43:25.33	70.52	18.11	
2025-01-08 23:43:25.55	70.58	18.12	
2025-01-08 23:43:25.75	70.64	18.12	
2025-01-08 23:43:25.96	70.69	18.13	
2025-01-08 23:43:26.17	70.75	18.14	
2025-01-08 23:43:26.37	70.80	18.15	
2025-01-08 23:43:26.59	70.86	18.15	
2025-01-08 23:43:26.80	70.91	18.16	
2025-01-08 23:43:27.00	70.97	18.17	
2025-01-08 23:43:27.21	71.02	18.18	
2025-01-08 23:43:27.41	71.07	18.18	
2025-01-08 23:43:27.61	71.13	18.19	
2025-01-08 23:43:27.82	71.18	18.20	
2025-01-08 23:43:28.02	71.23	18.21	
2025-01-08 23:43:28.23	71.29	18.21	
2025-01-08 23:43:28.43	71.34	18.22	
2025-01-08 23:43:28.64	71.40	18.23	
2025-01-08 23:43:28.84	71.45	18.23	
2025-01-08 23:43:29.05	71.51	18.24	
2025-01-08 23:43:29.25	71.56	18.25	
2025-01-08 23:43:29.46	71.62	18.25	
2025-01-08 23:43:29.66	71.67	18.26	
2025-01-08 23:43:29.87	71.73	18.27	
2025-01-08 23:43:30.07	71.78	18.28	
2025-01-08 23:43:30.28	71.84	18.28	
2025-01-08 23:43:30.49	71.89	18.29	
2025-01-08 23:43:30.69	71.94	18.30	
2025-01-08 23:43:30.89	72.00	18.30	
2025-01-08 23:43:31.10	72.05	18.31	
2025-01-08 23:43:31.31	72.11	18.32	
2025-01-08 23:43:31.51	72.16	18.32	
2025-01-08 23:43:31.72	72.22	18.33	
2025-01-08 23:43:31.92	72.27	18.34	
2025-01-08 23:43:32.12	72.33	18.34	
2025-01-08 23:43:32.33	72.38	18.35	
2025-01-08 23:43:32.53	72.44	18.36	
2025-01-08 23:43:32.74	72.49	18.36	
2025-01-08 23:43:32.94	72.55	18.37	
2025-01-08 23:43:33.15	72.60	18.38	
2025-01-08 23:43:33.36	72.66	18.38	
2025-01-08 23:43:33.56	72.71	18.39	
2025-01-08 23:43:33.77	72.77	18.40	
2025-01-08 23:43:33.97	72.82	18.40	
2025-01-08 23:43:34.18	72.88	18.41	
2025-01-08 23:43:34.38	72.93	18.42	
2025-01-08 23:43:34.59	72.99	18.42	
2025-01-08 23:43:34.80	73.05	18.43	
2025-01-08 23:43:35.00	73.10	18.44	
2025-01-08 23:43:35.20	73.15	18.44	
2025-01-08 23:43:35.41	73.21	18.45	
2025-01-08 23:43:35.61	73.26	18.45	
2025-01-08 23:43:35.82	73.32	18.46	
2025-01-08 23:43:36.02	73.37	18.47	
2025-01-08 23:43:36.23	73.43	18.47	
2025-01-08 23:43:36.43	73.48	18.48	
2025-01-08 23:43:36.64	73.54	18.49	
2025-01-08 23:43:36.84	73.60	18.49	
2025-01-08 23:43:37.05	73.65	18.50	
2025-01-08 23:43:37.26	73.71	18.50	
2025-01-08 23:43:37.47	73.77	18.51	
2025-01-08 23:43:37.68	73.82	18.52	
2025-01-08 23:43:37.88	73.88	18.52	
2025-01-08 23:43:38.09	73.93	18.53	
2025-01-08 23:43:38.29	73.99	18.53	
2025-01-08 23:43:38.50	74.04	18.54	
2025-01-08 23:43:38.70	74.10	18.55	
2025-01-08 23:43:38.91	74.16	18.55	
2025-01-08 23:43:39.11	74.21	18.56	
2025-01-08 23:43:39.32	74.27	18.56	
2025-01-08 23:43:39.52	74.32	18.57	
2025-01-08 23:43:39.73	74.38	18.58	
2025-01-08 23:43:39.93	74.43	18.58	
2025-01-08 23:43:40.14	74.49	18.59	
2025-01-08 23:43:40.35	74.55	18.59	
2025-01-08 23:43:40.56	74.60	18.60	
2025-01-08 23:43:40.77	74.66	18.61	
2025-01-08 23:43:40.97	74.72	18.61	
2025-01-08 23:43:41.18	74.77	18.62	
2025-01-08 23:43:41.38	74.83	18.62	
2025-01-08 23:43:41.59	74.89	18.63	
2025-01-08 23:43:41.79	74.94	18.63	
2025-01-08 23:43:42.00	75.00	18.64	
2025-01-08 23:43:42.20	75.05	18.64	
2025-01-08 23:43:42.41	75.11	18.65	
2025-01-08 23:43:42.61	75.16	18.66	
2025-01-08 23:43:42.82	75.22	18.66	
2025-01-08 23:43:43.02	75.28	18.67	
2025-01-08 23:43:43.23	75.33	18.67	
2025-01-08 23:43:43.43	75.39	18.68	
2025-01-08 23:43:43.64	75.45	18.68	
2025-01-08 23:43:43.84	75.50	18.69	
2025-01-08 23:43:44.05	75.56	18.69	
2025-01-08 23:43:44.25	75.61	18.70	
2025-01-08 23:43:44.46	75.67	18.70	
2025-01-08 23:43:44.67	75.73	18.71	
2025-01-08 23:43:44.87	75.78	18.71	
2025-01-08 23:43:45.08	75.84	18.72	
2025-01-08 23:43:45.28	75.90	18.72	
2025-01-08 23:43:45.49	75.95	18.73	
2025-01-08 23:43:45.69	76.01	18.73	
2025-01-08 23:43:45.89	76.06	18.74	
2025-01-08 23:43:46.10	76.12	18.75	
2025-01-08 23:43:46.30	76.18	18.75	
2025-01-08 23:43:46.51	76.23	18.76	
2025-01-08 23:43:46.71	76.29	18.76	
2025-01-08 23:43:46.91	76.34	18.77	
2025-01-08 23:43:47.12	76.40	18.77	
2025-01-08 23:43:47.33	76.46	18.78	
2025-01-08 23:43:47.53	76.51	18.78	
2025-01-08 23:43:47.74	76.57	18.78	
2025-01-08 23:43:47.94	76.63	18.79	
2025-01-08 23:43:48.15	76.69	18.79	
2025-01-08 23:43:48.35	76.74	18.80	
2025-01-08 23:43:48.56	76.80	18.80	
2025-01-08 23:43:48.77	76.86	18.81	
2025-01-08 23:43:48.97	76.91	18.81	
2025-01-08 23:43:49.17	76.97	18.82	
2025-01-08 23:43:49.38	77.02	18.82	
2025-01-08 23:43:49.58	77.08	18.83	
2025-01-08 23:43:49.79	77.14	18.83	
2025-01-08 23:43:49.99	77.19	18.84	
2025-01-08 23:43:50.20	77.25	18.84	
2025-01-08 23:43:50.40	77.31	18.85	
2025-01-08 23:43:50.61	77.37	18.85	
2025-01-08 23:43:50.82	77.42	18.86	
2025-01-08 23:43:51.02	77.48	18.86	
2025-01-08 23:43:51.23	77.54	18.86	
2025-01-08 23:43:51.43	77.59	18.87	
2025-01-08 23:43:51.63	77.65	18.87	
2025-01-08 23:43:51.84	77.71	18.88	
2025-01-08 23:43:52.04	77.76	18.88	
2025-01-08 23:43:52.25	77.82	18.89	
2025-01-08 23:43:52.45	77.88	18.89	
2025-01-08 23:43:52.66	77.93	18.89	
2025-01-08 23:43:52.86	77.99	18.90	
2025-01-08 23:43:53.07	78.05	18.90	
2025-01-08 23:43:53.28	78.11	18.91	
2025-01-08 23:43:53.49	78.16	18.91	
2025-01-08 23:43:53.69	78.22	18.92	
2025-01-08 23:43:53.90	78.28	18.92	
2025-01-08 23:43:54.11	78.34	18.92	
2025-01-08 23:43:54.31	78.39	18.93	
2025-01-08 23:43:54.51	78.45	18.93	
2025-01-08 23:43:54.72	78.51	18.94	
2025-01-08 23:43:54.93	78.57	18.94	
2025-01-08 23:43:55.13	78.62	18.94	
2025-01-08 23:43:55.35	78.68	18.95	
2025-01-08 23:43:55.55	78.74	18.95	
2025-01-08 23:43:55.76	78.80	18.96	
2025-01-08 23:43:55.96	78.85	18.96	
2025-01-08 23:43:56.17	78.91	18.96	
2025-01-08 23:43:56.37	78.97	18.97	
2025-01-08 23:43:56.58	79.03	18.97	
2025-01-08 23:43:56.79	79.08	18.98	
2025-01-08 23:43:56.99	79.14	18.98	
2025-01-08 23:43:57.20	79.20	18.98	
2025-01-08 23:43:57.40	79.26	18.99	
2025-01-08 23:43:57.61	79.31	18.99	
2025-01-08 23:43:57.81	79.37	18.99	
2025-01-08 23:43:58.02	79.43	19.00	
2025-01-08 23:43:58.22	79.48	19.00	
2025-01-08 23:43:58.43	79.54	19.00	
2025-01-08 23:43:58.63	79.60	19.01	
2025-01-08 23:43:58.84	79.66	19.01	
2025-01-08 23:43:59.04	79.71	19.01	
2025-01-08 23:43:59.25	79.77	19.02	
2025-01-08 23:43:59.45	79.83	19.02	
2025-01-08 23:43:59.66	79.89	19.02	
2025-01-08 23:43:59.86	79.94	19.03	
2025-01-08 23:44:00.07	80.00	19.03	
2025-01-08 23:44:00.27	80.06	19.03	
2025-01-08 23:44:00.48	80.12	19.04	
2025-01-08 23:44:00.68	80.17	19.04	
2025-01-08 23:44:00.89	80.23	19.04	
2025-01-08 23:44:01.09	80.29	19.05	
2025-01-08 23:44:01.30	80.35	19.05	
2025-01-08 23:44:01.50	80.40	19.05	
2025-01-08 23:44:01.71	80.46	19.06	
2025-01-08 23:44:01.91	80.52	19.06	
2025-01-08 23:44:02.12	80.58	19.06	
2025-01-08 23:44:02.32	80.64	19.07	
2025-01-08 23:44:02.53	80.69	19.07	
2025-01-08 23:44:02.74	80.75	19.07	
2025-01-08 23:44:02.94	80.81	19.08	
2025-01-08 23:44:03.14	80.87	19.08	
2025-01-08 23:44:03.35	80.93	19.08	
2025-01-08 23:44:03.56	80.98	19.08	
2025-01-08 23:44:03.76	81.04	19.09	
2025-01-08 23:44:03.96	81.10	19.09	
2025-01-08 23:44:04.17	81.16	19.09	
2025-01-08 23:44:04.39	81.22	19.10	
2025-01-08 23:44:04.59	81.27	19.10	
2025-01-08 23:44:04.80	81.33	19.10	
2025-01-08 23:44:05.00	81.39	19.10	
2025-01-08 23:44:05.21	81.45	19.11	
2025-01-08 23:44:05.41	81.51	19.11	
2025-01-08 23:44:05.62	81.56	19.11	
2025-01-08 23:44:05.82	81.62	19.11	
2025-01-08 23:44:06.02	81.68	19.12	
2025-01-08 23:44:06.23	81.74	19.12	
2025-01-08 23:44:06.43	81.79	19.12	
2025-01-08 23:44:06.64	81.85	19.12	
2025-01-08 23:44:06.85	81.91	19.13	
2025-01-08 23:44:07.05	81.97	19.13	
2025-01-08 23:44:07.25	82.02	19.13	
2025-01-08 23:44:07.46	82.08	19.13	
2025-01-08 23:44:07.66	82.14	19.14	
2025-01-08 23:44:07.87	82.20	19.14	
2025-01-08 23:44:08.07	82.26	19.14	
2025-01-08 23:44:08.28	82.32	19.14	
2025-01-08 23:44:08.48	82.37	19.14	
2025-01-08 23:44:08.69	82.43	19.15	
2025-01-08 23:44:08.89	82.49	19.15	
2025-01-08 23:44:09.10	82.55	19.15	
2025-01-08 23:44:09.30	82.60	19.15	
2025-01-08 23:44:09.51	82.66	19.16	
2025-01-08 23:44:09.71	82.72	19.16	
2025-01-08 23:44:09.92	82.78	19.16	
2025-01-08 23:44:10.12	82.84	19.16	
2025-01-08 23:44:10.33	82.90	19.16	
2025-01-08 23:44:10.53	82.95	19.17	
2025-01-08 23:44:10.74	83.01	19.17	
2025-01-08 23:44:10.94	83.07	19.17	
2025-01-08 23:44:11.15	83.13	19.17	
2025-01-08 23:44:11.35	83.18	19.17	
2025-01-08 23:44:11.56	83.24	19.17	
2025-01-08 23:44:11.76	83.30	19.18	
2025-01-08 23:44:11.97	83.36	19.18	
2025-01-08 23:44:12.17	83.42	19.18	
2025-01-08 23:44:12.38	83.48	19.18	
2025-01-08 23:44:12.58	83.53	19.18	
2025-01-08 23:44:12.79	83.59	19.18	
2025-01-08 23:44:13.01	83.66	19.19	
2025-01-08 23:44:13.21	83.71	19.19	
2025-01-08 23:44:13.41	83.77	19.19	
2025-01-08 23:44:13.62	83.83	19.19	
2025-01-08 23:44:13.82	83.89	19.19	
2025-01-08 23:44:14.03	83.94	19.19	
2025-01-08 23:44:14.23	84.00	19.20	
2025-01-08 23:44:14.44	84.06	19.20	
2025-01-08 23:44:14.64	84.12	19.20	
2025-01-08 23:44:14.85	84.18	19.20	
2025-01-08 23:44:15.05	84.23	19.20	
2025-01-08 23:44:15.26	84.29	19.20	
2025-01-08 23:44:15.46	84.35	19.20	
2025-01-08 23:44:15.67	84.41	19.20	
2025-01-08 23:44:15.87	84.47	19.21	
2025-01-08 23:44:16.08	84.53	19.21	
2025-01-08 23:44:16.28	84.58	19.21	
2025-01-08 23:44:16.49	84.64	19.21	
2025-01-08 23:44:16.69	84.70	19.21	
2025-01-08 23:44:16.90	84.76	19.21	
2025-01-08 23:44:17.10	84.82	19.21	
2025-01-08 23:44:17.31	84.88	19.21	
2025-01-08 23:44:17.52	84.94	19.21	
2025-01-08 23:44:17.72	84.99	19.22	
2025-01-08 23:44:17.92	85.05	19.22	
2025-01-08 23:44:18.13	85.11	19.22	
2025-01-08 23:44:18.33	85.17	19.22	
2025-01-08 23:44:18.54	85.23	19.22	
2025-01-08 23:44:18.75	85.29	19.22	
2025-01-08 23:44:18.96	85.35	19.22	
2025-01-08 23:44:19.16	85.40	19.22	
2025-01-08 23:44:19.37	85.46	19.22	
2025-01-08 23:44:19.57	85.52	19.22	
2025-01-08 23:44:19.78	85.58	19.22	
2025-01-08 23:44:20.00	85.64	19.22	
2025-01-08 23:44:20.20	85.70	19.23	
2025-01-08 23:44:20.41	85.76	19.23	
2025-01-08 23:44:20.61	85.81	19.23	
2025-01-08 23:44:20.82	85.87	19.23	
2025-01-08 23:44:21.02	85.93	19.23	
2025-01-08 23:44:21.23	85.99	19.23	
2025-01-08 23:44:21.43	86.05	19.23	
2025-01-08 23:44:21.64	86.11	19.23	
2025-01-08 23:44:21.84	86.16	19.23	
2025-01-08 23:44:22.06	86.23	19.23	
2025-01-08 23:44:22.27	86.29	19.23	
2025-01-08 23:44:22.47	86.34	19.23	
2025-01-08 23:44:22.67	86.40	19.23	
2025-01-08 23:44:22.88	86.46	19.23	
2025-01-08 23:44:23.08	86.52	19.23	
2025-01-08 23:44:23.29	86.58	19.23	
2025-01-08 23:44:23.50	86.64	19.23	
2025-01-08 23:44:23.70	86.69	19.23	
2025-01-08 23:44:23.91	86.75	19.23	
2025-01-08 23:44:24.11	86.81	19.23	
2025-01-08 23:44:24.32	86.87	19.23	
2025-01-08 23:44:24.52	86.93	19.23	
2025-01-08 23:44:24.73	86.99	19.23	
2025-01-08 23:44:24.93	87.04	19.23	
2025-01-08 23:44:25.14	87.10	19.23	
2025-01-08 23:44:25.34	87.16	19.23	
2025-01-08 23:44:25.54	87.22	19.23	
2025-01-08 23:44:25.75	87.28	19.23	
2025-01-08 23:44:25.95	87.33	19.23	
2025-01-08 23:44:26.16	87.39	19.23	
2025-01-08 23:44:26.36	87.45	19.23	
2025-01-08 23:44:26.57	87.51	19.23	
2025-01-08 23:44:26.78	87.57	19.23	
2025-01-08 23:44:26.98	87.63	19.23	
2025-01-08 23:44:27.18	87.68	19.23	
2025-01-08 23:44:27.39	87.74	19.23	
2025-01-08 23:44:27.60	87.80	19.23	
2025-01-08 23:44:27.80	87.86	19.23	
2025-01-08 23:44:28.01	87.92	19.23	
2025-01-08 23:44:28.21	87.98	19.23	
2025-01-08 23:44:28.42	88.04	19.23	
2025-01-08 23:44:28.62	88.09	19.23	
2025-01-08 23:44:28.83	88.15	19.23	
2025-01-08 23:44:29.03	88.21	19.23	
2025-01-08 23:44:29.24	88.27	19.22	
2025-01-08 23:44:29.44	88.33	19.22	
2025-01-08 23:44:29.65	88.39	19.22	
2025-01-08 23:44:29.85	88.44	19.22	
2025-01-08 23:44:30.06	88.50	19.22	
2025-01-08 23:44:30.26	88.56	19.22	
2025-01-08 23:44:30.47	88.62	19.22	
2025-01-08 23:44:30.67	88.68	19.22	
2025-01-08 23:44:30.87	88.73	19.22	
2025-01-08 23:44:31.08	88.79	19.22	
2025-01-08 23:44:31.29	88.85	19.22	
2025-01-08 23:44:31.49	88.91	19.22	
2025-01-08 23:44:31.69	88.97	19.22	
2025-01-08 23:44:31.90	89.03	19.21	
2025-01-08 23:44:32.11	89.09	19.21	
2025-01-08 23:44:32.31	89.14	19.21	
2025-01-08 23:44:32.52	89.20	19.21	
2025-01-08 23:44:32.72	89.26	19.21	
2025-01-08 23:44:32.92	89.32	19.21	
2025-01-08 23:44:33.13	89.38	19.21	
2025-01-08 23:44:33.34	89.44	19.21	
2025-01-08 23:44:33.54	89.49	19.21	
2025-01-08 23:44:33.74	89.55	19.20	
2025-01-08 23:44:33.95	89.61	19.20	
2025-01-08 23:44:34.15	89.67	19.20	
2025-01-08 23:44:34.36	89.73	19.20	
2025-01-08 23:44:34.56	89.78	19.20	
2025-01-08 23:44:34.77	89.84	19.20	
2025-01-08 23:44:34.98	89.90	19.20	
2025-01-08 23:44:35.18	89.96	19.20	
2025-01-08 23:44:35.38	90.02	19.19	
2025-01-08 23:44:35.59	90.07	19.19	
2025-01-08 23:44:35.80	90.13	19.19	
2025-01-08 23:44:36.00	90.19	19.19	
2025-01-08 23:44:36.20	90.25	19.19	
2025-01-08 23:44:36.41	90.31	19.19	
2025-01-08 23:44:36.62	90.37	19.18	
2025-01-08 23:44:36.82	90.42	19.18	
2025-01-08 23:44:37.03	90.48	19.18	
2025-01-08 23:44:37.23	90.54	19.18	
2025-01-08 23:44:37.44	90.60	19.18	
2025-01-08 23:44:37.64	90.66	19.18	
2025-01-08 23:44:37.85	90.72	19.17	
2025-01-08 23:44:38.05	90.77	19.17	
2025-01-08 23:44:38.26	90.83	19.17	
2025-01-08 23:44:38.46	90.89	19.17	
2025-01-08 23:44:38.67	90.95	19.17	
2025-01-08 23:44:38.87	91.01	19.16	
2025-01-08 23:44:39.07	91.06	19.16	
2025-01-08 23:44:39.28	91.12	19.16	
2025-01-08 23:44:39.49	91.18	19.16	
2025-01-08 23:44:39.69	91.24	19.16	
2025-01-08 23:44:39.90	91.30	19.15	
2025-01-08 23:44:40.10	91.35	19.15	
2025-01-08 23:44:40.30	91.41	19.15	
2025-01-08 23:44:40.51	91.47	19.15	
2025-01-08 23:44:40.71	91.53	19.15	
2025-01-08 23:44:40.92	91.59	19.14	
2025-01-08 23:44:41.12	91.64	19.14	
2025-01-08 23:44:41.33	91.70	19.14	
2025-01-08 23:44:41.53	91.76	19.14	
2025-01-08 23:44:41.74	91.82	19.14	
2025-01-08 23:44:41.94	91.87	19.13	
2025-01-08 23:44:42.14	91.93	19.13	
2025-01-08 23:44:42.35	91.99	19.13	
2025-01-08 23:44:42.55	92.05	19.13	
2025-01-08 23:44:42.76	92.11	19.12	
2025-01-08 23:44:42.96	92.16	19.12	
2025-01-08 23:44:43.17	92.22	19.12	
2025-01-08 23:44:43.37	92.28	19.12	
2025-01-08 23:44:43.58	92.34	19.11	
2025-01-08 23:44:43.79	92.40	19.11	
2025-01-08 23:44:43.99	92.45	19.11	
2025-01-08 23:44:44.20	92.51	19.11	
2025-01-08 23:44:44.40	92.57	19.10	
2025-01-08 23:44:44.61	92.63	19.10	
2025-01-08 23:44:44.81	92.69	19.10	
2025-01-08 23:44:45.02	92.74	19.09	
2025-01-08 23:44:45.22	92.80	19.09	
2025-01-08 23:44:45.43	92.86	19.09	
2025-01-08 23:44:45.63	92.92	19.09	
2025-01-08 23:44:45.84	92.98	19.08	
2025-01-08 23:44:46.04	93.03	19.08	
2025-01-08 23:44:46.25	93.09	19.08	
2025-01-08 23:44:46.46	93.15	19.07	
2025-01-08 23:44:46.67	93.21	19.07	
2025-01-08 23:44:46.88	93.27	19.07	
2025-01-08 23:44:47.09	93.33	19.07	
2025-01-08 23:44:47.29	93.38	19.06	
2025-01-08 23:44:47.50	93.44	19.06	
2025-01-08 23:44:47.70	93.50	19.06	
2025-01-08 23:44:47.90	93.56	19.05	
2025-01-08 23:44:48.11	93.62	19.05	
2025-01-08 23:44:48.31	93.67	19.05	
2025-01-08 23:44:48.52	93.73	19.04	
2025-01-08 23:44:48.72	93.79	19.04	
2025-01-08 23:44:48.93	93.85	19.04	
2025-01-08 23:44:49.13	93.90	19.03	
2025-01-08 23:44:49.34	93.96	19.03	
2025-01-08 23:44:49.54	94.02	19.03	
2025-01-08 23:44:49.75	94.08	19.02	
2025-01-08 23:44:49.95	94.13	19.02	
2025-01-08 23:44:50.16	94.19	19.02	
2025-01-08 23:44:50.37	94.25	19.01	
2025-01-08 23:44:50.57	94.31	19.01	
2025-01-08 23:44:50.78	94.37	19.01	
2025-01-08 23:44:50.98	94.42	19.00	
2025-01-08 23:44:51.19	94.48	19.00	
2025-01-08 23:44:51.39	94.54	19.00	
2025-01-08 23:44:51.60	94.59	18.99	
2025-01-08 23:44:51.80	94.65	18.99	
2025-01-08 23:44:52.01	94.71	18.98	
2025-01-08 23:44:52.21	94.77	18.98	
2025-01-08 23:44:52.42	94.82	18.98	
2025-01-08 23:44:52.62	94.88	18.97	
2025-01-08 23:44:52.83	94.94	18.97	
2025-01-08 23:44:53.04	95.00	18.97	
2025-01-08 23:44:53.25	95.06	18.96	
2025-01-08 23:44:53.45	95.11	18.96	
2025-01-08 23:44:53.66	95.17	18.95	
2025-01-08 23:44:53.87	95.23	18.95	
2025-01-08 23:44:54.07	95.29	18.95	
2025-01-08 23:44:54.28	95.34	18.94	
2025-01-08 23:44:54.48	95.40	18.94	
2025-01-08 23:44:54.69	95.46	18.93	
2025-01-08 23:44:54.89	95.51	18.93	
2025-01-08 23:44:55.10	95.57	18.93	
2025-01-08 23:44:55.30	95.63	18.92	
2025-01-08 23:44:55.51	95.69	18.92	
2025-01-08 23:44:55.71	95.74	18.91	
2025-01-08 23:44:55.92	95.80	18.91	
2025-01-08 23:44:56.12	95.86	18.91	
2025-01-08 23:44:56.32	95.91	18.90	
2025-01-08 23:44:56.53	95.97	18.90	
2025-01-08 23:44:56.73	96.03	18.89	
2025-01-08 23:44:56.94	96.09	18.89	
2025-01-08 23:44:57.14	96.14	18.88	
2025-01-08 23:44:57.36	96.20	18.88	
2025-01-08 23:44:57.56	96.26	18.88	
2025-01-08 23:44:57.77	96.32	18.87	
2025-01-08 23:44:57.98	96.38	18.87	
2025-01-08 23:44:58.18	96.43	18.86	
2025-01-08 23:44:58.38	96.49	18.86	
2025-01-08 23:44:58.59	96.54	18.85	
2025-01-08 23:44:58.80	96.60	18.85	
2025-01-08 23:44:59.00	96.66	18.84	
2025-01-08 23:44:59.21	96.72	18.84	
2025-01-08 23:44:59.41	96.77	18.84	
2025-01-08 23:44:59.62	96.83	18.83	
2025-01-08 23:44:59.82	96.89	18.83	
2025-01-08 23:45:00.03	96.94	18.82	
2025-01-08 23:45:00.23	97.00	18.82	
2025-01-08 23:45:00.43	97.06	18.81	
2025-01-08 23:45:00.64	97.11	18.81	
2025-01-08 23:45:00.84	97.17	18.80	
2025-01-08 23:45:01.05	97.23	18.80	
2025-01-08 23:45:01.26	97.28	18.79	
2025-01-08 23:45:01.46	97.34	18.79	
2025-01-08 23:45:01.67	97.40	18.78	
2025-01-08 23:45:01.87	97.45	18.78	
2025-01-08 23:45:02.08	97.51	18.77	
2025-01-08 23:45:02.28	97.57	18.77	
2025-01-08 23:45:02.49	97.62	18.76	
2025-01-08 23:45:02.69	97.68	18.76	
2025-01-08 23:45:02.90	97.74	18.75	
2025-01-08 23:45:03.10	97.79	18.75	
2025-01-08 23:45:03.31	97.85	18.74	
2025-01-08 23:45:03.51	97.91	18.74	
2025-01-08 23:45:03.72	97.96	18.73	
2025-01-08 23:45:03.92	98.02	18.73	
2025-01-08 23:45:04.13	98.08	18.72	
2025-01-08 23:45:04.33	98.13	18.72	
2025-01-08 23:45:04.54	98.19	18.71	
2025-01-08 23:45:04.74	98.24	18.71	
2025-01-08 23:45:04.94	98.30	18.70	
2025-01-08 23:45:05.15	98.36	18.70	
2025-01-08 23:45:05.36	98.41	18.69	
2025-01-08 23:45:05.56	98.47	18.69	
2025-01-08 23:45:05.77	98.53	18.68	
2025-01-08 23:45:05.97	98.58	18.67	
2025-01-08 23:45:06.17	98.64	18.67	
2025-01-08 23:45:06.38	98.69	18.66	
2025-01-08 23:45:06.58	98.75	18.66	
2025-01-08 23:45:06.79	98.81	18.65	
2025-01-08 23:45:06.99	98.86	18.65	
2025-01-08 23:45:07.20	98.92	18.64	
2025-01-08 23:45:07.40	98.97	18.64	
