passes_logs/2025/01/08/SPB_Silybum_02/SPB_Silybum_02__20250108_021504_AQUA_rec.log

#Pass ID: 20250108_021504_AQUA
#Satellite: AQUA
#Configuration: AQUA
#Start time: 2025-01-08 02:15:04

#Version: 2.0.20230423
#Station: SPB_Silybum_02
#Location: 30.233357 lon 59.946436 lat
#TLE: 1 27424U 02022A   25007.20663841  .00002684  00000+0  56113-3 0  9997
#TLE: 2 27424  98.3577 323.8011 0001408 118.8980 354.1988 14.60651824206481

#Time	Az	El	Level	Level2	SNR	BER	Gain	Gain2
2025-01-08 02:15:06.43	13.12	4.14	
2025-01-08 02:15:06.63	13.11	4.15	
2025-01-08 02:15:06.84	13.10	4.16	
2025-01-08 02:15:07.04	13.09	4.18	
2025-01-08 02:15:07.26	13.08	4.19	
2025-01-08 02:15:07.46	13.07	4.21	
2025-01-08 02:15:07.67	13.06	4.22	
2025-01-08 02:15:07.88	13.05	4.24	
2025-01-08 02:15:08.08	13.05	4.25	
2025-01-08 02:15:08.29	13.04	4.27	
2025-01-08 02:15:08.49	13.03	4.28	
2025-01-08 02:15:08.70	13.02	4.29	
2025-01-08 02:15:08.90	13.01	4.31	
2025-01-08 02:15:09.11	13.00	4.32	
2025-01-08 02:15:09.31	12.99	4.34	
2025-01-08 02:15:09.52	12.98	4.35	
2025-01-08 02:15:09.72	12.97	4.36	
2025-01-08 02:15:09.93	12.96	4.38	
2025-01-08 02:15:10.14	12.95	4.39	
2025-01-08 02:15:10.34	12.94	4.41	
2025-01-08 02:15:10.54	12.93	4.42	
2025-01-08 02:15:10.75	12.92	4.44	
2025-01-08 02:15:10.95	12.91	4.45	
2025-01-08 02:15:11.16	12.90	4.47	
2025-01-08 02:15:11.36	12.89	4.48	
2025-01-08 02:15:11.57	12.88	4.49	
2025-01-08 02:15:11.77	12.87	4.51	
2025-01-08 02:15:11.98	12.86	4.52	
2025-01-08 02:15:12.18	12.85	4.54	
2025-01-08 02:15:12.39	12.84	4.55	
2025-01-08 02:15:12.59	12.83	4.57	
2025-01-08 02:15:12.80	12.82	4.58	
2025-01-08 02:15:13.00	12.82	4.59	
2025-01-08 02:15:13.21	12.81	4.61	
2025-01-08 02:15:13.41	12.80	4.62	
2025-01-08 02:15:13.62	12.79	4.64	
2025-01-08 02:15:13.83	12.78	4.65	
2025-01-08 02:15:14.03	12.77	4.67	
2025-01-08 02:15:14.24	12.76	4.68	
2025-01-08 02:15:14.44	12.75	4.70	
2025-01-08 02:15:14.64	12.74	4.71	
2025-01-08 02:15:14.85	12.73	4.72	
2025-01-08 02:15:15.06	12.72	4.74	
2025-01-08 02:15:15.26	12.71	4.75	
2025-01-08 02:15:15.47	12.70	4.77	
2025-01-08 02:15:15.67	12.69	4.78	
2025-01-08 02:15:15.87	12.68	4.80	
2025-01-08 02:15:16.08	12.67	4.81	
2025-01-08 02:15:16.29	12.66	4.83	
2025-01-08 02:15:16.49	12.65	4.84	
2025-01-08 02:15:16.70	12.64	4.85	
2025-01-08 02:15:16.90	12.63	4.87	
2025-01-08 02:15:17.10	12.62	4.88	
2025-01-08 02:15:17.31	12.61	4.90	
2025-01-08 02:15:17.51	12.60	4.91	
2025-01-08 02:15:17.72	12.59	4.93	
2025-01-08 02:15:17.93	12.58	4.94	
2025-01-08 02:15:18.13	12.57	4.96	
2025-01-08 02:15:18.34	12.56	4.97	
2025-01-08 02:15:18.54	12.55	4.99	
2025-01-08 02:15:18.75	12.54	5.00	
2025-01-08 02:15:18.97	12.53	5.02	
2025-01-08 02:15:19.17	12.52	5.03	
2025-01-08 02:15:19.38	12.51	5.05	
2025-01-08 02:15:19.58	12.50	5.06	
2025-01-08 02:15:19.79	12.49	5.07	
2025-01-08 02:15:19.99	12.48	5.09	
2025-01-08 02:15:20.20	12.47	5.10	
2025-01-08 02:15:20.40	12.46	5.12	
2025-01-08 02:15:20.61	12.45	5.13	
2025-01-08 02:15:20.81	12.44	5.15	
2025-01-08 02:15:21.02	12.43	5.16	
2025-01-08 02:15:21.22	12.42	5.18	
2025-01-08 02:15:21.42	12.41	5.19	
2025-01-08 02:15:21.63	12.40	5.21	
2025-01-08 02:15:21.83	12.39	5.22	
2025-01-08 02:15:22.04	12.38	5.24	
2025-01-08 02:15:22.24	12.37	5.25	
2025-01-08 02:15:22.45	12.36	5.27	
2025-01-08 02:15:22.65	12.35	5.28	
2025-01-08 02:15:22.86	12.33	5.30	
2025-01-08 02:15:23.06	12.32	5.31	
2025-01-08 02:15:23.28	12.31	5.33	
2025-01-08 02:15:23.49	12.30	5.34	
2025-01-08 02:15:23.69	12.29	5.36	
2025-01-08 02:15:23.90	12.28	5.37	
2025-01-08 02:15:24.10	12.27	5.38	
2025-01-08 02:15:24.31	12.26	5.40	
2025-01-08 02:15:24.51	12.25	5.41	
2025-01-08 02:15:24.72	12.24	5.43	
2025-01-08 02:15:24.92	12.23	5.44	
2025-01-08 02:15:25.13	12.22	5.46	
2025-01-08 02:15:25.33	12.21	5.47	
2025-01-08 02:15:25.54	12.20	5.49	
2025-01-08 02:15:25.74	12.19	5.50	
2025-01-08 02:15:25.95	12.18	5.52	
2025-01-08 02:15:26.15	12.17	5.53	
2025-01-08 02:15:26.35	12.16	5.55	
2025-01-08 02:15:26.56	12.15	5.56	
2025-01-08 02:15:26.76	12.14	5.58	
2025-01-08 02:15:26.97	12.13	5.59	
2025-01-08 02:15:27.17	12.12	5.61	
2025-01-08 02:15:27.38	12.10	5.62	
2025-01-08 02:15:27.58	12.09	5.64	
2025-01-08 02:15:27.79	12.08	5.65	
2025-01-08 02:15:27.99	12.07	5.67	
2025-01-08 02:15:28.20	12.06	5.68	
2025-01-08 02:15:28.40	12.05	5.70	
2025-01-08 02:15:28.60	12.04	5.71	
2025-01-08 02:15:28.81	12.03	5.73	
2025-01-08 02:15:29.01	12.02	5.74	
2025-01-08 02:15:29.22	12.01	5.76	
2025-01-08 02:15:29.42	12.00	5.77	
2025-01-08 02:15:29.63	11.99	5.79	
2025-01-08 02:15:29.83	11.98	5.80	
2025-01-08 02:15:30.04	11.97	5.82	
2025-01-08 02:15:30.24	11.96	5.83	
2025-01-08 02:15:30.45	11.95	5.85	
2025-01-08 02:15:30.65	11.93	5.86	
2025-01-08 02:15:30.86	11.92	5.88	
2025-01-08 02:15:31.06	11.91	5.89	
2025-01-08 02:15:31.27	11.90	5.91	
2025-01-08 02:15:31.47	11.89	5.92	
2025-01-08 02:15:31.68	11.88	5.94	
2025-01-08 02:15:31.88	11.87	5.95	
2025-01-08 02:15:32.09	11.86	5.97	
2025-01-08 02:15:32.29	11.85	5.98	
2025-01-08 02:15:32.50	11.84	6.00	
2025-01-08 02:15:32.70	11.83	6.01	
2025-01-08 02:15:32.91	11.82	6.03	
2025-01-08 02:15:33.11	11.80	6.04	
2025-01-08 02:15:33.32	11.79	6.06	
2025-01-08 02:15:33.52	11.78	6.08	
2025-01-08 02:15:33.73	11.77	6.09	
2025-01-08 02:15:33.93	11.76	6.11	
2025-01-08 02:15:34.14	11.75	6.12	
2025-01-08 02:15:34.34	11.74	6.14	
2025-01-08 02:15:34.55	11.73	6.15	
2025-01-08 02:15:34.76	11.72	6.17	
2025-01-08 02:15:34.97	11.71	6.18	
2025-01-08 02:15:35.18	11.69	6.20	
2025-01-08 02:15:35.38	11.68	6.21	
2025-01-08 02:15:35.59	11.67	6.23	
2025-01-08 02:15:35.79	11.66	6.24	
2025-01-08 02:15:36.00	11.65	6.26	
2025-01-08 02:15:36.20	11.64	6.27	
2025-01-08 02:15:36.41	11.63	6.29	
2025-01-08 02:15:36.61	11.62	6.31	
2025-01-08 02:15:36.82	11.61	6.32	
2025-01-08 02:15:37.02	11.59	6.34	
2025-01-08 02:15:37.23	11.58	6.35	
2025-01-08 02:15:37.44	11.57	6.37	
2025-01-08 02:15:37.64	11.56	6.38	
2025-01-08 02:15:37.85	11.55	6.40	
2025-01-08 02:15:38.05	11.54	6.41	
2025-01-08 02:15:38.26	11.53	6.43	
2025-01-08 02:15:38.46	11.52	6.44	
2025-01-08 02:15:38.67	11.50	6.46	
2025-01-08 02:15:38.87	11.49	6.48	
2025-01-08 02:15:39.08	11.48	6.49	
2025-01-08 02:15:39.28	11.47	6.51	
2025-01-08 02:15:39.49	11.46	6.52	
2025-01-08 02:15:39.69	11.45	6.54	
2025-01-08 02:15:39.90	11.44	6.55	
2025-01-08 02:15:40.10	11.42	6.57	
2025-01-08 02:15:40.30	11.41	6.58	
2025-01-08 02:15:40.51	11.40	6.60	
2025-01-08 02:15:40.72	11.39	6.62	
2025-01-08 02:15:40.92	11.38	6.63	
2025-01-08 02:15:41.13	11.37	6.65	
2025-01-08 02:15:41.33	11.36	6.66	
2025-01-08 02:15:41.54	11.34	6.68	
2025-01-08 02:15:41.74	11.33	6.69	
2025-01-08 02:15:41.95	11.32	6.71	
2025-01-08 02:15:42.15	11.31	6.72	
2025-01-08 02:15:42.36	11.30	6.74	
2025-01-08 02:15:42.56	11.29	6.76	
2025-01-08 02:15:42.77	11.28	6.77	
2025-01-08 02:15:42.98	11.26	6.79	
2025-01-08 02:15:43.18	11.25	6.80	
2025-01-08 02:15:43.38	11.24	6.82	
2025-01-08 02:15:43.59	11.23	6.83	
2025-01-08 02:15:43.79	11.22	6.85	
2025-01-08 02:15:44.00	11.21	6.87	
2025-01-08 02:15:44.20	11.19	6.88	
2025-01-08 02:15:44.41	11.18	6.90	
2025-01-08 02:15:44.61	11.17	6.91	
2025-01-08 02:15:44.82	11.16	6.93	
2025-01-08 02:15:45.02	11.15	6.94	
2025-01-08 02:15:45.23	11.14	6.96	
2025-01-08 02:15:45.43	11.12	6.97	
2025-01-08 02:15:45.65	11.11	6.99	
2025-01-08 02:15:45.85	11.10	7.01	
2025-01-08 02:15:46.06	11.09	7.02	
2025-01-08 02:15:46.27	11.08	7.04	
2025-01-08 02:15:46.47	11.06	7.06	
2025-01-08 02:15:46.67	11.05	7.07	
2025-01-08 02:15:46.88	11.04	7.09	
2025-01-08 02:15:47.09	11.03	7.10	
2025-01-08 02:15:47.29	11.02	7.12	
2025-01-08 02:15:47.50	11.00	7.13	
2025-01-08 02:15:47.70	10.99	7.15	
2025-01-08 02:15:47.90	10.98	7.17	
2025-01-08 02:15:48.11	10.97	7.18	
2025-01-08 02:15:48.31	10.96	7.20	
2025-01-08 02:15:48.52	10.94	7.21	
2025-01-08 02:15:48.73	10.93	7.23	
2025-01-08 02:15:48.93	10.92	7.25	
2025-01-08 02:15:49.14	10.91	7.26	
2025-01-08 02:15:49.34	10.90	7.28	
2025-01-08 02:15:49.55	10.88	7.29	
2025-01-08 02:15:49.75	10.87	7.31	
2025-01-08 02:15:49.96	10.86	7.33	
2025-01-08 02:15:50.16	10.85	7.34	
2025-01-08 02:15:50.37	10.84	7.36	
2025-01-08 02:15:50.57	10.82	7.37	
2025-01-08 02:15:50.78	10.81	7.39	
2025-01-08 02:15:50.99	10.80	7.41	
2025-01-08 02:15:51.20	10.79	7.42	
2025-01-08 02:15:51.41	10.77	7.44	
2025-01-08 02:15:51.61	10.76	7.45	
2025-01-08 02:15:51.82	10.75	7.47	
2025-01-08 02:15:52.02	10.74	7.49	
2025-01-08 02:15:52.22	10.73	7.50	
2025-01-08 02:15:52.43	10.71	7.52	
2025-01-08 02:15:52.64	10.70	7.54	
2025-01-08 02:15:52.84	10.69	7.55	
2025-01-08 02:15:53.04	10.68	7.57	
2025-01-08 02:15:53.25	10.66	7.58	
2025-01-08 02:15:53.46	10.65	7.60	
2025-01-08 02:15:53.66	10.64	7.62	
2025-01-08 02:15:53.87	10.63	7.63	
2025-01-08 02:15:54.07	10.61	7.65	
2025-01-08 02:15:54.28	10.60	7.66	
2025-01-08 02:15:54.49	10.59	7.68	
2025-01-08 02:15:54.69	10.58	7.70	
2025-01-08 02:15:54.90	10.56	7.71	
2025-01-08 02:15:55.11	10.55	7.73	
2025-01-08 02:15:55.32	10.54	7.75	
2025-01-08 02:15:55.53	10.53	7.76	
2025-01-08 02:15:55.73	10.51	7.78	
2025-01-08 02:15:55.94	10.50	7.80	
2025-01-08 02:15:56.14	10.49	7.81	
2025-01-08 02:15:56.35	10.48	7.83	
2025-01-08 02:15:56.55	10.46	7.84	
2025-01-08 02:15:56.76	10.45	7.86	
2025-01-08 02:15:56.96	10.44	7.88	
2025-01-08 02:15:57.17	10.42	7.89	
2025-01-08 02:15:57.39	10.41	7.91	
2025-01-08 02:15:57.59	10.40	7.93	
2025-01-08 02:15:57.80	10.39	7.94	
2025-01-08 02:15:58.00	10.37	7.96	
2025-01-08 02:15:58.21	10.36	7.98	
2025-01-08 02:15:58.41	10.35	7.99	
2025-01-08 02:15:58.62	10.34	8.01	
2025-01-08 02:15:58.82	10.32	8.03	
2025-01-08 02:15:59.03	10.31	8.04	
2025-01-08 02:15:59.24	10.30	8.06	
2025-01-08 02:15:59.45	10.28	8.08	
2025-01-08 02:15:59.66	10.27	8.09	
2025-01-08 02:15:59.87	10.26	8.11	
2025-01-08 02:16:00.07	10.24	8.13	
2025-01-08 02:16:00.28	10.23	8.14	
2025-01-08 02:16:00.48	10.22	8.16	
2025-01-08 02:16:00.69	10.21	8.18	
2025-01-08 02:16:00.89	10.19	8.19	
2025-01-08 02:16:01.10	10.18	8.21	
2025-01-08 02:16:01.30	10.17	8.22	
2025-01-08 02:16:01.51	10.15	8.24	
2025-01-08 02:16:01.71	10.14	8.26	
2025-01-08 02:16:01.92	10.13	8.27	
2025-01-08 02:16:02.12	10.11	8.29	
2025-01-08 02:16:02.33	10.10	8.31	
2025-01-08 02:16:02.53	10.09	8.32	
2025-01-08 02:16:02.74	10.08	8.34	
2025-01-08 02:16:02.94	10.06	8.36	
2025-01-08 02:16:03.15	10.05	8.37	
2025-01-08 02:16:03.35	10.04	8.39	
2025-01-08 02:16:03.56	10.02	8.41	
2025-01-08 02:16:03.76	10.01	8.42	
2025-01-08 02:16:03.97	10.00	8.44	
2025-01-08 02:16:04.17	9.98	8.46	
2025-01-08 02:16:04.38	9.97	8.47	
2025-01-08 02:16:04.59	9.96	8.49	
2025-01-08 02:16:04.79	9.94	8.51	
2025-01-08 02:16:04.99	9.93	8.52	
2025-01-08 02:16:05.20	9.92	8.54	
2025-01-08 02:16:05.41	9.90	8.56	
2025-01-08 02:16:05.61	9.89	8.57	
2025-01-08 02:16:05.82	9.88	8.59	
2025-01-08 02:16:06.02	9.86	8.61	
2025-01-08 02:16:06.23	9.85	8.63	
2025-01-08 02:16:06.43	9.84	8.64	
2025-01-08 02:16:06.64	9.82	8.66	
2025-01-08 02:16:06.85	9.81	8.68	
2025-01-08 02:16:07.05	9.80	8.69	
2025-01-08 02:16:07.26	9.78	8.71	
2025-01-08 02:16:07.46	9.77	8.73	
2025-01-08 02:16:07.67	9.75	8.74	
2025-01-08 02:16:07.87	9.74	8.76	
2025-01-08 02:16:08.08	9.73	8.78	
2025-01-08 02:16:08.28	9.71	8.79	
2025-01-08 02:16:08.48	9.70	8.81	
2025-01-08 02:16:08.69	9.69	8.83	
2025-01-08 02:16:08.89	9.67	8.84	
2025-01-08 02:16:09.10	9.66	8.86	
2025-01-08 02:16:09.30	9.65	8.88	
2025-01-08 02:16:09.51	9.63	8.90	
2025-01-08 02:16:09.72	9.62	8.91	
2025-01-08 02:16:09.93	9.60	8.93	
2025-01-08 02:16:10.13	9.59	8.95	
2025-01-08 02:16:10.34	9.58	8.96	
2025-01-08 02:16:10.55	9.56	8.98	
2025-01-08 02:16:10.75	9.55	9.00	
2025-01-08 02:16:10.96	9.54	9.02	
2025-01-08 02:16:11.16	9.52	9.03	
2025-01-08 02:16:11.37	9.51	9.05	
2025-01-08 02:16:11.58	9.49	9.07	
2025-01-08 02:16:11.78	9.48	9.08	
2025-01-08 02:16:11.99	9.47	9.10	
2025-01-08 02:16:12.19	9.45	9.12	
2025-01-08 02:16:12.40	9.44	9.14	
2025-01-08 02:16:12.60	9.42	9.15	
2025-01-08 02:16:12.81	9.41	9.17	
2025-01-08 02:16:13.01	9.40	9.19	
2025-01-08 02:16:13.21	9.38	9.20	
2025-01-08 02:16:13.42	9.37	9.22	
2025-01-08 02:16:13.62	9.35	9.24	
2025-01-08 02:16:13.83	9.34	9.26	
2025-01-08 02:16:14.04	9.33	9.27	
2025-01-08 02:16:14.24	9.31	9.29	
2025-01-08 02:16:14.44	9.30	9.31	
2025-01-08 02:16:14.65	9.28	9.33	
2025-01-08 02:16:14.86	9.27	9.34	
2025-01-08 02:16:15.06	9.26	9.36	
2025-01-08 02:16:15.27	9.24	9.38	
2025-01-08 02:16:15.47	9.23	9.39	
2025-01-08 02:16:15.68	9.21	9.41	
2025-01-08 02:16:15.88	9.20	9.43	
2025-01-08 02:16:16.09	9.18	9.45	
2025-01-08 02:16:16.29	9.17	9.46	
2025-01-08 02:16:16.50	9.15	9.48	
2025-01-08 02:16:16.70	9.14	9.50	
2025-01-08 02:16:16.91	9.13	9.52	
2025-01-08 02:16:17.11	9.11	9.53	
2025-01-08 02:16:17.32	9.10	9.55	
2025-01-08 02:16:17.52	9.08	9.57	
2025-01-08 02:16:17.73	9.07	9.59	
2025-01-08 02:16:17.93	9.05	9.60	
2025-01-08 02:16:18.14	9.04	9.62	
2025-01-08 02:16:18.34	9.03	9.64	
2025-01-08 02:16:18.55	9.01	9.66	
2025-01-08 02:16:18.75	9.00	9.67	
2025-01-08 02:16:18.96	8.98	9.69	
2025-01-08 02:16:19.17	8.97	9.71	
2025-01-08 02:16:19.37	8.95	9.73	
2025-01-08 02:16:19.58	8.94	9.74	
2025-01-08 02:16:19.78	8.92	9.76	
2025-01-08 02:16:19.99	8.91	9.78	
2025-01-08 02:16:20.19	8.89	9.80	
2025-01-08 02:16:20.40	8.88	9.81	
2025-01-08 02:16:20.61	8.86	9.83	
2025-01-08 02:16:20.81	8.85	9.85	
2025-01-08 02:16:21.01	8.83	9.87	
2025-01-08 02:16:21.22	8.82	9.88	
2025-01-08 02:16:21.42	8.81	9.90	
2025-01-08 02:16:21.63	8.79	9.92	
2025-01-08 02:16:21.83	8.78	9.94	
2025-01-08 02:16:22.04	8.76	9.96	
2025-01-08 02:16:22.24	8.75	9.97	
2025-01-08 02:16:22.45	8.73	9.99	
2025-01-08 02:16:22.66	8.72	10.01	
2025-01-08 02:16:22.86	8.70	10.03	
2025-01-08 02:16:23.06	8.69	10.04	
2025-01-08 02:16:23.27	8.67	10.06	
2025-01-08 02:16:23.47	8.66	10.08	
2025-01-08 02:16:23.68	8.64	10.10	
2025-01-08 02:16:23.89	8.63	10.12	
2025-01-08 02:16:24.09	8.61	10.13	
2025-01-08 02:16:24.29	8.60	10.15	
2025-01-08 02:16:24.50	8.58	10.17	
2025-01-08 02:16:24.71	8.56	10.19	
2025-01-08 02:16:24.91	8.55	10.20	
2025-01-08 02:16:25.13	8.53	10.22	
2025-01-08 02:16:25.34	8.52	10.24	
2025-01-08 02:16:25.54	8.50	10.26	
2025-01-08 02:16:25.75	8.49	10.28	
2025-01-08 02:16:25.95	8.47	10.30	
2025-01-08 02:16:26.16	8.46	10.31	
2025-01-08 02:16:26.36	8.44	10.33	
2025-01-08 02:16:26.57	8.43	10.35	
2025-01-08 02:16:26.77	8.41	10.37	
2025-01-08 02:16:26.98	8.40	10.39	
2025-01-08 02:16:27.18	8.38	10.40	
2025-01-08 02:16:27.38	8.37	10.42	
2025-01-08 02:16:27.59	8.35	10.44	
2025-01-08 02:16:27.80	8.33	10.46	
2025-01-08 02:16:28.00	8.32	10.48	
2025-01-08 02:16:28.21	8.30	10.49	
2025-01-08 02:16:28.41	8.29	10.51	
2025-01-08 02:16:28.62	8.27	10.53	
2025-01-08 02:16:28.82	8.26	10.55	
2025-01-08 02:16:29.03	8.24	10.57	
2025-01-08 02:16:29.23	8.23	10.58	
2025-01-08 02:16:29.44	8.21	10.60	
2025-01-08 02:16:29.64	8.19	10.62	
2025-01-08 02:16:29.85	8.18	10.64	
2025-01-08 02:16:30.05	8.16	10.66	
2025-01-08 02:16:30.26	8.15	10.68	
2025-01-08 02:16:30.46	8.13	10.69	
2025-01-08 02:16:30.67	8.12	10.71	
2025-01-08 02:16:30.87	8.10	10.73	
2025-01-08 02:16:31.08	8.08	10.75	
2025-01-08 02:16:31.29	8.07	10.77	
2025-01-08 02:16:31.51	8.05	10.79	
2025-01-08 02:16:31.71	8.04	10.80	
2025-01-08 02:16:31.92	8.02	10.82	
2025-01-08 02:16:32.13	8.00	10.84	
2025-01-08 02:16:32.33	7.99	10.86	
2025-01-08 02:16:32.53	7.97	10.88	
2025-01-08 02:16:32.74	7.95	10.90	
2025-01-08 02:16:32.95	7.94	10.92	
2025-01-08 02:16:33.15	7.92	10.93	
2025-01-08 02:16:33.36	7.91	10.95	
2025-01-08 02:16:33.56	7.89	10.97	
2025-01-08 02:16:33.77	7.87	10.99	
2025-01-08 02:16:33.97	7.86	11.01	
2025-01-08 02:16:34.18	7.84	11.03	
2025-01-08 02:16:34.38	7.83	11.04	
2025-01-08 02:16:34.59	7.81	11.06	
2025-01-08 02:16:34.79	7.79	11.08	
2025-01-08 02:16:35.00	7.78	11.10	
2025-01-08 02:16:35.20	7.76	11.12	
2025-01-08 02:16:35.41	7.74	11.14	
2025-01-08 02:16:35.61	7.73	11.15	
2025-01-08 02:16:35.82	7.71	11.17	
2025-01-08 02:16:36.02	7.70	11.19	
2025-01-08 02:16:36.23	7.68	11.21	
2025-01-08 02:16:36.43	7.66	11.23	
2025-01-08 02:16:36.64	7.65	11.25	
2025-01-08 02:16:36.86	7.63	11.27	
2025-01-08 02:16:37.06	7.61	11.29	
2025-01-08 02:16:37.27	7.60	11.31	
2025-01-08 02:16:37.47	7.58	11.32	
2025-01-08 02:16:37.68	7.56	11.34	
2025-01-08 02:16:37.88	7.55	11.36	
2025-01-08 02:16:38.09	7.53	11.38	
2025-01-08 02:16:38.30	7.51	11.40	
2025-01-08 02:16:38.50	7.50	11.42	
2025-01-08 02:16:38.70	7.48	11.44	
2025-01-08 02:16:38.91	7.46	11.45	
2025-01-08 02:16:39.11	7.45	11.47	
2025-01-08 02:16:39.32	7.43	11.49	
2025-01-08 02:16:39.53	7.41	11.51	
2025-01-08 02:16:39.73	7.40	11.53	
2025-01-08 02:16:39.94	7.38	11.55	
2025-01-08 02:16:40.14	7.36	11.57	
2025-01-08 02:16:40.35	7.35	11.59	
2025-01-08 02:16:40.55	7.33	11.61	
2025-01-08 02:16:40.76	7.31	11.62	
2025-01-08 02:16:40.96	7.29	11.64	
2025-01-08 02:16:41.17	7.28	11.66	
2025-01-08 02:16:41.37	7.26	11.68	
2025-01-08 02:16:41.58	7.24	11.70	
2025-01-08 02:16:41.78	7.23	11.72	
2025-01-08 02:16:41.99	7.21	11.74	
2025-01-08 02:16:42.19	7.19	11.76	
2025-01-08 02:16:42.40	7.18	11.78	
2025-01-08 02:16:42.60	7.16	11.79	
2025-01-08 02:16:42.81	7.14	11.81	
2025-01-08 02:16:43.02	7.12	11.83	
2025-01-08 02:16:43.23	7.11	11.85	
2025-01-08 02:16:43.44	7.09	11.87	
2025-01-08 02:16:43.64	7.07	11.89	
2025-01-08 02:16:43.85	7.05	11.91	
2025-01-08 02:16:44.05	7.04	11.93	
2025-01-08 02:16:44.25	7.02	11.95	
2025-01-08 02:16:44.46	7.00	11.97	
2025-01-08 02:16:44.67	6.98	11.99	
2025-01-08 02:16:44.87	6.97	12.01	
2025-01-08 02:16:45.08	6.95	12.03	
2025-01-08 02:16:45.28	6.93	12.04	
2025-01-08 02:16:45.48	6.92	12.06	
2025-01-08 02:16:45.69	6.90	12.08	
2025-01-08 02:16:45.89	6.88	12.10	
2025-01-08 02:16:46.10	6.86	12.12	
2025-01-08 02:16:46.30	6.84	12.14	
2025-01-08 02:16:46.51	6.83	12.16	
2025-01-08 02:16:46.71	6.81	12.18	
2025-01-08 02:16:46.92	6.79	12.20	
2025-01-08 02:16:47.12	6.77	12.22	
2025-01-08 02:16:47.32	6.76	12.24	
2025-01-08 02:16:47.53	6.74	12.26	
2025-01-08 02:16:47.73	6.72	12.27	
2025-01-08 02:16:47.94	6.70	12.29	
2025-01-08 02:16:48.15	6.69	12.31	
2025-01-08 02:16:48.35	6.67	12.33	
2025-01-08 02:16:48.55	6.65	12.35	
2025-01-08 02:16:48.76	6.63	12.37	
2025-01-08 02:16:48.96	6.61	12.39	
2025-01-08 02:16:49.17	6.60	12.41	
2025-01-08 02:16:49.37	6.58	12.43	
2025-01-08 02:16:49.58	6.56	12.45	
2025-01-08 02:16:49.78	6.54	12.47	
2025-01-08 02:16:49.99	6.52	12.49	
2025-01-08 02:16:50.19	6.51	12.51	
2025-01-08 02:16:50.40	6.49	12.53	
2025-01-08 02:16:50.60	6.47	12.55	
2025-01-08 02:16:50.81	6.45	12.57	
2025-01-08 02:16:51.01	6.43	12.59	
2025-01-08 02:16:51.22	6.42	12.61	
2025-01-08 02:16:51.43	6.40	12.63	
2025-01-08 02:16:51.63	6.38	12.65	
2025-01-08 02:16:51.85	6.36	12.67	
2025-01-08 02:16:52.05	6.34	12.69	
2025-01-08 02:16:52.26	6.32	12.71	
2025-01-08 02:16:52.46	6.30	12.73	
2025-01-08 02:16:52.67	6.29	12.75	
2025-01-08 02:16:52.87	6.27	12.76	
2025-01-08 02:16:53.08	6.25	12.78	
2025-01-08 02:16:53.29	6.23	12.81	
2025-01-08 02:16:53.49	6.21	12.82	
2025-01-08 02:16:53.70	6.19	12.84	
2025-01-08 02:16:53.90	6.17	12.86	
2025-01-08 02:16:54.10	6.16	12.88	
2025-01-08 02:16:54.31	6.14	12.90	
2025-01-08 02:16:54.51	6.12	12.92	
2025-01-08 02:16:54.72	6.10	12.94	
2025-01-08 02:16:54.93	6.08	12.96	
2025-01-08 02:16:55.13	6.06	12.98	
2025-01-08 02:16:55.34	6.04	13.00	
2025-01-08 02:16:55.54	6.02	13.02	
2025-01-08 02:16:55.75	6.01	13.04	
2025-01-08 02:16:55.95	5.99	13.06	
2025-01-08 02:16:56.16	5.97	13.08	
2025-01-08 02:16:56.37	5.95	13.10	
2025-01-08 02:16:56.57	5.93	13.12	
2025-01-08 02:16:56.78	5.91	13.14	
2025-01-08 02:16:56.98	5.89	13.16	
2025-01-08 02:16:57.20	5.87	13.18	
2025-01-08 02:16:57.40	5.85	13.20	
2025-01-08 02:16:57.61	5.83	13.22	
2025-01-08 02:16:57.81	5.81	13.24	
2025-01-08 02:16:58.02	5.79	13.26	
2025-01-08 02:16:58.24	5.77	13.29	
2025-01-08 02:16:58.44	5.76	13.31	
2025-01-08 02:16:58.65	5.74	13.33	
2025-01-08 02:16:58.85	5.72	13.35	
2025-01-08 02:16:59.06	5.70	13.37	
2025-01-08 02:16:59.26	5.68	13.39	
2025-01-08 02:16:59.47	5.66	13.41	
2025-01-08 02:16:59.67	5.64	13.43	
2025-01-08 02:16:59.88	5.62	13.45	
2025-01-08 02:17:00.08	5.60	13.47	
2025-01-08 02:17:00.28	5.58	13.49	
2025-01-08 02:17:00.49	5.56	13.51	
2025-01-08 02:17:00.70	5.54	13.53	
2025-01-08 02:17:00.90	5.52	13.55	
2025-01-08 02:17:01.10	5.50	13.57	
2025-01-08 02:17:01.32	5.48	13.59	
2025-01-08 02:17:01.53	5.46	13.61	
2025-01-08 02:17:01.73	5.44	13.63	
2025-01-08 02:17:01.94	5.42	13.65	
2025-01-08 02:17:02.14	5.40	13.67	
2025-01-08 02:17:02.35	5.38	13.69	
2025-01-08 02:17:02.55	5.36	13.71	
2025-01-08 02:17:02.76	5.34	13.73	
2025-01-08 02:17:02.97	5.32	13.75	
2025-01-08 02:17:03.17	5.30	13.77	
2025-01-08 02:17:03.38	5.28	13.80	
2025-01-08 02:17:03.58	5.26	13.82	
2025-01-08 02:17:03.79	5.24	13.84	
2025-01-08 02:17:03.99	5.22	13.86	
2025-01-08 02:17:04.20	5.20	13.88	
2025-01-08 02:17:04.40	5.18	13.90	
2025-01-08 02:17:04.61	5.16	13.92	
2025-01-08 02:17:04.81	5.14	13.94	
2025-01-08 02:17:05.02	5.12	13.96	
2025-01-08 02:17:05.23	5.10	13.98	
2025-01-08 02:17:05.43	5.08	14.00	
2025-01-08 02:17:05.64	5.06	14.02	
2025-01-08 02:17:05.84	5.04	14.04	
2025-01-08 02:17:06.05	5.02	14.06	
2025-01-08 02:17:06.25	5.00	14.08	
2025-01-08 02:17:06.46	4.98	14.11	
2025-01-08 02:17:06.66	4.96	14.13	
2025-01-08 02:17:06.86	4.94	14.15	
2025-01-08 02:17:07.07	4.92	14.17	
2025-01-08 02:17:07.27	4.90	14.19	
2025-01-08 02:17:07.48	4.88	14.21	
2025-01-08 02:17:07.68	4.86	14.23	
2025-01-08 02:17:07.89	4.84	14.25	
2025-01-08 02:17:08.09	4.82	14.27	
2025-01-08 02:17:08.30	4.80	14.29	
2025-01-08 02:17:08.51	4.78	14.31	
2025-01-08 02:17:08.71	4.75	14.33	
2025-01-08 02:17:08.91	4.73	14.35	
2025-01-08 02:17:09.12	4.71	14.38	
2025-01-08 02:17:09.32	4.69	14.40	
2025-01-08 02:17:09.53	4.67	14.42	
2025-01-08 02:17:09.74	4.65	14.44	
2025-01-08 02:17:09.94	4.63	14.46	
2025-01-08 02:17:10.15	4.61	14.48	
2025-01-08 02:17:10.35	4.59	14.50	
2025-01-08 02:17:10.56	4.57	14.52	
2025-01-08 02:17:10.76	4.55	14.54	
2025-01-08 02:17:10.98	4.52	14.57	
2025-01-08 02:17:11.19	4.50	14.59	
2025-01-08 02:17:11.39	4.48	14.61	
2025-01-08 02:17:11.60	4.46	14.63	
2025-01-08 02:17:11.80	4.44	14.65	
2025-01-08 02:17:12.00	4.42	14.67	
2025-01-08 02:17:12.21	4.40	14.69	
2025-01-08 02:17:12.42	4.37	14.72	
2025-01-08 02:17:12.62	4.35	14.74	
2025-01-08 02:17:12.83	4.33	14.76	
2025-01-08 02:17:13.03	4.31	14.78	
2025-01-08 02:17:13.24	4.29	14.80	
2025-01-08 02:17:13.44	4.27	14.82	
2025-01-08 02:17:13.65	4.25	14.84	
2025-01-08 02:17:13.85	4.22	14.86	
2025-01-08 02:17:14.06	4.20	14.89	
2025-01-08 02:17:14.26	4.18	14.91	
2025-01-08 02:17:14.47	4.16	14.93	
2025-01-08 02:17:14.67	4.14	14.95	
2025-01-08 02:17:14.88	4.12	14.97	
2025-01-08 02:17:15.09	4.09	14.99	
2025-01-08 02:17:15.30	4.07	15.02	
2025-01-08 02:17:15.51	4.05	15.04	
2025-01-08 02:17:15.71	4.03	15.06	
2025-01-08 02:17:15.93	4.00	15.08	
2025-01-08 02:17:16.14	3.98	15.10	
2025-01-08 02:17:16.34	3.96	15.12	
2025-01-08 02:17:16.55	3.94	15.15	
2025-01-08 02:17:16.75	3.92	15.17	
2025-01-08 02:17:16.95	3.89	15.19	
2025-01-08 02:17:17.16	3.87	15.21	
2025-01-08 02:17:17.36	3.85	15.23	
2025-01-08 02:17:17.57	3.83	15.25	
2025-01-08 02:17:17.77	3.80	15.28	
2025-01-08 02:17:17.98	3.78	15.30	
2025-01-08 02:17:18.19	3.76	15.32	
2025-01-08 02:17:18.39	3.74	15.34	
2025-01-08 02:17:18.60	3.71	15.36	
2025-01-08 02:17:18.80	3.69	15.38	
2025-01-08 02:17:19.01	3.67	15.41	
2025-01-08 02:17:19.21	3.65	15.43	
2025-01-08 02:17:19.42	3.62	15.45	
2025-01-08 02:17:19.62	3.60	15.47	
2025-01-08 02:17:19.83	3.58	15.49	
2025-01-08 02:17:20.04	3.56	15.52	
2025-01-08 02:17:20.24	3.53	15.54	
2025-01-08 02:17:20.45	3.51	15.56	
2025-01-08 02:17:20.65	3.49	15.58	
2025-01-08 02:17:20.86	3.47	15.60	
2025-01-08 02:17:21.06	3.44	15.63	
2025-01-08 02:17:21.27	3.42	15.65	
2025-01-08 02:17:21.48	3.40	15.67	
2025-01-08 02:17:21.69	3.37	15.69	
2025-01-08 02:17:21.90	3.35	15.72	
2025-01-08 02:17:22.10	3.33	15.74	
2025-01-08 02:17:22.31	3.30	15.76	
2025-01-08 02:17:22.51	3.28	15.78	
2025-01-08 02:17:22.72	3.26	15.80	
2025-01-08 02:17:22.92	3.23	15.82	
2025-01-08 02:17:23.12	3.21	15.85	
2025-01-08 02:17:23.33	3.19	15.87	
2025-01-08 02:17:23.53	3.17	15.89	
2025-01-08 02:17:23.73	3.14	15.91	
2025-01-08 02:17:23.94	3.12	15.93	
2025-01-08 02:17:24.15	3.09	15.96	
2025-01-08 02:17:24.35	3.07	15.98	
2025-01-08 02:17:24.56	3.05	16.00	
2025-01-08 02:17:24.76	3.02	16.02	
2025-01-08 02:17:24.96	3.00	16.05	
2025-01-08 02:17:25.17	2.98	16.07	
2025-01-08 02:17:25.37	2.95	16.09	
2025-01-08 02:17:25.58	2.93	16.11	
2025-01-08 02:17:25.79	2.91	16.14	
2025-01-08 02:17:25.99	2.88	16.16	
2025-01-08 02:17:26.20	2.86	16.18	
2025-01-08 02:17:26.40	2.84	16.20	
2025-01-08 02:17:26.61	2.81	16.23	
2025-01-08 02:17:26.81	2.79	16.25	
2025-01-08 02:17:27.02	2.76	16.27	
2025-01-08 02:17:27.22	2.74	16.29	
2025-01-08 02:17:27.43	2.72	16.31	
2025-01-08 02:17:27.63	2.69	16.34	
2025-01-08 02:17:27.84	2.67	16.36	
2025-01-08 02:17:28.04	2.64	16.38	
2025-01-08 02:17:28.25	2.62	16.41	
2025-01-08 02:17:28.45	2.60	16.43	
2025-01-08 02:17:28.66	2.57	16.45	
2025-01-08 02:17:28.87	2.55	16.47	
2025-01-08 02:17:29.07	2.52	16.50	
2025-01-08 02:17:29.28	2.50	16.52	
2025-01-08 02:17:29.48	2.47	16.54	
2025-01-08 02:17:29.69	2.45	16.56	
2025-01-08 02:17:29.89	2.42	16.59	
2025-01-08 02:17:30.09	2.40	16.61	
2025-01-08 02:17:30.30	2.37	16.63	
2025-01-08 02:17:30.50	2.35	16.65	
2025-01-08 02:17:30.71	2.33	16.68	
2025-01-08 02:17:30.92	2.30	16.70	
2025-01-08 02:17:31.12	2.28	16.72	
2025-01-08 02:17:31.32	2.25	16.74	
2025-01-08 02:17:31.53	2.23	16.77	
2025-01-08 02:17:31.74	2.20	16.79	
2025-01-08 02:17:31.94	2.18	16.81	
2025-01-08 02:17:32.15	2.15	16.84	
2025-01-08 02:17:32.35	2.13	16.86	
2025-01-08 02:17:32.56	2.10	16.88	
2025-01-08 02:17:32.76	2.08	16.91	
2025-01-08 02:17:32.97	2.05	16.93	
2025-01-08 02:17:33.17	2.03	16.95	
2025-01-08 02:17:33.39	2.00	16.98	
2025-01-08 02:17:33.60	1.97	17.00	
2025-01-08 02:17:33.80	1.95	17.02	
2025-01-08 02:17:34.01	1.92	17.05	
2025-01-08 02:17:34.21	1.90	17.07	
2025-01-08 02:17:34.41	1.87	17.09	
2025-01-08 02:17:34.62	1.85	17.11	
2025-01-08 02:17:34.82	1.82	17.14	
2025-01-08 02:17:35.03	1.80	17.16	
2025-01-08 02:17:35.23	1.77	17.18	
2025-01-08 02:17:35.43	1.75	17.21	
2025-01-08 02:17:35.64	1.72	17.23	
2025-01-08 02:17:35.85	1.69	17.25	
2025-01-08 02:17:36.05	1.67	17.28	
2025-01-08 02:17:36.26	1.64	17.30	
2025-01-08 02:17:36.46	1.62	17.32	
2025-01-08 02:17:36.67	1.59	17.35	
2025-01-08 02:17:36.87	1.57	17.37	
2025-01-08 02:17:37.08	1.54	17.39	
2025-01-08 02:17:37.29	1.51	17.42	
2025-01-08 02:17:37.49	1.49	17.44	
2025-01-08 02:17:37.69	1.46	17.46	
2025-01-08 02:17:37.90	1.43	17.49	
2025-01-08 02:17:38.11	1.41	17.51	
2025-01-08 02:17:38.31	1.38	17.53	
2025-01-08 02:17:38.52	1.36	17.56	
2025-01-08 02:17:38.74	1.33	17.58	
2025-01-08 02:17:38.94	1.30	17.61	
2025-01-08 02:17:39.15	1.27	17.63	
2025-01-08 02:17:39.35	1.25	17.65	
2025-01-08 02:17:39.56	1.22	17.68	
2025-01-08 02:17:39.76	1.20	17.70	
2025-01-08 02:17:39.97	1.17	17.72	
2025-01-08 02:17:40.18	1.14	17.75	
2025-01-08 02:17:40.38	1.12	17.77	
2025-01-08 02:17:40.59	1.09	17.80	
2025-01-08 02:17:40.80	1.06	17.82	
2025-01-08 02:17:41.01	1.03	17.84	
2025-01-08 02:17:41.21	1.01	17.87	
2025-01-08 02:17:41.42	0.98	17.89	
2025-01-08 02:17:41.62	0.95	17.91	
2025-01-08 02:17:41.83	0.93	17.94	
2025-01-08 02:17:42.03	0.90	17.96	
2025-01-08 02:17:42.24	0.87	17.99	
2025-01-08 02:17:42.45	0.84	18.01	
2025-01-08 02:17:42.65	0.82	18.03	
2025-01-08 02:17:42.86	0.79	18.06	
2025-01-08 02:17:43.06	0.76	18.08	
2025-01-08 02:17:43.27	0.73	18.11	
2025-01-08 02:17:43.48	0.71	18.13	
2025-01-08 02:17:43.68	0.68	18.15	
2025-01-08 02:17:43.89	0.65	18.18	
2025-01-08 02:17:44.09	0.62	18.20	
2025-01-08 02:17:44.30	0.60	18.23	
2025-01-08 02:17:44.50	0.57	18.25	
2025-01-08 02:17:44.71	0.54	18.27	
2025-01-08 02:17:44.91	0.51	18.30	
2025-01-08 02:17:45.12	0.49	18.32	
2025-01-08 02:17:45.32	0.46	18.35	
2025-01-08 02:17:45.53	0.43	18.37	
2025-01-08 02:17:45.73	0.40	18.39	
2025-01-08 02:17:45.94	0.37	18.42	
2025-01-08 02:17:46.16	0.34	18.44	
2025-01-08 02:17:46.36	0.32	18.47	
2025-01-08 02:17:46.57	0.29	18.49	
2025-01-08 02:17:46.78	0.26	18.52	
2025-01-08 02:17:46.98	0.23	18.54	
2025-01-08 02:17:47.18	0.20	18.57	
2025-01-08 02:17:47.39	0.18	18.59	
2025-01-08 02:17:47.59	0.15	18.61	
2025-01-08 02:17:47.80	0.12	18.64	
2025-01-08 02:17:48.00	0.09	18.66	
2025-01-08 02:17:48.21	0.06	18.69	
2025-01-08 02:17:48.41	0.03	18.71	
2025-01-08 02:17:48.62	0.00	18.74	
2025-01-08 02:17:48.82	359.98	18.76	
2025-01-08 02:17:49.03	359.95	18.79	
2025-01-08 02:17:49.23	359.92	18.81	
2025-01-08 02:17:49.44	359.89	18.83	
2025-01-08 02:17:49.64	359.86	18.86	
2025-01-08 02:17:49.85	359.83	18.88	
2025-01-08 02:17:50.06	359.80	18.91	
2025-01-08 02:17:50.26	359.77	18.93	
2025-01-08 02:17:50.46	359.75	18.96	
2025-01-08 02:17:50.67	359.72	18.98	
2025-01-08 02:17:50.88	359.69	19.01	
2025-01-08 02:17:51.08	359.66	19.03	
2025-01-08 02:17:51.29	359.63	19.06	
2025-01-08 02:17:51.49	359.60	19.08	
2025-01-08 02:17:51.69	359.57	19.10	
2025-01-08 02:17:51.90	359.54	19.13	
2025-01-08 02:17:52.11	359.51	19.15	
2025-01-08 02:17:52.31	359.48	19.18	
2025-01-08 02:17:52.51	359.45	19.20	
2025-01-08 02:17:52.72	359.42	19.23	
2025-01-08 02:17:52.93	359.39	19.25	
2025-01-08 02:17:53.13	359.36	19.28	
2025-01-08 02:17:53.34	359.33	19.30	
2025-01-08 02:17:53.54	359.30	19.33	
2025-01-08 02:17:53.75	359.27	19.35	
2025-01-08 02:17:53.95	359.24	19.38	
2025-01-08 02:17:54.16	359.21	19.40	
2025-01-08 02:17:54.36	359.18	19.43	
2025-01-08 02:17:54.57	359.15	19.45	
2025-01-08 02:17:54.77	359.12	19.48	
2025-01-08 02:17:54.98	359.09	19.50	
2025-01-08 02:17:55.18	359.06	19.53	
2025-01-08 02:17:55.39	359.03	19.55	
2025-01-08 02:17:55.59	359.00	19.58	
2025-01-08 02:17:55.80	358.97	19.60	
2025-01-08 02:17:56.00	358.94	19.63	
2025-01-08 02:17:56.21	358.91	19.65	
2025-01-08 02:17:56.42	358.88	19.68	
2025-01-08 02:17:56.62	358.85	19.70	
2025-01-08 02:17:56.82	358.82	19.73	
2025-01-08 02:17:57.03	358.79	19.75	
2025-01-08 02:17:57.23	358.76	19.78	
2025-01-08 02:17:57.44	358.73	19.80	
2025-01-08 02:17:57.65	358.70	19.83	
2025-01-08 02:17:57.85	358.67	19.85	
2025-01-08 02:17:58.06	358.63	19.88	
2025-01-08 02:17:58.26	358.60	19.90	
2025-01-08 02:17:58.47	358.57	19.93	
2025-01-08 02:17:58.67	358.54	19.96	
2025-01-08 02:17:58.88	358.51	19.98	
2025-01-08 02:17:59.08	358.48	20.01	
2025-01-08 02:17:59.28	358.45	20.03	
2025-01-08 02:17:59.49	358.42	20.06	
2025-01-08 02:17:59.69	358.39	20.08	
2025-01-08 02:17:59.90	358.35	20.11	
2025-01-08 02:18:00.10	358.32	20.13	
2025-01-08 02:18:00.31	358.29	20.16	
2025-01-08 02:18:00.51	358.26	20.18	
2025-01-08 02:18:00.72	358.23	20.21	
2025-01-08 02:18:00.92	358.20	20.23	
2025-01-08 02:18:01.12	358.16	20.26	
2025-01-08 02:18:01.33	358.13	20.29	
2025-01-08 02:18:01.53	358.10	20.31	
2025-01-08 02:18:01.74	358.07	20.34	
2025-01-08 02:18:01.95	358.03	20.36	
2025-01-08 02:18:02.16	358.00	20.39	
2025-01-08 02:18:02.37	357.97	20.42	
2025-01-08 02:18:02.58	357.94	20.44	
2025-01-08 02:18:02.78	357.90	20.47	
2025-01-08 02:18:02.99	357.87	20.49	
2025-01-08 02:18:03.19	357.84	20.52	
2025-01-08 02:18:03.39	357.81	20.54	
2025-01-08 02:18:03.60	357.77	20.57	
2025-01-08 02:18:03.81	357.74	20.60	
2025-01-08 02:18:04.01	357.71	20.62	
2025-01-08 02:18:04.22	357.68	20.65	
2025-01-08 02:18:04.44	357.64	20.68	
2025-01-08 02:18:04.64	357.61	20.70	
2025-01-08 02:18:04.85	357.58	20.73	
2025-01-08 02:18:05.05	357.54	20.75	
2025-01-08 02:18:05.26	357.51	20.78	
2025-01-08 02:18:05.46	357.48	20.81	
2025-01-08 02:18:05.68	357.44	20.83	
2025-01-08 02:18:05.88	357.41	20.86	
2025-01-08 02:18:06.09	357.38	20.89	
2025-01-08 02:18:06.29	357.34	20.91	
2025-01-08 02:18:06.50	357.31	20.94	
2025-01-08 02:18:06.70	357.28	20.96	
2025-01-08 02:18:06.91	357.24	20.99	
2025-01-08 02:18:07.11	357.21	21.02	
2025-01-08 02:18:07.32	357.17	21.04	
2025-01-08 02:18:07.52	357.14	21.07	
2025-01-08 02:18:07.73	357.11	21.09	
2025-01-08 02:18:07.93	357.07	21.12	
2025-01-08 02:18:08.14	357.04	21.15	
2025-01-08 02:18:08.34	357.01	21.17	
2025-01-08 02:18:08.54	356.97	21.20	
2025-01-08 02:18:08.75	356.94	21.23	
2025-01-08 02:18:08.95	356.91	21.25	
2025-01-08 02:18:09.16	356.87	21.28	
2025-01-08 02:18:09.36	356.84	21.30	
2025-01-08 02:18:09.57	356.80	21.33	
2025-01-08 02:18:09.77	356.77	21.36	
2025-01-08 02:18:09.98	356.73	21.38	
2025-01-08 02:18:10.18	356.70	21.41	
2025-01-08 02:18:10.39	356.66	21.44	
2025-01-08 02:18:10.59	356.63	21.46	
2025-01-08 02:18:10.79	356.60	21.49	
2025-01-08 02:18:11.00	356.56	21.52	
2025-01-08 02:18:11.21	356.53	21.54	
2025-01-08 02:18:11.41	356.49	21.57	
2025-01-08 02:18:11.62	356.46	21.60	
2025-01-08 02:18:11.84	356.42	21.62	
2025-01-08 02:18:12.04	356.38	21.65	
2025-01-08 02:18:12.25	356.35	21.68	
2025-01-08 02:18:12.45	356.31	21.70	
2025-01-08 02:18:12.66	356.28	21.73	
2025-01-08 02:18:12.86	356.24	21.76	
2025-01-08 02:18:13.07	356.21	21.78	
2025-01-08 02:18:13.27	356.17	21.81	
2025-01-08 02:18:13.47	356.14	21.84	
2025-01-08 02:18:13.68	356.10	21.86	
2025-01-08 02:18:13.88	356.07	21.89	
2025-01-08 02:18:14.09	356.03	21.92	
2025-01-08 02:18:14.29	355.99	21.94	
2025-01-08 02:18:14.50	355.96	21.97	
2025-01-08 02:18:14.70	355.92	22.00	
2025-01-08 02:18:14.91	355.89	22.02	
2025-01-08 02:18:15.11	355.85	22.05	
2025-01-08 02:18:15.32	355.81	22.08	
2025-01-08 02:18:15.53	355.78	22.11	
2025-01-08 02:18:15.73	355.74	22.13	
2025-01-08 02:18:15.94	355.70	22.16	
2025-01-08 02:18:16.14	355.67	22.19	
2025-01-08 02:18:16.34	355.63	22.21	
2025-01-08 02:18:16.55	355.60	22.24	
2025-01-08 02:18:16.75	355.56	22.27	
2025-01-08 02:18:16.96	355.52	22.29	
2025-01-08 02:18:17.16	355.49	22.32	
2025-01-08 02:18:17.37	355.45	22.35	
2025-01-08 02:18:17.57	355.41	22.37	
2025-01-08 02:18:17.78	355.38	22.40	
2025-01-08 02:18:17.98	355.34	22.43	
2025-01-08 02:18:18.19	355.30	22.46	
2025-01-08 02:18:18.39	355.27	22.48	
2025-01-08 02:18:18.59	355.23	22.51	
2025-01-08 02:18:18.80	355.19	22.54	
2025-01-08 02:18:19.01	355.15	22.57	
2025-01-08 02:18:19.21	355.12	22.59	
2025-01-08 02:18:19.42	355.08	22.62	
2025-01-08 02:18:19.62	355.04	22.65	
2025-01-08 02:18:19.83	355.00	22.67	
2025-01-08 02:18:20.03	354.97	22.70	
2025-01-08 02:18:20.24	354.93	22.73	
2025-01-08 02:18:20.44	354.89	22.76	
2025-01-08 02:18:20.64	354.85	22.78	
2025-01-08 02:18:20.85	354.81	22.81	
2025-01-08 02:18:21.06	354.78	22.84	
2025-01-08 02:18:21.26	354.74	22.87	
2025-01-08 02:18:21.46	354.70	22.89	
2025-01-08 02:18:21.67	354.66	22.92	
2025-01-08 02:18:21.87	354.63	22.95	
2025-01-08 02:18:22.08	354.59	22.98	
2025-01-08 02:18:22.29	354.55	23.00	
2025-01-08 02:18:22.49	354.51	23.03	
2025-01-08 02:18:22.69	354.47	23.06	
2025-01-08 02:18:22.90	354.43	23.09	
2025-01-08 02:18:23.11	354.39	23.11	
2025-01-08 02:18:23.31	354.35	23.14	
2025-01-08 02:18:23.52	354.31	23.17	
2025-01-08 02:18:23.72	354.28	23.20	
2025-01-08 02:18:23.93	354.24	23.23	
2025-01-08 02:18:24.13	354.20	23.25	
2025-01-08 02:18:24.34	354.16	23.28	
2025-01-08 02:18:24.54	354.12	23.31	
2025-01-08 02:18:24.75	354.08	23.34	
2025-01-08 02:18:24.95	354.04	23.36	
2025-01-08 02:18:25.16	354.00	23.39	
2025-01-08 02:18:25.36	353.96	23.42	
2025-01-08 02:18:25.57	353.92	23.45	
2025-01-08 02:18:25.77	353.88	23.47	
2025-01-08 02:18:25.97	353.84	23.50	
2025-01-08 02:18:26.18	353.80	23.53	
2025-01-08 02:18:26.39	353.76	23.56	
2025-01-08 02:18:26.59	353.72	23.59	
2025-01-08 02:18:26.79	353.68	23.61	
2025-01-08 02:18:27.00	353.64	23.64	
2025-01-08 02:18:27.21	353.60	23.67	
2025-01-08 02:18:27.41	353.56	23.70	
2025-01-08 02:18:27.62	353.52	23.73	
2025-01-08 02:18:27.82	353.48	23.75	
2025-01-08 02:18:28.03	353.44	23.78	
2025-01-08 02:18:28.23	353.40	23.81	
2025-01-08 02:18:28.44	353.36	23.84	
2025-01-08 02:18:28.64	353.32	23.87	
2025-01-08 02:18:28.85	353.28	23.90	
2025-01-08 02:18:29.05	353.24	23.92	
2025-01-08 02:18:29.25	353.20	23.95	
2025-01-08 02:18:29.46	353.15	23.98	
2025-01-08 02:18:29.66	353.11	24.01	
2025-01-08 02:18:29.87	353.07	24.04	
2025-01-08 02:18:30.08	353.03	24.06	
2025-01-08 02:18:30.28	352.99	24.09	
2025-01-08 02:18:30.49	352.95	24.12	
2025-01-08 02:18:30.69	352.91	24.15	
2025-01-08 02:18:30.90	352.86	24.18	
2025-01-08 02:18:31.10	352.82	24.21	
2025-01-08 02:18:31.31	352.78	24.23	
2025-01-08 02:18:31.51	352.74	24.26	
2025-01-08 02:18:31.72	352.70	24.29	
2025-01-08 02:18:31.92	352.66	24.32	
2025-01-08 02:18:32.13	352.61	24.35	
2025-01-08 02:18:32.33	352.57	24.38	
2025-01-08 02:18:32.54	352.53	24.41	
2025-01-08 02:18:32.75	352.48	24.43	
2025-01-08 02:18:32.95	352.44	24.46	
2025-01-08 02:18:33.15	352.40	24.49	
2025-01-08 02:18:33.36	352.36	24.52	
2025-01-08 02:18:33.57	352.31	24.55	
2025-01-08 02:18:33.77	352.27	24.58	
2025-01-08 02:18:33.98	352.23	24.61	
2025-01-08 02:18:34.18	352.19	24.63	
2025-01-08 02:18:34.39	352.14	24.66	
2025-01-08 02:18:34.59	352.10	24.69	
2025-01-08 02:18:34.80	352.06	24.72	
2025-01-08 02:18:35.00	352.01	24.75	
2025-01-08 02:18:35.21	351.97	24.78	
2025-01-08 02:18:35.41	351.93	24.81	
2025-01-08 02:18:35.62	351.88	24.83	
2025-01-08 02:18:35.82	351.84	24.86	
2025-01-08 02:18:36.03	351.80	24.89	
2025-01-08 02:18:36.23	351.75	24.92	
2025-01-08 02:18:36.43	351.71	24.95	
2025-01-08 02:18:36.64	351.66	24.98	
2025-01-08 02:18:36.84	351.62	25.01	
2025-01-08 02:18:37.05	351.58	25.04	
2025-01-08 02:18:37.26	351.53	25.06	
2025-01-08 02:18:37.46	351.49	25.09	
2025-01-08 02:18:37.67	351.44	25.12	
2025-01-08 02:18:37.87	351.40	25.15	
2025-01-08 02:18:38.08	351.35	25.18	
2025-01-08 02:18:38.28	351.31	25.21	
2025-01-08 02:18:38.48	351.27	25.24	
2025-01-08 02:18:38.69	351.22	25.27	
2025-01-08 02:18:38.90	351.17	25.30	
2025-01-08 02:18:39.10	351.13	25.32	
2025-01-08 02:18:39.31	351.08	25.35	
2025-01-08 02:18:39.51	351.04	25.38	
2025-01-08 02:18:39.71	351.00	25.41	
2025-01-08 02:18:39.92	350.95	25.44	
2025-01-08 02:18:40.13	350.90	25.47	
2025-01-08 02:18:40.33	350.86	25.50	
2025-01-08 02:18:40.53	350.81	25.53	
2025-01-08 02:18:40.74	350.77	25.56	
2025-01-08 02:18:40.95	350.72	25.59	
2025-01-08 02:18:41.15	350.68	25.61	
2025-01-08 02:18:41.36	350.63	25.64	
2025-01-08 02:18:41.56	350.58	25.67	
2025-01-08 02:18:41.76	350.54	25.70	
2025-01-08 02:18:41.97	350.49	25.73	
2025-01-08 02:18:42.17	350.45	25.76	
2025-01-08 02:18:42.38	350.40	25.79	
2025-01-08 02:18:42.59	350.35	25.82	
2025-01-08 02:18:42.79	350.31	25.85	
2025-01-08 02:18:42.99	350.26	25.88	
2025-01-08 02:18:43.20	350.21	25.91	
2025-01-08 02:18:43.40	350.17	25.94	
2025-01-08 02:18:43.61	350.12	25.97	
2025-01-08 02:18:43.81	350.07	25.99	
2025-01-08 02:18:44.02	350.02	26.02	
2025-01-08 02:18:44.24	349.97	26.06	
2025-01-08 02:18:44.44	349.93	26.08	
2025-01-08 02:18:44.65	349.88	26.11	
2025-01-08 02:18:44.85	349.83	26.14	
2025-01-08 02:18:45.06	349.78	26.17	
2025-01-08 02:18:45.26	349.74	26.20	
2025-01-08 02:18:45.47	349.69	26.23	
2025-01-08 02:18:45.67	349.64	26.26	
2025-01-08 02:18:45.87	349.60	26.29	
2025-01-08 02:18:46.08	349.55	26.32	
2025-01-08 02:18:46.28	349.50	26.35	
2025-01-08 02:18:46.49	349.45	26.38	
2025-01-08 02:18:46.70	349.40	26.41	
2025-01-08 02:18:46.90	349.35	26.44	
2025-01-08 02:18:47.11	349.30	26.47	
2025-01-08 02:18:47.31	349.26	26.50	
2025-01-08 02:18:47.52	349.21	26.53	
2025-01-08 02:18:47.72	349.16	26.56	
2025-01-08 02:18:47.93	349.11	26.59	
2025-01-08 02:18:48.13	349.06	26.61	
2025-01-08 02:18:48.34	349.01	26.64	
2025-01-08 02:18:48.54	348.96	26.67	
2025-01-08 02:18:48.75	348.91	26.70	
2025-01-08 02:18:48.96	348.86	26.73	
2025-01-08 02:18:49.16	348.81	26.76	
2025-01-08 02:18:49.37	348.76	26.79	
2025-01-08 02:18:49.57	348.71	26.82	
2025-01-08 02:18:49.78	348.66	26.85	
2025-01-08 02:18:49.98	348.61	26.88	
2025-01-08 02:18:50.19	348.56	26.91	
2025-01-08 02:18:50.39	348.51	26.94	
2025-01-08 02:18:50.60	348.46	26.97	
2025-01-08 02:18:50.80	348.41	27.00	
2025-01-08 02:18:51.01	348.36	27.03	
2025-01-08 02:18:51.21	348.31	27.06	
2025-01-08 02:18:51.42	348.26	27.09	
2025-01-08 02:18:51.62	348.21	27.12	
2025-01-08 02:18:51.83	348.16	27.15	
2025-01-08 02:18:52.04	348.11	27.18	
2025-01-08 02:18:52.24	348.06	27.21	
2025-01-08 02:18:52.45	348.00	27.24	
2025-01-08 02:18:52.65	347.95	27.27	
2025-01-08 02:18:52.86	347.90	27.30	
2025-01-08 02:18:53.06	347.85	27.33	
2025-01-08 02:18:53.27	347.80	27.36	
2025-01-08 02:18:53.47	347.75	27.39	
2025-01-08 02:18:53.68	347.70	27.42	
2025-01-08 02:18:53.88	347.65	27.45	
2025-01-08 02:18:54.09	347.59	27.48	
2025-01-08 02:18:54.30	347.54	27.51	
2025-01-08 02:18:54.50	347.49	27.54	
2025-01-08 02:18:54.70	347.44	27.57	
2025-01-08 02:18:54.91	347.38	27.60	
2025-01-08 02:18:55.11	347.33	27.63	
2025-01-08 02:18:55.32	347.28	27.66	
2025-01-08 02:18:55.54	347.22	27.69	
2025-01-08 02:18:55.74	347.17	27.72	
2025-01-08 02:18:55.95	347.12	27.75	
2025-01-08 02:18:56.15	347.07	27.78	
2025-01-08 02:18:56.36	347.01	27.81	
2025-01-08 02:18:56.56	346.96	27.84	
2025-01-08 02:18:56.77	346.90	27.87	
2025-01-08 02:18:56.97	346.85	27.90	
2025-01-08 02:18:57.18	346.80	27.93	
2025-01-08 02:18:57.39	346.74	27.96	
2025-01-08 02:18:57.59	346.69	27.99	
2025-01-08 02:18:57.80	346.64	28.02	
2025-01-08 02:18:58.00	346.58	28.05	
2025-01-08 02:18:58.21	346.53	28.08	
2025-01-08 02:18:58.41	346.48	28.11	
2025-01-08 02:18:58.62	346.42	28.14	
2025-01-08 02:18:58.82	346.37	28.17	
2025-01-08 02:18:59.03	346.31	28.20	
2025-01-08 02:18:59.23	346.26	28.23	
2025-01-08 02:18:59.44	346.20	28.26	
2025-01-08 02:18:59.64	346.15	28.29	
2025-01-08 02:18:59.84	346.10	28.32	
2025-01-08 02:19:00.05	346.04	28.35	
2025-01-08 02:19:00.25	345.99	28.38	
2025-01-08 02:19:00.46	345.93	28.41	
2025-01-08 02:19:00.66	345.87	28.44	
2025-01-08 02:19:00.88	345.82	28.47	
2025-01-08 02:19:01.08	345.76	28.50	
2025-01-08 02:19:01.29	345.70	28.53	
2025-01-08 02:19:01.49	345.65	28.56	
2025-01-08 02:19:01.70	345.59	28.60	
2025-01-08 02:19:01.90	345.54	28.62	
2025-01-08 02:19:02.11	345.48	28.66	
2025-01-08 02:19:02.31	345.43	28.69	
2025-01-08 02:19:02.52	345.37	28.72	
2025-01-08 02:19:02.72	345.31	28.75	
2025-01-08 02:19:02.93	345.26	28.78	
2025-01-08 02:19:03.13	345.20	28.81	
2025-01-08 02:19:03.34	345.14	28.84	
2025-01-08 02:19:03.54	345.09	28.87	
2025-01-08 02:19:03.75	345.03	28.90	
2025-01-08 02:19:03.95	344.97	28.93	
2025-01-08 02:19:04.17	344.91	28.96	
2025-01-08 02:19:04.38	344.85	28.99	
2025-01-08 02:19:04.59	344.79	29.02	
2025-01-08 02:19:04.79	344.74	29.05	
2025-01-08 02:19:05.00	344.68	29.08	
2025-01-08 02:19:05.20	344.62	29.11	
2025-01-08 02:19:05.41	344.56	29.14	
2025-01-08 02:19:05.61	344.51	29.17	
2025-01-08 02:19:05.82	344.45	29.20	
2025-01-08 02:19:06.02	344.39	29.23	
2025-01-08 02:19:06.24	344.33	29.26	
2025-01-08 02:19:06.45	344.27	29.30	
2025-01-08 02:19:06.65	344.21	29.33	
2025-01-08 02:19:06.86	344.15	29.36	
2025-01-08 02:19:07.06	344.09	29.39	
2025-01-08 02:19:07.28	344.03	29.42	
2025-01-08 02:19:07.48	343.97	29.45	
2025-01-08 02:19:07.69	343.91	29.48	
2025-01-08 02:19:07.89	343.85	29.51	
2025-01-08 02:19:08.10	343.79	29.54	
2025-01-08 02:19:08.30	343.74	29.57	
2025-01-08 02:19:08.51	343.67	29.60	
2025-01-08 02:19:08.71	343.62	29.63	
2025-01-08 02:19:08.92	343.55	29.66	
2025-01-08 02:19:09.12	343.50	29.69	
2025-01-08 02:19:09.33	343.43	29.72	
2025-01-08 02:19:09.54	343.37	29.75	
2025-01-08 02:19:09.74	343.31	29.78	
2025-01-08 02:19:09.94	343.26	29.81	
2025-01-08 02:19:10.15	343.19	29.84	
2025-01-08 02:19:10.35	343.13	29.87	
2025-01-08 02:19:10.56	343.07	29.90	
2025-01-08 02:19:10.76	343.01	29.93	
2025-01-08 02:19:10.96	342.95	29.96	
2025-01-08 02:19:11.17	342.89	29.99	
2025-01-08 02:19:11.37	342.83	30.02	
2025-01-08 02:19:11.58	342.77	30.05	
2025-01-08 02:19:11.78	342.71	30.08	
2025-01-08 02:19:11.99	342.64	30.11	
2025-01-08 02:19:12.19	342.58	30.14	
2025-01-08 02:19:12.40	342.52	30.18	
2025-01-08 02:19:12.60	342.46	30.20	
2025-01-08 02:19:12.81	342.40	30.24	
2025-01-08 02:19:13.01	342.34	30.27	
2025-01-08 02:19:13.22	342.27	30.30	
2025-01-08 02:19:13.43	342.21	30.33	
2025-01-08 02:19:13.63	342.15	30.36	
2025-01-08 02:19:13.84	342.08	30.39	
2025-01-08 02:19:14.04	342.02	30.42	
2025-01-08 02:19:14.25	341.96	30.45	
2025-01-08 02:19:14.45	341.90	30.48	
2025-01-08 02:19:14.66	341.83	30.51	
2025-01-08 02:19:14.86	341.77	30.54	
2025-01-08 02:19:15.07	341.70	30.57	
2025-01-08 02:19:15.27	341.64	30.60	
2025-01-08 02:19:15.48	341.58	30.63	
2025-01-08 02:19:15.68	341.52	30.66	
2025-01-08 02:19:15.89	341.45	30.69	
2025-01-08 02:19:16.09	341.39	30.72	
2025-01-08 02:19:16.30	341.32	30.75	
2025-01-08 02:19:16.51	341.26	30.78	
2025-01-08 02:19:16.71	341.19	30.81	
2025-01-08 02:19:16.91	341.13	30.84	
2025-01-08 02:19:17.12	341.06	30.87	
2025-01-08 02:19:17.32	341.00	30.90	
2025-01-08 02:19:17.53	340.93	30.93	
2025-01-08 02:19:17.74	340.87	30.96	
2025-01-08 02:19:17.94	340.80	30.99	
2025-01-08 02:19:18.15	340.74	31.02	
2025-01-08 02:19:18.35	340.67	31.05	
2025-01-08 02:19:18.56	340.61	31.08	
2025-01-08 02:19:18.76	340.54	31.11	
2025-01-08 02:19:18.97	340.47	31.14	
2025-01-08 02:19:19.17	340.41	31.17	
2025-01-08 02:19:19.38	340.34	31.20	
2025-01-08 02:19:19.58	340.28	31.23	
2025-01-08 02:19:19.79	340.21	31.26	
2025-01-08 02:19:19.99	340.14	31.29	
2025-01-08 02:19:20.19	340.08	31.32	
2025-01-08 02:19:20.40	340.01	31.35	
2025-01-08 02:19:20.61	339.94	31.38	
2025-01-08 02:19:20.81	339.88	31.41	
2025-01-08 02:19:21.02	339.81	31.44	
2025-01-08 02:19:21.22	339.74	31.47	
2025-01-08 02:19:21.43	339.67	31.50	
2025-01-08 02:19:21.63	339.61	31.53	
2025-01-08 02:19:21.84	339.54	31.56	
2025-01-08 02:19:22.04	339.47	31.59	
2025-01-08 02:19:22.25	339.40	31.62	
2025-01-08 02:19:22.45	339.34	31.65	
2025-01-08 02:19:22.66	339.27	31.68	
2025-01-08 02:19:22.86	339.20	31.71	
2025-01-08 02:19:23.07	339.13	31.74	
2025-01-08 02:19:23.29	339.06	31.78	
2025-01-08 02:19:23.49	338.99	31.80	
2025-01-08 02:19:23.70	338.92	31.84	
2025-01-08 02:19:23.90	338.85	31.86	
2025-01-08 02:19:24.11	338.78	31.90	
2025-01-08 02:19:24.32	338.71	31.93	
2025-01-08 02:19:24.53	338.64	31.96	
2025-01-08 02:19:24.73	338.57	31.99	
2025-01-08 02:19:24.94	338.50	32.02	
2025-01-08 02:19:25.15	338.43	32.05	
2025-01-08 02:19:25.35	338.36	32.08	
2025-01-08 02:19:25.56	338.29	32.11	
2025-01-08 02:19:25.76	338.22	32.13	
2025-01-08 02:19:25.97	338.15	32.17	
2025-01-08 02:19:26.17	338.08	32.19	
2025-01-08 02:19:26.38	338.01	32.22	
2025-01-08 02:19:26.58	337.94	32.25	
2025-01-08 02:19:26.79	337.87	32.28	
2025-01-08 02:19:26.99	337.80	32.31	
2025-01-08 02:19:27.20	337.72	32.34	
2025-01-08 02:19:27.41	337.65	32.37	
2025-01-08 02:19:27.61	337.58	32.40	
2025-01-08 02:19:27.81	337.51	32.43	
2025-01-08 02:19:28.02	337.44	32.46	
2025-01-08 02:19:28.23	337.36	32.49	
2025-01-08 02:19:28.43	337.29	32.52	
2025-01-08 02:19:28.63	337.22	32.55	
2025-01-08 02:19:28.84	337.15	32.58	
2025-01-08 02:19:29.04	337.08	32.61	
2025-01-08 02:19:29.25	337.00	32.64	
2025-01-08 02:19:29.46	336.93	32.67	
2025-01-08 02:19:29.66	336.86	32.70	
2025-01-08 02:19:29.87	336.78	32.73	
2025-01-08 02:19:30.07	336.71	32.76	
2025-01-08 02:19:30.28	336.64	32.79	
2025-01-08 02:19:30.48	336.57	32.81	
2025-01-08 02:19:30.68	336.50	32.84	
2025-01-08 02:19:30.89	336.42	32.87	
2025-01-08 02:19:31.09	336.35	32.90	
2025-01-08 02:19:31.30	336.27	32.93	
2025-01-08 02:19:31.50	336.20	32.96	
2025-01-08 02:19:31.71	336.12	32.99	
2025-01-08 02:19:31.91	336.05	33.02	
2025-01-08 02:19:32.12	335.98	33.05	
2025-01-08 02:19:32.32	335.90	33.08	
2025-01-08 02:19:32.53	335.83	33.11	
2025-01-08 02:19:32.74	335.75	33.14	
2025-01-08 02:19:32.94	335.68	33.16	
2025-01-08 02:19:33.15	335.60	33.19	
2025-01-08 02:19:33.35	335.53	33.22	
2025-01-08 02:19:33.56	335.45	33.25	
2025-01-08 02:19:33.76	335.38	33.28	
2025-01-08 02:19:33.97	335.30	33.31	
2025-01-08 02:19:34.17	335.22	33.34	
2025-01-08 02:19:34.38	335.15	33.37	
2025-01-08 02:19:34.58	335.07	33.39	
2025-01-08 02:19:34.79	334.99	33.42	
2025-01-08 02:19:34.99	334.92	33.45	
2025-01-08 02:19:35.20	334.84	33.48	
2025-01-08 02:19:35.40	334.77	33.51	
2025-01-08 02:19:35.61	334.69	33.54	
2025-01-08 02:19:35.81	334.61	33.57	
2025-01-08 02:19:36.02	334.53	33.60	
2025-01-08 02:19:36.22	334.46	33.62	
2025-01-08 02:19:36.43	334.38	33.65	
2025-01-08 02:19:36.63	334.30	33.68	
2025-01-08 02:19:36.84	334.23	33.71	
2025-01-08 02:19:37.04	334.15	33.74	
2025-01-08 02:19:37.25	334.07	33.77	
2025-01-08 02:19:37.45	333.99	33.79	
2025-01-08 02:19:37.66	333.91	33.82	
2025-01-08 02:19:37.86	333.84	33.85	
2025-01-08 02:19:38.07	333.76	33.88	
2025-01-08 02:19:38.27	333.68	33.91	
2025-01-08 02:19:38.48	333.60	33.94	
2025-01-08 02:19:38.69	333.52	33.97	
2025-01-08 02:19:38.89	333.44	33.99	
2025-01-08 02:19:39.10	333.36	34.02	
2025-01-08 02:19:39.31	333.28	34.05	
2025-01-08 02:19:39.52	333.20	34.08	
2025-01-08 02:19:39.73	333.12	34.11	
2025-01-08 02:19:39.93	333.04	34.14	
2025-01-08 02:19:40.14	332.96	34.16	
2025-01-08 02:19:40.34	332.88	34.19	
2025-01-08 02:19:40.55	332.80	34.22	
2025-01-08 02:19:40.75	332.72	34.25	
2025-01-08 02:19:40.96	332.64	34.28	
2025-01-08 02:19:41.17	332.55	34.30	
2025-01-08 02:19:41.37	332.47	34.33	
2025-01-08 02:19:41.57	332.40	34.36	
2025-01-08 02:19:41.78	332.31	34.39	
2025-01-08 02:19:41.98	332.23	34.41	
2025-01-08 02:19:42.19	332.15	34.44	
2025-01-08 02:19:42.40	332.07	34.47	
2025-01-08 02:19:42.61	331.98	34.50	
2025-01-08 02:19:42.82	331.90	34.53	
2025-01-08 02:19:43.02	331.82	34.55	
2025-01-08 02:19:43.23	331.74	34.58	
2025-01-08 02:19:43.43	331.66	34.61	
2025-01-08 02:19:43.64	331.57	34.64	
2025-01-08 02:19:43.84	331.49	34.66	
2025-01-08 02:19:44.05	331.41	34.69	
2025-01-08 02:19:44.26	331.32	34.72	
2025-01-08 02:19:44.46	331.24	34.74	
2025-01-08 02:19:44.68	331.15	34.77	
2025-01-08 02:19:44.89	331.07	34.80	
2025-01-08 02:19:45.09	330.99	34.83	
2025-01-08 02:19:45.30	330.90	34.86	
2025-01-08 02:19:45.50	330.82	34.88	
2025-01-08 02:19:45.71	330.73	34.91	
2025-01-08 02:19:45.91	330.65	34.94	
2025-01-08 02:19:46.12	330.56	34.96	
2025-01-08 02:19:46.32	330.48	34.99	
2025-01-08 02:19:46.53	330.40	35.02	
2025-01-08 02:19:46.73	330.31	35.04	
2025-01-08 02:19:46.94	330.23	35.07	
2025-01-08 02:19:47.14	330.14	35.10	
2025-01-08 02:19:47.35	330.06	35.12	
2025-01-08 02:19:47.55	329.97	35.15	
2025-01-08 02:19:47.76	329.89	35.18	
2025-01-08 02:19:47.98	329.80	35.20	
2025-01-08 02:19:48.18	329.71	35.23	
2025-01-08 02:19:48.39	329.62	35.26	
2025-01-08 02:19:48.59	329.54	35.28	
2025-01-08 02:19:48.80	329.45	35.31	
2025-01-08 02:19:49.00	329.37	35.33	
2025-01-08 02:19:49.21	329.28	35.36	
2025-01-08 02:19:49.42	329.19	35.39	
2025-01-08 02:19:49.62	329.11	35.41	
2025-01-08 02:19:49.83	329.02	35.44	
2025-01-08 02:19:50.03	328.93	35.47	
2025-01-08 02:19:50.24	328.85	35.49	
2025-01-08 02:19:50.44	328.76	35.52	
2025-01-08 02:19:50.65	328.67	35.54	
2025-01-08 02:19:50.85	328.59	35.57	
2025-01-08 02:19:51.05	328.50	35.59	
2025-01-08 02:19:51.26	328.41	35.62	
2025-01-08 02:19:51.47	328.32	35.65	
2025-01-08 02:19:51.67	328.24	35.67	
2025-01-08 02:19:51.88	328.15	35.70	
2025-01-08 02:19:52.08	328.06	35.72	
2025-01-08 02:19:52.28	327.97	35.75	
2025-01-08 02:19:52.49	327.88	35.77	
2025-01-08 02:19:52.70	327.79	35.80	
2025-01-08 02:19:52.90	327.71	35.82	
2025-01-08 02:19:53.11	327.61	35.85	
2025-01-08 02:19:53.31	327.53	35.87	
2025-01-08 02:19:53.51	327.44	35.90	
2025-01-08 02:19:53.72	327.35	35.92	
2025-01-08 02:19:53.92	327.26	35.95	
2025-01-08 02:19:54.13	327.17	35.97	
2025-01-08 02:19:54.33	327.08	36.00	
2025-01-08 02:19:54.54	326.99	36.02	
2025-01-08 02:19:54.74	326.90	36.05	
2025-01-08 02:19:54.95	326.81	36.07	
2025-01-08 02:19:55.15	326.72	36.09	
2025-01-08 02:19:55.36	326.63	36.12	
2025-01-08 02:19:55.57	326.54	36.14	
2025-01-08 02:19:55.78	326.44	36.17	
2025-01-08 02:19:55.98	326.36	36.19	
2025-01-08 02:19:56.19	326.26	36.22	
2025-01-08 02:19:56.39	326.17	36.24	
2025-01-08 02:19:56.60	326.08	36.27	
2025-01-08 02:19:56.80	325.99	36.29	
2025-01-08 02:19:57.01	325.90	36.31	
2025-01-08 02:19:57.21	325.81	36.34	
2025-01-08 02:19:57.42	325.71	36.36	
2025-01-08 02:19:57.63	325.62	36.39	
2025-01-08 02:19:57.84	325.53	36.41	
2025-01-08 02:19:58.04	325.44	36.43	
2025-01-08 02:19:58.25	325.34	36.46	
2025-01-08 02:19:58.47	325.24	36.48	
2025-01-08 02:19:58.67	325.15	36.51	
2025-01-08 02:19:58.88	325.06	36.53	
2025-01-08 02:19:59.08	324.97	36.55	
2025-01-08 02:19:59.29	324.87	36.58	
2025-01-08 02:19:59.50	324.77	36.60	
2025-01-08 02:19:59.71	324.68	36.62	
2025-01-08 02:19:59.92	324.58	36.65	
2025-01-08 02:20:00.12	324.49	36.67	
2025-01-08 02:20:00.33	324.40	36.69	
2025-01-08 02:20:00.53	324.30	36.71	
2025-01-08 02:20:00.74	324.21	36.74	
2025-01-08 02:20:00.94	324.12	36.76	
2025-01-08 02:20:01.15	324.02	36.78	
2025-01-08 02:20:01.35	323.93	36.81	
2025-01-08 02:20:01.56	323.83	36.83	
2025-01-08 02:20:01.78	323.73	36.85	
2025-01-08 02:20:01.98	323.64	36.87	
2025-01-08 02:20:02.19	323.54	36.90	
2025-01-08 02:20:02.39	323.45	36.92	
2025-01-08 02:20:02.60	323.35	36.94	
2025-01-08 02:20:02.80	323.26	36.96	
2025-01-08 02:20:03.00	323.16	36.98	
2025-01-08 02:20:03.21	323.06	37.01	
2025-01-08 02:20:03.42	322.97	37.03	
2025-01-08 02:20:03.62	322.87	37.05	
2025-01-08 02:20:03.83	322.77	37.07	
2025-01-08 02:20:04.03	322.68	37.09	
2025-01-08 02:20:04.24	322.58	37.12	
2025-01-08 02:20:04.45	322.48	37.14	
2025-01-08 02:20:04.65	322.39	37.16	
2025-01-08 02:20:04.86	322.29	37.18	
2025-01-08 02:20:05.06	322.20	37.20	
2025-01-08 02:20:05.26	322.10	37.22	
2025-01-08 02:20:05.47	322.00	37.24	
2025-01-08 02:20:05.67	321.91	37.26	
2025-01-08 02:20:05.88	321.81	37.28	
2025-01-08 02:20:06.08	321.71	37.31	
2025-01-08 02:20:06.29	321.61	37.33	
2025-01-08 02:20:06.50	321.51	37.35	
2025-01-08 02:20:06.70	321.42	37.37	
2025-01-08 02:20:06.91	321.32	37.39	
2025-01-08 02:20:07.11	321.22	37.41	
2025-01-08 02:20:07.32	321.12	37.43	
2025-01-08 02:20:07.52	321.02	37.45	
2025-01-08 02:20:07.73	320.92	37.47	
2025-01-08 02:20:07.93	320.83	37.49	
2025-01-08 02:20:08.14	320.73	37.51	
2025-01-08 02:20:08.34	320.63	37.53	
2025-01-08 02:20:08.55	320.53	37.55	
2025-01-08 02:20:08.75	320.43	37.57	
2025-01-08 02:20:08.96	320.33	37.59	
2025-01-08 02:20:09.16	320.23	37.61	
2025-01-08 02:20:09.38	320.13	37.63	
2025-01-08 02:20:09.59	320.02	37.65	
2025-01-08 02:20:09.79	319.93	37.67	
2025-01-08 02:20:10.00	319.82	37.69	
2025-01-08 02:20:10.20	319.73	37.71	
2025-01-08 02:20:10.41	319.62	37.73	
2025-01-08 02:20:10.61	319.53	37.74	
2025-01-08 02:20:10.82	319.42	37.76	
2025-01-08 02:20:11.02	319.32	37.78	
2025-01-08 02:20:11.23	319.22	37.80	
2025-01-08 02:20:11.43	319.12	37.82	
2025-01-08 02:20:11.64	319.02	37.84	
2025-01-08 02:20:11.84	318.92	37.86	
2025-01-08 02:20:12.05	318.82	37.88	
2025-01-08 02:20:12.25	318.72	37.89	
2025-01-08 02:20:12.47	318.61	37.91	
2025-01-08 02:20:12.68	318.51	37.93	
2025-01-08 02:20:12.88	318.41	37.95	
2025-01-08 02:20:13.09	318.30	37.97	
2025-01-08 02:20:13.29	318.20	37.98	
2025-01-08 02:20:13.50	318.10	38.00	
2025-01-08 02:20:13.70	318.00	38.02	
2025-01-08 02:20:13.91	317.90	38.04	
2025-01-08 02:20:14.11	317.80	38.06	
2025-01-08 02:20:14.32	317.69	38.07	
2025-01-08 02:20:14.52	317.59	38.09	
2025-01-08 02:20:14.73	317.49	38.11	
2025-01-08 02:20:14.93	317.39	38.12	
2025-01-08 02:20:15.14	317.28	38.14	
2025-01-08 02:20:15.34	317.18	38.16	
2025-01-08 02:20:15.55	317.08	38.18	
2025-01-08 02:20:15.77	316.96	38.19	
2025-01-08 02:20:15.97	316.86	38.21	
2025-01-08 02:20:16.18	316.76	38.23	
2025-01-08 02:20:16.38	316.66	38.24	
2025-01-08 02:20:16.59	316.55	38.26	
2025-01-08 02:20:16.80	316.44	38.28	
2025-01-08 02:20:17.01	316.34	38.29	
2025-01-08 02:20:17.21	316.24	38.31	
2025-01-08 02:20:17.42	316.13	38.32	
2025-01-08 02:20:17.62	316.03	38.34	
2025-01-08 02:20:17.83	315.92	38.36	
2025-01-08 02:20:18.03	315.82	38.37	
2025-01-08 02:20:18.24	315.71	38.39	
2025-01-08 02:20:18.44	315.61	38.40	
2025-01-08 02:20:18.65	315.50	38.42	
2025-01-08 02:20:18.85	315.40	38.43	
2025-01-08 02:20:19.06	315.30	38.45	
2025-01-08 02:20:19.26	315.19	38.46	
2025-01-08 02:20:19.47	315.09	38.48	
2025-01-08 02:20:19.68	314.98	38.49	
2025-01-08 02:20:19.88	314.88	38.51	
2025-01-08 02:20:20.09	314.77	38.52	
2025-01-08 02:20:20.29	314.66	38.54	
2025-01-08 02:20:20.50	314.56	38.55	
2025-01-08 02:20:20.71	314.45	38.57	
2025-01-08 02:20:20.91	314.35	38.58	
2025-01-08 02:20:21.12	314.24	38.59	
2025-01-08 02:20:21.32	314.13	38.61	
2025-01-08 02:20:21.53	314.02	38.62	
2025-01-08 02:20:21.73	313.92	38.64	
2025-01-08 02:20:21.94	313.81	38.65	
2025-01-08 02:20:22.14	313.71	38.66	
2025-01-08 02:20:22.35	313.60	38.68	
2025-01-08 02:20:22.55	313.50	38.69	
2025-01-08 02:20:22.75	313.39	38.70	
2025-01-08 02:20:22.96	313.28	38.72	
2025-01-08 02:20:23.16	313.18	38.73	
2025-01-08 02:20:23.37	313.07	38.74	
2025-01-08 02:20:23.57	312.97	38.76	
2025-01-08 02:20:23.78	312.86	38.77	
2025-01-08 02:20:23.98	312.75	38.78	
2025-01-08 02:20:24.19	312.64	38.79	
2025-01-08 02:20:24.39	312.54	38.81	
2025-01-08 02:20:24.60	312.43	38.82	
2025-01-08 02:20:24.81	312.32	38.83	
2025-01-08 02:20:25.01	312.21	38.84	
2025-01-08 02:20:25.21	312.11	38.85	
2025-01-08 02:20:25.42	312.00	38.87	
2025-01-08 02:20:25.62	311.89	38.88	
2025-01-08 02:20:25.83	311.78	38.89	
2025-01-08 02:20:26.03	311.68	38.90	
2025-01-08 02:20:26.24	311.57	38.91	
2025-01-08 02:20:26.44	311.46	38.92	
2025-01-08 02:20:26.65	311.35	38.94	
2025-01-08 02:20:26.85	311.24	38.95	
2025-01-08 02:20:27.06	311.13	38.96	
2025-01-08 02:20:27.26	311.03	38.97	
2025-01-08 02:20:27.48	310.91	38.98	
2025-01-08 02:20:27.68	310.81	38.99	
2025-01-08 02:20:27.89	310.69	39.00	
2025-01-08 02:20:28.09	310.59	39.01	
2025-01-08 02:20:28.30	310.48	39.02	
2025-01-08 02:20:28.50	310.37	39.03	
2025-01-08 02:20:28.71	310.26	39.04	
2025-01-08 02:20:28.91	310.15	39.05	
2025-01-08 02:20:29.12	310.04	39.06	
2025-01-08 02:20:29.33	309.93	39.07	
2025-01-08 02:20:29.53	309.82	39.08	
2025-01-08 02:20:29.73	309.72	39.09	
2025-01-08 02:20:29.95	309.60	39.10	
2025-01-08 02:20:30.15	309.49	39.11	
2025-01-08 02:20:30.36	309.38	39.12	
2025-01-08 02:20:30.56	309.27	39.13	
2025-01-08 02:20:30.77	309.16	39.14	
2025-01-08 02:20:30.97	309.06	39.15	
2025-01-08 02:20:31.18	308.94	39.16	
2025-01-08 02:20:31.38	308.84	39.16	
2025-01-08 02:20:31.59	308.72	39.17	
2025-01-08 02:20:31.79	308.62	39.18	
2025-01-08 02:20:32.00	308.50	39.19	
2025-01-08 02:20:32.20	308.40	39.20	
2025-01-08 02:20:32.41	308.28	39.21	
2025-01-08 02:20:32.61	308.18	39.21	
2025-01-08 02:20:32.82	308.06	39.22	
2025-01-08 02:20:33.02	307.96	39.23	
2025-01-08 02:20:33.23	307.84	39.24	
2025-01-08 02:20:33.44	307.73	39.24	
2025-01-08 02:20:33.64	307.62	39.25	
2025-01-08 02:20:33.85	307.51	39.26	
2025-01-08 02:20:34.05	307.40	39.27	
2025-01-08 02:20:34.26	307.29	39.27	
2025-01-08 02:20:34.46	307.18	39.28	
2025-01-08 02:20:34.67	307.07	39.29	
2025-01-08 02:20:34.87	306.96	39.29	
2025-01-08 02:20:35.08	306.85	39.30	
2025-01-08 02:20:35.28	306.74	39.31	
2025-01-08 02:20:35.49	306.63	39.31	
2025-01-08 02:20:35.70	306.51	39.32	
2025-01-08 02:20:35.90	306.40	39.32	
2025-01-08 02:20:36.10	306.30	39.33	
2025-01-08 02:20:36.31	306.18	39.34	
2025-01-08 02:20:36.52	306.07	39.34	
2025-01-08 02:20:36.72	305.96	39.35	
2025-01-08 02:20:36.93	305.85	39.35	
2025-01-08 02:20:37.13	305.74	39.36	
2025-01-08 02:20:37.34	305.62	39.36	
2025-01-08 02:20:37.54	305.52	39.37	
2025-01-08 02:20:37.75	305.40	39.37	
2025-01-08 02:20:37.95	305.29	39.38	
2025-01-08 02:20:38.17	305.17	39.38	
2025-01-08 02:20:38.38	305.06	39.39	
2025-01-08 02:20:38.58	304.95	39.39	
2025-01-08 02:20:38.79	304.84	39.40	
2025-01-08 02:20:38.99	304.73	39.40	
2025-01-08 02:20:39.21	304.61	39.41	
2025-01-08 02:20:39.42	304.49	39.41	
2025-01-08 02:20:39.62	304.39	39.41	
2025-01-08 02:20:39.83	304.27	39.42	
2025-01-08 02:20:40.03	304.16	39.42	
2025-01-08 02:20:40.24	304.05	39.43	
2025-01-08 02:20:40.44	303.94	39.43	
2025-01-08 02:20:40.65	303.83	39.43	
2025-01-08 02:20:40.85	303.72	39.43	
2025-01-08 02:20:41.06	303.60	39.44	
2025-01-08 02:20:41.26	303.49	39.44	
2025-01-08 02:20:41.46	303.38	39.44	
2025-01-08 02:20:41.67	303.27	39.45	
2025-01-08 02:20:41.88	303.16	39.45	
2025-01-08 02:20:42.08	303.05	39.45	
2025-01-08 02:20:42.29	302.93	39.45	
2025-01-08 02:20:42.49	302.82	39.46	
2025-01-08 02:20:42.70	302.71	39.46	
2025-01-08 02:20:42.90	302.60	39.46	
2025-01-08 02:20:43.11	302.48	39.46	
2025-01-08 02:20:43.31	302.38	39.46	
2025-01-08 02:20:43.52	302.26	39.46	
2025-01-08 02:20:43.72	302.15	39.47	
2025-01-08 02:20:43.93	302.04	39.47	
2025-01-08 02:20:44.13	301.93	39.47	
2025-01-08 02:20:44.34	301.81	39.47	
2025-01-08 02:20:44.55	301.70	39.47	
2025-01-08 02:20:44.76	301.58	39.47	
2025-01-08 02:20:44.96	301.47	39.47	
2025-01-08 02:20:45.17	301.36	39.47	
2025-01-08 02:20:45.38	301.25	39.47	
2025-01-08 02:20:45.59	301.13	39.47	
2025-01-08 02:20:45.80	301.02	39.47	
2025-01-08 02:20:46.00	300.91	39.47	
2025-01-08 02:20:46.21	300.79	39.47	
2025-01-08 02:20:46.41	300.68	39.47	
2025-01-08 02:20:46.62	300.57	39.47	
