passes_logs/2025/01/08/SPB_Silybum_02/SPB_Silybum_02__20250108_083938_AQUA_rec.log

#Pass ID: 20250108_083938_AQUA
#Satellite: AQUA
#Configuration: AQUA
#Start time: 2025-01-08 08:39:38

#Version: 2.0.20230423
#Station: SPB_Silybum_02
#Location: 30.233357 lon 59.946436 lat
#TLE: 1 27424U 02022A   25007.87424311  .00002334  00000+0  48938-3 0  9995
#TLE: 2 27424  98.3576 324.4746 0001447 118.7932 262.7333 14.60655264206582

#Time	Az	El	Level	Level2	SNR	BER	Gain	Gain2
2025-01-08 08:39:40.15	75.99	4.07	
2025-01-08 08:39:40.35	75.96	4.08	
2025-01-08 08:39:40.56	75.94	4.09	
2025-01-08 08:39:40.76	75.91	4.10	
2025-01-08 08:39:40.98	75.88	4.11	
2025-01-08 08:39:41.19	75.86	4.12	
2025-01-08 08:39:41.39	75.83	4.13	
2025-01-08 08:39:41.60	75.81	4.14	
2025-01-08 08:39:41.80	75.78	4.15	
2025-01-08 08:39:42.01	75.76	4.16	
2025-01-08 08:39:42.21	75.73	4.16	
2025-01-08 08:39:42.42	75.70	4.17	
2025-01-08 08:39:42.62	75.68	4.18	
2025-01-08 08:39:42.83	75.65	4.19	
2025-01-08 08:39:43.03	75.63	4.20	
2025-01-08 08:39:43.24	75.60	4.21	
2025-01-08 08:39:43.44	75.58	4.22	
2025-01-08 08:39:43.65	75.55	4.23	
2025-01-08 08:39:43.86	75.53	4.24	
2025-01-08 08:39:44.06	75.50	4.25	
2025-01-08 08:39:44.26	75.48	4.26	
2025-01-08 08:39:44.47	75.45	4.27	
2025-01-08 08:39:44.68	75.42	4.28	
2025-01-08 08:39:44.88	75.40	4.29	
2025-01-08 08:39:45.09	75.37	4.30	
2025-01-08 08:39:45.30	75.34	4.31	
2025-01-08 08:39:45.51	75.32	4.32	
2025-01-08 08:39:45.72	75.29	4.33	
2025-01-08 08:39:45.92	75.27	4.34	
2025-01-08 08:39:46.13	75.24	4.35	
2025-01-08 08:39:46.33	75.21	4.36	
2025-01-08 08:39:46.53	75.19	4.37	
2025-01-08 08:39:46.74	75.16	4.38	
2025-01-08 08:39:46.94	75.14	4.39	
2025-01-08 08:39:47.15	75.11	4.40	
2025-01-08 08:39:47.35	75.09	4.41	
2025-01-08 08:39:47.55	75.06	4.42	
2025-01-08 08:39:47.76	75.03	4.43	
2025-01-08 08:39:47.97	75.01	4.44	
2025-01-08 08:39:48.17	74.98	4.45	
2025-01-08 08:39:48.37	74.96	4.46	
2025-01-08 08:39:48.58	74.93	4.47	
2025-01-08 08:39:48.78	74.90	4.48	
2025-01-08 08:39:48.99	74.88	4.49	
2025-01-08 08:39:49.20	74.85	4.50	
2025-01-08 08:39:49.40	74.82	4.51	
2025-01-08 08:39:49.61	74.80	4.52	
2025-01-08 08:39:49.81	74.77	4.53	
2025-01-08 08:39:50.01	74.75	4.53	
2025-01-08 08:39:50.22	74.72	4.54	
2025-01-08 08:39:50.42	74.69	4.55	
2025-01-08 08:39:50.63	74.67	4.56	
2025-01-08 08:39:50.83	74.64	4.57	
2025-01-08 08:39:51.04	74.61	4.58	
2025-01-08 08:39:51.24	74.59	4.59	
2025-01-08 08:39:51.45	74.56	4.60	
2025-01-08 08:39:51.65	74.54	4.61	
2025-01-08 08:39:51.86	74.51	4.62	
2025-01-08 08:39:52.06	74.48	4.63	
2025-01-08 08:39:52.27	74.46	4.64	
2025-01-08 08:39:52.47	74.43	4.65	
2025-01-08 08:39:52.68	74.40	4.66	
2025-01-08 08:39:52.88	74.38	4.67	
2025-01-08 08:39:53.09	74.35	4.68	
2025-01-08 08:39:53.29	74.32	4.69	
2025-01-08 08:39:53.50	74.30	4.70	
2025-01-08 08:39:53.70	74.27	4.71	
2025-01-08 08:39:53.91	74.24	4.72	
2025-01-08 08:39:54.11	74.22	4.73	
2025-01-08 08:39:54.32	74.19	4.74	
2025-01-08 08:39:54.53	74.16	4.75	
2025-01-08 08:39:54.73	74.14	4.76	
2025-01-08 08:39:54.94	74.11	4.77	
2025-01-08 08:39:55.14	74.08	4.78	
2025-01-08 08:39:55.35	74.06	4.79	
2025-01-08 08:39:55.56	74.03	4.80	
2025-01-08 08:39:55.76	74.00	4.81	
2025-01-08 08:39:55.96	73.98	4.82	
2025-01-08 08:39:56.17	73.95	4.83	
2025-01-08 08:39:56.37	73.92	4.83	
2025-01-08 08:39:56.58	73.90	4.84	
2025-01-08 08:39:56.78	73.87	4.85	
2025-01-08 08:39:56.99	73.84	4.86	
2025-01-08 08:39:57.19	73.82	4.87	
2025-01-08 08:39:57.39	73.79	4.88	
2025-01-08 08:39:57.60	73.76	4.89	
2025-01-08 08:39:57.81	73.73	4.90	
2025-01-08 08:39:58.02	73.71	4.91	
2025-01-08 08:39:58.23	73.68	4.92	
2025-01-08 08:39:58.44	73.65	4.93	
2025-01-08 08:39:58.64	73.62	4.94	
2025-01-08 08:39:58.85	73.60	4.95	
2025-01-08 08:39:59.06	73.57	4.96	
2025-01-08 08:39:59.27	73.54	4.97	
2025-01-08 08:39:59.48	73.51	4.98	
2025-01-08 08:39:59.68	73.49	4.99	
2025-01-08 08:39:59.89	73.46	5.00	
2025-01-08 08:40:00.09	73.43	5.01	
2025-01-08 08:40:00.30	73.40	5.02	
2025-01-08 08:40:00.50	73.38	5.03	
2025-01-08 08:40:00.70	73.35	5.04	
2025-01-08 08:40:00.91	73.32	5.05	
2025-01-08 08:40:01.12	73.30	5.06	
2025-01-08 08:40:01.32	73.27	5.07	
2025-01-08 08:40:01.53	73.24	5.08	
2025-01-08 08:40:01.73	73.21	5.09	
2025-01-08 08:40:01.94	73.19	5.10	
2025-01-08 08:40:02.15	73.16	5.11	
2025-01-08 08:40:02.35	73.13	5.12	
2025-01-08 08:40:02.55	73.10	5.13	
2025-01-08 08:40:02.76	73.08	5.13	
2025-01-08 08:40:02.96	73.05	5.14	
2025-01-08 08:40:03.17	73.02	5.15	
2025-01-08 08:40:03.37	72.99	5.16	
2025-01-08 08:40:03.58	72.97	5.17	
2025-01-08 08:40:03.78	72.94	5.18	
2025-01-08 08:40:03.99	72.91	5.19	
2025-01-08 08:40:04.20	72.88	5.20	
2025-01-08 08:40:04.40	72.86	5.21	
2025-01-08 08:40:04.61	72.83	5.22	
2025-01-08 08:40:04.81	72.80	5.23	
2025-01-08 08:40:05.02	72.77	5.24	
2025-01-08 08:40:05.22	72.75	5.25	
2025-01-08 08:40:05.43	72.72	5.26	
2025-01-08 08:40:05.63	72.69	5.27	
2025-01-08 08:40:05.84	72.66	5.28	
2025-01-08 08:40:06.04	72.63	5.29	
2025-01-08 08:40:06.25	72.61	5.30	
2025-01-08 08:40:06.46	72.58	5.31	
2025-01-08 08:40:06.66	72.55	5.32	
2025-01-08 08:40:06.87	72.52	5.33	
2025-01-08 08:40:07.07	72.49	5.34	
2025-01-08 08:40:07.28	72.47	5.35	
2025-01-08 08:40:07.48	72.44	5.36	
2025-01-08 08:40:07.69	72.41	5.37	
2025-01-08 08:40:07.90	72.38	5.38	
2025-01-08 08:40:08.10	72.35	5.38	
2025-01-08 08:40:08.31	72.33	5.39	
2025-01-08 08:40:08.51	72.30	5.40	
2025-01-08 08:40:08.73	72.27	5.41	
2025-01-08 08:40:08.94	72.24	5.42	
2025-01-08 08:40:09.14	72.21	5.43	
2025-01-08 08:40:09.35	72.18	5.44	
2025-01-08 08:40:09.56	72.15	5.45	
2025-01-08 08:40:09.76	72.13	5.46	
2025-01-08 08:40:09.97	72.10	5.47	
2025-01-08 08:40:10.17	72.07	5.48	
2025-01-08 08:40:10.38	72.04	5.49	
2025-01-08 08:40:10.58	72.01	5.50	
2025-01-08 08:40:10.78	71.99	5.51	
2025-01-08 08:40:10.99	71.96	5.52	
2025-01-08 08:40:11.20	71.93	5.53	
2025-01-08 08:40:11.40	71.90	5.54	
2025-01-08 08:40:11.61	71.87	5.55	
2025-01-08 08:40:11.81	71.84	5.56	
2025-01-08 08:40:12.01	71.82	5.57	
2025-01-08 08:40:12.22	71.79	5.58	
2025-01-08 08:40:12.43	71.76	5.59	
2025-01-08 08:40:12.63	71.73	5.59	
2025-01-08 08:40:12.84	71.70	5.60	
2025-01-08 08:40:13.05	71.67	5.61	
2025-01-08 08:40:13.26	71.64	5.62	
2025-01-08 08:40:13.47	71.61	5.63	
2025-01-08 08:40:13.67	71.59	5.64	
2025-01-08 08:40:13.88	71.56	5.65	
2025-01-08 08:40:14.08	71.53	5.66	
2025-01-08 08:40:14.29	71.50	5.67	
2025-01-08 08:40:14.49	71.47	5.68	
2025-01-08 08:40:14.70	71.44	5.69	
2025-01-08 08:40:14.91	71.41	5.70	
2025-01-08 08:40:15.11	71.39	5.71	
2025-01-08 08:40:15.32	71.36	5.72	
2025-01-08 08:40:15.52	71.33	5.73	
2025-01-08 08:40:15.73	71.30	5.74	
2025-01-08 08:40:15.93	71.27	5.75	
2025-01-08 08:40:16.14	71.24	5.76	
2025-01-08 08:40:16.34	71.21	5.77	
2025-01-08 08:40:16.55	71.18	5.78	
2025-01-08 08:40:16.76	71.15	5.79	
2025-01-08 08:40:16.96	71.13	5.80	
2025-01-08 08:40:17.17	71.10	5.80	
2025-01-08 08:40:17.37	71.07	5.81	
2025-01-08 08:40:17.58	71.04	5.82	
2025-01-08 08:40:17.78	71.01	5.83	
2025-01-08 08:40:17.99	70.98	5.84	
2025-01-08 08:40:18.19	70.95	5.85	
2025-01-08 08:40:18.40	70.92	5.86	
2025-01-08 08:40:18.60	70.89	5.87	
2025-01-08 08:40:18.81	70.86	5.88	
2025-01-08 08:40:19.01	70.84	5.89	
2025-01-08 08:40:19.22	70.81	5.90	
2025-01-08 08:40:19.44	70.77	5.91	
2025-01-08 08:40:19.64	70.75	5.92	
2025-01-08 08:40:19.85	70.72	5.93	
2025-01-08 08:40:20.05	70.69	5.94	
2025-01-08 08:40:20.26	70.66	5.95	
2025-01-08 08:40:20.46	70.63	5.96	
2025-01-08 08:40:20.67	70.60	5.97	
2025-01-08 08:40:20.88	70.57	5.98	
2025-01-08 08:40:21.08	70.54	5.98	
2025-01-08 08:40:21.29	70.51	5.99	
2025-01-08 08:40:21.49	70.48	6.00	
2025-01-08 08:40:21.70	70.45	6.01	
2025-01-08 08:40:21.90	70.42	6.02	
2025-01-08 08:40:22.11	70.39	6.03	
2025-01-08 08:40:22.31	70.37	6.04	
2025-01-08 08:40:22.51	70.34	6.05	
2025-01-08 08:40:22.72	70.31	6.06	
2025-01-08 08:40:22.93	70.28	6.07	
2025-01-08 08:40:23.13	70.25	6.08	
2025-01-08 08:40:23.34	70.22	6.09	
2025-01-08 08:40:23.54	70.19	6.10	
2025-01-08 08:40:23.75	70.16	6.11	
2025-01-08 08:40:23.95	70.13	6.12	
2025-01-08 08:40:24.16	70.10	6.13	
2025-01-08 08:40:24.37	70.07	6.13	
2025-01-08 08:40:24.57	70.04	6.14	
2025-01-08 08:40:24.78	70.01	6.15	
2025-01-08 08:40:24.98	69.98	6.16	
2025-01-08 08:40:25.19	69.95	6.17	
2025-01-08 08:40:25.39	69.92	6.18	
2025-01-08 08:40:25.60	69.89	6.19	
2025-01-08 08:40:25.80	69.86	6.20	
2025-01-08 08:40:26.01	69.83	6.21	
2025-01-08 08:40:26.22	69.80	6.22	
2025-01-08 08:40:26.42	69.77	6.23	
2025-01-08 08:40:26.63	69.74	6.24	
2025-01-08 08:40:26.83	69.71	6.25	
2025-01-08 08:40:27.04	69.68	6.26	
2025-01-08 08:40:27.24	69.65	6.27	
2025-01-08 08:40:27.45	69.62	6.27	
2025-01-08 08:40:27.65	69.59	6.28	
2025-01-08 08:40:27.86	69.56	6.29	
2025-01-08 08:40:28.06	69.53	6.30	
2025-01-08 08:40:28.27	69.50	6.31	
2025-01-08 08:40:28.48	69.47	6.32	
2025-01-08 08:40:28.68	69.44	6.33	
2025-01-08 08:40:28.89	69.41	6.34	
2025-01-08 08:40:29.09	69.38	6.35	
2025-01-08 08:40:29.30	69.35	6.36	
2025-01-08 08:40:29.50	69.32	6.37	
2025-01-08 08:40:29.71	69.29	6.38	
2025-01-08 08:40:29.91	69.26	6.39	
2025-01-08 08:40:30.11	69.23	6.40	
2025-01-08 08:40:30.32	69.20	6.40	
2025-01-08 08:40:30.53	69.17	6.41	
2025-01-08 08:40:30.73	69.14	6.42	
2025-01-08 08:40:30.93	69.11	6.43	
2025-01-08 08:40:31.14	69.08	6.44	
2025-01-08 08:40:31.34	69.05	6.45	
2025-01-08 08:40:31.55	69.02	6.46	
2025-01-08 08:40:31.76	68.99	6.47	
2025-01-08 08:40:31.96	68.96	6.48	
2025-01-08 08:40:32.17	68.93	6.49	
2025-01-08 08:40:32.37	68.90	6.50	
2025-01-08 08:40:32.58	68.86	6.51	
2025-01-08 08:40:32.78	68.84	6.52	
2025-01-08 08:40:32.99	68.80	6.53	
2025-01-08 08:40:33.19	68.77	6.53	
2025-01-08 08:40:33.40	68.74	6.54	
2025-01-08 08:40:33.60	68.71	6.55	
2025-01-08 08:40:33.81	68.68	6.56	
2025-01-08 08:40:34.01	68.65	6.57	
2025-01-08 08:40:34.22	68.62	6.58	
2025-01-08 08:40:34.42	68.59	6.59	
2025-01-08 08:40:34.63	68.56	6.60	
2025-01-08 08:40:34.83	68.53	6.61	
2025-01-08 08:40:35.04	68.50	6.62	
2025-01-08 08:40:35.24	68.47	6.63	
2025-01-08 08:40:35.44	68.44	6.64	
2025-01-08 08:40:35.65	68.41	6.64	
2025-01-08 08:40:35.85	68.38	6.65	
2025-01-08 08:40:36.06	68.34	6.66	
2025-01-08 08:40:36.27	68.31	6.67	
2025-01-08 08:40:36.47	68.28	6.68	
2025-01-08 08:40:36.68	68.25	6.69	
2025-01-08 08:40:36.89	68.22	6.70	
2025-01-08 08:40:37.10	68.19	6.71	
2025-01-08 08:40:37.30	68.16	6.72	
2025-01-08 08:40:37.51	68.13	6.73	
2025-01-08 08:40:37.71	68.10	6.74	
2025-01-08 08:40:37.92	68.06	6.75	
2025-01-08 08:40:38.12	68.03	6.75	
2025-01-08 08:40:38.33	68.00	6.76	
2025-01-08 08:40:38.54	67.97	6.77	
2025-01-08 08:40:38.74	67.94	6.78	
2025-01-08 08:40:38.95	67.91	6.79	
2025-01-08 08:40:39.15	67.88	6.80	
2025-01-08 08:40:39.36	67.85	6.81	
2025-01-08 08:40:39.56	67.82	6.82	
2025-01-08 08:40:39.77	67.78	6.83	
2025-01-08 08:40:39.97	67.75	6.84	
2025-01-08 08:40:40.18	67.72	6.85	
2025-01-08 08:40:40.38	67.69	6.85	
2025-01-08 08:40:40.59	67.66	6.86	
2025-01-08 08:40:40.81	67.62	6.87	
2025-01-08 08:40:41.01	67.59	6.88	
2025-01-08 08:40:41.22	67.56	6.89	
2025-01-08 08:40:41.43	67.53	6.90	
2025-01-08 08:40:41.63	67.50	6.91	
2025-01-08 08:40:41.85	67.47	6.92	
2025-01-08 08:40:42.06	67.43	6.93	
2025-01-08 08:40:42.26	67.40	6.94	
2025-01-08 08:40:42.47	67.37	6.95	
2025-01-08 08:40:42.67	67.34	6.96	
2025-01-08 08:40:42.88	67.31	6.97	
2025-01-08 08:40:43.08	67.28	6.97	
2025-01-08 08:40:43.29	67.24	6.98	
2025-01-08 08:40:43.49	67.21	6.99	
2025-01-08 08:40:43.70	67.18	7.00	
2025-01-08 08:40:43.91	67.15	7.01	
2025-01-08 08:40:44.11	67.12	7.02	
2025-01-08 08:40:44.32	67.08	7.03	
2025-01-08 08:40:44.52	67.05	7.04	
2025-01-08 08:40:44.73	67.02	7.05	
2025-01-08 08:40:44.93	66.99	7.06	
2025-01-08 08:40:45.14	66.96	7.06	
2025-01-08 08:40:45.34	66.93	7.07	
2025-01-08 08:40:45.55	66.89	7.08	
2025-01-08 08:40:45.75	66.86	7.09	
2025-01-08 08:40:45.96	66.83	7.10	
2025-01-08 08:40:46.16	66.80	7.11	
2025-01-08 08:40:46.37	66.77	7.12	
2025-01-08 08:40:46.57	66.74	7.13	
2025-01-08 08:40:46.78	66.70	7.14	
2025-01-08 08:40:46.99	66.67	7.15	
2025-01-08 08:40:47.19	66.64	7.15	
2025-01-08 08:40:47.39	66.61	7.16	
2025-01-08 08:40:47.60	66.57	7.17	
2025-01-08 08:40:47.81	66.54	7.18	
2025-01-08 08:40:48.01	66.51	7.19	
2025-01-08 08:40:48.21	66.48	7.20	
2025-01-08 08:40:48.42	66.45	7.21	
2025-01-08 08:40:48.62	66.42	7.22	
2025-01-08 08:40:48.83	66.38	7.23	
2025-01-08 08:40:49.03	66.35	7.23	
2025-01-08 08:40:49.24	66.32	7.24	
2025-01-08 08:40:49.44	66.29	7.25	
2025-01-08 08:40:49.65	66.25	7.26	
2025-01-08 08:40:49.85	66.22	7.27	
2025-01-08 08:40:50.06	66.19	7.28	
2025-01-08 08:40:50.26	66.16	7.29	
2025-01-08 08:40:50.48	66.12	7.30	
2025-01-08 08:40:50.69	66.09	7.31	
2025-01-08 08:40:50.89	66.06	7.31	
2025-01-08 08:40:51.10	66.02	7.32	
2025-01-08 08:40:51.30	65.99	7.33	
2025-01-08 08:40:51.51	65.96	7.34	
2025-01-08 08:40:51.71	65.93	7.35	
2025-01-08 08:40:51.92	65.89	7.36	
2025-01-08 08:40:52.12	65.86	7.37	
2025-01-08 08:40:52.33	65.83	7.38	
2025-01-08 08:40:52.53	65.80	7.39	
2025-01-08 08:40:52.73	65.77	7.39	
2025-01-08 08:40:52.94	65.73	7.40	
2025-01-08 08:40:53.15	65.70	7.41	
2025-01-08 08:40:53.35	65.67	7.42	
2025-01-08 08:40:53.56	65.63	7.43	
2025-01-08 08:40:53.76	65.60	7.44	
2025-01-08 08:40:53.97	65.57	7.45	
2025-01-08 08:40:54.18	65.54	7.46	
2025-01-08 08:40:54.38	65.50	7.47	
2025-01-08 08:40:54.59	65.47	7.47	
2025-01-08 08:40:54.79	65.44	7.48	
2025-01-08 08:40:55.00	65.40	7.49	
2025-01-08 08:40:55.20	65.37	7.50	
2025-01-08 08:40:55.41	65.34	7.51	
2025-01-08 08:40:55.61	65.31	7.52	
2025-01-08 08:40:55.82	65.27	7.53	
2025-01-08 08:40:56.02	65.24	7.54	
2025-01-08 08:40:56.22	65.21	7.54	
2025-01-08 08:40:56.43	65.17	7.55	
2025-01-08 08:40:56.63	65.14	7.56	
2025-01-08 08:40:56.85	65.11	7.57	
2025-01-08 08:40:57.06	65.07	7.58	
2025-01-08 08:40:57.26	65.04	7.59	
2025-01-08 08:40:57.47	65.01	7.60	
2025-01-08 08:40:57.67	64.97	7.61	
2025-01-08 08:40:57.87	64.94	7.61	
2025-01-08 08:40:58.08	64.91	7.62	
2025-01-08 08:40:58.29	64.87	7.63	
2025-01-08 08:40:58.49	64.84	7.64	
2025-01-08 08:40:58.70	64.81	7.65	
2025-01-08 08:40:58.90	64.78	7.66	
2025-01-08 08:40:59.11	64.74	7.67	
2025-01-08 08:40:59.32	64.71	7.68	
2025-01-08 08:40:59.52	64.68	7.68	
2025-01-08 08:40:59.73	64.64	7.69	
2025-01-08 08:40:59.93	64.61	7.70	
2025-01-08 08:41:00.13	64.58	7.71	
2025-01-08 08:41:00.34	64.54	7.72	
2025-01-08 08:41:00.55	64.51	7.73	
2025-01-08 08:41:00.75	64.47	7.74	
2025-01-08 08:41:00.96	64.44	7.74	
2025-01-08 08:41:01.16	64.41	7.75	
2025-01-08 08:41:01.37	64.37	7.76	
2025-01-08 08:41:01.57	64.34	7.77	
2025-01-08 08:41:01.78	64.31	7.78	
2025-01-08 08:41:01.98	64.27	7.79	
2025-01-08 08:41:02.19	64.24	7.80	
2025-01-08 08:41:02.39	64.21	7.80	
2025-01-08 08:41:02.60	64.17	7.81	
2025-01-08 08:41:02.80	64.14	7.82	
2025-01-08 08:41:03.01	64.10	7.83	
2025-01-08 08:41:03.21	64.07	7.84	
2025-01-08 08:41:03.42	64.04	7.85	
2025-01-08 08:41:03.63	64.00	7.86	
2025-01-08 08:41:03.83	63.97	7.86	
2025-01-08 08:41:04.04	63.94	7.87	
2025-01-08 08:41:04.24	63.90	7.88	
2025-01-08 08:41:04.45	63.87	7.89	
2025-01-08 08:41:04.65	63.83	7.90	
2025-01-08 08:41:04.86	63.80	7.91	
2025-01-08 08:41:05.07	63.77	7.92	
2025-01-08 08:41:05.27	63.73	7.92	
2025-01-08 08:41:05.47	63.70	7.93	
2025-01-08 08:41:05.68	63.66	7.94	
2025-01-08 08:41:05.89	63.63	7.95	
2025-01-08 08:41:06.09	63.60	7.96	
2025-01-08 08:41:06.30	63.56	7.97	
2025-01-08 08:41:06.50	63.53	7.97	
2025-01-08 08:41:06.71	63.49	7.98	
2025-01-08 08:41:06.91	63.46	7.99	
2025-01-08 08:41:07.12	63.43	8.00	
2025-01-08 08:41:07.33	63.39	8.01	
2025-01-08 08:41:07.53	63.36	8.02	
2025-01-08 08:41:07.74	63.32	8.03	
2025-01-08 08:41:07.94	63.29	8.03	
2025-01-08 08:41:08.15	63.25	8.04	
2025-01-08 08:41:08.35	63.22	8.05	
2025-01-08 08:41:08.56	63.19	8.06	
2025-01-08 08:41:08.76	63.15	8.07	
2025-01-08 08:41:08.97	63.12	8.08	
2025-01-08 08:41:09.18	63.08	8.08	
2025-01-08 08:41:09.38	63.05	8.09	
2025-01-08 08:41:09.59	63.01	8.10	
2025-01-08 08:41:09.79	62.98	8.11	
2025-01-08 08:41:10.00	62.94	8.12	
2025-01-08 08:41:10.20	62.91	8.13	
2025-01-08 08:41:10.41	62.88	8.14	
2025-01-08 08:41:10.61	62.84	8.14	
2025-01-08 08:41:10.82	62.81	8.15	
2025-01-08 08:41:11.02	62.77	8.16	
2025-01-08 08:41:11.23	62.74	8.17	
2025-01-08 08:41:11.44	62.70	8.18	
2025-01-08 08:41:11.64	62.67	8.18	
2025-01-08 08:41:11.85	62.63	8.19	
2025-01-08 08:41:12.05	62.60	8.20	
2025-01-08 08:41:12.26	62.56	8.21	
2025-01-08 08:41:12.46	62.53	8.22	
2025-01-08 08:41:12.67	62.49	8.23	
2025-01-08 08:41:12.87	62.46	8.23	
2025-01-08 08:41:13.07	62.43	8.24	
2025-01-08 08:41:13.28	62.39	8.25	
2025-01-08 08:41:13.49	62.36	8.26	
2025-01-08 08:41:13.69	62.32	8.27	
2025-01-08 08:41:13.90	62.29	8.28	
2025-01-08 08:41:14.10	62.25	8.28	
2025-01-08 08:41:14.31	62.22	8.29	
2025-01-08 08:41:14.51	62.18	8.30	
2025-01-08 08:41:14.72	62.15	8.31	
2025-01-08 08:41:14.92	62.11	8.32	
2025-01-08 08:41:15.13	62.08	8.33	
2025-01-08 08:41:15.33	62.04	8.33	
2025-01-08 08:41:15.54	62.01	8.34	
2025-01-08 08:41:15.75	61.97	8.35	
2025-01-08 08:41:15.95	61.94	8.36	
2025-01-08 08:41:16.16	61.90	8.37	
2025-01-08 08:41:16.36	61.87	8.37	
2025-01-08 08:41:16.57	61.83	8.38	
2025-01-08 08:41:16.77	61.80	8.39	
2025-01-08 08:41:16.98	61.76	8.40	
2025-01-08 08:41:17.18	61.73	8.41	
2025-01-08 08:41:17.39	61.69	8.42	
2025-01-08 08:41:17.59	61.66	8.42	
2025-01-08 08:41:17.80	61.62	8.43	
2025-01-08 08:41:18.01	61.58	8.44	
2025-01-08 08:41:18.22	61.55	8.45	
2025-01-08 08:41:18.42	61.51	8.46	
2025-01-08 08:41:18.63	61.48	8.46	
2025-01-08 08:41:18.83	61.44	8.47	
2025-01-08 08:41:19.04	61.41	8.48	
2025-01-08 08:41:19.24	61.37	8.49	
2025-01-08 08:41:19.45	61.33	8.50	
2025-01-08 08:41:19.65	61.30	8.50	
2025-01-08 08:41:19.86	61.26	8.51	
2025-01-08 08:41:20.06	61.23	8.52	
2025-01-08 08:41:20.27	61.19	8.53	
2025-01-08 08:41:20.47	61.16	8.54	
2025-01-08 08:41:20.68	61.12	8.54	
2025-01-08 08:41:20.88	61.09	8.55	
2025-01-08 08:41:21.09	61.05	8.56	
2025-01-08 08:41:21.29	61.02	8.57	
2025-01-08 08:41:21.50	60.98	8.58	
2025-01-08 08:41:21.70	60.95	8.58	
2025-01-08 08:41:21.91	60.91	8.59	
2025-01-08 08:41:22.11	60.87	8.60	
2025-01-08 08:41:22.32	60.84	8.61	
2025-01-08 08:41:22.52	60.80	8.62	
2025-01-08 08:41:22.73	60.77	8.62	
2025-01-08 08:41:22.93	60.73	8.63	
2025-01-08 08:41:23.14	60.69	8.64	
2025-01-08 08:41:23.35	60.66	8.65	
2025-01-08 08:41:23.55	60.62	8.66	
2025-01-08 08:41:23.76	60.59	8.66	
2025-01-08 08:41:23.96	60.55	8.67	
2025-01-08 08:41:24.16	60.52	8.68	
2025-01-08 08:41:24.37	60.48	8.69	
2025-01-08 08:41:24.57	60.44	8.70	
2025-01-08 08:41:24.77	60.41	8.70	
2025-01-08 08:41:24.98	60.37	8.71	
2025-01-08 08:41:25.18	60.34	8.72	
2025-01-08 08:41:25.39	60.30	8.73	
2025-01-08 08:41:25.59	60.27	8.73	
2025-01-08 08:41:25.79	60.23	8.74	
2025-01-08 08:41:26.00	60.19	8.75	
2025-01-08 08:41:26.21	60.16	8.76	
2025-01-08 08:41:26.41	60.12	8.77	
2025-01-08 08:41:26.61	60.09	8.77	
2025-01-08 08:41:26.82	60.05	8.78	
2025-01-08 08:41:27.03	60.01	8.79	
2025-01-08 08:41:27.23	59.98	8.80	
2025-01-08 08:41:27.44	59.94	8.81	
2025-01-08 08:41:27.64	59.90	8.81	
2025-01-08 08:41:27.85	59.87	8.82	
2025-01-08 08:41:28.06	59.83	8.83	
2025-01-08 08:41:28.26	59.79	8.84	
2025-01-08 08:41:28.47	59.76	8.84	
2025-01-08 08:41:28.67	59.72	8.85	
2025-01-08 08:41:28.88	59.68	8.86	
2025-01-08 08:41:29.08	59.65	8.87	
2025-01-08 08:41:29.29	59.61	8.88	
2025-01-08 08:41:29.49	59.58	8.88	
2025-01-08 08:41:29.70	59.54	8.89	
2025-01-08 08:41:29.90	59.50	8.90	
2025-01-08 08:41:30.11	59.47	8.91	
2025-01-08 08:41:30.31	59.43	8.91	
2025-01-08 08:41:30.52	59.39	8.92	
2025-01-08 08:41:30.73	59.35	8.93	
2025-01-08 08:41:30.93	59.32	8.94	
2025-01-08 08:41:31.13	59.28	8.94	
2025-01-08 08:41:31.34	59.25	8.95	
2025-01-08 08:41:31.54	59.21	8.96	
2025-01-08 08:41:31.75	59.17	8.97	
2025-01-08 08:41:31.95	59.14	8.97	
2025-01-08 08:41:32.16	59.10	8.98	
2025-01-08 08:41:32.36	59.06	8.99	
2025-01-08 08:41:32.57	59.03	9.00	
2025-01-08 08:41:32.78	58.99	9.01	
2025-01-08 08:41:32.98	58.95	9.01	
2025-01-08 08:41:33.18	58.92	9.02	
2025-01-08 08:41:33.39	58.88	9.03	
2025-01-08 08:41:33.60	58.84	9.04	
2025-01-08 08:41:33.80	58.80	9.04	
2025-01-08 08:41:34.01	58.77	9.05	
2025-01-08 08:41:34.21	58.73	9.06	
2025-01-08 08:41:34.42	58.69	9.07	
2025-01-08 08:41:34.62	58.66	9.07	
2025-01-08 08:41:34.83	58.62	9.08	
2025-01-08 08:41:35.03	58.58	9.09	
2025-01-08 08:41:35.24	58.55	9.10	
2025-01-08 08:41:35.44	58.51	9.10	
2025-01-08 08:41:35.65	58.47	9.11	
2025-01-08 08:41:35.86	58.43	9.12	
2025-01-08 08:41:36.06	58.40	9.13	
2025-01-08 08:41:36.28	58.36	9.13	
2025-01-08 08:41:36.48	58.32	9.14	
2025-01-08 08:41:36.69	58.28	9.15	
2025-01-08 08:41:36.90	58.24	9.16	
2025-01-08 08:41:37.10	58.21	9.16	
2025-01-08 08:41:37.31	58.17	9.17	
2025-01-08 08:41:37.51	58.13	9.18	
2025-01-08 08:41:37.72	58.10	9.19	
2025-01-08 08:41:37.92	58.06	9.19	
2025-01-08 08:41:38.13	58.02	9.20	
2025-01-08 08:41:38.33	57.98	9.21	
2025-01-08 08:41:38.54	57.95	9.21	
2025-01-08 08:41:38.74	57.91	9.22	
2025-01-08 08:41:38.95	57.87	9.23	
2025-01-08 08:41:39.16	57.83	9.24	
2025-01-08 08:41:39.36	57.80	9.24	
2025-01-08 08:41:39.57	57.76	9.25	
2025-01-08 08:41:39.77	57.72	9.26	
2025-01-08 08:41:39.98	57.68	9.27	
2025-01-08 08:41:40.19	57.65	9.27	
2025-01-08 08:41:40.39	57.61	9.28	
2025-01-08 08:41:40.59	57.57	9.29	
2025-01-08 08:41:40.80	57.53	9.30	
2025-01-08 08:41:41.00	57.50	9.30	
2025-01-08 08:41:41.21	57.46	9.31	
2025-01-08 08:41:41.42	57.42	9.32	
2025-01-08 08:41:41.62	57.38	9.32	
2025-01-08 08:41:41.83	57.34	9.33	
2025-01-08 08:41:42.03	57.31	9.34	
2025-01-08 08:41:42.24	57.27	9.35	
2025-01-08 08:41:42.44	57.23	9.35	
2025-01-08 08:41:42.65	57.19	9.36	
2025-01-08 08:41:42.85	57.16	9.37	
2025-01-08 08:41:43.06	57.12	9.37	
2025-01-08 08:41:43.27	57.08	9.38	
2025-01-08 08:41:43.47	57.04	9.39	
2025-01-08 08:41:43.67	57.01	9.40	
2025-01-08 08:41:43.88	56.97	9.40	
2025-01-08 08:41:44.08	56.93	9.41	
2025-01-08 08:41:44.29	56.89	9.42	
2025-01-08 08:41:44.49	56.85	9.42	
2025-01-08 08:41:44.70	56.81	9.43	
2025-01-08 08:41:44.90	56.78	9.44	
2025-01-08 08:41:45.11	56.74	9.45	
2025-01-08 08:41:45.31	56.70	9.45	
2025-01-08 08:41:45.52	56.66	9.46	
2025-01-08 08:41:45.73	56.62	9.47	
2025-01-08 08:41:45.93	56.59	9.47	
2025-01-08 08:41:46.13	56.55	9.48	
2025-01-08 08:41:46.34	56.51	9.49	
2025-01-08 08:41:46.55	56.47	9.49	
2025-01-08 08:41:46.75	56.43	9.50	
2025-01-08 08:41:46.96	56.39	9.51	
2025-01-08 08:41:47.16	56.36	9.52	
2025-01-08 08:41:47.37	56.32	9.52	
2025-01-08 08:41:47.57	56.28	9.53	
2025-01-08 08:41:47.78	56.24	9.54	
2025-01-08 08:41:48.00	56.20	9.54	
2025-01-08 08:41:48.20	56.16	9.55	
2025-01-08 08:41:48.41	56.12	9.56	
2025-01-08 08:41:48.61	56.09	9.56	
2025-01-08 08:41:48.82	56.05	9.57	
2025-01-08 08:41:49.02	56.01	9.58	
2025-01-08 08:41:49.23	55.97	9.59	
2025-01-08 08:41:49.44	55.93	9.59	
2025-01-08 08:41:49.64	55.89	9.60	
2025-01-08 08:41:49.85	55.85	9.61	
2025-01-08 08:41:50.05	55.82	9.61	
2025-01-08 08:41:50.26	55.78	9.62	
2025-01-08 08:41:50.46	55.74	9.63	
2025-01-08 08:41:50.67	55.70	9.63	
2025-01-08 08:41:50.87	55.66	9.64	
2025-01-08 08:41:51.08	55.62	9.65	
2025-01-08 08:41:51.28	55.59	9.65	
2025-01-08 08:41:51.49	55.55	9.66	
2025-01-08 08:41:51.70	55.51	9.67	
2025-01-08 08:41:51.90	55.47	9.67	
2025-01-08 08:41:52.11	55.43	9.68	
2025-01-08 08:41:52.31	55.39	9.69	
2025-01-08 08:41:52.52	55.35	9.69	
2025-01-08 08:41:52.72	55.31	9.70	
2025-01-08 08:41:52.93	55.27	9.71	
2025-01-08 08:41:53.13	55.24	9.71	
2025-01-08 08:41:53.35	55.20	9.72	
2025-01-08 08:41:53.56	55.16	9.73	
2025-01-08 08:41:53.76	55.12	9.73	
2025-01-08 08:41:53.97	55.08	9.74	
2025-01-08 08:41:54.18	55.04	9.75	
2025-01-08 08:41:54.38	55.00	9.76	
2025-01-08 08:41:54.59	54.96	9.76	
2025-01-08 08:41:54.79	54.92	9.77	
2025-01-08 08:41:55.00	54.88	9.78	
2025-01-08 08:41:55.20	54.84	9.78	
2025-01-08 08:41:55.41	54.80	9.79	
2025-01-08 08:41:55.61	54.77	9.79	
2025-01-08 08:41:55.82	54.73	9.80	
2025-01-08 08:41:56.02	54.69	9.81	
2025-01-08 08:41:56.23	54.65	9.81	
2025-01-08 08:41:56.43	54.61	9.82	
2025-01-08 08:41:56.64	54.57	9.83	
2025-01-08 08:41:56.84	54.53	9.83	
2025-01-08 08:41:57.05	54.49	9.84	
2025-01-08 08:41:57.26	54.45	9.85	
2025-01-08 08:41:57.46	54.41	9.85	
2025-01-08 08:41:57.67	54.37	9.86	
2025-01-08 08:41:57.87	54.34	9.87	
2025-01-08 08:41:58.08	54.29	9.87	
2025-01-08 08:41:58.28	54.26	9.88	
2025-01-08 08:41:58.49	54.22	9.89	
2025-01-08 08:41:58.69	54.18	9.89	
2025-01-08 08:41:58.90	54.14	9.90	
2025-01-08 08:41:59.10	54.10	9.90	
2025-01-08 08:41:59.31	54.06	9.91	
2025-01-08 08:41:59.51	54.02	9.92	
2025-01-08 08:41:59.72	53.98	9.92	
2025-01-08 08:41:59.92	53.94	9.93	
2025-01-08 08:42:00.13	53.90	9.94	
2025-01-08 08:42:00.33	53.86	9.94	
2025-01-08 08:42:00.54	53.82	9.95	
2025-01-08 08:42:00.74	53.78	9.96	
2025-01-08 08:42:00.95	53.74	9.96	
2025-01-08 08:42:01.15	53.71	9.97	
2025-01-08 08:42:01.36	53.66	9.97	
2025-01-08 08:42:01.56	53.63	9.98	
2025-01-08 08:42:01.77	53.59	9.99	
2025-01-08 08:42:01.97	53.55	9.99	
2025-01-08 08:42:02.18	53.51	10.00	
2025-01-08 08:42:02.38	53.47	10.01	
2025-01-08 08:42:02.59	53.43	10.01	
2025-01-08 08:42:02.80	53.39	10.02	
2025-01-08 08:42:03.00	53.35	10.02	
2025-01-08 08:42:03.20	53.31	10.03	
2025-01-08 08:42:03.41	53.27	10.04	
2025-01-08 08:42:03.61	53.23	10.04	
2025-01-08 08:42:03.82	53.19	10.05	
2025-01-08 08:42:04.04	53.15	10.06	
2025-01-08 08:42:04.24	53.11	10.06	
2025-01-08 08:42:04.45	53.07	10.07	
2025-01-08 08:42:04.65	53.03	10.07	
2025-01-08 08:42:04.86	52.99	10.08	
2025-01-08 08:42:05.06	52.95	10.09	
2025-01-08 08:42:05.27	52.91	10.09	
2025-01-08 08:42:05.47	52.87	10.10	
2025-01-08 08:42:05.68	52.83	10.10	
2025-01-08 08:42:05.88	52.79	10.11	
2025-01-08 08:42:06.09	52.75	10.12	
2025-01-08 08:42:06.29	52.71	10.12	
2025-01-08 08:42:06.50	52.67	10.13	
2025-01-08 08:42:06.70	52.63	10.13	
2025-01-08 08:42:06.90	52.59	10.14	
2025-01-08 08:42:07.11	52.55	10.15	
2025-01-08 08:42:07.32	52.51	10.15	
2025-01-08 08:42:07.52	52.47	10.16	
2025-01-08 08:42:07.73	52.43	10.16	
2025-01-08 08:42:07.93	52.39	10.17	
2025-01-08 08:42:08.14	52.35	10.18	
2025-01-08 08:42:08.34	52.31	10.18	
2025-01-08 08:42:08.55	52.27	10.19	
2025-01-08 08:42:08.75	52.23	10.19	
2025-01-08 08:42:08.96	52.19	10.20	
2025-01-08 08:42:09.16	52.15	10.21	
2025-01-08 08:42:09.38	52.10	10.21	
2025-01-08 08:42:09.59	52.06	10.22	
2025-01-08 08:42:09.79	52.02	10.22	
2025-01-08 08:42:10.00	51.98	10.23	
2025-01-08 08:42:10.21	51.94	10.24	
2025-01-08 08:42:10.41	51.90	10.24	
2025-01-08 08:42:10.61	51.86	10.25	
2025-01-08 08:42:10.82	51.82	10.25	
2025-01-08 08:42:11.03	51.78	10.26	
2025-01-08 08:42:11.23	51.74	10.26	
2025-01-08 08:42:11.44	51.70	10.27	
2025-01-08 08:42:11.64	51.66	10.28	
2025-01-08 08:42:11.85	51.62	10.28	
2025-01-08 08:42:12.05	51.58	10.29	
2025-01-08 08:42:12.26	51.54	10.29	
2025-01-08 08:42:12.46	51.50	10.30	
2025-01-08 08:42:12.67	51.46	10.30	
2025-01-08 08:42:12.87	51.42	10.31	
2025-01-08 08:42:13.08	51.38	10.32	
2025-01-08 08:42:13.28	51.34	10.32	
2025-01-08 08:42:13.49	51.29	10.33	
2025-01-08 08:42:13.69	51.25	10.33	
2025-01-08 08:42:13.90	51.21	10.34	
2025-01-08 08:42:14.10	51.17	10.34	
2025-01-08 08:42:14.31	51.13	10.35	
2025-01-08 08:42:14.51	51.09	10.35	
2025-01-08 08:42:14.71	51.05	10.36	
2025-01-08 08:42:14.92	51.01	10.37	
2025-01-08 08:42:15.13	50.97	10.37	
2025-01-08 08:42:15.33	50.93	10.38	
2025-01-08 08:42:15.54	50.89	10.38	
2025-01-08 08:42:15.74	50.85	10.39	
2025-01-08 08:42:15.95	50.81	10.39	
2025-01-08 08:42:16.15	50.77	10.40	
2025-01-08 08:42:16.35	50.73	10.40	
2025-01-08 08:42:16.56	50.68	10.41	
2025-01-08 08:42:16.76	50.64	10.42	
2025-01-08 08:42:16.97	50.60	10.42	
2025-01-08 08:42:17.18	50.56	10.43	
2025-01-08 08:42:17.38	50.52	10.43	
2025-01-08 08:42:17.59	50.48	10.44	
2025-01-08 08:42:17.79	50.44	10.44	
2025-01-08 08:42:18.00	50.40	10.45	
2025-01-08 08:42:18.21	50.36	10.45	
2025-01-08 08:42:18.41	50.32	10.46	
2025-01-08 08:42:18.62	50.27	10.46	
2025-01-08 08:42:18.82	50.23	10.47	
2025-01-08 08:42:19.03	50.19	10.47	
2025-01-08 08:42:19.23	50.15	10.48	
2025-01-08 08:42:19.44	50.11	10.49	
2025-01-08 08:42:19.64	50.07	10.49	
2025-01-08 08:42:19.85	50.03	10.50	
2025-01-08 08:42:20.07	49.98	10.50	
2025-01-08 08:42:20.27	49.94	10.51	
2025-01-08 08:42:20.48	49.90	10.51	
2025-01-08 08:42:20.69	49.86	10.52	
2025-01-08 08:42:20.89	49.82	10.52	
2025-01-08 08:42:21.10	49.78	10.53	
2025-01-08 08:42:21.30	49.74	10.53	
2025-01-08 08:42:21.51	49.69	10.54	
2025-01-08 08:42:21.71	49.65	10.54	
2025-01-08 08:42:21.92	49.61	10.55	
2025-01-08 08:42:22.12	49.57	10.55	
2025-01-08 08:42:22.33	49.53	10.56	
2025-01-08 08:42:22.53	49.49	10.56	
2025-01-08 08:42:22.74	49.45	10.57	
2025-01-08 08:42:22.94	49.41	10.57	
2025-01-08 08:42:23.15	49.36	10.58	
2025-01-08 08:42:23.35	49.32	10.58	
2025-01-08 08:42:23.56	49.28	10.59	
2025-01-08 08:42:23.76	49.24	10.59	
2025-01-08 08:42:23.97	49.20	10.60	
2025-01-08 08:42:24.18	49.16	10.60	
2025-01-08 08:42:24.38	49.12	10.61	
2025-01-08 08:42:24.59	49.07	10.61	
2025-01-08 08:42:24.79	49.03	10.62	
2025-01-08 08:42:25.00	48.99	10.62	
2025-01-08 08:42:25.21	48.95	10.63	
2025-01-08 08:42:25.41	48.91	10.63	
2025-01-08 08:42:25.62	48.86	10.64	
2025-01-08 08:42:25.82	48.82	10.64	
2025-01-08 08:42:26.03	48.78	10.65	
2025-01-08 08:42:26.23	48.74	10.65	
2025-01-08 08:42:26.44	48.70	10.66	
2025-01-08 08:42:26.64	48.66	10.66	
2025-01-08 08:42:26.85	48.61	10.67	
2025-01-08 08:42:27.05	48.57	10.67	
2025-01-08 08:42:27.26	48.53	10.68	
2025-01-08 08:42:27.46	48.49	10.68	
2025-01-08 08:42:27.67	48.45	10.69	
2025-01-08 08:42:27.87	48.41	10.69	
2025-01-08 08:42:28.08	48.36	10.70	
2025-01-08 08:42:28.29	48.32	10.70	
2025-01-08 08:42:28.49	48.28	10.71	
2025-01-08 08:42:28.70	48.24	10.71	
2025-01-08 08:42:28.90	48.20	10.72	
2025-01-08 08:42:29.11	48.16	10.72	
2025-01-08 08:42:29.31	48.11	10.72	
2025-01-08 08:42:29.52	48.07	10.73	
2025-01-08 08:42:29.72	48.03	10.73	
2025-01-08 08:42:29.93	47.99	10.74	
2025-01-08 08:42:30.13	47.95	10.74	
2025-01-08 08:42:30.34	47.90	10.75	
2025-01-08 08:42:30.55	47.86	10.75	
2025-01-08 08:42:30.76	47.82	10.76	
2025-01-08 08:42:30.97	47.78	10.76	
2025-01-08 08:42:31.18	47.73	10.77	
2025-01-08 08:42:31.38	47.69	10.77	
2025-01-08 08:42:31.59	47.65	10.78	
2025-01-08 08:42:31.81	47.60	10.78	
2025-01-08 08:42:32.01	47.56	10.79	
2025-01-08 08:42:32.22	47.52	10.79	
2025-01-08 08:42:32.42	47.48	10.79	
2025-01-08 08:42:32.63	47.44	10.80	
2025-01-08 08:42:32.83	47.39	10.80	
2025-01-08 08:42:33.04	47.35	10.81	
2025-01-08 08:42:33.24	47.31	10.81	
2025-01-08 08:42:33.45	47.27	10.82	
2025-01-08 08:42:33.65	47.23	10.82	
2025-01-08 08:42:33.86	47.18	10.83	
2025-01-08 08:42:34.06	47.14	10.83	
2025-01-08 08:42:34.27	47.10	10.83	
2025-01-08 08:42:34.47	47.06	10.84	
2025-01-08 08:42:34.68	47.01	10.84	
2025-01-08 08:42:34.88	46.97	10.85	
2025-01-08 08:42:35.09	46.93	10.85	
2025-01-08 08:42:35.29	46.89	10.86	
2025-01-08 08:42:35.50	46.85	10.86	
2025-01-08 08:42:35.70	46.81	10.86	
2025-01-08 08:42:35.91	46.76	10.87	
2025-01-08 08:42:36.12	46.72	10.87	
2025-01-08 08:42:36.33	46.68	10.88	
2025-01-08 08:42:36.53	46.63	10.88	
2025-01-08 08:42:36.74	46.59	10.89	
2025-01-08 08:42:36.94	46.55	10.89	
2025-01-08 08:42:37.16	46.50	10.89	
2025-01-08 08:42:37.37	46.46	10.90	
2025-01-08 08:42:37.57	46.42	10.90	
2025-01-08 08:42:37.78	46.38	10.91	
2025-01-08 08:42:37.99	46.33	10.91	
2025-01-08 08:42:38.19	46.29	10.92	
2025-01-08 08:42:38.40	46.25	10.92	
2025-01-08 08:42:38.60	46.21	10.92	
2025-01-08 08:42:38.81	46.16	10.93	
2025-01-08 08:42:39.01	46.12	10.93	
2025-01-08 08:42:39.22	46.08	10.94	
2025-01-08 08:42:39.42	46.04	10.94	
2025-01-08 08:42:39.63	45.99	10.94	
2025-01-08 08:42:39.83	45.95	10.95	
2025-01-08 08:42:40.04	45.91	10.95	
2025-01-08 08:42:40.24	45.87	10.96	
2025-01-08 08:42:40.46	45.82	10.96	
2025-01-08 08:42:40.67	45.78	10.96	
2025-01-08 08:42:40.88	45.73	10.97	
2025-01-08 08:42:41.08	45.69	10.97	
2025-01-08 08:42:41.29	45.65	10.98	
2025-01-08 08:42:41.49	45.61	10.98	
2025-01-08 08:42:41.70	45.56	10.98	
2025-01-08 08:42:41.91	45.52	10.99	
2025-01-08 08:42:42.11	45.48	10.99	
2025-01-08 08:42:42.32	45.43	10.99	
2025-01-08 08:42:42.52	45.39	11.00	
2025-01-08 08:42:42.73	45.35	11.00	
2025-01-08 08:42:42.93	45.31	11.01	
2025-01-08 08:42:43.14	45.26	11.01	
2025-01-08 08:42:43.34	45.22	11.01	
2025-01-08 08:42:43.55	45.18	11.02	
2025-01-08 08:42:43.75	45.14	11.02	
2025-01-08 08:42:43.96	45.09	11.03	
2025-01-08 08:42:44.16	45.05	11.03	
2025-01-08 08:42:44.37	45.01	11.03	
2025-01-08 08:42:44.57	44.97	11.04	
2025-01-08 08:42:44.78	44.92	11.04	
2025-01-08 08:42:44.98	44.88	11.04	
2025-01-08 08:42:45.19	44.84	11.05	
2025-01-08 08:42:45.40	44.79	11.05	
2025-01-08 08:42:45.60	44.75	11.05	
2025-01-08 08:42:45.81	44.71	11.06	
2025-01-08 08:42:46.01	44.67	11.06	
2025-01-08 08:42:46.22	44.62	11.07	
2025-01-08 08:42:46.42	44.58	11.07	
2025-01-08 08:42:46.63	44.54	11.07	
2025-01-08 08:42:46.83	44.49	11.08	
2025-01-08 08:42:47.04	44.45	11.08	
2025-01-08 08:42:47.24	44.41	11.08	
2025-01-08 08:42:47.45	44.36	11.09	
2025-01-08 08:42:47.65	44.32	11.09	
2025-01-08 08:42:47.86	44.28	11.09	
2025-01-08 08:42:48.06	44.24	11.10	
2025-01-08 08:42:48.27	44.19	11.10	
2025-01-08 08:42:48.48	44.15	11.10	
2025-01-08 08:42:48.68	44.11	11.11	
2025-01-08 08:42:48.89	44.06	11.11	
2025-01-08 08:42:49.09	44.02	11.11	
2025-01-08 08:42:49.30	43.98	11.12	
2025-01-08 08:42:49.50	43.93	11.12	
2025-01-08 08:42:49.71	43.89	11.12	
2025-01-08 08:42:49.91	43.85	11.13	
2025-01-08 08:42:50.12	43.80	11.13	
2025-01-08 08:42:50.32	43.76	11.13	
2025-01-08 08:42:50.53	43.72	11.14	
2025-01-08 08:42:50.73	43.68	11.14	
2025-01-08 08:42:50.94	43.63	11.14	
2025-01-08 08:42:51.14	43.59	11.15	
2025-01-08 08:42:51.35	43.55	11.15	
2025-01-08 08:42:51.55	43.50	11.15	
2025-01-08 08:42:51.76	43.46	11.16	
2025-01-08 08:42:51.96	43.42	11.16	
2025-01-08 08:42:52.18	43.37	11.16	
2025-01-08 08:42:52.38	43.33	11.17	
2025-01-08 08:42:52.59	43.28	11.17	
2025-01-08 08:42:52.79	43.24	11.17	
2025-01-08 08:42:53.00	43.20	11.18	
2025-01-08 08:42:53.22	43.15	11.18	
2025-01-08 08:42:53.42	43.11	11.18	
2025-01-08 08:42:53.63	43.07	11.18	
2025-01-08 08:42:53.83	43.02	11.19	
2025-01-08 08:42:54.04	42.98	11.19	
2025-01-08 08:42:54.24	42.94	11.19	
2025-01-08 08:42:54.45	42.89	11.20	
2025-01-08 08:42:54.65	42.85	11.20	
2025-01-08 08:42:54.86	42.81	11.20	
2025-01-08 08:42:55.07	42.76	11.21	
2025-01-08 08:42:55.27	42.72	11.21	
2025-01-08 08:42:55.47	42.68	11.21	
2025-01-08 08:42:55.68	42.63	11.21	
2025-01-08 08:42:55.89	42.59	11.22	
2025-01-08 08:42:56.09	42.55	11.22	
2025-01-08 08:42:56.30	42.50	11.22	
2025-01-08 08:42:56.50	42.46	11.23	
2025-01-08 08:42:56.71	42.42	11.23	
2025-01-08 08:42:56.91	42.37	11.23	
2025-01-08 08:42:57.12	42.33	11.23	
2025-01-08 08:42:57.33	42.28	11.24	
2025-01-08 08:42:57.54	42.24	11.24	
2025-01-08 08:42:57.75	42.20	11.24	
2025-01-08 08:42:57.96	42.15	11.25	
2025-01-08 08:42:58.16	42.11	11.25	
2025-01-08 08:42:58.37	42.06	11.25	
2025-01-08 08:42:58.57	42.02	11.25	
2025-01-08 08:42:58.78	41.98	11.26	
2025-01-08 08:42:58.99	41.93	11.26	
2025-01-08 08:42:59.19	41.89	11.26	
2025-01-08 08:42:59.40	41.85	11.26	
2025-01-08 08:42:59.60	41.80	11.27	
2025-01-08 08:42:59.81	41.76	11.27	
2025-01-08 08:43:00.01	41.72	11.27	
2025-01-08 08:43:00.22	41.67	11.27	
2025-01-08 08:43:00.42	41.63	11.28	
2025-01-08 08:43:00.62	41.59	11.28	
2025-01-08 08:43:00.83	41.54	11.28	
2025-01-08 08:43:01.04	41.50	11.29	
2025-01-08 08:43:01.24	41.45	11.29	
2025-01-08 08:43:01.45	41.41	11.29	
2025-01-08 08:43:01.65	41.37	11.29	
2025-01-08 08:43:01.86	41.32	11.30	
2025-01-08 08:43:02.06	41.28	11.30	
2025-01-08 08:43:02.27	41.24	11.30	
2025-01-08 08:43:02.47	41.19	11.30	
2025-01-08 08:43:02.68	41.15	11.30	
2025-01-08 08:43:02.88	41.11	11.31	
2025-01-08 08:43:03.09	41.06	11.31	
2025-01-08 08:43:03.29	41.02	11.31	
2025-01-08 08:43:03.50	40.97	11.31	
2025-01-08 08:43:03.70	40.93	11.32	
2025-01-08 08:43:03.91	40.89	11.32	
2025-01-08 08:43:04.12	40.84	11.32	
2025-01-08 08:43:04.32	40.80	11.32	
2025-01-08 08:43:04.53	40.75	11.33	
2025-01-08 08:43:04.74	40.71	11.33	
2025-01-08 08:43:04.94	40.67	11.33	
2025-01-08 08:43:05.14	40.62	11.33	
2025-01-08 08:43:05.35	40.58	11.33	
2025-01-08 08:43:05.56	40.54	11.34	
2025-01-08 08:43:05.76	40.49	11.34	
2025-01-08 08:43:05.97	40.45	11.34	
2025-01-08 08:43:06.17	40.41	11.34	
2025-01-08 08:43:06.38	40.36	11.35	
2025-01-08 08:43:06.58	40.32	11.35	
2025-01-08 08:43:06.79	40.27	11.35	
2025-01-08 08:43:06.99	40.23	11.35	
2025-01-08 08:43:07.21	40.18	11.35	
2025-01-08 08:43:07.42	40.14	11.36	
2025-01-08 08:43:07.62	40.10	11.36	
2025-01-08 08:43:07.83	40.05	11.36	
2025-01-08 08:43:08.03	40.01	11.36	
2025-01-08 08:43:08.24	39.96	11.36	
2025-01-08 08:43:08.44	39.92	11.37	
2025-01-08 08:43:08.65	39.88	11.37	
2025-01-08 08:43:08.85	39.83	11.37	
2025-01-08 08:43:09.06	39.79	11.37	
2025-01-08 08:43:09.26	39.75	11.37	
2025-01-08 08:43:09.47	39.70	11.38	
2025-01-08 08:43:09.67	39.66	11.38	
2025-01-08 08:43:09.88	39.61	11.38	
2025-01-08 08:43:10.09	39.57	11.38	
2025-01-08 08:43:10.29	39.52	11.38	
2025-01-08 08:43:10.50	39.48	11.39	
2025-01-08 08:43:10.70	39.44	11.39	
2025-01-08 08:43:10.91	39.39	11.39	
2025-01-08 08:43:11.11	39.35	11.39	
2025-01-08 08:43:11.32	39.30	11.39	
2025-01-08 08:43:11.52	39.26	11.39	
2025-01-08 08:43:11.73	39.22	11.40	
2025-01-08 08:43:11.93	39.17	11.40	
2025-01-08 08:43:12.14	39.13	11.40	
2025-01-08 08:43:12.34	39.09	11.40	
2025-01-08 08:43:12.55	39.04	11.40	
2025-01-08 08:43:12.75	39.00	11.40	
2025-01-08 08:43:12.96	38.95	11.41	
2025-01-08 08:43:13.16	38.91	11.41	
2025-01-08 08:43:13.37	38.87	11.41	
2025-01-08 08:43:13.57	38.82	11.41	
2025-01-08 08:43:13.78	38.78	11.41	
2025-01-08 08:43:13.98	38.73	11.41	
2025-01-08 08:43:14.19	38.69	11.42	
2025-01-08 08:43:14.39	38.65	11.42	
2025-01-08 08:43:14.60	38.60	11.42	
2025-01-08 08:43:14.80	38.56	11.42	
2025-01-08 08:43:15.01	38.51	11.42	
2025-01-08 08:43:15.21	38.47	11.42	
2025-01-08 08:43:15.42	38.43	11.42	
2025-01-08 08:43:15.62	38.38	11.43	
2025-01-08 08:43:15.83	38.34	11.43	
2025-01-08 08:43:16.03	38.29	11.43	
2025-01-08 08:43:16.24	38.25	11.43	
2025-01-08 08:43:16.44	38.21	11.43	
2025-01-08 08:43:16.66	38.16	11.43	
2025-01-08 08:43:16.86	38.12	11.43	
2025-01-08 08:43:17.07	38.07	11.44	
2025-01-08 08:43:17.28	38.03	11.44	
2025-01-08 08:43:17.48	37.98	11.44	
2025-01-08 08:43:17.69	37.94	11.44	
2025-01-08 08:43:17.89	37.90	11.44	
2025-01-08 08:43:18.10	37.85	11.44	
2025-01-08 08:43:18.30	37.81	11.44	
2025-01-08 08:43:18.51	37.76	11.44	
2025-01-08 08:43:18.72	37.72	11.45	
2025-01-08 08:43:18.93	37.67	11.45	
2025-01-08 08:43:19.14	37.63	11.45	
2025-01-08 08:43:19.34	37.58	11.45	
2025-01-08 08:43:19.55	37.54	11.45	
2025-01-08 08:43:19.75	37.50	11.45	
2025-01-08 08:43:19.96	37.45	11.45	
2025-01-08 08:43:20.16	37.41	11.45	
2025-01-08 08:43:20.37	37.36	11.45	
2025-01-08 08:43:20.57	37.32	11.46	
2025-01-08 08:43:20.78	37.27	11.46	
2025-01-08 08:43:20.98	37.23	11.46	
2025-01-08 08:43:21.19	37.19	11.46	
2025-01-08 08:43:21.39	37.14	11.46	
2025-01-08 08:43:21.60	37.10	11.46	
2025-01-08 08:43:21.80	37.05	11.46	
2025-01-08 08:43:22.01	37.01	11.46	
2025-01-08 08:43:22.21	36.97	11.46	
2025-01-08 08:43:22.42	36.92	11.46	
2025-01-08 08:43:22.62	36.88	11.47	
2025-01-08 08:43:22.83	36.83	11.47	
2025-01-08 08:43:23.03	36.79	11.47	
2025-01-08 08:43:23.24	36.74	11.47	
2025-01-08 08:43:23.44	36.70	11.47	
2025-01-08 08:43:23.65	36.66	11.47	
2025-01-08 08:43:23.85	36.61	11.47	
2025-01-08 08:43:24.06	36.57	11.47	
2025-01-08 08:43:24.26	36.53	11.47	
2025-01-08 08:43:24.47	36.48	11.47	
2025-01-08 08:43:24.67	36.44	11.47	
2025-01-08 08:43:24.88	36.39	11.47	
2025-01-08 08:43:25.09	36.35	11.48	
2025-01-08 08:43:25.30	36.30	11.48	
2025-01-08 08:43:25.51	36.26	11.48	
2025-01-08 08:43:25.71	36.21	11.48	
2025-01-08 08:43:25.92	36.17	11.48	
2025-01-08 08:43:26.12	36.12	11.48	
2025-01-08 08:43:26.33	36.08	11.48	
2025-01-08 08:43:26.54	36.03	11.48	
2025-01-08 08:43:26.74	35.99	11.48	
2025-01-08 08:43:26.95	35.95	11.48	
2025-01-08 08:43:27.15	35.90	11.48	
2025-01-08 08:43:27.36	35.86	11.48	
2025-01-08 08:43:27.56	35.81	11.48	
2025-01-08 08:43:27.77	35.77	11.48	
2025-01-08 08:43:27.97	35.73	11.48	
2025-01-08 08:43:28.18	35.68	11.48	
2025-01-08 08:43:28.38	35.64	11.49	
2025-01-08 08:43:28.59	35.59	11.49	
2025-01-08 08:43:28.79	35.55	11.49	
2025-01-08 08:43:29.00	35.50	11.49	
2025-01-08 08:43:29.20	35.46	11.49	
2025-01-08 08:43:29.41	35.42	11.49	
2025-01-08 08:43:29.61	35.37	11.49	
2025-01-08 08:43:29.81	35.33	11.49	
2025-01-08 08:43:30.02	35.28	11.49	
2025-01-08 08:43:30.23	35.24	11.49	
2025-01-08 08:43:30.43	35.20	11.49	
2025-01-08 08:43:30.65	35.15	11.49	
2025-01-08 08:43:30.86	35.10	11.49	
2025-01-08 08:43:31.07	35.06	11.49	
2025-01-08 08:43:31.27	35.01	11.49	
2025-01-08 08:43:31.47	34.97	11.49	
2025-01-08 08:43:31.68	34.93	11.49	
2025-01-08 08:43:31.88	34.88	11.49	
2025-01-08 08:43:32.09	34.84	11.49	
2025-01-08 08:43:32.30	34.79	11.49	
2025-01-08 08:43:32.50	34.75	11.49	
2025-01-08 08:43:32.71	34.70	11.49	
2025-01-08 08:43:32.91	34.66	11.49	
2025-01-08 08:43:33.12	34.62	11.49	
2025-01-08 08:43:33.33	34.57	11.49	
2025-01-08 08:43:33.53	34.53	11.49	
2025-01-08 08:43:33.74	34.48	11.49	
2025-01-08 08:43:33.94	34.44	11.49	
2025-01-08 08:43:34.15	34.39	11.49	
2025-01-08 08:43:34.35	34.35	11.49	
2025-01-08 08:43:34.56	34.31	11.49	
2025-01-08 08:43:34.76	34.26	11.49	
2025-01-08 08:43:34.97	34.22	11.49	
2025-01-08 08:43:35.17	34.17	11.49	
2025-01-08 08:43:35.37	34.13	11.49	
2025-01-08 08:43:35.58	34.09	11.49	
2025-01-08 08:43:35.79	34.04	11.49	
2025-01-08 08:43:35.99	34.00	11.49	
2025-01-08 08:43:36.20	33.95	11.49	
2025-01-08 08:43:36.40	33.91	11.49	
2025-01-08 08:43:36.61	33.86	11.49	
2025-01-08 08:43:36.81	33.82	11.49	
2025-01-08 08:43:37.02	33.78	11.49	
2025-01-08 08:43:37.22	33.73	11.49	
2025-01-08 08:43:37.43	33.69	11.49	
2025-01-08 08:43:37.64	33.64	11.49	
2025-01-08 08:43:37.84	33.60	11.49	
2025-01-08 08:43:38.05	33.55	11.49	
2025-01-08 08:43:38.25	33.51	11.49	
2025-01-08 08:43:38.46	33.46	11.49	
2025-01-08 08:43:38.66	33.42	11.49	
2025-01-08 08:43:38.87	33.38	11.49	
2025-01-08 08:43:39.07	33.33	11.49	
2025-01-08 08:43:39.28	33.29	11.49	
2025-01-08 08:43:39.48	33.24	11.49	
2025-01-08 08:43:39.69	33.20	11.49	
2025-01-08 08:43:39.89	33.16	11.49	
2025-01-08 08:43:40.10	33.11	11.49	
2025-01-08 08:43:40.30	33.07	11.49	
2025-01-08 08:43:40.51	33.02	11.49	
2025-01-08 08:43:40.71	32.98	11.49	
2025-01-08 08:43:40.92	32.93	11.48	
2025-01-08 08:43:41.12	32.89	11.48	
2025-01-08 08:43:41.33	32.85	11.48	
2025-01-08 08:43:41.53	32.80	11.48	
2025-01-08 08:43:41.74	32.76	11.48	
2025-01-08 08:43:41.94	32.71	11.48	
2025-01-08 08:43:42.15	32.67	11.48	
2025-01-08 08:43:42.36	32.62	11.48	
2025-01-08 08:43:42.56	32.58	11.48	
2025-01-08 08:43:42.77	32.54	11.48	
2025-01-08 08:43:42.97	32.49	11.48	
2025-01-08 08:43:43.18	32.45	11.48	
2025-01-08 08:43:43.38	32.40	11.48	
2025-01-08 08:43:43.59	32.36	11.48	
2025-01-08 08:43:43.79	32.32	11.48	
2025-01-08 08:43:44.00	32.27	11.48	
2025-01-08 08:43:44.21	32.23	11.47	
2025-01-08 08:43:44.42	32.18	11.47	
2025-01-08 08:43:44.63	32.14	11.47	
2025-01-08 08:43:44.83	32.09	11.47	
2025-01-08 08:43:45.04	32.05	11.47	
2025-01-08 08:43:45.24	32.00	11.47	
2025-01-08 08:43:45.45	31.96	11.47	
2025-01-08 08:43:45.65	31.92	11.47	
2025-01-08 08:43:45.86	31.87	11.47	
2025-01-08 08:43:46.06	31.83	11.47	
2025-01-08 08:43:46.27	31.78	11.47	
2025-01-08 08:43:46.47	31.74	11.47	
2025-01-08 08:43:46.68	31.69	11.46	
2025-01-08 08:43:46.88	31.65	11.46	
2025-01-08 08:43:47.09	31.61	11.46	
2025-01-08 08:43:47.29	31.56	11.46	
2025-01-08 08:43:47.50	31.52	11.46	
2025-01-08 08:43:47.70	31.47	11.46	
2025-01-08 08:43:47.91	31.43	11.46	
2025-01-08 08:43:48.11	31.39	11.46	
2025-01-08 08:43:48.31	31.34	11.46	
2025-01-08 08:43:48.52	31.30	11.46	
2025-01-08 08:43:48.72	31.26	11.45	
2025-01-08 08:43:48.93	31.21	11.45	
2025-01-08 08:43:49.13	31.17	11.45	
2025-01-08 08:43:49.34	31.12	11.45	
2025-01-08 08:43:49.55	31.08	11.45	
2025-01-08 08:43:49.75	31.03	11.45	
2025-01-08 08:43:49.95	30.99	11.45	
2025-01-08 08:43:50.16	30.95	11.45	
2025-01-08 08:43:50.36	30.90	11.45	
2025-01-08 08:43:50.57	30.86	11.44	
2025-01-08 08:43:50.77	30.82	11.44	
2025-01-08 08:43:50.98	30.77	11.44	
2025-01-08 08:43:51.18	30.73	11.44	
2025-01-08 08:43:51.39	30.68	11.44	
2025-01-08 08:43:51.60	30.64	11.44	
2025-01-08 08:43:51.80	30.59	11.44	
2025-01-08 08:43:52.00	30.55	11.44	
2025-01-08 08:43:52.21	30.51	11.43	
2025-01-08 08:43:52.41	30.46	11.43	
2025-01-08 08:43:52.62	30.42	11.43	
2025-01-08 08:43:52.82	30.37	11.43	
2025-01-08 08:43:53.02	30.33	11.43	
2025-01-08 08:43:53.23	30.29	11.43	
2025-01-08 08:43:53.44	30.24	11.43	
2025-01-08 08:43:53.64	30.20	11.42	
2025-01-08 08:43:53.84	30.16	11.42	
2025-01-08 08:43:54.05	30.11	11.42	
2025-01-08 08:43:54.25	30.07	11.42	
2025-01-08 08:43:54.46	30.02	11.42	
2025-01-08 08:43:54.66	29.98	11.42	
2025-01-08 08:43:54.87	29.94	11.42	
2025-01-08 08:43:55.08	29.89	11.41	
2025-01-08 08:43:55.28	29.85	11.41	
2025-01-08 08:43:55.49	29.80	11.41	
2025-01-08 08:43:55.69	29.76	11.41	
2025-01-08 08:43:55.90	29.71	11.41	
2025-01-08 08:43:56.10	29.67	11.41	
2025-01-08 08:43:56.31	29.63	11.40	
2025-01-08 08:43:56.51	29.58	11.40	
2025-01-08 08:43:56.72	29.54	11.40	
2025-01-08 08:43:56.92	29.50	11.40	
2025-01-08 08:43:57.12	29.45	11.40	
2025-01-08 08:43:57.33	29.41	11.40	
2025-01-08 08:43:57.53	29.37	11.39	
2025-01-08 08:43:57.74	29.32	11.39	
2025-01-08 08:43:57.94	29.28	11.39	
2025-01-08 08:43:58.15	29.23	11.39	
2025-01-08 08:43:58.36	29.19	11.39	
2025-01-08 08:43:58.57	29.14	11.39	
2025-01-08 08:43:58.77	29.10	11.38	
2025-01-08 08:43:58.98	29.06	11.38	
2025-01-08 08:43:59.18	29.01	11.38	
2025-01-08 08:43:59.39	28.97	11.38	
2025-01-08 08:43:59.59	28.93	11.38	
2025-01-08 08:43:59.80	28.88	11.37	
2025-01-08 08:44:00.01	28.84	11.37	
2025-01-08 08:44:00.22	28.79	11.37	
2025-01-08 08:44:00.43	28.75	11.37	
2025-01-08 08:44:00.64	28.70	11.37	
2025-01-08 08:44:00.84	28.66	11.36	
2025-01-08 08:44:01.05	28.61	11.36	
2025-01-08 08:44:01.25	28.57	11.36	
2025-01-08 08:44:01.46	28.53	11.36	
2025-01-08 08:44:01.66	28.48	11.36	
2025-01-08 08:44:01.87	28.44	11.35	
2025-01-08 08:44:02.07	28.40	11.35	
2025-01-08 08:44:02.28	28.35	11.35	
2025-01-08 08:44:02.48	28.31	11.35	
2025-01-08 08:44:02.69	28.26	11.35	
2025-01-08 08:44:02.89	28.22	11.34	
2025-01-08 08:44:03.10	28.18	11.34	
2025-01-08 08:44:03.31	28.13	11.34	
2025-01-08 08:44:03.51	28.09	11.34	
2025-01-08 08:44:03.71	28.05	11.34	
2025-01-08 08:44:03.92	28.00	11.33	
2025-01-08 08:44:04.13	27.96	11.33	
2025-01-08 08:44:04.33	27.91	11.33	
2025-01-08 08:44:04.54	27.87	11.33	
2025-01-08 08:44:04.75	27.82	11.32	
2025-01-08 08:44:04.96	27.78	11.32	
2025-01-08 08:44:05.16	27.74	11.32	
2025-01-08 08:44:05.37	27.69	11.32	
2025-01-08 08:44:05.57	27.65	11.31	
2025-01-08 08:44:05.78	27.61	11.31	
2025-01-08 08:44:05.98	27.56	11.31	
2025-01-08 08:44:06.19	27.52	11.31	
2025-01-08 08:44:06.40	27.47	11.30	
2025-01-08 08:44:06.60	27.43	11.30	
2025-01-08 08:44:06.81	27.39	11.30	
2025-01-08 08:44:07.01	27.34	11.30	
2025-01-08 08:44:07.22	27.30	11.30	
2025-01-08 08:44:07.43	27.25	11.29	
2025-01-08 08:44:07.63	27.21	11.29	
2025-01-08 08:44:07.83	27.17	11.29	
2025-01-08 08:44:08.04	27.13	11.29	
2025-01-08 08:44:08.25	27.08	11.28	
2025-01-08 08:44:08.45	27.04	11.28	
2025-01-08 08:44:08.66	26.99	11.28	
2025-01-08 08:44:08.86	26.95	11.28	
2025-01-08 08:44:09.07	26.91	11.27	
2025-01-08 08:44:09.27	26.86	11.27	
2025-01-08 08:44:09.48	26.82	11.27	
2025-01-08 08:44:09.68	26.78	11.26	
2025-01-08 08:44:09.89	26.73	11.26	
2025-01-08 08:44:10.09	26.69	11.26	
2025-01-08 08:44:10.30	26.65	11.26	
2025-01-08 08:44:10.50	26.60	11.25	
2025-01-08 08:44:10.71	26.56	11.25	
2025-01-08 08:44:10.91	26.52	11.25	
2025-01-08 08:44:11.12	26.47	11.25	
2025-01-08 08:44:11.32	26.43	11.24	
2025-01-08 08:44:11.53	26.39	11.24	
2025-01-08 08:44:11.73	26.34	11.24	
2025-01-08 08:44:11.94	26.30	11.23	
2025-01-08 08:44:12.14	26.26	11.23	
2025-01-08 08:44:12.35	26.21	11.23	
2025-01-08 08:44:12.56	26.17	11.23	
2025-01-08 08:44:12.76	26.13	11.22	
2025-01-08 08:44:12.97	26.08	11.22	
2025-01-08 08:44:13.17	26.04	11.22	
2025-01-08 08:44:13.37	26.00	11.22	
2025-01-08 08:44:13.58	25.95	11.21	
2025-01-08 08:44:13.78	25.91	11.21	
2025-01-08 08:44:13.99	25.87	11.21	
2025-01-08 08:44:14.20	25.82	11.20	
2025-01-08 08:44:14.40	25.78	11.20	
2025-01-08 08:44:14.60	25.74	11.20	
2025-01-08 08:44:14.81	25.69	11.19	
2025-01-08 08:44:15.01	25.65	11.19	
2025-01-08 08:44:15.22	25.61	11.19	
2025-01-08 08:44:15.42	25.56	11.19	
2025-01-08 08:44:15.63	25.52	11.18	
2025-01-08 08:44:15.83	25.48	11.18	
2025-01-08 08:44:16.04	25.43	11.18	
2025-01-08 08:44:16.25	25.39	11.17	
2025-01-08 08:44:16.45	25.35	11.17	
2025-01-08 08:44:16.66	25.30	11.17	
2025-01-08 08:44:16.86	25.26	11.16	
2025-01-08 08:44:17.07	25.22	11.16	
2025-01-08 08:44:17.27	25.18	11.16	
2025-01-08 08:44:17.48	25.13	11.15	
2025-01-08 08:44:17.68	25.09	11.15	
2025-01-08 08:44:17.89	25.05	11.15	
2025-01-08 08:44:18.09	25.00	11.14	
2025-01-08 08:44:18.30	24.96	11.14	
2025-01-08 08:44:18.50	24.92	11.14	
2025-01-08 08:44:18.71	24.87	11.13	
2025-01-08 08:44:18.91	24.83	11.13	
2025-01-08 08:44:19.12	24.79	11.13	
2025-01-08 08:44:19.32	24.75	11.12	
2025-01-08 08:44:19.53	24.70	11.12	
2025-01-08 08:44:19.74	24.66	11.12	
2025-01-08 08:44:19.94	24.62	11.11	
2025-01-08 08:44:20.15	24.57	11.11	
2025-01-08 08:44:20.35	24.53	11.11	
2025-01-08 08:44:20.56	24.49	11.10	
2025-01-08 08:44:20.76	24.44	11.10	
2025-01-08 08:44:20.97	24.40	11.10	
2025-01-08 08:44:21.17	24.36	11.09	
2025-01-08 08:44:21.38	24.31	11.09	
2025-01-08 08:44:21.58	24.27	11.09	
2025-01-08 08:44:21.79	24.23	11.08	
2025-01-08 08:44:21.99	24.19	11.08	
2025-01-08 08:44:22.20	24.14	11.08	
2025-01-08 08:44:22.40	24.10	11.07	
2025-01-08 08:44:22.61	24.06	11.07	
2025-01-08 08:44:22.81	24.02	11.07	
2025-01-08 08:44:23.02	23.97	11.06	
2025-01-08 08:44:23.22	23.93	11.06	
2025-01-08 08:44:23.43	23.89	11.06	
2025-01-08 08:44:23.63	23.84	11.05	
2025-01-08 08:44:23.84	23.80	11.05	
2025-01-08 08:44:24.05	23.76	11.04	
2025-01-08 08:44:24.25	23.71	11.04	
2025-01-08 08:44:24.46	23.67	11.04	
2025-01-08 08:44:24.66	23.63	11.03	
2025-01-08 08:44:24.87	23.59	11.03	
2025-01-08 08:44:25.07	23.54	11.03	
2025-01-08 08:44:25.28	23.50	11.02	
2025-01-08 08:44:25.48	23.46	11.02	
2025-01-08 08:44:25.69	23.41	11.02	
2025-01-08 08:44:25.89	23.37	11.01	
2025-01-08 08:44:26.10	23.33	11.01	
2025-01-08 08:44:26.30	23.29	11.00	
2025-01-08 08:44:26.51	23.24	11.00	
2025-01-08 08:44:26.71	23.20	11.00	
2025-01-08 08:44:26.92	23.16	10.99	
2025-01-08 08:44:27.12	23.12	10.99	
2025-01-08 08:44:27.33	23.07	10.98	
2025-01-08 08:44:27.53	23.03	10.98	
2025-01-08 08:44:27.74	22.99	10.98	
2025-01-08 08:44:27.95	22.95	10.97	
2025-01-08 08:44:28.15	22.90	10.97	
2025-01-08 08:44:28.36	22.86	10.97	
2025-01-08 08:44:28.56	22.82	10.96	
2025-01-08 08:44:28.77	22.78	10.96	
2025-01-08 08:44:28.97	22.73	10.95	
2025-01-08 08:44:29.18	22.69	10.95	
2025-01-08 08:44:29.38	22.65	10.95	
2025-01-08 08:44:29.59	22.61	10.94	
2025-01-08 08:44:29.79	22.56	10.94	
2025-01-08 08:44:30.00	22.52	10.93	
2025-01-08 08:44:30.21	22.48	10.93	
2025-01-08 08:44:30.41	22.44	10.93	
2025-01-08 08:44:30.62	22.39	10.92	
2025-01-08 08:44:30.82	22.35	10.92	
2025-01-08 08:44:31.03	22.31	10.91	
2025-01-08 08:44:31.23	22.27	10.91	
2025-01-08 08:44:31.44	22.22	10.90	
2025-01-08 08:44:31.64	22.18	10.90	
2025-01-08 08:44:31.85	22.14	10.90	
2025-01-08 08:44:32.05	22.10	10.89	
2025-01-08 08:44:32.26	22.05	10.89	
2025-01-08 08:44:32.46	22.01	10.88	
2025-01-08 08:44:32.66	21.97	10.88	
2025-01-08 08:44:32.87	21.93	10.88	
2025-01-08 08:44:33.07	21.89	10.87	
2025-01-08 08:44:33.28	21.85	10.87	
2025-01-08 08:44:33.49	21.80	10.86	
2025-01-08 08:44:33.69	21.76	10.86	
2025-01-08 08:44:33.89	21.72	10.85	
2025-01-08 08:44:34.10	21.68	10.85	
2025-01-08 08:44:34.31	21.63	10.85	
2025-01-08 08:44:34.51	21.59	10.84	
2025-01-08 08:44:34.72	21.55	10.84	
2025-01-08 08:44:34.92	21.51	10.83	
2025-01-08 08:44:35.13	21.47	10.83	
2025-01-08 08:44:35.33	21.42	10.82	
2025-01-08 08:44:35.54	21.38	10.82	
2025-01-08 08:44:35.74	21.34	10.82	
2025-01-08 08:44:35.94	21.30	10.81	
2025-01-08 08:44:36.15	21.26	10.81	
2025-01-08 08:44:36.36	21.21	10.80	
2025-01-08 08:44:36.56	21.17	10.80	
2025-01-08 08:44:36.76	21.13	10.79	
2025-01-08 08:44:36.97	21.09	10.79	
2025-01-08 08:44:37.18	21.05	10.78	
2025-01-08 08:44:37.38	21.00	10.78	
2025-01-08 08:44:37.59	20.96	10.77	
2025-01-08 08:44:37.79	20.92	10.77	
2025-01-08 08:44:38.00	20.88	10.77	
2025-01-08 08:44:38.20	20.84	10.76	
2025-01-08 08:44:38.41	20.79	10.76	
2025-01-08 08:44:38.61	20.75	10.75	
2025-01-08 08:44:38.82	20.71	10.75	
2025-01-08 08:44:39.02	20.67	10.74	
2025-01-08 08:44:39.22	20.63	10.74	
2025-01-08 08:44:39.43	20.59	10.73	
2025-01-08 08:44:39.64	20.54	10.73	
2025-01-08 08:44:39.84	20.50	10.72	
2025-01-08 08:44:40.06	20.46	10.72	
2025-01-08 08:44:40.27	20.42	10.71	
2025-01-08 08:44:40.47	20.37	10.71	
2025-01-08 08:44:40.68	20.33	10.70	
2025-01-08 08:44:40.89	20.29	10.70	
2025-01-08 08:44:41.09	20.25	10.70	
2025-01-08 08:44:41.30	20.21	10.69	
2025-01-08 08:44:41.50	20.17	10.69	
2025-01-08 08:44:41.71	20.12	10.68	
2025-01-08 08:44:41.91	20.08	10.68	
2025-01-08 08:44:42.12	20.04	10.67	
2025-01-08 08:44:42.32	20.00	10.67	
2025-01-08 08:44:42.53	19.96	10.66	
2025-01-08 08:44:42.73	19.92	10.66	
2025-01-08 08:44:42.94	19.87	10.65	
2025-01-08 08:44:43.14	19.83	10.65	
2025-01-08 08:44:43.35	19.79	10.64	
2025-01-08 08:44:43.55	19.75	10.64	
2025-01-08 08:44:43.76	19.71	10.63	
2025-01-08 08:44:43.97	19.67	10.63	
2025-01-08 08:44:44.17	19.63	10.62	
2025-01-08 08:44:44.38	19.58	10.62	
2025-01-08 08:44:44.58	19.54	10.61	
2025-01-08 08:44:44.79	19.50	10.61	
2025-01-08 08:44:45.00	19.46	10.60	
2025-01-08 08:44:45.20	19.42	10.60	
2025-01-08 08:44:45.41	19.38	10.59	
2025-01-08 08:44:45.61	19.33	10.59	
2025-01-08 08:44:45.82	19.29	10.58	
2025-01-08 08:44:46.02	19.25	10.58	
2025-01-08 08:44:46.23	19.21	10.57	
2025-01-08 08:44:46.45	19.17	10.57	
2025-01-08 08:44:46.65	19.13	10.56	
2025-01-08 08:44:46.86	19.08	10.56	
2025-01-08 08:44:47.07	19.04	10.55	
2025-01-08 08:44:47.27	19.00	10.55	
2025-01-08 08:44:47.48	18.96	10.54	
2025-01-08 08:44:47.68	18.92	10.54	
2025-01-08 08:44:47.89	18.88	10.53	
2025-01-08 08:44:48.09	18.84	10.53	
2025-01-08 08:44:48.30	18.79	10.52	
2025-01-08 08:44:48.50	18.75	10.52	
2025-01-08 08:44:48.71	18.71	10.51	
2025-01-08 08:44:48.91	18.67	10.51	
2025-01-08 08:44:49.12	18.63	10.50	
2025-01-08 08:44:49.33	18.59	10.49	
2025-01-08 08:44:49.54	18.55	10.49	
2025-01-08 08:44:49.74	18.51	10.48	
2025-01-08 08:44:49.95	18.46	10.48	
2025-01-08 08:44:50.16	18.42	10.47	
2025-01-08 08:44:50.36	18.38	10.47	
2025-01-08 08:44:50.57	18.34	10.46	
2025-01-08 08:44:50.77	18.30	10.46	
2025-01-08 08:44:50.98	18.26	10.45	
2025-01-08 08:44:51.19	18.22	10.45	
2025-01-08 08:44:51.39	18.18	10.44	
2025-01-08 08:44:51.60	18.14	10.44	
2025-01-08 08:44:51.81	18.09	10.43	
2025-01-08 08:44:52.02	18.05	10.42	
2025-01-08 08:44:52.23	18.01	10.42	
2025-01-08 08:44:52.43	17.97	10.41	
2025-01-08 08:44:52.64	17.93	10.41	
2025-01-08 08:44:52.84	17.89	10.40	
2025-01-08 08:44:53.05	17.85	10.40	
2025-01-08 08:44:53.26	17.81	10.39	
2025-01-08 08:44:53.46	17.77	10.39	
2025-01-08 08:44:53.67	17.72	10.38	
2025-01-08 08:44:53.87	17.68	10.38	
2025-01-08 08:44:54.08	17.64	10.37	
2025-01-08 08:44:54.28	17.60	10.36	
2025-01-08 08:44:54.49	17.56	10.36	
2025-01-08 08:44:54.70	17.52	10.35	
2025-01-08 08:44:54.92	17.48	10.35	
2025-01-08 08:44:55.12	17.44	10.34	
2025-01-08 08:44:55.33	17.40	10.34	
2025-01-08 08:44:55.53	17.36	10.33	
2025-01-08 08:44:55.74	17.31	10.32	
2025-01-08 08:44:55.94	17.27	10.32	
2025-01-08 08:44:56.15	17.23	10.31	
2025-01-08 08:44:56.36	17.19	10.31	
2025-01-08 08:44:56.56	17.15	10.30	
2025-01-08 08:44:56.77	17.11	10.30	
2025-01-08 08:44:56.97	17.07	10.29	
2025-01-08 08:44:57.18	17.03	10.28	
2025-01-08 08:44:57.39	16.99	10.28	
2025-01-08 08:44:57.59	16.95	10.27	
2025-01-08 08:44:57.80	16.91	10.27	
2025-01-08 08:44:58.00	16.87	10.26	
2025-01-08 08:44:58.21	16.83	10.26	
2025-01-08 08:44:58.42	16.79	10.25	
2025-01-08 08:44:58.62	16.75	10.24	
2025-01-08 08:44:58.84	16.70	10.24	
2025-01-08 08:44:59.04	16.66	10.23	
2025-01-08 08:44:59.25	16.62	10.23	
2025-01-08 08:44:59.45	16.58	10.22	
2025-01-08 08:44:59.67	16.54	10.21	
2025-01-08 08:44:59.87	16.50	10.21	
2025-01-08 08:45:00.08	16.46	10.20	
2025-01-08 08:45:00.28	16.42	10.20	
2025-01-08 08:45:00.48	16.38	10.19	
2025-01-08 08:45:00.69	16.34	10.19	
2025-01-08 08:45:00.89	16.30	10.18	
2025-01-08 08:45:01.10	16.26	10.17	
2025-01-08 08:45:01.30	16.22	10.17	
2025-01-08 08:45:01.50	16.18	10.16	
2025-01-08 08:45:01.71	16.14	10.16	
2025-01-08 08:45:01.91	16.10	10.15	
2025-01-08 08:45:02.12	16.06	10.14	
2025-01-08 08:45:02.32	16.02	10.14	
2025-01-08 08:45:02.53	15.98	10.13	
2025-01-08 08:45:02.73	15.94	10.13	
2025-01-08 08:45:02.94	15.90	10.12	
2025-01-08 08:45:03.14	15.86	10.11	
2025-01-08 08:45:03.35	15.82	10.11	
2025-01-08 08:45:03.55	15.78	10.10	
2025-01-08 08:45:03.76	15.74	10.10	
2025-01-08 08:45:03.96	15.71	10.09	
2025-01-08 08:45:04.17	15.66	10.08	
2025-01-08 08:45:04.38	15.62	10.08	
2025-01-08 08:45:04.58	15.58	10.07	
2025-01-08 08:45:04.79	15.54	10.07	
2025-01-08 08:45:04.99	15.51	10.06	
2025-01-08 08:45:05.20	15.46	10.05	
2025-01-08 08:45:05.40	15.43	10.05	
2025-01-08 08:45:05.60	15.39	10.04	
2025-01-08 08:45:05.81	15.35	10.03	
2025-01-08 08:45:06.02	15.31	10.03	
2025-01-08 08:45:06.22	15.27	10.02	
2025-01-08 08:45:06.43	15.23	10.02	
2025-01-08 08:45:06.63	15.19	10.01	
2025-01-08 08:45:06.84	15.15	10.00	
2025-01-08 08:45:07.04	15.11	10.00	
2025-01-08 08:45:07.25	15.07	9.99	
2025-01-08 08:45:07.46	15.03	9.98	
2025-01-08 08:45:07.66	14.99	9.98	
2025-01-08 08:45:07.86	14.95	9.97	
2025-01-08 08:45:08.07	14.91	9.97	
2025-01-08 08:45:08.28	14.87	9.96	
2025-01-08 08:45:08.48	14.83	9.95	
2025-01-08 08:45:08.69	14.79	9.95	
2025-01-08 08:45:08.89	14.75	9.94	
2025-01-08 08:45:09.10	14.71	9.93	
2025-01-08 08:45:09.31	14.67	9.93	
2025-01-08 08:45:09.51	14.64	9.92	
2025-01-08 08:45:09.72	14.59	9.92	
2025-01-08 08:45:09.92	14.56	9.91	
2025-01-08 08:45:10.13	14.52	9.90	
2025-01-08 08:45:10.33	14.48	9.90	
2025-01-08 08:45:10.54	14.44	9.89	
2025-01-08 08:45:10.75	14.40	9.88	
2025-01-08 08:45:10.95	14.36	9.88	
2025-01-08 08:45:11.15	14.32	9.87	
2025-01-08 08:45:11.36	14.28	9.86	
2025-01-08 08:45:11.56	14.24	9.86	
2025-01-08 08:45:11.77	14.20	9.85	
2025-01-08 08:45:11.98	14.16	9.84	
2025-01-08 08:45:12.18	14.13	9.84	
2025-01-08 08:45:12.39	14.09	9.83	
2025-01-08 08:45:12.59	14.05	9.82	
2025-01-08 08:45:12.80	14.01	9.82	
2025-01-08 08:45:13.00	13.97	9.81	
2025-01-08 08:45:13.20	13.93	9.81	
2025-01-08 08:45:13.41	13.89	9.80	
2025-01-08 08:45:13.62	13.85	9.79	
2025-01-08 08:45:13.82	13.81	9.79	
2025-01-08 08:45:14.03	13.77	9.78	
2025-01-08 08:45:14.23	13.74	9.77	
2025-01-08 08:45:14.44	13.70	9.77	
2025-01-08 08:45:14.65	13.66	9.76	
2025-01-08 08:45:14.85	13.62	9.75	
2025-01-08 08:45:15.06	13.58	9.75	
2025-01-08 08:45:15.26	13.54	9.74	
2025-01-08 08:45:15.47	13.50	9.73	
2025-01-08 08:45:15.67	13.46	9.73	
2025-01-08 08:45:15.88	13.42	9.72	
2025-01-08 08:45:16.09	13.38	9.71	
2025-01-08 08:45:16.30	13.34	9.71	
2025-01-08 08:45:16.51	13.31	9.70	
2025-01-08 08:45:16.73	13.26	9.69	
2025-01-08 08:45:16.93	13.23	9.68	
2025-01-08 08:45:17.14	13.19	9.68	
2025-01-08 08:45:17.34	13.15	9.67	
2025-01-08 08:45:17.55	13.11	9.66	
2025-01-08 08:45:17.75	13.07	9.66	
2025-01-08 08:45:17.96	13.03	9.65	
2025-01-08 08:45:18.16	12.99	9.64	
2025-01-08 08:45:18.37	12.96	9.64	
2025-01-08 08:45:18.57	12.92	9.63	
2025-01-08 08:45:18.78	12.88	9.62	
2025-01-08 08:45:18.98	12.84	9.62	
2025-01-08 08:45:19.19	12.80	9.61	
2025-01-08 08:45:19.40	12.76	9.60	
2025-01-08 08:45:19.60	12.73	9.60	
2025-01-08 08:45:19.80	12.69	9.59	
2025-01-08 08:45:20.01	12.65	9.58	
2025-01-08 08:45:20.22	12.61	9.58	
2025-01-08 08:45:20.42	12.57	9.57	
2025-01-08 08:45:20.64	12.53	9.56	
2025-01-08 08:45:20.84	12.49	9.55	
2025-01-08 08:45:21.05	12.45	9.55	
2025-01-08 08:45:21.25	12.42	9.54	
2025-01-08 08:45:21.46	12.38	9.53	
2025-01-08 08:45:21.66	12.34	9.53	
2025-01-08 08:45:21.87	12.30	9.52	
2025-01-08 08:45:22.08	12.26	9.51	
2025-01-08 08:45:22.28	12.23	9.51	
2025-01-08 08:45:22.49	12.19	9.50	
2025-01-08 08:45:22.69	12.15	9.49	
2025-01-08 08:45:22.90	12.11	9.49	
2025-01-08 08:45:23.10	12.07	9.48	
2025-01-08 08:45:23.31	12.03	9.47	
2025-01-08 08:45:23.52	12.00	9.46	
2025-01-08 08:45:23.72	11.96	9.46	
2025-01-08 08:45:23.93	11.92	9.45	
2025-01-08 08:45:24.13	11.88	9.44	
2025-01-08 08:45:24.34	11.84	9.44	
2025-01-08 08:45:24.54	11.81	9.43	
2025-01-08 08:45:24.75	11.77	9.42	
