passes_logs/2025/01/08/SPB_Silybum_02/SPB_Silybum_02__20250108_081543_TERRA_rec.log

#Pass ID: 20250108_081543_TERRA
#Satellite: TERRA
#Configuration: TERRA
#Start time: 2025-01-08 08:15:43

#Version: 2.0.20230423
#Station: SPB_Silybum_02
#Location: 30.233357 lon 59.946436 lat
#TLE: 1 25994U 99068A   25007.79031535  .00001159  00000+0  24884-3 0  9992
#TLE: 2 25994  98.0229  71.0496 0003578  86.9116 340.1593 14.60381232333028

#Time	Az	El	Level	Level2	SNR	BER	Gain	Gain2
2025-01-08 08:15:45.22	17.25	4.16	
2025-01-08 08:15:45.43	17.25	4.17	
2025-01-08 08:15:45.65	17.25	4.19	
2025-01-08 08:15:45.85	17.25	4.20	
2025-01-08 08:15:46.06	17.26	4.22	
2025-01-08 08:15:46.26	17.26	4.23	
2025-01-08 08:15:46.47	17.26	4.25	
2025-01-08 08:15:46.67	17.26	4.26	
2025-01-08 08:15:46.88	17.26	4.28	
2025-01-08 08:15:47.08	17.27	4.29	
2025-01-08 08:15:47.29	17.27	4.31	
2025-01-08 08:15:47.50	17.27	4.32	
2025-01-08 08:15:47.70	17.27	4.34	
2025-01-08 08:15:47.91	17.28	4.35	
2025-01-08 08:15:48.11	17.28	4.37	
2025-01-08 08:15:48.32	17.28	4.38	
2025-01-08 08:15:48.52	17.28	4.39	
2025-01-08 08:15:48.73	17.28	4.41	
2025-01-08 08:15:48.93	17.29	4.42	
2025-01-08 08:15:49.14	17.29	4.44	
2025-01-08 08:15:49.35	17.29	4.46	
2025-01-08 08:15:49.55	17.29	4.47	
2025-01-08 08:15:49.76	17.30	4.48	
2025-01-08 08:15:49.96	17.30	4.50	
2025-01-08 08:15:50.17	17.30	4.51	
2025-01-08 08:15:50.37	17.30	4.53	
2025-01-08 08:15:50.58	17.31	4.54	
2025-01-08 08:15:50.78	17.31	4.56	
2025-01-08 08:15:50.99	17.31	4.57	
2025-01-08 08:15:51.19	17.31	4.59	
2025-01-08 08:15:51.40	17.31	4.60	
2025-01-08 08:15:51.61	17.32	4.62	
2025-01-08 08:15:51.81	17.32	4.63	
2025-01-08 08:15:52.02	17.32	4.65	
2025-01-08 08:15:52.22	17.32	4.66	
2025-01-08 08:15:52.43	17.33	4.68	
2025-01-08 08:15:52.63	17.33	4.69	
2025-01-08 08:15:52.84	17.33	4.71	
2025-01-08 08:15:53.04	17.33	4.72	
2025-01-08 08:15:53.25	17.33	4.74	
2025-01-08 08:15:53.46	17.34	4.76	
2025-01-08 08:15:53.66	17.34	4.77	
2025-01-08 08:15:53.87	17.34	4.79	
2025-01-08 08:15:54.07	17.34	4.80	
2025-01-08 08:15:54.28	17.35	4.82	
2025-01-08 08:15:54.48	17.35	4.83	
2025-01-08 08:15:54.69	17.35	4.85	
2025-01-08 08:15:54.89	17.35	4.86	
2025-01-08 08:15:55.10	17.36	4.88	
2025-01-08 08:15:55.30	17.36	4.89	
2025-01-08 08:15:55.51	17.36	4.91	
2025-01-08 08:15:55.71	17.36	4.92	
2025-01-08 08:15:55.92	17.36	4.94	
2025-01-08 08:15:56.13	17.37	4.95	
2025-01-08 08:15:56.33	17.37	4.97	
2025-01-08 08:15:56.54	17.37	4.98	
2025-01-08 08:15:56.74	17.37	5.00	
2025-01-08 08:15:56.95	17.38	5.01	
2025-01-08 08:15:57.15	17.38	5.03	
2025-01-08 08:15:57.36	17.38	5.04	
2025-01-08 08:15:57.56	17.38	5.06	
2025-01-08 08:15:57.77	17.39	5.07	
2025-01-08 08:15:57.98	17.39	5.09	
2025-01-08 08:15:58.18	17.39	5.11	
2025-01-08 08:15:58.38	17.39	5.12	
2025-01-08 08:15:58.59	17.39	5.14	
2025-01-08 08:15:58.80	17.40	5.15	
2025-01-08 08:15:59.00	17.40	5.17	
2025-01-08 08:15:59.21	17.40	5.18	
2025-01-08 08:15:59.41	17.40	5.20	
2025-01-08 08:15:59.62	17.41	5.21	
2025-01-08 08:15:59.82	17.41	5.23	
2025-01-08 08:16:00.03	17.41	5.24	
2025-01-08 08:16:00.23	17.41	5.26	
2025-01-08 08:16:00.43	17.42	5.27	
2025-01-08 08:16:00.64	17.42	5.29	
2025-01-08 08:16:00.85	17.42	5.31	
2025-01-08 08:16:01.05	17.42	5.32	
2025-01-08 08:16:01.26	17.43	5.34	
2025-01-08 08:16:01.46	17.43	5.35	
2025-01-08 08:16:01.67	17.43	5.37	
2025-01-08 08:16:01.87	17.43	5.38	
2025-01-08 08:16:02.08	17.43	5.40	
2025-01-08 08:16:02.28	17.44	5.41	
2025-01-08 08:16:02.50	17.44	5.43	
2025-01-08 08:16:02.70	17.44	5.44	
2025-01-08 08:16:02.91	17.44	5.46	
2025-01-08 08:16:03.12	17.45	5.48	
2025-01-08 08:16:03.32	17.45	5.49	
2025-01-08 08:16:03.53	17.45	5.51	
2025-01-08 08:16:03.73	17.45	5.52	
2025-01-08 08:16:03.94	17.46	5.54	
2025-01-08 08:16:04.14	17.46	5.55	
2025-01-08 08:16:04.35	17.46	5.57	
2025-01-08 08:16:04.56	17.46	5.59	
2025-01-08 08:16:04.76	17.47	5.60	
2025-01-08 08:16:04.97	17.47	5.62	
2025-01-08 08:16:05.17	17.47	5.63	
2025-01-08 08:16:05.38	17.47	5.65	
2025-01-08 08:16:05.58	17.48	5.66	
2025-01-08 08:16:05.80	17.48	5.68	
2025-01-08 08:16:06.00	17.48	5.70	
2025-01-08 08:16:06.21	17.48	5.71	
2025-01-08 08:16:06.41	17.48	5.73	
2025-01-08 08:16:06.62	17.49	5.74	
2025-01-08 08:16:06.82	17.49	5.76	
2025-01-08 08:16:07.03	17.49	5.77	
2025-01-08 08:16:07.24	17.49	5.79	
2025-01-08 08:16:07.44	17.50	5.81	
2025-01-08 08:16:07.65	17.50	5.82	
2025-01-08 08:16:07.85	17.50	5.84	
2025-01-08 08:16:08.06	17.50	5.85	
2025-01-08 08:16:08.26	17.51	5.87	
2025-01-08 08:16:08.47	17.51	5.89	
2025-01-08 08:16:08.68	17.51	5.90	
2025-01-08 08:16:08.88	17.51	5.92	
2025-01-08 08:16:09.10	17.52	5.93	
2025-01-08 08:16:09.30	17.52	5.95	
2025-01-08 08:16:09.51	17.52	5.97	
2025-01-08 08:16:09.72	17.52	5.98	
2025-01-08 08:16:09.92	17.53	6.00	
2025-01-08 08:16:10.12	17.53	6.01	
2025-01-08 08:16:10.33	17.53	6.03	
2025-01-08 08:16:10.54	17.53	6.05	
2025-01-08 08:16:10.74	17.54	6.06	
2025-01-08 08:16:10.95	17.54	6.08	
2025-01-08 08:16:11.15	17.54	6.09	
2025-01-08 08:16:11.36	17.54	6.11	
2025-01-08 08:16:11.56	17.55	6.13	
2025-01-08 08:16:11.78	17.55	6.14	
2025-01-08 08:16:11.98	17.55	6.16	
2025-01-08 08:16:12.20	17.55	6.17	
2025-01-08 08:16:12.41	17.56	6.19	
2025-01-08 08:16:12.61	17.56	6.21	
2025-01-08 08:16:12.82	17.56	6.22	
2025-01-08 08:16:13.02	17.56	6.24	
2025-01-08 08:16:13.23	17.57	6.26	
2025-01-08 08:16:13.43	17.57	6.27	
2025-01-08 08:16:13.64	17.57	6.29	
2025-01-08 08:16:13.84	17.57	6.30	
2025-01-08 08:16:14.05	17.57	6.32	
2025-01-08 08:16:14.26	17.58	6.34	
2025-01-08 08:16:14.46	17.58	6.35	
2025-01-08 08:16:14.67	17.58	6.37	
2025-01-08 08:16:14.87	17.58	6.38	
2025-01-08 08:16:15.08	17.59	6.40	
2025-01-08 08:16:15.28	17.59	6.42	
2025-01-08 08:16:15.49	17.59	6.43	
2025-01-08 08:16:15.69	17.59	6.45	
2025-01-08 08:16:15.90	17.60	6.47	
2025-01-08 08:16:16.10	17.60	6.48	
2025-01-08 08:16:16.31	17.60	6.50	
2025-01-08 08:16:16.51	17.60	6.51	
2025-01-08 08:16:16.72	17.61	6.53	
2025-01-08 08:16:16.92	17.61	6.55	
2025-01-08 08:16:17.13	17.61	6.56	
2025-01-08 08:16:17.33	17.61	6.58	
2025-01-08 08:16:17.54	17.62	6.60	
2025-01-08 08:16:17.74	17.62	6.61	
2025-01-08 08:16:17.95	17.62	6.63	
2025-01-08 08:16:18.15	17.62	6.64	
2025-01-08 08:16:18.36	17.63	6.66	
2025-01-08 08:16:18.56	17.63	6.68	
2025-01-08 08:16:18.77	17.63	6.69	
2025-01-08 08:16:18.97	17.63	6.71	
2025-01-08 08:16:19.18	17.64	6.73	
2025-01-08 08:16:19.38	17.64	6.74	
2025-01-08 08:16:19.59	17.64	6.76	
2025-01-08 08:16:19.79	17.64	6.78	
2025-01-08 08:16:20.00	17.65	6.79	
2025-01-08 08:16:20.20	17.65	6.81	
2025-01-08 08:16:20.41	17.65	6.82	
2025-01-08 08:16:20.61	17.65	6.84	
2025-01-08 08:16:20.83	17.66	6.86	
2025-01-08 08:16:21.04	17.66	6.88	
2025-01-08 08:16:21.24	17.66	6.89	
2025-01-08 08:16:21.45	17.66	6.91	
2025-01-08 08:16:21.66	17.67	6.93	
2025-01-08 08:16:21.86	17.67	6.94	
2025-01-08 08:16:22.06	17.67	6.96	
2025-01-08 08:16:22.27	17.68	6.97	
2025-01-08 08:16:22.47	17.68	6.99	
2025-01-08 08:16:22.68	17.68	7.01	
2025-01-08 08:16:22.90	17.68	7.03	
2025-01-08 08:16:23.11	17.69	7.04	
2025-01-08 08:16:23.31	17.69	7.06	
2025-01-08 08:16:23.52	17.69	7.08	
2025-01-08 08:16:23.72	17.69	7.09	
2025-01-08 08:16:23.94	17.70	7.11	
2025-01-08 08:16:24.15	17.70	7.13	
2025-01-08 08:16:24.35	17.70	7.14	
2025-01-08 08:16:24.56	17.70	7.16	
2025-01-08 08:16:24.76	17.71	7.18	
2025-01-08 08:16:24.98	17.71	7.19	
2025-01-08 08:16:25.19	17.71	7.21	
2025-01-08 08:16:25.39	17.71	7.23	
2025-01-08 08:16:25.60	17.72	7.25	
2025-01-08 08:16:25.81	17.72	7.26	
2025-01-08 08:16:26.01	17.72	7.28	
2025-01-08 08:16:26.22	17.72	7.30	
2025-01-08 08:16:26.43	17.73	7.31	
2025-01-08 08:16:26.63	17.73	7.33	
2025-01-08 08:16:26.84	17.73	7.35	
2025-01-08 08:16:27.04	17.73	7.36	
2025-01-08 08:16:27.25	17.74	7.38	
2025-01-08 08:16:27.45	17.74	7.40	
2025-01-08 08:16:27.66	17.74	7.41	
2025-01-08 08:16:27.86	17.74	7.43	
2025-01-08 08:16:28.07	17.75	7.45	
2025-01-08 08:16:28.27	17.75	7.46	
2025-01-08 08:16:28.48	17.75	7.48	
2025-01-08 08:16:28.69	17.76	7.50	
2025-01-08 08:16:28.89	17.76	7.52	
2025-01-08 08:16:29.10	17.76	7.53	
2025-01-08 08:16:29.30	17.76	7.55	
2025-01-08 08:16:29.51	17.77	7.57	
2025-01-08 08:16:29.71	17.77	7.58	
2025-01-08 08:16:29.92	17.77	7.60	
2025-01-08 08:16:30.12	17.77	7.62	
2025-01-08 08:16:30.32	17.78	7.63	
2025-01-08 08:16:30.53	17.78	7.65	
2025-01-08 08:16:30.74	17.78	7.67	
2025-01-08 08:16:30.94	17.78	7.69	
2025-01-08 08:16:31.15	17.79	7.70	
2025-01-08 08:16:31.35	17.79	7.72	
2025-01-08 08:16:31.56	17.79	7.74	
2025-01-08 08:16:31.76	17.79	7.75	
2025-01-08 08:16:31.97	17.80	7.77	
2025-01-08 08:16:32.17	17.80	7.79	
2025-01-08 08:16:32.38	17.80	7.81	
2025-01-08 08:16:32.58	17.81	7.82	
2025-01-08 08:16:32.79	17.81	7.84	
2025-01-08 08:16:32.99	17.81	7.86	
2025-01-08 08:16:33.20	17.81	7.88	
2025-01-08 08:16:33.40	17.82	7.89	
2025-01-08 08:16:33.60	17.82	7.91	
2025-01-08 08:16:33.81	17.82	7.93	
2025-01-08 08:16:34.02	17.82	7.94	
2025-01-08 08:16:34.22	17.83	7.96	
2025-01-08 08:16:34.43	17.83	7.98	
2025-01-08 08:16:34.63	17.83	8.00	
2025-01-08 08:16:34.84	17.83	8.01	
2025-01-08 08:16:35.04	17.84	8.03	
2025-01-08 08:16:35.25	17.84	8.05	
2025-01-08 08:16:35.46	17.84	8.07	
2025-01-08 08:16:35.67	17.85	8.08	
2025-01-08 08:16:35.88	17.85	8.10	
2025-01-08 08:16:36.08	17.85	8.12	
2025-01-08 08:16:36.29	17.85	8.14	
2025-01-08 08:16:36.49	17.86	8.15	
2025-01-08 08:16:36.70	17.86	8.17	
2025-01-08 08:16:36.90	17.86	8.19	
2025-01-08 08:16:37.11	17.86	8.21	
2025-01-08 08:16:37.32	17.87	8.22	
2025-01-08 08:16:37.52	17.87	8.24	
2025-01-08 08:16:37.73	17.87	8.26	
2025-01-08 08:16:37.93	17.87	8.28	
2025-01-08 08:16:38.14	17.88	8.29	
2025-01-08 08:16:38.34	17.88	8.31	
2025-01-08 08:16:38.55	17.88	8.33	
2025-01-08 08:16:38.76	17.89	8.35	
2025-01-08 08:16:38.96	17.89	8.36	
2025-01-08 08:16:39.17	17.89	8.38	
2025-01-08 08:16:39.37	17.89	8.40	
2025-01-08 08:16:39.58	17.90	8.42	
2025-01-08 08:16:39.78	17.90	8.44	
2025-01-08 08:16:39.99	17.90	8.45	
2025-01-08 08:16:40.19	17.90	8.47	
2025-01-08 08:16:40.40	17.91	8.49	
2025-01-08 08:16:40.61	17.91	8.51	
2025-01-08 08:16:40.81	17.91	8.52	
2025-01-08 08:16:41.03	17.92	8.54	
2025-01-08 08:16:41.24	17.92	8.56	
2025-01-08 08:16:41.44	17.92	8.58	
2025-01-08 08:16:41.65	17.92	8.60	
2025-01-08 08:16:41.85	17.93	8.61	
2025-01-08 08:16:42.06	17.93	8.63	
2025-01-08 08:16:42.26	17.93	8.65	
2025-01-08 08:16:42.47	17.94	8.67	
2025-01-08 08:16:42.67	17.94	8.69	
2025-01-08 08:16:42.88	17.94	8.70	
2025-01-08 08:16:43.08	17.94	8.72	
2025-01-08 08:16:43.29	17.95	8.74	
2025-01-08 08:16:43.49	17.95	8.76	
2025-01-08 08:16:43.70	17.95	8.78	
2025-01-08 08:16:43.90	17.95	8.79	
2025-01-08 08:16:44.11	17.96	8.81	
2025-01-08 08:16:44.32	17.96	8.83	
2025-01-08 08:16:44.53	17.96	8.85	
2025-01-08 08:16:44.73	17.97	8.87	
2025-01-08 08:16:44.94	17.97	8.88	
2025-01-08 08:16:45.15	17.97	8.90	
2025-01-08 08:16:45.35	17.97	8.92	
2025-01-08 08:16:45.55	17.98	8.94	
2025-01-08 08:16:45.76	17.98	8.96	
2025-01-08 08:16:45.97	17.98	8.97	
2025-01-08 08:16:46.17	17.99	8.99	
2025-01-08 08:16:46.37	17.99	9.01	
2025-01-08 08:16:46.58	17.99	9.03	
2025-01-08 08:16:46.79	17.99	9.05	
2025-01-08 08:16:46.99	18.00	9.07	
2025-01-08 08:16:47.20	18.00	9.08	
2025-01-08 08:16:47.40	18.00	9.10	
2025-01-08 08:16:47.61	18.01	9.12	
2025-01-08 08:16:47.81	18.01	9.14	
2025-01-08 08:16:48.02	18.01	9.16	
2025-01-08 08:16:48.22	18.01	9.17	
2025-01-08 08:16:48.43	18.02	9.19	
2025-01-08 08:16:48.63	18.02	9.21	
2025-01-08 08:16:48.84	18.02	9.23	
2025-01-08 08:16:49.04	18.03	9.25	
2025-01-08 08:16:49.25	18.03	9.27	
2025-01-08 08:16:49.45	18.03	9.28	
2025-01-08 08:16:49.66	18.03	9.30	
2025-01-08 08:16:49.86	18.04	9.32	
2025-01-08 08:16:50.07	18.04	9.34	
2025-01-08 08:16:50.28	18.04	9.36	
2025-01-08 08:16:50.48	18.05	9.38	
2025-01-08 08:16:50.69	18.05	9.40	
2025-01-08 08:16:50.89	18.05	9.41	
2025-01-08 08:16:51.10	18.05	9.43	
2025-01-08 08:16:51.30	18.06	9.45	
2025-01-08 08:16:51.51	18.06	9.47	
2025-01-08 08:16:51.72	18.06	9.49	
2025-01-08 08:16:51.92	18.07	9.51	
2025-01-08 08:16:52.13	18.07	9.53	
2025-01-08 08:16:52.33	18.07	9.54	
2025-01-08 08:16:52.54	18.07	9.56	
2025-01-08 08:16:52.74	18.08	9.58	
2025-01-08 08:16:52.95	18.08	9.60	
2025-01-08 08:16:53.15	18.08	9.62	
2025-01-08 08:16:53.36	18.09	9.64	
2025-01-08 08:16:53.57	18.09	9.66	
2025-01-08 08:16:53.77	18.09	9.67	
2025-01-08 08:16:53.97	18.09	9.69	
2025-01-08 08:16:54.18	18.10	9.71	
2025-01-08 08:16:54.38	18.10	9.73	
2025-01-08 08:16:54.59	18.10	9.75	
2025-01-08 08:16:54.79	18.11	9.77	
2025-01-08 08:16:55.00	18.11	9.79	
2025-01-08 08:16:55.20	18.11	9.80	
2025-01-08 08:16:55.41	18.11	9.82	
2025-01-08 08:16:55.61	18.12	9.84	
2025-01-08 08:16:55.82	18.12	9.86	
2025-01-08 08:16:56.02	18.12	9.88	
2025-01-08 08:16:56.23	18.13	9.90	
2025-01-08 08:16:56.43	18.13	9.92	
2025-01-08 08:16:56.64	18.13	9.94	
2025-01-08 08:16:56.85	18.14	9.96	
2025-01-08 08:16:57.06	18.14	9.98	
2025-01-08 08:16:57.27	18.14	9.99	
2025-01-08 08:16:57.47	18.14	10.01	
2025-01-08 08:16:57.68	18.15	10.03	
2025-01-08 08:16:57.88	18.15	10.05	
2025-01-08 08:16:58.09	18.15	10.07	
2025-01-08 08:16:58.29	18.16	10.09	
2025-01-08 08:16:58.50	18.16	10.11	
2025-01-08 08:16:58.70	18.16	10.13	
2025-01-08 08:16:58.91	18.16	10.15	
2025-01-08 08:16:59.11	18.17	10.17	
2025-01-08 08:16:59.32	18.17	10.18	
2025-01-08 08:16:59.52	18.17	10.20	
2025-01-08 08:16:59.73	18.18	10.22	
2025-01-08 08:16:59.93	18.18	10.24	
2025-01-08 08:17:00.14	18.18	10.26	
2025-01-08 08:17:00.34	18.19	10.28	
2025-01-08 08:17:00.55	18.19	10.30	
2025-01-08 08:17:00.75	18.19	10.32	
2025-01-08 08:17:00.96	18.19	10.34	
2025-01-08 08:17:01.16	18.20	10.36	
2025-01-08 08:17:01.38	18.20	10.38	
2025-01-08 08:17:01.59	18.20	10.40	
2025-01-08 08:17:01.79	18.21	10.42	
2025-01-08 08:17:02.00	18.21	10.44	
2025-01-08 08:17:02.20	18.21	10.45	
2025-01-08 08:17:02.41	18.22	10.47	
2025-01-08 08:17:02.61	18.22	10.49	
2025-01-08 08:17:02.82	18.22	10.51	
2025-01-08 08:17:03.02	18.23	10.53	
2025-01-08 08:17:03.23	18.23	10.55	
2025-01-08 08:17:03.43	18.23	10.57	
2025-01-08 08:17:03.64	18.23	10.59	
2025-01-08 08:17:03.85	18.24	10.61	
2025-01-08 08:17:04.05	18.24	10.63	
2025-01-08 08:17:04.26	18.24	10.65	
2025-01-08 08:17:04.46	18.25	10.67	
2025-01-08 08:17:04.67	18.25	10.69	
2025-01-08 08:17:04.87	18.25	10.71	
2025-01-08 08:17:05.08	18.26	10.73	
2025-01-08 08:17:05.28	18.26	10.75	
2025-01-08 08:17:05.49	18.26	10.77	
2025-01-08 08:17:05.69	18.26	10.79	
2025-01-08 08:17:05.90	18.27	10.81	
2025-01-08 08:17:06.10	18.27	10.83	
2025-01-08 08:17:06.31	18.27	10.85	
2025-01-08 08:17:06.52	18.28	10.87	
2025-01-08 08:17:06.72	18.28	10.89	
2025-01-08 08:17:06.93	18.28	10.91	
2025-01-08 08:17:07.13	18.29	10.92	
2025-01-08 08:17:07.34	18.29	10.94	
2025-01-08 08:17:07.54	18.29	10.96	
2025-01-08 08:17:07.74	18.30	10.98	
2025-01-08 08:17:07.95	18.30	11.00	
2025-01-08 08:17:08.16	18.30	11.02	
2025-01-08 08:17:08.36	18.31	11.04	
2025-01-08 08:17:08.57	18.31	11.06	
2025-01-08 08:17:08.77	18.31	11.08	
2025-01-08 08:17:08.97	18.31	11.10	
2025-01-08 08:17:09.18	18.32	11.12	
2025-01-08 08:17:09.39	18.32	11.14	
2025-01-08 08:17:09.59	18.32	11.16	
2025-01-08 08:17:09.79	18.33	11.18	
2025-01-08 08:17:10.00	18.33	11.20	
2025-01-08 08:17:10.20	18.33	11.22	
2025-01-08 08:17:10.41	18.34	11.24	
2025-01-08 08:17:10.62	18.34	11.26	
2025-01-08 08:17:10.82	18.34	11.28	
2025-01-08 08:17:11.02	18.35	11.30	
2025-01-08 08:17:11.23	18.35	11.32	
2025-01-08 08:17:11.44	18.35	11.34	
2025-01-08 08:17:11.64	18.36	11.36	
2025-01-08 08:17:11.85	18.36	11.38	
2025-01-08 08:17:12.05	18.36	11.40	
2025-01-08 08:17:12.26	18.37	11.42	
2025-01-08 08:17:12.46	18.37	11.44	
2025-01-08 08:17:12.67	18.37	11.46	
2025-01-08 08:17:12.88	18.37	11.49	
2025-01-08 08:17:13.08	18.38	11.51	
2025-01-08 08:17:13.28	18.38	11.52	
2025-01-08 08:17:13.49	18.38	11.55	
2025-01-08 08:17:13.70	18.39	11.57	
2025-01-08 08:17:13.90	18.39	11.59	
2025-01-08 08:17:14.10	18.39	11.61	
2025-01-08 08:17:14.31	18.40	11.63	
2025-01-08 08:17:14.52	18.40	11.65	
2025-01-08 08:17:14.72	18.40	11.67	
2025-01-08 08:17:14.93	18.41	11.69	
2025-01-08 08:17:15.13	18.41	11.71	
2025-01-08 08:17:15.35	18.41	11.73	
2025-01-08 08:17:15.56	18.42	11.75	
2025-01-08 08:17:15.76	18.42	11.77	
2025-01-08 08:17:15.97	18.42	11.79	
2025-01-08 08:17:16.17	18.43	11.81	
2025-01-08 08:17:16.37	18.43	11.83	
2025-01-08 08:17:16.58	18.43	11.85	
2025-01-08 08:17:16.78	18.44	11.87	
2025-01-08 08:17:16.99	18.44	11.90	
2025-01-08 08:17:17.20	18.44	11.92	
2025-01-08 08:17:17.40	18.45	11.94	
2025-01-08 08:17:17.60	18.45	11.96	
2025-01-08 08:17:17.81	18.45	11.98	
2025-01-08 08:17:18.02	18.46	12.00	
2025-01-08 08:17:18.22	18.46	12.02	
2025-01-08 08:17:18.43	18.46	12.04	
2025-01-08 08:17:18.63	18.47	12.06	
2025-01-08 08:17:18.84	18.47	12.08	
2025-01-08 08:17:19.04	18.47	12.10	
2025-01-08 08:17:19.25	18.48	12.12	
2025-01-08 08:17:19.45	18.48	12.14	
2025-01-08 08:17:19.66	18.48	12.17	
2025-01-08 08:17:19.86	18.49	12.19	
2025-01-08 08:17:20.07	18.49	12.21	
2025-01-08 08:17:20.27	18.49	12.23	
2025-01-08 08:17:20.48	18.50	12.25	
2025-01-08 08:17:20.68	18.50	12.27	
2025-01-08 08:17:20.89	18.50	12.29	
2025-01-08 08:17:21.09	18.51	12.31	
2025-01-08 08:17:21.31	18.51	12.33	
2025-01-08 08:17:21.52	18.51	12.36	
2025-01-08 08:17:21.72	18.52	12.38	
2025-01-08 08:17:21.94	18.52	12.40	
2025-01-08 08:17:22.15	18.52	12.42	
2025-01-08 08:17:22.35	18.53	12.44	
2025-01-08 08:17:22.56	18.53	12.46	
2025-01-08 08:17:22.77	18.53	12.48	
2025-01-08 08:17:22.98	18.54	12.51	
2025-01-08 08:17:23.18	18.54	12.53	
2025-01-08 08:17:23.39	18.54	12.55	
2025-01-08 08:17:23.60	18.55	12.57	
2025-01-08 08:17:23.80	18.55	12.59	
2025-01-08 08:17:24.00	18.55	12.61	
2025-01-08 08:17:24.21	18.56	12.63	
2025-01-08 08:17:24.42	18.56	12.66	
2025-01-08 08:17:24.62	18.56	12.68	
2025-01-08 08:17:24.83	18.57	12.70	
2025-01-08 08:17:25.03	18.57	12.72	
2025-01-08 08:17:25.24	18.57	12.74	
2025-01-08 08:17:25.44	18.58	12.76	
2025-01-08 08:17:25.65	18.58	12.78	
2025-01-08 08:17:25.85	18.58	12.81	
2025-01-08 08:17:26.06	18.59	12.83	
2025-01-08 08:17:26.26	18.59	12.85	
2025-01-08 08:17:26.47	18.59	12.87	
2025-01-08 08:17:26.67	18.60	12.89	
2025-01-08 08:17:26.88	18.60	12.91	
2025-01-08 08:17:27.08	18.60	12.93	
2025-01-08 08:17:27.29	18.61	12.96	
2025-01-08 08:17:27.50	18.61	12.98	
2025-01-08 08:17:27.70	18.61	13.00	
2025-01-08 08:17:27.91	18.62	13.02	
2025-01-08 08:17:28.11	18.62	13.04	
2025-01-08 08:17:28.32	18.63	13.07	
2025-01-08 08:17:28.52	18.63	13.09	
2025-01-08 08:17:28.73	18.63	13.11	
2025-01-08 08:17:28.93	18.64	13.13	
2025-01-08 08:17:29.15	18.64	13.15	
2025-01-08 08:17:29.36	18.64	13.18	
2025-01-08 08:17:29.56	18.65	13.20	
2025-01-08 08:17:29.77	18.65	13.22	
2025-01-08 08:17:29.98	18.65	13.24	
2025-01-08 08:17:30.18	18.66	13.26	
2025-01-08 08:17:30.39	18.66	13.29	
2025-01-08 08:17:30.59	18.66	13.31	
2025-01-08 08:17:30.80	18.67	13.33	
2025-01-08 08:17:31.00	18.67	13.35	
2025-01-08 08:17:31.21	18.67	13.37	
2025-01-08 08:17:31.41	18.68	13.40	
2025-01-08 08:17:31.62	18.68	13.42	
2025-01-08 08:17:31.82	18.69	13.44	
2025-01-08 08:17:32.03	18.69	13.46	
2025-01-08 08:17:32.23	18.69	13.48	
2025-01-08 08:17:32.44	18.70	13.51	
2025-01-08 08:17:32.64	18.70	13.53	
2025-01-08 08:17:32.84	18.70	13.55	
2025-01-08 08:17:33.05	18.71	13.57	
2025-01-08 08:17:33.25	18.71	13.60	
2025-01-08 08:17:33.46	18.71	13.62	
2025-01-08 08:17:33.66	18.72	13.64	
2025-01-08 08:17:33.87	18.72	13.66	
2025-01-08 08:17:34.08	18.72	13.69	
2025-01-08 08:17:34.28	18.73	13.71	
2025-01-08 08:17:34.50	18.73	13.73	
2025-01-08 08:17:34.70	18.74	13.75	
2025-01-08 08:17:34.91	18.74	13.78	
2025-01-08 08:17:35.11	18.74	13.80	
2025-01-08 08:17:35.32	18.75	13.82	
2025-01-08 08:17:35.54	18.75	13.85	
2025-01-08 08:17:35.74	18.75	13.87	
2025-01-08 08:17:35.95	18.76	13.89	
2025-01-08 08:17:36.15	18.76	13.91	
2025-01-08 08:17:36.36	18.76	13.94	
2025-01-08 08:17:36.56	18.77	13.96	
2025-01-08 08:17:36.77	18.77	13.98	
2025-01-08 08:17:36.97	18.78	14.00	
2025-01-08 08:17:37.18	18.78	14.03	
2025-01-08 08:17:37.38	18.78	14.05	
2025-01-08 08:17:37.60	18.79	14.07	
2025-01-08 08:17:37.80	18.79	14.10	
2025-01-08 08:17:38.01	18.79	14.12	
2025-01-08 08:17:38.22	18.80	14.14	
2025-01-08 08:17:38.42	18.80	14.16	
2025-01-08 08:17:38.63	18.81	14.19	
2025-01-08 08:17:38.83	18.81	14.21	
2025-01-08 08:17:39.04	18.81	14.23	
2025-01-08 08:17:39.24	18.82	14.26	
2025-01-08 08:17:39.45	18.82	14.28	
2025-01-08 08:17:39.66	18.82	14.30	
2025-01-08 08:17:39.86	18.83	14.33	
2025-01-08 08:17:40.06	18.83	14.35	
2025-01-08 08:17:40.27	18.84	14.37	
2025-01-08 08:17:40.48	18.84	14.40	
2025-01-08 08:17:40.68	18.84	14.42	
2025-01-08 08:17:40.89	18.85	14.44	
2025-01-08 08:17:41.09	18.85	14.46	
2025-01-08 08:17:41.30	18.85	14.49	
2025-01-08 08:17:41.51	18.86	14.51	
2025-01-08 08:17:41.71	18.86	14.53	
2025-01-08 08:17:41.92	18.87	14.56	
2025-01-08 08:17:42.12	18.87	14.58	
2025-01-08 08:17:42.33	18.87	14.61	
2025-01-08 08:17:42.53	18.88	14.63	
2025-01-08 08:17:42.74	18.88	14.65	
2025-01-08 08:17:42.94	18.88	14.67	
2025-01-08 08:17:43.15	18.89	14.70	
2025-01-08 08:17:43.36	18.89	14.72	
2025-01-08 08:17:43.57	18.90	14.75	
2025-01-08 08:17:43.78	18.90	14.77	
2025-01-08 08:17:43.98	18.90	14.79	
2025-01-08 08:17:44.19	18.91	14.82	
2025-01-08 08:17:44.39	18.91	14.84	
2025-01-08 08:17:44.60	18.91	14.86	
2025-01-08 08:17:44.80	18.92	14.89	
2025-01-08 08:17:45.01	18.92	14.91	
2025-01-08 08:17:45.21	18.93	14.94	
2025-01-08 08:17:45.42	18.93	14.96	
2025-01-08 08:17:45.62	18.93	14.98	
2025-01-08 08:17:45.83	18.94	15.01	
2025-01-08 08:17:46.03	18.94	15.03	
2025-01-08 08:17:46.25	18.95	15.06	
2025-01-08 08:17:46.46	18.95	15.08	
2025-01-08 08:17:46.66	18.95	15.10	
2025-01-08 08:17:46.87	18.96	15.13	
2025-01-08 08:17:47.08	18.96	15.15	
2025-01-08 08:17:47.29	18.97	15.18	
2025-01-08 08:17:47.50	18.97	15.20	
2025-01-08 08:17:47.70	18.97	15.22	
2025-01-08 08:17:47.91	18.98	15.25	
2025-01-08 08:17:48.11	18.98	15.27	
2025-01-08 08:17:48.32	18.99	15.30	
2025-01-08 08:17:48.52	18.99	15.32	
2025-01-08 08:17:48.73	18.99	15.35	
2025-01-08 08:17:48.94	19.00	15.37	
2025-01-08 08:17:49.14	19.00	15.39	
2025-01-08 08:17:49.35	19.01	15.42	
2025-01-08 08:17:49.55	19.01	15.44	
2025-01-08 08:17:49.76	19.01	15.47	
2025-01-08 08:17:49.97	19.02	15.49	
2025-01-08 08:17:50.18	19.02	15.52	
2025-01-08 08:17:50.38	19.03	15.54	
2025-01-08 08:17:50.59	19.03	15.57	
2025-01-08 08:17:50.79	19.03	15.59	
2025-01-08 08:17:51.00	19.04	15.61	
2025-01-08 08:17:51.20	19.04	15.64	
2025-01-08 08:17:51.41	19.05	15.66	
2025-01-08 08:17:51.61	19.05	15.69	
2025-01-08 08:17:51.82	19.05	15.71	
2025-01-08 08:17:52.02	19.06	15.74	
2025-01-08 08:17:52.23	19.06	15.76	
2025-01-08 08:17:52.43	19.07	15.79	
2025-01-08 08:17:52.64	19.07	15.81	
2025-01-08 08:17:52.84	19.07	15.83	
2025-01-08 08:17:53.05	19.08	15.86	
2025-01-08 08:17:53.25	19.08	15.88	
2025-01-08 08:17:53.46	19.09	15.91	
2025-01-08 08:17:53.66	19.09	15.93	
2025-01-08 08:17:53.87	19.09	15.96	
2025-01-08 08:17:54.08	19.10	15.98	
2025-01-08 08:17:54.28	19.10	16.01	
2025-01-08 08:17:54.49	19.11	16.03	
2025-01-08 08:17:54.69	19.11	16.06	
2025-01-08 08:17:54.90	19.11	16.08	
2025-01-08 08:17:55.10	19.12	16.11	
2025-01-08 08:17:55.31	19.12	16.13	
2025-01-08 08:17:55.51	19.13	16.16	
2025-01-08 08:17:55.72	19.13	16.18	
2025-01-08 08:17:55.92	19.13	16.21	
2025-01-08 08:17:56.13	19.14	16.23	
2025-01-08 08:17:56.33	19.14	16.26	
2025-01-08 08:17:56.54	19.15	16.28	
2025-01-08 08:17:56.75	19.15	16.31	
2025-01-08 08:17:56.95	19.16	16.34	
2025-01-08 08:17:57.16	19.16	16.36	
2025-01-08 08:17:57.36	19.16	16.39	
2025-01-08 08:17:57.57	19.17	16.41	
2025-01-08 08:17:57.77	19.17	16.44	
2025-01-08 08:17:57.98	19.18	16.46	
2025-01-08 08:17:58.18	19.18	16.49	
2025-01-08 08:17:58.39	19.18	16.51	
2025-01-08 08:17:58.59	19.19	16.54	
2025-01-08 08:17:58.80	19.19	16.56	
2025-01-08 08:17:59.00	19.20	16.59	
2025-01-08 08:17:59.21	19.20	16.62	
2025-01-08 08:17:59.42	19.21	16.64	
2025-01-08 08:17:59.62	19.21	16.67	
2025-01-08 08:17:59.83	19.21	16.69	
2025-01-08 08:18:00.03	19.22	16.72	
2025-01-08 08:18:00.23	19.22	16.74	
2025-01-08 08:18:00.44	19.23	16.77	
2025-01-08 08:18:00.64	19.23	16.79	
2025-01-08 08:18:00.86	19.24	16.82	
2025-01-08 08:18:01.07	19.24	16.85	
2025-01-08 08:18:01.27	19.24	16.87	
2025-01-08 08:18:01.48	19.25	16.90	
2025-01-08 08:18:01.68	19.25	16.93	
2025-01-08 08:18:01.89	19.26	16.95	
2025-01-08 08:18:02.09	19.26	16.98	
2025-01-08 08:18:02.30	19.27	17.00	
2025-01-08 08:18:02.50	19.27	17.03	
2025-01-08 08:18:02.71	19.27	17.06	
2025-01-08 08:18:02.91	19.28	17.08	
2025-01-08 08:18:03.12	19.28	17.11	
2025-01-08 08:18:03.32	19.29	17.13	
2025-01-08 08:18:03.53	19.29	17.16	
2025-01-08 08:18:03.73	19.30	17.19	
2025-01-08 08:18:03.94	19.30	17.21	
2025-01-08 08:18:04.14	19.31	17.24	
2025-01-08 08:18:04.35	19.31	17.27	
2025-01-08 08:18:04.56	19.31	17.29	
2025-01-08 08:18:04.76	19.32	17.32	
2025-01-08 08:18:04.97	19.32	17.34	
2025-01-08 08:18:05.17	19.33	17.37	
2025-01-08 08:18:05.38	19.33	17.40	
2025-01-08 08:18:05.58	19.34	17.42	
2025-01-08 08:18:05.79	19.34	17.45	
2025-01-08 08:18:05.99	19.35	17.48	
2025-01-08 08:18:06.20	19.35	17.50	
2025-01-08 08:18:06.40	19.35	17.53	
2025-01-08 08:18:06.61	19.36	17.56	
2025-01-08 08:18:06.81	19.36	17.58	
2025-01-08 08:18:07.02	19.37	17.61	
2025-01-08 08:18:07.22	19.37	17.64	
2025-01-08 08:18:07.43	19.38	17.66	
2025-01-08 08:18:07.63	19.38	17.69	
2025-01-08 08:18:07.84	19.39	17.72	
2025-01-08 08:18:08.04	19.39	17.74	
2025-01-08 08:18:08.25	19.39	17.77	
2025-01-08 08:18:08.46	19.40	17.80	
2025-01-08 08:18:08.67	19.40	17.83	
2025-01-08 08:18:08.88	19.41	17.85	
2025-01-08 08:18:09.09	19.41	17.88	
2025-01-08 08:18:09.29	19.42	17.91	
2025-01-08 08:18:09.50	19.42	17.94	
2025-01-08 08:18:09.70	19.43	17.96	
2025-01-08 08:18:09.91	19.43	17.99	
2025-01-08 08:18:10.11	19.44	18.02	
2025-01-08 08:18:10.32	19.44	18.04	
2025-01-08 08:18:10.52	19.44	18.07	
2025-01-08 08:18:10.73	19.45	18.10	
2025-01-08 08:18:10.93	19.45	18.13	
2025-01-08 08:18:11.14	19.46	18.15	
2025-01-08 08:18:11.34	19.46	18.18	
2025-01-08 08:18:11.55	19.47	18.21	
2025-01-08 08:18:11.77	19.47	18.24	
2025-01-08 08:18:11.97	19.48	18.27	
2025-01-08 08:18:12.18	19.48	18.29	
2025-01-08 08:18:12.38	19.49	18.32	
2025-01-08 08:18:12.59	19.49	18.35	
2025-01-08 08:18:12.79	19.50	18.38	
2025-01-08 08:18:13.00	19.50	18.40	
2025-01-08 08:18:13.20	19.51	18.43	
2025-01-08 08:18:13.41	19.51	18.46	
2025-01-08 08:18:13.62	19.52	18.49	
2025-01-08 08:18:13.82	19.52	18.51	
2025-01-08 08:18:14.03	19.52	18.54	
2025-01-08 08:18:14.23	19.53	18.57	
2025-01-08 08:18:14.44	19.53	18.60	
2025-01-08 08:18:14.65	19.54	18.63	
2025-01-08 08:18:14.85	19.54	18.66	
2025-01-08 08:18:15.05	19.55	18.68	
2025-01-08 08:18:15.26	19.55	18.71	
2025-01-08 08:18:15.46	19.56	18.74	
2025-01-08 08:18:15.67	19.56	18.77	
2025-01-08 08:18:15.88	19.57	18.80	
2025-01-08 08:18:16.09	19.57	18.83	
2025-01-08 08:18:16.30	19.58	18.85	
2025-01-08 08:18:16.51	19.58	18.88	
2025-01-08 08:18:16.71	19.59	18.91	
2025-01-08 08:18:16.92	19.59	18.94	
2025-01-08 08:18:17.12	19.60	18.97	
2025-01-08 08:18:17.33	19.60	19.00	
2025-01-08 08:18:17.53	19.61	19.02	
2025-01-08 08:18:17.74	19.61	19.05	
2025-01-08 08:18:17.94	19.62	19.08	
2025-01-08 08:18:18.15	19.62	19.11	
2025-01-08 08:18:18.35	19.63	19.14	
2025-01-08 08:18:18.56	19.63	19.17	
2025-01-08 08:18:18.76	19.64	19.20	
2025-01-08 08:18:18.97	19.64	19.22	
2025-01-08 08:18:19.17	19.65	19.25	
2025-01-08 08:18:19.37	19.65	19.28	
2025-01-08 08:18:19.58	19.66	19.31	
2025-01-08 08:18:19.79	19.66	19.34	
2025-01-08 08:18:19.99	19.67	19.37	
2025-01-08 08:18:20.19	19.67	19.40	
2025-01-08 08:18:20.40	19.68	19.43	
2025-01-08 08:18:20.61	19.68	19.46	
2025-01-08 08:18:20.81	19.68	19.48	
2025-01-08 08:18:21.01	19.69	19.51	
2025-01-08 08:18:21.22	19.69	19.54	
2025-01-08 08:18:21.44	19.70	19.57	
2025-01-08 08:18:21.64	19.71	19.60	
2025-01-08 08:18:21.85	19.71	19.63	
2025-01-08 08:18:22.05	19.72	19.66	
2025-01-08 08:18:22.26	19.72	19.69	
2025-01-08 08:18:22.46	19.73	19.72	
2025-01-08 08:18:22.67	19.73	19.75	
2025-01-08 08:18:22.87	19.74	19.78	
2025-01-08 08:18:23.08	19.74	19.81	
2025-01-08 08:18:23.28	19.75	19.84	
2025-01-08 08:18:23.49	19.75	19.87	
2025-01-08 08:18:23.69	19.76	19.90	
2025-01-08 08:18:23.90	19.76	19.93	
2025-01-08 08:18:24.10	19.77	19.95	
2025-01-08 08:18:24.31	19.77	19.99	
2025-01-08 08:18:24.51	19.78	20.01	
2025-01-08 08:18:24.72	19.78	20.04	
2025-01-08 08:18:24.93	19.79	20.08	
2025-01-08 08:18:25.13	19.79	20.10	
2025-01-08 08:18:25.34	19.80	20.13	
2025-01-08 08:18:25.54	19.80	20.16	
2025-01-08 08:18:25.74	19.81	20.19	
2025-01-08 08:18:25.95	19.81	20.22	
2025-01-08 08:18:26.16	19.82	20.25	
2025-01-08 08:18:26.36	19.82	20.28	
2025-01-08 08:18:26.57	19.83	20.31	
2025-01-08 08:18:26.79	19.83	20.35	
2025-01-08 08:18:26.99	19.84	20.38	
2025-01-08 08:18:27.19	19.84	20.41	
2025-01-08 08:18:27.40	19.85	20.44	
2025-01-08 08:18:27.61	19.85	20.47	
2025-01-08 08:18:27.82	19.86	20.50	
2025-01-08 08:18:28.03	19.87	20.53	
2025-01-08 08:18:28.23	19.87	20.56	
2025-01-08 08:18:28.44	19.88	20.59	
2025-01-08 08:18:28.64	19.88	20.62	
2025-01-08 08:18:28.85	19.89	20.65	
2025-01-08 08:18:29.05	19.89	20.68	
2025-01-08 08:18:29.26	19.90	20.71	
2025-01-08 08:18:29.47	19.90	20.74	
2025-01-08 08:18:29.67	19.91	20.77	
2025-01-08 08:18:29.87	19.91	20.80	
2025-01-08 08:18:30.08	19.92	20.84	
2025-01-08 08:18:30.29	19.92	20.87	
2025-01-08 08:18:30.49	19.93	20.90	
2025-01-08 08:18:30.70	19.94	20.93	
2025-01-08 08:18:30.90	19.94	20.96	
2025-01-08 08:18:31.11	19.95	20.99	
2025-01-08 08:18:31.31	19.95	21.02	
2025-01-08 08:18:31.52	19.96	21.05	
2025-01-08 08:18:31.73	19.96	21.09	
2025-01-08 08:18:31.93	19.97	21.12	
2025-01-08 08:18:32.13	19.97	21.15	
2025-01-08 08:18:32.34	19.98	21.18	
2025-01-08 08:18:32.54	19.98	21.21	
2025-01-08 08:18:32.75	19.99	21.24	
2025-01-08 08:18:32.96	20.00	21.27	
2025-01-08 08:18:33.16	20.00	21.30	
2025-01-08 08:18:33.36	20.01	21.33	
2025-01-08 08:18:33.57	20.01	21.37	
2025-01-08 08:18:33.77	20.02	21.40	
2025-01-08 08:18:33.98	20.02	21.43	
2025-01-08 08:18:34.18	20.03	21.46	
2025-01-08 08:18:34.39	20.03	21.49	
2025-01-08 08:18:34.59	20.04	21.52	
2025-01-08 08:18:34.80	20.05	21.56	
2025-01-08 08:18:35.00	20.05	21.59	
2025-01-08 08:18:35.21	20.06	21.62	
2025-01-08 08:18:35.41	20.06	21.65	
2025-01-08 08:18:35.62	20.07	21.68	
2025-01-08 08:18:35.82	20.07	21.72	
2025-01-08 08:18:36.03	20.08	21.75	
2025-01-08 08:18:36.23	20.08	21.78	
2025-01-08 08:18:36.44	20.09	21.81	
2025-01-08 08:18:36.64	20.10	21.84	
2025-01-08 08:18:36.85	20.10	21.88	
2025-01-08 08:18:37.05	20.11	21.91	
2025-01-08 08:18:37.26	20.11	21.94	
2025-01-08 08:18:37.48	20.12	21.98	
2025-01-08 08:18:37.68	20.13	22.01	
2025-01-08 08:18:37.89	20.13	22.04	
2025-01-08 08:18:38.09	20.14	22.07	
2025-01-08 08:18:38.30	20.14	22.11	
2025-01-08 08:18:38.50	20.15	22.14	
2025-01-08 08:18:38.71	20.15	22.17	
2025-01-08 08:18:38.91	20.16	22.20	
2025-01-08 08:18:39.12	20.17	22.24	
2025-01-08 08:18:39.32	20.17	22.27	
2025-01-08 08:18:39.53	20.18	22.30	
2025-01-08 08:18:39.73	20.18	22.33	
2025-01-08 08:18:39.94	20.19	22.37	
2025-01-08 08:18:40.15	20.20	22.40	
2025-01-08 08:18:40.35	20.20	22.43	
2025-01-08 08:18:40.55	20.21	22.47	
2025-01-08 08:18:40.76	20.21	22.50	
2025-01-08 08:18:40.96	20.22	22.53	
2025-01-08 08:18:41.17	20.22	22.57	
2025-01-08 08:18:41.37	20.23	22.60	
2025-01-08 08:18:41.58	20.24	22.63	
2025-01-08 08:18:41.78	20.24	22.66	
2025-01-08 08:18:41.99	20.25	22.70	
2025-01-08 08:18:42.19	20.25	22.73	
2025-01-08 08:18:42.40	20.26	22.77	
2025-01-08 08:18:42.60	20.27	22.80	
2025-01-08 08:18:42.81	20.27	22.83	
2025-01-08 08:18:43.02	20.28	22.87	
2025-01-08 08:18:43.22	20.28	22.90	
2025-01-08 08:18:43.43	20.29	22.93	
2025-01-08 08:18:43.63	20.30	22.97	
2025-01-08 08:18:43.84	20.30	23.00	
2025-01-08 08:18:44.04	20.31	23.03	
2025-01-08 08:18:44.25	20.32	23.07	
2025-01-08 08:18:44.45	20.32	23.10	
2025-01-08 08:18:44.66	20.33	23.14	
2025-01-08 08:18:44.86	20.33	23.17	
2025-01-08 08:18:45.07	20.34	23.21	
2025-01-08 08:18:45.27	20.35	23.24	
2025-01-08 08:18:45.48	20.35	23.27	
2025-01-08 08:18:45.68	20.36	23.31	
2025-01-08 08:18:45.89	20.36	23.34	
2025-01-08 08:18:46.09	20.37	23.38	
2025-01-08 08:18:46.30	20.38	23.41	
2025-01-08 08:18:46.50	20.38	23.44	
2025-01-08 08:18:46.71	20.39	23.48	
2025-01-08 08:18:46.91	20.40	23.51	
2025-01-08 08:18:47.12	20.40	23.55	
2025-01-08 08:18:47.32	20.41	23.58	
2025-01-08 08:18:47.53	20.41	23.62	
2025-01-08 08:18:47.73	20.42	23.65	
2025-01-08 08:18:47.94	20.43	23.69	
2025-01-08 08:18:48.16	20.43	23.72	
2025-01-08 08:18:48.36	20.44	23.76	
2025-01-08 08:18:48.57	20.45	23.79	
2025-01-08 08:18:48.77	20.45	23.83	
2025-01-08 08:18:48.98	20.46	23.86	
2025-01-08 08:18:49.20	20.47	23.90	
2025-01-08 08:18:49.40	20.47	23.94	
2025-01-08 08:18:49.61	20.48	23.97	
2025-01-08 08:18:49.81	20.49	24.01	
2025-01-08 08:18:50.01	20.49	24.04	
2025-01-08 08:18:50.22	20.50	24.08	
2025-01-08 08:18:50.43	20.51	24.11	
2025-01-08 08:18:50.63	20.51	24.15	
2025-01-08 08:18:50.84	20.52	24.18	
2025-01-08 08:18:51.04	20.52	24.22	
2025-01-08 08:18:51.24	20.53	24.25	
2025-01-08 08:18:51.45	20.54	24.29	
2025-01-08 08:18:51.65	20.54	24.32	
2025-01-08 08:18:51.86	20.55	24.36	
2025-01-08 08:18:52.07	20.56	24.40	
2025-01-08 08:18:52.27	20.56	24.43	
2025-01-08 08:18:52.47	20.57	24.47	
2025-01-08 08:18:52.68	20.58	24.50	
2025-01-08 08:18:52.88	20.58	24.54	
2025-01-08 08:18:53.09	20.59	24.58	
2025-01-08 08:18:53.30	20.60	24.61	
2025-01-08 08:18:53.50	20.60	24.65	
2025-01-08 08:18:53.71	20.61	24.69	
2025-01-08 08:18:53.91	20.62	24.72	
2025-01-08 08:18:54.12	20.62	24.76	
2025-01-08 08:18:54.32	20.63	24.79	
2025-01-08 08:18:54.54	20.64	24.83	
2025-01-08 08:18:54.75	20.65	24.87	
2025-01-08 08:18:54.95	20.65	24.91	
2025-01-08 08:18:55.16	20.66	24.94	
2025-01-08 08:18:55.37	20.67	24.98	
2025-01-08 08:18:55.57	20.67	25.02	
2025-01-08 08:18:55.77	20.68	25.05	
2025-01-08 08:18:55.98	20.69	25.09	
2025-01-08 08:18:56.19	20.69	25.13	
2025-01-08 08:18:56.39	20.70	25.16	
2025-01-08 08:18:56.60	20.71	25.20	
2025-01-08 08:18:56.80	20.71	25.24	
2025-01-08 08:18:57.01	20.72	25.28	
2025-01-08 08:18:57.21	20.73	25.31	
2025-01-08 08:18:57.42	20.74	25.35	
2025-01-08 08:18:57.62	20.74	25.39	
2025-01-08 08:18:57.83	20.75	25.43	
2025-01-08 08:18:58.03	20.76	25.46	
2025-01-08 08:18:58.24	20.76	25.50	
2025-01-08 08:18:58.45	20.77	25.54	
2025-01-08 08:18:58.65	20.78	25.58	
2025-01-08 08:18:58.86	20.78	25.61	
2025-01-08 08:18:59.06	20.79	25.65	
2025-01-08 08:18:59.27	20.80	25.69	
2025-01-08 08:18:59.48	20.81	25.73	
2025-01-08 08:18:59.68	20.81	25.77	
2025-01-08 08:18:59.90	20.82	25.81	
2025-01-08 08:19:00.10	20.83	25.84	
2025-01-08 08:19:00.32	20.84	25.88	
2025-01-08 08:19:00.53	20.84	25.92	
2025-01-08 08:19:00.74	20.85	25.96	
2025-01-08 08:19:00.95	20.86	26.00	
2025-01-08 08:19:01.15	20.86	26.04	
2025-01-08 08:19:01.36	20.87	26.08	
2025-01-08 08:19:01.56	20.88	26.11	
2025-01-08 08:19:01.77	20.89	26.15	
2025-01-08 08:19:01.99	20.89	26.20	
2025-01-08 08:19:02.19	20.90	26.23	
2025-01-08 08:19:02.40	20.91	26.27	
2025-01-08 08:19:02.61	20.92	26.31	
2025-01-08 08:19:02.81	20.92	26.35	
2025-01-08 08:19:03.01	20.93	26.39	
2025-01-08 08:19:03.22	20.94	26.43	
2025-01-08 08:19:03.43	20.95	26.47	
2025-01-08 08:19:03.63	20.95	26.51	
2025-01-08 08:19:03.84	20.96	26.55	
2025-01-08 08:19:04.04	20.97	26.58	
2025-01-08 08:19:04.25	20.98	26.62	
2025-01-08 08:19:04.45	20.98	26.66	
2025-01-08 08:19:04.66	20.99	26.70	
2025-01-08 08:19:04.86	21.00	26.74	
2025-01-08 08:19:05.07	21.01	26.78	
2025-01-08 08:19:05.27	21.01	26.82	
2025-01-08 08:19:05.48	21.02	26.86	
2025-01-08 08:19:05.68	21.03	26.90	
2025-01-08 08:19:05.88	21.04	26.94	
2025-01-08 08:19:06.09	21.04	26.98	
2025-01-08 08:19:06.30	21.05	27.02	
2025-01-08 08:19:06.50	21.06	27.06	
2025-01-08 08:19:06.70	21.07	27.10	
2025-01-08 08:19:06.91	21.08	27.14	
2025-01-08 08:19:07.11	21.08	27.18	
2025-01-08 08:19:07.32	21.09	27.22	
2025-01-08 08:19:07.52	21.10	27.26	
2025-01-08 08:19:07.73	21.11	27.30	
2025-01-08 08:19:07.93	21.11	27.34	
2025-01-08 08:19:08.14	21.12	27.38	
2025-01-08 08:19:08.34	21.13	27.42	
2025-01-08 08:19:08.55	21.14	27.46	
2025-01-08 08:19:08.76	21.15	27.50	
2025-01-08 08:19:08.96	21.15	27.54	
2025-01-08 08:19:09.17	21.16	27.58	
2025-01-08 08:19:09.37	21.17	27.62	
2025-01-08 08:19:09.58	21.18	27.66	
2025-01-08 08:19:09.78	21.19	27.70	
2025-01-08 08:19:09.99	21.19	27.75	
2025-01-08 08:19:10.19	21.20	27.79	
2025-01-08 08:19:10.40	21.21	27.83	
2025-01-08 08:19:10.60	21.22	27.87	
2025-01-08 08:19:10.81	21.23	27.91	
2025-01-08 08:19:11.01	21.23	27.95	
2025-01-08 08:19:11.22	21.24	27.99	
2025-01-08 08:19:11.42	21.25	28.03	
2025-01-08 08:19:11.63	21.26	28.08	
2025-01-08 08:19:11.83	21.27	28.12	
2025-01-08 08:19:12.04	21.28	28.16	
2025-01-08 08:19:12.24	21.28	28.20	
2025-01-08 08:19:12.45	21.29	28.24	
2025-01-08 08:19:12.65	21.30	28.28	
2025-01-08 08:19:12.86	21.31	28.33	
2025-01-08 08:19:13.06	21.32	28.37	
2025-01-08 08:19:13.27	21.33	28.41	
2025-01-08 08:19:13.47	21.33	28.45	
2025-01-08 08:19:13.68	21.34	28.49	
2025-01-08 08:19:13.89	21.35	28.54	
2025-01-08 08:19:14.09	21.36	28.58	
2025-01-08 08:19:14.30	21.37	28.62	
2025-01-08 08:19:14.50	21.38	28.66	
2025-01-08 08:19:14.71	21.38	28.71	
2025-01-08 08:19:14.91	21.39	28.75	
2025-01-08 08:19:15.12	21.40	28.79	
2025-01-08 08:19:15.32	21.41	28.83	
2025-01-08 08:19:15.53	21.42	28.88	
2025-01-08 08:19:15.73	21.43	28.92	
2025-01-08 08:19:15.94	21.44	28.96	
2025-01-08 08:19:16.14	21.44	29.00	
2025-01-08 08:19:16.35	21.45	29.05	
2025-01-08 08:19:16.55	21.46	29.09	
2025-01-08 08:19:16.76	21.47	29.13	
2025-01-08 08:19:16.98	21.48	29.18	
2025-01-08 08:19:17.18	21.49	29.22	
2025-01-08 08:19:17.39	21.50	29.27	
2025-01-08 08:19:17.59	21.51	29.31	
2025-01-08 08:19:17.80	21.51	29.35	
2025-01-08 08:19:18.00	21.52	29.40	
2025-01-08 08:19:18.21	21.53	29.44	
2025-01-08 08:19:18.41	21.54	29.48	
2025-01-08 08:19:18.62	21.55	29.53	
2025-01-08 08:19:18.82	21.56	29.57	
2025-01-08 08:19:19.03	21.57	29.62	
2025-01-08 08:19:19.23	21.58	29.66	
2025-01-08 08:19:19.44	21.59	29.71	
2025-01-08 08:19:19.65	21.60	29.75	
2025-01-08 08:19:19.85	21.60	29.79	
2025-01-08 08:19:20.06	21.61	29.84	
2025-01-08 08:19:20.26	21.62	29.88	
2025-01-08 08:19:20.46	21.63	29.93	
2025-01-08 08:19:20.67	21.64	29.97	
2025-01-08 08:19:20.88	21.65	30.02	
2025-01-08 08:19:21.08	21.66	30.06	
2025-01-08 08:19:21.28	21.67	30.10	
2025-01-08 08:19:21.49	21.68	30.15	
2025-01-08 08:19:21.70	21.69	30.20	
2025-01-08 08:19:21.90	21.70	30.24	
2025-01-08 08:19:22.11	21.71	30.29	
2025-01-08 08:19:22.31	21.71	30.33	
2025-01-08 08:19:22.52	21.72	30.38	
2025-01-08 08:19:22.72	21.73	30.42	
2025-01-08 08:19:22.93	21.74	30.47	
2025-01-08 08:19:23.14	21.75	30.51	
2025-01-08 08:19:23.34	21.76	30.56	
2025-01-08 08:19:23.54	21.77	30.60	
2025-01-08 08:19:23.75	21.78	30.65	
2025-01-08 08:19:23.96	21.79	30.70	
2025-01-08 08:19:24.16	21.80	30.74	
2025-01-08 08:19:24.38	21.81	30.79	
2025-01-08 08:19:24.59	21.82	30.84	
2025-01-08 08:19:24.79	21.83	30.88	
2025-01-08 08:19:24.99	21.84	30.93	
2025-01-08 08:19:25.20	21.85	30.98	
2025-01-08 08:19:25.40	21.86	31.02	
2025-01-08 08:19:25.61	21.87	31.07	
2025-01-08 08:19:25.82	21.88	31.12	
2025-01-08 08:19:26.02	21.89	31.16	
2025-01-08 08:19:26.23	21.90	31.21	
2025-01-08 08:19:26.43	21.91	31.25	
2025-01-08 08:19:26.65	21.92	31.30	
2025-01-08 08:19:26.86	21.93	31.35	
2025-01-08 08:19:27.06	21.94	31.40	
2025-01-08 08:19:27.27	21.95	31.45	
2025-01-08 08:19:27.47	21.96	31.49	
2025-01-08 08:19:27.68	21.97	31.54	
2025-01-08 08:19:27.88	21.98	31.59	
2025-01-08 08:19:28.09	21.99	31.64	
2025-01-08 08:19:28.29	22.00	31.68	
2025-01-08 08:19:28.50	22.01	31.73	
2025-01-08 08:19:28.70	22.02	31.78	
2025-01-08 08:19:28.91	22.03	31.83	
2025-01-08 08:19:29.11	22.04	31.87	
2025-01-08 08:19:29.32	22.05	31.92	
2025-01-08 08:19:29.52	22.06	31.97	
2025-01-08 08:19:29.73	22.07	32.02	
2025-01-08 08:19:29.93	22.08	32.06	
2025-01-08 08:19:30.14	22.09	32.11	
2025-01-08 08:19:30.34	22.10	32.16	
2025-01-08 08:19:30.55	22.11	32.21	
2025-01-08 08:19:30.75	22.12	32.26	
2025-01-08 08:19:30.96	22.13	32.31	
2025-01-08 08:19:31.16	22.14	32.35	
2025-01-08 08:19:31.37	22.15	32.40	
2025-01-08 08:19:31.57	22.16	32.45	
2025-01-08 08:19:31.78	22.17	32.50	
2025-01-08 08:19:31.98	22.18	32.55	
2025-01-08 08:19:32.19	22.19	32.60	
2025-01-08 08:19:32.39	22.20	32.65	
2025-01-08 08:19:32.60	22.22	32.70	
2025-01-08 08:19:32.80	22.23	32.75	
2025-01-08 08:19:33.01	22.24	32.80	
2025-01-08 08:19:33.21	22.25	32.84	
2025-01-08 08:19:33.42	22.26	32.90	
2025-01-08 08:19:33.62	22.27	32.94	
2025-01-08 08:19:33.83	22.28	32.99	
2025-01-08 08:19:34.03	22.29	33.04	
2025-01-08 08:19:34.24	22.30	33.09	
2025-01-08 08:19:34.44	22.31	33.14	
2025-01-08 08:19:34.65	22.32	33.19	
2025-01-08 08:19:34.85	22.34	33.24	
2025-01-08 08:19:35.05	22.35	33.29	
2025-01-08 08:19:35.26	22.36	33.34	
2025-01-08 08:19:35.47	22.37	33.39	
2025-01-08 08:19:35.67	22.38	33.44	
2025-01-08 08:19:35.88	22.39	33.50	
2025-01-08 08:19:36.09	22.40	33.55	
2025-01-08 08:19:36.30	22.41	33.60	
2025-01-08 08:19:36.51	22.43	33.65	
2025-01-08 08:19:36.71	22.44	33.70	
2025-01-08 08:19:36.92	22.45	33.75	
2025-01-08 08:19:37.12	22.46	33.80	
2025-01-08 08:19:37.33	22.47	33.86	
2025-01-08 08:19:37.53	22.48	33.91	
2025-01-08 08:19:37.74	22.49	33.96	
2025-01-08 08:19:37.95	22.51	34.01	
2025-01-08 08:19:38.15	22.52	34.06	
2025-01-08 08:19:38.37	22.53	34.12	
2025-01-08 08:19:38.58	22.54	34.17	
2025-01-08 08:19:38.78	22.55	34.22	
2025-01-08 08:19:38.99	22.57	34.27	
2025-01-08 08:19:39.19	22.58	34.32	
2025-01-08 08:19:39.40	22.59	34.38	
2025-01-08 08:19:39.60	22.60	34.43	
2025-01-08 08:19:39.81	22.61	34.48	
2025-01-08 08:19:40.01	22.62	34.53	
2025-01-08 08:19:40.22	22.64	34.59	
2025-01-08 08:19:40.42	22.65	34.64	
2025-01-08 08:19:40.63	22.66	34.69	
2025-01-08 08:19:40.84	22.67	34.75	
2025-01-08 08:19:41.04	22.68	34.80	
2025-01-08 08:19:41.25	22.70	34.85	
2025-01-08 08:19:41.45	22.71	34.90	
2025-01-08 08:19:41.66	22.72	34.96	
2025-01-08 08:19:41.86	22.73	35.01	
2025-01-08 08:19:42.07	22.75	35.06	
2025-01-08 08:19:42.27	22.76	35.12	
2025-01-08 08:19:42.48	22.77	35.17	
2025-01-08 08:19:42.68	22.78	35.22	
2025-01-08 08:19:42.89	22.80	35.28	
2025-01-08 08:19:43.10	22.81	35.33	
2025-01-08 08:19:43.30	22.82	35.39	
2025-01-08 08:19:43.51	22.83	35.44	
2025-01-08 08:19:43.71	22.85	35.49	
2025-01-08 08:19:43.92	22.86	35.55	
2025-01-08 08:19:44.12	22.87	35.60	
2025-01-08 08:19:44.33	22.88	35.66	
2025-01-08 08:19:44.53	22.90	35.71	
2025-01-08 08:19:44.74	22.91	35.77	
2025-01-08 08:19:44.94	22.92	35.82	
2025-01-08 08:19:45.15	22.94	35.88	
2025-01-08 08:19:45.35	22.95	35.93	
2025-01-08 08:19:45.56	22.96	35.99	
2025-01-08 08:19:45.76	22.97	36.04	
2025-01-08 08:19:45.97	22.99	36.10	
2025-01-08 08:19:46.17	23.00	36.15	
2025-01-08 08:19:46.38	23.01	36.21	
2025-01-08 08:19:46.58	23.03	36.26	
2025-01-08 08:19:46.79	23.04	36.32	
2025-01-08 08:19:46.99	23.05	36.37	
2025-01-08 08:19:47.20	23.07	36.43	
2025-01-08 08:19:47.41	23.08	36.49	
2025-01-08 08:19:47.61	23.09	36.54	
2025-01-08 08:19:47.82	23.11	36.60	
2025-01-08 08:19:48.02	23.12	36.65	
2025-01-08 08:19:48.23	23.13	36.71	
2025-01-08 08:19:48.43	23.15	36.77	
2025-01-08 08:19:48.64	23.16	36.82	
2025-01-08 08:19:48.84	23.17	36.88	
2025-01-08 08:19:49.04	23.19	36.94	
2025-01-08 08:19:49.25	23.20	36.99	
2025-01-08 08:19:49.46	23.22	37.05	
2025-01-08 08:19:49.66	23.23	37.11	
2025-01-08 08:19:49.87	23.24	37.17	
2025-01-08 08:19:50.07	23.26	37.22	
2025-01-08 08:19:50.28	23.27	37.28	
2025-01-08 08:19:50.48	23.29	37.34	
2025-01-08 08:19:50.69	23.30	37.39	
2025-01-08 08:19:50.90	23.31	37.45	
2025-01-08 08:19:51.10	23.33	37.51	
2025-01-08 08:19:51.30	23.34	37.57	
2025-01-08 08:19:51.51	23.36	37.63	
2025-01-08 08:19:51.71	23.37	37.68	
2025-01-08 08:19:51.92	23.39	37.74	
2025-01-08 08:19:52.12	23.40	37.80	
2025-01-08 08:19:52.33	23.41	37.86	
2025-01-08 08:19:52.53	23.43	37.92	
2025-01-08 08:19:52.74	23.44	37.98	
2025-01-08 08:19:52.95	23.46	38.04	
2025-01-08 08:19:53.15	23.47	38.09	
2025-01-08 08:19:53.37	23.49	38.16	
2025-01-08 08:19:53.57	23.50	38.21	
2025-01-08 08:19:53.78	23.52	38.27	
2025-01-08 08:19:53.99	23.53	38.33	
2025-01-08 08:19:54.19	23.55	38.39	
2025-01-08 08:19:54.39	23.56	38.45	
2025-01-08 08:19:54.60	23.58	38.51	
2025-01-08 08:19:54.81	23.59	38.57	
2025-01-08 08:19:55.01	23.61	38.63	
2025-01-08 08:19:55.22	23.62	38.69	
2025-01-08 08:19:55.42	23.64	38.75	
2025-01-08 08:19:55.63	23.65	38.81	
2025-01-08 08:19:55.84	23.67	38.87	
2025-01-08 08:19:56.04	23.69	38.93	
2025-01-08 08:19:56.25	23.70	38.99	
2025-01-08 08:19:56.45	23.72	39.05	
2025-01-08 08:19:56.66	23.73	39.12	
2025-01-08 08:19:56.86	23.75	39.17	
2025-01-08 08:19:57.07	23.76	39.24	
2025-01-08 08:19:57.27	23.78	39.30	
2025-01-08 08:19:57.48	23.80	39.36	
2025-01-08 08:19:57.68	23.81	39.42	
2025-01-08 08:19:57.89	23.83	39.48	
2025-01-08 08:19:58.09	23.84	39.54	
2025-01-08 08:19:58.30	23.86	39.60	
2025-01-08 08:19:58.50	23.87	39.66	
2025-01-08 08:19:58.71	23.89	39.73	
2025-01-08 08:19:58.92	23.91	39.79	
2025-01-08 08:19:59.13	23.92	39.85	
2025-01-08 08:19:59.33	23.94	39.92	
2025-01-08 08:19:59.54	23.96	39.98	
2025-01-08 08:19:59.74	23.97	40.04	
2025-01-08 08:19:59.95	23.99	40.10	
2025-01-08 08:20:00.15	24.01	40.16	
2025-01-08 08:20:00.36	24.02	40.23	
2025-01-08 08:20:00.56	24.04	40.29	
2025-01-08 08:20:00.77	24.06	40.35	
2025-01-08 08:20:00.97	24.07	40.42	
2025-01-08 08:20:01.18	24.09	40.48	
2025-01-08 08:20:01.38	24.11	40.54	
2025-01-08 08:20:01.59	24.13	40.61	
2025-01-08 08:20:01.79	24.14	40.67	
2025-01-08 08:20:02.00	24.16	40.73	
2025-01-08 08:20:02.20	24.18	40.80	
2025-01-08 08:20:02.41	24.19	40.86	
2025-01-08 08:20:02.62	24.21	40.93	
2025-01-08 08:20:02.82	24.23	40.99	
2025-01-08 08:20:03.03	24.25	41.06	
2025-01-08 08:20:03.23	24.26	41.12	
2025-01-08 08:20:03.44	24.28	41.18	
2025-01-08 08:20:03.64	24.30	41.25	
2025-01-08 08:20:03.85	24.32	41.31	
2025-01-08 08:20:04.05	24.33	41.38	
2025-01-08 08:20:04.26	24.35	41.44	
2025-01-08 08:20:04.47	24.37	41.51	
2025-01-08 08:20:04.67	24.39	41.57	
2025-01-08 08:20:04.88	24.41	41.64	
2025-01-08 08:20:05.09	24.43	41.71	
2025-01-08 08:20:05.30	24.45	41.77	
2025-01-08 08:20:05.51	24.46	41.84	
2025-01-08 08:20:05.71	24.48	41.91	
2025-01-08 08:20:05.92	24.50	41.97	
2025-01-08 08:20:06.12	24.52	42.04	
2025-01-08 08:20:06.32	24.54	42.10	
2025-01-08 08:20:06.53	24.56	42.17	
2025-01-08 08:20:06.74	24.58	42.24	
2025-01-08 08:20:06.94	24.59	42.30	
2025-01-08 08:20:07.14	24.61	42.37	
2025-01-08 08:20:07.35	24.63	42.44	
2025-01-08 08:20:07.55	24.65	42.50	
2025-01-08 08:20:07.76	24.67	42.57	
2025-01-08 08:20:07.96	24.69	42.63	
2025-01-08 08:20:08.17	24.71	42.70	
2025-01-08 08:20:08.37	24.73	42.77	
2025-01-08 08:20:08.58	24.75	42.84	
2025-01-08 08:20:08.79	24.77	42.91	
2025-01-08 08:20:08.99	24.79	42.97	
2025-01-08 08:20:09.20	24.81	43.04	
2025-01-08 08:20:09.40	24.83	43.11	
2025-01-08 08:20:09.60	24.85	43.18	
2025-01-08 08:20:09.81	24.87	43.25	
2025-01-08 08:20:10.02	24.89	43.32	
2025-01-08 08:20:10.22	24.91	43.38	
2025-01-08 08:20:10.43	24.93	43.45	
2025-01-08 08:20:10.63	24.95	43.52	
2025-01-08 08:20:10.84	24.97	43.59	
2025-01-08 08:20:11.04	24.99	43.66	
2025-01-08 08:20:11.25	25.01	43.73	
2025-01-08 08:20:11.45	25.03	43.80	
2025-01-08 08:20:11.66	25.05	43.87	
2025-01-08 08:20:11.88	25.07	43.94	
2025-01-08 08:20:12.08	25.09	44.01	
2025-01-08 08:20:12.29	25.12	44.08	
2025-01-08 08:20:12.49	25.14	44.15	
2025-01-08 08:20:12.70	25.16	44.22	
2025-01-08 08:20:12.90	25.18	44.29	
2025-01-08 08:20:13.11	25.20	44.36	
2025-01-08 08:20:13.31	25.22	44.43	
2025-01-08 08:20:13.52	25.24	44.50	
2025-01-08 08:20:13.72	25.26	44.57	
2025-01-08 08:20:13.93	25.29	44.64	
2025-01-08 08:20:14.13	25.31	44.71	
2025-01-08 08:20:14.34	25.33	44.79	
2025-01-08 08:20:14.55	25.35	44.86	
2025-01-08 08:20:14.75	25.37	44.93	
2025-01-08 08:20:14.96	25.40	45.00	
2025-01-08 08:20:15.16	25.42	45.07	
2025-01-08 08:20:15.37	25.44	45.14	
2025-01-08 08:20:15.57	25.46	45.21	
2025-01-08 08:20:15.78	25.49	45.29	
2025-01-08 08:20:15.98	25.51	45.36	
2025-01-08 08:20:16.19	25.53	45.43	
2025-01-08 08:20:16.39	25.56	45.50	
2025-01-08 08:20:16.60	25.58	45.58	
2025-01-08 08:20:16.80	25.60	45.65	
2025-01-08 08:20:17.01	25.63	45.72	
2025-01-08 08:20:17.21	25.65	45.79	
2025-01-08 08:20:17.42	25.67	45.87	
2025-01-08 08:20:17.62	25.70	45.94	
2025-01-08 08:20:17.83	25.72	46.01	
2025-01-08 08:20:18.03	25.74	46.09	
2025-01-08 08:20:18.24	25.77	46.16	
2025-01-08 08:20:18.44	25.79	46.23	
2025-01-08 08:20:18.65	25.82	46.31	
2025-01-08 08:20:18.86	25.84	46.38	
2025-01-08 08:20:19.06	25.86	46.46	
2025-01-08 08:20:19.26	25.89	46.53	
2025-01-08 08:20:19.47	25.91	46.61	
2025-01-08 08:20:19.68	25.94	46.68	
2025-01-08 08:20:19.88	25.96	46.75	
2025-01-08 08:20:20.09	25.99	46.83	
2025-01-08 08:20:20.29	26.01	46.90	
2025-01-08 08:20:20.50	26.04	46.98	
2025-01-08 08:20:20.70	26.06	47.05	
2025-01-08 08:20:20.91	26.09	47.13	
2025-01-08 08:20:21.11	26.11	47.20	
2025-01-08 08:20:21.32	26.14	47.28	
2025-01-08 08:20:21.52	26.17	47.36	
2025-01-08 08:20:21.73	26.19	47.43	
2025-01-08 08:20:21.93	26.22	47.51	
2025-01-08 08:20:22.14	26.24	47.59	
2025-01-08 08:20:22.34	26.27	47.66	
2025-01-08 08:20:22.55	26.30	47.74	
2025-01-08 08:20:22.75	26.32	47.81	
2025-01-08 08:20:22.96	26.35	47.89	
2025-01-08 08:20:23.16	26.38	47.97	
2025-01-08 08:20:23.37	26.40	48.05	
2025-01-08 08:20:23.57	26.43	48.12	
2025-01-08 08:20:23.78	26.46	48.20	
2025-01-08 08:20:23.99	26.49	48.28	
2025-01-08 08:20:24.19	26.51	48.35	
2025-01-08 08:20:24.40	26.54	48.43	
2025-01-08 08:20:24.60	26.57	48.51	
2025-01-08 08:20:24.81	26.60	48.59	
2025-01-08 08:20:25.02	26.62	48.67	
2025-01-08 08:20:25.22	26.65	48.75	
2025-01-08 08:20:25.42	26.68	48.82	
2025-01-08 08:20:25.63	26.71	48.90	
2025-01-08 08:20:25.83	26.74	48.98	
2025-01-08 08:20:26.04	26.77	49.06	
2025-01-08 08:20:26.25	26.80	49.14	
2025-01-08 08:20:26.45	26.82	49.22	
2025-01-08 08:20:26.66	26.85	49.30	
2025-01-08 08:20:26.86	26.88	49.38	
2025-01-08 08:20:27.07	26.91	49.46	
2025-01-08 08:20:27.27	26.94	49.53	
2025-01-08 08:20:27.49	26.97	49.62	
2025-01-08 08:20:27.70	27.00	49.70	
2025-01-08 08:20:27.90	27.03	49.78	
2025-01-08 08:20:28.11	27.06	49.86	
2025-01-08 08:20:28.32	27.10	49.94	
2025-01-08 08:20:28.52	27.13	50.02	
2025-01-08 08:20:28.73	27.16	50.11	
2025-01-08 08:20:28.93	27.19	50.18	
2025-01-08 08:20:29.14	27.22	50.27	
2025-01-08 08:20:29.34	27.25	50.35	
2025-01-08 08:20:29.55	27.28	50.43	
2025-01-08 08:20:29.75	27.31	50.51	
2025-01-08 08:20:29.96	27.34	50.59	
2025-01-08 08:20:30.16	27.38	50.67	
2025-01-08 08:20:30.37	27.41	50.75	
2025-01-08 08:20:30.57	27.44	50.83	
2025-01-08 08:20:30.78	27.47	50.92	
2025-01-08 08:20:30.98	27.50	51.00	
2025-01-08 08:20:31.19	27.54	51.08	
2025-01-08 08:20:31.40	27.57	51.17	
2025-01-08 08:20:31.60	27.60	51.25	
2025-01-08 08:20:31.82	27.64	51.34	
2025-01-08 08:20:32.02	27.67	51.42	
2025-01-08 08:20:32.23	27.71	51.50	
2025-01-08 08:20:32.43	27.74	51.58	
2025-01-08 08:20:32.64	27.77	51.67	
2025-01-08 08:20:32.84	27.81	51.75	
2025-01-08 08:20:33.05	27.84	51.84	
2025-01-08 08:20:33.25	27.88	51.92	
2025-01-08 08:20:33.46	27.91	52.00	
2025-01-08 08:20:33.66	27.95	52.09	
2025-01-08 08:20:33.87	27.98	52.17	
2025-01-08 08:20:34.07	28.02	52.25	
2025-01-08 08:20:34.28	28.05	52.34	
2025-01-08 08:20:34.49	28.09	52.43	
2025-01-08 08:20:34.69	28.13	52.51	
2025-01-08 08:20:34.89	28.16	52.59	
2025-01-08 08:20:35.10	28.20	52.68	
2025-01-08 08:20:35.30	28.23	52.76	
2025-01-08 08:20:35.51	28.27	52.85	
2025-01-08 08:20:35.71	28.31	52.93	
2025-01-08 08:20:35.92	28.35	53.02	
2025-01-08 08:20:36.12	28.38	53.10	
2025-01-08 08:20:36.33	28.42	53.19	
2025-01-08 08:20:36.53	28.46	53.28	
2025-01-08 08:20:36.74	28.50	53.36	
2025-01-08 08:20:36.95	28.54	53.45	
2025-01-08 08:20:37.16	28.58	53.54	
2025-01-08 08:20:37.37	28.61	53.63	
2025-01-08 08:20:37.58	28.65	53.72	
2025-01-08 08:20:37.78	28.69	53.80	
2025-01-08 08:20:37.99	28.73	53.89	
2025-01-08 08:20:38.19	28.77	53.98	
2025-01-08 08:20:38.40	28.81	54.07	
2025-01-08 08:20:38.60	28.85	54.15	
2025-01-08 08:20:38.81	28.89	54.24	
2025-01-08 08:20:39.02	28.94	54.33	
2025-01-08 08:20:39.22	28.98	54.42	
2025-01-08 08:20:39.42	29.02	54.50	
2025-01-08 08:20:39.63	29.06	54.59	
2025-01-08 08:20:39.84	29.10	54.68	
2025-01-08 08:20:40.04	29.14	54.77	
2025-01-08 08:20:40.25	29.19	54.86	
2025-01-08 08:20:40.45	29.23	54.95	
2025-01-08 08:20:40.66	29.27	55.04	
2025-01-08 08:20:40.86	29.31	55.12	
2025-01-08 08:20:41.07	29.36	55.22	
2025-01-08 08:20:41.28	29.40	55.31	
2025-01-08 08:20:41.49	29.45	55.40	
2025-01-08 08:20:41.70	29.49	55.49	
2025-01-08 08:20:41.90	29.53	55.58	
2025-01-08 08:20:42.11	29.58	55.67	
2025-01-08 08:20:42.32	29.63	55.76	
2025-01-08 08:20:42.52	29.67	55.85	
2025-01-08 08:20:42.72	29.71	55.94	
2025-01-08 08:20:42.93	29.76	56.03	
2025-01-08 08:20:43.13	29.81	56.12	
2025-01-08 08:20:43.34	29.85	56.21	
2025-01-08 08:20:43.54	29.90	56.30	
2025-01-08 08:20:43.75	29.95	56.39	
2025-01-08 08:20:43.96	30.00	56.49	
2025-01-08 08:20:44.16	30.04	56.57	
2025-01-08 08:20:44.37	30.09	56.67	
2025-01-08 08:20:44.57	30.14	56.76	
2025-01-08 08:20:44.78	30.19	56.85	
2025-01-08 08:20:44.98	30.24	56.94	
2025-01-08 08:20:45.19	30.29	57.03	
2025-01-08 08:20:45.39	30.34	57.12	
2025-01-08 08:20:45.60	30.39	57.22	
2025-01-08 08:20:45.80	30.44	57.31	
2025-01-08 08:20:46.01	30.49	57.40	
2025-01-08 08:20:46.21	30.54	57.49	
2025-01-08 08:20:46.42	30.59	57.59	
2025-01-08 08:20:46.63	30.64	57.68	
2025-01-08 08:20:46.83	30.69	57.77	
2025-01-08 08:20:47.04	30.75	57.87	
2025-01-08 08:20:47.24	30.80	57.96	
2025-01-08 08:20:47.45	30.85	58.06	
2025-01-08 08:20:47.65	30.90	58.15	
2025-01-08 08:20:47.86	30.96	58.24	
2025-01-08 08:20:48.06	31.01	58.33	
2025-01-08 08:20:48.27	31.07	58.43	
2025-01-08 08:20:48.47	31.12	58.52	
2025-01-08 08:20:48.68	31.18	58.62	
2025-01-08 08:20:48.88	31.23	58.71	
2025-01-08 08:20:49.09	31.29	58.81	
2025-01-08 08:20:49.29	31.35	58.90	
2025-01-08 08:20:49.50	31.40	59.00	
2025-01-08 08:20:49.70	31.46	59.09	
2025-01-08 08:20:49.91	31.52	59.19	
2025-01-08 08:20:50.11	31.58	59.28	
2025-01-08 08:20:50.32	31.64	59.38	
2025-01-08 08:20:50.52	31.69	59.47	
2025-01-08 08:20:50.73	31.75	59.57	
2025-01-08 08:20:50.93	31.81	59.66	
2025-01-08 08:20:51.14	31.87	59.76	
2025-01-08 08:20:51.34	31.93	59.85	
2025-01-08 08:20:51.55	32.00	59.95	
2025-01-08 08:20:51.75	32.06	60.04	
2025-01-08 08:20:51.96	32.12	60.14	
2025-01-08 08:20:52.18	32.19	60.25	
2025-01-08 08:20:52.38	32.25	60.34	
2025-01-08 08:20:52.59	32.31	60.44	
2025-01-08 08:20:52.79	32.38	60.53	
2025-01-08 08:20:53.00	32.44	60.63	
2025-01-08 08:20:53.20	32.51	60.73	
2025-01-08 08:20:53.41	32.57	60.83	
2025-01-08 08:20:53.62	32.64	60.93	
2025-01-08 08:20:53.82	32.70	61.02	
2025-01-08 08:20:54.03	32.77	61.12	
2025-01-08 08:20:54.24	32.84	61.22	
2025-01-08 08:20:54.45	32.91	61.32	
2025-01-08 08:20:54.66	32.98	61.42	
2025-01-08 08:20:54.86	33.05	61.52	
2025-01-08 08:20:55.07	33.12	61.62	
2025-01-08 08:20:55.27	33.19	61.71	
2025-01-08 08:20:55.47	33.26	61.81	
2025-01-08 08:20:55.68	33.33	61.91	
2025-01-08 08:20:55.88	33.40	62.00	
2025-01-08 08:20:56.09	33.48	62.10	
2025-01-08 08:20:56.29	33.55	62.20	
2025-01-08 08:20:56.50	33.62	62.30	
2025-01-08 08:20:56.71	33.70	62.40	
2025-01-08 08:20:56.91	33.77	62.50	
2025-01-08 08:20:57.12	33.85	62.60	
2025-01-08 08:20:57.33	33.93	62.70	
2025-01-08 08:20:57.53	34.00	62.80	
2025-01-08 08:20:57.73	34.08	62.90	
2025-01-08 08:20:57.94	34.16	63.00	
2025-01-08 08:20:58.14	34.24	63.10	
2025-01-08 08:20:58.35	34.32	63.20	
2025-01-08 08:20:58.55	34.39	63.30	
2025-01-08 08:20:58.76	34.48	63.40	
2025-01-08 08:20:58.96	34.56	63.50	
2025-01-08 08:20:59.17	34.64	63.60	
2025-01-08 08:20:59.37	34.72	63.70	
2025-01-08 08:20:59.58	34.81	63.80	
2025-01-08 08:20:59.78	34.89	63.90	
2025-01-08 08:20:59.99	34.98	64.00	
2025-01-08 08:21:00.19	35.06	64.10	
2025-01-08 08:21:00.40	35.15	64.20	
2025-01-08 08:21:00.60	35.23	64.30	
2025-01-08 08:21:00.81	35.32	64.40	
2025-01-08 08:21:01.03	35.42	64.51	
2025-01-08 08:21:01.23	35.51	64.61	
2025-01-08 08:21:01.44	35.60	64.71	
2025-01-08 08:21:01.64	35.69	64.81	
2025-01-08 08:21:01.84	35.78	64.91	
2025-01-08 08:21:02.05	35.87	65.01	
2025-01-08 08:21:02.25	35.96	65.11	
2025-01-08 08:21:02.46	36.06	65.22	
2025-01-08 08:21:02.67	36.16	65.32	
2025-01-08 08:21:02.87	36.25	65.42	
2025-01-08 08:21:03.08	36.35	65.52	
2025-01-08 08:21:03.28	36.45	65.62	
2025-01-08 08:21:03.49	36.55	65.73	
2025-01-08 08:21:03.69	36.65	65.83	
2025-01-08 08:21:03.90	36.75	65.93	
2025-01-08 08:21:04.10	36.85	66.03	
2025-01-08 08:21:04.31	36.95	66.14	
2025-01-08 08:21:04.51	37.05	66.24	
2025-01-08 08:21:04.72	37.16	66.34	
2025-01-08 08:21:04.92	37.27	66.44	
2025-01-08 08:21:05.13	37.37	66.55	
2025-01-08 08:21:05.34	37.48	66.65	
2025-01-08 08:21:05.54	37.59	66.75	
2025-01-08 08:21:05.75	37.70	66.86	
2025-01-08 08:21:05.95	37.81	66.96	
2025-01-08 08:21:06.16	37.93	67.06	
2025-01-08 08:21:06.36	38.04	67.16	
2025-01-08 08:21:06.57	38.15	67.27	
2025-01-08 08:21:06.78	38.27	67.37	
2025-01-08 08:21:06.98	38.38	67.47	
2025-01-08 08:21:07.19	38.51	67.58	
2025-01-08 08:21:07.39	38.62	67.68	
2025-01-08 08:21:07.60	38.74	67.78	
2025-01-08 08:21:07.80	38.86	67.88	
2025-01-08 08:21:08.01	38.99	67.99	
2025-01-08 08:21:08.21	39.11	68.09	
2025-01-08 08:21:08.42	39.24	68.20	
2025-01-08 08:21:08.62	39.36	68.30	
2025-01-08 08:21:08.83	39.49	68.40	
2025-01-08 08:21:09.03	39.62	68.50	
2025-01-08 08:21:09.25	39.76	68.61	
2025-01-08 08:21:09.46	39.89	68.72	
2025-01-08 08:21:09.66	40.02	68.82	
2025-01-08 08:21:09.87	40.16	68.93	
2025-01-08 08:21:10.07	40.29	69.03	
2025-01-08 08:21:10.29	40.44	69.14	
2025-01-08 08:21:10.50	40.58	69.24	
2025-01-08 08:21:10.70	40.72	69.35	
2025-01-08 08:21:10.91	40.86	69.45	
2025-01-08 08:21:11.11	41.00	69.55	
2025-01-08 08:21:11.32	41.15	69.66	
2025-01-08 08:21:11.53	41.30	69.76	
2025-01-08 08:21:11.73	41.44	69.87	
2025-01-08 08:21:11.93	41.59	69.97	
2025-01-08 08:21:12.14	41.75	70.07	
2025-01-08 08:21:12.35	41.90	70.18	
2025-01-08 08:21:12.55	42.05	70.28	
2025-01-08 08:21:12.76	42.21	70.38	
2025-01-08 08:21:12.96	42.37	70.49	
2025-01-08 08:21:13.17	42.53	70.59	
2025-01-08 08:21:13.37	42.69	70.69	
2025-01-08 08:21:13.58	42.86	70.80	
2025-01-08 08:21:13.79	43.03	70.90	
2025-01-08 08:21:13.99	43.19	71.00	
2025-01-08 08:21:14.20	43.37	71.11	
2025-01-08 08:21:14.40	43.53	71.21	
2025-01-08 08:21:14.62	43.72	71.32	
2025-01-08 08:21:14.83	43.90	71.43	
2025-01-08 08:21:15.03	44.07	71.53	
2025-01-08 08:21:15.24	44.26	71.63	
2025-01-08 08:21:15.44	44.44	71.73	
2025-01-08 08:21:15.66	44.63	71.84	
2025-01-08 08:21:15.86	44.82	71.94	
2025-01-08 08:21:16.07	45.01	72.05	
2025-01-08 08:21:16.27	45.20	72.15	
2025-01-08 08:21:16.48	45.39	72.25	
2025-01-08 08:21:16.69	45.59	72.36	
2025-01-08 08:21:16.89	45.79	72.46	
2025-01-08 08:21:17.10	45.99	72.56	
2025-01-08 08:21:17.30	46.19	72.66	
2025-01-08 08:21:17.51	46.40	72.76	
2025-01-08 08:21:17.71	46.61	72.86	
2025-01-08 08:21:17.92	46.82	72.97	
2025-01-08 08:21:18.12	47.03	73.07	
2025-01-08 08:21:18.33	47.25	73.17	
2025-01-08 08:21:18.53	47.47	73.27	
2025-01-08 08:21:18.74	47.69	73.37	
2025-01-08 08:21:18.94	47.91	73.47	
2025-01-08 08:21:19.15	48.14	73.57	
2025-01-08 08:21:19.35	48.37	73.67	
2025-01-08 08:21:19.55	48.60	73.77	
2025-01-08 08:21:19.76	48.84	73.87	
2025-01-08 08:21:19.96	49.07	73.97	
2025-01-08 08:21:20.17	49.32	74.07	
2025-01-08 08:21:20.38	49.57	74.17	
2025-01-08 08:21:20.59	49.83	74.28	
2025-01-08 08:21:20.80	50.09	74.38	
2025-01-08 08:21:21.00	50.34	74.47	
2025-01-08 08:21:21.21	50.60	74.58	
2025-01-08 08:21:21.41	50.86	74.67	
2025-01-08 08:21:21.62	51.13	74.77	
2025-01-08 08:21:21.82	51.40	74.87	
2025-01-08 08:21:22.03	51.68	74.97	
2025-01-08 08:21:22.23	51.95	75.06	
2025-01-08 08:21:22.44	52.23	75.16	
2025-01-08 08:21:22.64	52.51	75.26	
2025-01-08 08:21:22.85	52.81	75.36	
2025-01-08 08:21:23.07	53.12	75.46	
2025-01-08 08:21:23.27	53.41	75.56	
2025-01-08 08:21:23.48	53.72	75.65	
2025-01-08 08:21:23.68	54.02	75.75	
2025-01-08 08:21:23.89	54.34	75.84	
2025-01-08 08:21:24.09	54.64	75.94	
2025-01-08 08:21:24.30	54.97	76.03	
2025-01-08 08:21:24.50	55.28	76.13	
2025-01-08 08:21:24.71	55.62	76.22	
2025-01-08 08:21:24.91	55.94	76.31	
2025-01-08 08:21:25.12	56.29	76.41	
2025-01-08 08:21:25.33	56.64	76.50	
2025-01-08 08:21:25.53	56.98	76.59	
2025-01-08 08:21:25.74	57.34	76.69	
2025-01-08 08:21:25.94	57.68	76.78	
2025-01-08 08:21:26.14	58.04	76.87	
2025-01-08 08:21:26.35	58.41	76.96	
2025-01-08 08:21:26.56	58.79	77.05	
2025-01-08 08:21:26.76	59.16	77.14	
2025-01-08 08:21:26.98	59.57	77.23	
2025-01-08 08:21:27.19	59.97	77.32	
2025-01-08 08:21:27.39	60.36	77.41	
2025-01-08 08:21:27.60	60.77	77.50	
