passes_logs/2025/01/08/SPB_Silybum_02/SPB_Silybum_02__20250108_035300_AQUA_rec.log

#Pass ID: 20250108_035300_AQUA
#Satellite: AQUA
#Configuration: AQUA
#Start time: 2025-01-08 03:52:59

#Version: 2.0.20230423
#Station: SPB_Silybum_02
#Location: 30.233357 lon 59.946436 lat
#TLE: 1 27424U 02022A   25007.20663841  .00002684  00000+0  56113-3 0  9997
#TLE: 2 27424  98.3577 323.8011 0001408 118.8980 354.1988 14.60651824206481

#Time	Az	El	Level	Level2	SNR	BER	Gain	Gain2
2025-01-08 03:53:01.92	7.80	4.08	
2025-01-08 03:53:02.12	7.78	4.09	
2025-01-08 03:53:02.33	7.76	4.10	
2025-01-08 03:53:02.53	7.73	4.11	
2025-01-08 03:53:02.74	7.71	4.12	
2025-01-08 03:53:02.95	7.69	4.13	
2025-01-08 03:53:03.15	7.66	4.14	
2025-01-08 03:53:03.35	7.64	4.15	
2025-01-08 03:53:03.56	7.61	4.16	
2025-01-08 03:53:03.77	7.59	4.17	
2025-01-08 03:53:03.97	7.57	4.18	
2025-01-08 03:53:04.18	7.54	4.19	
2025-01-08 03:53:04.40	7.52	4.20	
2025-01-08 03:53:04.60	7.49	4.21	
2025-01-08 03:53:04.81	7.47	4.22	
2025-01-08 03:53:05.01	7.44	4.24	
2025-01-08 03:53:05.22	7.42	4.25	
2025-01-08 03:53:05.42	7.40	4.26	
2025-01-08 03:53:05.63	7.37	4.27	
2025-01-08 03:53:05.83	7.35	4.28	
2025-01-08 03:53:06.04	7.32	4.29	
2025-01-08 03:53:06.25	7.30	4.30	
2025-01-08 03:53:06.45	7.27	4.31	
2025-01-08 03:53:06.66	7.25	4.32	
2025-01-08 03:53:06.86	7.23	4.33	
2025-01-08 03:53:07.07	7.20	4.34	
2025-01-08 03:53:07.27	7.18	4.35	
2025-01-08 03:53:07.48	7.15	4.36	
2025-01-08 03:53:07.69	7.13	4.37	
2025-01-08 03:53:07.89	7.10	4.38	
2025-01-08 03:53:08.10	7.08	4.39	
2025-01-08 03:53:08.30	7.06	4.40	
2025-01-08 03:53:08.51	7.03	4.41	
2025-01-08 03:53:08.72	7.01	4.42	
2025-01-08 03:53:08.93	6.98	4.43	
2025-01-08 03:53:09.14	6.96	4.44	
2025-01-08 03:53:09.34	6.93	4.45	
2025-01-08 03:53:09.55	6.91	4.46	
2025-01-08 03:53:09.75	6.88	4.48	
2025-01-08 03:53:09.96	6.86	4.49	
2025-01-08 03:53:10.16	6.83	4.50	
2025-01-08 03:53:10.37	6.81	4.51	
2025-01-08 03:53:10.58	6.78	4.52	
2025-01-08 03:53:10.78	6.76	4.53	
2025-01-08 03:53:10.98	6.74	4.54	
2025-01-08 03:53:11.19	6.71	4.55	
2025-01-08 03:53:11.40	6.68	4.56	
2025-01-08 03:53:11.60	6.66	4.57	
2025-01-08 03:53:11.81	6.64	4.58	
2025-01-08 03:53:12.01	6.61	4.59	
2025-01-08 03:53:12.21	6.59	4.60	
2025-01-08 03:53:12.42	6.56	4.61	
2025-01-08 03:53:12.62	6.54	4.62	
2025-01-08 03:53:12.83	6.51	4.63	
2025-01-08 03:53:13.03	6.49	4.64	
2025-01-08 03:53:13.24	6.46	4.65	
2025-01-08 03:53:13.44	6.44	4.66	
2025-01-08 03:53:13.65	6.41	4.67	
2025-01-08 03:53:13.85	6.39	4.68	
2025-01-08 03:53:14.06	6.36	4.69	
2025-01-08 03:53:14.26	6.34	4.70	
2025-01-08 03:53:14.47	6.31	4.71	
2025-01-08 03:53:14.67	6.29	4.72	
2025-01-08 03:53:14.88	6.26	4.73	
2025-01-08 03:53:15.08	6.24	4.74	
2025-01-08 03:53:15.29	6.21	4.76	
2025-01-08 03:53:15.49	6.19	4.77	
2025-01-08 03:53:15.70	6.16	4.78	
2025-01-08 03:53:15.90	6.14	4.79	
2025-01-08 03:53:16.11	6.11	4.80	
2025-01-08 03:53:16.31	6.09	4.81	
2025-01-08 03:53:16.52	6.06	4.82	
2025-01-08 03:53:16.72	6.04	4.83	
2025-01-08 03:53:16.93	6.01	4.84	
2025-01-08 03:53:17.13	5.99	4.85	
2025-01-08 03:53:17.34	5.96	4.86	
2025-01-08 03:53:17.55	5.94	4.87	
2025-01-08 03:53:17.75	5.91	4.88	
2025-01-08 03:53:17.96	5.89	4.89	
2025-01-08 03:53:18.16	5.86	4.90	
2025-01-08 03:53:18.36	5.84	4.91	
2025-01-08 03:53:18.57	5.81	4.92	
2025-01-08 03:53:18.77	5.78	4.93	
2025-01-08 03:53:18.98	5.76	4.94	
2025-01-08 03:53:19.19	5.73	4.95	
2025-01-08 03:53:19.39	5.71	4.96	
2025-01-08 03:53:19.60	5.68	4.97	
2025-01-08 03:53:19.80	5.66	4.98	
2025-01-08 03:53:20.01	5.63	4.99	
2025-01-08 03:53:20.21	5.61	5.00	
2025-01-08 03:53:20.42	5.58	5.01	
2025-01-08 03:53:20.62	5.56	5.03	
2025-01-08 03:53:20.83	5.53	5.04	
2025-01-08 03:53:21.03	5.50	5.05	
2025-01-08 03:53:21.24	5.48	5.06	
2025-01-08 03:53:21.44	5.45	5.07	
2025-01-08 03:53:21.65	5.43	5.08	
2025-01-08 03:53:21.85	5.40	5.09	
2025-01-08 03:53:22.06	5.37	5.10	
2025-01-08 03:53:22.26	5.35	5.11	
2025-01-08 03:53:22.47	5.32	5.12	
2025-01-08 03:53:22.67	5.30	5.13	
2025-01-08 03:53:22.88	5.27	5.14	
2025-01-08 03:53:23.08	5.25	5.15	
2025-01-08 03:53:23.29	5.22	5.16	
2025-01-08 03:53:23.50	5.19	5.17	
2025-01-08 03:53:23.70	5.17	5.18	
2025-01-08 03:53:23.90	5.14	5.19	
2025-01-08 03:53:24.11	5.12	5.20	
2025-01-08 03:53:24.32	5.09	5.21	
2025-01-08 03:53:24.52	5.06	5.22	
2025-01-08 03:53:24.72	5.04	5.23	
2025-01-08 03:53:24.93	5.01	5.24	
2025-01-08 03:53:25.14	4.99	5.25	
2025-01-08 03:53:25.34	4.96	5.26	
2025-01-08 03:53:25.55	4.93	5.27	
2025-01-08 03:53:25.77	4.91	5.29	
2025-01-08 03:53:25.97	4.88	5.30	
2025-01-08 03:53:26.18	4.85	5.31	
2025-01-08 03:53:26.38	4.83	5.32	
2025-01-08 03:53:26.58	4.80	5.33	
2025-01-08 03:53:26.79	4.78	5.34	
2025-01-08 03:53:26.99	4.75	5.35	
2025-01-08 03:53:27.20	4.72	5.36	
2025-01-08 03:53:27.40	4.70	5.37	
2025-01-08 03:53:27.61	4.67	5.38	
2025-01-08 03:53:27.81	4.65	5.39	
2025-01-08 03:53:28.02	4.62	5.40	
2025-01-08 03:53:28.22	4.59	5.41	
2025-01-08 03:53:28.43	4.57	5.42	
2025-01-08 03:53:28.63	4.54	5.43	
2025-01-08 03:53:28.84	4.51	5.44	
2025-01-08 03:53:29.05	4.49	5.45	
2025-01-08 03:53:29.25	4.46	5.46	
2025-01-08 03:53:29.45	4.43	5.47	
2025-01-08 03:53:29.66	4.41	5.48	
2025-01-08 03:53:29.86	4.38	5.49	
2025-01-08 03:53:30.08	4.35	5.50	
2025-01-08 03:53:30.29	4.33	5.51	
2025-01-08 03:53:30.49	4.30	5.52	
2025-01-08 03:53:30.70	4.27	5.53	
2025-01-08 03:53:30.91	4.25	5.54	
2025-01-08 03:53:31.11	4.22	5.55	
2025-01-08 03:53:31.31	4.19	5.56	
2025-01-08 03:53:31.52	4.17	5.57	
2025-01-08 03:53:31.72	4.14	5.59	
2025-01-08 03:53:31.93	4.11	5.60	
2025-01-08 03:53:32.13	4.09	5.61	
2025-01-08 03:53:32.33	4.06	5.62	
2025-01-08 03:53:32.54	4.03	5.63	
2025-01-08 03:53:32.75	4.01	5.64	
2025-01-08 03:53:32.95	3.98	5.65	
2025-01-08 03:53:33.15	3.95	5.66	
2025-01-08 03:53:33.36	3.93	5.67	
2025-01-08 03:53:33.56	3.90	5.68	
2025-01-08 03:53:33.77	3.87	5.69	
2025-01-08 03:53:33.97	3.85	5.70	
2025-01-08 03:53:34.18	3.82	5.71	
2025-01-08 03:53:34.38	3.79	5.72	
2025-01-08 03:53:34.59	3.76	5.73	
2025-01-08 03:53:34.79	3.74	5.74	
2025-01-08 03:53:35.00	3.71	5.75	
2025-01-08 03:53:35.20	3.68	5.76	
2025-01-08 03:53:35.42	3.65	5.77	
2025-01-08 03:53:35.62	3.63	5.78	
2025-01-08 03:53:35.83	3.60	5.79	
2025-01-08 03:53:36.03	3.57	5.80	
2025-01-08 03:53:36.23	3.55	5.81	
2025-01-08 03:53:36.44	3.52	5.82	
2025-01-08 03:53:36.65	3.49	5.83	
2025-01-08 03:53:36.85	3.47	5.84	
2025-01-08 03:53:37.06	3.44	5.85	
2025-01-08 03:53:37.26	3.41	5.86	
2025-01-08 03:53:37.47	3.38	5.87	
2025-01-08 03:53:37.67	3.36	5.88	
2025-01-08 03:53:37.88	3.33	5.89	
2025-01-08 03:53:38.09	3.30	5.91	
2025-01-08 03:53:38.29	3.27	5.92	
2025-01-08 03:53:38.50	3.25	5.93	
2025-01-08 03:53:38.70	3.22	5.94	
2025-01-08 03:53:38.91	3.19	5.95	
2025-01-08 03:53:39.11	3.16	5.96	
2025-01-08 03:53:39.32	3.14	5.97	
2025-01-08 03:53:39.52	3.11	5.98	
2025-01-08 03:53:39.74	3.08	5.99	
2025-01-08 03:53:39.95	3.05	6.00	
2025-01-08 03:53:40.15	3.02	6.01	
2025-01-08 03:53:40.36	3.00	6.02	
2025-01-08 03:53:40.56	2.97	6.03	
2025-01-08 03:53:40.77	2.94	6.04	
2025-01-08 03:53:40.97	2.91	6.05	
2025-01-08 03:53:41.18	2.89	6.06	
2025-01-08 03:53:41.38	2.86	6.07	
2025-01-08 03:53:41.59	2.83	6.08	
2025-01-08 03:53:41.80	2.80	6.09	
2025-01-08 03:53:42.00	2.77	6.10	
2025-01-08 03:53:42.21	2.75	6.11	
2025-01-08 03:53:42.41	2.72	6.12	
2025-01-08 03:53:42.61	2.69	6.13	
2025-01-08 03:53:42.82	2.66	6.14	
2025-01-08 03:53:43.02	2.64	6.15	
2025-01-08 03:53:43.23	2.61	6.16	
2025-01-08 03:53:43.43	2.58	6.17	
2025-01-08 03:53:43.64	2.55	6.18	
2025-01-08 03:53:43.84	2.52	6.19	
2025-01-08 03:53:44.04	2.50	6.20	
2025-01-08 03:53:44.25	2.47	6.21	
2025-01-08 03:53:44.46	2.44	6.22	
2025-01-08 03:53:44.66	2.41	6.23	
2025-01-08 03:53:44.87	2.38	6.24	
2025-01-08 03:53:45.07	2.36	6.25	
2025-01-08 03:53:45.27	2.33	6.26	
2025-01-08 03:53:45.48	2.30	6.28	
2025-01-08 03:53:45.68	2.27	6.29	
2025-01-08 03:53:45.89	2.24	6.30	
2025-01-08 03:53:46.09	2.22	6.31	
2025-01-08 03:53:46.30	2.19	6.32	
2025-01-08 03:53:46.50	2.16	6.33	
2025-01-08 03:53:46.71	2.13	6.34	
2025-01-08 03:53:46.91	2.10	6.35	
2025-01-08 03:53:47.12	2.07	6.36	
2025-01-08 03:53:47.32	2.05	6.37	
2025-01-08 03:53:47.53	2.02	6.38	
2025-01-08 03:53:47.73	1.99	6.39	
2025-01-08 03:53:47.94	1.96	6.40	
2025-01-08 03:53:48.14	1.93	6.41	
2025-01-08 03:53:48.35	1.90	6.42	
2025-01-08 03:53:48.55	1.88	6.43	
2025-01-08 03:53:48.76	1.85	6.44	
2025-01-08 03:53:48.96	1.82	6.45	
2025-01-08 03:53:49.17	1.79	6.46	
2025-01-08 03:53:49.37	1.76	6.47	
2025-01-08 03:53:49.58	1.73	6.48	
2025-01-08 03:53:49.78	1.70	6.49	
2025-01-08 03:53:49.99	1.68	6.50	
2025-01-08 03:53:50.20	1.65	6.51	
2025-01-08 03:53:50.40	1.62	6.52	
2025-01-08 03:53:50.61	1.59	6.53	
2025-01-08 03:53:50.81	1.56	6.54	
2025-01-08 03:53:51.02	1.53	6.55	
2025-01-08 03:53:51.22	1.50	6.56	
2025-01-08 03:53:51.44	1.47	6.57	
2025-01-08 03:53:51.64	1.44	6.58	
2025-01-08 03:53:51.85	1.41	6.59	
2025-01-08 03:53:52.06	1.39	6.60	
2025-01-08 03:53:52.26	1.36	6.61	
2025-01-08 03:53:52.48	1.33	6.62	
2025-01-08 03:53:52.68	1.30	6.63	
2025-01-08 03:53:52.89	1.27	6.64	
2025-01-08 03:53:53.09	1.24	6.65	
2025-01-08 03:53:53.30	1.21	6.66	
2025-01-08 03:53:53.50	1.18	6.67	
2025-01-08 03:53:53.71	1.15	6.68	
2025-01-08 03:53:53.91	1.12	6.69	
2025-01-08 03:53:54.12	1.09	6.70	
2025-01-08 03:53:54.32	1.07	6.71	
2025-01-08 03:53:54.52	1.04	6.72	
2025-01-08 03:53:54.73	1.01	6.74	
2025-01-08 03:53:54.94	0.98	6.75	
2025-01-08 03:53:55.14	0.95	6.76	
2025-01-08 03:53:55.35	0.92	6.77	
2025-01-08 03:53:55.55	0.89	6.78	
2025-01-08 03:53:55.76	0.86	6.79	
2025-01-08 03:53:55.96	0.83	6.80	
2025-01-08 03:53:56.17	0.80	6.81	
2025-01-08 03:53:56.37	0.77	6.82	
2025-01-08 03:53:56.58	0.74	6.83	
2025-01-08 03:53:56.78	0.71	6.84	
2025-01-08 03:53:56.99	0.68	6.85	
2025-01-08 03:53:57.20	0.65	6.86	
2025-01-08 03:53:57.40	0.63	6.87	
2025-01-08 03:53:57.61	0.60	6.88	
2025-01-08 03:53:57.81	0.57	6.89	
2025-01-08 03:53:58.02	0.54	6.90	
2025-01-08 03:53:58.22	0.51	6.91	
2025-01-08 03:53:58.43	0.48	6.92	
2025-01-08 03:53:58.64	0.45	6.93	
2025-01-08 03:53:58.84	0.42	6.94	
2025-01-08 03:53:59.05	0.39	6.95	
2025-01-08 03:53:59.25	0.36	6.96	
2025-01-08 03:53:59.45	0.33	6.97	
2025-01-08 03:53:59.66	0.30	6.98	
2025-01-08 03:53:59.86	0.27	6.99	
2025-01-08 03:54:00.07	0.24	7.00	
2025-01-08 03:54:00.27	0.21	7.01	
2025-01-08 03:54:00.48	0.18	7.02	
2025-01-08 03:54:00.68	0.15	7.03	
2025-01-08 03:54:00.88	0.12	7.04	
2025-01-08 03:54:01.09	0.09	7.05	
2025-01-08 03:54:01.29	0.06	7.06	
2025-01-08 03:54:01.50	0.03	7.07	
2025-01-08 03:54:01.71	0.00	7.08	
2025-01-08 03:54:01.91	359.97	7.09	
2025-01-08 03:54:02.12	359.94	7.10	
2025-01-08 03:54:02.32	359.91	7.11	
2025-01-08 03:54:02.53	359.88	7.12	
2025-01-08 03:54:02.73	359.85	7.13	
2025-01-08 03:54:02.94	359.82	7.14	
2025-01-08 03:54:03.16	359.79	7.15	
2025-01-08 03:54:03.36	359.76	7.16	
2025-01-08 03:54:03.57	359.73	7.17	
2025-01-08 03:54:03.77	359.70	7.18	
2025-01-08 03:54:03.98	359.67	7.19	
2025-01-08 03:54:04.20	359.64	7.20	
2025-01-08 03:54:04.40	359.61	7.21	
2025-01-08 03:54:04.61	359.58	7.22	
2025-01-08 03:54:04.81	359.55	7.23	
2025-01-08 03:54:05.02	359.52	7.24	
2025-01-08 03:54:05.22	359.49	7.25	
2025-01-08 03:54:05.43	359.45	7.26	
2025-01-08 03:54:05.63	359.43	7.27	
2025-01-08 03:54:05.84	359.39	7.28	
2025-01-08 03:54:06.05	359.36	7.29	
2025-01-08 03:54:06.25	359.33	7.30	
2025-01-08 03:54:06.46	359.30	7.31	
2025-01-08 03:54:06.66	359.27	7.32	
2025-01-08 03:54:06.87	359.24	7.33	
2025-01-08 03:54:07.08	359.21	7.34	
2025-01-08 03:54:07.28	359.18	7.35	
2025-01-08 03:54:07.48	359.15	7.36	
2025-01-08 03:54:07.69	359.12	7.37	
2025-01-08 03:54:07.89	359.09	7.38	
2025-01-08 03:54:08.10	359.06	7.39	
2025-01-08 03:54:08.31	359.03	7.40	
2025-01-08 03:54:08.51	359.00	7.41	
2025-01-08 03:54:08.71	358.97	7.42	
2025-01-08 03:54:08.92	358.93	7.43	
2025-01-08 03:54:09.12	358.90	7.44	
2025-01-08 03:54:09.33	358.87	7.45	
2025-01-08 03:54:09.53	358.84	7.46	
2025-01-08 03:54:09.74	358.81	7.47	
2025-01-08 03:54:09.94	358.78	7.48	
2025-01-08 03:54:10.15	358.75	7.49	
2025-01-08 03:54:10.36	358.72	7.50	
2025-01-08 03:54:10.57	358.69	7.51	
2025-01-08 03:54:10.78	358.65	7.52	
2025-01-08 03:54:10.98	358.62	7.53	
2025-01-08 03:54:11.19	358.59	7.54	
2025-01-08 03:54:11.39	358.56	7.55	
2025-01-08 03:54:11.60	358.53	7.56	
2025-01-08 03:54:11.81	358.50	7.57	
2025-01-08 03:54:12.01	358.47	7.58	
2025-01-08 03:54:12.22	358.44	7.59	
2025-01-08 03:54:12.42	358.41	7.60	
2025-01-08 03:54:12.63	358.37	7.61	
2025-01-08 03:54:12.83	358.34	7.62	
2025-01-08 03:54:13.03	358.31	7.63	
2025-01-08 03:54:13.24	358.28	7.64	
2025-01-08 03:54:13.44	358.25	7.65	
2025-01-08 03:54:13.65	358.22	7.66	
2025-01-08 03:54:13.85	358.19	7.67	
2025-01-08 03:54:14.06	358.16	7.68	
2025-01-08 03:54:14.27	358.12	7.69	
2025-01-08 03:54:14.47	358.09	7.70	
2025-01-08 03:54:14.68	358.06	7.71	
2025-01-08 03:54:14.88	358.03	7.72	
2025-01-08 03:54:15.09	358.00	7.73	
2025-01-08 03:54:15.29	357.97	7.74	
2025-01-08 03:54:15.50	357.94	7.75	
2025-01-08 03:54:15.70	357.90	7.76	
2025-01-08 03:54:15.91	357.87	7.77	
2025-01-08 03:54:16.11	357.84	7.78	
2025-01-08 03:54:16.32	357.81	7.79	
2025-01-08 03:54:16.52	357.78	7.80	
2025-01-08 03:54:16.73	357.75	7.81	
2025-01-08 03:54:16.93	357.72	7.82	
2025-01-08 03:54:17.14	357.68	7.83	
2025-01-08 03:54:17.34	357.65	7.84	
2025-01-08 03:54:17.55	357.62	7.85	
2025-01-08 03:54:17.75	357.59	7.86	
2025-01-08 03:54:17.97	357.55	7.87	
2025-01-08 03:54:18.18	357.52	7.88	
2025-01-08 03:54:18.38	357.49	7.89	
2025-01-08 03:54:18.59	357.46	7.90	
2025-01-08 03:54:18.79	357.43	7.91	
2025-01-08 03:54:19.00	357.39	7.92	
2025-01-08 03:54:19.20	357.36	7.93	
2025-01-08 03:54:19.41	357.33	7.94	
2025-01-08 03:54:19.61	357.30	7.95	
2025-01-08 03:54:19.82	357.27	7.96	
2025-01-08 03:54:20.02	357.24	7.97	
2025-01-08 03:54:20.23	357.20	7.98	
2025-01-08 03:54:20.43	357.17	7.99	
2025-01-08 03:54:20.64	357.14	8.00	
2025-01-08 03:54:20.84	357.11	8.01	
2025-01-08 03:54:21.05	357.07	8.02	
2025-01-08 03:54:21.25	357.04	8.03	
2025-01-08 03:54:21.46	357.01	8.04	
2025-01-08 03:54:21.66	356.98	8.05	
2025-01-08 03:54:21.87	356.95	8.06	
2025-01-08 03:54:22.07	356.91	8.06	
2025-01-08 03:54:22.27	356.88	8.07	
2025-01-08 03:54:22.48	356.85	8.08	
2025-01-08 03:54:22.69	356.82	8.09	
2025-01-08 03:54:22.89	356.78	8.10	
2025-01-08 03:54:23.10	356.75	8.11	
2025-01-08 03:54:23.30	356.72	8.12	
2025-01-08 03:54:23.51	356.69	8.13	
2025-01-08 03:54:23.71	356.66	8.14	
2025-01-08 03:54:23.92	356.62	8.15	
2025-01-08 03:54:24.13	356.59	8.16	
2025-01-08 03:54:24.33	356.56	8.17	
2025-01-08 03:54:24.54	356.52	8.18	
2025-01-08 03:54:24.74	356.49	8.19	
2025-01-08 03:54:24.95	356.46	8.20	
2025-01-08 03:54:25.15	356.43	8.21	
2025-01-08 03:54:25.36	356.39	8.22	
2025-01-08 03:54:25.56	356.36	8.23	
2025-01-08 03:54:25.77	356.33	8.24	
2025-01-08 03:54:25.97	356.30	8.25	
2025-01-08 03:54:26.18	356.26	8.26	
2025-01-08 03:54:26.39	356.23	8.27	
2025-01-08 03:54:26.61	356.19	8.28	
2025-01-08 03:54:26.81	356.16	8.29	
2025-01-08 03:54:27.02	356.13	8.30	
2025-01-08 03:54:27.22	356.10	8.31	
2025-01-08 03:54:27.43	356.06	8.32	
2025-01-08 03:54:27.63	356.03	8.33	
2025-01-08 03:54:27.84	356.00	8.34	
2025-01-08 03:54:28.04	355.96	8.35	
2025-01-08 03:54:28.25	355.93	8.36	
2025-01-08 03:54:28.46	355.90	8.37	
2025-01-08 03:54:28.66	355.86	8.38	
2025-01-08 03:54:28.87	355.83	8.39	
2025-01-08 03:54:29.07	355.80	8.40	
2025-01-08 03:54:29.28	355.76	8.40	
2025-01-08 03:54:29.48	355.73	8.41	
2025-01-08 03:54:29.69	355.70	8.42	
2025-01-08 03:54:29.89	355.67	8.43	
2025-01-08 03:54:30.10	355.63	8.44	
2025-01-08 03:54:30.30	355.60	8.45	
2025-01-08 03:54:30.51	355.57	8.46	
2025-01-08 03:54:30.71	355.53	8.47	
2025-01-08 03:54:30.92	355.50	8.48	
2025-01-08 03:54:31.13	355.46	8.49	
2025-01-08 03:54:31.33	355.43	8.50	
2025-01-08 03:54:31.54	355.40	8.51	
2025-01-08 03:54:31.74	355.37	8.52	
2025-01-08 03:54:31.95	355.33	8.53	
2025-01-08 03:54:32.15	355.30	8.54	
2025-01-08 03:54:32.36	355.26	8.55	
2025-01-08 03:54:32.56	355.23	8.56	
2025-01-08 03:54:32.77	355.20	8.57	
2025-01-08 03:54:32.97	355.16	8.58	
2025-01-08 03:54:33.18	355.13	8.59	
2025-01-08 03:54:33.39	355.10	8.60	
2025-01-08 03:54:33.59	355.06	8.61	
2025-01-08 03:54:33.80	355.03	8.62	
2025-01-08 03:54:34.00	355.00	8.62	
2025-01-08 03:54:34.21	354.96	8.63	
2025-01-08 03:54:34.41	354.93	8.64	
2025-01-08 03:54:34.62	354.89	8.65	
2025-01-08 03:54:34.82	354.86	8.66	
2025-01-08 03:54:35.03	354.83	8.67	
2025-01-08 03:54:35.23	354.79	8.68	
2025-01-08 03:54:35.44	354.76	8.69	
2025-01-08 03:54:35.64	354.73	8.70	
2025-01-08 03:54:35.85	354.69	8.71	
2025-01-08 03:54:36.05	354.66	8.72	
2025-01-08 03:54:36.26	354.62	8.73	
2025-01-08 03:54:36.46	354.59	8.74	
2025-01-08 03:54:36.67	354.56	8.75	
2025-01-08 03:54:36.87	354.52	8.76	
2025-01-08 03:54:37.08	354.49	8.77	
2025-01-08 03:54:37.28	354.45	8.78	
2025-01-08 03:54:37.49	354.42	8.79	
2025-01-08 03:54:37.69	354.39	8.79	
2025-01-08 03:54:37.90	354.35	8.80	
2025-01-08 03:54:38.11	354.32	8.81	
2025-01-08 03:54:38.31	354.28	8.82	
2025-01-08 03:54:38.51	354.25	8.83	
2025-01-08 03:54:38.72	354.21	8.84	
2025-01-08 03:54:38.92	354.18	8.85	
2025-01-08 03:54:39.13	354.15	8.86	
2025-01-08 03:54:39.33	354.11	8.87	
2025-01-08 03:54:39.54	354.08	8.88	
2025-01-08 03:54:39.74	354.04	8.89	
2025-01-08 03:54:39.95	354.01	8.90	
2025-01-08 03:54:40.15	353.97	8.91	
2025-01-08 03:54:40.36	353.94	8.92	
2025-01-08 03:54:40.56	353.91	8.93	
2025-01-08 03:54:40.77	353.87	8.94	
2025-01-08 03:54:40.97	353.84	8.94	
2025-01-08 03:54:41.18	353.80	8.95	
2025-01-08 03:54:41.39	353.77	8.96	
2025-01-08 03:54:41.59	353.73	8.97	
2025-01-08 03:54:41.79	353.70	8.98	
2025-01-08 03:54:42.00	353.66	8.99	
2025-01-08 03:54:42.20	353.63	9.00	
2025-01-08 03:54:42.41	353.59	9.01	
2025-01-08 03:54:42.61	353.56	9.02	
2025-01-08 03:54:42.82	353.52	9.03	
2025-01-08 03:54:43.03	353.49	9.04	
2025-01-08 03:54:43.23	353.46	9.05	
2025-01-08 03:54:43.44	353.42	9.06	
2025-01-08 03:54:43.64	353.39	9.07	
2025-01-08 03:54:43.85	353.35	9.07	
2025-01-08 03:54:44.06	353.31	9.08	
2025-01-08 03:54:44.26	353.28	9.09	
2025-01-08 03:54:44.47	353.24	9.10	
2025-01-08 03:54:44.67	353.21	9.11	
2025-01-08 03:54:44.88	353.17	9.12	
2025-01-08 03:54:45.08	353.14	9.13	
2025-01-08 03:54:45.29	353.10	9.14	
2025-01-08 03:54:45.49	353.07	9.15	
2025-01-08 03:54:45.70	353.03	9.16	
2025-01-08 03:54:45.90	353.00	9.17	
2025-01-08 03:54:46.11	352.96	9.18	
2025-01-08 03:54:46.32	352.93	9.19	
2025-01-08 03:54:46.52	352.89	9.19	
2025-01-08 03:54:46.73	352.86	9.20	
2025-01-08 03:54:46.93	352.82	9.21	
2025-01-08 03:54:47.14	352.79	9.22	
2025-01-08 03:54:47.34	352.75	9.23	
2025-01-08 03:54:47.55	352.72	9.24	
2025-01-08 03:54:47.75	352.68	9.25	
2025-01-08 03:54:47.96	352.65	9.26	
2025-01-08 03:54:48.16	352.61	9.27	
2025-01-08 03:54:48.36	352.58	9.28	
2025-01-08 03:54:48.57	352.54	9.29	
2025-01-08 03:54:48.78	352.51	9.30	
2025-01-08 03:54:48.99	352.47	9.30	
2025-01-08 03:54:49.20	352.43	9.31	
2025-01-08 03:54:49.41	352.40	9.32	
2025-01-08 03:54:49.61	352.36	9.33	
2025-01-08 03:54:49.82	352.33	9.34	
2025-01-08 03:54:50.02	352.29	9.35	
2025-01-08 03:54:50.23	352.25	9.36	
2025-01-08 03:54:50.43	352.22	9.37	
2025-01-08 03:54:50.64	352.18	9.38	
2025-01-08 03:54:50.85	352.15	9.39	
2025-01-08 03:54:51.05	352.11	9.40	
2025-01-08 03:54:51.26	352.08	9.40	
2025-01-08 03:54:51.46	352.04	9.41	
2025-01-08 03:54:51.67	352.00	9.42	
2025-01-08 03:54:51.88	351.97	9.43	
2025-01-08 03:54:52.09	351.93	9.44	
2025-01-08 03:54:52.30	351.89	9.45	
2025-01-08 03:54:52.50	351.86	9.46	
2025-01-08 03:54:52.71	351.82	9.47	
2025-01-08 03:54:52.91	351.79	9.48	
2025-01-08 03:54:53.12	351.75	9.49	
2025-01-08 03:54:53.32	351.72	9.50	
2025-01-08 03:54:53.53	351.68	9.50	
2025-01-08 03:54:53.73	351.64	9.51	
2025-01-08 03:54:53.94	351.61	9.52	
2025-01-08 03:54:54.14	351.57	9.53	
2025-01-08 03:54:54.35	351.53	9.54	
2025-01-08 03:54:54.55	351.50	9.55	
2025-01-08 03:54:54.76	351.46	9.56	
2025-01-08 03:54:54.97	351.42	9.57	
2025-01-08 03:54:55.17	351.39	9.58	
2025-01-08 03:54:55.38	351.35	9.58	
2025-01-08 03:54:55.58	351.32	9.59	
2025-01-08 03:54:55.79	351.28	9.60	
2025-01-08 03:54:55.99	351.24	9.61	
2025-01-08 03:54:56.20	351.21	9.62	
2025-01-08 03:54:56.40	351.17	9.63	
2025-01-08 03:54:56.61	351.13	9.64	
2025-01-08 03:54:56.82	351.10	9.65	
2025-01-08 03:54:57.02	351.06	9.66	
2025-01-08 03:54:57.23	351.02	9.66	
2025-01-08 03:54:57.43	350.99	9.67	
2025-01-08 03:54:57.64	350.95	9.68	
2025-01-08 03:54:57.84	350.92	9.69	
2025-01-08 03:54:58.05	350.88	9.70	
2025-01-08 03:54:58.25	350.84	9.71	
2025-01-08 03:54:58.46	350.81	9.72	
2025-01-08 03:54:58.66	350.77	9.73	
2025-01-08 03:54:58.87	350.73	9.73	
2025-01-08 03:54:59.07	350.70	9.74	
2025-01-08 03:54:59.28	350.66	9.75	
2025-01-08 03:54:59.48	350.62	9.76	
2025-01-08 03:54:59.69	350.59	9.77	
2025-01-08 03:54:59.89	350.55	9.78	
2025-01-08 03:55:00.09	350.51	9.79	
2025-01-08 03:55:00.30	350.48	9.80	
2025-01-08 03:55:00.51	350.44	9.80	
2025-01-08 03:55:00.71	350.40	9.81	
2025-01-08 03:55:00.91	350.37	9.82	
2025-01-08 03:55:01.12	350.33	9.83	
2025-01-08 03:55:01.33	350.29	9.84	
2025-01-08 03:55:01.53	350.26	9.85	
2025-01-08 03:55:01.73	350.22	9.86	
2025-01-08 03:55:01.94	350.18	9.87	
2025-01-08 03:55:02.15	350.14	9.87	
2025-01-08 03:55:02.35	350.11	9.88	
2025-01-08 03:55:02.56	350.07	9.89	
2025-01-08 03:55:02.76	350.03	9.90	
2025-01-08 03:55:02.96	350.00	9.91	
2025-01-08 03:55:03.17	349.96	9.92	
2025-01-08 03:55:03.37	349.92	9.93	
2025-01-08 03:55:03.58	349.89	9.93	
2025-01-08 03:55:03.78	349.85	9.94	
2025-01-08 03:55:03.99	349.81	9.95	
2025-01-08 03:55:04.19	349.77	9.96	
2025-01-08 03:55:04.40	349.74	9.97	
2025-01-08 03:55:04.61	349.70	9.98	
2025-01-08 03:55:04.81	349.66	9.99	
2025-01-08 03:55:05.02	349.62	9.99	
2025-01-08 03:55:05.22	349.59	10.00	
2025-01-08 03:55:05.43	349.55	10.01	
2025-01-08 03:55:05.63	349.51	10.02	
2025-01-08 03:55:05.84	349.47	10.03	
2025-01-08 03:55:06.04	349.44	10.04	
2025-01-08 03:55:06.24	349.40	10.05	
2025-01-08 03:55:06.45	349.36	10.05	
2025-01-08 03:55:06.66	349.32	10.06	
2025-01-08 03:55:06.86	349.29	10.07	
2025-01-08 03:55:07.07	349.25	10.08	
2025-01-08 03:55:07.27	349.21	10.09	
2025-01-08 03:55:07.48	349.17	10.10	
2025-01-08 03:55:07.68	349.14	10.10	
2025-01-08 03:55:07.89	349.10	10.11	
2025-01-08 03:55:08.09	349.06	10.12	
2025-01-08 03:55:08.30	349.02	10.13	
2025-01-08 03:55:08.51	348.98	10.14	
2025-01-08 03:55:08.71	348.95	10.15	
2025-01-08 03:55:08.92	348.91	10.16	
2025-01-08 03:55:09.12	348.87	10.16	
2025-01-08 03:55:09.33	348.83	10.17	
2025-01-08 03:55:09.53	348.80	10.18	
2025-01-08 03:55:09.74	348.76	10.19	
2025-01-08 03:55:09.94	348.72	10.20	
2025-01-08 03:55:10.15	348.68	10.21	
2025-01-08 03:55:10.35	348.64	10.21	
2025-01-08 03:55:10.56	348.61	10.22	
2025-01-08 03:55:10.76	348.57	10.23	
2025-01-08 03:55:10.97	348.53	10.24	
2025-01-08 03:55:11.17	348.49	10.25	
2025-01-08 03:55:11.39	348.45	10.26	
2025-01-08 03:55:11.60	348.41	10.26	
2025-01-08 03:55:11.80	348.38	10.27	
2025-01-08 03:55:12.01	348.34	10.28	
2025-01-08 03:55:12.21	348.30	10.29	
2025-01-08 03:55:12.42	348.26	10.30	
2025-01-08 03:55:12.63	348.22	10.31	
2025-01-08 03:55:12.84	348.18	10.31	
2025-01-08 03:55:13.04	348.14	10.32	
2025-01-08 03:55:13.25	348.11	10.33	
2025-01-08 03:55:13.45	348.07	10.34	
2025-01-08 03:55:13.66	348.03	10.35	
2025-01-08 03:55:13.86	347.99	10.36	
2025-01-08 03:55:14.07	347.95	10.36	
2025-01-08 03:55:14.27	347.91	10.37	
2025-01-08 03:55:14.48	347.88	10.38	
2025-01-08 03:55:14.68	347.84	10.39	
2025-01-08 03:55:14.89	347.80	10.40	
2025-01-08 03:55:15.09	347.76	10.40	
2025-01-08 03:55:15.30	347.72	10.41	
2025-01-08 03:55:15.50	347.68	10.42	
2025-01-08 03:55:15.71	347.64	10.43	
2025-01-08 03:55:15.91	347.61	10.44	
2025-01-08 03:55:16.12	347.57	10.45	
2025-01-08 03:55:16.32	347.53	10.45	
2025-01-08 03:55:16.53	347.49	10.46	
2025-01-08 03:55:16.75	347.45	10.47	
2025-01-08 03:55:16.95	347.41	10.48	
2025-01-08 03:55:17.16	347.37	10.49	
2025-01-08 03:55:17.36	347.33	10.49	
2025-01-08 03:55:17.57	347.29	10.50	
2025-01-08 03:55:17.77	347.26	10.51	
2025-01-08 03:55:17.98	347.22	10.52	
2025-01-08 03:55:18.19	347.18	10.53	
2025-01-08 03:55:18.39	347.14	10.53	
2025-01-08 03:55:18.60	347.10	10.54	
2025-01-08 03:55:18.80	347.06	10.55	
2025-01-08 03:55:19.01	347.02	10.56	
2025-01-08 03:55:19.22	346.98	10.57	
2025-01-08 03:55:19.42	346.94	10.57	
2025-01-08 03:55:19.63	346.90	10.58	
2025-01-08 03:55:19.83	346.86	10.59	
2025-01-08 03:55:20.04	346.82	10.60	
2025-01-08 03:55:20.25	346.78	10.61	
2025-01-08 03:55:20.45	346.75	10.61	
2025-01-08 03:55:20.66	346.71	10.62	
2025-01-08 03:55:20.86	346.67	10.63	
2025-01-08 03:55:21.07	346.63	10.64	
2025-01-08 03:55:21.27	346.59	10.65	
2025-01-08 03:55:21.48	346.55	10.65	
2025-01-08 03:55:21.68	346.51	10.66	
2025-01-08 03:55:21.88	346.47	10.67	
2025-01-08 03:55:22.09	346.43	10.68	
2025-01-08 03:55:22.30	346.39	10.68	
2025-01-08 03:55:22.50	346.35	10.69	
2025-01-08 03:55:22.71	346.31	10.70	
2025-01-08 03:55:22.91	346.28	10.71	
2025-01-08 03:55:23.12	346.23	10.72	
2025-01-08 03:55:23.32	346.20	10.72	
2025-01-08 03:55:23.53	346.16	10.73	
2025-01-08 03:55:23.73	346.12	10.74	
2025-01-08 03:55:23.94	346.08	10.75	
2025-01-08 03:55:24.14	346.04	10.75	
2025-01-08 03:55:24.35	346.00	10.76	
2025-01-08 03:55:24.55	345.96	10.77	
2025-01-08 03:55:24.76	345.92	10.78	
2025-01-08 03:55:24.96	345.88	10.79	
2025-01-08 03:55:25.17	345.84	10.79	
2025-01-08 03:55:25.37	345.80	10.80	
2025-01-08 03:55:25.58	345.76	10.81	
2025-01-08 03:55:25.78	345.72	10.82	
2025-01-08 03:55:25.99	345.68	10.82	
2025-01-08 03:55:26.21	345.64	10.83	
2025-01-08 03:55:26.41	345.60	10.84	
2025-01-08 03:55:26.62	345.56	10.85	
2025-01-08 03:55:26.82	345.52	10.85	
2025-01-08 03:55:27.03	345.48	10.86	
2025-01-08 03:55:27.23	345.44	10.87	
2025-01-08 03:55:27.44	345.40	10.88	
2025-01-08 03:55:27.64	345.36	10.89	
2025-01-08 03:55:27.85	345.32	10.89	
2025-01-08 03:55:28.06	345.28	10.90	
2025-01-08 03:55:28.26	345.24	10.91	
2025-01-08 03:55:28.46	345.20	10.92	
2025-01-08 03:55:28.67	345.16	10.92	
2025-01-08 03:55:28.88	345.12	10.93	
2025-01-08 03:55:29.08	345.08	10.94	
2025-01-08 03:55:29.29	345.04	10.95	
2025-01-08 03:55:29.49	345.00	10.95	
2025-01-08 03:55:29.70	344.96	10.96	
2025-01-08 03:55:29.90	344.92	10.97	
2025-01-08 03:55:30.11	344.88	10.98	
2025-01-08 03:55:30.31	344.84	10.98	
2025-01-08 03:55:30.51	344.80	10.99	
2025-01-08 03:55:30.72	344.76	11.00	
2025-01-08 03:55:30.93	344.72	11.01	
2025-01-08 03:55:31.13	344.68	11.01	
2025-01-08 03:55:31.34	344.64	11.02	
2025-01-08 03:55:31.54	344.60	11.03	
2025-01-08 03:55:31.75	344.56	11.03	
2025-01-08 03:55:31.95	344.52	11.04	
2025-01-08 03:55:32.16	344.47	11.05	
2025-01-08 03:55:32.36	344.44	11.06	
2025-01-08 03:55:32.57	344.39	11.06	
2025-01-08 03:55:32.77	344.35	11.07	
2025-01-08 03:55:32.98	344.31	11.08	
2025-01-08 03:55:33.18	344.27	11.09	
2025-01-08 03:55:33.39	344.23	11.09	
2025-01-08 03:55:33.60	344.19	11.10	
2025-01-08 03:55:33.80	344.15	11.11	
2025-01-08 03:55:34.00	344.11	11.11	
2025-01-08 03:55:34.21	344.07	11.12	
2025-01-08 03:55:34.41	344.03	11.13	
2025-01-08 03:55:34.62	343.99	11.14	
2025-01-08 03:55:34.84	343.94	11.14	
2025-01-08 03:55:35.04	343.90	11.15	
2025-01-08 03:55:35.25	343.86	11.16	
2025-01-08 03:55:35.45	343.82	11.17	
2025-01-08 03:55:35.66	343.78	11.17	
2025-01-08 03:55:35.86	343.74	11.18	
2025-01-08 03:55:36.07	343.70	11.19	
2025-01-08 03:55:36.27	343.66	11.19	
2025-01-08 03:55:36.48	343.62	11.20	
2025-01-08 03:55:36.69	343.58	11.21	
2025-01-08 03:55:36.89	343.54	11.22	
2025-01-08 03:55:37.09	343.50	11.22	
2025-01-08 03:55:37.30	343.45	11.23	
2025-01-08 03:55:37.50	343.41	11.24	
2025-01-08 03:55:37.71	343.37	11.24	
2025-01-08 03:55:37.91	343.33	11.25	
2025-01-08 03:55:38.12	343.29	11.26	
2025-01-08 03:55:38.32	343.25	11.26	
2025-01-08 03:55:38.53	343.21	11.27	
2025-01-08 03:55:38.74	343.17	11.28	
2025-01-08 03:55:38.94	343.13	11.29	
2025-01-08 03:55:39.14	343.09	11.29	
2025-01-08 03:55:39.35	343.04	11.30	
2025-01-08 03:55:39.56	343.00	11.31	
2025-01-08 03:55:39.76	342.96	11.31	
2025-01-08 03:55:39.97	342.92	11.32	
2025-01-08 03:55:40.17	342.88	11.33	
2025-01-08 03:55:40.37	342.84	11.33	
2025-01-08 03:55:40.58	342.80	11.34	
2025-01-08 03:55:40.79	342.75	11.35	
2025-01-08 03:55:40.99	342.71	11.35	
2025-01-08 03:55:41.20	342.67	11.36	
2025-01-08 03:55:41.40	342.63	11.37	
2025-01-08 03:55:41.61	342.59	11.38	
2025-01-08 03:55:41.81	342.55	11.38	
2025-01-08 03:55:42.02	342.51	11.39	
2025-01-08 03:55:42.24	342.46	11.40	
2025-01-08 03:55:42.44	342.42	11.40	
2025-01-08 03:55:42.65	342.38	11.41	
2025-01-08 03:55:42.85	342.34	11.42	
2025-01-08 03:55:43.06	342.30	11.42	
2025-01-08 03:55:43.26	342.25	11.43	
2025-01-08 03:55:43.46	342.21	11.44	
2025-01-08 03:55:43.66	342.17	11.44	
2025-01-08 03:55:43.87	342.13	11.45	
2025-01-08 03:55:44.07	342.09	11.46	
2025-01-08 03:55:44.28	342.05	11.46	
2025-01-08 03:55:44.48	342.01	11.47	
2025-01-08 03:55:44.69	341.96	11.48	
2025-01-08 03:55:44.90	341.92	11.48	
2025-01-08 03:55:45.10	341.88	11.49	
2025-01-08 03:55:45.31	341.84	11.50	
2025-01-08 03:55:45.51	341.80	11.50	
2025-01-08 03:55:45.72	341.75	11.51	
2025-01-08 03:55:45.92	341.71	11.52	
2025-01-08 03:55:46.13	341.67	11.52	
2025-01-08 03:55:46.34	341.63	11.53	
2025-01-08 03:55:46.54	341.59	11.54	
2025-01-08 03:55:46.74	341.55	11.54	
2025-01-08 03:55:46.95	341.50	11.55	
2025-01-08 03:55:47.15	341.46	11.55	
2025-01-08 03:55:47.36	341.42	11.56	
2025-01-08 03:55:47.56	341.38	11.57	
2025-01-08 03:55:47.76	341.34	11.57	
2025-01-08 03:55:47.97	341.29	11.58	
2025-01-08 03:55:48.19	341.25	11.59	
2025-01-08 03:55:48.39	341.21	11.59	
2025-01-08 03:55:48.60	341.16	11.60	
2025-01-08 03:55:48.80	341.12	11.61	
2025-01-08 03:55:49.01	341.08	11.61	
2025-01-08 03:55:49.21	341.04	11.62	
2025-01-08 03:55:49.42	341.00	11.63	
2025-01-08 03:55:49.62	340.96	11.63	
2025-01-08 03:55:49.83	340.91	11.64	
2025-01-08 03:55:50.03	340.87	11.64	
2025-01-08 03:55:50.24	340.83	11.65	
2025-01-08 03:55:50.44	340.79	11.66	
2025-01-08 03:55:50.64	340.74	11.66	
2025-01-08 03:55:50.85	340.70	11.67	
2025-01-08 03:55:51.06	340.66	11.68	
2025-01-08 03:55:51.26	340.62	11.68	
2025-01-08 03:55:51.47	340.57	11.69	
2025-01-08 03:55:51.67	340.53	11.70	
2025-01-08 03:55:51.88	340.49	11.70	
2025-01-08 03:55:52.08	340.45	11.71	
2025-01-08 03:55:52.29	340.40	11.71	
2025-01-08 03:55:52.49	340.36	11.72	
2025-01-08 03:55:52.70	340.32	11.73	
2025-01-08 03:55:52.90	340.28	11.73	
2025-01-08 03:55:53.11	340.23	11.74	
2025-01-08 03:55:53.31	340.19	11.74	
2025-01-08 03:55:53.52	340.15	11.75	
2025-01-08 03:55:53.72	340.11	11.76	
2025-01-08 03:55:53.93	340.06	11.76	
2025-01-08 03:55:54.13	340.02	11.77	
2025-01-08 03:55:54.34	339.98	11.77	
2025-01-08 03:55:54.54	339.94	11.78	
2025-01-08 03:55:54.75	339.89	11.79	
2025-01-08 03:55:54.95	339.85	11.79	
2025-01-08 03:55:55.16	339.81	11.80	
2025-01-08 03:55:55.37	339.76	11.81	
2025-01-08 03:55:55.57	339.72	11.81	
2025-01-08 03:55:55.78	339.68	11.82	
2025-01-08 03:55:55.98	339.64	11.82	
2025-01-08 03:55:56.19	339.59	11.83	
2025-01-08 03:55:56.39	339.55	11.83	
2025-01-08 03:55:56.60	339.51	11.84	
2025-01-08 03:55:56.80	339.46	11.85	
2025-01-08 03:55:57.01	339.42	11.85	
2025-01-08 03:55:57.21	339.38	11.86	
2025-01-08 03:55:57.42	339.34	11.86	
2025-01-08 03:55:57.62	339.29	11.87	
2025-01-08 03:55:57.83	339.25	11.88	
2025-01-08 03:55:58.04	339.21	11.88	
2025-01-08 03:55:58.24	339.16	11.89	
2025-01-08 03:55:58.45	339.12	11.89	
2025-01-08 03:55:58.65	339.08	11.90	
2025-01-08 03:55:58.86	339.03	11.91	
2025-01-08 03:55:59.06	338.99	11.91	
2025-01-08 03:55:59.27	338.95	11.92	
2025-01-08 03:55:59.47	338.90	11.92	
2025-01-08 03:55:59.68	338.86	11.93	
2025-01-08 03:55:59.88	338.82	11.93	
2025-01-08 03:56:00.08	338.78	11.94	
2025-01-08 03:56:00.29	338.73	11.94	
2025-01-08 03:56:00.50	338.69	11.95	
2025-01-08 03:56:00.70	338.65	11.96	
2025-01-08 03:56:00.91	338.60	11.96	
2025-01-08 03:56:01.11	338.56	11.97	
2025-01-08 03:56:01.31	338.52	11.97	
2025-01-08 03:56:01.52	338.47	11.98	
2025-01-08 03:56:01.72	338.43	11.98	
2025-01-08 03:56:01.93	338.39	11.99	
2025-01-08 03:56:02.14	338.34	12.00	
2025-01-08 03:56:02.34	338.30	12.00	
2025-01-08 03:56:02.55	338.25	12.01	
2025-01-08 03:56:02.75	338.21	12.01	
2025-01-08 03:56:02.96	338.17	12.02	
2025-01-08 03:56:03.17	338.12	12.02	
2025-01-08 03:56:03.37	338.08	12.03	
2025-01-08 03:56:03.59	338.03	12.03	
2025-01-08 03:56:03.80	337.99	12.04	
2025-01-08 03:56:04.00	337.95	12.05	
2025-01-08 03:56:04.21	337.90	12.05	
2025-01-08 03:56:04.41	337.86	12.06	
2025-01-08 03:56:04.63	337.81	12.06	
2025-01-08 03:56:04.84	337.77	12.07	
2025-01-08 03:56:05.04	337.73	12.07	
2025-01-08 03:56:05.25	337.68	12.08	
2025-01-08 03:56:05.45	337.64	12.08	
2025-01-08 03:56:05.66	337.59	12.09	
2025-01-08 03:56:05.86	337.55	12.09	
2025-01-08 03:56:06.07	337.51	12.10	
2025-01-08 03:56:06.27	337.46	12.10	
2025-01-08 03:56:06.48	337.42	12.11	
2025-01-08 03:56:06.68	337.38	12.11	
2025-01-08 03:56:06.89	337.33	12.12	
2025-01-08 03:56:07.09	337.29	12.13	
2025-01-08 03:56:07.30	337.24	12.13	
2025-01-08 03:56:07.50	337.20	12.14	
2025-01-08 03:56:07.71	337.16	12.14	
2025-01-08 03:56:07.91	337.11	12.15	
2025-01-08 03:56:08.12	337.07	12.15	
2025-01-08 03:56:08.32	337.03	12.16	
2025-01-08 03:56:08.53	336.98	12.16	
2025-01-08 03:56:08.73	336.94	12.17	
2025-01-08 03:56:08.94	336.89	12.17	
2025-01-08 03:56:09.15	336.85	12.18	
2025-01-08 03:56:09.36	336.80	12.18	
2025-01-08 03:56:09.56	336.76	12.19	
2025-01-08 03:56:09.77	336.72	12.19	
2025-01-08 03:56:09.97	336.67	12.20	
2025-01-08 03:56:10.18	336.63	12.20	
2025-01-08 03:56:10.39	336.58	12.21	
2025-01-08 03:56:10.59	336.54	12.21	
2025-01-08 03:56:10.80	336.49	12.22	
2025-01-08 03:56:11.00	336.45	12.22	
2025-01-08 03:56:11.21	336.41	12.23	
2025-01-08 03:56:11.41	336.36	12.23	
2025-01-08 03:56:11.62	336.32	12.24	
2025-01-08 03:56:11.82	336.27	12.24	
2025-01-08 03:56:12.03	336.23	12.25	
2025-01-08 03:56:12.23	336.19	12.25	
2025-01-08 03:56:12.44	336.14	12.26	
2025-01-08 03:56:12.64	336.10	12.26	
2025-01-08 03:56:12.85	336.05	12.27	
2025-01-08 03:56:13.05	336.01	12.27	
2025-01-08 03:56:13.26	335.96	12.28	
2025-01-08 03:56:13.46	335.92	12.28	
2025-01-08 03:56:13.67	335.88	12.28	
2025-01-08 03:56:13.87	335.83	12.29	
2025-01-08 03:56:14.08	335.79	12.29	
2025-01-08 03:56:14.28	335.74	12.30	
2025-01-08 03:56:14.49	335.70	12.30	
2025-01-08 03:56:14.69	335.65	12.31	
2025-01-08 03:56:14.90	335.61	12.31	
2025-01-08 03:56:15.11	335.56	12.32	
2025-01-08 03:56:15.32	335.52	12.32	
2025-01-08 03:56:15.53	335.47	12.33	
2025-01-08 03:56:15.74	335.43	12.33	
2025-01-08 03:56:15.94	335.38	12.34	
2025-01-08 03:56:16.15	335.34	12.34	
2025-01-08 03:56:16.35	335.29	12.35	
2025-01-08 03:56:16.55	335.25	12.35	
2025-01-08 03:56:16.76	335.21	12.35	
2025-01-08 03:56:16.96	335.16	12.36	
2025-01-08 03:56:17.17	335.12	12.36	
2025-01-08 03:56:17.37	335.07	12.37	
2025-01-08 03:56:17.58	335.03	12.37	
2025-01-08 03:56:17.78	334.98	12.38	
2025-01-08 03:56:17.99	334.94	12.38	
2025-01-08 03:56:18.20	334.89	12.39	
2025-01-08 03:56:18.40	334.85	12.39	
2025-01-08 03:56:18.60	334.81	12.39	
2025-01-08 03:56:18.81	334.76	12.40	
2025-01-08 03:56:19.01	334.72	12.40	
2025-01-08 03:56:19.22	334.67	12.41	
2025-01-08 03:56:19.42	334.63	12.41	
2025-01-08 03:56:19.63	334.58	12.42	
2025-01-08 03:56:19.83	334.54	12.42	
2025-01-08 03:56:20.04	334.49	12.42	
2025-01-08 03:56:20.24	334.45	12.43	
2025-01-08 03:56:20.45	334.40	12.43	
2025-01-08 03:56:20.67	334.35	12.44	
2025-01-08 03:56:20.87	334.31	12.44	
2025-01-08 03:56:21.08	334.26	12.45	
2025-01-08 03:56:21.28	334.22	12.45	
2025-01-08 03:56:21.49	334.17	12.45	
2025-01-08 03:56:21.71	334.13	12.46	
2025-01-08 03:56:21.91	334.08	12.46	
2025-01-08 03:56:22.12	334.04	12.47	
2025-01-08 03:56:22.33	333.99	12.47	
2025-01-08 03:56:22.53	333.95	12.48	
2025-01-08 03:56:22.73	333.90	12.48	
2025-01-08 03:56:22.94	333.86	12.48	
2025-01-08 03:56:23.15	333.81	12.49	
2025-01-08 03:56:23.35	333.77	12.49	
2025-01-08 03:56:23.56	333.72	12.50	
2025-01-08 03:56:23.77	333.67	12.50	
2025-01-08 03:56:23.98	333.63	12.50	
2025-01-08 03:56:24.18	333.58	12.51	
2025-01-08 03:56:24.39	333.54	12.51	
2025-01-08 03:56:24.59	333.49	12.52	
2025-01-08 03:56:24.80	333.45	12.52	
2025-01-08 03:56:25.00	333.40	12.52	
2025-01-08 03:56:25.21	333.36	12.53	
2025-01-08 03:56:25.41	333.31	12.53	
2025-01-08 03:56:25.62	333.27	12.53	
2025-01-08 03:56:25.83	333.22	12.54	
2025-01-08 03:56:26.03	333.18	12.54	
2025-01-08 03:56:26.23	333.13	12.55	
2025-01-08 03:56:26.44	333.09	12.55	
2025-01-08 03:56:26.65	333.04	12.55	
2025-01-08 03:56:26.85	333.00	12.56	
2025-01-08 03:56:27.05	332.95	12.56	
2025-01-08 03:56:27.26	332.91	12.56	
2025-01-08 03:56:27.46	332.86	12.57	
2025-01-08 03:56:27.67	332.82	12.57	
2025-01-08 03:56:27.88	332.77	12.58	
2025-01-08 03:56:28.08	332.72	12.58	
2025-01-08 03:56:28.29	332.68	12.58	
2025-01-08 03:56:28.49	332.63	12.59	
2025-01-08 03:56:28.70	332.59	12.59	
2025-01-08 03:56:28.90	332.54	12.59	
2025-01-08 03:56:29.11	332.50	12.60	
2025-01-08 03:56:29.31	332.45	12.60	
2025-01-08 03:56:29.52	332.41	12.60	
2025-01-08 03:56:29.73	332.36	12.61	
2025-01-08 03:56:29.93	332.32	12.61	
2025-01-08 03:56:30.13	332.27	12.62	
2025-01-08 03:56:30.34	332.22	12.62	
2025-01-08 03:56:30.55	332.18	12.62	
2025-01-08 03:56:30.75	332.13	12.63	
2025-01-08 03:56:30.96	332.09	12.63	
2025-01-08 03:56:31.16	332.04	12.63	
2025-01-08 03:56:31.37	332.00	12.64	
2025-01-08 03:56:31.57	331.95	12.64	
2025-01-08 03:56:31.78	331.91	12.64	
2025-01-08 03:56:31.98	331.86	12.65	
2025-01-08 03:56:32.19	331.81	12.65	
2025-01-08 03:56:32.39	331.77	12.65	
2025-01-08 03:56:32.60	331.72	12.66	
2025-01-08 03:56:32.81	331.68	12.66	
2025-01-08 03:56:33.01	331.63	12.66	
2025-01-08 03:56:33.22	331.59	12.67	
2025-01-08 03:56:33.42	331.54	12.67	
2025-01-08 03:56:33.63	331.49	12.67	
2025-01-08 03:56:33.83	331.45	12.68	
2025-01-08 03:56:34.04	331.40	12.68	
2025-01-08 03:56:34.24	331.36	12.68	
2025-01-08 03:56:34.45	331.31	12.69	
2025-01-08 03:56:34.65	331.27	12.69	
2025-01-08 03:56:34.86	331.22	12.69	
2025-01-08 03:56:35.07	331.17	12.69	
2025-01-08 03:56:35.27	331.13	12.70	
2025-01-08 03:56:35.47	331.08	12.70	
2025-01-08 03:56:35.68	331.04	12.70	
2025-01-08 03:56:35.89	330.99	12.71	
2025-01-08 03:56:36.09	330.95	12.71	
2025-01-08 03:56:36.30	330.90	12.71	
2025-01-08 03:56:36.50	330.85	12.72	
2025-01-08 03:56:36.71	330.81	12.72	
2025-01-08 03:56:36.91	330.76	12.72	
2025-01-08 03:56:37.12	330.72	12.72	
2025-01-08 03:56:37.32	330.67	12.73	
2025-01-08 03:56:37.53	330.62	12.73	
2025-01-08 03:56:37.73	330.58	12.73	
2025-01-08 03:56:37.94	330.53	12.74	
2025-01-08 03:56:38.14	330.49	12.74	
2025-01-08 03:56:38.35	330.44	12.74	
2025-01-08 03:56:38.55	330.40	12.74	
2025-01-08 03:56:38.76	330.35	12.75	
2025-01-08 03:56:38.96	330.30	12.75	
2025-01-08 03:56:39.17	330.26	12.75	
2025-01-08 03:56:39.37	330.21	12.76	
2025-01-08 03:56:39.58	330.17	12.76	
2025-01-08 03:56:39.78	330.12	12.76	
2025-01-08 03:56:39.99	330.07	12.76	
2025-01-08 03:56:40.19	330.03	12.77	
2025-01-08 03:56:40.40	329.98	12.77	
2025-01-08 03:56:40.61	329.94	12.77	
2025-01-08 03:56:40.81	329.89	12.77	
2025-01-08 03:56:41.01	329.85	12.78	
2025-01-08 03:56:41.22	329.80	12.78	
2025-01-08 03:56:41.43	329.75	12.78	
2025-01-08 03:56:41.63	329.71	12.79	
2025-01-08 03:56:41.84	329.66	12.79	
2025-01-08 03:56:42.04	329.61	12.79	
2025-01-08 03:56:42.25	329.57	12.79	
2025-01-08 03:56:42.45	329.52	12.80	
2025-01-08 03:56:42.66	329.48	12.80	
2025-01-08 03:56:42.86	329.43	12.80	
2025-01-08 03:56:43.06	329.39	12.80	
2025-01-08 03:56:43.27	329.34	12.81	
2025-01-08 03:56:43.48	329.29	12.81	
2025-01-08 03:56:43.68	329.25	12.81	
2025-01-08 03:56:43.88	329.20	12.81	
2025-01-08 03:56:44.09	329.15	12.81	
2025-01-08 03:56:44.29	329.11	12.82	
2025-01-08 03:56:44.50	329.06	12.82	
2025-01-08 03:56:44.71	329.01	12.82	
2025-01-08 03:56:44.91	328.97	12.82	
2025-01-08 03:56:45.11	328.92	12.83	
2025-01-08 03:56:45.32	328.88	12.83	
2025-01-08 03:56:45.53	328.83	12.83	
2025-01-08 03:56:45.73	328.79	12.83	
2025-01-08 03:56:45.94	328.74	12.84	
2025-01-08 03:56:46.14	328.69	12.84	
2025-01-08 03:56:46.35	328.65	12.84	
2025-01-08 03:56:46.55	328.60	12.84	
2025-01-08 03:56:46.76	328.55	12.84	
2025-01-08 03:56:46.96	328.51	12.85	
2025-01-08 03:56:47.17	328.46	12.85	
2025-01-08 03:56:47.37	328.42	12.85	
2025-01-08 03:56:47.58	328.37	12.85	
2025-01-08 03:56:47.78	328.32	12.85	
2025-01-08 03:56:47.99	328.28	12.86	
2025-01-08 03:56:48.20	328.23	12.86	
2025-01-08 03:56:48.40	328.18	12.86	
2025-01-08 03:56:48.60	328.14	12.86	
2025-01-08 03:56:48.81	328.09	12.86	
2025-01-08 03:56:49.01	328.05	12.87	
2025-01-08 03:56:49.22	328.00	12.87	
2025-01-08 03:56:49.42	327.95	12.87	
2025-01-08 03:56:49.63	327.91	12.87	
2025-01-08 03:56:49.84	327.86	12.87	
2025-01-08 03:56:50.04	327.81	12.88	
2025-01-08 03:56:50.25	327.77	12.88	
2025-01-08 03:56:50.45	327.72	12.88	
2025-01-08 03:56:50.66	327.67	12.88	
2025-01-08 03:56:50.86	327.63	12.88	
2025-01-08 03:56:51.07	327.58	12.88	
2025-01-08 03:56:51.27	327.54	12.89	
2025-01-08 03:56:51.48	327.49	12.89	
2025-01-08 03:56:51.68	327.44	12.89	
2025-01-08 03:56:51.89	327.39	12.89	
2025-01-08 03:56:52.09	327.35	12.89	
2025-01-08 03:56:52.30	327.30	12.90	
2025-01-08 03:56:52.50	327.26	12.90	
2025-01-08 03:56:52.72	327.21	12.90	
2025-01-08 03:56:52.93	327.16	12.90	
2025-01-08 03:56:53.13	327.11	12.90	
2025-01-08 03:56:53.34	327.07	12.90	
2025-01-08 03:56:53.54	327.02	12.91	
2025-01-08 03:56:53.74	326.98	12.91	
2025-01-08 03:56:53.95	326.93	12.91	
2025-01-08 03:56:54.15	326.88	12.91	
2025-01-08 03:56:54.36	326.84	12.91	
2025-01-08 03:56:54.58	326.79	12.91	
2025-01-08 03:56:54.78	326.74	12.91	
2025-01-08 03:56:54.99	326.69	12.92	
2025-01-08 03:56:55.19	326.65	12.92	
2025-01-08 03:56:55.40	326.60	12.92	
2025-01-08 03:56:55.60	326.56	12.92	
2025-01-08 03:56:55.81	326.51	12.92	
2025-01-08 03:56:56.01	326.46	12.92	
2025-01-08 03:56:56.22	326.41	12.92	
2025-01-08 03:56:56.42	326.37	12.93	
2025-01-08 03:56:56.63	326.32	12.93	
2025-01-08 03:56:56.83	326.28	12.93	
2025-01-08 03:56:57.04	326.23	12.93	
2025-01-08 03:56:57.24	326.18	12.93	
2025-01-08 03:56:57.45	326.14	12.93	
2025-01-08 03:56:57.66	326.09	12.93	
2025-01-08 03:56:57.86	326.04	12.93	
2025-01-08 03:56:58.06	326.00	12.94	
2025-01-08 03:56:58.27	325.95	12.94	
2025-01-08 03:56:58.48	325.90	12.94	
2025-01-08 03:56:58.68	325.86	12.94	
2025-01-08 03:56:58.89	325.81	12.94	
2025-01-08 03:56:59.09	325.76	12.94	
2025-01-08 03:56:59.30	325.72	12.94	
2025-01-08 03:56:59.50	325.67	12.94	
2025-01-08 03:56:59.71	325.62	12.94	
2025-01-08 03:56:59.92	325.57	12.95	
2025-01-08 03:57:00.12	325.53	12.95	
2025-01-08 03:57:00.33	325.48	12.95	
2025-01-08 03:57:00.53	325.44	12.95	
2025-01-08 03:57:00.74	325.39	12.95	
2025-01-08 03:57:00.94	325.34	12.95	
2025-01-08 03:57:01.14	325.30	12.95	
2025-01-08 03:57:01.35	325.25	12.95	
2025-01-08 03:57:01.55	325.20	12.95	
2025-01-08 03:57:01.76	325.16	12.95	
2025-01-08 03:57:01.96	325.11	12.95	
2025-01-08 03:57:02.17	325.06	12.96	
2025-01-08 03:57:02.37	325.02	12.96	
2025-01-08 03:57:02.58	324.97	12.96	
2025-01-08 03:57:02.79	324.92	12.96	
2025-01-08 03:57:02.99	324.88	12.96	
2025-01-08 03:57:03.20	324.83	12.96	
2025-01-08 03:57:03.40	324.78	12.96	
2025-01-08 03:57:03.61	324.74	12.96	
2025-01-08 03:57:03.81	324.69	12.96	
2025-01-08 03:57:04.02	324.64	12.96	
2025-01-08 03:57:04.22	324.60	12.96	
2025-01-08 03:57:04.43	324.55	12.96	
2025-01-08 03:57:04.63	324.50	12.96	
2025-01-08 03:57:04.84	324.46	12.96	
2025-01-08 03:57:05.04	324.41	12.97	
2025-01-08 03:57:05.25	324.36	12.97	
2025-01-08 03:57:05.45	324.32	12.97	
2025-01-08 03:57:05.66	324.27	12.97	
2025-01-08 03:57:05.86	324.22	12.97	
2025-01-08 03:57:06.07	324.18	12.97	
2025-01-08 03:57:06.27	324.13	12.97	
2025-01-08 03:57:06.48	324.08	12.97	
2025-01-08 03:57:06.68	324.04	12.97	
2025-01-08 03:57:06.89	323.99	12.97	
2025-01-08 03:57:07.09	323.95	12.97	
2025-01-08 03:57:07.30	323.90	12.97	
2025-01-08 03:57:07.50	323.85	12.97	
2025-01-08 03:57:07.71	323.80	12.97	
2025-01-08 03:57:07.91	323.76	12.97	
2025-01-08 03:57:08.12	323.71	12.97	
2025-01-08 03:57:08.32	323.67	12.97	
2025-01-08 03:57:08.53	323.62	12.97	
2025-01-08 03:57:08.73	323.57	12.97	
2025-01-08 03:57:08.93	323.53	12.97	
2025-01-08 03:57:09.14	323.48	12.97	
2025-01-08 03:57:09.34	323.43	12.97	
2025-01-08 03:57:09.55	323.39	12.97	
2025-01-08 03:57:09.76	323.34	12.97	
2025-01-08 03:57:09.96	323.29	12.97	
2025-01-08 03:57:10.17	323.24	12.97	
2025-01-08 03:57:10.37	323.20	12.97	
2025-01-08 03:57:10.58	323.15	12.97	
2025-01-08 03:57:10.78	323.11	12.97	
2025-01-08 03:57:10.99	323.06	12.97	
2025-01-08 03:57:11.19	323.01	12.97	
2025-01-08 03:57:11.40	322.96	12.97	
2025-01-08 03:57:11.60	322.92	12.97	
2025-01-08 03:57:11.81	322.87	12.97	
2025-01-08 03:57:12.01	322.83	12.97	
2025-01-08 03:57:12.21	322.78	12.97	
2025-01-08 03:57:12.42	322.73	12.97	
2025-01-08 03:57:12.63	322.68	12.97	
2025-01-08 03:57:12.83	322.64	12.97	
2025-01-08 03:57:13.05	322.59	12.97	
2025-01-08 03:57:13.26	322.54	12.97	
2025-01-08 03:57:13.46	322.50	12.97	
2025-01-08 03:57:13.67	322.45	12.97	
2025-01-08 03:57:13.87	322.40	12.97	
2025-01-08 03:57:14.08	322.35	12.97	
2025-01-08 03:57:14.28	322.31	12.97	
2025-01-08 03:57:14.49	322.26	12.97	
2025-01-08 03:57:14.69	322.22	12.97	
2025-01-08 03:57:14.90	322.17	12.97	
2025-01-08 03:57:15.10	322.12	12.97	
2025-01-08 03:57:15.31	322.07	12.97	
2025-01-08 03:57:15.51	322.03	12.97	
2025-01-08 03:57:15.72	321.98	12.97	
2025-01-08 03:57:15.92	321.94	12.97	
2025-01-08 03:57:16.13	321.89	12.97	
2025-01-08 03:57:16.33	321.84	12.97	
2025-01-08 03:57:16.54	321.79	12.97	
2025-01-08 03:57:16.75	321.75	12.97	
2025-01-08 03:57:16.95	321.70	12.97	
2025-01-08 03:57:17.16	321.65	12.97	
2025-01-08 03:57:17.36	321.61	12.97	
2025-01-08 03:57:17.57	321.56	12.97	
2025-01-08 03:57:17.78	321.51	12.97	
2025-01-08 03:57:17.98	321.47	12.97	
2025-01-08 03:57:18.19	321.42	12.97	
2025-01-08 03:57:18.41	321.37	12.97	
2025-01-08 03:57:18.61	321.32	12.96	
2025-01-08 03:57:18.82	321.28	12.96	
2025-01-08 03:57:19.02	321.23	12.96	
2025-01-08 03:57:19.23	321.18	12.96	
2025-01-08 03:57:19.45	321.13	12.96	
2025-01-08 03:57:19.65	321.09	12.96	
2025-01-08 03:57:19.86	321.04	12.96	
2025-01-08 03:57:20.07	320.99	12.96	
2025-01-08 03:57:20.27	320.95	12.96	
2025-01-08 03:57:20.48	320.90	12.96	
2025-01-08 03:57:20.68	320.85	12.96	
2025-01-08 03:57:20.89	320.81	12.96	
2025-01-08 03:57:21.09	320.76	12.96	
2025-01-08 03:57:21.30	320.71	12.96	
2025-01-08 03:57:21.50	320.67	12.95	
2025-01-08 03:57:21.71	320.62	12.95	
2025-01-08 03:57:21.91	320.57	12.95	
2025-01-08 03:57:22.12	320.53	12.95	
2025-01-08 03:57:22.32	320.48	12.95	
2025-01-08 03:57:22.53	320.43	12.95	
2025-01-08 03:57:22.73	320.39	12.95	
2025-01-08 03:57:22.94	320.34	12.95	
2025-01-08 03:57:23.15	320.29	12.95	
2025-01-08 03:57:23.35	320.25	12.95	
2025-01-08 03:57:23.56	320.20	12.95	
2025-01-08 03:57:23.76	320.15	12.94	
2025-01-08 03:57:23.97	320.11	12.94	
2025-01-08 03:57:24.17	320.06	12.94	
2025-01-08 03:57:24.38	320.01	12.94	
2025-01-08 03:57:24.58	319.97	12.94	
2025-01-08 03:57:24.80	319.92	12.94	
2025-01-08 03:57:25.01	319.87	12.94	
2025-01-08 03:57:25.21	319.82	12.94	
2025-01-08 03:57:25.42	319.78	12.94	
2025-01-08 03:57:25.62	319.73	12.93	
2025-01-08 03:57:25.83	319.68	12.93	
2025-01-08 03:57:26.03	319.64	12.93	
2025-01-08 03:57:26.24	319.59	12.93	
2025-01-08 03:57:26.44	319.54	12.93	
2025-01-08 03:57:26.65	319.50	12.93	
2025-01-08 03:57:26.85	319.45	12.93	
2025-01-08 03:57:27.06	319.40	12.93	
2025-01-08 03:57:27.26	319.36	12.92	
2025-01-08 03:57:27.47	319.31	12.92	
2025-01-08 03:57:27.68	319.26	12.92	
2025-01-08 03:57:27.88	319.22	12.92	
2025-01-08 03:57:28.09	319.17	12.92	
2025-01-08 03:57:28.29	319.12	12.92	
2025-01-08 03:57:28.50	319.08	12.92	
2025-01-08 03:57:28.70	319.03	12.91	
2025-01-08 03:57:28.91	318.98	12.91	
2025-01-08 03:57:29.11	318.94	12.91	
2025-01-08 03:57:29.32	318.89	12.91	
2025-01-08 03:57:29.53	318.84	12.91	
2025-01-08 03:57:29.73	318.80	12.91	
2025-01-08 03:57:29.94	318.75	12.91	
2025-01-08 03:57:30.14	318.71	12.90	
2025-01-08 03:57:30.35	318.66	12.90	
2025-01-08 03:57:30.55	318.61	12.90	
2025-01-08 03:57:30.76	318.57	12.90	
2025-01-08 03:57:30.97	318.52	12.90	
2025-01-08 03:57:31.17	318.47	12.90	
2025-01-08 03:57:31.38	318.42	12.89	
2025-01-08 03:57:31.58	318.38	12.89	
2025-01-08 03:57:31.79	318.33	12.89	
2025-01-08 03:57:31.99	318.29	12.89	
2025-01-08 03:57:32.20	318.24	12.89	
2025-01-08 03:57:32.40	318.19	12.89	
2025-01-08 03:57:32.61	318.15	12.88	
2025-01-08 03:57:32.81	318.10	12.88	
2025-01-08 03:57:33.02	318.05	12.88	
2025-01-08 03:57:33.22	318.01	12.88	
2025-01-08 03:57:33.43	317.96	12.88	
2025-01-08 03:57:33.63	317.92	12.87	
2025-01-08 03:57:33.84	317.87	12.87	
2025-01-08 03:57:34.05	317.82	12.87	
2025-01-08 03:57:34.25	317.78	12.87	
2025-01-08 03:57:34.46	317.73	12.87	
2025-01-08 03:57:34.66	317.68	12.86	
2025-01-08 03:57:34.87	317.64	12.86	
2025-01-08 03:57:35.07	317.59	12.86	
2025-01-08 03:57:35.28	317.54	12.86	
2025-01-08 03:57:35.50	317.49	12.86	
2025-01-08 03:57:35.70	317.45	12.85	
2025-01-08 03:57:35.91	317.40	12.85	
2025-01-08 03:57:36.11	317.36	12.85	
2025-01-08 03:57:36.32	317.31	12.85	
2025-01-08 03:57:36.52	317.26	12.85	
2025-01-08 03:57:36.73	317.22	12.84	
2025-01-08 03:57:36.93	317.17	12.84	
2025-01-08 03:57:37.14	317.12	12.84	
2025-01-08 03:57:37.35	317.08	12.84	
2025-01-08 03:57:37.55	317.03	12.84	
2025-01-08 03:57:37.75	316.99	12.83	
2025-01-08 03:57:37.96	316.94	12.83	
2025-01-08 03:57:38.17	316.89	12.83	
2025-01-08 03:57:38.37	316.85	12.83	
2025-01-08 03:57:38.58	316.80	12.82	
2025-01-08 03:57:38.78	316.75	12.82	
2025-01-08 03:57:38.99	316.71	12.82	
2025-01-08 03:57:39.19	316.66	12.82	
2025-01-08 03:57:39.40	316.61	12.81	
2025-01-08 03:57:39.60	316.57	12.81	
2025-01-08 03:57:39.81	316.52	12.81	
2025-01-08 03:57:40.01	316.48	12.81	
2025-01-08 03:57:40.22	316.43	12.80	
2025-01-08 03:57:40.42	316.38	12.80	
2025-01-08 03:57:40.63	316.34	12.80	
2025-01-08 03:57:40.83	316.29	12.80	
2025-01-08 03:57:41.03	316.25	12.80	
2025-01-08 03:57:41.24	316.20	12.79	
2025-01-08 03:57:41.45	316.15	12.79	
2025-01-08 03:57:41.65	316.11	12.79	
2025-01-08 03:57:41.86	316.06	12.79	
2025-01-08 03:57:42.06	316.02	12.78	
2025-01-08 03:57:42.27	315.97	12.78	
2025-01-08 03:57:42.47	315.92	12.78	
2025-01-08 03:57:42.68	315.88	12.77	
2025-01-08 03:57:42.88	315.83	12.77	
2025-01-08 03:57:43.09	315.79	12.77	
2025-01-08 03:57:43.30	315.74	12.77	
2025-01-08 03:57:43.50	315.69	12.76	
2025-01-08 03:57:43.71	315.65	12.76	
2025-01-08 03:57:43.91	315.60	12.76	
2025-01-08 03:57:44.12	315.55	12.76	
2025-01-08 03:57:44.33	315.51	12.75	
2025-01-08 03:57:44.53	315.46	12.75	
2025-01-08 03:57:44.73	315.42	12.75	
2025-01-08 03:57:44.94	315.37	12.74	
2025-01-08 03:57:45.14	315.33	12.74	
2025-01-08 03:57:45.35	315.28	12.74	
2025-01-08 03:57:45.55	315.23	12.74	
2025-01-08 03:57:45.75	315.19	12.73	
2025-01-08 03:57:45.96	315.14	12.73	
2025-01-08 03:57:46.16	315.10	12.73	
2025-01-08 03:57:46.37	315.05	12.72	
2025-01-08 03:57:46.57	315.01	12.72	
2025-01-08 03:57:46.78	314.96	12.72	
2025-01-08 03:57:46.98	314.91	12.72	
2025-01-08 03:57:47.18	314.87	12.71	
2025-01-08 03:57:47.39	314.82	12.71	
2025-01-08 03:57:47.59	314.78	12.71	
2025-01-08 03:57:47.80	314.73	12.70	
2025-01-08 03:57:48.00	314.69	12.70	
2025-01-08 03:57:48.21	314.64	12.70	
2025-01-08 03:57:48.41	314.59	12.69	
2025-01-08 03:57:48.62	314.55	12.69	
2025-01-08 03:57:48.83	314.50	12.69	
2025-01-08 03:57:49.03	314.46	12.69	
2025-01-08 03:57:49.23	314.41	12.68	
2025-01-08 03:57:49.44	314.37	12.68	
2025-01-08 03:57:49.64	314.32	12.68	
2025-01-08 03:57:49.85	314.27	12.67	
2025-01-08 03:57:50.06	314.23	12.67	
2025-01-08 03:57:50.26	314.18	12.67	
2025-01-08 03:57:50.46	314.14	12.66	
2025-01-08 03:57:50.67	314.09	12.66	
2025-01-08 03:57:50.87	314.05	12.66	
2025-01-08 03:57:51.08	314.00	12.65	
2025-01-08 03:57:51.28	313.96	12.65	
2025-01-08 03:57:51.49	313.91	12.65	
2025-01-08 03:57:51.69	313.86	12.64	
2025-01-08 03:57:51.90	313.82	12.64	
2025-01-08 03:57:52.10	313.77	12.64	
2025-01-08 03:57:52.31	313.73	12.63	
2025-01-08 03:57:52.51	313.68	12.63	
2025-01-08 03:57:52.72	313.64	12.63	
2025-01-08 03:57:52.93	313.59	12.62	
2025-01-08 03:57:53.13	313.54	12.62	
2025-01-08 03:57:53.34	313.50	12.62	
2025-01-08 03:57:53.54	313.45	12.61	
2025-01-08 03:57:53.74	313.41	12.61	
2025-01-08 03:57:53.95	313.36	12.60	
2025-01-08 03:57:54.16	313.32	12.60	
2025-01-08 03:57:54.36	313.27	12.60	
2025-01-08 03:57:54.56	313.23	12.59	
2025-01-08 03:57:54.77	313.18	12.59	
2025-01-08 03:57:54.98	313.13	12.59	
2025-01-08 03:57:55.18	313.09	12.58	
2025-01-08 03:57:55.39	313.04	12.58	
2025-01-08 03:57:55.59	313.00	12.58	
2025-01-08 03:57:55.80	312.95	12.57	
2025-01-08 03:57:56.00	312.91	12.57	
2025-01-08 03:57:56.21	312.86	12.56	
2025-01-08 03:57:56.41	312.82	12.56	
2025-01-08 03:57:56.62	312.77	12.56	
2025-01-08 03:57:56.82	312.73	12.55	
2025-01-08 03:57:57.03	312.68	12.55	
2025-01-08 03:57:57.23	312.64	12.55	
2025-01-08 03:57:57.44	312.59	12.54	
2025-01-08 03:57:57.64	312.55	12.54	
2025-01-08 03:57:57.85	312.50	12.53	
2025-01-08 03:57:58.05	312.46	12.53	
2025-01-08 03:57:58.26	312.41	12.53	
2025-01-08 03:57:58.46	312.37	12.52	
2025-01-08 03:57:58.67	312.32	12.52	
2025-01-08 03:57:58.87	312.28	12.52	
2025-01-08 03:57:59.08	312.23	12.51	
2025-01-08 03:57:59.29	312.18	12.51	
2025-01-08 03:57:59.49	312.14	12.50	
2025-01-08 03:57:59.70	312.09	12.50	
2025-01-08 03:57:59.90	312.05	12.50	
2025-01-08 03:58:00.11	312.00	12.49	
2025-01-08 03:58:00.31	311.96	12.49	
2025-01-08 03:58:00.52	311.91	12.48	
2025-01-08 03:58:00.72	311.87	12.48	
2025-01-08 03:58:00.93	311.82	12.48	
2025-01-08 03:58:01.13	311.78	12.47	
2025-01-08 03:58:01.34	311.73	12.47	
2025-01-08 03:58:01.54	311.69	12.46	
2025-01-08 03:58:01.75	311.64	12.46	
2025-01-08 03:58:01.95	311.60	12.45	
2025-01-08 03:58:02.17	311.55	12.45	
2025-01-08 03:58:02.37	311.51	12.45	
2025-01-08 03:58:02.58	311.46	12.44	
2025-01-08 03:58:02.78	311.42	12.44	
2025-01-08 03:58:02.99	311.37	12.43	
2025-01-08 03:58:03.19	311.33	12.43	
2025-01-08 03:58:03.40	311.28	12.42	
2025-01-08 03:58:03.60	311.24	12.42	
2025-01-08 03:58:03.81	311.19	12.42	
2025-01-08 03:58:04.02	311.15	12.41	
2025-01-08 03:58:04.23	311.10	12.41	
2025-01-08 03:58:04.44	311.05	12.40	
2025-01-08 03:58:04.64	311.01	12.40	
2025-01-08 03:58:04.85	310.96	12.39	
2025-01-08 03:58:05.05	310.92	12.39	
2025-01-08 03:58:05.26	310.87	12.39	
2025-01-08 03:58:05.46	310.83	12.38	
2025-01-08 03:58:05.67	310.79	12.38	
2025-01-08 03:58:05.87	310.74	12.37	
2025-01-08 03:58:06.08	310.70	12.37	
2025-01-08 03:58:06.28	310.65	12.36	
2025-01-08 03:58:06.49	310.61	12.36	
2025-01-08 03:58:06.69	310.56	12.35	
2025-01-08 03:58:06.90	310.52	12.35	
2025-01-08 03:58:07.10	310.47	12.35	
2025-01-08 03:58:07.31	310.43	12.34	
2025-01-08 03:58:07.51	310.38	12.34	
2025-01-08 03:58:07.72	310.34	12.33	
2025-01-08 03:58:07.92	310.30	12.33	
2025-01-08 03:58:08.13	310.25	12.32	
2025-01-08 03:58:08.33	310.21	12.32	
2025-01-08 03:58:08.54	310.16	12.31	
2025-01-08 03:58:08.74	310.12	12.31	
2025-01-08 03:58:08.95	310.07	12.30	
2025-01-08 03:58:09.15	310.03	12.30	
2025-01-08 03:58:09.35	309.99	12.29	
2025-01-08 03:58:09.56	309.94	12.29	
2025-01-08 03:58:09.76	309.90	12.29	
2025-01-08 03:58:09.97	309.85	12.28	
2025-01-08 03:58:10.17	309.81	12.28	
2025-01-08 03:58:10.38	309.76	12.27	
2025-01-08 03:58:10.60	309.71	12.27	
2025-01-08 03:58:10.80	309.67	12.26	
2025-01-08 03:58:11.01	309.63	12.26	
2025-01-08 03:58:11.21	309.58	12.25	
2025-01-08 03:58:11.42	309.54	12.25	
2025-01-08 03:58:11.64	309.49	12.24	
2025-01-08 03:58:11.84	309.45	12.24	
2025-01-08 03:58:12.05	309.40	12.23	
2025-01-08 03:58:12.26	309.36	12.23	
2025-01-08 03:58:12.46	309.31	12.22	
2025-01-08 03:58:12.67	309.27	12.22	
2025-01-08 03:58:12.87	309.22	12.21	
2025-01-08 03:58:13.08	309.18	12.21	
2025-01-08 03:58:13.28	309.14	12.20	
2025-01-08 03:58:13.49	309.09	12.20	
2025-01-08 03:58:13.69	309.05	12.19	
2025-01-08 03:58:13.89	309.01	12.19	
2025-01-08 03:58:14.10	308.96	12.18	
2025-01-08 03:58:14.30	308.92	12.18	
2025-01-08 03:58:14.51	308.87	12.17	
2025-01-08 03:58:14.71	308.83	12.17	
2025-01-08 03:58:14.92	308.78	12.16	
2025-01-08 03:58:15.12	308.74	12.16	
2025-01-08 03:58:15.33	308.70	12.15	
2025-01-08 03:58:15.53	308.65	12.15	
2025-01-08 03:58:15.74	308.61	12.14	
2025-01-08 03:58:15.94	308.57	12.14	
2025-01-08 03:58:16.15	308.52	12.13	
2025-01-08 03:58:16.35	308.48	12.13	
2025-01-08 03:58:16.55	308.43	12.12	
2025-01-08 03:58:16.76	308.39	12.11	
2025-01-08 03:58:16.96	308.35	12.11	
2025-01-08 03:58:17.17	308.30	12.10	
2025-01-08 03:58:17.38	308.26	12.10	
2025-01-08 03:58:17.58	308.21	12.09	
2025-01-08 03:58:17.79	308.17	12.09	
2025-01-08 03:58:17.99	308.13	12.08	
2025-01-08 03:58:18.20	308.08	12.08	
2025-01-08 03:58:18.41	308.04	12.07	
2025-01-08 03:58:18.61	307.99	12.07	
2025-01-08 03:58:18.82	307.95	12.06	
2025-01-08 03:58:19.02	307.91	12.06	
2025-01-08 03:58:19.22	307.86	12.05	
2025-01-08 03:58:19.43	307.82	12.05	
2025-01-08 03:58:19.64	307.78	12.04	
2025-01-08 03:58:19.84	307.73	12.03	
2025-01-08 03:58:20.05	307.69	12.03	
2025-01-08 03:58:20.25	307.65	12.02	
2025-01-08 03:58:20.46	307.60	12.02	
2025-01-08 03:58:20.66	307.56	12.01	
2025-01-08 03:58:20.87	307.51	12.01	
2025-01-08 03:58:21.07	307.47	12.00	
2025-01-08 03:58:21.27	307.43	12.00	
2025-01-08 03:58:21.48	307.38	11.99	
2025-01-08 03:58:21.69	307.34	11.98	
2025-01-08 03:58:21.89	307.30	11.98	
2025-01-08 03:58:22.09	307.26	11.97	
2025-01-08 03:58:22.30	307.21	11.97	
2025-01-08 03:58:22.50	307.17	11.96	
2025-01-08 03:58:22.71	307.12	11.96	
2025-01-08 03:58:22.91	307.08	11.95	
2025-01-08 03:58:23.12	307.04	11.95	
2025-01-08 03:58:23.33	306.99	11.94	
2025-01-08 03:58:23.55	306.95	11.93	
2025-01-08 03:58:23.75	306.90	11.93	
2025-01-08 03:58:23.96	306.86	11.92	
2025-01-08 03:58:24.16	306.82	11.92	
2025-01-08 03:58:24.37	306.77	11.91	
2025-01-08 03:58:24.57	306.73	11.91	
2025-01-08 03:58:24.78	306.69	11.90	
2025-01-08 03:58:24.98	306.65	11.89	
2025-01-08 03:58:25.19	306.60	11.89	
2025-01-08 03:58:25.40	306.56	11.88	
2025-01-08 03:58:25.61	306.51	11.88	
2025-01-08 03:58:25.82	306.47	11.87	
2025-01-08 03:58:26.02	306.43	11.86	
2025-01-08 03:58:26.23	306.38	11.86	
2025-01-08 03:58:26.44	306.34	11.85	
2025-01-08 03:58:26.64	306.30	11.85	
2025-01-08 03:58:26.85	306.25	11.84	
2025-01-08 03:58:27.05	306.21	11.83	
2025-01-08 03:58:27.26	306.17	11.83	
2025-01-08 03:58:27.46	306.12	11.82	
2025-01-08 03:58:27.66	306.08	11.82	
2025-01-08 03:58:27.87	306.04	11.81	
2025-01-08 03:58:28.07	306.00	11.81	
2025-01-08 03:58:28.28	305.95	11.80	
2025-01-08 03:58:28.48	305.91	11.79	
2025-01-08 03:58:28.69	305.87	11.79	
2025-01-08 03:58:28.89	305.83	11.78	
2025-01-08 03:58:29.10	305.78	11.77	
2025-01-08 03:58:29.31	305.74	11.77	
2025-01-08 03:58:29.51	305.70	11.76	
2025-01-08 03:58:29.72	305.65	11.76	
2025-01-08 03:58:29.92	305.61	11.75	
2025-01-08 03:58:30.13	305.57	11.74	
2025-01-08 03:58:30.33	305.53	11.74	
2025-01-08 03:58:30.54	305.48	11.73	
2025-01-08 03:58:30.74	305.44	11.73	
2025-01-08 03:58:30.95	305.40	11.72	
2025-01-08 03:58:31.15	305.35	11.71	
2025-01-08 03:58:31.36	305.31	11.71	
2025-01-08 03:58:31.56	305.27	11.70	
2025-01-08 03:58:31.77	305.23	11.69	
2025-01-08 03:58:31.97	305.18	11.69	
2025-01-08 03:58:32.18	305.14	11.68	
2025-01-08 03:58:32.38	305.10	11.68	
2025-01-08 03:58:32.58	305.06	11.67	
2025-01-08 03:58:32.79	305.01	11.66	
2025-01-08 03:58:32.99	304.97	11.66	
2025-01-08 03:58:33.20	304.93	11.65	
2025-01-08 03:58:33.40	304.89	11.64	
2025-01-08 03:58:33.61	304.85	11.64	
2025-01-08 03:58:33.81	304.80	11.63	
2025-01-08 03:58:34.02	304.76	11.63	
2025-01-08 03:58:34.22	304.72	11.62	
2025-01-08 03:58:34.43	304.68	11.61	
2025-01-08 03:58:34.63	304.63	11.61	
2025-01-08 03:58:34.84	304.59	11.60	
2025-01-08 03:58:35.05	304.55	11.59	
2025-01-08 03:58:35.26	304.51	11.59	
2025-01-08 03:58:35.47	304.46	11.58	
2025-01-08 03:58:35.67	304.42	11.57	
2025-01-08 03:58:35.88	304.38	11.57	
2025-01-08 03:58:36.08	304.34	11.56	
2025-01-08 03:58:36.29	304.29	11.55	
2025-01-08 03:58:36.49	304.25	11.55	
2025-01-08 03:58:36.70	304.21	11.54	
2025-01-08 03:58:36.90	304.17	11.54	
2025-01-08 03:58:37.11	304.13	11.53	
2025-01-08 03:58:37.33	304.08	11.52	
2025-01-08 03:58:37.53	304.04	11.51	
2025-01-08 03:58:37.74	304.00	11.51	
2025-01-08 03:58:37.94	303.96	11.50	
2025-01-08 03:58:38.15	303.91	11.49	
2025-01-08 03:58:38.35	303.87	11.49	
2025-01-08 03:58:38.56	303.83	11.48	
2025-01-08 03:58:38.76	303.79	11.48	
2025-01-08 03:58:38.97	303.74	11.47	
2025-01-08 03:58:39.18	303.70	11.46	
2025-01-08 03:58:39.38	303.66	11.46	
