passes_logs/2025/01/08/SPB_Silybum_02/SPB_Silybum_02__20250108_113138_TERRA_rec.log

#Pass ID: 20250108_113138_TERRA
#Satellite: TERRA
#Configuration: TERRA
#Start time: 2025-01-08 11:31:39

#Version: 2.0.20230423
#Station: SPB_Silybum_02
#Location: 30.233357 lon 59.946436 lat
#TLE: 1 25994U 99068A   25007.79031535  .00001159  00000+0  24884-3 0  9992
#TLE: 2 25994  98.0229  71.0496 0003578  86.9116 340.1593 14.60381232333028

#Time	Az	El	Level	Level2	SNR	BER	Gain	Gain2
2025-01-08 11:31:41.12	4.72	4.11	
2025-01-08 11:31:41.33	4.69	4.11	
2025-01-08 11:31:41.54	4.67	4.12	
2025-01-08 11:31:41.74	4.64	4.13	
2025-01-08 11:31:41.95	4.61	4.14	
2025-01-08 11:31:42.15	4.58	4.15	
2025-01-08 11:31:42.35	4.56	4.16	
2025-01-08 11:31:42.56	4.53	4.16	
2025-01-08 11:31:42.76	4.50	4.17	
2025-01-08 11:31:42.97	4.47	4.18	
2025-01-08 11:31:43.18	4.44	4.19	
2025-01-08 11:31:43.38	4.41	4.20	
2025-01-08 11:31:43.59	4.39	4.21	
2025-01-08 11:31:43.79	4.36	4.21	
2025-01-08 11:31:44.00	4.33	4.22	
2025-01-08 11:31:44.20	4.30	4.23	
2025-01-08 11:31:44.41	4.27	4.24	
2025-01-08 11:31:44.61	4.25	4.25	
2025-01-08 11:31:44.81	4.22	4.25	
2025-01-08 11:31:45.02	4.19	4.26	
2025-01-08 11:31:45.23	4.16	4.27	
2025-01-08 11:31:45.43	4.13	4.28	
2025-01-08 11:31:45.63	4.11	4.29	
2025-01-08 11:31:45.84	4.08	4.30	
2025-01-08 11:31:46.04	4.05	4.30	
2025-01-08 11:31:46.25	4.02	4.31	
2025-01-08 11:31:46.45	3.99	4.32	
2025-01-08 11:31:46.66	3.96	4.33	
2025-01-08 11:31:46.87	3.93	4.34	
2025-01-08 11:31:47.07	3.91	4.35	
2025-01-08 11:31:47.28	3.88	4.35	
2025-01-08 11:31:47.48	3.85	4.36	
2025-01-08 11:31:47.68	3.82	4.37	
2025-01-08 11:31:47.89	3.79	4.38	
2025-01-08 11:31:48.10	3.76	4.39	
2025-01-08 11:31:48.30	3.74	4.39	
2025-01-08 11:31:48.51	3.71	4.40	
2025-01-08 11:31:48.73	3.68	4.41	
2025-01-08 11:31:48.93	3.65	4.42	
2025-01-08 11:31:49.14	3.62	4.43	
2025-01-08 11:31:49.34	3.59	4.44	
2025-01-08 11:31:49.55	3.56	4.44	
2025-01-08 11:31:49.75	3.54	4.45	
2025-01-08 11:31:49.96	3.51	4.46	
2025-01-08 11:31:50.16	3.48	4.47	
2025-01-08 11:31:50.37	3.45	4.48	
2025-01-08 11:31:50.57	3.42	4.48	
2025-01-08 11:31:50.78	3.39	4.49	
2025-01-08 11:31:50.98	3.36	4.50	
2025-01-08 11:31:51.19	3.33	4.51	
2025-01-08 11:31:51.39	3.31	4.52	
2025-01-08 11:31:51.60	3.28	4.52	
2025-01-08 11:31:51.82	3.25	4.53	
2025-01-08 11:31:52.02	3.22	4.54	
2025-01-08 11:31:52.23	3.19	4.55	
2025-01-08 11:31:52.44	3.16	4.56	
2025-01-08 11:31:52.64	3.13	4.57	
2025-01-08 11:31:52.85	3.10	4.57	
2025-01-08 11:31:53.05	3.07	4.58	
2025-01-08 11:31:53.26	3.04	4.59	
2025-01-08 11:31:53.46	3.02	4.60	
2025-01-08 11:31:53.67	2.99	4.61	
2025-01-08 11:31:53.88	2.96	4.61	
2025-01-08 11:31:54.08	2.93	4.62	
2025-01-08 11:31:54.29	2.90	4.63	
2025-01-08 11:31:54.49	2.87	4.64	
2025-01-08 11:31:54.69	2.84	4.65	
2025-01-08 11:31:54.90	2.81	4.65	
2025-01-08 11:31:55.10	2.78	4.66	
2025-01-08 11:31:55.31	2.75	4.67	
2025-01-08 11:31:55.51	2.73	4.68	
2025-01-08 11:31:55.72	2.70	4.69	
2025-01-08 11:31:55.93	2.67	4.70	
2025-01-08 11:31:56.13	2.64	4.70	
2025-01-08 11:31:56.33	2.61	4.71	
2025-01-08 11:31:56.54	2.58	4.72	
2025-01-08 11:31:56.75	2.55	4.73	
2025-01-08 11:31:56.95	2.52	4.73	
2025-01-08 11:31:57.16	2.49	4.74	
2025-01-08 11:31:57.36	2.46	4.75	
2025-01-08 11:31:57.57	2.43	4.76	
2025-01-08 11:31:57.77	2.40	4.77	
2025-01-08 11:31:57.98	2.37	4.78	
2025-01-08 11:31:58.18	2.35	4.78	
2025-01-08 11:31:58.39	2.31	4.79	
2025-01-08 11:31:58.59	2.29	4.80	
2025-01-08 11:31:58.80	2.26	4.81	
2025-01-08 11:31:59.01	2.23	4.82	
2025-01-08 11:31:59.21	2.20	4.82	
2025-01-08 11:31:59.42	2.17	4.83	
2025-01-08 11:31:59.62	2.14	4.84	
2025-01-08 11:31:59.83	2.11	4.85	
2025-01-08 11:32:00.03	2.08	4.85	
2025-01-08 11:32:00.24	2.05	4.86	
2025-01-08 11:32:00.46	2.02	4.87	
2025-01-08 11:32:00.66	1.99	4.88	
2025-01-08 11:32:00.87	1.96	4.89	
2025-01-08 11:32:01.07	1.93	4.90	
2025-01-08 11:32:01.28	1.90	4.90	
2025-01-08 11:32:01.50	1.87	4.91	
2025-01-08 11:32:01.70	1.84	4.92	
2025-01-08 11:32:01.91	1.81	4.93	
2025-01-08 11:32:02.11	1.78	4.94	
2025-01-08 11:32:02.32	1.75	4.94	
2025-01-08 11:32:02.52	1.72	4.95	
2025-01-08 11:32:02.73	1.69	4.96	
2025-01-08 11:32:02.93	1.66	4.97	
2025-01-08 11:32:03.14	1.63	4.97	
2025-01-08 11:32:03.35	1.60	4.98	
2025-01-08 11:32:03.55	1.57	4.99	
2025-01-08 11:32:03.76	1.54	5.00	
2025-01-08 11:32:03.96	1.51	5.01	
2025-01-08 11:32:04.17	1.48	5.01	
2025-01-08 11:32:04.37	1.45	5.02	
2025-01-08 11:32:04.58	1.42	5.03	
2025-01-08 11:32:04.78	1.39	5.04	
2025-01-08 11:32:04.99	1.36	5.05	
2025-01-08 11:32:05.19	1.33	5.05	
2025-01-08 11:32:05.40	1.30	5.06	
2025-01-08 11:32:05.61	1.27	5.07	
2025-01-08 11:32:05.82	1.24	5.08	
2025-01-08 11:32:06.03	1.21	5.09	
2025-01-08 11:32:06.24	1.18	5.09	
2025-01-08 11:32:06.44	1.15	5.10	
2025-01-08 11:32:06.65	1.12	5.11	
2025-01-08 11:32:06.85	1.09	5.12	
2025-01-08 11:32:07.06	1.06	5.12	
2025-01-08 11:32:07.26	1.03	5.13	
2025-01-08 11:32:07.47	1.00	5.14	
2025-01-08 11:32:07.68	0.97	5.15	
2025-01-08 11:32:07.89	0.94	5.16	
2025-01-08 11:32:08.10	0.91	5.16	
2025-01-08 11:32:08.30	0.88	5.17	
2025-01-08 11:32:08.51	0.85	5.18	
2025-01-08 11:32:08.71	0.82	5.19	
2025-01-08 11:32:08.93	0.78	5.20	
2025-01-08 11:32:09.14	0.75	5.20	
2025-01-08 11:32:09.34	0.72	5.21	
2025-01-08 11:32:09.55	0.69	5.22	
2025-01-08 11:32:09.75	0.66	5.23	
2025-01-08 11:32:09.96	0.63	5.23	
2025-01-08 11:32:10.16	0.60	5.24	
2025-01-08 11:32:10.37	0.57	5.25	
2025-01-08 11:32:10.58	0.54	5.26	
2025-01-08 11:32:10.78	0.51	5.27	
2025-01-08 11:32:10.98	0.48	5.27	
2025-01-08 11:32:11.19	0.45	5.28	
2025-01-08 11:32:11.40	0.42	5.29	
2025-01-08 11:32:11.60	0.39	5.30	
2025-01-08 11:32:11.81	0.36	5.30	
2025-01-08 11:32:12.01	0.33	5.31	
2025-01-08 11:32:12.22	0.30	5.32	
2025-01-08 11:32:12.42	0.27	5.33	
2025-01-08 11:32:12.63	0.23	5.34	
2025-01-08 11:32:12.83	0.20	5.34	
2025-01-08 11:32:13.04	0.17	5.35	
2025-01-08 11:32:13.24	0.14	5.36	
2025-01-08 11:32:13.45	0.11	5.37	
2025-01-08 11:32:13.65	0.08	5.37	
2025-01-08 11:32:13.86	0.05	5.38	
2025-01-08 11:32:14.06	0.02	5.39	
2025-01-08 11:32:14.27	359.99	5.40	
2025-01-08 11:32:14.47	359.96	5.40	
2025-01-08 11:32:14.68	359.93	5.41	
2025-01-08 11:32:14.89	359.90	5.42	
2025-01-08 11:32:15.09	359.87	5.43	
2025-01-08 11:32:15.29	359.84	5.43	
2025-01-08 11:32:15.50	359.80	5.44	
2025-01-08 11:32:15.70	359.77	5.45	
2025-01-08 11:32:15.91	359.74	5.46	
2025-01-08 11:32:16.11	359.71	5.46	
2025-01-08 11:32:16.32	359.68	5.47	
2025-01-08 11:32:16.52	359.65	5.48	
2025-01-08 11:32:16.73	359.62	5.49	
2025-01-08 11:32:16.93	359.59	5.50	
2025-01-08 11:32:17.14	359.56	5.50	
2025-01-08 11:32:17.34	359.53	5.51	
2025-01-08 11:32:17.55	359.50	5.52	
2025-01-08 11:32:17.75	359.47	5.53	
2025-01-08 11:32:17.96	359.43	5.53	
2025-01-08 11:32:18.16	359.40	5.54	
2025-01-08 11:32:18.37	359.37	5.55	
2025-01-08 11:32:18.59	359.34	5.56	
2025-01-08 11:32:18.79	359.31	5.56	
2025-01-08 11:32:19.00	359.28	5.57	
2025-01-08 11:32:19.21	359.24	5.58	
2025-01-08 11:32:19.41	359.21	5.59	
2025-01-08 11:32:19.62	359.18	5.59	
2025-01-08 11:32:19.82	359.15	5.60	
2025-01-08 11:32:20.03	359.12	5.61	
2025-01-08 11:32:20.23	359.09	5.62	
2025-01-08 11:32:20.44	359.06	5.62	
2025-01-08 11:32:20.65	359.02	5.63	
2025-01-08 11:32:20.85	358.99	5.64	
2025-01-08 11:32:21.06	358.96	5.65	
2025-01-08 11:32:21.26	358.93	5.65	
2025-01-08 11:32:21.47	358.90	5.66	
2025-01-08 11:32:21.67	358.87	5.67	
2025-01-08 11:32:21.88	358.84	5.68	
2025-01-08 11:32:22.08	358.81	5.68	
2025-01-08 11:32:22.29	358.77	5.69	
2025-01-08 11:32:22.49	358.74	5.70	
2025-01-08 11:32:22.70	358.71	5.71	
2025-01-08 11:32:22.90	358.68	5.71	
2025-01-08 11:32:23.11	358.65	5.72	
2025-01-08 11:32:23.32	358.62	5.73	
2025-01-08 11:32:23.52	358.59	5.74	
2025-01-08 11:32:23.73	358.55	5.74	
2025-01-08 11:32:23.93	358.52	5.75	
2025-01-08 11:32:24.14	358.49	5.76	
2025-01-08 11:32:24.34	358.46	5.77	
2025-01-08 11:32:24.55	358.43	5.77	
2025-01-08 11:32:24.75	358.40	5.78	
2025-01-08 11:32:24.96	358.36	5.79	
2025-01-08 11:32:25.16	358.33	5.80	
2025-01-08 11:32:25.36	358.30	5.80	
2025-01-08 11:32:25.57	358.27	5.81	
2025-01-08 11:32:25.77	358.24	5.82	
2025-01-08 11:32:25.98	358.21	5.82	
2025-01-08 11:32:26.18	358.17	5.83	
2025-01-08 11:32:26.39	358.14	5.84	
2025-01-08 11:32:26.59	358.11	5.85	
2025-01-08 11:32:26.80	358.08	5.85	
2025-01-08 11:32:27.00	358.05	5.86	
2025-01-08 11:32:27.21	358.01	5.87	
2025-01-08 11:32:27.41	357.98	5.88	
2025-01-08 11:32:27.62	357.95	5.88	
2025-01-08 11:32:27.82	357.92	5.89	
2025-01-08 11:32:28.03	357.89	5.90	
2025-01-08 11:32:28.23	357.86	5.91	
2025-01-08 11:32:28.44	357.82	5.91	
2025-01-08 11:32:28.64	357.79	5.92	
2025-01-08 11:32:28.85	357.76	5.93	
2025-01-08 11:32:29.06	357.73	5.93	
2025-01-08 11:32:29.26	357.70	5.94	
2025-01-08 11:32:29.46	357.66	5.95	
2025-01-08 11:32:29.67	357.63	5.96	
2025-01-08 11:32:29.87	357.60	5.96	
2025-01-08 11:32:30.08	357.57	5.97	
2025-01-08 11:32:30.28	357.54	5.98	
2025-01-08 11:32:30.49	357.50	5.99	
2025-01-08 11:32:30.70	357.47	5.99	
2025-01-08 11:32:30.90	357.44	6.00	
2025-01-08 11:32:31.11	357.41	6.01	
2025-01-08 11:32:31.31	357.37	6.01	
2025-01-08 11:32:31.52	357.34	6.02	
2025-01-08 11:32:31.72	357.31	6.03	
2025-01-08 11:32:31.93	357.28	6.04	
2025-01-08 11:32:32.13	357.25	6.04	
2025-01-08 11:32:32.34	357.21	6.05	
2025-01-08 11:32:32.54	357.18	6.06	
2025-01-08 11:32:32.75	357.15	6.06	
2025-01-08 11:32:32.96	357.11	6.07	
2025-01-08 11:32:33.16	357.08	6.08	
2025-01-08 11:32:33.37	357.05	6.09	
2025-01-08 11:32:33.58	357.02	6.09	
2025-01-08 11:32:33.79	356.98	6.10	
2025-01-08 11:32:34.00	356.95	6.11	
2025-01-08 11:32:34.20	356.92	6.12	
2025-01-08 11:32:34.41	356.89	6.12	
2025-01-08 11:32:34.61	356.85	6.13	
2025-01-08 11:32:34.82	356.82	6.14	
2025-01-08 11:32:35.02	356.79	6.14	
2025-01-08 11:32:35.23	356.76	6.15	
2025-01-08 11:32:35.44	356.72	6.16	
2025-01-08 11:32:35.64	356.69	6.17	
2025-01-08 11:32:35.84	356.66	6.17	
2025-01-08 11:32:36.05	356.63	6.18	
2025-01-08 11:32:36.26	356.59	6.19	
2025-01-08 11:32:36.46	356.56	6.19	
2025-01-08 11:32:36.67	356.53	6.20	
2025-01-08 11:32:36.87	356.49	6.21	
2025-01-08 11:32:37.08	356.46	6.21	
2025-01-08 11:32:37.28	356.43	6.22	
2025-01-08 11:32:37.49	356.40	6.23	
2025-01-08 11:32:37.69	356.36	6.24	
2025-01-08 11:32:37.89	356.33	6.24	
2025-01-08 11:32:38.10	356.30	6.25	
2025-01-08 11:32:38.31	356.26	6.26	
2025-01-08 11:32:38.51	356.23	6.26	
2025-01-08 11:32:38.72	356.20	6.27	
2025-01-08 11:32:38.92	356.17	6.28	
2025-01-08 11:32:39.12	356.13	6.28	
2025-01-08 11:32:39.33	356.10	6.29	
2025-01-08 11:32:39.54	356.07	6.30	
2025-01-08 11:32:39.74	356.04	6.31	
2025-01-08 11:32:39.95	356.00	6.31	
2025-01-08 11:32:40.15	355.97	6.32	
2025-01-08 11:32:40.35	355.94	6.33	
2025-01-08 11:32:40.56	355.90	6.33	
2025-01-08 11:32:40.76	355.87	6.34	
2025-01-08 11:32:40.97	355.84	6.35	
2025-01-08 11:32:41.17	355.81	6.35	
2025-01-08 11:32:41.38	355.77	6.36	
2025-01-08 11:32:41.59	355.74	6.37	
2025-01-08 11:32:41.79	355.71	6.38	
2025-01-08 11:32:42.00	355.67	6.38	
2025-01-08 11:32:42.20	355.64	6.39	
2025-01-08 11:32:42.41	355.61	6.40	
2025-01-08 11:32:42.61	355.57	6.40	
2025-01-08 11:32:42.82	355.54	6.41	
2025-01-08 11:32:43.02	355.51	6.42	
2025-01-08 11:32:43.23	355.47	6.42	
2025-01-08 11:32:43.43	355.44	6.43	
2025-01-08 11:32:43.64	355.41	6.44	
2025-01-08 11:32:43.85	355.37	6.44	
2025-01-08 11:32:44.05	355.34	6.45	
2025-01-08 11:32:44.27	355.30	6.46	
2025-01-08 11:32:44.47	355.27	6.46	
2025-01-08 11:32:44.68	355.24	6.47	
2025-01-08 11:32:44.89	355.20	6.48	
2025-01-08 11:32:45.09	355.17	6.49	
2025-01-08 11:32:45.29	355.14	6.49	
2025-01-08 11:32:45.50	355.10	6.50	
2025-01-08 11:32:45.71	355.07	6.51	
2025-01-08 11:32:45.91	355.04	6.51	
2025-01-08 11:32:46.12	355.00	6.52	
2025-01-08 11:32:46.32	354.97	6.53	
2025-01-08 11:32:46.53	354.94	6.53	
2025-01-08 11:32:46.73	354.90	6.54	
2025-01-08 11:32:46.94	354.87	6.55	
2025-01-08 11:32:47.14	354.84	6.55	
2025-01-08 11:32:47.35	354.80	6.56	
2025-01-08 11:32:47.55	354.77	6.57	
2025-01-08 11:32:47.76	354.73	6.57	
2025-01-08 11:32:47.97	354.70	6.58	
2025-01-08 11:32:48.17	354.67	6.59	
2025-01-08 11:32:48.38	354.63	6.59	
2025-01-08 11:32:48.58	354.60	6.60	
2025-01-08 11:32:48.79	354.57	6.61	
2025-01-08 11:32:48.99	354.53	6.61	
2025-01-08 11:32:49.20	354.50	6.62	
2025-01-08 11:32:49.40	354.46	6.63	
2025-01-08 11:32:49.61	354.43	6.63	
2025-01-08 11:32:49.81	354.40	6.64	
2025-01-08 11:32:50.02	354.36	6.65	
2025-01-08 11:32:50.22	354.33	6.65	
2025-01-08 11:32:50.43	354.30	6.66	
2025-01-08 11:32:50.63	354.26	6.67	
2025-01-08 11:32:50.84	354.23	6.67	
2025-01-08 11:32:51.04	354.19	6.68	
2025-01-08 11:32:51.25	354.16	6.69	
2025-01-08 11:32:51.46	354.12	6.69	
2025-01-08 11:32:51.66	354.09	6.70	
2025-01-08 11:32:51.86	354.06	6.71	
2025-01-08 11:32:52.07	354.02	6.71	
2025-01-08 11:32:52.27	353.99	6.72	
2025-01-08 11:32:52.48	353.96	6.73	
2025-01-08 11:32:52.70	353.92	6.73	
2025-01-08 11:32:52.90	353.89	6.74	
2025-01-08 11:32:53.11	353.85	6.75	
2025-01-08 11:32:53.32	353.82	6.75	
2025-01-08 11:32:53.52	353.78	6.76	
2025-01-08 11:32:53.73	353.75	6.77	
2025-01-08 11:32:53.93	353.72	6.77	
2025-01-08 11:32:54.14	353.68	6.78	
2025-01-08 11:32:54.34	353.65	6.79	
2025-01-08 11:32:54.55	353.61	6.79	
2025-01-08 11:32:54.75	353.58	6.80	
2025-01-08 11:32:54.96	353.54	6.80	
2025-01-08 11:32:55.16	353.51	6.81	
2025-01-08 11:32:55.37	353.47	6.82	
2025-01-08 11:32:55.57	353.44	6.82	
2025-01-08 11:32:55.78	353.41	6.83	
2025-01-08 11:32:55.98	353.37	6.84	
2025-01-08 11:32:56.19	353.34	6.84	
2025-01-08 11:32:56.39	353.30	6.85	
2025-01-08 11:32:56.60	353.27	6.86	
2025-01-08 11:32:56.81	353.23	6.86	
2025-01-08 11:32:57.01	353.20	6.87	
2025-01-08 11:32:57.22	353.17	6.88	
2025-01-08 11:32:57.42	353.13	6.88	
2025-01-08 11:32:57.63	353.10	6.89	
2025-01-08 11:32:57.83	353.06	6.89	
2025-01-08 11:32:58.04	353.03	6.90	
2025-01-08 11:32:58.24	352.99	6.91	
2025-01-08 11:32:58.45	352.96	6.91	
2025-01-08 11:32:58.65	352.93	6.92	
2025-01-08 11:32:58.86	352.89	6.93	
2025-01-08 11:32:59.06	352.86	6.93	
2025-01-08 11:32:59.27	352.82	6.94	
2025-01-08 11:32:59.47	352.79	6.95	
2025-01-08 11:32:59.68	352.75	6.95	
2025-01-08 11:32:59.88	352.72	6.96	
2025-01-08 11:33:00.09	352.68	6.96	
2025-01-08 11:33:00.29	352.65	6.97	
2025-01-08 11:33:00.50	352.61	6.98	
2025-01-08 11:33:00.70	352.58	6.98	
2025-01-08 11:33:00.91	352.54	6.99	
2025-01-08 11:33:01.12	352.51	7.00	
2025-01-08 11:33:01.32	352.47	7.00	
2025-01-08 11:33:01.53	352.44	7.01	
2025-01-08 11:33:01.73	352.40	7.01	
2025-01-08 11:33:01.94	352.37	7.02	
2025-01-08 11:33:02.14	352.34	7.03	
2025-01-08 11:33:02.35	352.30	7.03	
2025-01-08 11:33:02.55	352.27	7.04	
2025-01-08 11:33:02.76	352.23	7.05	
2025-01-08 11:33:02.97	352.19	7.05	
2025-01-08 11:33:03.17	352.16	7.06	
2025-01-08 11:33:03.37	352.13	7.06	
2025-01-08 11:33:03.58	352.09	7.07	
2025-01-08 11:33:03.78	352.06	7.08	
2025-01-08 11:33:03.99	352.02	7.08	
2025-01-08 11:33:04.19	351.99	7.09	
2025-01-08 11:33:04.40	351.95	7.09	
2025-01-08 11:33:04.60	351.92	7.10	
2025-01-08 11:33:04.81	351.88	7.11	
2025-01-08 11:33:05.01	351.85	7.11	
2025-01-08 11:33:05.22	351.81	7.12	
2025-01-08 11:33:05.42	351.78	7.13	
2025-01-08 11:33:05.64	351.74	7.13	
2025-01-08 11:33:05.85	351.70	7.14	
2025-01-08 11:33:06.05	351.67	7.14	
2025-01-08 11:33:06.26	351.63	7.15	
2025-01-08 11:33:06.46	351.60	7.16	
2025-01-08 11:33:06.67	351.56	7.16	
2025-01-08 11:33:06.87	351.53	7.17	
2025-01-08 11:33:07.08	351.49	7.17	
2025-01-08 11:33:07.28	351.46	7.18	
2025-01-08 11:33:07.49	351.42	7.19	
2025-01-08 11:33:07.69	351.39	7.19	
2025-01-08 11:33:07.90	351.35	7.20	
2025-01-08 11:33:08.10	351.32	7.20	
2025-01-08 11:33:08.31	351.28	7.21	
2025-01-08 11:33:08.52	351.24	7.22	
2025-01-08 11:33:08.72	351.21	7.22	
2025-01-08 11:33:08.93	351.17	7.23	
2025-01-08 11:33:09.13	351.14	7.23	
2025-01-08 11:33:09.34	351.10	7.24	
2025-01-08 11:33:09.54	351.07	7.25	
2025-01-08 11:33:09.75	351.03	7.25	
2025-01-08 11:33:09.95	351.00	7.26	
2025-01-08 11:33:10.16	350.96	7.26	
2025-01-08 11:33:10.36	350.93	7.27	
2025-01-08 11:33:10.57	350.89	7.28	
2025-01-08 11:33:10.78	350.85	7.28	
2025-01-08 11:33:10.98	350.82	7.29	
2025-01-08 11:33:11.18	350.79	7.29	
2025-01-08 11:33:11.39	350.75	7.30	
2025-01-08 11:33:11.60	350.71	7.31	
2025-01-08 11:33:11.80	350.68	7.31	
2025-01-08 11:33:12.02	350.64	7.32	
2025-01-08 11:33:12.23	350.60	7.32	
2025-01-08 11:33:12.43	350.57	7.33	
2025-01-08 11:33:12.64	350.53	7.33	
2025-01-08 11:33:12.84	350.50	7.34	
2025-01-08 11:33:13.05	350.46	7.35	
2025-01-08 11:33:13.25	350.43	7.35	
2025-01-08 11:33:13.46	350.39	7.36	
2025-01-08 11:33:13.67	350.35	7.36	
2025-01-08 11:33:13.88	350.32	7.37	
2025-01-08 11:33:14.09	350.28	7.38	
2025-01-08 11:33:14.30	350.24	7.38	
2025-01-08 11:33:14.51	350.21	7.39	
2025-01-08 11:33:14.71	350.17	7.39	
2025-01-08 11:33:14.92	350.14	7.40	
2025-01-08 11:33:15.12	350.10	7.40	
2025-01-08 11:33:15.33	350.06	7.41	
2025-01-08 11:33:15.53	350.03	7.42	
2025-01-08 11:33:15.74	349.99	7.42	
2025-01-08 11:33:15.95	349.96	7.43	
2025-01-08 11:33:16.15	349.92	7.43	
2025-01-08 11:33:16.36	349.88	7.44	
2025-01-08 11:33:16.56	349.85	7.44	
2025-01-08 11:33:16.77	349.81	7.45	
2025-01-08 11:33:16.97	349.78	7.46	
2025-01-08 11:33:17.18	349.74	7.46	
2025-01-08 11:33:17.38	349.71	7.47	
2025-01-08 11:33:17.59	349.67	7.47	
2025-01-08 11:33:17.79	349.63	7.48	
2025-01-08 11:33:18.00	349.60	7.48	
2025-01-08 11:33:18.20	349.56	7.49	
2025-01-08 11:33:18.41	349.52	7.49	
2025-01-08 11:33:18.61	349.49	7.50	
2025-01-08 11:33:18.82	349.45	7.51	
2025-01-08 11:33:19.02	349.42	7.51	
2025-01-08 11:33:19.23	349.38	7.52	
2025-01-08 11:33:19.44	349.34	7.52	
2025-01-08 11:33:19.65	349.31	7.53	
2025-01-08 11:33:19.85	349.27	7.53	
2025-01-08 11:33:20.06	349.23	7.54	
2025-01-08 11:33:20.26	349.20	7.54	
2025-01-08 11:33:20.47	349.16	7.55	
2025-01-08 11:33:20.67	349.13	7.56	
2025-01-08 11:33:20.88	349.09	7.56	
2025-01-08 11:33:21.08	349.05	7.57	
2025-01-08 11:33:21.29	349.02	7.57	
2025-01-08 11:33:21.50	348.98	7.58	
2025-01-08 11:33:21.70	348.94	7.58	
2025-01-08 11:33:21.91	348.91	7.59	
2025-01-08 11:33:22.11	348.87	7.59	
2025-01-08 11:33:22.32	348.83	7.60	
2025-01-08 11:33:22.52	348.80	7.60	
2025-01-08 11:33:22.73	348.76	7.61	
2025-01-08 11:33:22.93	348.73	7.61	
2025-01-08 11:33:23.14	348.69	7.62	
2025-01-08 11:33:23.34	348.65	7.63	
2025-01-08 11:33:23.55	348.62	7.63	
2025-01-08 11:33:23.75	348.58	7.64	
2025-01-08 11:33:23.96	348.54	7.64	
2025-01-08 11:33:24.17	348.51	7.65	
2025-01-08 11:33:24.37	348.47	7.65	
2025-01-08 11:33:24.58	348.43	7.66	
2025-01-08 11:33:24.78	348.40	7.66	
2025-01-08 11:33:24.99	348.36	7.67	
2025-01-08 11:33:25.19	348.32	7.67	
2025-01-08 11:33:25.40	348.29	7.68	
2025-01-08 11:33:25.61	348.25	7.68	
2025-01-08 11:33:25.81	348.21	7.69	
2025-01-08 11:33:26.01	348.18	7.69	
2025-01-08 11:33:26.22	348.14	7.70	
2025-01-08 11:33:26.43	348.10	7.71	
2025-01-08 11:33:26.63	348.07	7.71	
2025-01-08 11:33:26.84	348.03	7.72	
2025-01-08 11:33:27.04	347.99	7.72	
2025-01-08 11:33:27.25	347.96	7.73	
2025-01-08 11:33:27.45	347.92	7.73	
2025-01-08 11:33:27.66	347.88	7.74	
2025-01-08 11:33:27.86	347.85	7.74	
2025-01-08 11:33:28.07	347.81	7.75	
2025-01-08 11:33:28.27	347.77	7.75	
2025-01-08 11:33:28.48	347.74	7.76	
2025-01-08 11:33:28.68	347.70	7.76	
2025-01-08 11:33:28.89	347.66	7.77	
2025-01-08 11:33:29.09	347.63	7.77	
2025-01-08 11:33:29.30	347.59	7.78	
2025-01-08 11:33:29.50	347.55	7.78	
2025-01-08 11:33:29.71	347.51	7.79	
2025-01-08 11:33:29.93	347.48	7.79	
2025-01-08 11:33:30.13	347.44	7.80	
2025-01-08 11:33:30.34	347.40	7.80	
2025-01-08 11:33:30.54	347.37	7.81	
2025-01-08 11:33:30.75	347.33	7.81	
2025-01-08 11:33:30.95	347.29	7.82	
2025-01-08 11:33:31.15	347.26	7.82	
2025-01-08 11:33:31.36	347.22	7.83	
2025-01-08 11:33:31.57	347.18	7.83	
2025-01-08 11:33:31.77	347.14	7.84	
2025-01-08 11:33:31.97	347.11	7.84	
2025-01-08 11:33:32.18	347.07	7.85	
2025-01-08 11:33:32.38	347.03	7.85	
2025-01-08 11:33:32.59	347.00	7.86	
2025-01-08 11:33:32.80	346.96	7.86	
2025-01-08 11:33:33.00	346.92	7.87	
2025-01-08 11:33:33.21	346.88	7.87	
2025-01-08 11:33:33.41	346.85	7.88	
2025-01-08 11:33:33.62	346.81	7.88	
2025-01-08 11:33:33.82	346.77	7.89	
2025-01-08 11:33:34.03	346.73	7.89	
2025-01-08 11:33:34.23	346.70	7.90	
2025-01-08 11:33:34.44	346.66	7.90	
2025-01-08 11:33:34.64	346.62	7.91	
2025-01-08 11:33:34.85	346.59	7.91	
2025-01-08 11:33:35.05	346.55	7.92	
2025-01-08 11:33:35.26	346.51	7.92	
2025-01-08 11:33:35.46	346.48	7.93	
2025-01-08 11:33:35.67	346.44	7.93	
2025-01-08 11:33:35.87	346.40	7.94	
2025-01-08 11:33:36.08	346.36	7.94	
2025-01-08 11:33:36.28	346.33	7.94	
2025-01-08 11:33:36.49	346.29	7.95	
2025-01-08 11:33:36.69	346.25	7.95	
2025-01-08 11:33:36.90	346.21	7.96	
2025-01-08 11:33:37.10	346.18	7.96	
2025-01-08 11:33:37.31	346.14	7.97	
2025-01-08 11:33:37.51	346.10	7.97	
2025-01-08 11:33:37.72	346.06	7.98	
2025-01-08 11:33:37.92	346.03	7.98	
2025-01-08 11:33:38.13	345.99	7.99	
2025-01-08 11:33:38.34	345.95	7.99	
2025-01-08 11:33:38.54	345.91	8.00	
2025-01-08 11:33:38.75	345.88	8.00	
2025-01-08 11:33:38.95	345.84	8.01	
2025-01-08 11:33:39.16	345.80	8.01	
2025-01-08 11:33:39.36	345.76	8.02	
2025-01-08 11:33:39.57	345.73	8.02	
2025-01-08 11:33:39.79	345.69	8.02	
2025-01-08 11:33:39.99	345.65	8.03	
2025-01-08 11:33:40.19	345.61	8.03	
2025-01-08 11:33:40.40	345.57	8.04	
2025-01-08 11:33:40.62	345.53	8.04	
2025-01-08 11:33:40.82	345.50	8.05	
2025-01-08 11:33:41.02	345.46	8.05	
2025-01-08 11:33:41.23	345.42	8.06	
2025-01-08 11:33:41.44	345.38	8.06	
2025-01-08 11:33:41.64	345.35	8.07	
2025-01-08 11:33:41.84	345.31	8.07	
2025-01-08 11:33:42.05	345.27	8.07	
2025-01-08 11:33:42.25	345.23	8.08	
2025-01-08 11:33:42.46	345.20	8.08	
2025-01-08 11:33:42.66	345.16	8.09	
2025-01-08 11:33:42.87	345.12	8.09	
2025-01-08 11:33:43.07	345.08	8.10	
2025-01-08 11:33:43.28	345.05	8.10	
2025-01-08 11:33:43.48	345.01	8.11	
2025-01-08 11:33:43.69	344.97	8.11	
2025-01-08 11:33:43.90	344.93	8.11	
2025-01-08 11:33:44.10	344.89	8.12	
2025-01-08 11:33:44.31	344.86	8.12	
2025-01-08 11:33:44.51	344.82	8.13	
2025-01-08 11:33:44.72	344.78	8.13	
2025-01-08 11:33:44.92	344.74	8.14	
2025-01-08 11:33:45.13	344.70	8.14	
2025-01-08 11:33:45.33	344.67	8.15	
2025-01-08 11:33:45.54	344.63	8.15	
2025-01-08 11:33:45.74	344.59	8.15	
2025-01-08 11:33:45.95	344.55	8.16	
2025-01-08 11:33:46.15	344.52	8.16	
2025-01-08 11:33:46.36	344.48	8.17	
2025-01-08 11:33:46.56	344.44	8.17	
2025-01-08 11:33:46.77	344.40	8.18	
2025-01-08 11:33:46.97	344.36	8.18	
2025-01-08 11:33:47.18	344.32	8.18	
2025-01-08 11:33:47.38	344.29	8.19	
2025-01-08 11:33:47.59	344.25	8.19	
2025-01-08 11:33:47.79	344.21	8.20	
2025-01-08 11:33:48.00	344.17	8.20	
2025-01-08 11:33:48.20	344.14	8.20	
2025-01-08 11:33:48.41	344.10	8.21	
2025-01-08 11:33:48.61	344.06	8.21	
2025-01-08 11:33:48.82	344.02	8.22	
2025-01-08 11:33:49.02	343.98	8.22	
2025-01-08 11:33:49.23	343.94	8.23	
2025-01-08 11:33:49.43	343.91	8.23	
2025-01-08 11:33:49.64	343.87	8.23	
2025-01-08 11:33:49.84	343.83	8.24	
2025-01-08 11:33:50.05	343.79	8.24	
2025-01-08 11:33:50.25	343.75	8.25	
2025-01-08 11:33:50.46	343.72	8.25	
2025-01-08 11:33:50.66	343.68	8.25	
2025-01-08 11:33:50.87	343.64	8.26	
2025-01-08 11:33:51.08	343.60	8.26	
2025-01-08 11:33:51.28	343.56	8.27	
2025-01-08 11:33:51.49	343.52	8.27	
2025-01-08 11:33:51.69	343.49	8.27	
2025-01-08 11:33:51.90	343.45	8.28	
2025-01-08 11:33:52.10	343.41	8.28	
2025-01-08 11:33:52.31	343.37	8.29	
2025-01-08 11:33:52.51	343.33	8.29	
2025-01-08 11:33:52.72	343.29	8.29	
2025-01-08 11:33:52.93	343.25	8.30	
2025-01-08 11:33:53.13	343.22	8.30	
2025-01-08 11:33:53.34	343.18	8.31	
2025-01-08 11:33:53.54	343.14	8.31	
2025-01-08 11:33:53.75	343.10	8.31	
2025-01-08 11:33:53.95	343.06	8.32	
2025-01-08 11:33:54.16	343.02	8.32	
2025-01-08 11:33:54.37	342.99	8.33	
2025-01-08 11:33:54.57	342.95	8.33	
2025-01-08 11:33:54.77	342.91	8.33	
2025-01-08 11:33:54.98	342.87	8.34	
2025-01-08 11:33:55.18	342.83	8.34	
2025-01-08 11:33:55.39	342.79	8.34	
2025-01-08 11:33:55.59	342.76	8.35	
2025-01-08 11:33:55.80	342.72	8.35	
2025-01-08 11:33:56.00	342.68	8.36	
2025-01-08 11:33:56.21	342.64	8.36	
2025-01-08 11:33:56.41	342.60	8.36	
2025-01-08 11:33:56.62	342.56	8.37	
2025-01-08 11:33:56.84	342.52	8.37	
2025-01-08 11:33:57.04	342.48	8.37	
2025-01-08 11:33:57.25	342.45	8.38	
2025-01-08 11:33:57.45	342.41	8.38	
2025-01-08 11:33:57.66	342.37	8.39	
2025-01-08 11:33:57.86	342.33	8.39	
2025-01-08 11:33:58.07	342.29	8.39	
2025-01-08 11:33:58.27	342.25	8.40	
2025-01-08 11:33:58.48	342.21	8.40	
2025-01-08 11:33:58.68	342.18	8.40	
2025-01-08 11:33:58.89	342.14	8.41	
2025-01-08 11:33:59.09	342.10	8.41	
2025-01-08 11:33:59.29	342.06	8.41	
2025-01-08 11:33:59.50	342.02	8.42	
2025-01-08 11:33:59.71	341.98	8.42	
2025-01-08 11:33:59.91	341.94	8.43	
2025-01-08 11:34:00.12	341.90	8.43	
2025-01-08 11:34:00.32	341.87	8.43	
2025-01-08 11:34:00.53	341.83	8.44	
2025-01-08 11:34:00.73	341.79	8.44	
2025-01-08 11:34:00.94	341.75	8.44	
2025-01-08 11:34:01.14	341.71	8.45	
2025-01-08 11:34:01.35	341.67	8.45	
2025-01-08 11:34:01.56	341.63	8.45	
2025-01-08 11:34:01.76	341.59	8.46	
2025-01-08 11:34:01.96	341.56	8.46	
2025-01-08 11:34:02.17	341.52	8.46	
2025-01-08 11:34:02.37	341.48	8.47	
2025-01-08 11:34:02.58	341.44	8.47	
2025-01-08 11:34:02.78	341.40	8.47	
2025-01-08 11:34:02.99	341.36	8.48	
2025-01-08 11:34:03.19	341.32	8.48	
2025-01-08 11:34:03.40	341.28	8.48	
2025-01-08 11:34:03.61	341.24	8.49	
2025-01-08 11:34:03.81	341.21	8.49	
2025-01-08 11:34:04.02	341.17	8.49	
2025-01-08 11:34:04.23	341.13	8.50	
2025-01-08 11:34:04.43	341.09	8.50	
2025-01-08 11:34:04.64	341.05	8.50	
2025-01-08 11:34:04.84	341.01	8.51	
2025-01-08 11:34:05.05	340.97	8.51	
2025-01-08 11:34:05.25	340.93	8.51	
2025-01-08 11:34:05.46	340.89	8.52	
2025-01-08 11:34:05.66	340.86	8.52	
2025-01-08 11:34:05.87	340.82	8.52	
2025-01-08 11:34:06.07	340.78	8.53	
2025-01-08 11:34:06.28	340.74	8.53	
2025-01-08 11:34:06.48	340.70	8.53	
2025-01-08 11:34:06.69	340.66	8.54	
2025-01-08 11:34:06.89	340.62	8.54	
2025-01-08 11:34:07.10	340.58	8.54	
2025-01-08 11:34:07.31	340.54	8.55	
2025-01-08 11:34:07.52	340.50	8.55	
2025-01-08 11:34:07.73	340.46	8.55	
2025-01-08 11:34:07.93	340.42	8.56	
2025-01-08 11:34:08.14	340.38	8.56	
2025-01-08 11:34:08.34	340.34	8.56	
2025-01-08 11:34:08.55	340.30	8.56	
2025-01-08 11:34:08.75	340.27	8.57	
2025-01-08 11:34:08.96	340.23	8.57	
2025-01-08 11:34:09.16	340.19	8.57	
2025-01-08 11:34:09.37	340.15	8.58	
2025-01-08 11:34:09.57	340.11	8.58	
2025-01-08 11:34:09.78	340.07	8.58	
2025-01-08 11:34:09.98	340.03	8.59	
2025-01-08 11:34:10.19	339.99	8.59	
2025-01-08 11:34:10.40	339.95	8.59	
2025-01-08 11:34:10.60	339.91	8.60	
2025-01-08 11:34:10.80	339.88	8.60	
2025-01-08 11:34:11.01	339.83	8.60	
2025-01-08 11:34:11.22	339.79	8.60	
2025-01-08 11:34:11.42	339.76	8.61	
2025-01-08 11:34:11.63	339.72	8.61	
2025-01-08 11:34:11.83	339.68	8.61	
2025-01-08 11:34:12.04	339.64	8.62	
2025-01-08 11:34:12.24	339.60	8.62	
2025-01-08 11:34:12.45	339.56	8.62	
2025-01-08 11:34:12.66	339.52	8.62	
2025-01-08 11:34:12.86	339.48	8.63	
2025-01-08 11:34:13.07	339.44	8.63	
2025-01-08 11:34:13.27	339.40	8.63	
2025-01-08 11:34:13.48	339.36	8.64	
2025-01-08 11:34:13.68	339.32	8.64	
2025-01-08 11:34:13.89	339.28	8.64	
2025-01-08 11:34:14.09	339.24	8.64	
2025-01-08 11:34:14.30	339.20	8.65	
2025-01-08 11:34:14.50	339.17	8.65	
2025-01-08 11:34:14.71	339.13	8.65	
2025-01-08 11:34:14.92	339.09	8.66	
2025-01-08 11:34:15.13	339.05	8.66	
2025-01-08 11:34:15.34	339.01	8.66	
2025-01-08 11:34:15.54	338.97	8.66	
2025-01-08 11:34:15.75	338.93	8.67	
2025-01-08 11:34:15.95	338.89	8.67	
2025-01-08 11:34:16.16	338.85	8.67	
2025-01-08 11:34:16.36	338.81	8.67	
2025-01-08 11:34:16.57	338.77	8.68	
2025-01-08 11:34:16.77	338.73	8.68	
2025-01-08 11:34:16.98	338.69	8.68	
2025-01-08 11:34:17.18	338.65	8.68	
2025-01-08 11:34:17.39	338.61	8.69	
2025-01-08 11:34:17.59	338.57	8.69	
2025-01-08 11:34:17.80	338.53	8.69	
2025-01-08 11:34:18.00	338.49	8.69	
2025-01-08 11:34:18.20	338.45	8.70	
2025-01-08 11:34:18.41	338.41	8.70	
2025-01-08 11:34:18.61	338.38	8.70	
2025-01-08 11:34:18.82	338.34	8.70	
2025-01-08 11:34:19.02	338.30	8.71	
2025-01-08 11:34:19.23	338.26	8.71	
2025-01-08 11:34:19.43	338.22	8.71	
2025-01-08 11:34:19.64	338.18	8.71	
2025-01-08 11:34:19.84	338.14	8.72	
2025-01-08 11:34:20.05	338.10	8.72	
2025-01-08 11:34:20.26	338.06	8.72	
2025-01-08 11:34:20.46	338.02	8.72	
2025-01-08 11:34:20.66	337.98	8.73	
2025-01-08 11:34:20.87	337.94	8.73	
2025-01-08 11:34:21.07	337.90	8.73	
2025-01-08 11:34:21.28	337.86	8.73	
2025-01-08 11:34:21.48	337.82	8.74	
2025-01-08 11:34:21.69	337.78	8.74	
2025-01-08 11:34:21.90	337.74	8.74	
2025-01-08 11:34:22.10	337.70	8.74	
2025-01-08 11:34:22.31	337.66	8.75	
2025-01-08 11:34:22.51	337.62	8.75	
2025-01-08 11:34:22.72	337.58	8.75	
2025-01-08 11:34:22.92	337.54	8.75	
2025-01-08 11:34:23.13	337.50	8.75	
2025-01-08 11:34:23.34	337.46	8.76	
2025-01-08 11:34:23.54	337.42	8.76	
2025-01-08 11:34:23.74	337.38	8.76	
2025-01-08 11:34:23.95	337.34	8.76	
2025-01-08 11:34:24.15	337.31	8.77	
2025-01-08 11:34:24.36	337.26	8.77	
2025-01-08 11:34:24.57	337.22	8.77	
2025-01-08 11:34:24.77	337.19	8.77	
2025-01-08 11:34:24.97	337.15	8.77	
2025-01-08 11:34:25.18	337.11	8.78	
2025-01-08 11:34:25.39	337.07	8.78	
2025-01-08 11:34:25.59	337.03	8.78	
2025-01-08 11:34:25.80	336.99	8.78	
2025-01-08 11:34:26.00	336.95	8.78	
2025-01-08 11:34:26.21	336.91	8.79	
2025-01-08 11:34:26.41	336.87	8.79	
2025-01-08 11:34:26.62	336.83	8.79	
2025-01-08 11:34:26.82	336.79	8.79	
2025-01-08 11:34:27.03	336.75	8.79	
2025-01-08 11:34:27.23	336.71	8.80	
2025-01-08 11:34:27.44	336.67	8.80	
2025-01-08 11:34:27.64	336.63	8.80	
2025-01-08 11:34:27.85	336.59	8.80	
2025-01-08 11:34:28.05	336.55	8.80	
2025-01-08 11:34:28.26	336.51	8.81	
2025-01-08 11:34:28.46	336.47	8.81	
2025-01-08 11:34:28.67	336.43	8.81	
2025-01-08 11:34:28.88	336.39	8.81	
2025-01-08 11:34:29.08	336.35	8.81	
2025-01-08 11:34:29.29	336.31	8.82	
2025-01-08 11:34:29.49	336.27	8.82	
2025-01-08 11:34:29.70	336.23	8.82	
2025-01-08 11:34:29.90	336.19	8.82	
2025-01-08 11:34:30.11	336.15	8.82	
2025-01-08 11:34:30.31	336.11	8.83	
2025-01-08 11:34:30.52	336.07	8.83	
2025-01-08 11:34:30.74	336.03	8.83	
2025-01-08 11:34:30.94	335.99	8.83	
2025-01-08 11:34:31.15	335.95	8.83	
2025-01-08 11:34:31.35	335.91	8.83	
2025-01-08 11:34:31.56	335.87	8.84	
2025-01-08 11:34:31.77	335.83	8.84	
2025-01-08 11:34:31.97	335.79	8.84	
2025-01-08 11:34:32.17	335.75	8.84	
2025-01-08 11:34:32.38	335.71	8.84	
2025-01-08 11:34:32.59	335.67	8.84	
2025-01-08 11:34:32.79	335.63	8.85	
2025-01-08 11:34:33.00	335.59	8.85	
2025-01-08 11:34:33.20	335.55	8.85	
2025-01-08 11:34:33.41	335.51	8.85	
2025-01-08 11:34:33.61	335.47	8.85	
2025-01-08 11:34:33.82	335.43	8.85	
2025-01-08 11:34:34.02	335.39	8.86	
2025-01-08 11:34:34.23	335.35	8.86	
2025-01-08 11:34:34.43	335.31	8.86	
2025-01-08 11:34:34.64	335.27	8.86	
2025-01-08 11:34:34.84	335.23	8.86	
2025-01-08 11:34:35.05	335.19	8.86	
2025-01-08 11:34:35.25	335.15	8.87	
2025-01-08 11:34:35.46	335.11	8.87	
2025-01-08 11:34:35.66	335.07	8.87	
2025-01-08 11:34:35.87	335.03	8.87	
2025-01-08 11:34:36.07	334.99	8.87	
2025-01-08 11:34:36.28	334.95	8.87	
2025-01-08 11:34:36.50	334.90	8.87	
2025-01-08 11:34:36.70	334.86	8.88	
2025-01-08 11:34:36.91	334.82	8.88	
2025-01-08 11:34:37.12	334.78	8.88	
2025-01-08 11:34:37.32	334.74	8.88	
2025-01-08 11:34:37.52	334.70	8.88	
2025-01-08 11:34:37.73	334.66	8.88	
2025-01-08 11:34:37.93	334.62	8.88	
2025-01-08 11:34:38.14	334.58	8.89	
2025-01-08 11:34:38.35	334.54	8.89	
2025-01-08 11:34:38.55	334.50	8.89	
2025-01-08 11:34:38.76	334.46	8.89	
2025-01-08 11:34:38.97	334.42	8.89	
2025-01-08 11:34:39.17	334.38	8.89	
2025-01-08 11:34:39.38	334.34	8.89	
2025-01-08 11:34:39.58	334.30	8.89	
2025-01-08 11:34:39.79	334.26	8.90	
2025-01-08 11:34:40.00	334.22	8.90	
2025-01-08 11:34:40.20	334.18	8.90	
2025-01-08 11:34:40.40	334.14	8.90	
2025-01-08 11:34:40.61	334.10	8.90	
2025-01-08 11:34:40.81	334.06	8.90	
2025-01-08 11:34:41.02	334.02	8.90	
2025-01-08 11:34:41.22	333.98	8.90	
2025-01-08 11:34:41.43	333.94	8.91	
2025-01-08 11:34:41.64	333.90	8.91	
2025-01-08 11:34:41.85	333.86	8.91	
2025-01-08 11:34:42.06	333.82	8.91	
2025-01-08 11:34:42.26	333.78	8.91	
2025-01-08 11:34:42.47	333.74	8.91	
2025-01-08 11:34:42.68	333.69	8.91	
2025-01-08 11:34:42.89	333.65	8.91	
2025-01-08 11:34:43.10	333.61	8.91	
2025-01-08 11:34:43.30	333.57	8.92	
2025-01-08 11:34:43.51	333.53	8.92	
2025-01-08 11:34:43.71	333.49	8.92	
2025-01-08 11:34:43.92	333.45	8.92	
2025-01-08 11:34:44.12	333.41	8.92	
2025-01-08 11:34:44.33	333.37	8.92	
2025-01-08 11:34:44.54	333.33	8.92	
2025-01-08 11:34:44.74	333.29	8.92	
2025-01-08 11:34:44.94	333.25	8.92	
2025-01-08 11:34:45.15	333.21	8.92	
2025-01-08 11:34:45.35	333.17	8.93	
2025-01-08 11:34:45.56	333.13	8.93	
2025-01-08 11:34:45.76	333.09	8.93	
2025-01-08 11:34:45.97	333.05	8.93	
2025-01-08 11:34:46.17	333.01	8.93	
2025-01-08 11:34:46.38	332.97	8.93	
2025-01-08 11:34:46.58	332.93	8.93	
2025-01-08 11:34:46.79	332.89	8.93	
2025-01-08 11:34:46.99	332.85	8.93	
2025-01-08 11:34:47.20	332.81	8.93	
2025-01-08 11:34:47.40	332.77	8.93	
2025-01-08 11:34:47.61	332.73	8.93	
2025-01-08 11:34:47.81	332.69	8.94	
2025-01-08 11:34:48.02	332.65	8.94	
2025-01-08 11:34:48.22	332.61	8.94	
2025-01-08 11:34:48.43	332.57	8.94	
2025-01-08 11:34:48.63	332.53	8.94	
2025-01-08 11:34:48.84	332.49	8.94	
2025-01-08 11:34:49.05	332.45	8.94	
2025-01-08 11:34:49.25	332.41	8.94	
2025-01-08 11:34:49.45	332.37	8.94	
2025-01-08 11:34:49.66	332.33	8.94	
2025-01-08 11:34:49.87	332.29	8.94	
2025-01-08 11:34:50.07	332.25	8.94	
2025-01-08 11:34:50.27	332.21	8.94	
2025-01-08 11:34:50.48	332.17	8.94	
2025-01-08 11:34:50.69	332.12	8.94	
2025-01-08 11:34:50.89	332.08	8.95	
2025-01-08 11:34:51.10	332.04	8.95	
2025-01-08 11:34:51.30	332.00	8.95	
2025-01-08 11:34:51.51	331.96	8.95	
2025-01-08 11:34:51.71	331.92	8.95	
2025-01-08 11:34:51.92	331.88	8.95	
2025-01-08 11:34:52.12	331.84	8.95	
2025-01-08 11:34:52.33	331.80	8.95	
2025-01-08 11:34:52.54	331.76	8.95	
2025-01-08 11:34:52.74	331.72	8.95	
2025-01-08 11:34:52.95	331.68	8.95	
2025-01-08 11:34:53.15	331.64	8.95	
2025-01-08 11:34:53.36	331.60	8.95	
2025-01-08 11:34:53.57	331.56	8.95	
2025-01-08 11:34:53.78	331.52	8.95	
2025-01-08 11:34:53.98	331.48	8.95	
2025-01-08 11:34:54.19	331.44	8.95	
2025-01-08 11:34:54.39	331.40	8.95	
2025-01-08 11:34:54.59	331.36	8.95	
2025-01-08 11:34:54.80	331.32	8.95	
2025-01-08 11:34:55.00	331.28	8.95	
2025-01-08 11:34:55.21	331.24	8.95	
2025-01-08 11:34:55.42	331.20	8.95	
2025-01-08 11:34:55.62	331.16	8.95	
2025-01-08 11:34:55.83	331.11	8.96	
2025-01-08 11:34:56.03	331.08	8.96	
2025-01-08 11:34:56.24	331.03	8.96	
2025-01-08 11:34:56.45	330.99	8.96	
2025-01-08 11:34:56.65	330.95	8.96	
2025-01-08 11:34:56.85	330.91	8.96	
2025-01-08 11:34:57.06	330.87	8.96	
2025-01-08 11:34:57.27	330.83	8.96	
2025-01-08 11:34:57.47	330.79	8.96	
2025-01-08 11:34:57.68	330.75	8.96	
2025-01-08 11:34:57.88	330.71	8.96	
2025-01-08 11:34:58.09	330.67	8.96	
2025-01-08 11:34:58.29	330.63	8.96	
2025-01-08 11:34:58.50	330.59	8.96	
2025-01-08 11:34:58.71	330.55	8.96	
2025-01-08 11:34:58.91	330.51	8.96	
2025-01-08 11:34:59.12	330.47	8.96	
2025-01-08 11:34:59.32	330.43	8.96	
2025-01-08 11:34:59.53	330.39	8.96	
2025-01-08 11:34:59.73	330.35	8.96	
2025-01-08 11:34:59.94	330.31	8.96	
2025-01-08 11:35:00.14	330.27	8.96	
2025-01-08 11:35:00.35	330.23	8.96	
2025-01-08 11:35:00.55	330.19	8.96	
2025-01-08 11:35:00.76	330.15	8.96	
2025-01-08 11:35:00.96	330.11	8.96	
2025-01-08 11:35:01.17	330.07	8.96	
2025-01-08 11:35:01.37	330.03	8.96	
2025-01-08 11:35:01.58	329.98	8.96	
2025-01-08 11:35:01.78	329.95	8.96	
2025-01-08 11:35:01.99	329.90	8.96	
2025-01-08 11:35:02.19	329.86	8.96	
2025-01-08 11:35:02.40	329.82	8.96	
2025-01-08 11:35:02.60	329.78	8.96	
2025-01-08 11:35:02.81	329.74	8.96	
2025-01-08 11:35:03.02	329.70	8.96	
2025-01-08 11:35:03.22	329.66	8.96	
2025-01-08 11:35:03.43	329.62	8.96	
2025-01-08 11:35:03.63	329.58	8.96	
2025-01-08 11:35:03.84	329.54	8.96	
2025-01-08 11:35:04.04	329.50	8.96	
2025-01-08 11:35:04.24	329.46	8.96	
2025-01-08 11:35:04.45	329.42	8.95	
2025-01-08 11:35:04.66	329.38	8.95	
2025-01-08 11:35:04.86	329.34	8.95	
2025-01-08 11:35:05.06	329.30	8.95	
2025-01-08 11:35:05.27	329.26	8.95	
2025-01-08 11:35:05.47	329.22	8.95	
2025-01-08 11:35:05.68	329.18	8.95	
2025-01-08 11:35:05.89	329.14	8.95	
2025-01-08 11:35:06.09	329.10	8.95	
2025-01-08 11:35:06.30	329.06	8.95	
2025-01-08 11:35:06.50	329.02	8.95	
2025-01-08 11:35:06.72	328.97	8.95	
2025-01-08 11:35:06.93	328.93	8.95	
2025-01-08 11:35:07.13	328.89	8.95	
2025-01-08 11:35:07.34	328.85	8.95	
2025-01-08 11:35:07.54	328.81	8.95	
2025-01-08 11:35:07.75	328.77	8.95	
2025-01-08 11:35:07.95	328.73	8.95	
2025-01-08 11:35:08.16	328.69	8.95	
2025-01-08 11:35:08.36	328.65	8.95	
2025-01-08 11:35:08.57	328.61	8.95	
2025-01-08 11:35:08.77	328.57	8.95	
2025-01-08 11:35:08.98	328.53	8.95	
2025-01-08 11:35:09.19	328.49	8.95	
2025-01-08 11:35:09.39	328.45	8.94	
2025-01-08 11:35:09.60	328.41	8.94	
2025-01-08 11:35:09.80	328.37	8.94	
2025-01-08 11:35:10.01	328.33	8.94	
2025-01-08 11:35:10.21	328.29	8.94	
2025-01-08 11:35:10.42	328.25	8.94	
2025-01-08 11:35:10.62	328.21	8.94	
2025-01-08 11:35:10.83	328.17	8.94	
2025-01-08 11:35:11.03	328.13	8.94	
2025-01-08 11:35:11.24	328.09	8.94	
2025-01-08 11:35:11.45	328.05	8.94	
2025-01-08 11:35:11.65	328.01	8.94	
2025-01-08 11:35:11.86	327.97	8.94	
2025-01-08 11:35:12.06	327.93	8.94	
2025-01-08 11:35:12.27	327.88	8.94	
2025-01-08 11:35:12.47	327.85	8.93	
2025-01-08 11:35:12.68	327.80	8.93	
2025-01-08 11:35:12.88	327.76	8.93	
2025-01-08 11:35:13.09	327.72	8.93	
2025-01-08 11:35:13.29	327.68	8.93	
2025-01-08 11:35:13.50	327.64	8.93	
2025-01-08 11:35:13.70	327.60	8.93	
2025-01-08 11:35:13.91	327.56	8.93	
2025-01-08 11:35:14.11	327.52	8.93	
2025-01-08 11:35:14.32	327.48	8.93	
2025-01-08 11:35:14.52	327.44	8.93	
2025-01-08 11:35:14.73	327.40	8.93	
2025-01-08 11:35:14.93	327.36	8.92	
2025-01-08 11:35:15.14	327.32	8.92	
2025-01-08 11:35:15.34	327.28	8.92	
2025-01-08 11:35:15.55	327.24	8.92	
2025-01-08 11:35:15.75	327.20	8.92	
2025-01-08 11:35:15.95	327.16	8.92	
2025-01-08 11:35:16.16	327.12	8.92	
2025-01-08 11:35:16.37	327.08	8.92	
2025-01-08 11:35:16.57	327.04	8.92	
2025-01-08 11:35:16.78	327.00	8.92	
2025-01-08 11:35:16.98	326.96	8.91	
2025-01-08 11:35:17.18	326.92	8.91	
2025-01-08 11:35:17.39	326.88	8.91	
2025-01-08 11:35:17.61	326.84	8.91	
2025-01-08 11:35:17.81	326.80	8.91	
2025-01-08 11:35:18.02	326.76	8.91	
2025-01-08 11:35:18.24	326.71	8.91	
2025-01-08 11:35:18.44	326.68	8.91	
2025-01-08 11:35:18.65	326.63	8.91	
2025-01-08 11:35:18.85	326.59	8.90	
2025-01-08 11:35:19.06	326.55	8.90	
2025-01-08 11:35:19.28	326.51	8.90	
2025-01-08 11:35:19.48	326.47	8.90	
2025-01-08 11:35:19.69	326.43	8.90	
2025-01-08 11:35:19.89	326.39	8.90	
2025-01-08 11:35:20.10	326.35	8.90	
2025-01-08 11:35:20.30	326.31	8.90	
2025-01-08 11:35:20.51	326.27	8.89	
2025-01-08 11:35:20.72	326.23	8.89	
2025-01-08 11:35:20.92	326.19	8.89	
2025-01-08 11:35:21.13	326.15	8.89	
2025-01-08 11:35:21.34	326.11	8.89	
2025-01-08 11:35:21.55	326.07	8.89	
2025-01-08 11:35:21.75	326.03	8.89	
2025-01-08 11:35:21.96	325.99	8.89	
2025-01-08 11:35:22.17	325.95	8.88	
2025-01-08 11:35:22.37	325.91	8.88	
2025-01-08 11:35:22.57	325.87	8.88	
2025-01-08 11:35:22.78	325.83	8.88	
2025-01-08 11:35:22.99	325.78	8.88	
2025-01-08 11:35:23.19	325.75	8.88	
2025-01-08 11:35:23.40	325.70	8.88	
2025-01-08 11:35:23.60	325.67	8.87	
2025-01-08 11:35:23.80	325.63	8.87	
2025-01-08 11:35:24.01	325.59	8.87	
2025-01-08 11:35:24.21	325.55	8.87	
2025-01-08 11:35:24.42	325.51	8.87	
2025-01-08 11:35:24.62	325.47	8.87	
2025-01-08 11:35:24.83	325.43	8.87	
2025-01-08 11:35:25.04	325.38	8.86	
2025-01-08 11:35:25.24	325.35	8.86	
2025-01-08 11:35:25.45	325.30	8.86	
2025-01-08 11:35:25.65	325.27	8.86	
2025-01-08 11:35:25.86	325.22	8.86	
2025-01-08 11:35:26.06	325.19	8.86	
2025-01-08 11:35:26.27	325.14	8.85	
2025-01-08 11:35:26.48	325.10	8.85	
2025-01-08 11:35:26.69	325.06	8.85	
2025-01-08 11:35:26.90	325.02	8.85	
2025-01-08 11:35:27.10	324.98	8.85	
2025-01-08 11:35:27.31	324.94	8.85	
2025-01-08 11:35:27.52	324.90	8.84	
2025-01-08 11:35:27.73	324.86	8.84	
2025-01-08 11:35:27.94	324.82	8.84	
2025-01-08 11:35:28.15	324.78	8.84	
2025-01-08 11:35:28.35	324.74	8.84	
2025-01-08 11:35:28.55	324.70	8.84	
2025-01-08 11:35:28.76	324.66	8.83	
2025-01-08 11:35:28.97	324.62	8.83	
2025-01-08 11:35:29.17	324.58	8.83	
2025-01-08 11:35:29.38	324.54	8.83	
2025-01-08 11:35:29.58	324.50	8.83	
2025-01-08 11:35:29.79	324.46	8.83	
2025-01-08 11:35:29.99	324.42	8.82	
2025-01-08 11:35:30.20	324.38	8.82	
2025-01-08 11:35:30.40	324.34	8.82	
2025-01-08 11:35:30.61	324.30	8.82	
2025-01-08 11:35:30.82	324.26	8.82	
2025-01-08 11:35:31.02	324.22	8.81	
2025-01-08 11:35:31.22	324.18	8.81	
2025-01-08 11:35:31.43	324.14	8.81	
2025-01-08 11:35:31.64	324.10	8.81	
2025-01-08 11:35:31.84	324.06	8.81	
2025-01-08 11:35:32.04	324.02	8.80	
2025-01-08 11:35:32.25	323.98	8.80	
2025-01-08 11:35:32.45	323.94	8.80	
2025-01-08 11:35:32.66	323.90	8.80	
2025-01-08 11:35:32.87	323.86	8.80	
2025-01-08 11:35:33.07	323.82	8.79	
2025-01-08 11:35:33.28	323.78	8.79	
2025-01-08 11:35:33.48	323.74	8.79	
2025-01-08 11:35:33.69	323.70	8.79	
2025-01-08 11:35:33.89	323.66	8.79	
2025-01-08 11:35:34.09	323.62	8.78	
2025-01-08 11:35:34.30	323.58	8.78	
2025-01-08 11:35:34.51	323.54	8.78	
2025-01-08 11:35:34.71	323.50	8.78	
2025-01-08 11:35:34.92	323.46	8.78	
2025-01-08 11:35:35.12	323.42	8.77	
2025-01-08 11:35:35.34	323.38	8.77	
2025-01-08 11:35:35.54	323.34	8.77	
2025-01-08 11:35:35.75	323.30	8.77	
2025-01-08 11:35:35.95	323.26	8.77	
2025-01-08 11:35:36.16	323.22	8.76	
2025-01-08 11:35:36.36	323.18	8.76	
2025-01-08 11:35:36.57	323.14	8.76	
2025-01-08 11:35:36.77	323.10	8.76	
2025-01-08 11:35:36.98	323.06	8.75	
2025-01-08 11:35:37.19	323.02	8.75	
2025-01-08 11:35:37.39	322.98	8.75	
2025-01-08 11:35:37.59	322.94	8.75	
2025-01-08 11:35:37.80	322.90	8.74	
2025-01-08 11:35:38.01	322.86	8.74	
2025-01-08 11:35:38.21	322.82	8.74	
2025-01-08 11:35:38.42	322.78	8.74	
2025-01-08 11:35:38.62	322.75	8.74	
2025-01-08 11:35:38.83	322.70	8.73	
2025-01-08 11:35:39.03	322.67	8.73	
2025-01-08 11:35:39.24	322.63	8.73	
2025-01-08 11:35:39.44	322.59	8.73	
2025-01-08 11:35:39.65	322.55	8.72	
2025-01-08 11:35:39.85	322.51	8.72	
2025-01-08 11:35:40.06	322.47	8.72	
2025-01-08 11:35:40.27	322.43	8.72	
2025-01-08 11:35:40.47	322.39	8.71	
2025-01-08 11:35:40.68	322.35	8.71	
2025-01-08 11:35:40.88	322.31	8.71	
2025-01-08 11:35:41.09	322.27	8.71	
2025-01-08 11:35:41.31	322.23	8.70	
2025-01-08 11:35:41.51	322.19	8.70	
2025-01-08 11:35:41.73	322.14	8.70	
2025-01-08 11:35:41.94	322.10	8.70	
2025-01-08 11:35:42.14	322.07	8.69	
2025-01-08 11:35:42.35	322.03	8.69	
2025-01-08 11:35:42.56	321.98	8.69	
2025-01-08 11:35:42.76	321.95	8.69	
2025-01-08 11:35:42.97	321.91	8.68	
2025-01-08 11:35:43.17	321.87	8.68	
2025-01-08 11:35:43.38	321.83	8.68	
2025-01-08 11:35:43.58	321.79	8.68	
2025-01-08 11:35:43.78	321.75	8.67	
2025-01-08 11:35:43.99	321.71	8.67	
2025-01-08 11:35:44.19	321.67	8.67	
2025-01-08 11:35:44.40	321.63	8.66	
2025-01-08 11:35:44.61	321.59	8.66	
2025-01-08 11:35:44.81	321.55	8.66	
2025-01-08 11:35:45.02	321.51	8.66	
2025-01-08 11:35:45.23	321.47	8.65	
2025-01-08 11:35:45.43	321.43	8.65	
2025-01-08 11:35:45.63	321.39	8.65	
2025-01-08 11:35:45.84	321.35	8.65	
2025-01-08 11:35:46.04	321.32	8.64	
2025-01-08 11:35:46.25	321.27	8.64	
2025-01-08 11:35:46.45	321.24	8.64	
2025-01-08 11:35:46.66	321.20	8.63	
2025-01-08 11:35:46.86	321.16	8.63	
2025-01-08 11:35:47.07	321.12	8.63	
2025-01-08 11:35:47.27	321.08	8.63	
2025-01-08 11:35:47.48	321.04	8.62	
2025-01-08 11:35:47.69	321.00	8.62	
2025-01-08 11:35:47.89	320.96	8.62	
2025-01-08 11:35:48.10	320.92	8.61	
2025-01-08 11:35:48.30	320.88	8.61	
2025-01-08 11:35:48.51	320.84	8.61	
2025-01-08 11:35:48.71	320.80	8.61	
2025-01-08 11:35:48.92	320.76	8.60	
2025-01-08 11:35:49.13	320.72	8.60	
2025-01-08 11:35:49.33	320.68	8.60	
2025-01-08 11:35:49.54	320.64	8.59	
2025-01-08 11:35:49.74	320.61	8.59	
2025-01-08 11:35:49.95	320.57	8.59	
2025-01-08 11:35:50.15	320.53	8.59	
2025-01-08 11:35:50.36	320.49	8.58	
2025-01-08 11:35:50.56	320.45	8.58	
2025-01-08 11:35:50.77	320.41	8.58	
2025-01-08 11:35:50.97	320.37	8.57	
2025-01-08 11:35:51.18	320.33	8.57	
2025-01-08 11:35:51.38	320.29	8.57	
2025-01-08 11:35:51.59	320.25	8.56	
2025-01-08 11:35:51.79	320.21	8.56	
2025-01-08 11:35:52.00	320.17	8.56	
2025-01-08 11:35:52.20	320.14	8.55	
2025-01-08 11:35:52.41	320.10	8.55	
2025-01-08 11:35:52.61	320.06	8.55	
2025-01-08 11:35:52.82	320.02	8.55	
2025-01-08 11:35:53.04	319.98	8.54	
2025-01-08 11:35:53.24	319.94	8.54	
2025-01-08 11:35:53.45	319.90	8.54	
2025-01-08 11:35:53.65	319.86	8.53	
2025-01-08 11:35:53.86	319.82	8.53	
2025-01-08 11:35:54.06	319.78	8.53	
2025-01-08 11:35:54.27	319.74	8.52	
2025-01-08 11:35:54.47	319.70	8.52	
2025-01-08 11:35:54.68	319.66	8.52	
2025-01-08 11:35:54.88	319.63	8.51	
2025-01-08 11:35:55.09	319.59	8.51	
2025-01-08 11:35:55.29	319.55	8.51	
2025-01-08 11:35:55.50	319.51	8.50	
2025-01-08 11:35:55.70	319.47	8.50	
2025-01-08 11:35:55.91	319.43	8.50	
2025-01-08 11:35:56.11	319.39	8.49	
2025-01-08 11:35:56.32	319.35	8.49	
2025-01-08 11:35:56.52	319.31	8.49	
2025-01-08 11:35:56.73	319.27	8.48	
2025-01-08 11:35:56.93	319.24	8.48	
2025-01-08 11:35:57.14	319.20	8.48	
2025-01-08 11:35:57.35	319.16	8.47	
2025-01-08 11:35:57.55	319.12	8.47	
2025-01-08 11:35:57.77	319.08	8.47	
2025-01-08 11:35:57.98	319.04	8.46	
2025-01-08 11:35:58.18	319.00	8.46	
2025-01-08 11:35:58.39	318.96	8.46	
2025-01-08 11:35:58.59	318.92	8.45	
2025-01-08 11:35:58.81	318.88	8.45	
2025-01-08 11:35:59.02	318.84	8.44	
2025-01-08 11:35:59.22	318.80	8.44	
2025-01-08 11:35:59.43	318.76	8.44	
2025-01-08 11:35:59.63	318.72	8.43	
2025-01-08 11:35:59.83	318.69	8.43	
2025-01-08 11:36:00.04	318.65	8.43	
2025-01-08 11:36:00.26	318.61	8.42	
2025-01-08 11:36:00.46	318.57	8.42	
2025-01-08 11:36:00.67	318.53	8.42	
2025-01-08 11:36:00.87	318.49	8.41	
2025-01-08 11:36:01.08	318.45	8.41	
2025-01-08 11:36:01.29	318.41	8.41	
2025-01-08 11:36:01.49	318.37	8.40	
2025-01-08 11:36:01.70	318.33	8.40	
2025-01-08 11:36:01.90	318.30	8.39	
2025-01-08 11:36:02.10	318.26	8.39	
2025-01-08 11:36:02.31	318.22	8.39	
2025-01-08 11:36:02.52	318.18	8.38	
2025-01-08 11:36:02.72	318.14	8.38	
2025-01-08 11:36:02.93	318.10	8.38	
2025-01-08 11:36:03.13	318.06	8.37	
2025-01-08 11:36:03.34	318.02	8.37	
2025-01-08 11:36:03.54	317.99	8.36	
2025-01-08 11:36:03.75	317.95	8.36	
2025-01-08 11:36:03.95	317.91	8.36	
2025-01-08 11:36:04.16	317.87	8.35	
2025-01-08 11:36:04.36	317.83	8.35	
2025-01-08 11:36:04.57	317.79	8.35	
2025-01-08 11:36:04.78	317.75	8.34	
2025-01-08 11:36:04.98	317.72	8.34	
2025-01-08 11:36:05.18	317.68	8.33	
2025-01-08 11:36:05.39	317.64	8.33	
2025-01-08 11:36:05.60	317.60	8.33	
2025-01-08 11:36:05.80	317.56	8.32	
2025-01-08 11:36:06.01	317.52	8.32	
2025-01-08 11:36:06.21	317.49	8.32	
2025-01-08 11:36:06.42	317.45	8.31	
2025-01-08 11:36:06.63	317.41	8.31	
2025-01-08 11:36:06.83	317.37	8.30	
2025-01-08 11:36:07.04	317.33	8.30	
2025-01-08 11:36:07.24	317.29	8.30	
2025-01-08 11:36:07.45	317.25	8.29	
2025-01-08 11:36:07.65	317.22	8.29	
2025-01-08 11:36:07.86	317.18	8.28	
2025-01-08 11:36:08.06	317.14	8.28	
2025-01-08 11:36:08.27	317.10	8.28	
2025-01-08 11:36:08.47	317.06	8.27	
2025-01-08 11:36:08.68	317.02	8.27	
2025-01-08 11:36:08.88	316.99	8.26	
2025-01-08 11:36:09.09	316.95	8.26	
2025-01-08 11:36:09.29	316.91	8.26	
2025-01-08 11:36:09.50	316.87	8.25	
2025-01-08 11:36:09.70	316.83	8.25	
2025-01-08 11:36:09.91	316.79	8.24	
2025-01-08 11:36:10.11	316.76	8.24	
2025-01-08 11:36:10.32	316.72	8.24	
2025-01-08 11:36:10.53	316.68	8.23	
2025-01-08 11:36:10.73	316.64	8.23	
2025-01-08 11:36:10.94	316.60	8.22	
2025-01-08 11:36:11.15	316.56	8.22	
2025-01-08 11:36:11.35	316.53	8.21	
2025-01-08 11:36:11.57	316.49	8.21	
2025-01-08 11:36:11.77	316.45	8.21	
2025-01-08 11:36:11.98	316.41	8.20	
2025-01-08 11:36:12.18	316.37	8.20	
2025-01-08 11:36:12.39	316.33	8.19	
2025-01-08 11:36:12.59	316.30	8.19	
2025-01-08 11:36:12.80	316.26	8.19	
2025-01-08 11:36:13.00	316.22	8.18	
2025-01-08 11:36:13.22	316.18	8.18	
2025-01-08 11:36:13.43	316.14	8.17	
2025-01-08 11:36:13.63	316.10	8.17	
2025-01-08 11:36:13.84	316.06	8.16	
2025-01-08 11:36:14.04	316.03	8.16	
2025-01-08 11:36:14.25	315.99	8.16	
2025-01-08 11:36:14.45	315.95	8.15	
2025-01-08 11:36:14.66	315.91	8.15	
2025-01-08 11:36:14.86	315.88	8.14	
2025-01-08 11:36:15.06	315.84	8.14	
2025-01-08 11:36:15.27	315.80	8.13	
2025-01-08 11:36:15.47	315.76	8.13	
2025-01-08 11:36:15.68	315.72	8.12	
2025-01-08 11:36:15.88	315.69	8.12	
2025-01-08 11:36:16.09	315.65	8.12	
2025-01-08 11:36:16.30	315.61	8.11	
2025-01-08 11:36:16.50	315.57	8.11	
2025-01-08 11:36:16.71	315.53	8.10	
2025-01-08 11:36:16.91	315.50	8.10	
2025-01-08 11:36:17.11	315.46	8.09	
2025-01-08 11:36:17.32	315.42	8.09	
2025-01-08 11:36:17.53	315.38	8.09	
2025-01-08 11:36:17.73	315.35	8.08	
2025-01-08 11:36:17.94	315.31	8.08	
2025-01-08 11:36:18.14	315.27	8.07	
2025-01-08 11:36:18.35	315.23	8.07	
2025-01-08 11:36:18.55	315.19	8.06	
2025-01-08 11:36:18.76	315.16	8.06	
2025-01-08 11:36:18.96	315.12	8.05	
2025-01-08 11:36:19.17	315.08	8.05	
2025-01-08 11:36:19.37	315.04	8.04	
2025-01-08 11:36:19.58	315.01	8.04	
2025-01-08 11:36:19.78	314.97	8.04	
2025-01-08 11:36:19.99	314.93	8.03	
2025-01-08 11:36:20.21	314.89	8.03	
2025-01-08 11:36:20.41	314.85	8.02	
2025-01-08 11:36:20.62	314.81	8.02	
2025-01-08 11:36:20.82	314.78	8.01	
2025-01-08 11:36:21.03	314.74	8.01	
2025-01-08 11:36:21.23	314.70	8.00	
2025-01-08 11:36:21.44	314.66	8.00	
2025-01-08 11:36:21.64	314.63	7.99	
2025-01-08 11:36:21.85	314.59	7.99	
2025-01-08 11:36:22.05	314.55	7.98	
2025-01-08 11:36:22.27	314.51	7.98	
2025-01-08 11:36:22.47	314.48	7.97	
2025-01-08 11:36:22.68	314.44	7.97	
2025-01-08 11:36:22.88	314.40	7.97	
2025-01-08 11:36:23.09	314.36	7.96	
2025-01-08 11:36:23.29	314.33	7.96	
2025-01-08 11:36:23.50	314.29	7.95	
2025-01-08 11:36:23.70	314.25	7.95	
2025-01-08 11:36:23.91	314.21	7.94	
2025-01-08 11:36:24.11	314.18	7.94	
2025-01-08 11:36:24.32	314.14	7.93	
2025-01-08 11:36:24.52	314.10	7.93	
2025-01-08 11:36:24.72	314.07	7.92	
2025-01-08 11:36:24.93	314.03	7.92	
2025-01-08 11:36:25.13	313.99	7.91	
2025-01-08 11:36:25.34	313.95	7.91	
2025-01-08 11:36:25.54	313.92	7.90	
2025-01-08 11:36:25.75	313.88	7.90	
2025-01-08 11:36:25.95	313.84	7.89	
2025-01-08 11:36:26.16	313.80	7.89	
2025-01-08 11:36:26.36	313.77	7.88	
2025-01-08 11:36:26.57	313.73	7.88	
2025-01-08 11:36:26.77	313.69	7.87	
2025-01-08 11:36:26.98	313.66	7.87	
2025-01-08 11:36:27.18	313.62	7.86	
2025-01-08 11:36:27.39	313.58	7.86	
2025-01-08 11:36:27.59	313.54	7.85	
2025-01-08 11:36:27.80	313.51	7.85	
2025-01-08 11:36:28.01	313.47	7.84	
2025-01-08 11:36:28.21	313.43	7.84	
2025-01-08 11:36:28.42	313.39	7.83	
2025-01-08 11:36:28.62	313.36	7.83	
2025-01-08 11:36:28.83	313.32	7.82	
2025-01-08 11:36:29.03	313.28	7.82	
2025-01-08 11:36:29.24	313.25	7.81	
2025-01-08 11:36:29.45	313.21	7.81	
2025-01-08 11:36:29.65	313.17	7.80	
2025-01-08 11:36:29.85	313.14	7.80	
2025-01-08 11:36:30.06	313.10	7.79	
2025-01-08 11:36:30.26	313.06	7.79	
2025-01-08 11:36:30.47	313.02	7.78	
2025-01-08 11:36:30.67	312.99	7.78	
2025-01-08 11:36:30.88	312.95	7.77	
2025-01-08 11:36:31.08	312.91	7.77	
2025-01-08 11:36:31.29	312.88	7.76	
2025-01-08 11:36:31.50	312.84	7.76	
2025-01-08 11:36:31.70	312.80	7.75	
2025-01-08 11:36:31.91	312.77	7.75	
2025-01-08 11:36:32.11	312.73	7.74	
2025-01-08 11:36:32.32	312.69	7.74	
2025-01-08 11:36:32.52	312.66	7.73	
2025-01-08 11:36:32.73	312.62	7.73	
2025-01-08 11:36:32.93	312.58	7.72	
2025-01-08 11:36:33.14	312.55	7.72	
2025-01-08 11:36:33.34	312.51	7.71	
2025-01-08 11:36:33.55	312.47	7.71	
2025-01-08 11:36:33.75	312.44	7.70	
2025-01-08 11:36:33.96	312.40	7.70	
2025-01-08 11:36:34.16	312.36	7.69	
2025-01-08 11:36:34.37	312.32	7.69	
2025-01-08 11:36:34.57	312.29	7.68	
2025-01-08 11:36:34.78	312.25	7.68	
2025-01-08 11:36:34.99	312.21	7.67	
2025-01-08 11:36:35.19	312.18	7.66	
2025-01-08 11:36:35.40	312.14	7.66	
2025-01-08 11:36:35.60	312.11	7.65	
2025-01-08 11:36:35.81	312.07	7.65	
2025-01-08 11:36:36.01	312.03	7.64	
2025-01-08 11:36:36.22	311.99	7.64	
2025-01-08 11:36:36.42	311.96	7.63	
2025-01-08 11:36:36.63	311.92	7.63	
2025-01-08 11:36:36.83	311.89	7.62	
2025-01-08 11:36:37.04	311.85	7.62	
2025-01-08 11:36:37.24	311.81	7.61	
2025-01-08 11:36:37.45	311.78	7.61	
2025-01-08 11:36:37.65	311.74	7.60	
2025-01-08 11:36:37.86	311.70	7.60	
2025-01-08 11:36:38.07	311.67	7.59	
2025-01-08 11:36:38.27	311.63	7.58	
2025-01-08 11:36:38.48	311.59	7.58	
2025-01-08 11:36:38.68	311.56	7.57	
2025-01-08 11:36:38.89	311.52	7.57	
2025-01-08 11:36:39.09	311.48	7.56	
2025-01-08 11:36:39.30	311.45	7.56	
2025-01-08 11:36:39.50	311.41	7.55	
2025-01-08 11:36:39.71	311.38	7.55	
2025-01-08 11:36:39.92	311.34	7.54	
2025-01-08 11:36:40.12	311.30	7.54	
2025-01-08 11:36:40.32	311.27	7.53	
2025-01-08 11:36:40.53	311.23	7.52	
2025-01-08 11:36:40.73	311.19	7.52	
2025-01-08 11:36:40.94	311.16	7.51	
2025-01-08 11:36:41.14	311.12	7.51	
2025-01-08 11:36:41.35	311.09	7.50	
2025-01-08 11:36:41.55	311.05	7.50	
2025-01-08 11:36:41.76	311.01	7.49	
2025-01-08 11:36:41.96	310.98	7.49	
2025-01-08 11:36:42.17	310.94	7.48	
2025-01-08 11:36:42.38	310.90	7.47	
2025-01-08 11:36:42.58	310.87	7.47	
2025-01-08 11:36:42.79	310.83	7.46	
2025-01-08 11:36:42.99	310.80	7.46	
2025-01-08 11:36:43.20	310.76	7.45	
2025-01-08 11:36:43.40	310.72	7.45	
2025-01-08 11:36:43.61	310.69	7.44	
2025-01-08 11:36:43.81	310.65	7.43	
2025-01-08 11:36:44.03	310.61	7.43	
2025-01-08 11:36:44.24	310.58	7.42	
2025-01-08 11:36:44.44	310.54	7.42	
2025-01-08 11:36:44.65	310.51	7.41	
2025-01-08 11:36:44.85	310.47	7.41	
2025-01-08 11:36:45.06	310.43	7.40	
2025-01-08 11:36:45.26	310.40	7.39	
2025-01-08 11:36:45.47	310.36	7.39	
2025-01-08 11:36:45.68	310.33	7.38	
2025-01-08 11:36:45.88	310.29	7.38	
2025-01-08 11:36:46.09	310.25	7.37	
2025-01-08 11:36:46.29	310.22	7.37	
2025-01-08 11:36:46.50	310.18	7.36	
2025-01-08 11:36:46.70	310.15	7.35	
2025-01-08 11:36:46.91	310.11	7.35	
2025-01-08 11:36:47.11	310.08	7.34	
2025-01-08 11:36:47.31	310.04	7.34	
2025-01-08 11:36:47.52	310.00	7.33	
2025-01-08 11:36:47.73	309.97	7.32	
2025-01-08 11:36:47.93	309.93	7.32	
2025-01-08 11:36:48.13	309.90	7.31	
2025-01-08 11:36:48.34	309.86	7.31	
2025-01-08 11:36:48.55	309.83	7.30	
2025-01-08 11:36:48.76	309.79	7.30	
2025-01-08 11:36:48.96	309.75	7.29	
2025-01-08 11:36:49.17	309.72	7.28	
2025-01-08 11:36:49.37	309.68	7.28	
2025-01-08 11:36:49.58	309.65	7.27	
2025-01-08 11:36:49.78	309.61	7.27	
2025-01-08 11:36:49.99	309.58	7.26	
2025-01-08 11:36:50.19	309.54	7.25	
2025-01-08 11:36:50.40	309.50	7.25	
2025-01-08 11:36:50.60	309.47	7.24	
2025-01-08 11:36:50.81	309.43	7.24	
2025-01-08 11:36:51.01	309.40	7.23	
2025-01-08 11:36:51.22	309.36	7.22	
2025-01-08 11:36:51.42	309.33	7.22	
2025-01-08 11:36:51.63	309.29	7.21	
2025-01-08 11:36:51.83	309.26	7.21	
2025-01-08 11:36:52.04	309.22	7.20	
2025-01-08 11:36:52.24	309.19	7.19	
2025-01-08 11:36:52.45	309.15	7.19	
2025-01-08 11:36:52.65	309.12	7.18	
2025-01-08 11:36:52.86	309.08	7.18	
2025-01-08 11:36:53.06	309.05	7.17	
2025-01-08 11:36:53.28	309.01	7.16	
2025-01-08 11:36:53.49	308.97	7.16	
2025-01-08 11:36:53.69	308.94	7.15	
2025-01-08 11:36:53.90	308.90	7.15	
2025-01-08 11:36:54.10	308.87	7.14	
2025-01-08 11:36:54.32	308.83	7.13	
2025-01-08 11:36:54.53	308.79	7.13	
2025-01-08 11:36:54.73	308.76	7.12	
2025-01-08 11:36:54.94	308.72	7.12	
2025-01-08 11:36:55.14	308.69	7.11	
2025-01-08 11:36:55.35	308.65	7.10	
2025-01-08 11:36:55.55	308.62	7.10	
2025-01-08 11:36:55.76	308.58	7.09	
2025-01-08 11:36:55.96	308.55	7.08	
2025-01-08 11:36:56.17	308.51	7.08	
2025-01-08 11:36:56.37	308.48	7.07	
2025-01-08 11:36:56.58	308.44	7.07	
2025-01-08 11:36:56.78	308.41	7.06	
2025-01-08 11:36:56.99	308.37	7.05	
2025-01-08 11:36:57.19	308.34	7.05	
2025-01-08 11:36:57.40	308.30	7.04	
2025-01-08 11:36:57.60	308.27	7.04	
2025-01-08 11:36:57.81	308.23	7.03	
2025-01-08 11:36:58.01	308.20	7.02	
2025-01-08 11:36:58.22	308.16	7.02	
2025-01-08 11:36:58.42	308.13	7.01	
2025-01-08 11:36:58.63	308.09	7.00	
2025-01-08 11:36:58.83	308.06	7.00	
2025-01-08 11:36:59.04	308.02	6.99	
2025-01-08 11:36:59.24	307.99	6.99	
2025-01-08 11:36:59.45	307.95	6.98	
2025-01-08 11:36:59.65	307.92	6.97	
2025-01-08 11:36:59.86	307.89	6.97	
2025-01-08 11:37:00.06	307.85	6.96	
2025-01-08 11:37:00.26	307.82	6.95	
2025-01-08 11:37:00.47	307.78	6.95	
2025-01-08 11:37:00.67	307.75	6.94	
2025-01-08 11:37:00.88	307.71	6.94	
2025-01-08 11:37:01.09	307.68	6.93	
2025-01-08 11:37:01.30	307.64	6.92	
2025-01-08 11:37:01.50	307.61	6.92	
2025-01-08 11:37:01.70	307.57	6.91	
2025-01-08 11:37:01.91	307.54	6.90	
2025-01-08 11:37:02.11	307.51	6.90	
2025-01-08 11:37:02.32	307.47	6.89	
2025-01-08 11:37:02.52	307.44	6.88	
2025-01-08 11:37:02.73	307.40	6.88	
2025-01-08 11:37:02.95	307.36	6.87	
2025-01-08 11:37:03.15	307.33	6.86	
2025-01-08 11:37:03.36	307.30	6.86	
2025-01-08 11:37:03.57	307.26	6.85	
2025-01-08 11:37:03.77	307.23	6.85	
2025-01-08 11:37:03.97	307.19	6.84	
2025-01-08 11:37:04.18	307.16	6.83	
2025-01-08 11:37:04.39	307.12	6.83	
2025-01-08 11:37:04.59	307.09	6.82	
2025-01-08 11:37:04.80	307.05	6.81	
2025-01-08 11:37:05.01	307.02	6.81	
2025-01-08 11:37:05.22	306.98	6.80	
2025-01-08 11:37:05.42	306.95	6.79	
2025-01-08 11:37:05.63	306.91	6.79	
2025-01-08 11:37:05.83	306.88	6.78	
2025-01-08 11:37:06.04	306.85	6.77	
2025-01-08 11:37:06.24	306.81	6.77	
2025-01-08 11:37:06.45	306.78	6.76	
2025-01-08 11:37:06.65	306.74	6.75	
2025-01-08 11:37:06.86	306.71	6.75	
2025-01-08 11:37:07.07	306.67	6.74	
2025-01-08 11:37:07.28	306.64	6.73	
2025-01-08 11:37:07.49	306.60	6.73	
2025-01-08 11:37:07.69	306.57	6.72	
2025-01-08 11:37:07.90	306.54	6.71	
2025-01-08 11:37:08.10	306.50	6.71	
2025-01-08 11:37:08.31	306.47	6.70	
2025-01-08 11:37:08.52	306.43	6.69	
2025-01-08 11:37:08.72	306.40	6.69	
2025-01-08 11:37:08.93	306.37	6.68	
2025-01-08 11:37:09.13	306.33	6.67	
2025-01-08 11:37:09.33	306.30	6.67	
2025-01-08 11:37:09.54	306.26	6.66	
2025-01-08 11:37:09.75	306.23	6.65	
2025-01-08 11:37:09.95	306.20	6.65	
2025-01-08 11:37:10.16	306.16	6.64	
2025-01-08 11:37:10.36	306.13	6.63	
2025-01-08 11:37:10.57	306.09	6.63	
2025-01-08 11:37:10.77	306.06	6.62	
2025-01-08 11:37:10.98	306.03	6.61	
2025-01-08 11:37:11.18	305.99	6.61	
2025-01-08 11:37:11.39	305.96	6.60	
2025-01-08 11:37:11.59	305.93	6.59	
2025-01-08 11:37:11.80	305.89	6.59	
2025-01-08 11:37:12.00	305.86	6.58	
2025-01-08 11:37:12.21	305.82	6.57	
2025-01-08 11:37:12.41	305.79	6.57	
2025-01-08 11:37:12.62	305.76	6.56	
2025-01-08 11:37:12.82	305.72	6.55	
2025-01-08 11:37:13.03	305.69	6.55	
2025-01-08 11:37:13.23	305.66	6.54	
2025-01-08 11:37:13.44	305.62	6.53	
2025-01-08 11:37:13.64	305.59	6.53	
2025-01-08 11:37:13.85	305.56	6.52	
2025-01-08 11:37:14.06	305.52	6.51	
2025-01-08 11:37:14.26	305.49	6.51	
2025-01-08 11:37:14.47	305.45	6.50	
2025-01-08 11:37:14.67	305.42	6.49	
2025-01-08 11:37:14.88	305.39	6.49	
2025-01-08 11:37:15.08	305.35	6.48	
2025-01-08 11:37:15.29	305.32	6.47	
2025-01-08 11:37:15.49	305.29	6.47	
2025-01-08 11:37:15.69	305.25	6.46	
2025-01-08 11:37:15.90	305.22	6.45	
2025-01-08 11:37:16.10	305.19	6.45	
2025-01-08 11:37:16.31	305.15	6.44	
2025-01-08 11:37:16.52	305.12	6.43	
2025-01-08 11:37:16.73	305.09	6.42	
2025-01-08 11:37:16.94	305.05	6.42	
2025-01-08 11:37:17.15	305.02	6.41	
2025-01-08 11:37:17.35	304.98	6.40	
2025-01-08 11:37:17.56	304.95	6.40	
2025-01-08 11:37:17.76	304.92	6.39	
2025-01-08 11:37:17.97	304.88	6.38	
2025-01-08 11:37:18.17	304.85	6.38	
2025-01-08 11:37:18.38	304.82	6.37	
2025-01-08 11:37:18.59	304.78	6.36	
2025-01-08 11:37:18.79	304.75	6.36	
2025-01-08 11:37:19.00	304.72	6.35	
2025-01-08 11:37:19.20	304.68	6.34	
2025-01-08 11:37:19.41	304.65	6.33	
2025-01-08 11:37:19.61	304.62	6.33	
2025-01-08 11:37:19.82	304.58	6.32	
2025-01-08 11:37:20.02	304.55	6.31	
2025-01-08 11:37:20.23	304.52	6.31	
2025-01-08 11:37:20.43	304.49	6.30	
2025-01-08 11:37:20.64	304.45	6.29	
2025-01-08 11:37:20.85	304.42	6.29	
2025-01-08 11:37:21.05	304.39	6.28	
2025-01-08 11:37:21.26	304.35	6.27	
2025-01-08 11:37:21.46	304.32	6.26	
2025-01-08 11:37:21.67	304.29	6.26	
2025-01-08 11:37:21.87	304.25	6.25	
2025-01-08 11:37:22.09	304.22	6.24	
2025-01-08 11:37:22.30	304.19	6.24	
2025-01-08 11:37:22.50	304.15	6.23	
2025-01-08 11:37:22.71	304.12	6.22	
2025-01-08 11:37:22.91	304.09	6.22	
2025-01-08 11:37:23.12	304.05	6.21	
