passes_logs/2025/01/08/SPB_Silybum_02/SPB_Silybum_02__20250108_003724_AQUA_rec.log

#Pass ID: 20250108_003724_AQUA
#Satellite: AQUA
#Configuration: AQUA
#Start time: 2025-01-08 00:37:25

#Version: 2.0.20230423
#Station: SPB_Silybum_02
#Location: 30.233357 lon 59.946436 lat
#TLE: 1 27424U 02022A   25007.20663841  .00002684  00000+0  56113-3 0  9997
#TLE: 2 27424  98.3577 323.8011 0001408 118.8980 354.1988 14.60651824206481

#Time	Az	El	Level	Level2	SNR	BER	Gain	Gain2
2025-01-08 00:37:27.30	21.26	4.16	
2025-01-08 00:37:27.51	21.26	4.18	
2025-01-08 00:37:27.71	21.27	4.19	
2025-01-08 00:37:27.92	21.28	4.20	
2025-01-08 00:37:28.13	21.29	4.22	
2025-01-08 00:37:28.33	21.30	4.23	
2025-01-08 00:37:28.54	21.31	4.25	
2025-01-08 00:37:28.74	21.32	4.26	
2025-01-08 00:37:28.95	21.33	4.28	
2025-01-08 00:37:29.15	21.34	4.29	
2025-01-08 00:37:29.36	21.34	4.30	
2025-01-08 00:37:29.57	21.35	4.32	
2025-01-08 00:37:29.77	21.36	4.33	
2025-01-08 00:37:29.98	21.37	4.35	
2025-01-08 00:37:30.18	21.38	4.36	
2025-01-08 00:37:30.39	21.39	4.38	
2025-01-08 00:37:30.59	21.40	4.39	
2025-01-08 00:37:30.80	21.41	4.40	
2025-01-08 00:37:31.00	21.42	4.42	
2025-01-08 00:37:31.21	21.43	4.43	
2025-01-08 00:37:31.41	21.43	4.45	
2025-01-08 00:37:31.62	21.44	4.46	
2025-01-08 00:37:31.83	21.45	4.48	
2025-01-08 00:37:32.03	21.46	4.49	
2025-01-08 00:37:32.23	21.47	4.51	
2025-01-08 00:37:32.44	21.48	4.52	
2025-01-08 00:37:32.65	21.49	4.53	
2025-01-08 00:37:32.85	21.50	4.55	
2025-01-08 00:37:33.05	21.51	4.56	
2025-01-08 00:37:33.26	21.52	4.58	
2025-01-08 00:37:33.46	21.52	4.59	
2025-01-08 00:37:33.67	21.53	4.61	
2025-01-08 00:37:33.87	21.54	4.62	
2025-01-08 00:37:34.08	21.55	4.64	
2025-01-08 00:37:34.28	21.56	4.65	
2025-01-08 00:37:34.49	21.57	4.66	
2025-01-08 00:37:34.70	21.58	4.68	
2025-01-08 00:37:34.90	21.59	4.69	
2025-01-08 00:37:35.11	21.60	4.71	
2025-01-08 00:37:35.31	21.61	4.72	
2025-01-08 00:37:35.52	21.62	4.74	
2025-01-08 00:37:35.72	21.62	4.75	
2025-01-08 00:37:35.93	21.63	4.77	
2025-01-08 00:37:36.13	21.64	4.78	
2025-01-08 00:37:36.34	21.65	4.80	
2025-01-08 00:37:36.54	21.66	4.81	
2025-01-08 00:37:36.74	21.67	4.82	
2025-01-08 00:37:36.95	21.68	4.84	
2025-01-08 00:37:37.16	21.69	4.85	
2025-01-08 00:37:37.36	21.70	4.87	
2025-01-08 00:37:37.57	21.71	4.88	
2025-01-08 00:37:37.77	21.72	4.90	
2025-01-08 00:37:37.98	21.73	4.91	
2025-01-08 00:37:38.18	21.74	4.93	
2025-01-08 00:37:38.39	21.74	4.94	
2025-01-08 00:37:38.59	21.75	4.96	
2025-01-08 00:37:38.80	21.76	4.97	
2025-01-08 00:37:39.00	21.77	4.99	
2025-01-08 00:37:39.21	21.78	5.00	
2025-01-08 00:37:39.41	21.79	5.02	
2025-01-08 00:37:39.62	21.80	5.03	
2025-01-08 00:37:39.82	21.81	5.04	
2025-01-08 00:37:40.03	21.82	5.06	
2025-01-08 00:37:40.23	21.83	5.07	
2025-01-08 00:37:40.44	21.84	5.09	
2025-01-08 00:37:40.64	21.85	5.10	
2025-01-08 00:37:40.85	21.86	5.12	
2025-01-08 00:37:41.06	21.87	5.13	
2025-01-08 00:37:41.26	21.88	5.15	
2025-01-08 00:37:41.47	21.88	5.16	
2025-01-08 00:37:41.67	21.89	5.18	
2025-01-08 00:37:41.88	21.90	5.19	
2025-01-08 00:37:42.08	21.91	5.21	
2025-01-08 00:37:42.28	21.92	5.22	
2025-01-08 00:37:42.49	21.93	5.24	
2025-01-08 00:37:42.69	21.94	5.25	
2025-01-08 00:37:42.90	21.95	5.27	
2025-01-08 00:37:43.11	21.96	5.28	
2025-01-08 00:37:43.31	21.97	5.30	
2025-01-08 00:37:43.52	21.98	5.31	
2025-01-08 00:37:43.72	21.99	5.33	
2025-01-08 00:37:43.93	22.00	5.34	
2025-01-08 00:37:44.13	22.01	5.36	
2025-01-08 00:37:44.34	22.02	5.37	
2025-01-08 00:37:44.55	22.03	5.39	
2025-01-08 00:37:44.75	22.04	5.40	
2025-01-08 00:37:44.95	22.05	5.42	
2025-01-08 00:37:45.16	22.06	5.43	
2025-01-08 00:37:45.37	22.07	5.45	
2025-01-08 00:37:45.57	22.07	5.46	
2025-01-08 00:37:45.78	22.08	5.48	
2025-01-08 00:37:45.98	22.09	5.49	
2025-01-08 00:37:46.18	22.10	5.51	
2025-01-08 00:37:46.39	22.11	5.52	
2025-01-08 00:37:46.59	22.12	5.54	
2025-01-08 00:37:46.80	22.13	5.55	
2025-01-08 00:37:47.00	22.14	5.57	
2025-01-08 00:37:47.21	22.15	5.58	
2025-01-08 00:37:47.41	22.16	5.60	
2025-01-08 00:37:47.62	22.17	5.61	
2025-01-08 00:37:47.82	22.18	5.63	
2025-01-08 00:37:48.03	22.19	5.64	
2025-01-08 00:37:48.23	22.20	5.66	
2025-01-08 00:37:48.44	22.21	5.67	
2025-01-08 00:37:48.64	22.22	5.69	
2025-01-08 00:37:48.85	22.23	5.70	
2025-01-08 00:37:49.05	22.24	5.72	
2025-01-08 00:37:49.26	22.25	5.73	
2025-01-08 00:37:49.46	22.26	5.75	
2025-01-08 00:37:49.67	22.27	5.76	
2025-01-08 00:37:49.87	22.28	5.78	
2025-01-08 00:37:50.08	22.29	5.79	
2025-01-08 00:37:50.28	22.30	5.81	
2025-01-08 00:37:50.49	22.31	5.82	
2025-01-08 00:37:50.70	22.32	5.84	
2025-01-08 00:37:50.90	22.33	5.85	
2025-01-08 00:37:51.11	22.34	5.87	
2025-01-08 00:37:51.32	22.35	5.88	
2025-01-08 00:37:51.53	22.36	5.90	
2025-01-08 00:37:51.74	22.37	5.92	
2025-01-08 00:37:51.94	22.38	5.93	
2025-01-08 00:37:52.15	22.39	5.95	
2025-01-08 00:37:52.35	22.40	5.96	
2025-01-08 00:37:52.56	22.41	5.98	
2025-01-08 00:37:52.76	22.42	5.99	
2025-01-08 00:37:52.97	22.43	6.01	
2025-01-08 00:37:53.17	22.44	6.02	
2025-01-08 00:37:53.38	22.45	6.04	
2025-01-08 00:37:53.59	22.46	6.05	
2025-01-08 00:37:53.79	22.47	6.07	
2025-01-08 00:37:54.00	22.48	6.08	
2025-01-08 00:37:54.20	22.49	6.10	
2025-01-08 00:37:54.41	22.50	6.12	
2025-01-08 00:37:54.61	22.51	6.13	
2025-01-08 00:37:54.82	22.52	6.15	
2025-01-08 00:37:55.02	22.53	6.16	
2025-01-08 00:37:55.23	22.54	6.18	
2025-01-08 00:37:55.44	22.55	6.19	
2025-01-08 00:37:55.64	22.56	6.21	
2025-01-08 00:37:55.85	22.57	6.22	
2025-01-08 00:37:56.05	22.58	6.24	
2025-01-08 00:37:56.26	22.59	6.25	
2025-01-08 00:37:56.47	22.60	6.27	
2025-01-08 00:37:56.67	22.61	6.29	
2025-01-08 00:37:56.88	22.62	6.30	
2025-01-08 00:37:57.08	22.63	6.32	
2025-01-08 00:37:57.29	22.64	6.33	
2025-01-08 00:37:57.49	22.65	6.35	
2025-01-08 00:37:57.71	22.66	6.36	
2025-01-08 00:37:57.92	22.67	6.38	
2025-01-08 00:37:58.12	22.68	6.40	
2025-01-08 00:37:58.33	22.69	6.41	
2025-01-08 00:37:58.53	22.70	6.43	
2025-01-08 00:37:58.74	22.71	6.44	
2025-01-08 00:37:58.94	22.72	6.46	
2025-01-08 00:37:59.15	22.73	6.47	
2025-01-08 00:37:59.36	22.74	6.49	
2025-01-08 00:37:59.56	22.75	6.50	
2025-01-08 00:37:59.76	22.76	6.52	
2025-01-08 00:37:59.97	22.77	6.54	
2025-01-08 00:38:00.18	22.78	6.55	
2025-01-08 00:38:00.38	22.79	6.57	
2025-01-08 00:38:00.59	22.81	6.58	
2025-01-08 00:38:00.79	22.82	6.60	
2025-01-08 00:38:01.00	22.83	6.61	
2025-01-08 00:38:01.20	22.84	6.63	
2025-01-08 00:38:01.41	22.85	6.65	
2025-01-08 00:38:01.61	22.86	6.66	
2025-01-08 00:38:01.82	22.87	6.68	
2025-01-08 00:38:02.02	22.88	6.69	
2025-01-08 00:38:02.23	22.89	6.71	
2025-01-08 00:38:02.43	22.90	6.72	
2025-01-08 00:38:02.64	22.91	6.74	
2025-01-08 00:38:02.84	22.92	6.76	
2025-01-08 00:38:03.05	22.93	6.77	
2025-01-08 00:38:03.25	22.94	6.79	
2025-01-08 00:38:03.46	22.95	6.80	
2025-01-08 00:38:03.67	22.96	6.82	
2025-01-08 00:38:03.87	22.97	6.83	
2025-01-08 00:38:04.09	22.98	6.85	
2025-01-08 00:38:04.30	22.99	6.87	
2025-01-08 00:38:04.50	23.01	6.88	
2025-01-08 00:38:04.71	23.02	6.90	
2025-01-08 00:38:04.91	23.03	6.92	
2025-01-08 00:38:05.12	23.04	6.93	
2025-01-08 00:38:05.32	23.05	6.95	
2025-01-08 00:38:05.53	23.06	6.96	
2025-01-08 00:38:05.73	23.07	6.98	
2025-01-08 00:38:05.94	23.08	7.00	
2025-01-08 00:38:06.14	23.09	7.01	
2025-01-08 00:38:06.35	23.10	7.03	
2025-01-08 00:38:06.55	23.11	7.04	
2025-01-08 00:38:06.76	23.12	7.06	
2025-01-08 00:38:06.97	23.13	7.08	
2025-01-08 00:38:07.17	23.14	7.09	
2025-01-08 00:38:07.38	23.15	7.11	
2025-01-08 00:38:07.58	23.17	7.12	
2025-01-08 00:38:07.79	23.18	7.14	
2025-01-08 00:38:07.99	23.19	7.16	
2025-01-08 00:38:08.20	23.20	7.17	
2025-01-08 00:38:08.40	23.21	7.19	
2025-01-08 00:38:08.61	23.22	7.20	
2025-01-08 00:38:08.81	23.23	7.22	
2025-01-08 00:38:09.02	23.24	7.24	
2025-01-08 00:38:09.23	23.25	7.25	
2025-01-08 00:38:09.43	23.26	7.27	
2025-01-08 00:38:09.64	23.27	7.28	
2025-01-08 00:38:09.84	23.28	7.30	
2025-01-08 00:38:10.05	23.30	7.32	
2025-01-08 00:38:10.26	23.31	7.33	
2025-01-08 00:38:10.46	23.32	7.35	
2025-01-08 00:38:10.66	23.33	7.36	
2025-01-08 00:38:10.87	23.34	7.38	
2025-01-08 00:38:11.07	23.35	7.40	
2025-01-08 00:38:11.28	23.36	7.41	
2025-01-08 00:38:11.48	23.37	7.43	
2025-01-08 00:38:11.69	23.38	7.45	
2025-01-08 00:38:11.89	23.39	7.46	
2025-01-08 00:38:12.10	23.41	7.48	
2025-01-08 00:38:12.30	23.42	7.49	
2025-01-08 00:38:12.51	23.43	7.51	
2025-01-08 00:38:12.71	23.44	7.53	
2025-01-08 00:38:12.92	23.45	7.54	
2025-01-08 00:38:13.12	23.46	7.56	
2025-01-08 00:38:13.33	23.47	7.58	
2025-01-08 00:38:13.53	23.48	7.59	
2025-01-08 00:38:13.74	23.49	7.61	
2025-01-08 00:38:13.94	23.50	7.62	
2025-01-08 00:38:14.15	23.52	7.64	
2025-01-08 00:38:14.35	23.53	7.66	
2025-01-08 00:38:14.56	23.54	7.67	
2025-01-08 00:38:14.76	23.55	7.69	
2025-01-08 00:38:14.97	23.56	7.71	
2025-01-08 00:38:15.17	23.57	7.72	
2025-01-08 00:38:15.38	23.58	7.74	
2025-01-08 00:38:15.59	23.59	7.76	
2025-01-08 00:38:15.79	23.61	7.77	
2025-01-08 00:38:16.00	23.62	7.79	
2025-01-08 00:38:16.20	23.63	7.81	
2025-01-08 00:38:16.40	23.64	7.82	
2025-01-08 00:38:16.61	23.65	7.84	
2025-01-08 00:38:16.81	23.66	7.85	
2025-01-08 00:38:17.02	23.67	7.87	
2025-01-08 00:38:17.22	23.68	7.89	
2025-01-08 00:38:17.43	23.70	7.90	
2025-01-08 00:38:17.64	23.71	7.92	
2025-01-08 00:38:17.84	23.72	7.94	
2025-01-08 00:38:18.05	23.73	7.95	
2025-01-08 00:38:18.25	23.74	7.97	
2025-01-08 00:38:18.46	23.75	7.99	
2025-01-08 00:38:18.66	23.76	8.00	
2025-01-08 00:38:18.87	23.78	8.02	
2025-01-08 00:38:19.07	23.79	8.04	
2025-01-08 00:38:19.28	23.80	8.05	
2025-01-08 00:38:19.49	23.81	8.07	
2025-01-08 00:38:19.69	23.82	8.09	
2025-01-08 00:38:19.90	23.83	8.10	
2025-01-08 00:38:20.10	23.84	8.12	
2025-01-08 00:38:20.31	23.86	8.14	
2025-01-08 00:38:20.51	23.87	8.15	
2025-01-08 00:38:20.72	23.88	8.17	
2025-01-08 00:38:20.93	23.89	8.19	
2025-01-08 00:38:21.13	23.90	8.20	
2025-01-08 00:38:21.34	23.91	8.22	
2025-01-08 00:38:21.54	23.93	8.24	
2025-01-08 00:38:21.75	23.94	8.26	
2025-01-08 00:38:21.95	23.95	8.27	
2025-01-08 00:38:22.16	23.96	8.29	
2025-01-08 00:38:22.36	23.97	8.31	
2025-01-08 00:38:22.57	23.98	8.32	
2025-01-08 00:38:22.78	24.00	8.34	
2025-01-08 00:38:22.98	24.01	8.36	
2025-01-08 00:38:23.18	24.02	8.37	
2025-01-08 00:38:23.39	24.03	8.39	
2025-01-08 00:38:23.59	24.04	8.41	
2025-01-08 00:38:23.80	24.05	8.42	
2025-01-08 00:38:24.00	24.07	8.44	
2025-01-08 00:38:24.21	24.08	8.46	
2025-01-08 00:38:24.41	24.09	8.47	
2025-01-08 00:38:24.62	24.10	8.49	
2025-01-08 00:38:24.83	24.11	8.51	
2025-01-08 00:38:25.03	24.12	8.53	
2025-01-08 00:38:25.24	24.14	8.54	
2025-01-08 00:38:25.44	24.15	8.56	
2025-01-08 00:38:25.65	24.16	8.58	
2025-01-08 00:38:25.85	24.17	8.59	
2025-01-08 00:38:26.06	24.18	8.61	
2025-01-08 00:38:26.26	24.20	8.63	
2025-01-08 00:38:26.48	24.21	8.65	
2025-01-08 00:38:26.69	24.22	8.66	
2025-01-08 00:38:26.89	24.23	8.68	
2025-01-08 00:38:27.10	24.24	8.70	
2025-01-08 00:38:27.30	24.26	8.71	
2025-01-08 00:38:27.51	24.27	8.73	
2025-01-08 00:38:27.71	24.28	8.75	
2025-01-08 00:38:27.92	24.29	8.77	
2025-01-08 00:38:28.12	24.30	8.78	
2025-01-08 00:38:28.33	24.32	8.80	
2025-01-08 00:38:28.54	24.33	8.82	
2025-01-08 00:38:28.75	24.34	8.83	
2025-01-08 00:38:28.95	24.35	8.85	
2025-01-08 00:38:29.16	24.37	8.87	
2025-01-08 00:38:29.36	24.38	8.89	
2025-01-08 00:38:29.57	24.39	8.90	
2025-01-08 00:38:29.77	24.40	8.92	
2025-01-08 00:38:29.98	24.41	8.94	
2025-01-08 00:38:30.18	24.43	8.95	
2025-01-08 00:38:30.39	24.44	8.97	
2025-01-08 00:38:30.60	24.45	8.99	
2025-01-08 00:38:30.80	24.46	9.01	
2025-01-08 00:38:31.01	24.48	9.02	
2025-01-08 00:38:31.21	24.49	9.04	
2025-01-08 00:38:31.42	24.50	9.06	
2025-01-08 00:38:31.62	24.51	9.08	
2025-01-08 00:38:31.83	24.52	9.09	
2025-01-08 00:38:32.03	24.54	9.11	
2025-01-08 00:38:32.24	24.55	9.13	
2025-01-08 00:38:32.44	24.56	9.15	
2025-01-08 00:38:32.65	24.57	9.16	
2025-01-08 00:38:32.85	24.59	9.18	
2025-01-08 00:38:33.06	24.60	9.20	
2025-01-08 00:38:33.26	24.61	9.22	
2025-01-08 00:38:33.47	24.62	9.23	
2025-01-08 00:38:33.68	24.64	9.25	
2025-01-08 00:38:33.88	24.65	9.27	
2025-01-08 00:38:34.08	24.66	9.29	
2025-01-08 00:38:34.29	24.67	9.30	
2025-01-08 00:38:34.49	24.69	9.32	
2025-01-08 00:38:34.70	24.70	9.34	
2025-01-08 00:38:34.91	24.71	9.36	
2025-01-08 00:38:35.11	24.72	9.37	
2025-01-08 00:38:35.32	24.74	9.39	
2025-01-08 00:38:35.52	24.75	9.41	
2025-01-08 00:38:35.73	24.76	9.43	
2025-01-08 00:38:35.93	24.77	9.44	
2025-01-08 00:38:36.15	24.79	9.46	
2025-01-08 00:38:36.35	24.80	9.48	
2025-01-08 00:38:36.56	24.81	9.50	
2025-01-08 00:38:36.76	24.82	9.52	
2025-01-08 00:38:36.97	24.84	9.53	
2025-01-08 00:38:37.17	24.85	9.55	
2025-01-08 00:38:37.38	24.86	9.57	
2025-01-08 00:38:37.58	24.88	9.59	
2025-01-08 00:38:37.79	24.89	9.60	
2025-01-08 00:38:38.00	24.90	9.62	
2025-01-08 00:38:38.20	24.91	9.64	
2025-01-08 00:38:38.41	24.93	9.66	
2025-01-08 00:38:38.61	24.94	9.68	
2025-01-08 00:38:38.82	24.95	9.69	
2025-01-08 00:38:39.02	24.97	9.71	
2025-01-08 00:38:39.23	24.98	9.73	
2025-01-08 00:38:39.43	24.99	9.75	
2025-01-08 00:38:39.64	25.00	9.76	
2025-01-08 00:38:39.85	25.02	9.78	
2025-01-08 00:38:40.05	25.03	9.80	
2025-01-08 00:38:40.26	25.04	9.82	
2025-01-08 00:38:40.46	25.06	9.84	
2025-01-08 00:38:40.67	25.07	9.85	
2025-01-08 00:38:40.88	25.08	9.87	
2025-01-08 00:38:41.08	25.09	9.89	
2025-01-08 00:38:41.29	25.11	9.91	
2025-01-08 00:38:41.49	25.12	9.93	
2025-01-08 00:38:41.70	25.13	9.94	
2025-01-08 00:38:41.90	25.15	9.96	
2025-01-08 00:38:42.11	25.16	9.98	
2025-01-08 00:38:42.31	25.17	10.00	
2025-01-08 00:38:42.52	25.19	10.02	
2025-01-08 00:38:42.72	25.20	10.03	
2025-01-08 00:38:42.93	25.21	10.05	
2025-01-08 00:38:43.13	25.23	10.07	
2025-01-08 00:38:43.34	25.24	10.09	
2025-01-08 00:38:43.54	25.25	10.11	
2025-01-08 00:38:43.75	25.27	10.13	
2025-01-08 00:38:43.95	25.28	10.14	
2025-01-08 00:38:44.16	25.29	10.16	
2025-01-08 00:38:44.36	25.30	10.18	
2025-01-08 00:38:44.57	25.32	10.20	
2025-01-08 00:38:44.77	25.33	10.22	
2025-01-08 00:38:44.98	25.34	10.23	
2025-01-08 00:38:45.18	25.36	10.25	
2025-01-08 00:38:45.39	25.37	10.27	
2025-01-08 00:38:45.59	25.38	10.29	
2025-01-08 00:38:45.80	25.40	10.31	
2025-01-08 00:38:46.00	25.41	10.33	
2025-01-08 00:38:46.21	25.42	10.34	
2025-01-08 00:38:46.42	25.44	10.36	
2025-01-08 00:38:46.62	25.45	10.38	
2025-01-08 00:38:46.82	25.46	10.40	
2025-01-08 00:38:47.03	25.48	10.42	
2025-01-08 00:38:47.24	25.49	10.44	
2025-01-08 00:38:47.44	25.51	10.45	
2025-01-08 00:38:47.65	25.52	10.47	
2025-01-08 00:38:47.86	25.53	10.49	
2025-01-08 00:38:48.07	25.55	10.51	
2025-01-08 00:38:48.28	25.56	10.53	
2025-01-08 00:38:48.48	25.57	10.55	
2025-01-08 00:38:48.69	25.59	10.57	
2025-01-08 00:38:48.89	25.60	10.58	
2025-01-08 00:38:49.09	25.61	10.60	
2025-01-08 00:38:49.30	25.63	10.62	
2025-01-08 00:38:49.51	25.64	10.64	
2025-01-08 00:38:49.71	25.66	10.66	
2025-01-08 00:38:49.92	25.67	10.68	
2025-01-08 00:38:50.12	25.68	10.70	
2025-01-08 00:38:50.33	25.70	10.71	
2025-01-08 00:38:50.53	25.71	10.73	
2025-01-08 00:38:50.74	25.72	10.75	
2025-01-08 00:38:50.94	25.74	10.77	
2025-01-08 00:38:51.15	25.75	10.79	
2025-01-08 00:38:51.36	25.77	10.81	
2025-01-08 00:38:51.56	25.78	10.83	
2025-01-08 00:38:51.77	25.79	10.84	
2025-01-08 00:38:51.97	25.81	10.86	
2025-01-08 00:38:52.17	25.82	10.88	
2025-01-08 00:38:52.38	25.84	10.90	
2025-01-08 00:38:52.59	25.85	10.92	
2025-01-08 00:38:52.79	25.86	10.94	
2025-01-08 00:38:53.00	25.88	10.96	
2025-01-08 00:38:53.20	25.89	10.98	
2025-01-08 00:38:53.41	25.91	10.99	
2025-01-08 00:38:53.62	25.92	11.01	
2025-01-08 00:38:53.82	25.93	11.03	
2025-01-08 00:38:54.03	25.95	11.05	
2025-01-08 00:38:54.23	25.96	11.07	
2025-01-08 00:38:54.43	25.98	11.09	
2025-01-08 00:38:54.64	25.99	11.11	
2025-01-08 00:38:54.85	26.00	11.13	
2025-01-08 00:38:55.05	26.02	11.15	
2025-01-08 00:38:55.25	26.03	11.16	
2025-01-08 00:38:55.46	26.05	11.18	
2025-01-08 00:38:55.67	26.06	11.20	
2025-01-08 00:38:55.87	26.08	11.22	
2025-01-08 00:38:56.08	26.09	11.24	
2025-01-08 00:38:56.28	26.10	11.26	
2025-01-08 00:38:56.48	26.12	11.28	
2025-01-08 00:38:56.69	26.13	11.30	
2025-01-08 00:38:56.90	26.15	11.32	
2025-01-08 00:38:57.10	26.16	11.34	
2025-01-08 00:38:57.31	26.18	11.35	
2025-01-08 00:38:57.52	26.19	11.37	
2025-01-08 00:38:57.73	26.21	11.39	
2025-01-08 00:38:57.94	26.22	11.41	
2025-01-08 00:38:58.14	26.23	11.43	
2025-01-08 00:38:58.35	26.25	11.45	
2025-01-08 00:38:58.57	26.26	11.47	
2025-01-08 00:38:58.77	26.28	11.49	
2025-01-08 00:38:58.98	26.29	11.51	
2025-01-08 00:38:59.18	26.31	11.53	
2025-01-08 00:38:59.39	26.32	11.55	
2025-01-08 00:38:59.59	26.34	11.57	
2025-01-08 00:38:59.79	26.35	11.59	
2025-01-08 00:39:00.00	26.37	11.61	
2025-01-08 00:39:00.20	26.38	11.63	
2025-01-08 00:39:00.41	26.39	11.64	
2025-01-08 00:39:00.61	26.41	11.66	
2025-01-08 00:39:00.82	26.42	11.68	
2025-01-08 00:39:01.02	26.44	11.70	
2025-01-08 00:39:01.23	26.45	11.72	
2025-01-08 00:39:01.43	26.47	11.74	
2025-01-08 00:39:01.64	26.48	11.76	
2025-01-08 00:39:01.84	26.50	11.78	
2025-01-08 00:39:02.05	26.51	11.80	
2025-01-08 00:39:02.25	26.53	11.82	
2025-01-08 00:39:02.46	26.54	11.84	
2025-01-08 00:39:02.66	26.56	11.86	
2025-01-08 00:39:02.87	26.57	11.88	
2025-01-08 00:39:03.07	26.59	11.90	
2025-01-08 00:39:03.28	26.60	11.92	
2025-01-08 00:39:03.48	26.62	11.94	
2025-01-08 00:39:03.69	26.63	11.96	
2025-01-08 00:39:03.89	26.65	11.97	
2025-01-08 00:39:04.10	26.66	11.99	
2025-01-08 00:39:04.30	26.68	12.01	
2025-01-08 00:39:04.51	26.69	12.03	
2025-01-08 00:39:04.72	26.71	12.05	
2025-01-08 00:39:04.92	26.72	12.07	
2025-01-08 00:39:05.12	26.74	12.09	
2025-01-08 00:39:05.33	26.75	12.11	
2025-01-08 00:39:05.54	26.77	12.13	
2025-01-08 00:39:05.74	26.78	12.15	
2025-01-08 00:39:05.95	26.80	12.17	
2025-01-08 00:39:06.15	26.81	12.19	
2025-01-08 00:39:06.36	26.83	12.21	
2025-01-08 00:39:06.56	26.84	12.23	
2025-01-08 00:39:06.77	26.86	12.25	
2025-01-08 00:39:06.97	26.87	12.27	
2025-01-08 00:39:07.18	26.89	12.29	
2025-01-08 00:39:07.38	26.90	12.31	
2025-01-08 00:39:07.59	26.92	12.33	
2025-01-08 00:39:07.79	26.94	12.35	
2025-01-08 00:39:08.00	26.95	12.37	
2025-01-08 00:39:08.20	26.97	12.39	
2025-01-08 00:39:08.41	26.98	12.41	
2025-01-08 00:39:08.61	27.00	12.43	
2025-01-08 00:39:08.82	27.01	12.45	
2025-01-08 00:39:09.02	27.03	12.47	
2025-01-08 00:39:09.23	27.04	12.49	
2025-01-08 00:39:09.43	27.06	12.51	
2025-01-08 00:39:09.64	27.07	12.53	
2025-01-08 00:39:09.84	27.09	12.55	
2025-01-08 00:39:10.05	27.11	12.57	
2025-01-08 00:39:10.27	27.12	12.59	
2025-01-08 00:39:10.47	27.14	12.61	
2025-01-08 00:39:10.68	27.15	12.63	
2025-01-08 00:39:10.88	27.17	12.65	
2025-01-08 00:39:11.09	27.19	12.67	
2025-01-08 00:39:11.29	27.20	12.69	
2025-01-08 00:39:11.50	27.22	12.71	
2025-01-08 00:39:11.70	27.23	12.73	
2025-01-08 00:39:11.91	27.25	12.75	
2025-01-08 00:39:12.11	27.26	12.77	
2025-01-08 00:39:12.32	27.28	12.79	
2025-01-08 00:39:12.52	27.30	12.81	
2025-01-08 00:39:12.73	27.31	12.83	
2025-01-08 00:39:12.94	27.33	12.85	
2025-01-08 00:39:13.14	27.34	12.87	
2025-01-08 00:39:13.34	27.36	12.89	
2025-01-08 00:39:13.55	27.38	12.91	
2025-01-08 00:39:13.75	27.39	12.93	
2025-01-08 00:39:13.96	27.41	12.96	
2025-01-08 00:39:14.16	27.42	12.98	
2025-01-08 00:39:14.37	27.44	13.00	
2025-01-08 00:39:14.57	27.46	13.02	
2025-01-08 00:39:14.78	27.47	13.04	
2025-01-08 00:39:14.98	27.49	13.06	
2025-01-08 00:39:15.19	27.50	13.08	
2025-01-08 00:39:15.39	27.52	13.10	
2025-01-08 00:39:15.60	27.54	13.12	
2025-01-08 00:39:15.80	27.55	13.14	
2025-01-08 00:39:16.01	27.57	13.16	
2025-01-08 00:39:16.22	27.59	13.18	
2025-01-08 00:39:16.42	27.60	13.20	
2025-01-08 00:39:16.63	27.62	13.22	
2025-01-08 00:39:16.83	27.63	13.24	
2025-01-08 00:39:17.04	27.65	13.26	
2025-01-08 00:39:17.24	27.67	13.28	
2025-01-08 00:39:17.45	27.68	13.30	
2025-01-08 00:39:17.65	27.70	13.32	
2025-01-08 00:39:17.86	27.72	13.35	
2025-01-08 00:39:18.06	27.73	13.37	
2025-01-08 00:39:18.27	27.75	13.39	
2025-01-08 00:39:18.48	27.77	13.41	
2025-01-08 00:39:18.68	27.78	13.43	
2025-01-08 00:39:18.89	27.80	13.45	
2025-01-08 00:39:19.09	27.82	13.47	
2025-01-08 00:39:19.30	27.83	13.49	
2025-01-08 00:39:19.50	27.85	13.51	
2025-01-08 00:39:19.71	27.87	13.53	
2025-01-08 00:39:19.91	27.88	13.55	
2025-01-08 00:39:20.12	27.90	13.58	
2025-01-08 00:39:20.32	27.92	13.60	
2025-01-08 00:39:20.53	27.93	13.62	
2025-01-08 00:39:20.74	27.95	13.64	
2025-01-08 00:39:20.94	27.97	13.66	
2025-01-08 00:39:21.15	27.98	13.68	
2025-01-08 00:39:21.35	28.00	13.70	
2025-01-08 00:39:21.56	28.02	13.72	
2025-01-08 00:39:21.76	28.03	13.74	
2025-01-08 00:39:21.97	28.05	13.76	
2025-01-08 00:39:22.17	28.07	13.79	
2025-01-08 00:39:22.38	28.08	13.81	
2025-01-08 00:39:22.58	28.10	13.83	
2025-01-08 00:39:22.79	28.12	13.85	
2025-01-08 00:39:22.99	28.14	13.87	
2025-01-08 00:39:23.20	28.15	13.89	
2025-01-08 00:39:23.40	28.17	13.91	
2025-01-08 00:39:23.61	28.19	13.93	
2025-01-08 00:39:23.81	28.20	13.95	
2025-01-08 00:39:24.02	28.22	13.98	
2025-01-08 00:39:24.22	28.24	14.00	
2025-01-08 00:39:24.43	28.26	14.02	
2025-01-08 00:39:24.63	28.27	14.04	
2025-01-08 00:39:24.84	28.29	14.06	
2025-01-08 00:39:25.04	28.31	14.08	
2025-01-08 00:39:25.26	28.33	14.11	
2025-01-08 00:39:25.46	28.34	14.13	
2025-01-08 00:39:25.67	28.36	14.15	
2025-01-08 00:39:25.88	28.38	14.17	
2025-01-08 00:39:26.08	28.40	14.19	
2025-01-08 00:39:26.29	28.41	14.21	
2025-01-08 00:39:26.49	28.43	14.23	
2025-01-08 00:39:26.70	28.45	14.26	
2025-01-08 00:39:26.91	28.47	14.28	
2025-01-08 00:39:27.11	28.48	14.30	
2025-01-08 00:39:27.31	28.50	14.32	
2025-01-08 00:39:27.52	28.52	14.34	
2025-01-08 00:39:27.72	28.54	14.36	
2025-01-08 00:39:27.93	28.55	14.38	
2025-01-08 00:39:28.13	28.57	14.41	
2025-01-08 00:39:28.34	28.59	14.43	
2025-01-08 00:39:28.54	28.61	14.45	
2025-01-08 00:39:28.75	28.62	14.47	
2025-01-08 00:39:28.95	28.64	14.49	
2025-01-08 00:39:29.16	28.66	14.51	
2025-01-08 00:39:29.36	28.68	14.54	
2025-01-08 00:39:29.57	28.70	14.56	
2025-01-08 00:39:29.78	28.71	14.58	
2025-01-08 00:39:29.98	28.73	14.60	
2025-01-08 00:39:30.19	28.75	14.62	
2025-01-08 00:39:30.39	28.77	14.65	
2025-01-08 00:39:30.60	28.79	14.67	
2025-01-08 00:39:30.80	28.80	14.69	
2025-01-08 00:39:31.01	28.82	14.71	
2025-01-08 00:39:31.22	28.84	14.73	
2025-01-08 00:39:31.42	28.86	14.76	
2025-01-08 00:39:31.64	28.88	14.78	
2025-01-08 00:39:31.85	28.90	14.80	
2025-01-08 00:39:32.05	28.91	14.82	
2025-01-08 00:39:32.26	28.93	14.85	
2025-01-08 00:39:32.46	28.95	14.87	
2025-01-08 00:39:32.67	28.97	14.89	
2025-01-08 00:39:32.87	28.99	14.91	
2025-01-08 00:39:33.08	29.01	14.93	
2025-01-08 00:39:33.28	29.02	14.96	
2025-01-08 00:39:33.49	29.04	14.98	
2025-01-08 00:39:33.69	29.06	15.00	
2025-01-08 00:39:33.89	29.08	15.02	
2025-01-08 00:39:34.10	29.10	15.04	
2025-01-08 00:39:34.30	29.12	15.07	
2025-01-08 00:39:34.51	29.13	15.09	
2025-01-08 00:39:34.71	29.15	15.11	
2025-01-08 00:39:34.92	29.17	15.13	
2025-01-08 00:39:35.12	29.19	15.15	
2025-01-08 00:39:35.33	29.21	15.18	
2025-01-08 00:39:35.53	29.23	15.20	
2025-01-08 00:39:35.74	29.25	15.22	
2025-01-08 00:39:35.94	29.26	15.24	
2025-01-08 00:39:36.15	29.28	15.27	
2025-01-08 00:39:36.36	29.30	15.29	
2025-01-08 00:39:36.56	29.32	15.31	
2025-01-08 00:39:36.77	29.34	15.33	
2025-01-08 00:39:36.97	29.36	15.36	
2025-01-08 00:39:37.18	29.38	15.38	
2025-01-08 00:39:37.38	29.40	15.40	
2025-01-08 00:39:37.59	29.42	15.42	
2025-01-08 00:39:37.79	29.43	15.45	
2025-01-08 00:39:38.01	29.46	15.47	
2025-01-08 00:39:38.22	29.47	15.49	
2025-01-08 00:39:38.42	29.49	15.52	
2025-01-08 00:39:38.63	29.51	15.54	
2025-01-08 00:39:38.83	29.53	15.56	
2025-01-08 00:39:39.03	29.55	15.58	
2025-01-08 00:39:39.24	29.57	15.61	
2025-01-08 00:39:39.45	29.59	15.63	
2025-01-08 00:39:39.65	29.61	15.65	
2025-01-08 00:39:39.86	29.63	15.68	
2025-01-08 00:39:40.06	29.65	15.70	
2025-01-08 00:39:40.26	29.67	15.72	
2025-01-08 00:39:40.47	29.69	15.74	
2025-01-08 00:39:40.67	29.70	15.77	
2025-01-08 00:39:40.88	29.72	15.79	
2025-01-08 00:39:41.09	29.74	15.81	
2025-01-08 00:39:41.29	29.76	15.83	
2025-01-08 00:39:41.50	29.78	15.86	
2025-01-08 00:39:41.70	29.80	15.88	
2025-01-08 00:39:41.91	29.82	15.90	
2025-01-08 00:39:42.11	29.84	15.93	
2025-01-08 00:39:42.32	29.86	15.95	
2025-01-08 00:39:42.52	29.88	15.97	
2025-01-08 00:39:42.73	29.90	16.00	
2025-01-08 00:39:42.94	29.92	16.02	
2025-01-08 00:39:43.14	29.94	16.04	
2025-01-08 00:39:43.35	29.96	16.07	
2025-01-08 00:39:43.55	29.98	16.09	
2025-01-08 00:39:43.76	30.00	16.11	
2025-01-08 00:39:43.96	30.02	16.13	
2025-01-08 00:39:44.17	30.04	16.16	
2025-01-08 00:39:44.37	30.06	16.18	
2025-01-08 00:39:44.58	30.08	16.20	
2025-01-08 00:39:44.78	30.10	16.23	
2025-01-08 00:39:44.99	30.12	16.25	
2025-01-08 00:39:45.20	30.14	16.28	
2025-01-08 00:39:45.40	30.16	16.30	
2025-01-08 00:39:45.60	30.18	16.32	
2025-01-08 00:39:45.81	30.20	16.34	
2025-01-08 00:39:46.01	30.22	16.37	
2025-01-08 00:39:46.22	30.24	16.39	
2025-01-08 00:39:46.42	30.26	16.41	
2025-01-08 00:39:46.64	30.28	16.44	
2025-01-08 00:39:46.85	30.30	16.46	
2025-01-08 00:39:47.05	30.32	16.49	
2025-01-08 00:39:47.26	30.34	16.51	
2025-01-08 00:39:47.47	30.36	16.53	
2025-01-08 00:39:47.69	30.39	16.56	
2025-01-08 00:39:47.89	30.41	16.58	
2025-01-08 00:39:48.09	30.43	16.61	
2025-01-08 00:39:48.30	30.45	16.63	
2025-01-08 00:39:48.51	30.47	16.65	
2025-01-08 00:39:48.71	30.49	16.68	
2025-01-08 00:39:48.92	30.51	16.70	
2025-01-08 00:39:49.12	30.53	16.73	
2025-01-08 00:39:49.33	30.55	16.75	
2025-01-08 00:39:49.53	30.57	16.77	
2025-01-08 00:39:49.74	30.59	16.80	
2025-01-08 00:39:49.94	30.61	16.82	
2025-01-08 00:39:50.15	30.63	16.84	
2025-01-08 00:39:50.36	30.66	16.87	
2025-01-08 00:39:50.56	30.68	16.89	
2025-01-08 00:39:50.77	30.70	16.92	
2025-01-08 00:39:50.97	30.72	16.94	
2025-01-08 00:39:51.18	30.74	16.96	
2025-01-08 00:39:51.38	30.76	16.99	
2025-01-08 00:39:51.59	30.78	17.01	
2025-01-08 00:39:51.79	30.80	17.04	
2025-01-08 00:39:52.00	30.82	17.06	
2025-01-08 00:39:52.20	30.85	17.08	
2025-01-08 00:39:52.41	30.87	17.11	
2025-01-08 00:39:52.62	30.89	17.13	
2025-01-08 00:39:52.82	30.91	17.16	
2025-01-08 00:39:53.03	30.93	17.18	
2025-01-08 00:39:53.23	30.95	17.21	
2025-01-08 00:39:53.44	30.97	17.23	
2025-01-08 00:39:53.65	31.00	17.25	
2025-01-08 00:39:53.85	31.02	17.28	
2025-01-08 00:39:54.05	31.04	17.30	
2025-01-08 00:39:54.26	31.06	17.33	
2025-01-08 00:39:54.47	31.08	17.35	
2025-01-08 00:39:54.67	31.10	17.38	
2025-01-08 00:39:54.88	31.13	17.40	
2025-01-08 00:39:55.10	31.15	17.43	
2025-01-08 00:39:55.30	31.17	17.45	
2025-01-08 00:39:55.51	31.19	17.48	
2025-01-08 00:39:55.71	31.21	17.50	
2025-01-08 00:39:55.92	31.24	17.52	
2025-01-08 00:39:56.12	31.26	17.55	
2025-01-08 00:39:56.33	31.28	17.57	
2025-01-08 00:39:56.53	31.30	17.60	
2025-01-08 00:39:56.74	31.32	17.62	
2025-01-08 00:39:56.94	31.34	17.65	
2025-01-08 00:39:57.15	31.37	17.67	
2025-01-08 00:39:57.35	31.39	17.70	
2025-01-08 00:39:57.56	31.41	17.72	
2025-01-08 00:39:57.77	31.43	17.75	
2025-01-08 00:39:57.97	31.46	17.77	
2025-01-08 00:39:58.18	31.48	17.80	
2025-01-08 00:39:58.38	31.50	17.82	
2025-01-08 00:39:58.58	31.52	17.84	
2025-01-08 00:39:58.79	31.55	17.87	
2025-01-08 00:39:59.00	31.57	17.90	
2025-01-08 00:39:59.20	31.59	17.92	
2025-01-08 00:39:59.41	31.61	17.94	
2025-01-08 00:39:59.61	31.63	17.97	
2025-01-08 00:39:59.82	31.66	17.99	
2025-01-08 00:40:00.02	31.68	18.02	
2025-01-08 00:40:00.23	31.70	18.04	
2025-01-08 00:40:00.43	31.73	18.07	
2025-01-08 00:40:00.64	31.75	18.09	
2025-01-08 00:40:00.84	31.77	18.12	
2025-01-08 00:40:01.05	31.79	18.14	
2025-01-08 00:40:01.25	31.82	18.17	
2025-01-08 00:40:01.46	31.84	18.19	
2025-01-08 00:40:01.66	31.86	18.22	
2025-01-08 00:40:01.87	31.89	18.25	
2025-01-08 00:40:02.07	31.91	18.27	
2025-01-08 00:40:02.28	31.93	18.30	
2025-01-08 00:40:02.48	31.95	18.32	
2025-01-08 00:40:02.68	31.98	18.34	
2025-01-08 00:40:02.89	32.00	18.37	
2025-01-08 00:40:03.10	32.02	18.40	
2025-01-08 00:40:03.30	32.05	18.42	
2025-01-08 00:40:03.51	32.07	18.45	
2025-01-08 00:40:03.71	32.09	18.47	
2025-01-08 00:40:03.92	32.12	18.50	
2025-01-08 00:40:04.13	32.14	18.52	
2025-01-08 00:40:04.33	32.16	18.55	
2025-01-08 00:40:04.54	32.19	18.58	
2025-01-08 00:40:04.75	32.21	18.60	
2025-01-08 00:40:04.96	32.24	18.63	
2025-01-08 00:40:05.17	32.26	18.65	
2025-01-08 00:40:05.37	32.28	18.68	
2025-01-08 00:40:05.58	32.31	18.70	
2025-01-08 00:40:05.78	32.33	18.73	
2025-01-08 00:40:05.99	32.35	18.76	
2025-01-08 00:40:06.19	32.38	18.78	
2025-01-08 00:40:06.40	32.40	18.81	
2025-01-08 00:40:06.61	32.43	18.83	
2025-01-08 00:40:06.81	32.45	18.86	
2025-01-08 00:40:07.02	32.47	18.89	
2025-01-08 00:40:07.22	32.50	18.91	
2025-01-08 00:40:07.43	32.52	18.94	
2025-01-08 00:40:07.63	32.55	18.96	
2025-01-08 00:40:07.84	32.57	18.99	
2025-01-08 00:40:08.04	32.59	19.01	
2025-01-08 00:40:08.25	32.62	19.04	
2025-01-08 00:40:08.45	32.64	19.07	
2025-01-08 00:40:08.66	32.67	19.09	
2025-01-08 00:40:08.86	32.69	19.12	
2025-01-08 00:40:09.07	32.72	19.14	
2025-01-08 00:40:09.27	32.74	19.17	
2025-01-08 00:40:09.48	32.76	19.20	
2025-01-08 00:40:09.68	32.79	19.22	
2025-01-08 00:40:09.89	32.81	19.25	
2025-01-08 00:40:10.09	32.84	19.27	
2025-01-08 00:40:10.30	32.86	19.30	
2025-01-08 00:40:10.50	32.89	19.33	
2025-01-08 00:40:10.71	32.91	19.35	
2025-01-08 00:40:10.92	32.94	19.38	
2025-01-08 00:40:11.12	32.96	19.41	
2025-01-08 00:40:11.33	32.99	19.43	
2025-01-08 00:40:11.53	33.01	19.46	
2025-01-08 00:40:11.74	33.04	19.49	
2025-01-08 00:40:11.94	33.06	19.51	
2025-01-08 00:40:12.14	33.08	19.54	
2025-01-08 00:40:12.35	33.11	19.56	
2025-01-08 00:40:12.56	33.14	19.59	
2025-01-08 00:40:12.76	33.16	19.62	
2025-01-08 00:40:12.97	33.19	19.64	
2025-01-08 00:40:13.17	33.21	19.67	
2025-01-08 00:40:13.38	33.24	19.70	
2025-01-08 00:40:13.58	33.26	19.72	
2025-01-08 00:40:13.79	33.29	19.75	
2025-01-08 00:40:14.00	33.31	19.78	
2025-01-08 00:40:14.20	33.34	19.80	
2025-01-08 00:40:14.40	33.36	19.83	
2025-01-08 00:40:14.61	33.39	19.86	
2025-01-08 00:40:14.82	33.42	19.89	
2025-01-08 00:40:15.02	33.44	19.91	
2025-01-08 00:40:15.23	33.47	19.94	
2025-01-08 00:40:15.44	33.49	19.97	
2025-01-08 00:40:15.65	33.52	19.99	
2025-01-08 00:40:15.86	33.55	20.02	
2025-01-08 00:40:16.06	33.57	20.05	
2025-01-08 00:40:16.27	33.60	20.08	
2025-01-08 00:40:16.47	33.62	20.10	
2025-01-08 00:40:16.67	33.65	20.13	
2025-01-08 00:40:16.88	33.67	20.16	
2025-01-08 00:40:17.09	33.70	20.18	
2025-01-08 00:40:17.29	33.73	20.21	
2025-01-08 00:40:17.49	33.75	20.24	
2025-01-08 00:40:17.70	33.78	20.26	
2025-01-08 00:40:17.91	33.81	20.29	
2025-01-08 00:40:18.11	33.83	20.32	
2025-01-08 00:40:18.32	33.86	20.35	
2025-01-08 00:40:18.52	33.88	20.37	
2025-01-08 00:40:18.73	33.91	20.40	
2025-01-08 00:40:18.93	33.94	20.43	
2025-01-08 00:40:19.13	33.96	20.45	
2025-01-08 00:40:19.34	33.99	20.48	
2025-01-08 00:40:19.54	34.02	20.51	
2025-01-08 00:40:19.75	34.04	20.54	
2025-01-08 00:40:19.95	34.07	20.56	
2025-01-08 00:40:20.16	34.10	20.59	
2025-01-08 00:40:20.36	34.12	20.62	
2025-01-08 00:40:20.57	34.15	20.65	
2025-01-08 00:40:20.77	34.18	20.67	
2025-01-08 00:40:20.98	34.20	20.70	
2025-01-08 00:40:21.18	34.23	20.73	
2025-01-08 00:40:21.39	34.26	20.76	
2025-01-08 00:40:21.59	34.29	20.78	
2025-01-08 00:40:21.80	34.31	20.81	
2025-01-08 00:40:22.00	34.34	20.84	
2025-01-08 00:40:22.21	34.37	20.87	
2025-01-08 00:40:22.41	34.39	20.89	
2025-01-08 00:40:22.62	34.42	20.92	
2025-01-08 00:40:22.83	34.45	20.95	
2025-01-08 00:40:23.03	34.48	20.98	
2025-01-08 00:40:23.24	34.51	21.01	
2025-01-08 00:40:23.44	34.53	21.03	
2025-01-08 00:40:23.65	34.56	21.06	
2025-01-08 00:40:23.87	34.59	21.09	
2025-01-08 00:40:24.07	34.62	21.12	
2025-01-08 00:40:24.28	34.65	21.15	
2025-01-08 00:40:24.48	34.67	21.18	
2025-01-08 00:40:24.69	34.70	21.21	
2025-01-08 00:40:24.90	34.73	21.23	
2025-01-08 00:40:25.10	34.76	21.26	
2025-01-08 00:40:25.31	34.79	21.29	
2025-01-08 00:40:25.51	34.81	21.32	
2025-01-08 00:40:25.72	34.84	21.35	
2025-01-08 00:40:25.92	34.87	21.37	
2025-01-08 00:40:26.13	34.90	21.40	
2025-01-08 00:40:26.33	34.93	21.43	
2025-01-08 00:40:26.54	34.96	21.46	
2025-01-08 00:40:26.74	34.98	21.49	
2025-01-08 00:40:26.95	35.01	21.52	
2025-01-08 00:40:27.16	35.04	21.55	
2025-01-08 00:40:27.36	35.07	21.57	
2025-01-08 00:40:27.57	35.10	21.60	
2025-01-08 00:40:27.77	35.13	21.63	
2025-01-08 00:40:27.98	35.16	21.66	
2025-01-08 00:40:28.18	35.18	21.69	
2025-01-08 00:40:28.39	35.21	21.72	
2025-01-08 00:40:28.59	35.24	21.74	
2025-01-08 00:40:28.80	35.27	21.77	
2025-01-08 00:40:29.01	35.30	21.80	
2025-01-08 00:40:29.21	35.33	21.83	
2025-01-08 00:40:29.41	35.36	21.86	
2025-01-08 00:40:29.62	35.39	21.89	
2025-01-08 00:40:29.84	35.42	21.92	
2025-01-08 00:40:30.04	35.45	21.95	
2025-01-08 00:40:30.25	35.48	21.98	
2025-01-08 00:40:30.45	35.51	22.00	
2025-01-08 00:40:30.66	35.54	22.03	
2025-01-08 00:40:30.86	35.57	22.06	
2025-01-08 00:40:31.07	35.60	22.09	
2025-01-08 00:40:31.28	35.63	22.12	
2025-01-08 00:40:31.48	35.65	22.15	
2025-01-08 00:40:31.69	35.69	22.18	
2025-01-08 00:40:31.89	35.71	22.21	
2025-01-08 00:40:32.10	35.74	22.24	
2025-01-08 00:40:32.31	35.78	22.27	
2025-01-08 00:40:32.51	35.80	22.30	
2025-01-08 00:40:32.71	35.83	22.32	
2025-01-08 00:40:32.92	35.86	22.35	
2025-01-08 00:40:33.13	35.90	22.38	
2025-01-08 00:40:33.33	35.93	22.41	
2025-01-08 00:40:33.54	35.96	22.44	
2025-01-08 00:40:33.74	35.99	22.47	
2025-01-08 00:40:33.95	36.02	22.50	
2025-01-08 00:40:34.16	36.05	22.53	
2025-01-08 00:40:34.36	36.08	22.56	
2025-01-08 00:40:34.57	36.11	22.59	
2025-01-08 00:40:34.77	36.14	22.62	
2025-01-08 00:40:34.98	36.17	22.65	
2025-01-08 00:40:35.18	36.20	22.68	
2025-01-08 00:40:35.39	36.23	22.71	
2025-01-08 00:40:35.59	36.26	22.74	
2025-01-08 00:40:35.80	36.29	22.77	
2025-01-08 00:40:36.00	36.32	22.80	
2025-01-08 00:40:36.21	36.36	22.83	
2025-01-08 00:40:36.41	36.39	22.86	
2025-01-08 00:40:36.62	36.42	22.89	
2025-01-08 00:40:36.82	36.45	22.92	
2025-01-08 00:40:37.03	36.48	22.95	
2025-01-08 00:40:37.23	36.51	22.98	
2025-01-08 00:40:37.44	36.54	23.01	
2025-01-08 00:40:37.65	36.57	23.04	
2025-01-08 00:40:37.85	36.61	23.07	
2025-01-08 00:40:38.06	36.64	23.10	
2025-01-08 00:40:38.26	36.67	23.13	
2025-01-08 00:40:38.47	36.70	23.16	
2025-01-08 00:40:38.67	36.73	23.19	
2025-01-08 00:40:38.88	36.76	23.22	
2025-01-08 00:40:39.08	36.80	23.25	
2025-01-08 00:40:39.29	36.83	23.28	
2025-01-08 00:40:39.49	36.86	23.31	
2025-01-08 00:40:39.70	36.89	23.34	
2025-01-08 00:40:39.90	36.92	23.37	
2025-01-08 00:40:40.11	36.96	23.40	
2025-01-08 00:40:40.31	36.99	23.43	
2025-01-08 00:40:40.52	37.02	23.46	
2025-01-08 00:40:40.72	37.05	23.49	
2025-01-08 00:40:40.93	37.09	23.52	
2025-01-08 00:40:41.13	37.12	23.55	
2025-01-08 00:40:41.34	37.15	23.58	
2025-01-08 00:40:41.54	37.18	23.61	
2025-01-08 00:40:41.75	37.22	23.64	
2025-01-08 00:40:41.96	37.25	23.67	
2025-01-08 00:40:42.17	37.28	23.70	
2025-01-08 00:40:42.38	37.32	23.73	
2025-01-08 00:40:42.58	37.35	23.76	
2025-01-08 00:40:42.79	37.38	23.80	
2025-01-08 00:40:43.00	37.42	23.83	
2025-01-08 00:40:43.21	37.45	23.86	
2025-01-08 00:40:43.42	37.48	23.89	
2025-01-08 00:40:43.63	37.52	23.92	
2025-01-08 00:40:43.83	37.55	23.95	
2025-01-08 00:40:44.04	37.59	23.98	
2025-01-08 00:40:44.24	37.62	24.01	
2025-01-08 00:40:44.45	37.65	24.04	
2025-01-08 00:40:44.65	37.69	24.07	
2025-01-08 00:40:44.86	37.72	24.11	
2025-01-08 00:40:45.06	37.75	24.14	
2025-01-08 00:40:45.28	37.79	24.17	
2025-01-08 00:40:45.49	37.82	24.20	
2025-01-08 00:40:45.69	37.86	24.23	
2025-01-08 00:40:45.90	37.89	24.26	
2025-01-08 00:40:46.10	37.93	24.29	
2025-01-08 00:40:46.31	37.96	24.33	
2025-01-08 00:40:46.52	38.00	24.36	
2025-01-08 00:40:46.72	38.03	24.39	
2025-01-08 00:40:46.92	38.06	24.42	
2025-01-08 00:40:47.13	38.10	24.45	
2025-01-08 00:40:47.33	38.13	24.48	
2025-01-08 00:40:47.54	38.17	24.51	
2025-01-08 00:40:47.74	38.20	24.54	
2025-01-08 00:40:47.95	38.24	24.58	
2025-01-08 00:40:48.16	38.27	24.61	
2025-01-08 00:40:48.36	38.31	24.64	
2025-01-08 00:40:48.56	38.34	24.67	
2025-01-08 00:40:48.77	38.38	24.70	
2025-01-08 00:40:48.98	38.41	24.73	
2025-01-08 00:40:49.18	38.45	24.77	
2025-01-08 00:40:49.39	38.48	24.80	
2025-01-08 00:40:49.59	38.52	24.83	
2025-01-08 00:40:49.80	38.55	24.86	
2025-01-08 00:40:50.00	38.59	24.89	
2025-01-08 00:40:50.21	38.62	24.92	
2025-01-08 00:40:50.42	38.66	24.96	
2025-01-08 00:40:50.62	38.69	24.99	
2025-01-08 00:40:50.83	38.73	25.02	
2025-01-08 00:40:51.03	38.77	25.05	
2025-01-08 00:40:51.24	38.80	25.08	
2025-01-08 00:40:51.45	38.84	25.12	
2025-01-08 00:40:51.65	38.88	25.15	
2025-01-08 00:40:51.86	38.91	25.18	
2025-01-08 00:40:52.06	38.95	25.21	
2025-01-08 00:40:52.27	38.98	25.24	
2025-01-08 00:40:52.47	39.02	25.28	
2025-01-08 00:40:52.68	39.06	25.31	
2025-01-08 00:40:52.88	39.09	25.34	
2025-01-08 00:40:53.09	39.13	25.37	
2025-01-08 00:40:53.29	39.17	25.40	
2025-01-08 00:40:53.50	39.20	25.44	
2025-01-08 00:40:53.71	39.24	25.47	
2025-01-08 00:40:53.91	39.28	25.50	
2025-01-08 00:40:54.12	39.32	25.53	
2025-01-08 00:40:54.32	39.35	25.57	
2025-01-08 00:40:54.53	39.39	25.60	
2025-01-08 00:40:54.74	39.43	25.63	
2025-01-08 00:40:54.94	39.46	25.66	
2025-01-08 00:40:55.15	39.50	25.70	
2025-01-08 00:40:55.35	39.54	25.73	
2025-01-08 00:40:55.56	39.58	25.76	
2025-01-08 00:40:55.76	39.61	25.79	
2025-01-08 00:40:55.98	39.65	25.83	
2025-01-08 00:40:56.18	39.69	25.86	
2025-01-08 00:40:56.39	39.73	25.89	
2025-01-08 00:40:56.59	39.77	25.93	
2025-01-08 00:40:56.80	39.80	25.96	
2025-01-08 00:40:57.00	39.84	25.99	
2025-01-08 00:40:57.21	39.88	26.03	
2025-01-08 00:40:57.41	39.92	26.06	
2025-01-08 00:40:57.62	39.96	26.09	
2025-01-08 00:40:57.82	39.99	26.12	
2025-01-08 00:40:58.02	40.03	26.16	
2025-01-08 00:40:58.23	40.07	26.19	
2025-01-08 00:40:58.44	40.11	26.22	
2025-01-08 00:40:58.64	40.15	26.25	
2025-01-08 00:40:58.85	40.19	26.29	
2025-01-08 00:40:59.06	40.23	26.32	
2025-01-08 00:40:59.26	40.27	26.35	
2025-01-08 00:40:59.46	40.30	26.39	
2025-01-08 00:40:59.67	40.34	26.42	
2025-01-08 00:40:59.88	40.38	26.46	
2025-01-08 00:41:00.08	40.42	26.49	
2025-01-08 00:41:00.28	40.46	26.52	
2025-01-08 00:41:00.49	40.50	26.55	
2025-01-08 00:41:00.69	40.54	26.59	
2025-01-08 00:41:00.90	40.58	26.62	
2025-01-08 00:41:01.11	40.62	26.65	
2025-01-08 00:41:01.32	40.66	26.69	
2025-01-08 00:41:01.53	40.70	26.72	
2025-01-08 00:41:01.73	40.74	26.76	
2025-01-08 00:41:01.94	40.78	26.79	
2025-01-08 00:41:02.15	40.82	26.82	
2025-01-08 00:41:02.35	40.86	26.86	
2025-01-08 00:41:02.56	40.90	26.89	
2025-01-08 00:41:02.76	40.94	26.92	
2025-01-08 00:41:02.97	40.99	26.96	
2025-01-08 00:41:03.17	41.03	26.99	
2025-01-08 00:41:03.37	41.06	27.02	
2025-01-08 00:41:03.58	41.11	27.06	
2025-01-08 00:41:03.78	41.15	27.09	
2025-01-08 00:41:03.99	41.19	27.13	
2025-01-08 00:41:04.19	41.23	27.16	
2025-01-08 00:41:04.40	41.27	27.19	
2025-01-08 00:41:04.60	41.31	27.23	
2025-01-08 00:41:04.81	41.35	27.26	
2025-01-08 00:41:05.01	41.39	27.30	
2025-01-08 00:41:05.22	41.44	27.33	
2025-01-08 00:41:05.43	41.48	27.36	
2025-01-08 00:41:05.63	41.52	27.40	
2025-01-08 00:41:05.83	41.56	27.43	
2025-01-08 00:41:06.04	41.60	27.47	
2025-01-08 00:41:06.24	41.64	27.50	
2025-01-08 00:41:06.45	41.69	27.53	
2025-01-08 00:41:06.66	41.73	27.57	
2025-01-08 00:41:06.87	41.77	27.60	
2025-01-08 00:41:07.08	41.82	27.64	
2025-01-08 00:41:07.28	41.86	27.67	
2025-01-08 00:41:07.49	41.90	27.71	
2025-01-08 00:41:07.69	41.94	27.74	
2025-01-08 00:41:07.90	41.98	27.78	
2025-01-08 00:41:08.10	42.03	27.81	
2025-01-08 00:41:08.31	42.07	27.85	
2025-01-08 00:41:08.51	42.11	27.88	
2025-01-08 00:41:08.71	42.15	27.91	
2025-01-08 00:41:08.92	42.20	27.95	
2025-01-08 00:41:09.13	42.24	27.98	
2025-01-08 00:41:09.33	42.28	28.02	
2025-01-08 00:41:09.54	42.33	28.05	
2025-01-08 00:41:09.74	42.37	28.09	
2025-01-08 00:41:09.95	42.42	28.12	
2025-01-08 00:41:10.15	42.46	28.16	
2025-01-08 00:41:10.36	42.50	28.19	
2025-01-08 00:41:10.56	42.55	28.23	
2025-01-08 00:41:10.77	42.59	28.26	
2025-01-08 00:41:10.97	42.63	28.29	
2025-01-08 00:41:11.18	42.68	28.33	
2025-01-08 00:41:11.38	42.72	28.36	
2025-01-08 00:41:11.59	42.77	28.40	
2025-01-08 00:41:11.79	42.81	28.43	
2025-01-08 00:41:12.00	42.86	28.47	
2025-01-08 00:41:12.20	42.90	28.50	
2025-01-08 00:41:12.41	42.95	28.54	
2025-01-08 00:41:12.61	42.99	28.57	
2025-01-08 00:41:12.82	43.04	28.61	
2025-01-08 00:41:13.02	43.08	28.64	
2025-01-08 00:41:13.23	43.13	28.68	
2025-01-08 00:41:13.43	43.17	28.72	
2025-01-08 00:41:13.64	43.22	28.75	
2025-01-08 00:41:13.84	43.26	28.79	
2025-01-08 00:41:14.05	43.31	28.82	
2025-01-08 00:41:14.25	43.35	28.86	
2025-01-08 00:41:14.46	43.40	28.89	
2025-01-08 00:41:14.66	43.44	28.93	
2025-01-08 00:41:14.87	43.49	28.96	
2025-01-08 00:41:15.07	43.54	29.00	
2025-01-08 00:41:15.28	43.58	29.03	
2025-01-08 00:41:15.48	43.63	29.07	
2025-01-08 00:41:15.69	43.68	29.10	
2025-01-08 00:41:15.90	43.72	29.14	
2025-01-08 00:41:16.10	43.77	29.18	
2025-01-08 00:41:16.32	43.82	29.21	
2025-01-08 00:41:16.53	43.87	29.25	
2025-01-08 00:41:16.73	43.91	29.29	
2025-01-08 00:41:16.94	43.96	29.32	
2025-01-08 00:41:17.15	44.01	29.36	
2025-01-08 00:41:17.35	44.05	29.39	
2025-01-08 00:41:17.56	44.10	29.43	
2025-01-08 00:41:17.76	44.15	29.46	
2025-01-08 00:41:17.97	44.20	29.50	
2025-01-08 00:41:18.17	44.24	29.54	
2025-01-08 00:41:18.38	44.29	29.57	
2025-01-08 00:41:18.58	44.34	29.61	
2025-01-08 00:41:18.79	44.39	29.64	
2025-01-08 00:41:19.00	44.44	29.68	
2025-01-08 00:41:19.20	44.49	29.72	
2025-01-08 00:41:19.40	44.53	29.75	
2025-01-08 00:41:19.61	44.58	29.79	
2025-01-08 00:41:19.82	44.63	29.83	
2025-01-08 00:41:20.02	44.68	29.86	
2025-01-08 00:41:20.23	44.73	29.90	
2025-01-08 00:41:20.43	44.78	29.93	
2025-01-08 00:41:20.64	44.83	29.97	
2025-01-08 00:41:20.85	44.88	30.01	
2025-01-08 00:41:21.05	44.92	30.04	
2025-01-08 00:41:21.26	44.98	30.08	
2025-01-08 00:41:21.46	45.02	30.12	
2025-01-08 00:41:21.66	45.07	30.15	
2025-01-08 00:41:21.87	45.12	30.19	
2025-01-08 00:41:22.08	45.17	30.23	
2025-01-08 00:41:22.28	45.22	30.26	
2025-01-08 00:41:22.49	45.27	30.30	
2025-01-08 00:41:22.69	45.32	30.33	
2025-01-08 00:41:22.90	45.37	30.37	
2025-01-08 00:41:23.11	45.43	30.41	
2025-01-08 00:41:23.31	45.47	30.44	
2025-01-08 00:41:23.52	45.53	30.48	
2025-01-08 00:41:23.72	45.58	30.52	
2025-01-08 00:41:23.93	45.63	30.55	
2025-01-08 00:41:24.13	45.68	30.59	
2025-01-08 00:41:24.34	45.73	30.63	
2025-01-08 00:41:24.54	45.78	30.66	
2025-01-08 00:41:24.75	45.83	30.70	
2025-01-08 00:41:24.95	45.88	30.74	
2025-01-08 00:41:25.16	45.93	30.77	
2025-01-08 00:41:25.37	45.99	30.81	
2025-01-08 00:41:25.57	46.04	30.85	
2025-01-08 00:41:25.78	46.09	30.89	
2025-01-08 00:41:25.98	46.14	30.92	
2025-01-08 00:41:26.19	46.19	30.96	
2025-01-08 00:41:26.40	46.25	31.00	
2025-01-08 00:41:26.60	46.30	31.03	
2025-01-08 00:41:26.81	46.35	31.07	
2025-01-08 00:41:27.01	46.40	31.11	
2025-01-08 00:41:27.22	46.46	31.15	
2025-01-08 00:41:27.42	46.51	31.18	
2025-01-08 00:41:27.63	46.56	31.22	
2025-01-08 00:41:27.83	46.62	31.26	
2025-01-08 00:41:28.04	46.67	31.29	
2025-01-08 00:41:28.24	46.72	31.33	
2025-01-08 00:41:28.45	46.78	31.37	
2025-01-08 00:41:28.65	46.83	31.40	
2025-01-08 00:41:28.86	46.88	31.44	
2025-01-08 00:41:29.06	46.94	31.48	
2025-01-08 00:41:29.27	46.99	31.52	
2025-01-08 00:41:29.48	47.05	31.56	
2025-01-08 00:41:29.68	47.10	31.59	
2025-01-08 00:41:29.89	47.16	31.63	
2025-01-08 00:41:30.09	47.21	31.67	
2025-01-08 00:41:30.30	47.26	31.70	
2025-01-08 00:41:30.50	47.32	31.74	
2025-01-08 00:41:30.71	47.37	31.78	
2025-01-08 00:41:30.91	47.43	31.82	
2025-01-08 00:41:31.12	47.48	31.85	
2025-01-08 00:41:31.34	47.54	31.89	
2025-01-08 00:41:31.54	47.60	31.93	
2025-01-08 00:41:31.75	47.65	31.97	
2025-01-08 00:41:31.96	47.71	32.01	
2025-01-08 00:41:32.16	47.77	32.04	
2025-01-08 00:41:32.36	47.82	32.08	
2025-01-08 00:41:32.57	47.88	32.12	
2025-01-08 00:41:32.78	47.93	32.16	
2025-01-08 00:41:32.98	47.99	32.20	
2025-01-08 00:41:33.19	48.05	32.23	
2025-01-08 00:41:33.39	48.10	32.27	
2025-01-08 00:41:33.60	48.16	32.31	
2025-01-08 00:41:33.80	48.22	32.35	
2025-01-08 00:41:34.01	48.27	32.39	
2025-01-08 00:41:34.22	48.33	32.42	
2025-01-08 00:41:34.42	48.39	32.46	
2025-01-08 00:41:34.62	48.44	32.50	
2025-01-08 00:41:34.83	48.50	32.54	
2025-01-08 00:41:35.03	48.56	32.57	
2025-01-08 00:41:35.24	48.62	32.61	
2025-01-08 00:41:35.44	48.67	32.65	
2025-01-08 00:41:35.65	48.73	32.69	
2025-01-08 00:41:35.86	48.79	32.73	
2025-01-08 00:41:36.06	48.85	32.76	
2025-01-08 00:41:36.27	48.91	32.80	
2025-01-08 00:41:36.47	48.97	32.84	
2025-01-08 00:41:36.67	49.03	32.88	
2025-01-08 00:41:36.88	49.09	32.92	
2025-01-08 00:41:37.09	49.15	32.96	
2025-01-08 00:41:37.29	49.20	32.99	
2025-01-08 00:41:37.50	49.26	33.03	
2025-01-08 00:41:37.70	49.32	33.07	
2025-01-08 00:41:37.91	49.38	33.11	
2025-01-08 00:41:38.11	49.44	33.15	
2025-01-08 00:41:38.32	49.50	33.18	
2025-01-08 00:41:38.52	49.56	33.22	
2025-01-08 00:41:38.74	49.63	33.26	
2025-01-08 00:41:38.95	49.69	33.30	
2025-01-08 00:41:39.15	49.75	33.34	
2025-01-08 00:41:39.36	49.81	33.38	
2025-01-08 00:41:39.57	49.87	33.42	
2025-01-08 00:41:39.77	49.93	33.46	
2025-01-08 00:41:39.98	49.99	33.49	
2025-01-08 00:41:40.18	50.05	33.53	
2025-01-08 00:41:40.39	50.11	33.57	
2025-01-08 00:41:40.59	50.17	33.61	
2025-01-08 00:41:40.80	50.24	33.65	
2025-01-08 00:41:41.00	50.30	33.69	
2025-01-08 00:41:41.21	50.36	33.72	
2025-01-08 00:41:41.41	50.42	33.76	
2025-01-08 00:41:41.62	50.49	33.80	
2025-01-08 00:41:41.82	50.55	33.84	
2025-01-08 00:41:42.03	50.61	33.88	
2025-01-08 00:41:42.23	50.67	33.92	
2025-01-08 00:41:42.44	50.74	33.96	
2025-01-08 00:41:42.64	50.80	33.99	
2025-01-08 00:41:42.85	50.86	34.03	
2025-01-08 00:41:43.05	50.92	34.07	
2025-01-08 00:41:43.26	50.99	34.11	
2025-01-08 00:41:43.46	51.05	34.15	
2025-01-08 00:41:43.67	51.12	34.19	
2025-01-08 00:41:43.87	51.18	34.23	
2025-01-08 00:41:44.07	51.24	34.26	
2025-01-08 00:41:44.28	51.31	34.30	
2025-01-08 00:41:44.49	51.37	34.34	
2025-01-08 00:41:44.69	51.43	34.38	
2025-01-08 00:41:44.90	51.50	34.42	
2025-01-08 00:41:45.10	51.56	34.46	
2025-01-08 00:41:45.31	51.63	34.50	
2025-01-08 00:41:45.51	51.69	34.53	
2025-01-08 00:41:45.72	51.76	34.57	
2025-01-08 00:41:45.92	51.82	34.61	
2025-01-08 00:41:46.13	51.89	34.65	
2025-01-08 00:41:46.33	51.96	34.69	
2025-01-08 00:41:46.54	52.02	34.73	
2025-01-08 00:41:46.75	52.09	34.77	
2025-01-08 00:41:46.95	52.16	34.81	
2025-01-08 00:41:47.15	52.22	34.85	
2025-01-08 00:41:47.36	52.29	34.88	
2025-01-08 00:41:47.56	52.35	34.92	
2025-01-08 00:41:47.77	52.42	34.96	
2025-01-08 00:41:47.98	52.49	35.00	
2025-01-08 00:41:48.18	52.56	35.04	
2025-01-08 00:41:48.39	52.62	35.08	
2025-01-08 00:41:48.59	52.69	35.12	
2025-01-08 00:41:48.80	52.76	35.16	
2025-01-08 00:41:49.00	52.83	35.20	
2025-01-08 00:41:49.21	52.90	35.24	
2025-01-08 00:41:49.41	52.96	35.27	
2025-01-08 00:41:49.62	53.03	35.31	
2025-01-08 00:41:49.83	53.10	35.35	
2025-01-08 00:41:50.03	53.17	35.39	
2025-01-08 00:41:50.24	53.24	35.43	
2025-01-08 00:41:50.46	53.31	35.47	
2025-01-08 00:41:50.67	53.38	35.51	
2025-01-08 00:41:50.87	53.45	35.55	
2025-01-08 00:41:51.08	53.52	35.59	
2025-01-08 00:41:51.29	53.59	35.63	
2025-01-08 00:41:51.49	53.66	35.67	
2025-01-08 00:41:51.69	53.73	35.71	
2025-01-08 00:41:51.90	53.80	35.75	
2025-01-08 00:41:52.10	53.87	35.79	
2025-01-08 00:41:52.31	53.94	35.83	
2025-01-08 00:41:52.52	54.02	35.87	
2025-01-08 00:41:52.72	54.08	35.90	
2025-01-08 00:41:52.93	54.16	35.94	
2025-01-08 00:41:53.13	54.23	35.98	
2025-01-08 00:41:53.34	54.30	36.02	
2025-01-08 00:41:53.54	54.37	36.06	
2025-01-08 00:41:53.75	54.44	36.10	
2025-01-08 00:41:53.95	54.51	36.14	
2025-01-08 00:41:54.16	54.59	36.18	
2025-01-08 00:41:54.36	54.66	36.22	
2025-01-08 00:41:54.57	54.73	36.26	
2025-01-08 00:41:54.77	54.80	36.29	
2025-01-08 00:41:54.98	54.88	36.33	
2025-01-08 00:41:55.19	54.95	36.37	
2025-01-08 00:41:55.39	55.02	36.41	
2025-01-08 00:41:55.60	55.10	36.45	
2025-01-08 00:41:55.80	55.17	36.49	
2025-01-08 00:41:56.01	55.25	36.53	
2025-01-08 00:41:56.21	55.32	36.57	
2025-01-08 00:41:56.42	55.39	36.61	
2025-01-08 00:41:56.62	55.47	36.65	
2025-01-08 00:41:56.83	55.54	36.69	
2025-01-08 00:41:57.03	55.61	36.72	
2025-01-08 00:41:57.23	55.69	36.76	
2025-01-08 00:41:57.44	55.76	36.80	
2025-01-08 00:41:57.65	55.84	36.84	
2025-01-08 00:41:57.85	55.91	36.88	
2025-01-08 00:41:58.06	55.99	36.92	
2025-01-08 00:41:58.27	56.07	36.96	
2025-01-08 00:41:58.47	56.14	37.00	
2025-01-08 00:41:58.67	56.22	37.04	
2025-01-08 00:41:58.88	56.29	37.08	
2025-01-08 00:41:59.08	56.37	37.11	
2025-01-08 00:41:59.29	56.45	37.15	
2025-01-08 00:41:59.50	56.53	37.19	
2025-01-08 00:41:59.70	56.60	37.23	
2025-01-08 00:41:59.91	56.68	37.27	
2025-01-08 00:42:00.11	56.76	37.31	
2025-01-08 00:42:00.32	56.84	37.35	
2025-01-08 00:42:00.52	56.91	37.39	
2025-01-08 00:42:00.73	56.99	37.43	
2025-01-08 00:42:00.93	57.07	37.47	
2025-01-08 00:42:01.13	57.14	37.50	
2025-01-08 00:42:01.34	57.22	37.54	
2025-01-08 00:42:01.55	57.30	37.58	
2025-01-08 00:42:01.75	57.38	37.62	
2025-01-08 00:42:01.96	57.46	37.66	
2025-01-08 00:42:02.16	57.54	37.70	
2025-01-08 00:42:02.37	57.62	37.74	
2025-01-08 00:42:02.57	57.70	37.78	
2025-01-08 00:42:02.78	57.78	37.82	
2025-01-08 00:42:02.99	57.86	37.86	
2025-01-08 00:42:03.19	57.94	37.89	
2025-01-08 00:42:03.39	58.02	37.93	
2025-01-08 00:42:03.60	58.10	37.97	
2025-01-08 00:42:03.81	58.18	38.01	
2025-01-08 00:42:04.01	58.26	38.05	
2025-01-08 00:42:04.22	58.35	38.09	
2025-01-08 00:42:04.42	58.42	38.13	
2025-01-08 00:42:04.63	58.51	38.17	
2025-01-08 00:42:04.84	58.59	38.21	
2025-01-08 00:42:05.04	58.67	38.24	
2025-01-08 00:42:05.25	58.76	38.28	
2025-01-08 00:42:05.45	58.84	38.32	
2025-01-08 00:42:05.66	58.92	38.36	
2025-01-08 00:42:05.87	59.01	38.40	
2025-01-08 00:42:06.07	59.09	38.44	
2025-01-08 00:42:06.28	59.17	38.48	
2025-01-08 00:42:06.48	59.25	38.51	
2025-01-08 00:42:06.68	59.33	38.55	
2025-01-08 00:42:06.89	59.42	38.59	
2025-01-08 00:42:07.09	59.50	38.63	
2025-01-08 00:42:07.30	59.59	38.67	
2025-01-08 00:42:07.50	59.67	38.71	
2025-01-08 00:42:07.71	59.76	38.75	
2025-01-08 00:42:07.91	59.84	38.78	
2025-01-08 00:42:08.12	59.93	38.82	
2025-01-08 00:42:08.33	60.01	38.86	
2025-01-08 00:42:08.53	60.10	38.90	
2025-01-08 00:42:08.73	60.18	38.94	
2025-01-08 00:42:08.94	60.27	38.98	
2025-01-08 00:42:09.15	60.36	39.01	
2025-01-08 00:42:09.35	60.44	39.05	
2025-01-08 00:42:09.56	60.53	39.09	
2025-01-08 00:42:09.76	60.61	39.13	
2025-01-08 00:42:09.97	60.70	39.17	
2025-01-08 00:42:10.17	60.79	39.20	
2025-01-08 00:42:10.38	60.88	39.24	
2025-01-08 00:42:10.58	60.96	39.28	
2025-01-08 00:42:10.79	61.05	39.32	
2025-01-08 00:42:10.99	61.14	39.36	
2025-01-08 00:42:11.20	61.23	39.40	
2025-01-08 00:42:11.41	61.32	39.43	
2025-01-08 00:42:11.61	61.40	39.47	
2025-01-08 00:42:11.82	61.49	39.51	
2025-01-08 00:42:12.02	61.58	39.55	
2025-01-08 00:42:12.22	61.67	39.58	
2025-01-08 00:42:12.43	61.76	39.62	
2025-01-08 00:42:12.64	61.85	39.66	
2025-01-08 00:42:12.84	61.94	39.70	
2025-01-08 00:42:13.05	62.03	39.74	
2025-01-08 00:42:13.25	62.12	39.77	
2025-01-08 00:42:13.46	62.21	39.81	
2025-01-08 00:42:13.66	62.30	39.85	
2025-01-08 00:42:13.87	62.39	39.89	
2025-01-08 00:42:14.07	62.48	39.92	
2025-01-08 00:42:14.28	62.57	39.96	
2025-01-08 00:42:14.48	62.66	40.00	
2025-01-08 00:42:14.69	62.76	40.04	
2025-01-08 00:42:14.89	62.85	40.07	
2025-01-08 00:42:15.10	62.94	40.11	
2025-01-08 00:42:15.30	63.03	40.15	
2025-01-08 00:42:15.51	63.12	40.19	
2025-01-08 00:42:15.71	63.21	40.22	
2025-01-08 00:42:15.92	63.31	40.26	
2025-01-08 00:42:16.14	63.41	40.30	
2025-01-08 00:42:16.34	63.50	40.34	
2025-01-08 00:42:16.55	63.60	40.38	
2025-01-08 00:42:16.75	63.69	40.41	
2025-01-08 00:42:16.96	63.78	40.45	
2025-01-08 00:42:17.16	63.88	40.49	
2025-01-08 00:42:17.37	63.97	40.52	
2025-01-08 00:42:17.57	64.06	40.56	
2025-01-08 00:42:17.78	64.16	40.60	
2025-01-08 00:42:17.98	64.25	40.63	
2025-01-08 00:42:18.19	64.35	40.67	
2025-01-08 00:42:18.39	64.45	40.71	
2025-01-08 00:42:18.60	64.54	40.74	
2025-01-08 00:42:18.80	64.64	40.78	
2025-01-08 00:42:19.01	64.74	40.82	
2025-01-08 00:42:19.21	64.83	40.85	
2025-01-08 00:42:19.42	64.93	40.89	
2025-01-08 00:42:19.62	65.02	40.93	
2025-01-08 00:42:19.83	65.12	40.96	
2025-01-08 00:42:20.03	65.22	41.00	
2025-01-08 00:42:20.24	65.32	41.04	
2025-01-08 00:42:20.44	65.41	41.07	
2025-01-08 00:42:20.65	65.51	41.11	
2025-01-08 00:42:20.86	65.61	41.14	
2025-01-08 00:42:21.06	65.71	41.18	
2025-01-08 00:42:21.27	65.81	41.22	
2025-01-08 00:42:21.49	65.92	41.26	
2025-01-08 00:42:21.69	66.01	41.29	
2025-01-08 00:42:21.90	66.11	41.33	
2025-01-08 00:42:22.10	66.21	41.36	
2025-01-08 00:42:22.31	66.31	41.40	
2025-01-08 00:42:22.51	66.41	41.43	
2025-01-08 00:42:22.72	66.51	41.47	
2025-01-08 00:42:22.92	66.61	41.50	
2025-01-08 00:42:23.13	66.71	41.54	
2025-01-08 00:42:23.33	66.81	41.58	
2025-01-08 00:42:23.54	66.92	41.61	
2025-01-08 00:42:23.74	67.01	41.65	
2025-01-08 00:42:23.95	67.12	41.68	
2025-01-08 00:42:24.15	67.22	41.72	
2025-01-08 00:42:24.36	67.32	41.75	
2025-01-08 00:42:24.56	67.42	41.79	
2025-01-08 00:42:24.77	67.53	41.82	
2025-01-08 00:42:24.98	67.63	41.86	
2025-01-08 00:42:25.18	67.73	41.89	
2025-01-08 00:42:25.39	67.84	41.93	
2025-01-08 00:42:25.59	67.94	41.96	
2025-01-08 00:42:25.79	68.04	42.00	
2025-01-08 00:42:26.00	68.14	42.03	
2025-01-08 00:42:26.21	68.25	42.07	
2025-01-08 00:42:26.41	68.35	42.10	
2025-01-08 00:42:26.62	68.46	42.13	
2025-01-08 00:42:26.82	68.56	42.17	
2025-01-08 00:42:27.03	68.67	42.20	
2025-01-08 00:42:27.23	68.77	42.24	
2025-01-08 00:42:27.44	68.88	42.27	
2025-01-08 00:42:27.64	68.98	42.31	
2025-01-08 00:42:27.85	69.09	42.34	
2025-01-08 00:42:28.05	69.19	42.37	
2025-01-08 00:42:28.26	69.30	42.41	
2025-01-08 00:42:28.47	69.41	42.44	
2025-01-08 00:42:28.67	69.52	42.47	
2025-01-08 00:42:28.87	69.62	42.51	
2025-01-08 00:42:29.08	69.73	42.54	
2025-01-08 00:42:29.29	69.84	42.58	
2025-01-08 00:42:29.49	69.94	42.61	
2025-01-08 00:42:29.69	70.05	42.64	
2025-01-08 00:42:29.90	70.16	42.68	
2025-01-08 00:42:30.10	70.27	42.71	
2025-01-08 00:42:30.31	70.38	42.74	
2025-01-08 00:42:30.51	70.48	42.77	
2025-01-08 00:42:30.72	70.59	42.81	
2025-01-08 00:42:30.92	70.70	42.84	
2025-01-08 00:42:31.13	70.81	42.87	
2025-01-08 00:42:31.34	70.93	42.91	
2025-01-08 00:42:31.54	71.03	42.94	
2025-01-08 00:42:31.75	71.15	42.97	
2025-01-08 00:42:31.95	71.25	43.00	
2025-01-08 00:42:32.16	71.37	43.04	
2025-01-08 00:42:32.36	71.47	43.07	
2025-01-08 00:42:32.57	71.59	43.10	
2025-01-08 00:42:32.77	71.70	43.13	
2025-01-08 00:42:32.98	71.81	43.16	
2025-01-08 00:42:33.18	71.92	43.20	
2025-01-08 00:42:33.39	72.03	43.23	
2025-01-08 00:42:33.59	72.14	43.26	
2025-01-08 00:42:33.80	72.26	43.29	
2025-01-08 00:42:34.00	72.37	43.32	
2025-01-08 00:42:34.21	72.48	43.35	
2025-01-08 00:42:34.41	72.59	43.38	
2025-01-08 00:42:34.62	72.71	43.42	
2025-01-08 00:42:34.82	72.82	43.45	
2025-01-08 00:42:35.03	72.94	43.48	
2025-01-08 00:42:35.24	73.05	43.51	
2025-01-08 00:42:35.44	73.16	43.54	
2025-01-08 00:42:35.65	73.28	43.57	
2025-01-08 00:42:35.85	73.39	43.60	
2025-01-08 00:42:36.06	73.51	43.63	
2025-01-08 00:42:36.26	73.62	43.66	
2025-01-08 00:42:36.47	73.74	43.69	
2025-01-08 00:42:36.69	73.86	43.73	
2025-01-08 00:42:36.89	73.98	43.76	
2025-01-08 00:42:37.10	74.10	43.79	
2025-01-08 00:42:37.30	74.21	43.82	
2025-01-08 00:42:37.51	74.33	43.85	
2025-01-08 00:42:37.71	74.44	43.88	
2025-01-08 00:42:37.92	74.56	43.91	
2025-01-08 00:42:38.13	74.68	43.94	
2025-01-08 00:42:38.33	74.79	43.96	
2025-01-08 00:42:38.54	74.91	43.99	
2025-01-08 00:42:38.75	75.04	44.02	
2025-01-08 00:42:38.95	75.15	44.05	
2025-01-08 00:42:39.16	75.27	44.08	
2025-01-08 00:42:39.36	75.39	44.11	
2025-01-08 00:42:39.57	75.51	44.14	
2025-01-08 00:42:39.77	75.62	44.17	
2025-01-08 00:42:39.98	75.75	44.20	
2025-01-08 00:42:40.19	75.87	44.23	
2025-01-08 00:42:40.39	75.98	44.25	
2025-01-08 00:42:40.59	76.10	44.28	
2025-01-08 00:42:40.80	76.22	44.31	
2025-01-08 00:42:41.01	76.35	44.34	
2025-01-08 00:42:41.21	76.46	44.37	
2025-01-08 00:42:41.42	76.59	44.39	
2025-01-08 00:42:41.63	76.71	44.42	
2025-01-08 00:42:41.83	76.83	44.45	
2025-01-08 00:42:42.04	76.95	44.48	
2025-01-08 00:42:42.24	77.07	44.50	
2025-01-08 00:42:42.45	77.19	44.53	
2025-01-08 00:42:42.65	77.31	44.56	
2025-01-08 00:42:42.86	77.44	44.59	
2025-01-08 00:42:43.06	77.56	44.61	
2025-01-08 00:42:43.27	77.68	44.64	
2025-01-08 00:42:43.48	77.81	44.67	
2025-01-08 00:42:43.68	77.93	44.69	
2025-01-08 00:42:43.90	78.06	44.72	
2025-01-08 00:42:44.10	78.18	44.75	
2025-01-08 00:42:44.31	78.31	44.77	
2025-01-08 00:42:44.51	78.43	44.80	
2025-01-08 00:42:44.72	78.55	44.82	
2025-01-08 00:42:44.92	78.67	44.85	
2025-01-08 00:42:45.13	78.80	44.88	
2025-01-08 00:42:45.33	78.92	44.90	
2025-01-08 00:42:45.54	79.05	44.93	
2025-01-08 00:42:45.75	79.18	44.95	
2025-01-08 00:42:45.95	79.30	44.98	
2025-01-08 00:42:46.16	79.43	45.00	
2025-01-08 00:42:46.36	79.55	45.03	
2025-01-08 00:42:46.56	79.67	45.05	
2025-01-08 00:42:46.77	79.80	45.08	
2025-01-08 00:42:46.97	79.92	45.10	
2025-01-08 00:42:47.18	80.05	45.12	
2025-01-08 00:42:47.38	80.18	45.15	
2025-01-08 00:42:47.59	80.31	45.17	
2025-01-08 00:42:47.79	80.43	45.20	
2025-01-08 00:42:48.00	80.56	45.22	
2025-01-08 00:42:48.20	80.68	45.24	
2025-01-08 00:42:48.41	80.81	45.27	
2025-01-08 00:42:48.61	80.94	45.29	
2025-01-08 00:42:48.82	81.07	45.31	
2025-01-08 00:42:49.02	81.19	45.34	
2025-01-08 00:42:49.23	81.32	45.36	
2025-01-08 00:42:49.43	81.45	45.38	
2025-01-08 00:42:49.64	81.58	45.41	
2025-01-08 00:42:49.84	81.71	45.43	
2025-01-08 00:42:50.05	81.84	45.45	
2025-01-08 00:42:50.26	81.97	45.47	
2025-01-08 00:42:50.46	82.10	45.49	
2025-01-08 00:42:50.67	82.23	45.52	
2025-01-08 00:42:50.87	82.36	45.54	
2025-01-08 00:42:51.08	82.49	45.56	
2025-01-08 00:42:51.28	82.61	45.58	
2025-01-08 00:42:51.49	82.75	45.60	
2025-01-08 00:42:51.69	82.87	45.62	
2025-01-08 00:42:51.90	83.01	45.65	
2025-01-08 00:42:52.11	83.14	45.67	
2025-01-08 00:42:52.31	83.27	45.69	
2025-01-08 00:42:52.52	83.40	45.71	
2025-01-08 00:42:52.73	83.54	45.73	
2025-01-08 00:42:52.93	83.67	45.75	
2025-01-08 00:42:53.14	83.80	45.77	
2025-01-08 00:42:53.35	83.94	45.79	
2025-01-08 00:42:53.55	84.06	45.81	
2025-01-08 00:42:53.76	84.20	45.83	
2025-01-08 00:42:53.96	84.33	45.85	
2025-01-08 00:42:54.17	84.46	45.87	
2025-01-08 00:42:54.37	84.59	45.89	
2025-01-08 00:42:54.58	84.73	45.91	
2025-01-08 00:42:54.79	84.86	45.93	
2025-01-08 00:42:54.99	84.99	45.94	
2025-01-08 00:42:55.20	85.13	45.96	
2025-01-08 00:42:55.40	85.26	45.98	
2025-01-08 00:42:55.60	85.39	46.00	
2025-01-08 00:42:55.81	85.53	46.02	
2025-01-08 00:42:56.02	85.66	46.04	
2025-01-08 00:42:56.22	85.80	46.05	
2025-01-08 00:42:56.43	85.93	46.07	
2025-01-08 00:42:56.63	86.06	46.09	
2025-01-08 00:42:56.84	86.20	46.11	
2025-01-08 00:42:57.04	86.33	46.12	
2025-01-08 00:42:57.25	86.47	46.14	
2025-01-08 00:42:57.45	86.60	46.16	
2025-01-08 00:42:57.66	86.74	46.17	
2025-01-08 00:42:57.86	86.87	46.19	
2025-01-08 00:42:58.07	87.01	46.21	
2025-01-08 00:42:58.27	87.14	46.22	
2025-01-08 00:42:58.48	87.28	46.24	
2025-01-08 00:42:58.69	87.42	46.26	
2025-01-08 00:42:58.89	87.55	46.27	
2025-01-08 00:42:59.09	87.68	46.29	
2025-01-08 00:42:59.31	87.83	46.30	
2025-01-08 00:42:59.51	87.96	46.32	
2025-01-08 00:42:59.72	88.10	46.33	
2025-01-08 00:42:59.92	88.24	46.35	
2025-01-08 00:43:00.13	88.38	46.36	
2025-01-08 00:43:00.33	88.51	46.38	
2025-01-08 00:43:00.54	88.65	46.39	
2025-01-08 00:43:00.74	88.78	46.41	
2025-01-08 00:43:00.95	88.92	46.42	
2025-01-08 00:43:01.15	89.06	46.43	
2025-01-08 00:43:01.36	89.20	46.45	
2025-01-08 00:43:01.57	89.34	46.46	
2025-01-08 00:43:01.77	89.47	46.47	
2025-01-08 00:43:01.97	89.61	46.49	
2025-01-08 00:43:02.18	89.75	46.50	
2025-01-08 00:43:02.39	89.89	46.51	
2025-01-08 00:43:02.59	90.02	46.53	
2025-01-08 00:43:02.80	90.17	46.54	
2025-01-08 00:43:03.00	90.30	46.55	
2025-01-08 00:43:03.21	90.44	46.56	
2025-01-08 00:43:03.41	90.58	46.57	
2025-01-08 00:43:03.62	90.72	46.59	
2025-01-08 00:43:03.82	90.85	46.60	
2025-01-08 00:43:04.03	91.00	46.61	
2025-01-08 00:43:04.24	91.14	46.62	
2025-01-08 00:43:04.44	91.27	46.63	
2025-01-08 00:43:04.65	91.42	46.64	
2025-01-08 00:43:04.85	91.55	46.65	
2025-01-08 00:43:05.06	91.70	46.66	
2025-01-08 00:43:05.26	91.83	46.67	
2025-01-08 00:43:05.47	91.97	46.69	
2025-01-08 00:43:05.67	92.11	46.69	
2025-01-08 00:43:05.88	92.25	46.70	
2025-01-08 00:43:06.08	92.39	46.71	
2025-01-08 00:43:06.29	92.53	46.72	
2025-01-08 00:43:06.49	92.67	46.73	
2025-01-08 00:43:06.70	92.81	46.74	
2025-01-08 00:43:06.90	92.95	46.75	
2025-01-08 00:43:07.11	93.09	46.76	
2025-01-08 00:43:07.31	93.23	46.77	
2025-01-08 00:43:07.52	93.37	46.78	
2025-01-08 00:43:07.72	93.51	46.79	
2025-01-08 00:43:07.93	93.65	46.79	
2025-01-08 00:43:08.14	93.80	46.80	
2025-01-08 00:43:08.34	93.94	46.81	
2025-01-08 00:43:08.54	94.07	46.82	
2025-01-08 00:43:08.75	94.22	46.82	
2025-01-08 00:43:08.95	94.35	46.83	
2025-01-08 00:43:09.16	94.50	46.84	
2025-01-08 00:43:09.36	94.64	46.84	
2025-01-08 00:43:09.58	94.79	46.85	
