passes_logs/2025/01/08/SPB_Silybum_02/SPB_Silybum_02__20250108_224514_SUOMI_NPP_rec.log

#Pass ID: 20250108_224514_SUOMI NPP
#Satellite: SUOMI NPP
#Configuration: NPP
#Start time: 2025-01-08 22:45:14

#Version: 2.0.20230423
#Station: SPB_Silybum_02
#Location: 30.233357 lon 59.946436 lat
#TLE: 1 37849U 11061A   25008.15329241  .00000250  00000+0  13932-3 0  9999
#TLE: 2 37849  98.7439 309.2289 0001915  51.2946 308.8402 14.19535012683945

#Time	Az	El	Level	Level2	SNR	BER	Gain	Gain2
2025-01-08 22:45:16.78	25.51	4.13	
2025-01-08 22:45:16.98	25.52	4.14	
2025-01-08 22:45:17.19	25.54	4.15	
2025-01-08 22:45:17.39	25.55	4.16	
2025-01-08 22:45:17.60	25.57	4.18	
2025-01-08 22:45:17.80	25.58	4.19	
2025-01-08 22:45:18.01	25.60	4.20	
2025-01-08 22:45:18.21	25.62	4.21	
2025-01-08 22:45:18.43	25.63	4.23	
2025-01-08 22:45:18.64	25.65	4.24	
2025-01-08 22:45:18.84	25.66	4.25	
2025-01-08 22:45:19.05	25.68	4.26	
2025-01-08 22:45:19.25	25.70	4.27	
2025-01-08 22:45:19.46	25.71	4.29	
2025-01-08 22:45:19.66	25.73	4.30	
2025-01-08 22:45:19.87	25.74	4.31	
2025-01-08 22:45:20.07	25.76	4.32	
2025-01-08 22:45:20.28	25.77	4.33	
2025-01-08 22:45:20.48	25.79	4.35	
2025-01-08 22:45:20.69	25.81	4.36	
2025-01-08 22:45:20.89	25.82	4.37	
2025-01-08 22:45:21.10	25.84	4.38	
2025-01-08 22:45:21.30	25.85	4.40	
2025-01-08 22:45:21.51	25.87	4.41	
2025-01-08 22:45:21.71	25.88	4.42	
2025-01-08 22:45:21.91	25.90	4.43	
2025-01-08 22:45:22.12	25.92	4.44	
2025-01-08 22:45:22.32	25.93	4.46	
2025-01-08 22:45:22.53	25.95	4.47	
2025-01-08 22:45:22.73	25.96	4.48	
2025-01-08 22:45:22.94	25.98	4.49	
2025-01-08 22:45:23.14	25.99	4.50	
2025-01-08 22:45:23.35	26.01	4.52	
2025-01-08 22:45:23.55	26.03	4.53	
2025-01-08 22:45:23.77	26.04	4.54	
2025-01-08 22:45:23.97	26.06	4.55	
2025-01-08 22:45:24.18	26.08	4.57	
2025-01-08 22:45:24.39	26.09	4.58	
2025-01-08 22:45:24.59	26.11	4.59	
2025-01-08 22:45:24.80	26.12	4.60	
2025-01-08 22:45:25.00	26.14	4.62	
2025-01-08 22:45:25.21	26.16	4.63	
2025-01-08 22:45:25.41	26.17	4.64	
2025-01-08 22:45:25.62	26.19	4.65	
2025-01-08 22:45:25.82	26.20	4.66	
2025-01-08 22:45:26.03	26.22	4.68	
2025-01-08 22:45:26.23	26.24	4.69	
2025-01-08 22:45:26.44	26.25	4.70	
2025-01-08 22:45:26.64	26.27	4.71	
2025-01-08 22:45:26.85	26.28	4.73	
2025-01-08 22:45:27.05	26.30	4.74	
2025-01-08 22:45:27.26	26.32	4.75	
2025-01-08 22:45:27.47	26.33	4.76	
2025-01-08 22:45:27.67	26.35	4.77	
2025-01-08 22:45:27.88	26.37	4.79	
2025-01-08 22:45:28.08	26.38	4.80	
2025-01-08 22:45:28.29	26.40	4.81	
2025-01-08 22:45:28.49	26.41	4.82	
2025-01-08 22:45:28.70	26.43	4.84	
2025-01-08 22:45:28.90	26.45	4.85	
2025-01-08 22:45:29.11	26.46	4.86	
2025-01-08 22:45:29.31	26.48	4.87	
2025-01-08 22:45:29.52	26.50	4.89	
2025-01-08 22:45:29.72	26.51	4.90	
2025-01-08 22:45:29.93	26.53	4.91	
2025-01-08 22:45:30.13	26.54	4.92	
2025-01-08 22:45:30.34	26.56	4.94	
2025-01-08 22:45:30.54	26.58	4.95	
2025-01-08 22:45:30.75	26.59	4.96	
2025-01-08 22:45:30.95	26.61	4.97	
2025-01-08 22:45:31.16	26.63	4.98	
2025-01-08 22:45:31.36	26.64	5.00	
2025-01-08 22:45:31.57	26.66	5.01	
2025-01-08 22:45:31.78	26.68	5.02	
2025-01-08 22:45:31.98	26.69	5.03	
2025-01-08 22:45:32.18	26.71	5.05	
2025-01-08 22:45:32.39	26.73	5.06	
2025-01-08 22:45:32.59	26.74	5.07	
2025-01-08 22:45:32.80	26.76	5.08	
2025-01-08 22:45:33.01	26.78	5.10	
2025-01-08 22:45:33.21	26.79	5.11	
2025-01-08 22:45:33.41	26.81	5.12	
2025-01-08 22:45:33.62	26.82	5.13	
2025-01-08 22:45:33.82	26.84	5.14	
2025-01-08 22:45:34.03	26.86	5.16	
2025-01-08 22:45:34.24	26.87	5.17	
2025-01-08 22:45:34.44	26.89	5.18	
2025-01-08 22:45:34.64	26.91	5.19	
2025-01-08 22:45:34.85	26.92	5.21	
2025-01-08 22:45:35.05	26.94	5.22	
2025-01-08 22:45:35.26	26.96	5.23	
2025-01-08 22:45:35.46	26.97	5.24	
2025-01-08 22:45:35.67	26.99	5.26	
2025-01-08 22:45:35.87	27.01	5.27	
2025-01-08 22:45:36.08	27.02	5.28	
2025-01-08 22:45:36.28	27.04	5.29	
2025-01-08 22:45:36.49	27.06	5.31	
2025-01-08 22:45:36.69	27.07	5.32	
2025-01-08 22:45:36.91	27.09	5.33	
2025-01-08 22:45:37.11	27.11	5.34	
2025-01-08 22:45:37.32	27.13	5.36	
2025-01-08 22:45:37.52	27.14	5.37	
2025-01-08 22:45:37.72	27.16	5.38	
2025-01-08 22:45:37.93	27.18	5.39	
2025-01-08 22:45:38.13	27.19	5.41	
2025-01-08 22:45:38.34	27.21	5.42	
2025-01-08 22:45:38.55	27.23	5.43	
2025-01-08 22:45:38.75	27.24	5.44	
2025-01-08 22:45:38.96	27.26	5.46	
2025-01-08 22:45:39.16	27.28	5.47	
2025-01-08 22:45:39.37	27.29	5.48	
2025-01-08 22:45:39.57	27.31	5.49	
2025-01-08 22:45:39.77	27.33	5.51	
2025-01-08 22:45:39.98	27.34	5.52	
2025-01-08 22:45:40.18	27.36	5.53	
2025-01-08 22:45:40.39	27.38	5.54	
2025-01-08 22:45:40.59	27.39	5.56	
2025-01-08 22:45:40.80	27.41	5.57	
2025-01-08 22:45:41.00	27.43	5.58	
2025-01-08 22:45:41.21	27.45	5.59	
2025-01-08 22:45:41.41	27.46	5.61	
2025-01-08 22:45:41.62	27.48	5.62	
2025-01-08 22:45:41.82	27.50	5.63	
2025-01-08 22:45:42.03	27.51	5.64	
2025-01-08 22:45:42.23	27.53	5.66	
2025-01-08 22:45:42.44	27.55	5.67	
2025-01-08 22:45:42.64	27.57	5.68	
2025-01-08 22:45:42.85	27.58	5.69	
2025-01-08 22:45:43.05	27.60	5.71	
2025-01-08 22:45:43.26	27.62	5.72	
2025-01-08 22:45:43.46	27.63	5.73	
2025-01-08 22:45:43.67	27.65	5.75	
2025-01-08 22:45:43.87	27.67	5.76	
2025-01-08 22:45:44.09	27.69	5.77	
2025-01-08 22:45:44.30	27.70	5.78	
2025-01-08 22:45:44.50	27.72	5.80	
2025-01-08 22:45:44.71	27.74	5.81	
2025-01-08 22:45:44.92	27.76	5.82	
2025-01-08 22:45:45.12	27.77	5.83	
2025-01-08 22:45:45.33	27.79	5.85	
2025-01-08 22:45:45.53	27.81	5.86	
2025-01-08 22:45:45.73	27.83	5.87	
2025-01-08 22:45:45.94	27.84	5.88	
2025-01-08 22:45:46.14	27.86	5.90	
2025-01-08 22:45:46.35	27.88	5.91	
2025-01-08 22:45:46.55	27.90	5.92	
2025-01-08 22:45:46.76	27.91	5.94	
2025-01-08 22:45:46.97	27.93	5.95	
2025-01-08 22:45:47.17	27.95	5.96	
2025-01-08 22:45:47.37	27.97	5.97	
2025-01-08 22:45:47.58	27.98	5.99	
2025-01-08 22:45:47.78	28.00	6.00	
2025-01-08 22:45:47.99	28.02	6.01	
2025-01-08 22:45:48.19	28.04	6.02	
2025-01-08 22:45:48.40	28.05	6.04	
2025-01-08 22:45:48.60	28.07	6.05	
2025-01-08 22:45:48.81	28.09	6.06	
2025-01-08 22:45:49.02	28.11	6.07	
2025-01-08 22:45:49.22	28.12	6.09	
2025-01-08 22:45:49.44	28.14	6.10	
2025-01-08 22:45:49.64	28.16	6.11	
2025-01-08 22:45:49.85	28.18	6.13	
2025-01-08 22:45:50.05	28.19	6.14	
2025-01-08 22:45:50.26	28.21	6.15	
2025-01-08 22:45:50.46	28.23	6.16	
2025-01-08 22:45:50.67	28.25	6.18	
2025-01-08 22:45:50.87	28.27	6.19	
2025-01-08 22:45:51.08	28.28	6.20	
2025-01-08 22:45:51.28	28.30	6.21	
2025-01-08 22:45:51.49	28.32	6.23	
2025-01-08 22:45:51.69	28.34	6.24	
2025-01-08 22:45:51.90	28.35	6.25	
2025-01-08 22:45:52.11	28.37	6.27	
2025-01-08 22:45:52.31	28.39	6.28	
2025-01-08 22:45:52.51	28.41	6.29	
2025-01-08 22:45:52.72	28.43	6.30	
2025-01-08 22:45:52.92	28.44	6.32	
2025-01-08 22:45:53.13	28.46	6.33	
2025-01-08 22:45:53.34	28.48	6.34	
2025-01-08 22:45:53.54	28.50	6.36	
2025-01-08 22:45:53.74	28.52	6.37	
2025-01-08 22:45:53.95	28.53	6.38	
2025-01-08 22:45:54.16	28.55	6.39	
2025-01-08 22:45:54.36	28.57	6.41	
2025-01-08 22:45:54.57	28.59	6.42	
2025-01-08 22:45:54.77	28.61	6.43	
2025-01-08 22:45:54.97	28.62	6.44	
2025-01-08 22:45:55.18	28.64	6.46	
2025-01-08 22:45:55.39	28.66	6.47	
2025-01-08 22:45:55.59	28.68	6.48	
2025-01-08 22:45:55.81	28.70	6.50	
2025-01-08 22:45:56.01	28.71	6.51	
2025-01-08 22:45:56.22	28.73	6.52	
2025-01-08 22:45:56.42	28.75	6.54	
2025-01-08 22:45:56.63	28.77	6.55	
2025-01-08 22:45:56.83	28.79	6.56	
2025-01-08 22:45:57.04	28.81	6.57	
2025-01-08 22:45:57.24	28.82	6.59	
2025-01-08 22:45:57.45	28.84	6.60	
2025-01-08 22:45:57.65	28.86	6.61	
2025-01-08 22:45:57.86	28.88	6.63	
2025-01-08 22:45:58.06	28.90	6.64	
2025-01-08 22:45:58.27	28.91	6.65	
2025-01-08 22:45:58.47	28.93	6.66	
2025-01-08 22:45:58.68	28.95	6.68	
2025-01-08 22:45:58.88	28.97	6.69	
2025-01-08 22:45:59.09	28.99	6.70	
2025-01-08 22:45:59.29	29.01	6.72	
2025-01-08 22:45:59.50	29.02	6.73	
2025-01-08 22:45:59.70	29.04	6.74	
2025-01-08 22:45:59.91	29.06	6.75	
2025-01-08 22:46:00.12	29.08	6.77	
2025-01-08 22:46:00.33	29.10	6.78	
2025-01-08 22:46:00.53	29.12	6.79	
2025-01-08 22:46:00.74	29.14	6.81	
2025-01-08 22:46:00.94	29.15	6.82	
2025-01-08 22:46:01.16	29.17	6.83	
2025-01-08 22:46:01.37	29.19	6.85	
2025-01-08 22:46:01.57	29.21	6.86	
2025-01-08 22:46:01.77	29.23	6.87	
2025-01-08 22:46:01.98	29.25	6.89	
2025-01-08 22:46:02.18	29.27	6.90	
2025-01-08 22:46:02.39	29.29	6.91	
2025-01-08 22:46:02.59	29.30	6.92	
2025-01-08 22:46:02.80	29.32	6.94	
2025-01-08 22:46:03.01	29.34	6.95	
2025-01-08 22:46:03.22	29.36	6.96	
2025-01-08 22:46:03.43	29.38	6.98	
2025-01-08 22:46:03.63	29.40	6.99	
2025-01-08 22:46:03.84	29.42	7.00	
2025-01-08 22:46:04.04	29.44	7.02	
2025-01-08 22:46:04.25	29.45	7.03	
2025-01-08 22:46:04.45	29.47	7.04	
2025-01-08 22:46:04.66	29.49	7.05	
2025-01-08 22:46:04.87	29.51	7.07	
2025-01-08 22:46:05.07	29.53	7.08	
2025-01-08 22:46:05.28	29.55	7.09	
2025-01-08 22:46:05.48	29.57	7.11	
2025-01-08 22:46:05.68	29.59	7.12	
2025-01-08 22:46:05.89	29.60	7.13	
2025-01-08 22:46:06.09	29.62	7.15	
2025-01-08 22:46:06.30	29.64	7.16	
2025-01-08 22:46:06.50	29.66	7.17	
2025-01-08 22:46:06.71	29.68	7.19	
2025-01-08 22:46:06.91	29.70	7.20	
2025-01-08 22:46:07.12	29.72	7.21	
2025-01-08 22:46:07.32	29.74	7.22	
2025-01-08 22:46:07.53	29.76	7.24	
2025-01-08 22:46:07.73	29.77	7.25	
2025-01-08 22:46:07.94	29.79	7.26	
2025-01-08 22:46:08.14	29.81	7.28	
2025-01-08 22:46:08.35	29.83	7.29	
2025-01-08 22:46:08.55	29.85	7.30	
2025-01-08 22:46:08.75	29.87	7.32	
2025-01-08 22:46:08.96	29.89	7.33	
2025-01-08 22:46:09.17	29.91	7.34	
2025-01-08 22:46:09.37	29.93	7.35	
2025-01-08 22:46:09.57	29.95	7.37	
2025-01-08 22:46:09.78	29.96	7.38	
2025-01-08 22:46:09.99	29.98	7.39	
2025-01-08 22:46:10.20	30.00	7.41	
2025-01-08 22:46:10.41	30.02	7.42	
2025-01-08 22:46:10.61	30.04	7.43	
2025-01-08 22:46:10.82	30.06	7.45	
2025-01-08 22:46:11.02	30.08	7.46	
2025-01-08 22:46:11.23	30.10	7.47	
2025-01-08 22:46:11.43	30.12	7.49	
2025-01-08 22:46:11.63	30.14	7.50	
2025-01-08 22:46:11.84	30.16	7.51	
2025-01-08 22:46:12.04	30.18	7.53	
2025-01-08 22:46:12.25	30.20	7.54	
2025-01-08 22:46:12.45	30.22	7.55	
2025-01-08 22:46:12.66	30.24	7.57	
2025-01-08 22:46:12.86	30.25	7.58	
2025-01-08 22:46:13.08	30.28	7.59	
2025-01-08 22:46:13.29	30.30	7.61	
2025-01-08 22:46:13.49	30.31	7.62	
2025-01-08 22:46:13.70	30.33	7.63	
2025-01-08 22:46:13.90	30.35	7.65	
2025-01-08 22:46:14.11	30.37	7.66	
2025-01-08 22:46:14.32	30.39	7.67	
2025-01-08 22:46:14.52	30.41	7.69	
2025-01-08 22:46:14.73	30.43	7.70	
2025-01-08 22:46:14.93	30.45	7.71	
2025-01-08 22:46:15.14	30.47	7.73	
2025-01-08 22:46:15.34	30.49	7.74	
2025-01-08 22:46:15.55	30.51	7.75	
2025-01-08 22:46:15.75	30.53	7.76	
2025-01-08 22:46:15.96	30.55	7.78	
2025-01-08 22:46:16.16	30.57	7.79	
2025-01-08 22:46:16.37	30.59	7.80	
2025-01-08 22:46:16.58	30.61	7.82	
2025-01-08 22:46:16.78	30.63	7.83	
2025-01-08 22:46:16.99	30.65	7.84	
2025-01-08 22:46:17.19	30.67	7.86	
2025-01-08 22:46:17.40	30.69	7.87	
2025-01-08 22:46:17.60	30.71	7.88	
2025-01-08 22:46:17.81	30.73	7.90	
2025-01-08 22:46:18.01	30.75	7.91	
2025-01-08 22:46:18.22	30.77	7.92	
2025-01-08 22:46:18.42	30.79	7.94	
2025-01-08 22:46:18.63	30.81	7.95	
2025-01-08 22:46:18.83	30.83	7.96	
2025-01-08 22:46:19.04	30.85	7.98	
2025-01-08 22:46:19.25	30.87	7.99	
2025-01-08 22:46:19.45	30.89	8.00	
2025-01-08 22:46:19.66	30.91	8.02	
2025-01-08 22:46:19.86	30.93	8.03	
2025-01-08 22:46:20.07	30.95	8.04	
2025-01-08 22:46:20.29	30.97	8.06	
2025-01-08 22:46:20.49	30.99	8.07	
2025-01-08 22:46:20.70	31.01	8.09	
2025-01-08 22:46:20.90	31.03	8.10	
2025-01-08 22:46:21.11	31.05	8.11	
2025-01-08 22:46:21.31	31.07	8.12	
2025-01-08 22:46:21.52	31.09	8.14	
2025-01-08 22:46:21.72	31.11	8.15	
2025-01-08 22:46:21.93	31.13	8.17	
2025-01-08 22:46:22.13	31.15	8.18	
2025-01-08 22:46:22.34	31.17	8.19	
2025-01-08 22:46:22.54	31.19	8.20	
2025-01-08 22:46:22.75	31.21	8.22	
2025-01-08 22:46:22.95	31.23	8.23	
2025-01-08 22:46:23.16	31.25	8.25	
2025-01-08 22:46:23.36	31.27	8.26	
2025-01-08 22:46:23.58	31.29	8.27	
2025-01-08 22:46:23.79	31.31	8.29	
2025-01-08 22:46:23.99	31.33	8.30	
2025-01-08 22:46:24.20	31.35	8.31	
2025-01-08 22:46:24.40	31.37	8.33	
2025-01-08 22:46:24.60	31.39	8.34	
2025-01-08 22:46:24.81	31.41	8.35	
2025-01-08 22:46:25.01	31.43	8.37	
2025-01-08 22:46:25.22	31.45	8.38	
2025-01-08 22:46:25.42	31.47	8.39	
2025-01-08 22:46:25.63	31.50	8.41	
2025-01-08 22:46:25.83	31.52	8.42	
2025-01-08 22:46:26.04	31.54	8.43	
2025-01-08 22:46:26.25	31.56	8.45	
2025-01-08 22:46:26.45	31.58	8.46	
2025-01-08 22:46:26.65	31.60	8.47	
2025-01-08 22:46:26.86	31.62	8.49	
2025-01-08 22:46:27.06	31.64	8.50	
2025-01-08 22:46:27.27	31.66	8.51	
2025-01-08 22:46:27.47	31.68	8.53	
2025-01-08 22:46:27.68	31.70	8.54	
2025-01-08 22:46:27.89	31.72	8.56	
2025-01-08 22:46:28.09	31.74	8.57	
2025-01-08 22:46:28.30	31.76	8.58	
2025-01-08 22:46:28.51	31.79	8.60	
2025-01-08 22:46:28.71	31.81	8.61	
2025-01-08 22:46:28.92	31.83	8.62	
2025-01-08 22:46:29.12	31.85	8.64	
2025-01-08 22:46:29.33	31.87	8.65	
2025-01-08 22:46:29.53	31.89	8.66	
2025-01-08 22:46:29.74	31.91	8.68	
2025-01-08 22:46:29.94	31.93	8.69	
2025-01-08 22:46:30.15	31.95	8.70	
2025-01-08 22:46:30.35	31.97	8.72	
2025-01-08 22:46:30.56	31.99	8.73	
2025-01-08 22:46:30.76	32.01	8.74	
2025-01-08 22:46:30.97	32.04	8.76	
2025-01-08 22:46:31.17	32.06	8.77	
2025-01-08 22:46:31.38	32.08	8.79	
2025-01-08 22:46:31.58	32.10	8.80	
2025-01-08 22:46:31.79	32.12	8.81	
2025-01-08 22:46:32.00	32.14	8.83	
2025-01-08 22:46:32.20	32.16	8.84	
2025-01-08 22:46:32.40	32.18	8.85	
2025-01-08 22:46:32.61	32.20	8.87	
2025-01-08 22:46:32.81	32.22	8.88	
2025-01-08 22:46:33.02	32.25	8.89	
2025-01-08 22:46:33.22	32.27	8.91	
2025-01-08 22:46:33.43	32.29	8.92	
2025-01-08 22:46:33.64	32.31	8.93	
2025-01-08 22:46:33.84	32.33	8.95	
2025-01-08 22:46:34.05	32.35	8.96	
2025-01-08 22:46:34.25	32.37	8.98	
2025-01-08 22:46:34.46	32.39	8.99	
2025-01-08 22:46:34.66	32.42	9.00	
2025-01-08 22:46:34.87	32.44	9.02	
2025-01-08 22:46:35.07	32.46	9.03	
2025-01-08 22:46:35.27	32.48	9.04	
2025-01-08 22:46:35.48	32.50	9.06	
2025-01-08 22:46:35.68	32.52	9.07	
2025-01-08 22:46:35.89	32.54	9.08	
2025-01-08 22:46:36.09	32.56	9.10	
2025-01-08 22:46:36.30	32.59	9.11	
2025-01-08 22:46:36.50	32.61	9.12	
2025-01-08 22:46:36.71	32.63	9.14	
2025-01-08 22:46:36.92	32.65	9.15	
2025-01-08 22:46:37.12	32.67	9.17	
2025-01-08 22:46:37.33	32.69	9.18	
2025-01-08 22:46:37.54	32.72	9.19	
2025-01-08 22:46:37.75	32.74	9.21	
2025-01-08 22:46:37.95	32.76	9.22	
2025-01-08 22:46:38.16	32.78	9.24	
2025-01-08 22:46:38.36	32.80	9.25	
2025-01-08 22:46:38.57	32.82	9.26	
2025-01-08 22:46:38.77	32.85	9.28	
2025-01-08 22:46:38.98	32.87	9.29	
2025-01-08 22:46:39.18	32.89	9.30	
2025-01-08 22:46:39.39	32.91	9.32	
2025-01-08 22:46:39.59	32.93	9.33	
2025-01-08 22:46:39.80	32.96	9.35	
2025-01-08 22:46:40.00	32.98	9.36	
2025-01-08 22:46:40.21	33.00	9.37	
2025-01-08 22:46:40.41	33.02	9.39	
2025-01-08 22:46:40.63	33.04	9.40	
2025-01-08 22:46:40.83	33.06	9.41	
2025-01-08 22:46:41.04	33.09	9.43	
2025-01-08 22:46:41.24	33.11	9.44	
2025-01-08 22:46:41.45	33.13	9.46	
2025-01-08 22:46:41.66	33.15	9.47	
2025-01-08 22:46:41.86	33.17	9.48	
2025-01-08 22:46:42.07	33.20	9.50	
2025-01-08 22:46:42.27	33.22	9.51	
2025-01-08 22:46:42.48	33.24	9.52	
2025-01-08 22:46:42.68	33.26	9.54	
2025-01-08 22:46:42.88	33.28	9.55	
2025-01-08 22:46:43.09	33.31	9.57	
2025-01-08 22:46:43.30	33.33	9.58	
2025-01-08 22:46:43.50	33.35	9.59	
2025-01-08 22:46:43.71	33.37	9.61	
2025-01-08 22:46:43.92	33.40	9.62	
2025-01-08 22:46:44.13	33.42	9.64	
2025-01-08 22:46:44.34	33.44	9.65	
2025-01-08 22:46:44.54	33.46	9.66	
2025-01-08 22:46:44.75	33.49	9.68	
2025-01-08 22:46:44.95	33.51	9.69	
2025-01-08 22:46:45.16	33.53	9.71	
2025-01-08 22:46:45.36	33.55	9.72	
2025-01-08 22:46:45.57	33.58	9.73	
2025-01-08 22:46:45.77	33.60	9.75	
2025-01-08 22:46:45.98	33.62	9.76	
2025-01-08 22:46:46.18	33.64	9.77	
2025-01-08 22:46:46.39	33.67	9.79	
2025-01-08 22:46:46.59	33.69	9.80	
2025-01-08 22:46:46.80	33.71	9.82	
2025-01-08 22:46:47.00	33.73	9.83	
2025-01-08 22:46:47.21	33.75	9.84	
2025-01-08 22:46:47.41	33.78	9.86	
2025-01-08 22:46:47.62	33.80	9.87	
2025-01-08 22:46:47.82	33.82	9.89	
2025-01-08 22:46:48.03	33.84	9.90	
2025-01-08 22:46:48.23	33.87	9.91	
2025-01-08 22:46:48.44	33.89	9.93	
2025-01-08 22:46:48.64	33.91	9.94	
2025-01-08 22:46:48.85	33.94	9.95	
2025-01-08 22:46:49.05	33.96	9.97	
2025-01-08 22:46:49.26	33.98	9.98	
2025-01-08 22:46:49.46	34.00	10.00	
2025-01-08 22:46:49.66	34.03	10.01	
2025-01-08 22:46:49.87	34.05	10.02	
2025-01-08 22:46:50.08	34.07	10.04	
2025-01-08 22:46:50.28	34.09	10.05	
2025-01-08 22:46:50.48	34.12	10.07	
2025-01-08 22:46:50.69	34.14	10.08	
2025-01-08 22:46:50.89	34.16	10.09	
2025-01-08 22:46:51.10	34.19	10.11	
2025-01-08 22:46:51.30	34.21	10.12	
2025-01-08 22:46:51.51	34.23	10.14	
2025-01-08 22:46:51.72	34.25	10.15	
2025-01-08 22:46:51.92	34.28	10.16	
2025-01-08 22:46:52.13	34.30	10.18	
2025-01-08 22:46:52.34	34.32	10.19	
2025-01-08 22:46:52.55	34.35	10.21	
2025-01-08 22:46:52.75	34.37	10.22	
2025-01-08 22:46:52.96	34.39	10.23	
2025-01-08 22:46:53.16	34.42	10.25	
2025-01-08 22:46:53.37	34.44	10.26	
2025-01-08 22:46:53.57	34.46	10.28	
2025-01-08 22:46:53.77	34.49	10.29	
2025-01-08 22:46:53.98	34.51	10.30	
2025-01-08 22:46:54.18	34.53	10.32	
2025-01-08 22:46:54.39	34.56	10.33	
2025-01-08 22:46:54.59	34.58	10.35	
2025-01-08 22:46:54.80	34.60	10.36	
2025-01-08 22:46:55.00	34.62	10.37	
2025-01-08 22:46:55.21	34.65	10.39	
2025-01-08 22:46:55.41	34.67	10.40	
2025-01-08 22:46:55.62	34.69	10.42	
2025-01-08 22:46:55.82	34.72	10.43	
2025-01-08 22:46:56.03	34.74	10.44	
2025-01-08 22:46:56.23	34.76	10.46	
2025-01-08 22:46:56.44	34.79	10.47	
2025-01-08 22:46:56.64	34.81	10.49	
2025-01-08 22:46:56.84	34.83	10.50	
2025-01-08 22:46:57.05	34.86	10.51	
2025-01-08 22:46:57.25	34.88	10.53	
2025-01-08 22:46:57.46	34.91	10.54	
2025-01-08 22:46:57.67	34.93	10.56	
2025-01-08 22:46:57.87	34.95	10.57	
2025-01-08 22:46:58.07	34.98	10.58	
2025-01-08 22:46:58.28	35.00	10.60	
2025-01-08 22:46:58.49	35.02	10.61	
2025-01-08 22:46:58.69	35.05	10.63	
2025-01-08 22:46:58.89	35.07	10.64	
2025-01-08 22:46:59.10	35.09	10.65	
2025-01-08 22:46:59.30	35.12	10.67	
2025-01-08 22:46:59.51	35.14	10.68	
2025-01-08 22:46:59.71	35.17	10.70	
2025-01-08 22:46:59.92	35.19	10.71	
2025-01-08 22:47:00.12	35.21	10.72	
2025-01-08 22:47:00.32	35.24	10.74	
2025-01-08 22:47:00.53	35.26	10.75	
2025-01-08 22:47:00.73	35.28	10.77	
2025-01-08 22:47:00.94	35.31	10.78	
2025-01-08 22:47:01.14	35.33	10.80	
2025-01-08 22:47:01.35	35.36	10.81	
2025-01-08 22:47:01.55	35.38	10.82	
2025-01-08 22:47:01.76	35.40	10.84	
2025-01-08 22:47:01.96	35.43	10.85	
2025-01-08 22:47:02.17	35.45	10.87	
2025-01-08 22:47:02.37	35.48	10.88	
2025-01-08 22:47:02.58	35.50	10.89	
2025-01-08 22:47:02.78	35.52	10.91	
2025-01-08 22:47:02.98	35.55	10.92	
2025-01-08 22:47:03.19	35.57	10.94	
2025-01-08 22:47:03.39	35.60	10.95	
2025-01-08 22:47:03.60	35.62	10.97	
2025-01-08 22:47:03.80	35.64	10.98	
2025-01-08 22:47:04.01	35.67	10.99	
2025-01-08 22:47:04.21	35.69	11.01	
2025-01-08 22:47:04.42	35.72	11.02	
2025-01-08 22:47:04.62	35.74	11.04	
2025-01-08 22:47:04.83	35.77	11.05	
2025-01-08 22:47:05.03	35.79	11.06	
2025-01-08 22:47:05.24	35.81	11.08	
2025-01-08 22:47:05.44	35.84	11.09	
2025-01-08 22:47:05.65	35.86	11.11	
2025-01-08 22:47:05.85	35.89	11.12	
2025-01-08 22:47:06.06	35.91	11.14	
2025-01-08 22:47:06.26	35.94	11.15	
2025-01-08 22:47:06.46	35.96	11.16	
2025-01-08 22:47:06.67	35.99	11.18	
2025-01-08 22:47:06.88	36.01	11.19	
2025-01-08 22:47:07.08	36.03	11.21	
2025-01-08 22:47:07.29	36.06	11.22	
2025-01-08 22:47:07.49	36.08	11.23	
2025-01-08 22:47:07.70	36.11	11.25	
2025-01-08 22:47:07.90	36.13	11.26	
2025-01-08 22:47:08.11	36.16	11.28	
2025-01-08 22:47:08.31	36.18	11.29	
2025-01-08 22:47:08.51	36.21	11.31	
2025-01-08 22:47:08.72	36.23	11.32	
2025-01-08 22:47:08.93	36.26	11.34	
2025-01-08 22:47:09.13	36.28	11.35	
2025-01-08 22:47:09.34	36.31	11.36	
2025-01-08 22:47:09.54	36.33	11.38	
2025-01-08 22:47:09.75	36.36	11.39	
2025-01-08 22:47:09.95	36.38	11.41	
2025-01-08 22:47:10.16	36.41	11.42	
2025-01-08 22:47:10.36	36.43	11.43	
2025-01-08 22:47:10.57	36.46	11.45	
2025-01-08 22:47:10.77	36.48	11.46	
2025-01-08 22:47:10.98	36.51	11.48	
2025-01-08 22:47:11.19	36.53	11.49	
2025-01-08 22:47:11.40	36.56	11.51	
2025-01-08 22:47:11.61	36.58	11.52	
2025-01-08 22:47:11.82	36.61	11.54	
2025-01-08 22:47:12.02	36.63	11.55	
2025-01-08 22:47:12.23	36.66	11.57	
2025-01-08 22:47:12.43	36.68	11.58	
2025-01-08 22:47:12.64	36.71	11.59	
2025-01-08 22:47:12.84	36.73	11.61	
2025-01-08 22:47:13.05	36.76	11.62	
2025-01-08 22:47:13.25	36.79	11.64	
2025-01-08 22:47:13.46	36.81	11.65	
2025-01-08 22:47:13.66	36.84	11.67	
2025-01-08 22:47:13.87	36.86	11.68	
2025-01-08 22:47:14.07	36.89	11.69	
2025-01-08 22:47:14.28	36.91	11.71	
2025-01-08 22:47:14.48	36.94	11.72	
2025-01-08 22:47:14.69	36.96	11.74	
2025-01-08 22:47:14.89	36.99	11.75	
2025-01-08 22:47:15.10	37.01	11.77	
2025-01-08 22:47:15.30	37.04	11.78	
2025-01-08 22:47:15.51	37.07	11.80	
2025-01-08 22:47:15.71	37.09	11.81	
2025-01-08 22:47:15.93	37.12	11.82	
2025-01-08 22:47:16.14	37.14	11.84	
2025-01-08 22:47:16.34	37.17	11.85	
2025-01-08 22:47:16.55	37.20	11.87	
2025-01-08 22:47:16.75	37.22	11.88	
2025-01-08 22:47:16.97	37.25	11.90	
2025-01-08 22:47:17.17	37.27	11.91	
2025-01-08 22:47:17.38	37.30	11.93	
2025-01-08 22:47:17.58	37.32	11.94	
2025-01-08 22:47:17.79	37.35	11.96	
2025-01-08 22:47:17.99	37.38	11.97	
2025-01-08 22:47:18.20	37.40	11.98	
2025-01-08 22:47:18.40	37.43	12.00	
2025-01-08 22:47:18.61	37.45	12.01	
2025-01-08 22:47:18.81	37.48	12.03	
2025-01-08 22:47:19.02	37.51	12.04	
2025-01-08 22:47:19.22	37.53	12.06	
2025-01-08 22:47:19.43	37.56	12.07	
2025-01-08 22:47:19.64	37.59	12.09	
2025-01-08 22:47:19.84	37.61	12.10	
2025-01-08 22:47:20.05	37.64	12.11	
2025-01-08 22:47:20.25	37.66	12.13	
2025-01-08 22:47:20.46	37.69	12.14	
2025-01-08 22:47:20.66	37.72	12.16	
2025-01-08 22:47:20.86	37.74	12.17	
2025-01-08 22:47:21.07	37.77	12.19	
2025-01-08 22:47:21.28	37.79	12.20	
2025-01-08 22:47:21.48	37.82	12.22	
2025-01-08 22:47:21.69	37.85	12.23	
2025-01-08 22:47:21.89	37.87	12.25	
2025-01-08 22:47:22.10	37.90	12.26	
2025-01-08 22:47:22.30	37.93	12.27	
2025-01-08 22:47:22.51	37.95	12.29	
2025-01-08 22:47:22.71	37.98	12.30	
2025-01-08 22:47:22.92	38.01	12.32	
2025-01-08 22:47:23.12	38.03	12.33	
2025-01-08 22:47:23.32	38.06	12.35	
2025-01-08 22:47:23.53	38.08	12.36	
2025-01-08 22:47:23.74	38.11	12.38	
2025-01-08 22:47:23.94	38.14	12.39	
2025-01-08 22:47:24.15	38.16	12.41	
2025-01-08 22:47:24.35	38.19	12.42	
2025-01-08 22:47:24.55	38.22	12.43	
2025-01-08 22:47:24.76	38.24	12.45	
2025-01-08 22:47:24.96	38.27	12.46	
2025-01-08 22:47:25.17	38.30	12.48	
2025-01-08 22:47:25.37	38.32	12.49	
2025-01-08 22:47:25.58	38.35	12.51	
2025-01-08 22:47:25.78	38.38	12.52	
2025-01-08 22:47:25.98	38.40	12.54	
2025-01-08 22:47:26.19	38.43	12.55	
2025-01-08 22:47:26.39	38.46	12.56	
2025-01-08 22:47:26.60	38.48	12.58	
2025-01-08 22:47:26.80	38.51	12.59	
2025-01-08 22:47:27.01	38.54	12.61	
2025-01-08 22:47:27.21	38.56	12.62	
2025-01-08 22:47:27.42	38.59	12.64	
2025-01-08 22:47:27.62	38.62	12.65	
2025-01-08 22:47:27.83	38.65	12.67	
2025-01-08 22:47:28.03	38.67	12.68	
2025-01-08 22:47:28.24	38.70	12.70	
2025-01-08 22:47:28.44	38.73	12.71	
2025-01-08 22:47:28.64	38.75	12.72	
2025-01-08 22:47:28.85	38.78	12.74	
2025-01-08 22:47:29.05	38.81	12.75	
2025-01-08 22:47:29.26	38.84	12.77	
2025-01-08 22:47:29.46	38.86	12.78	
2025-01-08 22:47:29.67	38.89	12.80	
2025-01-08 22:47:29.87	38.92	12.81	
2025-01-08 22:47:30.08	38.94	12.83	
2025-01-08 22:47:30.28	38.97	12.84	
2025-01-08 22:47:30.49	39.00	12.86	
2025-01-08 22:47:30.69	39.03	12.87	
2025-01-08 22:47:30.90	39.05	12.89	
2025-01-08 22:47:31.10	39.08	12.90	
2025-01-08 22:47:31.31	39.11	12.91	
2025-01-08 22:47:31.51	39.14	12.93	
2025-01-08 22:47:31.72	39.16	12.94	
2025-01-08 22:47:31.92	39.19	12.96	
2025-01-08 22:47:32.12	39.22	12.97	
2025-01-08 22:47:32.33	39.25	12.99	
2025-01-08 22:47:32.53	39.27	13.00	
2025-01-08 22:47:32.74	39.30	13.02	
2025-01-08 22:47:32.94	39.33	13.03	
2025-01-08 22:47:33.15	39.36	13.05	
2025-01-08 22:47:33.36	39.39	13.06	
2025-01-08 22:47:33.56	39.41	13.08	
2025-01-08 22:47:33.77	39.44	13.09	
2025-01-08 22:47:33.97	39.47	13.11	
2025-01-08 22:47:34.17	39.50	13.12	
2025-01-08 22:47:34.38	39.52	13.13	
2025-01-08 22:47:34.58	39.55	13.15	
2025-01-08 22:47:34.79	39.58	13.16	
2025-01-08 22:47:34.99	39.61	13.18	
2025-01-08 22:47:35.20	39.64	13.19	
2025-01-08 22:47:35.40	39.66	13.21	
2025-01-08 22:47:35.61	39.69	13.22	
2025-01-08 22:47:35.81	39.72	13.24	
2025-01-08 22:47:36.02	39.75	13.25	
2025-01-08 22:47:36.22	39.78	13.27	
2025-01-08 22:47:36.43	39.80	13.28	
2025-01-08 22:47:36.63	39.83	13.30	
2025-01-08 22:47:36.84	39.86	13.31	
2025-01-08 22:47:37.04	39.89	13.33	
2025-01-08 22:47:37.25	39.92	13.34	
2025-01-08 22:47:37.45	39.94	13.35	
2025-01-08 22:47:37.66	39.97	13.37	
2025-01-08 22:47:37.86	40.00	13.38	
2025-01-08 22:47:38.06	40.03	13.40	
2025-01-08 22:47:38.28	40.06	13.41	
2025-01-08 22:47:38.49	40.09	13.43	
2025-01-08 22:47:38.69	40.12	13.44	
2025-01-08 22:47:38.90	40.15	13.46	
2025-01-08 22:47:39.10	40.17	13.47	
2025-01-08 22:47:39.31	40.20	13.49	
2025-01-08 22:47:39.51	40.23	13.50	
2025-01-08 22:47:39.72	40.26	13.52	
2025-01-08 22:47:39.92	40.29	13.53	
2025-01-08 22:47:40.13	40.32	13.55	
2025-01-08 22:47:40.34	40.35	13.56	
2025-01-08 22:47:40.54	40.37	13.58	
2025-01-08 22:47:40.75	40.40	13.59	
2025-01-08 22:47:40.95	40.43	13.61	
2025-01-08 22:47:41.15	40.46	13.62	
2025-01-08 22:47:41.36	40.49	13.64	
2025-01-08 22:47:41.58	40.52	13.65	
2025-01-08 22:47:41.78	40.55	13.67	
2025-01-08 22:47:41.99	40.58	13.68	
2025-01-08 22:47:42.20	40.61	13.70	
2025-01-08 22:47:42.40	40.64	13.71	
2025-01-08 22:47:42.62	40.67	13.73	
2025-01-08 22:47:42.82	40.70	13.74	
2025-01-08 22:47:43.03	40.72	13.76	
2025-01-08 22:47:43.24	40.75	13.77	
2025-01-08 22:47:43.44	40.78	13.79	
2025-01-08 22:47:43.64	40.81	13.80	
2025-01-08 22:47:43.85	40.84	13.82	
2025-01-08 22:47:44.05	40.87	13.83	
2025-01-08 22:47:44.26	40.90	13.85	
2025-01-08 22:47:44.47	40.93	13.86	
2025-01-08 22:47:44.67	40.96	13.88	
2025-01-08 22:47:44.88	40.99	13.89	
2025-01-08 22:47:45.08	41.02	13.91	
2025-01-08 22:47:45.29	41.05	13.92	
2025-01-08 22:47:45.49	41.08	13.93	
2025-01-08 22:47:45.70	41.11	13.95	
2025-01-08 22:47:45.90	41.13	13.96	
2025-01-08 22:47:46.11	41.16	13.98	
2025-01-08 22:47:46.31	41.19	13.99	
2025-01-08 22:47:46.52	41.22	14.01	
2025-01-08 22:47:46.73	41.25	14.02	
2025-01-08 22:47:46.93	41.28	14.04	
2025-01-08 22:47:47.14	41.31	14.05	
2025-01-08 22:47:47.34	41.34	14.07	
2025-01-08 22:47:47.55	41.37	14.08	
2025-01-08 22:47:47.75	41.40	14.10	
2025-01-08 22:47:47.96	41.43	14.11	
2025-01-08 22:47:48.16	41.46	14.13	
2025-01-08 22:47:48.37	41.49	14.14	
2025-01-08 22:47:48.57	41.52	14.16	
2025-01-08 22:47:48.78	41.55	14.17	
2025-01-08 22:47:48.98	41.58	14.19	
2025-01-08 22:47:49.18	41.61	14.20	
2025-01-08 22:47:49.39	41.64	14.22	
2025-01-08 22:47:49.60	41.67	14.23	
2025-01-08 22:47:49.80	41.70	14.25	
2025-01-08 22:47:50.00	41.73	14.26	
2025-01-08 22:47:50.21	41.76	14.28	
2025-01-08 22:47:50.41	41.79	14.29	
2025-01-08 22:47:50.62	41.82	14.31	
2025-01-08 22:47:50.82	41.85	14.32	
2025-01-08 22:47:51.04	41.88	14.34	
2025-01-08 22:47:51.24	41.91	14.35	
2025-01-08 22:47:51.45	41.94	14.37	
2025-01-08 22:47:51.65	41.97	14.38	
2025-01-08 22:47:51.86	42.00	14.40	
2025-01-08 22:47:52.06	42.03	14.41	
2025-01-08 22:47:52.27	42.06	14.43	
2025-01-08 22:47:52.47	42.09	14.44	
2025-01-08 22:47:52.68	42.12	14.46	
2025-01-08 22:47:52.88	42.15	14.47	
2025-01-08 22:47:53.09	42.19	14.49	
2025-01-08 22:47:53.29	42.21	14.50	
2025-01-08 22:47:53.49	42.24	14.52	
2025-01-08 22:47:53.70	42.28	14.53	
2025-01-08 22:47:53.91	42.31	14.55	
2025-01-08 22:47:54.11	42.34	14.56	
2025-01-08 22:47:54.32	42.37	14.58	
2025-01-08 22:47:54.52	42.40	14.59	
2025-01-08 22:47:54.72	42.43	14.60	
2025-01-08 22:47:54.93	42.46	14.62	
2025-01-08 22:47:55.14	42.49	14.64	
2025-01-08 22:47:55.34	42.52	14.65	
2025-01-08 22:47:55.54	42.55	14.66	
2025-01-08 22:47:55.75	42.58	14.68	
2025-01-08 22:47:55.95	42.61	14.69	
2025-01-08 22:47:56.16	42.64	14.71	
2025-01-08 22:47:56.36	42.68	14.72	
2025-01-08 22:47:56.57	42.71	14.74	
2025-01-08 22:47:56.78	42.74	14.75	
2025-01-08 22:47:56.98	42.77	14.77	
2025-01-08 22:47:57.19	42.80	14.78	
2025-01-08 22:47:57.39	42.83	14.80	
2025-01-08 22:47:57.61	42.86	14.82	
2025-01-08 22:47:57.81	42.89	14.83	
2025-01-08 22:47:58.02	42.93	14.85	
2025-01-08 22:47:58.22	42.96	14.86	
2025-01-08 22:47:58.43	42.99	14.88	
2025-01-08 22:47:58.63	43.02	14.89	
2025-01-08 22:47:58.84	43.05	14.91	
2025-01-08 22:47:59.04	43.08	14.92	
2025-01-08 22:47:59.25	43.11	14.94	
2025-01-08 22:47:59.46	43.15	14.95	
2025-01-08 22:47:59.66	43.18	14.97	
2025-01-08 22:47:59.86	43.21	14.98	
2025-01-08 22:48:00.07	43.24	14.99	
2025-01-08 22:48:00.27	43.27	15.01	
2025-01-08 22:48:00.47	43.30	15.02	
2025-01-08 22:48:00.68	43.33	15.04	
2025-01-08 22:48:00.89	43.37	15.05	
2025-01-08 22:48:01.09	43.40	15.07	
2025-01-08 22:48:01.30	43.43	15.08	
2025-01-08 22:48:01.50	43.46	15.10	
2025-01-08 22:48:01.71	43.49	15.11	
2025-01-08 22:48:01.91	43.52	15.13	
2025-01-08 22:48:02.12	43.56	15.14	
2025-01-08 22:48:02.32	43.59	15.16	
2025-01-08 22:48:02.53	43.62	15.17	
2025-01-08 22:48:02.73	43.65	15.19	
2025-01-08 22:48:02.94	43.68	15.20	
2025-01-08 22:48:03.14	43.72	15.22	
2025-01-08 22:48:03.35	43.75	15.23	
2025-01-08 22:48:03.55	43.78	15.25	
2025-01-08 22:48:03.76	43.81	15.26	
2025-01-08 22:48:03.96	43.84	15.28	
2025-01-08 22:48:04.17	43.88	15.29	
2025-01-08 22:48:04.37	43.91	15.31	
2025-01-08 22:48:04.58	43.94	15.32	
2025-01-08 22:48:04.80	43.97	15.34	
2025-01-08 22:48:05.00	44.01	15.36	
2025-01-08 22:48:05.20	44.04	15.37	
2025-01-08 22:48:05.41	44.07	15.39	
2025-01-08 22:48:05.62	44.10	15.40	
2025-01-08 22:48:05.82	44.14	15.42	
2025-01-08 22:48:06.04	44.17	15.43	
2025-01-08 22:48:06.24	44.20	15.45	
2025-01-08 22:48:06.45	44.24	15.46	
2025-01-08 22:48:06.65	44.27	15.48	
2025-01-08 22:48:06.86	44.30	15.49	
2025-01-08 22:48:07.06	44.33	15.51	
2025-01-08 22:48:07.26	44.36	15.52	
2025-01-08 22:48:07.47	44.40	15.54	
2025-01-08 22:48:07.68	44.43	15.55	
2025-01-08 22:48:07.88	44.46	15.57	
2025-01-08 22:48:08.08	44.49	15.58	
2025-01-08 22:48:08.29	44.53	15.60	
2025-01-08 22:48:08.50	44.56	15.61	
2025-01-08 22:48:08.70	44.59	15.63	
2025-01-08 22:48:08.91	44.63	15.64	
2025-01-08 22:48:09.11	44.66	15.66	
2025-01-08 22:48:09.33	44.69	15.67	
2025-01-08 22:48:09.53	44.73	15.69	
2025-01-08 22:48:09.74	44.76	15.70	
2025-01-08 22:48:09.94	44.79	15.72	
2025-01-08 22:48:10.16	44.83	15.73	
2025-01-08 22:48:10.36	44.86	15.75	
2025-01-08 22:48:10.57	44.89	15.76	
2025-01-08 22:48:10.77	44.93	15.78	
2025-01-08 22:48:10.97	44.96	15.79	
2025-01-08 22:48:11.18	44.99	15.81	
2025-01-08 22:48:11.38	45.03	15.82	
2025-01-08 22:48:11.59	45.06	15.84	
2025-01-08 22:48:11.79	45.09	15.85	
2025-01-08 22:48:12.00	45.13	15.87	
2025-01-08 22:48:12.20	45.16	15.88	
2025-01-08 22:48:12.40	45.19	15.90	
2025-01-08 22:48:12.61	45.23	15.91	
2025-01-08 22:48:12.81	45.26	15.93	
2025-01-08 22:48:13.02	45.29	15.94	
2025-01-08 22:48:13.23	45.33	15.96	
2025-01-08 22:48:13.43	45.36	15.97	
2025-01-08 22:48:13.64	45.39	15.99	
2025-01-08 22:48:13.84	45.43	16.00	
2025-01-08 22:48:14.05	45.46	16.02	
2025-01-08 22:48:14.25	45.49	16.03	
2025-01-08 22:48:14.46	45.53	16.05	
2025-01-08 22:48:14.67	45.56	16.06	
2025-01-08 22:48:14.88	45.60	16.08	
2025-01-08 22:48:15.09	45.63	16.09	
2025-01-08 22:48:15.30	45.67	16.11	
2025-01-08 22:48:15.50	45.70	16.12	
2025-01-08 22:48:15.70	45.73	16.14	
2025-01-08 22:48:15.91	45.77	16.15	
2025-01-08 22:48:16.11	45.80	16.17	
2025-01-08 22:48:16.32	45.84	16.18	
2025-01-08 22:48:16.53	45.87	16.20	
2025-01-08 22:48:16.74	45.91	16.21	
2025-01-08 22:48:16.95	45.94	16.23	
2025-01-08 22:48:17.15	45.97	16.24	
2025-01-08 22:48:17.36	46.01	16.26	
2025-01-08 22:48:17.56	46.04	16.27	
2025-01-08 22:48:17.77	46.08	16.29	
2025-01-08 22:48:17.97	46.11	16.30	
2025-01-08 22:48:18.18	46.15	16.32	
2025-01-08 22:48:18.38	46.18	16.33	
2025-01-08 22:48:18.59	46.21	16.35	
2025-01-08 22:48:18.79	46.25	16.36	
2025-01-08 22:48:19.00	46.28	16.38	
2025-01-08 22:48:19.20	46.32	16.39	
2025-01-08 22:48:19.41	46.35	16.41	
2025-01-08 22:48:19.61	46.39	16.42	
2025-01-08 22:48:19.82	46.42	16.44	
2025-01-08 22:48:20.02	46.46	16.45	
2025-01-08 22:48:20.22	46.49	16.47	
2025-01-08 22:48:20.43	46.52	16.48	
2025-01-08 22:48:20.64	46.56	16.50	
2025-01-08 22:48:20.84	46.59	16.51	
2025-01-08 22:48:21.05	46.63	16.53	
2025-01-08 22:48:21.25	46.66	16.54	
2025-01-08 22:48:21.46	46.70	16.56	
2025-01-08 22:48:21.66	46.73	16.58	
2025-01-08 22:48:21.87	46.77	16.59	
2025-01-08 22:48:22.09	46.81	16.61	
2025-01-08 22:48:22.29	46.84	16.62	
2025-01-08 22:48:22.50	46.88	16.64	
2025-01-08 22:48:22.70	46.91	16.65	
2025-01-08 22:48:22.91	46.95	16.67	
2025-01-08 22:48:23.11	46.98	16.68	
2025-01-08 22:48:23.32	47.02	16.70	
2025-01-08 22:48:23.52	47.05	16.71	
2025-01-08 22:48:23.73	47.09	16.73	
2025-01-08 22:48:23.93	47.12	16.74	
2025-01-08 22:48:24.14	47.16	16.76	
2025-01-08 22:48:24.34	47.19	16.77	
2025-01-08 22:48:24.55	47.23	16.79	
2025-01-08 22:48:24.75	47.26	16.80	
2025-01-08 22:48:24.96	47.30	16.82	
2025-01-08 22:48:25.16	47.33	16.83	
2025-01-08 22:48:25.37	47.37	16.85	
2025-01-08 22:48:25.57	47.40	16.86	
2025-01-08 22:48:25.78	47.44	16.88	
2025-01-08 22:48:25.98	47.48	16.89	
2025-01-08 22:48:26.19	47.51	16.91	
2025-01-08 22:48:26.40	47.55	16.92	
2025-01-08 22:48:26.61	47.59	16.94	
2025-01-08 22:48:26.81	47.62	16.95	
2025-01-08 22:48:27.02	47.66	16.97	
2025-01-08 22:48:27.23	47.69	16.98	
2025-01-08 22:48:27.43	47.73	17.00	
2025-01-08 22:48:27.64	47.77	17.01	
2025-01-08 22:48:27.84	47.80	17.03	
2025-01-08 22:48:28.05	47.84	17.04	
2025-01-08 22:48:28.25	47.87	17.06	
2025-01-08 22:48:28.46	47.91	17.07	
2025-01-08 22:48:28.66	47.94	17.09	
2025-01-08 22:48:28.86	47.98	17.10	
2025-01-08 22:48:29.07	48.02	17.12	
2025-01-08 22:48:29.27	48.05	17.13	
2025-01-08 22:48:29.48	48.09	17.15	
2025-01-08 22:48:29.68	48.12	17.16	
2025-01-08 22:48:29.89	48.16	17.18	
2025-01-08 22:48:30.09	48.20	17.19	
2025-01-08 22:48:30.30	48.23	17.21	
2025-01-08 22:48:30.50	48.27	17.22	
2025-01-08 22:48:30.70	48.31	17.24	
2025-01-08 22:48:30.91	48.34	17.25	
2025-01-08 22:48:31.11	48.38	17.27	
2025-01-08 22:48:31.31	48.41	17.28	
2025-01-08 22:48:31.52	48.45	17.30	
2025-01-08 22:48:31.72	48.49	17.31	
2025-01-08 22:48:31.93	48.52	17.33	
2025-01-08 22:48:32.13	48.56	17.34	
2025-01-08 22:48:32.34	48.60	17.36	
2025-01-08 22:48:32.54	48.63	17.37	
2025-01-08 22:48:32.76	48.67	17.39	
2025-01-08 22:48:32.97	48.71	17.40	
2025-01-08 22:48:33.17	48.75	17.42	
2025-01-08 22:48:33.38	48.78	17.43	
2025-01-08 22:48:33.58	48.82	17.45	
2025-01-08 22:48:33.79	48.86	17.46	
2025-01-08 22:48:33.99	48.89	17.48	
2025-01-08 22:48:34.20	48.93	17.49	
2025-01-08 22:48:34.40	48.97	17.51	
2025-01-08 22:48:34.61	49.01	17.52	
2025-01-08 22:48:34.81	49.04	17.54	
2025-01-08 22:48:35.02	49.08	17.55	
2025-01-08 22:48:35.22	49.12	17.56	
2025-01-08 22:48:35.43	49.16	17.58	
2025-01-08 22:48:35.63	49.19	17.59	
2025-01-08 22:48:35.83	49.23	17.61	
2025-01-08 22:48:36.04	49.27	17.62	
2025-01-08 22:48:36.25	49.30	17.64	
2025-01-08 22:48:36.45	49.34	17.65	
2025-01-08 22:48:36.66	49.38	17.67	
2025-01-08 22:48:36.86	49.42	17.68	
2025-01-08 22:48:37.07	49.45	17.70	
2025-01-08 22:48:37.27	49.49	17.71	
2025-01-08 22:48:37.48	49.53	17.73	
2025-01-08 22:48:37.69	49.57	17.74	
2025-01-08 22:48:37.89	49.60	17.76	
2025-01-08 22:48:38.10	49.64	17.77	
2025-01-08 22:48:38.30	49.68	17.79	
2025-01-08 22:48:38.51	49.72	17.80	
2025-01-08 22:48:38.71	49.76	17.82	
2025-01-08 22:48:38.92	49.79	17.83	
2025-01-08 22:48:39.12	49.83	17.85	
2025-01-08 22:48:39.33	49.87	17.86	
2025-01-08 22:48:39.53	49.91	17.88	
2025-01-08 22:48:39.74	49.95	17.89	
2025-01-08 22:48:39.94	49.98	17.91	
2025-01-08 22:48:40.15	50.02	17.92	
2025-01-08 22:48:40.35	50.06	17.94	
2025-01-08 22:48:40.55	50.10	17.95	
2025-01-08 22:48:40.76	50.14	17.97	
2025-01-08 22:48:40.96	50.17	17.98	
2025-01-08 22:48:41.17	50.21	18.00	
2025-01-08 22:48:41.37	50.25	18.01	
2025-01-08 22:48:41.58	50.29	18.03	
2025-01-08 22:48:41.78	50.33	18.04	
2025-01-08 22:48:41.99	50.37	18.06	
2025-01-08 22:48:42.19	50.40	18.07	
2025-01-08 22:48:42.40	50.44	18.09	
2025-01-08 22:48:42.60	50.48	18.10	
2025-01-08 22:48:42.81	50.52	18.12	
2025-01-08 22:48:43.01	50.56	18.13	
2025-01-08 22:48:43.22	50.60	18.14	
2025-01-08 22:48:43.44	50.64	18.16	
2025-01-08 22:48:43.64	50.68	18.17	
2025-01-08 22:48:43.85	50.72	18.19	
2025-01-08 22:48:44.05	50.75	18.20	
2025-01-08 22:48:44.26	50.79	18.22	
2025-01-08 22:48:44.46	50.83	18.23	
2025-01-08 22:48:44.67	50.87	18.25	
2025-01-08 22:48:44.87	50.91	18.26	
2025-01-08 22:48:45.08	50.95	18.28	
2025-01-08 22:48:45.28	50.99	18.29	
2025-01-08 22:48:45.49	51.03	18.31	
2025-01-08 22:48:45.69	51.06	18.32	
2025-01-08 22:48:45.90	51.10	18.34	
2025-01-08 22:48:46.10	51.14	18.35	
2025-01-08 22:48:46.31	51.18	18.37	
2025-01-08 22:48:46.51	51.22	18.38	
2025-01-08 22:48:46.72	51.26	18.40	
2025-01-08 22:48:46.92	51.30	18.41	
2025-01-08 22:48:47.12	51.34	18.43	
2025-01-08 22:48:47.33	51.38	18.44	
2025-01-08 22:48:47.53	51.42	18.45	
2025-01-08 22:48:47.74	51.46	18.47	
2025-01-08 22:48:47.94	51.50	18.48	
2025-01-08 22:48:48.15	51.54	18.50	
2025-01-08 22:48:48.35	51.57	18.51	
2025-01-08 22:48:48.56	51.61	18.53	
2025-01-08 22:48:48.76	51.65	18.54	
2025-01-08 22:48:48.97	51.69	18.56	
2025-01-08 22:48:49.17	51.73	18.57	
2025-01-08 22:48:49.38	51.77	18.59	
2025-01-08 22:48:49.60	51.82	18.60	
2025-01-08 22:48:49.80	51.85	18.62	
2025-01-08 22:48:50.01	51.90	18.63	
2025-01-08 22:48:50.21	51.93	18.65	
2025-01-08 22:48:50.41	51.97	18.66	
2025-01-08 22:48:50.62	52.01	18.68	
2025-01-08 22:48:50.82	52.05	18.69	
2025-01-08 22:48:51.03	52.09	18.71	
2025-01-08 22:48:51.23	52.13	18.72	
2025-01-08 22:48:51.44	52.17	18.73	
2025-01-08 22:48:51.64	52.21	18.75	
2025-01-08 22:48:51.85	52.25	18.76	
2025-01-08 22:48:52.05	52.29	18.78	
2025-01-08 22:48:52.26	52.34	18.79	
2025-01-08 22:48:52.46	52.37	18.81	
2025-01-08 22:48:52.67	52.42	18.82	
2025-01-08 22:48:52.87	52.46	18.84	
2025-01-08 22:48:53.08	52.50	18.85	
2025-01-08 22:48:53.28	52.54	18.87	
2025-01-08 22:48:53.49	52.58	18.88	
2025-01-08 22:48:53.69	52.62	18.89	
2025-01-08 22:48:53.90	52.66	18.91	
2025-01-08 22:48:54.10	52.70	18.92	
2025-01-08 22:48:54.31	52.74	18.94	
2025-01-08 22:48:54.52	52.78	18.95	
2025-01-08 22:48:54.72	52.82	18.97	
2025-01-08 22:48:54.93	52.86	18.98	
2025-01-08 22:48:55.14	52.90	19.00	
2025-01-08 22:48:55.35	52.95	19.01	
2025-01-08 22:48:55.55	52.99	19.03	
2025-01-08 22:48:55.76	53.03	19.04	
2025-01-08 22:48:55.97	53.07	19.06	
2025-01-08 22:48:56.17	53.11	19.07	
2025-01-08 22:48:56.38	53.15	19.09	
2025-01-08 22:48:56.58	53.19	19.10	
2025-01-08 22:48:56.79	53.23	19.11	
2025-01-08 22:48:56.99	53.27	19.13	
2025-01-08 22:48:57.19	53.31	19.14	
2025-01-08 22:48:57.40	53.36	19.16	
2025-01-08 22:48:57.60	53.40	19.17	
2025-01-08 22:48:57.81	53.44	19.19	
2025-01-08 22:48:58.01	53.48	19.20	
2025-01-08 22:48:58.22	53.52	19.22	
2025-01-08 22:48:58.42	53.56	19.23	
2025-01-08 22:48:58.63	53.60	19.24	
2025-01-08 22:48:58.83	53.65	19.26	
2025-01-08 22:48:59.04	53.69	19.27	
2025-01-08 22:48:59.24	53.73	19.29	
2025-01-08 22:48:59.44	53.77	19.30	
2025-01-08 22:48:59.65	53.81	19.32	
2025-01-08 22:48:59.85	53.85	19.33	
2025-01-08 22:49:00.05	53.89	19.34	
2025-01-08 22:49:00.26	53.94	19.36	
2025-01-08 22:49:00.46	53.98	19.37	
2025-01-08 22:49:00.67	54.02	19.39	
2025-01-08 22:49:00.87	54.06	19.40	
2025-01-08 22:49:01.08	54.10	19.42	
2025-01-08 22:49:01.29	54.15	19.43	
2025-01-08 22:49:01.49	54.19	19.45	
2025-01-08 22:49:01.69	54.23	19.46	
2025-01-08 22:49:01.90	54.27	19.47	
2025-01-08 22:49:02.11	54.31	19.49	
2025-01-08 22:49:02.31	54.35	19.50	
2025-01-08 22:49:02.52	54.40	19.52	
2025-01-08 22:49:02.72	54.44	19.53	
2025-01-08 22:49:02.93	54.48	19.55	
2025-01-08 22:49:03.13	54.52	19.56	
2025-01-08 22:49:03.34	54.57	19.57	
2025-01-08 22:49:03.54	54.61	19.59	
2025-01-08 22:49:03.74	54.65	19.60	
2025-01-08 22:49:03.95	54.69	19.62	
2025-01-08 22:49:04.16	54.74	19.63	
2025-01-08 22:49:04.36	54.78	19.65	
2025-01-08 22:49:04.57	54.82	19.66	
2025-01-08 22:49:04.77	54.86	19.67	
2025-01-08 22:49:04.97	54.90	19.69	
2025-01-08 22:49:05.18	54.95	19.70	
2025-01-08 22:49:05.38	54.99	19.72	
2025-01-08 22:49:05.59	55.03	19.73	
2025-01-08 22:49:05.79	55.08	19.74	
2025-01-08 22:49:06.00	55.12	19.76	
2025-01-08 22:49:06.20	55.16	19.77	
2025-01-08 22:49:06.41	55.21	19.79	
2025-01-08 22:49:06.62	55.25	19.80	
2025-01-08 22:49:06.83	55.29	19.82	
2025-01-08 22:49:07.04	55.34	19.83	
2025-01-08 22:49:07.25	55.38	19.85	
2025-01-08 22:49:07.45	55.42	19.86	
2025-01-08 22:49:07.66	55.47	19.87	
2025-01-08 22:49:07.86	55.51	19.89	
2025-01-08 22:49:08.07	55.55	19.90	
2025-01-08 22:49:08.27	55.60	19.92	
2025-01-08 22:49:08.48	55.64	19.93	
2025-01-08 22:49:08.68	55.68	19.94	
2025-01-08 22:49:08.88	55.73	19.96	
2025-01-08 22:49:09.09	55.77	19.97	
2025-01-08 22:49:09.29	55.81	19.99	
2025-01-08 22:49:09.50	55.86	20.00	
2025-01-08 22:49:09.70	55.90	20.01	
2025-01-08 22:49:09.91	55.94	20.03	
2025-01-08 22:49:10.11	55.99	20.04	
2025-01-08 22:49:10.32	56.03	20.06	
2025-01-08 22:49:10.52	56.07	20.07	
2025-01-08 22:49:10.73	56.12	20.08	
2025-01-08 22:49:10.93	56.16	20.10	
2025-01-08 22:49:11.15	56.21	20.11	
2025-01-08 22:49:11.35	56.25	20.13	
2025-01-08 22:49:11.56	56.30	20.14	
2025-01-08 22:49:11.76	56.34	20.15	
2025-01-08 22:49:11.97	56.38	20.17	
2025-01-08 22:49:12.17	56.43	20.18	
2025-01-08 22:49:12.38	56.47	20.20	
2025-01-08 22:49:12.58	56.51	20.21	
2025-01-08 22:49:12.79	56.56	20.23	
2025-01-08 22:49:12.99	56.60	20.24	
2025-01-08 22:49:13.19	56.65	20.25	
2025-01-08 22:49:13.40	56.69	20.27	
2025-01-08 22:49:13.60	56.73	20.28	
2025-01-08 22:49:13.81	56.78	20.29	
2025-01-08 22:49:14.01	56.82	20.31	
2025-01-08 22:49:14.22	56.87	20.32	
2025-01-08 22:49:14.42	56.91	20.34	
2025-01-08 22:49:14.63	56.96	20.35	
2025-01-08 22:49:14.83	57.00	20.36	
2025-01-08 22:49:15.04	57.05	20.38	
2025-01-08 22:49:15.24	57.09	20.39	
2025-01-08 22:49:15.45	57.14	20.40	
2025-01-08 22:49:15.65	57.18	20.42	
2025-01-08 22:49:15.86	57.23	20.43	
2025-01-08 22:49:16.06	57.27	20.45	
2025-01-08 22:49:16.27	57.31	20.46	
2025-01-08 22:49:16.47	57.36	20.47	
2025-01-08 22:49:16.68	57.40	20.49	
2025-01-08 22:49:16.88	57.45	20.50	
2025-01-08 22:49:17.09	57.49	20.52	
2025-01-08 22:49:17.29	57.54	20.53	
2025-01-08 22:49:17.50	57.58	20.54	
2025-01-08 22:49:17.70	57.63	20.56	
2025-01-08 22:49:17.91	57.67	20.57	
2025-01-08 22:49:18.11	57.72	20.58	
2025-01-08 22:49:18.32	57.76	20.60	
2025-01-08 22:49:18.52	57.81	20.61	
2025-01-08 22:49:18.73	57.85	20.62	
2025-01-08 22:49:18.93	57.90	20.64	
2025-01-08 22:49:19.14	57.95	20.65	
2025-01-08 22:49:19.34	57.99	20.67	
2025-01-08 22:49:19.55	58.04	20.68	
2025-01-08 22:49:19.75	58.08	20.69	
2025-01-08 22:49:19.96	58.13	20.71	
2025-01-08 22:49:20.16	58.17	20.72	
2025-01-08 22:49:20.37	58.22	20.73	
2025-01-08 22:49:20.57	58.26	20.75	
2025-01-08 22:49:20.77	58.31	20.76	
2025-01-08 22:49:20.98	58.35	20.77	
2025-01-08 22:49:21.19	58.40	20.79	
2025-01-08 22:49:21.39	58.45	20.80	
2025-01-08 22:49:21.61	58.49	20.82	
2025-01-08 22:49:21.81	58.54	20.83	
2025-01-08 22:49:22.02	58.59	20.84	
2025-01-08 22:49:22.22	58.63	20.86	
2025-01-08 22:49:22.43	58.68	20.87	
2025-01-08 22:49:22.63	58.72	20.88	
2025-01-08 22:49:22.84	58.77	20.90	
2025-01-08 22:49:23.04	58.82	20.91	
2025-01-08 22:49:23.25	58.86	20.92	
2025-01-08 22:49:23.46	58.91	20.94	
2025-01-08 22:49:23.66	58.95	20.95	
2025-01-08 22:49:23.86	59.00	20.96	
2025-01-08 22:49:24.07	59.05	20.98	
2025-01-08 22:49:24.28	59.09	20.99	
2025-01-08 22:49:24.48	59.14	21.00	
2025-01-08 22:49:24.69	59.19	21.02	
2025-01-08 22:49:24.89	59.23	21.03	
2025-01-08 22:49:25.10	59.28	21.04	
2025-01-08 22:49:25.30	59.33	21.06	
2025-01-08 22:49:25.50	59.37	21.07	
2025-01-08 22:49:25.71	59.42	21.08	
2025-01-08 22:49:25.91	59.46	21.10	
2025-01-08 22:49:26.13	59.51	21.11	
2025-01-08 22:49:26.33	59.56	21.12	
2025-01-08 22:49:26.54	59.61	21.14	
2025-01-08 22:49:26.74	59.65	21.15	
2025-01-08 22:49:26.95	59.70	21.16	
2025-01-08 22:49:27.17	59.75	21.18	
2025-01-08 22:49:27.37	59.80	21.19	
2025-01-08 22:49:27.58	59.85	21.20	
2025-01-08 22:49:27.78	59.89	21.22	
2025-01-08 22:49:27.99	59.94	21.23	
2025-01-08 22:49:28.21	59.99	21.24	
2025-01-08 22:49:28.41	60.04	21.26	
2025-01-08 22:49:28.62	60.08	21.27	
2025-01-08 22:49:28.82	60.13	21.28	
2025-01-08 22:49:29.03	60.18	21.30	
2025-01-08 22:49:29.25	60.23	21.31	
2025-01-08 22:49:29.45	60.28	21.32	
2025-01-08 22:49:29.66	60.32	21.34	
2025-01-08 22:49:29.86	60.37	21.35	
2025-01-08 22:49:30.07	60.42	21.36	
2025-01-08 22:49:30.27	60.47	21.38	
2025-01-08 22:49:30.47	60.51	21.39	
2025-01-08 22:49:30.68	60.56	21.40	
2025-01-08 22:49:30.89	60.61	21.41	
2025-01-08 22:49:31.09	60.66	21.43	
2025-01-08 22:49:31.30	60.70	21.44	
2025-01-08 22:49:31.50	60.75	21.45	
2025-01-08 22:49:31.71	60.80	21.47	
2025-01-08 22:49:31.91	60.85	21.48	
2025-01-08 22:49:32.12	60.90	21.49	
2025-01-08 22:49:32.32	60.94	21.50	
2025-01-08 22:49:32.52	60.99	21.52	
2025-01-08 22:49:32.73	61.04	21.53	
2025-01-08 22:49:32.94	61.09	21.54	
2025-01-08 22:49:33.14	61.13	21.56	
2025-01-08 22:49:33.34	61.18	21.57	
2025-01-08 22:49:33.55	61.23	21.58	
2025-01-08 22:49:33.75	61.28	21.59	
2025-01-08 22:49:33.96	61.33	21.61	
2025-01-08 22:49:34.17	61.38	21.62	
2025-01-08 22:49:34.37	61.42	21.63	
2025-01-08 22:49:34.57	61.47	21.65	
2025-01-08 22:49:34.78	61.52	21.66	
2025-01-08 22:49:34.98	61.57	21.67	
2025-01-08 22:49:35.19	61.62	21.68	
2025-01-08 22:49:35.40	61.67	21.70	
2025-01-08 22:49:35.60	61.71	21.71	
2025-01-08 22:49:35.80	61.76	21.72	
2025-01-08 22:49:36.01	61.81	21.73	
2025-01-08 22:49:36.21	61.86	21.75	
2025-01-08 22:49:36.42	61.91	21.76	
2025-01-08 22:49:36.63	61.96	21.77	
2025-01-08 22:49:36.83	62.00	21.78	
2025-01-08 22:49:37.03	62.05	21.80	
2025-01-08 22:49:37.24	62.10	21.81	
2025-01-08 22:49:37.45	62.15	21.82	
2025-01-08 22:49:37.65	62.20	21.83	
2025-01-08 22:49:37.85	62.25	21.85	
2025-01-08 22:49:38.06	62.30	21.86	
2025-01-08 22:49:38.26	62.35	21.87	
2025-01-08 22:49:38.47	62.40	21.88	
2025-01-08 22:49:38.68	62.45	21.90	
2025-01-08 22:49:38.89	62.50	21.91	
2025-01-08 22:49:39.10	62.55	21.92	
2025-01-08 22:49:39.30	62.59	21.93	
2025-01-08 22:49:39.51	62.65	21.95	
2025-01-08 22:49:39.72	62.70	21.96	
2025-01-08 22:49:39.92	62.74	21.97	
2025-01-08 22:49:40.12	62.79	21.98	
2025-01-08 22:49:40.33	62.84	22.00	
2025-01-08 22:49:40.53	62.89	22.01	
2025-01-08 22:49:40.74	62.94	22.02	
2025-01-08 22:49:40.94	62.99	22.03	
2025-01-08 22:49:41.15	63.04	22.05	
2025-01-08 22:49:41.35	63.09	22.06	
2025-01-08 22:49:41.56	63.14	22.07	
2025-01-08 22:49:41.77	63.19	22.08	
2025-01-08 22:49:41.98	63.24	22.10	
2025-01-08 22:49:42.18	63.29	22.11	
2025-01-08 22:49:42.38	63.34	22.12	
2025-01-08 22:49:42.59	63.39	22.13	
2025-01-08 22:49:42.80	63.44	22.14	
2025-01-08 22:49:43.00	63.49	22.16	
2025-01-08 22:49:43.20	63.54	22.17	
2025-01-08 22:49:43.41	63.59	22.18	
2025-01-08 22:49:43.61	63.64	22.19	
2025-01-08 22:49:43.82	63.69	22.20	
2025-01-08 22:49:44.02	63.74	22.22	
2025-01-08 22:49:44.23	63.79	22.23	
2025-01-08 22:49:44.43	63.84	22.24	
2025-01-08 22:49:44.64	63.89	22.25	
2025-01-08 22:49:44.84	63.94	22.26	
2025-01-08 22:49:45.05	63.99	22.28	
2025-01-08 22:49:45.25	64.04	22.29	
2025-01-08 22:49:45.45	64.09	22.30	
2025-01-08 22:49:45.66	64.14	22.31	
2025-01-08 22:49:45.86	64.19	22.32	
2025-01-08 22:49:46.07	64.24	22.34	
2025-01-08 22:49:46.27	64.29	22.35	
2025-01-08 22:49:46.48	64.34	22.36	
2025-01-08 22:49:46.68	64.39	22.37	
2025-01-08 22:49:46.89	64.44	22.38	
2025-01-08 22:49:47.10	64.49	22.39	
2025-01-08 22:49:47.30	64.54	22.41	
2025-01-08 22:49:47.51	64.60	22.42	
2025-01-08 22:49:47.71	64.65	22.43	
2025-01-08 22:49:47.92	64.70	22.44	
2025-01-08 22:49:48.12	64.75	22.45	
2025-01-08 22:49:48.33	64.80	22.46	
2025-01-08 22:49:48.53	64.85	22.48	
2025-01-08 22:49:48.74	64.90	22.49	
2025-01-08 22:49:48.94	64.95	22.50	
2025-01-08 22:49:49.15	65.00	22.51	
2025-01-08 22:49:49.36	65.05	22.52	
2025-01-08 22:49:49.57	65.11	22.54	
2025-01-08 22:49:49.78	65.16	22.55	
2025-01-08 22:49:49.98	65.21	22.56	
2025-01-08 22:49:50.19	65.26	22.57	
2025-01-08 22:49:50.39	65.31	22.58	
2025-01-08 22:49:50.60	65.36	22.59	
2025-01-08 22:49:50.80	65.41	22.60	
2025-01-08 22:49:51.01	65.47	22.62	
2025-01-08 22:49:51.21	65.52	22.63	
2025-01-08 22:49:51.42	65.57	22.64	
2025-01-08 22:49:51.62	65.62	22.65	
2025-01-08 22:49:51.82	65.67	22.66	
2025-01-08 22:49:52.03	65.72	22.67	
2025-01-08 22:49:52.23	65.77	22.68	
2025-01-08 22:49:52.44	65.83	22.70	
2025-01-08 22:49:52.64	65.88	22.71	
2025-01-08 22:49:52.84	65.93	22.72	
2025-01-08 22:49:53.05	65.98	22.73	
2025-01-08 22:49:53.26	66.03	22.74	
2025-01-08 22:49:53.46	66.08	22.75	
2025-01-08 22:49:53.66	66.13	22.76	
2025-01-08 22:49:53.87	66.19	22.77	
2025-01-08 22:49:54.07	66.24	22.78	
2025-01-08 22:49:54.28	66.29	22.80	
2025-01-08 22:49:54.48	66.34	22.81	
2025-01-08 22:49:54.69	66.40	22.82	
2025-01-08 22:49:54.89	66.45	22.83	
2025-01-08 22:49:55.10	66.50	22.84	
2025-01-08 22:49:55.30	66.55	22.85	
2025-01-08 22:49:55.51	66.60	22.86	
2025-01-08 22:49:55.71	66.65	22.87	
2025-01-08 22:49:55.92	66.71	22.88	
2025-01-08 22:49:56.12	66.76	22.90	
2025-01-08 22:49:56.33	66.81	22.91	
2025-01-08 22:49:56.53	66.86	22.92	
2025-01-08 22:49:56.74	66.92	22.93	
2025-01-08 22:49:56.94	66.97	22.94	
2025-01-08 22:49:57.15	67.02	22.95	
2025-01-08 22:49:57.35	67.07	22.96	
2025-01-08 22:49:57.56	67.13	22.97	
2025-01-08 22:49:57.76	67.18	22.98	
2025-01-08 22:49:57.96	67.23	22.99	
2025-01-08 22:49:58.17	67.28	23.00	
2025-01-08 22:49:58.37	67.33	23.01	
2025-01-08 22:49:58.58	67.39	23.03	
2025-01-08 22:49:58.78	67.44	23.04	
2025-01-08 22:49:58.99	67.49	23.05	
2025-01-08 22:49:59.20	67.55	23.06	
2025-01-08 22:49:59.41	67.60	23.07	
2025-01-08 22:49:59.61	67.65	23.08	
2025-01-08 22:49:59.82	67.71	23.09	
2025-01-08 22:50:00.03	67.76	23.10	
2025-01-08 22:50:00.23	67.81	23.11	
2025-01-08 22:50:00.44	67.87	23.12	
2025-01-08 22:50:00.64	67.92	23.13	
2025-01-08 22:50:00.85	67.97	23.14	
2025-01-08 22:50:01.05	68.03	23.15	
2025-01-08 22:50:01.26	68.08	23.16	
2025-01-08 22:50:01.46	68.13	23.17	
2025-01-08 22:50:01.67	68.19	23.18	
2025-01-08 22:50:01.87	68.24	23.20	
2025-01-08 22:50:02.08	68.29	23.21	
2025-01-08 22:50:02.29	68.35	23.22	
2025-01-08 22:50:02.49	68.40	23.23	
2025-01-08 22:50:02.70	68.46	23.24	
2025-01-08 22:50:02.90	68.51	23.25	
2025-01-08 22:50:03.11	68.56	23.26	
2025-01-08 22:50:03.31	68.61	23.27	
2025-01-08 22:50:03.51	68.67	23.28	
2025-01-08 22:50:03.72	68.72	23.29	
2025-01-08 22:50:03.92	68.77	23.30	
2025-01-08 22:50:04.13	68.83	23.31	
2025-01-08 22:50:04.33	68.88	23.32	
2025-01-08 22:50:04.54	68.94	23.33	
2025-01-08 22:50:04.74	68.99	23.34	
2025-01-08 22:50:04.95	69.04	23.35	
2025-01-08 22:50:05.16	69.10	23.36	
2025-01-08 22:50:05.36	69.15	23.37	
2025-01-08 22:50:05.56	69.20	23.38	
2025-01-08 22:50:05.77	69.26	23.39	
2025-01-08 22:50:05.98	69.31	23.40	
2025-01-08 22:50:06.18	69.37	23.41	
2025-01-08 22:50:06.39	69.42	23.42	
2025-01-08 22:50:06.59	69.48	23.43	
2025-01-08 22:50:06.81	69.53	23.44	
2025-01-08 22:50:07.01	69.59	23.45	
2025-01-08 22:50:07.22	69.64	23.46	
2025-01-08 22:50:07.42	69.69	23.47	
2025-01-08 22:50:07.63	69.75	23.48	
2025-01-08 22:50:07.83	69.80	23.49	
2025-01-08 22:50:08.04	69.86	23.50	
2025-01-08 22:50:08.24	69.91	23.51	
2025-01-08 22:50:08.45	69.97	23.52	
2025-01-08 22:50:08.65	70.02	23.53	
2025-01-08 22:50:08.86	70.08	23.54	
2025-01-08 22:50:09.06	70.13	23.55	
2025-01-08 22:50:09.27	70.18	23.56	
2025-01-08 22:50:09.47	70.24	23.57	
2025-01-08 22:50:09.68	70.29	23.58	
2025-01-08 22:50:09.90	70.35	23.59	
2025-01-08 22:50:10.10	70.41	23.60	
2025-01-08 22:50:10.31	70.46	23.61	
2025-01-08 22:50:10.51	70.52	23.61	
2025-01-08 22:50:10.72	70.57	23.62	
2025-01-08 22:50:10.92	70.62	23.63	
2025-01-08 22:50:11.12	70.68	23.64	
2025-01-08 22:50:11.33	70.73	23.65	
2025-01-08 22:50:11.54	70.79	23.66	
2025-01-08 22:50:11.74	70.84	23.67	
2025-01-08 22:50:11.94	70.90	23.68	
2025-01-08 22:50:12.15	70.95	23.69	
2025-01-08 22:50:12.35	71.01	23.70	
2025-01-08 22:50:12.56	71.06	23.71	
2025-01-08 22:50:12.77	71.12	23.72	
2025-01-08 22:50:12.97	71.17	23.73	
2025-01-08 22:50:13.18	71.23	23.74	
2025-01-08 22:50:13.38	71.28	23.74	
2025-01-08 22:50:13.59	71.34	23.75	
2025-01-08 22:50:13.79	71.39	23.76	
2025-01-08 22:50:14.00	71.45	23.77	
2025-01-08 22:50:14.20	71.51	23.78	
2025-01-08 22:50:14.40	71.56	23.79	
2025-01-08 22:50:14.61	71.62	23.80	
2025-01-08 22:50:14.82	71.67	23.81	
2025-01-08 22:50:15.02	71.73	23.82	
2025-01-08 22:50:15.22	71.78	23.83	
2025-01-08 22:50:15.43	71.84	23.83	
2025-01-08 22:50:15.63	71.89	23.84	
2025-01-08 22:50:15.84	71.95	23.85	
2025-01-08 22:50:16.04	72.00	23.86	
2025-01-08 22:50:16.24	72.06	23.87	
2025-01-08 22:50:16.45	72.11	23.88	
2025-01-08 22:50:16.65	72.17	23.89	
2025-01-08 22:50:16.86	72.23	23.90	
2025-01-08 22:50:17.07	72.28	23.91	
2025-01-08 22:50:17.27	72.34	23.91	
2025-01-08 22:50:17.47	72.39	23.92	
2025-01-08 22:50:17.68	72.45	23.93	
2025-01-08 22:50:17.88	72.50	23.94	
2025-01-08 22:50:18.09	72.56	23.95	
2025-01-08 22:50:18.29	72.61	23.96	
2025-01-08 22:50:18.50	72.67	23.97	
2025-01-08 22:50:18.70	72.73	23.97	
2025-01-08 22:50:18.91	72.78	23.98	
2025-01-08 22:50:19.11	72.84	23.99	
2025-01-08 22:50:19.32	72.90	24.00	
2025-01-08 22:50:19.52	72.95	24.01	
2025-01-08 22:50:19.73	73.01	24.02	
2025-01-08 22:50:19.93	73.06	24.02	
2025-01-08 22:50:20.14	73.12	24.03	
2025-01-08 22:50:20.35	73.18	24.04	
2025-01-08 22:50:20.55	73.23	24.05	
2025-01-08 22:50:20.75	73.29	24.06	
2025-01-08 22:50:20.96	73.34	24.07	
2025-01-08 22:50:21.17	73.40	24.07	
2025-01-08 22:50:21.37	73.46	24.08	
2025-01-08 22:50:21.57	73.51	24.09	
2025-01-08 22:50:21.78	73.57	24.10	
2025-01-08 22:50:21.99	73.63	24.11	
2025-01-08 22:50:22.19	73.68	24.11	
2025-01-08 22:50:22.40	73.74	24.12	
2025-01-08 22:50:22.60	73.80	24.13	
2025-01-08 22:50:22.80	73.85	24.14	
2025-01-08 22:50:23.01	73.91	24.15	
2025-01-08 22:50:23.22	73.97	24.16	
2025-01-08 22:50:23.42	74.02	24.16	
2025-01-08 22:50:23.63	74.08	24.17	
2025-01-08 22:50:23.83	74.14	24.18	
2025-01-08 22:50:24.04	74.19	24.19	
2025-01-08 22:50:24.24	74.25	24.19	
2025-01-08 22:50:24.45	74.31	24.20	
2025-01-08 22:50:24.65	74.36	24.21	
2025-01-08 22:50:24.86	74.42	24.22	
2025-01-08 22:50:25.06	74.48	24.23	
2025-01-08 22:50:25.27	74.53	24.23	
2025-01-08 22:50:25.48	74.59	24.24	
2025-01-08 22:50:25.68	74.65	24.25	
2025-01-08 22:50:25.88	74.70	24.26	
2025-01-08 22:50:26.09	74.76	24.26	
2025-01-08 22:50:26.30	74.82	24.27	
2025-01-08 22:50:26.50	74.88	24.28	
2025-01-08 22:50:26.71	74.93	24.29	
2025-01-08 22:50:26.91	74.99	24.29	
2025-01-08 22:50:27.11	75.05	24.30	
2025-01-08 22:50:27.32	75.10	24.31	
2025-01-08 22:50:27.52	75.16	24.32	
2025-01-08 22:50:27.73	75.22	24.32	
2025-01-08 22:50:27.93	75.28	24.33	
2025-01-08 22:50:28.14	75.33	24.34	
2025-01-08 22:50:28.34	75.39	24.35	
2025-01-08 22:50:28.55	75.45	24.35	
2025-01-08 22:50:28.76	75.51	24.36	
2025-01-08 22:50:28.96	75.56	24.37	
2025-01-08 22:50:29.16	75.62	24.37	
2025-01-08 22:50:29.37	75.68	24.38	
2025-01-08 22:50:29.57	75.73	24.39	
2025-01-08 22:50:29.78	75.79	24.40	
2025-01-08 22:50:29.99	75.85	24.40	
2025-01-08 22:50:30.19	75.91	24.41	
2025-01-08 22:50:30.39	75.96	24.42	
2025-01-08 22:50:30.60	76.02	24.42	
2025-01-08 22:50:30.80	76.08	24.43	
2025-01-08 22:50:31.01	76.14	24.44	
2025-01-08 22:50:31.23	76.20	24.44	
2025-01-08 22:50:31.43	76.26	24.45	
2025-01-08 22:50:31.64	76.32	24.46	
2025-01-08 22:50:31.84	76.37	24.47	
2025-01-08 22:50:32.05	76.43	24.47	
2025-01-08 22:50:32.25	76.49	24.48	
2025-01-08 22:50:32.46	76.55	24.49	
2025-01-08 22:50:32.66	76.60	24.49	
2025-01-08 22:50:32.87	76.66	24.50	
2025-01-08 22:50:33.07	76.72	24.51	
2025-01-08 22:50:33.27	76.77	24.51	
2025-01-08 22:50:33.48	76.83	24.52	
2025-01-08 22:50:33.68	76.89	24.53	
2025-01-08 22:50:33.89	76.95	24.53	
2025-01-08 22:50:34.09	77.01	24.54	
2025-01-08 22:50:34.30	77.07	24.54	
2025-01-08 22:50:34.50	77.12	24.55	
2025-01-08 22:50:34.70	77.18	24.56	
2025-01-08 22:50:34.91	77.24	24.56	
2025-01-08 22:50:35.12	77.30	24.57	
2025-01-08 22:50:35.32	77.35	24.58	
2025-01-08 22:50:35.53	77.41	24.58	
2025-01-08 22:50:35.73	77.47	24.59	
2025-01-08 22:50:35.94	77.53	24.60	
2025-01-08 22:50:36.14	77.59	24.60	
2025-01-08 22:50:36.35	77.65	24.61	
2025-01-08 22:50:36.55	77.70	24.61	
2025-01-08 22:50:36.76	77.76	24.62	
2025-01-08 22:50:36.96	77.82	24.63	
2025-01-08 22:50:37.17	77.88	24.63	
2025-01-08 22:50:37.37	77.94	24.64	
2025-01-08 22:50:37.58	78.00	24.64	
2025-01-08 22:50:37.78	78.05	24.65	
2025-01-08 22:50:37.98	78.11	24.66	
2025-01-08 22:50:38.19	78.17	24.66	
2025-01-08 22:50:38.40	78.23	24.67	
2025-01-08 22:50:38.60	78.29	24.67	
2025-01-08 22:50:38.81	78.35	24.68	
2025-01-08 22:50:39.01	78.40	24.69	
2025-01-08 22:50:39.22	78.46	24.69	
2025-01-08 22:50:39.42	78.52	24.70	
2025-01-08 22:50:39.63	78.58	24.70	
2025-01-08 22:50:39.83	78.64	24.71	
2025-01-08 22:50:40.04	78.70	24.71	
2025-01-08 22:50:40.24	78.76	24.72	
2025-01-08 22:50:40.45	78.82	24.73	
2025-01-08 22:50:40.65	78.87	24.73	
2025-01-08 22:50:40.86	78.93	24.74	
2025-01-08 22:50:41.06	78.99	24.74	
2025-01-08 22:50:41.27	79.05	24.75	
2025-01-08 22:50:41.47	79.11	24.75	
2025-01-08 22:50:41.68	79.17	24.76	
2025-01-08 22:50:41.88	79.23	24.76	
2025-01-08 22:50:42.09	79.29	24.77	
2025-01-08 22:50:42.29	79.34	24.77	
2025-01-08 22:50:42.50	79.40	24.78	
2025-01-08 22:50:42.70	79.46	24.78	
2025-01-08 22:50:42.90	79.52	24.79	
2025-01-08 22:50:43.11	79.58	24.80	
2025-01-08 22:50:43.32	79.64	24.80	
2025-01-08 22:50:43.52	79.70	24.81	
2025-01-08 22:50:43.72	79.75	24.81	
2025-01-08 22:50:43.93	79.82	24.82	
2025-01-08 22:50:44.13	79.87	24.82	
2025-01-08 22:50:44.34	79.93	24.83	
2025-01-08 22:50:44.54	79.99	24.83	
2025-01-08 22:50:44.75	80.05	24.84	
2025-01-08 22:50:44.95	80.11	24.84	
2025-01-08 22:50:45.16	80.17	24.85	
2025-01-08 22:50:45.36	80.23	24.85	
2025-01-08 22:50:45.57	80.29	24.86	
2025-01-08 22:50:45.77	80.35	24.86	
2025-01-08 22:50:45.98	80.41	24.86	
2025-01-08 22:50:46.18	80.46	24.87	
2025-01-08 22:50:46.39	80.52	24.87	
2025-01-08 22:50:46.59	80.58	24.88	
2025-01-08 22:50:46.80	80.64	24.88	
2025-01-08 22:50:47.01	80.70	24.89	
2025-01-08 22:50:47.21	80.76	24.89	
2025-01-08 22:50:47.41	80.82	24.90	
2025-01-08 22:50:47.62	80.88	24.90	
2025-01-08 22:50:47.82	80.94	24.91	
2025-01-08 22:50:48.03	81.00	24.91	
2025-01-08 22:50:48.23	81.06	24.92	
2025-01-08 22:50:48.44	81.12	24.92	
2025-01-08 22:50:48.64	81.18	24.92	
2025-01-08 22:50:48.85	81.24	24.93	
2025-01-08 22:50:49.05	81.29	24.93	
2025-01-08 22:50:49.26	81.36	24.94	
2025-01-08 22:50:49.46	81.41	24.94	
2025-01-08 22:50:49.67	81.47	24.95	
2025-01-08 22:50:49.89	81.54	24.95	
2025-01-08 22:50:50.09	81.60	24.95	
2025-01-08 22:50:50.29	81.65	24.96	
2025-01-08 22:50:50.50	81.72	24.96	
2025-01-08 22:50:50.70	81.77	24.97	
2025-01-08 22:50:50.91	81.83	24.97	
2025-01-08 22:50:51.12	81.90	24.97	
2025-01-08 22:50:51.32	81.95	24.98	
2025-01-08 22:50:51.52	82.01	24.98	
2025-01-08 22:50:51.73	82.07	24.99	
2025-01-08 22:50:51.93	82.13	24.99	
2025-01-08 22:50:52.14	82.19	24.99	
2025-01-08 22:50:52.34	82.25	25.00	
2025-01-08 22:50:52.55	82.31	25.00	
2025-01-08 22:50:52.75	82.37	25.00	
2025-01-08 22:50:52.96	82.43	25.01	
2025-01-08 22:50:53.16	82.49	25.01	
2025-01-08 22:50:53.37	82.55	25.02	
2025-01-08 22:50:53.57	82.61	25.02	
2025-01-08 22:50:53.77	82.67	25.02	
2025-01-08 22:50:53.98	82.73	25.03	
2025-01-08 22:50:54.19	82.79	25.03	
2025-01-08 22:50:54.39	82.85	25.03	
2025-01-08 22:50:54.60	82.91	25.04	
2025-01-08 22:50:54.80	82.97	25.04	
2025-01-08 22:50:55.01	83.03	25.04	
2025-01-08 22:50:55.21	83.09	25.05	
2025-01-08 22:50:55.42	83.15	25.05	
2025-01-08 22:50:55.63	83.21	25.05	
2025-01-08 22:50:55.83	83.27	25.06	
2025-01-08 22:50:56.04	83.33	25.06	
2025-01-08 22:50:56.24	83.39	25.06	
2025-01-08 22:50:56.45	83.45	25.07	
2025-01-08 22:50:56.65	83.51	25.07	
2025-01-08 22:50:56.85	83.57	25.07	
2025-01-08 22:50:57.06	83.63	25.08	
2025-01-08 22:50:57.27	83.69	25.08	
2025-01-08 22:50:57.47	83.75	25.08	
2025-01-08 22:50:57.68	83.81	25.09	
2025-01-08 22:50:57.88	83.87	25.09	
2025-01-08 22:50:58.08	83.93	25.09	
2025-01-08 22:50:58.29	83.99	25.09	
2025-01-08 22:50:58.50	84.05	25.10	
2025-01-08 22:50:58.70	84.11	25.10	
2025-01-08 22:50:58.90	84.17	25.10	
2025-01-08 22:50:59.11	84.23	25.11	
