passes_logs/2025/01/08/SPB_Silybum_02/SPB_Silybum_02__20250108_161658_TERRA_rec.log

#Pass ID: 20250108_161658_TERRA
#Satellite: TERRA
#Configuration: TERRA
#Start time: 2025-01-08 16:16:59

#Version: 2.0.20230423
#Station: SPB_Silybum_02
#Location: 30.233357 lon 59.946436 lat
#TLE: 1 25994U 99068A   25007.79031535  .00001159  00000+0  24884-3 0  9992
#TLE: 2 25994  98.0229  71.0496 0003578  86.9116 340.1593 14.60381232333028

#Time	Az	El	Level	Level2	SNR	BER	Gain	Gain2
2025-01-08 16:17:01.91	91.20	4.16	
2025-01-08 16:17:02.12	91.18	4.18	
2025-01-08 16:17:02.32	91.15	4.19	
2025-01-08 16:17:02.53	91.13	4.20	
2025-01-08 16:17:02.74	91.11	4.21	
2025-01-08 16:17:02.94	91.09	4.22	
2025-01-08 16:17:03.16	91.06	4.23	
2025-01-08 16:17:03.36	91.04	4.24	
2025-01-08 16:17:03.57	91.02	4.26	
2025-01-08 16:17:03.77	91.00	4.27	
2025-01-08 16:17:03.98	90.97	4.28	
2025-01-08 16:17:04.18	90.95	4.29	
2025-01-08 16:17:04.39	90.93	4.30	
2025-01-08 16:17:04.59	90.91	4.31	
2025-01-08 16:17:04.80	90.88	4.32	
2025-01-08 16:17:05.00	90.86	4.33	
2025-01-08 16:17:05.21	90.84	4.35	
2025-01-08 16:17:05.41	90.82	4.36	
2025-01-08 16:17:05.62	90.79	4.37	
2025-01-08 16:17:05.83	90.77	4.38	
2025-01-08 16:17:06.03	90.75	4.39	
2025-01-08 16:17:06.23	90.73	4.40	
2025-01-08 16:17:06.44	90.70	4.41	
2025-01-08 16:17:06.64	90.68	4.42	
2025-01-08 16:17:06.85	90.66	4.44	
2025-01-08 16:17:07.05	90.64	4.45	
2025-01-08 16:17:07.26	90.61	4.46	
2025-01-08 16:17:07.46	90.59	4.47	
2025-01-08 16:17:07.67	90.57	4.48	
2025-01-08 16:17:07.88	90.55	4.49	
2025-01-08 16:17:08.08	90.52	4.50	
2025-01-08 16:17:08.29	90.50	4.52	
2025-01-08 16:17:08.49	90.48	4.53	
2025-01-08 16:17:08.70	90.45	4.54	
2025-01-08 16:17:08.90	90.43	4.55	
2025-01-08 16:17:09.11	90.41	4.56	
2025-01-08 16:17:09.31	90.39	4.57	
2025-01-08 16:17:09.52	90.36	4.58	
2025-01-08 16:17:09.72	90.34	4.59	
2025-01-08 16:17:09.93	90.32	4.61	
2025-01-08 16:17:10.13	90.29	4.62	
2025-01-08 16:17:10.34	90.27	4.63	
2025-01-08 16:17:10.55	90.25	4.64	
2025-01-08 16:17:10.75	90.23	4.65	
2025-01-08 16:17:10.96	90.20	4.66	
2025-01-08 16:17:11.16	90.18	4.67	
2025-01-08 16:17:11.37	90.16	4.68	
2025-01-08 16:17:11.59	90.13	4.70	
2025-01-08 16:17:11.79	90.11	4.71	
2025-01-08 16:17:12.00	90.08	4.72	
2025-01-08 16:17:12.20	90.06	4.73	
2025-01-08 16:17:12.41	90.04	4.74	
2025-01-08 16:17:12.61	90.02	4.75	
2025-01-08 16:17:12.82	89.99	4.76	
2025-01-08 16:17:13.03	89.97	4.78	
2025-01-08 16:17:13.23	89.95	4.79	
2025-01-08 16:17:13.44	89.92	4.80	
2025-01-08 16:17:13.64	89.90	4.81	
2025-01-08 16:17:13.85	89.88	4.82	
2025-01-08 16:17:14.07	89.85	4.83	
2025-01-08 16:17:14.27	89.83	4.84	
2025-01-08 16:17:14.48	89.80	4.86	
2025-01-08 16:17:14.68	89.78	4.87	
2025-01-08 16:17:14.89	89.76	4.88	
2025-01-08 16:17:15.09	89.73	4.89	
2025-01-08 16:17:15.30	89.71	4.90	
2025-01-08 16:17:15.50	89.69	4.91	
2025-01-08 16:17:15.70	89.66	4.92	
2025-01-08 16:17:15.91	89.64	4.94	
2025-01-08 16:17:16.11	89.62	4.95	
2025-01-08 16:17:16.32	89.59	4.96	
2025-01-08 16:17:16.53	89.57	4.97	
2025-01-08 16:17:16.73	89.55	4.98	
2025-01-08 16:17:16.93	89.52	4.99	
2025-01-08 16:17:17.14	89.50	5.00	
2025-01-08 16:17:17.35	89.47	5.01	
2025-01-08 16:17:17.55	89.45	5.03	
2025-01-08 16:17:17.76	89.43	5.04	
2025-01-08 16:17:17.96	89.40	5.05	
2025-01-08 16:17:18.17	89.38	5.06	
2025-01-08 16:17:18.37	89.36	5.07	
2025-01-08 16:17:18.58	89.33	5.08	
2025-01-08 16:17:18.78	89.31	5.09	
2025-01-08 16:17:18.99	89.28	5.11	
2025-01-08 16:17:19.19	89.26	5.12	
2025-01-08 16:17:19.40	89.24	5.13	
2025-01-08 16:17:19.60	89.21	5.14	
2025-01-08 16:17:19.81	89.19	5.15	
2025-01-08 16:17:20.01	89.17	5.16	
2025-01-08 16:17:20.23	89.14	5.17	
2025-01-08 16:17:20.44	89.12	5.19	
2025-01-08 16:17:20.64	89.09	5.20	
2025-01-08 16:17:20.85	89.07	5.21	
2025-01-08 16:17:21.05	89.04	5.22	
2025-01-08 16:17:21.25	89.02	5.23	
2025-01-08 16:17:21.46	89.00	5.24	
2025-01-08 16:17:21.67	88.97	5.25	
2025-01-08 16:17:21.87	88.95	5.27	
2025-01-08 16:17:22.08	88.92	5.28	
2025-01-08 16:17:22.28	88.90	5.29	
2025-01-08 16:17:22.49	88.88	5.30	
2025-01-08 16:17:22.70	88.85	5.31	
2025-01-08 16:17:22.90	88.83	5.32	
2025-01-08 16:17:23.11	88.80	5.33	
2025-01-08 16:17:23.31	88.78	5.34	
2025-01-08 16:17:23.52	88.75	5.36	
2025-01-08 16:17:23.72	88.73	5.37	
2025-01-08 16:17:23.93	88.71	5.38	
2025-01-08 16:17:24.13	88.68	5.39	
2025-01-08 16:17:24.34	88.66	5.40	
2025-01-08 16:17:24.56	88.63	5.41	
2025-01-08 16:17:24.76	88.61	5.43	
2025-01-08 16:17:24.97	88.58	5.44	
2025-01-08 16:17:25.17	88.56	5.45	
2025-01-08 16:17:25.38	88.53	5.46	
2025-01-08 16:17:25.58	88.51	5.47	
2025-01-08 16:17:25.79	88.48	5.48	
2025-01-08 16:17:25.99	88.46	5.49	
2025-01-08 16:17:26.20	88.43	5.51	
2025-01-08 16:17:26.40	88.41	5.52	
2025-01-08 16:17:26.61	88.39	5.53	
2025-01-08 16:17:26.81	88.36	5.54	
2025-01-08 16:17:27.02	88.34	5.55	
2025-01-08 16:17:27.22	88.31	5.56	
2025-01-08 16:17:27.43	88.29	5.57	
2025-01-08 16:17:27.63	88.26	5.58	
2025-01-08 16:17:27.84	88.24	5.60	
2025-01-08 16:17:28.04	88.21	5.61	
2025-01-08 16:17:28.25	88.19	5.62	
2025-01-08 16:17:28.45	88.16	5.63	
2025-01-08 16:17:28.66	88.14	5.64	
2025-01-08 16:17:28.86	88.11	5.65	
2025-01-08 16:17:29.07	88.09	5.66	
2025-01-08 16:17:29.27	88.06	5.68	
2025-01-08 16:17:29.48	88.04	5.69	
2025-01-08 16:17:29.68	88.01	5.70	
2025-01-08 16:17:29.90	87.99	5.71	
2025-01-08 16:17:30.10	87.96	5.72	
2025-01-08 16:17:30.31	87.94	5.73	
2025-01-08 16:17:30.51	87.91	5.74	
2025-01-08 16:17:30.72	87.89	5.76	
2025-01-08 16:17:30.92	87.86	5.77	
2025-01-08 16:17:31.13	87.84	5.78	
2025-01-08 16:17:31.34	87.81	5.79	
2025-01-08 16:17:31.54	87.79	5.80	
2025-01-08 16:17:31.75	87.76	5.81	
2025-01-08 16:17:31.95	87.74	5.82	
2025-01-08 16:17:32.16	87.71	5.84	
2025-01-08 16:17:32.36	87.69	5.85	
2025-01-08 16:17:32.57	87.66	5.86	
2025-01-08 16:17:32.77	87.64	5.87	
2025-01-08 16:17:32.98	87.61	5.88	
2025-01-08 16:17:33.18	87.59	5.89	
2025-01-08 16:17:33.38	87.56	5.90	
2025-01-08 16:17:33.59	87.54	5.92	
2025-01-08 16:17:33.79	87.51	5.93	
2025-01-08 16:17:34.00	87.49	5.94	
2025-01-08 16:17:34.20	87.46	5.95	
2025-01-08 16:17:34.41	87.43	5.96	
2025-01-08 16:17:34.62	87.41	5.97	
2025-01-08 16:17:34.82	87.38	5.98	
2025-01-08 16:17:35.03	87.36	6.00	
2025-01-08 16:17:35.23	87.33	6.01	
2025-01-08 16:17:35.44	87.31	6.02	
2025-01-08 16:17:35.64	87.28	6.03	
2025-01-08 16:17:35.85	87.26	6.04	
2025-01-08 16:17:36.05	87.23	6.05	
2025-01-08 16:17:36.26	87.20	6.06	
2025-01-08 16:17:36.47	87.18	6.08	
2025-01-08 16:17:36.67	87.15	6.09	
2025-01-08 16:17:36.88	87.13	6.10	
2025-01-08 16:17:37.08	87.10	6.11	
2025-01-08 16:17:37.29	87.08	6.12	
2025-01-08 16:17:37.49	87.05	6.13	
2025-01-08 16:17:37.70	87.02	6.14	
2025-01-08 16:17:37.90	87.00	6.16	
2025-01-08 16:17:38.11	86.97	6.17	
2025-01-08 16:17:38.31	86.95	6.18	
2025-01-08 16:17:38.52	86.92	6.19	
2025-01-08 16:17:38.72	86.90	6.20	
2025-01-08 16:17:38.93	86.87	6.21	
2025-01-08 16:17:39.13	86.84	6.22	
2025-01-08 16:17:39.34	86.82	6.24	
2025-01-08 16:17:39.54	86.79	6.25	
2025-01-08 16:17:39.75	86.77	6.26	
2025-01-08 16:17:39.95	86.74	6.27	
2025-01-08 16:17:40.16	86.71	6.28	
2025-01-08 16:17:40.36	86.69	6.29	
2025-01-08 16:17:40.56	86.66	6.30	
2025-01-08 16:17:40.77	86.64	6.32	
2025-01-08 16:17:40.98	86.61	6.33	
2025-01-08 16:17:41.18	86.58	6.34	
2025-01-08 16:17:41.39	86.56	6.35	
2025-01-08 16:17:41.59	86.53	6.36	
2025-01-08 16:17:41.80	86.50	6.37	
2025-01-08 16:17:42.00	86.48	6.38	
2025-01-08 16:17:42.21	86.45	6.40	
2025-01-08 16:17:42.42	86.42	6.41	
2025-01-08 16:17:42.62	86.40	6.42	
2025-01-08 16:17:42.83	86.37	6.43	
2025-01-08 16:17:43.03	86.35	6.44	
2025-01-08 16:17:43.24	86.32	6.45	
2025-01-08 16:17:43.44	86.29	6.46	
2025-01-08 16:17:43.65	86.27	6.48	
2025-01-08 16:17:43.85	86.24	6.49	
2025-01-08 16:17:44.06	86.21	6.50	
2025-01-08 16:17:44.26	86.19	6.51	
2025-01-08 16:17:44.47	86.16	6.52	
2025-01-08 16:17:44.67	86.13	6.53	
2025-01-08 16:17:44.88	86.11	6.54	
2025-01-08 16:17:45.08	86.08	6.56	
2025-01-08 16:17:45.29	86.05	6.57	
2025-01-08 16:17:45.49	86.03	6.58	
2025-01-08 16:17:45.70	86.00	6.59	
2025-01-08 16:17:45.90	85.98	6.60	
2025-01-08 16:17:46.11	85.95	6.61	
2025-01-08 16:17:46.31	85.92	6.62	
2025-01-08 16:17:46.52	85.89	6.64	
2025-01-08 16:17:46.72	85.87	6.65	
2025-01-08 16:17:46.93	85.84	6.66	
2025-01-08 16:17:47.13	85.81	6.67	
2025-01-08 16:17:47.34	85.79	6.68	
2025-01-08 16:17:47.54	85.76	6.69	
2025-01-08 16:17:47.75	85.73	6.70	
2025-01-08 16:17:47.95	85.71	6.72	
2025-01-08 16:17:48.16	85.68	6.73	
2025-01-08 16:17:48.36	85.65	6.74	
2025-01-08 16:17:48.57	85.63	6.75	
2025-01-08 16:17:48.77	85.60	6.76	
2025-01-08 16:17:48.98	85.57	6.77	
2025-01-08 16:17:49.18	85.55	6.78	
2025-01-08 16:17:49.38	85.52	6.80	
2025-01-08 16:17:49.59	85.49	6.81	
2025-01-08 16:17:49.80	85.46	6.82	
2025-01-08 16:17:50.00	85.44	6.83	
2025-01-08 16:17:50.20	85.41	6.84	
2025-01-08 16:17:50.41	85.38	6.85	
2025-01-08 16:17:50.61	85.36	6.86	
2025-01-08 16:17:50.82	85.33	6.88	
2025-01-08 16:17:51.02	85.30	6.89	
2025-01-08 16:17:51.24	85.27	6.90	
2025-01-08 16:17:51.44	85.25	6.91	
2025-01-08 16:17:51.65	85.22	6.92	
2025-01-08 16:17:51.86	85.19	6.93	
2025-01-08 16:17:52.06	85.16	6.94	
2025-01-08 16:17:52.27	85.14	6.96	
2025-01-08 16:17:52.47	85.11	6.97	
2025-01-08 16:17:52.68	85.08	6.98	
2025-01-08 16:17:52.88	85.05	6.99	
2025-01-08 16:17:53.09	85.03	7.00	
2025-01-08 16:17:53.29	85.00	7.01	
2025-01-08 16:17:53.50	84.97	7.03	
2025-01-08 16:17:53.70	84.94	7.04	
2025-01-08 16:17:53.91	84.92	7.05	
2025-01-08 16:17:54.11	84.89	7.06	
2025-01-08 16:17:54.31	84.86	7.07	
2025-01-08 16:17:54.52	84.83	7.08	
2025-01-08 16:17:54.73	84.80	7.09	
2025-01-08 16:17:54.93	84.78	7.10	
2025-01-08 16:17:55.14	84.75	7.12	
2025-01-08 16:17:55.34	84.72	7.13	
2025-01-08 16:17:55.54	84.69	7.14	
2025-01-08 16:17:55.75	84.67	7.15	
2025-01-08 16:17:55.96	84.64	7.16	
2025-01-08 16:17:56.16	84.61	7.17	
2025-01-08 16:17:56.37	84.58	7.19	
2025-01-08 16:17:56.57	84.55	7.20	
2025-01-08 16:17:56.78	84.53	7.21	
2025-01-08 16:17:56.98	84.50	7.22	
2025-01-08 16:17:57.19	84.47	7.23	
2025-01-08 16:17:57.39	84.44	7.24	
2025-01-08 16:17:57.60	84.41	7.25	
2025-01-08 16:17:57.80	84.39	7.26	
2025-01-08 16:17:58.01	84.36	7.28	
2025-01-08 16:17:58.21	84.33	7.29	
2025-01-08 16:17:58.42	84.30	7.30	
2025-01-08 16:17:58.62	84.27	7.31	
2025-01-08 16:17:58.83	84.25	7.32	
2025-01-08 16:17:59.04	84.22	7.33	
2025-01-08 16:17:59.24	84.19	7.35	
2025-01-08 16:17:59.45	84.16	7.36	
2025-01-08 16:17:59.65	84.13	7.37	
2025-01-08 16:17:59.86	84.10	7.38	
2025-01-08 16:18:00.06	84.08	7.39	
2025-01-08 16:18:00.26	84.05	7.40	
2025-01-08 16:18:00.47	84.02	7.41	
2025-01-08 16:18:00.67	83.99	7.42	
2025-01-08 16:18:00.88	83.96	7.44	
2025-01-08 16:18:01.08	83.94	7.45	
2025-01-08 16:18:01.29	83.91	7.46	
2025-01-08 16:18:01.49	83.88	7.47	
2025-01-08 16:18:01.70	83.85	7.48	
2025-01-08 16:18:01.92	83.82	7.49	
2025-01-08 16:18:02.12	83.79	7.51	
2025-01-08 16:18:02.33	83.76	7.52	
2025-01-08 16:18:02.54	83.73	7.53	
2025-01-08 16:18:02.74	83.70	7.54	
2025-01-08 16:18:02.94	83.68	7.55	
2025-01-08 16:18:03.15	83.65	7.56	
2025-01-08 16:18:03.36	83.62	7.57	
2025-01-08 16:18:03.56	83.59	7.59	
2025-01-08 16:18:03.77	83.56	7.60	
2025-01-08 16:18:03.97	83.53	7.61	
2025-01-08 16:18:04.18	83.50	7.62	
2025-01-08 16:18:04.38	83.47	7.63	
2025-01-08 16:18:04.59	83.44	7.64	
2025-01-08 16:18:04.79	83.42	7.65	
2025-01-08 16:18:05.00	83.39	7.67	
2025-01-08 16:18:05.20	83.36	7.68	
2025-01-08 16:18:05.41	83.33	7.69	
2025-01-08 16:18:05.61	83.30	7.70	
2025-01-08 16:18:05.82	83.27	7.71	
2025-01-08 16:18:06.02	83.24	7.72	
2025-01-08 16:18:06.23	83.21	7.73	
2025-01-08 16:18:06.43	83.18	7.75	
2025-01-08 16:18:06.64	83.15	7.76	
2025-01-08 16:18:06.85	83.12	7.77	
2025-01-08 16:18:07.05	83.10	7.78	
2025-01-08 16:18:07.26	83.07	7.79	
2025-01-08 16:18:07.46	83.04	7.80	
2025-01-08 16:18:07.67	83.01	7.81	
2025-01-08 16:18:07.87	82.98	7.83	
2025-01-08 16:18:08.08	82.95	7.84	
2025-01-08 16:18:08.28	82.92	7.85	
2025-01-08 16:18:08.49	82.89	7.86	
2025-01-08 16:18:08.70	82.86	7.87	
2025-01-08 16:18:08.90	82.83	7.88	
2025-01-08 16:18:09.11	82.80	7.89	
2025-01-08 16:18:09.33	82.77	7.91	
2025-01-08 16:18:09.53	82.74	7.92	
2025-01-08 16:18:09.74	82.71	7.93	
2025-01-08 16:18:09.94	82.68	7.94	
2025-01-08 16:18:10.15	82.65	7.95	
2025-01-08 16:18:10.35	82.62	7.96	
2025-01-08 16:18:10.56	82.59	7.97	
2025-01-08 16:18:10.76	82.56	7.99	
2025-01-08 16:18:10.97	82.53	8.00	
2025-01-08 16:18:11.17	82.51	8.01	
2025-01-08 16:18:11.38	82.47	8.02	
2025-01-08 16:18:11.58	82.45	8.03	
2025-01-08 16:18:11.79	82.42	8.04	
2025-01-08 16:18:11.99	82.39	8.05	
2025-01-08 16:18:12.20	82.36	8.07	
2025-01-08 16:18:12.41	82.33	8.08	
2025-01-08 16:18:12.61	82.30	8.09	
2025-01-08 16:18:12.81	82.27	8.10	
2025-01-08 16:18:13.03	82.23	8.11	
2025-01-08 16:18:13.24	82.20	8.12	
2025-01-08 16:18:13.44	82.18	8.13	
2025-01-08 16:18:13.64	82.15	8.15	
2025-01-08 16:18:13.85	82.12	8.16	
2025-01-08 16:18:14.06	82.08	8.17	
2025-01-08 16:18:14.26	82.05	8.18	
2025-01-08 16:18:14.47	82.02	8.19	
2025-01-08 16:18:14.69	81.99	8.20	
2025-01-08 16:18:14.89	81.96	8.21	
2025-01-08 16:18:15.10	81.93	8.23	
2025-01-08 16:18:15.30	81.90	8.24	
2025-01-08 16:18:15.51	81.87	8.25	
2025-01-08 16:18:15.71	81.84	8.26	
2025-01-08 16:18:15.92	81.81	8.27	
2025-01-08 16:18:16.12	81.78	8.28	
2025-01-08 16:18:16.33	81.75	8.29	
2025-01-08 16:18:16.54	81.72	8.31	
2025-01-08 16:18:16.74	81.69	8.32	
2025-01-08 16:18:16.94	81.66	8.33	
2025-01-08 16:18:17.15	81.63	8.34	
2025-01-08 16:18:17.35	81.60	8.35	
2025-01-08 16:18:17.56	81.57	8.36	
2025-01-08 16:18:17.76	81.54	8.37	
2025-01-08 16:18:17.97	81.51	8.38	
2025-01-08 16:18:18.17	81.48	8.40	
2025-01-08 16:18:18.38	81.45	8.41	
2025-01-08 16:18:18.58	81.42	8.42	
2025-01-08 16:18:18.79	81.38	8.43	
2025-01-08 16:18:19.01	81.35	8.44	
2025-01-08 16:18:19.21	81.32	8.45	
2025-01-08 16:18:19.42	81.29	8.46	
2025-01-08 16:18:19.63	81.26	8.48	
2025-01-08 16:18:19.83	81.23	8.49	
2025-01-08 16:18:20.04	81.20	8.50	
2025-01-08 16:18:20.24	81.17	8.51	
2025-01-08 16:18:20.45	81.14	8.52	
2025-01-08 16:18:20.65	81.11	8.53	
2025-01-08 16:18:20.86	81.07	8.54	
2025-01-08 16:18:21.07	81.04	8.56	
2025-01-08 16:18:21.28	81.01	8.57	
2025-01-08 16:18:21.48	80.98	8.58	
2025-01-08 16:18:21.69	80.95	8.59	
2025-01-08 16:18:21.89	80.92	8.60	
2025-01-08 16:18:22.10	80.89	8.61	
2025-01-08 16:18:22.30	80.86	8.62	
2025-01-08 16:18:22.51	80.82	8.64	
2025-01-08 16:18:22.71	80.79	8.65	
2025-01-08 16:18:22.92	80.76	8.66	
2025-01-08 16:18:23.12	80.73	8.67	
2025-01-08 16:18:23.33	80.70	8.68	
2025-01-08 16:18:23.53	80.67	8.69	
2025-01-08 16:18:23.74	80.64	8.70	
2025-01-08 16:18:23.94	80.61	8.71	
2025-01-08 16:18:24.15	80.57	8.73	
2025-01-08 16:18:24.35	80.54	8.74	
2025-01-08 16:18:24.56	80.51	8.75	
2025-01-08 16:18:24.76	80.48	8.76	
2025-01-08 16:18:24.97	80.45	8.77	
2025-01-08 16:18:25.17	80.42	8.78	
2025-01-08 16:18:25.37	80.39	8.79	
2025-01-08 16:18:25.58	80.36	8.80	
2025-01-08 16:18:25.79	80.32	8.82	
2025-01-08 16:18:25.99	80.29	8.83	
2025-01-08 16:18:26.20	80.26	8.84	
2025-01-08 16:18:26.40	80.23	8.85	
2025-01-08 16:18:26.61	80.20	8.86	
2025-01-08 16:18:26.81	80.17	8.87	
2025-01-08 16:18:27.02	80.13	8.88	
2025-01-08 16:18:27.22	80.10	8.89	
2025-01-08 16:18:27.43	80.07	8.91	
2025-01-08 16:18:27.63	80.04	8.92	
2025-01-08 16:18:27.84	80.01	8.93	
2025-01-08 16:18:28.05	79.97	8.94	
2025-01-08 16:18:28.25	79.94	8.95	
2025-01-08 16:18:28.46	79.91	8.96	
2025-01-08 16:18:28.66	79.88	8.97	
2025-01-08 16:18:28.86	79.85	8.98	
2025-01-08 16:18:29.07	79.82	9.00	
2025-01-08 16:18:29.28	79.78	9.01	
2025-01-08 16:18:29.48	79.75	9.02	
2025-01-08 16:18:29.68	79.72	9.03	
2025-01-08 16:18:29.89	79.69	9.04	
2025-01-08 16:18:30.10	79.65	9.05	
2025-01-08 16:18:30.30	79.62	9.06	
2025-01-08 16:18:30.51	79.59	9.07	
2025-01-08 16:18:30.71	79.56	9.09	
2025-01-08 16:18:30.92	79.53	9.10	
2025-01-08 16:18:31.12	79.49	9.11	
2025-01-08 16:18:31.33	79.46	9.12	
2025-01-08 16:18:31.53	79.43	9.13	
2025-01-08 16:18:31.73	79.40	9.14	
2025-01-08 16:18:31.94	79.37	9.15	
2025-01-08 16:18:32.15	79.33	9.16	
2025-01-08 16:18:32.35	79.30	9.17	
2025-01-08 16:18:32.56	79.27	9.19	
2025-01-08 16:18:32.76	79.24	9.20	
2025-01-08 16:18:32.97	79.20	9.21	
2025-01-08 16:18:33.17	79.17	9.22	
2025-01-08 16:18:33.38	79.14	9.23	
2025-01-08 16:18:33.58	79.11	9.24	
2025-01-08 16:18:33.79	79.07	9.25	
2025-01-08 16:18:33.99	79.04	9.26	
2025-01-08 16:18:34.20	79.01	9.28	
2025-01-08 16:18:34.40	78.98	9.29	
2025-01-08 16:18:34.60	78.94	9.30	
2025-01-08 16:18:34.81	78.91	9.31	
2025-01-08 16:18:35.01	78.88	9.32	
2025-01-08 16:18:35.22	78.84	9.33	
2025-01-08 16:18:35.42	78.81	9.34	
2025-01-08 16:18:35.63	78.78	9.35	
2025-01-08 16:18:35.84	78.74	9.36	
2025-01-08 16:18:36.04	78.71	9.38	
2025-01-08 16:18:36.25	78.68	9.39	
2025-01-08 16:18:36.45	78.65	9.40	
2025-01-08 16:18:36.66	78.61	9.41	
2025-01-08 16:18:36.86	78.58	9.42	
2025-01-08 16:18:37.06	78.55	9.43	
2025-01-08 16:18:37.27	78.51	9.44	
2025-01-08 16:18:37.47	78.48	9.45	
2025-01-08 16:18:37.68	78.45	9.46	
2025-01-08 16:18:37.89	78.41	9.48	
2025-01-08 16:18:38.09	78.38	9.49	
2025-01-08 16:18:38.29	78.35	9.50	
2025-01-08 16:18:38.49	78.32	9.51	
2025-01-08 16:18:38.70	78.28	9.52	
2025-01-08 16:18:38.90	78.25	9.53	
2025-01-08 16:18:39.11	78.22	9.54	
2025-01-08 16:18:39.31	78.18	9.55	
2025-01-08 16:18:39.52	78.15	9.56	
2025-01-08 16:18:39.73	78.12	9.58	
2025-01-08 16:18:39.93	78.08	9.59	
2025-01-08 16:18:40.14	78.05	9.60	
2025-01-08 16:18:40.34	78.02	9.61	
2025-01-08 16:18:40.55	77.98	9.62	
2025-01-08 16:18:40.75	77.95	9.63	
2025-01-08 16:18:40.96	77.92	9.64	
2025-01-08 16:18:41.17	77.88	9.65	
2025-01-08 16:18:41.37	77.85	9.66	
2025-01-08 16:18:41.58	77.81	9.67	
2025-01-08 16:18:41.78	77.78	9.69	
2025-01-08 16:18:41.99	77.75	9.70	
2025-01-08 16:18:42.19	77.71	9.71	
2025-01-08 16:18:42.40	77.68	9.72	
2025-01-08 16:18:42.60	77.65	9.73	
2025-01-08 16:18:42.81	77.61	9.74	
2025-01-08 16:18:43.01	77.58	9.75	
2025-01-08 16:18:43.22	77.54	9.76	
2025-01-08 16:18:43.42	77.51	9.77	
2025-01-08 16:18:43.63	77.48	9.79	
2025-01-08 16:18:43.83	77.44	9.80	
2025-01-08 16:18:44.04	77.41	9.81	
2025-01-08 16:18:44.24	77.38	9.82	
2025-01-08 16:18:44.45	77.34	9.83	
2025-01-08 16:18:44.65	77.31	9.84	
2025-01-08 16:18:44.86	77.27	9.85	
2025-01-08 16:18:45.06	77.24	9.86	
2025-01-08 16:18:45.27	77.20	9.87	
2025-01-08 16:18:45.47	77.17	9.88	
2025-01-08 16:18:45.68	77.14	9.89	
2025-01-08 16:18:45.88	77.10	9.91	
2025-01-08 16:18:46.09	77.07	9.92	
2025-01-08 16:18:46.29	77.03	9.93	
2025-01-08 16:18:46.49	77.00	9.94	
2025-01-08 16:18:46.70	76.97	9.95	
2025-01-08 16:18:46.90	76.93	9.96	
2025-01-08 16:18:47.11	76.90	9.97	
2025-01-08 16:18:47.32	76.86	9.98	
2025-01-08 16:18:47.52	76.83	9.99	
2025-01-08 16:18:47.73	76.79	10.00	
2025-01-08 16:18:47.93	76.76	10.02	
2025-01-08 16:18:48.14	76.72	10.03	
2025-01-08 16:18:48.35	76.69	10.04	
2025-01-08 16:18:48.55	76.65	10.05	
2025-01-08 16:18:48.76	76.62	10.06	
2025-01-08 16:18:48.96	76.59	10.07	
2025-01-08 16:18:49.17	76.55	10.08	
2025-01-08 16:18:49.37	76.52	10.09	
2025-01-08 16:18:49.58	76.48	10.10	
2025-01-08 16:18:49.79	76.44	10.11	
2025-01-08 16:18:49.99	76.41	10.12	
2025-01-08 16:18:50.20	76.38	10.14	
2025-01-08 16:18:50.40	76.34	10.15	
2025-01-08 16:18:50.61	76.31	10.16	
2025-01-08 16:18:50.81	76.27	10.17	
2025-01-08 16:18:51.02	76.24	10.18	
2025-01-08 16:18:51.22	76.20	10.19	
2025-01-08 16:18:51.43	76.17	10.20	
2025-01-08 16:18:51.63	76.13	10.21	
2025-01-08 16:18:51.84	76.10	10.22	
2025-01-08 16:18:52.04	76.06	10.23	
2025-01-08 16:18:52.25	76.03	10.24	
2025-01-08 16:18:52.45	75.99	10.25	
2025-01-08 16:18:52.66	75.96	10.27	
2025-01-08 16:18:52.86	75.92	10.28	
2025-01-08 16:18:53.07	75.89	10.29	
2025-01-08 16:18:53.27	75.85	10.30	
2025-01-08 16:18:53.48	75.81	10.31	
2025-01-08 16:18:53.68	75.78	10.32	
2025-01-08 16:18:53.89	75.74	10.33	
2025-01-08 16:18:54.09	75.71	10.34	
2025-01-08 16:18:54.30	75.67	10.35	
2025-01-08 16:18:54.50	75.64	10.36	
2025-01-08 16:18:54.71	75.60	10.37	
2025-01-08 16:18:54.91	75.57	10.38	
2025-01-08 16:18:55.12	75.53	10.40	
2025-01-08 16:18:55.32	75.50	10.41	
2025-01-08 16:18:55.53	75.46	10.42	
2025-01-08 16:18:55.73	75.43	10.43	
2025-01-08 16:18:55.94	75.39	10.44	
2025-01-08 16:18:56.14	75.35	10.45	
2025-01-08 16:18:56.35	75.32	10.46	
2025-01-08 16:18:56.55	75.28	10.47	
2025-01-08 16:18:56.76	75.25	10.48	
2025-01-08 16:18:56.97	75.21	10.49	
2025-01-08 16:18:57.17	75.18	10.50	
2025-01-08 16:18:57.38	75.14	10.51	
2025-01-08 16:18:57.58	75.10	10.52	
2025-01-08 16:18:57.79	75.07	10.54	
2025-01-08 16:18:57.99	75.03	10.55	
2025-01-08 16:18:58.20	75.00	10.56	
2025-01-08 16:18:58.40	74.96	10.57	
2025-01-08 16:18:58.61	74.92	10.58	
2025-01-08 16:18:58.81	74.89	10.59	
2025-01-08 16:18:59.02	74.85	10.60	
2025-01-08 16:18:59.22	74.82	10.61	
2025-01-08 16:18:59.42	74.78	10.62	
2025-01-08 16:18:59.63	74.74	10.63	
2025-01-08 16:18:59.84	74.71	10.64	
2025-01-08 16:19:00.04	74.67	10.65	
2025-01-08 16:19:00.25	74.63	10.66	
2025-01-08 16:19:00.45	74.60	10.67	
2025-01-08 16:19:00.65	74.56	10.68	
2025-01-08 16:19:00.86	74.53	10.70	
2025-01-08 16:19:01.07	74.49	10.71	
2025-01-08 16:19:01.27	74.45	10.72	
2025-01-08 16:19:01.48	74.42	10.73	
2025-01-08 16:19:01.68	74.38	10.74	
2025-01-08 16:19:01.89	74.34	10.75	
2025-01-08 16:19:02.09	74.31	10.76	
2025-01-08 16:19:02.30	74.27	10.77	
2025-01-08 16:19:02.50	74.24	10.78	
2025-01-08 16:19:02.71	74.20	10.79	
2025-01-08 16:19:02.91	74.16	10.80	
2025-01-08 16:19:03.12	74.12	10.81	
2025-01-08 16:19:03.32	74.09	10.82	
2025-01-08 16:19:03.53	74.05	10.83	
2025-01-08 16:19:03.73	74.02	10.84	
2025-01-08 16:19:03.94	73.98	10.85	
2025-01-08 16:19:04.14	73.94	10.86	
2025-01-08 16:19:04.35	73.90	10.88	
2025-01-08 16:19:04.56	73.87	10.89	
2025-01-08 16:19:04.76	73.83	10.90	
2025-01-08 16:19:04.96	73.80	10.91	
2025-01-08 16:19:05.17	73.76	10.92	
2025-01-08 16:19:05.37	73.72	10.93	
2025-01-08 16:19:05.58	73.68	10.94	
2025-01-08 16:19:05.79	73.65	10.95	
2025-01-08 16:19:05.99	73.61	10.96	
2025-01-08 16:19:06.20	73.57	10.97	
2025-01-08 16:19:06.40	73.54	10.98	
2025-01-08 16:19:06.61	73.50	10.99	
2025-01-08 16:19:06.81	73.46	11.00	
2025-01-08 16:19:07.01	73.43	11.01	
2025-01-08 16:19:07.22	73.39	11.02	
2025-01-08 16:19:07.43	73.35	11.03	
2025-01-08 16:19:07.63	73.31	11.04	
2025-01-08 16:19:07.84	73.27	11.05	
2025-01-08 16:19:08.04	73.24	11.06	
2025-01-08 16:19:08.25	73.20	11.07	
2025-01-08 16:19:08.45	73.16	11.08	
2025-01-08 16:19:08.66	73.13	11.10	
2025-01-08 16:19:08.86	73.09	11.11	
2025-01-08 16:19:09.07	73.05	11.12	
2025-01-08 16:19:09.27	73.01	11.13	
2025-01-08 16:19:09.48	72.98	11.14	
2025-01-08 16:19:09.68	72.94	11.15	
2025-01-08 16:19:09.89	72.90	11.16	
2025-01-08 16:19:10.10	72.86	11.17	
2025-01-08 16:19:10.30	72.83	11.18	
2025-01-08 16:19:10.51	72.79	11.19	
2025-01-08 16:19:10.71	72.75	11.20	
2025-01-08 16:19:10.92	72.71	11.21	
2025-01-08 16:19:11.12	72.67	11.22	
2025-01-08 16:19:11.33	72.64	11.23	
2025-01-08 16:19:11.54	72.60	11.24	
2025-01-08 16:19:11.74	72.56	11.25	
2025-01-08 16:19:11.95	72.52	11.26	
2025-01-08 16:19:12.15	72.48	11.27	
2025-01-08 16:19:12.36	72.45	11.28	
2025-01-08 16:19:12.56	72.41	11.29	
2025-01-08 16:19:12.77	72.37	11.30	
2025-01-08 16:19:12.97	72.33	11.31	
2025-01-08 16:19:13.18	72.29	11.32	
2025-01-08 16:19:13.38	72.26	11.33	
2025-01-08 16:19:13.59	72.22	11.34	
2025-01-08 16:19:13.79	72.18	11.35	
2025-01-08 16:19:14.00	72.14	11.36	
2025-01-08 16:19:14.21	72.10	11.37	
2025-01-08 16:19:14.41	72.07	11.38	
2025-01-08 16:19:14.62	72.03	11.39	
2025-01-08 16:19:14.82	71.99	11.40	
2025-01-08 16:19:15.03	71.95	11.42	
2025-01-08 16:19:15.23	71.91	11.43	
2025-01-08 16:19:15.44	71.87	11.44	
2025-01-08 16:19:15.64	71.84	11.45	
2025-01-08 16:19:15.85	71.80	11.46	
2025-01-08 16:19:16.05	71.76	11.47	
2025-01-08 16:19:16.26	71.72	11.48	
2025-01-08 16:19:16.46	71.68	11.49	
2025-01-08 16:19:16.67	71.64	11.50	
2025-01-08 16:19:16.87	71.60	11.51	
2025-01-08 16:19:17.08	71.57	11.52	
2025-01-08 16:19:17.28	71.53	11.53	
2025-01-08 16:19:17.49	71.49	11.54	
2025-01-08 16:19:17.69	71.45	11.55	
2025-01-08 16:19:17.90	71.41	11.56	
2025-01-08 16:19:18.10	71.37	11.57	
2025-01-08 16:19:18.31	71.33	11.58	
2025-01-08 16:19:18.51	71.30	11.59	
2025-01-08 16:19:18.72	71.26	11.60	
2025-01-08 16:19:18.92	71.22	11.61	
2025-01-08 16:19:19.13	71.18	11.62	
2025-01-08 16:19:19.33	71.14	11.63	
2025-01-08 16:19:19.54	71.10	11.64	
2025-01-08 16:19:19.74	71.06	11.65	
2025-01-08 16:19:19.95	71.02	11.66	
2025-01-08 16:19:20.15	70.98	11.67	
2025-01-08 16:19:20.36	70.94	11.68	
2025-01-08 16:19:20.56	70.91	11.69	
2025-01-08 16:19:20.77	70.87	11.70	
2025-01-08 16:19:20.97	70.83	11.71	
2025-01-08 16:19:21.17	70.79	11.72	
2025-01-08 16:19:21.38	70.75	11.73	
2025-01-08 16:19:21.59	70.71	11.74	
2025-01-08 16:19:21.79	70.67	11.75	
2025-01-08 16:19:21.99	70.63	11.76	
2025-01-08 16:19:22.20	70.59	11.77	
2025-01-08 16:19:22.40	70.55	11.78	
2025-01-08 16:19:22.61	70.51	11.79	
2025-01-08 16:19:22.82	70.47	11.80	
2025-01-08 16:19:23.02	70.44	11.81	
2025-01-08 16:19:23.23	70.40	11.82	
2025-01-08 16:19:23.43	70.36	11.83	
2025-01-08 16:19:23.64	70.32	11.84	
2025-01-08 16:19:23.84	70.28	11.85	
2025-01-08 16:19:24.05	70.24	11.86	
2025-01-08 16:19:24.25	70.20	11.87	
2025-01-08 16:19:24.46	70.16	11.88	
2025-01-08 16:19:24.66	70.12	11.89	
2025-01-08 16:19:24.87	70.08	11.90	
2025-01-08 16:19:25.07	70.04	11.91	
2025-01-08 16:19:25.28	70.00	11.92	
2025-01-08 16:19:25.48	69.96	11.93	
2025-01-08 16:19:25.69	69.92	11.94	
2025-01-08 16:19:25.90	69.88	11.95	
2025-01-08 16:19:26.10	69.84	11.96	
2025-01-08 16:19:26.31	69.80	11.97	
2025-01-08 16:19:26.51	69.76	11.97	
2025-01-08 16:19:26.72	69.72	11.98	
2025-01-08 16:19:26.92	69.68	11.99	
2025-01-08 16:19:27.13	69.64	12.00	
2025-01-08 16:19:27.33	69.60	12.01	
2025-01-08 16:19:27.54	69.56	12.02	
2025-01-08 16:19:27.74	69.52	12.03	
2025-01-08 16:19:27.95	69.48	12.04	
2025-01-08 16:19:28.15	69.44	12.05	
2025-01-08 16:19:28.36	69.40	12.06	
2025-01-08 16:19:28.56	69.36	12.07	
2025-01-08 16:19:28.77	69.32	12.08	
2025-01-08 16:19:28.97	69.28	12.09	
2025-01-08 16:19:29.18	69.24	12.10	
2025-01-08 16:19:29.38	69.20	12.11	
2025-01-08 16:19:29.59	69.16	12.12	
2025-01-08 16:19:29.79	69.12	12.13	
2025-01-08 16:19:30.00	69.08	12.14	
2025-01-08 16:19:30.20	69.04	12.15	
2025-01-08 16:19:30.41	69.00	12.16	
2025-01-08 16:19:30.61	68.96	12.17	
2025-01-08 16:19:30.82	68.92	12.18	
2025-01-08 16:19:31.02	68.88	12.19	
2025-01-08 16:19:31.23	68.83	12.20	
2025-01-08 16:19:31.43	68.80	12.21	
2025-01-08 16:19:31.64	68.75	12.22	
2025-01-08 16:19:31.84	68.71	12.23	
2025-01-08 16:19:32.05	68.67	12.24	
2025-01-08 16:19:32.25	68.63	12.24	
2025-01-08 16:19:32.46	68.59	12.25	
2025-01-08 16:19:32.66	68.55	12.26	
2025-01-08 16:19:32.87	68.51	12.27	
2025-01-08 16:19:33.07	68.47	12.28	
2025-01-08 16:19:33.28	68.43	12.29	
2025-01-08 16:19:33.49	68.39	12.30	
2025-01-08 16:19:33.69	68.35	12.31	
2025-01-08 16:19:33.89	68.31	12.32	
2025-01-08 16:19:34.10	68.26	12.33	
2025-01-08 16:19:34.30	68.22	12.34	
2025-01-08 16:19:34.51	68.18	12.35	
2025-01-08 16:19:34.71	68.14	12.36	
2025-01-08 16:19:34.93	68.10	12.37	
2025-01-08 16:19:35.14	68.06	12.38	
2025-01-08 16:19:35.34	68.02	12.39	
2025-01-08 16:19:35.55	67.97	12.40	
2025-01-08 16:19:35.75	67.93	12.41	
2025-01-08 16:19:35.97	67.89	12.42	
2025-01-08 16:19:36.18	67.85	12.43	
2025-01-08 16:19:36.38	67.81	12.43	
2025-01-08 16:19:36.59	67.76	12.44	
2025-01-08 16:19:36.79	67.72	12.45	
2025-01-08 16:19:37.00	67.68	12.46	
2025-01-08 16:19:37.20	67.64	12.47	
2025-01-08 16:19:37.41	67.60	12.48	
2025-01-08 16:19:37.61	67.56	12.49	
2025-01-08 16:19:37.82	67.52	12.50	
2025-01-08 16:19:38.02	67.48	12.51	
2025-01-08 16:19:38.22	67.44	12.52	
2025-01-08 16:19:38.43	67.39	12.53	
2025-01-08 16:19:38.63	67.35	12.54	
2025-01-08 16:19:38.84	67.31	12.55	
2025-01-08 16:19:39.04	67.27	12.55	
2025-01-08 16:19:39.25	67.23	12.56	
2025-01-08 16:19:39.46	67.18	12.57	
2025-01-08 16:19:39.66	67.14	12.58	
2025-01-08 16:19:39.87	67.10	12.59	
2025-01-08 16:19:40.07	67.06	12.60	
2025-01-08 16:19:40.27	67.02	12.61	
2025-01-08 16:19:40.48	66.98	12.62	
2025-01-08 16:19:40.68	66.94	12.63	
2025-01-08 16:19:40.89	66.89	12.64	
2025-01-08 16:19:41.09	66.85	12.65	
2025-01-08 16:19:41.30	66.81	12.66	
2025-01-08 16:19:41.50	66.77	12.66	
2025-01-08 16:19:41.71	66.73	12.67	
2025-01-08 16:19:41.92	66.68	12.68	
2025-01-08 16:19:42.12	66.64	12.69	
2025-01-08 16:19:42.32	66.60	12.70	
2025-01-08 16:19:42.53	66.56	12.71	
2025-01-08 16:19:42.74	66.51	12.72	
2025-01-08 16:19:42.94	66.47	12.73	
2025-01-08 16:19:43.15	66.43	12.74	
2025-01-08 16:19:43.35	66.39	12.75	
2025-01-08 16:19:43.56	66.34	12.75	
2025-01-08 16:19:43.76	66.30	12.76	
2025-01-08 16:19:43.97	66.26	12.77	
2025-01-08 16:19:44.17	66.22	12.78	
2025-01-08 16:19:44.38	66.18	12.79	
2025-01-08 16:19:44.58	66.13	12.80	
2025-01-08 16:19:44.79	66.09	12.81	
2025-01-08 16:19:44.99	66.05	12.82	
2025-01-08 16:19:45.20	66.01	12.83	
2025-01-08 16:19:45.40	65.96	12.83	
2025-01-08 16:19:45.62	65.92	12.84	
2025-01-08 16:19:45.82	65.88	12.85	
2025-01-08 16:19:46.03	65.83	12.86	
2025-01-08 16:19:46.24	65.79	12.87	
2025-01-08 16:19:46.44	65.75	12.88	
2025-01-08 16:19:46.65	65.71	12.89	
2025-01-08 16:19:46.85	65.66	12.90	
2025-01-08 16:19:47.05	65.62	12.91	
2025-01-08 16:19:47.26	65.58	12.91	
2025-01-08 16:19:47.46	65.54	12.92	
2025-01-08 16:19:47.67	65.49	12.93	
2025-01-08 16:19:47.87	65.45	12.94	
2025-01-08 16:19:48.08	65.41	12.95	
2025-01-08 16:19:48.28	65.37	12.96	
2025-01-08 16:19:48.49	65.32	12.97	
2025-01-08 16:19:48.69	65.28	12.98	
2025-01-08 16:19:48.90	65.24	12.98	
2025-01-08 16:19:49.10	65.19	12.99	
2025-01-08 16:19:49.31	65.15	13.00	
2025-01-08 16:19:49.51	65.11	13.01	
2025-01-08 16:19:49.72	65.06	13.02	
2025-01-08 16:19:49.92	65.02	13.03	
2025-01-08 16:19:50.13	64.98	13.04	
2025-01-08 16:19:50.33	64.94	13.04	
2025-01-08 16:19:50.54	64.89	13.05	
2025-01-08 16:19:50.74	64.85	13.06	
2025-01-08 16:19:50.95	64.80	13.07	
2025-01-08 16:19:51.15	64.76	13.08	
2025-01-08 16:19:51.36	64.72	13.09	
2025-01-08 16:19:51.56	64.68	13.10	
2025-01-08 16:19:51.77	64.63	13.10	
2025-01-08 16:19:51.97	64.59	13.11	
2025-01-08 16:19:52.18	64.54	13.12	
2025-01-08 16:19:52.38	64.50	13.13	
2025-01-08 16:19:52.59	64.46	13.14	
2025-01-08 16:19:52.79	64.42	13.15	
2025-01-08 16:19:53.00	64.37	13.16	
2025-01-08 16:19:53.21	64.33	13.16	
2025-01-08 16:19:53.41	64.28	13.17	
2025-01-08 16:19:53.62	64.24	13.18	
2025-01-08 16:19:53.82	64.20	13.19	
2025-01-08 16:19:54.03	64.15	13.20	
2025-01-08 16:19:54.23	64.11	13.21	
2025-01-08 16:19:54.44	64.06	13.21	
2025-01-08 16:19:54.64	64.02	13.22	
2025-01-08 16:19:54.85	63.98	13.23	
2025-01-08 16:19:55.05	63.93	13.24	
2025-01-08 16:19:55.26	63.89	13.25	
2025-01-08 16:19:55.46	63.85	13.26	
2025-01-08 16:19:55.67	63.80	13.26	
2025-01-08 16:19:55.88	63.76	13.27	
2025-01-08 16:19:56.08	63.71	13.28	
2025-01-08 16:19:56.29	63.67	13.29	
2025-01-08 16:19:56.49	63.63	13.30	
2025-01-08 16:19:56.70	63.58	13.31	
2025-01-08 16:19:56.90	63.54	13.31	
2025-01-08 16:19:57.11	63.49	13.32	
2025-01-08 16:19:57.31	63.45	13.33	
2025-01-08 16:19:57.52	63.41	13.34	
2025-01-08 16:19:57.72	63.36	13.35	
2025-01-08 16:19:57.93	63.32	13.35	
2025-01-08 16:19:58.14	63.27	13.36	
2025-01-08 16:19:58.34	63.23	13.37	
2025-01-08 16:19:58.54	63.19	13.38	
2025-01-08 16:19:58.75	63.14	13.39	
2025-01-08 16:19:58.95	63.10	13.39	
2025-01-08 16:19:59.16	63.05	13.40	
2025-01-08 16:19:59.36	63.01	13.41	
2025-01-08 16:19:59.57	62.96	13.42	
2025-01-08 16:19:59.78	62.92	13.43	
2025-01-08 16:19:59.98	62.87	13.43	
2025-01-08 16:20:00.18	62.83	13.44	
2025-01-08 16:20:00.39	62.79	13.45	
2025-01-08 16:20:00.59	62.74	13.46	
2025-01-08 16:20:00.80	62.70	13.47	
2025-01-08 16:20:01.01	62.65	13.47	
2025-01-08 16:20:01.21	62.61	13.48	
2025-01-08 16:20:01.42	62.56	13.49	
2025-01-08 16:20:01.62	62.52	13.50	
2025-01-08 16:20:01.83	62.47	13.51	
2025-01-08 16:20:02.03	62.43	13.51	
2025-01-08 16:20:02.24	62.38	13.52	
2025-01-08 16:20:02.44	62.34	13.53	
2025-01-08 16:20:02.65	62.29	13.54	
2025-01-08 16:20:02.85	62.25	13.55	
2025-01-08 16:20:03.06	62.21	13.55	
2025-01-08 16:20:03.26	62.16	13.56	
2025-01-08 16:20:03.47	62.12	13.57	
2025-01-08 16:20:03.67	62.07	13.58	
2025-01-08 16:20:03.88	62.03	13.58	
2025-01-08 16:20:04.08	61.98	13.59	
2025-01-08 16:20:04.29	61.94	13.60	
2025-01-08 16:20:04.49	61.89	13.61	
2025-01-08 16:20:04.70	61.85	13.62	
2025-01-08 16:20:04.90	61.80	13.62	
2025-01-08 16:20:05.11	61.76	13.63	
2025-01-08 16:20:05.31	61.71	13.64	
2025-01-08 16:20:05.52	61.67	13.65	
2025-01-08 16:20:05.72	61.62	13.65	
2025-01-08 16:20:05.93	61.58	13.66	
2025-01-08 16:20:06.13	61.53	13.67	
2025-01-08 16:20:06.34	61.49	13.68	
2025-01-08 16:20:06.54	61.44	13.68	
2025-01-08 16:20:06.75	61.40	13.69	
2025-01-08 16:20:06.95	61.35	13.70	
2025-01-08 16:20:07.15	61.31	13.71	
2025-01-08 16:20:07.36	61.26	13.71	
2025-01-08 16:20:07.57	61.21	13.72	
2025-01-08 16:20:07.77	61.17	13.73	
2025-01-08 16:20:07.98	61.12	13.74	
2025-01-08 16:20:08.18	61.08	13.74	
2025-01-08 16:20:08.39	61.03	13.75	
2025-01-08 16:20:08.59	60.99	13.76	
2025-01-08 16:20:08.80	60.94	13.77	
2025-01-08 16:20:09.00	60.90	13.77	
2025-01-08 16:20:09.21	60.85	13.78	
2025-01-08 16:20:09.42	60.80	13.79	
2025-01-08 16:20:09.62	60.76	13.80	
2025-01-08 16:20:09.83	60.71	13.80	
2025-01-08 16:20:10.03	60.67	13.81	
2025-01-08 16:20:10.24	60.62	13.82	
2025-01-08 16:20:10.44	60.58	13.82	
2025-01-08 16:20:10.65	60.53	13.83	
2025-01-08 16:20:10.85	60.49	13.84	
2025-01-08 16:20:11.06	60.44	13.85	
2025-01-08 16:20:11.26	60.39	13.85	
2025-01-08 16:20:11.47	60.35	13.86	
2025-01-08 16:20:11.68	60.30	13.87	
2025-01-08 16:20:11.88	60.26	13.88	
2025-01-08 16:20:12.09	60.21	13.88	
2025-01-08 16:20:12.29	60.16	13.89	
2025-01-08 16:20:12.50	60.12	13.90	
2025-01-08 16:20:12.70	60.07	13.90	
2025-01-08 16:20:12.91	60.03	13.91	
2025-01-08 16:20:13.11	59.98	13.92	
2025-01-08 16:20:13.31	59.94	13.93	
2025-01-08 16:20:13.52	59.89	13.93	
2025-01-08 16:20:13.73	59.84	13.94	
2025-01-08 16:20:13.93	59.80	13.95	
2025-01-08 16:20:14.14	59.75	13.95	
2025-01-08 16:20:14.34	59.70	13.96	
2025-01-08 16:20:14.55	59.66	13.97	
2025-01-08 16:20:14.75	59.61	13.97	
2025-01-08 16:20:14.96	59.56	13.98	
2025-01-08 16:20:15.17	59.52	13.99	
2025-01-08 16:20:15.37	59.47	14.00	
2025-01-08 16:20:15.57	59.43	14.00	
2025-01-08 16:20:15.78	59.38	14.01	
2025-01-08 16:20:15.99	59.33	14.02	
2025-01-08 16:20:16.19	59.29	14.02	
2025-01-08 16:20:16.40	59.24	14.03	
2025-01-08 16:20:16.60	59.19	14.04	
2025-01-08 16:20:16.81	59.15	14.04	
2025-01-08 16:20:17.01	59.10	14.05	
2025-01-08 16:20:17.22	59.05	14.06	
2025-01-08 16:20:17.42	59.01	14.06	
2025-01-08 16:20:17.64	58.96	14.07	
2025-01-08 16:20:17.85	58.91	14.08	
2025-01-08 16:20:18.05	58.87	14.08	
2025-01-08 16:20:18.26	58.82	14.09	
2025-01-08 16:20:18.47	58.77	14.10	
2025-01-08 16:20:18.67	58.73	14.11	
2025-01-08 16:20:18.87	58.68	14.11	
2025-01-08 16:20:19.08	58.63	14.12	
2025-01-08 16:20:19.28	58.59	14.12	
2025-01-08 16:20:19.49	58.54	14.13	
2025-01-08 16:20:19.69	58.49	14.14	
2025-01-08 16:20:19.90	58.45	14.14	
2025-01-08 16:20:20.11	58.40	14.15	
2025-01-08 16:20:20.31	58.35	14.16	
2025-01-08 16:20:20.52	58.30	14.16	
2025-01-08 16:20:20.72	58.26	14.17	
2025-01-08 16:20:20.93	58.21	14.18	
2025-01-08 16:20:21.13	58.16	14.18	
2025-01-08 16:20:21.34	58.12	14.19	
2025-01-08 16:20:21.54	58.07	14.20	
2025-01-08 16:20:21.75	58.02	14.20	
2025-01-08 16:20:21.95	57.98	14.21	
2025-01-08 16:20:22.16	57.93	14.22	
2025-01-08 16:20:22.36	57.88	14.22	
2025-01-08 16:20:22.57	57.83	14.23	
2025-01-08 16:20:22.77	57.79	14.24	
2025-01-08 16:20:22.98	57.74	14.24	
2025-01-08 16:20:23.18	57.69	14.25	
2025-01-08 16:20:23.39	57.65	14.25	
2025-01-08 16:20:23.59	57.60	14.26	
2025-01-08 16:20:23.80	57.55	14.27	
2025-01-08 16:20:24.01	57.50	14.27	
2025-01-08 16:20:24.21	57.46	14.28	
2025-01-08 16:20:24.42	57.41	14.29	
2025-01-08 16:20:24.63	57.36	14.29	
2025-01-08 16:20:24.83	57.32	14.30	
2025-01-08 16:20:25.03	57.27	14.30	
2025-01-08 16:20:25.24	57.22	14.31	
2025-01-08 16:20:25.44	57.17	14.32	
2025-01-08 16:20:25.65	57.13	14.32	
2025-01-08 16:20:25.86	57.08	14.33	
2025-01-08 16:20:26.06	57.03	14.34	
2025-01-08 16:20:26.27	56.98	14.34	
2025-01-08 16:20:26.47	56.94	14.35	
2025-01-08 16:20:26.68	56.89	14.35	
2025-01-08 16:20:26.88	56.84	14.36	
2025-01-08 16:20:27.08	56.80	14.37	
2025-01-08 16:20:27.29	56.75	14.37	
2025-01-08 16:20:27.49	56.70	14.38	
2025-01-08 16:20:27.70	56.65	14.38	
2025-01-08 16:20:27.91	56.60	14.39	
2025-01-08 16:20:28.12	56.55	14.40	
2025-01-08 16:20:28.33	56.51	14.40	
2025-01-08 16:20:28.53	56.46	14.41	
2025-01-08 16:20:28.74	56.41	14.41	
2025-01-08 16:20:28.94	56.36	14.42	
2025-01-08 16:20:29.15	56.32	14.42	
2025-01-08 16:20:29.35	56.27	14.43	
2025-01-08 16:20:29.56	56.22	14.44	
2025-01-08 16:20:29.76	56.17	14.44	
2025-01-08 16:20:29.97	56.12	14.45	
2025-01-08 16:20:30.17	56.08	14.45	
2025-01-08 16:20:30.38	56.03	14.46	
2025-01-08 16:20:30.58	55.98	14.47	
2025-01-08 16:20:30.79	55.93	14.47	
2025-01-08 16:20:31.00	55.88	14.48	
2025-01-08 16:20:31.20	55.84	14.48	
2025-01-08 16:20:31.42	55.79	14.49	
2025-01-08 16:20:31.62	55.74	14.49	
2025-01-08 16:20:31.83	55.69	14.50	
2025-01-08 16:20:32.03	55.64	14.51	
2025-01-08 16:20:32.24	55.59	14.51	
2025-01-08 16:20:32.44	55.55	14.52	
2025-01-08 16:20:32.65	55.50	14.52	
2025-01-08 16:20:32.86	55.45	14.53	
2025-01-08 16:20:33.06	55.40	14.53	
2025-01-08 16:20:33.27	55.35	14.54	
2025-01-08 16:20:33.47	55.31	14.54	
2025-01-08 16:20:33.68	55.26	14.55	
2025-01-08 16:20:33.88	55.21	14.55	
2025-01-08 16:20:34.09	55.16	14.56	
2025-01-08 16:20:34.29	55.11	14.57	
2025-01-08 16:20:34.50	55.06	14.57	
2025-01-08 16:20:34.70	55.02	14.58	
2025-01-08 16:20:34.91	54.97	14.58	
2025-01-08 16:20:35.11	54.92	14.59	
2025-01-08 16:20:35.33	54.87	14.59	
2025-01-08 16:20:35.53	54.82	14.60	
2025-01-08 16:20:35.74	54.77	14.60	
2025-01-08 16:20:35.94	54.73	14.61	
2025-01-08 16:20:36.15	54.68	14.61	
2025-01-08 16:20:36.35	54.63	14.62	
2025-01-08 16:20:36.56	54.58	14.62	
2025-01-08 16:20:36.76	54.53	14.63	
2025-01-08 16:20:36.96	54.48	14.63	
2025-01-08 16:20:37.17	54.44	14.64	
2025-01-08 16:20:37.37	54.39	14.64	
2025-01-08 16:20:37.58	54.34	14.65	
2025-01-08 16:20:37.78	54.29	14.65	
2025-01-08 16:20:37.99	54.24	14.66	
2025-01-08 16:20:38.20	54.19	14.66	
2025-01-08 16:20:38.40	54.14	14.67	
2025-01-08 16:20:38.61	54.09	14.67	
2025-01-08 16:20:38.81	54.05	14.68	
2025-01-08 16:20:39.02	54.00	14.68	
2025-01-08 16:20:39.22	53.95	14.69	
2025-01-08 16:20:39.43	53.90	14.69	
2025-01-08 16:20:39.64	53.85	14.70	
2025-01-08 16:20:39.84	53.80	14.70	
2025-01-08 16:20:40.04	53.76	14.71	
2025-01-08 16:20:40.25	53.71	14.71	
2025-01-08 16:20:40.45	53.66	14.72	
2025-01-08 16:20:40.66	53.61	14.72	
2025-01-08 16:20:40.86	53.56	14.73	
2025-01-08 16:20:41.07	53.51	14.73	
2025-01-08 16:20:41.27	53.46	14.74	
2025-01-08 16:20:41.48	53.41	14.74	
2025-01-08 16:20:41.68	53.37	14.75	
2025-01-08 16:20:41.89	53.32	14.75	
2025-01-08 16:20:42.09	53.27	14.76	
2025-01-08 16:20:42.30	53.22	14.76	
2025-01-08 16:20:42.50	53.17	14.77	
2025-01-08 16:20:42.71	53.12	14.77	
2025-01-08 16:20:42.91	53.07	14.78	
2025-01-08 16:20:43.12	53.02	14.78	
2025-01-08 16:20:43.32	52.97	14.78	
2025-01-08 16:20:43.53	52.92	14.79	
2025-01-08 16:20:43.73	52.88	14.79	
2025-01-08 16:20:43.94	52.83	14.80	
2025-01-08 16:20:44.14	52.78	14.80	
2025-01-08 16:20:44.35	52.73	14.81	
2025-01-08 16:20:44.55	52.68	14.81	
2025-01-08 16:20:44.76	52.63	14.82	
2025-01-08 16:20:44.96	52.58	14.82	
2025-01-08 16:20:45.17	52.53	14.83	
2025-01-08 16:20:45.37	52.48	14.83	
2025-01-08 16:20:45.58	52.43	14.83	
2025-01-08 16:20:45.78	52.39	14.84	
2025-01-08 16:20:45.99	52.34	14.84	
2025-01-08 16:20:46.19	52.29	14.85	
2025-01-08 16:20:46.41	52.24	14.85	
2025-01-08 16:20:46.62	52.19	14.86	
2025-01-08 16:20:46.82	52.14	14.86	
2025-01-08 16:20:47.03	52.09	14.86	
2025-01-08 16:20:47.23	52.04	14.87	
2025-01-08 16:20:47.44	51.99	14.87	
2025-01-08 16:20:47.64	51.94	14.88	
2025-01-08 16:20:47.85	51.89	14.88	
2025-01-08 16:20:48.05	51.84	14.89	
2025-01-08 16:20:48.26	51.79	14.89	
2025-01-08 16:20:48.46	51.74	14.89	
2025-01-08 16:20:48.67	51.69	14.90	
2025-01-08 16:20:48.87	51.64	14.90	
2025-01-08 16:20:49.08	51.59	14.91	
2025-01-08 16:20:49.29	51.54	14.91	
2025-01-08 16:20:49.49	51.50	14.91	
2025-01-08 16:20:49.70	51.44	14.92	
2025-01-08 16:20:49.90	51.40	14.92	
2025-01-08 16:20:50.10	51.35	14.93	
2025-01-08 16:20:50.31	51.30	14.93	
2025-01-08 16:20:50.52	51.25	14.93	
2025-01-08 16:20:50.72	51.20	14.94	
2025-01-08 16:20:50.92	51.15	14.94	
2025-01-08 16:20:51.13	51.10	14.95	
2025-01-08 16:20:51.33	51.05	14.95	
2025-01-08 16:20:51.54	51.00	14.95	
2025-01-08 16:20:51.74	50.95	14.96	
2025-01-08 16:20:51.95	50.90	14.96	
2025-01-08 16:20:52.15	50.85	14.96	
2025-01-08 16:20:52.36	50.80	14.97	
2025-01-08 16:20:52.57	50.75	14.97	
2025-01-08 16:20:52.77	50.70	14.98	
2025-01-08 16:20:52.97	50.66	14.98	
2025-01-08 16:20:53.18	50.60	14.98	
2025-01-08 16:20:53.38	50.56	14.99	
2025-01-08 16:20:53.59	50.51	14.99	
2025-01-08 16:20:53.79	50.46	14.99	
2025-01-08 16:20:54.00	50.41	15.00	
2025-01-08 16:20:54.21	50.36	15.00	
2025-01-08 16:20:54.41	50.31	15.00	
2025-01-08 16:20:54.62	50.26	15.01	
2025-01-08 16:20:54.82	50.21	15.01	
2025-01-08 16:20:55.03	50.16	15.01	
2025-01-08 16:20:55.23	50.11	15.02	
2025-01-08 16:20:55.44	50.06	15.02	
2025-01-08 16:20:55.64	50.01	15.02	
2025-01-08 16:20:55.85	49.96	15.03	
2025-01-08 16:20:56.06	49.91	15.03	
2025-01-08 16:20:56.27	49.86	15.04	
2025-01-08 16:20:56.47	49.81	15.04	
2025-01-08 16:20:56.68	49.76	15.04	
2025-01-08 16:20:56.88	49.71	15.05	
2025-01-08 16:20:57.09	49.66	15.05	
2025-01-08 16:20:57.29	49.61	15.05	
2025-01-08 16:20:57.50	49.56	15.06	
2025-01-08 16:20:57.71	49.51	15.06	
2025-01-08 16:20:57.91	49.46	15.06	
2025-01-08 16:20:58.11	49.41	15.06	
2025-01-08 16:20:58.32	49.36	15.07	
2025-01-08 16:20:58.53	49.31	15.07	
2025-01-08 16:20:58.73	49.26	15.07	
2025-01-08 16:20:58.94	49.21	15.08	
2025-01-08 16:20:59.14	49.16	15.08	
2025-01-08 16:20:59.35	49.11	15.08	
2025-01-08 16:20:59.56	49.05	15.09	
2025-01-08 16:20:59.76	49.01	15.09	
2025-01-08 16:20:59.97	48.95	15.09	
2025-01-08 16:21:00.17	48.91	15.10	
2025-01-08 16:21:00.37	48.86	15.10	
2025-01-08 16:21:00.58	48.81	15.10	
2025-01-08 16:21:00.78	48.76	15.10	
2025-01-08 16:21:00.99	48.71	15.11	
2025-01-08 16:21:01.19	48.66	15.11	
2025-01-08 16:21:01.40	48.61	15.11	
2025-01-08 16:21:01.61	48.55	15.12	
2025-01-08 16:21:01.81	48.51	15.12	
2025-01-08 16:21:02.02	48.45	15.12	
2025-01-08 16:21:02.22	48.40	15.12	
2025-01-08 16:21:02.43	48.35	15.13	
2025-01-08 16:21:02.63	48.30	15.13	
2025-01-08 16:21:02.84	48.25	15.13	
2025-01-08 16:21:03.04	48.20	15.13	
2025-01-08 16:21:03.25	48.15	15.14	
2025-01-08 16:21:03.45	48.10	15.14	
2025-01-08 16:21:03.66	48.05	15.14	
2025-01-08 16:21:03.86	48.00	15.15	
2025-01-08 16:21:04.07	47.95	15.15	
2025-01-08 16:21:04.28	47.90	15.15	
2025-01-08 16:21:04.48	47.85	15.15	
2025-01-08 16:21:04.68	47.80	15.16	
2025-01-08 16:21:04.89	47.75	15.16	
2025-01-08 16:21:05.09	47.70	15.16	
2025-01-08 16:21:05.30	47.65	15.16	
2025-01-08 16:21:05.50	47.60	15.17	
2025-01-08 16:21:05.71	47.55	15.17	
2025-01-08 16:21:05.91	47.50	15.17	
2025-01-08 16:21:06.12	47.45	15.17	
2025-01-08 16:21:06.32	47.40	15.17	
2025-01-08 16:21:06.53	47.35	15.18	
2025-01-08 16:21:06.75	47.30	15.18	
2025-01-08 16:21:06.95	47.25	15.18	
2025-01-08 16:21:07.16	47.19	15.18	
2025-01-08 16:21:07.37	47.14	15.19	
2025-01-08 16:21:07.57	47.09	15.19	
2025-01-08 16:21:07.78	47.04	15.19	
2025-01-08 16:21:07.98	46.99	15.19	
2025-01-08 16:21:08.19	46.94	15.20	
2025-01-08 16:21:08.39	46.89	15.20	
2025-01-08 16:21:08.60	46.84	15.20	
2025-01-08 16:21:08.80	46.79	15.20	
2025-01-08 16:21:09.01	46.74	15.20	
2025-01-08 16:21:09.22	46.69	15.21	
2025-01-08 16:21:09.42	46.64	15.21	
2025-01-08 16:21:09.63	46.59	15.21	
2025-01-08 16:21:09.83	46.54	15.21	
2025-01-08 16:21:10.04	46.49	15.21	
2025-01-08 16:21:10.24	46.44	15.22	
2025-01-08 16:21:10.45	46.39	15.22	
2025-01-08 16:21:10.65	46.34	15.22	
2025-01-08 16:21:10.86	46.28	15.22	
2025-01-08 16:21:11.06	46.24	15.22	
2025-01-08 16:21:11.27	46.18	15.22	
2025-01-08 16:21:11.47	46.13	15.23	
2025-01-08 16:21:11.68	46.08	15.23	
2025-01-08 16:21:11.88	46.03	15.23	
2025-01-08 16:21:12.09	45.98	15.23	
2025-01-08 16:21:12.29	45.93	15.23	
2025-01-08 16:21:12.50	45.88	15.24	
2025-01-08 16:21:12.70	45.83	15.24	
2025-01-08 16:21:12.91	45.78	15.24	
2025-01-08 16:21:13.11	45.73	15.24	
2025-01-08 16:21:13.32	45.68	15.24	
2025-01-08 16:21:13.52	45.63	15.24	
2025-01-08 16:21:13.73	45.58	15.25	
2025-01-08 16:21:13.93	45.53	15.25	
2025-01-08 16:21:14.14	45.48	15.25	
2025-01-08 16:21:14.34	45.43	15.25	
2025-01-08 16:21:14.56	45.37	15.25	
2025-01-08 16:21:14.77	45.32	15.25	
2025-01-08 16:21:14.97	45.27	15.25	
2025-01-08 16:21:15.18	45.22	15.26	
2025-01-08 16:21:15.38	45.17	15.26	
2025-01-08 16:21:15.59	45.12	15.26	
2025-01-08 16:21:15.79	45.07	15.26	
2025-01-08 16:21:16.00	45.02	15.26	
2025-01-08 16:21:16.20	44.97	15.26	
2025-01-08 16:21:16.41	44.92	15.26	
2025-01-08 16:21:16.61	44.87	15.27	
2025-01-08 16:21:16.82	44.82	15.27	
2025-01-08 16:21:17.02	44.77	15.27	
2025-01-08 16:21:17.23	44.71	15.27	
2025-01-08 16:21:17.43	44.66	15.27	
2025-01-08 16:21:17.64	44.61	15.27	
2025-01-08 16:21:17.84	44.56	15.27	
2025-01-08 16:21:18.05	44.51	15.27	
2025-01-08 16:21:18.25	44.46	15.28	
2025-01-08 16:21:18.46	44.41	15.28	
2025-01-08 16:21:18.66	44.36	15.28	
2025-01-08 16:21:18.87	44.31	15.28	
2025-01-08 16:21:19.08	44.26	15.28	
2025-01-08 16:21:19.28	44.21	15.28	
2025-01-08 16:21:19.49	44.16	15.28	
2025-01-08 16:21:19.69	44.11	15.28	
2025-01-08 16:21:19.90	44.05	15.28	
2025-01-08 16:21:20.10	44.00	15.28	
2025-01-08 16:21:20.31	43.95	15.29	
2025-01-08 16:21:20.51	43.90	15.29	
2025-01-08 16:21:20.72	43.85	15.29	
2025-01-08 16:21:20.92	43.80	15.29	
2025-01-08 16:21:21.13	43.75	15.29	
2025-01-08 16:21:21.34	43.70	15.29	
2025-01-08 16:21:21.54	43.65	15.29	
2025-01-08 16:21:21.75	43.60	15.29	
2025-01-08 16:21:21.95	43.55	15.29	
2025-01-08 16:21:22.16	43.50	15.29	
2025-01-08 16:21:22.37	43.44	15.29	
2025-01-08 16:21:22.57	43.39	15.29	
2025-01-08 16:21:22.77	43.34	15.29	
2025-01-08 16:21:22.98	43.29	15.29	
2025-01-08 16:21:23.18	43.24	15.30	
2025-01-08 16:21:23.39	43.19	15.30	
2025-01-08 16:21:23.60	43.14	15.30	
2025-01-08 16:21:23.80	43.09	15.30	
2025-01-08 16:21:24.01	43.04	15.30	
2025-01-08 16:21:24.21	42.99	15.30	
2025-01-08 16:21:24.42	42.94	15.30	
2025-01-08 16:21:24.62	42.89	15.30	
2025-01-08 16:21:24.83	42.83	15.30	
2025-01-08 16:21:25.03	42.79	15.30	
2025-01-08 16:21:25.24	42.73	15.30	
2025-01-08 16:21:25.44	42.68	15.30	
2025-01-08 16:21:25.65	42.63	15.30	
2025-01-08 16:21:25.85	42.58	15.30	
2025-01-08 16:21:26.06	42.53	15.30	
2025-01-08 16:21:26.26	42.48	15.30	
2025-01-08 16:21:26.47	42.43	15.30	
2025-01-08 16:21:26.67	42.38	15.30	
2025-01-08 16:21:26.88	42.33	15.30	
2025-01-08 16:21:27.08	42.28	15.30	
2025-01-08 16:21:27.29	42.23	15.30	
2025-01-08 16:21:27.50	42.17	15.30	
2025-01-08 16:21:27.70	42.12	15.30	
2025-01-08 16:21:27.91	42.07	15.30	
2025-01-08 16:21:28.11	42.02	15.30	
2025-01-08 16:21:28.32	41.97	15.30	
2025-01-08 16:21:28.52	41.92	15.30	
2025-01-08 16:21:28.73	41.87	15.30	
2025-01-08 16:21:28.93	41.82	15.30	
2025-01-08 16:21:29.13	41.77	15.30	
2025-01-08 16:21:29.34	41.72	15.30	
2025-01-08 16:21:29.55	41.67	15.30	
2025-01-08 16:21:29.75	41.62	15.30	
2025-01-08 16:21:29.96	41.56	15.30	
2025-01-08 16:21:30.16	41.52	15.30	
2025-01-08 16:21:30.37	41.46	15.30	
2025-01-08 16:21:30.57	41.41	15.30	
2025-01-08 16:21:30.78	41.36	15.30	
2025-01-08 16:21:30.98	41.31	15.30	
2025-01-08 16:21:31.19	41.26	15.30	
2025-01-08 16:21:31.39	41.21	15.30	
2025-01-08 16:21:31.60	41.16	15.30	
2025-01-08 16:21:31.80	41.11	15.30	
2025-01-08 16:21:32.01	41.06	15.30	
2025-01-08 16:21:32.21	41.01	15.30	
2025-01-08 16:21:32.43	40.95	15.30	
2025-01-08 16:21:32.63	40.90	15.30	
2025-01-08 16:21:32.84	40.85	15.30	
2025-01-08 16:21:33.05	40.80	15.30	
2025-01-08 16:21:33.25	40.75	15.30	
2025-01-08 16:21:33.45	40.70	15.30	
2025-01-08 16:21:33.66	40.65	15.30	
2025-01-08 16:21:33.87	40.60	15.30	
2025-01-08 16:21:34.07	40.55	15.30	
2025-01-08 16:21:34.28	40.50	15.30	
2025-01-08 16:21:34.48	40.45	15.30	
2025-01-08 16:21:34.68	40.40	15.30	
2025-01-08 16:21:34.89	40.34	15.29	
2025-01-08 16:21:35.09	40.30	15.29	
2025-01-08 16:21:35.30	40.24	15.29	
2025-01-08 16:21:35.51	40.19	15.29	
2025-01-08 16:21:35.71	40.14	15.29	
2025-01-08 16:21:35.92	40.09	15.29	
2025-01-08 16:21:36.12	40.04	15.29	
2025-01-08 16:21:36.33	39.99	15.29	
2025-01-08 16:21:36.53	39.94	15.29	
2025-01-08 16:21:36.73	39.89	15.29	
2025-01-08 16:21:36.94	39.84	15.29	
2025-01-08 16:21:37.14	39.79	15.29	
2025-01-08 16:21:37.35	39.74	15.29	
2025-01-08 16:21:37.55	39.69	15.28	
2025-01-08 16:21:37.76	39.64	15.28	
2025-01-08 16:21:37.96	39.59	15.28	
2025-01-08 16:21:38.17	39.53	15.28	
2025-01-08 16:21:38.37	39.48	15.28	
2025-01-08 16:21:38.58	39.43	15.28	
2025-01-08 16:21:38.78	39.38	15.28	
2025-01-08 16:21:38.99	39.33	15.28	
2025-01-08 16:21:39.20	39.28	15.28	
2025-01-08 16:21:39.40	39.23	15.28	
2025-01-08 16:21:39.61	39.18	15.27	
2025-01-08 16:21:39.81	39.13	15.27	
2025-01-08 16:21:40.01	39.08	15.27	
2025-01-08 16:21:40.22	39.03	15.27	
2025-01-08 16:21:40.42	38.98	15.27	
2025-01-08 16:21:40.63	38.93	15.27	
2025-01-08 16:21:40.84	38.87	15.27	
2025-01-08 16:21:41.04	38.83	15.27	
2025-01-08 16:21:41.25	38.77	15.26	
2025-01-08 16:21:41.45	38.72	15.26	
2025-01-08 16:21:41.66	38.67	15.26	
2025-01-08 16:21:41.86	38.62	15.26	
2025-01-08 16:21:42.07	38.57	15.26	
2025-01-08 16:21:42.28	38.52	15.26	
2025-01-08 16:21:42.48	38.47	15.26	
2025-01-08 16:21:42.68	38.42	15.26	
2025-01-08 16:21:42.89	38.37	15.25	
2025-01-08 16:21:43.11	38.31	15.25	
2025-01-08 16:21:43.31	38.27	15.25	
2025-01-08 16:21:43.52	38.21	15.25	
2025-01-08 16:21:43.72	38.16	15.25	
2025-01-08 16:21:43.93	38.11	15.25	
2025-01-08 16:21:44.15	38.06	15.24	
2025-01-08 16:21:44.35	38.01	15.24	
2025-01-08 16:21:44.56	37.96	15.24	
2025-01-08 16:21:44.76	37.91	15.24	
2025-01-08 16:21:44.97	37.86	15.24	
2025-01-08 16:21:45.17	37.81	15.24	
2025-01-08 16:21:45.38	37.76	15.23	
2025-01-08 16:21:45.58	37.71	15.23	
2025-01-08 16:21:45.79	37.65	15.23	
2025-01-08 16:21:45.99	37.61	15.23	
2025-01-08 16:21:46.20	37.55	15.23	
2025-01-08 16:21:46.40	37.50	15.23	
2025-01-08 16:21:46.61	37.45	15.22	
2025-01-08 16:21:46.81	37.40	15.22	
2025-01-08 16:21:47.02	37.35	15.22	
2025-01-08 16:21:47.22	37.30	15.22	
2025-01-08 16:21:47.43	37.25	15.22	
2025-01-08 16:21:47.63	37.20	15.21	
2025-01-08 16:21:47.84	37.15	15.21	
2025-01-08 16:21:48.04	37.10	15.21	
2025-01-08 16:21:48.25	37.05	15.21	
2025-01-08 16:21:48.46	37.00	15.21	
2025-01-08 16:21:48.67	36.95	15.20	
2025-01-08 16:21:48.88	36.89	15.20	
2025-01-08 16:21:49.08	36.85	15.20	
2025-01-08 16:21:49.29	36.79	15.20	
2025-01-08 16:21:49.49	36.74	15.20	
2025-01-08 16:21:49.70	36.69	15.19	
2025-01-08 16:21:49.90	36.64	15.19	
2025-01-08 16:21:50.10	36.59	15.19	
2025-01-08 16:21:50.31	36.54	15.19	
2025-01-08 16:21:50.51	36.49	15.18	
2025-01-08 16:21:50.72	36.44	15.18	
2025-01-08 16:21:50.92	36.39	15.18	
2025-01-08 16:21:51.13	36.34	15.18	
2025-01-08 16:21:51.34	36.29	15.18	
2025-01-08 16:21:51.54	36.24	15.17	
2025-01-08 16:21:51.74	36.19	15.17	
2025-01-08 16:21:51.95	36.14	15.17	
2025-01-08 16:21:52.15	36.09	15.17	
2025-01-08 16:21:52.36	36.04	15.16	
2025-01-08 16:21:52.56	35.99	15.16	
2025-01-08 16:21:52.77	35.94	15.16	
2025-01-08 16:21:52.97	35.89	15.16	
2025-01-08 16:21:53.18	35.84	15.15	
2025-01-08 16:21:53.39	35.79	15.15	
2025-01-08 16:21:53.59	35.74	15.15	
2025-01-08 16:21:53.80	35.69	15.15	
2025-01-08 16:21:54.00	35.64	15.14	
2025-01-08 16:21:54.21	35.59	15.14	
2025-01-08 16:21:54.41	35.54	15.14	
2025-01-08 16:21:54.62	35.49	15.14	
2025-01-08 16:21:54.82	35.44	15.13	
2025-01-08 16:21:55.03	35.39	15.13	
2025-01-08 16:21:55.23	35.34	15.13	
2025-01-08 16:21:55.44	35.29	15.12	
2025-01-08 16:21:55.64	35.24	15.12	
2025-01-08 16:21:55.86	35.18	15.12	
2025-01-08 16:21:56.06	35.14	15.12	
2025-01-08 16:21:56.28	35.08	15.11	
2025-01-08 16:21:56.48	35.03	15.11	
2025-01-08 16:21:56.69	34.98	15.11	
2025-01-08 16:21:56.89	34.93	15.10	
2025-01-08 16:21:57.10	34.88	15.10	
2025-01-08 16:21:57.30	34.83	15.10	
2025-01-08 16:21:57.51	34.78	15.10	
2025-01-08 16:21:57.71	34.73	15.09	
2025-01-08 16:21:57.92	34.68	15.09	
2025-01-08 16:21:58.12	34.63	15.09	
2025-01-08 16:21:58.33	34.58	15.08	
2025-01-08 16:21:58.54	34.53	15.08	
2025-01-08 16:21:58.74	34.48	15.08	
2025-01-08 16:21:58.94	34.43	15.07	
2025-01-08 16:21:59.15	34.38	15.07	
2025-01-08 16:21:59.35	34.33	15.07	
2025-01-08 16:21:59.56	34.28	15.07	
2025-01-08 16:21:59.77	34.23	15.06	
2025-01-08 16:21:59.97	34.18	15.06	
2025-01-08 16:22:00.18	34.13	15.06	
2025-01-08 16:22:00.38	34.08	15.05	
2025-01-08 16:22:00.59	34.03	15.05	
2025-01-08 16:22:00.79	33.98	15.05	
2025-01-08 16:22:01.00	33.93	15.04	
2025-01-08 16:22:01.20	33.88	15.04	
2025-01-08 16:22:01.41	33.83	15.04	
2025-01-08 16:22:01.62	33.78	15.03	
2025-01-08 16:22:01.82	33.73	15.03	
2025-01-08 16:22:02.03	33.68	15.03	
2025-01-08 16:22:02.24	33.63	15.02	
2025-01-08 16:22:02.44	33.58	15.02	
2025-01-08 16:22:02.65	33.53	15.02	
2025-01-08 16:22:02.85	33.48	15.01	
2025-01-08 16:22:03.06	33.43	15.01	
2025-01-08 16:22:03.26	33.39	15.01	
2025-01-08 16:22:03.46	33.34	15.00	
2025-01-08 16:22:03.67	33.29	15.00	
2025-01-08 16:22:03.87	33.24	14.99	
2025-01-08 16:22:04.08	33.19	14.99	
2025-01-08 16:22:04.29	33.14	14.99	
2025-01-08 16:22:04.49	33.09	14.98	
2025-01-08 16:22:04.70	33.04	14.98	
2025-01-08 16:22:04.90	32.99	14.98	
2025-01-08 16:22:05.11	32.94	14.97	
2025-01-08 16:22:05.31	32.89	14.97	
2025-01-08 16:22:05.53	32.84	14.97	
2025-01-08 16:22:05.74	32.79	14.96	
2025-01-08 16:22:05.94	32.74	14.96	
2025-01-08 16:22:06.15	32.69	14.95	
2025-01-08 16:22:06.35	32.64	14.95	
2025-01-08 16:22:06.55	32.59	14.95	
2025-01-08 16:22:06.76	32.54	14.94	
2025-01-08 16:22:06.97	32.49	14.94	
2025-01-08 16:22:07.17	32.44	14.93	
2025-01-08 16:22:07.38	32.39	14.93	
2025-01-08 16:22:07.58	32.34	14.93	
2025-01-08 16:22:07.79	32.29	14.92	
2025-01-08 16:22:07.99	32.24	14.92	
2025-01-08 16:22:08.20	32.19	14.91	
2025-01-08 16:22:08.40	32.14	14.91	
2025-01-08 16:22:08.61	32.09	14.91	
2025-01-08 16:22:08.81	32.05	14.90	
2025-01-08 16:22:09.02	32.00	14.90	
2025-01-08 16:22:09.22	31.95	14.89	
2025-01-08 16:22:09.43	31.90	14.89	
2025-01-08 16:22:09.63	31.85	14.89	
2025-01-08 16:22:09.84	31.80	14.88	
2025-01-08 16:22:10.04	31.75	14.88	
2025-01-08 16:22:10.25	31.70	14.87	
2025-01-08 16:22:10.45	31.65	14.87	
2025-01-08 16:22:10.66	31.60	14.87	
2025-01-08 16:22:10.86	31.55	14.86	
2025-01-08 16:22:11.07	31.50	14.86	
2025-01-08 16:22:11.27	31.46	14.85	
2025-01-08 16:22:11.48	31.41	14.85	
2025-01-08 16:22:11.68	31.36	14.84	
2025-01-08 16:22:11.88	31.31	14.84	
2025-01-08 16:22:12.09	31.26	14.84	
2025-01-08 16:22:12.30	31.21	14.83	
2025-01-08 16:22:12.50	31.16	14.83	
2025-01-08 16:22:12.71	31.11	14.82	
2025-01-08 16:22:12.91	31.06	14.82	
2025-01-08 16:22:13.11	31.02	14.81	
2025-01-08 16:22:13.32	30.97	14.81	
2025-01-08 16:22:13.52	30.92	14.80	
2025-01-08 16:22:13.73	30.87	14.80	
2025-01-08 16:22:13.93	30.82	14.80	
2025-01-08 16:22:14.14	30.77	14.79	
2025-01-08 16:22:14.34	30.72	14.79	
2025-01-08 16:22:14.55	30.67	14.78	
2025-01-08 16:22:14.76	30.62	14.78	
2025-01-08 16:22:14.96	30.58	14.77	
2025-01-08 16:22:15.17	30.53	14.77	
2025-01-08 16:22:15.37	30.48	14.76	
2025-01-08 16:22:15.58	30.43	14.76	
2025-01-08 16:22:15.78	30.38	14.75	
2025-01-08 16:22:15.99	30.33	14.75	
2025-01-08 16:22:16.19	30.28	14.74	
2025-01-08 16:22:16.40	30.23	14.74	
2025-01-08 16:22:16.60	30.19	14.74	
2025-01-08 16:22:16.80	30.14	14.73	
2025-01-08 16:22:17.01	30.09	14.73	
2025-01-08 16:22:17.21	30.04	14.72	
2025-01-08 16:22:17.42	29.99	14.72	
2025-01-08 16:22:17.63	29.94	14.71	
2025-01-08 16:22:17.83	29.89	14.71	
2025-01-08 16:22:18.04	29.84	14.70	
2025-01-08 16:22:18.24	29.80	14.70	
2025-01-08 16:22:18.45	29.75	14.69	
2025-01-08 16:22:18.65	29.70	14.69	
2025-01-08 16:22:18.86	29.65	14.68	
2025-01-08 16:22:19.07	29.60	14.68	
2025-01-08 16:22:19.27	29.55	14.67	
2025-01-08 16:22:19.48	29.50	14.67	
2025-01-08 16:22:19.68	29.46	14.66	
2025-01-08 16:22:19.89	29.41	14.66	
2025-01-08 16:22:20.09	29.36	14.65	
2025-01-08 16:22:20.30	29.31	14.65	
2025-01-08 16:22:20.50	29.26	14.64	
2025-01-08 16:22:20.71	29.21	14.64	
2025-01-08 16:22:20.91	29.17	14.63	
2025-01-08 16:22:21.12	29.12	14.63	
2025-01-08 16:22:21.32	29.07	14.62	
2025-01-08 16:22:21.53	29.02	14.62	
2025-01-08 16:22:21.73	28.97	14.61	
2025-01-08 16:22:21.94	28.92	14.60	
2025-01-08 16:22:22.14	28.88	14.60	
2025-01-08 16:22:22.35	28.83	14.59	
2025-01-08 16:22:22.55	28.78	14.59	
2025-01-08 16:22:22.76	28.73	14.58	
2025-01-08 16:22:22.96	28.68	14.58	
2025-01-08 16:22:23.17	28.63	14.57	
2025-01-08 16:22:23.37	28.59	14.57	
2025-01-08 16:22:23.57	28.54	14.56	
2025-01-08 16:22:23.78	28.49	14.56	
2025-01-08 16:22:23.99	28.44	14.55	
2025-01-08 16:22:24.19	28.40	14.55	
2025-01-08 16:22:24.40	28.35	14.54	
2025-01-08 16:22:24.60	28.30	14.54	
2025-01-08 16:22:24.81	28.25	14.53	
2025-01-08 16:22:25.02	28.20	14.52	
2025-01-08 16:22:25.22	28.15	14.52	
2025-01-08 16:22:25.43	28.11	14.51	
2025-01-08 16:22:25.63	28.06	14.51	
2025-01-08 16:22:25.84	28.01	14.50	
2025-01-08 16:22:26.04	27.96	14.50	
2025-01-08 16:22:26.25	27.91	14.49	
2025-01-08 16:22:26.45	27.87	14.49	
2025-01-08 16:22:26.66	27.82	14.48	
2025-01-08 16:22:26.88	27.77	14.47	
2025-01-08 16:22:27.08	27.72	14.47	
2025-01-08 16:22:27.28	27.67	14.46	
2025-01-08 16:22:27.49	27.63	14.46	
2025-01-08 16:22:27.69	27.58	14.45	
2025-01-08 16:22:27.91	27.53	14.44	
2025-01-08 16:22:28.12	27.48	14.44	
2025-01-08 16:22:28.32	27.43	14.43	
2025-01-08 16:22:28.53	27.38	14.43	
2025-01-08 16:22:28.73	27.34	14.42	
2025-01-08 16:22:28.94	27.29	14.42	
2025-01-08 16:22:29.14	27.24	14.41	
2025-01-08 16:22:29.35	27.19	14.40	
2025-01-08 16:22:29.55	27.15	14.40	
2025-01-08 16:22:29.76	27.10	14.39	
2025-01-08 16:22:29.96	27.05	14.39	
2025-01-08 16:22:30.17	27.00	14.38	
2025-01-08 16:22:30.37	26.96	14.37	
2025-01-08 16:22:30.58	26.91	14.37	
2025-01-08 16:22:30.78	26.86	14.36	
2025-01-08 16:22:30.99	26.81	14.36	
2025-01-08 16:22:31.19	26.77	14.35	
2025-01-08 16:22:31.40	26.72	14.34	
2025-01-08 16:22:31.61	26.67	14.34	
2025-01-08 16:22:31.81	26.63	14.33	
2025-01-08 16:22:32.02	26.58	14.33	
2025-01-08 16:22:32.22	26.53	14.32	
2025-01-08 16:22:32.42	26.48	14.31	
2025-01-08 16:22:32.63	26.44	14.31	
2025-01-08 16:22:32.84	26.39	14.30	
2025-01-08 16:22:33.04	26.34	14.30	
2025-01-08 16:22:33.25	26.29	14.29	
2025-01-08 16:22:33.45	26.25	14.28	
2025-01-08 16:22:33.66	26.20	14.28	
2025-01-08 16:22:33.86	26.15	14.27	
2025-01-08 16:22:34.07	26.11	14.26	
2025-01-08 16:22:34.27	26.06	14.26	
2025-01-08 16:22:34.48	26.01	14.25	
2025-01-08 16:22:34.68	25.97	14.25	
2025-01-08 16:22:34.89	25.92	14.24	
2025-01-08 16:22:35.09	25.87	14.23	
2025-01-08 16:22:35.30	25.82	14.23	
2025-01-08 16:22:35.50	25.78	14.22	
2025-01-08 16:22:35.71	25.73	14.21	
2025-01-08 16:22:35.91	25.68	14.21	
2025-01-08 16:22:36.12	25.64	14.20	
2025-01-08 16:22:36.32	25.59	14.19	
2025-01-08 16:22:36.53	25.54	14.19	
2025-01-08 16:22:36.73	25.50	14.18	
2025-01-08 16:22:36.94	25.45	14.17	
2025-01-08 16:22:37.14	25.40	14.17	
2025-01-08 16:22:37.35	25.36	14.16	
2025-01-08 16:22:37.55	25.31	14.16	
2025-01-08 16:22:37.76	25.26	14.15	
2025-01-08 16:22:37.96	25.22	14.14	
2025-01-08 16:22:38.17	25.17	14.14	
2025-01-08 16:22:38.38	25.12	14.13	
2025-01-08 16:22:38.59	25.07	14.12	
2025-01-08 16:22:38.80	25.03	14.12	
2025-01-08 16:22:39.00	24.98	14.11	
2025-01-08 16:22:39.21	24.93	14.10	
2025-01-08 16:22:39.41	24.89	14.10	
2025-01-08 16:22:39.62	24.84	14.09	
2025-01-08 16:22:39.82	24.80	14.08	
2025-01-08 16:22:40.03	24.75	14.07	
2025-01-08 16:22:40.23	24.70	14.07	
2025-01-08 16:22:40.44	24.66	14.06	
2025-01-08 16:22:40.64	24.61	14.05	
2025-01-08 16:22:40.85	24.56	14.05	
2025-01-08 16:22:41.05	24.52	14.04	
2025-01-08 16:22:41.26	24.47	14.03	
2025-01-08 16:22:41.46	24.43	14.03	
2025-01-08 16:22:41.67	24.38	14.02	
2025-01-08 16:22:41.87	24.33	14.01	
2025-01-08 16:22:42.08	24.29	14.01	
2025-01-08 16:22:42.29	24.24	14.00	
2025-01-08 16:22:42.49	24.19	13.99	
2025-01-08 16:22:42.70	24.15	13.99	
2025-01-08 16:22:42.90	24.10	13.98	
2025-01-08 16:22:43.10	24.06	13.97	
2025-01-08 16:22:43.31	24.01	13.97	
2025-01-08 16:22:43.51	23.96	13.96	
2025-01-08 16:22:43.72	23.92	13.95	
2025-01-08 16:22:43.92	23.87	13.94	
2025-01-08 16:22:44.13	23.83	13.94	
2025-01-08 16:22:44.33	23.78	13.93	
2025-01-08 16:22:44.54	23.73	13.92	
2025-01-08 16:22:44.74	23.69	13.92	
