passes_logs/2025/01/08/SPB_Silybum_02/SPB_Silybum_02__20250108_115120_AQUA_rec.log

#Pass ID: 20250108_115120_AQUA
#Satellite: AQUA
#Configuration: AQUA
#Start time: 2025-01-08 11:51:21

#Version: 2.0.20230423
#Station: SPB_Silybum_02
#Location: 30.233357 lon 59.946436 lat
#TLE: 1 27424U 02022A   25007.87424311  .00002334  00000+0  48938-3 0  9995
#TLE: 2 27424  98.3576 324.4746 0001447 118.7932 262.7333 14.60655264206582

#Time	Az	El	Level	Level2	SNR	BER	Gain	Gain2
2025-01-08 11:51:23.08	175.47	4.15	
2025-01-08 11:51:23.29	175.47	4.17	
2025-01-08 11:51:23.50	175.48	4.18	
2025-01-08 11:51:23.70	175.49	4.19	
2025-01-08 11:51:23.91	175.49	4.21	
2025-01-08 11:51:24.11	175.50	4.22	
2025-01-08 11:51:24.32	175.51	4.24	
2025-01-08 11:51:24.53	175.51	4.25	
2025-01-08 11:51:24.73	175.52	4.27	
2025-01-08 11:51:24.94	175.52	4.28	
2025-01-08 11:51:25.14	175.53	4.30	
2025-01-08 11:51:25.35	175.54	4.31	
2025-01-08 11:51:25.55	175.54	4.33	
2025-01-08 11:51:25.76	175.55	4.34	
2025-01-08 11:51:25.96	175.56	4.36	
2025-01-08 11:51:26.18	175.56	4.37	
2025-01-08 11:51:26.39	175.57	4.39	
2025-01-08 11:51:26.59	175.58	4.40	
2025-01-08 11:51:26.80	175.58	4.42	
2025-01-08 11:51:27.00	175.59	4.43	
2025-01-08 11:51:27.21	175.60	4.45	
2025-01-08 11:51:27.41	175.60	4.46	
2025-01-08 11:51:27.62	175.61	4.48	
2025-01-08 11:51:27.82	175.62	4.49	
2025-01-08 11:51:28.03	175.62	4.51	
2025-01-08 11:51:28.23	175.63	4.52	
2025-01-08 11:51:28.44	175.63	4.54	
2025-01-08 11:51:28.64	175.64	4.55	
2025-01-08 11:51:28.85	175.65	4.57	
2025-01-08 11:51:29.05	175.65	4.58	
2025-01-08 11:51:29.26	175.66	4.60	
2025-01-08 11:51:29.46	175.67	4.61	
2025-01-08 11:51:29.67	175.67	4.62	
2025-01-08 11:51:29.88	175.68	4.64	
2025-01-08 11:51:30.08	175.69	4.65	
2025-01-08 11:51:30.29	175.69	4.67	
2025-01-08 11:51:30.49	175.70	4.68	
2025-01-08 11:51:30.70	175.71	4.70	
2025-01-08 11:51:30.90	175.71	4.71	
2025-01-08 11:51:31.11	175.72	4.73	
2025-01-08 11:51:31.31	175.73	4.74	
2025-01-08 11:51:31.52	175.73	4.76	
2025-01-08 11:51:31.72	175.74	4.77	
2025-01-08 11:51:31.93	175.75	4.79	
2025-01-08 11:51:32.14	175.75	4.81	
2025-01-08 11:51:32.34	175.76	4.82	
2025-01-08 11:51:32.55	175.77	4.84	
2025-01-08 11:51:32.75	175.77	4.85	
2025-01-08 11:51:32.96	175.78	4.87	
2025-01-08 11:51:33.16	175.79	4.88	
2025-01-08 11:51:33.37	175.79	4.90	
2025-01-08 11:51:33.57	175.80	4.91	
2025-01-08 11:51:33.78	175.81	4.93	
2025-01-08 11:51:33.98	175.81	4.94	
2025-01-08 11:51:34.19	175.82	4.96	
2025-01-08 11:51:34.40	175.83	4.97	
2025-01-08 11:51:34.60	175.83	4.99	
2025-01-08 11:51:34.82	175.84	5.00	
2025-01-08 11:51:35.02	175.85	5.02	
2025-01-08 11:51:35.23	175.85	5.03	
2025-01-08 11:51:35.43	175.86	5.05	
2025-01-08 11:51:35.64	175.87	5.06	
2025-01-08 11:51:35.84	175.87	5.08	
2025-01-08 11:51:36.05	175.88	5.09	
2025-01-08 11:51:36.25	175.89	5.11	
2025-01-08 11:51:36.46	175.89	5.12	
2025-01-08 11:51:36.67	175.90	5.14	
2025-01-08 11:51:36.87	175.91	5.15	
2025-01-08 11:51:37.07	175.91	5.17	
2025-01-08 11:51:37.28	175.92	5.18	
2025-01-08 11:51:37.49	175.93	5.20	
2025-01-08 11:51:37.69	175.94	5.21	
2025-01-08 11:51:37.89	175.94	5.23	
2025-01-08 11:51:38.10	175.95	5.25	
2025-01-08 11:51:38.30	175.96	5.26	
2025-01-08 11:51:38.51	175.96	5.28	
2025-01-08 11:51:38.71	175.97	5.29	
2025-01-08 11:51:38.92	175.98	5.31	
2025-01-08 11:51:39.12	175.98	5.32	
2025-01-08 11:51:39.33	175.99	5.34	
2025-01-08 11:51:39.53	176.00	5.35	
2025-01-08 11:51:39.74	176.00	5.37	
2025-01-08 11:51:39.94	176.01	5.38	
2025-01-08 11:51:40.15	176.02	5.40	
2025-01-08 11:51:40.35	176.02	5.41	
2025-01-08 11:51:40.56	176.03	5.43	
2025-01-08 11:51:40.76	176.04	5.44	
2025-01-08 11:51:40.97	176.05	5.46	
2025-01-08 11:51:41.17	176.05	5.48	
2025-01-08 11:51:41.38	176.06	5.49	
2025-01-08 11:51:41.58	176.07	5.51	
2025-01-08 11:51:41.79	176.07	5.52	
2025-01-08 11:51:42.00	176.08	5.54	
2025-01-08 11:51:42.21	176.09	5.55	
2025-01-08 11:51:42.42	176.09	5.57	
2025-01-08 11:51:42.62	176.10	5.58	
2025-01-08 11:51:42.83	176.11	5.60	
2025-01-08 11:51:43.03	176.12	5.62	
2025-01-08 11:51:43.24	176.12	5.63	
2025-01-08 11:51:43.44	176.13	5.65	
2025-01-08 11:51:43.65	176.14	5.66	
2025-01-08 11:51:43.85	176.14	5.68	
2025-01-08 11:51:44.06	176.15	5.69	
2025-01-08 11:51:44.26	176.16	5.71	
2025-01-08 11:51:44.47	176.16	5.73	
2025-01-08 11:51:44.67	176.17	5.74	
2025-01-08 11:51:44.87	176.18	5.76	
2025-01-08 11:51:45.08	176.19	5.77	
2025-01-08 11:51:45.28	176.19	5.79	
2025-01-08 11:51:45.49	176.20	5.80	
2025-01-08 11:51:45.69	176.21	5.82	
2025-01-08 11:51:45.90	176.21	5.83	
2025-01-08 11:51:46.10	176.22	5.85	
2025-01-08 11:51:46.31	176.23	5.87	
2025-01-08 11:51:46.51	176.23	5.88	
2025-01-08 11:51:46.72	176.24	5.90	
2025-01-08 11:51:46.92	176.25	5.91	
2025-01-08 11:51:47.13	176.26	5.93	
2025-01-08 11:51:47.33	176.26	5.94	
2025-01-08 11:51:47.54	176.27	5.96	
2025-01-08 11:51:47.75	176.28	5.98	
2025-01-08 11:51:47.95	176.29	5.99	
2025-01-08 11:51:48.16	176.29	6.01	
2025-01-08 11:51:48.36	176.30	6.02	
2025-01-08 11:51:48.57	176.31	6.04	
2025-01-08 11:51:48.77	176.31	6.05	
2025-01-08 11:51:48.98	176.32	6.07	
2025-01-08 11:51:49.18	176.33	6.09	
2025-01-08 11:51:49.39	176.34	6.10	
2025-01-08 11:51:49.59	176.34	6.12	
2025-01-08 11:51:49.80	176.35	6.13	
2025-01-08 11:51:50.00	176.36	6.15	
2025-01-08 11:51:50.21	176.36	6.17	
2025-01-08 11:51:50.42	176.37	6.18	
2025-01-08 11:51:50.62	176.38	6.20	
2025-01-08 11:51:50.82	176.39	6.21	
2025-01-08 11:51:51.03	176.39	6.23	
2025-01-08 11:51:51.23	176.40	6.24	
2025-01-08 11:51:51.44	176.41	6.26	
2025-01-08 11:51:51.65	176.42	6.28	
2025-01-08 11:51:51.85	176.42	6.29	
2025-01-08 11:51:52.06	176.43	6.31	
2025-01-08 11:51:52.26	176.44	6.32	
2025-01-08 11:51:52.47	176.45	6.34	
2025-01-08 11:51:52.67	176.45	6.36	
2025-01-08 11:51:52.88	176.46	6.37	
2025-01-08 11:51:53.09	176.47	6.39	
2025-01-08 11:51:53.29	176.47	6.41	
2025-01-08 11:51:53.50	176.48	6.42	
2025-01-08 11:51:53.71	176.49	6.44	
2025-01-08 11:51:53.91	176.50	6.45	
2025-01-08 11:51:54.11	176.50	6.47	
2025-01-08 11:51:54.32	176.51	6.49	
2025-01-08 11:51:54.53	176.52	6.50	
2025-01-08 11:51:54.73	176.53	6.52	
2025-01-08 11:51:54.93	176.53	6.53	
2025-01-08 11:51:55.14	176.54	6.55	
2025-01-08 11:51:55.34	176.55	6.57	
2025-01-08 11:51:55.55	176.56	6.58	
2025-01-08 11:51:55.75	176.56	6.60	
2025-01-08 11:51:55.96	176.57	6.62	
2025-01-08 11:51:56.16	176.58	6.63	
2025-01-08 11:51:56.37	176.59	6.65	
2025-01-08 11:51:56.58	176.59	6.66	
2025-01-08 11:51:56.78	176.60	6.68	
2025-01-08 11:51:56.99	176.61	6.70	
2025-01-08 11:51:57.19	176.62	6.71	
2025-01-08 11:51:57.40	176.62	6.73	
2025-01-08 11:51:57.61	176.63	6.75	
2025-01-08 11:51:57.81	176.64	6.76	
2025-01-08 11:51:58.02	176.65	6.78	
2025-01-08 11:51:58.22	176.65	6.79	
2025-01-08 11:51:58.43	176.66	6.81	
2025-01-08 11:51:58.63	176.67	6.83	
2025-01-08 11:51:58.84	176.68	6.84	
2025-01-08 11:51:59.04	176.69	6.86	
2025-01-08 11:51:59.26	176.69	6.88	
2025-01-08 11:51:59.47	176.70	6.89	
2025-01-08 11:51:59.68	176.71	6.91	
2025-01-08 11:51:59.88	176.72	6.93	
2025-01-08 11:52:00.08	176.72	6.94	
2025-01-08 11:52:00.29	176.73	6.96	
2025-01-08 11:52:00.49	176.74	6.98	
2025-01-08 11:52:00.70	176.75	6.99	
2025-01-08 11:52:00.90	176.75	7.01	
2025-01-08 11:52:01.11	176.76	7.02	
2025-01-08 11:52:01.32	176.77	7.04	
2025-01-08 11:52:01.52	176.78	7.06	
2025-01-08 11:52:01.73	176.79	7.07	
2025-01-08 11:52:01.93	176.79	7.09	
2025-01-08 11:52:02.14	176.80	7.11	
2025-01-08 11:52:02.35	176.81	7.12	
2025-01-08 11:52:02.55	176.82	7.14	
2025-01-08 11:52:02.76	176.82	7.16	
2025-01-08 11:52:02.96	176.83	7.17	
2025-01-08 11:52:03.17	176.84	7.19	
2025-01-08 11:52:03.37	176.85	7.21	
2025-01-08 11:52:03.59	176.86	7.22	
2025-01-08 11:52:03.80	176.86	7.24	
2025-01-08 11:52:04.00	176.87	7.26	
2025-01-08 11:52:04.21	176.88	7.28	
2025-01-08 11:52:04.42	176.89	7.29	
2025-01-08 11:52:04.62	176.90	7.31	
2025-01-08 11:52:04.83	176.90	7.33	
2025-01-08 11:52:05.03	176.91	7.34	
2025-01-08 11:52:05.24	176.92	7.36	
2025-01-08 11:52:05.45	176.93	7.38	
2025-01-08 11:52:05.65	176.94	7.39	
2025-01-08 11:52:05.86	176.94	7.41	
2025-01-08 11:52:06.06	176.95	7.43	
2025-01-08 11:52:06.27	176.96	7.44	
2025-01-08 11:52:06.48	176.97	7.46	
2025-01-08 11:52:06.69	176.98	7.48	
2025-01-08 11:52:06.89	176.98	7.49	
2025-01-08 11:52:07.10	176.99	7.51	
2025-01-08 11:52:07.30	177.00	7.53	
2025-01-08 11:52:07.51	177.01	7.54	
2025-01-08 11:52:07.71	177.02	7.56	
2025-01-08 11:52:07.92	177.02	7.58	
2025-01-08 11:52:08.13	177.03	7.60	
2025-01-08 11:52:08.33	177.04	7.61	
2025-01-08 11:52:08.54	177.05	7.63	
2025-01-08 11:52:08.74	177.06	7.65	
2025-01-08 11:52:08.95	177.06	7.66	
2025-01-08 11:52:09.15	177.07	7.68	
2025-01-08 11:52:09.36	177.08	7.70	
2025-01-08 11:52:09.56	177.09	7.71	
2025-01-08 11:52:09.77	177.10	7.73	
2025-01-08 11:52:09.97	177.10	7.75	
2025-01-08 11:52:10.18	177.11	7.76	
2025-01-08 11:52:10.38	177.12	7.78	
2025-01-08 11:52:10.59	177.13	7.80	
2025-01-08 11:52:10.80	177.14	7.82	
2025-01-08 11:52:11.00	177.14	7.83	
2025-01-08 11:52:11.20	177.15	7.85	
2025-01-08 11:52:11.41	177.16	7.87	
2025-01-08 11:52:11.61	177.17	7.88	
2025-01-08 11:52:11.82	177.18	7.90	
2025-01-08 11:52:12.02	177.19	7.92	
2025-01-08 11:52:12.23	177.19	7.93	
2025-01-08 11:52:12.43	177.20	7.95	
2025-01-08 11:52:12.64	177.21	7.97	
2025-01-08 11:52:12.85	177.22	7.99	
2025-01-08 11:52:13.05	177.23	8.00	
2025-01-08 11:52:13.26	177.24	8.02	
2025-01-08 11:52:13.46	177.24	8.04	
2025-01-08 11:52:13.67	177.25	8.06	
2025-01-08 11:52:13.87	177.26	8.07	
2025-01-08 11:52:14.08	177.27	8.09	
2025-01-08 11:52:14.28	177.28	8.11	
2025-01-08 11:52:14.49	177.28	8.12	
2025-01-08 11:52:14.69	177.29	8.14	
2025-01-08 11:52:14.90	177.30	8.16	
2025-01-08 11:52:15.10	177.31	8.18	
2025-01-08 11:52:15.31	177.32	8.19	
2025-01-08 11:52:15.51	177.33	8.21	
2025-01-08 11:52:15.72	177.33	8.23	
2025-01-08 11:52:15.92	177.34	8.24	
2025-01-08 11:52:16.13	177.35	8.26	
2025-01-08 11:52:16.33	177.36	8.28	
2025-01-08 11:52:16.54	177.37	8.30	
2025-01-08 11:52:16.74	177.38	8.31	
2025-01-08 11:52:16.95	177.39	8.33	
2025-01-08 11:52:17.15	177.39	8.35	
2025-01-08 11:52:17.36	177.40	8.37	
2025-01-08 11:52:17.56	177.41	8.38	
2025-01-08 11:52:17.77	177.42	8.40	
2025-01-08 11:52:17.98	177.43	8.42	
2025-01-08 11:52:18.18	177.44	8.44	
2025-01-08 11:52:18.39	177.44	8.45	
2025-01-08 11:52:18.59	177.45	8.47	
2025-01-08 11:52:18.79	177.46	8.49	
2025-01-08 11:52:19.00	177.47	8.51	
2025-01-08 11:52:19.20	177.48	8.52	
2025-01-08 11:52:19.41	177.49	8.54	
2025-01-08 11:52:19.61	177.50	8.56	
2025-01-08 11:52:19.82	177.50	8.58	
2025-01-08 11:52:20.03	177.51	8.59	
2025-01-08 11:52:20.23	177.52	8.61	
2025-01-08 11:52:20.44	177.53	8.63	
2025-01-08 11:52:20.64	177.54	8.65	
2025-01-08 11:52:20.85	177.55	8.67	
2025-01-08 11:52:21.05	177.56	8.68	
2025-01-08 11:52:21.26	177.56	8.70	
2025-01-08 11:52:21.46	177.57	8.72	
2025-01-08 11:52:21.67	177.58	8.74	
2025-01-08 11:52:21.87	177.59	8.75	
2025-01-08 11:52:22.08	177.60	8.77	
2025-01-08 11:52:22.28	177.61	8.79	
2025-01-08 11:52:22.49	177.62	8.81	
2025-01-08 11:52:22.69	177.62	8.82	
2025-01-08 11:52:22.90	177.63	8.84	
2025-01-08 11:52:23.10	177.64	8.86	
2025-01-08 11:52:23.31	177.65	8.88	
2025-01-08 11:52:23.51	177.66	8.90	
2025-01-08 11:52:23.72	177.67	8.91	
2025-01-08 11:52:23.92	177.68	8.93	
2025-01-08 11:52:24.13	177.69	8.95	
2025-01-08 11:52:24.33	177.70	8.97	
2025-01-08 11:52:24.54	177.70	8.98	
2025-01-08 11:52:24.75	177.71	9.00	
2025-01-08 11:52:24.97	177.72	9.02	
2025-01-08 11:52:25.17	177.73	9.04	
2025-01-08 11:52:25.38	177.74	9.06	
2025-01-08 11:52:25.58	177.75	9.08	
2025-01-08 11:52:25.79	177.76	9.09	
2025-01-08 11:52:25.99	177.77	9.11	
2025-01-08 11:52:26.20	177.78	9.13	
2025-01-08 11:52:26.40	177.78	9.15	
2025-01-08 11:52:26.61	177.79	9.17	
2025-01-08 11:52:26.82	177.80	9.18	
2025-01-08 11:52:27.02	177.81	9.20	
2025-01-08 11:52:27.23	177.82	9.22	
2025-01-08 11:52:27.43	177.83	9.24	
2025-01-08 11:52:27.64	177.84	9.26	
2025-01-08 11:52:27.85	177.85	9.28	
2025-01-08 11:52:28.05	177.86	9.29	
2025-01-08 11:52:28.25	177.87	9.31	
2025-01-08 11:52:28.46	177.87	9.33	
2025-01-08 11:52:28.67	177.88	9.35	
2025-01-08 11:52:28.87	177.89	9.37	
2025-01-08 11:52:29.08	177.90	9.38	
2025-01-08 11:52:29.28	177.91	9.40	
2025-01-08 11:52:29.49	177.92	9.42	
2025-01-08 11:52:29.69	177.93	9.44	
2025-01-08 11:52:29.90	177.94	9.46	
2025-01-08 11:52:30.10	177.95	9.48	
2025-01-08 11:52:30.31	177.96	9.49	
2025-01-08 11:52:30.51	177.97	9.51	
2025-01-08 11:52:30.72	177.97	9.53	
2025-01-08 11:52:30.92	177.98	9.55	
2025-01-08 11:52:31.13	177.99	9.57	
2025-01-08 11:52:31.33	178.00	9.59	
2025-01-08 11:52:31.54	178.01	9.60	
2025-01-08 11:52:31.74	178.02	9.62	
2025-01-08 11:52:31.95	178.03	9.64	
2025-01-08 11:52:32.15	178.04	9.66	
2025-01-08 11:52:32.36	178.05	9.68	
2025-01-08 11:52:32.56	178.06	9.70	
2025-01-08 11:52:32.77	178.07	9.71	
2025-01-08 11:52:32.97	178.08	9.73	
2025-01-08 11:52:33.18	178.09	9.75	
2025-01-08 11:52:33.38	178.09	9.77	
2025-01-08 11:52:33.59	178.10	9.79	
2025-01-08 11:52:33.80	178.11	9.81	
2025-01-08 11:52:34.00	178.12	9.83	
2025-01-08 11:52:34.21	178.13	9.84	
2025-01-08 11:52:34.41	178.14	9.86	
2025-01-08 11:52:34.62	178.15	9.88	
2025-01-08 11:52:34.82	178.16	9.90	
2025-01-08 11:52:35.03	178.17	9.92	
2025-01-08 11:52:35.23	178.18	9.94	
2025-01-08 11:52:35.44	178.19	9.96	
2025-01-08 11:52:35.66	178.20	9.98	
2025-01-08 11:52:35.86	178.21	9.99	
2025-01-08 11:52:36.07	178.22	10.01	
2025-01-08 11:52:36.27	178.23	10.03	
2025-01-08 11:52:36.48	178.24	10.05	
2025-01-08 11:52:36.68	178.25	10.07	
2025-01-08 11:52:36.89	178.26	10.09	
2025-01-08 11:52:37.09	178.26	10.11	
2025-01-08 11:52:37.30	178.27	10.13	
2025-01-08 11:52:37.51	178.28	10.15	
2025-01-08 11:52:37.71	178.29	10.16	
2025-01-08 11:52:37.92	178.30	10.18	
2025-01-08 11:52:38.12	178.31	10.20	
2025-01-08 11:52:38.33	178.32	10.22	
2025-01-08 11:52:38.53	178.33	10.24	
2025-01-08 11:52:38.73	178.34	10.26	
2025-01-08 11:52:38.94	178.35	10.28	
2025-01-08 11:52:39.14	178.36	10.30	
2025-01-08 11:52:39.35	178.37	10.31	
2025-01-08 11:52:39.56	178.38	10.33	
2025-01-08 11:52:39.76	178.39	10.35	
2025-01-08 11:52:39.97	178.40	10.37	
2025-01-08 11:52:40.17	178.41	10.39	
2025-01-08 11:52:40.38	178.42	10.41	
2025-01-08 11:52:40.58	178.43	10.43	
2025-01-08 11:52:40.79	178.44	10.45	
2025-01-08 11:52:40.99	178.45	10.47	
2025-01-08 11:52:41.20	178.46	10.49	
2025-01-08 11:52:41.41	178.47	10.51	
2025-01-08 11:52:41.61	178.48	10.52	
2025-01-08 11:52:41.82	178.49	10.54	
2025-01-08 11:52:42.02	178.50	10.56	
2025-01-08 11:52:42.22	178.51	10.58	
2025-01-08 11:52:42.44	178.52	10.60	
2025-01-08 11:52:42.65	178.53	10.62	
2025-01-08 11:52:42.85	178.54	10.64	
2025-01-08 11:52:43.07	178.55	10.66	
2025-01-08 11:52:43.28	178.56	10.68	
2025-01-08 11:52:43.48	178.57	10.70	
2025-01-08 11:52:43.69	178.58	10.72	
2025-01-08 11:52:43.89	178.59	10.74	
2025-01-08 11:52:44.10	178.60	10.76	
2025-01-08 11:52:44.30	178.61	10.78	
2025-01-08 11:52:44.51	178.62	10.80	
2025-01-08 11:52:44.71	178.63	10.82	
2025-01-08 11:52:44.92	178.64	10.84	
2025-01-08 11:52:45.13	178.65	10.86	
2025-01-08 11:52:45.33	178.66	10.87	
2025-01-08 11:52:45.53	178.67	10.89	
2025-01-08 11:52:45.74	178.68	10.91	
2025-01-08 11:52:45.94	178.69	10.93	
2025-01-08 11:52:46.15	178.70	10.95	
2025-01-08 11:52:46.37	178.71	10.97	
2025-01-08 11:52:46.58	178.72	10.99	
2025-01-08 11:52:46.78	178.73	11.01	
2025-01-08 11:52:46.99	178.74	11.03	
2025-01-08 11:52:47.19	178.75	11.05	
2025-01-08 11:52:47.40	178.76	11.07	
2025-01-08 11:52:47.60	178.77	11.09	
2025-01-08 11:52:47.81	178.78	11.11	
2025-01-08 11:52:48.01	178.79	11.13	
2025-01-08 11:52:48.22	178.80	11.15	
2025-01-08 11:52:48.42	178.81	11.17	
2025-01-08 11:52:48.63	178.82	11.19	
2025-01-08 11:52:48.83	178.83	11.21	
2025-01-08 11:52:49.04	178.84	11.23	
2025-01-08 11:52:49.24	178.85	11.25	
2025-01-08 11:52:49.45	178.86	11.27	
2025-01-08 11:52:49.65	178.87	11.29	
2025-01-08 11:52:49.86	178.88	11.31	
2025-01-08 11:52:50.06	178.89	11.33	
2025-01-08 11:52:50.27	178.90	11.35	
2025-01-08 11:52:50.47	178.91	11.37	
2025-01-08 11:52:50.68	178.92	11.39	
2025-01-08 11:52:50.88	178.93	11.41	
2025-01-08 11:52:51.09	178.94	11.43	
2025-01-08 11:52:51.30	178.95	11.45	
2025-01-08 11:52:51.50	178.96	11.47	
2025-01-08 11:52:51.71	178.98	11.49	
2025-01-08 11:52:51.91	178.99	11.51	
2025-01-08 11:52:52.12	179.00	11.53	
2025-01-08 11:52:52.32	179.01	11.55	
2025-01-08 11:52:52.53	179.02	11.57	
2025-01-08 11:52:52.73	179.03	11.59	
2025-01-08 11:52:52.94	179.04	11.61	
2025-01-08 11:52:53.14	179.05	11.63	
2025-01-08 11:52:53.35	179.06	11.65	
2025-01-08 11:52:53.56	179.07	11.67	
2025-01-08 11:52:53.78	179.08	11.69	
2025-01-08 11:52:53.98	179.09	11.71	
2025-01-08 11:52:54.19	179.10	11.73	
2025-01-08 11:52:54.39	179.11	11.75	
2025-01-08 11:52:54.60	179.12	11.77	
2025-01-08 11:52:54.80	179.13	11.79	
2025-01-08 11:52:55.01	179.15	11.81	
2025-01-08 11:52:55.22	179.16	11.83	
2025-01-08 11:52:55.42	179.17	11.85	
2025-01-08 11:52:55.63	179.18	11.87	
2025-01-08 11:52:55.83	179.19	11.89	
2025-01-08 11:52:56.04	179.20	11.91	
2025-01-08 11:52:56.24	179.21	11.93	
2025-01-08 11:52:56.45	179.22	11.95	
2025-01-08 11:52:56.65	179.23	11.97	
2025-01-08 11:52:56.86	179.24	11.99	
2025-01-08 11:52:57.06	179.25	12.01	
2025-01-08 11:52:57.27	179.26	12.03	
2025-01-08 11:52:57.47	179.28	12.05	
2025-01-08 11:52:57.68	179.29	12.07	
2025-01-08 11:52:57.88	179.30	12.09	
2025-01-08 11:52:58.09	179.31	12.12	
2025-01-08 11:52:58.29	179.32	12.14	
2025-01-08 11:52:58.50	179.33	12.16	
2025-01-08 11:52:58.71	179.34	12.18	
2025-01-08 11:52:58.91	179.35	12.20	
2025-01-08 11:52:59.11	179.36	12.22	
2025-01-08 11:52:59.32	179.37	12.24	
2025-01-08 11:52:59.53	179.39	12.26	
2025-01-08 11:52:59.73	179.40	12.28	
2025-01-08 11:52:59.94	179.41	12.30	
2025-01-08 11:53:00.15	179.42	12.32	
2025-01-08 11:53:00.36	179.43	12.34	
2025-01-08 11:53:00.57	179.44	12.36	
2025-01-08 11:53:00.77	179.45	12.38	
2025-01-08 11:53:00.98	179.46	12.41	
2025-01-08 11:53:01.18	179.47	12.43	
2025-01-08 11:53:01.39	179.49	12.45	
2025-01-08 11:53:01.59	179.50	12.47	
2025-01-08 11:53:01.80	179.51	12.49	
2025-01-08 11:53:02.00	179.52	12.51	
2025-01-08 11:53:02.21	179.53	12.53	
2025-01-08 11:53:02.41	179.54	12.55	
2025-01-08 11:53:02.62	179.55	12.57	
2025-01-08 11:53:02.82	179.56	12.59	
2025-01-08 11:53:03.03	179.58	12.61	
2025-01-08 11:53:03.23	179.59	12.63	
2025-01-08 11:53:03.45	179.60	12.66	
2025-01-08 11:53:03.66	179.61	12.68	
2025-01-08 11:53:03.86	179.62	12.70	
2025-01-08 11:53:04.07	179.63	12.72	
2025-01-08 11:53:04.27	179.64	12.74	
2025-01-08 11:53:04.48	179.66	12.76	
2025-01-08 11:53:04.68	179.67	12.78	
2025-01-08 11:53:04.89	179.68	12.80	
2025-01-08 11:53:05.09	179.69	12.83	
2025-01-08 11:53:05.30	179.70	12.85	
2025-01-08 11:53:05.50	179.71	12.87	
2025-01-08 11:53:05.71	179.72	12.89	
2025-01-08 11:53:05.91	179.74	12.91	
2025-01-08 11:53:06.12	179.75	12.93	
2025-01-08 11:53:06.32	179.76	12.95	
2025-01-08 11:53:06.53	179.77	12.97	
2025-01-08 11:53:06.73	179.78	13.00	
2025-01-08 11:53:06.94	179.79	13.02	
2025-01-08 11:53:07.15	179.81	13.04	
2025-01-08 11:53:07.35	179.82	13.06	
2025-01-08 11:53:07.55	179.83	13.08	
2025-01-08 11:53:07.76	179.84	13.10	
2025-01-08 11:53:07.96	179.85	13.12	
2025-01-08 11:53:08.17	179.86	13.15	
2025-01-08 11:53:08.37	179.88	13.17	
2025-01-08 11:53:08.58	179.89	13.19	
2025-01-08 11:53:08.78	179.90	13.21	
2025-01-08 11:53:08.99	179.91	13.23	
2025-01-08 11:53:09.19	179.92	13.25	
2025-01-08 11:53:09.40	179.93	13.27	
2025-01-08 11:53:09.61	179.95	13.30	
2025-01-08 11:53:09.81	179.96	13.32	
2025-01-08 11:53:10.01	179.97	13.34	
2025-01-08 11:53:10.22	179.98	13.36	
2025-01-08 11:53:10.43	179.99	13.38	
2025-01-08 11:53:10.64	180.01	13.40	
2025-01-08 11:53:10.84	180.02	13.43	
2025-01-08 11:53:11.05	180.03	13.45	
2025-01-08 11:53:11.25	180.04	13.47	
2025-01-08 11:53:11.46	180.05	13.49	
2025-01-08 11:53:11.66	180.07	13.51	
2025-01-08 11:53:11.87	180.08	13.54	
2025-01-08 11:53:12.07	180.09	13.56	
2025-01-08 11:53:12.28	180.10	13.58	
2025-01-08 11:53:12.49	180.11	13.60	
2025-01-08 11:53:12.69	180.13	13.62	
2025-01-08 11:53:12.90	180.14	13.64	
2025-01-08 11:53:13.10	180.15	13.67	
2025-01-08 11:53:13.31	180.16	13.69	
2025-01-08 11:53:13.52	180.18	13.71	
2025-01-08 11:53:13.72	180.19	13.73	
2025-01-08 11:53:13.93	180.20	13.76	
2025-01-08 11:53:14.13	180.21	13.78	
2025-01-08 11:53:14.34	180.22	13.80	
2025-01-08 11:53:14.54	180.24	13.82	
2025-01-08 11:53:14.75	180.25	13.84	
2025-01-08 11:53:14.95	180.26	13.86	
2025-01-08 11:53:15.17	180.27	13.89	
2025-01-08 11:53:15.38	180.29	13.91	
2025-01-08 11:53:15.58	180.30	13.93	
2025-01-08 11:53:15.78	180.31	13.95	
2025-01-08 11:53:15.99	180.32	13.98	
2025-01-08 11:53:16.21	180.34	14.00	
2025-01-08 11:53:16.41	180.35	14.02	
2025-01-08 11:53:16.62	180.36	14.05	
2025-01-08 11:53:16.82	180.37	14.07	
2025-01-08 11:53:17.03	180.39	14.09	
2025-01-08 11:53:17.23	180.40	14.11	
2025-01-08 11:53:17.44	180.41	14.14	
2025-01-08 11:53:17.65	180.42	14.16	
2025-01-08 11:53:17.85	180.44	14.18	
2025-01-08 11:53:18.06	180.45	14.20	
2025-01-08 11:53:18.26	180.46	14.22	
2025-01-08 11:53:18.47	180.47	14.25	
2025-01-08 11:53:18.67	180.49	14.27	
2025-01-08 11:53:18.88	180.50	14.29	
2025-01-08 11:53:19.08	180.51	14.31	
2025-01-08 11:53:19.29	180.53	14.34	
2025-01-08 11:53:19.49	180.54	14.36	
2025-01-08 11:53:19.70	180.55	14.38	
2025-01-08 11:53:19.90	180.56	14.40	
2025-01-08 11:53:20.11	180.58	14.43	
2025-01-08 11:53:20.31	180.59	14.45	
2025-01-08 11:53:20.52	180.60	14.47	
2025-01-08 11:53:20.72	180.61	14.50	
2025-01-08 11:53:20.93	180.63	14.52	
2025-01-08 11:53:21.14	180.64	14.54	
2025-01-08 11:53:21.34	180.65	14.56	
2025-01-08 11:53:21.56	180.67	14.59	
2025-01-08 11:53:21.77	180.68	14.61	
2025-01-08 11:53:21.97	180.69	14.63	
2025-01-08 11:53:22.18	180.71	14.66	
2025-01-08 11:53:22.38	180.72	14.68	
2025-01-08 11:53:22.58	180.73	14.70	
2025-01-08 11:53:22.79	180.74	14.73	
2025-01-08 11:53:23.00	180.76	14.75	
2025-01-08 11:53:23.20	180.77	14.77	
2025-01-08 11:53:23.41	180.78	14.80	
2025-01-08 11:53:23.61	180.80	14.82	
2025-01-08 11:53:23.82	180.81	14.84	
2025-01-08 11:53:24.03	180.82	14.87	
2025-01-08 11:53:24.23	180.84	14.89	
2025-01-08 11:53:24.44	180.85	14.91	
2025-01-08 11:53:24.64	180.86	14.93	
2025-01-08 11:53:24.85	180.88	14.96	
2025-01-08 11:53:25.05	180.89	14.98	
2025-01-08 11:53:25.26	180.90	15.00	
2025-01-08 11:53:25.46	180.92	15.03	
2025-01-08 11:53:25.67	180.93	15.05	
2025-01-08 11:53:25.87	180.94	15.07	
2025-01-08 11:53:26.08	180.96	15.10	
2025-01-08 11:53:26.28	180.97	15.12	
2025-01-08 11:53:26.49	180.98	15.14	
2025-01-08 11:53:26.69	181.00	15.17	
2025-01-08 11:53:26.90	181.01	15.19	
2025-01-08 11:53:27.11	181.02	15.21	
2025-01-08 11:53:27.31	181.04	15.24	
2025-01-08 11:53:27.52	181.05	15.26	
2025-01-08 11:53:27.73	181.06	15.29	
2025-01-08 11:53:27.94	181.08	15.31	
2025-01-08 11:53:28.15	181.09	15.33	
2025-01-08 11:53:28.35	181.11	15.36	
2025-01-08 11:53:28.56	181.12	15.38	
2025-01-08 11:53:28.76	181.13	15.40	
2025-01-08 11:53:28.97	181.15	15.43	
2025-01-08 11:53:29.17	181.16	15.45	
2025-01-08 11:53:29.38	181.17	15.48	
2025-01-08 11:53:29.58	181.19	15.50	
2025-01-08 11:53:29.79	181.20	15.52	
2025-01-08 11:53:29.99	181.22	15.55	
2025-01-08 11:53:30.20	181.23	15.57	
2025-01-08 11:53:30.40	181.24	15.59	
2025-01-08 11:53:30.61	181.26	15.62	
2025-01-08 11:53:30.81	181.27	15.64	
2025-01-08 11:53:31.02	181.28	15.67	
2025-01-08 11:53:31.22	181.30	15.69	
2025-01-08 11:53:31.43	181.31	15.71	
2025-01-08 11:53:31.63	181.33	15.74	
2025-01-08 11:53:31.84	181.34	15.76	
2025-01-08 11:53:32.04	181.35	15.79	
2025-01-08 11:53:32.26	181.37	15.81	
2025-01-08 11:53:32.47	181.38	15.84	
2025-01-08 11:53:32.67	181.40	15.86	
2025-01-08 11:53:32.88	181.41	15.88	
2025-01-08 11:53:33.08	181.43	15.91	
2025-01-08 11:53:33.29	181.44	15.93	
2025-01-08 11:53:33.49	181.45	15.96	
2025-01-08 11:53:33.70	181.47	15.98	
2025-01-08 11:53:33.91	181.48	16.01	
2025-01-08 11:53:34.11	181.50	16.03	
2025-01-08 11:53:34.31	181.51	16.05	
2025-01-08 11:53:34.52	181.53	16.08	
2025-01-08 11:53:34.73	181.54	16.10	
2025-01-08 11:53:34.93	181.55	16.13	
2025-01-08 11:53:35.14	181.57	16.15	
2025-01-08 11:53:35.34	181.58	16.17	
2025-01-08 11:53:35.55	181.60	16.20	
2025-01-08 11:53:35.75	181.61	16.22	
2025-01-08 11:53:35.96	181.63	16.25	
2025-01-08 11:53:36.16	181.64	16.27	
2025-01-08 11:53:36.37	181.66	16.30	
2025-01-08 11:53:36.57	181.67	16.32	
2025-01-08 11:53:36.78	181.68	16.35	
2025-01-08 11:53:36.99	181.70	16.37	
2025-01-08 11:53:37.19	181.71	16.40	
2025-01-08 11:53:37.40	181.73	16.42	
2025-01-08 11:53:37.60	181.74	16.45	
2025-01-08 11:53:37.81	181.76	16.47	
2025-01-08 11:53:38.02	181.77	16.50	
2025-01-08 11:53:38.22	181.79	16.52	
2025-01-08 11:53:38.42	181.80	16.54	
2025-01-08 11:53:38.63	181.82	16.57	
2025-01-08 11:53:38.84	181.83	16.60	
2025-01-08 11:53:39.05	181.85	16.62	
2025-01-08 11:53:39.26	181.86	16.65	
2025-01-08 11:53:39.46	181.88	16.67	
2025-01-08 11:53:39.66	181.89	16.69	
2025-01-08 11:53:39.87	181.91	16.72	
2025-01-08 11:53:40.08	181.92	16.75	
2025-01-08 11:53:40.28	181.94	16.77	
2025-01-08 11:53:40.49	181.95	16.80	
2025-01-08 11:53:40.69	181.97	16.82	
2025-01-08 11:53:40.90	181.98	16.85	
2025-01-08 11:53:41.10	182.00	16.87	
2025-01-08 11:53:41.31	182.01	16.90	
2025-01-08 11:53:41.51	182.03	16.92	
2025-01-08 11:53:41.72	182.04	16.95	
2025-01-08 11:53:41.92	182.06	16.97	
2025-01-08 11:53:42.13	182.07	17.00	
2025-01-08 11:53:42.33	182.09	17.02	
2025-01-08 11:53:42.54	182.10	17.05	
2025-01-08 11:53:42.74	182.12	17.07	
2025-01-08 11:53:42.95	182.13	17.10	
2025-01-08 11:53:43.15	182.15	17.12	
2025-01-08 11:53:43.36	182.16	17.15	
2025-01-08 11:53:43.56	182.18	17.17	
2025-01-08 11:53:43.77	182.19	17.20	
2025-01-08 11:53:43.97	182.21	17.23	
2025-01-08 11:53:44.18	182.23	17.25	
2025-01-08 11:53:44.39	182.24	17.28	
2025-01-08 11:53:44.59	182.26	17.30	
2025-01-08 11:53:44.80	182.27	17.33	
2025-01-08 11:53:45.00	182.29	17.35	
2025-01-08 11:53:45.20	182.30	17.38	
2025-01-08 11:53:45.41	182.32	17.41	
2025-01-08 11:53:45.61	182.33	17.43	
2025-01-08 11:53:45.82	182.35	17.46	
2025-01-08 11:53:46.02	182.36	17.48	
2025-01-08 11:53:46.23	182.38	17.51	
2025-01-08 11:53:46.44	182.40	17.53	
2025-01-08 11:53:46.64	182.41	17.56	
2025-01-08 11:53:46.85	182.43	17.59	
2025-01-08 11:53:47.05	182.44	17.61	
2025-01-08 11:53:47.26	182.46	17.64	
2025-01-08 11:53:47.46	182.48	17.66	
2025-01-08 11:53:47.67	182.49	17.69	
2025-01-08 11:53:47.87	182.51	17.72	
2025-01-08 11:53:48.08	182.52	17.74	
2025-01-08 11:53:48.28	182.54	17.77	
2025-01-08 11:53:48.49	182.56	17.79	
2025-01-08 11:53:48.69	182.57	17.82	
2025-01-08 11:53:48.90	182.59	17.85	
2025-01-08 11:53:49.11	182.60	17.87	
2025-01-08 11:53:49.31	182.62	17.90	
2025-01-08 11:53:49.52	182.64	17.93	
2025-01-08 11:53:49.72	182.65	17.95	
2025-01-08 11:53:49.93	182.67	17.98	
2025-01-08 11:53:50.13	182.68	18.00	
2025-01-08 11:53:50.34	182.70	18.03	
2025-01-08 11:53:50.54	182.72	18.06	
2025-01-08 11:53:50.75	182.73	18.08	
2025-01-08 11:53:50.96	182.75	18.11	
2025-01-08 11:53:51.16	182.77	18.14	
2025-01-08 11:53:51.37	182.78	18.17	
2025-01-08 11:53:51.57	182.80	18.19	
2025-01-08 11:53:51.78	182.82	18.22	
2025-01-08 11:53:51.98	182.83	18.24	
2025-01-08 11:53:52.19	182.85	18.27	
2025-01-08 11:53:52.40	182.87	18.30	
2025-01-08 11:53:52.60	182.88	18.32	
2025-01-08 11:53:52.81	182.90	18.35	
2025-01-08 11:53:53.01	182.92	18.38	
2025-01-08 11:53:53.22	182.93	18.41	
2025-01-08 11:53:53.42	182.95	18.43	
2025-01-08 11:53:53.64	182.97	18.46	
2025-01-08 11:53:53.85	182.98	18.49	
2025-01-08 11:53:54.05	183.00	18.51	
2025-01-08 11:53:54.26	183.02	18.54	
2025-01-08 11:53:54.46	183.03	18.57	
2025-01-08 11:53:54.67	183.05	18.60	
2025-01-08 11:53:54.87	183.07	18.62	
2025-01-08 11:53:55.08	183.09	18.65	
2025-01-08 11:53:55.28	183.10	18.68	
2025-01-08 11:53:55.49	183.12	18.70	
2025-01-08 11:53:55.69	183.14	18.73	
2025-01-08 11:53:55.90	183.15	18.76	
2025-01-08 11:53:56.10	183.17	18.79	
2025-01-08 11:53:56.31	183.19	18.81	
2025-01-08 11:53:56.52	183.21	18.84	
2025-01-08 11:53:56.72	183.22	18.87	
2025-01-08 11:53:56.93	183.24	18.90	
2025-01-08 11:53:57.14	183.26	18.92	
2025-01-08 11:53:57.34	183.27	18.95	
2025-01-08 11:53:57.55	183.29	18.98	
2025-01-08 11:53:57.75	183.31	19.01	
2025-01-08 11:53:57.96	183.33	19.03	
2025-01-08 11:53:58.16	183.34	19.06	
2025-01-08 11:53:58.37	183.36	19.09	
2025-01-08 11:53:58.58	183.38	19.12	
2025-01-08 11:53:58.78	183.40	19.14	
2025-01-08 11:53:59.00	183.42	19.17	
2025-01-08 11:53:59.20	183.43	19.20	
2025-01-08 11:53:59.41	183.45	19.23	
2025-01-08 11:53:59.62	183.47	19.26	
2025-01-08 11:53:59.82	183.49	19.28	
2025-01-08 11:54:00.03	183.50	19.31	
2025-01-08 11:54:00.23	183.52	19.34	
2025-01-08 11:54:00.44	183.54	19.37	
2025-01-08 11:54:00.64	183.56	19.40	
2025-01-08 11:54:00.85	183.57	19.42	
2025-01-08 11:54:01.05	183.59	19.45	
2025-01-08 11:54:01.26	183.61	19.48	
2025-01-08 11:54:01.46	183.63	19.51	
2025-01-08 11:54:01.67	183.65	19.54	
2025-01-08 11:54:01.87	183.66	19.56	
2025-01-08 11:54:02.08	183.68	19.59	
2025-01-08 11:54:02.28	183.70	19.62	
2025-01-08 11:54:02.49	183.72	19.65	
2025-01-08 11:54:02.70	183.74	19.68	
2025-01-08 11:54:02.90	183.75	19.71	
2025-01-08 11:54:03.10	183.77	19.73	
2025-01-08 11:54:03.31	183.79	19.76	
2025-01-08 11:54:03.52	183.81	19.79	
2025-01-08 11:54:03.72	183.83	19.82	
2025-01-08 11:54:03.92	183.85	19.85	
2025-01-08 11:54:04.13	183.86	19.88	
2025-01-08 11:54:04.33	183.88	19.90	
2025-01-08 11:54:04.54	183.90	19.93	
2025-01-08 11:54:04.74	183.92	19.96	
2025-01-08 11:54:04.95	183.94	19.99	
2025-01-08 11:54:05.15	183.96	20.02	
2025-01-08 11:54:05.37	183.98	20.05	
2025-01-08 11:54:05.57	183.99	20.08	
2025-01-08 11:54:05.78	184.01	20.11	
2025-01-08 11:54:05.98	184.03	20.13	
2025-01-08 11:54:06.19	184.05	20.16	
2025-01-08 11:54:06.41	184.07	20.20	
2025-01-08 11:54:06.61	184.09	20.22	
2025-01-08 11:54:06.82	184.11	20.25	
2025-01-08 11:54:07.02	184.13	20.28	
2025-01-08 11:54:07.23	184.15	20.31	
2025-01-08 11:54:07.43	184.16	20.34	
2025-01-08 11:54:07.64	184.18	20.37	
2025-01-08 11:54:07.85	184.20	20.40	
2025-01-08 11:54:08.05	184.22	20.43	
2025-01-08 11:54:08.26	184.24	20.46	
2025-01-08 11:54:08.46	184.26	20.49	
2025-01-08 11:54:08.67	184.28	20.52	
2025-01-08 11:54:08.87	184.30	20.54	
2025-01-08 11:54:09.08	184.32	20.57	
2025-01-08 11:54:09.28	184.34	20.60	
2025-01-08 11:54:09.49	184.36	20.63	
2025-01-08 11:54:09.69	184.38	20.66	
2025-01-08 11:54:09.90	184.40	20.69	
2025-01-08 11:54:10.10	184.41	20.72	
2025-01-08 11:54:10.31	184.43	20.75	
2025-01-08 11:54:10.51	184.45	20.78	
2025-01-08 11:54:10.72	184.47	20.81	
2025-01-08 11:54:10.93	184.49	20.84	
2025-01-08 11:54:11.13	184.51	20.87	
2025-01-08 11:54:11.34	184.53	20.90	
2025-01-08 11:54:11.54	184.55	20.93	
2025-01-08 11:54:11.76	184.57	20.96	
2025-01-08 11:54:11.96	184.59	20.99	
2025-01-08 11:54:12.17	184.61	21.02	
2025-01-08 11:54:12.37	184.63	21.05	
2025-01-08 11:54:12.58	184.65	21.08	
2025-01-08 11:54:12.78	184.67	21.11	
2025-01-08 11:54:12.99	184.69	21.14	
2025-01-08 11:54:13.19	184.71	21.17	
2025-01-08 11:54:13.40	184.73	21.20	
2025-01-08 11:54:13.60	184.75	21.23	
2025-01-08 11:54:13.81	184.77	21.26	
2025-01-08 11:54:14.01	184.79	21.29	
2025-01-08 11:54:14.22	184.81	21.32	
2025-01-08 11:54:14.43	184.83	21.35	
2025-01-08 11:54:14.63	184.85	21.38	
2025-01-08 11:54:14.84	184.87	21.41	
2025-01-08 11:54:15.04	184.89	21.44	
2025-01-08 11:54:15.25	184.91	21.47	
2025-01-08 11:54:15.45	184.93	21.50	
2025-01-08 11:54:15.66	184.96	21.53	
2025-01-08 11:54:15.86	184.98	21.56	
2025-01-08 11:54:16.08	185.00	21.59	
2025-01-08 11:54:16.28	185.02	21.62	
2025-01-08 11:54:16.49	185.04	21.66	
2025-01-08 11:54:16.69	185.06	21.69	
2025-01-08 11:54:16.90	185.08	21.72	
2025-01-08 11:54:17.10	185.10	21.75	
2025-01-08 11:54:17.31	185.12	21.78	
2025-01-08 11:54:17.51	185.14	21.81	
2025-01-08 11:54:17.72	185.16	21.84	
2025-01-08 11:54:17.92	185.18	21.87	
2025-01-08 11:54:18.13	185.21	21.90	
2025-01-08 11:54:18.33	185.23	21.93	
2025-01-08 11:54:18.54	185.25	21.96	
2025-01-08 11:54:18.74	185.27	21.99	
2025-01-08 11:54:18.95	185.29	22.02	
2025-01-08 11:54:19.15	185.31	22.06	
2025-01-08 11:54:19.36	185.33	22.09	
2025-01-08 11:54:19.56	185.35	22.12	
2025-01-08 11:54:19.77	185.37	22.15	
2025-01-08 11:54:19.98	185.40	22.18	
2025-01-08 11:54:20.18	185.42	22.21	
2025-01-08 11:54:20.39	185.44	22.24	
2025-01-08 11:54:20.59	185.46	22.27	
2025-01-08 11:54:20.80	185.48	22.31	
2025-01-08 11:54:21.00	185.50	22.34	
2025-01-08 11:54:21.21	185.53	22.37	
2025-01-08 11:54:21.41	185.55	22.40	
2025-01-08 11:54:21.62	185.57	22.43	
2025-01-08 11:54:21.83	185.59	22.46	
2025-01-08 11:54:22.03	185.61	22.50	
2025-01-08 11:54:22.24	185.63	22.53	
2025-01-08 11:54:22.44	185.66	22.56	
2025-01-08 11:54:22.65	185.68	22.59	
2025-01-08 11:54:22.85	185.70	22.62	
2025-01-08 11:54:23.06	185.72	22.65	
2025-01-08 11:54:23.26	185.74	22.69	
2025-01-08 11:54:23.47	185.77	22.72	
2025-01-08 11:54:23.67	185.79	22.75	
2025-01-08 11:54:23.88	185.81	22.78	
2025-01-08 11:54:24.08	185.83	22.81	
2025-01-08 11:54:24.29	185.86	22.85	
2025-01-08 11:54:24.49	185.88	22.88	
2025-01-08 11:54:24.70	185.90	22.91	
2025-01-08 11:54:24.90	185.92	22.94	
2025-01-08 11:54:25.11	185.94	22.97	
2025-01-08 11:54:25.31	185.97	23.01	
2025-01-08 11:54:25.52	185.99	23.04	
2025-01-08 11:54:25.72	186.01	23.07	
2025-01-08 11:54:25.94	186.04	23.10	
2025-01-08 11:54:26.14	186.06	23.14	
2025-01-08 11:54:26.35	186.08	23.17	
2025-01-08 11:54:26.55	186.10	23.20	
2025-01-08 11:54:26.77	186.13	23.24	
2025-01-08 11:54:26.98	186.15	23.27	
2025-01-08 11:54:27.18	186.17	23.30	
2025-01-08 11:54:27.39	186.20	23.33	
2025-01-08 11:54:27.59	186.22	23.37	
2025-01-08 11:54:27.80	186.24	23.40	
2025-01-08 11:54:28.00	186.27	23.43	
2025-01-08 11:54:28.21	186.29	23.47	
2025-01-08 11:54:28.41	186.31	23.50	
2025-01-08 11:54:28.62	186.34	23.53	
2025-01-08 11:54:28.83	186.36	23.56	
2025-01-08 11:54:29.03	186.38	23.60	
2025-01-08 11:54:29.24	186.41	23.63	
2025-01-08 11:54:29.44	186.43	23.66	
2025-01-08 11:54:29.65	186.45	23.70	
2025-01-08 11:54:29.85	186.48	23.73	
2025-01-08 11:54:30.05	186.50	23.76	
2025-01-08 11:54:30.26	186.52	23.80	
2025-01-08 11:54:30.46	186.55	23.83	
2025-01-08 11:54:30.67	186.57	23.86	
2025-01-08 11:54:30.87	186.60	23.89	
2025-01-08 11:54:31.08	186.62	23.93	
2025-01-08 11:54:31.29	186.64	23.96	
2025-01-08 11:54:31.49	186.67	23.99	
2025-01-08 11:54:31.70	186.69	24.03	
2025-01-08 11:54:31.90	186.72	24.06	
2025-01-08 11:54:32.11	186.74	24.10	
2025-01-08 11:54:32.31	186.76	24.13	
2025-01-08 11:54:32.52	186.79	24.16	
2025-01-08 11:54:32.73	186.81	24.20	
2025-01-08 11:54:32.93	186.84	24.23	
2025-01-08 11:54:33.13	186.86	24.26	
2025-01-08 11:54:33.34	186.89	24.30	
2025-01-08 11:54:33.55	186.91	24.33	
2025-01-08 11:54:33.75	186.94	24.37	
2025-01-08 11:54:33.95	186.96	24.40	
2025-01-08 11:54:34.16	186.99	24.43	
2025-01-08 11:54:34.36	187.01	24.47	
2025-01-08 11:54:34.57	187.03	24.50	
2025-01-08 11:54:34.78	187.06	24.54	
2025-01-08 11:54:34.98	187.08	24.57	
2025-01-08 11:54:35.19	187.11	24.61	
2025-01-08 11:54:35.39	187.13	24.64	
2025-01-08 11:54:35.59	187.16	24.67	
2025-01-08 11:54:35.80	187.18	24.71	
2025-01-08 11:54:36.00	187.21	24.74	
2025-01-08 11:54:36.21	187.24	24.78	
2025-01-08 11:54:36.41	187.26	24.81	
2025-01-08 11:54:36.62	187.29	24.84	
2025-01-08 11:54:36.82	187.31	24.88	
2025-01-08 11:54:37.03	187.34	24.91	
2025-01-08 11:54:37.24	187.36	24.95	
2025-01-08 11:54:37.44	187.39	24.98	
2025-01-08 11:54:37.65	187.41	25.02	
2025-01-08 11:54:37.85	187.44	25.05	
2025-01-08 11:54:38.06	187.47	25.09	
2025-01-08 11:54:38.26	187.49	25.12	
2025-01-08 11:54:38.46	187.52	25.16	
2025-01-08 11:54:38.66	187.54	25.19	
2025-01-08 11:54:38.87	187.57	25.23	
2025-01-08 11:54:39.07	187.59	25.26	
2025-01-08 11:54:39.28	187.62	25.30	
2025-01-08 11:54:39.49	187.65	25.33	
2025-01-08 11:54:39.69	187.67	25.37	
2025-01-08 11:54:39.90	187.70	25.40	
2025-01-08 11:54:40.10	187.72	25.44	
2025-01-08 11:54:40.31	187.75	25.47	
2025-01-08 11:54:40.52	187.78	25.51	
2025-01-08 11:54:40.73	187.81	25.55	
2025-01-08 11:54:40.94	187.83	25.58	
2025-01-08 11:54:41.14	187.86	25.62	
2025-01-08 11:54:41.35	187.89	25.65	
2025-01-08 11:54:41.56	187.91	25.69	
2025-01-08 11:54:41.76	187.94	25.72	
2025-01-08 11:54:41.97	187.97	25.76	
2025-01-08 11:54:42.17	187.99	25.79	
2025-01-08 11:54:42.38	188.02	25.83	
2025-01-08 11:54:42.58	188.05	25.87	
2025-01-08 11:54:42.80	188.08	25.90	
2025-01-08 11:54:43.01	188.10	25.94	
2025-01-08 11:54:43.21	188.13	25.98	
2025-01-08 11:54:43.42	188.16	26.01	
2025-01-08 11:54:43.62	188.19	26.05	
2025-01-08 11:54:43.82	188.21	26.08	
2025-01-08 11:54:44.03	188.24	26.12	
2025-01-08 11:54:44.24	188.27	26.16	
2025-01-08 11:54:44.44	188.30	26.19	
2025-01-08 11:54:44.65	188.32	26.23	
2025-01-08 11:54:44.85	188.35	26.27	
2025-01-08 11:54:45.06	188.38	26.30	
2025-01-08 11:54:45.27	188.41	26.34	
2025-01-08 11:54:45.47	188.44	26.38	
2025-01-08 11:54:45.68	188.46	26.41	
2025-01-08 11:54:45.88	188.49	26.45	
2025-01-08 11:54:46.09	188.52	26.49	
2025-01-08 11:54:46.29	188.55	26.52	
2025-01-08 11:54:46.50	188.58	26.56	
2025-01-08 11:54:46.71	188.61	26.60	
2025-01-08 11:54:46.91	188.63	26.63	
2025-01-08 11:54:47.12	188.66	26.67	
2025-01-08 11:54:47.32	188.69	26.71	
2025-01-08 11:54:47.52	188.72	26.74	
2025-01-08 11:54:47.73	188.75	26.78	
2025-01-08 11:54:47.93	188.78	26.82	
2025-01-08 11:54:48.15	188.81	26.86	
2025-01-08 11:54:48.36	188.84	26.89	
2025-01-08 11:54:48.57	188.87	26.93	
2025-01-08 11:54:48.77	188.89	26.97	
2025-01-08 11:54:48.98	188.92	27.01	
2025-01-08 11:54:49.18	188.95	27.04	
2025-01-08 11:54:49.39	188.98	27.08	
2025-01-08 11:54:49.59	189.01	27.12	
2025-01-08 11:54:49.80	189.04	27.15	
2025-01-08 11:54:50.00	189.07	27.19	
2025-01-08 11:54:50.21	189.10	27.23	
2025-01-08 11:54:50.41	189.13	27.27	
2025-01-08 11:54:50.62	189.16	27.30	
2025-01-08 11:54:50.82	189.19	27.34	
2025-01-08 11:54:51.03	189.22	27.38	
2025-01-08 11:54:51.25	189.25	27.42	
2025-01-08 11:54:51.45	189.28	27.46	
2025-01-08 11:54:51.66	189.31	27.50	
2025-01-08 11:54:51.86	189.34	27.53	
2025-01-08 11:54:52.07	189.37	27.57	
2025-01-08 11:54:52.27	189.40	27.61	
2025-01-08 11:54:52.48	189.43	27.65	
2025-01-08 11:54:52.68	189.46	27.69	
2025-01-08 11:54:52.89	189.49	27.72	
2025-01-08 11:54:53.10	189.52	27.76	
2025-01-08 11:54:53.30	189.55	27.80	
2025-01-08 11:54:53.51	189.58	27.84	
2025-01-08 11:54:53.71	189.61	27.88	
2025-01-08 11:54:53.92	189.64	27.92	
2025-01-08 11:54:54.13	189.68	27.96	
2025-01-08 11:54:54.33	189.71	27.99	
2025-01-08 11:54:54.55	189.74	28.03	
2025-01-08 11:54:54.75	189.77	28.07	
2025-01-08 11:54:54.96	189.80	28.11	
2025-01-08 11:54:55.16	189.83	28.15	
2025-01-08 11:54:55.37	189.86	28.19	
2025-01-08 11:54:55.57	189.90	28.23	
2025-01-08 11:54:55.78	189.93	28.27	
2025-01-08 11:54:55.98	189.96	28.30	
2025-01-08 11:54:56.19	189.99	28.34	
2025-01-08 11:54:56.39	190.02	28.38	
2025-01-08 11:54:56.60	190.05	28.42	
2025-01-08 11:54:56.80	190.08	28.46	
2025-01-08 11:54:57.01	190.12	28.50	
2025-01-08 11:54:57.21	190.15	28.54	
2025-01-08 11:54:57.41	190.18	28.58	
2025-01-08 11:54:57.62	190.21	28.62	
2025-01-08 11:54:57.82	190.24	28.66	
2025-01-08 11:54:58.03	190.28	28.70	
2025-01-08 11:54:58.23	190.31	28.73	
2025-01-08 11:54:58.44	190.34	28.78	
2025-01-08 11:54:58.64	190.37	28.81	
2025-01-08 11:54:58.85	190.41	28.85	
2025-01-08 11:54:59.05	190.44	28.89	
2025-01-08 11:54:59.26	190.47	28.93	
2025-01-08 11:54:59.46	190.51	28.97	
2025-01-08 11:54:59.67	190.54	29.01	
2025-01-08 11:54:59.87	190.57	29.05	
2025-01-08 11:55:00.08	190.61	29.09	
2025-01-08 11:55:00.28	190.64	29.13	
2025-01-08 11:55:00.49	190.67	29.17	
2025-01-08 11:55:00.69	190.70	29.21	
2025-01-08 11:55:00.90	190.74	29.25	
2025-01-08 11:55:01.10	190.77	29.29	
2025-01-08 11:55:01.31	190.81	29.33	
2025-01-08 11:55:01.51	190.84	29.37	
2025-01-08 11:55:01.72	190.87	29.41	
2025-01-08 11:55:01.92	190.91	29.45	
2025-01-08 11:55:02.13	190.94	29.49	
2025-01-08 11:55:02.33	190.97	29.53	
2025-01-08 11:55:02.54	191.01	29.57	
2025-01-08 11:55:02.75	191.04	29.62	
2025-01-08 11:55:02.95	191.08	29.66	
2025-01-08 11:55:03.16	191.11	29.70	
2025-01-08 11:55:03.36	191.15	29.74	
2025-01-08 11:55:03.57	191.18	29.78	
2025-01-08 11:55:03.77	191.22	29.82	
2025-01-08 11:55:03.98	191.25	29.86	
2025-01-08 11:55:04.18	191.29	29.90	
2025-01-08 11:55:04.39	191.32	29.94	
2025-01-08 11:55:04.59	191.36	29.98	
2025-01-08 11:55:04.80	191.39	30.02	
2025-01-08 11:55:05.00	191.43	30.06	
2025-01-08 11:55:05.21	191.46	30.11	
2025-01-08 11:55:05.41	191.50	30.15	
2025-01-08 11:55:05.62	191.53	30.19	
2025-01-08 11:55:05.82	191.57	30.23	
2025-01-08 11:55:06.03	191.60	30.27	
2025-01-08 11:55:06.23	191.64	30.31	
2025-01-08 11:55:06.44	191.68	30.35	
2025-01-08 11:55:06.64	191.71	30.40	
2025-01-08 11:55:06.85	191.75	30.44	
2025-01-08 11:55:07.05	191.78	30.48	
2025-01-08 11:55:07.25	191.82	30.52	
2025-01-08 11:55:07.46	191.86	30.56	
2025-01-08 11:55:07.66	191.89	30.60	
2025-01-08 11:55:07.87	191.93	30.65	
2025-01-08 11:55:08.07	191.96	30.69	
2025-01-08 11:55:08.28	192.00	30.73	
2025-01-08 11:55:08.48	192.04	30.77	
2025-01-08 11:55:08.69	192.08	30.81	
2025-01-08 11:55:08.90	192.11	30.86	
2025-01-08 11:55:09.10	192.15	30.90	
2025-01-08 11:55:09.30	192.19	30.94	
2025-01-08 11:55:09.51	192.22	30.98	
2025-01-08 11:55:09.72	192.26	31.03	
2025-01-08 11:55:09.92	192.30	31.07	
2025-01-08 11:55:10.13	192.34	31.11	
2025-01-08 11:55:10.33	192.37	31.15	
2025-01-08 11:55:10.54	192.41	31.19	
2025-01-08 11:55:10.74	192.45	31.24	
2025-01-08 11:55:10.95	192.49	31.28	
2025-01-08 11:55:11.16	192.53	31.32	
2025-01-08 11:55:11.37	192.57	31.37	
2025-01-08 11:55:11.57	192.60	31.41	
2025-01-08 11:55:11.78	192.64	31.45	
2025-01-08 11:55:11.98	192.68	31.50	
2025-01-08 11:55:12.19	192.72	31.54	
2025-01-08 11:55:12.39	192.76	31.58	
2025-01-08 11:55:12.60	192.80	31.63	
2025-01-08 11:55:12.80	192.84	31.67	
2025-01-08 11:55:13.01	192.88	31.71	
2025-01-08 11:55:13.23	192.92	31.76	
2025-01-08 11:55:13.43	192.96	31.80	
2025-01-08 11:55:13.64	193.00	31.84	
2025-01-08 11:55:13.84	193.03	31.89	
2025-01-08 11:55:14.05	193.07	31.93	
2025-01-08 11:55:14.25	193.11	31.97	
2025-01-08 11:55:14.46	193.15	32.02	
2025-01-08 11:55:14.66	193.19	32.06	
2025-01-08 11:55:14.87	193.23	32.11	
2025-01-08 11:55:15.07	193.27	32.15	
2025-01-08 11:55:15.28	193.31	32.19	
2025-01-08 11:55:15.48	193.35	32.24	
2025-01-08 11:55:15.69	193.39	32.28	
2025-01-08 11:55:15.89	193.43	32.32	
2025-01-08 11:55:16.10	193.48	32.37	
2025-01-08 11:55:16.30	193.52	32.41	
2025-01-08 11:55:16.51	193.56	32.46	
2025-01-08 11:55:16.72	193.60	32.50	
2025-01-08 11:55:16.92	193.64	32.54	
2025-01-08 11:55:17.12	193.68	32.59	
2025-01-08 11:55:17.33	193.72	32.63	
2025-01-08 11:55:17.54	193.76	32.68	
2025-01-08 11:55:17.74	193.80	32.72	
2025-01-08 11:55:17.95	193.85	32.77	
2025-01-08 11:55:18.15	193.89	32.81	
2025-01-08 11:55:18.37	193.93	32.86	
2025-01-08 11:55:18.57	193.97	32.90	
2025-01-08 11:55:18.78	194.02	32.95	
2025-01-08 11:55:18.98	194.06	32.99	
2025-01-08 11:55:19.19	194.10	33.04	
2025-01-08 11:55:19.40	194.14	33.08	
2025-01-08 11:55:19.60	194.19	33.13	
2025-01-08 11:55:19.81	194.23	33.17	
2025-01-08 11:55:20.03	194.28	33.22	
2025-01-08 11:55:20.23	194.32	33.27	
2025-01-08 11:55:20.44	194.36	33.31	
2025-01-08 11:55:20.64	194.40	33.36	
2025-01-08 11:55:20.85	194.45	33.40	
2025-01-08 11:55:21.06	194.49	33.45	
2025-01-08 11:55:21.27	194.54	33.49	
2025-01-08 11:55:21.48	194.58	33.54	
2025-01-08 11:55:21.69	194.63	33.59	
2025-01-08 11:55:21.89	194.67	33.63	
2025-01-08 11:55:22.10	194.71	33.68	
2025-01-08 11:55:22.30	194.76	33.72	
2025-01-08 11:55:22.50	194.80	33.77	
2025-01-08 11:55:22.71	194.85	33.81	
2025-01-08 11:55:22.92	194.89	33.86	
2025-01-08 11:55:23.12	194.94	33.91	
2025-01-08 11:55:23.33	194.98	33.95	
2025-01-08 11:55:23.53	195.03	34.00	
2025-01-08 11:55:23.74	195.07	34.04	
2025-01-08 11:55:23.94	195.12	34.09	
2025-01-08 11:55:24.15	195.16	34.14	
2025-01-08 11:55:24.35	195.21	34.18	
2025-01-08 11:55:24.56	195.25	34.23	
2025-01-08 11:55:24.76	195.30	34.27	
2025-01-08 11:55:24.97	195.34	34.32	
2025-01-08 11:55:25.17	195.39	34.37	
2025-01-08 11:55:25.38	195.44	34.41	
2025-01-08 11:55:25.58	195.48	34.46	
2025-01-08 11:55:25.79	195.53	34.51	
2025-01-08 11:55:25.99	195.57	34.55	
2025-01-08 11:55:26.20	195.62	34.60	
2025-01-08 11:55:26.41	195.67	34.65	
2025-01-08 11:55:26.61	195.72	34.69	
2025-01-08 11:55:26.82	195.76	34.74	
2025-01-08 11:55:27.02	195.81	34.79	
2025-01-08 11:55:27.23	195.86	34.84	
2025-01-08 11:55:27.44	195.91	34.88	
2025-01-08 11:55:27.65	195.96	34.93	
2025-01-08 11:55:27.86	196.00	34.98	
2025-01-08 11:55:28.06	196.05	35.03	
2025-01-08 11:55:28.27	196.10	35.07	
2025-01-08 11:55:28.48	196.15	35.12	
2025-01-08 11:55:28.68	196.20	35.17	
2025-01-08 11:55:28.89	196.25	35.22	
2025-01-08 11:55:29.09	196.29	35.26	
2025-01-08 11:55:29.30	196.34	35.31	
2025-01-08 11:55:29.51	196.39	35.36	
2025-01-08 11:55:29.71	196.44	35.41	
2025-01-08 11:55:29.91	196.49	35.45	
2025-01-08 11:55:30.12	196.54	35.50	
2025-01-08 11:55:30.32	196.59	35.55	
2025-01-08 11:55:30.53	196.64	35.60	
2025-01-08 11:55:30.74	196.69	35.65	
2025-01-08 11:55:30.95	196.74	35.70	
2025-01-08 11:55:31.15	196.79	35.74	
2025-01-08 11:55:31.36	196.84	35.79	
2025-01-08 11:55:31.57	196.89	35.84	
2025-01-08 11:55:31.77	196.94	35.89	
2025-01-08 11:55:31.97	196.99	35.93	
2025-01-08 11:55:32.18	197.04	35.98	
2025-01-08 11:55:32.39	197.10	36.03	
2025-01-08 11:55:32.59	197.14	36.08	
2025-01-08 11:55:32.80	197.20	36.13	
2025-01-08 11:55:33.00	197.25	36.18	
2025-01-08 11:55:33.21	197.30	36.23	
2025-01-08 11:55:33.41	197.35	36.27	
2025-01-08 11:55:33.62	197.40	36.32	
2025-01-08 11:55:33.82	197.45	36.37	
2025-01-08 11:55:34.04	197.51	36.42	
2025-01-08 11:55:34.24	197.56	36.47	
2025-01-08 11:55:34.45	197.62	36.52	
2025-01-08 11:55:34.66	197.67	36.57	
2025-01-08 11:55:34.86	197.72	36.62	
2025-01-08 11:55:35.07	197.77	36.67	
2025-01-08 11:55:35.27	197.83	36.72	
2025-01-08 11:55:35.48	197.88	36.77	
2025-01-08 11:55:35.68	197.93	36.81	
2025-01-08 11:55:35.89	197.99	36.86	
2025-01-08 11:55:36.09	198.04	36.91	
2025-01-08 11:55:36.30	198.10	36.96	
2025-01-08 11:55:36.50	198.15	37.01	
2025-01-08 11:55:36.71	198.20	37.06	
2025-01-08 11:55:36.91	198.26	37.11	
2025-01-08 11:55:37.12	198.31	37.16	
2025-01-08 11:55:37.32	198.37	37.21	
2025-01-08 11:55:37.53	198.42	37.26	
2025-01-08 11:55:37.73	198.48	37.31	
2025-01-08 11:55:37.94	198.53	37.36	
2025-01-08 11:55:38.15	198.59	37.41	
2025-01-08 11:55:38.35	198.64	37.46	
2025-01-08 11:55:38.55	198.70	37.51	
2025-01-08 11:55:38.76	198.76	37.56	
2025-01-08 11:55:38.97	198.81	37.61	
2025-01-08 11:55:39.17	198.87	37.66	
2025-01-08 11:55:39.39	198.93	37.71	
2025-01-08 11:55:39.59	198.98	37.76	
2025-01-08 11:55:39.80	199.04	37.81	
2025-01-08 11:55:40.01	199.10	37.86	
2025-01-08 11:55:40.21	199.16	37.91	
2025-01-08 11:55:40.42	199.21	37.96	
2025-01-08 11:55:40.62	199.27	38.01	
2025-01-08 11:55:40.83	199.33	38.06	
2025-01-08 11:55:41.04	199.39	38.11	
2025-01-08 11:55:41.24	199.45	38.16	
2025-01-08 11:55:41.45	199.50	38.21	
2025-01-08 11:55:41.65	199.56	38.26	
2025-01-08 11:55:41.86	199.62	38.32	
2025-01-08 11:55:42.06	199.68	38.36	
2025-01-08 11:55:42.27	199.74	38.42	
2025-01-08 11:55:42.47	199.80	38.47	
2025-01-08 11:55:42.68	199.86	38.52	
2025-01-08 11:55:42.88	199.92	38.57	
2025-01-08 11:55:43.09	199.98	38.62	
2025-01-08 11:55:43.30	200.04	38.67	
2025-01-08 11:55:43.50	200.10	38.72	
2025-01-08 11:55:43.70	200.16	38.77	
2025-01-08 11:55:43.91	200.22	38.82	
2025-01-08 11:55:44.12	200.28	38.88	
2025-01-08 11:55:44.32	200.34	38.93	
2025-01-08 11:55:44.53	200.40	38.98	
2025-01-08 11:55:44.73	200.46	39.03	
2025-01-08 11:55:44.93	200.52	39.08	
2025-01-08 11:55:45.14	200.58	39.13	
2025-01-08 11:55:45.34	200.64	39.18	
2025-01-08 11:55:45.55	200.71	39.23	
2025-01-08 11:55:45.75	200.77	39.28	
2025-01-08 11:55:45.96	200.83	39.34	
2025-01-08 11:55:46.16	200.89	39.39	
2025-01-08 11:55:46.37	200.96	39.44	
2025-01-08 11:55:46.58	201.02	39.49	
2025-01-08 11:55:46.78	201.08	39.54	
2025-01-08 11:55:46.98	201.15	39.59	
2025-01-08 11:55:47.19	201.21	39.65	
2025-01-08 11:55:47.40	201.28	39.70	
2025-01-08 11:55:47.60	201.34	39.75	
2025-01-08 11:55:47.81	201.40	39.80	
2025-01-08 11:55:48.01	201.47	39.85	
2025-01-08 11:55:48.22	201.53	39.91	
2025-01-08 11:55:48.43	201.60	39.96	
2025-01-08 11:55:48.63	201.66	40.01	
2025-01-08 11:55:48.83	201.73	40.06	
2025-01-08 11:55:49.04	201.79	40.11	
2025-01-08 11:55:49.24	201.86	40.16	
2025-01-08 11:55:49.45	201.93	40.22	
2025-01-08 11:55:49.65	201.99	40.27	
2025-01-08 11:55:49.86	202.06	40.32	
2025-01-08 11:55:50.08	202.13	40.38	
2025-01-08 11:55:50.28	202.19	40.43	
2025-01-08 11:55:50.49	202.26	40.48	
2025-01-08 11:55:50.69	202.33	40.53	
2025-01-08 11:55:50.90	202.40	40.59	
2025-01-08 11:55:51.10	202.46	40.64	
2025-01-08 11:55:51.31	202.53	40.69	
2025-01-08 11:55:51.52	202.60	40.75	
2025-01-08 11:55:51.72	202.67	40.80	
2025-01-08 11:55:51.93	202.74	40.85	
2025-01-08 11:55:52.13	202.81	40.90	
2025-01-08 11:55:52.34	202.88	40.96	
2025-01-08 11:55:52.54	202.94	41.01	
2025-01-08 11:55:52.75	203.02	41.06	
2025-01-08 11:55:52.95	203.08	41.11	
2025-01-08 11:55:53.16	203.16	41.17	
2025-01-08 11:55:53.36	203.22	41.22	
2025-01-08 11:55:53.57	203.30	41.27	
2025-01-08 11:55:53.78	203.37	41.33	
2025-01-08 11:55:53.98	203.44	41.38	
2025-01-08 11:55:54.19	203.51	41.43	
2025-01-08 11:55:54.39	203.58	41.49	
2025-01-08 11:55:54.59	203.65	41.54	
2025-01-08 11:55:54.80	203.72	41.59	
2025-01-08 11:55:55.00	203.79	41.64	
2025-01-08 11:55:55.21	203.87	41.70	
2025-01-08 11:55:55.43	203.94	41.76	
2025-01-08 11:55:55.63	204.02	41.81	
2025-01-08 11:55:55.84	204.09	41.86	
2025-01-08 11:55:56.05	204.17	41.92	
2025-01-08 11:55:56.25	204.24	41.97	
2025-01-08 11:55:56.45	204.31	42.02	
2025-01-08 11:55:56.66	204.38	42.08	
2025-01-08 11:55:56.86	204.46	42.13	
2025-01-08 11:55:57.07	204.53	42.18	
2025-01-08 11:55:57.29	204.61	42.24	
2025-01-08 11:55:57.49	204.69	42.29	
2025-01-08 11:55:57.70	204.76	42.35	
2025-01-08 11:55:57.90	204.84	42.40	
2025-01-08 11:55:58.11	204.91	42.45	
2025-01-08 11:55:58.31	204.99	42.51	
2025-01-08 11:55:58.52	205.07	42.56	
2025-01-08 11:55:58.72	205.14	42.61	
2025-01-08 11:55:58.93	205.22	42.67	
2025-01-08 11:55:59.13	205.29	42.72	
2025-01-08 11:55:59.34	205.37	42.78	
2025-01-08 11:55:59.55	205.45	42.83	
2025-01-08 11:55:59.75	205.53	42.88	
2025-01-08 11:55:59.95	205.60	42.94	
2025-01-08 11:56:00.17	205.69	42.99	
2025-01-08 11:56:00.38	205.77	43.05	
2025-01-08 11:56:00.58	205.85	43.10	
2025-01-08 11:56:00.79	205.93	43.16	
2025-01-08 11:56:00.99	206.00	43.21	
2025-01-08 11:56:01.20	206.09	43.26	
2025-01-08 11:56:01.40	206.16	43.32	
2025-01-08 11:56:01.61	206.25	43.37	
2025-01-08 11:56:01.81	206.32	43.42	
2025-01-08 11:56:02.02	206.41	43.48	
2025-01-08 11:56:02.22	206.49	43.53	
2025-01-08 11:56:02.42	206.57	43.59	
2025-01-08 11:56:02.63	206.65	43.64	
2025-01-08 11:56:02.83	206.73	43.69	
2025-01-08 11:56:03.04	206.81	43.75	
2025-01-08 11:56:03.24	206.89	43.80	
2025-01-08 11:56:03.45	206.98	43.86	
2025-01-08 11:56:03.65	207.06	43.91	
2025-01-08 11:56:03.86	207.14	43.97	
2025-01-08 11:56:04.06	207.22	44.02	
2025-01-08 11:56:04.27	207.31	44.07	
2025-01-08 11:56:04.47	207.39	44.13	
2025-01-08 11:56:04.68	207.48	44.18	
2025-01-08 11:56:04.88	207.56	44.24	
2025-01-08 11:56:05.09	207.65	44.29	
2025-01-08 11:56:05.29	207.73	44.34	
2025-01-08 11:56:05.50	207.82	44.40	
2025-01-08 11:56:05.71	207.91	44.46	
2025-01-08 11:56:05.91	207.99	44.51	
2025-01-08 11:56:06.12	208.08	44.56	
2025-01-08 11:56:06.32	208.16	44.62	
2025-01-08 11:56:06.53	208.25	44.67	
2025-01-08 11:56:06.73	208.34	44.73	
2025-01-08 11:56:06.94	208.43	44.78	
2025-01-08 11:56:07.14	208.51	44.83	
2025-01-08 11:56:07.34	208.60	44.89	
2025-01-08 11:56:07.55	208.69	44.94	
2025-01-08 11:56:07.75	208.78	45.00	
2025-01-08 11:56:07.96	208.87	45.05	
2025-01-08 11:56:08.16	208.95	45.10	
2025-01-08 11:56:08.37	209.05	45.16	
2025-01-08 11:56:08.57	209.13	45.21	
2025-01-08 11:56:08.78	209.23	45.27	
2025-01-08 11:56:08.99	209.32	45.32	
2025-01-08 11:56:09.19	209.41	45.38	
2025-01-08 11:56:09.40	209.50	45.43	
2025-01-08 11:56:09.60	209.59	45.49	
2025-01-08 11:56:09.81	209.69	45.54	
2025-01-08 11:56:10.01	209.77	45.60	
2025-01-08 11:56:10.22	209.87	45.65	
2025-01-08 11:56:10.42	209.96	45.70	
2025-01-08 11:56:10.63	210.06	45.76	
2025-01-08 11:56:10.84	210.15	45.82	
2025-01-08 11:56:11.04	210.24	45.87	
2025-01-08 11:56:11.25	210.34	45.92	
2025-01-08 11:56:11.45	210.43	45.98	
2025-01-08 11:56:11.66	210.53	46.03	
2025-01-08 11:56:11.86	210.62	46.09	
2025-01-08 11:56:12.07	210.72	46.14	
2025-01-08 11:56:12.27	210.81	46.19	
2025-01-08 11:56:12.48	210.91	46.25	
2025-01-08 11:56:12.68	211.00	46.30	
2025-01-08 11:56:12.89	211.10	46.36	
2025-01-08 11:56:13.09	211.20	46.41	
2025-01-08 11:56:13.30	211.30	46.47	
2025-01-08 11:56:13.50	211.39	46.52	
2025-01-08 11:56:13.71	211.49	46.58	
2025-01-08 11:56:13.91	211.59	46.63	
2025-01-08 11:56:14.12	211.69	46.68	
2025-01-08 11:56:14.33	211.79	46.74	
2025-01-08 11:56:14.53	211.89	46.79	
2025-01-08 11:56:14.74	211.99	46.85	
2025-01-08 11:56:14.94	212.09	46.90	
2025-01-08 11:56:15.15	212.19	46.96	
2025-01-08 11:56:15.35	212.29	47.01	
2025-01-08 11:56:15.56	212.39	47.06	
2025-01-08 11:56:15.76	212.49	47.12	
2025-01-08 11:56:15.97	212.60	47.17	
2025-01-08 11:56:16.17	212.70	47.22	
2025-01-08 11:56:16.38	212.80	47.28	
2025-01-08 11:56:16.58	212.90	47.33	
2025-01-08 11:56:16.79	213.01	47.39	
2025-01-08 11:56:17.00	213.12	47.44	
2025-01-08 11:56:17.20	213.22	47.49	
2025-01-08 11:56:17.40	213.32	47.55	
2025-01-08 11:56:17.61	213.43	47.60	
2025-01-08 11:56:17.83	213.54	47.66	
2025-01-08 11:56:18.03	213.64	47.71	
2025-01-08 11:56:18.24	213.75	47.77	
2025-01-08 11:56:18.45	213.86	47.82	
2025-01-08 11:56:18.65	213.96	47.87	
2025-01-08 11:56:18.85	214.07	47.93	
2025-01-08 11:56:19.06	214.18	47.98	
2025-01-08 11:56:19.26	214.28	48.03	
2025-01-08 11:56:19.47	214.39	48.09	
2025-01-08 11:56:19.68	214.50	48.14	
2025-01-08 11:56:19.89	214.62	48.20	
2025-01-08 11:56:20.10	214.73	48.25	
2025-01-08 11:56:20.30	214.83	48.30	
2025-01-08 11:56:20.51	214.95	48.36	
2025-01-08 11:56:20.71	215.06	48.41	
2025-01-08 11:56:20.91	215.16	48.46	
2025-01-08 11:56:21.12	215.28	48.52	
2025-01-08 11:56:21.33	215.39	48.57	
2025-01-08 11:56:21.53	215.50	48.62	
2025-01-08 11:56:21.74	215.62	48.68	
2025-01-08 11:56:21.94	215.73	48.73	
2025-01-08 11:56:22.15	215.84	48.78	
2025-01-08 11:56:22.35	215.95	48.84	
2025-01-08 11:56:22.56	216.07	48.89	
2025-01-08 11:56:22.76	216.18	48.94	
2025-01-08 11:56:22.97	216.30	48.99	
2025-01-08 11:56:23.17	216.41	49.05	
2025-01-08 11:56:23.38	216.53	49.10	
2025-01-08 11:56:23.58	216.64	49.15	
2025-01-08 11:56:23.79	216.76	49.20	
2025-01-08 11:56:24.00	216.88	49.26	
2025-01-08 11:56:24.20	216.99	49.31	
2025-01-08 11:56:24.41	217.11	49.36	
2025-01-08 11:56:24.61	217.23	49.41	
2025-01-08 11:56:24.82	217.35	49.47	
2025-01-08 11:56:25.03	217.47	49.52	
2025-01-08 11:56:25.23	217.59	49.57	
2025-01-08 11:56:25.44	217.71	49.62	
2025-01-08 11:56:25.64	217.83	49.68	
2025-01-08 11:56:25.85	217.95	49.73	
2025-01-08 11:56:26.05	218.07	49.78	
2025-01-08 11:56:26.25	218.19	49.83	
2025-01-08 11:56:26.46	218.31	49.88	
2025-01-08 11:56:26.67	218.44	49.94	
2025-01-08 11:56:26.87	218.56	49.99	
2025-01-08 11:56:27.08	218.68	50.04	
2025-01-08 11:56:27.28	218.80	50.09	
2025-01-08 11:56:27.49	218.93	50.14	
2025-01-08 11:56:27.69	219.05	50.19	
2025-01-08 11:56:27.90	219.18	50.24	
2025-01-08 11:56:28.10	219.30	50.29	
2025-01-08 11:56:28.31	219.43	50.34	
2025-01-08 11:56:28.51	219.55	50.39	
2025-01-08 11:56:28.72	219.68	50.45	
2025-01-08 11:56:28.93	219.81	50.50	
2025-01-08 11:56:29.13	219.93	50.55	
2025-01-08 11:56:29.34	220.06	50.60	
2025-01-08 11:56:29.54	220.19	50.65	
2025-01-08 11:56:29.75	220.32	50.70	
2025-01-08 11:56:29.95	220.44	50.75	
2025-01-08 11:56:30.16	220.58	50.80	
2025-01-08 11:56:30.36	220.70	50.85	
2025-01-08 11:56:30.57	220.84	50.90	
2025-01-08 11:56:30.77	220.96	50.95	
2025-01-08 11:56:30.98	221.10	51.00	
2025-01-08 11:56:31.19	221.23	51.05	
2025-01-08 11:56:31.39	221.36	51.10	
2025-01-08 11:56:31.60	221.50	51.15	
2025-01-08 11:56:31.80	221.62	51.20	
2025-01-08 11:56:32.01	221.76	51.25	
2025-01-08 11:56:32.21	221.89	51.30	
2025-01-08 11:56:32.42	222.03	51.35	
2025-01-08 11:56:32.62	222.16	51.39	
2025-01-08 11:56:32.84	222.30	51.45	
2025-01-08 11:56:33.05	222.44	51.50	
2025-01-08 11:56:33.25	222.57	51.54	
2025-01-08 11:56:33.46	222.71	51.59	
2025-01-08 11:56:33.66	222.85	51.64	
2025-01-08 11:56:33.86	222.98	51.69	
2025-01-08 11:56:34.07	223.12	51.74	
2025-01-08 11:56:34.27	223.26	51.78	
2025-01-08 11:56:34.48	223.40	51.83	
2025-01-08 11:56:34.68	223.53	51.88	
2025-01-08 11:56:34.89	223.68	51.93	
2025-01-08 11:56:35.09	223.81	51.97	
2025-01-08 11:56:35.30	223.96	52.02	
2025-01-08 11:56:35.50	224.09	52.07	
2025-01-08 11:56:35.71	224.24	52.12	
2025-01-08 11:56:35.91	224.38	52.16	
2025-01-08 11:56:36.11	224.51	52.21	
2025-01-08 11:56:36.32	224.66	52.26	
2025-01-08 11:56:36.53	224.81	52.30	
2025-01-08 11:56:36.73	224.95	52.35	
2025-01-08 11:56:36.94	225.09	52.40	
2025-01-08 11:56:37.14	225.23	52.44	
2025-01-08 11:56:37.35	225.38	52.49	
2025-01-08 11:56:37.55	225.52	52.53	
2025-01-08 11:56:37.76	225.67	52.58	
2025-01-08 11:56:37.97	225.82	52.63	
2025-01-08 11:56:38.17	225.97	52.67	
2025-01-08 11:56:38.38	226.12	52.72	
2025-01-08 11:56:38.58	226.26	52.76	
2025-01-08 11:56:38.79	226.41	52.81	
2025-01-08 11:56:38.99	226.56	52.85	
2025-01-08 11:56:39.20	226.71	52.90	
2025-01-08 11:56:39.40	226.85	52.94	
2025-01-08 11:56:39.61	227.01	52.99	
2025-01-08 11:56:39.81	227.15	53.03	
2025-01-08 11:56:40.02	227.31	53.08	
2025-01-08 11:56:40.24	227.47	53.12	
2025-01-08 11:56:40.45	227.62	53.17	
2025-01-08 11:56:40.65	227.77	53.21	
2025-01-08 11:56:40.86	227.93	53.25	
2025-01-08 11:56:41.06	228.08	53.30	
2025-01-08 11:56:41.27	228.24	53.34	
2025-01-08 11:56:41.48	228.39	53.39	
2025-01-08 11:56:41.69	228.55	53.43	
2025-01-08 11:56:41.89	228.70	53.47	
2025-01-08 11:56:42.10	228.86	53.51	
2025-01-08 11:56:42.30	229.01	53.56	
2025-01-08 11:56:42.51	229.17	53.60	
2025-01-08 11:56:42.71	229.33	53.64	
2025-01-08 11:56:42.92	229.49	53.68	
2025-01-08 11:56:43.12	229.64	53.72	
2025-01-08 11:56:43.33	229.80	53.77	
2025-01-08 11:56:43.53	229.96	53.81	
2025-01-08 11:56:43.74	230.12	53.85	
2025-01-08 11:56:43.94	230.27	53.89	
2025-01-08 11:56:44.15	230.44	53.93	
2025-01-08 11:56:44.35	230.59	53.97	
2025-01-08 11:56:44.56	230.76	54.01	
2025-01-08 11:56:44.76	230.92	54.05	
2025-01-08 11:56:44.97	231.08	54.09	
2025-01-08 11:56:45.17	231.24	54.13	
2025-01-08 11:56:45.38	231.40	54.17	
2025-01-08 11:56:45.59	231.57	54.21	
2025-01-08 11:56:45.79	231.73	54.25	
2025-01-08 11:56:45.99	231.89	54.29	
2025-01-08 11:56:46.20	232.06	54.33	
2025-01-08 11:56:46.40	232.22	54.36	
2025-01-08 11:56:46.60	232.38	54.40	
2025-01-08 11:56:46.81	232.55	54.44	
2025-01-08 11:56:47.01	232.71	54.48	
2025-01-08 11:56:47.22	232.88	54.52	
2025-01-08 11:56:47.42	233.04	54.55	
2025-01-08 11:56:47.63	233.22	54.59	
2025-01-08 11:56:47.83	233.38	54.63	
2025-01-08 11:56:48.04	233.55	54.66	
2025-01-08 11:56:48.25	233.72	54.70	
2025-01-08 11:56:48.45	233.89	54.74	
2025-01-08 11:56:48.66	234.06	54.77	
2025-01-08 11:56:48.86	234.23	54.81	
2025-01-08 11:56:49.07	234.40	54.85	
2025-01-08 11:56:49.27	234.57	54.88	
2025-01-08 11:56:49.48	234.74	54.92	
2025-01-08 11:56:49.68	234.91	54.95	
2025-01-08 11:56:49.89	235.09	54.99	
2025-01-08 11:56:50.09	235.26	55.02	
2025-01-08 11:56:50.29	235.42	55.05	
2025-01-08 11:56:50.50	235.60	55.09	
2025-01-08 11:56:50.71	235.78	55.12	
2025-01-08 11:56:50.91	235.95	55.16	
2025-01-08 11:56:51.11	236.12	55.19	
2025-01-08 11:56:51.32	236.30	55.22	
2025-01-08 11:56:51.52	236.47	55.26	
2025-01-08 11:56:51.73	236.65	55.29	
2025-01-08 11:56:51.93	236.82	55.32	
2025-01-08 11:56:52.14	237.00	55.35	
2025-01-08 11:56:52.34	237.18	55.39	
2025-01-08 11:56:52.55	237.36	55.42	
2025-01-08 11:56:52.75	237.53	55.45	
2025-01-08 11:56:52.96	237.71	55.48	
2025-01-08 11:56:53.16	237.89	55.51	
2025-01-08 11:56:53.37	238.07	55.54	
2025-01-08 11:56:53.57	238.25	55.57	
2025-01-08 11:56:53.78	238.43	55.60	
2025-01-08 11:56:53.98	238.60	55.63	
2025-01-08 11:56:54.19	238.79	55.66	
2025-01-08 11:56:54.39	238.97	55.69	
2025-01-08 11:56:54.60	239.15	55.72	
2025-01-08 11:56:54.81	239.34	55.75	
2025-01-08 11:56:55.01	239.52	55.78	
2025-01-08 11:56:55.23	239.71	55.81	
2025-01-08 11:56:55.44	239.90	55.84	
2025-01-08 11:56:55.64	240.08	55.87	
2025-01-08 11:56:55.85	240.26	55.90	
2025-01-08 11:56:56.05	240.44	55.92	
