passes_logs/2025/01/08/SPB_Silybum_02/SPB_Silybum_02__20250108_103700_SUOMI_NPP_rec.log

#Pass ID: 20250108_103700_SUOMI NPP
#Satellite: SUOMI NPP
#Configuration: NPP
#Start time: 2025-01-08 10:36:58

#Version: 2.0.20230423
#Station: SPB_Silybum_02
#Location: 30.233357 lon 59.946436 lat
#TLE: 1 37849U 11061A   25007.80086614  .00000261  00000+0  14474-3 0  9998
#TLE: 2 37849  98.7439 308.8810 0001922  51.6815 308.4534 14.19534813683891

#Time	Az	El	Level	Level2	SNR	BER	Gain	Gain2
2025-01-08 10:37:00.93	169.29	4.03	
2025-01-08 10:37:01.13	169.29	4.05	
2025-01-08 10:37:01.34	169.29	4.06	
2025-01-08 10:37:01.54	169.30	4.08	
2025-01-08 10:37:01.75	169.30	4.09	
2025-01-08 10:37:01.96	169.31	4.11	
2025-01-08 10:37:02.16	169.31	4.12	
2025-01-08 10:37:02.38	169.31	4.13	
2025-01-08 10:37:02.59	169.32	4.15	
2025-01-08 10:37:02.79	169.32	4.16	
2025-01-08 10:37:03.00	169.32	4.18	
2025-01-08 10:37:03.21	169.33	4.19	
2025-01-08 10:37:03.41	169.33	4.21	
2025-01-08 10:37:03.61	169.34	4.22	
2025-01-08 10:37:03.82	169.34	4.23	
2025-01-08 10:37:04.02	169.34	4.25	
2025-01-08 10:37:04.23	169.35	4.26	
2025-01-08 10:37:04.45	169.35	4.28	
2025-01-08 10:37:04.65	169.36	4.29	
2025-01-08 10:37:04.86	169.36	4.31	
2025-01-08 10:37:05.06	169.36	4.32	
2025-01-08 10:37:05.27	169.37	4.33	
2025-01-08 10:37:05.47	169.37	4.35	
2025-01-08 10:37:05.68	169.38	4.36	
2025-01-08 10:37:05.88	169.38	4.38	
2025-01-08 10:37:06.09	169.38	4.39	
2025-01-08 10:37:06.29	169.39	4.41	
2025-01-08 10:37:06.50	169.39	4.42	
2025-01-08 10:37:06.70	169.40	4.43	
2025-01-08 10:37:06.91	169.40	4.45	
2025-01-08 10:37:07.12	169.40	4.46	
2025-01-08 10:37:07.32	169.41	4.48	
2025-01-08 10:37:07.53	169.41	4.49	
2025-01-08 10:37:07.73	169.42	4.51	
2025-01-08 10:37:07.94	169.42	4.52	
2025-01-08 10:37:08.14	169.42	4.53	
2025-01-08 10:37:08.35	169.43	4.55	
2025-01-08 10:37:08.55	169.43	4.56	
2025-01-08 10:37:08.75	169.44	4.58	
2025-01-08 10:37:08.96	169.44	4.59	
2025-01-08 10:37:09.17	169.44	4.61	
2025-01-08 10:37:09.37	169.45	4.62	
2025-01-08 10:37:09.58	169.45	4.64	
2025-01-08 10:37:09.78	169.46	4.65	
2025-01-08 10:37:09.99	169.46	4.66	
2025-01-08 10:37:10.19	169.46	4.68	
2025-01-08 10:37:10.40	169.47	4.69	
2025-01-08 10:37:10.61	169.47	4.71	
2025-01-08 10:37:10.82	169.48	4.72	
2025-01-08 10:37:11.03	169.48	4.74	
2025-01-08 10:37:11.24	169.48	4.75	
2025-01-08 10:37:11.44	169.49	4.77	
2025-01-08 10:37:11.65	169.49	4.78	
2025-01-08 10:37:11.85	169.50	4.80	
2025-01-08 10:37:12.06	169.50	4.81	
2025-01-08 10:37:12.26	169.50	4.82	
2025-01-08 10:37:12.47	169.51	4.84	
2025-01-08 10:37:12.67	169.51	4.85	
2025-01-08 10:37:12.88	169.52	4.87	
2025-01-08 10:37:13.08	169.52	4.88	
2025-01-08 10:37:13.29	169.53	4.90	
2025-01-08 10:37:13.49	169.53	4.91	
2025-01-08 10:37:13.70	169.53	4.93	
2025-01-08 10:37:13.91	169.54	4.94	
2025-01-08 10:37:14.11	169.54	4.96	
2025-01-08 10:37:14.32	169.55	4.97	
2025-01-08 10:37:14.52	169.55	4.98	
2025-01-08 10:37:14.73	169.55	5.00	
2025-01-08 10:37:14.93	169.56	5.01	
2025-01-08 10:37:15.14	169.56	5.03	
2025-01-08 10:37:15.34	169.57	5.04	
2025-01-08 10:37:15.55	169.57	5.06	
2025-01-08 10:37:15.76	169.57	5.07	
2025-01-08 10:37:15.96	169.58	5.09	
2025-01-08 10:37:16.17	169.58	5.10	
2025-01-08 10:37:16.37	169.59	5.12	
2025-01-08 10:37:16.58	169.59	5.13	
2025-01-08 10:37:16.78	169.60	5.15	
2025-01-08 10:37:16.98	169.60	5.16	
2025-01-08 10:37:17.19	169.60	5.18	
2025-01-08 10:37:17.39	169.61	5.19	
2025-01-08 10:37:17.60	169.61	5.20	
2025-01-08 10:37:17.80	169.62	5.22	
2025-01-08 10:37:18.01	169.62	5.23	
2025-01-08 10:37:18.22	169.62	5.25	
2025-01-08 10:37:18.42	169.63	5.26	
2025-01-08 10:37:18.62	169.63	5.28	
2025-01-08 10:37:18.83	169.64	5.29	
2025-01-08 10:37:19.04	169.64	5.31	
2025-01-08 10:37:19.24	169.64	5.32	
2025-01-08 10:37:19.46	169.65	5.34	
2025-01-08 10:37:19.67	169.65	5.35	
2025-01-08 10:37:19.87	169.66	5.37	
2025-01-08 10:37:20.08	169.66	5.38	
2025-01-08 10:37:20.28	169.67	5.40	
2025-01-08 10:37:20.49	169.67	5.41	
2025-01-08 10:37:20.69	169.67	5.43	
2025-01-08 10:37:20.90	169.68	5.44	
2025-01-08 10:37:21.11	169.68	5.46	
2025-01-08 10:37:21.31	169.69	5.47	
2025-01-08 10:37:21.51	169.69	5.49	
2025-01-08 10:37:21.72	169.70	5.50	
2025-01-08 10:37:21.93	169.70	5.52	
2025-01-08 10:37:22.13	169.70	5.53	
2025-01-08 10:37:22.34	169.71	5.55	
2025-01-08 10:37:22.54	169.71	5.56	
2025-01-08 10:37:22.75	169.72	5.58	
2025-01-08 10:37:22.96	169.72	5.59	
2025-01-08 10:37:23.16	169.73	5.61	
2025-01-08 10:37:23.37	169.73	5.62	
2025-01-08 10:37:23.57	169.73	5.64	
2025-01-08 10:37:23.77	169.74	5.65	
2025-01-08 10:37:23.98	169.74	5.67	
2025-01-08 10:37:24.19	169.75	5.68	
2025-01-08 10:37:24.39	169.75	5.70	
2025-01-08 10:37:24.60	169.76	5.71	
2025-01-08 10:37:24.80	169.76	5.73	
2025-01-08 10:37:25.01	169.76	5.74	
2025-01-08 10:37:25.22	169.77	5.76	
2025-01-08 10:37:25.42	169.77	5.77	
2025-01-08 10:37:25.63	169.78	5.79	
2025-01-08 10:37:25.83	169.78	5.80	
2025-01-08 10:37:26.04	169.79	5.82	
2025-01-08 10:37:26.24	169.79	5.83	
2025-01-08 10:37:26.45	169.79	5.85	
2025-01-08 10:37:26.66	169.80	5.86	
2025-01-08 10:37:26.86	169.80	5.88	
2025-01-08 10:37:27.07	169.81	5.89	
2025-01-08 10:37:27.27	169.81	5.91	
2025-01-08 10:37:27.48	169.82	5.92	
2025-01-08 10:37:27.68	169.82	5.94	
2025-01-08 10:37:27.89	169.82	5.95	
2025-01-08 10:37:28.09	169.83	5.97	
2025-01-08 10:37:28.30	169.83	5.98	
2025-01-08 10:37:28.51	169.84	6.00	
2025-01-08 10:37:28.71	169.84	6.01	
2025-01-08 10:37:28.92	169.85	6.03	
2025-01-08 10:37:29.12	169.85	6.04	
2025-01-08 10:37:29.33	169.85	6.06	
2025-01-08 10:37:29.53	169.86	6.07	
2025-01-08 10:37:29.74	169.86	6.09	
2025-01-08 10:37:29.94	169.87	6.10	
2025-01-08 10:37:30.15	169.87	6.12	
2025-01-08 10:37:30.35	169.88	6.14	
2025-01-08 10:37:30.56	169.88	6.15	
2025-01-08 10:37:30.76	169.89	6.17	
2025-01-08 10:37:30.97	169.89	6.18	
2025-01-08 10:37:31.19	169.89	6.20	
2025-01-08 10:37:31.39	169.90	6.21	
2025-01-08 10:37:31.60	169.90	6.23	
2025-01-08 10:37:31.80	169.91	6.24	
2025-01-08 10:37:32.01	169.91	6.26	
2025-01-08 10:37:32.22	169.92	6.27	
2025-01-08 10:37:32.43	169.92	6.29	
2025-01-08 10:37:32.64	169.93	6.31	
2025-01-08 10:37:32.84	169.93	6.32	
2025-01-08 10:37:33.05	169.93	6.34	
2025-01-08 10:37:33.25	169.94	6.35	
2025-01-08 10:37:33.46	169.94	6.37	
2025-01-08 10:37:33.66	169.95	6.38	
2025-01-08 10:37:33.87	169.95	6.40	
2025-01-08 10:37:34.07	169.96	6.41	
2025-01-08 10:37:34.28	169.96	6.43	
2025-01-08 10:37:34.48	169.97	6.44	
2025-01-08 10:37:34.69	169.97	6.46	
2025-01-08 10:37:34.89	169.97	6.47	
2025-01-08 10:37:35.10	169.98	6.49	
2025-01-08 10:37:35.31	169.98	6.51	
2025-01-08 10:37:35.51	169.99	6.52	
2025-01-08 10:37:35.71	169.99	6.54	
2025-01-08 10:37:35.92	170.00	6.55	
2025-01-08 10:37:36.13	170.00	6.57	
2025-01-08 10:37:36.33	170.01	6.58	
2025-01-08 10:37:36.53	170.01	6.60	
2025-01-08 10:37:36.74	170.02	6.61	
2025-01-08 10:37:36.95	170.02	6.63	
2025-01-08 10:37:37.15	170.02	6.65	
2025-01-08 10:37:37.36	170.03	6.66	
2025-01-08 10:37:37.57	170.03	6.68	
2025-01-08 10:37:37.77	170.04	6.69	
2025-01-08 10:37:37.98	170.04	6.71	
2025-01-08 10:37:38.18	170.05	6.72	
2025-01-08 10:37:38.39	170.05	6.74	
2025-01-08 10:37:38.59	170.06	6.75	
2025-01-08 10:37:38.80	170.06	6.77	
2025-01-08 10:37:39.00	170.07	6.79	
2025-01-08 10:37:39.21	170.07	6.80	
2025-01-08 10:37:39.41	170.07	6.82	
2025-01-08 10:37:39.61	170.08	6.83	
2025-01-08 10:37:39.82	170.08	6.85	
2025-01-08 10:37:40.02	170.09	6.86	
2025-01-08 10:37:40.23	170.09	6.88	
2025-01-08 10:37:40.44	170.10	6.90	
2025-01-08 10:37:40.64	170.10	6.91	
2025-01-08 10:37:40.86	170.11	6.93	
2025-01-08 10:37:41.07	170.11	6.94	
2025-01-08 10:37:41.27	170.12	6.96	
2025-01-08 10:37:41.48	170.12	6.98	
2025-01-08 10:37:41.68	170.13	6.99	
2025-01-08 10:37:41.89	170.13	7.01	
2025-01-08 10:37:42.09	170.13	7.02	
2025-01-08 10:37:42.30	170.14	7.04	
2025-01-08 10:37:42.50	170.14	7.05	
2025-01-08 10:37:42.70	170.15	7.07	
2025-01-08 10:37:42.91	170.15	7.09	
2025-01-08 10:37:43.11	170.16	7.10	
2025-01-08 10:37:43.32	170.16	7.12	
2025-01-08 10:37:43.53	170.17	7.13	
2025-01-08 10:37:43.73	170.17	7.15	
2025-01-08 10:37:43.94	170.18	7.17	
2025-01-08 10:37:44.14	170.18	7.18	
2025-01-08 10:37:44.35	170.19	7.20	
2025-01-08 10:37:44.55	170.19	7.21	
2025-01-08 10:37:44.76	170.19	7.23	
2025-01-08 10:37:44.96	170.20	7.24	
2025-01-08 10:37:45.17	170.20	7.26	
2025-01-08 10:37:45.37	170.21	7.28	
2025-01-08 10:37:45.58	170.21	7.29	
2025-01-08 10:37:45.78	170.22	7.31	
2025-01-08 10:37:45.99	170.22	7.32	
2025-01-08 10:37:46.19	170.23	7.34	
2025-01-08 10:37:46.41	170.23	7.36	
2025-01-08 10:37:46.61	170.24	7.37	
2025-01-08 10:37:46.82	170.24	7.39	
2025-01-08 10:37:47.02	170.25	7.40	
2025-01-08 10:37:47.23	170.25	7.42	
2025-01-08 10:37:47.43	170.26	7.44	
2025-01-08 10:37:47.64	170.26	7.45	
2025-01-08 10:37:47.85	170.27	7.47	
2025-01-08 10:37:48.05	170.27	7.48	
2025-01-08 10:37:48.26	170.28	7.50	
2025-01-08 10:37:48.46	170.28	7.52	
2025-01-08 10:37:48.67	170.28	7.53	
2025-01-08 10:37:48.87	170.29	7.55	
2025-01-08 10:37:49.08	170.29	7.57	
2025-01-08 10:37:49.28	170.30	7.58	
2025-01-08 10:37:49.49	170.30	7.60	
2025-01-08 10:37:49.69	170.31	7.61	
2025-01-08 10:37:49.90	170.31	7.63	
2025-01-08 10:37:50.10	170.32	7.65	
2025-01-08 10:37:50.31	170.32	7.66	
2025-01-08 10:37:50.51	170.33	7.68	
2025-01-08 10:37:50.72	170.33	7.69	
2025-01-08 10:37:50.92	170.34	7.71	
2025-01-08 10:37:51.13	170.34	7.73	
2025-01-08 10:37:51.34	170.35	7.74	
2025-01-08 10:37:51.54	170.35	7.76	
2025-01-08 10:37:51.75	170.36	7.78	
2025-01-08 10:37:51.95	170.36	7.79	
2025-01-08 10:37:52.16	170.37	7.81	
2025-01-08 10:37:52.36	170.37	7.82	
2025-01-08 10:37:52.57	170.38	7.84	
2025-01-08 10:37:52.77	170.38	7.86	
2025-01-08 10:37:52.98	170.39	7.87	
2025-01-08 10:37:53.18	170.39	7.89	
2025-01-08 10:37:53.39	170.40	7.91	
2025-01-08 10:37:53.59	170.40	7.92	
2025-01-08 10:37:53.80	170.41	7.94	
2025-01-08 10:37:54.00	170.41	7.95	
2025-01-08 10:37:54.21	170.42	7.97	
2025-01-08 10:37:54.41	170.42	7.99	
2025-01-08 10:37:54.62	170.42	8.00	
2025-01-08 10:37:54.82	170.43	8.02	
2025-01-08 10:37:55.03	170.43	8.04	
2025-01-08 10:37:55.24	170.44	8.05	
2025-01-08 10:37:55.44	170.44	8.07	
2025-01-08 10:37:55.65	170.45	8.09	
2025-01-08 10:37:55.86	170.45	8.10	
2025-01-08 10:37:56.07	170.46	8.12	
2025-01-08 10:37:56.27	170.46	8.14	
2025-01-08 10:37:56.48	170.47	8.15	
2025-01-08 10:37:56.68	170.47	8.17	
2025-01-08 10:37:56.88	170.48	8.19	
2025-01-08 10:37:57.09	170.48	8.20	
2025-01-08 10:37:57.30	170.49	8.22	
2025-01-08 10:37:57.50	170.49	8.24	
2025-01-08 10:37:57.71	170.50	8.25	
2025-01-08 10:37:57.92	170.50	8.27	
2025-01-08 10:37:58.13	170.51	8.29	
2025-01-08 10:37:58.33	170.51	8.30	
2025-01-08 10:37:58.54	170.52	8.32	
2025-01-08 10:37:58.74	170.52	8.34	
2025-01-08 10:37:58.95	170.53	8.35	
2025-01-08 10:37:59.15	170.53	8.37	
2025-01-08 10:37:59.36	170.54	8.39	
2025-01-08 10:37:59.57	170.54	8.40	
2025-01-08 10:37:59.77	170.55	8.42	
2025-01-08 10:37:59.98	170.55	8.44	
2025-01-08 10:38:00.18	170.56	8.45	
2025-01-08 10:38:00.39	170.56	8.47	
2025-01-08 10:38:00.59	170.57	8.49	
2025-01-08 10:38:00.80	170.57	8.50	
2025-01-08 10:38:01.00	170.58	8.52	
2025-01-08 10:38:01.21	170.58	8.54	
2025-01-08 10:38:01.41	170.59	8.55	
2025-01-08 10:38:01.62	170.60	8.57	
2025-01-08 10:38:01.83	170.60	8.59	
2025-01-08 10:38:02.03	170.61	8.60	
2025-01-08 10:38:02.24	170.61	8.62	
2025-01-08 10:38:02.44	170.62	8.64	
2025-01-08 10:38:02.65	170.62	8.65	
2025-01-08 10:38:02.85	170.63	8.67	
2025-01-08 10:38:03.06	170.63	8.69	
2025-01-08 10:38:03.26	170.64	8.70	
2025-01-08 10:38:03.47	170.64	8.72	
2025-01-08 10:38:03.67	170.65	8.74	
2025-01-08 10:38:03.88	170.65	8.75	
2025-01-08 10:38:04.09	170.66	8.77	
2025-01-08 10:38:04.29	170.66	8.79	
2025-01-08 10:38:04.50	170.67	8.81	
2025-01-08 10:38:04.70	170.67	8.82	
2025-01-08 10:38:04.91	170.68	8.84	
2025-01-08 10:38:05.11	170.68	8.86	
2025-01-08 10:38:05.32	170.69	8.87	
2025-01-08 10:38:05.52	170.69	8.89	
2025-01-08 10:38:05.73	170.70	8.91	
2025-01-08 10:38:05.93	170.70	8.92	
2025-01-08 10:38:06.14	170.71	8.94	
2025-01-08 10:38:06.35	170.71	8.96	
2025-01-08 10:38:06.55	170.72	8.98	
2025-01-08 10:38:06.76	170.72	8.99	
2025-01-08 10:38:06.96	170.73	9.01	
2025-01-08 10:38:07.17	170.73	9.03	
2025-01-08 10:38:07.37	170.74	9.04	
2025-01-08 10:38:07.58	170.74	9.06	
2025-01-08 10:38:07.79	170.75	9.08	
2025-01-08 10:38:07.99	170.76	9.10	
2025-01-08 10:38:08.19	170.76	9.11	
2025-01-08 10:38:08.40	170.77	9.13	
2025-01-08 10:38:08.62	170.77	9.15	
2025-01-08 10:38:08.82	170.78	9.16	
2025-01-08 10:38:09.03	170.78	9.18	
2025-01-08 10:38:09.23	170.79	9.20	
2025-01-08 10:38:09.44	170.79	9.22	
2025-01-08 10:38:09.64	170.80	9.23	
2025-01-08 10:38:09.85	170.80	9.25	
2025-01-08 10:38:10.05	170.81	9.27	
2025-01-08 10:38:10.26	170.81	9.29	
2025-01-08 10:38:10.46	170.82	9.30	
2025-01-08 10:38:10.68	170.82	9.32	
2025-01-08 10:38:10.89	170.83	9.34	
2025-01-08 10:38:11.09	170.83	9.35	
2025-01-08 10:38:11.30	170.84	9.37	
2025-01-08 10:38:11.50	170.85	9.39	
2025-01-08 10:38:11.71	170.85	9.41	
2025-01-08 10:38:11.91	170.86	9.42	
2025-01-08 10:38:12.12	170.86	9.44	
2025-01-08 10:38:12.32	170.87	9.46	
2025-01-08 10:38:12.53	170.87	9.48	
2025-01-08 10:38:12.73	170.88	9.49	
2025-01-08 10:38:12.93	170.88	9.51	
2025-01-08 10:38:13.14	170.89	9.53	
2025-01-08 10:38:13.35	170.89	9.55	
2025-01-08 10:38:13.55	170.90	9.56	
2025-01-08 10:38:13.76	170.90	9.58	
2025-01-08 10:38:13.97	170.91	9.60	
2025-01-08 10:38:14.18	170.92	9.62	
2025-01-08 10:38:14.39	170.92	9.63	
2025-01-08 10:38:14.59	170.93	9.65	
2025-01-08 10:38:14.80	170.93	9.67	
2025-01-08 10:38:15.00	170.94	9.69	
2025-01-08 10:38:15.21	170.94	9.70	
2025-01-08 10:38:15.41	170.95	9.72	
2025-01-08 10:38:15.62	170.95	9.74	
2025-01-08 10:38:15.83	170.96	9.76	
2025-01-08 10:38:16.03	170.96	9.77	
2025-01-08 10:38:16.24	170.97	9.79	
2025-01-08 10:38:16.44	170.98	9.81	
2025-01-08 10:38:16.65	170.98	9.83	
2025-01-08 10:38:16.85	170.99	9.84	
2025-01-08 10:38:17.06	170.99	9.86	
2025-01-08 10:38:17.26	171.00	9.88	
2025-01-08 10:38:17.47	171.00	9.90	
2025-01-08 10:38:17.67	171.01	9.92	
2025-01-08 10:38:17.88	171.01	9.93	
2025-01-08 10:38:18.09	171.02	9.95	
2025-01-08 10:38:18.29	171.02	9.97	
2025-01-08 10:38:18.49	171.03	9.99	
2025-01-08 10:38:18.70	171.04	10.00	
2025-01-08 10:38:18.91	171.04	10.02	
2025-01-08 10:38:19.11	171.05	10.04	
2025-01-08 10:38:19.32	171.05	10.06	
2025-01-08 10:38:19.52	171.06	10.08	
2025-01-08 10:38:19.73	171.06	10.09	
2025-01-08 10:38:19.93	171.07	10.11	
2025-01-08 10:38:20.14	171.07	10.13	
2025-01-08 10:38:20.36	171.08	10.15	
2025-01-08 10:38:20.56	171.09	10.17	
2025-01-08 10:38:20.77	171.09	10.18	
2025-01-08 10:38:20.98	171.10	10.20	
2025-01-08 10:38:21.18	171.10	10.22	
2025-01-08 10:38:21.40	171.11	10.24	
2025-01-08 10:38:21.61	171.11	10.26	
2025-01-08 10:38:21.81	171.12	10.27	
2025-01-08 10:38:22.02	171.13	10.29	
2025-01-08 10:38:22.22	171.13	10.31	
2025-01-08 10:38:22.43	171.14	10.33	
2025-01-08 10:38:22.63	171.14	10.35	
2025-01-08 10:38:22.84	171.15	10.36	
2025-01-08 10:38:23.04	171.15	10.38	
2025-01-08 10:38:23.25	171.16	10.40	
2025-01-08 10:38:23.45	171.17	10.42	
2025-01-08 10:38:23.66	171.17	10.44	
2025-01-08 10:38:23.86	171.18	10.45	
2025-01-08 10:38:24.07	171.18	10.47	
2025-01-08 10:38:24.27	171.19	10.49	
2025-01-08 10:38:24.48	171.19	10.51	
2025-01-08 10:38:24.68	171.20	10.53	
2025-01-08 10:38:24.89	171.21	10.55	
2025-01-08 10:38:25.09	171.21	10.56	
2025-01-08 10:38:25.30	171.22	10.58	
2025-01-08 10:38:25.50	171.22	10.60	
2025-01-08 10:38:25.71	171.23	10.62	
2025-01-08 10:38:25.91	171.23	10.64	
2025-01-08 10:38:26.12	171.24	10.65	
2025-01-08 10:38:26.32	171.25	10.67	
2025-01-08 10:38:26.53	171.25	10.69	
2025-01-08 10:38:26.75	171.26	10.71	
2025-01-08 10:38:26.95	171.26	10.73	
2025-01-08 10:38:27.16	171.27	10.75	
2025-01-08 10:38:27.36	171.27	10.76	
2025-01-08 10:38:27.57	171.28	10.78	
2025-01-08 10:38:27.77	171.29	10.80	
2025-01-08 10:38:27.98	171.29	10.82	
2025-01-08 10:38:28.19	171.30	10.84	
2025-01-08 10:38:28.39	171.30	10.86	
2025-01-08 10:38:28.59	171.31	10.87	
2025-01-08 10:38:28.80	171.32	10.89	
2025-01-08 10:38:29.00	171.32	10.91	
2025-01-08 10:38:29.21	171.33	10.93	
2025-01-08 10:38:29.41	171.33	10.95	
2025-01-08 10:38:29.62	171.34	10.97	
2025-01-08 10:38:29.82	171.34	10.98	
2025-01-08 10:38:30.03	171.35	11.00	
2025-01-08 10:38:30.23	171.36	11.02	
2025-01-08 10:38:30.44	171.36	11.04	
2025-01-08 10:38:30.65	171.37	11.06	
2025-01-08 10:38:30.85	171.37	11.08	
2025-01-08 10:38:31.05	171.38	11.10	
2025-01-08 10:38:31.26	171.39	11.11	
2025-01-08 10:38:31.46	171.39	11.13	
2025-01-08 10:38:31.67	171.40	11.15	
2025-01-08 10:38:31.88	171.40	11.17	
2025-01-08 10:38:32.08	171.41	11.19	
2025-01-08 10:38:32.28	171.42	11.21	
2025-01-08 10:38:32.49	171.42	11.23	
2025-01-08 10:38:32.70	171.43	11.24	
2025-01-08 10:38:32.90	171.43	11.26	
2025-01-08 10:38:33.11	171.44	11.28	
2025-01-08 10:38:33.31	171.45	11.30	
2025-01-08 10:38:33.52	171.45	11.32	
2025-01-08 10:38:33.72	171.46	11.34	
2025-01-08 10:38:33.93	171.46	11.36	
2025-01-08 10:38:34.14	171.47	11.38	
2025-01-08 10:38:34.34	171.48	11.39	
2025-01-08 10:38:34.55	171.48	11.41	
2025-01-08 10:38:34.75	171.49	11.43	
2025-01-08 10:38:34.96	171.49	11.45	
2025-01-08 10:38:35.16	171.50	11.47	
2025-01-08 10:38:35.37	171.51	11.49	
2025-01-08 10:38:35.57	171.51	11.51	
2025-01-08 10:38:35.78	171.52	11.53	
2025-01-08 10:38:35.99	171.52	11.55	
2025-01-08 10:38:36.19	171.53	11.56	
2025-01-08 10:38:36.39	171.54	11.58	
2025-01-08 10:38:36.60	171.54	11.60	
2025-01-08 10:38:36.80	171.55	11.62	
2025-01-08 10:38:37.01	171.55	11.64	
2025-01-08 10:38:37.22	171.56	11.66	
2025-01-08 10:38:37.42	171.57	11.68	
2025-01-08 10:38:37.62	171.57	11.70	
2025-01-08 10:38:37.83	171.58	11.72	
2025-01-08 10:38:38.03	171.58	11.73	
2025-01-08 10:38:38.24	171.59	11.75	
2025-01-08 10:38:38.44	171.60	11.77	
2025-01-08 10:38:38.65	171.60	11.79	
2025-01-08 10:38:38.85	171.61	11.81	
2025-01-08 10:38:39.06	171.62	11.83	
2025-01-08 10:38:39.27	171.62	11.85	
2025-01-08 10:38:39.47	171.63	11.87	
2025-01-08 10:38:39.68	171.63	11.89	
2025-01-08 10:38:39.88	171.64	11.91	
2025-01-08 10:38:40.09	171.65	11.93	
2025-01-08 10:38:40.29	171.65	11.94	
2025-01-08 10:38:40.50	171.66	11.96	
2025-01-08 10:38:40.70	171.67	11.98	
2025-01-08 10:38:40.91	171.67	12.00	
2025-01-08 10:38:41.12	171.68	12.02	
2025-01-08 10:38:41.32	171.68	12.04	
2025-01-08 10:38:41.53	171.69	12.06	
2025-01-08 10:38:41.73	171.70	12.08	
2025-01-08 10:38:41.93	171.70	12.10	
2025-01-08 10:38:42.14	171.71	12.12	
2025-01-08 10:38:42.35	171.72	12.14	
2025-01-08 10:38:42.55	171.72	12.16	
2025-01-08 10:38:42.75	171.73	12.18	
2025-01-08 10:38:42.96	171.73	12.20	
2025-01-08 10:38:43.16	171.74	12.21	
2025-01-08 10:38:43.37	171.75	12.23	
2025-01-08 10:38:43.57	171.75	12.25	
2025-01-08 10:38:43.78	171.76	12.27	
2025-01-08 10:38:43.98	171.77	12.29	
2025-01-08 10:38:44.19	171.77	12.31	
2025-01-08 10:38:44.39	171.78	12.33	
2025-01-08 10:38:44.60	171.79	12.35	
2025-01-08 10:38:44.81	171.79	12.37	
2025-01-08 10:38:45.02	171.80	12.39	
2025-01-08 10:38:45.23	171.81	12.41	
2025-01-08 10:38:45.43	171.81	12.43	
2025-01-08 10:38:45.64	171.82	12.45	
2025-01-08 10:38:45.85	171.82	12.47	
2025-01-08 10:38:46.05	171.83	12.49	
2025-01-08 10:38:46.26	171.84	12.51	
2025-01-08 10:38:46.46	171.84	12.53	
2025-01-08 10:38:46.67	171.85	12.55	
2025-01-08 10:38:46.88	171.86	12.57	
2025-01-08 10:38:47.09	171.86	12.59	
2025-01-08 10:38:47.29	171.87	12.61	
2025-01-08 10:38:47.50	171.88	12.63	
2025-01-08 10:38:47.70	171.88	12.65	
2025-01-08 10:38:47.91	171.89	12.67	
2025-01-08 10:38:48.11	171.90	12.69	
2025-01-08 10:38:48.32	171.90	12.71	
2025-01-08 10:38:48.52	171.91	12.73	
2025-01-08 10:38:48.73	171.92	12.75	
2025-01-08 10:38:48.93	171.92	12.77	
2025-01-08 10:38:49.14	171.93	12.79	
2025-01-08 10:38:49.34	171.93	12.80	
2025-01-08 10:38:49.55	171.94	12.83	
2025-01-08 10:38:49.75	171.95	12.84	
2025-01-08 10:38:49.96	171.95	12.86	
2025-01-08 10:38:50.16	171.96	12.88	
2025-01-08 10:38:50.38	171.97	12.91	
2025-01-08 10:38:50.59	171.97	12.93	
2025-01-08 10:38:50.79	171.98	12.95	
2025-01-08 10:38:51.00	171.99	12.97	
2025-01-08 10:38:51.21	171.99	12.99	
2025-01-08 10:38:51.42	172.00	13.01	
2025-01-08 10:38:51.63	172.01	13.03	
2025-01-08 10:38:51.83	172.01	13.05	
2025-01-08 10:38:52.04	172.02	13.07	
2025-01-08 10:38:52.24	172.03	13.09	
2025-01-08 10:38:52.45	172.04	13.11	
2025-01-08 10:38:52.65	172.04	13.13	
2025-01-08 10:38:52.86	172.05	13.15	
2025-01-08 10:38:53.06	172.06	13.17	
2025-01-08 10:38:53.27	172.06	13.19	
2025-01-08 10:38:53.47	172.07	13.21	
2025-01-08 10:38:53.68	172.08	13.23	
2025-01-08 10:38:53.89	172.08	13.25	
2025-01-08 10:38:54.09	172.09	13.27	
2025-01-08 10:38:54.30	172.10	13.29	
2025-01-08 10:38:54.50	172.10	13.31	
2025-01-08 10:38:54.71	172.11	13.33	
2025-01-08 10:38:54.91	172.12	13.35	
2025-01-08 10:38:55.12	172.12	13.37	
2025-01-08 10:38:55.32	172.13	13.39	
2025-01-08 10:38:55.53	172.14	13.41	
2025-01-08 10:38:55.75	172.14	13.43	
2025-01-08 10:38:55.96	172.15	13.45	
2025-01-08 10:38:56.16	172.16	13.47	
2025-01-08 10:38:56.37	172.16	13.49	
2025-01-08 10:38:56.57	172.17	13.51	
2025-01-08 10:38:56.78	172.18	13.54	
2025-01-08 10:38:56.98	172.18	13.56	
2025-01-08 10:38:57.19	172.19	13.58	
2025-01-08 10:38:57.39	172.20	13.60	
2025-01-08 10:38:57.60	172.21	13.62	
2025-01-08 10:38:57.82	172.21	13.64	
2025-01-08 10:38:58.02	172.22	13.66	
2025-01-08 10:38:58.23	172.23	13.68	
2025-01-08 10:38:58.43	172.23	13.70	
2025-01-08 10:38:58.64	172.24	13.72	
2025-01-08 10:38:58.85	172.25	13.74	
2025-01-08 10:38:59.05	172.25	13.76	
2025-01-08 10:38:59.26	172.26	13.78	
2025-01-08 10:38:59.46	172.27	13.80	
2025-01-08 10:38:59.67	172.28	13.83	
2025-01-08 10:38:59.88	172.28	13.85	
2025-01-08 10:39:00.09	172.29	13.87	
2025-01-08 10:39:00.29	172.30	13.89	
2025-01-08 10:39:00.50	172.30	13.91	
2025-01-08 10:39:00.71	172.31	13.93	
2025-01-08 10:39:00.91	172.32	13.95	
2025-01-08 10:39:01.11	172.32	13.97	
2025-01-08 10:39:01.32	172.33	13.99	
2025-01-08 10:39:01.53	172.34	14.01	
2025-01-08 10:39:01.73	172.35	14.03	
2025-01-08 10:39:01.94	172.35	14.05	
2025-01-08 10:39:02.14	172.36	14.08	
2025-01-08 10:39:02.35	172.37	14.10	
2025-01-08 10:39:02.55	172.37	14.12	
2025-01-08 10:39:02.76	172.38	14.14	
2025-01-08 10:39:02.96	172.39	14.16	
2025-01-08 10:39:03.18	172.40	14.18	
2025-01-08 10:39:03.39	172.40	14.20	
2025-01-08 10:39:03.59	172.41	14.22	
2025-01-08 10:39:03.80	172.42	14.25	
2025-01-08 10:39:04.00	172.42	14.27	
2025-01-08 10:39:04.21	172.43	14.29	
2025-01-08 10:39:04.41	172.44	14.31	
2025-01-08 10:39:04.62	172.45	14.33	
2025-01-08 10:39:04.83	172.45	14.35	
2025-01-08 10:39:05.03	172.46	14.37	
2025-01-08 10:39:05.24	172.47	14.39	
2025-01-08 10:39:05.44	172.48	14.41	
2025-01-08 10:39:05.65	172.48	14.44	
2025-01-08 10:39:05.85	172.49	14.46	
2025-01-08 10:39:06.06	172.50	14.48	
2025-01-08 10:39:06.26	172.50	14.50	
2025-01-08 10:39:06.47	172.51	14.52	
2025-01-08 10:39:06.67	172.52	14.54	
2025-01-08 10:39:06.88	172.53	14.56	
2025-01-08 10:39:07.08	172.53	14.58	
2025-01-08 10:39:07.29	172.54	14.61	
2025-01-08 10:39:07.50	172.55	14.63	
2025-01-08 10:39:07.70	172.56	14.65	
2025-01-08 10:39:07.91	172.56	14.67	
2025-01-08 10:39:08.11	172.57	14.69	
2025-01-08 10:39:08.32	172.58	14.71	
2025-01-08 10:39:08.52	172.58	14.73	
2025-01-08 10:39:08.73	172.59	14.76	
2025-01-08 10:39:08.93	172.60	14.78	
2025-01-08 10:39:09.14	172.61	14.80	
2025-01-08 10:39:09.35	172.61	14.82	
2025-01-08 10:39:09.55	172.62	14.84	
2025-01-08 10:39:09.75	172.63	14.86	
2025-01-08 10:39:09.96	172.64	14.88	
2025-01-08 10:39:10.17	172.64	14.91	
2025-01-08 10:39:10.37	172.65	14.93	
2025-01-08 10:39:10.58	172.66	14.95	
2025-01-08 10:39:10.78	172.67	14.97	
2025-01-08 10:39:10.98	172.67	14.99	
2025-01-08 10:39:11.19	172.68	15.01	
2025-01-08 10:39:11.39	172.69	15.04	
2025-01-08 10:39:11.61	172.70	15.06	
2025-01-08 10:39:11.82	172.70	15.08	
2025-01-08 10:39:12.02	172.71	15.10	
2025-01-08 10:39:12.23	172.72	15.13	
2025-01-08 10:39:12.44	172.73	15.15	
2025-01-08 10:39:12.64	172.73	15.17	
2025-01-08 10:39:12.84	172.74	15.19	
2025-01-08 10:39:13.05	172.75	15.21	
2025-01-08 10:39:13.26	172.76	15.23	
2025-01-08 10:39:13.46	172.77	15.26	
2025-01-08 10:39:13.66	172.77	15.28	
2025-01-08 10:39:13.87	172.78	15.30	
2025-01-08 10:39:14.08	172.79	15.32	
2025-01-08 10:39:14.28	172.80	15.34	
2025-01-08 10:39:14.48	172.80	15.37	
2025-01-08 10:39:14.69	172.81	15.39	
2025-01-08 10:39:14.91	172.82	15.41	
2025-01-08 10:39:15.11	172.83	15.43	
2025-01-08 10:39:15.32	172.83	15.46	
2025-01-08 10:39:15.52	172.84	15.48	
2025-01-08 10:39:15.73	172.85	15.50	
2025-01-08 10:39:15.93	172.86	15.52	
2025-01-08 10:39:16.14	172.87	15.54	
2025-01-08 10:39:16.35	172.87	15.57	
2025-01-08 10:39:16.55	172.88	15.59	
2025-01-08 10:39:16.76	172.89	15.61	
2025-01-08 10:39:16.96	172.90	15.63	
2025-01-08 10:39:17.17	172.90	15.66	
2025-01-08 10:39:17.37	172.91	15.68	
2025-01-08 10:39:17.58	172.92	15.70	
2025-01-08 10:39:17.79	172.93	15.72	
2025-01-08 10:39:17.99	172.94	15.74	
2025-01-08 10:39:18.20	172.94	15.77	
2025-01-08 10:39:18.40	172.95	15.79	
2025-01-08 10:39:18.61	172.96	15.81	
2025-01-08 10:39:18.81	172.97	15.83	
2025-01-08 10:39:19.02	172.98	15.86	
2025-01-08 10:39:19.22	172.98	15.88	
2025-01-08 10:39:19.43	172.99	15.90	
2025-01-08 10:39:19.63	173.00	15.92	
2025-01-08 10:39:19.84	173.01	15.95	
2025-01-08 10:39:20.05	173.02	15.97	
2025-01-08 10:39:20.25	173.02	15.99	
2025-01-08 10:39:20.45	173.03	16.01	
2025-01-08 10:39:20.66	173.04	16.04	
2025-01-08 10:39:20.87	173.05	16.06	
2025-01-08 10:39:21.07	173.06	16.08	
2025-01-08 10:39:21.27	173.06	16.10	
2025-01-08 10:39:21.48	173.07	16.13	
2025-01-08 10:39:21.69	173.08	16.15	
2025-01-08 10:39:21.89	173.09	16.17	
2025-01-08 10:39:22.10	173.10	16.20	
2025-01-08 10:39:22.30	173.10	16.22	
2025-01-08 10:39:22.51	173.11	16.24	
2025-01-08 10:39:22.72	173.12	16.27	
2025-01-08 10:39:22.92	173.13	16.29	
2025-01-08 10:39:23.13	173.14	16.31	
2025-01-08 10:39:23.33	173.14	16.33	
2025-01-08 10:39:23.54	173.15	16.36	
2025-01-08 10:39:23.74	173.16	16.38	
2025-01-08 10:39:23.95	173.17	16.40	
2025-01-08 10:39:24.16	173.18	16.43	
2025-01-08 10:39:24.36	173.18	16.45	
2025-01-08 10:39:24.57	173.19	16.47	
2025-01-08 10:39:24.77	173.20	16.49	
2025-01-08 10:39:24.98	173.21	16.52	
2025-01-08 10:39:25.18	173.22	16.54	
2025-01-08 10:39:25.39	173.23	16.56	
2025-01-08 10:39:25.59	173.23	16.59	
2025-01-08 10:39:25.80	173.24	16.61	
2025-01-08 10:39:26.01	173.25	16.63	
2025-01-08 10:39:26.21	173.26	16.66	
2025-01-08 10:39:26.42	173.27	16.68	
2025-01-08 10:39:26.62	173.28	16.70	
2025-01-08 10:39:26.82	173.28	16.73	
2025-01-08 10:39:27.03	173.29	16.75	
2025-01-08 10:39:27.24	173.30	16.77	
2025-01-08 10:39:27.44	173.31	16.80	
2025-01-08 10:39:27.64	173.32	16.82	
2025-01-08 10:39:27.85	173.33	16.84	
2025-01-08 10:39:28.05	173.33	16.87	
2025-01-08 10:39:28.26	173.34	16.89	
2025-01-08 10:39:28.47	173.35	16.91	
2025-01-08 10:39:28.67	173.36	16.94	
2025-01-08 10:39:28.89	173.37	16.96	
2025-01-08 10:39:29.09	173.38	16.98	
2025-01-08 10:39:29.30	173.39	17.01	
2025-01-08 10:39:29.51	173.39	17.03	
2025-01-08 10:39:29.71	173.40	17.06	
2025-01-08 10:39:29.92	173.41	17.08	
2025-01-08 10:39:30.12	173.42	17.10	
2025-01-08 10:39:30.33	173.43	17.13	
2025-01-08 10:39:30.53	173.44	17.15	
2025-01-08 10:39:30.74	173.45	17.17	
2025-01-08 10:39:30.94	173.45	17.20	
2025-01-08 10:39:31.15	173.46	17.22	
2025-01-08 10:39:31.35	173.47	17.24	
2025-01-08 10:39:31.56	173.48	17.27	
2025-01-08 10:39:31.76	173.49	17.29	
2025-01-08 10:39:31.97	173.50	17.32	
2025-01-08 10:39:32.17	173.51	17.34	
2025-01-08 10:39:32.38	173.51	17.36	
2025-01-08 10:39:32.58	173.52	17.39	
2025-01-08 10:39:32.79	173.53	17.41	
2025-01-08 10:39:32.99	173.54	17.44	
2025-01-08 10:39:33.20	173.55	17.46	
2025-01-08 10:39:33.41	173.56	17.48	
2025-01-08 10:39:33.61	173.57	17.51	
2025-01-08 10:39:33.82	173.58	17.53	
2025-01-08 10:39:34.02	173.58	17.56	
2025-01-08 10:39:34.23	173.59	17.58	
2025-01-08 10:39:34.43	173.60	17.60	
2025-01-08 10:39:34.64	173.61	17.63	
2025-01-08 10:39:34.85	173.62	17.65	
2025-01-08 10:39:35.05	173.63	17.68	
2025-01-08 10:39:35.26	173.64	17.70	
2025-01-08 10:39:35.46	173.65	17.73	
2025-01-08 10:39:35.67	173.65	17.75	
2025-01-08 10:39:35.88	173.66	17.77	
2025-01-08 10:39:36.09	173.67	17.80	
2025-01-08 10:39:36.29	173.68	17.82	
2025-01-08 10:39:36.50	173.69	17.85	
2025-01-08 10:39:36.71	173.70	17.87	
2025-01-08 10:39:36.91	173.71	17.90	
2025-01-08 10:39:37.12	173.72	17.92	
2025-01-08 10:39:37.32	173.73	17.95	
2025-01-08 10:39:37.53	173.74	17.97	
2025-01-08 10:39:37.73	173.74	17.99	
2025-01-08 10:39:37.94	173.75	18.02	
2025-01-08 10:39:38.14	173.76	18.04	
2025-01-08 10:39:38.35	173.77	18.07	
2025-01-08 10:39:38.55	173.78	18.09	
2025-01-08 10:39:38.76	173.79	18.12	
2025-01-08 10:39:38.96	173.80	18.14	
2025-01-08 10:39:39.17	173.81	18.17	
2025-01-08 10:39:39.37	173.82	18.19	
2025-01-08 10:39:39.58	173.83	18.22	
2025-01-08 10:39:39.78	173.83	18.24	
2025-01-08 10:39:39.99	173.84	18.27	
2025-01-08 10:39:40.19	173.85	18.29	
2025-01-08 10:39:40.40	173.86	18.31	
2025-01-08 10:39:40.60	173.87	18.34	
2025-01-08 10:39:40.81	173.88	18.36	
2025-01-08 10:39:41.02	173.89	18.39	
2025-01-08 10:39:41.22	173.90	18.41	
2025-01-08 10:39:41.43	173.91	18.44	
2025-01-08 10:39:41.63	173.92	18.46	
2025-01-08 10:39:41.83	173.93	18.49	
2025-01-08 10:39:42.04	173.94	18.51	
2025-01-08 10:39:42.25	173.95	18.54	
2025-01-08 10:39:42.45	173.96	18.56	
2025-01-08 10:39:42.67	173.97	18.59	
2025-01-08 10:39:42.87	173.97	18.61	
2025-01-08 10:39:43.08	173.98	18.64	
2025-01-08 10:39:43.28	173.99	18.66	
2025-01-08 10:39:43.49	174.00	18.69	
2025-01-08 10:39:43.69	174.01	18.71	
2025-01-08 10:39:43.90	174.02	18.74	
2025-01-08 10:39:44.11	174.03	18.77	
2025-01-08 10:39:44.31	174.04	18.79	
2025-01-08 10:39:44.52	174.05	18.82	
2025-01-08 10:39:44.72	174.06	18.84	
2025-01-08 10:39:44.93	174.07	18.87	
2025-01-08 10:39:45.14	174.08	18.89	
2025-01-08 10:39:45.34	174.09	18.92	
2025-01-08 10:39:45.55	174.10	18.94	
2025-01-08 10:39:45.75	174.11	18.97	
2025-01-08 10:39:45.96	174.12	18.99	
2025-01-08 10:39:46.16	174.13	19.02	
2025-01-08 10:39:46.37	174.14	19.05	
2025-01-08 10:39:46.58	174.15	19.07	
2025-01-08 10:39:46.78	174.15	19.10	
2025-01-08 10:39:47.00	174.17	19.12	
2025-01-08 10:39:47.21	174.18	19.15	
2025-01-08 10:39:47.41	174.18	19.18	
2025-01-08 10:39:47.62	174.19	19.20	
2025-01-08 10:39:47.82	174.20	19.23	
2025-01-08 10:39:48.04	174.21	19.25	
2025-01-08 10:39:48.25	174.22	19.28	
2025-01-08 10:39:48.45	174.23	19.31	
2025-01-08 10:39:48.66	174.24	19.33	
2025-01-08 10:39:48.86	174.25	19.36	
2025-01-08 10:39:49.07	174.26	19.38	
2025-01-08 10:39:49.27	174.27	19.41	
2025-01-08 10:39:49.48	174.28	19.44	
2025-01-08 10:39:49.68	174.29	19.46	
2025-01-08 10:39:49.89	174.30	19.49	
2025-01-08 10:39:50.11	174.31	19.52	
2025-01-08 10:39:50.31	174.32	19.54	
2025-01-08 10:39:50.52	174.33	19.57	
2025-01-08 10:39:50.72	174.34	19.59	
2025-01-08 10:39:50.93	174.35	19.62	
2025-01-08 10:39:51.13	174.36	19.64	
2025-01-08 10:39:51.34	174.37	19.67	
2025-01-08 10:39:51.54	174.38	19.70	
2025-01-08 10:39:51.75	174.39	19.72	
2025-01-08 10:39:51.96	174.40	19.75	
2025-01-08 10:39:52.16	174.41	19.78	
2025-01-08 10:39:52.37	174.42	19.80	
2025-01-08 10:39:52.57	174.43	19.83	
2025-01-08 10:39:52.78	174.44	19.86	
2025-01-08 10:39:52.98	174.45	19.88	
2025-01-08 10:39:53.19	174.46	19.91	
2025-01-08 10:39:53.39	174.47	19.93	
2025-01-08 10:39:53.60	174.48	19.96	
2025-01-08 10:39:53.80	174.49	19.99	
2025-01-08 10:39:54.01	174.50	20.01	
2025-01-08 10:39:54.21	174.51	20.04	
2025-01-08 10:39:54.42	174.52	20.07	
2025-01-08 10:39:54.63	174.53	20.09	
2025-01-08 10:39:54.83	174.54	20.12	
2025-01-08 10:39:55.04	174.55	20.15	
2025-01-08 10:39:55.24	174.56	20.17	
2025-01-08 10:39:55.45	174.58	20.20	
2025-01-08 10:39:55.65	174.59	20.23	
2025-01-08 10:39:55.86	174.60	20.25	
2025-01-08 10:39:56.07	174.61	20.28	
2025-01-08 10:39:56.27	174.62	20.31	
2025-01-08 10:39:56.49	174.63	20.34	
2025-01-08 10:39:56.69	174.64	20.36	
2025-01-08 10:39:56.90	174.65	20.39	
2025-01-08 10:39:57.12	174.66	20.42	
2025-01-08 10:39:57.32	174.67	20.44	
2025-01-08 10:39:57.52	174.68	20.47	
2025-01-08 10:39:57.73	174.69	20.50	
2025-01-08 10:39:57.94	174.70	20.53	
2025-01-08 10:39:58.14	174.71	20.55	
2025-01-08 10:39:58.35	174.72	20.58	
2025-01-08 10:39:58.55	174.73	20.61	
2025-01-08 10:39:58.76	174.74	20.63	
2025-01-08 10:39:58.96	174.75	20.66	
2025-01-08 10:39:59.17	174.76	20.69	
2025-01-08 10:39:59.37	174.78	20.71	
2025-01-08 10:39:59.58	174.79	20.74	
2025-01-08 10:39:59.78	174.80	20.77	
2025-01-08 10:39:59.99	174.81	20.80	
2025-01-08 10:40:00.19	174.82	20.82	
2025-01-08 10:40:00.40	174.83	20.85	
2025-01-08 10:40:00.60	174.84	20.88	
2025-01-08 10:40:00.81	174.85	20.91	
2025-01-08 10:40:01.01	174.86	20.93	
2025-01-08 10:40:01.22	174.87	20.96	
2025-01-08 10:40:01.42	174.88	20.99	
2025-01-08 10:40:01.63	174.89	21.02	
2025-01-08 10:40:01.85	174.90	21.05	
2025-01-08 10:40:02.05	174.92	21.07	
2025-01-08 10:40:02.26	174.93	21.10	
2025-01-08 10:40:02.47	174.94	21.13	
2025-01-08 10:40:02.67	174.95	21.16	
2025-01-08 10:40:02.88	174.96	21.18	
2025-01-08 10:40:03.08	174.97	21.21	
2025-01-08 10:40:03.29	174.98	21.24	
2025-01-08 10:40:03.49	174.99	21.27	
2025-01-08 10:40:03.70	175.00	21.30	
2025-01-08 10:40:03.90	175.01	21.32	
2025-01-08 10:40:04.11	175.03	21.35	
2025-01-08 10:40:04.31	175.04	21.38	
2025-01-08 10:40:04.52	175.05	21.41	
2025-01-08 10:40:04.72	175.06	21.43	
2025-01-08 10:40:04.93	175.07	21.46	
2025-01-08 10:40:05.13	175.08	21.49	
2025-01-08 10:40:05.34	175.09	21.52	
2025-01-08 10:40:05.55	175.10	21.55	
2025-01-08 10:40:05.75	175.11	21.58	
2025-01-08 10:40:05.96	175.13	21.60	
2025-01-08 10:40:06.18	175.14	21.63	
2025-01-08 10:40:06.38	175.15	21.66	
2025-01-08 10:40:06.58	175.16	21.69	
2025-01-08 10:40:06.79	175.17	21.72	
2025-01-08 10:40:06.99	175.18	21.75	
2025-01-08 10:40:07.21	175.19	21.78	
2025-01-08 10:40:07.42	175.21	21.81	
2025-01-08 10:40:07.62	175.22	21.83	
2025-01-08 10:40:07.83	175.23	21.86	
2025-01-08 10:40:08.04	175.24	21.89	
2025-01-08 10:40:08.24	175.25	21.92	
2025-01-08 10:40:08.45	175.26	21.95	
2025-01-08 10:40:08.65	175.27	21.98	
2025-01-08 10:40:08.86	175.29	22.01	
2025-01-08 10:40:09.07	175.30	22.03	
2025-01-08 10:40:09.27	175.31	22.06	
2025-01-08 10:40:09.48	175.32	22.09	
2025-01-08 10:40:09.68	175.33	22.12	
2025-01-08 10:40:09.89	175.34	22.15	
2025-01-08 10:40:10.09	175.35	22.18	
2025-01-08 10:40:10.30	175.37	22.21	
2025-01-08 10:40:10.50	175.38	22.23	
2025-01-08 10:40:10.71	175.39	22.26	
2025-01-08 10:40:10.92	175.40	22.29	
2025-01-08 10:40:11.12	175.41	22.32	
2025-01-08 10:40:11.33	175.43	22.35	
2025-01-08 10:40:11.53	175.44	22.38	
2025-01-08 10:40:11.74	175.45	22.41	
2025-01-08 10:40:11.94	175.46	22.44	
2025-01-08 10:40:12.15	175.47	22.47	
2025-01-08 10:40:12.35	175.48	22.50	
2025-01-08 10:40:12.56	175.50	22.53	
2025-01-08 10:40:12.76	175.51	22.55	
2025-01-08 10:40:12.96	175.52	22.58	
2025-01-08 10:40:13.17	175.53	22.61	
2025-01-08 10:40:13.38	175.54	22.64	
2025-01-08 10:40:13.58	175.56	22.67	
2025-01-08 10:40:13.79	175.57	22.70	
2025-01-08 10:40:13.99	175.58	22.73	
2025-01-08 10:40:14.20	175.59	22.76	
2025-01-08 10:40:14.40	175.60	22.79	
2025-01-08 10:40:14.61	175.62	22.82	
2025-01-08 10:40:14.81	175.63	22.85	
2025-01-08 10:40:15.02	175.64	22.88	
2025-01-08 10:40:15.22	175.65	22.91	
2025-01-08 10:40:15.43	175.66	22.94	
2025-01-08 10:40:15.63	175.68	22.97	
2025-01-08 10:40:15.84	175.69	23.00	
2025-01-08 10:40:16.04	175.70	23.03	
2025-01-08 10:40:16.25	175.71	23.06	
2025-01-08 10:40:16.46	175.72	23.09	
2025-01-08 10:40:16.66	175.74	23.12	
2025-01-08 10:40:16.86	175.75	23.14	
2025-01-08 10:40:17.07	175.76	23.18	
2025-01-08 10:40:17.28	175.77	23.21	
2025-01-08 10:40:17.48	175.79	23.24	
2025-01-08 10:40:17.69	175.80	23.27	
2025-01-08 10:40:17.89	175.81	23.29	
2025-01-08 10:40:18.10	175.82	23.33	
2025-01-08 10:40:18.30	175.84	23.36	
2025-01-08 10:40:18.51	175.85	23.39	
2025-01-08 10:40:18.72	175.86	23.42	
2025-01-08 10:40:18.92	175.87	23.45	
2025-01-08 10:40:19.13	175.89	23.48	
2025-01-08 10:40:19.33	175.90	23.51	
2025-01-08 10:40:19.54	175.91	23.54	
2025-01-08 10:40:19.74	175.92	23.57	
2025-01-08 10:40:19.96	175.94	23.60	
2025-01-08 10:40:20.17	175.95	23.63	
2025-01-08 10:40:20.37	175.96	23.66	
2025-01-08 10:40:20.58	175.98	23.69	
2025-01-08 10:40:20.78	175.99	23.72	
2025-01-08 10:40:20.99	176.00	23.75	
2025-01-08 10:40:21.19	176.01	23.78	
2025-01-08 10:40:21.40	176.03	23.81	
2025-01-08 10:40:21.60	176.04	23.84	
2025-01-08 10:40:21.81	176.05	23.87	
2025-01-08 10:40:22.01	176.06	23.90	
2025-01-08 10:40:22.22	176.08	23.94	
2025-01-08 10:40:22.42	176.09	23.97	
2025-01-08 10:40:22.63	176.10	24.00	
2025-01-08 10:40:22.83	176.12	24.03	
2025-01-08 10:40:23.04	176.13	24.06	
2025-01-08 10:40:23.24	176.14	24.09	
2025-01-08 10:40:23.45	176.16	24.12	
2025-01-08 10:40:23.66	176.17	24.15	
2025-01-08 10:40:23.86	176.18	24.18	
2025-01-08 10:40:24.07	176.19	24.21	
2025-01-08 10:40:24.27	176.21	24.25	
2025-01-08 10:40:24.48	176.22	24.28	
2025-01-08 10:40:24.68	176.23	24.31	
2025-01-08 10:40:24.88	176.25	24.34	
2025-01-08 10:40:25.09	176.26	24.37	
2025-01-08 10:40:25.29	176.27	24.40	
2025-01-08 10:40:25.50	176.29	24.43	
2025-01-08 10:40:25.71	176.30	24.46	
2025-01-08 10:40:25.91	176.31	24.49	
2025-01-08 10:40:26.12	176.33	24.53	
2025-01-08 10:40:26.32	176.34	24.56	
2025-01-08 10:40:26.52	176.35	24.59	
2025-01-08 10:40:26.73	176.37	24.62	
2025-01-08 10:40:26.93	176.38	24.65	
2025-01-08 10:40:27.14	176.39	24.68	
2025-01-08 10:40:27.35	176.41	24.72	
2025-01-08 10:40:27.55	176.42	24.75	
2025-01-08 10:40:27.75	176.43	24.78	
2025-01-08 10:40:27.96	176.45	24.81	
2025-01-08 10:40:28.17	176.46	24.84	
2025-01-08 10:40:28.37	176.48	24.87	
2025-01-08 10:40:28.58	176.49	24.91	
2025-01-08 10:40:28.79	176.50	24.94	
2025-01-08 10:40:28.99	176.52	24.97	
2025-01-08 10:40:29.20	176.53	25.00	
2025-01-08 10:40:29.41	176.54	25.04	
2025-01-08 10:40:29.61	176.56	25.07	
2025-01-08 10:40:29.82	176.57	25.10	
2025-01-08 10:40:30.02	176.59	25.13	
2025-01-08 10:40:30.23	176.60	25.16	
2025-01-08 10:40:30.44	176.61	25.20	
2025-01-08 10:40:30.64	176.63	25.23	
2025-01-08 10:40:30.85	176.64	25.26	
2025-01-08 10:40:31.05	176.66	25.29	
2025-01-08 10:40:31.26	176.67	25.33	
2025-01-08 10:40:31.46	176.68	25.36	
2025-01-08 10:40:31.67	176.70	25.39	
2025-01-08 10:40:31.87	176.71	25.42	
2025-01-08 10:40:32.08	176.73	25.46	
2025-01-08 10:40:32.28	176.74	25.49	
2025-01-08 10:40:32.49	176.75	25.52	
2025-01-08 10:40:32.69	176.77	25.55	
2025-01-08 10:40:32.90	176.78	25.59	
2025-01-08 10:40:33.10	176.80	25.62	
2025-01-08 10:40:33.31	176.81	25.65	
2025-01-08 10:40:33.51	176.83	25.68	
2025-01-08 10:40:33.72	176.84	25.72	
2025-01-08 10:40:33.92	176.85	25.75	
2025-01-08 10:40:34.13	176.87	25.78	
2025-01-08 10:40:34.33	176.88	25.81	
2025-01-08 10:40:34.54	176.90	25.85	
2025-01-08 10:40:34.74	176.91	25.88	
2025-01-08 10:40:34.95	176.93	25.91	
2025-01-08 10:40:35.15	176.94	25.95	
2025-01-08 10:40:35.36	176.96	25.98	
2025-01-08 10:40:35.57	176.97	26.01	
2025-01-08 10:40:35.77	176.98	26.05	
2025-01-08 10:40:35.97	177.00	26.08	
2025-01-08 10:40:36.19	177.01	26.11	
2025-01-08 10:40:36.40	177.03	26.15	
2025-01-08 10:40:36.60	177.04	26.18	
2025-01-08 10:40:36.81	177.06	26.22	
2025-01-08 10:40:37.01	177.07	26.25	
2025-01-08 10:40:37.22	177.09	26.28	
2025-01-08 10:40:37.42	177.10	26.31	
2025-01-08 10:40:37.63	177.12	26.35	
2025-01-08 10:40:37.83	177.13	26.38	
2025-01-08 10:40:38.04	177.15	26.42	
2025-01-08 10:40:38.24	177.16	26.45	
2025-01-08 10:40:38.45	177.18	26.48	
2025-01-08 10:40:38.66	177.19	26.52	
2025-01-08 10:40:38.86	177.21	26.55	
2025-01-08 10:40:39.07	177.22	26.59	
2025-01-08 10:40:39.27	177.24	26.62	
2025-01-08 10:40:39.48	177.25	26.65	
2025-01-08 10:40:39.68	177.27	26.69	
2025-01-08 10:40:39.89	177.28	26.72	
2025-01-08 10:40:40.09	177.30	26.75	
2025-01-08 10:40:40.29	177.31	26.79	
2025-01-08 10:40:40.50	177.33	26.82	
2025-01-08 10:40:40.71	177.35	26.86	
2025-01-08 10:40:40.91	177.36	26.89	
2025-01-08 10:40:41.12	177.38	26.93	
2025-01-08 10:40:41.32	177.39	26.96	
2025-01-08 10:40:41.53	177.41	26.99	
2025-01-08 10:40:41.73	177.42	27.03	
2025-01-08 10:40:41.94	177.44	27.06	
2025-01-08 10:40:42.14	177.45	27.10	
2025-01-08 10:40:42.35	177.47	27.13	
2025-01-08 10:40:42.55	177.48	27.17	
2025-01-08 10:40:42.76	177.50	27.20	
2025-01-08 10:40:42.96	177.52	27.23	
2025-01-08 10:40:43.17	177.53	27.27	
2025-01-08 10:40:43.38	177.55	27.31	
2025-01-08 10:40:43.59	177.56	27.34	
2025-01-08 10:40:43.80	177.58	27.38	
2025-01-08 10:40:44.01	177.60	27.41	
2025-01-08 10:40:44.21	177.61	27.45	
2025-01-08 10:40:44.42	177.63	27.48	
2025-01-08 10:40:44.62	177.64	27.52	
2025-01-08 10:40:44.82	177.66	27.55	
2025-01-08 10:40:45.03	177.68	27.59	
2025-01-08 10:40:45.23	177.69	27.62	
2025-01-08 10:40:45.44	177.71	27.66	
2025-01-08 10:40:45.64	177.72	27.69	
2025-01-08 10:40:45.85	177.74	27.73	
2025-01-08 10:40:46.05	177.76	27.76	
2025-01-08 10:40:46.26	177.77	27.80	
2025-01-08 10:40:46.46	177.79	27.83	
2025-01-08 10:40:46.68	177.81	27.87	
2025-01-08 10:40:46.88	177.82	27.90	
2025-01-08 10:40:47.09	177.84	27.94	
2025-01-08 10:40:47.30	177.86	27.98	
2025-01-08 10:40:47.50	177.87	28.01	
2025-01-08 10:40:47.71	177.89	28.05	
2025-01-08 10:40:47.92	177.91	28.08	
2025-01-08 10:40:48.12	177.92	28.12	
2025-01-08 10:40:48.32	177.94	28.15	
2025-01-08 10:40:48.54	177.96	28.19	
2025-01-08 10:40:48.75	177.97	28.23	
2025-01-08 10:40:48.95	177.99	28.26	
2025-01-08 10:40:49.16	178.01	28.30	
2025-01-08 10:40:49.36	178.02	28.33	
2025-01-08 10:40:49.57	178.04	28.37	
2025-01-08 10:40:49.77	178.06	28.41	
2025-01-08 10:40:49.98	178.07	28.44	
2025-01-08 10:40:50.18	178.09	28.48	
2025-01-08 10:40:50.39	178.11	28.52	
2025-01-08 10:40:50.59	178.12	28.55	
2025-01-08 10:40:50.80	178.14	28.59	
2025-01-08 10:40:51.00	178.16	28.62	
2025-01-08 10:40:51.21	178.17	28.66	
2025-01-08 10:40:51.41	178.19	28.70	
2025-01-08 10:40:51.62	178.21	28.73	
2025-01-08 10:40:51.83	178.23	28.77	
2025-01-08 10:40:52.03	178.24	28.81	
2025-01-08 10:40:52.24	178.26	28.84	
2025-01-08 10:40:52.44	178.28	28.88	
2025-01-08 10:40:52.65	178.30	28.92	
2025-01-08 10:40:52.86	178.31	28.95	
2025-01-08 10:40:53.06	178.33	28.99	
2025-01-08 10:40:53.26	178.35	29.03	
2025-01-08 10:40:53.47	178.37	29.06	
2025-01-08 10:40:53.68	178.38	29.10	
2025-01-08 10:40:53.88	178.40	29.14	
2025-01-08 10:40:54.09	178.42	29.18	
2025-01-08 10:40:54.29	178.44	29.21	
2025-01-08 10:40:54.50	178.45	29.25	
2025-01-08 10:40:54.71	178.47	29.29	
2025-01-08 10:40:54.91	178.49	29.32	
2025-01-08 10:40:55.12	178.51	29.36	
2025-01-08 10:40:55.32	178.52	29.40	
2025-01-08 10:40:55.53	178.54	29.44	
2025-01-08 10:40:55.73	178.56	29.47	
2025-01-08 10:40:55.94	178.58	29.51	
2025-01-08 10:40:56.14	178.60	29.55	
2025-01-08 10:40:56.35	178.62	29.59	
2025-01-08 10:40:56.57	178.63	29.63	
2025-01-08 10:40:56.77	178.65	29.66	
2025-01-08 10:40:56.97	178.67	29.70	
2025-01-08 10:40:57.18	178.69	29.74	
2025-01-08 10:40:57.38	178.71	29.77	
2025-01-08 10:40:57.59	178.72	29.81	
2025-01-08 10:40:57.79	178.74	29.85	
2025-01-08 10:40:58.00	178.76	29.89	
2025-01-08 10:40:58.21	178.78	29.93	
2025-01-08 10:40:58.41	178.80	29.96	
2025-01-08 10:40:58.61	178.82	30.00	
2025-01-08 10:40:58.82	178.84	30.04	
2025-01-08 10:40:59.02	178.85	30.08	
2025-01-08 10:40:59.23	178.87	30.12	
2025-01-08 10:40:59.44	178.89	30.16	
2025-01-08 10:40:59.64	178.91	30.19	
2025-01-08 10:40:59.85	178.93	30.23	
2025-01-08 10:41:00.05	178.95	30.27	
2025-01-08 10:41:00.27	178.97	30.31	
2025-01-08 10:41:00.48	178.99	30.35	
2025-01-08 10:41:00.68	179.01	30.39	
2025-01-08 10:41:00.89	179.02	30.43	
2025-01-08 10:41:01.09	179.04	30.46	
2025-01-08 10:41:01.30	179.06	30.50	
2025-01-08 10:41:01.50	179.08	30.54	
2025-01-08 10:41:01.71	179.10	30.58	
2025-01-08 10:41:01.91	179.12	30.62	
2025-01-08 10:41:02.12	179.14	30.66	
2025-01-08 10:41:02.32	179.16	30.70	
2025-01-08 10:41:02.53	179.18	30.74	
2025-01-08 10:41:02.73	179.20	30.78	
2025-01-08 10:41:02.94	179.22	30.82	
2025-01-08 10:41:03.14	179.24	30.85	
2025-01-08 10:41:03.35	179.26	30.89	
2025-01-08 10:41:03.55	179.27	30.93	
2025-01-08 10:41:03.76	179.29	30.97	
2025-01-08 10:41:03.96	179.31	31.01	
2025-01-08 10:41:04.17	179.33	31.05	
2025-01-08 10:41:04.38	179.35	31.09	
2025-01-08 10:41:04.58	179.37	31.13	
2025-01-08 10:41:04.79	179.39	31.17	
2025-01-08 10:41:04.99	179.41	31.21	
2025-01-08 10:41:05.20	179.43	31.25	
2025-01-08 10:41:05.40	179.45	31.29	
2025-01-08 10:41:05.61	179.47	31.33	
2025-01-08 10:41:05.81	179.49	31.37	
2025-01-08 10:41:06.02	179.51	31.41	
2025-01-08 10:41:06.22	179.53	31.45	
2025-01-08 10:41:06.43	179.55	31.49	
2025-01-08 10:41:06.63	179.57	31.53	
2025-01-08 10:41:06.84	179.59	31.57	
2025-01-08 10:41:07.04	179.61	31.61	
2025-01-08 10:41:07.25	179.64	31.65	
2025-01-08 10:41:07.45	179.66	31.69	
2025-01-08 10:41:07.66	179.68	31.73	
2025-01-08 10:41:07.87	179.70	31.77	
2025-01-08 10:41:08.07	179.72	31.81	
2025-01-08 10:41:08.27	179.74	31.85	
2025-01-08 10:41:08.48	179.76	31.89	
2025-01-08 10:41:08.68	179.78	31.93	
2025-01-08 10:41:08.89	179.80	31.97	
2025-01-08 10:41:09.10	179.82	32.01	
2025-01-08 10:41:09.30	179.84	32.05	
2025-01-08 10:41:09.51	179.86	32.09	
2025-01-08 10:41:09.71	179.88	32.13	
2025-01-08 10:41:09.92	179.91	32.17	
2025-01-08 10:41:10.12	179.93	32.21	
2025-01-08 10:41:10.34	179.95	32.26	
2025-01-08 10:41:10.55	179.97	32.30	
2025-01-08 10:41:10.75	179.99	32.34	
2025-01-08 10:41:10.96	180.01	32.38	
2025-01-08 10:41:11.16	180.03	32.42	
2025-01-08 10:41:11.37	180.06	32.46	
2025-01-08 10:41:11.57	180.08	32.50	
2025-01-08 10:41:11.78	180.10	32.54	
2025-01-08 10:41:11.99	180.12	32.59	
2025-01-08 10:41:12.19	180.14	32.63	
2025-01-08 10:41:12.39	180.16	32.67	
2025-01-08 10:41:12.60	180.18	32.71	
2025-01-08 10:41:12.81	180.21	32.75	
2025-01-08 10:41:13.01	180.23	32.79	
2025-01-08 10:41:13.22	180.25	32.83	
2025-01-08 10:41:13.42	180.27	32.87	
2025-01-08 10:41:13.63	180.29	32.92	
2025-01-08 10:41:13.84	180.32	32.96	
2025-01-08 10:41:14.04	180.34	33.00	
2025-01-08 10:41:14.25	180.36	33.04	
2025-01-08 10:41:14.45	180.38	33.08	
2025-01-08 10:41:14.66	180.41	33.13	
2025-01-08 10:41:14.86	180.43	33.17	
2025-01-08 10:41:15.07	180.45	33.21	
2025-01-08 10:41:15.27	180.47	33.25	
2025-01-08 10:41:15.48	180.50	33.30	
2025-01-08 10:41:15.68	180.52	33.34	
2025-01-08 10:41:15.89	180.54	33.38	
2025-01-08 10:41:16.09	180.56	33.42	
2025-01-08 10:41:16.30	180.59	33.46	
2025-01-08 10:41:16.50	180.61	33.51	
2025-01-08 10:41:16.71	180.63	33.55	
2025-01-08 10:41:16.91	180.65	33.59	
2025-01-08 10:41:17.12	180.68	33.63	
2025-01-08 10:41:17.32	180.70	33.68	
2025-01-08 10:41:17.53	180.72	33.72	
2025-01-08 10:41:17.73	180.75	33.76	
2025-01-08 10:41:17.94	180.77	33.81	
2025-01-08 10:41:18.14	180.79	33.85	
2025-01-08 10:41:18.35	180.82	33.89	
2025-01-08 10:41:18.55	180.84	33.93	
2025-01-08 10:41:18.76	180.86	33.98	
2025-01-08 10:41:18.96	180.89	34.02	
2025-01-08 10:41:19.17	180.91	34.06	
2025-01-08 10:41:19.38	180.93	34.11	
2025-01-08 10:41:19.58	180.96	34.15	
2025-01-08 10:41:19.79	180.98	34.19	
2025-01-08 10:41:19.99	181.00	34.24	
2025-01-08 10:41:20.20	181.03	34.28	
2025-01-08 10:41:20.40	181.05	34.32	
2025-01-08 10:41:20.61	181.08	34.37	
2025-01-08 10:41:20.82	181.10	34.41	
2025-01-08 10:41:21.02	181.12	34.45	
2025-01-08 10:41:21.22	181.15	34.50	
2025-01-08 10:41:21.43	181.17	34.54	
2025-01-08 10:41:21.64	181.20	34.59	
2025-01-08 10:41:21.84	181.22	34.63	
2025-01-08 10:41:22.05	181.25	34.67	
2025-01-08 10:41:22.25	181.27	34.72	
2025-01-08 10:41:22.46	181.29	34.76	
2025-01-08 10:41:22.66	181.32	34.81	
2025-01-08 10:41:22.87	181.34	34.85	
2025-01-08 10:41:23.07	181.37	34.89	
2025-01-08 10:41:23.28	181.39	34.94	
2025-01-08 10:41:23.49	181.42	34.98	
2025-01-08 10:41:23.69	181.44	35.03	
2025-01-08 10:41:23.90	181.47	35.07	
2025-01-08 10:41:24.10	181.49	35.12	
2025-01-08 10:41:24.31	181.52	35.16	
2025-01-08 10:41:24.51	181.54	35.21	
2025-01-08 10:41:24.72	181.57	35.25	
2025-01-08 10:41:24.92	181.59	35.30	
2025-01-08 10:41:25.12	181.62	35.34	
2025-01-08 10:41:25.33	181.64	35.38	
2025-01-08 10:41:25.54	181.67	35.43	
2025-01-08 10:41:25.74	181.70	35.47	
2025-01-08 10:41:25.95	181.72	35.52	
2025-01-08 10:41:26.15	181.75	35.56	
2025-01-08 10:41:26.36	181.77	35.61	
2025-01-08 10:41:26.57	181.80	35.66	
2025-01-08 10:41:26.77	181.83	35.70	
2025-01-08 10:41:26.98	181.85	35.75	
2025-01-08 10:41:27.18	181.88	35.79	
2025-01-08 10:41:27.39	181.90	35.84	
2025-01-08 10:41:27.59	181.93	35.88	
2025-01-08 10:41:27.80	181.96	35.93	
2025-01-08 10:41:28.00	181.98	35.97	
2025-01-08 10:41:28.21	182.01	36.02	
2025-01-08 10:41:28.42	182.04	36.07	
2025-01-08 10:41:28.62	182.06	36.11	
2025-01-08 10:41:28.83	182.09	36.16	
2025-01-08 10:41:29.03	182.12	36.20	
2025-01-08 10:41:29.24	182.14	36.25	
2025-01-08 10:41:29.44	182.17	36.29	
2025-01-08 10:41:29.65	182.20	36.34	
2025-01-08 10:41:29.86	182.22	36.39	
2025-01-08 10:41:30.06	182.25	36.43	
2025-01-08 10:41:30.26	182.28	36.48	
2025-01-08 10:41:30.47	182.31	36.53	
2025-01-08 10:41:30.67	182.33	36.57	
2025-01-08 10:41:30.88	182.36	36.62	
2025-01-08 10:41:31.08	182.39	36.66	
2025-01-08 10:41:31.29	182.41	36.71	
2025-01-08 10:41:31.50	182.44	36.76	
2025-01-08 10:41:31.71	182.47	36.81	
2025-01-08 10:41:31.92	182.50	36.86	
2025-01-08 10:41:32.12	182.53	36.90	
2025-01-08 10:41:32.33	182.56	36.95	
2025-01-08 10:41:32.54	182.58	37.00	
2025-01-08 10:41:32.74	182.61	37.04	
2025-01-08 10:41:32.95	182.64	37.09	
2025-01-08 10:41:33.15	182.67	37.14	
2025-01-08 10:41:33.36	182.70	37.18	
2025-01-08 10:41:33.56	182.72	37.23	
2025-01-08 10:41:33.77	182.75	37.28	
2025-01-08 10:41:33.97	182.78	37.33	
2025-01-08 10:41:34.18	182.81	37.37	
2025-01-08 10:41:34.38	182.84	37.42	
2025-01-08 10:41:34.59	182.87	37.47	
2025-01-08 10:41:34.79	182.90	37.51	
2025-01-08 10:41:35.00	182.93	37.56	
2025-01-08 10:41:35.20	182.95	37.61	
2025-01-08 10:41:35.41	182.98	37.66	
2025-01-08 10:41:35.61	183.01	37.71	
2025-01-08 10:41:35.82	183.04	37.75	
2025-01-08 10:41:36.02	183.07	37.80	
2025-01-08 10:41:36.23	183.10	37.85	
2025-01-08 10:41:36.43	183.13	37.90	
2025-01-08 10:41:36.64	183.16	37.95	
2025-01-08 10:41:36.85	183.19	38.00	
2025-01-08 10:41:37.05	183.22	38.04	
2025-01-08 10:41:37.25	183.25	38.09	
2025-01-08 10:41:37.46	183.28	38.14	
2025-01-08 10:41:37.67	183.31	38.19	
2025-01-08 10:41:37.87	183.34	38.24	
2025-01-08 10:41:38.08	183.37	38.29	
2025-01-08 10:41:38.29	183.40	38.34	
2025-01-08 10:41:38.49	183.43	38.38	
2025-01-08 10:41:38.70	183.46	38.43	
2025-01-08 10:41:38.90	183.49	38.48	
2025-01-08 10:41:39.11	183.52	38.53	
2025-01-08 10:41:39.31	183.55	38.58	
2025-01-08 10:41:39.52	183.59	38.63	
2025-01-08 10:41:39.72	183.62	38.68	
2025-01-08 10:41:39.93	183.65	38.73	
2025-01-08 10:41:40.14	183.68	38.78	
2025-01-08 10:41:40.34	183.71	38.82	
2025-01-08 10:41:40.55	183.74	38.87	
2025-01-08 10:41:40.75	183.77	38.92	
2025-01-08 10:41:40.96	183.80	38.97	
2025-01-08 10:41:41.16	183.84	39.02	
2025-01-08 10:41:41.37	183.87	39.07	
2025-01-08 10:41:41.57	183.90	39.12	
2025-01-08 10:41:41.78	183.93	39.17	
2025-01-08 10:41:41.98	183.96	39.22	
2025-01-08 10:41:42.19	184.00	39.27	
2025-01-08 10:41:42.39	184.03	39.32	
2025-01-08 10:41:42.60	184.06	39.37	
2025-01-08 10:41:42.80	184.09	39.42	
2025-01-08 10:41:43.01	184.12	39.47	
2025-01-08 10:41:43.21	184.16	39.52	
2025-01-08 10:41:43.43	184.19	39.57	
2025-01-08 10:41:43.64	184.23	39.62	
2025-01-08 10:41:43.84	184.26	39.67	
2025-01-08 10:41:44.05	184.29	39.72	
2025-01-08 10:41:44.26	184.32	39.78	
2025-01-08 10:41:44.47	184.36	39.83	
2025-01-08 10:41:44.68	184.39	39.88	
2025-01-08 10:41:44.88	184.43	39.93	
2025-01-08 10:41:45.09	184.46	39.98	
2025-01-08 10:41:45.29	184.49	40.03	
2025-01-08 10:41:45.50	184.53	40.08	
2025-01-08 10:41:45.70	184.56	40.13	
2025-01-08 10:41:45.91	184.59	40.18	
2025-01-08 10:41:46.11	184.63	40.23	
2025-01-08 10:41:46.32	184.66	40.28	
2025-01-08 10:41:46.52	184.70	40.33	
2025-01-08 10:41:46.72	184.73	40.38	
2025-01-08 10:41:46.93	184.76	40.44	
2025-01-08 10:41:47.13	184.80	40.49	
2025-01-08 10:41:47.34	184.83	40.54	
2025-01-08 10:41:47.54	184.87	40.59	
2025-01-08 10:41:47.75	184.90	40.64	
2025-01-08 10:41:47.95	184.94	40.69	
2025-01-08 10:41:48.16	184.97	40.74	
2025-01-08 10:41:48.36	185.01	40.79	
2025-01-08 10:41:48.57	185.04	40.85	
2025-01-08 10:41:48.77	185.08	40.90	
2025-01-08 10:41:48.98	185.11	40.95	
2025-01-08 10:41:49.18	185.15	41.00	
2025-01-08 10:41:49.39	185.19	41.05	
2025-01-08 10:41:49.60	185.22	41.11	
2025-01-08 10:41:49.80	185.26	41.16	
2025-01-08 10:41:50.00	185.29	41.21	
2025-01-08 10:41:50.21	185.33	41.26	
2025-01-08 10:41:50.42	185.37	41.32	
2025-01-08 10:41:50.62	185.40	41.37	
2025-01-08 10:41:50.83	185.44	41.42	
2025-01-08 10:41:51.03	185.47	41.47	
2025-01-08 10:41:51.24	185.51	41.53	
2025-01-08 10:41:51.44	185.55	41.58	
2025-01-08 10:41:51.65	185.59	41.63	
2025-01-08 10:41:51.86	185.62	41.69	
2025-01-08 10:41:52.06	185.66	41.74	
2025-01-08 10:41:52.26	185.70	41.79	
2025-01-08 10:41:52.47	185.73	41.84	
2025-01-08 10:41:52.67	185.77	41.89	
2025-01-08 10:41:52.88	185.81	41.95	
2025-01-08 10:41:53.10	185.85	42.00	
2025-01-08 10:41:53.30	185.89	42.06	
2025-01-08 10:41:53.51	185.93	42.11	
2025-01-08 10:41:53.71	185.96	42.16	
2025-01-08 10:41:53.92	186.00	42.22	
2025-01-08 10:41:54.12	186.04	42.27	
2025-01-08 10:41:54.33	186.08	42.32	
2025-01-08 10:41:54.53	186.12	42.38	
2025-01-08 10:41:54.74	186.16	42.43	
2025-01-08 10:41:54.94	186.20	42.48	
2025-01-08 10:41:55.16	186.24	42.54	
2025-01-08 10:41:55.37	186.28	42.60	
2025-01-08 10:41:55.57	186.32	42.65	
2025-01-08 10:41:55.78	186.36	42.70	
2025-01-08 10:41:55.98	186.39	42.76	
2025-01-08 10:41:56.19	186.43	42.81	
2025-01-08 10:41:56.39	186.47	42.86	
2025-01-08 10:41:56.60	186.51	42.92	
2025-01-08 10:41:56.80	186.55	42.97	
2025-01-08 10:41:57.01	186.59	43.03	
2025-01-08 10:41:57.21	186.63	43.08	
2025-01-08 10:41:57.41	186.67	43.13	
2025-01-08 10:41:57.62	186.72	43.19	
2025-01-08 10:41:57.82	186.76	43.24	
2025-01-08 10:41:58.03	186.80	43.30	
2025-01-08 10:41:58.24	186.84	43.35	
2025-01-08 10:41:58.44	186.88	43.41	
2025-01-08 10:41:58.65	186.92	43.46	
2025-01-08 10:41:58.85	186.96	43.52	
2025-01-08 10:41:59.06	187.00	43.57	
2025-01-08 10:41:59.26	187.05	43.63	
2025-01-08 10:41:59.47	187.09	43.68	
2025-01-08 10:41:59.67	187.13	43.74	
2025-01-08 10:41:59.88	187.17	43.79	
2025-01-08 10:42:00.08	187.21	43.85	
2025-01-08 10:42:00.29	187.26	43.90	
2025-01-08 10:42:00.49	187.30	43.96	
2025-01-08 10:42:00.70	187.34	44.01	
2025-01-08 10:42:00.90	187.38	44.07	
2025-01-08 10:42:01.11	187.43	44.13	
2025-01-08 10:42:01.31	187.47	44.18	
2025-01-08 10:42:01.52	187.51	44.24	
2025-01-08 10:42:01.72	187.56	44.29	
2025-01-08 10:42:01.93	187.60	44.35	
2025-01-08 10:42:02.13	187.64	44.40	
2025-01-08 10:42:02.34	187.69	44.46	
2025-01-08 10:42:02.54	187.73	44.51	
2025-01-08 10:42:02.75	187.78	44.57	
2025-01-08 10:42:02.95	187.82	44.63	
2025-01-08 10:42:03.16	187.87	44.68	
2025-01-08 10:42:03.36	187.91	44.74	
2025-01-08 10:42:03.57	187.96	44.80	
2025-01-08 10:42:03.77	188.00	44.85	
2025-01-08 10:42:03.98	188.05	44.91	
2025-01-08 10:42:04.19	188.09	44.97	
2025-01-08 10:42:04.39	188.14	45.02	
2025-01-08 10:42:04.60	188.18	45.08	
2025-01-08 10:42:04.82	188.23	45.14	
2025-01-08 10:42:05.02	188.28	45.20	
2025-01-08 10:42:05.22	188.32	45.25	
2025-01-08 10:42:05.43	188.37	45.31	
2025-01-08 10:42:05.64	188.42	45.37	
2025-01-08 10:42:05.84	188.46	45.42	
2025-01-08 10:42:06.05	188.51	45.48	
2025-01-08 10:42:06.25	188.56	45.54	
2025-01-08 10:42:06.46	188.60	45.59	
2025-01-08 10:42:06.66	188.65	45.65	
2025-01-08 10:42:06.87	188.70	45.71	
2025-01-08 10:42:07.07	188.74	45.76	
2025-01-08 10:42:07.28	188.79	45.82	
2025-01-08 10:42:07.49	188.84	45.88	
2025-01-08 10:42:07.69	188.89	45.94	
2025-01-08 10:42:07.89	188.94	45.99	
2025-01-08 10:42:08.10	188.99	46.05	
2025-01-08 10:42:08.31	189.04	46.11	
2025-01-08 10:42:08.51	189.08	46.17	
2025-01-08 10:42:08.72	189.13	46.23	
2025-01-08 10:42:08.93	189.18	46.29	
2025-01-08 10:42:09.14	189.23	46.35	
2025-01-08 10:42:09.35	189.29	46.41	
2025-01-08 10:42:09.55	189.33	46.46	
2025-01-08 10:42:09.76	189.39	46.52	
2025-01-08 10:42:09.97	189.44	46.58	
2025-01-08 10:42:10.18	189.49	46.64	
2025-01-08 10:42:10.39	189.54	46.70	
2025-01-08 10:42:10.59	189.59	46.76	
2025-01-08 10:42:10.80	189.64	46.82	
2025-01-08 10:42:11.01	189.69	46.88	
2025-01-08 10:42:11.21	189.74	46.93	
2025-01-08 10:42:11.42	189.80	46.99	
2025-01-08 10:42:11.62	189.85	47.05	
2025-01-08 10:42:11.83	189.90	47.11	
2025-01-08 10:42:12.04	189.95	47.17	
2025-01-08 10:42:12.25	190.01	47.23	
2025-01-08 10:42:12.46	190.06	47.29	
2025-01-08 10:42:12.66	190.11	47.35	
2025-01-08 10:42:12.87	190.16	47.41	
2025-01-08 10:42:13.07	190.22	47.47	
2025-01-08 10:42:13.28	190.27	47.53	
2025-01-08 10:42:13.48	190.32	47.58	
2025-01-08 10:42:13.69	190.38	47.64	
2025-01-08 10:42:13.89	190.43	47.70	
2025-01-08 10:42:14.10	190.48	47.76	
2025-01-08 10:42:14.30	190.54	47.82	
2025-01-08 10:42:14.51	190.59	47.88	
2025-01-08 10:42:14.72	190.65	47.94	
2025-01-08 10:42:14.92	190.70	48.00	
2025-01-08 10:42:15.13	190.76	48.06	
2025-01-08 10:42:15.33	190.81	48.12	
2025-01-08 10:42:15.54	190.87	48.18	
2025-01-08 10:42:15.74	190.92	48.24	
2025-01-08 10:42:15.95	190.98	48.30	
2025-01-08 10:42:16.16	191.04	48.36	
2025-01-08 10:42:16.36	191.09	48.42	
2025-01-08 10:42:16.57	191.15	48.48	
2025-01-08 10:42:16.77	191.21	48.54	
2025-01-08 10:42:16.98	191.26	48.60	
2025-01-08 10:42:17.18	191.32	48.66	
2025-01-08 10:42:17.39	191.38	48.72	
2025-01-08 10:42:17.59	191.43	48.78	
2025-01-08 10:42:17.80	191.49	48.84	
2025-01-08 10:42:18.00	191.55	48.90	
2025-01-08 10:42:18.21	191.61	48.96	
2025-01-08 10:42:18.41	191.67	49.02	
2025-01-08 10:42:18.61	191.72	49.08	
2025-01-08 10:42:18.82	191.78	49.14	
2025-01-08 10:42:19.03	191.85	49.20	
2025-01-08 10:42:19.23	191.90	49.26	
2025-01-08 10:42:19.44	191.96	49.32	
2025-01-08 10:42:19.64	192.02	49.38	
2025-01-08 10:42:19.84	192.08	49.44	
2025-01-08 10:42:20.05	192.14	49.50	
2025-01-08 10:42:20.26	192.20	49.57	
2025-01-08 10:42:20.46	192.26	49.63	
2025-01-08 10:42:20.67	192.33	49.69	
2025-01-08 10:42:20.87	192.39	49.75	
2025-01-08 10:42:21.08	192.45	49.81	
2025-01-08 10:42:21.28	192.51	49.87	
2025-01-08 10:42:21.49	192.57	49.93	
2025-01-08 10:42:21.69	192.63	49.99	
2025-01-08 10:42:21.91	192.70	50.06	
2025-01-08 10:42:22.12	192.76	50.12	
2025-01-08 10:42:22.32	192.83	50.18	
2025-01-08 10:42:22.53	192.89	50.24	
2025-01-08 10:42:22.74	192.96	50.31	
2025-01-08 10:42:22.94	193.02	50.37	
2025-01-08 10:42:23.15	193.08	50.43	
2025-01-08 10:42:23.35	193.15	50.49	
2025-01-08 10:42:23.56	193.21	50.55	
2025-01-08 10:42:23.77	193.28	50.61	
2025-01-08 10:42:23.97	193.34	50.67	
2025-01-08 10:42:24.17	193.41	50.73	
2025-01-08 10:42:24.38	193.47	50.80	
2025-01-08 10:42:24.59	193.54	50.86	
2025-01-08 10:42:24.79	193.60	50.92	
2025-01-08 10:42:24.99	193.67	50.98	
2025-01-08 10:42:25.20	193.74	51.05	
2025-01-08 10:42:25.40	193.80	51.11	
2025-01-08 10:42:25.61	193.87	51.17	
2025-01-08 10:42:25.82	193.94	51.23	
2025-01-08 10:42:26.02	194.01	51.29	
2025-01-08 10:42:26.22	194.07	51.35	
2025-01-08 10:42:26.43	194.14	51.42	
2025-01-08 10:42:26.64	194.21	51.48	
2025-01-08 10:42:26.84	194.28	51.54	
2025-01-08 10:42:27.04	194.35	51.60	
2025-01-08 10:42:27.26	194.42	51.67	
2025-01-08 10:42:27.47	194.49	51.73	
2025-01-08 10:42:27.68	194.57	51.80	
2025-01-08 10:42:27.88	194.63	51.86	
2025-01-08 10:42:28.08	194.70	51.92	
2025-01-08 10:42:28.30	194.78	51.99	
2025-01-08 10:42:28.51	194.85	52.05	
2025-01-08 10:42:28.71	194.92	52.11	
2025-01-08 10:42:28.92	194.99	52.17	
2025-01-08 10:42:29.13	195.07	52.24	
2025-01-08 10:42:29.33	195.14	52.30	
2025-01-08 10:42:29.54	195.21	52.36	
2025-01-08 10:42:29.74	195.29	52.43	
2025-01-08 10:42:29.95	195.36	52.49	
2025-01-08 10:42:30.15	195.43	52.55	
2025-01-08 10:42:30.35	195.50	52.61	
2025-01-08 10:42:30.56	195.58	52.68	
2025-01-08 10:42:30.77	195.66	52.74	
2025-01-08 10:42:30.97	195.73	52.80	
2025-01-08 10:42:31.18	195.81	52.87	
2025-01-08 10:42:31.38	195.88	52.93	
2025-01-08 10:42:31.59	195.96	52.99	
2025-01-08 10:42:31.79	196.03	53.05	
2025-01-08 10:42:32.00	196.11	53.12	
2025-01-08 10:42:32.21	196.19	53.18	
2025-01-08 10:42:32.41	196.26	53.24	
2025-01-08 10:42:32.62	196.34	53.31	
2025-01-08 10:42:32.82	196.42	53.37	
2025-01-08 10:42:33.03	196.50	53.44	
2025-01-08 10:42:33.23	196.58	53.50	
2025-01-08 10:42:33.44	196.66	53.56	
2025-01-08 10:42:33.64	196.73	53.62	
2025-01-08 10:42:33.84	196.81	53.69	
2025-01-08 10:42:34.05	196.89	53.75	
2025-01-08 10:42:34.25	196.97	53.81	
