passes_logs/2025/01/08/SPB_Silybum_02/SPB_Silybum_02__20250108_040455_SUOMI_NPP_rec.log

#Pass ID: 20250108_040455_SUOMI NPP
#Satellite: SUOMI NPP
#Configuration: NPP
#Start time: 2025-01-08 04:04:55

#Version: 2.0.20230423
#Station: SPB_Silybum_02
#Location: 30.233357 lon 59.946436 lat
#TLE: 1 37849U 11061A   25007.16649885  .00000287  00000+0  15716-3 0  9990
#TLE: 2 37849  98.7438 308.2547 0001950  52.7817 307.3537 14.19534452683807

#Time	Az	El	Level	Level2	SNR	BER	Gain	Gain2
2025-01-08 04:04:57.34	16.52	4.06	
2025-01-08 04:04:57.54	16.50	4.07	
2025-01-08 04:04:57.74	16.48	4.08	
2025-01-08 04:04:57.95	16.45	4.08	
2025-01-08 04:04:58.15	16.43	4.09	
2025-01-08 04:04:58.36	16.40	4.10	
2025-01-08 04:04:58.58	16.38	4.11	
2025-01-08 04:04:58.78	16.35	4.12	
2025-01-08 04:04:58.99	16.33	4.13	
2025-01-08 04:04:59.19	16.30	4.13	
2025-01-08 04:04:59.40	16.28	4.14	
2025-01-08 04:04:59.60	16.25	4.15	
2025-01-08 04:04:59.81	16.23	4.16	
2025-01-08 04:05:00.01	16.20	4.17	
2025-01-08 04:05:00.22	16.18	4.17	
2025-01-08 04:05:00.42	16.16	4.18	
2025-01-08 04:05:00.63	16.13	4.19	
2025-01-08 04:05:00.83	16.11	4.20	
2025-01-08 04:05:01.04	16.08	4.21	
2025-01-08 04:05:01.24	16.06	4.21	
2025-01-08 04:05:01.45	16.03	4.22	
2025-01-08 04:05:01.65	16.01	4.23	
2025-01-08 04:05:01.85	15.98	4.24	
2025-01-08 04:05:02.06	15.96	4.25	
2025-01-08 04:05:02.26	15.93	4.25	
2025-01-08 04:05:02.47	15.91	4.26	
2025-01-08 04:05:02.67	15.88	4.27	
2025-01-08 04:05:02.88	15.86	4.28	
2025-01-08 04:05:03.08	15.83	4.29	
2025-01-08 04:05:03.29	15.81	4.29	
2025-01-08 04:05:03.49	15.78	4.30	
2025-01-08 04:05:03.70	15.76	4.31	
2025-01-08 04:05:03.92	15.73	4.32	
2025-01-08 04:05:04.12	15.71	4.33	
2025-01-08 04:05:04.33	15.68	4.34	
2025-01-08 04:05:04.53	15.66	4.34	
2025-01-08 04:05:04.74	15.63	4.35	
2025-01-08 04:05:04.95	15.61	4.36	
2025-01-08 04:05:05.15	15.58	4.37	
2025-01-08 04:05:05.36	15.56	4.38	
2025-01-08 04:05:05.56	15.53	4.38	
2025-01-08 04:05:05.77	15.51	4.39	
2025-01-08 04:05:05.97	15.48	4.40	
2025-01-08 04:05:06.17	15.46	4.41	
2025-01-08 04:05:06.38	15.43	4.42	
2025-01-08 04:05:06.59	15.41	4.42	
2025-01-08 04:05:06.79	15.38	4.43	
2025-01-08 04:05:07.00	15.36	4.44	
2025-01-08 04:05:07.21	15.33	4.45	
2025-01-08 04:05:07.42	15.30	4.46	
2025-01-08 04:05:07.62	15.28	4.46	
2025-01-08 04:05:07.83	15.25	4.47	
2025-01-08 04:05:08.03	15.23	4.48	
2025-01-08 04:05:08.24	15.20	4.49	
2025-01-08 04:05:08.44	15.18	4.50	
2025-01-08 04:05:08.65	15.15	4.50	
2025-01-08 04:05:08.85	15.13	4.51	
2025-01-08 04:05:09.06	15.10	4.52	
2025-01-08 04:05:09.26	15.08	4.53	
2025-01-08 04:05:09.47	15.05	4.54	
2025-01-08 04:05:09.67	15.03	4.54	
2025-01-08 04:05:09.88	15.00	4.55	
2025-01-08 04:05:10.08	14.98	4.56	
2025-01-08 04:05:10.29	14.95	4.57	
2025-01-08 04:05:10.49	14.93	4.58	
2025-01-08 04:05:10.69	14.90	4.58	
2025-01-08 04:05:10.90	14.88	4.59	
2025-01-08 04:05:11.10	14.85	4.60	
2025-01-08 04:05:11.31	14.82	4.61	
2025-01-08 04:05:11.51	14.80	4.61	
2025-01-08 04:05:11.72	14.77	4.62	
2025-01-08 04:05:11.92	14.75	4.63	
2025-01-08 04:05:12.13	14.72	4.64	
2025-01-08 04:05:12.34	14.70	4.65	
2025-01-08 04:05:12.54	14.67	4.65	
2025-01-08 04:05:12.74	14.65	4.66	
2025-01-08 04:05:12.95	14.62	4.67	
2025-01-08 04:05:13.16	14.59	4.68	
2025-01-08 04:05:13.36	14.57	4.69	
2025-01-08 04:05:13.57	14.54	4.69	
2025-01-08 04:05:13.77	14.52	4.70	
2025-01-08 04:05:13.98	14.49	4.71	
2025-01-08 04:05:14.18	14.47	4.72	
2025-01-08 04:05:14.39	14.44	4.73	
2025-01-08 04:05:14.59	14.42	4.73	
2025-01-08 04:05:14.80	14.39	4.74	
2025-01-08 04:05:15.00	14.36	4.75	
2025-01-08 04:05:15.21	14.34	4.76	
2025-01-08 04:05:15.41	14.31	4.77	
2025-01-08 04:05:15.61	14.29	4.77	
2025-01-08 04:05:15.82	14.26	4.78	
2025-01-08 04:05:16.03	14.23	4.79	
2025-01-08 04:05:16.23	14.21	4.80	
2025-01-08 04:05:16.44	14.18	4.80	
2025-01-08 04:05:16.64	14.16	4.81	
2025-01-08 04:05:16.85	14.13	4.82	
2025-01-08 04:05:17.05	14.11	4.83	
2025-01-08 04:05:17.26	14.08	4.84	
2025-01-08 04:05:17.47	14.05	4.84	
2025-01-08 04:05:17.67	14.03	4.85	
2025-01-08 04:05:17.88	14.00	4.86	
2025-01-08 04:05:18.08	13.98	4.87	
2025-01-08 04:05:18.29	13.95	4.88	
2025-01-08 04:05:18.49	13.92	4.88	
2025-01-08 04:05:18.70	13.90	4.89	
2025-01-08 04:05:18.90	13.87	4.90	
2025-01-08 04:05:19.11	13.85	4.91	
2025-01-08 04:05:19.32	13.82	4.91	
2025-01-08 04:05:19.52	13.79	4.92	
2025-01-08 04:05:19.73	13.77	4.93	
2025-01-08 04:05:19.93	13.74	4.94	
2025-01-08 04:05:20.14	13.72	4.95	
2025-01-08 04:05:20.34	13.69	4.95	
2025-01-08 04:05:20.55	13.66	4.96	
2025-01-08 04:05:20.76	13.64	4.97	
2025-01-08 04:05:20.96	13.61	4.98	
2025-01-08 04:05:21.16	13.59	4.98	
2025-01-08 04:05:21.37	13.56	4.99	
2025-01-08 04:05:21.58	13.53	5.00	
2025-01-08 04:05:21.78	13.51	5.01	
2025-01-08 04:05:21.99	13.48	5.02	
2025-01-08 04:05:22.19	13.45	5.02	
2025-01-08 04:05:22.40	13.43	5.03	
2025-01-08 04:05:22.60	13.40	5.04	
2025-01-08 04:05:22.81	13.37	5.05	
2025-01-08 04:05:23.01	13.35	5.05	
2025-01-08 04:05:23.23	13.32	5.06	
2025-01-08 04:05:23.44	13.29	5.07	
2025-01-08 04:05:23.65	13.27	5.08	
2025-01-08 04:05:23.85	13.24	5.09	
2025-01-08 04:05:24.06	13.21	5.09	
2025-01-08 04:05:24.26	13.19	5.10	
2025-01-08 04:05:24.47	13.16	5.11	
2025-01-08 04:05:24.67	13.14	5.12	
2025-01-08 04:05:24.88	13.11	5.13	
2025-01-08 04:05:25.08	13.08	5.13	
2025-01-08 04:05:25.29	13.06	5.14	
2025-01-08 04:05:25.49	13.03	5.15	
2025-01-08 04:05:25.70	13.00	5.16	
2025-01-08 04:05:25.90	12.98	5.16	
2025-01-08 04:05:26.11	12.95	5.17	
2025-01-08 04:05:26.31	12.92	5.18	
2025-01-08 04:05:26.52	12.90	5.19	
2025-01-08 04:05:26.72	12.87	5.19	
2025-01-08 04:05:26.92	12.85	5.20	
2025-01-08 04:05:27.13	12.82	5.21	
2025-01-08 04:05:27.34	12.79	5.22	
2025-01-08 04:05:27.54	12.77	5.23	
2025-01-08 04:05:27.74	12.74	5.23	
2025-01-08 04:05:27.95	12.71	5.24	
2025-01-08 04:05:28.15	12.69	5.25	
2025-01-08 04:05:28.36	12.66	5.26	
2025-01-08 04:05:28.58	12.63	5.26	
2025-01-08 04:05:28.78	12.60	5.27	
2025-01-08 04:05:28.99	12.58	5.28	
2025-01-08 04:05:29.19	12.55	5.29	
2025-01-08 04:05:29.40	12.52	5.29	
2025-01-08 04:05:29.60	12.50	5.30	
2025-01-08 04:05:29.81	12.47	5.31	
2025-01-08 04:05:30.01	12.44	5.32	
2025-01-08 04:05:30.22	12.42	5.33	
2025-01-08 04:05:30.42	12.39	5.33	
2025-01-08 04:05:30.63	12.36	5.34	
2025-01-08 04:05:30.84	12.34	5.35	
2025-01-08 04:05:31.04	12.31	5.36	
2025-01-08 04:05:31.24	12.28	5.36	
2025-01-08 04:05:31.45	12.26	5.37	
2025-01-08 04:05:31.65	12.23	5.38	
2025-01-08 04:05:31.86	12.20	5.39	
2025-01-08 04:05:32.06	12.18	5.39	
2025-01-08 04:05:32.27	12.15	5.40	
2025-01-08 04:05:32.47	12.12	5.41	
2025-01-08 04:05:32.68	12.10	5.42	
2025-01-08 04:05:32.88	12.07	5.42	
2025-01-08 04:05:33.09	12.04	5.43	
2025-01-08 04:05:33.30	12.01	5.44	
2025-01-08 04:05:33.50	11.99	5.45	
2025-01-08 04:05:33.71	11.96	5.45	
2025-01-08 04:05:33.92	11.93	5.46	
2025-01-08 04:05:34.12	11.91	5.47	
2025-01-08 04:05:34.33	11.88	5.48	
2025-01-08 04:05:34.53	11.85	5.49	
2025-01-08 04:05:34.74	11.82	5.49	
2025-01-08 04:05:34.95	11.80	5.50	
2025-01-08 04:05:35.16	11.77	5.51	
2025-01-08 04:05:35.37	11.74	5.52	
2025-01-08 04:05:35.57	11.71	5.52	
2025-01-08 04:05:35.78	11.69	5.53	
2025-01-08 04:05:35.98	11.66	5.54	
2025-01-08 04:05:36.19	11.63	5.55	
2025-01-08 04:05:36.39	11.61	5.55	
2025-01-08 04:05:36.60	11.58	5.56	
2025-01-08 04:05:36.81	11.55	5.57	
2025-01-08 04:05:37.01	11.52	5.58	
2025-01-08 04:05:37.22	11.50	5.58	
2025-01-08 04:05:37.43	11.47	5.59	
2025-01-08 04:05:37.64	11.44	5.60	
2025-01-08 04:05:37.84	11.41	5.61	
2025-01-08 04:05:38.05	11.38	5.61	
2025-01-08 04:05:38.25	11.36	5.62	
2025-01-08 04:05:38.46	11.33	5.63	
2025-01-08 04:05:38.66	11.30	5.64	
2025-01-08 04:05:38.87	11.28	5.64	
2025-01-08 04:05:39.07	11.25	5.65	
2025-01-08 04:05:39.28	11.22	5.66	
2025-01-08 04:05:39.48	11.19	5.67	
2025-01-08 04:05:39.69	11.17	5.67	
2025-01-08 04:05:39.90	11.14	5.68	
2025-01-08 04:05:40.11	11.11	5.69	
2025-01-08 04:05:40.31	11.08	5.70	
2025-01-08 04:05:40.52	11.05	5.70	
2025-01-08 04:05:40.72	11.03	5.71	
2025-01-08 04:05:40.93	11.00	5.72	
2025-01-08 04:05:41.13	10.97	5.73	
2025-01-08 04:05:41.34	10.94	5.73	
2025-01-08 04:05:41.54	10.92	5.74	
2025-01-08 04:05:41.75	10.89	5.75	
2025-01-08 04:05:41.95	10.86	5.76	
2025-01-08 04:05:42.16	10.83	5.76	
2025-01-08 04:05:42.36	10.81	5.77	
2025-01-08 04:05:42.57	10.78	5.78	
2025-01-08 04:05:42.77	10.75	5.79	
2025-01-08 04:05:42.98	10.72	5.79	
2025-01-08 04:05:43.19	10.70	5.80	
2025-01-08 04:05:43.39	10.67	5.81	
2025-01-08 04:05:43.60	10.64	5.82	
2025-01-08 04:05:43.80	10.61	5.82	
2025-01-08 04:05:44.01	10.59	5.83	
2025-01-08 04:05:44.21	10.56	5.84	
2025-01-08 04:05:44.42	10.53	5.85	
2025-01-08 04:05:44.62	10.50	5.85	
2025-01-08 04:05:44.83	10.47	5.86	
2025-01-08 04:05:45.03	10.45	5.87	
2025-01-08 04:05:45.24	10.42	5.87	
2025-01-08 04:05:45.44	10.39	5.88	
2025-01-08 04:05:45.65	10.36	5.89	
2025-01-08 04:05:45.85	10.34	5.90	
2025-01-08 04:05:46.06	10.31	5.90	
2025-01-08 04:05:46.26	10.28	5.91	
2025-01-08 04:05:46.47	10.25	5.92	
2025-01-08 04:05:46.68	10.22	5.93	
2025-01-08 04:05:46.89	10.19	5.93	
2025-01-08 04:05:47.09	10.17	5.94	
2025-01-08 04:05:47.30	10.14	5.95	
2025-01-08 04:05:47.50	10.11	5.96	
2025-01-08 04:05:47.71	10.08	5.96	
2025-01-08 04:05:47.91	10.06	5.97	
2025-01-08 04:05:48.12	10.03	5.98	
2025-01-08 04:05:48.33	10.00	5.98	
2025-01-08 04:05:48.53	9.97	5.99	
2025-01-08 04:05:48.74	9.94	6.00	
2025-01-08 04:05:48.94	9.91	6.01	
2025-01-08 04:05:49.15	9.89	6.01	
2025-01-08 04:05:49.35	9.86	6.02	
2025-01-08 04:05:49.56	9.83	6.03	
2025-01-08 04:05:49.76	9.80	6.04	
2025-01-08 04:05:49.98	9.77	6.04	
2025-01-08 04:05:50.19	9.74	6.05	
2025-01-08 04:05:50.39	9.72	6.06	
2025-01-08 04:05:50.60	9.69	6.07	
2025-01-08 04:05:50.81	9.66	6.07	
2025-01-08 04:05:51.01	9.63	6.08	
2025-01-08 04:05:51.21	9.60	6.09	
2025-01-08 04:05:51.42	9.57	6.09	
2025-01-08 04:05:51.62	9.55	6.10	
2025-01-08 04:05:51.83	9.52	6.11	
2025-01-08 04:05:52.03	9.49	6.12	
2025-01-08 04:05:52.24	9.46	6.12	
2025-01-08 04:05:52.44	9.43	6.13	
2025-01-08 04:05:52.65	9.40	6.14	
2025-01-08 04:05:52.85	9.38	6.14	
2025-01-08 04:05:53.06	9.35	6.15	
2025-01-08 04:05:53.26	9.32	6.16	
2025-01-08 04:05:53.47	9.29	6.17	
2025-01-08 04:05:53.67	9.26	6.17	
2025-01-08 04:05:53.88	9.23	6.18	
2025-01-08 04:05:54.08	9.21	6.19	
2025-01-08 04:05:54.29	9.18	6.19	
2025-01-08 04:05:54.49	9.15	6.20	
2025-01-08 04:05:54.70	9.12	6.21	
2025-01-08 04:05:54.90	9.09	6.22	
2025-01-08 04:05:55.11	9.06	6.22	
2025-01-08 04:05:55.31	9.04	6.23	
2025-01-08 04:05:55.52	9.01	6.24	
2025-01-08 04:05:55.72	8.98	6.24	
2025-01-08 04:05:55.93	8.95	6.25	
2025-01-08 04:05:56.13	8.92	6.26	
2025-01-08 04:05:56.35	8.89	6.27	
2025-01-08 04:05:56.56	8.86	6.27	
2025-01-08 04:05:56.76	8.83	6.28	
2025-01-08 04:05:56.97	8.80	6.29	
2025-01-08 04:05:57.17	8.78	6.29	
2025-01-08 04:05:57.38	8.75	6.30	
2025-01-08 04:05:57.58	8.72	6.31	
2025-01-08 04:05:57.79	8.69	6.32	
2025-01-08 04:05:57.99	8.66	6.32	
2025-01-08 04:05:58.20	8.63	6.33	
2025-01-08 04:05:58.40	8.60	6.34	
2025-01-08 04:05:58.61	8.57	6.34	
2025-01-08 04:05:58.81	8.55	6.35	
2025-01-08 04:05:59.02	8.52	6.36	
2025-01-08 04:05:59.23	8.49	6.37	
2025-01-08 04:05:59.43	8.46	6.37	
2025-01-08 04:05:59.65	8.43	6.38	
2025-01-08 04:05:59.85	8.40	6.39	
2025-01-08 04:06:00.05	8.37	6.39	
2025-01-08 04:06:00.26	8.34	6.40	
2025-01-08 04:06:00.47	8.31	6.41	
2025-01-08 04:06:00.67	8.29	6.41	
2025-01-08 04:06:00.88	8.26	6.42	
2025-01-08 04:06:01.08	8.23	6.43	
2025-01-08 04:06:01.29	8.20	6.44	
2025-01-08 04:06:01.49	8.17	6.44	
2025-01-08 04:06:01.70	8.14	6.45	
2025-01-08 04:06:01.90	8.11	6.46	
2025-01-08 04:06:02.11	8.08	6.46	
2025-01-08 04:06:02.32	8.05	6.47	
2025-01-08 04:06:02.52	8.02	6.48	
2025-01-08 04:06:02.72	8.00	6.48	
2025-01-08 04:06:02.93	7.97	6.49	
2025-01-08 04:06:03.13	7.94	6.50	
2025-01-08 04:06:03.34	7.91	6.51	
2025-01-08 04:06:03.54	7.88	6.51	
2025-01-08 04:06:03.75	7.85	6.52	
2025-01-08 04:06:03.96	7.82	6.53	
2025-01-08 04:06:04.16	7.79	6.53	
2025-01-08 04:06:04.37	7.76	6.54	
2025-01-08 04:06:04.57	7.73	6.55	
2025-01-08 04:06:04.78	7.70	6.55	
2025-01-08 04:06:04.98	7.67	6.56	
2025-01-08 04:06:05.18	7.65	6.57	
2025-01-08 04:06:05.39	7.62	6.57	
2025-01-08 04:06:05.59	7.59	6.58	
2025-01-08 04:06:05.80	7.56	6.59	
2025-01-08 04:06:06.01	7.53	6.60	
2025-01-08 04:06:06.21	7.50	6.60	
2025-01-08 04:06:06.42	7.47	6.61	
2025-01-08 04:06:06.62	7.44	6.62	
2025-01-08 04:06:06.83	7.41	6.62	
2025-01-08 04:06:07.03	7.38	6.63	
2025-01-08 04:06:07.24	7.35	6.64	
2025-01-08 04:06:07.44	7.32	6.64	
2025-01-08 04:06:07.65	7.29	6.65	
2025-01-08 04:06:07.85	7.26	6.66	
2025-01-08 04:06:08.06	7.23	6.66	
2025-01-08 04:06:08.26	7.21	6.67	
2025-01-08 04:06:08.47	7.18	6.68	
2025-01-08 04:06:08.67	7.15	6.68	
2025-01-08 04:06:08.88	7.12	6.69	
2025-01-08 04:06:09.08	7.09	6.70	
2025-01-08 04:06:09.29	7.06	6.70	
2025-01-08 04:06:09.49	7.03	6.71	
2025-01-08 04:06:09.70	7.00	6.72	
2025-01-08 04:06:09.91	6.97	6.73	
2025-01-08 04:06:10.11	6.94	6.73	
2025-01-08 04:06:10.31	6.91	6.74	
2025-01-08 04:06:10.52	6.88	6.75	
2025-01-08 04:06:10.73	6.85	6.75	
2025-01-08 04:06:10.93	6.82	6.76	
2025-01-08 04:06:11.14	6.79	6.77	
2025-01-08 04:06:11.34	6.76	6.77	
2025-01-08 04:06:11.54	6.73	6.78	
2025-01-08 04:06:11.75	6.70	6.79	
2025-01-08 04:06:11.95	6.67	6.79	
2025-01-08 04:06:12.16	6.64	6.80	
2025-01-08 04:06:12.36	6.62	6.81	
2025-01-08 04:06:12.57	6.58	6.81	
2025-01-08 04:06:12.77	6.56	6.82	
2025-01-08 04:06:12.98	6.53	6.83	
2025-01-08 04:06:13.19	6.49	6.83	
2025-01-08 04:06:13.40	6.46	6.84	
2025-01-08 04:06:13.61	6.43	6.85	
2025-01-08 04:06:13.81	6.40	6.85	
2025-01-08 04:06:14.02	6.37	6.86	
2025-01-08 04:06:14.22	6.35	6.87	
2025-01-08 04:06:14.43	6.31	6.87	
2025-01-08 04:06:14.63	6.29	6.88	
2025-01-08 04:06:14.84	6.26	6.89	
2025-01-08 04:06:15.05	6.22	6.89	
2025-01-08 04:06:15.25	6.20	6.90	
2025-01-08 04:06:15.45	6.17	6.91	
2025-01-08 04:06:15.66	6.14	6.91	
2025-01-08 04:06:15.86	6.11	6.92	
2025-01-08 04:06:16.07	6.08	6.93	
2025-01-08 04:06:16.28	6.05	6.93	
2025-01-08 04:06:16.48	6.02	6.94	
2025-01-08 04:06:16.69	5.99	6.95	
2025-01-08 04:06:16.89	5.96	6.95	
2025-01-08 04:06:17.10	5.93	6.96	
2025-01-08 04:06:17.30	5.90	6.97	
2025-01-08 04:06:17.50	5.87	6.97	
2025-01-08 04:06:17.71	5.84	6.98	
2025-01-08 04:06:17.91	5.81	6.99	
2025-01-08 04:06:18.12	5.78	6.99	
2025-01-08 04:06:18.32	5.75	7.00	
2025-01-08 04:06:18.53	5.72	7.01	
2025-01-08 04:06:18.75	5.68	7.01	
2025-01-08 04:06:18.95	5.65	7.02	
2025-01-08 04:06:19.16	5.62	7.03	
2025-01-08 04:06:19.36	5.59	7.03	
2025-01-08 04:06:19.57	5.56	7.04	
2025-01-08 04:06:19.77	5.53	7.04	
2025-01-08 04:06:19.98	5.50	7.05	
2025-01-08 04:06:20.18	5.47	7.06	
2025-01-08 04:06:20.38	5.44	7.06	
2025-01-08 04:06:20.59	5.41	7.07	
2025-01-08 04:06:20.79	5.38	7.08	
2025-01-08 04:06:21.00	5.35	7.08	
2025-01-08 04:06:21.20	5.32	7.09	
2025-01-08 04:06:21.41	5.29	7.10	
2025-01-08 04:06:21.61	5.26	7.10	
2025-01-08 04:06:21.82	5.23	7.11	
2025-01-08 04:06:22.02	5.20	7.12	
2025-01-08 04:06:22.23	5.17	7.12	
2025-01-08 04:06:22.43	5.14	7.13	
2025-01-08 04:06:22.64	5.11	7.13	
2025-01-08 04:06:22.84	5.08	7.14	
2025-01-08 04:06:23.05	5.05	7.15	
2025-01-08 04:06:23.25	5.02	7.15	
2025-01-08 04:06:23.46	4.99	7.16	
2025-01-08 04:06:23.66	4.96	7.17	
2025-01-08 04:06:23.87	4.93	7.17	
2025-01-08 04:06:24.07	4.90	7.18	
2025-01-08 04:06:24.28	4.87	7.19	
2025-01-08 04:06:24.48	4.84	7.19	
2025-01-08 04:06:24.69	4.80	7.20	
2025-01-08 04:06:24.89	4.78	7.20	
2025-01-08 04:06:25.11	4.74	7.21	
2025-01-08 04:06:25.31	4.71	7.22	
2025-01-08 04:06:25.52	4.68	7.22	
2025-01-08 04:06:25.73	4.65	7.23	
2025-01-08 04:06:25.93	4.62	7.24	
2025-01-08 04:06:26.14	4.59	7.24	
2025-01-08 04:06:26.34	4.56	7.25	
2025-01-08 04:06:26.55	4.53	7.26	
2025-01-08 04:06:26.75	4.50	7.26	
2025-01-08 04:06:26.96	4.47	7.27	
2025-01-08 04:06:27.16	4.44	7.27	
2025-01-08 04:06:27.37	4.40	7.28	
2025-01-08 04:06:27.58	4.37	7.29	
2025-01-08 04:06:27.78	4.34	7.29	
2025-01-08 04:06:27.99	4.31	7.30	
2025-01-08 04:06:28.19	4.28	7.31	
2025-01-08 04:06:28.40	4.25	7.31	
2025-01-08 04:06:28.60	4.22	7.32	
2025-01-08 04:06:28.81	4.19	7.33	
2025-01-08 04:06:29.01	4.16	7.33	
2025-01-08 04:06:29.22	4.13	7.34	
2025-01-08 04:06:29.42	4.10	7.34	
2025-01-08 04:06:29.63	4.07	7.35	
2025-01-08 04:06:29.84	4.03	7.36	
2025-01-08 04:06:30.04	4.00	7.36	
2025-01-08 04:06:30.25	3.97	7.37	
2025-01-08 04:06:30.47	3.94	7.38	
2025-01-08 04:06:30.67	3.91	7.38	
2025-01-08 04:06:30.88	3.88	7.39	
2025-01-08 04:06:31.08	3.85	7.39	
2025-01-08 04:06:31.29	3.82	7.40	
2025-01-08 04:06:31.49	3.79	7.41	
2025-01-08 04:06:31.70	3.75	7.41	
2025-01-08 04:06:31.91	3.72	7.42	
2025-01-08 04:06:32.11	3.69	7.42	
2025-01-08 04:06:32.32	3.66	7.43	
2025-01-08 04:06:32.52	3.63	7.44	
2025-01-08 04:06:32.73	3.60	7.44	
2025-01-08 04:06:32.93	3.57	7.45	
2025-01-08 04:06:33.14	3.54	7.46	
2025-01-08 04:06:33.34	3.51	7.46	
2025-01-08 04:06:33.55	3.47	7.47	
2025-01-08 04:06:33.75	3.44	7.47	
2025-01-08 04:06:33.96	3.41	7.48	
2025-01-08 04:06:34.17	3.38	7.49	
2025-01-08 04:06:34.37	3.35	7.49	
2025-01-08 04:06:34.58	3.32	7.50	
2025-01-08 04:06:34.78	3.29	7.50	
2025-01-08 04:06:34.99	3.25	7.51	
2025-01-08 04:06:35.19	3.22	7.52	
2025-01-08 04:06:35.40	3.19	7.52	
2025-01-08 04:06:35.60	3.16	7.53	
2025-01-08 04:06:35.81	3.13	7.53	
2025-01-08 04:06:36.01	3.10	7.54	
2025-01-08 04:06:36.22	3.07	7.55	
2025-01-08 04:06:36.42	3.04	7.55	
2025-01-08 04:06:36.63	3.00	7.56	
2025-01-08 04:06:36.83	2.97	7.56	
2025-01-08 04:06:37.04	2.94	7.57	
2025-01-08 04:06:37.25	2.91	7.58	
2025-01-08 04:06:37.45	2.88	7.58	
2025-01-08 04:06:37.66	2.85	7.59	
2025-01-08 04:06:37.86	2.82	7.59	
2025-01-08 04:06:38.06	2.79	7.60	
2025-01-08 04:06:38.27	2.75	7.61	
2025-01-08 04:06:38.48	2.72	7.61	
2025-01-08 04:06:38.68	2.69	7.62	
2025-01-08 04:06:38.88	2.66	7.62	
2025-01-08 04:06:39.09	2.63	7.63	
2025-01-08 04:06:39.29	2.60	7.64	
2025-01-08 04:06:39.50	2.57	7.64	
2025-01-08 04:06:39.71	2.53	7.65	
2025-01-08 04:06:39.91	2.50	7.65	
2025-01-08 04:06:40.12	2.47	7.66	
2025-01-08 04:06:40.32	2.44	7.67	
2025-01-08 04:06:40.53	2.41	7.67	
2025-01-08 04:06:40.73	2.38	7.68	
2025-01-08 04:06:40.94	2.34	7.68	
2025-01-08 04:06:41.14	2.31	7.69	
2025-01-08 04:06:41.35	2.28	7.69	
2025-01-08 04:06:41.55	2.25	7.70	
2025-01-08 04:06:41.76	2.22	7.71	
2025-01-08 04:06:41.96	2.19	7.71	
2025-01-08 04:06:42.17	2.15	7.72	
2025-01-08 04:06:42.37	2.12	7.72	
2025-01-08 04:06:42.58	2.09	7.73	
2025-01-08 04:06:42.78	2.06	7.74	
2025-01-08 04:06:42.99	2.03	7.74	
2025-01-08 04:06:43.19	2.00	7.75	
2025-01-08 04:06:43.40	1.96	7.75	
2025-01-08 04:06:43.60	1.93	7.76	
2025-01-08 04:06:43.81	1.90	7.76	
2025-01-08 04:06:44.01	1.87	7.77	
2025-01-08 04:06:44.22	1.84	7.78	
2025-01-08 04:06:44.42	1.81	7.78	
2025-01-08 04:06:44.63	1.77	7.79	
2025-01-08 04:06:44.83	1.74	7.79	
2025-01-08 04:06:45.04	1.71	7.80	
2025-01-08 04:06:45.24	1.68	7.80	
2025-01-08 04:06:45.45	1.65	7.81	
2025-01-08 04:06:45.65	1.62	7.82	
2025-01-08 04:06:45.86	1.58	7.82	
2025-01-08 04:06:46.06	1.55	7.83	
2025-01-08 04:06:46.27	1.52	7.83	
2025-01-08 04:06:46.47	1.49	7.84	
2025-01-08 04:06:46.68	1.46	7.84	
2025-01-08 04:06:46.88	1.42	7.85	
2025-01-08 04:06:47.09	1.39	7.86	
2025-01-08 04:06:47.29	1.36	7.86	
2025-01-08 04:06:47.50	1.33	7.87	
2025-01-08 04:06:47.70	1.30	7.87	
2025-01-08 04:06:47.91	1.26	7.88	
2025-01-08 04:06:48.11	1.23	7.88	
2025-01-08 04:06:48.32	1.20	7.89	
2025-01-08 04:06:48.52	1.17	7.89	
2025-01-08 04:06:48.73	1.14	7.90	
2025-01-08 04:06:48.93	1.10	7.91	
2025-01-08 04:06:49.14	1.07	7.91	
2025-01-08 04:06:49.34	1.04	7.92	
2025-01-08 04:06:49.54	1.01	7.92	
2025-01-08 04:06:49.75	0.98	7.93	
2025-01-08 04:06:49.96	0.94	7.93	
2025-01-08 04:06:50.16	0.91	7.94	
2025-01-08 04:06:50.37	0.88	7.94	
2025-01-08 04:06:50.57	0.85	7.95	
2025-01-08 04:06:50.78	0.81	7.96	
2025-01-08 04:06:50.98	0.78	7.96	
2025-01-08 04:06:51.19	0.75	7.97	
2025-01-08 04:06:51.39	0.72	7.97	
2025-01-08 04:06:51.60	0.69	7.98	
2025-01-08 04:06:51.80	0.65	7.98	
2025-01-08 04:06:52.01	0.62	7.99	
2025-01-08 04:06:52.21	0.59	7.99	
2025-01-08 04:06:52.42	0.56	8.00	
2025-01-08 04:06:52.62	0.52	8.00	
2025-01-08 04:06:52.84	0.49	8.01	
2025-01-08 04:06:53.04	0.46	8.02	
2025-01-08 04:06:53.25	0.43	8.02	
2025-01-08 04:06:53.45	0.39	8.03	
2025-01-08 04:06:53.66	0.36	8.03	
2025-01-08 04:06:53.86	0.33	8.04	
2025-01-08 04:06:54.07	0.30	8.04	
2025-01-08 04:06:54.28	0.26	8.05	
2025-01-08 04:06:54.48	0.23	8.05	
2025-01-08 04:06:54.69	0.20	8.06	
2025-01-08 04:06:54.89	0.17	8.06	
2025-01-08 04:06:55.10	0.13	8.07	
2025-01-08 04:06:55.30	0.10	8.07	
2025-01-08 04:06:55.51	0.07	8.08	
2025-01-08 04:06:55.71	0.04	8.09	
2025-01-08 04:06:55.92	0.00	8.09	
2025-01-08 04:06:56.12	359.97	8.10	
2025-01-08 04:06:56.33	359.94	8.10	
2025-01-08 04:06:56.53	359.91	8.11	
2025-01-08 04:06:56.74	359.87	8.11	
2025-01-08 04:06:56.95	359.84	8.12	
2025-01-08 04:06:57.15	359.81	8.12	
2025-01-08 04:06:57.36	359.77	8.13	
2025-01-08 04:06:57.56	359.74	8.13	
2025-01-08 04:06:57.77	359.71	8.14	
2025-01-08 04:06:57.97	359.68	8.14	
2025-01-08 04:06:58.19	359.64	8.15	
2025-01-08 04:06:58.40	359.61	8.15	
2025-01-08 04:06:58.60	359.58	8.16	
2025-01-08 04:06:58.81	359.54	8.17	
2025-01-08 04:06:59.01	359.51	8.17	
2025-01-08 04:06:59.21	359.48	8.18	
2025-01-08 04:06:59.42	359.45	8.18	
2025-01-08 04:06:59.63	359.41	8.19	
2025-01-08 04:06:59.83	359.38	8.19	
2025-01-08 04:07:00.04	359.35	8.20	
2025-01-08 04:07:00.25	359.31	8.20	
2025-01-08 04:07:00.46	359.28	8.21	
2025-01-08 04:07:00.66	359.25	8.21	
2025-01-08 04:07:00.87	359.22	8.22	
2025-01-08 04:07:01.08	359.18	8.22	
2025-01-08 04:07:01.28	359.15	8.23	
2025-01-08 04:07:01.48	359.12	8.23	
2025-01-08 04:07:01.69	359.08	8.24	
2025-01-08 04:07:01.90	359.05	8.24	
2025-01-08 04:07:02.10	359.02	8.25	
2025-01-08 04:07:02.31	358.99	8.25	
2025-01-08 04:07:02.51	358.95	8.26	
2025-01-08 04:07:02.72	358.92	8.26	
2025-01-08 04:07:02.92	358.89	8.27	
2025-01-08 04:07:03.13	358.85	8.27	
2025-01-08 04:07:03.34	358.82	8.28	
2025-01-08 04:07:03.54	358.79	8.28	
2025-01-08 04:07:03.75	358.75	8.29	
2025-01-08 04:07:03.95	358.72	8.29	
2025-01-08 04:07:04.16	358.69	8.30	
2025-01-08 04:07:04.36	358.66	8.30	
2025-01-08 04:07:04.57	358.62	8.31	
2025-01-08 04:07:04.77	358.59	8.31	
2025-01-08 04:07:04.98	358.56	8.32	
2025-01-08 04:07:05.18	358.52	8.32	
2025-01-08 04:07:05.39	358.49	8.33	
2025-01-08 04:07:05.60	358.46	8.33	
2025-01-08 04:07:05.81	358.42	8.34	
2025-01-08 04:07:06.01	358.39	8.34	
2025-01-08 04:07:06.22	358.36	8.35	
2025-01-08 04:07:06.42	358.32	8.35	
2025-01-08 04:07:06.63	358.29	8.36	
2025-01-08 04:07:06.83	358.26	8.36	
2025-01-08 04:07:07.03	358.23	8.37	
2025-01-08 04:07:07.24	358.19	8.37	
2025-01-08 04:07:07.45	358.16	8.38	
2025-01-08 04:07:07.65	358.13	8.38	
2025-01-08 04:07:07.85	358.09	8.39	
2025-01-08 04:07:08.06	358.06	8.39	
2025-01-08 04:07:08.27	358.03	8.40	
2025-01-08 04:07:08.47	357.99	8.40	
2025-01-08 04:07:08.68	357.96	8.41	
2025-01-08 04:07:08.89	357.92	8.41	
2025-01-08 04:07:09.10	357.89	8.42	
2025-01-08 04:07:09.30	357.86	8.42	
2025-01-08 04:07:09.51	357.82	8.43	
2025-01-08 04:07:09.72	357.79	8.43	
2025-01-08 04:07:09.92	357.76	8.44	
2025-01-08 04:07:10.12	357.73	8.44	
2025-01-08 04:07:10.33	357.69	8.45	
2025-01-08 04:07:10.54	357.66	8.45	
2025-01-08 04:07:10.74	357.62	8.45	
2025-01-08 04:07:10.95	357.59	8.46	
2025-01-08 04:07:11.15	357.56	8.46	
2025-01-08 04:07:11.36	357.52	8.47	
2025-01-08 04:07:11.56	357.49	8.47	
2025-01-08 04:07:11.77	357.46	8.48	
2025-01-08 04:07:11.97	357.42	8.48	
2025-01-08 04:07:12.18	357.39	8.49	
2025-01-08 04:07:12.38	357.36	8.49	
2025-01-08 04:07:12.59	357.32	8.50	
2025-01-08 04:07:12.79	357.29	8.50	
2025-01-08 04:07:13.00	357.26	8.51	
2025-01-08 04:07:13.20	357.22	8.51	
2025-01-08 04:07:13.41	357.19	8.52	
2025-01-08 04:07:13.62	357.16	8.52	
2025-01-08 04:07:13.82	357.12	8.53	
2025-01-08 04:07:14.03	357.09	8.53	
2025-01-08 04:07:14.23	357.06	8.53	
2025-01-08 04:07:14.44	357.02	8.54	
2025-01-08 04:07:14.64	356.99	8.54	
2025-01-08 04:07:14.85	356.95	8.55	
2025-01-08 04:07:15.05	356.92	8.55	
2025-01-08 04:07:15.26	356.89	8.56	
2025-01-08 04:07:15.46	356.85	8.56	
2025-01-08 04:07:15.67	356.82	8.57	
2025-01-08 04:07:15.87	356.79	8.57	
2025-01-08 04:07:16.08	356.75	8.58	
2025-01-08 04:07:16.28	356.72	8.58	
2025-01-08 04:07:16.49	356.69	8.58	
2025-01-08 04:07:16.69	356.65	8.59	
2025-01-08 04:07:16.90	356.62	8.59	
2025-01-08 04:07:17.10	356.59	8.60	
2025-01-08 04:07:17.31	356.55	8.60	
2025-01-08 04:07:17.51	356.52	8.61	
2025-01-08 04:07:17.72	356.48	8.61	
2025-01-08 04:07:17.92	356.45	8.62	
2025-01-08 04:07:18.13	356.42	8.62	
2025-01-08 04:07:18.33	356.38	8.62	
2025-01-08 04:07:18.54	356.35	8.63	
2025-01-08 04:07:18.74	356.32	8.63	
2025-01-08 04:07:18.95	356.28	8.64	
2025-01-08 04:07:19.15	356.25	8.64	
2025-01-08 04:07:19.36	356.21	8.65	
2025-01-08 04:07:19.56	356.18	8.65	
2025-01-08 04:07:19.77	356.15	8.66	
2025-01-08 04:07:19.97	356.11	8.66	
2025-01-08 04:07:20.18	356.08	8.66	
2025-01-08 04:07:20.38	356.05	8.67	
2025-01-08 04:07:20.59	356.01	8.67	
2025-01-08 04:07:20.80	355.98	8.68	
2025-01-08 04:07:21.00	355.94	8.68	
2025-01-08 04:07:21.21	355.91	8.69	
2025-01-08 04:07:21.41	355.88	8.69	
2025-01-08 04:07:21.63	355.84	8.69	
2025-01-08 04:07:21.84	355.80	8.70	
2025-01-08 04:07:22.04	355.77	8.70	
2025-01-08 04:07:22.25	355.74	8.71	
2025-01-08 04:07:22.45	355.70	8.71	
2025-01-08 04:07:22.66	355.67	8.72	
2025-01-08 04:07:22.86	355.64	8.72	
2025-01-08 04:07:23.07	355.60	8.72	
2025-01-08 04:07:23.28	355.57	8.73	
2025-01-08 04:07:23.48	355.53	8.73	
2025-01-08 04:07:23.69	355.50	8.74	
2025-01-08 04:07:23.89	355.46	8.74	
2025-01-08 04:07:24.10	355.43	8.75	
2025-01-08 04:07:24.30	355.40	8.75	
2025-01-08 04:07:24.51	355.36	8.75	
2025-01-08 04:07:24.72	355.33	8.76	
2025-01-08 04:07:24.92	355.29	8.76	
2025-01-08 04:07:25.12	355.26	8.77	
2025-01-08 04:07:25.33	355.23	8.77	
2025-01-08 04:07:25.54	355.19	8.78	
2025-01-08 04:07:25.74	355.16	8.78	
2025-01-08 04:07:25.96	355.12	8.78	
2025-01-08 04:07:26.16	355.09	8.79	
2025-01-08 04:07:26.37	355.05	8.79	
2025-01-08 04:07:26.57	355.02	8.80	
2025-01-08 04:07:26.78	354.98	8.80	
2025-01-08 04:07:26.98	354.95	8.80	
2025-01-08 04:07:27.19	354.92	8.81	
2025-01-08 04:07:27.40	354.88	8.81	
2025-01-08 04:07:27.60	354.85	8.82	
2025-01-08 04:07:27.81	354.81	8.82	
2025-01-08 04:07:28.01	354.78	8.82	
2025-01-08 04:07:28.22	354.74	8.83	
2025-01-08 04:07:28.42	354.71	8.83	
2025-01-08 04:07:28.63	354.68	8.84	
2025-01-08 04:07:28.84	354.64	8.84	
2025-01-08 04:07:29.04	354.61	8.84	
2025-01-08 04:07:29.24	354.57	8.85	
2025-01-08 04:07:29.45	354.54	8.85	
2025-01-08 04:07:29.65	354.51	8.86	
2025-01-08 04:07:29.86	354.47	8.86	
2025-01-08 04:07:30.06	354.44	8.86	
2025-01-08 04:07:30.27	354.40	8.87	
2025-01-08 04:07:30.47	354.37	8.87	
2025-01-08 04:07:30.68	354.33	8.88	
2025-01-08 04:07:30.89	354.30	8.88	
2025-01-08 04:07:31.09	354.26	8.88	
2025-01-08 04:07:31.29	354.23	8.89	
2025-01-08 04:07:31.50	354.20	8.89	
2025-01-08 04:07:31.70	354.16	8.89	
2025-01-08 04:07:31.91	354.13	8.90	
2025-01-08 04:07:32.11	354.09	8.90	
2025-01-08 04:07:32.32	354.06	8.91	
2025-01-08 04:07:32.52	354.03	8.91	
2025-01-08 04:07:32.73	353.99	8.91	
2025-01-08 04:07:32.93	353.96	8.92	
2025-01-08 04:07:33.14	353.92	8.92	
2025-01-08 04:07:33.34	353.89	8.93	
2025-01-08 04:07:33.55	353.85	8.93	
2025-01-08 04:07:33.75	353.82	8.93	
2025-01-08 04:07:33.96	353.78	8.94	
2025-01-08 04:07:34.16	353.75	8.94	
2025-01-08 04:07:34.37	353.71	8.94	
2025-01-08 04:07:34.57	353.68	8.95	
2025-01-08 04:07:34.78	353.65	8.95	
2025-01-08 04:07:34.98	353.61	8.96	
2025-01-08 04:07:35.19	353.58	8.96	
2025-01-08 04:07:35.40	353.54	8.96	
2025-01-08 04:07:35.60	353.51	8.97	
2025-01-08 04:07:35.80	353.47	8.97	
2025-01-08 04:07:36.01	353.44	8.97	
2025-01-08 04:07:36.22	353.40	8.98	
2025-01-08 04:07:36.42	353.37	8.98	
2025-01-08 04:07:36.62	353.34	8.98	
2025-01-08 04:07:36.83	353.30	8.99	
2025-01-08 04:07:37.04	353.26	8.99	
2025-01-08 04:07:37.24	353.23	9.00	
2025-01-08 04:07:37.45	353.20	9.00	
2025-01-08 04:07:37.65	353.16	9.00	
2025-01-08 04:07:37.86	353.13	9.01	
2025-01-08 04:07:38.06	353.09	9.01	
2025-01-08 04:07:38.27	353.06	9.01	
2025-01-08 04:07:38.47	353.02	9.02	
2025-01-08 04:07:38.68	352.99	9.02	
2025-01-08 04:07:38.88	352.95	9.02	
2025-01-08 04:07:39.09	352.92	9.03	
2025-01-08 04:07:39.29	352.88	9.03	
2025-01-08 04:07:39.50	352.85	9.03	
2025-01-08 04:07:39.70	352.81	9.04	
2025-01-08 04:07:39.91	352.78	9.04	
2025-01-08 04:07:40.11	352.75	9.04	
2025-01-08 04:07:40.32	352.71	9.05	
2025-01-08 04:07:40.52	352.68	9.05	
2025-01-08 04:07:40.73	352.64	9.06	
2025-01-08 04:07:40.93	352.61	9.06	
2025-01-08 04:07:41.14	352.57	9.06	
2025-01-08 04:07:41.34	352.54	9.07	
2025-01-08 04:07:41.55	352.50	9.07	
2025-01-08 04:07:41.75	352.47	9.07	
2025-01-08 04:07:41.96	352.43	9.08	
2025-01-08 04:07:42.16	352.40	9.08	
2025-01-08 04:07:42.37	352.36	9.08	
2025-01-08 04:07:42.57	352.33	9.09	
2025-01-08 04:07:42.78	352.29	9.09	
2025-01-08 04:07:42.98	352.26	9.09	
2025-01-08 04:07:43.19	352.22	9.10	
2025-01-08 04:07:43.40	352.19	9.10	
2025-01-08 04:07:43.60	352.15	9.10	
2025-01-08 04:07:43.81	352.12	9.11	
2025-01-08 04:07:44.01	352.08	9.11	
2025-01-08 04:07:44.22	352.05	9.11	
2025-01-08 04:07:44.42	352.01	9.12	
2025-01-08 04:07:44.63	351.98	9.12	
2025-01-08 04:07:44.84	351.94	9.12	
2025-01-08 04:07:45.04	351.91	9.13	
2025-01-08 04:07:45.24	351.87	9.13	
2025-01-08 04:07:45.45	351.84	9.13	
2025-01-08 04:07:45.66	351.80	9.13	
2025-01-08 04:07:45.86	351.77	9.14	
2025-01-08 04:07:46.06	351.73	9.14	
2025-01-08 04:07:46.27	351.70	9.14	
2025-01-08 04:07:46.47	351.66	9.15	
2025-01-08 04:07:46.68	351.63	9.15	
2025-01-08 04:07:46.88	351.59	9.15	
2025-01-08 04:07:47.09	351.56	9.16	
2025-01-08 04:07:47.29	351.52	9.16	
2025-01-08 04:07:47.50	351.49	9.16	
2025-01-08 04:07:47.70	351.45	9.17	
2025-01-08 04:07:47.91	351.42	9.17	
2025-01-08 04:07:48.12	351.38	9.17	
2025-01-08 04:07:48.33	351.35	9.18	
2025-01-08 04:07:48.54	351.31	9.18	
2025-01-08 04:07:48.74	351.28	9.18	
2025-01-08 04:07:48.95	351.24	9.18	
2025-01-08 04:07:49.16	351.20	9.19	
2025-01-08 04:07:49.36	351.17	9.19	
2025-01-08 04:07:49.57	351.13	9.19	
2025-01-08 04:07:49.77	351.10	9.20	
2025-01-08 04:07:49.98	351.06	9.20	
2025-01-08 04:07:50.18	351.03	9.20	
2025-01-08 04:07:50.39	350.99	9.21	
2025-01-08 04:07:50.59	350.96	9.21	
2025-01-08 04:07:50.80	350.92	9.21	
2025-01-08 04:07:51.00	350.89	9.21	
2025-01-08 04:07:51.20	350.86	9.22	
2025-01-08 04:07:51.41	350.82	9.22	
2025-01-08 04:07:51.61	350.78	9.22	
2025-01-08 04:07:51.82	350.75	9.23	
2025-01-08 04:07:52.02	350.71	9.23	
2025-01-08 04:07:52.23	350.68	9.23	
2025-01-08 04:07:52.43	350.64	9.24	
2025-01-08 04:07:52.64	350.61	9.24	
2025-01-08 04:07:52.85	350.57	9.24	
2025-01-08 04:07:53.05	350.54	9.24	
2025-01-08 04:07:53.26	350.50	9.25	
2025-01-08 04:07:53.46	350.47	9.25	
2025-01-08 04:07:53.67	350.43	9.25	
2025-01-08 04:07:53.87	350.40	9.26	
2025-01-08 04:07:54.08	350.36	9.26	
2025-01-08 04:07:54.28	350.33	9.26	
2025-01-08 04:07:54.49	350.29	9.26	
2025-01-08 04:07:54.69	350.26	9.27	
2025-01-08 04:07:54.90	350.22	9.27	
2025-01-08 04:07:55.10	350.19	9.27	
2025-01-08 04:07:55.31	350.15	9.27	
2025-01-08 04:07:55.51	350.11	9.28	
2025-01-08 04:07:55.72	350.08	9.28	
2025-01-08 04:07:55.92	350.04	9.28	
2025-01-08 04:07:56.13	350.01	9.29	
2025-01-08 04:07:56.34	349.97	9.29	
2025-01-08 04:07:56.54	349.94	9.29	
2025-01-08 04:07:56.75	349.90	9.29	
2025-01-08 04:07:56.95	349.87	9.30	
2025-01-08 04:07:57.16	349.83	9.30	
2025-01-08 04:07:57.36	349.80	9.30	
2025-01-08 04:07:57.57	349.76	9.30	
2025-01-08 04:07:57.77	349.73	9.31	
2025-01-08 04:07:57.98	349.69	9.31	
2025-01-08 04:07:58.18	349.65	9.31	
2025-01-08 04:07:58.39	349.62	9.31	
2025-01-08 04:07:58.59	349.58	9.32	
2025-01-08 04:07:58.80	349.55	9.32	
2025-01-08 04:07:59.00	349.51	9.32	
2025-01-08 04:07:59.21	349.48	9.32	
2025-01-08 04:07:59.41	349.44	9.33	
2025-01-08 04:07:59.62	349.41	9.33	
2025-01-08 04:07:59.82	349.37	9.33	
2025-01-08 04:08:00.02	349.34	9.33	
2025-01-08 04:08:00.23	349.30	9.34	
2025-01-08 04:08:00.43	349.27	9.34	
2025-01-08 04:08:00.64	349.23	9.34	
2025-01-08 04:08:00.84	349.19	9.34	
2025-01-08 04:08:01.05	349.16	9.35	
2025-01-08 04:08:01.25	349.12	9.35	
2025-01-08 04:08:01.46	349.09	9.35	
2025-01-08 04:08:01.66	349.05	9.35	
2025-01-08 04:08:01.87	349.02	9.36	
2025-01-08 04:08:02.07	348.98	9.36	
2025-01-08 04:08:02.28	348.95	9.36	
2025-01-08 04:08:02.48	348.91	9.36	
2025-01-08 04:08:02.69	348.87	9.37	
2025-01-08 04:08:02.89	348.84	9.37	
2025-01-08 04:08:03.10	348.80	9.37	
2025-01-08 04:08:03.30	348.77	9.37	
2025-01-08 04:08:03.51	348.73	9.38	
2025-01-08 04:08:03.71	348.70	9.38	
2025-01-08 04:08:03.92	348.66	9.38	
2025-01-08 04:08:04.13	348.62	9.38	
2025-01-08 04:08:04.33	348.59	9.38	
2025-01-08 04:08:04.53	348.56	9.39	
2025-01-08 04:08:04.74	348.52	9.39	
2025-01-08 04:08:04.94	348.48	9.39	
2025-01-08 04:08:05.15	348.45	9.39	
2025-01-08 04:08:05.36	348.41	9.40	
2025-01-08 04:08:05.56	348.38	9.40	
2025-01-08 04:08:05.76	348.34	9.40	
2025-01-08 04:08:05.97	348.31	9.40	
2025-01-08 04:08:06.18	348.27	9.41	
2025-01-08 04:08:06.38	348.23	9.41	
2025-01-08 04:08:06.59	348.20	9.41	
2025-01-08 04:08:06.79	348.16	9.41	
2025-01-08 04:08:07.00	348.13	9.41	
2025-01-08 04:08:07.20	348.09	9.42	
2025-01-08 04:08:07.41	348.06	9.42	
2025-01-08 04:08:07.61	348.02	9.42	
2025-01-08 04:08:07.82	347.98	9.42	
2025-01-08 04:08:08.02	347.95	9.42	
2025-01-08 04:08:08.23	347.91	9.43	
2025-01-08 04:08:08.43	347.88	9.43	
2025-01-08 04:08:08.64	347.84	9.43	
2025-01-08 04:08:08.84	347.81	9.43	
2025-01-08 04:08:09.05	347.77	9.43	
2025-01-08 04:08:09.25	347.74	9.44	
2025-01-08 04:08:09.46	347.70	9.44	
2025-01-08 04:08:09.66	347.66	9.44	
2025-01-08 04:08:09.87	347.63	9.44	
2025-01-08 04:08:10.07	347.59	9.44	
2025-01-08 04:08:10.28	347.56	9.45	
2025-01-08 04:08:10.48	347.52	9.45	
2025-01-08 04:08:10.69	347.48	9.45	
2025-01-08 04:08:10.89	347.45	9.45	
2025-01-08 04:08:11.10	347.41	9.45	
2025-01-08 04:08:11.30	347.38	9.46	
2025-01-08 04:08:11.51	347.34	9.46	
2025-01-08 04:08:11.71	347.31	9.46	
2025-01-08 04:08:11.92	347.27	9.46	
2025-01-08 04:08:12.12	347.23	9.46	
2025-01-08 04:08:12.33	347.20	9.47	
2025-01-08 04:08:12.54	347.16	9.47	
2025-01-08 04:08:12.74	347.13	9.47	
2025-01-08 04:08:12.94	347.09	9.47	
2025-01-08 04:08:13.15	347.06	9.47	
2025-01-08 04:08:13.36	347.02	9.48	
2025-01-08 04:08:13.56	346.98	9.48	
2025-01-08 04:08:13.77	346.95	9.48	
2025-01-08 04:08:13.97	346.91	9.48	
2025-01-08 04:08:14.18	346.88	9.48	
2025-01-08 04:08:14.38	346.84	9.48	
2025-01-08 04:08:14.59	346.80	9.49	
2025-01-08 04:08:14.79	346.77	9.49	
2025-01-08 04:08:15.00	346.73	9.49	
2025-01-08 04:08:15.20	346.70	9.49	
2025-01-08 04:08:15.41	346.66	9.49	
2025-01-08 04:08:15.61	346.63	9.49	
2025-01-08 04:08:15.82	346.59	9.50	
2025-01-08 04:08:16.02	346.55	9.50	
2025-01-08 04:08:16.23	346.52	9.50	
2025-01-08 04:08:16.43	346.48	9.50	
2025-01-08 04:08:16.64	346.45	9.50	
2025-01-08 04:08:16.84	346.41	9.50	
2025-01-08 04:08:17.05	346.37	9.51	
2025-01-08 04:08:17.25	346.34	9.51	
2025-01-08 04:08:17.45	346.30	9.51	
2025-01-08 04:08:17.66	346.27	9.51	
2025-01-08 04:08:17.87	346.23	9.51	
2025-01-08 04:08:18.07	346.20	9.51	
2025-01-08 04:08:18.28	346.16	9.52	
2025-01-08 04:08:18.48	346.12	9.52	
2025-01-08 04:08:18.69	346.09	9.52	
2025-01-08 04:08:18.89	346.05	9.52	
2025-01-08 04:08:19.10	346.01	9.52	
2025-01-08 04:08:19.30	345.98	9.52	
2025-01-08 04:08:19.51	345.94	9.53	
2025-01-08 04:08:19.72	345.91	9.53	
2025-01-08 04:08:19.92	345.87	9.53	
2025-01-08 04:08:20.12	345.84	9.53	
2025-01-08 04:08:20.34	345.80	9.53	
2025-01-08 04:08:20.56	345.76	9.53	
2025-01-08 04:08:20.76	345.72	9.53	
2025-01-08 04:08:20.97	345.69	9.54	
2025-01-08 04:08:21.18	345.65	9.54	
2025-01-08 04:08:21.38	345.62	9.54	
2025-01-08 04:08:21.59	345.58	9.54	
2025-01-08 04:08:21.79	345.54	9.54	
2025-01-08 04:08:22.00	345.51	9.54	
2025-01-08 04:08:22.20	345.47	9.54	
2025-01-08 04:08:22.41	345.43	9.55	
2025-01-08 04:08:22.61	345.40	9.55	
2025-01-08 04:08:22.82	345.36	9.55	
2025-01-08 04:08:23.02	345.33	9.55	
2025-01-08 04:08:23.23	345.29	9.55	
2025-01-08 04:08:23.43	345.26	9.55	
2025-01-08 04:08:23.65	345.22	9.55	
2025-01-08 04:08:23.86	345.18	9.55	
2025-01-08 04:08:24.06	345.15	9.56	
2025-01-08 04:08:24.27	345.11	9.56	
2025-01-08 04:08:24.47	345.07	9.56	
2025-01-08 04:08:24.68	345.04	9.56	
2025-01-08 04:08:24.88	345.00	9.56	
2025-01-08 04:08:25.09	344.96	9.56	
2025-01-08 04:08:25.29	344.93	9.56	
2025-01-08 04:08:25.50	344.89	9.56	
2025-01-08 04:08:25.70	344.86	9.57	
2025-01-08 04:08:25.92	344.82	9.57	
2025-01-08 04:08:26.13	344.78	9.57	
2025-01-08 04:08:26.33	344.75	9.57	
2025-01-08 04:08:26.54	344.71	9.57	
2025-01-08 04:08:26.74	344.67	9.57	
2025-01-08 04:08:26.95	344.64	9.57	
2025-01-08 04:08:27.15	344.60	9.57	
2025-01-08 04:08:27.36	344.57	9.58	
2025-01-08 04:08:27.56	344.53	9.58	
2025-01-08 04:08:27.77	344.49	9.58	
2025-01-08 04:08:27.99	344.45	9.58	
2025-01-08 04:08:28.19	344.42	9.58	
2025-01-08 04:08:28.40	344.38	9.58	
2025-01-08 04:08:28.60	344.35	9.58	
2025-01-08 04:08:28.81	344.31	9.58	
2025-01-08 04:08:29.01	344.28	9.58	
2025-01-08 04:08:29.22	344.24	9.58	
2025-01-08 04:08:29.42	344.20	9.59	
2025-01-08 04:08:29.63	344.17	9.59	
2025-01-08 04:08:29.83	344.13	9.59	
2025-01-08 04:08:30.03	344.10	9.59	
2025-01-08 04:08:30.24	344.06	9.59	
2025-01-08 04:08:30.45	344.02	9.59	
2025-01-08 04:08:30.65	343.99	9.59	
2025-01-08 04:08:30.85	343.95	9.59	
2025-01-08 04:08:31.06	343.91	9.59	
2025-01-08 04:08:31.26	343.88	9.59	
2025-01-08 04:08:31.47	343.84	9.60	
2025-01-08 04:08:31.67	343.81	9.60	
2025-01-08 04:08:31.88	343.77	9.60	
2025-01-08 04:08:32.08	343.73	9.60	
2025-01-08 04:08:32.30	343.70	9.60	
2025-01-08 04:08:32.51	343.66	9.60	
2025-01-08 04:08:32.71	343.62	9.60	
2025-01-08 04:08:32.92	343.59	9.60	
2025-01-08 04:08:33.12	343.55	9.60	
2025-01-08 04:08:33.32	343.52	9.60	
2025-01-08 04:08:33.53	343.48	9.60	
2025-01-08 04:08:33.74	343.44	9.60	
2025-01-08 04:08:33.94	343.41	9.60	
2025-01-08 04:08:34.15	343.37	9.61	
2025-01-08 04:08:34.35	343.33	9.61	
2025-01-08 04:08:34.56	343.30	9.61	
2025-01-08 04:08:34.76	343.26	9.61	
2025-01-08 04:08:34.97	343.23	9.61	
2025-01-08 04:08:35.17	343.19	9.61	
2025-01-08 04:08:35.38	343.15	9.61	
2025-01-08 04:08:35.58	343.12	9.61	
2025-01-08 04:08:35.79	343.08	9.61	
2025-01-08 04:08:35.99	343.05	9.61	
2025-01-08 04:08:36.20	343.01	9.61	
2025-01-08 04:08:36.40	342.97	9.61	
2025-01-08 04:08:36.61	342.94	9.61	
2025-01-08 04:08:36.81	342.90	9.61	
2025-01-08 04:08:37.02	342.86	9.61	
2025-01-08 04:08:37.22	342.83	9.62	
2025-01-08 04:08:37.43	342.79	9.62	
2025-01-08 04:08:37.63	342.76	9.62	
2025-01-08 04:08:37.83	342.72	9.62	
2025-01-08 04:08:38.04	342.68	9.62	
2025-01-08 04:08:38.25	342.65	9.62	
2025-01-08 04:08:38.45	342.61	9.62	
2025-01-08 04:08:38.65	342.58	9.62	
2025-01-08 04:08:38.86	342.54	9.62	
2025-01-08 04:08:39.07	342.50	9.62	
2025-01-08 04:08:39.27	342.47	9.62	
2025-01-08 04:08:39.48	342.43	9.62	
2025-01-08 04:08:39.68	342.40	9.62	
2025-01-08 04:08:39.88	342.36	9.62	
2025-01-08 04:08:40.09	342.32	9.62	
2025-01-08 04:08:40.29	342.29	9.62	
2025-01-08 04:08:40.50	342.25	9.62	
2025-01-08 04:08:40.70	342.22	9.62	
2025-01-08 04:08:40.91	342.18	9.62	
2025-01-08 04:08:41.11	342.14	9.62	
2025-01-08 04:08:41.32	342.11	9.62	
2025-01-08 04:08:41.53	342.07	9.63	
2025-01-08 04:08:41.73	342.03	9.63	
2025-01-08 04:08:41.93	342.00	9.63	
2025-01-08 04:08:42.14	341.96	9.63	
2025-01-08 04:08:42.35	341.92	9.63	
2025-01-08 04:08:42.55	341.89	9.63	
2025-01-08 04:08:42.76	341.85	9.63	
2025-01-08 04:08:42.96	341.82	9.63	
2025-01-08 04:08:43.17	341.78	9.63	
2025-01-08 04:08:43.37	341.74	9.63	
2025-01-08 04:08:43.58	341.71	9.63	
2025-01-08 04:08:43.78	341.67	9.63	
2025-01-08 04:08:43.99	341.63	9.63	
2025-01-08 04:08:44.19	341.60	9.63	
2025-01-08 04:08:44.40	341.56	9.63	
2025-01-08 04:08:44.60	341.53	9.63	
2025-01-08 04:08:44.81	341.49	9.63	
2025-01-08 04:08:45.01	341.45	9.63	
2025-01-08 04:08:45.22	341.42	9.63	
2025-01-08 04:08:45.43	341.38	9.63	
2025-01-08 04:08:45.63	341.35	9.63	
2025-01-08 04:08:45.84	341.31	9.63	
2025-01-08 04:08:46.04	341.27	9.63	
2025-01-08 04:08:46.24	341.24	9.63	
2025-01-08 04:08:46.45	341.20	9.63	
2025-01-08 04:08:46.65	341.17	9.63	
2025-01-08 04:08:46.86	341.13	9.63	
2025-01-08 04:08:47.06	341.09	9.63	
2025-01-08 04:08:47.28	341.05	9.63	
2025-01-08 04:08:47.49	341.02	9.63	
2025-01-08 04:08:47.70	340.98	9.63	
2025-01-08 04:08:47.91	340.94	9.63	
2025-01-08 04:08:48.12	340.91	9.63	
2025-01-08 04:08:48.32	340.87	9.63	
2025-01-08 04:08:48.53	340.83	9.63	
2025-01-08 04:08:48.73	340.80	9.63	
2025-01-08 04:08:48.94	340.76	9.63	
2025-01-08 04:08:49.14	340.73	9.63	
2025-01-08 04:08:49.35	340.69	9.63	
2025-01-08 04:08:49.55	340.65	9.63	
2025-01-08 04:08:49.76	340.62	9.63	
2025-01-08 04:08:49.96	340.58	9.63	
2025-01-08 04:08:50.17	340.54	9.63	
2025-01-08 04:08:50.37	340.51	9.63	
2025-01-08 04:08:50.58	340.47	9.63	
2025-01-08 04:08:50.78	340.44	9.63	
2025-01-08 04:08:50.99	340.40	9.63	
2025-01-08 04:08:51.19	340.36	9.63	
2025-01-08 04:08:51.40	340.33	9.63	
2025-01-08 04:08:51.60	340.29	9.63	
2025-01-08 04:08:51.81	340.25	9.63	
2025-01-08 04:08:52.01	340.22	9.63	
2025-01-08 04:08:52.22	340.18	9.63	
2025-01-08 04:08:52.42	340.15	9.63	
2025-01-08 04:08:52.62	340.11	9.63	
2025-01-08 04:08:52.83	340.07	9.63	
2025-01-08 04:08:53.03	340.04	9.63	
2025-01-08 04:08:53.24	340.00	9.63	
2025-01-08 04:08:53.44	339.97	9.63	
2025-01-08 04:08:53.65	339.93	9.63	
2025-01-08 04:08:53.85	339.89	9.63	
2025-01-08 04:08:54.05	339.86	9.63	
2025-01-08 04:08:54.26	339.82	9.63	
2025-01-08 04:08:54.47	339.79	9.63	
2025-01-08 04:08:54.68	339.75	9.62	
2025-01-08 04:08:54.89	339.71	9.62	
2025-01-08 04:08:55.09	339.68	9.62	
2025-01-08 04:08:55.30	339.64	9.62	
2025-01-08 04:08:55.50	339.60	9.62	
2025-01-08 04:08:55.71	339.57	9.62	
2025-01-08 04:08:55.91	339.53	9.62	
2025-01-08 04:08:56.12	339.49	9.62	
2025-01-08 04:08:56.32	339.46	9.62	
2025-01-08 04:08:56.53	339.42	9.62	
2025-01-08 04:08:56.74	339.38	9.62	
2025-01-08 04:08:56.94	339.35	9.62	
2025-01-08 04:08:57.15	339.31	9.62	
2025-01-08 04:08:57.35	339.28	9.62	
2025-01-08 04:08:57.56	339.24	9.62	
2025-01-08 04:08:57.76	339.21	9.62	
2025-01-08 04:08:57.98	339.17	9.62	
2025-01-08 04:08:58.18	339.13	9.62	
2025-01-08 04:08:58.39	339.09	9.62	
2025-01-08 04:08:58.60	339.06	9.62	
2025-01-08 04:08:58.80	339.02	9.62	
2025-01-08 04:08:59.02	338.98	9.61	
2025-01-08 04:08:59.23	338.95	9.61	
2025-01-08 04:08:59.43	338.91	9.61	
2025-01-08 04:08:59.63	338.88	9.61	
2025-01-08 04:08:59.84	338.84	9.61	
2025-01-08 04:09:00.05	338.80	9.61	
2025-01-08 04:09:00.26	338.76	9.61	
2025-01-08 04:09:00.47	338.73	9.61	
2025-01-08 04:09:00.68	338.69	9.61	
2025-01-08 04:09:00.88	338.65	9.61	
2025-01-08 04:09:01.09	338.62	9.61	
2025-01-08 04:09:01.29	338.58	9.61	
2025-01-08 04:09:01.50	338.55	9.61	
2025-01-08 04:09:01.70	338.51	9.61	
2025-01-08 04:09:01.91	338.47	9.61	
2025-01-08 04:09:02.11	338.44	9.60	
2025-01-08 04:09:02.32	338.40	9.60	
2025-01-08 04:09:02.52	338.37	9.60	
2025-01-08 04:09:02.73	338.33	9.60	
2025-01-08 04:09:02.93	338.29	9.60	
2025-01-08 04:09:03.14	338.26	9.60	
2025-01-08 04:09:03.34	338.22	9.60	
2025-01-08 04:09:03.55	338.18	9.60	
2025-01-08 04:09:03.75	338.15	9.60	
2025-01-08 04:09:03.96	338.11	9.60	
2025-01-08 04:09:04.16	338.08	9.60	
2025-01-08 04:09:04.37	338.04	9.60	
2025-01-08 04:09:04.57	338.00	9.59	
2025-01-08 04:09:04.78	337.97	9.59	
2025-01-08 04:09:04.98	337.93	9.59	
2025-01-08 04:09:05.19	337.90	9.59	
2025-01-08 04:09:05.39	337.86	9.59	
2025-01-08 04:09:05.60	337.82	9.59	
2025-01-08 04:09:05.80	337.79	9.59	
2025-01-08 04:09:06.01	337.75	9.59	
2025-01-08 04:09:06.21	337.72	9.59	
2025-01-08 04:09:06.42	337.68	9.59	
2025-01-08 04:09:06.62	337.64	9.59	
2025-01-08 04:09:06.83	337.61	9.58	
2025-01-08 04:09:07.03	337.57	9.58	
2025-01-08 04:09:07.24	337.54	9.58	
2025-01-08 04:09:07.44	337.50	9.58	
2025-01-08 04:09:07.65	337.46	9.58	
2025-01-08 04:09:07.85	337.43	9.58	
2025-01-08 04:09:08.06	337.39	9.58	
2025-01-08 04:09:08.26	337.36	9.58	
2025-01-08 04:09:08.47	337.32	9.58	
2025-01-08 04:09:08.67	337.28	9.58	
2025-01-08 04:09:08.88	337.25	9.57	
2025-01-08 04:09:09.08	337.21	9.57	
2025-01-08 04:09:09.29	337.17	9.57	
2025-01-08 04:09:09.49	337.14	9.57	
2025-01-08 04:09:09.70	337.10	9.57	
2025-01-08 04:09:09.90	337.07	9.57	
2025-01-08 04:09:10.11	337.03	9.57	
2025-01-08 04:09:10.31	337.00	9.57	
2025-01-08 04:09:10.52	336.96	9.56	
2025-01-08 04:09:10.72	336.92	9.56	
2025-01-08 04:09:10.93	336.89	9.56	
2025-01-08 04:09:11.14	336.85	9.56	
2025-01-08 04:09:11.34	336.81	9.56	
2025-01-08 04:09:11.55	336.78	9.56	
2025-01-08 04:09:11.75	336.74	9.56	
2025-01-08 04:09:11.95	336.71	9.56	
2025-01-08 04:09:12.16	336.67	9.55	
2025-01-08 04:09:12.37	336.63	9.55	
2025-01-08 04:09:12.57	336.60	9.55	
2025-01-08 04:09:12.78	336.56	9.55	
2025-01-08 04:09:12.98	336.53	9.55	
2025-01-08 04:09:13.19	336.49	9.55	
2025-01-08 04:09:13.39	336.45	9.55	
2025-01-08 04:09:13.60	336.42	9.55	
2025-01-08 04:09:13.80	336.38	9.54	
2025-01-08 04:09:14.01	336.35	9.54	
2025-01-08 04:09:14.21	336.31	9.54	
2025-01-08 04:09:14.42	336.27	9.54	
2025-01-08 04:09:14.62	336.24	9.54	
2025-01-08 04:09:14.83	336.20	9.54	
2025-01-08 04:09:15.03	336.17	9.54	
2025-01-08 04:09:15.24	336.13	9.53	
2025-01-08 04:09:15.44	336.09	9.53	
2025-01-08 04:09:15.65	336.06	9.53	
2025-01-08 04:09:15.86	336.02	9.53	
2025-01-08 04:09:16.07	335.98	9.53	
2025-01-08 04:09:16.28	335.95	9.53	
2025-01-08 04:09:16.48	335.91	9.53	
2025-01-08 04:09:16.69	335.88	9.52	
2025-01-08 04:09:16.90	335.84	9.52	
2025-01-08 04:09:17.10	335.80	9.52	
2025-01-08 04:09:17.31	335.77	9.52	
2025-01-08 04:09:17.51	335.73	9.52	
2025-01-08 04:09:17.72	335.70	9.52	
2025-01-08 04:09:17.92	335.66	9.51	
2025-01-08 04:09:18.13	335.62	9.51	
2025-01-08 04:09:18.33	335.59	9.51	
2025-01-08 04:09:18.54	335.55	9.51	
2025-01-08 04:09:18.75	335.51	9.51	
2025-01-08 04:09:18.95	335.48	9.51	
2025-01-08 04:09:19.15	335.44	9.51	
2025-01-08 04:09:19.36	335.41	9.50	
2025-01-08 04:09:19.56	335.37	9.50	
2025-01-08 04:09:19.77	335.34	9.50	
2025-01-08 04:09:19.97	335.30	9.50	
2025-01-08 04:09:20.18	335.26	9.50	
2025-01-08 04:09:20.40	335.23	9.49	
2025-01-08 04:09:20.60	335.19	9.49	
2025-01-08 04:09:20.81	335.15	9.49	
2025-01-08 04:09:21.01	335.12	9.49	
2025-01-08 04:09:21.22	335.08	9.49	
2025-01-08 04:09:21.42	335.05	9.49	
2025-01-08 04:09:21.63	335.01	9.48	
2025-01-08 04:09:21.84	334.97	9.48	
2025-01-08 04:09:22.04	334.94	9.48	
2025-01-08 04:09:22.25	334.90	9.48	
2025-01-08 04:09:22.45	334.87	9.48	
2025-01-08 04:09:22.66	334.83	9.48	
2025-01-08 04:09:22.86	334.80	9.47	
2025-01-08 04:09:23.07	334.76	9.47	
2025-01-08 04:09:23.27	334.72	9.47	
2025-01-08 04:09:23.49	334.69	9.47	
2025-01-08 04:09:23.70	334.65	9.47	
2025-01-08 04:09:23.90	334.61	9.46	
2025-01-08 04:09:24.11	334.58	9.46	
2025-01-08 04:09:24.31	334.54	9.46	
2025-01-08 04:09:24.52	334.51	9.46	
2025-01-08 04:09:24.72	334.47	9.46	
2025-01-08 04:09:24.93	334.44	9.45	
2025-01-08 04:09:25.13	334.40	9.45	
2025-01-08 04:09:25.34	334.36	9.45	
2025-01-08 04:09:25.54	334.33	9.45	
2025-01-08 04:09:25.75	334.29	9.45	
2025-01-08 04:09:25.96	334.26	9.44	
2025-01-08 04:09:26.16	334.22	9.44	
2025-01-08 04:09:26.37	334.18	9.44	
2025-01-08 04:09:26.57	334.15	9.44	
2025-01-08 04:09:26.78	334.11	9.44	
2025-01-08 04:09:26.98	334.08	9.43	
2025-01-08 04:09:27.19	334.04	9.43	
2025-01-08 04:09:27.39	334.01	9.43	
2025-01-08 04:09:27.60	333.97	9.43	
2025-01-08 04:09:27.80	333.94	9.43	
2025-01-08 04:09:28.01	333.90	9.42	
2025-01-08 04:09:28.21	333.86	9.42	
2025-01-08 04:09:28.42	333.83	9.42	
2025-01-08 04:09:28.63	333.79	9.42	
2025-01-08 04:09:28.83	333.76	9.42	
2025-01-08 04:09:29.03	333.72	9.41	
2025-01-08 04:09:29.24	333.68	9.41	
2025-01-08 04:09:29.45	333.65	9.41	
2025-01-08 04:09:29.65	333.61	9.41	
2025-01-08 04:09:29.85	333.58	9.40	
2025-01-08 04:09:30.06	333.54	9.40	
2025-01-08 04:09:30.26	333.51	9.40	
2025-01-08 04:09:30.47	333.47	9.40	
2025-01-08 04:09:30.67	333.44	9.40	
2025-01-08 04:09:30.87	333.40	9.39	
2025-01-08 04:09:31.08	333.36	9.39	
2025-01-08 04:09:31.29	333.33	9.39	
2025-01-08 04:09:31.49	333.29	9.39	
2025-01-08 04:09:31.70	333.26	9.38	
2025-01-08 04:09:31.90	333.22	9.38	
2025-01-08 04:09:32.10	333.19	9.38	
2025-01-08 04:09:32.31	333.15	9.38	
2025-01-08 04:09:32.51	333.12	9.38	
2025-01-08 04:09:32.72	333.08	9.37	
2025-01-08 04:09:32.92	333.05	9.37	
2025-01-08 04:09:33.13	333.01	9.37	
2025-01-08 04:09:33.34	332.97	9.37	
2025-01-08 04:09:33.54	332.94	9.36	
2025-01-08 04:09:33.75	332.90	9.36	
2025-01-08 04:09:33.95	332.87	9.36	
2025-01-08 04:09:34.15	332.83	9.36	
2025-01-08 04:09:34.36	332.80	9.35	
2025-01-08 04:09:34.57	332.76	9.35	
2025-01-08 04:09:34.77	332.73	9.35	
2025-01-08 04:09:34.98	332.69	9.35	
2025-01-08 04:09:35.18	332.65	9.34	
2025-01-08 04:09:35.39	332.62	9.34	
2025-01-08 04:09:35.59	332.58	9.34	
2025-01-08 04:09:35.80	332.55	9.34	
2025-01-08 04:09:36.01	332.51	9.33	
2025-01-08 04:09:36.21	332.48	9.33	
2025-01-08 04:09:36.41	332.44	9.33	
2025-01-08 04:09:36.62	332.41	9.33	
2025-01-08 04:09:36.83	332.37	9.32	
2025-01-08 04:09:37.03	332.33	9.32	
2025-01-08 04:09:37.24	332.30	9.32	
2025-01-08 04:09:37.44	332.26	9.32	
2025-01-08 04:09:37.64	332.23	9.31	
2025-01-08 04:09:37.85	332.19	9.31	
2025-01-08 04:09:38.05	332.16	9.31	
2025-01-08 04:09:38.26	332.12	9.31	
2025-01-08 04:09:38.46	332.09	9.30	
2025-01-08 04:09:38.67	332.05	9.30	
2025-01-08 04:09:38.87	332.02	9.30	
2025-01-08 04:09:39.08	331.98	9.30	
2025-01-08 04:09:39.29	331.94	9.29	
2025-01-08 04:09:39.49	331.91	9.29	
2025-01-08 04:09:39.69	331.88	9.29	
2025-01-08 04:09:39.90	331.84	9.28	
2025-01-08 04:09:40.10	331.80	9.28	
2025-01-08 04:09:40.31	331.77	9.28	
2025-01-08 04:09:40.51	331.73	9.28	
2025-01-08 04:09:40.72	331.70	9.27	
2025-01-08 04:09:40.92	331.66	9.27	
2025-01-08 04:09:41.13	331.63	9.27	
2025-01-08 04:09:41.33	331.59	9.27	
2025-01-08 04:09:41.54	331.56	9.26	
2025-01-08 04:09:41.74	331.52	9.26	
2025-01-08 04:09:41.95	331.49	9.26	
2025-01-08 04:09:42.15	331.45	9.25	
2025-01-08 04:09:42.36	331.42	9.25	
2025-01-08 04:09:42.57	331.38	9.25	
2025-01-08 04:09:42.77	331.34	9.25	
2025-01-08 04:09:42.97	331.31	9.24	
2025-01-08 04:09:43.18	331.27	9.24	
2025-01-08 04:09:43.39	331.24	9.24	
2025-01-08 04:09:43.59	331.20	9.23	
2025-01-08 04:09:43.79	331.17	9.23	
2025-01-08 04:09:44.00	331.13	9.23	
2025-01-08 04:09:44.20	331.10	9.23	
2025-01-08 04:09:44.41	331.06	9.22	
2025-01-08 04:09:44.61	331.03	9.22	
2025-01-08 04:09:44.82	330.99	9.22	
2025-01-08 04:09:45.02	330.96	9.21	
2025-01-08 04:09:45.23	330.92	9.21	
2025-01-08 04:09:45.44	330.89	9.21	
2025-01-08 04:09:45.64	330.85	9.21	
2025-01-08 04:09:45.85	330.82	9.20	
2025-01-08 04:09:46.05	330.78	9.20	
2025-01-08 04:09:46.26	330.75	9.20	
2025-01-08 04:09:46.46	330.71	9.19	
2025-01-08 04:09:46.67	330.68	9.19	
2025-01-08 04:09:46.87	330.64	9.19	
2025-01-08 04:09:47.07	330.61	9.18	
2025-01-08 04:09:47.28	330.57	9.18	
2025-01-08 04:09:47.48	330.54	9.18	
2025-01-08 04:09:47.69	330.50	9.18	
2025-01-08 04:09:47.90	330.47	9.17	
2025-01-08 04:09:48.10	330.43	9.17	
2025-01-08 04:09:48.30	330.40	9.17	
2025-01-08 04:09:48.51	330.36	9.16	
2025-01-08 04:09:48.71	330.33	9.16	
2025-01-08 04:09:48.92	330.29	9.16	
2025-01-08 04:09:49.12	330.26	9.15	
2025-01-08 04:09:49.32	330.22	9.15	
2025-01-08 04:09:49.53	330.19	9.15	
2025-01-08 04:09:49.74	330.15	9.14	
2025-01-08 04:09:49.94	330.12	9.14	
2025-01-08 04:09:50.15	330.08	9.14	
2025-01-08 04:09:50.35	330.05	9.13	
2025-01-08 04:09:50.56	330.01	9.13	
2025-01-08 04:09:50.76	329.98	9.13	
2025-01-08 04:09:50.97	329.94	9.12	
2025-01-08 04:09:51.17	329.91	9.12	
2025-01-08 04:09:51.38	329.87	9.12	
2025-01-08 04:09:51.58	329.84	9.12	
2025-01-08 04:09:51.79	329.80	9.11	
2025-01-08 04:09:51.99	329.77	9.11	
2025-01-08 04:09:52.20	329.73	9.11	
2025-01-08 04:09:52.40	329.70	9.10	
2025-01-08 04:09:52.60	329.66	9.10	
2025-01-08 04:09:52.81	329.63	9.10	
2025-01-08 04:09:53.01	329.59	9.09	
2025-01-08 04:09:53.22	329.56	9.09	
2025-01-08 04:09:53.43	329.52	9.09	
2025-01-08 04:09:53.63	329.49	9.08	
2025-01-08 04:09:53.84	329.45	9.08	
2025-01-08 04:09:54.04	329.42	9.08	
2025-01-08 04:09:54.25	329.38	9.07	
2025-01-08 04:09:54.47	329.35	9.07	
2025-01-08 04:09:54.67	329.31	9.07	
2025-01-08 04:09:54.88	329.28	9.06	
2025-01-08 04:09:55.08	329.24	9.06	
2025-01-08 04:09:55.29	329.21	9.05	
2025-01-08 04:09:55.49	329.17	9.05	
2025-01-08 04:09:55.70	329.14	9.05	
2025-01-08 04:09:55.90	329.10	9.04	
2025-01-08 04:09:56.11	329.07	9.04	
2025-01-08 04:09:56.31	329.03	9.04	
2025-01-08 04:09:56.51	329.00	9.03	
2025-01-08 04:09:56.72	328.96	9.03	
2025-01-08 04:09:56.92	328.93	9.03	
2025-01-08 04:09:57.13	328.89	9.02	
2025-01-08 04:09:57.34	328.86	9.02	
2025-01-08 04:09:57.54	328.83	9.02	
2025-01-08 04:09:57.75	328.79	9.01	
2025-01-08 04:09:57.95	328.76	9.01	
2025-01-08 04:09:58.16	328.72	9.01	
2025-01-08 04:09:58.36	328.69	9.00	
2025-01-08 04:09:58.57	328.65	9.00	
2025-01-08 04:09:58.77	328.62	9.00	
2025-01-08 04:09:58.98	328.58	8.99	
2025-01-08 04:09:59.18	328.55	8.99	
2025-01-08 04:09:59.38	328.51	8.98	
2025-01-08 04:09:59.59	328.48	8.98	
2025-01-08 04:09:59.79	328.45	8.98	
2025-01-08 04:10:00.00	328.41	8.97	
2025-01-08 04:10:00.20	328.38	8.97	
2025-01-08 04:10:00.41	328.34	8.97	
2025-01-08 04:10:00.61	328.31	8.96	
2025-01-08 04:10:00.82	328.27	8.96	
2025-01-08 04:10:01.02	328.24	8.96	
2025-01-08 04:10:01.23	328.20	8.95	
2025-01-08 04:10:01.43	328.17	8.95	
2025-01-08 04:10:01.64	328.13	8.94	
2025-01-08 04:10:01.84	328.10	8.94	
2025-01-08 04:10:02.05	328.06	8.94	
2025-01-08 04:10:02.25	328.03	8.93	
2025-01-08 04:10:02.46	328.00	8.93	
2025-01-08 04:10:02.66	327.96	8.93	
2025-01-08 04:10:02.87	327.93	8.92	
2025-01-08 04:10:03.07	327.89	8.92	
2025-01-08 04:10:03.28	327.86	8.91	
2025-01-08 04:10:03.48	327.82	8.91	
2025-01-08 04:10:03.69	327.79	8.91	
2025-01-08 04:10:03.89	327.76	8.90	
2025-01-08 04:10:04.10	327.72	8.90	
2025-01-08 04:10:04.30	327.69	8.89	
2025-01-08 04:10:04.51	327.65	8.89	
2025-01-08 04:10:04.71	327.62	8.89	
2025-01-08 04:10:04.92	327.58	8.88	
2025-01-08 04:10:05.12	327.55	8.88	
2025-01-08 04:10:05.33	327.51	8.88	
2025-01-08 04:10:05.53	327.48	8.87	
2025-01-08 04:10:05.74	327.45	8.87	
2025-01-08 04:10:05.94	327.41	8.86	
2025-01-08 04:10:06.15	327.38	8.86	
2025-01-08 04:10:06.35	327.34	8.86	
2025-01-08 04:10:06.56	327.31	8.85	
2025-01-08 04:10:06.76	327.27	8.85	
2025-01-08 04:10:06.97	327.24	8.84	
2025-01-08 04:10:07.17	327.21	8.84	
2025-01-08 04:10:07.38	327.17	8.84	
2025-01-08 04:10:07.58	327.14	8.83	
2025-01-08 04:10:07.79	327.10	8.83	
2025-01-08 04:10:07.99	327.07	8.82	
2025-01-08 04:10:08.20	327.03	8.82	
2025-01-08 04:10:08.40	327.00	8.82	
2025-01-08 04:10:08.61	326.97	8.81	
2025-01-08 04:10:08.81	326.93	8.81	
2025-01-08 04:10:09.02	326.90	8.80	
2025-01-08 04:10:09.22	326.86	8.80	
2025-01-08 04:10:09.44	326.83	8.80	
2025-01-08 04:10:09.64	326.79	8.79	
2025-01-08 04:10:09.85	326.76	8.79	
2025-01-08 04:10:10.06	326.72	8.78	
2025-01-08 04:10:10.26	326.69	8.78	
2025-01-08 04:10:10.47	326.66	8.77	
2025-01-08 04:10:10.67	326.62	8.77	
2025-01-08 04:10:10.88	326.59	8.77	
2025-01-08 04:10:11.08	326.55	8.76	
2025-01-08 04:10:11.29	326.52	8.76	
2025-01-08 04:10:11.49	326.49	8.75	
2025-01-08 04:10:11.70	326.45	8.75	
2025-01-08 04:10:11.90	326.42	8.75	
2025-01-08 04:10:12.11	326.38	8.74	
2025-01-08 04:10:12.32	326.35	8.74	
2025-01-08 04:10:12.52	326.32	8.73	
2025-01-08 04:10:12.73	326.28	8.73	
2025-01-08 04:10:12.93	326.25	8.72	
2025-01-08 04:10:13.14	326.21	8.72	
2025-01-08 04:10:13.35	326.18	8.72	
2025-01-08 04:10:13.55	326.14	8.71	
2025-01-08 04:10:13.76	326.11	8.71	
2025-01-08 04:10:13.96	326.08	8.70	
2025-01-08 04:10:14.17	326.04	8.70	
2025-01-08 04:10:14.37	326.01	8.69	
2025-01-08 04:10:14.58	325.97	8.69	
2025-01-08 04:10:14.80	325.94	8.69	
2025-01-08 04:10:15.00	325.90	8.68	
2025-01-08 04:10:15.21	325.87	8.68	
2025-01-08 04:10:15.41	325.84	8.67	
2025-01-08 04:10:15.62	325.80	8.67	
2025-01-08 04:10:15.82	325.77	8.66	
2025-01-08 04:10:16.03	325.73	8.66	
2025-01-08 04:10:16.23	325.70	8.66	
2025-01-08 04:10:16.44	325.67	8.65	
2025-01-08 04:10:16.64	325.63	8.65	
2025-01-08 04:10:16.85	325.60	8.64	
2025-01-08 04:10:17.05	325.57	8.64	
2025-01-08 04:10:17.26	325.53	8.63	
2025-01-08 04:10:17.46	325.50	8.63	
2025-01-08 04:10:17.67	325.46	8.62	
2025-01-08 04:10:17.87	325.43	8.62	
2025-01-08 04:10:18.08	325.40	8.62	
2025-01-08 04:10:18.28	325.36	8.61	
2025-01-08 04:10:18.49	325.33	8.61	
2025-01-08 04:10:18.69	325.30	8.60	
2025-01-08 04:10:18.89	325.26	8.60	
2025-01-08 04:10:19.10	325.23	8.59	
2025-01-08 04:10:19.30	325.20	8.59	
2025-01-08 04:10:19.51	325.16	8.58	
2025-01-08 04:10:19.72	325.13	8.58	
2025-01-08 04:10:19.92	325.09	8.58	
2025-01-08 04:10:20.12	325.06	8.57	
2025-01-08 04:10:20.33	325.03	8.57	
2025-01-08 04:10:20.54	324.99	8.56	
2025-01-08 04:10:20.74	324.96	8.56	
2025-01-08 04:10:20.95	324.93	8.55	
2025-01-08 04:10:21.15	324.89	8.55	
2025-01-08 04:10:21.36	324.86	8.54	
2025-01-08 04:10:21.57	324.82	8.54	
2025-01-08 04:10:21.77	324.79	8.53	
2025-01-08 04:10:21.98	324.76	8.53	
2025-01-08 04:10:22.18	324.72	8.53	
2025-01-08 04:10:22.39	324.69	8.52	
2025-01-08 04:10:22.59	324.66	8.52	
2025-01-08 04:10:22.80	324.62	8.51	
2025-01-08 04:10:23.00	324.59	8.51	
2025-01-08 04:10:23.21	324.56	8.50	
2025-01-08 04:10:23.41	324.52	8.50	
2025-01-08 04:10:23.62	324.49	8.49	
2025-01-08 04:10:23.82	324.46	8.49	
2025-01-08 04:10:24.03	324.42	8.48	
2025-01-08 04:10:24.23	324.39	8.48	
2025-01-08 04:10:24.44	324.36	8.47	
2025-01-08 04:10:24.64	324.32	8.47	
2025-01-08 04:10:24.85	324.29	8.46	
2025-01-08 04:10:25.06	324.25	8.46	
2025-01-08 04:10:25.26	324.22	8.45	
2025-01-08 04:10:25.48	324.19	8.45	
2025-01-08 04:10:25.68	324.15	8.45	
2025-01-08 04:10:25.89	324.12	8.44	
2025-01-08 04:10:26.09	324.09	8.44	
2025-01-08 04:10:26.30	324.05	8.43	
2025-01-08 04:10:26.50	324.02	8.43	
2025-01-08 04:10:26.71	323.99	8.42	
2025-01-08 04:10:26.91	323.95	8.42	
2025-01-08 04:10:27.12	323.92	8.41	
2025-01-08 04:10:27.33	323.89	8.41	
2025-01-08 04:10:27.53	323.85	8.40	
2025-01-08 04:10:27.74	323.82	8.40	
2025-01-08 04:10:27.94	323.79	8.39	
2025-01-08 04:10:28.15	323.75	8.39	
2025-01-08 04:10:28.35	323.72	8.38	
2025-01-08 04:10:28.55	323.69	8.38	
2025-01-08 04:10:28.76	323.65	8.37	
2025-01-08 04:10:28.97	323.62	8.37	
2025-01-08 04:10:29.17	323.59	8.36	
2025-01-08 04:10:29.38	323.55	8.36	
2025-01-08 04:10:29.58	323.52	8.35	
2025-01-08 04:10:29.79	323.49	8.35	
2025-01-08 04:10:29.99	323.45	8.34	
2025-01-08 04:10:30.20	323.42	8.34	
2025-01-08 04:10:30.40	323.39	8.33	
2025-01-08 04:10:30.61	323.35	8.33	
2025-01-08 04:10:30.81	323.32	8.32	
2025-01-08 04:10:31.02	323.29	8.32	
2025-01-08 04:10:31.22	323.26	8.31	
2025-01-08 04:10:31.43	323.22	8.31	
2025-01-08 04:10:31.64	323.19	8.30	
2025-01-08 04:10:31.84	323.16	8.30	
2025-01-08 04:10:32.04	323.12	8.29	
2025-01-08 04:10:32.25	323.09	8.29	
2025-01-08 04:10:32.45	323.06	8.28	
2025-01-08 04:10:32.66	323.02	8.28	
2025-01-08 04:10:32.87	322.99	8.27	
2025-01-08 04:10:33.08	322.96	8.27	
2025-01-08 04:10:33.28	322.93	8.26	
2025-01-08 04:10:33.49	322.89	8.26	
2025-01-08 04:10:33.69	322.86	8.25	
2025-01-08 04:10:33.90	322.83	8.25	
2025-01-08 04:10:34.10	322.79	8.24	
2025-01-08 04:10:34.31	322.76	8.24	
2025-01-08 04:10:34.52	322.73	8.23	
2025-01-08 04:10:34.72	322.69	8.23	
2025-01-08 04:10:34.92	322.66	8.22	
2025-01-08 04:10:35.13	322.63	8.22	
2025-01-08 04:10:35.34	322.60	8.21	
2025-01-08 04:10:35.54	322.56	8.21	
2025-01-08 04:10:35.75	322.53	8.20	
2025-01-08 04:10:35.95	322.50	8.20	
2025-01-08 04:10:36.17	322.46	8.19	
2025-01-08 04:10:36.38	322.43	8.19	
2025-01-08 04:10:36.58	322.40	8.18	
2025-01-08 04:10:36.79	322.36	8.18	
2025-01-08 04:10:37.00	322.33	8.17	
2025-01-08 04:10:37.20	322.30	8.16	
2025-01-08 04:10:37.41	322.26	8.16	
2025-01-08 04:10:37.61	322.23	8.15	
2025-01-08 04:10:37.82	322.20	8.15	
2025-01-08 04:10:38.02	322.17	8.14	
2025-01-08 04:10:38.24	322.13	8.14	
2025-01-08 04:10:38.45	322.10	8.13	
2025-01-08 04:10:38.65	322.07	8.13	
2025-01-08 04:10:38.86	322.03	8.12	
2025-01-08 04:10:39.07	322.00	8.12	
2025-01-08 04:10:39.27	321.97	8.11	
2025-01-08 04:10:39.47	321.94	8.11	
2025-01-08 04:10:39.68	321.90	8.10	
2025-01-08 04:10:39.88	321.87	8.10	
2025-01-08 04:10:40.09	321.84	8.09	
2025-01-08 04:10:40.29	321.81	8.09	
2025-01-08 04:10:40.50	321.77	8.08	
2025-01-08 04:10:40.70	321.74	8.07	
2025-01-08 04:10:40.91	321.71	8.07	
2025-01-08 04:10:41.11	321.68	8.06	
2025-01-08 04:10:41.32	321.64	8.06	
2025-01-08 04:10:41.52	321.61	8.05	
2025-01-08 04:10:41.73	321.58	8.05	
2025-01-08 04:10:41.93	321.55	8.04	
2025-01-08 04:10:42.14	321.51	8.04	
2025-01-08 04:10:42.35	321.48	8.03	
