passes_logs/2025/01/08/SPB_Silybum_02/SPB_Silybum_02__20250108_022443_SUOMI_NPP_rec.log

#Pass ID: 20250108_022443_SUOMI NPP
#Satellite: SUOMI NPP
#Configuration: NPP
#Start time: 2025-01-08 02:26:32

#Version: 2.0.20230423
#Station: SPB_Silybum_02
#Location: 30.233357 lon 59.946436 lat
#TLE: 1 37849U 11061A   25007.16649885  .00000287  00000+0  15716-3 0  9990
#TLE: 2 37849  98.7438 308.2547 0001950  52.7817 307.3537 14.19534452683807

#Time	Az	El	Level	Level2	SNR	BER	Gain	Gain2
2025-01-08 02:26:34.33	3.05	10.80	
2025-01-08 02:26:34.54	3.02	10.82	
2025-01-08 02:26:34.74	2.99	10.83	
2025-01-08 02:26:34.95	2.97	10.84	
2025-01-08 02:26:35.15	2.94	10.86	
2025-01-08 02:26:35.36	2.92	10.87	
2025-01-08 02:26:35.56	2.89	10.88	
2025-01-08 02:26:35.76	2.86	10.89	
2025-01-08 02:26:35.97	2.84	10.91	
2025-01-08 02:26:36.18	2.81	10.92	
2025-01-08 02:26:36.38	2.79	10.93	
2025-01-08 02:26:36.59	2.76	10.95	
2025-01-08 02:26:36.81	2.73	10.96	
2025-01-08 02:26:37.01	2.70	10.98	
2025-01-08 02:26:37.22	2.68	10.99	
2025-01-08 02:26:37.43	2.65	11.00	
2025-01-08 02:26:37.63	2.62	11.02	
2025-01-08 02:26:37.83	2.60	11.03	
2025-01-08 02:26:38.04	2.57	11.04	
2025-01-08 02:26:38.25	2.54	11.06	
2025-01-08 02:26:38.45	2.52	11.07	
2025-01-08 02:26:38.66	2.49	11.08	
2025-01-08 02:26:38.86	2.46	11.09	
2025-01-08 02:26:39.06	2.44	11.11	
2025-01-08 02:26:39.27	2.41	11.12	
2025-01-08 02:26:39.47	2.39	11.13	
2025-01-08 02:26:39.68	2.36	11.15	
2025-01-08 02:26:39.88	2.33	11.16	
2025-01-08 02:26:40.09	2.30	11.17	
2025-01-08 02:26:40.29	2.28	11.19	
2025-01-08 02:26:40.50	2.25	11.20	
2025-01-08 02:26:40.71	2.22	11.21	
2025-01-08 02:26:40.91	2.20	11.23	
2025-01-08 02:26:41.11	2.17	11.24	
2025-01-08 02:26:41.32	2.14	11.25	
2025-01-08 02:26:41.53	2.12	11.27	
2025-01-08 02:26:41.73	2.09	11.28	
2025-01-08 02:26:41.94	2.06	11.29	
2025-01-08 02:26:42.14	2.04	11.31	
2025-01-08 02:26:42.35	2.01	11.32	
2025-01-08 02:26:42.55	1.98	11.33	
2025-01-08 02:26:42.76	1.95	11.35	
2025-01-08 02:26:42.96	1.93	11.36	
2025-01-08 02:26:43.17	1.90	11.37	
2025-01-08 02:26:43.37	1.87	11.39	
2025-01-08 02:26:43.58	1.85	11.40	
2025-01-08 02:26:43.78	1.82	11.41	
2025-01-08 02:26:43.99	1.79	11.43	
2025-01-08 02:26:44.21	1.76	11.44	
2025-01-08 02:26:44.41	1.74	11.45	
2025-01-08 02:26:44.62	1.71	11.47	
2025-01-08 02:26:44.82	1.68	11.48	
2025-01-08 02:26:45.03	1.65	11.49	
2025-01-08 02:26:45.23	1.63	11.51	
2025-01-08 02:26:45.44	1.60	11.52	
2025-01-08 02:26:45.64	1.57	11.53	
2025-01-08 02:26:45.85	1.54	11.55	
2025-01-08 02:26:46.05	1.52	11.56	
2025-01-08 02:26:46.26	1.49	11.57	
2025-01-08 02:26:46.46	1.46	11.59	
2025-01-08 02:26:46.67	1.43	11.60	
2025-01-08 02:26:46.87	1.41	11.61	
2025-01-08 02:26:47.08	1.38	11.63	
2025-01-08 02:26:47.28	1.35	11.64	
2025-01-08 02:26:47.49	1.32	11.65	
2025-01-08 02:26:47.69	1.30	11.67	
2025-01-08 02:26:47.90	1.27	11.68	
2025-01-08 02:26:48.11	1.24	11.69	
2025-01-08 02:26:48.31	1.21	11.71	
2025-01-08 02:26:48.52	1.18	11.72	
2025-01-08 02:26:48.72	1.16	11.73	
2025-01-08 02:26:48.93	1.13	11.75	
2025-01-08 02:26:49.13	1.10	11.76	
2025-01-08 02:26:49.34	1.07	11.77	
2025-01-08 02:26:49.54	1.04	11.79	
2025-01-08 02:26:49.75	1.02	11.80	
2025-01-08 02:26:49.95	0.99	11.81	
2025-01-08 02:26:50.16	0.96	11.83	
2025-01-08 02:26:50.36	0.93	11.84	
2025-01-08 02:26:50.58	0.90	11.85	
2025-01-08 02:26:50.79	0.87	11.87	
2025-01-08 02:26:50.99	0.85	11.88	
2025-01-08 02:26:51.19	0.82	11.89	
2025-01-08 02:26:51.40	0.79	11.91	
2025-01-08 02:26:51.60	0.76	11.92	
2025-01-08 02:26:51.80	0.73	11.93	
2025-01-08 02:26:52.01	0.71	11.95	
2025-01-08 02:26:52.21	0.68	11.96	
2025-01-08 02:26:52.42	0.65	11.97	
2025-01-08 02:26:52.62	0.62	11.99	
2025-01-08 02:26:52.82	0.59	12.00	
2025-01-08 02:26:53.03	0.56	12.01	
2025-01-08 02:26:53.24	0.54	12.03	
2025-01-08 02:26:53.44	0.51	12.04	
2025-01-08 02:26:53.65	0.48	12.05	
2025-01-08 02:26:53.85	0.45	12.07	
2025-01-08 02:26:54.06	0.42	12.08	
2025-01-08 02:26:54.26	0.39	12.09	
2025-01-08 02:26:54.47	0.36	12.11	
2025-01-08 02:26:54.68	0.34	12.12	
2025-01-08 02:26:54.88	0.31	12.13	
2025-01-08 02:26:55.08	0.28	12.14	
2025-01-08 02:26:55.29	0.25	12.16	
2025-01-08 02:26:55.50	0.22	12.17	
2025-01-08 02:26:55.70	0.19	12.19	
2025-01-08 02:26:55.91	0.16	12.20	
2025-01-08 02:26:56.11	0.14	12.21	
2025-01-08 02:26:56.32	0.11	12.23	
2025-01-08 02:26:56.53	0.08	12.24	
2025-01-08 02:26:56.73	0.05	12.25	
2025-01-08 02:26:56.93	0.02	12.26	
2025-01-08 02:26:57.14	359.99	12.28	
2025-01-08 02:26:57.35	359.96	12.29	
2025-01-08 02:26:57.55	359.93	12.31	
2025-01-08 02:26:57.76	359.90	12.32	
2025-01-08 02:26:57.96	359.87	12.33	
2025-01-08 02:26:58.17	359.85	12.35	
2025-01-08 02:26:58.37	359.82	12.36	
2025-01-08 02:26:58.58	359.79	12.37	
2025-01-08 02:26:58.78	359.76	12.38	
2025-01-08 02:26:58.99	359.73	12.40	
2025-01-08 02:26:59.19	359.70	12.41	
2025-01-08 02:26:59.40	359.67	12.43	
2025-01-08 02:26:59.60	359.64	12.44	
2025-01-08 02:26:59.81	359.61	12.45	
2025-01-08 02:27:00.01	359.58	12.46	
2025-01-08 02:27:00.22	359.55	12.48	
2025-01-08 02:27:00.42	359.52	12.49	
2025-01-08 02:27:00.63	359.49	12.50	
2025-01-08 02:27:00.83	359.47	12.52	
2025-01-08 02:27:01.04	359.44	12.53	
2025-01-08 02:27:01.24	359.41	12.54	
2025-01-08 02:27:01.45	359.38	12.56	
2025-01-08 02:27:01.65	359.35	12.57	
2025-01-08 02:27:01.86	359.32	12.58	
2025-01-08 02:27:02.06	359.29	12.60	
2025-01-08 02:27:02.27	359.26	12.61	
2025-01-08 02:27:02.47	359.23	12.62	
2025-01-08 02:27:02.68	359.20	12.64	
2025-01-08 02:27:02.88	359.17	12.65	
2025-01-08 02:27:03.09	359.14	12.66	
2025-01-08 02:27:03.29	359.11	12.68	
2025-01-08 02:27:03.50	359.08	12.69	
2025-01-08 02:27:03.70	359.05	12.70	
2025-01-08 02:27:03.91	359.02	12.72	
2025-01-08 02:27:04.11	358.99	12.73	
2025-01-08 02:27:04.32	358.96	12.74	
2025-01-08 02:27:04.52	358.93	12.76	
2025-01-08 02:27:04.73	358.90	12.77	
2025-01-08 02:27:04.93	358.87	12.78	
2025-01-08 02:27:05.14	358.84	12.80	
2025-01-08 02:27:05.35	358.81	12.81	
2025-01-08 02:27:05.55	358.78	12.82	
2025-01-08 02:27:05.75	358.75	12.84	
2025-01-08 02:27:05.96	358.72	12.85	
2025-01-08 02:27:06.17	358.69	12.86	
2025-01-08 02:27:06.37	358.66	12.88	
2025-01-08 02:27:06.57	358.63	12.89	
2025-01-08 02:27:06.78	358.60	12.90	
2025-01-08 02:27:06.98	358.57	12.92	
2025-01-08 02:27:07.19	358.54	12.93	
2025-01-08 02:27:07.39	358.51	12.94	
2025-01-08 02:27:07.59	358.48	12.96	
2025-01-08 02:27:07.80	358.45	12.97	
2025-01-08 02:27:08.01	358.42	12.98	
2025-01-08 02:27:08.21	358.39	13.00	
2025-01-08 02:27:08.42	358.36	13.01	
2025-01-08 02:27:08.62	358.33	13.02	
2025-01-08 02:27:08.82	358.30	13.04	
2025-01-08 02:27:09.03	358.27	13.05	
2025-01-08 02:27:09.23	358.24	13.06	
2025-01-08 02:27:09.44	358.21	13.08	
2025-01-08 02:27:09.64	358.18	13.09	
2025-01-08 02:27:09.84	358.15	13.10	
2025-01-08 02:27:10.05	358.12	13.12	
2025-01-08 02:27:10.26	358.08	13.13	
2025-01-08 02:27:10.46	358.05	13.14	
2025-01-08 02:27:10.67	358.02	13.16	
2025-01-08 02:27:10.87	357.99	13.17	
2025-01-08 02:27:11.07	357.96	13.18	
2025-01-08 02:27:11.28	357.93	13.19	
2025-01-08 02:27:11.48	357.90	13.21	
2025-01-08 02:27:11.69	357.87	13.22	
2025-01-08 02:27:11.89	357.84	13.23	
2025-01-08 02:27:12.10	357.81	13.25	
2025-01-08 02:27:12.31	357.78	13.26	
2025-01-08 02:27:12.51	357.75	13.27	
2025-01-08 02:27:12.72	357.71	13.29	
2025-01-08 02:27:12.92	357.68	13.30	
2025-01-08 02:27:13.12	357.65	13.31	
2025-01-08 02:27:13.33	357.62	13.33	
2025-01-08 02:27:13.54	357.59	13.34	
2025-01-08 02:27:13.74	357.56	13.35	
2025-01-08 02:27:13.95	357.53	13.37	
2025-01-08 02:27:14.15	357.50	13.38	
2025-01-08 02:27:14.35	357.47	13.39	
2025-01-08 02:27:14.56	357.44	13.41	
2025-01-08 02:27:14.77	357.40	13.42	
2025-01-08 02:27:14.97	357.37	13.43	
2025-01-08 02:27:15.17	357.34	13.45	
2025-01-08 02:27:15.38	357.31	13.46	
2025-01-08 02:27:15.58	357.28	13.47	
2025-01-08 02:27:15.79	357.25	13.49	
2025-01-08 02:27:15.99	357.22	13.50	
2025-01-08 02:27:16.20	357.18	13.51	
2025-01-08 02:27:16.41	357.15	13.53	
2025-01-08 02:27:16.61	357.12	13.54	
2025-01-08 02:27:16.82	357.09	13.55	
2025-01-08 02:27:17.02	357.06	13.57	
2025-01-08 02:27:17.22	357.03	13.58	
2025-01-08 02:27:17.43	356.99	13.59	
2025-01-08 02:27:17.64	356.96	13.61	
2025-01-08 02:27:17.84	356.93	13.62	
2025-01-08 02:27:18.05	356.90	13.63	
2025-01-08 02:27:18.25	356.87	13.64	
2025-01-08 02:27:18.46	356.84	13.66	
2025-01-08 02:27:18.66	356.80	13.67	
2025-01-08 02:27:18.87	356.77	13.68	
2025-01-08 02:27:19.08	356.74	13.70	
2025-01-08 02:27:19.28	356.71	13.71	
2025-01-08 02:27:19.48	356.68	13.72	
2025-01-08 02:27:19.69	356.64	13.74	
2025-01-08 02:27:19.89	356.61	13.75	
2025-01-08 02:27:20.10	356.58	13.76	
2025-01-08 02:27:20.31	356.55	13.78	
2025-01-08 02:27:20.51	356.52	13.79	
2025-01-08 02:27:20.72	356.48	13.80	
2025-01-08 02:27:20.92	356.45	13.82	
2025-01-08 02:27:21.13	356.42	13.83	
2025-01-08 02:27:21.33	356.39	13.84	
2025-01-08 02:27:21.55	356.35	13.86	
2025-01-08 02:27:21.75	356.32	13.87	
2025-01-08 02:27:21.96	356.29	13.88	
2025-01-08 02:27:22.16	356.26	13.90	
2025-01-08 02:27:22.37	356.22	13.91	
2025-01-08 02:27:22.57	356.19	13.92	
2025-01-08 02:27:22.78	356.16	13.94	
2025-01-08 02:27:22.98	356.13	13.95	
2025-01-08 02:27:23.19	356.09	13.96	
2025-01-08 02:27:23.40	356.06	13.98	
2025-01-08 02:27:23.60	356.03	13.99	
2025-01-08 02:27:23.80	356.00	14.00	
2025-01-08 02:27:24.01	355.96	14.02	
2025-01-08 02:27:24.22	355.93	14.03	
2025-01-08 02:27:24.42	355.90	14.04	
2025-01-08 02:27:24.62	355.87	14.05	
2025-01-08 02:27:24.83	355.83	14.07	
2025-01-08 02:27:25.03	355.80	14.08	
2025-01-08 02:27:25.24	355.77	14.09	
2025-01-08 02:27:25.45	355.73	14.11	
2025-01-08 02:27:25.65	355.70	14.12	
2025-01-08 02:27:25.85	355.67	14.13	
2025-01-08 02:27:26.06	355.64	14.15	
2025-01-08 02:27:26.27	355.60	14.16	
2025-01-08 02:27:26.47	355.57	14.17	
2025-01-08 02:27:26.68	355.54	14.19	
2025-01-08 02:27:26.88	355.50	14.20	
2025-01-08 02:27:27.08	355.47	14.21	
2025-01-08 02:27:27.29	355.44	14.23	
2025-01-08 02:27:27.50	355.40	14.24	
2025-01-08 02:27:27.70	355.37	14.25	
2025-01-08 02:27:27.92	355.34	14.27	
2025-01-08 02:27:28.13	355.30	14.28	
2025-01-08 02:27:28.34	355.27	14.29	
2025-01-08 02:27:28.55	355.23	14.31	
2025-01-08 02:27:28.75	355.20	14.32	
2025-01-08 02:27:28.95	355.17	14.33	
2025-01-08 02:27:29.16	355.14	14.35	
2025-01-08 02:27:29.36	355.10	14.36	
2025-01-08 02:27:29.57	355.07	14.37	
2025-01-08 02:27:29.78	355.03	14.38	
2025-01-08 02:27:29.98	355.00	14.40	
2025-01-08 02:27:30.19	354.97	14.41	
2025-01-08 02:27:30.39	354.93	14.42	
2025-01-08 02:27:30.60	354.90	14.44	
2025-01-08 02:27:30.80	354.87	14.45	
2025-01-08 02:27:31.01	354.83	14.46	
2025-01-08 02:27:31.21	354.80	14.48	
2025-01-08 02:27:31.42	354.77	14.49	
2025-01-08 02:27:31.62	354.73	14.50	
2025-01-08 02:27:31.83	354.70	14.52	
2025-01-08 02:27:32.04	354.66	14.53	
2025-01-08 02:27:32.24	354.63	14.54	
2025-01-08 02:27:32.45	354.60	14.56	
2025-01-08 02:27:32.65	354.56	14.57	
2025-01-08 02:27:32.86	354.53	14.58	
2025-01-08 02:27:33.06	354.50	14.59	
2025-01-08 02:27:33.27	354.46	14.61	
2025-01-08 02:27:33.47	354.43	14.62	
2025-01-08 02:27:33.68	354.39	14.63	
2025-01-08 02:27:33.88	354.36	14.65	
2025-01-08 02:27:34.09	354.32	14.66	
2025-01-08 02:27:34.29	354.29	14.67	
2025-01-08 02:27:34.50	354.26	14.69	
2025-01-08 02:27:34.70	354.22	14.70	
2025-01-08 02:27:34.91	354.19	14.71	
2025-01-08 02:27:35.11	354.15	14.72	
2025-01-08 02:27:35.32	354.12	14.74	
2025-01-08 02:27:35.52	354.09	14.75	
2025-01-08 02:27:35.73	354.05	14.76	
2025-01-08 02:27:35.93	354.02	14.78	
2025-01-08 02:27:36.14	353.98	14.79	
2025-01-08 02:27:36.34	353.95	14.80	
2025-01-08 02:27:36.55	353.91	14.82	
2025-01-08 02:27:36.75	353.88	14.83	
2025-01-08 02:27:36.96	353.84	14.84	
2025-01-08 02:27:37.16	353.81	14.85	
2025-01-08 02:27:37.37	353.78	14.87	
2025-01-08 02:27:37.57	353.74	14.88	
2025-01-08 02:27:37.78	353.71	14.89	
2025-01-08 02:27:37.99	353.67	14.91	
2025-01-08 02:27:38.19	353.64	14.92	
2025-01-08 02:27:38.40	353.60	14.93	
2025-01-08 02:27:38.60	353.57	14.95	
2025-01-08 02:27:38.81	353.53	14.96	
2025-01-08 02:27:39.01	353.50	14.97	
2025-01-08 02:27:39.22	353.46	14.98	
2025-01-08 02:27:39.42	353.43	15.00	
2025-01-08 02:27:39.63	353.39	15.01	
2025-01-08 02:27:39.83	353.36	15.02	
2025-01-08 02:27:40.03	353.32	15.04	
2025-01-08 02:27:40.24	353.29	15.05	
2025-01-08 02:27:40.45	353.25	15.06	
2025-01-08 02:27:40.65	353.22	15.07	
2025-01-08 02:27:40.87	353.18	15.09	
2025-01-08 02:27:41.08	353.14	15.10	
2025-01-08 02:27:41.28	353.11	15.11	
2025-01-08 02:27:41.49	353.07	15.13	
2025-01-08 02:27:41.69	353.04	15.14	
2025-01-08 02:27:41.91	353.00	15.15	
2025-01-08 02:27:42.12	352.97	15.17	
2025-01-08 02:27:42.32	352.93	15.18	
2025-01-08 02:27:42.53	352.90	15.19	
2025-01-08 02:27:42.73	352.86	15.21	
2025-01-08 02:27:42.94	352.82	15.22	
2025-01-08 02:27:43.14	352.79	15.23	
2025-01-08 02:27:43.35	352.75	15.24	
2025-01-08 02:27:43.55	352.72	15.26	
2025-01-08 02:27:43.76	352.68	15.27	
2025-01-08 02:27:43.96	352.65	15.28	
2025-01-08 02:27:44.17	352.61	15.30	
2025-01-08 02:27:44.37	352.58	15.31	
2025-01-08 02:27:44.58	352.54	15.32	
2025-01-08 02:27:44.78	352.51	15.33	
2025-01-08 02:27:44.99	352.47	15.35	
2025-01-08 02:27:45.19	352.43	15.36	
2025-01-08 02:27:45.40	352.40	15.37	
2025-01-08 02:27:45.60	352.36	15.38	
2025-01-08 02:27:45.81	352.33	15.40	
2025-01-08 02:27:46.02	352.29	15.41	
2025-01-08 02:27:46.22	352.25	15.42	
2025-01-08 02:27:46.43	352.22	15.44	
2025-01-08 02:27:46.63	352.18	15.45	
2025-01-08 02:27:46.84	352.15	15.46	
2025-01-08 02:27:47.05	352.11	15.48	
2025-01-08 02:27:47.27	352.07	15.49	
2025-01-08 02:27:47.47	352.03	15.50	
2025-01-08 02:27:47.68	352.00	15.51	
2025-01-08 02:27:47.88	351.96	15.53	
2025-01-08 02:27:48.09	351.93	15.54	
2025-01-08 02:27:48.29	351.89	15.55	
2025-01-08 02:27:48.49	351.85	15.56	
2025-01-08 02:27:48.70	351.82	15.58	
2025-01-08 02:27:48.90	351.78	15.59	
2025-01-08 02:27:49.11	351.74	15.60	
2025-01-08 02:27:49.31	351.71	15.62	
2025-01-08 02:27:49.52	351.67	15.63	
2025-01-08 02:27:49.73	351.63	15.64	
2025-01-08 02:27:49.93	351.60	15.65	
2025-01-08 02:27:50.14	351.56	15.67	
2025-01-08 02:27:50.35	351.52	15.68	
2025-01-08 02:27:50.56	351.49	15.69	
2025-01-08 02:27:50.76	351.45	15.71	
2025-01-08 02:27:50.97	351.41	15.72	
2025-01-08 02:27:51.17	351.38	15.73	
2025-01-08 02:27:51.38	351.34	15.74	
2025-01-08 02:27:51.58	351.30	15.76	
2025-01-08 02:27:51.78	351.27	15.77	
2025-01-08 02:27:51.99	351.23	15.78	
2025-01-08 02:27:52.19	351.20	15.79	
2025-01-08 02:27:52.40	351.16	15.81	
2025-01-08 02:27:52.62	351.12	15.82	
2025-01-08 02:27:52.82	351.08	15.83	
2025-01-08 02:27:53.03	351.04	15.85	
2025-01-08 02:27:53.24	351.01	15.86	
2025-01-08 02:27:53.44	350.97	15.87	
2025-01-08 02:27:53.66	350.93	15.88	
2025-01-08 02:27:53.86	350.89	15.90	
2025-01-08 02:27:54.07	350.86	15.91	
2025-01-08 02:27:54.27	350.82	15.92	
2025-01-08 02:27:54.48	350.78	15.93	
2025-01-08 02:27:54.68	350.75	15.95	
2025-01-08 02:27:54.88	350.71	15.96	
2025-01-08 02:27:55.09	350.67	15.97	
2025-01-08 02:27:55.29	350.63	15.98	
2025-01-08 02:27:55.50	350.60	16.00	
2025-01-08 02:27:55.70	350.56	16.01	
2025-01-08 02:27:55.91	350.52	16.02	
2025-01-08 02:27:56.11	350.49	16.03	
2025-01-08 02:27:56.32	350.45	16.05	
2025-01-08 02:27:56.52	350.41	16.06	
2025-01-08 02:27:56.73	350.37	16.07	
2025-01-08 02:27:56.93	350.34	16.08	
2025-01-08 02:27:57.14	350.30	16.10	
2025-01-08 02:27:57.35	350.26	16.11	
2025-01-08 02:27:57.55	350.22	16.12	
2025-01-08 02:27:57.76	350.18	16.14	
2025-01-08 02:27:57.96	350.15	16.15	
2025-01-08 02:27:58.16	350.11	16.16	
2025-01-08 02:27:58.37	350.07	16.17	
2025-01-08 02:27:58.57	350.03	16.18	
2025-01-08 02:27:58.78	350.00	16.20	
2025-01-08 02:27:58.98	349.96	16.21	
2025-01-08 02:27:59.19	349.92	16.22	
2025-01-08 02:27:59.39	349.88	16.23	
2025-01-08 02:27:59.60	349.84	16.25	
2025-01-08 02:27:59.80	349.81	16.26	
2025-01-08 02:28:00.01	349.77	16.27	
2025-01-08 02:28:00.21	349.73	16.28	
2025-01-08 02:28:00.42	349.69	16.30	
2025-01-08 02:28:00.63	349.65	16.31	
2025-01-08 02:28:00.83	349.62	16.32	
2025-01-08 02:28:01.04	349.58	16.33	
2025-01-08 02:28:01.24	349.54	16.35	
2025-01-08 02:28:01.45	349.50	16.36	
2025-01-08 02:28:01.65	349.46	16.37	
2025-01-08 02:28:01.86	349.42	16.38	
2025-01-08 02:28:02.06	349.39	16.40	
2025-01-08 02:28:02.27	349.35	16.41	
2025-01-08 02:28:02.47	349.31	16.42	
2025-01-08 02:28:02.68	349.27	16.43	
2025-01-08 02:28:02.88	349.23	16.45	
2025-01-08 02:28:03.09	349.19	16.46	
2025-01-08 02:28:03.29	349.15	16.47	
2025-01-08 02:28:03.50	349.12	16.48	
2025-01-08 02:28:03.70	349.08	16.49	
2025-01-08 02:28:03.91	349.04	16.51	
2025-01-08 02:28:04.11	349.00	16.52	
2025-01-08 02:28:04.31	348.96	16.53	
2025-01-08 02:28:04.52	348.92	16.54	
2025-01-08 02:28:04.73	348.88	16.56	
2025-01-08 02:28:04.93	348.85	16.57	
2025-01-08 02:28:05.14	348.81	16.58	
2025-01-08 02:28:05.34	348.77	16.59	
2025-01-08 02:28:05.55	348.73	16.61	
2025-01-08 02:28:05.75	348.69	16.62	
2025-01-08 02:28:05.96	348.65	16.63	
2025-01-08 02:28:06.16	348.61	16.64	
2025-01-08 02:28:06.37	348.57	16.65	
2025-01-08 02:28:06.57	348.53	16.67	
2025-01-08 02:28:06.78	348.49	16.68	
2025-01-08 02:28:06.98	348.46	16.69	
2025-01-08 02:28:07.19	348.42	16.70	
2025-01-08 02:28:07.39	348.38	16.71	
2025-01-08 02:28:07.60	348.34	16.73	
2025-01-08 02:28:07.80	348.30	16.74	
2025-01-08 02:28:08.01	348.26	16.75	
2025-01-08 02:28:08.21	348.22	16.76	
2025-01-08 02:28:08.42	348.18	16.78	
2025-01-08 02:28:08.62	348.14	16.79	
2025-01-08 02:28:08.84	348.10	16.80	
2025-01-08 02:28:09.04	348.06	16.81	
2025-01-08 02:28:09.25	348.02	16.82	
2025-01-08 02:28:09.46	347.98	16.84	
2025-01-08 02:28:09.66	347.94	16.85	
2025-01-08 02:28:09.86	347.90	16.86	
2025-01-08 02:28:10.07	347.86	16.87	
2025-01-08 02:28:10.28	347.82	16.89	
2025-01-08 02:28:10.48	347.78	16.90	
2025-01-08 02:28:10.69	347.74	16.91	
2025-01-08 02:28:10.89	347.70	16.92	
2025-01-08 02:28:11.10	347.66	16.93	
2025-01-08 02:28:11.30	347.62	16.95	
2025-01-08 02:28:11.51	347.58	16.96	
2025-01-08 02:28:11.71	347.54	16.97	
2025-01-08 02:28:11.91	347.51	16.98	
2025-01-08 02:28:12.12	347.46	16.99	
2025-01-08 02:28:12.33	347.42	17.01	
2025-01-08 02:28:12.53	347.38	17.02	
2025-01-08 02:28:12.74	347.34	17.03	
2025-01-08 02:28:12.95	347.30	17.04	
2025-01-08 02:28:13.16	347.26	17.05	
2025-01-08 02:28:13.36	347.22	17.07	
2025-01-08 02:28:13.57	347.18	17.08	
2025-01-08 02:28:13.78	347.14	17.09	
2025-01-08 02:28:13.98	347.10	17.10	
2025-01-08 02:28:14.18	347.06	17.11	
2025-01-08 02:28:14.39	347.02	17.13	
2025-01-08 02:28:14.60	346.98	17.14	
2025-01-08 02:28:14.80	346.94	17.15	
2025-01-08 02:28:15.00	346.90	17.16	
2025-01-08 02:28:15.21	346.86	17.17	
2025-01-08 02:28:15.41	346.82	17.18	
2025-01-08 02:28:15.62	346.78	17.20	
2025-01-08 02:28:15.83	346.74	17.21	
2025-01-08 02:28:16.03	346.70	17.22	
2025-01-08 02:28:16.24	346.66	17.23	
2025-01-08 02:28:16.44	346.62	17.24	
2025-01-08 02:28:16.65	346.57	17.26	
2025-01-08 02:28:16.85	346.53	17.27	
2025-01-08 02:28:17.06	346.49	17.28	
2025-01-08 02:28:17.26	346.45	17.29	
2025-01-08 02:28:17.47	346.41	17.30	
2025-01-08 02:28:17.67	346.37	17.31	
2025-01-08 02:28:17.88	346.33	17.33	
2025-01-08 02:28:18.08	346.29	17.34	
2025-01-08 02:28:18.30	346.25	17.35	
2025-01-08 02:28:18.51	346.20	17.36	
2025-01-08 02:28:18.71	346.16	17.37	
2025-01-08 02:28:18.92	346.12	17.39	
2025-01-08 02:28:19.12	346.08	17.40	
2025-01-08 02:28:19.33	346.04	17.41	
2025-01-08 02:28:19.53	346.00	17.42	
2025-01-08 02:28:19.74	345.96	17.43	
2025-01-08 02:28:19.94	345.92	17.44	
2025-01-08 02:28:20.15	345.88	17.46	
2025-01-08 02:28:20.35	345.84	17.47	
2025-01-08 02:28:20.56	345.79	17.48	
2025-01-08 02:28:20.76	345.75	17.49	
2025-01-08 02:28:20.97	345.71	17.50	
2025-01-08 02:28:21.17	345.67	17.51	
2025-01-08 02:28:21.38	345.63	17.52	
2025-01-08 02:28:21.58	345.59	17.54	
2025-01-08 02:28:21.79	345.54	17.55	
2025-01-08 02:28:21.99	345.50	17.56	
2025-01-08 02:28:22.20	345.46	17.57	
2025-01-08 02:28:22.40	345.42	17.58	
2025-01-08 02:28:22.61	345.38	17.59	
2025-01-08 02:28:22.82	345.34	17.61	
2025-01-08 02:28:23.02	345.30	17.62	
2025-01-08 02:28:23.23	345.25	17.63	
2025-01-08 02:28:23.43	345.21	17.64	
2025-01-08 02:28:23.64	345.17	17.65	
2025-01-08 02:28:23.84	345.13	17.66	
2025-01-08 02:28:24.05	345.09	17.67	
2025-01-08 02:28:24.25	345.05	17.69	
2025-01-08 02:28:24.46	345.00	17.70	
2025-01-08 02:28:24.66	344.96	17.71	
2025-01-08 02:28:24.87	344.92	17.72	
2025-01-08 02:28:25.07	344.88	17.73	
2025-01-08 02:28:25.28	344.83	17.74	
2025-01-08 02:28:25.49	344.79	17.75	
2025-01-08 02:28:25.69	344.75	17.77	
2025-01-08 02:28:25.89	344.71	17.78	
2025-01-08 02:28:26.10	344.67	17.79	
2025-01-08 02:28:26.31	344.62	17.80	
2025-01-08 02:28:26.51	344.58	17.81	
2025-01-08 02:28:26.72	344.54	17.82	
2025-01-08 02:28:26.92	344.50	17.83	
2025-01-08 02:28:27.13	344.45	17.84	
2025-01-08 02:28:27.33	344.41	17.86	
2025-01-08 02:28:27.54	344.37	17.87	
2025-01-08 02:28:27.74	344.33	17.88	
2025-01-08 02:28:27.95	344.28	17.89	
2025-01-08 02:28:28.15	344.24	17.90	
2025-01-08 02:28:28.36	344.20	17.91	
2025-01-08 02:28:28.57	344.16	17.92	
2025-01-08 02:28:28.77	344.11	17.93	
2025-01-08 02:28:28.98	344.07	17.95	
2025-01-08 02:28:29.18	344.03	17.96	
2025-01-08 02:28:29.39	343.99	17.97	
2025-01-08 02:28:29.59	343.94	17.98	
2025-01-08 02:28:29.80	343.90	17.99	
2025-01-08 02:28:30.00	343.86	18.00	
2025-01-08 02:28:30.21	343.82	18.01	
2025-01-08 02:28:30.41	343.77	18.02	
2025-01-08 02:28:30.62	343.73	18.03	
2025-01-08 02:28:30.82	343.69	18.05	
2025-01-08 02:28:31.03	343.64	18.06	
2025-01-08 02:28:31.23	343.60	18.07	
2025-01-08 02:28:31.44	343.56	18.08	
2025-01-08 02:28:31.64	343.52	18.09	
2025-01-08 02:28:31.85	343.47	18.10	
2025-01-08 02:28:32.05	343.43	18.11	
2025-01-08 02:28:32.26	343.39	18.12	
2025-01-08 02:28:32.46	343.34	18.13	
2025-01-08 02:28:32.67	343.30	18.15	
2025-01-08 02:28:32.88	343.26	18.16	
2025-01-08 02:28:33.08	343.21	18.17	
2025-01-08 02:28:33.28	343.17	18.18	
2025-01-08 02:28:33.49	343.13	18.19	
2025-01-08 02:28:33.69	343.08	18.20	
2025-01-08 02:28:33.90	343.04	18.21	
2025-01-08 02:28:34.11	343.00	18.22	
2025-01-08 02:28:34.31	342.95	18.23	
2025-01-08 02:28:34.52	342.91	18.24	
2025-01-08 02:28:34.72	342.87	18.25	
2025-01-08 02:28:34.93	342.82	18.27	
2025-01-08 02:28:35.13	342.78	18.28	
2025-01-08 02:28:35.35	342.73	18.29	
2025-01-08 02:28:35.56	342.69	18.30	
2025-01-08 02:28:35.76	342.65	18.31	
2025-01-08 02:28:35.97	342.60	18.32	
2025-01-08 02:28:36.17	342.56	18.33	
2025-01-08 02:28:36.38	342.51	18.34	
2025-01-08 02:28:36.58	342.47	18.35	
2025-01-08 02:28:36.79	342.43	18.36	
2025-01-08 02:28:36.99	342.38	18.37	
2025-01-08 02:28:37.20	342.34	18.38	
2025-01-08 02:28:37.42	342.29	18.40	
2025-01-08 02:28:37.62	342.25	18.41	
2025-01-08 02:28:37.83	342.20	18.42	
2025-01-08 02:28:38.03	342.16	18.43	
2025-01-08 02:28:38.24	342.12	18.44	
2025-01-08 02:28:38.44	342.07	18.45	
2025-01-08 02:28:38.65	342.03	18.46	
2025-01-08 02:28:38.85	341.98	18.47	
2025-01-08 02:28:39.05	341.94	18.48	
2025-01-08 02:28:39.26	341.90	18.49	
2025-01-08 02:28:39.46	341.85	18.50	
2025-01-08 02:28:39.67	341.81	18.51	
2025-01-08 02:28:39.88	341.76	18.52	
2025-01-08 02:28:40.08	341.72	18.53	
2025-01-08 02:28:40.29	341.67	18.54	
2025-01-08 02:28:40.49	341.63	18.55	
2025-01-08 02:28:40.70	341.59	18.56	
2025-01-08 02:28:40.90	341.54	18.57	
2025-01-08 02:28:41.11	341.50	18.59	
2025-01-08 02:28:41.31	341.45	18.60	
2025-01-08 02:28:41.52	341.41	18.61	
2025-01-08 02:28:41.72	341.36	18.62	
2025-01-08 02:28:41.93	341.32	18.63	
2025-01-08 02:28:42.13	341.27	18.64	
2025-01-08 02:28:42.34	341.23	18.65	
2025-01-08 02:28:42.55	341.18	18.66	
2025-01-08 02:28:42.75	341.14	18.67	
2025-01-08 02:28:42.96	341.09	18.68	
2025-01-08 02:28:43.16	341.05	18.69	
2025-01-08 02:28:43.37	341.00	18.70	
2025-01-08 02:28:43.57	340.96	18.71	
2025-01-08 02:28:43.78	340.91	18.72	
2025-01-08 02:28:43.98	340.87	18.73	
2025-01-08 02:28:44.19	340.83	18.74	
2025-01-08 02:28:44.39	340.78	18.75	
2025-01-08 02:28:44.60	340.74	18.76	
2025-01-08 02:28:44.80	340.69	18.77	
2025-01-08 02:28:45.00	340.65	18.78	
2025-01-08 02:28:45.21	340.60	18.79	
2025-01-08 02:28:45.42	340.56	18.80	
2025-01-08 02:28:45.62	340.51	18.81	
2025-01-08 02:28:45.83	340.46	18.82	
2025-01-08 02:28:46.03	340.42	18.83	
2025-01-08 02:28:46.24	340.37	18.84	
2025-01-08 02:28:46.45	340.33	18.85	
2025-01-08 02:28:46.65	340.28	18.86	
2025-01-08 02:28:46.86	340.24	18.87	
2025-01-08 02:28:47.06	340.19	18.88	
2025-01-08 02:28:47.27	340.15	18.89	
2025-01-08 02:28:47.47	340.10	18.90	
2025-01-08 02:28:47.68	340.06	18.91	
2025-01-08 02:28:47.89	340.01	18.92	
2025-01-08 02:28:48.09	339.97	18.93	
2025-01-08 02:28:48.29	339.92	18.94	
2025-01-08 02:28:48.50	339.87	18.95	
2025-01-08 02:28:48.71	339.83	18.96	
2025-01-08 02:28:48.91	339.78	18.97	
2025-01-08 02:28:49.12	339.74	18.98	
2025-01-08 02:28:49.33	339.69	18.99	
2025-01-08 02:28:49.54	339.64	19.00	
2025-01-08 02:28:49.75	339.60	19.01	
2025-01-08 02:28:49.95	339.55	19.02	
2025-01-08 02:28:50.16	339.50	19.03	
2025-01-08 02:28:50.36	339.46	19.04	
2025-01-08 02:28:50.57	339.41	19.05	
2025-01-08 02:28:50.77	339.37	19.06	
2025-01-08 02:28:50.98	339.32	19.07	
2025-01-08 02:28:51.18	339.28	19.08	
2025-01-08 02:28:51.39	339.23	19.09	
2025-01-08 02:28:51.59	339.18	19.10	
2025-01-08 02:28:51.79	339.14	19.11	
2025-01-08 02:28:52.00	339.09	19.12	
2025-01-08 02:28:52.21	339.05	19.13	
2025-01-08 02:28:52.41	339.00	19.14	
2025-01-08 02:28:52.61	338.96	19.15	
2025-01-08 02:28:52.82	338.91	19.16	
2025-01-08 02:28:53.03	338.86	19.17	
2025-01-08 02:28:53.23	338.82	19.18	
2025-01-08 02:28:53.44	338.77	19.19	
2025-01-08 02:28:53.64	338.72	19.20	
2025-01-08 02:28:53.85	338.68	19.21	
2025-01-08 02:28:54.05	338.63	19.22	
2025-01-08 02:28:54.26	338.58	19.22	
2025-01-08 02:28:54.46	338.54	19.23	
2025-01-08 02:28:54.68	338.49	19.24	
2025-01-08 02:28:54.89	338.44	19.25	
2025-01-08 02:28:55.09	338.39	19.26	
2025-01-08 02:28:55.30	338.35	19.27	
2025-01-08 02:28:55.50	338.30	19.28	
2025-01-08 02:28:55.70	338.26	19.29	
2025-01-08 02:28:55.91	338.21	19.30	
2025-01-08 02:28:56.12	338.16	19.31	
2025-01-08 02:28:56.32	338.12	19.32	
2025-01-08 02:28:56.53	338.07	19.33	
2025-01-08 02:28:56.73	338.02	19.34	
2025-01-08 02:28:56.94	337.97	19.35	
2025-01-08 02:28:57.14	337.93	19.36	
2025-01-08 02:28:57.35	337.88	19.37	
2025-01-08 02:28:57.55	337.83	19.38	
2025-01-08 02:28:57.76	337.79	19.38	
2025-01-08 02:28:57.96	337.74	19.39	
2025-01-08 02:28:58.17	337.69	19.40	
2025-01-08 02:28:58.37	337.65	19.41	
2025-01-08 02:28:58.58	337.60	19.42	
2025-01-08 02:28:58.78	337.55	19.43	
2025-01-08 02:28:58.99	337.50	19.44	
2025-01-08 02:28:59.19	337.46	19.45	
2025-01-08 02:28:59.40	337.41	19.46	
2025-01-08 02:28:59.60	337.36	19.47	
2025-01-08 02:28:59.81	337.32	19.48	
2025-01-08 02:29:00.01	337.27	19.48	
2025-01-08 02:29:00.22	337.22	19.49	
2025-01-08 02:29:00.42	337.18	19.50	
2025-01-08 02:29:00.63	337.13	19.51	
2025-01-08 02:29:00.83	337.08	19.52	
2025-01-08 02:29:01.04	337.03	19.53	
2025-01-08 02:29:01.24	336.99	19.54	
2025-01-08 02:29:01.45	336.94	19.55	
2025-01-08 02:29:01.66	336.89	19.56	
2025-01-08 02:29:01.87	336.84	19.57	
2025-01-08 02:29:02.08	336.79	19.57	
2025-01-08 02:29:02.28	336.75	19.58	
2025-01-08 02:29:02.49	336.70	19.59	
2025-01-08 02:29:02.69	336.65	19.60	
2025-01-08 02:29:02.90	336.60	19.61	
2025-01-08 02:29:03.10	336.56	19.62	
2025-01-08 02:29:03.31	336.51	19.63	
2025-01-08 02:29:03.51	336.46	19.64	
2025-01-08 02:29:03.72	336.41	19.64	
2025-01-08 02:29:03.92	336.37	19.65	
2025-01-08 02:29:04.13	336.32	19.66	
2025-01-08 02:29:04.33	336.27	19.67	
2025-01-08 02:29:04.54	336.22	19.68	
2025-01-08 02:29:04.74	336.17	19.69	
2025-01-08 02:29:04.95	336.13	19.70	
2025-01-08 02:29:05.15	336.08	19.71	
2025-01-08 02:29:05.36	336.03	19.71	
2025-01-08 02:29:05.56	335.98	19.72	
2025-01-08 02:29:05.77	335.93	19.73	
2025-01-08 02:29:05.98	335.88	19.74	
2025-01-08 02:29:06.18	335.84	19.75	
2025-01-08 02:29:06.38	335.79	19.76	
2025-01-08 02:29:06.59	335.74	19.77	
2025-01-08 02:29:06.80	335.69	19.77	
2025-01-08 02:29:07.00	335.65	19.78	
2025-01-08 02:29:07.21	335.60	19.79	
2025-01-08 02:29:07.41	335.55	19.80	
2025-01-08 02:29:07.62	335.50	19.81	
2025-01-08 02:29:07.82	335.45	19.82	
2025-01-08 02:29:08.03	335.40	19.82	
2025-01-08 02:29:08.23	335.36	19.83	
2025-01-08 02:29:08.45	335.30	19.84	
2025-01-08 02:29:08.66	335.25	19.85	
2025-01-08 02:29:08.86	335.21	19.86	
2025-01-08 02:29:09.07	335.16	19.87	
2025-01-08 02:29:09.27	335.11	19.87	
2025-01-08 02:29:09.48	335.06	19.88	
2025-01-08 02:29:09.69	335.01	19.89	
2025-01-08 02:29:09.89	334.96	19.90	
2025-01-08 02:29:10.10	334.91	19.91	
2025-01-08 02:29:10.30	334.87	19.91	
2025-01-08 02:29:10.51	334.82	19.92	
2025-01-08 02:29:10.71	334.77	19.93	
2025-01-08 02:29:10.92	334.72	19.94	
2025-01-08 02:29:11.12	334.67	19.95	
2025-01-08 02:29:11.33	334.62	19.96	
2025-01-08 02:29:11.53	334.58	19.96	
2025-01-08 02:29:11.74	334.53	19.97	
2025-01-08 02:29:11.94	334.48	19.98	
2025-01-08 02:29:12.15	334.43	19.99	
2025-01-08 02:29:12.35	334.38	20.00	
2025-01-08 02:29:12.56	334.33	20.00	
2025-01-08 02:29:12.76	334.28	20.01	
2025-01-08 02:29:12.97	334.23	20.02	
2025-01-08 02:29:13.17	334.19	20.03	
2025-01-08 02:29:13.38	334.13	20.03	
2025-01-08 02:29:13.58	334.09	20.04	
2025-01-08 02:29:13.79	334.04	20.05	
2025-01-08 02:29:13.99	333.99	20.06	
2025-01-08 02:29:14.20	333.94	20.07	
2025-01-08 02:29:14.40	333.89	20.07	
2025-01-08 02:29:14.61	333.84	20.08	
2025-01-08 02:29:14.81	333.79	20.09	
2025-01-08 02:29:15.02	333.74	20.10	
2025-01-08 02:29:15.23	333.69	20.10	
2025-01-08 02:29:15.43	333.64	20.11	
2025-01-08 02:29:15.64	333.59	20.12	
2025-01-08 02:29:15.84	333.55	20.13	
2025-01-08 02:29:16.05	333.50	20.14	
2025-01-08 02:29:16.25	333.45	20.14	
2025-01-08 02:29:16.46	333.40	20.15	
2025-01-08 02:29:16.67	333.35	20.16	
2025-01-08 02:29:16.87	333.30	20.17	
2025-01-08 02:29:17.07	333.25	20.17	
2025-01-08 02:29:17.28	333.20	20.18	
2025-01-08 02:29:17.48	333.15	20.19	
2025-01-08 02:29:17.69	333.10	20.19	
2025-01-08 02:29:17.90	333.05	20.20	
2025-01-08 02:29:18.11	333.00	20.21	
2025-01-08 02:29:18.32	332.95	20.22	
2025-01-08 02:29:18.52	332.90	20.22	
2025-01-08 02:29:18.73	332.85	20.23	
2025-01-08 02:29:18.93	332.80	20.24	
2025-01-08 02:29:19.14	332.75	20.25	
2025-01-08 02:29:19.34	332.70	20.25	
2025-01-08 02:29:19.55	332.65	20.26	
2025-01-08 02:29:19.75	332.60	20.27	
2025-01-08 02:29:19.96	332.55	20.28	
2025-01-08 02:29:20.16	332.50	20.28	
2025-01-08 02:29:20.37	332.45	20.29	
2025-01-08 02:29:20.58	332.40	20.30	
2025-01-08 02:29:20.78	332.35	20.30	
2025-01-08 02:29:20.99	332.30	20.31	
2025-01-08 02:29:21.19	332.25	20.32	
2025-01-08 02:29:21.40	332.20	20.33	
2025-01-08 02:29:21.60	332.15	20.33	
2025-01-08 02:29:21.82	332.10	20.34	
2025-01-08 02:29:22.03	332.05	20.35	
2025-01-08 02:29:22.23	332.00	20.35	
2025-01-08 02:29:22.44	331.95	20.36	
2025-01-08 02:29:22.64	331.90	20.37	
2025-01-08 02:29:22.85	331.85	20.37	
2025-01-08 02:29:23.05	331.80	20.38	
2025-01-08 02:29:23.26	331.75	20.39	
2025-01-08 02:29:23.46	331.70	20.40	
2025-01-08 02:29:23.67	331.65	20.40	
2025-01-08 02:29:23.87	331.60	20.41	
2025-01-08 02:29:24.08	331.55	20.42	
2025-01-08 02:29:24.29	331.50	20.42	
2025-01-08 02:29:24.49	331.45	20.43	
2025-01-08 02:29:24.70	331.40	20.44	
2025-01-08 02:29:24.90	331.35	20.44	
2025-01-08 02:29:25.11	331.29	20.45	
2025-01-08 02:29:25.31	331.25	20.46	
2025-01-08 02:29:25.52	331.19	20.46	
2025-01-08 02:29:25.72	331.15	20.47	
2025-01-08 02:29:25.93	331.09	20.48	
2025-01-08 02:29:26.13	331.04	20.48	
2025-01-08 02:29:26.34	330.99	20.49	
2025-01-08 02:29:26.54	330.94	20.50	
2025-01-08 02:29:26.75	330.89	20.50	
2025-01-08 02:29:26.95	330.84	20.51	
2025-01-08 02:29:27.16	330.79	20.51	
2025-01-08 02:29:27.37	330.74	20.52	
2025-01-08 02:29:27.57	330.69	20.53	
2025-01-08 02:29:27.78	330.64	20.53	
2025-01-08 02:29:27.98	330.59	20.54	
2025-01-08 02:29:28.19	330.54	20.55	
2025-01-08 02:29:28.39	330.49	20.55	
2025-01-08 02:29:28.60	330.44	20.56	
2025-01-08 02:29:28.81	330.38	20.57	
2025-01-08 02:29:29.02	330.33	20.57	
2025-01-08 02:29:29.23	330.28	20.58	
2025-01-08 02:29:29.43	330.23	20.58	
2025-01-08 02:29:29.64	330.18	20.59	
2025-01-08 02:29:29.84	330.13	20.60	
2025-01-08 02:29:30.05	330.08	20.60	
2025-01-08 02:29:30.26	330.02	20.61	
2025-01-08 02:29:30.46	329.97	20.62	
2025-01-08 02:29:30.67	329.92	20.62	
2025-01-08 02:29:30.87	329.87	20.63	
2025-01-08 02:29:31.07	329.82	20.63	
2025-01-08 02:29:31.28	329.77	20.64	
2025-01-08 02:29:31.48	329.72	20.65	
2025-01-08 02:29:31.69	329.67	20.65	
2025-01-08 02:29:31.89	329.62	20.66	
2025-01-08 02:29:32.10	329.57	20.66	
2025-01-08 02:29:32.31	329.52	20.67	
2025-01-08 02:29:32.51	329.47	20.68	
2025-01-08 02:29:32.72	329.41	20.68	
2025-01-08 02:29:32.92	329.36	20.69	
2025-01-08 02:29:33.13	329.31	20.69	
2025-01-08 02:29:33.33	329.26	20.70	
2025-01-08 02:29:33.54	329.21	20.70	
2025-01-08 02:29:33.74	329.16	20.71	
2025-01-08 02:29:33.95	329.11	20.72	
2025-01-08 02:29:34.15	329.06	20.72	
2025-01-08 02:29:34.36	329.00	20.73	
2025-01-08 02:29:34.56	328.95	20.73	
2025-01-08 02:29:34.77	328.90	20.74	
2025-01-08 02:29:34.97	328.85	20.74	
2025-01-08 02:29:35.18	328.80	20.75	
2025-01-08 02:29:35.38	328.75	20.76	
2025-01-08 02:29:35.59	328.70	20.76	
2025-01-08 02:29:35.79	328.65	20.77	
2025-01-08 02:29:36.00	328.59	20.77	
2025-01-08 02:29:36.22	328.54	20.78	
2025-01-08 02:29:36.42	328.49	20.78	
2025-01-08 02:29:36.63	328.44	20.79	
2025-01-08 02:29:36.84	328.38	20.79	
2025-01-08 02:29:37.04	328.33	20.80	
2025-01-08 02:29:37.24	328.28	20.80	
2025-01-08 02:29:37.45	328.23	20.81	
2025-01-08 02:29:37.66	328.18	20.82	
2025-01-08 02:29:37.86	328.13	20.82	
2025-01-08 02:29:38.07	328.07	20.83	
2025-01-08 02:29:38.27	328.02	20.83	
2025-01-08 02:29:38.48	327.97	20.84	
2025-01-08 02:29:38.68	327.92	20.84	
2025-01-08 02:29:38.89	327.87	20.85	
2025-01-08 02:29:39.09	327.82	20.85	
2025-01-08 02:29:39.30	327.76	20.86	
2025-01-08 02:29:39.50	327.71	20.86	
2025-01-08 02:29:39.70	327.66	20.87	
2025-01-08 02:29:39.91	327.61	20.87	
2025-01-08 02:29:40.12	327.56	20.88	
2025-01-08 02:29:40.32	327.51	20.88	
2025-01-08 02:29:40.52	327.46	20.89	
2025-01-08 02:29:40.73	327.40	20.89	
2025-01-08 02:29:40.93	327.35	20.90	
2025-01-08 02:29:41.14	327.30	20.90	
2025-01-08 02:29:41.34	327.25	20.91	
2025-01-08 02:29:41.56	327.19	20.91	
2025-01-08 02:29:41.77	327.14	20.92	
2025-01-08 02:29:41.97	327.09	20.92	
2025-01-08 02:29:42.18	327.04	20.93	
2025-01-08 02:29:42.38	326.99	20.93	
2025-01-08 02:29:42.58	326.94	20.94	
2025-01-08 02:29:42.79	326.88	20.94	
2025-01-08 02:29:43.00	326.83	20.94	
2025-01-08 02:29:43.20	326.78	20.95	
2025-01-08 02:29:43.41	326.72	20.95	
2025-01-08 02:29:43.61	326.67	20.96	
2025-01-08 02:29:43.82	326.62	20.96	
2025-01-08 02:29:44.02	326.57	20.97	
2025-01-08 02:29:44.23	326.52	20.97	
2025-01-08 02:29:44.43	326.47	20.98	
2025-01-08 02:29:44.64	326.41	20.98	
2025-01-08 02:29:44.84	326.36	20.99	
2025-01-08 02:29:45.05	326.31	20.99	
2025-01-08 02:29:45.26	326.25	20.99	
2025-01-08 02:29:45.46	326.20	21.00	
2025-01-08 02:29:45.67	326.15	21.00	
2025-01-08 02:29:45.87	326.10	21.01	
2025-01-08 02:29:46.08	326.05	21.01	
2025-01-08 02:29:46.28	326.00	21.02	
2025-01-08 02:29:46.49	325.94	21.02	
2025-01-08 02:29:46.70	325.89	21.02	
2025-01-08 02:29:46.90	325.84	21.03	
2025-01-08 02:29:47.10	325.79	21.03	
2025-01-08 02:29:47.31	325.73	21.04	
2025-01-08 02:29:47.51	325.68	21.04	
2025-01-08 02:29:47.72	325.63	21.05	
2025-01-08 02:29:47.92	325.58	21.05	
2025-01-08 02:29:48.13	325.52	21.05	
2025-01-08 02:29:48.34	325.47	21.06	
2025-01-08 02:29:48.54	325.42	21.06	
2025-01-08 02:29:48.75	325.36	21.07	
2025-01-08 02:29:48.96	325.31	21.07	
2025-01-08 02:29:49.17	325.26	21.07	
2025-01-08 02:29:49.38	325.20	21.08	
2025-01-08 02:29:49.58	325.15	21.08	
2025-01-08 02:29:49.79	325.10	21.09	
2025-01-08 02:29:49.99	325.05	21.09	
2025-01-08 02:29:50.19	325.00	21.09	
2025-01-08 02:29:50.40	324.94	21.10	
2025-01-08 02:29:50.61	324.89	21.10	
2025-01-08 02:29:50.81	324.84	21.10	
2025-01-08 02:29:51.02	324.78	21.11	
2025-01-08 02:29:51.22	324.73	21.11	
2025-01-08 02:29:51.43	324.68	21.12	
2025-01-08 02:29:51.63	324.63	21.12	
2025-01-08 02:29:51.84	324.57	21.12	
2025-01-08 02:29:52.05	324.52	21.13	
2025-01-08 02:29:52.25	324.47	21.13	
2025-01-08 02:29:52.46	324.41	21.13	
2025-01-08 02:29:52.66	324.36	21.14	
2025-01-08 02:29:52.87	324.31	21.14	
2025-01-08 02:29:53.08	324.26	21.14	
2025-01-08 02:29:53.28	324.20	21.15	
2025-01-08 02:29:53.48	324.15	21.15	
2025-01-08 02:29:53.69	324.10	21.15	
2025-01-08 02:29:53.89	324.05	21.16	
2025-01-08 02:29:54.10	323.99	21.16	
2025-01-08 02:29:54.30	323.94	21.16	
2025-01-08 02:29:54.51	323.89	21.17	
2025-01-08 02:29:54.72	323.83	21.17	
2025-01-08 02:29:54.92	323.78	21.17	
2025-01-08 02:29:55.13	323.73	21.18	
2025-01-08 02:29:55.33	323.68	21.18	
2025-01-08 02:29:55.54	323.62	21.18	
2025-01-08 02:29:55.74	323.57	21.19	
2025-01-08 02:29:55.95	323.52	21.19	
2025-01-08 02:29:56.15	323.47	21.19	
2025-01-08 02:29:56.36	323.41	21.20	
2025-01-08 02:29:56.56	323.36	21.20	
2025-01-08 02:29:56.77	323.31	21.20	
2025-01-08 02:29:56.97	323.25	21.20	
2025-01-08 02:29:57.18	323.20	21.21	
2025-01-08 02:29:57.38	323.15	21.21	
2025-01-08 02:29:57.58	323.10	21.21	
2025-01-08 02:29:57.79	323.04	21.22	
2025-01-08 02:29:58.00	322.99	21.22	
2025-01-08 02:29:58.20	322.94	21.22	
2025-01-08 02:29:58.40	322.88	21.23	
2025-01-08 02:29:58.61	322.83	21.23	
2025-01-08 02:29:58.81	322.78	21.23	
2025-01-08 02:29:59.02	322.72	21.23	
2025-01-08 02:29:59.23	322.67	21.24	
2025-01-08 02:29:59.43	322.62	21.24	
2025-01-08 02:29:59.63	322.57	21.24	
2025-01-08 02:29:59.84	322.51	21.24	
2025-01-08 02:30:00.04	322.46	21.25	
2025-01-08 02:30:00.25	322.41	21.25	
2025-01-08 02:30:00.46	322.35	21.25	
2025-01-08 02:30:00.66	322.30	21.25	
2025-01-08 02:30:00.87	322.25	21.26	
2025-01-08 02:30:01.07	322.19	21.26	
2025-01-08 02:30:01.28	322.14	21.26	
2025-01-08 02:30:01.50	322.08	21.26	
2025-01-08 02:30:01.70	322.03	21.27	
2025-01-08 02:30:01.91	321.98	21.27	
2025-01-08 02:30:02.11	321.93	21.27	
2025-01-08 02:30:02.32	321.87	21.27	
2025-01-08 02:30:02.52	321.82	21.28	
2025-01-08 02:30:02.73	321.76	21.28	
2025-01-08 02:30:02.93	321.71	21.28	
2025-01-08 02:30:03.14	321.66	21.28	
2025-01-08 02:30:03.34	321.61	21.28	
2025-01-08 02:30:03.55	321.55	21.29	
2025-01-08 02:30:03.75	321.50	21.29	
2025-01-08 02:30:03.96	321.45	21.29	
2025-01-08 02:30:04.16	321.39	21.29	
2025-01-08 02:30:04.37	321.34	21.30	
2025-01-08 02:30:04.58	321.28	21.30	
2025-01-08 02:30:04.78	321.23	21.30	
2025-01-08 02:30:04.99	321.18	21.30	
2025-01-08 02:30:05.19	321.13	21.30	
2025-01-08 02:30:05.40	321.07	21.31	
2025-01-08 02:30:05.60	321.02	21.31	
2025-01-08 02:30:05.81	320.97	21.31	
2025-01-08 02:30:06.01	320.91	21.31	
2025-01-08 02:30:06.23	320.86	21.31	
2025-01-08 02:30:06.44	320.80	21.31	
2025-01-08 02:30:06.64	320.75	21.32	
2025-01-08 02:30:06.85	320.70	21.32	
2025-01-08 02:30:07.06	320.64	21.32	
2025-01-08 02:30:07.26	320.59	21.32	
2025-01-08 02:30:07.46	320.54	21.32	
2025-01-08 02:30:07.67	320.48	21.32	
2025-01-08 02:30:07.88	320.43	21.33	
2025-01-08 02:30:08.08	320.38	21.33	
2025-01-08 02:30:08.28	320.32	21.33	
2025-01-08 02:30:08.49	320.27	21.33	
2025-01-08 02:30:08.69	320.22	21.33	
2025-01-08 02:30:08.90	320.16	21.33	
2025-01-08 02:30:09.11	320.11	21.34	
2025-01-08 02:30:09.31	320.06	21.34	
2025-01-08 02:30:09.51	320.00	21.34	
2025-01-08 02:30:09.72	319.95	21.34	
2025-01-08 02:30:09.92	319.90	21.34	
2025-01-08 02:30:10.13	319.84	21.34	
2025-01-08 02:30:10.33	319.79	21.34	
2025-01-08 02:30:10.54	319.74	21.34	
2025-01-08 02:30:10.74	319.68	21.35	
2025-01-08 02:30:10.95	319.63	21.35	
2025-01-08 02:30:11.15	319.58	21.35	
2025-01-08 02:30:11.36	319.52	21.35	
2025-01-08 02:30:11.57	319.47	21.35	
2025-01-08 02:30:11.78	319.41	21.35	
2025-01-08 02:30:11.98	319.36	21.35	
2025-01-08 02:30:12.19	319.31	21.35	
2025-01-08 02:30:12.39	319.25	21.35	
2025-01-08 02:30:12.60	319.20	21.36	
2025-01-08 02:30:12.80	319.15	21.36	
2025-01-08 02:30:13.01	319.09	21.36	
2025-01-08 02:30:13.21	319.04	21.36	
2025-01-08 02:30:13.42	318.99	21.36	
2025-01-08 02:30:13.62	318.93	21.36	
2025-01-08 02:30:13.83	318.88	21.36	
2025-01-08 02:30:14.04	318.82	21.36	
2025-01-08 02:30:14.24	318.77	21.36	
2025-01-08 02:30:14.45	318.72	21.36	
2025-01-08 02:30:14.65	318.66	21.36	
2025-01-08 02:30:14.86	318.61	21.37	
2025-01-08 02:30:15.06	318.56	21.37	
2025-01-08 02:30:15.27	318.50	21.37	
2025-01-08 02:30:15.47	318.45	21.37	
2025-01-08 02:30:15.68	318.40	21.37	
2025-01-08 02:30:15.88	318.34	21.37	
2025-01-08 02:30:16.09	318.29	21.37	
2025-01-08 02:30:16.29	318.24	21.37	
2025-01-08 02:30:16.50	318.18	21.37	
2025-01-08 02:30:16.70	318.13	21.37	
2025-01-08 02:30:16.92	318.07	21.37	
2025-01-08 02:30:17.12	318.02	21.37	
2025-01-08 02:30:17.33	317.97	21.37	
2025-01-08 02:30:17.54	317.91	21.37	
2025-01-08 02:30:17.74	317.86	21.37	
2025-01-08 02:30:17.95	317.80	21.37	
2025-01-08 02:30:18.15	317.75	21.37	
2025-01-08 02:30:18.36	317.70	21.37	
2025-01-08 02:30:18.56	317.65	21.37	
2025-01-08 02:30:18.77	317.59	21.37	
2025-01-08 02:30:18.97	317.54	21.37	
2025-01-08 02:30:19.18	317.48	21.37	
2025-01-08 02:30:19.38	317.43	21.37	
2025-01-08 02:30:19.59	317.38	21.37	
2025-01-08 02:30:19.80	317.32	21.37	
2025-01-08 02:30:20.00	317.27	21.37	
2025-01-08 02:30:20.20	317.22	21.37	
2025-01-08 02:30:20.41	317.16	21.37	
2025-01-08 02:30:20.61	317.11	21.37	
2025-01-08 02:30:20.82	317.06	21.37	
2025-01-08 02:30:21.02	317.00	21.37	
2025-01-08 02:30:21.23	316.95	21.37	
2025-01-08 02:30:21.43	316.90	21.37	
2025-01-08 02:30:21.64	316.84	21.37	
2025-01-08 02:30:21.84	316.79	21.37	
2025-01-08 02:30:22.04	316.74	21.37	
2025-01-08 02:30:22.25	316.68	21.37	
2025-01-08 02:30:22.46	316.63	21.37	
2025-01-08 02:30:22.66	316.58	21.37	
2025-01-08 02:30:22.87	316.52	21.37	
2025-01-08 02:30:23.07	316.47	21.37	
2025-01-08 02:30:23.28	316.41	21.37	
2025-01-08 02:30:23.48	316.36	21.37	
2025-01-08 02:30:23.69	316.31	21.37	
2025-01-08 02:30:23.89	316.25	21.37	
2025-01-08 02:30:24.10	316.20	21.37	
2025-01-08 02:30:24.30	316.15	21.37	
2025-01-08 02:30:24.50	316.10	21.37	
2025-01-08 02:30:24.71	316.04	21.37	
2025-01-08 02:30:24.91	315.99	21.37	
2025-01-08 02:30:25.12	315.93	21.37	
2025-01-08 02:30:25.32	315.88	21.37	
2025-01-08 02:30:25.53	315.83	21.37	
2025-01-08 02:30:25.73	315.77	21.36	
2025-01-08 02:30:25.94	315.72	21.36	
2025-01-08 02:30:26.14	315.67	21.36	
2025-01-08 02:30:26.35	315.61	21.36	
2025-01-08 02:30:26.55	315.56	21.36	
2025-01-08 02:30:26.76	315.51	21.36	
2025-01-08 02:30:26.96	315.45	21.36	
2025-01-08 02:30:27.17	315.40	21.36	
2025-01-08 02:30:27.37	315.35	21.36	
2025-01-08 02:30:27.58	315.29	21.36	
2025-01-08 02:30:27.78	315.24	21.36	
2025-01-08 02:30:27.99	315.19	21.35	
2025-01-08 02:30:28.20	315.13	21.35	
2025-01-08 02:30:28.40	315.08	21.35	
2025-01-08 02:30:28.60	315.03	21.35	
2025-01-08 02:30:28.81	314.97	21.35	
2025-01-08 02:30:29.02	314.92	21.35	
2025-01-08 02:30:29.22	314.87	21.35	
2025-01-08 02:30:29.43	314.81	21.35	
2025-01-08 02:30:29.63	314.76	21.35	
2025-01-08 02:30:29.84	314.70	21.34	
2025-01-08 02:30:30.04	314.65	21.34	
2025-01-08 02:30:30.25	314.60	21.34	
2025-01-08 02:30:30.46	314.54	21.34	
2025-01-08 02:30:30.66	314.49	21.34	
2025-01-08 02:30:30.86	314.44	21.34	
2025-01-08 02:30:31.06	314.39	21.34	
2025-01-08 02:30:31.27	314.33	21.34	
2025-01-08 02:30:31.47	314.28	21.33	
2025-01-08 02:30:31.67	314.23	21.33	
2025-01-08 02:30:31.88	314.17	21.33	
2025-01-08 02:30:32.09	314.12	21.33	
2025-01-08 02:30:32.29	314.07	21.33	
2025-01-08 02:30:32.50	314.01	21.33	
2025-01-08 02:30:32.70	313.96	21.32	
2025-01-08 02:30:32.91	313.90	21.32	
2025-01-08 02:30:33.11	313.85	21.32	
2025-01-08 02:30:33.31	313.80	21.32	
2025-01-08 02:30:33.52	313.75	21.32	
2025-01-08 02:30:33.72	313.69	21.32	
2025-01-08 02:30:33.94	313.64	21.31	
2025-01-08 02:30:34.15	313.58	21.31	
2025-01-08 02:30:34.35	313.53	21.31	
2025-01-08 02:30:34.56	313.48	21.31	
2025-01-08 02:30:34.77	313.42	21.31	
2025-01-08 02:30:34.97	313.37	21.31	
2025-01-08 02:30:35.18	313.31	21.30	
2025-01-08 02:30:35.38	313.26	21.30	
2025-01-08 02:30:35.59	313.21	21.30	
2025-01-08 02:30:35.79	313.16	21.30	
2025-01-08 02:30:36.01	313.10	21.30	
2025-01-08 02:30:36.21	313.05	21.29	
2025-01-08 02:30:36.42	312.99	21.29	
2025-01-08 02:30:36.62	312.94	21.29	
2025-01-08 02:30:36.83	312.89	21.29	
2025-01-08 02:30:37.03	312.83	21.29	
2025-01-08 02:30:37.24	312.78	21.28	
2025-01-08 02:30:37.45	312.73	21.28	
2025-01-08 02:30:37.65	312.67	21.28	
2025-01-08 02:30:37.86	312.62	21.28	
2025-01-08 02:30:38.06	312.57	21.27	
2025-01-08 02:30:38.27	312.51	21.27	
2025-01-08 02:30:38.47	312.46	21.27	
2025-01-08 02:30:38.68	312.41	21.27	
2025-01-08 02:30:38.88	312.36	21.26	
2025-01-08 02:30:39.09	312.30	21.26	
2025-01-08 02:30:39.29	312.25	21.26	
2025-01-08 02:30:39.50	312.19	21.26	
2025-01-08 02:30:39.70	312.14	21.25	
2025-01-08 02:30:39.91	312.09	21.25	
2025-01-08 02:30:40.11	312.04	21.25	
2025-01-08 02:30:40.32	311.98	21.25	
2025-01-08 02:30:40.52	311.93	21.24	
2025-01-08 02:30:40.73	311.88	21.24	
2025-01-08 02:30:40.93	311.82	21.24	
2025-01-08 02:30:41.14	311.77	21.24	
2025-01-08 02:30:41.34	311.72	21.23	
2025-01-08 02:30:41.55	311.66	21.23	
2025-01-08 02:30:41.75	311.61	21.23	
2025-01-08 02:30:41.96	311.56	21.23	
2025-01-08 02:30:42.16	311.51	21.22	
2025-01-08 02:30:42.37	311.45	21.22	
2025-01-08 02:30:42.57	311.40	21.22	
2025-01-08 02:30:42.78	311.35	21.21	
2025-01-08 02:30:42.98	311.29	21.21	
2025-01-08 02:30:43.19	311.24	21.21	
2025-01-08 02:30:43.40	311.19	21.21	
2025-01-08 02:30:43.60	311.13	21.20	
2025-01-08 02:30:43.81	311.08	21.20	
2025-01-08 02:30:44.01	311.03	21.20	
2025-01-08 02:30:44.22	310.97	21.19	
2025-01-08 02:30:44.42	310.92	21.19	
2025-01-08 02:30:44.64	310.87	21.19	
2025-01-08 02:30:44.85	310.81	21.18	
2025-01-08 02:30:45.05	310.76	21.18	
2025-01-08 02:30:45.26	310.71	21.18	
2025-01-08 02:30:45.46	310.65	21.17	
2025-01-08 02:30:45.67	310.60	21.17	
2025-01-08 02:30:45.87	310.55	21.17	
2025-01-08 02:30:46.08	310.50	21.16	
2025-01-08 02:30:46.29	310.44	21.16	
2025-01-08 02:30:46.49	310.39	21.16	
2025-01-08 02:30:46.70	310.34	21.15	
2025-01-08 02:30:46.90	310.28	21.15	
2025-01-08 02:30:47.11	310.23	21.15	
2025-01-08 02:30:47.31	310.18	21.14	
2025-01-08 02:30:47.52	310.12	21.14	
2025-01-08 02:30:47.72	310.07	21.14	
2025-01-08 02:30:47.93	310.02	21.13	
2025-01-08 02:30:48.13	309.97	21.13	
2025-01-08 02:30:48.34	309.91	21.13	
2025-01-08 02:30:48.54	309.86	21.12	
2025-01-08 02:30:48.75	309.81	21.12	
2025-01-08 02:30:48.95	309.76	21.12	
2025-01-08 02:30:49.16	309.70	21.11	
2025-01-08 02:30:49.37	309.65	21.11	
2025-01-08 02:30:49.57	309.60	21.10	
2025-01-08 02:30:49.78	309.54	21.10	
2025-01-08 02:30:49.98	309.49	21.10	
2025-01-08 02:30:50.19	309.44	21.09	
2025-01-08 02:30:50.39	309.39	21.09	
2025-01-08 02:30:50.60	309.33	21.09	
2025-01-08 02:30:50.80	309.28	21.08	
2025-01-08 02:30:51.01	309.23	21.08	
2025-01-08 02:30:51.21	309.18	21.07	
2025-01-08 02:30:51.42	309.12	21.07	
2025-01-08 02:30:51.62	309.07	21.07	
2025-01-08 02:30:51.83	309.02	21.06	
2025-01-08 02:30:52.04	308.97	21.06	
2025-01-08 02:30:52.25	308.91	21.05	
2025-01-08 02:30:52.45	308.86	21.05	
2025-01-08 02:30:52.66	308.81	21.05	
2025-01-08 02:30:52.87	308.75	21.04	
2025-01-08 02:30:53.07	308.70	21.04	
2025-01-08 02:30:53.28	308.65	21.03	
2025-01-08 02:30:53.48	308.60	21.03	
2025-01-08 02:30:53.68	308.55	21.03	
2025-01-08 02:30:53.89	308.49	21.02	
2025-01-08 02:30:54.09	308.44	21.02	
2025-01-08 02:30:54.30	308.39	21.01	
2025-01-08 02:30:54.50	308.34	21.01	
2025-01-08 02:30:54.71	308.28	21.00	
2025-01-08 02:30:54.91	308.23	21.00	
2025-01-08 02:30:55.12	308.18	20.99	
2025-01-08 02:30:55.32	308.13	20.99	
2025-01-08 02:30:55.53	308.08	20.99	
2025-01-08 02:30:55.73	308.02	20.98	
2025-01-08 02:30:55.94	307.97	20.98	
2025-01-08 02:30:56.15	307.92	20.97	
2025-01-08 02:30:56.35	307.87	20.97	
2025-01-08 02:30:56.55	307.82	20.96	
2025-01-08 02:30:56.76	307.76	20.96	
2025-01-08 02:30:56.97	307.71	20.95	
2025-01-08 02:30:57.17	307.66	20.95	
2025-01-08 02:30:57.37	307.61	20.95	
2025-01-08 02:30:57.58	307.55	20.94	
2025-01-08 02:30:57.79	307.50	20.94	
2025-01-08 02:30:57.99	307.45	20.93	
2025-01-08 02:30:58.20	307.40	20.93	
2025-01-08 02:30:58.40	307.35	20.92	
2025-01-08 02:30:58.61	307.29	20.92	
2025-01-08 02:30:58.81	307.24	20.91	
2025-01-08 02:30:59.02	307.19	20.91	
2025-01-08 02:30:59.22	307.14	20.90	
2025-01-08 02:30:59.43	307.09	20.90	
2025-01-08 02:30:59.63	307.04	20.89	
2025-01-08 02:30:59.84	306.98	20.89	
2025-01-08 02:31:00.04	306.93	20.88	
2025-01-08 02:31:00.25	306.88	20.88	
2025-01-08 02:31:00.45	306.83	20.87	
2025-01-08 02:31:00.65	306.78	20.87	
2025-01-08 02:31:00.86	306.72	20.86	
2025-01-08 02:31:01.07	306.67	20.86	
2025-01-08 02:31:01.27	306.62	20.85	
2025-01-08 02:31:01.48	306.57	20.85	
2025-01-08 02:31:01.68	306.52	20.84	
2025-01-08 02:31:01.89	306.46	20.84	
2025-01-08 02:31:02.09	306.41	20.83	
2025-01-08 02:31:02.30	306.36	20.83	
2025-01-08 02:31:02.50	306.31	20.82	
2025-01-08 02:31:02.71	306.26	20.82	
2025-01-08 02:31:02.91	306.21	20.81	
2025-01-08 02:31:03.12	306.16	20.81	
2025-01-08 02:31:03.33	306.10	20.80	
2025-01-08 02:31:03.53	306.05	20.79	
2025-01-08 02:31:03.74	306.00	20.79	
2025-01-08 02:31:03.94	305.95	20.78	
2025-01-08 02:31:04.15	305.90	20.78	
2025-01-08 02:31:04.35	305.85	20.77	
2025-01-08 02:31:04.56	305.79	20.77	
2025-01-08 02:31:04.76	305.74	20.76	
2025-01-08 02:31:04.97	305.69	20.76	
2025-01-08 02:31:05.17	305.64	20.75	
2025-01-08 02:31:05.38	305.59	20.75	
2025-01-08 02:31:05.58	305.54	20.74	
2025-01-08 02:31:05.79	305.49	20.73	
2025-01-08 02:31:05.99	305.44	20.73	
2025-01-08 02:31:06.20	305.38	20.72	
2025-01-08 02:31:06.40	305.33	20.72	
2025-01-08 02:31:06.61	305.28	20.71	
2025-01-08 02:31:06.81	305.23	20.71	
2025-01-08 02:31:07.03	305.17	20.70	
2025-01-08 02:31:07.23	305.13	20.69	
2025-01-08 02:31:07.44	305.07	20.69	
2025-01-08 02:31:07.64	305.02	20.68	
2025-01-08 02:31:07.85	304.97	20.68	
2025-01-08 02:31:08.07	304.92	20.67	
2025-01-08 02:31:08.27	304.87	20.66	
2025-01-08 02:31:08.48	304.81	20.66	
2025-01-08 02:31:08.68	304.76	20.65	
2025-01-08 02:31:08.89	304.71	20.65	
2025-01-08 02:31:09.09	304.66	20.64	
2025-01-08 02:31:09.30	304.61	20.63	
2025-01-08 02:31:09.50	304.56	20.63	
2025-01-08 02:31:09.71	304.51	20.62	
2025-01-08 02:31:09.91	304.46	20.62	
2025-01-08 02:31:10.13	304.40	20.61	
2025-01-08 02:31:10.34	304.35	20.60	
2025-01-08 02:31:10.54	304.30	20.60	
2025-01-08 02:31:10.75	304.25	20.59	
2025-01-08 02:31:10.96	304.20	20.58	
2025-01-08 02:31:11.17	304.14	20.58	
2025-01-08 02:31:11.38	304.09	20.57	
2025-01-08 02:31:11.58	304.04	20.57	
2025-01-08 02:31:11.79	303.99	20.56	
2025-01-08 02:31:11.99	303.94	20.55	
2025-01-08 02:31:12.20	303.89	20.55	
2025-01-08 02:31:12.40	303.84	20.54	
2025-01-08 02:31:12.61	303.79	20.53	
2025-01-08 02:31:12.82	303.74	20.53	
2025-01-08 02:31:13.02	303.69	20.52	
2025-01-08 02:31:13.23	303.64	20.51	
2025-01-08 02:31:13.43	303.59	20.51	
2025-01-08 02:31:13.64	303.53	20.50	
2025-01-08 02:31:13.84	303.48	20.50	
2025-01-08 02:31:14.05	303.43	20.49	
2025-01-08 02:31:14.25	303.38	20.48	
2025-01-08 02:31:14.47	303.33	20.48	
2025-01-08 02:31:14.68	303.28	20.47	
2025-01-08 02:31:14.88	303.23	20.46	
2025-01-08 02:31:15.09	303.18	20.46	
2025-01-08 02:31:15.29	303.13	20.45	
2025-01-08 02:31:15.50	303.08	20.44	
2025-01-08 02:31:15.70	303.03	20.44	
2025-01-08 02:31:15.91	302.98	20.43	
2025-01-08 02:31:16.11	302.93	20.42	
2025-01-08 02:31:16.32	302.88	20.42	
2025-01-08 02:31:16.52	302.83	20.41	
2025-01-08 02:31:16.73	302.77	20.40	
2025-01-08 02:31:16.93	302.73	20.39	
2025-01-08 02:31:17.14	302.67	20.39	
2025-01-08 02:31:17.34	302.63	20.38	
2025-01-08 02:31:17.54	302.58	20.37	
2025-01-08 02:31:17.75	302.52	20.37	
2025-01-08 02:31:17.96	302.47	20.36	
2025-01-08 02:31:18.16	302.42	20.35	
2025-01-08 02:31:18.37	302.37	20.35	
2025-01-08 02:31:18.57	302.32	20.34	
2025-01-08 02:31:18.78	302.27	20.33	
2025-01-08 02:31:18.98	302.22	20.33	
2025-01-08 02:31:19.19	302.17	20.32	
2025-01-08 02:31:19.40	302.12	20.31	
2025-01-08 02:31:19.60	302.07	20.30	
2025-01-08 02:31:19.81	302.02	20.30	
2025-01-08 02:31:20.01	301.97	20.29	
2025-01-08 02:31:20.22	301.92	20.28	
2025-01-08 02:31:20.42	301.87	20.28	
2025-01-08 02:31:20.63	301.82	20.27	
2025-01-08 02:31:20.83	301.77	20.26	
2025-01-08 02:31:21.04	301.72	20.25	
2025-01-08 02:31:21.24	301.68	20.25	
2025-01-08 02:31:21.45	301.62	20.24	
2025-01-08 02:31:21.66	301.57	20.23	
2025-01-08 02:31:21.86	301.52	20.22	
2025-01-08 02:31:22.07	301.47	20.22	
2025-01-08 02:31:22.27	301.43	20.21	
2025-01-08 02:31:22.48	301.37	20.20	
2025-01-08 02:31:22.68	301.33	20.19	
2025-01-08 02:31:22.89	301.28	20.19	
2025-01-08 02:31:23.09	301.23	20.18	
2025-01-08 02:31:23.30	301.18	20.17	
2025-01-08 02:31:23.50	301.13	20.17	
2025-01-08 02:31:23.71	301.08	20.16	
2025-01-08 02:31:23.91	301.03	20.15	
2025-01-08 02:31:24.12	300.98	20.14	
2025-01-08 02:31:24.32	300.93	20.13	
2025-01-08 02:31:24.53	300.88	20.13	
2025-01-08 02:31:24.73	300.83	20.12	
2025-01-08 02:31:24.94	300.78	20.11	
2025-01-08 02:31:25.14	300.73	20.10	
2025-01-08 02:31:25.35	300.68	20.10	
2025-01-08 02:31:25.56	300.63	20.09	
2025-01-08 02:31:25.76	300.58	20.08	
2025-01-08 02:31:25.97	300.53	20.07	
2025-01-08 02:31:26.17	300.49	20.07	
2025-01-08 02:31:26.37	300.44	20.06	
2025-01-08 02:31:26.58	300.39	20.05	
2025-01-08 02:31:26.79	300.34	20.04	
2025-01-08 02:31:26.99	300.29	20.03	
2025-01-08 02:31:27.20	300.24	20.03	
2025-01-08 02:31:27.40	300.19	20.02	
2025-01-08 02:31:27.61	300.14	20.01	
2025-01-08 02:31:27.82	300.09	20.00	
2025-01-08 02:31:28.02	300.04	19.99	
2025-01-08 02:31:28.22	300.00	19.99	
2025-01-08 02:31:28.43	299.95	19.98	
2025-01-08 02:31:28.64	299.90	19.97	
2025-01-08 02:31:28.84	299.85	19.96	
2025-01-08 02:31:29.05	299.80	19.95	
2025-01-08 02:31:29.25	299.75	19.95	
2025-01-08 02:31:29.45	299.70	19.94	
2025-01-08 02:31:29.66	299.65	19.93	
2025-01-08 02:31:29.86	299.61	19.92	
2025-01-08 02:31:30.07	299.56	19.91	
2025-01-08 02:31:30.28	299.51	19.91	
2025-01-08 02:31:30.48	299.46	19.90	
2025-01-08 02:31:30.69	299.41	19.89	
2025-01-08 02:31:30.89	299.36	19.88	
2025-01-08 02:31:31.09	299.31	19.87	
2025-01-08 02:31:31.30	299.26	19.87	
2025-01-08 02:31:31.50	299.22	19.86	
2025-01-08 02:31:31.71	299.17	19.85	
2025-01-08 02:31:31.92	299.12	19.84	
2025-01-08 02:31:32.12	299.07	19.83	
2025-01-08 02:31:32.32	299.02	19.82	
2025-01-08 02:31:32.53	298.97	19.82	
2025-01-08 02:31:32.73	298.93	19.81	
2025-01-08 02:31:32.94	298.88	19.80	
2025-01-08 02:31:33.14	298.83	19.79	
2025-01-08 02:31:33.35	298.78	19.78	
2025-01-08 02:31:33.55	298.73	19.77	
2025-01-08 02:31:33.76	298.68	19.77	
2025-01-08 02:31:33.96	298.64	19.76	
2025-01-08 02:31:34.17	298.59	19.75	
2025-01-08 02:31:34.37	298.54	19.74	
2025-01-08 02:31:34.58	298.49	19.73	
2025-01-08 02:31:34.78	298.45	19.72	
2025-01-08 02:31:34.99	298.40	19.71	
2025-01-08 02:31:35.19	298.35	19.71	
2025-01-08 02:31:35.40	298.30	19.70	
2025-01-08 02:31:35.60	298.25	19.69	
2025-01-08 02:31:35.81	298.20	19.68	
2025-01-08 02:31:36.01	298.16	19.67	
2025-01-08 02:31:36.22	298.11	19.66	
2025-01-08 02:31:36.43	298.06	19.65	
2025-01-08 02:31:36.63	298.01	19.65	
2025-01-08 02:31:36.83	297.97	19.64	
2025-01-08 02:31:37.04	297.92	19.63	
2025-01-08 02:31:37.25	297.87	19.62	
2025-01-08 02:31:37.45	297.82	19.61	
2025-01-08 02:31:37.66	297.77	19.60	
2025-01-08 02:31:37.87	297.72	19.59	
2025-01-08 02:31:38.07	297.68	19.58	
2025-01-08 02:31:38.28	297.63	19.57	
2025-01-08 02:31:38.48	297.58	19.57	
2025-01-08 02:31:38.69	297.53	19.56	
2025-01-08 02:31:38.89	297.49	19.55	
2025-01-08 02:31:39.09	297.44	19.54	
2025-01-08 02:31:39.30	297.39	19.53	
2025-01-08 02:31:39.51	297.34	19.52	
2025-01-08 02:31:39.71	297.30	19.51	
2025-01-08 02:31:39.92	297.25	19.50	
2025-01-08 02:31:40.13	297.20	19.49	
2025-01-08 02:31:40.34	297.15	19.48	
2025-01-08 02:31:40.55	297.10	19.48	
2025-01-08 02:31:40.75	297.06	19.47	
2025-01-08 02:31:40.96	297.01	19.46	
2025-01-08 02:31:41.16	296.96	19.45	
2025-01-08 02:31:41.37	296.91	19.44	
2025-01-08 02:31:41.57	296.87	19.43	
2025-01-08 02:31:41.78	296.82	19.42	
2025-01-08 02:31:41.99	296.77	19.41	
2025-01-08 02:31:42.20	296.72	19.40	
2025-01-08 02:31:42.41	296.68	19.39	
2025-01-08 02:31:42.62	296.63	19.38	
2025-01-08 02:31:42.82	296.58	19.37	
2025-01-08 02:31:43.03	296.53	19.36	
2025-01-08 02:31:43.23	296.49	19.36	
2025-01-08 02:31:43.44	296.44	19.35	
2025-01-08 02:31:43.65	296.39	19.34	
2025-01-08 02:31:43.85	296.35	19.33	
2025-01-08 02:31:44.06	296.30	19.32	
2025-01-08 02:31:44.26	296.25	19.31	
2025-01-08 02:31:44.47	296.20	19.30	
2025-01-08 02:31:44.68	296.16	19.29	
2025-01-08 02:31:44.88	296.11	19.28	
2025-01-08 02:31:45.09	296.06	19.27	
2025-01-08 02:31:45.29	296.02	19.26	
2025-01-08 02:31:45.50	295.97	19.25	
2025-01-08 02:31:45.70	295.93	19.24	
2025-01-08 02:31:45.91	295.88	19.23	
2025-01-08 02:31:46.11	295.83	19.22	
2025-01-08 02:31:46.32	295.78	19.21	
2025-01-08 02:31:46.52	295.74	19.20	
2025-01-08 02:31:46.73	295.69	19.19	
2025-01-08 02:31:46.93	295.65	19.19	
2025-01-08 02:31:47.14	295.60	19.18	
2025-01-08 02:31:47.34	295.55	19.17	
2025-01-08 02:31:47.55	295.51	19.16	
2025-01-08 02:31:47.75	295.46	19.15	
2025-01-08 02:31:47.96	295.41	19.14	
2025-01-08 02:31:48.17	295.37	19.13	
2025-01-08 02:31:48.37	295.32	19.12	
2025-01-08 02:31:48.58	295.27	19.11	
2025-01-08 02:31:48.78	295.23	19.10	
2025-01-08 02:31:48.99	295.18	19.09	
2025-01-08 02:31:49.19	295.14	19.08	
2025-01-08 02:31:49.40	295.09	19.07	
2025-01-08 02:31:49.60	295.04	19.06	
2025-01-08 02:31:49.81	295.00	19.05	
2025-01-08 02:31:50.02	294.95	19.04	
2025-01-08 02:31:50.22	294.91	19.03	
2025-01-08 02:31:50.43	294.86	19.02	
2025-01-08 02:31:50.63	294.81	19.01	
2025-01-08 02:31:50.85	294.76	19.00	
2025-01-08 02:31:51.05	294.72	18.99	
2025-01-08 02:31:51.26	294.67	18.98	
2025-01-08 02:31:51.47	294.63	18.97	
2025-01-08 02:31:51.67	294.58	18.96	
2025-01-08 02:31:51.88	294.53	18.95	
2025-01-08 02:31:52.08	294.49	18.94	
2025-01-08 02:31:52.29	294.44	18.93	
2025-01-08 02:31:52.49	294.40	18.92	
2025-01-08 02:31:52.70	294.35	18.91	
2025-01-08 02:31:52.90	294.31	18.90	
2025-01-08 02:31:53.10	294.26	18.89	
2025-01-08 02:31:53.31	294.22	18.88	
2025-01-08 02:31:53.51	294.17	18.87	
2025-01-08 02:31:53.72	294.13	18.86	
2025-01-08 02:31:53.92	294.08	18.85	
2025-01-08 02:31:54.13	294.04	18.84	
2025-01-08 02:31:54.33	293.99	18.83	
2025-01-08 02:31:54.54	293.94	18.82	
2025-01-08 02:31:54.75	293.90	18.81	
2025-01-08 02:31:54.95	293.85	18.80	
2025-01-08 02:31:55.16	293.81	18.79	
2025-01-08 02:31:55.36	293.76	18.78	
2025-01-08 02:31:55.57	293.72	18.77	
2025-01-08 02:31:55.77	293.67	18.76	
2025-01-08 02:31:55.97	293.63	18.75	
2025-01-08 02:31:56.18	293.58	18.74	
2025-01-08 02:31:56.38	293.54	18.73	
2025-01-08 02:31:56.59	293.49	18.72	
2025-01-08 02:31:56.79	293.45	18.71	
2025-01-08 02:31:57.00	293.40	18.70	
2025-01-08 02:31:57.20	293.36	18.69	
2025-01-08 02:31:57.40	293.32	18.68	
2025-01-08 02:31:57.61	293.27	18.67	
2025-01-08 02:31:57.82	293.22	18.66	
2025-01-08 02:31:58.02	293.18	18.65	
2025-01-08 02:31:58.23	293.13	18.64	
2025-01-08 02:31:58.43	293.09	18.63	
2025-01-08 02:31:58.64	293.05	18.61	
2025-01-08 02:31:58.84	293.00	18.60	
2025-01-08 02:31:59.05	292.96	18.59	
2025-01-08 02:31:59.25	292.91	18.58	
2025-01-08 02:31:59.46	292.87	18.57	
2025-01-08 02:31:59.66	292.82	18.56	
2025-01-08 02:31:59.87	292.78	18.55	
2025-01-08 02:32:00.07	292.73	18.54	
2025-01-08 02:32:00.27	292.69	18.53	
2025-01-08 02:32:00.48	292.65	18.52	
2025-01-08 02:32:00.69	292.60	18.51	
2025-01-08 02:32:00.89	292.56	18.50	
2025-01-08 02:32:01.11	292.51	18.49	
2025-01-08 02:32:01.31	292.47	18.48	
2025-01-08 02:32:01.51	292.42	18.47	
2025-01-08 02:32:01.72	292.38	18.46	
2025-01-08 02:32:01.92	292.33	18.45	
2025-01-08 02:32:02.13	292.29	18.44	
2025-01-08 02:32:02.34	292.24	18.42	
2025-01-08 02:32:02.54	292.20	18.41	
2025-01-08 02:32:02.74	292.16	18.40	
2025-01-08 02:32:02.95	292.11	18.39	
2025-01-08 02:32:03.16	292.07	18.38	
2025-01-08 02:32:03.36	292.03	18.37	
2025-01-08 02:32:03.57	291.98	18.36	
2025-01-08 02:32:03.77	291.94	18.35	
2025-01-08 02:32:03.98	291.89	18.34	
2025-01-08 02:32:04.18	291.85	18.33	
2025-01-08 02:32:04.39	291.80	18.32	
2025-01-08 02:32:04.59	291.76	18.31	
2025-01-08 02:32:04.80	291.72	18.30	
2025-01-08 02:32:05.00	291.67	18.29	
2025-01-08 02:32:05.21	291.63	18.27	
2025-01-08 02:32:05.41	291.59	18.26	
2025-01-08 02:32:05.62	291.54	18.25	
2025-01-08 02:32:05.82	291.50	18.24	
2025-01-08 02:32:06.03	291.46	18.23	
2025-01-08 02:32:06.23	291.41	18.22	
