passes_logs/2026/01/27/R4.6S_Anadyr/R4.6S_Anadyr__20260127_005429_NOAA_20_JPSS-1_rec.log

#Pass ID: 20260127_005429_NOAA 20 (JPSS-1)
#Satellite: NOAA 20 (JPSS-1)
#Configuration: NOAA 20
#almurnet v.1.7.20251203
#Start time: 2026-01-27 00:54:31

#Version: 2.2.20231116
#Station: R4.6S_Anadyr
#Location: 177.4865 lon 64.73178 lat
#TLE: 1 43013U 17073A   26026.46665230  .00000148  00000+0  91302-4 0  9998
#TLE: 2 43013  98.7646 327.2856 0001008  22.9532 337.1688 14.19540616424360

#Time	Az	El	Level	Level2	SNR	BER	BlckErr	Temp	State	Recorded	gain1	gain2
2026-01-27 00:54:31.78	173.57	0.14	-49.2	-64.1	3.5	1.51e+00	0	25	0	0	60	57741
2026-01-27 00:54:32.78	173.60	0.20	-49.3	-64.5	3.6	1.51e+00	0	26	104	0	60	60533
2026-01-27 00:54:33.79	173.62	0.26	-49.3	-64.5	3.5	1.51e+00	0	26	104	0	60	60699
2026-01-27 00:54:34.81	173.65	0.32	-49.2	-64.4	3.6	1.51e+00	0	26	104	0	60	59974
2026-01-27 00:54:35.81	173.67	0.38	-49.2	-64.4	3.6	1.51e+00	0	26	104	0	60	60244
2026-01-27 00:54:36.82	173.69	0.44	-49.2	-64.4	3.6	1.51e+00	0	26	104	0	60	59801
2026-01-27 00:54:37.83	173.72	0.50	-49.2	-64.4	3.6	1.51e+00	0	26	104	0	60	59892
2026-01-27 00:54:38.84	173.74	0.56	-49.2	-64.4	3.6	1.51e+00	0	26	104	0	60	60088
2026-01-27 00:54:39.85	173.77	0.62	-49.2	-64.4	3.6	1.51e+00	0	27	104	0	60	60294
2026-01-27 00:54:40.86	173.79	0.68	-49.2	-64.4	3.6	1.51e+00	0	27	104	0	60	59840
2026-01-27 00:54:41.87	173.82	0.74	-49.2	-64.4	3.6	1.51e+00	0	27	104	0	60	60086
2026-01-27 00:54:42.88	173.84	0.81	-49.2	-64.4	3.6	1.51e+00	0	27	104	0	60	60055
2026-01-27 00:54:43.89	173.87	0.87	-49.2	-64.4	3.6	1.51e+00	0	27	104	0	60	59927
2026-01-27 00:54:44.90	173.89	0.93	-49.2	-64.4	3.6	1.51e+00	0	27	104	0	60	60006
2026-01-27 00:54:45.91	173.92	0.99	-49.2	-64.4	3.6	1.51e+00	0	27	104	0	60	59944
2026-01-27 00:54:46.92	173.95	1.05	-49.1	-64.3	3.6	1.51e+00	0	27	104	0	60	59639
2026-01-27 00:54:47.93	173.97	1.11	-49.1	-64.4	3.6	1.51e+00	0	27	104	0	60	59766
2026-01-27 00:54:48.95	174.00	1.18	-49.1	-64.3	3.6	1.51e+00	0	27	104	0	60	59627
2026-01-27 00:54:49.95	174.02	1.24	-49.1	-64.3	3.6	1.51e+00	0	27	104	0	60	59131
2026-01-27 00:54:50.96	174.05	1.30	-49.0	-64.2	3.6	1.51e+00	0	27	104	0	60	58708
2026-01-27 00:54:51.97	174.07	1.36	-49.0	-64.2	3.6	1.51e+00	0	27	104	0	60	58912
2026-01-27 00:54:52.98	174.10	1.42	-48.9	-64.1	3.6	1.51e+00	0	27	104	0	60	57791
2026-01-27 00:54:53.99	174.13	1.49	-48.8	-64.0	3.6	1.51e+00	0	27	104	0	60	57079
2026-01-27 00:54:55.00	174.15	1.55	-48.7	-63.8	3.6	1.51e+00	0	27	104	0	60	56088
2026-01-27 00:54:56.01	174.18	1.61	-48.4	-63.5	3.6	1.51e+00	0	27	104	0	60	54215
2026-01-27 00:54:57.02	174.21	1.68	-47.9	-62.9	3.6	1.51e+00	0	27	104	0	60	50243
2026-01-27 00:54:58.03	174.23	1.74	-47.9	-62.8	3.6	1.51e+00	0	27	104	0	60	49819
2026-01-27 00:54:59.04	174.26	1.80	-47.9	-62.8	3.6	1.51e+00	0	27	104	0	60	50074
2026-01-27 00:55:00.05	174.28	1.86	-47.9	-62.8	3.6	1.51e+00	0	27	104	0	60	50153
2026-01-27 00:55:01.06	174.31	1.93	-47.9	-62.9	3.6	1.51e+00	0	27	104	0	60	50525
2026-01-27 00:55:02.07	174.34	1.99	-47.9	-63.0	3.6	1.51e+00	0	27	104	0	60	50778
2026-01-27 00:55:03.08	174.37	2.06	-47.9	-63.0	3.6	1.51e+00	0	27	104	0	60	51258
2026-01-27 00:55:04.09	174.39	2.12	-47.9	-63.1	3.6	1.51e+00	0	27	104	0	60	51393
2026-01-27 00:55:05.10	174.42	2.18	-47.9	-63.0	3.6	1.51e+00	0	27	104	0	60	51352
2026-01-27 00:55:06.11	174.45	2.25	-47.9	-63.0	3.6	1.51e+00	0	27	104	0	60	51202
2026-01-27 00:55:07.12	174.47	2.31	-47.9	-63.0	3.6	1.51e+00	0	27	104	0	60	51053
2026-01-27 00:55:08.13	174.50	2.38	-47.9	-63.0	3.6	1.51e+00	0	27	104	0	60	50807
2026-01-27 00:55:09.14	174.53	2.44	-47.9	-63.0	3.6	1.51e+00	0	27	104	0	60	50845
2026-01-27 00:55:10.15	174.56	2.51	-47.9	-62.9	3.6	1.51e+00	0	27	104	0	60	50257
2026-01-27 00:55:11.16	174.59	2.57	-47.9	-62.5	3.6	1.51e+00	0	27	104	0	60	48207
2026-01-27 00:55:12.17	174.61	2.64	-47.8	-62.1	3.6	1.51e+00	0	27	104	0	60	45790
2026-01-27 00:55:13.18	174.64	2.70	-47.8	-61.8	3.6	1.51e+00	0	27	104	0	60	44436
2026-01-27 00:55:14.19	174.67	2.77	-47.8	-61.4	3.6	1.51e+00	0	27	104	0	60	42681
2026-01-27 00:55:15.20	174.70	2.83	-47.8	-61.9	3.6	1.51e+00	0	27	104	0	60	45206
2026-01-27 00:55:16.21	174.73	2.90	-47.9	-62.6	3.6	1.51e+00	0	27	104	0	60	48482
2026-01-27 00:55:17.22	174.75	2.96	-47.9	-62.5	3.6	1.51e+00	0	27	104	0	60	48190
2026-01-27 00:55:18.23	174.78	3.03	-47.7	-60.0	3.9	1.51e+00	0	27	104	0	60	36261
2026-01-27 00:55:19.24	174.81	3.10	-47.4	-55.7	5.6	8.14e-01	0	27	0	0	60	22147
2026-01-27 00:55:20.25	174.84	3.16	-46.5	-51.7	10.1	1.32e-01	0	27	0	2097152	60	13934
2026-01-27 00:55:21.26	174.87	3.23	-45.4	-49.1	12.7	5.00e-04	0	27	0	4194304	60	10273
2026-01-27 00:55:22.27	174.90	3.29	-44.1	-46.8	15.4	2.20e-06	0	27	0	6291456	60	7924
2026-01-27 00:55:23.27	174.93	3.36	-43.2	-45.4	16.8	0.00e+00	0	27	0	7340032	60	6767
2026-01-27 00:55:24.28	174.96	3.43	-42.3	-44.2	17.8	0.00e+00	0	27	0	9437184	58	6540
2026-01-27 00:55:25.29	174.99	3.49	-41.4	-42.9	19.2	0.00e+00	0	27	0	11534336	56	6385
2026-01-27 00:55:26.30	175.02	3.56	-40.9	-42.4	19.7	0.00e+00	0	27	0	13631488	56	5983
2026-01-27 00:55:27.31	175.05	3.63	-40.7	-42.1	19.8	0.00e+00	0	27	0	15728640	54	6512
2026-01-27 00:55:28.32	175.08	3.70	-40.3	-41.6	20.3	0.00e+00	0	27	0	16777216	54	6139
2026-01-27 00:55:29.33	175.11	3.76	-41.2	-42.7	19.2	0.00e+00	0	27	0	18874368	54	6943
2026-01-27 00:55:30.34	175.14	3.83	-40.8	-42.2	19.7	0.00e+00	0	27	0	20971520	54	6598
2026-01-27 00:55:31.35	175.17	3.90	-40.6	-42.0	19.9	0.00e+00	0	27	0	23068672	54	6401
2026-01-27 00:55:32.36	175.20	3.97	-41.0	-42.3	19.9	0.00e+00	0	27	0	25165824	58	5310
2026-01-27 00:55:33.37	175.23	4.04	-47.6	-58.9	3.8	3.18e-01	0	27	104	26214400	60	31823
2026-01-27 00:55:34.38	175.26	4.11	-44.2	-46.7	17.5	2.01e-03	0	27	0	26214400	60	7782
2026-01-27 00:55:35.39	175.29	4.17	-45.3	-48.6	14.4	1.14e-04	0	27	0	28311552	60	9770
2026-01-27 00:55:36.40	175.32	4.24	-41.8	-43.4	18.8	0.00e+00	0	27	0	30408704	56	6753
2026-01-27 00:55:37.41	175.35	4.31	-40.7	-42.1	20.0	0.00e+00	0	27	0	32505856	56	5805
2026-01-27 00:55:38.42	175.38	4.38	-41.4	-43.0	19.4	0.00e+00	0	27	0	33554432	54	7180
2026-01-27 00:55:39.43	175.41	4.45	-40.3	-41.6	20.5	0.00e+00	0	27	0	35651584	54	6130
2026-01-27 00:55:40.44	175.44	4.52	-40.6	-41.9	20.1	0.00e+00	0	27	0	37748736	54	6349
2026-01-27 00:55:41.45	175.47	4.59	-40.3	-41.6	20.6	0.00e+00	0	27	0	39845888	54	6119
2026-01-27 00:55:42.46	175.51	4.66	-40.8	-42.2	19.7	0.00e+00	0	27	0	41943040	54	6552
2026-01-27 00:55:43.47	175.54	4.73	-40.6	-41.9	20.1	0.00e+00	0	27	0	42991616	54	6353
2026-01-27 00:55:44.48	175.57	4.80	-40.7	-42.0	20.1	0.00e+00	0	27	0	45088768	54	6425
2026-01-27 00:55:45.49	175.60	4.87	-40.4	-41.7	20.5	0.00e+00	0	27	0	47185920	54	6204
2026-01-27 00:55:46.50	175.63	4.94	-40.3	-41.6	20.7	0.00e+00	0	27	0	49283072	54	6116
2026-01-27 00:55:47.51	175.67	5.01	-40.0	-41.2	20.9	0.00e+00	0	27	0	51380224	54	5895
2026-01-27 00:55:48.52	175.70	5.08	-40.3	-41.6	20.6	0.00e+00	0	27	0	52428800	54	6135
2026-01-27 00:55:49.53	175.73	5.15	-40.0	-41.2	21.0	0.00e+00	0	27	0	54525952	54	5835
2026-01-27 00:55:50.54	175.76	5.22	-40.3	-41.5	20.8	0.00e+00	0	27	0	56623104	54	6085
2026-01-27 00:55:51.55	175.80	5.30	-40.7	-42.0	20.0	0.00e+00	0	27	0	58720256	54	6418
2026-01-27 00:55:52.56	175.83	5.37	-40.8	-42.2	20.0	0.00e+00	0	27	0	60817408	54	6570
2026-01-27 00:55:53.57	175.86	5.44	-40.9	-42.2	20.2	0.00e+00	0	27	0	61865984	54	6586
2026-01-27 00:55:54.58	175.90	5.51	-40.7	-42.0	20.2	0.00e+00	0	27	0	63963136	54	6463
2026-01-27 00:55:55.59	175.93	5.58	-40.4	-41.7	20.6	0.00e+00	0	27	0	66060288	54	6198
2026-01-27 00:55:56.60	175.96	5.66	-40.7	-42.0	20.1	0.00e+00	0	27	0	68157440	54	6446
2026-01-27 00:55:57.61	176.00	5.73	-40.5	-41.8	20.5	0.00e+00	0	27	0	70254592	54	6285
2026-01-27 00:55:58.62	176.03	5.80	-41.0	-42.4	19.8	0.00e+00	0	27	0	71303168	54	6738
2026-01-27 00:55:59.63	176.07	5.88	-40.9	-42.3	19.9	0.00e+00	0	27	0	73400320	54	6656
2026-01-27 00:56:00.64	176.10	5.95	-40.1	-41.4	21.1	0.00e+00	0	27	0	75497472	54	5969
2026-01-27 00:56:01.65	176.13	6.02	-39.9	-41.1	21.2	0.00e+00	0	27	0	77594624	54	5766
2026-01-27 00:56:02.66	176.17	6.10	-40.0	-41.2	21.1	0.00e+00	0	27	0	79691776	54	5831
2026-01-27 00:56:03.66	176.20	6.17	-40.0	-41.2	21.0	0.00e+00	0	27	0	80740352	54	5852
2026-01-27 00:56:04.67	176.24	6.24	-39.8	-41.0	21.3	0.00e+00	0	27	0	82837504	54	5725
2026-01-27 00:56:05.68	176.27	6.32	-39.6	-40.7	21.6	0.00e+00	0	27	0	84934656	52	6217
2026-01-27 00:56:06.69	176.31	6.39	-39.7	-40.8	21.5	0.00e+00	0	27	0	87031808	52	6303
2026-01-27 00:56:07.70	176.34	6.47	-39.8	-41.0	21.3	0.00e+00	0	27	0	89128960	52	6395
2026-01-27 00:56:08.70	176.38	6.54	-39.7	-40.9	21.4	0.00e+00	0	27	0	91226112	52	6341
2026-01-27 00:56:09.71	176.41	6.62	-39.8	-40.9	21.5	0.00e+00	0	27	0	92274688	52	6361
2026-01-27 00:56:10.72	176.45	6.69	-39.9	-41.0	21.4	0.00e+00	0	27	0	94371840	52	6441
2026-01-27 00:56:11.73	176.49	6.77	-39.7	-40.9	21.5	0.00e+00	0	27	0	96468992	52	6329
2026-01-27 00:56:12.74	176.52	6.84	-39.5	-40.7	21.7	0.00e+00	0	27	0	98566144	52	6181
2026-01-27 00:56:13.75	176.56	6.92	-39.6	-40.8	21.6	0.00e+00	0	27	0	100663296	52	6263
2026-01-27 00:56:14.76	176.59	6.99	-39.9	-41.0	21.3	0.00e+00	0	27	0	101711872	52	6436
2026-01-27 00:56:15.77	176.63	7.07	-39.7	-40.8	21.6	0.00e+00	0	27	0	103809024	52	6285
2026-01-27 00:56:16.78	176.67	7.15	-39.7	-40.9	21.5	0.00e+00	0	27	0	105906176	52	6324
2026-01-27 00:56:17.79	176.71	7.22	-39.5	-40.6	21.7	0.00e+00	0	27	0	108003328	52	6140
2026-01-27 00:56:18.80	176.74	7.30	-39.5	-40.6	21.8	0.00e+00	0	27	0	110100480	52	6150
2026-01-27 00:56:19.81	176.78	7.38	-39.5	-40.6	21.8	0.00e+00	0	27	0	111149056	52	6128
2026-01-27 00:56:20.82	176.82	7.46	-39.4	-40.5	21.9	0.00e+00	0	27	0	113246208	52	6051
2026-01-27 00:56:21.83	176.86	7.53	-39.3	-40.4	21.9	0.00e+00	0	27	0	115343360	52	6002
2026-01-27 00:56:22.84	176.89	7.61	-39.5	-40.5	21.8	0.00e+00	0	27	0	117440512	52	6097
2026-01-27 00:56:23.85	176.93	7.69	-39.5	-40.6	21.9	0.00e+00	0	27	0	119537664	52	6122
2026-01-27 00:56:24.86	176.97	7.77	-39.4	-40.5	21.9	0.00e+00	0	27	0	120586240	52	6073
2026-01-27 00:56:25.87	177.01	7.85	-39.3	-40.4	22.0	0.00e+00	0	27	0	122683392	52	5987
2026-01-27 00:56:26.88	177.05	7.93	-39.4	-40.5	22.0	0.00e+00	0	27	0	124780544	52	6060
2026-01-27 00:56:27.88	177.09	8.00	-39.3	-40.3	22.1	0.00e+00	0	27	0	126877696	52	5948
2026-01-27 00:56:28.89	177.12	8.08	-39.3	-40.4	22.0	0.00e+00	0	28	0	128974848	52	5987
2026-01-27 00:56:29.90	177.16	8.16	-39.1	-40.1	22.3	0.00e+00	0	28	0	130023424	52	5813
2026-01-27 00:56:30.91	177.20	8.24	-39.2	-40.2	22.1	0.00e+00	0	27	0	132120576	52	5895
2026-01-27 00:56:31.92	177.24	8.32	-39.1	-40.2	22.3	0.00e+00	0	27	0	134217728	52	5836
2026-01-27 00:56:32.93	177.28	8.40	-39.1	-40.1	22.3	0.00e+00	0	27	0	136314880	52	5822
2026-01-27 00:56:33.94	177.32	8.48	-39.0	-40.0	22.3	0.00e+00	0	27	0	138412032	52	5751
2026-01-27 00:56:34.95	177.36	8.56	-39.1	-40.1	22.4	0.00e+00	0	27	0	139460608	52	5779
2026-01-27 00:56:35.96	177.40	8.65	-39.1	-40.2	22.3	0.00e+00	0	27	0	141557760	52	5846
2026-01-27 00:56:36.97	177.44	8.73	-39.3	-40.3	22.2	0.00e+00	0	27	0	143654912	52	5947
2026-01-27 00:56:37.98	177.48	8.81	-39.5	-40.5	21.8	0.00e+00	0	27	0	145752064	52	6092
2026-01-27 00:56:38.99	177.53	8.89	-39.2	-40.2	22.3	0.00e+00	0	27	0	147849216	52	5885
2026-01-27 00:56:40.00	177.57	8.97	-39.4	-40.5	22.0	0.00e+00	0	27	0	148897792	52	6071
2026-01-27 00:56:41.01	177.61	9.05	-39.4	-40.4	22.0	0.00e+00	0	27	0	150994944	52	6007
2026-01-27 00:56:42.02	177.65	9.14	-39.4	-40.4	22.1	0.00e+00	0	27	0	153092096	52	6023
2026-01-27 00:56:43.03	177.69	9.22	-39.4	-40.5	22.1	0.00e+00	0	27	0	155189248	52	6065
2026-01-27 00:56:44.04	177.73	9.30	-39.0	-40.0	22.5	0.00e+00	0	28	0	157286400	52	5739
2026-01-27 00:56:45.05	177.78	9.39	-39.0	-40.0	22.4	0.00e+00	0	28	0	159383552	52	5745
2026-01-27 00:56:46.06	177.82	9.47	-39.0	-40.0	22.4	0.00e+00	0	28	0	160432128	52	5724
2026-01-27 00:56:47.07	177.86	9.55	-39.1	-40.1	22.4	0.00e+00	0	27	0	162529280	52	5796
2026-01-27 00:56:48.08	177.91	9.64	-38.8	-39.8	22.6	0.00e+00	0	27	0	164626432	52	5615
2026-01-27 00:56:49.09	177.95	9.72	-38.8	-39.8	22.7	0.00e+00	0	27	0	166723584	52	5610
2026-01-27 00:56:50.10	177.99	9.81	-38.8	-39.8	22.7	0.00e+00	0	27	0	168820736	52	5577
2026-01-27 00:56:51.11	178.04	9.89	-38.9	-39.8	22.7	0.00e+00	0	27	0	169869312	52	5630
2026-01-27 00:56:52.12	178.08	9.98	-38.9	-39.9	22.5	0.00e+00	0	27	0	171966464	52	5632
2026-01-27 00:56:53.13	178.12	10.06	-39.0	-40.0	22.6	0.00e+00	0	27	0	174063616	52	5752
2026-01-27 00:56:54.14	178.17	10.15	-38.9	-39.9	22.6	0.00e+00	0	27	0	176160768	52	5659
2026-01-27 00:56:55.15	178.21	10.24	-38.7	-39.7	22.8	0.00e+00	0	27	0	178257920	50	6199
2026-01-27 00:56:56.16	178.26	10.32	-38.7	-39.6	22.8	0.00e+00	0	27	0	179306496	50	6172
2026-01-27 00:56:57.17	178.30	10.41	-38.8	-39.8	22.7	0.00e+00	0	27	0	181403648	50	6273
2026-01-27 00:56:58.18	178.35	10.50	-38.8	-39.7	22.9	0.00e+00	0	27	0	183500800	50	6233
2026-01-27 00:56:59.19	178.39	10.58	-38.8	-39.7	22.8	0.00e+00	0	28	0	185597952	50	6233
2026-01-27 00:57:00.20	178.44	10.67	-38.5	-39.4	23.1	0.00e+00	0	28	0	187695104	50	6005
2026-01-27 00:57:01.21	178.49	10.76	-38.5	-39.5	23.0	0.00e+00	0	27	0	188743680	50	6062
2026-01-27 00:57:02.22	178.53	10.85	-38.5	-39.5	23.0	0.00e+00	0	27	0	190840832	50	6070
2026-01-27 00:57:03.23	178.58	10.94	-38.4	-39.3	23.2	0.00e+00	0	27	0	192937984	50	5963
2026-01-27 00:57:04.24	178.63	11.03	-38.4	-39.4	23.1	0.00e+00	0	27	0	195035136	50	5993
2026-01-27 00:57:05.25	178.67	11.11	-38.4	-39.4	23.2	0.00e+00	0	27	0	197132288	50	5994
2026-01-27 00:57:06.26	178.72	11.20	-38.4	-39.4	23.1	0.00e+00	0	27	0	198180864	50	5990
2026-01-27 00:57:07.27	178.77	11.29	-38.2	-39.1	23.4	0.00e+00	0	27	0	200278016	50	5800
2026-01-27 00:57:08.28	178.82	11.38	-38.2	-39.1	23.3	0.00e+00	0	27	0	202375168	50	5798
2026-01-27 00:57:09.29	178.87	11.47	-38.3	-39.3	23.2	0.00e+00	0	27	0	204472320	50	5901
2026-01-27 00:57:10.30	178.91	11.56	-38.3	-39.2	23.2	0.00e+00	0	27	0	206569472	50	5850
2026-01-27 00:57:11.31	178.96	11.66	-38.4	-39.3	23.2	0.00e+00	0	27	0	207618048	50	5961
2026-01-27 00:57:12.32	179.01	11.75	-38.2	-39.2	23.3	0.00e+00	0	28	0	209715200	50	5842
2026-01-27 00:57:13.33	179.06	11.84	-38.2	-39.2	23.3	0.00e+00	0	27	0	211812352	50	5836
2026-01-27 00:57:14.34	179.11	11.93	-38.2	-39.2	23.4	0.00e+00	0	27	0	213909504	50	5834
2026-01-27 00:57:15.35	179.16	12.02	-38.2	-39.1	23.3	0.00e+00	0	27	0	216006656	50	5820
2026-01-27 00:57:16.36	179.21	12.12	-38.3	-39.2	23.3	0.00e+00	0	27	0	217055232	50	5867
2026-01-27 00:57:17.37	179.26	12.21	-38.3	-39.2	23.3	0.00e+00	0	27	0	219152384	50	5888
2026-01-27 00:57:18.38	179.31	12.30	-38.2	-39.1	23.4	0.00e+00	0	27	0	221249536	50	5789
2026-01-27 00:57:19.39	179.37	12.40	-38.2	-39.1	23.4	0.00e+00	0	28	0	223346688	50	5805
2026-01-27 00:57:20.40	179.42	12.49	-38.3	-39.2	23.3	0.00e+00	0	28	0	225443840	50	5878
2026-01-27 00:57:21.41	179.47	12.58	-38.3	-39.2	23.4	0.00e+00	0	27	0	227540992	50	5868
2026-01-27 00:57:22.42	179.52	12.68	-38.3	-39.3	23.3	0.00e+00	0	28	0	228589568	50	5912
2026-01-27 00:57:23.43	179.57	12.77	-38.3	-39.2	23.4	0.00e+00	0	27	0	230686720	50	5860
2026-01-27 00:57:24.44	179.63	12.87	-38.3	-39.3	23.3	0.00e+00	0	27	0	232783872	50	5919
2026-01-27 00:57:25.45	179.68	12.97	-38.3	-39.3	23.2	0.00e+00	0	28	0	234881024	50	5900
2026-01-27 00:57:26.46	179.73	13.06	-38.3	-39.2	23.3	0.00e+00	0	28	0	236978176	50	5860
2026-01-27 00:57:27.47	179.79	13.16	-38.4	-39.3	23.3	0.00e+00	0	27	0	238026752	50	5918
2026-01-27 00:57:28.47	179.84	13.25	-38.3	-39.2	23.4	0.00e+00	0	27	0	240123904	50	5896
2026-01-27 00:57:29.48	179.89	13.35	-38.3	-39.3	23.3	0.00e+00	0	28	0	242221056	50	5910
2026-01-27 00:57:30.49	179.95	13.45	-38.4	-39.3	23.3	0.00e+00	0	27	0	244318208	50	5930
2026-01-27 00:57:31.50	180.00	13.55	-38.3	-39.3	23.3	0.00e+00	0	28	0	246415360	50	5920
2026-01-27 00:57:32.51	180.06	13.65	-38.4	-39.3	23.3	0.00e+00	0	27	0	247463936	50	5958
2026-01-27 00:57:33.52	180.11	13.74	-38.3	-39.3	23.3	0.00e+00	0	28	0	249561088	50	5905
2026-01-27 00:57:34.53	180.17	13.84	-38.4	-39.3	23.2	0.00e+00	0	28	0	251658240	50	5941
2026-01-27 00:57:35.54	180.23	13.94	-38.3	-39.3	23.3	0.00e+00	0	27	0	253755392	50	5918
2026-01-27 00:57:36.55	180.28	14.04	-38.5	-39.5	23.0	0.00e+00	0	27	0	255852544	50	6054
2026-01-27 00:57:37.56	180.34	14.14	-38.3	-39.2	23.4	0.00e+00	0	27	0	256901120	50	5892
2026-01-27 00:57:38.57	180.40	14.24	-38.5	-39.4	23.2	0.00e+00	0	28	0	258998272	50	6011
2026-01-27 00:57:39.58	180.46	14.34	-38.2	-39.1	23.6	0.00e+00	0	28	0	261095424	50	5799
2026-01-27 00:57:40.59	180.52	14.45	-38.1	-39.1	23.5	0.00e+00	0	28	0	263192576	50	5779
2026-01-27 00:57:41.60	180.57	14.55	-38.3	-39.2	23.4	0.00e+00	0	28	0	265289728	50	5889
2026-01-27 00:57:42.61	180.63	14.65	-38.1	-39.1	23.5	0.00e+00	0	28	0	266338304	50	5763
2026-01-27 00:57:43.62	180.69	14.75	-38.1	-39.0	23.6	0.00e+00	0	28	0	268435456	50	5717
2026-01-27 00:57:44.63	180.75	14.86	-38.0	-38.9	23.7	0.00e+00	0	28	0	270532608	50	5664
2026-01-27 00:57:45.63	180.81	14.96	-38.2	-39.1	23.6	0.00e+00	0	28	0	272629760	50	5785
2026-01-27 00:57:46.64	180.87	15.06	-38.0	-39.0	23.7	0.00e+00	0	28	0	274726912	50	5702
2026-01-27 00:57:47.65	180.93	15.17	-38.2	-39.1	23.5	0.00e+00	0	28	0	275775488	50	5787
2026-01-27 00:57:48.66	180.99	15.27	-38.2	-39.2	23.5	0.00e+00	0	28	0	277872640	50	5830
2026-01-27 00:57:49.67	181.06	15.38	-37.9	-38.8	23.8	0.00e+00	0	28	0	279969792	50	5614
2026-01-27 00:57:50.68	181.12	15.48	-38.0	-38.9	23.6	0.00e+00	0	28	0	282066944	50	5693
2026-01-27 00:57:51.69	181.18	15.59	-38.1	-39.0	23.6	0.00e+00	0	28	0	284164096	50	5704
2026-01-27 00:57:52.70	181.24	15.70	-38.0	-38.9	23.7	0.00e+00	0	28	0	285212672	50	5653
2026-01-27 00:57:53.71	181.31	15.80	-38.2	-39.1	23.5	0.00e+00	0	28	0	287309824	50	5785
2026-01-27 00:57:54.72	181.37	15.91	-38.1	-39.0	23.6	0.00e+00	0	28	0	289406976	50	5740
2026-01-27 00:57:55.73	181.44	16.02	-38.2	-39.1	23.6	0.00e+00	0	28	0	291504128	50	5822
2026-01-27 00:57:56.74	181.50	16.13	-38.1	-39.0	23.6	0.00e+00	0	28	0	293601280	50	5755
2026-01-27 00:57:57.75	181.57	16.23	-38.1	-39.0	23.6	0.00e+00	0	28	0	295698432	50	5742
2026-01-27 00:57:58.76	181.63	16.34	-38.2	-39.1	23.6	0.00e+00	0	27	0	296747008	50	5779
2026-01-27 00:57:59.77	181.70	16.45	-38.2	-39.1	23.5	0.00e+00	0	28	0	298844160	50	5820
2026-01-27 00:58:00.78	181.76	16.56	-38.3	-39.2	23.5	0.00e+00	0	28	0	300941312	50	5879
2026-01-27 00:58:01.79	181.83	16.67	-38.2	-39.1	23.5	0.00e+00	0	28	0	303038464	50	5812
2026-01-27 00:58:02.80	181.90	16.78	-38.3	-39.3	23.5	0.00e+00	0	28	0	305135616	50	5920
2026-01-27 00:58:03.81	181.97	16.90	-38.2	-39.1	23.5	0.00e+00	0	28	0	306184192	50	5819
2026-01-27 00:58:04.82	182.03	17.01	-38.3	-39.2	23.5	0.00e+00	0	28	0	308281344	50	5859
2026-01-27 00:58:05.83	182.10	17.12	-38.1	-39.0	23.6	0.00e+00	0	27	0	310378496	50	5743
2026-01-27 00:58:06.84	182.17	17.23	-38.3	-39.2	23.4	0.00e+00	0	28	0	312475648	50	5874
2026-01-27 00:58:07.85	182.24	17.35	-38.1	-39.0	23.6	0.00e+00	0	28	0	314572800	50	5754
2026-01-27 00:58:08.86	182.31	17.46	-38.0	-38.9	23.7	0.00e+00	0	28	0	315621376	50	5695
2026-01-27 00:58:09.87	182.38	17.57	-38.0	-38.9	23.8	0.00e+00	0	28	0	317718528	50	5688
2026-01-27 00:58:10.88	182.46	17.69	-38.0	-39.0	23.7	0.00e+00	0	28	0	319815680	50	5698
2026-01-27 00:58:11.89	182.53	17.80	-37.9	-38.8	23.8	0.00e+00	0	28	0	321912832	50	5611
2026-01-27 00:58:12.90	182.60	17.92	-37.8	-38.7	23.9	0.00e+00	0	28	0	324009984	50	5548
2026-01-27 00:58:13.91	182.67	18.04	-37.9	-38.8	23.8	0.00e+00	0	28	0	325058560	50	5607
2026-01-27 00:58:14.92	182.75	18.15	-37.9	-38.8	23.8	0.00e+00	0	28	0	327155712	50	5614
2026-01-27 00:58:15.93	182.82	18.27	-38.0	-38.9	23.8	0.00e+00	0	28	0	329252864	50	5672
2026-01-27 00:58:16.94	182.89	18.39	-38.0	-38.9	23.8	0.00e+00	0	28	0	331350016	50	5648
2026-01-27 00:58:17.95	182.97	18.51	-37.9	-38.8	23.8	0.00e+00	0	28	0	333447168	50	5607
2026-01-27 00:58:18.96	183.05	18.63	-37.9	-38.8	23.8	0.00e+00	0	28	0	334495744	50	5630
2026-01-27 00:58:19.96	183.12	18.74	-37.9	-38.8	23.9	0.00e+00	0	28	0	336592896	50	5592
2026-01-27 00:58:20.98	183.20	18.87	-38.0	-38.9	23.7	0.00e+00	0	28	0	338690048	50	5663
2026-01-27 00:58:21.99	183.28	18.99	-37.8	-38.7	23.9	0.00e+00	0	28	0	340787200	50	5556
2026-01-27 00:58:23.00	183.35	19.11	-38.0	-38.9	23.8	0.00e+00	0	28	0	342884352	50	5693
2026-01-27 00:58:24.01	183.43	19.23	-37.9	-38.8	23.8	0.00e+00	0	28	0	343932928	50	5604
2026-01-27 00:58:25.01	183.51	19.35	-37.9	-38.8	23.9	0.00e+00	0	28	0	346030080	50	5568
2026-01-27 00:58:26.02	183.59	19.47	-37.9	-38.8	23.9	0.00e+00	0	28	0	348127232	50	5594
2026-01-27 00:58:27.03	183.67	19.60	-37.8	-38.7	23.9	0.00e+00	0	28	0	350224384	48	6222
2026-01-27 00:58:28.04	183.75	19.72	-37.8	-38.7	23.9	0.00e+00	0	28	0	352321536	48	6204
2026-01-27 00:58:29.05	183.83	19.84	-37.7	-38.6	24.0	0.00e+00	0	28	0	353370112	48	6162
2026-01-27 00:58:30.06	183.92	19.97	-37.8	-38.7	23.9	0.00e+00	0	28	0	355467264	48	6222
2026-01-27 00:58:31.07	184.00	20.10	-37.5	-38.4	24.3	0.00e+00	0	28	0	357564416	48	5977
2026-01-27 00:58:32.08	184.08	20.22	-37.4	-38.3	24.3	0.00e+00	0	28	0	359661568	48	5897
2026-01-27 00:58:33.09	184.17	20.35	-37.5	-38.4	24.4	0.00e+00	0	28	0	361758720	48	5965
2026-01-27 00:58:34.10	184.25	20.48	-37.3	-38.2	24.4	0.00e+00	0	28	0	363855872	48	5836
2026-01-27 00:58:35.11	184.34	20.60	-37.2	-38.1	24.5	0.00e+00	0	28	0	364904448	48	5780
2026-01-27 00:58:36.12	184.42	20.73	-37.3	-38.1	24.5	0.00e+00	0	28	0	367001600	48	5814
2026-01-27 00:58:37.13	184.51	20.86	-37.1	-37.9	24.7	0.00e+00	0	28	0	369098752	48	5662
2026-01-27 00:58:38.14	184.60	20.99	-37.2	-38.0	24.5	0.00e+00	0	28	0	371195904	48	5752
2026-01-27 00:58:39.14	184.68	21.12	-37.0	-37.9	24.6	0.00e+00	0	28	0	373293056	48	5633
2026-01-27 00:58:40.15	184.77	21.25	-36.7	-37.5	25.0	0.00e+00	0	28	0	374341632	48	5407
2026-01-27 00:58:41.16	184.86	21.38	-36.6	-37.4	25.0	0.00e+00	0	28	0	376438784	46	5992
2026-01-27 00:58:42.17	184.95	21.51	-36.6	-37.4	25.1	0.00e+00	0	28	0	378535936	46	5986
2026-01-27 00:58:43.18	185.04	21.65	-36.5	-37.3	25.1	0.00e+00	0	28	0	380633088	46	5908
2026-01-27 00:58:44.19	185.14	21.78	-36.6	-37.4	25.1	0.00e+00	0	28	0	382730240	46	5966
2026-01-27 00:58:45.20	185.23	21.91	-36.4	-37.2	25.2	0.00e+00	0	28	0	383778816	46	5855
2026-01-27 00:58:46.21	185.32	22.05	-36.4	-37.2	25.2	0.00e+00	0	28	0	385875968	46	5868
2026-01-27 00:58:47.22	185.42	22.18	-36.5	-37.2	25.3	0.00e+00	0	28	0	387973120	46	5887
2026-01-27 00:58:48.23	185.51	22.32	-36.4	-37.1	25.3	0.00e+00	0	28	0	390070272	46	5816
2026-01-27 00:58:49.24	185.61	22.46	-36.4	-37.1	25.3	0.00e+00	0	28	0	392167424	46	5826
2026-01-27 00:58:50.25	185.70	22.59	-36.3	-37.1	25.4	0.00e+00	0	28	0	393216000	46	5795
2026-01-27 00:58:51.26	185.80	22.73	-36.4	-37.2	25.3	0.00e+00	0	28	0	395313152	46	5834
2026-01-27 00:58:52.27	185.90	22.87	-36.5	-37.3	25.2	0.00e+00	0	28	0	397410304	46	5897
2026-01-27 00:58:53.28	186.00	23.01	-36.4	-37.1	25.2	0.00e+00	0	28	0	399507456	46	5820
2026-01-27 00:58:54.29	186.10	23.15	-36.6	-37.3	25.2	0.00e+00	0	28	0	401604608	46	5959
2026-01-27 00:58:55.30	186.20	23.29	-36.4	-37.2	25.2	0.00e+00	0	28	0	402653184	46	5865
2026-01-27 00:58:56.31	186.30	23.43	-36.4	-37.2	25.3	0.00e+00	0	28	0	404750336	46	5873
2026-01-27 00:58:57.32	186.41	23.57	-36.5	-37.3	25.1	0.00e+00	0	28	0	406847488	46	5947
2026-01-27 00:58:58.33	186.51	23.72	-36.5	-37.3	25.1	0.00e+00	0	28	0	408944640	46	5899
2026-01-27 00:58:59.34	186.61	23.86	-36.6	-37.4	25.1	0.00e+00	0	28	0	411041792	46	6014
2026-01-27 00:59:00.35	186.72	24.00	-36.6	-37.4	25.0	0.00e+00	0	28	0	412090368	46	6015
2026-01-27 00:59:01.37	186.83	24.15	-36.5	-37.2	25.3	0.00e+00	0	28	0	414187520	46	5896
2026-01-27 00:59:02.38	186.93	24.30	-36.5	-37.4	25.1	0.00e+00	0	28	0	416284672	46	5973
2026-01-27 00:59:03.38	187.04	24.44	-36.6	-37.4	25.2	0.00e+00	0	28	0	418381824	46	5983
2026-01-27 00:59:04.40	187.15	24.59	-36.4	-37.1	25.3	0.00e+00	0	27	0	420478976	46	5827
2026-01-27 00:59:05.41	187.26	24.74	-36.4	-37.2	25.3	0.00e+00	0	28	0	421527552	46	5843
2026-01-27 00:59:06.41	187.37	24.88	-36.5	-37.3	25.2	0.00e+00	0	28	0	423624704	46	5920
2026-01-27 00:59:07.42	187.48	25.03	-36.4	-37.2	25.2	0.00e+00	0	28	0	425721856	46	5874
2026-01-27 00:59:08.43	187.60	25.18	-36.4	-37.2	25.3	0.00e+00	0	28	0	427819008	46	5890
2026-01-27 00:59:09.44	187.71	25.33	-36.5	-37.3	25.3	0.00e+00	0	28	0	429916160	46	5908
2026-01-27 00:59:10.44	187.82	25.48	-36.4	-37.2	25.3	0.00e+00	0	28	0	432013312	46	5878
2026-01-27 00:59:11.46	187.94	25.64	-36.5	-37.3	25.2	0.00e+00	0	28	0	433061888	46	5939
2026-01-27 00:59:12.47	188.06	25.79	-36.6	-37.4	25.1	0.00e+00	0	28	0	435159040	46	6030
2026-01-27 00:59:13.47	188.18	25.94	-36.7	-37.5	25.1	0.00e+00	0	28	0	437256192	46	6059
2026-01-27 00:59:14.48	188.30	26.10	-36.7	-37.6	25.0	0.00e+00	0	28	0	439353344	46	6113
2026-01-27 00:59:15.50	188.42	26.25	-36.8	-37.6	25.0	0.00e+00	0	28	0	441450496	46	6171
2026-01-27 00:59:16.50	188.54	26.41	-36.7	-37.5	25.0	0.00e+00	0	28	0	442499072	46	6091
2026-01-27 00:59:17.51	188.66	26.56	-36.7	-37.5	25.1	0.00e+00	0	28	0	444596224	46	6094
2026-01-27 00:59:18.52	188.79	26.72	-36.8	-37.6	24.9	0.00e+00	0	28	0	446693376	46	6167
2026-01-27 00:59:19.53	188.91	26.88	-36.8	-37.6	25.0	0.00e+00	0	28	0	448790528	46	6156
2026-01-27 00:59:20.54	189.04	27.04	-36.8	-37.6	25.0	0.00e+00	0	28	0	449839104	46	6145
2026-01-27 00:59:21.55	189.17	27.20	-36.9	-37.7	24.9	0.00e+00	0	28	0	451936256	46	6223
2026-01-27 00:59:22.56	189.30	27.36	-36.9	-37.7	24.8	0.00e+00	0	28	0	454033408	46	6194
2026-01-27 00:59:23.57	189.43	27.52	-37.0	-37.8	24.9	0.00e+00	0	27	0	456130560	46	6249
2026-01-27 00:59:24.58	189.56	27.68	-37.0	-37.8	24.8	0.00e+00	0	28	0	458227712	46	6304
2026-01-27 00:59:25.59	189.69	27.84	-37.1	-37.9	24.6	0.00e+00	0	28	0	460324864	46	6371
2026-01-27 00:59:26.60	189.83	28.01	-37.4	-38.2	24.4	0.00e+00	0	28	0	461373440	46	6603
2026-01-27 00:59:27.61	189.96	28.17	-37.3	-38.2	24.5	0.00e+00	0	28	0	463470592	46	6544
2026-01-27 00:59:28.62	190.10	28.34	-37.5	-38.4	24.3	0.00e+00	0	28	0	465567744	46	6708
2026-01-27 00:59:29.62	190.23	28.50	-37.7	-38.6	24.2	0.00e+00	0	28	0	467664896	46	6893
2026-01-27 00:59:30.63	190.37	28.67	-38.0	-38.9	23.8	0.00e+00	0	28	0	469762048	48	6359
2026-01-27 00:59:31.65	190.52	28.84	-38.2	-39.1	23.7	0.00e+00	0	28	0	470810624	48	6535
2026-01-27 00:59:32.65	190.66	29.01	-38.5	-39.4	23.4	0.00e+00	0	28	0	472907776	48	6732
2026-01-27 00:59:33.66	190.80	29.18	-38.6	-39.5	23.0	0.00e+00	0	28	0	475004928	48	6810
2026-01-27 00:59:34.67	190.95	29.35	-38.6	-39.5	23.4	0.00e+00	0	28	0	477102080	48	6829
2026-01-27 00:59:35.68	191.10	29.52	-38.8	-39.8	23.1	0.00e+00	0	28	0	479199232	50	6262
2026-01-27 00:59:36.69	191.24	29.69	-39.0	-40.0	22.9	0.00e+00	0	28	0	480247808	50	6444
2026-01-27 00:59:37.70	191.39	29.86	-39.1	-40.1	22.8	0.00e+00	0	28	0	482344960	50	6511
2026-01-27 00:59:38.71	191.55	30.04	-39.4	-40.4	22.7	0.00e+00	0	28	0	484442112	50	6722
2026-01-27 00:59:39.72	191.70	30.21	-39.6	-40.6	22.4	0.00e+00	0	28	0	486539264	50	6878
2026-01-27 00:59:40.73	191.85	30.39	-39.7	-40.7	22.4	0.00e+00	0	28	0	488636416	50	6969
2026-01-27 00:59:41.74	192.01	30.56	-40.0	-41.0	22.0	0.00e+00	0	28	0	489684992	52	6458
2026-01-27 00:59:42.75	192.17	30.74	-40.2	-41.3	21.9	0.00e+00	0	28	0	491782144	52	6626
2026-01-27 00:59:43.76	192.33	30.92	-40.4	-41.6	21.5	0.00e+00	0	28	0	493879296	52	6874
2026-01-27 00:59:44.77	192.49	31.09	-40.5	-41.7	21.4	0.00e+00	0	28	0	495976448	52	6963
2026-01-27 00:59:45.78	192.65	31.27	-40.6	-41.8	21.3	0.00e+00	0	28	0	498073600	52	7072
2026-01-27 00:59:46.79	192.82	31.46	-40.5	-41.7	21.4	0.00e+00	0	28	0	500170752	52	6977
2026-01-27 00:59:47.80	192.99	31.64	-40.6	-41.8	21.3	0.00e+00	0	28	0	501219328	52	7069
2026-01-27 00:59:48.81	193.15	31.82	-40.6	-41.8	21.3	0.00e+00	0	28	0	503316480	54	6280
2026-01-27 00:59:49.82	193.33	32.00	-40.7	-41.8	21.3	0.00e+00	0	28	0	505413632	54	6307
2026-01-27 00:59:50.83	193.50	32.19	-40.7	-41.9	21.2	0.00e+00	0	28	0	507510784	54	6319
2026-01-27 00:59:51.84	193.67	32.37	-40.7	-41.9	21.3	0.00e+00	0	28	0	508559360	54	6324
2026-01-27 00:59:52.85	193.85	32.56	-40.4	-41.5	21.6	0.00e+00	0	28	0	510656512	54	6099
2026-01-27 00:59:53.86	194.03	32.74	-40.4	-41.5	21.7	0.00e+00	0	28	0	512753664	54	6081
2026-01-27 00:59:54.87	194.21	32.93	-40.3	-41.5	21.6	0.00e+00	0	28	0	514850816	54	6034
2026-01-27 00:59:55.87	194.39	33.12	-40.6	-41.7	21.6	0.00e+00	0	28	0	516947968	54	6222
2026-01-27 00:59:56.88	194.57	33.31	-39.9	-41.0	22.2	0.00e+00	0	28	0	517996544	54	5716
2026-01-27 00:59:57.89	194.76	33.50	-40.0	-41.0	22.1	0.00e+00	0	28	0	520093696	54	5757
2026-01-27 00:59:58.90	194.95	33.69	-39.8	-40.9	22.2	0.00e+00	0	28	0	522190848	54	5648
2026-01-27 00:59:59.91	195.14	33.88	-39.8	-40.9	22.2	0.00e+00	0	28	0	524288000	54	5654
2026-01-27 01:00:00.92	195.33	34.07	-39.8	-40.8	22.2	0.00e+00	0	28	0	526385152	52	6276
2026-01-27 01:00:01.93	195.53	34.26	-39.7	-40.7	22.3	0.00e+00	0	28	0	528482304	52	6224
2026-01-27 01:00:02.94	195.73	34.46	-39.8	-40.8	22.3	0.00e+00	0	28	0	529530880	52	6269
2026-01-27 01:00:03.95	195.93	34.65	-40.0	-41.0	22.1	0.00e+00	0	28	0	531628032	52	6455
2026-01-27 01:00:04.96	196.13	34.85	-40.1	-41.2	22.0	0.00e+00	0	28	0	533725184	52	6571
2026-01-27 01:00:05.97	196.33	35.04	-39.7	-40.8	21.6	0.00e+00	0	28	0	535822336	52	6268
2026-01-27 01:00:06.98	196.54	35.24	-39.8	-40.9	22.3	0.00e+00	0	28	0	537919488	52	6325
2026-01-27 01:00:07.99	196.75	35.44	-39.7	-40.7	22.4	0.00e+00	0	28	0	538968064	52	6227
2026-01-27 01:00:09.00	196.96	35.64	-39.5	-40.5	22.6	0.00e+00	0	28	0	541065216	52	6089
2026-01-27 01:00:10.01	197.18	35.84	-38.9	-39.8	23.2	0.00e+00	0	28	0	543162368	52	5627
2026-01-27 01:00:11.02	197.39	36.04	-38.8	-39.7	23.2	0.00e+00	0	28	0	545259520	50	6204
2026-01-27 01:00:12.03	197.61	36.24	-38.8	-39.7	23.2	0.00e+00	0	28	0	547356672	50	6241
2026-01-27 01:00:13.04	197.84	36.44	-38.9	-39.8	23.1	0.00e+00	0	28	0	548405248	50	6288
2026-01-27 01:00:14.05	198.06	36.65	-39.0	-40.0	22.9	0.00e+00	0	28	0	550502400	50	6396
2026-01-27 01:00:15.06	198.29	36.85	-38.8	-39.7	23.2	0.00e+00	0	28	0	552599552	50	6239
2026-01-27 01:00:16.07	198.52	37.06	-38.7	-39.7	23.3	0.00e+00	0	28	0	554696704	50	6187
2026-01-27 01:00:17.08	198.76	37.26	-38.7	-39.6	23.4	0.00e+00	0	28	0	556793856	50	6119
2026-01-27 01:00:18.09	198.99	37.47	-38.7	-39.6	23.3	0.00e+00	0	28	0	557842432	50	6142
2026-01-27 01:00:19.10	199.23	37.68	-38.8	-39.7	23.3	0.00e+00	0	28	0	559939584	50	6208
2026-01-27 01:00:20.11	199.47	37.88	-38.8	-39.8	23.2	0.00e+00	0	28	0	562036736	50	6252
2026-01-27 01:00:21.12	199.72	38.09	-39.1	-40.0	23.0	0.00e+00	0	28	0	564133888	50	6438
2026-01-27 01:00:22.13	199.97	38.30	-39.1	-40.0	23.0	0.00e+00	0	28	0	566231040	50	6446
2026-01-27 01:00:23.14	200.22	38.51	-38.9	-39.9	23.1	0.00e+00	0	28	0	567279616	50	6342
2026-01-27 01:00:24.14	200.47	38.72	-39.0	-39.9	23.0	0.00e+00	0	28	0	569376768	50	6388
2026-01-27 01:00:25.15	200.73	38.93	-38.6	-39.6	23.5	0.00e+00	0	28	0	571473920	50	6104
2026-01-27 01:00:26.16	200.99	39.14	-38.3	-39.2	23.7	0.00e+00	0	28	0	573571072	50	5831
2026-01-27 01:00:27.17	201.26	39.35	-38.0	-38.8	24.0	0.00e+00	0	28	0	575668224	50	5612
2026-01-27 01:00:28.18	201.53	39.57	-37.9	-38.8	24.1	0.00e+00	0	28	0	576716800	50	5587
2026-01-27 01:00:29.19	201.80	39.78	-37.9	-38.7	24.2	0.00e+00	0	28	0	578813952	50	5545
2026-01-27 01:00:30.20	202.07	40.00	-37.9	-38.8	24.0	0.00e+00	0	28	0	580911104	50	5611
2026-01-27 01:00:31.21	202.35	40.21	-37.9	-38.8	24.0	0.00e+00	0	28	0	583008256	50	5587
2026-01-27 01:00:32.22	202.64	40.43	-37.8	-38.7	24.1	0.00e+00	0	28	0	585105408	50	5525
2026-01-27 01:00:33.23	202.92	40.64	-37.6	-38.4	24.3	0.00e+00	0	28	0	586153984	48	6008
2026-01-27 01:00:34.24	203.21	40.86	-37.3	-38.2	24.6	0.00e+00	0	28	0	588251136	48	5831
2026-01-27 01:00:35.25	203.51	41.08	-37.3	-38.1	24.6	0.00e+00	0	28	0	590348288	48	5826
2026-01-27 01:00:36.26	203.81	41.29	-37.5	-38.4	24.5	0.00e+00	0	28	0	592445440	48	5974
2026-01-27 01:00:37.27	204.11	41.51	-37.7	-38.6	24.2	0.00e+00	0	28	0	594542592	48	6135
2026-01-27 01:00:38.28	204.41	41.73	-38.1	-39.0	23.9	0.00e+00	0	28	0	596639744	48	6423
2026-01-27 01:00:39.29	204.72	41.95	-38.2	-39.1	23.7	0.00e+00	0	28	0	597688320	48	6532
2026-01-27 01:00:40.30	205.04	42.17	-38.1	-38.9	23.9	0.00e+00	0	28	0	599785472	48	6387
2026-01-27 01:00:41.31	205.36	42.39	-38.0	-38.9	23.9	0.00e+00	0	28	0	601882624	48	6356
2026-01-27 01:00:42.32	205.68	42.61	-37.9	-38.8	24.0	0.00e+00	0	28	0	603979776	48	6281
2026-01-27 01:00:43.32	206.00	42.82	-38.3	-39.2	23.8	0.00e+00	0	28	0	606076928	48	6540
2026-01-27 01:00:44.33	206.34	43.04	-38.4	-39.2	23.6	0.00e+00	0	28	0	607125504	48	6605
2026-01-27 01:00:45.34	206.67	43.27	-38.6	-39.5	23.4	0.00e+00	0	28	0	609222656	48	6805
2026-01-27 01:00:46.35	207.01	43.49	-39.1	-40.1	23.0	0.00e+00	0	28	0	611319808	50	6472
2026-01-27 01:00:47.36	207.36	43.71	-38.8	-39.8	23.2	0.00e+00	0	28	0	613416960	50	6256
2026-01-27 01:00:48.37	207.71	43.93	-38.8	-39.8	23.3	0.00e+00	0	28	0	615514112	50	6257
2026-01-27 01:00:49.38	208.06	44.15	-38.9	-39.9	23.1	0.00e+00	0	28	0	616562688	50	6327
2026-01-27 01:00:50.39	208.42	44.37	-39.3	-40.3	22.7	0.00e+00	0	28	0	618659840	50	6664
2026-01-27 01:00:51.40	208.79	44.59	-39.5	-40.5	22.6	0.00e+00	0	28	0	620756992	50	6827
2026-01-27 01:00:52.41	209.16	44.81	-39.4	-40.4	22.6	0.00e+00	0	28	0	622854144	50	6741
2026-01-27 01:00:53.42	209.53	45.03	-39.2	-40.2	22.8	0.00e+00	0	28	0	624951296	50	6580
2026-01-27 01:00:54.43	209.91	45.25	-39.2	-40.2	22.8	0.00e+00	0	28	0	625999872	50	6555
2026-01-27 01:00:55.44	210.30	45.48	-39.2	-40.1	22.8	0.00e+00	0	28	0	628097024	50	6530
2026-01-27 01:00:56.45	210.69	45.70	-39.6	-40.6	22.4	0.00e+00	0	28	0	630194176	50	6887
2026-01-27 01:00:57.46	211.09	45.92	-40.1	-41.1	21.9	0.00e+00	0	28	0	632291328	52	6532
2026-01-27 01:00:58.47	211.49	46.14	-40.7	-41.9	21.3	0.00e+00	0	28	0	634388480	52	7091
2026-01-27 01:00:59.48	211.90	46.36	-41.0	-42.3	20.9	0.00e+00	0	28	0	635437056	54	6631
2026-01-27 01:01:00.49	212.31	46.57	-41.0	-42.3	20.9	0.00e+00	0	28	0	637534208	54	6636
2026-01-27 01:01:01.50	212.73	46.79	-40.9	-42.1	21.0	0.00e+00	0	28	0	639631360	54	6538
2026-01-27 01:01:02.51	213.15	47.01	-41.0	-42.2	20.9	0.00e+00	0	28	0	641728512	54	6583
2026-01-27 01:01:03.52	213.58	47.23	-41.1	-42.3	20.8	0.00e+00	0	28	0	643825664	54	6663
2026-01-27 01:01:04.53	214.02	47.45	-41.4	-42.8	20.4	0.00e+00	0	28	0	644874240	54	7011
2026-01-27 01:01:05.54	214.46	47.66	-41.9	-43.3	20.0	0.00e+00	0	28	0	646971392	56	6673
2026-01-27 01:01:06.55	214.91	47.88	-42.2	-43.7	19.6	0.00e+00	0	28	0	649068544	56	6945
2026-01-27 01:01:07.56	215.36	48.09	-42.3	-43.8	19.5	0.00e+00	0	28	0	651165696	56	7042
2026-01-27 01:01:08.57	215.82	48.31	-42.2	-43.6	19.8	0.00e+00	0	28	0	653262848	56	6917
2026-01-27 01:01:09.58	216.29	48.52	-42.0	-43.4	19.9	0.00e+00	0	28	0	654311424	56	6738
2026-01-27 01:01:10.59	216.77	48.73	-41.8	-43.1	20.3	0.00e+00	0	28	0	656408576	56	6538
2026-01-27 01:01:11.60	217.25	48.94	-41.1	-42.4	20.8	0.00e+00	0	28	0	658505728	56	5992
2026-01-27 01:01:12.61	217.73	49.15	-41.3	-42.5	20.8	0.00e+00	0	28	0	660602880	56	6096
2026-01-27 01:01:13.62	218.23	49.36	-41.3	-42.5	20.7	0.00e+00	0	28	0	662700032	56	6088
2026-01-27 01:01:14.63	218.73	49.57	-41.3	-42.6	20.6	0.00e+00	0	28	0	664797184	56	6156
2026-01-27 01:01:15.64	219.23	49.78	-40.9	-42.1	21.2	0.00e+00	0	28	0	665845760	56	5768
2026-01-27 01:01:16.65	219.75	49.98	-40.5	-41.7	21.5	0.00e+00	0	28	0	667942912	54	6206
2026-01-27 01:01:17.66	220.27	50.18	-40.0	-41.1	22.1	0.00e+00	0	28	0	670040064	54	5776
2026-01-27 01:01:18.67	220.79	50.38	-39.7	-40.7	22.4	0.00e+00	0	28	0	672137216	52	6221
2026-01-27 01:01:19.68	221.33	50.58	-39.2	-40.2	22.7	0.00e+00	0	28	0	674234368	52	5859
2026-01-27 01:01:20.68	221.86	50.78	-39.2	-40.1	22.9	0.00e+00	0	28	0	675282944	52	5819
2026-01-27 01:01:21.69	222.41	50.98	-39.3	-40.3	22.8	0.00e+00	0	28	0	677380096	52	5947
2026-01-27 01:01:22.70	222.97	51.17	-39.0	-40.0	23.1	0.00e+00	0	28	0	679477248	52	5727
2026-01-27 01:01:23.71	223.53	51.36	-38.5	-39.4	23.6	0.00e+00	0	28	0	681574400	50	6001
2026-01-27 01:01:24.72	224.10	51.55	-38.3	-39.2	23.7	0.00e+00	0	28	0	683671552	50	5847
2026-01-27 01:01:25.73	224.68	51.74	-37.9	-38.8	24.0	0.00e+00	0	28	0	684720128	50	5576
2026-01-27 01:01:26.74	225.26	51.93	-38.0	-38.9	24.0	0.00e+00	0	28	0	686817280	50	5644
2026-01-27 01:01:27.75	225.85	52.11	-37.5	-38.4	24.3	0.00e+00	0	28	0	688914432	48	6003
2026-01-27 01:01:28.76	226.45	52.29	-37.3	-38.1	24.7	0.00e+00	0	28	0	691011584	48	5815
2026-01-27 01:01:29.76	227.05	52.47	-37.2	-38.0	24.7	0.00e+00	0	28	0	693108736	48	5738
2026-01-27 01:01:30.78	227.67	52.65	-37.1	-37.9	24.8	0.00e+00	0	28	0	694157312	48	5689
2026-01-27 01:01:31.79	228.29	52.82	-36.8	-37.6	25.1	0.00e+00	0	28	0	696254464	48	5491
2026-01-27 01:01:32.79	228.91	52.99	-36.9	-37.7	25.0	0.00e+00	0	28	0	698351616	48	5559
2026-01-27 01:01:33.81	229.55	53.16	-37.1	-37.9	24.7	0.00e+00	0	28	0	700448768	48	5678
2026-01-27 01:01:34.82	230.19	53.32	-37.1	-38.0	24.7	0.00e+00	0	28	0	702545920	48	5698
2026-01-27 01:01:35.83	230.84	53.48	-37.4	-38.2	24.5	0.00e+00	0	28	0	703594496	48	5863
2026-01-27 01:01:36.84	231.50	53.64	-37.5	-38.4	24.3	0.00e+00	0	28	0	705691648	48	5997
2026-01-27 01:01:37.85	232.16	53.79	-37.6	-38.5	24.4	0.00e+00	0	28	0	707788800	48	6036
2026-01-27 01:01:38.86	232.83	53.94	-37.7	-38.6	24.3	0.00e+00	0	28	0	709885952	48	6111
2026-01-27 01:01:39.87	233.51	54.09	-37.1	-37.9	24.7	0.00e+00	0	28	0	711983104	48	5642
2026-01-27 01:01:40.88	234.19	54.24	-37.2	-38.0	24.7	0.00e+00	0	28	0	713031680	48	5738
2026-01-27 01:01:41.89	234.88	54.38	-37.4	-38.3	24.5	0.00e+00	0	28	0	715128832	48	5903
2026-01-27 01:01:42.90	235.58	54.51	-37.7	-38.5	24.3	0.00e+00	0	28	0	717225984	48	6072
2026-01-27 01:01:43.91	236.28	54.65	-37.6	-38.4	24.4	0.00e+00	0	28	0	719323136	48	6014
2026-01-27 01:01:44.92	236.99	54.78	-37.4	-38.3	24.5	0.00e+00	0	28	0	721420288	48	5903
2026-01-27 01:01:45.93	237.71	54.90	-37.1	-38.0	24.7	0.00e+00	0	28	0	722468864	48	5703
2026-01-27 01:01:46.94	238.43	55.02	-37.4	-38.3	24.4	0.00e+00	0	28	0	724566016	48	5899
2026-01-27 01:01:47.95	239.16	55.14	-37.3	-38.1	24.6	0.00e+00	0	28	0	726663168	48	5771
2026-01-27 01:01:48.96	239.90	55.25	-37.7	-38.5	24.2	0.00e+00	0	28	0	728760320	48	6069
2026-01-27 01:01:49.97	240.64	55.36	-37.9	-38.8	24.0	0.00e+00	0	28	0	730857472	48	6264
2026-01-27 01:01:50.98	241.38	55.46	-38.4	-39.3	23.6	0.00e+00	0	28	0	732954624	48	6681
2026-01-27 01:01:51.99	242.13	55.56	-38.5	-39.5	23.5	0.00e+00	0	28	0	734003200	48	6774
2026-01-27 01:01:53.00	242.89	55.65	-38.6	-39.5	23.4	0.00e+00	0	28	0	736100352	48	6802
2026-01-27 01:01:54.00	243.64	55.74	-38.6	-39.5	23.5	0.00e+00	0	28	0	738197504	48	6818
2026-01-27 01:01:55.02	244.41	55.83	-38.4	-39.3	23.6	0.00e+00	0	28	0	740294656	48	6690
2026-01-27 01:01:56.02	245.18	55.91	-38.2	-39.1	23.7	0.00e+00	0	28	0	742391808	48	6485
2026-01-27 01:01:57.03	245.95	55.98	-38.8	-39.8	23.0	0.00e+00	0	28	0	743440384	48	7027
2026-01-27 01:01:58.04	246.73	56.05	-39.5	-40.5	22.4	0.00e+00	0	28	0	745537536	50	6840
2026-01-27 01:01:59.05	247.51	56.12	-40.3	-41.4	21.6	0.00e+00	0	28	0	747634688	52	6768
2026-01-27 01:02:00.06	248.30	56.18	-40.5	-41.7	21.4	0.00e+00	0	28	0	749731840	52	6929
2026-01-27 01:02:01.07	249.09	56.23	-40.6	-41.8	21.4	0.00e+00	0	28	0	751828992	52	7043
2026-01-27 01:02:02.08	249.88	56.28	-40.0	-41.1	22.0	0.00e+00	0	28	0	752877568	52	6500
2026-01-27 01:02:03.09	250.67	56.33	-39.8	-40.9	22.2	0.00e+00	0	28	0	754974720	52	6368
2026-01-27 01:02:04.10	251.47	56.36	-40.5	-41.7	21.3	0.00e+00	0	28	0	757071872	52	6986
2026-01-27 01:02:05.11	252.27	56.40	-41.6	-43.0	20.2	0.00e+00	0	28	0	759169024	54	7186
2026-01-27 01:02:06.12	253.07	56.43	-41.2	-42.5	20.7	0.00e+00	0	28	0	761266176	54	6834
2026-01-27 01:02:07.13	253.87	56.45	-40.8	-42.0	21.0	0.00e+00	0	28	0	762314752	54	6445
2026-01-27 01:02:08.14	254.67	56.47	-40.5	-41.7	21.5	0.00e+00	0	28	0	764411904	54	6177
2026-01-27 01:02:09.15	255.48	56.48	-40.3	-41.4	21.8	0.00e+00	0	28	0	766509056	54	5995
2026-01-27 01:02:10.16	256.28	56.49	-39.5	-40.5	22.6	0.00e+00	0	28	0	768606208	52	6060
2026-01-27 01:02:11.17	257.09	56.49	-39.5	-40.6	22.5	0.00e+00	0	28	0	770703360	52	6114
2026-01-27 01:02:12.18	257.89	56.49	-39.4	-40.4	22.6	0.00e+00	0	28	0	771751936	52	5999
2026-01-27 01:02:13.19	258.70	56.48	-39.0	-39.9	23.1	0.00e+00	0	28	0	773849088	52	5694
2026-01-27 01:02:14.20	259.50	56.46	-38.7	-39.6	23.3	0.00e+00	0	28	0	775946240	50	6168
2026-01-27 01:02:15.20	260.29	56.44	-39.3	-40.3	22.7	0.00e+00	0	28	0	778043392	50	6620
2026-01-27 01:02:16.22	261.10	56.42	-38.8	-39.8	23.3	0.00e+00	0	28	0	780140544	50	6275
2026-01-27 01:02:17.22	261.90	56.39	-38.2	-39.1	23.8	0.00e+00	0	28	0	781189120	50	5778
2026-01-27 01:02:18.23	262.69	56.35	-37.9	-38.8	24.1	0.00e+00	0	28	0	783286272	50	5597
2026-01-27 01:02:19.24	263.49	56.31	-38.6	-39.6	23.3	0.00e+00	0	28	0	785383424	50	6125
2026-01-27 01:02:20.25	264.28	56.27	-38.9	-39.9	23.2	0.00e+00	0	28	0	787480576	50	6354
2026-01-27 01:02:21.26	265.07	56.22	-38.5	-39.4	23.5	0.00e+00	0	28	0	789577728	50	6023
2026-01-27 01:02:22.27	265.86	56.16	-38.5	-39.4	23.6	0.00e+00	0	28	0	790626304	50	5999
2026-01-27 01:02:23.28	266.64	56.10	-38.8	-39.8	23.2	0.00e+00	0	28	0	792723456	50	6270
2026-01-27 01:02:24.29	267.42	56.03	-39.1	-40.1	22.8	0.00e+00	0	28	0	794820608	50	6472
2026-01-27 01:02:25.30	268.20	55.96	-39.5	-40.5	22.5	0.00e+00	0	28	0	796917760	50	6792
2026-01-27 01:02:26.31	268.97	55.88	-39.3	-40.3	22.8	0.00e+00	0	28	0	799014912	50	6620
2026-01-27 01:02:27.32	269.74	55.80	-39.0	-40.0	23.0	0.00e+00	0	28	0	801112064	50	6423
2026-01-27 01:02:28.33	270.51	55.72	-39.2	-40.2	22.9	0.00e+00	0	28	0	802160640	50	6548
2026-01-27 01:02:29.34	271.26	55.63	-40.2	-41.4	21.8	0.00e+00	0	28	0	804257792	52	6696
2026-01-27 01:02:30.35	272.02	55.53	-39.8	-40.9	22.3	0.00e+00	0	28	0	806354944	52	6330
2026-01-27 01:02:31.36	272.77	55.43	-38.7	-39.7	23.3	0.00e+00	0	28	0	808452096	52	5507
2026-01-27 01:02:32.37	273.51	55.33	-38.7	-39.6	23.5	0.00e+00	0	28	0	810549248	50	6136
2026-01-27 01:02:33.38	274.25	55.22	-38.8	-39.8	23.1	0.00e+00	0	28	0	811597824	50	6263
2026-01-27 01:02:34.39	274.98	55.10	-39.1	-40.1	22.9	0.00e+00	0	28	0	813694976	50	6496
2026-01-27 01:02:35.40	275.71	54.99	-38.9	-39.8	23.2	0.00e+00	0	28	0	815792128	50	6310
2026-01-27 01:02:36.41	276.42	54.86	-38.5	-39.4	23.6	0.00e+00	0	28	0	817889280	50	6016
2026-01-27 01:02:37.42	277.14	54.74	-38.1	-39.0	23.9	0.00e+00	0	28	0	819986432	50	5747
2026-01-27 01:02:38.43	277.85	54.61	-38.2	-39.1	23.8	0.00e+00	0	28	0	821035008	50	5763
2026-01-27 01:02:39.44	278.55	54.47	-38.4	-39.3	23.7	0.00e+00	0	28	0	823132160	50	5924
2026-01-27 01:02:40.45	279.24	54.34	-38.0	-38.9	24.0	0.00e+00	0	28	0	825229312	50	5677
2026-01-27 01:02:41.46	279.93	54.20	-37.7	-38.6	24.1	0.00e+00	0	28	0	827326464	50	5468
2026-01-27 01:02:42.47	280.61	54.05	-37.6	-38.5	24.5	0.00e+00	0	28	0	829423616	48	6042
2026-01-27 01:02:43.48	281.28	53.90	-36.3	-37.0	25.5	0.00e+00	0	28	0	830472192	46	5753
2026-01-27 01:02:44.49	281.95	53.75	-35.9	-36.6	26.0	0.00e+00	0	28	0	832569344	46	5485
2026-01-27 01:02:45.50	282.61	53.60	-35.4	-36.2	26.2	0.00e+00	0	28	0	834666496	44	5846
2026-01-27 01:02:46.51	283.26	53.44	-35.3	-36.1	26.3	0.00e+00	0	28	0	836763648	44	5767
2026-01-27 01:02:47.52	283.91	53.28	-34.5	-35.2	26.9	0.00e+00	0	28	0	838860800	42	5868
2026-01-27 01:02:48.53	284.55	53.11	-34.5	-35.1	27.0	0.00e+00	0	28	0	839909376	42	5815
2026-01-27 01:02:49.54	285.18	52.94	-35.0	-35.7	26.4	0.00e+00	0	28	0	842006528	42	6238
2026-01-27 01:02:50.55	285.80	52.77	-35.4	-36.1	26.2	0.00e+00	0	28	0	844103680	42	6529
2026-01-27 01:02:51.56	286.42	52.60	-35.3	-36.0	26.4	0.00e+00	0	28	0	846200832	42	6421
2026-01-27 01:02:52.57	287.03	52.42	-35.1	-35.8	26.5	0.00e+00	0	28	0	848297984	42	6278
2026-01-27 01:02:53.58	287.63	52.24	-35.6	-36.3	26.2	0.00e+00	0	28	0	849346560	42	6673
2026-01-27 01:02:54.59	288.23	52.06	-36.7	-37.4	25.2	0.00e+00	0	28	0	851443712	44	6760
2026-01-27 01:02:55.60	288.81	51.88	-37.8	-38.7	23.9	0.00e+00	0	28	0	853540864	46	6932
2026-01-27 01:02:56.61	289.40	51.69	-37.7	-38.6	24.2	0.00e+00	0	28	0	855638016	48	6104
2026-01-27 01:02:57.62	289.97	51.51	-37.0	-37.8	24.9	0.00e+00	0	28	0	857735168	48	5614
2026-01-27 01:02:58.63	290.54	51.32	-36.9	-37.7	25.0	0.00e+00	0	28	0	858783744	48	5523
2026-01-27 01:02:59.64	291.09	51.12	-38.2	-39.1	23.7	0.00e+00	0	28	0	860880896	48	6519
2026-01-27 01:03:00.65	291.65	50.93	-40.8	-42.0	20.9	0.00e+00	0	28	0	862978048	52	7190
2026-01-27 01:03:01.66	292.19	50.73	-42.1	-43.5	20.0	0.00e+00	0	28	0	865075200	56	6820
2026-01-27 01:03:02.67	292.73	50.54	-41.4	-42.6	20.7	0.00e+00	0	28	0	867172352	56	6160
2026-01-27 01:03:03.68	293.26	50.34	-40.7	-41.8	21.5	0.00e+00	0	28	0	869269504	56	5623
2026-01-27 01:03:04.69	293.79	50.13	-40.0	-41.1	22.1	0.00e+00	0	28	0	870318080	54	5766
2026-01-27 01:03:05.70	294.30	49.93	-41.9	-43.3	19.9	0.00e+00	0	28	0	872415232	54	7488
2026-01-27 01:03:06.71	294.81	49.73	-44.2	-46.4	17.0	0.00e+00	0	28	0	874512384	60	7512
2026-01-27 01:03:07.72	295.32	49.52	-44.3	-46.5	17.0	0.00e+00	0	28	0	876609536	60	7638
2026-01-27 01:03:08.73	295.81	49.31	-42.7	-44.3	19.2	0.00e+00	0	28	0	878706688	60	5912
2026-01-27 01:03:09.74	296.30	49.11	-42.2	-43.6	19.7	0.00e+00	0	28	0	879755264	58	6173
2026-01-27 01:03:10.75	296.79	48.90	-42.7	-44.2	19.0	0.00e+00	0	28	0	881852416	58	6599
2026-01-27 01:03:11.76	297.26	48.69	-44.5	-46.8	16.6	0.00e+00	0	28	0	883949568	60	7866
2026-01-27 01:03:12.77	297.74	48.48	-46.2	-49.6	13.7	0.00e+00	0	28	0	886046720	60	10913
2026-01-27 01:03:13.78	298.20	48.26	-44.2	-46.4	17.1	0.00e+00	0	28	0	888143872	60	7526
2026-01-27 01:03:14.79	298.66	48.05	-41.7	-43.1	20.2	0.00e+00	0	28	0	889192448	58	5776
2026-01-27 01:03:15.80	299.11	47.84	-40.7	-41.9	21.4	0.00e+00	0	28	0	891289600	56	5639
2026-01-27 01:03:16.81	299.56	47.62	-40.4	-41.4	21.8	0.00e+00	0	28	0	893386752	54	6028
2026-01-27 01:03:17.81	299.99	47.41	-41.6	-42.9	20.3	0.00e+00	0	28	0	895483904	54	7168
2026-01-27 01:03:18.82	300.42	47.19	-43.4	-45.2	17.9	0.00e+00	0	28	0	897581056	58	7387
2026-01-27 01:03:19.83	300.85	46.97	-43.9	-45.9	18.0	0.00e+00	0	28	0	898629632	60	7122
2026-01-27 01:03:20.84	301.27	46.76	-40.5	-41.7	21.5	0.00e+00	0	28	0	900726784	54	6240
2026-01-27 01:03:21.85	301.69	46.54	-39.1	-40.1	23.1	0.00e+00	0	28	0	902823936	52	5771
2026-01-27 01:03:22.86	302.10	46.32	-38.8	-39.7	23.4	0.00e+00	0	28	0	904921088	52	5506
2026-01-27 01:03:23.87	302.51	46.10	-39.5	-40.4	22.7	0.00e+00	0	28	0	907018240	52	6013
2026-01-27 01:03:24.88	302.90	45.88	-40.6	-41.7	20.8	0.00e+00	0	28	0	908066816	52	7002
2026-01-27 01:03:25.89	303.30	45.66	-42.3	-43.8	19.6	0.00e+00	0	28	0	910163968	56	7034
2026-01-27 01:03:26.89	303.68	45.44	-41.6	-42.9	20.4	0.00e+00	0	28	0	912261120	56	6376
2026-01-27 01:03:27.90	304.07	45.22	-40.0	-41.0	22.1	0.00e+00	0	28	0	914358272	54	5743
2026-01-27 01:03:28.91	304.44	45.00	-39.7	-40.7	22.5	0.00e+00	0	28	0	916455424	52	6187
2026-01-27 01:03:29.92	304.82	44.78	-39.3	-40.2	22.8	0.00e+00	0	28	0	917504000	52	5878
2026-01-27 01:03:30.93	305.19	44.56	-40.4	-41.5	21.8	0.00e+00	0	28	0	919601152	52	6833
2026-01-27 01:03:31.94	305.55	44.34	-41.4	-42.7	20.5	0.00e+00	0	28	0	921698304	54	7003
2026-01-27 01:03:32.94	305.90	44.13	-43.1	-44.8	18.6	0.00e+00	0	28	0	923795456	58	7008
2026-01-27 01:03:33.95	306.26	43.91	-42.9	-44.5	19.1	0.00e+00	0	28	0	925892608	58	6790
2026-01-27 01:03:34.96	306.60	43.69	-40.7	-41.8	21.6	0.00e+00	0	28	0	926941184	56	5596
2026-01-27 01:03:35.97	306.95	43.47	-39.2	-40.2	22.9	0.00e+00	0	28	0	929038336	52	5861
2026-01-27 01:03:36.98	307.29	43.25	-39.7	-40.8	22.2	0.00e+00	0	28	0	931135488	52	6254
2026-01-27 01:03:37.99	307.62	43.03	-40.9	-42.1	20.9	0.00e+00	0	28	0	933232640	52	7281
2026-01-27 01:03:39.00	307.95	42.81	-42.7	-44.3	19.2	0.00e+00	0	28	0	935329792	56	7455
2026-01-27 01:03:40.01	308.28	42.59	-43.5	-45.4	18.1	0.00e+00	0	28	0	937426944	58	7571
2026-01-27 01:03:41.02	308.60	42.37	-43.4	-45.2	18.1	0.00e+00	0	28	0	938475520	58	7414
2026-01-27 01:03:42.04	308.92	42.15	-42.8	-44.5	19.0	0.00e+00	0	28	0	940572672	58	6781
2026-01-27 01:03:43.05	309.23	41.93	-42.6	-44.1	19.2	0.00e+00	0	28	0	942669824	58	6533
2026-01-27 01:03:44.05	309.54	41.72	-42.2	-43.7	19.7	0.00e+00	0	28	0	944766976	58	6194
2026-01-27 01:03:45.07	309.84	41.50	-41.3	-42.5	20.8	0.00e+00	0	28	0	946864128	56	6074
2026-01-27 01:03:46.08	310.14	41.28	-41.4	-42.6	20.7	0.00e+00	0	28	0	947912704	56	6160
2026-01-27 01:03:47.09	310.44	41.06	-42.3	-43.7	19.6	0.00e+00	0	28	0	950009856	56	6977
2026-01-27 01:03:48.10	310.73	40.85	-43.0	-44.7	18.8	0.00e+00	0	28	0	952107008	58	6948
2026-01-27 01:03:49.11	311.02	40.63	-42.6	-44.1	19.3	0.00e+00	0	28	0	954204160	58	6507
2026-01-27 01:03:50.12	311.31	40.42	-41.6	-42.9	20.4	0.00e+00	0	28	0	956301312	58	5684
2026-01-27 01:03:51.13	311.59	40.20	-41.3	-42.5	21.0	0.00e+00	0	28	0	957349888	56	6043
2026-01-27 01:03:52.14	311.87	39.99	-40.3	-41.4	21.8	0.00e+00	0	28	0	959447040	54	6004
2026-01-27 01:03:53.15	312.14	39.78	-40.7	-41.8	21.4	0.00e+00	0	28	0	961544192	54	6314
2026-01-27 01:03:54.15	312.41	39.57	-41.3	-42.5	20.8	0.00e+00	0	28	0	963641344	54	6809
2026-01-27 01:03:55.16	312.68	39.35	-41.3	-42.5	20.7	0.00e+00	0	28	0	965738496	54	6827
2026-01-27 01:03:56.18	312.94	39.14	-41.7	-43.0	20.3	0.00e+00	0	28	0	966787072	54	7195
2026-01-27 01:03:57.19	313.20	38.93	-42.3	-43.7	19.6	0.00e+00	0	28	0	968884224	56	6961
2026-01-27 01:03:58.19	313.46	38.72	-42.8	-44.3	19.0	0.00e+00	0	28	0	970981376	56	7501
2026-01-27 01:03:59.20	313.71	38.51	-42.6	-44.1	19.2	0.00e+00	0	28	0	973078528	58	6531
2026-01-27 01:04:00.21	313.96	38.30	-41.3	-42.6	20.8	0.00e+00	0	28	0	975175680	56	6141
2026-01-27 01:04:01.22	314.21	38.10	-40.1	-41.2	21.9	0.00e+00	0	28	0	976224256	54	5871
2026-01-27 01:04:02.23	314.45	37.89	-39.5	-40.5	22.6	0.00e+00	0	28	0	978321408	52	6066
2026-01-27 01:04:03.24	314.70	37.68	-39.8	-40.8	22.0	0.00e+00	0	28	0	980418560	52	6252
2026-01-27 01:04:04.26	314.94	37.47	-40.8	-42.0	21.2	0.00e+00	0	28	0	982515712	54	6442
2026-01-27 01:04:05.27	315.17	37.27	-41.8	-43.2	20.0	0.00e+00	0	28	0	984612864	54	7343
2026-01-27 01:04:06.28	315.40	37.06	-42.1	-43.6	19.8	0.00e+00	0	28	0	985661440	56	6879
2026-01-27 01:04:07.29	315.63	36.86	-41.5	-42.8	20.4	0.00e+00	0	28	0	987758592	56	6278
2026-01-27 01:04:08.30	315.86	36.66	-41.2	-42.4	20.9	0.00e+00	0	28	0	989855744	56	6031
2026-01-27 01:04:09.31	316.09	36.46	-39.5	-40.5	22.8	0.00e+00	0	28	0	991952896	52	6095
2026-01-27 01:04:10.32	316.31	36.26	-38.6	-39.5	23.6	0.00e+00	0	28	0	994050048	50	6049
2026-01-27 01:04:11.33	316.53	36.06	-38.7	-39.6	23.3	0.00e+00	0	28	0	995098624	50	6172
2026-01-27 01:04:12.34	316.74	35.86	-39.0	-39.9	23.0	0.00e+00	0	28	0	997195776	50	6360
2026-01-27 01:04:13.35	316.96	35.66	-39.8	-40.9	22.2	0.00e+00	0	28	0	999292928	50	7098
2026-01-27 01:04:14.35	317.17	35.46	-40.2	-41.3	21.9	0.00e+00	0	28	0	1001390080	52	6635
2026-01-27 01:04:15.37	317.38	35.26	-40.9	-42.1	21.0	0.00e+00	0	28	0	1003487232	54	6507
2026-01-27 01:04:16.38	317.58	35.07	-40.9	-42.2	21.0	0.00e+00	0	28	0	1005584384	54	6562
2026-01-27 01:04:17.39	317.79	34.87	-40.6	-41.7	21.4	0.00e+00	0	28	0	1006632960	54	6243
2026-01-27 01:04:18.40	317.99	34.68	-40.5	-41.6	21.5	0.00e+00	0	28	0	1008730112	54	6168
2026-01-27 01:04:19.41	318.19	34.48	-39.7	-40.7	22.3	0.00e+00	0	28	0	1010827264	54	5561
2026-01-27 01:04:20.42	318.38	34.29	-39.4	-40.4	22.7	0.00e+00	0	28	0	1012924416	52	5983
2026-01-27 01:04:21.43	318.58	34.10	-39.7	-40.7	22.3	0.00e+00	0	28	0	1015021568	52	6219
2026-01-27 01:04:22.44	318.77	33.91	-40.4	-41.5	21.8	0.00e+00	0	28	0	1016070144	52	6786
2026-01-27 01:04:23.45	318.96	33.71	-41.4	-42.7	20.4	0.00e+00	0	28	0	1018167296	54	6934
2026-01-27 01:04:24.46	319.15	33.53	-42.4	-43.9	19.5	0.00e+00	0	28	0	1020264448	56	7135
2026-01-27 01:04:25.47	319.34	33.34	-43.7	-45.7	17.6	0.00e+00	0	28	0	1022361600	58	7796
2026-01-27 01:04:26.48	319.52	33.15	-42.9	-44.7	18.7	0.00e+00	0	28	0	1024458752	58	6935
2026-01-27 01:04:27.49	319.70	32.96	-42.1	-43.6	19.6	0.00e+00	0	28	0	1025507328	58	6128
2026-01-27 01:04:28.50	319.88	32.78	-41.0	-42.3	20.8	0.00e+00	0	28	0	1027604480	56	5944
2026-01-27 01:04:29.51	320.06	32.59	-40.6	-41.8	21.4	0.00e+00	0	28	0	1029701632	54	6265
2026-01-27 01:04:30.52	320.24	32.41	-39.8	-40.9	22.2	0.00e+00	0	28	0	1031798784	54	5639
2026-01-27 01:04:31.53	320.41	32.22	-39.5	-40.4	22.7	0.00e+00	0	28	0	1033895936	52	6027
2026-01-27 01:04:32.54	320.58	32.04	-39.3	-40.3	23.0	0.00e+00	0	28	0	1034944512	52	5919
2026-01-27 01:04:33.55	320.75	31.86	-39.2	-40.2	22.7	0.00e+00	0	28	0	1037041664	52	5850
2026-01-27 01:04:34.56	320.92	31.68	-39.8	-40.8	22.4	0.00e+00	0	28	0	1039138816	52	6293
2026-01-27 01:04:35.57	321.09	31.50	-39.9	-40.9	22.2	0.00e+00	0	28	0	1041235968	52	6373
2026-01-27 01:04:36.58	321.25	31.32	-40.7	-41.8	21.3	0.00e+00	0	28	0	1043333120	52	7058
2026-01-27 01:04:37.59	321.41	31.14	-41.3	-42.6	20.6	0.00e+00	0	28	0	1044381696	54	6869
2026-01-27 01:04:38.59	321.57	30.96	-41.2	-42.5	20.7	0.00e+00	0	28	0	1046478848	54	6774
2026-01-27 01:04:39.60	321.73	30.79	-41.4	-42.7	20.5	0.00e+00	0	28	0	1048576000	54	6991
2026-01-27 01:04:40.61	321.89	30.61	-41.3	-42.6	20.6	0.00e+00	0	28	0	1050673152	54	6896
2026-01-27 01:04:41.62	322.05	30.43	-41.0	-42.2	21.0	0.00e+00	0	28	0	1052770304	54	6579
2026-01-27 01:04:42.63	322.20	30.26	-40.8	-42.0	21.1	0.00e+00	0	28	0	1053818880	54	6418
2026-01-27 01:04:43.64	322.35	30.09	-40.3	-41.5	21.6	0.00e+00	0	28	0	1055916032	54	6042
2026-01-27 01:04:44.65	322.51	29.91	-39.9	-41.0	22.1	0.00e+00	0	28	0	1058013184	54	5699
2026-01-27 01:04:45.66	322.66	29.74	-39.9	-40.9	22.1	0.00e+00	0	28	0	1060110336	54	5689
2026-01-27 01:04:46.67	322.80	29.57	-39.7	-40.8	22.3	0.00e+00	0	28	0	1062207488	52	6252
2026-01-27 01:04:47.68	322.95	29.40	-39.7	-40.8	22.2	0.00e+00	0	28	0	1063256064	52	6246
2026-01-27 01:04:48.69	323.10	29.23	-39.4	-40.3	22.6	0.00e+00	0	28	0	1065353216	52	5952
2026-01-27 01:04:49.70	323.24	29.06	-39.1	-40.0	22.9	0.00e+00	0	28	0	1067450368	52	5722
2026-01-27 01:04:50.71	323.38	28.90	-39.0	-40.0	23.0	0.00e+00	0	28	0	1069547520	52	5715
2026-01-27 01:04:51.72	323.52	28.73	-39.1	-40.1	22.9	0.00e+00	0	28	0	1071644672	52	5773
2026-01-27 01:04:52.73	323.66	28.56	-39.1	-40.1	22.9	0.00e+00	0	28	0	1073741824	52	5763
2026-01-27 01:04:53.74	323.80	28.40	-39.1	-40.0	22.9	0.00e+00	0	28	0	1074790400	52	5744
2026-01-27 01:04:54.75	323.94	28.23	-39.4	-40.4	22.5	0.00e+00	0	28	0	1076887552	52	6022
2026-01-27 01:04:55.76	324.07	28.07	-40.0	-41.1	22.0	0.00e+00	0	28	0	1078984704	52	6468
2026-01-27 01:04:56.77	324.21	27.91	-40.2	-41.4	21.6	0.00e+00	0	28	0	1081081856	52	6697
2026-01-27 01:04:57.78	324.34	27.75	-40.6	-41.8	21.2	0.00e+00	0	28	0	1083179008	52	7058
2026-01-27 01:04:58.79	324.47	27.58	-40.7	-42.0	21.1	0.00e+00	0	28	0	1084227584	54	6391
2026-01-27 01:04:59.80	324.60	27.42	-40.5	-41.6	21.6	0.00e+00	0	28	0	1086324736	54	6171
2026-01-27 01:05:00.81	324.73	27.26	-40.0	-41.1	21.9	0.00e+00	0	28	0	1088421888	54	5802
2026-01-27 01:05:01.82	324.86	27.11	-39.8	-40.8	22.0	0.00e+00	0	28	0	1090519040	54	5603
2026-01-27 01:05:02.83	324.98	26.95	-39.2	-40.2	22.8	0.00e+00	0	28	0	1092616192	52	5873
2026-01-27 01:05:03.84	325.11	26.79	-39.0	-40.0	22.9	0.00e+00	0	28	0	1093664768	52	5707
2026-01-27 01:05:04.85	325.23	26.63	-38.9	-39.8	23.1	0.00e+00	0	28	0	1095761920	52	5601
2026-01-27 01:05:05.86	325.36	26.48	-38.6	-39.5	23.3	0.00e+00	0	28	0	1097859072	50	6096
2026-01-27 01:05:06.86	325.48	26.32	-38.7	-39.7	23.2	0.00e+00	0	28	0	1099956224	50	6193
2026-01-27 01:05:07.87	325.60	26.17	-38.9	-39.9	23.1	0.00e+00	0	28	0	1102053376	50	6327
2026-01-27 01:05:08.88	325.72	26.02	-39.3	-40.3	22.7	0.00e+00	0	28	0	1103101952	50	6634
2026-01-27 01:05:09.89	325.84	25.86	-39.4	-40.4	22.5	0.00e+00	0	28	0	1105199104	50	6758
2026-01-27 01:05:10.90	325.95	25.71	-39.7	-40.8	22.1	0.00e+00	0	28	0	1107296256	50	7052
2026-01-27 01:05:11.91	326.07	25.56	-39.9	-41.0	22.0	0.00e+00	0	28	0	1109393408	52	6424
2026-01-27 01:05:12.92	326.18	25.41	-39.8	-40.9	22.1	0.00e+00	0	28	0	1111490560	52	6353
2026-01-27 01:05:13.93	326.30	25.26	-39.9	-41.0	22.0	0.00e+00	0	28	0	1112539136	52	6410
2026-01-27 01:05:14.94	326.41	25.11	-39.9	-41.0	22.0	0.00e+00	0	28	0	1114636288	52	6397
2026-01-27 01:05:15.95	326.52	24.96	-39.8	-40.8	22.1	0.00e+00	0	28	0	1116733440	52	6316
2026-01-27 01:05:16.96	326.64	24.82	-39.6	-40.7	22.3	0.00e+00	0	28	0	1118830592	52	6196
2026-01-27 01:05:17.97	326.75	24.67	-39.6	-40.7	22.3	0.00e+00	0	28	0	1120927744	52	6192
2026-01-27 01:05:18.98	326.85	24.52	-39.6	-40.6	22.4	0.00e+00	0	28	0	1121976320	52	6133
2026-01-27 01:05:19.99	326.96	24.38	-39.5	-40.5	22.5	0.00e+00	0	28	0	1124073472	52	6048
2026-01-27 01:05:21.00	327.07	24.23	-39.4	-40.4	22.6	0.00e+00	0	28	0	1126170624	52	5995
2026-01-27 01:05:22.01	327.18	24.09	-39.3	-40.2	22.7	0.00e+00	0	28	0	1128267776	52	5896
2026-01-27 01:05:23.02	327.28	23.95	-39.5	-40.5	22.5	0.00e+00	0	28	0	1130364928	52	6055
2026-01-27 01:05:24.03	327.39	23.80	-39.1	-40.1	22.8	0.00e+00	0	28	0	1131413504	52	5809
2026-01-27 01:05:25.04	327.49	23.66	-39.0	-40.0	22.9	0.00e+00	0	28	0	1133510656	52	5742
2026-01-27 01:05:26.05	327.59	23.52	-39.1	-40.0	22.9	0.00e+00	0	28	0	1135607808	52	5757
2026-01-27 01:05:27.06	327.69	23.38	-39.0	-39.9	23.0	0.00e+00	0	28	0	1137704960	52	5672
2026-01-27 01:05:28.07	327.80	23.24	-38.9	-39.9	23.0	0.00e+00	0	28	0	1139802112	52	5663
2026-01-27 01:05:29.08	327.90	23.10	-39.2	-40.1	22.8	0.00e+00	0	28	0	1141899264	52	5813
2026-01-27 01:05:30.09	327.99	22.96	-38.9	-39.9	23.0	0.00e+00	0	28	0	1142947840	52	5651
2026-01-27 01:05:31.10	328.09	22.83	-39.0	-39.9	22.9	0.00e+00	0	28	0	1145044992	52	5691
2026-01-27 01:05:32.11	328.19	22.69	-39.2	-40.2	22.8	0.00e+00	0	28	0	1147142144	52	5853
2026-01-27 01:05:33.12	328.29	22.55	-39.2	-40.2	22.7	0.00e+00	0	28	0	1149239296	52	5845
2026-01-27 01:05:34.13	328.38	22.42	-39.4	-40.5	22.5	0.00e+00	0	28	0	1151336448	52	6048
2026-01-27 01:05:35.14	328.48	22.28	-39.5	-40.6	22.3	0.00e+00	0	28	0	1152385024	52	6141
2026-01-27 01:05:36.15	328.57	22.15	-39.6	-40.7	22.3	0.00e+00	0	28	0	1154482176	52	6183
2026-01-27 01:05:37.16	328.67	22.01	-39.6	-40.7	22.3	0.00e+00	0	28	0	1156579328	52	6186
2026-01-27 01:05:38.17	328.76	21.88	-39.5	-40.6	22.3	0.00e+00	0	28	0	1158676480	52	6116
2026-01-27 01:05:39.17	328.85	21.75	-39.4	-40.5	22.3	0.00e+00	0	28	0	1160773632	52	6059
2026-01-27 01:05:40.19	328.94	21.61	-39.3	-40.3	22.5	0.00e+00	0	28	0	1161822208	52	5959
2026-01-27 01:05:41.20	329.03	21.48	-39.1	-40.1	22.8	0.00e+00	0	28	0	1163919360	52	5791
2026-01-27 01:05:42.20	329.12	21.35	-39.1	-40.1	22.8	0.00e+00	0	28	0	1166016512	52	5798
2026-01-27 01:05:43.21	329.21	21.22	-38.8	-39.8	23.1	0.00e+00	0	28	0	1168113664	52	5572
2026-01-27 01:05:44.22	329.30	21.09	-38.6	-39.6	23.2	0.00e+00	0	28	0	1170210816	50	6126
2026-01-27 01:05:45.23	329.39	20.96	-38.5	-39.4	23.4	0.00e+00	0	28	0	1171259392	50	6018
2026-01-27 01:05:46.24	329.48	20.84	-38.4	-39.3	23.5	0.00e+00	0	28	0	1173356544	50	5907
2026-01-27 01:05:47.25	329.56	20.71	-38.2	-39.0	23.7	0.00e+00	0	28	0	1175453696	50	5761
2026-01-27 01:05:48.26	329.65	20.58	-38.2	-39.1	23.7	0.00e+00	0	28	0	1177550848	50	5765
2026-01-27 01:05:49.27	329.73	20.45	-38.3	-39.2	23.6	0.00e+00	0	28	0	1179648000	50	5830
2026-01-27 01:05:50.28	329.82	20.33	-38.4	-39.3	23.5	0.00e+00	0	28	0	1180696576	50	5902
2026-01-27 01:05:51.29	329.90	20.20	-38.5	-39.4	23.2	0.00e+00	0	28	0	1182793728	50	6011
2026-01-27 01:05:52.30	329.98	20.08	-38.7	-39.6	23.1	0.00e+00	0	28	0	1184890880	50	6170
2026-01-27 01:05:53.31	330.07	19.95	-38.8	-39.7	23.0	0.00e+00	0	28	0	1186988032	50	6226
2026-01-27 01:05:54.32	330.15	19.83	-39.0	-39.9	22.8	0.00e+00	0	28	0	1189085184	50	6383
2026-01-27 01:05:55.33	330.23	19.71	-39.0	-40.0	22.8	0.00e+00	0	28	0	1190133760	50	6440
2026-01-27 01:05:56.34	330.31	19.58	-39.3	-40.3	22.4	0.00e+00	0	28	0	1192230912	50	6669
2026-01-27 01:05:57.35	330.39	19.46	-39.3	-40.4	22.4	0.00e+00	0	28	0	1194328064	50	6710
2026-01-27 01:05:58.36	330.47	19.34	-39.4	-40.4	22.4	0.00e+00	0	28	0	1196425216	50	6764
2026-01-27 01:05:59.37	330.55	19.22	-39.4	-40.4	22.4	0.00e+00	0	28	0	1198522368	50	6763
2026-01-27 01:06:00.38	330.63	19.10	-39.4	-40.4	22.5	0.00e+00	0	28	0	1199570944	50	6765
2026-01-27 01:06:01.39	330.70	18.98	-39.3	-40.4	22.5	0.00e+00	0	28	0	1201668096	50	6694
2026-01-27 01:06:02.40	330.78	18.86	-39.2	-40.2	22.6	0.00e+00	0	28	0	1203765248	50	6563
2026-01-27 01:06:03.41	330.86	18.74	-39.0	-40.0	22.7	0.00e+00	0	28	0	1205862400	50	6436
2026-01-27 01:06:04.43	330.93	18.62	-38.9	-39.9	22.9	0.00e+00	0	28	0	1207959552	50	6363
2026-01-27 01:06:05.43	331.01	18.51	-38.7	-39.7	23.1	0.00e+00	0	28	0	1210056704	50	6204
