passes_logs/2026/01/27/R4.6S_Anadyr/R4.6S_Anadyr__20260127_153019_NOAA_21_JPSS-2_rec.log

#Pass ID: 20260127_153019_NOAA 21 (JPSS-2)
#Satellite: NOAA 21 (JPSS-2)
#Configuration: NOAA-21
#almurnet v.1.7.20251203
#Start time: 2026-01-27 15:30:20

#Version: 2.2.20231116
#Station: R4.6S_Anadyr
#Location: 177.4865 lon 64.73178 lat
#TLE: 1 54234U 22150A   26026.78373243  .00000177  00000+0  10458-3 0  9996
#TLE: 2 54234  98.7509 327.5416 0000822 208.1870 151.9262 14.19539807166482

#Time	Az	El	Level	Level2	SNR	BER	BlckErr	Temp	State	Recorded	gain1	gain2
2026-01-27 15:30:20.16	22.48	0.07	-49.2	-67.0	3.5	3.02e+01	0	30	0	0	60	86246
2026-01-27 15:30:21.16	22.46	0.13	-48.9	-61.8	3.5	1.51e+00	0	31	104	0	60	43099
2026-01-27 15:30:22.17	22.45	0.19	-48.9	-61.8	3.5	1.52e+00	0	31	104	0	60	43108
2026-01-27 15:30:23.18	22.43	0.25	-48.9	-61.8	3.5	1.52e+00	0	31	104	0	60	42955
2026-01-27 15:30:24.19	22.41	0.31	-48.9	-61.8	3.5	1.52e+00	0	31	104	0	60	43197
2026-01-27 15:30:25.20	22.40	0.37	-49.0	-61.8	3.5	1.52e+00	0	31	104	0	60	43111
2026-01-27 15:30:26.21	22.38	0.43	-49.0	-61.8	3.5	1.52e+00	0	31	104	0	60	43269
2026-01-27 15:30:27.22	22.36	0.49	-49.0	-61.9	3.5	1.52e+00	0	31	104	0	60	43465
2026-01-27 15:30:28.23	22.34	0.55	-49.0	-61.9	3.5	1.52e+00	0	31	104	0	60	43552
2026-01-27 15:30:29.24	22.32	0.61	-49.0	-61.9	3.5	1.52e+00	0	31	104	0	60	43530
2026-01-27 15:30:30.25	22.31	0.67	-49.0	-61.9	3.5	1.52e+00	0	31	104	0	60	43473
2026-01-27 15:30:31.27	22.29	0.73	-48.9	-61.8	3.5	1.51e+00	0	31	104	0	60	43357
2026-01-27 15:30:32.28	22.27	0.79	-49.0	-61.8	3.5	1.52e+00	0	31	104	0	60	43360
2026-01-27 15:30:33.28	22.25	0.85	-48.9	-61.8	3.5	1.52e+00	0	31	104	0	60	43067
2026-01-27 15:30:34.29	22.23	0.92	-48.9	-61.7	3.5	1.52e+00	0	31	104	0	60	42835
2026-01-27 15:30:35.30	22.22	0.98	-48.8	-61.7	3.5	1.52e+00	0	31	104	0	60	42499
2026-01-27 15:30:36.31	22.20	1.04	-48.7	-61.6	3.5	1.52e+00	0	31	104	0	60	42109
2026-01-27 15:30:37.32	22.18	1.10	-48.6	-61.5	3.5	1.52e+00	0	31	104	0	60	41671
2026-01-27 15:30:38.32	22.16	1.16	-48.5	-61.4	3.5	1.52e+00	0	31	104	0	60	41106
2026-01-27 15:30:39.34	22.14	1.22	-48.4	-61.3	3.5	1.52e+00	0	31	104	0	60	40599
2026-01-27 15:30:40.35	22.12	1.29	-48.4	-61.2	3.5	1.52e+00	0	31	104	0	60	40249
2026-01-27 15:30:41.36	22.10	1.35	-48.2	-61.1	3.5	1.52e+00	0	31	104	0	60	39699
2026-01-27 15:30:42.37	22.08	1.41	-48.0	-60.8	3.5	1.52e+00	0	31	104	0	60	38618
2026-01-27 15:30:43.38	22.06	1.47	-47.8	-60.6	3.5	1.52e+00	0	31	104	0	60	37526
2026-01-27 15:30:44.39	22.05	1.54	-47.6	-60.2	3.5	1.52e+00	0	31	104	0	60	36103
2026-01-27 15:30:45.40	22.03	1.60	-47.5	-60.1	3.5	1.52e+00	0	31	104	0	60	35648
2026-01-27 15:30:46.41	22.01	1.66	-47.5	-60.1	3.5	1.51e+00	0	32	104	0	60	35657
2026-01-27 15:30:47.42	21.99	1.72	-47.5	-60.2	3.5	1.52e+00	0	32	104	0	60	35797
2026-01-27 15:30:48.42	21.97	1.79	-47.5	-60.1	3.5	1.52e+00	0	32	104	0	60	35646
2026-01-27 15:30:49.44	21.95	1.85	-47.5	-60.1	3.5	1.52e+00	0	31	104	0	60	35426
2026-01-27 15:30:50.45	21.93	1.91	-47.5	-60.2	3.5	1.52e+00	0	32	104	0	60	35866
2026-01-27 15:30:51.46	21.91	1.98	-47.5	-60.3	3.5	1.52e+00	0	32	104	0	60	36216
2026-01-27 15:30:52.46	21.89	2.04	-47.5	-60.3	3.5	1.52e+00	0	32	104	0	60	36280
2026-01-27 15:30:53.47	21.87	2.11	-47.5	-60.3	3.5	1.51e+00	0	32	104	0	60	36539
2026-01-27 15:30:54.48	21.85	2.17	-47.5	-60.4	3.5	1.52e+00	0	32	104	0	60	36726
2026-01-27 15:30:55.50	21.83	2.23	-47.5	-60.4	3.5	1.52e+00	0	32	104	0	60	36578
2026-01-27 15:30:56.51	21.81	2.30	-47.5	-60.4	3.5	1.52e+00	0	32	104	0	60	36674
2026-01-27 15:30:57.52	21.79	2.36	-47.5	-60.3	3.5	1.52e+00	0	32	104	0	60	36410
2026-01-27 15:30:58.53	21.76	2.43	-47.5	-60.1	3.5	1.52e+00	0	32	104	0	60	35412
2026-01-27 15:30:59.54	21.74	2.49	-47.5	-59.8	3.5	1.52e+00	0	32	104	0	60	34484
2026-01-27 15:31:00.55	21.72	2.56	-47.5	-59.5	3.5	1.52e+00	0	32	104	0	60	33232
2026-01-27 15:31:01.56	21.70	2.62	-47.4	-58.8	3.5	1.52e+00	0	32	104	0	60	30420
2026-01-27 15:31:02.57	21.68	2.69	-47.3	-58.2	3.7	1.51e+00	0	32	104	0	60	28446
2026-01-27 15:31:03.58	21.66	2.75	-47.4	-58.7	3.6	1.51e+00	0	32	104	0	60	30243
2026-01-27 15:31:04.59	21.64	2.82	-47.3	-58.2	3.5	1.51e+00	0	32	104	0	60	28403
2026-01-27 15:31:05.60	21.62	2.88	-47.4	-59.3	3.5	1.51e+00	0	32	104	0	60	32241
2026-01-27 15:31:06.60	21.59	2.95	-47.5	-59.9	3.5	1.52e+00	0	32	104	0	60	34621
2026-01-27 15:31:07.61	21.57	3.01	-47.4	-59.2	3.5	1.52e+00	0	32	104	0	60	31911
2026-01-27 15:31:08.62	21.55	3.08	-47.2	-56.9	4.3	1.48e+00	0	32	104	0	60	24581
2026-01-27 15:31:09.64	21.53	3.15	-46.7	-54.3	5.9	4.99e-01	123	32	104	0	60	18180
2026-01-27 15:31:10.65	21.51	3.21	-45.9	-50.7	8.6	6.57e-02	123	32	0	2097152	60	12002
2026-01-27 15:31:11.66	21.48	3.28	-44.5	-47.6	11.7	9.55e-04	120	32	0	5242880	60	8459
2026-01-27 15:31:12.67	21.46	3.35	-43.9	-46.7	13.0	1.33e-04	122	32	0	8388608	60	7605
2026-01-27 15:31:13.68	21.44	3.41	-43.0	-45.3	14.3	1.50e-06	123	32	0	11534336	60	6483
2026-01-27 15:31:14.68	21.42	3.48	-42.2	-44.2	15.4	0.00e+00	123	32	0	14680064	58	6416
2026-01-27 15:31:15.69	21.39	3.55	-41.9	-43.9	15.7	0.00e+00	122	32	0	17825792	58	6146
2026-01-27 15:31:16.70	21.37	3.61	-41.9	-43.9	15.8	0.00e+00	122	32	0	20971520	56	6911
2026-01-27 15:31:17.71	21.35	3.68	-42.0	-44.0	15.7	0.00e+00	122	32	0	24117248	56	6977
2026-01-27 15:31:18.72	21.33	3.75	-43.8	-46.6	12.4	0.00e+00	122	32	0	27262976	58	8425
2026-01-27 15:31:19.73	21.30	3.82	-46.2	-52.0	7.8	1.37e+00	19	32	104	29360128	60	13941
2026-01-27 15:31:20.74	21.28	3.88	-41.7	-43.6	15.7	5.49e-03	123	32	0	30408704	58	5958
2026-01-27 15:31:21.75	21.26	3.95	-43.7	-46.7	14.7	1.36e+00	122	32	104	31457280	60	7582
2026-01-27 15:31:22.76	21.23	4.02	-42.2	-44.4	13.6	0.00e+00	122	32	0	32505856	50	10311
2026-01-27 15:31:23.77	21.21	4.09	-44.5	-48.2	5.0	1.51e+00	0	32	104	33554432	60	9041
2026-01-27 15:31:24.78	21.18	4.16	-38.2	-39.8	19.9	0.00e+00	121	32	104	33554432	50	6077
2026-01-27 15:31:25.79	21.16	4.23	-38.0	-39.2	20.3	0.00e+00	123	32	0	35651584	50	5712
2026-01-27 15:31:26.80	21.14	4.30	-38.3	-39.5	19.9	0.00e+00	122	32	0	38797312	50	5890
2026-01-27 15:31:27.81	21.11	4.36	-38.5	-39.8	19.9	0.00e+00	122	32	0	41943040	50	6065
2026-01-27 15:31:28.81	21.09	4.43	-38.0	-39.2	20.4	0.00e+00	121	32	0	45088768	50	5698
2026-01-27 15:31:29.82	21.06	4.50	-37.5	-38.7	20.8	0.00e+00	123	32	0	48234496	48	6009
2026-01-27 15:31:30.83	21.04	4.57	-37.9	-39.0	20.7	0.00e+00	122	32	0	51380224	48	6260
2026-01-27 15:31:31.84	21.01	4.64	-37.4	-38.5	20.8	0.00e+00	120	32	0	54525952	48	5889
2026-01-27 15:31:32.85	20.99	4.71	-38.1	-39.3	20.2	0.00e+00	122	32	0	57671680	48	6437
2026-01-27 15:31:33.86	20.96	4.78	-38.0	-39.1	20.6	0.00e+00	122	32	0	60817408	48	6335
2026-01-27 15:31:34.87	20.94	4.85	-38.3	-39.5	20.3	0.00e+00	122	32	0	65011712	48	6598
2026-01-27 15:31:35.88	20.91	4.92	-37.5	-38.6	21.1	0.00e+00	120	32	0	68157440	48	5944
2026-01-27 15:31:36.89	20.89	4.99	-37.4	-38.5	21.1	0.00e+00	122	32	0	70254592	48	5885
2026-01-27 15:31:37.90	20.86	5.06	-37.6	-38.8	20.8	0.00e+00	121	32	0	73400320	48	6089
2026-01-27 15:31:38.91	20.84	5.14	-37.4	-38.5	21.1	0.00e+00	123	32	0	76546048	48	5865
2026-01-27 15:31:39.92	20.81	5.21	-37.4	-38.6	21.0	0.00e+00	122	32	0	80740352	48	5932
2026-01-27 15:31:40.93	20.78	5.28	-37.5	-38.6	21.0	0.00e+00	123	32	0	83886080	48	5953
2026-01-27 15:31:41.94	20.76	5.35	-37.8	-38.9	20.7	0.00e+00	120	32	0	87031808	48	6187
2026-01-27 15:31:42.95	20.73	5.42	-37.7	-38.9	21.0	0.00e+00	123	32	0	90177536	48	6141
2026-01-27 15:31:43.96	20.70	5.49	-37.4	-38.5	21.1	0.00e+00	123	32	0	93323264	48	5874
2026-01-27 15:31:44.97	20.68	5.57	-37.6	-38.7	20.9	0.00e+00	123	32	0	96468992	48	6011
2026-01-27 15:31:45.98	20.65	5.64	-37.5	-38.7	21.0	0.00e+00	122	32	0	99614720	48	6008
2026-01-27 15:31:46.99	20.62	5.71	-37.7	-38.9	20.9	0.00e+00	122	32	0	102760448	48	6146
2026-01-27 15:31:48.00	20.60	5.78	-37.5	-38.6	21.0	0.00e+00	122	32	0	105906176	48	5952
2026-01-27 15:31:49.01	20.57	5.86	-37.3	-38.3	21.2	0.00e+00	122	32	0	109051904	48	5785
2026-01-27 15:31:50.02	20.54	5.93	-37.6	-38.7	21.0	0.00e+00	120	32	0	112197632	48	6012
2026-01-27 15:31:51.03	20.51	6.00	-37.4	-38.5	21.3	0.00e+00	123	32	0	115343360	48	5865
2026-01-27 15:31:52.04	20.49	6.08	-37.3	-38.4	21.2	0.00e+00	123	32	0	118489088	48	5849
2026-01-27 15:31:53.05	20.46	6.15	-37.1	-38.2	21.5	0.00e+00	123	32	0	121634816	48	5678
2026-01-27 15:31:54.06	20.43	6.22	-37.1	-38.1	21.6	0.00e+00	120	32	0	124780544	48	5658
2026-01-27 15:31:55.07	20.40	6.30	-36.8	-37.8	21.7	0.00e+00	123	32	0	127926272	46	6110
2026-01-27 15:31:56.08	20.37	6.37	-37.0	-38.1	21.6	0.00e+00	123	32	0	131072000	46	6306
2026-01-27 15:31:57.08	20.35	6.45	-37.1	-38.2	21.5	0.00e+00	122	32	0	134217728	46	6355
2026-01-27 15:31:58.10	20.32	6.52	-37.0	-38.0	21.6	0.00e+00	122	32	0	137363456	46	6255
2026-01-27 15:31:59.10	20.29	6.60	-36.8	-37.9	21.8	0.00e+00	122	32	0	140509184	46	6152
2026-01-27 15:32:00.11	20.26	6.67	-36.8	-37.8	21.9	0.00e+00	120	32	0	143654912	46	6126
2026-01-27 15:32:01.12	20.23	6.75	-36.9	-38.0	21.7	0.00e+00	123	32	0	146800640	46	6223
2026-01-27 15:32:02.13	20.20	6.82	-36.9	-37.9	21.7	0.00e+00	127	32	0	149946368	46	6200
2026-01-27 15:32:03.14	20.17	6.90	-36.9	-37.9	21.8	0.00e+00	122	32	0	153092096	46	6180
2026-01-27 15:32:04.15	20.14	6.97	-36.9	-37.9	21.8	0.00e+00	123	32	0	156237824	46	6194
2026-01-27 15:32:05.16	20.11	7.05	-36.7	-37.7	21.9	0.00e+00	123	32	0	159383552	46	6033
2026-01-27 15:32:06.17	20.08	7.13	-36.6	-37.6	22.0	0.00e+00	120	32	0	162529280	46	5967
2026-01-27 15:32:07.18	20.05	7.20	-36.8	-37.8	21.9	0.00e+00	123	32	0	165675008	46	6096
2026-01-27 15:32:08.19	20.02	7.28	-36.7	-37.7	22.0	0.00e+00	122	32	0	168820736	46	6027
2026-01-27 15:32:09.20	19.99	7.36	-36.4	-37.4	22.2	0.00e+00	123	32	0	171966464	46	5814
2026-01-27 15:32:10.21	19.96	7.43	-36.5	-37.5	22.2	0.00e+00	120	32	0	175112192	46	5886
2026-01-27 15:32:11.22	19.93	7.51	-36.4	-37.4	22.2	0.00e+00	120	32	0	178257920	46	5840
2026-01-27 15:32:12.23	19.89	7.59	-36.6	-37.6	22.1	0.00e+00	120	32	0	181403648	46	5961
2026-01-27 15:32:13.24	19.86	7.67	-36.5	-37.5	22.2	0.00e+00	123	32	0	184549376	46	5912
2026-01-27 15:32:14.25	19.83	7.75	-36.4	-37.5	22.2	0.00e+00	120	32	0	187695104	46	5868
2026-01-27 15:32:15.26	19.80	7.82	-36.5	-37.5	22.2	0.00e+00	121	32	0	190840832	46	5884
2026-01-27 15:32:16.26	19.77	7.90	-36.8	-37.8	21.9	0.00e+00	120	32	0	193986560	46	6127
2026-01-27 15:32:17.27	19.74	7.98	-36.4	-37.4	22.2	0.00e+00	123	32	0	197132288	46	5802
2026-01-27 15:32:18.28	19.70	8.06	-36.2	-37.3	22.4	0.00e+00	122	32	0	200278016	46	5729
2026-01-27 15:32:19.29	19.67	8.14	-36.4	-37.4	22.2	0.00e+00	120	32	0	203423744	46	5858
2026-01-27 15:32:20.30	19.64	8.22	-36.1	-37.1	22.6	0.00e+00	122	32	0	206569472	46	5634
2026-01-27 15:32:21.31	19.60	8.30	-36.1	-37.1	22.5	0.00e+00	120	32	0	209715200	46	5609
2026-01-27 15:32:22.32	19.57	8.38	-36.1	-37.1	22.5	0.00e+00	123	32	0	212860928	46	5632
2026-01-27 15:32:23.33	19.54	8.46	-36.0	-37.0	22.6	0.00e+00	123	32	0	216006656	46	5575
2026-01-27 15:32:24.34	19.50	8.54	-36.0	-36.9	22.7	0.00e+00	123	32	0	219152384	46	5528
2026-01-27 15:32:25.35	19.47	8.62	-36.0	-37.0	22.7	0.00e+00	123	32	0	222298112	46	5562
2026-01-27 15:32:26.36	19.44	8.70	-35.9	-36.8	22.8	0.00e+00	123	32	0	225443840	44	6131
2026-01-27 15:32:27.37	19.40	8.78	-35.9	-36.9	22.8	0.00e+00	123	32	0	228589568	44	6151
2026-01-27 15:32:28.38	19.37	8.86	-35.8	-36.8	22.8	0.00e+00	122	32	0	231735296	44	6093
2026-01-27 15:32:29.39	19.33	8.95	-35.6	-36.6	23.0	0.00e+00	123	32	0	234881024	44	5961
2026-01-27 15:32:30.40	19.30	9.03	-35.7	-36.7	23.0	0.00e+00	122	32	0	238026752	44	6018
2026-01-27 15:32:31.41	19.26	9.11	-35.8	-36.7	22.9	0.00e+00	122	32	0	241172480	44	6043
2026-01-27 15:32:32.42	19.23	9.19	-35.7	-36.7	23.0	0.00e+00	123	32	0	244318208	44	5996
2026-01-27 15:32:33.42	19.19	9.28	-35.5	-36.5	23.1	0.00e+00	123	32	0	247463936	44	5895
2026-01-27 15:32:34.43	19.16	9.36	-35.6	-36.6	23.1	0.00e+00	123	32	0	250609664	44	5929
2026-01-27 15:32:35.44	19.12	9.44	-35.6	-36.6	23.1	0.00e+00	122	32	0	253755392	44	5960
2026-01-27 15:32:36.46	19.08	9.53	-35.4	-36.4	23.3	0.00e+00	122	32	0	256901120	44	5824
2026-01-27 15:32:37.47	19.05	9.61	-35.3	-36.3	23.3	0.00e+00	120	32	0	260046848	44	5751
2026-01-27 15:32:38.48	19.01	9.70	-35.4	-36.4	23.3	0.00e+00	122	32	0	263192576	44	5799
2026-01-27 15:32:39.49	18.97	9.78	-35.3	-36.3	23.3	0.00e+00	120	32	0	266338304	44	5739
2026-01-27 15:32:40.50	18.93	9.86	-35.4	-36.3	23.3	0.00e+00	122	32	0	269484032	44	5748
2026-01-27 15:32:41.51	18.90	9.95	-35.3	-36.2	23.4	0.00e+00	123	32	0	272629760	44	5714
2026-01-27 15:32:42.52	18.86	10.04	-35.2	-36.1	23.5	0.00e+00	123	32	0	275775488	44	5623
2026-01-27 15:32:43.53	18.82	10.12	-35.5	-36.5	23.2	0.00e+00	123	32	0	278921216	44	5867
2026-01-27 15:32:44.54	18.78	10.21	-35.6	-36.5	23.1	0.00e+00	123	32	0	282066944	44	5921
2026-01-27 15:32:45.54	18.75	10.29	-35.3	-36.2	23.4	0.00e+00	122	32	0	285212672	44	5703
2026-01-27 15:32:46.55	18.71	10.38	-35.1	-36.1	23.5	0.00e+00	122	32	0	288358400	44	5619
2026-01-27 15:32:47.56	18.67	10.47	-35.2	-36.1	23.6	0.00e+00	120	32	0	291504128	44	5620
2026-01-27 15:32:48.57	18.63	10.55	-35.0	-36.0	23.6	0.00e+00	122	32	0	294649856	44	5544
2026-01-27 15:32:49.58	18.59	10.64	-34.9	-35.9	23.8	0.00e+00	123	32	0	297795584	44	5486
2026-01-27 15:32:50.59	18.55	10.73	-35.0	-35.9	23.6	0.00e+00	123	32	0	300941312	44	5515
2026-01-27 15:32:51.60	18.51	10.82	-35.0	-35.9	23.6	0.00e+00	122	32	0	304087040	44	5486
2026-01-27 15:32:52.61	18.47	10.90	-35.0	-35.9	23.7	0.00e+00	123	32	0	307232768	44	5508
2026-01-27 15:32:53.62	18.43	10.99	-35.0	-35.9	23.7	0.00e+00	120	32	0	310378496	44	5500
2026-01-27 15:32:54.63	18.39	11.08	-34.8	-35.8	23.8	0.00e+00	122	32	0	313524224	44	5405
2026-01-27 15:32:55.64	18.35	11.17	-35.0	-36.0	23.7	0.00e+00	123	32	0	316669952	44	5543
2026-01-27 15:32:56.65	18.30	11.26	-34.8	-35.7	23.9	0.00e+00	120	32	0	319815680	44	5399
2026-01-27 15:32:57.66	18.26	11.35	-34.9	-35.8	23.7	0.00e+00	122	32	0	322961408	44	5440
2026-01-27 15:32:58.67	18.22	11.44	-34.9	-35.8	23.8	0.00e+00	122	32	0	326107136	44	5467
2026-01-27 15:32:59.68	18.18	11.53	-34.8	-35.7	23.8	0.00e+00	122	32	0	329252864	44	5354
2026-01-27 15:33:00.69	18.14	11.62	-34.8	-35.7	23.8	0.00e+00	123	32	0	332398592	44	5403
2026-01-27 15:33:01.70	18.09	11.71	-34.7	-35.6	23.9	0.00e+00	122	32	0	335544320	42	5978
2026-01-27 15:33:02.71	18.05	11.80	-34.8	-35.7	23.9	0.00e+00	123	32	0	338690048	42	6040
2026-01-27 15:33:03.72	18.01	11.90	-34.8	-35.7	23.8	0.00e+00	120	32	0	341835776	42	6037
2026-01-27 15:33:04.73	17.96	11.99	-34.7	-35.6	23.9	0.00e+00	123	32	0	344981504	42	5967
2026-01-27 15:33:05.74	17.92	12.08	-34.7	-35.6	24.0	0.00e+00	121	32	0	348127232	42	5928
2026-01-27 15:33:06.75	17.87	12.17	-34.7	-35.6	23.9	0.00e+00	123	32	0	351272960	42	5982
2026-01-27 15:33:07.76	17.83	12.27	-34.6	-35.5	24.0	0.00e+00	123	32	0	354418688	42	5879
2026-01-27 15:33:08.77	17.78	12.36	-34.6	-35.5	24.0	0.00e+00	121	32	0	357564416	42	5901
2026-01-27 15:33:09.78	17.74	12.45	-34.5	-35.4	24.0	0.00e+00	123	32	0	360710144	42	5849
2026-01-27 15:33:10.79	17.69	12.55	-34.6	-35.5	24.0	0.00e+00	123	32	0	363855872	42	5881
2026-01-27 15:33:11.80	17.65	12.64	-34.6	-35.5	24.0	0.00e+00	123	32	0	367001600	42	5918
2026-01-27 15:33:12.80	17.60	12.73	-34.7	-35.7	23.9	0.00e+00	123	32	0	370147328	42	5996
2026-01-27 15:33:13.81	17.56	12.83	-34.7	-35.6	23.9	0.00e+00	123	32	0	373293056	42	5950
2026-01-27 15:33:14.82	17.51	12.93	-34.5	-35.4	24.1	0.00e+00	122	32	0	376438784	42	5807
2026-01-27 15:33:15.83	17.46	13.02	-34.5	-35.4	24.0	0.00e+00	122	32	0	379584512	42	5848
2026-01-27 15:33:16.84	17.41	13.12	-34.5	-35.4	24.1	0.00e+00	123	32	0	382730240	42	5815
2026-01-27 15:33:17.85	17.37	13.21	-34.6	-35.5	24.0	0.00e+00	123	32	0	385875968	42	5871
2026-01-27 15:33:18.86	17.32	13.31	-34.5	-35.4	24.1	0.00e+00	123	32	0	389021696	42	5849
2026-01-27 15:33:19.87	17.27	13.41	-34.4	-35.3	24.2	0.00e+00	122	32	0	392167424	42	5766
2026-01-27 15:33:20.88	17.22	13.51	-34.5	-35.4	24.0	0.00e+00	122	32	0	395313152	42	5833
2026-01-27 15:33:21.89	17.17	13.60	-34.5	-35.4	24.1	0.00e+00	123	32	0	398458880	42	5805
2026-01-27 15:33:22.90	17.12	13.70	-34.5	-35.4	24.0	0.00e+00	123	32	0	401604608	42	5835
2026-01-27 15:33:23.91	17.07	13.80	-34.5	-35.4	24.0	0.00e+00	123	32	0	404750336	42	5846
2026-01-27 15:33:24.92	17.02	13.90	-34.5	-35.4	24.0	0.00e+00	122	33	0	407896064	42	5804
2026-01-27 15:33:25.93	16.97	14.00	-34.4	-35.3	24.1	0.00e+00	122	32	0	411041792	42	5775
2026-01-27 15:33:26.94	16.92	14.10	-34.5	-35.4	24.0	0.00e+00	123	32	0	414187520	42	5832
2026-01-27 15:33:27.95	16.87	14.20	-34.6	-35.5	24.0	0.00e+00	123	32	0	417333248	42	5883
2026-01-27 15:33:28.95	16.82	14.30	-34.6	-35.5	24.0	0.00e+00	121	32	0	420478976	42	5886
2026-01-27 15:33:29.96	16.76	14.40	-34.5	-35.4	24.1	0.00e+00	122	32	0	423624704	42	5819
2026-01-27 15:33:30.97	16.71	14.50	-34.5	-35.4	24.0	0.00e+00	123	32	0	427819008	42	5856
2026-01-27 15:33:31.98	16.66	14.60	-34.4	-35.4	24.1	0.00e+00	120	32	0	430964736	42	5799
2026-01-27 15:33:32.99	16.61	14.71	-34.5	-35.4	24.0	0.00e+00	122	32	0	434110464	42	5816
2026-01-27 15:33:34.00	16.55	14.81	-34.6	-35.5	24.0	0.00e+00	120	32	0	436207616	42	5914
2026-01-27 15:33:35.02	16.50	14.91	-34.7	-35.6	23.9	0.00e+00	122	32	0	439353344	42	5967
2026-01-27 15:33:36.02	16.44	15.01	-34.6	-35.5	24.0	0.00e+00	123	32	0	443547648	42	5892
2026-01-27 15:33:37.03	16.39	15.12	-34.6	-35.5	24.0	0.00e+00	123	32	0	446693376	42	5874
2026-01-27 15:33:38.04	16.33	15.22	-34.6	-35.5	24.0	0.00e+00	120	32	0	449839104	42	5887
2026-01-27 15:33:39.05	16.28	15.33	-34.6	-35.5	24.0	0.00e+00	122	32	0	452984832	42	5912
2026-01-27 15:33:40.06	16.22	15.43	-34.7	-35.7	23.9	0.00e+00	120	32	0	456130560	42	6002
2026-01-27 15:33:41.07	16.16	15.54	-34.7	-35.7	23.9	0.00e+00	122	32	0	459276288	42	6002
2026-01-27 15:33:42.08	16.11	15.64	-34.8	-35.7	23.9	0.00e+00	122	32	0	462422016	42	6018
2026-01-27 15:33:43.09	16.05	15.75	-34.7	-35.6	24.0	0.00e+00	123	32	0	465567744	42	5953
2026-01-27 15:33:44.10	15.99	15.86	-34.7	-35.6	24.0	0.00e+00	122	32	0	468713472	42	5947
2026-01-27 15:33:45.11	15.93	15.96	-34.6	-35.6	24.1	0.00e+00	120	32	0	471859200	42	5927
2026-01-27 15:33:46.12	15.87	16.07	-34.7	-35.6	24.0	0.00e+00	123	32	0	475004928	42	5964
2026-01-27 15:33:47.13	15.82	16.18	-34.9	-35.8	24.0	0.00e+00	123	32	0	478150656	42	6110
2026-01-27 15:33:48.14	15.76	16.29	-34.8	-35.7	23.8	0.00e+00	122	32	0	481296384	42	6059
2026-01-27 15:33:49.15	15.70	16.40	-34.9	-35.9	23.9	0.00e+00	122	32	0	484442112	42	6141
2026-01-27 15:33:50.16	15.63	16.51	-34.9	-35.8	24.0	0.00e+00	123	32	0	487587840	42	6107
2026-01-27 15:33:51.17	15.57	16.62	-34.8	-35.7	24.0	0.00e+00	122	32	0	490733568	42	6059
2026-01-27 15:33:52.18	15.51	16.73	-34.8	-35.7	24.0	0.00e+00	122	32	0	493879296	42	6062
2026-01-27 15:33:53.18	15.45	16.84	-35.0	-36.0	23.9	0.00e+00	120	32	0	497025024	42	6209
2026-01-27 15:33:54.19	15.39	16.95	-34.9	-35.9	24.0	0.00e+00	123	32	0	500170752	42	6141
2026-01-27 15:33:55.20	15.32	17.06	-34.9	-35.9	24.0	0.00e+00	123	32	0	503316480	42	6135
2026-01-27 15:33:56.21	15.26	17.17	-35.0	-35.9	23.9	0.00e+00	123	32	0	506462208	42	6201
2026-01-27 15:33:57.22	15.20	17.29	-35.1	-36.0	23.9	0.00e+00	120	32	0	509607936	42	6241
2026-01-27 15:33:58.23	15.13	17.40	-34.8	-35.7	24.0	0.00e+00	122	32	0	512753664	42	6038
2026-01-27 15:33:59.24	15.07	17.51	-35.0	-35.9	23.9	0.00e+00	123	32	0	515899392	42	6159
2026-01-27 15:34:00.25	15.00	17.63	-35.1	-36.0	23.8	0.00e+00	123	32	0	519045120	42	6220
2026-01-27 15:34:01.26	14.94	17.74	-35.0	-36.0	23.8	0.00e+00	120	32	0	522190848	42	6208
2026-01-27 15:34:02.27	14.87	17.86	-34.8	-35.7	24.1	0.00e+00	122	32	0	525336576	42	6055
2026-01-27 15:34:03.28	14.80	17.97	-34.9	-35.8	24.0	0.00e+00	122	32	0	528482304	42	6095
2026-01-27 15:34:04.28	14.73	18.09	-34.9	-35.8	24.1	0.00e+00	123	32	0	531628032	42	6086
2026-01-27 15:34:05.30	14.67	18.21	-34.9	-35.8	23.9	0.00e+00	123	32	0	534773760	42	6091
2026-01-27 15:34:06.30	14.60	18.32	-34.8	-35.7	24.0	0.00e+00	122	32	0	537919488	42	6057
2026-01-27 15:34:07.31	14.53	18.44	-34.8	-35.7	23.9	0.00e+00	123	32	0	541065216	42	6044
2026-01-27 15:34:08.32	14.46	18.56	-34.8	-35.7	24.0	0.00e+00	123	32	0	544210944	42	6026
2026-01-27 15:34:09.33	14.39	18.68	-34.8	-35.7	23.9	0.00e+00	123	32	0	547356672	42	6060
2026-01-27 15:34:10.34	14.32	18.80	-34.8	-35.7	24.0	0.00e+00	123	32	0	550502400	42	6019
2026-01-27 15:34:11.35	14.24	18.92	-34.9	-35.8	23.9	0.00e+00	121	32	0	553648128	42	6114
2026-01-27 15:34:12.36	14.17	19.04	-34.9	-35.8	24.0	0.00e+00	123	32	0	556793856	42	6102
2026-01-27 15:34:13.37	14.10	19.16	-34.7	-35.7	24.0	0.00e+00	120	32	0	559939584	42	5995
2026-01-27 15:34:14.38	14.03	19.28	-34.7	-35.6	24.1	0.00e+00	123	32	0	563085312	42	5989
2026-01-27 15:34:15.39	13.95	19.40	-34.9	-35.8	24.0	0.00e+00	122	32	0	566231040	42	6114
2026-01-27 15:34:16.40	13.88	19.52	-34.7	-35.6	24.1	0.00e+00	123	33	0	569376768	42	5976
2026-01-27 15:34:17.41	13.80	19.65	-34.8	-35.7	24.0	0.00e+00	121	33	0	572522496	42	6039
2026-01-27 15:34:18.42	13.72	19.77	-34.8	-35.7	24.0	0.00e+00	123	32	0	575668224	42	6049
2026-01-27 15:34:19.43	13.65	19.90	-34.9	-35.8	24.0	0.00e+00	120	32	0	578813952	42	6090
2026-01-27 15:34:20.44	13.57	20.02	-34.8	-35.7	24.0	0.00e+00	123	32	0	581959680	42	6043
2026-01-27 15:34:21.44	13.49	20.14	-34.7	-35.7	24.1	0.00e+00	123	32	0	585105408	42	6002
2026-01-27 15:34:22.45	13.41	20.27	-34.8	-35.7	24.0	0.00e+00	122	32	0	588251136	42	6052
2026-01-27 15:34:23.46	13.34	20.40	-34.7	-35.6	24.1	0.00e+00	123	32	0	591396864	42	5950
2026-01-27 15:34:24.47	13.26	20.52	-34.5	-35.4	24.2	0.00e+00	122	32	0	594542592	42	5824
2026-01-27 15:34:25.49	13.17	20.65	-34.6	-35.6	24.1	0.00e+00	123	32	0	597688320	42	5930
2026-01-27 15:34:26.50	13.09	20.78	-34.2	-35.1	24.3	0.00e+00	123	32	0	600834048	42	5643
2026-01-27 15:34:27.51	13.01	20.91	-34.3	-35.2	24.4	0.00e+00	123	32	0	603979776	42	5676
2026-01-27 15:34:28.51	12.93	21.04	-34.2	-35.1	24.5	0.00e+00	122	32	0	607125504	42	5597
2026-01-27 15:34:29.52	12.84	21.17	-34.0	-34.9	24.6	0.00e+00	120	32	0	610271232	42	5492
2026-01-27 15:34:30.53	12.76	21.30	-34.0	-34.9	24.5	0.00e+00	123	32	0	613416960	42	5508
2026-01-27 15:34:31.54	12.67	21.43	-33.9	-34.8	24.7	0.00e+00	121	32	0	616562688	42	5422
2026-01-27 15:34:32.55	12.59	21.56	-33.7	-34.6	24.7	0.00e+00	120	32	0	619708416	40	5966
2026-01-27 15:34:33.56	12.50	21.69	-33.7	-34.6	24.7	0.00e+00	122	32	0	622854144	40	5981
2026-01-27 15:34:34.57	12.41	21.83	-33.7	-34.6	24.6	0.00e+00	123	33	0	625999872	40	5987
2026-01-27 15:34:35.58	12.33	21.96	-33.7	-34.5	24.7	0.00e+00	123	33	0	629145600	40	5919
2026-01-27 15:34:36.59	12.24	22.10	-33.6	-34.5	24.7	0.00e+00	120	32	0	632291328	40	5894
2026-01-27 15:34:37.59	12.15	22.23	-33.5	-34.4	24.8	0.00e+00	123	33	0	635437056	40	5835
2026-01-27 15:34:38.60	12.06	22.37	-33.6	-34.5	24.8	0.00e+00	123	32	0	638582784	40	5906
2026-01-27 15:34:39.61	11.97	22.50	-33.5	-34.4	24.9	0.00e+00	122	32	0	641728512	40	5805
2026-01-27 15:34:40.62	11.87	22.64	-33.5	-34.4	24.9	0.00e+00	120	32	0	644874240	40	5837
2026-01-27 15:34:41.63	11.78	22.78	-33.4	-34.3	25.0	0.00e+00	123	32	0	648019968	40	5778
2026-01-27 15:34:42.63	11.69	22.91	-33.5	-34.3	24.9	0.00e+00	123	32	0	651165696	40	5783
2026-01-27 15:34:43.64	11.59	23.05	-33.2	-34.1	25.1	0.00e+00	122	33	0	654311424	40	5614
2026-01-27 15:34:44.65	11.50	23.19	-33.2	-34.1	25.2	0.00e+00	123	32	0	657457152	40	5613
2026-01-27 15:34:45.67	11.40	23.33	-33.2	-34.0	25.2	0.00e+00	122	32	0	660602880	40	5594
2026-01-27 15:34:46.67	11.30	23.47	-33.3	-34.2	25.1	0.00e+00	120	32	0	663748608	40	5667
2026-01-27 15:34:47.68	11.20	23.61	-33.1	-34.0	25.3	0.00e+00	122	32	0	666894336	40	5544
2026-01-27 15:34:48.69	11.10	23.76	-33.1	-34.0	25.2	0.00e+00	123	32	0	670040064	40	5546
2026-01-27 15:34:49.70	11.00	23.90	-33.2	-34.1	25.2	0.00e+00	122	32	0	673185792	40	5635
2026-01-27 15:34:50.71	10.90	24.04	-33.3	-34.1	25.1	0.00e+00	123	32	0	676331520	40	5648
2026-01-27 15:34:51.72	10.80	24.19	-33.3	-34.1	25.1	0.00e+00	123	32	0	679477248	40	5649
2026-01-27 15:34:52.73	10.70	24.33	-33.3	-34.2	25.1	0.00e+00	120	32	0	682622976	40	5693
2026-01-27 15:34:53.74	10.59	24.48	-33.5	-34.3	25.0	0.00e+00	123	33	0	685768704	40	5779
2026-01-27 15:34:54.75	10.49	24.63	-33.4	-34.3	25.0	0.00e+00	122	33	0	688914432	40	5736
2026-01-27 15:34:55.76	10.38	24.77	-33.6	-34.5	24.8	0.00e+00	123	33	0	692060160	40	5861
2026-01-27 15:34:56.77	10.27	24.92	-33.6	-34.5	24.8	0.00e+00	120	32	0	695205888	40	5863
2026-01-27 15:34:57.78	10.16	25.07	-33.7	-34.5	24.8	0.00e+00	123	32	0	698351616	40	5926
2026-01-27 15:34:58.79	10.05	25.22	-33.9	-34.7	24.7	0.00e+00	123	32	0	701497344	40	6056
2026-01-27 15:34:59.80	9.94	25.37	-33.9	-34.8	24.7	0.00e+00	120	32	0	704643072	40	6087
2026-01-27 15:35:00.81	9.83	25.52	-34.0	-34.9	24.7	0.00e+00	123	32	0	707788800	40	6144
2026-01-27 15:35:01.82	9.72	25.67	-34.0	-34.8	24.7	0.00e+00	123	32	0	710934528	40	6132
2026-01-27 15:35:02.83	9.61	25.82	-34.1	-35.0	24.7	0.00e+00	120	32	0	714080256	40	6220
2026-01-27 15:35:03.84	9.49	25.98	-33.9	-34.8	24.8	0.00e+00	123	32	0	717225984	40	6080
2026-01-27 15:35:04.85	9.37	26.13	-33.9	-34.7	24.9	0.00e+00	122	33	0	720371712	40	6063
2026-01-27 15:35:05.86	9.26	26.28	-34.0	-34.8	24.8	0.00e+00	123	32	0	723517440	40	6123
2026-01-27 15:35:06.87	9.14	26.44	-34.0	-34.9	24.8	0.00e+00	120	32	0	726663168	40	6163
2026-01-27 15:35:07.88	9.02	26.60	-34.0	-34.8	24.9	0.00e+00	123	32	0	729808896	40	6132
2026-01-27 15:35:08.89	8.90	26.75	-34.1	-34.9	24.7	0.00e+00	120	32	0	732954624	40	6187
2026-01-27 15:35:09.90	8.78	26.91	-34.1	-35.0	24.7	0.00e+00	123	32	0	736100352	40	6232
2026-01-27 15:35:10.91	8.65	27.07	-34.1	-35.0	24.7	0.00e+00	123	32	0	739246080	40	6225
2026-01-27 15:35:11.92	8.53	27.23	-34.2	-35.1	24.6	0.00e+00	120	32	0	742391808	40	6281
2026-01-27 15:35:12.93	8.40	27.39	-34.2	-35.1	24.5	0.00e+00	123	32	0	745537536	40	6315
2026-01-27 15:35:13.94	8.27	27.55	-34.4	-35.3	24.3	0.00e+00	122	32	0	748683264	40	6481
2026-01-27 15:35:14.95	8.15	27.71	-34.7	-35.6	24.2	0.00e+00	123	32	0	751828992	40	6658
2026-01-27 15:35:15.96	8.02	27.87	-34.3	-35.1	24.4	0.00e+00	122	33	0	754974720	40	6348
2026-01-27 15:35:16.97	7.88	28.03	-34.3	-35.2	24.4	0.00e+00	123	32	0	758120448	40	6383
2026-01-27 15:35:17.98	7.75	28.20	-34.4	-35.2	24.3	0.00e+00	122	33	0	761266176	40	6415
2026-01-27 15:35:18.99	7.62	28.36	-34.3	-35.2	24.4	0.00e+00	122	33	0	764411904	40	6415
2026-01-27 15:35:20.00	7.48	28.53	-34.3	-35.2	24.5	0.00e+00	123	33	0	767557632	40	6377
2026-01-27 15:35:21.01	7.34	28.69	-34.4	-35.3	24.4	0.00e+00	122	33	0	770703360	40	6468
2026-01-27 15:35:22.02	7.21	28.86	-34.4	-35.3	24.6	0.00e+00	122	33	0	774897664	40	6453
2026-01-27 15:35:23.03	7.07	29.03	-34.3	-35.2	24.6	0.00e+00	122	33	0	776994816	40	6407
2026-01-27 15:35:24.04	6.92	29.20	-34.2	-35.1	24.5	0.00e+00	123	32	0	780140544	40	6335
2026-01-27 15:35:25.05	6.78	29.37	-34.2	-35.1	24.6	0.00e+00	122	33	0	783286272	40	6329
2026-01-27 15:35:26.06	6.64	29.54	-34.2	-35.1	24.6	0.00e+00	123	32	0	786432000	40	6279
2026-01-27 15:35:27.07	6.49	29.71	-34.0	-34.9	24.5	0.00e+00	123	32	0	790626304	40	6188
2026-01-27 15:35:28.08	6.34	29.88	-34.1	-35.0	24.4	0.00e+00	122	33	0	793772032	40	6229
2026-01-27 15:35:29.09	6.19	30.05	-34.1	-35.0	24.4	0.00e+00	123	32	0	796917760	40	6247
2026-01-27 15:35:30.10	6.04	30.23	-34.2	-35.1	24.3	0.00e+00	120	33	0	800063488	40	6290
2026-01-27 15:35:31.11	5.89	30.40	-34.3	-35.1	24.2	0.00e+00	123	33	0	802160640	40	6349
2026-01-27 15:35:32.12	5.74	30.58	-34.4	-35.3	24.2	0.00e+00	120	33	0	806354944	40	6488
2026-01-27 15:35:33.13	5.58	30.75	-34.6	-35.5	24.2	0.00e+00	123	33	0	809500672	40	6579
2026-01-27 15:35:34.14	5.42	30.93	-34.6	-35.5	24.2	0.00e+00	123	33	0	812646400	40	6605
2026-01-27 15:35:35.15	5.26	31.11	-34.5	-35.4	24.3	0.00e+00	123	33	0	815792128	40	6559
2026-01-27 15:35:36.16	5.10	31.29	-34.6	-35.5	24.4	0.00e+00	123	33	0	818937856	40	6614
2026-01-27 15:35:37.17	4.94	31.47	-34.5	-35.4	24.5	0.00e+00	122	33	0	822083584	42	5846
2026-01-27 15:35:38.18	4.77	31.65	-34.3	-35.2	24.6	0.00e+00	123	33	0	825229312	42	5668
2026-01-27 15:35:39.19	4.60	31.83	-34.4	-35.2	24.5	0.00e+00	123	33	0	828375040	42	5714
2026-01-27 15:35:40.20	4.44	32.01	-34.3	-35.2	24.6	0.00e+00	122	33	0	831520768	42	5686
2026-01-27 15:35:41.21	4.26	32.19	-34.3	-35.2	24.4	0.00e+00	122	33	0	834666496	42	5702
2026-01-27 15:35:42.22	4.09	32.37	-34.4	-35.3	24.3	0.00e+00	120	33	0	837812224	42	5768
2026-01-27 15:35:43.23	3.92	32.56	-34.4	-35.3	24.2	0.00e+00	122	32	0	840957952	42	5786
2026-01-27 15:35:44.23	3.74	32.74	-34.6	-35.5	24.1	0.00e+00	122	32	0	844103680	42	5887
2026-01-27 15:35:45.24	3.56	32.93	-34.7	-35.7	24.1	0.00e+00	123	33	0	847249408	42	6002
2026-01-27 15:35:46.25	3.38	33.11	-34.8	-35.7	24.2	0.00e+00	122	33	0	850395136	42	6017
2026-01-27 15:35:47.27	3.20	33.30	-35.0	-36.0	24.0	0.00e+00	122	33	0	853540864	42	6249
2026-01-27 15:35:48.28	3.01	33.49	-35.2	-36.1	23.9	0.00e+00	122	33	0	856686592	42	6309
2026-01-27 15:35:49.28	2.83	33.68	-35.2	-36.2	23.9	0.00e+00	123	33	0	859832320	42	6367
2026-01-27 15:35:50.30	2.63	33.87	-35.3	-36.3	23.9	0.00e+00	123	32	0	862978048	42	6424
2026-01-27 15:35:51.30	2.44	34.06	-35.1	-36.0	24.1	0.00e+00	122	32	0	866123776	42	6253
2026-01-27 15:35:52.31	2.25	34.25	-35.2	-36.1	24.1	0.00e+00	123	32	0	869269504	42	6304
2026-01-27 15:35:53.32	2.05	34.44	-35.2	-36.1	24.1	0.00e+00	122	32	0	872415232	42	6320
2026-01-27 15:35:54.33	1.85	34.64	-35.2	-36.2	23.9	0.00e+00	123	33	0	875560960	42	6370
2026-01-27 15:35:55.34	1.65	34.83	-35.3	-36.2	23.9	0.00e+00	123	33	0	878706688	42	6394
2026-01-27 15:35:56.35	1.45	35.03	-35.4	-36.3	23.7	0.00e+00	122	33	0	881852416	42	6472
2026-01-27 15:35:57.36	1.24	35.22	-35.4	-36.3	23.8	0.00e+00	123	32	0	884998144	42	6476
2026-01-27 15:35:58.37	1.03	35.42	-35.5	-36.5	23.5	0.00e+00	123	33	0	888143872	42	6607
2026-01-27 15:35:59.38	0.82	35.62	-35.6	-36.5	23.5	0.00e+00	123	33	0	891289600	42	6648
2026-01-27 15:36:00.39	0.61	35.81	-35.6	-36.6	23.5	0.00e+00	123	33	0	894435328	42	6682
2026-01-27 15:36:01.40	0.39	36.01	-35.7	-36.7	23.4	0.00e+00	122	33	0	897581056	42	6753
2026-01-27 15:36:02.41	0.17	36.21	-35.7	-36.6	23.4	0.00e+00	123	33	0	900726784	42	6693
2026-01-27 15:36:03.42	359.95	36.41	-35.8	-36.8	23.4	0.00e+00	122	33	0	903872512	44	6084
2026-01-27 15:36:04.43	359.72	36.61	-35.7	-36.7	23.5	0.00e+00	120	32	0	907018240	44	6002
2026-01-27 15:36:05.44	359.49	36.82	-35.8	-36.7	23.5	0.00e+00	123	33	0	910163968	44	6054
2026-01-27 15:36:06.44	359.26	37.02	-35.7	-36.7	23.5	0.00e+00	120	33	0	913309696	44	6016
2026-01-27 15:36:07.45	359.03	37.22	-35.9	-36.9	23.4	0.00e+00	122	32	0	916455424	44	6142
2026-01-27 15:36:08.46	358.79	37.42	-35.9	-36.9	23.2	0.00e+00	123	33	0	919601152	44	6155
2026-01-27 15:36:09.47	358.55	37.63	-36.2	-37.2	23.0	0.00e+00	122	32	0	922746880	44	6365
2026-01-27 15:36:10.48	358.31	37.83	-36.3	-37.2	22.9	0.00e+00	123	32	0	925892608	44	6414
2026-01-27 15:36:11.49	358.07	38.04	-36.2	-37.2	23.1	0.00e+00	123	33	0	929038336	44	6361
2026-01-27 15:36:12.50	357.82	38.24	-36.2	-37.1	23.1	0.00e+00	122	33	0	932184064	44	6340
2026-01-27 15:36:13.51	357.56	38.45	-36.2	-37.1	23.2	0.00e+00	123	33	0	935329792	44	6346
2026-01-27 15:36:14.52	357.31	38.66	-36.3	-37.3	23.1	0.00e+00	122	33	0	938475520	44	6453
2026-01-27 15:36:15.53	357.05	38.87	-36.4	-37.4	22.9	0.00e+00	122	33	0	941621248	44	6539
2026-01-27 15:36:16.54	356.79	39.08	-36.7	-37.7	22.8	0.00e+00	122	32	0	944766976	44	6740
2026-01-27 15:36:17.55	356.52	39.29	-36.5	-37.5	23.0	0.00e+00	122	33	0	947912704	44	6576
2026-01-27 15:36:18.56	356.25	39.50	-36.5	-37.5	22.9	0.00e+00	123	33	0	951058432	44	6618
2026-01-27 15:36:19.57	355.98	39.71	-36.5	-37.5	23.0	0.00e+00	123	33	0	954204160	44	6607
2026-01-27 15:36:20.58	355.70	39.92	-36.0	-37.0	23.4	0.00e+00	123	33	0	957349888	44	6208
2026-01-27 15:36:21.59	355.42	40.13	-35.9	-36.9	23.3	0.00e+00	123	33	0	960495616	44	6148
2026-01-27 15:36:22.60	355.14	40.34	-36.1	-37.0	23.3	0.00e+00	122	33	0	963641344	44	6251
2026-01-27 15:36:23.60	354.85	40.55	-36.1	-37.1	23.2	0.00e+00	123	33	0	966787072	44	6280
2026-01-27 15:36:24.61	354.56	40.77	-36.3	-37.3	23.1	0.00e+00	123	33	0	969932800	44	6424
2026-01-27 15:36:25.62	354.26	40.98	-36.4	-37.4	23.0	0.00e+00	123	33	0	973078528	44	6556
2026-01-27 15:36:26.63	353.97	41.19	-36.6	-37.6	22.9	0.00e+00	122	33	0	976224256	44	6690
2026-01-27 15:36:27.64	353.66	41.41	-36.6	-37.6	22.8	0.00e+00	123	33	0	979369984	44	6672
2026-01-27 15:36:28.65	353.35	41.62	-36.6	-37.5	22.9	0.00e+00	123	33	0	982515712	44	6647
2026-01-27 15:36:29.66	353.04	41.84	-36.6	-37.6	22.9	0.00e+00	123	32	0	985661440	44	6662
2026-01-27 15:36:30.67	352.73	42.05	-36.8	-37.8	22.8	0.00e+00	123	33	0	988807168	46	6086
2026-01-27 15:36:31.68	352.41	42.27	-37.0	-38.0	22.4	0.00e+00	121	33	0	991952896	46	6251
2026-01-27 15:36:32.69	352.08	42.48	-37.1	-38.1	22.4	0.00e+00	123	33	0	995098624	46	6325
2026-01-27 15:36:33.70	351.75	42.70	-37.5	-38.6	22.0	0.00e+00	123	33	0	998244352	46	6661
2026-01-27 15:36:34.71	351.42	42.91	-37.6	-38.7	21.9	0.00e+00	123	33	0	1001390080	48	6033
2026-01-27 15:36:35.72	351.08	43.13	-37.4	-38.4	22.1	0.00e+00	123	33	0	1004535808	48	5857
2026-01-27 15:36:36.73	350.74	43.35	-37.4	-38.4	22.2	0.00e+00	122	33	0	1007681536	48	5851
2026-01-27 15:36:37.74	350.39	43.56	-37.0	-38.0	22.4	0.00e+00	122	33	0	1010827264	48	5556
2026-01-27 15:36:38.75	350.04	43.78	-36.8	-37.8	22.6	0.00e+00	123	33	0	1013972992	48	5427
2026-01-27 15:36:39.76	349.68	43.99	-36.8	-37.8	22.6	0.00e+00	123	33	0	1017118720	46	6112
2026-01-27 15:36:40.77	349.32	44.21	-37.2	-38.2	22.2	0.00e+00	122	33	0	1020264448	46	6385
2026-01-27 15:36:41.78	348.95	44.43	-37.7	-38.7	21.8	0.00e+00	122	32	0	1023410176	46	6778
2026-01-27 15:36:42.78	348.58	44.64	-38.1	-39.2	21.4	0.00e+00	123	32	0	1026555904	48	6399
2026-01-27 15:36:43.79	348.21	44.85	-38.1	-39.2	21.6	0.00e+00	123	32	0	1029701632	48	6369
2026-01-27 15:36:44.80	347.82	45.07	-37.7	-38.7	21.9	0.00e+00	123	32	0	1032847360	48	6040
2026-01-27 15:36:45.81	347.44	45.29	-37.5	-38.5	22.0	0.00e+00	122	33	0	1035993088	48	5876
2026-01-27 15:36:46.82	347.04	45.50	-37.0	-38.0	22.3	0.00e+00	120	33	0	1039138816	48	5536
2026-01-27 15:36:47.83	346.65	45.71	-37.1	-38.2	22.1	0.00e+00	123	33	0	1042284544	48	5665
2026-01-27 15:36:48.84	346.24	45.93	-37.4	-38.4	22.0	0.00e+00	120	33	0	1045430272	48	5853
2026-01-27 15:36:49.85	345.83	46.14	-37.4	-38.4	22.0	0.00e+00	122	32	0	1048576000	48	5855
2026-01-27 15:36:50.86	345.42	46.35	-37.5	-38.6	22.0	0.00e+00	120	33	0	1051721728	48	5938
2026-01-27 15:36:51.87	345.00	46.57	-37.2	-38.2	22.3	0.00e+00	123	33	0	1054867456	48	5681
2026-01-27 15:36:52.88	344.57	46.78	-37.0	-38.0	22.5	0.00e+00	123	33	0	1058013184	48	5575
2026-01-27 15:36:53.89	344.14	46.99	-37.0	-38.0	22.4	0.00e+00	122	33	0	1061158912	48	5548
2026-01-27 15:36:54.90	343.70	47.20	-37.2	-38.2	22.1	0.00e+00	123	33	0	1064304640	48	5706
2026-01-27 15:36:55.71	343.34	47.37	-37.0	-38.0	22.4	0.00e+00	121	33	0	1067450368	48	5555
2026-01-27 15:36:56.86	342.83	47.61	-36.7	-37.7	22.9	0.00e+00	121	33	0	1071644672	46	6034
2026-01-27 15:36:57.73	342.44	47.78	-36.4	-37.3	23.1	0.00e+00	122	33	0	1073741824	46	5778
2026-01-27 15:36:58.88	341.91	48.02	-36.2	-37.2	23.1	0.00e+00	123	33	0	1077936128	46	5678
2026-01-27 15:36:59.75	341.51	48.20	-36.4	-37.4	22.9	0.00e+00	123	32	0	1080033280	46	5827
2026-01-27 15:37:00.90	340.97	48.43	-36.6	-37.6	22.8	0.00e+00	120	33	0	1084227584	46	5952
2026-01-27 15:37:01.77	340.56	48.61	-36.5	-37.4	22.9	0.00e+00	123	33	0	1086324736	46	5855
2026-01-27 15:37:02.92	340.00	48.84	-36.5	-37.5	22.8	0.00e+00	123	33	0	1090519040	46	5893
2026-01-27 15:37:03.79	339.58	49.01	-36.4	-37.3	23.0	0.00e+00	122	33	0	1092616192	46	5777
2026-01-27 15:37:04.94	339.01	49.24	-36.4	-37.4	23.0	0.00e+00	122	33	0	1096810496	46	5809
2026-01-27 15:37:05.81	338.57	49.41	-36.3	-37.3	23.1	0.00e+00	123	33	0	1098907648	46	5754
2026-01-27 15:37:06.96	337.99	49.63	-36.2	-37.2	23.2	0.00e+00	123	33	0	1103101952	46	5694
2026-01-27 15:37:07.83	337.54	49.80	-36.0	-36.9	23.4	0.00e+00	122	33	0	1105199104	46	5523
2026-01-27 15:37:08.98	336.94	50.02	-36.1	-37.0	23.2	0.00e+00	122	33	0	1109393408	46	5563
2026-01-27 15:37:09.85	336.48	50.18	-36.3	-37.3	22.7	0.00e+00	123	33	0	1111490560	46	5783
2026-01-27 15:37:11.00	335.86	50.40	-36.6	-37.6	22.6	0.00e+00	123	33	0	1115684864	46	5973
2026-01-27 15:37:11.87	335.39	50.56	-36.6	-37.7	22.8	0.00e+00	121	33	0	1117782016	46	6014
2026-01-27 15:37:13.02	334.76	50.77	-36.1	-37.1	23.3	0.00e+00	123	33	0	1121976320	46	5595
2026-01-27 15:37:13.88	334.28	50.92	-35.9	-36.8	23.5	0.00e+00	122	33	0	1124073472	46	5457
2026-01-27 15:37:15.04	333.63	51.13	-35.9	-36.8	23.4	0.00e+00	123	33	0	1128267776	46	5456
2026-01-27 15:37:15.90	333.14	51.28	-36.1	-37.1	23.3	0.00e+00	122	33	0	1130364928	46	5598
2026-01-27 15:37:17.06	332.47	51.49	-36.1	-37.1	23.3	0.00e+00	121	33	0	1134559232	46	5604
2026-01-27 15:37:17.92	331.97	51.63	-35.9	-36.9	23.5	0.00e+00	122	33	0	1137704960	46	5494
2026-01-27 15:37:19.08	331.29	51.83	-35.5	-36.4	23.8	0.00e+00	122	33	0	1140850688	44	5811
2026-01-27 15:37:19.94	330.78	51.97	-35.5	-36.4	23.7	0.00e+00	123	33	0	1142947840	44	5825
2026-01-27 15:37:21.09	330.08	52.16	-35.7	-36.7	23.5	0.00e+00	123	33	0	1147142144	44	6039
2026-01-27 15:37:21.96	329.55	52.30	-35.7	-36.6	23.6	0.00e+00	122	33	0	1149239296	44	5992
2026-01-27 15:37:23.11	328.85	52.48	-35.1	-36.0	24.1	0.00e+00	123	33	0	1153433600	44	5557
2026-01-27 15:37:23.98	328.30	52.62	-34.9	-35.8	24.2	0.00e+00	123	33	0	1156579328	44	5437
2026-01-27 15:37:25.13	327.58	52.79	-34.8	-35.7	24.3	0.00e+00	122	33	0	1159725056	44	5399
2026-01-27 15:37:26.00	327.03	52.92	-35.0	-35.9	24.2	0.00e+00	120	33	0	1162870784	44	5527
2026-01-27 15:37:27.15	326.29	53.09	-35.1	-36.1	24.0	0.00e+00	121	33	0	1166016512	44	5595
2026-01-27 15:37:28.02	325.72	53.21	-34.8	-35.8	24.3	0.00e+00	123	33	0	1169162240	44	5406
2026-01-27 15:37:29.17	324.97	53.37	-34.4	-35.3	24.6	0.00e+00	123	33	0	1172307968	42	5741
2026-01-27 15:37:30.03	324.40	53.49	-34.1	-35.0	24.7	0.00e+00	119	33	0	1175453696	42	5544
2026-01-27 15:37:31.18	323.63	53.64	-34.3	-35.2	24.8	0.00e+00	121	33	0	1178599424	42	5668
2026-01-27 15:37:32.05	323.04	53.75	-34.5	-35.4	24.6	0.00e+00	123	33	0	1181745152	42	5809
2026-01-27 15:37:33.20	322.26	53.90	-34.6	-35.5	24.4	0.00e+00	121	33	0	1184890880	42	5900
2026-01-27 15:37:34.06	321.67	54.00	-34.9	-35.8	24.3	0.00e+00	122	33	0	1188036608	42	6072
2026-01-27 15:37:35.21	320.88	54.13	-35.1	-36.0	24.2	0.00e+00	123	33	0	1191182336	42	6216
2026-01-27 15:37:36.08	320.27	54.23	-35.4	-36.3	23.7	0.00e+00	120	33	0	1194328064	42	6497
2026-01-27 15:37:37.23	319.46	54.36	-36.0	-37.0	23.2	0.00e+00	120	33	0	1197473792	44	6240
2026-01-27 15:37:38.10	318.84	54.45	-35.8	-36.8	23.5	0.00e+00	123	33	0	1200619520	44	6081
2026-01-27 15:37:39.25	318.02	54.56	-35.7	-36.7	23.6	0.00e+00	123	33	0	1203765248	44	6022
2026-01-27 15:37:40.12	317.40	54.65	-35.8	-36.8	23.6	0.00e+00	123	33	0	1206910976	44	6087
2026-01-27 15:37:41.27	316.57	54.75	-35.3	-36.2	23.9	0.00e+00	122	33	0	1210056704	44	5691
2026-01-27 15:37:42.14	315.93	54.83	-35.1	-36.0	24.1	0.00e+00	122	33	0	1213202432	44	5538
2026-01-27 15:37:43.29	315.09	54.92	-34.9	-35.8	24.3	0.00e+00	122	33	0	1216348160	44	5428
2026-01-27 15:37:44.16	314.45	54.99	-34.6	-35.5	24.5	0.00e+00	123	33	0	1219493888	42	5873
2026-01-27 15:37:45.31	313.60	55.07	-34.5	-35.4	24.6	0.00e+00	123	33	0	1222639616	42	5801
2026-01-27 15:37:46.18	312.95	55.13	-34.2	-35.0	24.7	0.00e+00	123	33	0	1225785344	42	5592
2026-01-27 15:37:47.34	312.08	55.20	-34.3	-35.2	24.5	0.00e+00	122	33	0	1228931072	42	5702
2026-01-27 15:37:48.20	311.44	55.25	-34.4	-35.3	24.6	0.00e+00	123	33	0	1232076800	42	5757
2026-01-27 15:37:49.35	310.57	55.32	-34.5	-35.4	24.4	0.00e+00	123	33	0	1235222528	42	5836
2026-01-27 15:37:50.22	309.91	55.36	-34.7	-35.6	24.2	0.00e+00	122	33	0	1238368256	42	5990
2026-01-27 15:37:51.37	309.04	55.41	-34.7	-35.7	24.3	0.00e+00	122	33	0	1241513984	42	6002
2026-01-27 15:37:52.24	308.38	55.44	-34.9	-35.8	24.2	0.00e+00	123	33	0	1244659712	42	6112
2026-01-27 15:37:53.39	307.50	55.48	-34.6	-35.5	24.5	0.00e+00	122	33	0	1247805440	42	5870
2026-01-27 15:37:54.26	306.83	55.50	-34.6	-35.5	24.5	0.00e+00	123	32	0	1250951168	42	5877
2026-01-27 15:37:55.41	305.95	55.53	-34.8	-35.7	24.4	0.00e+00	122	33	0	1254096896	42	6020
2026-01-27 15:37:56.28	305.28	55.55	-35.0	-35.9	24.2	0.00e+00	122	33	0	1257242624	42	6176
2026-01-27 15:37:57.43	304.40	55.56	-34.9	-35.7	24.2	0.00e+00	122	33	0	1260388352	42	6059
2026-01-27 15:37:58.30	303.73	55.57	-34.3	-35.2	24.6	0.00e+00	122	33	0	1263534080	42	5662
2026-01-27 15:37:59.45	302.84	55.57	-34.3	-35.2	24.4	0.00e+00	122	33	0	1266679808	42	5670
2026-01-27 15:38:00.31	302.18	55.57	-34.4	-35.3	24.5	0.00e+00	122	33	0	1269825536	42	5769
2026-01-27 15:38:01.47	301.29	55.56	-34.4	-35.3	24.6	0.00e+00	122	33	0	1272971264	42	5763
2026-01-27 15:38:02.33	300.63	55.55	-34.8	-35.7	24.3	0.00e+00	123	33	0	1276116992	42	6040
2026-01-27 15:38:03.49	299.74	55.53	-35.1	-36.0	24.0	0.00e+00	122	33	0	1279262720	42	6258
2026-01-27 15:38:04.35	299.08	55.51	-35.1	-36.0	24.0	0.00e+00	122	33	0	1282408448	42	6232
2026-01-27 15:38:05.51	298.19	55.48	-35.0	-35.9	24.2	0.00e+00	123	33	0	1285554176	42	6193
2026-01-27 15:38:06.37	297.53	55.45	-34.6	-35.5	24.5	0.00e+00	123	33	0	1288699904	42	5913
2026-01-27 15:38:07.53	296.65	55.41	-34.7	-35.6	24.4	0.00e+00	122	33	0	1291845632	42	5968
2026-01-27 15:38:08.40	295.99	55.37	-34.8	-35.7	24.2	0.00e+00	123	33	0	1294991360	42	6062
2026-01-27 15:38:09.55	295.12	55.31	-35.2	-36.2	23.6	0.00e+00	123	33	0	1298137088	42	6367
2026-01-27 15:38:10.41	294.47	55.27	-35.5	-36.5	23.5	0.00e+00	123	33	0	1301282816	42	6574
2026-01-27 15:38:11.57	293.59	55.20	-35.4	-36.3	23.6	0.00e+00	123	33	0	1304428544	42	6491
2026-01-27 15:38:12.43	292.95	55.15	-35.4	-36.3	23.6	0.00e+00	122	33	0	1307574272	42	6495
2026-01-27 15:38:13.59	292.09	55.07	-35.3	-36.2	24.1	0.00e+00	120	33	0	1310720000	42	6380
2026-01-27 15:38:14.45	291.45	55.01	-35.1	-36.0	24.1	0.00e+00	123	33	0	1313865728	42	6225
2026-01-27 15:38:15.61	290.59	54.92	-35.3	-36.2	23.9	0.00e+00	120	33	0	1317011456	42	6381
2026-01-27 15:38:16.47	289.96	54.85	-35.0	-35.9	24.0	0.00e+00	122	33	0	1320157184	42	6159
2026-01-27 15:38:17.62	289.12	54.75	-35.0	-35.9	23.9	0.00e+00	120	33	0	1323302912	42	6182
2026-01-27 15:38:18.49	288.49	54.67	-34.9	-35.8	24.2	0.00e+00	120	33	0	1326448640	42	6112
2026-01-27 15:38:19.64	287.67	54.56	-34.4	-35.2	24.6	0.00e+00	122	33	0	1329594368	42	5718
2026-01-27 15:38:20.50	287.05	54.47	-34.0	-34.8	24.9	0.00e+00	120	33	0	1332740096	42	5463
2026-01-27 15:38:21.66	286.23	54.35	-34.3	-35.2	24.6	0.00e+00	120	33	0	1335885824	42	5700
2026-01-27 15:38:22.52	285.62	54.26	-34.9	-35.7	24.2	0.00e+00	122	33	0	1339031552	42	6061
2026-01-27 15:38:23.67	284.82	54.13	-34.9	-35.8	24.3	0.00e+00	123	33	0	1342177280	42	6065
2026-01-27 15:38:24.54	284.22	54.03	-34.7	-35.6	24.3	0.00e+00	120	33	0	1345323008	42	5972
2026-01-27 15:38:25.69	283.43	53.89	-34.5	-35.4	24.6	0.00e+00	122	33	0	1348468736	42	5831
2026-01-27 15:38:26.55	282.84	53.79	-34.5	-35.4	24.6	0.00e+00	121	33	0	1351614464	42	5817
2026-01-27 15:38:27.70	282.06	53.64	-34.9	-35.8	24.3	0.00e+00	120	33	0	1354760192	42	6095
2026-01-27 15:38:28.57	281.48	53.52	-35.5	-36.5	23.8	0.00e+00	123	33	0	1357905920	42	6585
2026-01-27 15:38:29.72	280.72	53.37	-35.7	-36.6	23.7	0.00e+00	122	33	0	1362100224	42	6690
2026-01-27 15:38:30.58	280.15	53.25	-35.3	-36.2	24.0	0.00e+00	121	33	0	1364197376	42	6373
2026-01-27 15:38:31.74	279.40	53.08	-35.1	-36.0	24.1	0.00e+00	123	33	0	1367343104	42	6230
2026-01-27 15:38:32.60	278.84	52.96	-34.9	-35.8	24.4	0.00e+00	123	33	0	1370488832	42	6101
2026-01-27 15:38:33.76	278.10	52.79	-34.6	-35.4	24.7	0.00e+00	122	33	0	1373634560	42	5841
2026-01-27 15:38:34.62	277.56	52.66	-34.7	-35.6	24.5	0.00e+00	123	33	0	1376780288	42	5933
2026-01-27 15:38:35.78	276.83	52.48	-35.8	-36.8	23.4	0.00e+00	122	33	0	1380974592	44	6067
2026-01-27 15:38:36.65	276.30	52.34	-35.9	-36.8	23.4	0.00e+00	123	33	0	1383071744	44	6132
2026-01-27 15:38:37.80	275.59	52.15	-35.2	-36.1	24.0	0.00e+00	123	33	0	1386217472	44	5640
2026-01-27 15:38:38.67	275.07	52.01	-34.7	-35.5	24.1	0.00e+00	122	33	0	1389363200	44	5273
2026-01-27 15:38:39.82	274.38	51.82	-34.6	-35.5	24.2	0.00e+00	122	33	0	1393557504	42	5894
2026-01-27 15:38:40.69	273.87	51.67	-35.2	-36.1	23.9	0.00e+00	120	33	0	1395654656	42	6308
2026-01-27 15:38:41.84	273.19	51.47	-35.9	-36.8	23.4	0.00e+00	120	33	0	1399848960	44	6128
2026-01-27 15:38:42.71	272.69	51.32	-36.1	-37.0	23.3	0.00e+00	122	33	0	1401946112	44	6259
2026-01-27 15:38:43.86	272.04	51.12	-35.7	-36.6	23.4	0.00e+00	123	33	0	1406140416	44	5978
2026-01-27 15:38:44.73	271.55	50.96	-35.7	-36.7	22.8	0.00e+00	121	33	0	1408237568	44	6017
2026-01-27 15:38:45.88	270.90	50.75	-35.4	-36.4	23.2	0.00e+00	123	33	0	1412431872	44	5837
2026-01-27 15:38:46.75	270.43	50.59	-35.2	-36.1	23.8	0.00e+00	122	33	0	1414529024	44	5648
2026-01-27 15:38:47.90	269.80	50.38	-35.4	-36.3	23.7	0.00e+00	122	33	0	1418723328	44	5781
2026-01-27 15:38:48.76	269.34	50.22	-36.0	-36.9	23.3	0.00e+00	122	33	0	1420820480	44	6187
2026-01-27 15:38:49.92	268.73	50.00	-36.6	-37.6	22.9	0.00e+00	122	33	0	1425014784	44	6679
2026-01-27 15:38:50.78	268.28	49.83	-36.5	-37.5	22.9	0.00e+00	123	33	0	1427111936	44	6575
2026-01-27 15:38:51.94	267.68	49.61	-36.2	-37.2	23.2	0.00e+00	123	33	0	1431306240	44	6362
2026-01-27 15:38:52.80	267.24	49.44	-36.2	-37.1	23.2	0.00e+00	122	33	0	1433403392	44	6345
2026-01-27 15:38:53.95	266.66	49.22	-35.8	-36.8	23.7	0.00e+00	122	33	0	1437597696	44	6071
2026-01-27 15:38:54.82	266.23	49.05	-35.6	-36.5	23.8	0.00e+00	123	33	0	1439694848	44	5901
2026-01-27 15:38:55.97	265.66	48.82	-36.3	-37.2	23.2	0.00e+00	123	33	0	1443889152	44	6398
2026-01-27 15:38:56.84	265.24	48.64	-37.1	-38.1	22.4	0.00e+00	122	33	0	1445986304	46	6296
2026-01-27 15:38:57.99	264.69	48.41	-37.9	-39.1	21.4	0.00e+00	122	33	0	1450180608	48	6278
2026-01-27 15:38:58.86	264.28	48.23	-37.7	-38.8	21.3	0.00e+00	122	33	0	1452277760	48	6075
2026-01-27 15:39:00.01	263.75	48.00	-36.8	-37.9	22.0	0.00e+00	123	33	0	1456472064	48	5480
2026-01-27 15:39:00.88	263.35	47.82	-36.7	-37.7	22.7	0.00e+00	123	33	0	1458569216	46	6044
2026-01-27 15:39:02.03	262.83	47.58	-36.3	-37.2	23.2	0.00e+00	122	33	0	1462763520	46	5698
2026-01-27 15:39:02.89	262.44	47.40	-35.4	-36.3	23.9	0.00e+00	123	33	0	1464860672	44	5759
2026-01-27 15:39:04.05	261.93	47.16	-36.0	-36.9	23.3	0.00e+00	120	33	0	1469054976	44	6184
2026-01-27 15:39:04.91	261.56	46.98	-36.8	-37.8	22.6	0.00e+00	122	33	0	1471152128	44	6872
2026-01-27 15:39:06.07	261.06	46.74	-38.0	-39.1	21.7	0.00e+00	123	33	0	1475346432	48	6307
2026-01-27 15:39:06.93	260.70	46.56	-38.2	-39.4	21.3	0.00e+00	123	33	0	1477443584	48	6527
2026-01-27 15:39:08.08	260.22	46.32	-37.7	-38.8	21.2	0.00e+00	122	33	0	1481637888	48	6127
2026-01-27 15:39:08.95	259.86	46.13	-36.9	-38.0	21.5	0.00e+00	122	33	0	1483735040	48	5562
2026-01-27 15:39:10.10	259.39	45.89	-36.0	-37.0	22.7	0.00e+00	120	33	0	1487929344	46	5538
2026-01-27 15:39:10.97	259.04	45.70	-35.8	-36.7	23.5	0.00e+00	123	33	0	1490026496	46	5355
2026-01-27 15:39:12.12	258.59	45.46	-36.0	-37.0	23.4	0.00e+00	122	33	0	1494220800	46	5536
2026-01-27 15:39:12.99	258.25	45.27	-36.7	-37.6	22.7	0.00e+00	122	33	0	1496317952	46	5987
2026-01-27 15:39:14.14	257.81	45.03	-38.0	-39.1	21.4	0.00e+00	122	33	0	1500512256	48	6323
2026-01-27 15:39:15.01	257.48	44.84	-39.2	-40.4	20.5	0.00e+00	122	33	0	1502609408	50	6573
2026-01-27 15:39:16.16	257.05	44.60	-38.9	-40.1	20.8	0.00e+00	123	33	0	1506803712	50	6337
2026-01-27 15:39:17.02	256.73	44.41	-38.0	-39.1	21.7	0.00e+00	122	33	0	1508900864	50	5616
2026-01-27 15:39:18.18	256.31	44.16	-37.2	-38.2	22.2	0.00e+00	123	33	0	1513095168	48	5695
2026-01-27 15:39:19.04	256.00	43.98	-36.9	-37.9	22.5	0.00e+00	123	33	0	1515192320	48	5481
2026-01-27 15:39:20.20	255.59	43.73	-36.3	-37.3	23.1	0.00e+00	123	33	0	1519386624	46	5731
2026-01-27 15:39:21.06	255.29	43.54	-35.5	-36.4	24.0	0.00e+00	122	33	0	1522532352	44	5798
2026-01-27 15:39:22.22	254.89	43.29	-35.4	-36.2	24.0	0.00e+00	122	33	0	1525678080	44	5710
2026-01-27 15:39:23.08	254.59	43.11	-36.0	-36.9	23.4	0.00e+00	123	33	0	1527775232	44	6175
2026-01-27 15:39:24.24	254.21	42.86	-37.4	-38.4	22.3	0.00e+00	122	33	0	1531969536	46	6527
2026-01-27 15:39:25.10	253.92	42.68	-37.8	-38.9	21.7	0.00e+00	123	33	0	1534066688	48	6174
2026-01-27 15:39:26.26	253.54	42.43	-37.3	-38.4	21.6	0.00e+00	123	33	0	1538260992	48	5806
2026-01-27 15:39:27.12	253.26	42.24	-37.1	-38.2	21.7	0.00e+00	120	33	0	1541406720	48	5661
2026-01-27 15:39:28.28	252.90	42.00	-36.5	-37.5	22.4	0.00e+00	123	33	0	1544552448	46	5912
2026-01-27 15:39:29.14	252.63	41.81	-36.5	-37.5	22.7	0.00e+00	120	33	0	1547698176	46	5869
2026-01-27 15:39:30.29	252.27	41.57	-36.6	-37.6	22.8	0.00e+00	123	33	0	1550843904	46	5945
2026-01-27 15:39:31.15	252.01	41.38	-37.4	-38.4	22.2	0.00e+00	122	33	0	1552941056	46	6536
2026-01-27 15:39:32.30	251.66	41.14	-37.8	-38.9	21.8	0.00e+00	123	33	0	1557135360	48	6139
2026-01-27 15:39:33.17	251.40	40.95	-37.7	-38.7	22.0	0.00e+00	122	33	0	1560281088	48	6056
2026-01-27 15:39:34.32	251.07	40.71	-37.5	-38.5	22.1	0.00e+00	122	33	0	1563426816	48	5916
2026-01-27 15:39:35.19	250.81	40.53	-37.3	-38.3	22.4	0.00e+00	122	33	0	1566572544	48	5763
2026-01-27 15:39:36.34	250.49	40.28	-37.2	-38.2	22.5	0.00e+00	122	33	0	1569718272	48	5679
2026-01-27 15:39:37.21	250.24	40.10	-36.5	-37.4	23.1	0.00e+00	123	33	0	1572864000	46	5839
2026-01-27 15:39:38.36	249.92	39.86	-36.0	-36.9	23.1	0.00e+00	125	33	0	1576009728	46	5530
2026-01-27 15:39:39.22	249.68	39.68	-35.5	-36.5	23.3	0.00e+00	122	33	0	1579155456	44	5867
2026-01-27 15:39:40.38	249.37	39.43	-34.6	-35.4	24.2	0.00e+00	122	33	0	1582301184	42	5847
2026-01-27 15:39:41.24	249.14	39.25	-34.6	-35.5	24.5	0.00e+00	123	33	0	1585446912	42	5871
2026-01-27 15:39:42.40	248.83	39.01	-35.0	-35.9	24.2	0.00e+00	122	33	0	1588592640	42	6141
2026-01-27 15:39:43.26	248.61	38.83	-35.6	-36.5	23.7	0.00e+00	123	33	0	1591738368	42	6604
2026-01-27 15:39:44.42	248.31	38.59	-36.8	-37.8	22.8	0.00e+00	122	33	0	1594884096	46	6099
2026-01-27 15:39:45.28	248.09	38.42	-37.5	-38.6	22.1	0.00e+00	122	33	0	1598029824	46	6660
2026-01-27 15:39:46.44	247.80	38.18	-37.6	-38.7	21.9	0.00e+00	120	33	0	1601175552	46	6729
2026-01-27 15:39:47.30	247.59	38.00	-37.2	-38.2	22.2	0.00e+00	123	33	0	1604321280	46	6404
2026-01-27 15:39:48.46	247.31	37.76	-37.1	-38.1	22.5	0.00e+00	122	33	0	1607467008	46	6318
2026-01-27 15:39:49.32	247.10	37.59	-37.2	-38.2	22.5	0.00e+00	123	33	0	1610612736	46	6353
2026-01-27 15:39:50.48	246.82	37.35	-36.7	-37.7	22.9	0.00e+00	122	33	0	1613758464	46	6031
2026-01-27 15:39:51.34	246.62	37.18	-36.6	-37.6	22.8	0.00e+00	122	33	0	1616904192	46	5983
2026-01-27 15:39:52.50	246.35	36.95	-36.6	-37.6	22.6	0.00e+00	123	33	0	1620049920	46	5966
2026-01-27 15:39:53.36	246.15	36.77	-36.3	-37.2	22.9	0.00e+00	123	33	0	1623195648	46	5725
2026-01-27 15:39:54.51	245.89	36.54	-35.7	-36.7	23.4	0.00e+00	123	33	0	1626341376	46	5351
2026-01-27 15:39:55.38	245.70	36.37	-35.8	-36.7	23.4	0.00e+00	122	33	0	1629487104	44	6017
2026-01-27 15:39:56.53	245.45	36.14	-35.8	-36.7	23.5	0.00e+00	120	33	0	1632632832	44	6035
2026-01-27 15:39:57.39	245.26	35.97	-36.2	-37.1	23.2	0.00e+00	122	33	0	1635778560	44	6318
2026-01-27 15:39:58.55	245.01	35.74	-36.4	-37.4	23.1	0.00e+00	123	33	0	1638924288	44	6507
2026-01-27 15:39:59.41	244.83	35.57	-36.6	-37.6	22.8	0.00e+00	123	33	0	1642070016	44	6714
2026-01-27 15:40:00.56	244.58	35.35	-36.7	-37.7	22.5	0.00e+00	123	33	0	1645215744	46	6023
2026-01-27 15:40:01.43	244.40	35.18	-36.5	-37.6	22.3	0.00e+00	122	33	0	1648361472	46	5950
2026-01-27 15:40:02.59	244.16	34.95	-36.4	-37.4	22.6	0.00e+00	122	33	0	1651507200	46	5842
2026-01-27 15:40:03.45	243.99	34.78	-35.9	-36.9	23.3	0.00e+00	122	33	0	1654652928	46	5480
2026-01-27 15:40:04.60	243.76	34.56	-35.5	-36.4	23.8	0.00e+00	123	33	0	1657798656	44	5833
2026-01-27 15:40:05.47	243.59	34.39	-35.5	-36.4	23.9	0.00e+00	122	33	0	1660944384	44	5795
2026-01-27 15:40:06.62	243.36	34.17	-35.3	-36.2	24.0	0.00e+00	122	33	0	1664090112	44	5673
2026-01-27 15:40:07.49	243.20	34.01	-35.2	-36.1	24.0	0.00e+00	122	32	0	1667235840	44	5652
2026-01-27 15:40:08.64	242.98	33.79	-35.4	-36.3	23.9	0.00e+00	122	33	0	1670381568	44	5758
2026-01-27 15:40:09.50	242.81	33.63	-35.5	-36.4	23.8	0.00e+00	123	33	0	1673527296	44	5846
2026-01-27 15:40:10.66	242.60	33.41	-35.5	-36.4	23.7	0.00e+00	123	33	0	1676673024	44	5816
2026-01-27 15:40:11.52	242.44	33.25	-35.5	-36.4	23.5	0.00e+00	123	33	0	1679818752	44	5845
2026-01-27 15:40:12.67	242.23	33.03	-35.2	-36.2	23.8	0.00e+00	122	33	0	1682964480	44	5662
2026-01-27 15:40:13.54	242.07	32.87	-35.2	-36.1	23.9	0.00e+00	122	33	0	1686110208	44	5623
2026-01-27 15:40:14.69	241.87	32.66	-35.3	-36.2	23.8	0.00e+00	120	33	0	1689255936	44	5705
2026-01-27 15:40:15.56	241.72	32.50	-35.0	-35.9	24.1	0.00e+00	120	33	0	1692401664	44	5520
2026-01-27 15:40:16.71	241.52	32.29	-34.8	-35.7	24.2	0.00e+00	123	33	0	1695547392	44	5400
2026-01-27 15:40:17.58	241.37	32.13	-34.7	-35.6	24.4	0.00e+00	123	33	0	1698693120	42	5939
2026-01-27 15:40:18.73	241.17	31.92	-34.6	-35.5	24.4	0.00e+00	123	33	0	1701838848	42	5907
2026-01-27 15:40:19.59	241.03	31.77	-34.8	-35.7	24.2	0.00e+00	122	33	0	1704984576	42	6018
2026-01-27 15:40:20.75	240.84	31.56	-34.8	-35.7	24.1	0.00e+00	123	33	0	1708130304	42	6000
2026-01-27 15:40:21.61	240.69	31.40	-34.9	-35.8	24.0	0.00e+00	122	33	0	1711276032	42	6107
2026-01-27 15:40:22.77	240.51	31.20	-35.0	-35.9	24.0	0.00e+00	122	33	0	1714421760	42	6193
2026-01-27 15:40:23.63	240.37	31.05	-35.3	-36.2	23.8	0.00e+00	123	33	0	1717567488	42	6376
2026-01-27 15:40:24.79	240.18	30.84	-35.5	-36.4	23.6	0.00e+00	122	33	0	1720713216	42	6559
2026-01-27 15:40:25.65	240.05	30.69	-35.6	-36.6	23.6	0.00e+00	123	33	0	1723858944	42	6664
2026-01-27 15:40:26.80	239.87	30.49	-35.6	-36.5	23.6	0.00e+00	122	33	0	1727004672	42	6647
2026-01-27 15:40:27.67	239.74	30.34	-35.4	-36.3	23.8	0.00e+00	123	33	0	1730150400	42	6497
2026-01-27 15:40:28.83	239.56	30.14	-35.0	-35.9	24.2	0.00e+00	123	33	0	1733296128	42	6151
2026-01-27 15:40:29.69	239.43	29.99	-34.7	-35.6	24.2	0.00e+00	122	32	0	1736441856	42	5975
2026-01-27 15:40:30.84	239.26	29.79	-34.6	-35.5	24.2	0.00e+00	122	33	0	1739587584	42	5866
2026-01-27 15:40:31.70	239.14	29.64	-34.3	-35.2	24.4	0.00e+00	122	33	0	1742733312	42	5671
2026-01-27 15:40:32.86	238.97	29.45	-34.2	-35.0	24.4	0.00e+00	123	32	0	1745879040	42	5588
2026-01-27 15:40:33.72	238.84	29.30	-34.3	-35.1	24.4	0.00e+00	123	33	0	1749024768	42	5652
2026-01-27 15:40:34.87	238.68	29.11	-34.3	-35.2	24.4	0.00e+00	123	33	0	1752170496	42	5680
2026-01-27 15:40:35.74	238.56	28.96	-34.1	-35.0	24.6	0.00e+00	122	33	0	1755316224	42	5560
2026-01-27 15:40:36.89	238.40	28.77	-34.1	-35.0	24.7	0.00e+00	122	33	0	1758461952	42	5541
2026-01-27 15:40:37.75	238.28	28.63	-34.1	-34.9	24.8	0.00e+00	122	33	0	1761607680	42	5509
2026-01-27 15:40:38.91	238.12	28.44	-34.2	-35.1	24.7	0.00e+00	122	33	0	1764753408	42	5607
2026-01-27 15:40:39.77	238.00	28.29	-34.2	-35.1	24.6	0.00e+00	122	33	0	1767899136	42	5626
2026-01-27 15:40:40.92	237.85	28.11	-34.2	-35.1	24.7	0.00e+00	122	33	0	1772093440	42	5604
2026-01-27 15:40:41.79	237.74	27.96	-34.3	-35.2	24.6	0.00e+00	120	33	0	1774190592	42	5661
2026-01-27 15:40:42.94	237.59	27.78	-34.3	-35.2	24.6	0.00e+00	122	33	0	1777336320	42	5700
2026-01-27 15:40:43.80	237.48	27.64	-34.3	-35.2	24.5	0.00e+00	120	33	0	1780482048	42	5711
2026-01-27 15:40:44.96	237.33	27.45	-34.3	-35.2	24.6	0.00e+00	122	33	0	1783627776	42	5717
2026-01-27 15:40:45.82	237.22	27.32	-34.2	-35.0	24.6	0.00e+00	122	33	0	1786773504	42	5590
2026-01-27 15:40:46.98	237.07	27.13	-34.3	-35.2	24.4	0.00e+00	123	33	0	1790967808	42	5705
2026-01-27 15:40:47.84	236.97	27.00	-34.2	-35.1	24.4	0.00e+00	123	33	0	1793064960	42	5647
2026-01-27 15:40:48.99	236.82	26.81	-34.3	-35.2	24.3	0.00e+00	122	33	0	1796210688	42	5710
2026-01-27 15:40:49.86	236.72	26.68	-34.3	-35.2	24.4	0.00e+00	123	33	0	1799356416	42	5675
2026-01-27 15:40:51.02	236.58	26.50	-34.3	-35.2	24.4	0.00e+00	123	33	0	1803550720	42	5725
2026-01-27 15:40:51.88	236.48	26.36	-34.5	-35.4	24.3	0.00e+00	122	33	0	1805647872	42	5828
2026-01-27 15:40:53.04	236.34	26.19	-34.3	-35.2	24.5	0.00e+00	123	33	0	1809842176	42	5712
2026-01-27 15:40:53.90	236.24	26.05	-34.3	-35.2	24.6	0.00e+00	123	33	0	1811939328	42	5686
2026-01-27 15:40:55.06	236.11	25.88	-34.3	-35.2	24.5	0.00e+00	123	33	0	1816133632	42	5684
2026-01-27 15:40:55.92	236.01	25.75	-34.2	-35.1	24.6	0.00e+00	123	33	0	1818230784	42	5621
2026-01-27 15:40:57.08	235.88	25.57	-34.2	-35.1	24.6	0.00e+00	122	33	0	1822425088	42	5644
2026-01-27 15:40:57.94	235.78	25.44	-34.2	-35.1	24.6	0.00e+00	120	33	0	1824522240	42	5595
2026-01-27 15:40:59.09	235.65	25.27	-34.3	-35.2	24.6	0.00e+00	123	33	0	1828716544	42	5673
2026-01-27 15:40:59.96	235.56	25.14	-34.2	-35.1	24.7	0.00e+00	123	33	0	1830813696	42	5604
2026-01-27 15:41:01.11	235.43	24.97	-34.2	-35.1	24.8	0.00e+00	122	33	0	1835008000	42	5604
2026-01-27 15:41:01.98	235.34	24.84	-34.0	-34.9	24.8	0.00e+00	123	33	0	1837105152	42	5516
2026-01-27 15:41:03.13	235.21	24.67	-33.9	-34.7	25.1	0.00e+00	122	33	0	1841299456	42	5385
2026-01-27 15:41:03.99	235.12	24.54	-33.9	-34.8	25.0	0.00e+00	123	33	0	1843396608	42	5421
2026-01-27 15:41:05.15	235.00	24.38	-33.7	-34.5	25.1	0.00e+00	120	33	0	1847590912	40	5914
2026-01-27 15:41:06.01	234.91	24.25	-33.7	-34.6	25.1	0.00e+00	120	33	0	1849688064	40	5946
2026-01-27 15:41:07.17	234.79	24.08	-33.9	-34.8	25.1	0.00e+00	123	33	0	1853882368	40	6069
2026-01-27 15:41:08.03	234.70	23.96	-33.9	-34.7	25.1	0.00e+00	122	33	0	1855979520	40	6036
2026-01-27 15:41:09.19	234.59	23.80	-33.9	-34.8	25.0	0.00e+00	123	33	0	1860173824	40	6098
2026-01-27 15:41:10.06	234.50	23.67	-34.0	-34.9	25.0	0.00e+00	123	33	0	1862270976	40	6185
2026-01-27 15:41:11.21	234.39	23.51	-34.2	-35.1	24.8	0.00e+00	122	33	0	1866465280	40	6279
2026-01-27 15:41:12.08	234.30	23.39	-34.2	-35.1	24.8	0.00e+00	123	33	0	1868562432	40	6304
2026-01-27 15:41:13.23	234.19	23.23	-34.3	-35.2	24.7	0.00e+00	121	33	0	1872756736	40	6401
2026-01-27 15:41:14.10	234.11	23.10	-34.5	-35.4	24.6	0.00e+00	120	33	0	1874853888	40	6499
2026-01-27 15:41:15.25	234.00	22.95	-34.6	-35.5	24.5	0.00e+00	120	33	0	1879048192	40	6619
2026-01-27 15:41:16.11	233.91	22.83	-34.7	-35.7	24.3	0.00e+00	123	33	0	1881145344	40	6739
2026-01-27 15:41:17.27	233.81	22.67	-34.9	-35.8	24.2	0.00e+00	123	33	0	1885339648	42	6109
2026-01-27 15:41:18.14	233.72	22.55	-35.0	-36.0	24.1	0.00e+00	123	33	0	1887436800	42	6222
2026-01-27 15:41:19.29	233.62	22.39	-35.1	-36.0	24.0	0.00e+00	122	33	0	1891631104	42	6246
2026-01-27 15:41:20.16	233.54	22.27	-35.1	-36.1	23.8	0.00e+00	122	33	0	1893728256	42	6289
2026-01-27 15:41:21.31	233.44	22.12	-35.0	-35.9	23.9	0.00e+00	122	33	0	1897922560	42	6181
2026-01-27 15:41:22.17	233.36	22.00	-34.8	-35.7	23.9	0.00e+00	122	33	0	1900019712	42	6062
2026-01-27 15:41:23.32	233.26	21.85	-34.8	-35.7	23.9	0.00e+00	123	33	0	1904214016	42	6057
2026-01-27 15:41:24.19	233.18	21.73	-34.6	-35.6	23.9	0.00e+00	123	33	0	1906311168	42	5942
2026-01-27 15:41:25.34	233.08	21.58	-34.7	-35.6	23.8	0.00e+00	122	33	0	1910505472	42	5993
2026-01-27 15:41:26.21	233.00	21.47	-34.4	-35.3	24.0	0.00e+00	123	33	0	1912602624	42	5773
2026-01-27 15:41:27.36	232.91	21.32	-34.3	-35.2	24.1	0.00e+00	120	33	0	1916796928	42	5716
2026-01-27 15:41:28.23	232.83	21.20	-34.2	-35.1	24.3	0.00e+00	120	33	0	1918894080	42	5656
2026-01-27 15:41:29.38	232.74	21.05	-33.9	-34.8	24.5	0.00e+00	120	33	0	1923088384	42	5463
2026-01-27 15:41:30.25	232.66	20.94	-33.9	-34.8	24.5	0.00e+00	120	33	0	1925185536	42	5416
2026-01-27 15:41:31.40	232.57	20.79	-33.8	-34.7	24.7	0.00e+00	122	33	0	1929379840	42	5354
2026-01-27 15:41:32.27	232.50	20.68	-33.6	-34.5	24.8	0.00e+00	123	33	0	1932525568	40	5870
2026-01-27 15:41:33.42	232.40	20.54	-33.6	-34.5	24.9	0.00e+00	123	33	0	1935671296	40	5890
2026-01-27 15:41:34.29	232.33	20.43	-33.4	-34.3	25.0	0.00e+00	120	33	0	1937768448	40	5740
2026-01-27 15:41:35.44	232.24	20.28	-33.4	-34.2	25.0	0.00e+00	120	33	0	1941962752	40	5725
2026-01-27 15:41:36.30	232.17	20.17	-33.4	-34.3	24.9	0.00e+00	120	33	0	1944059904	40	5750
2026-01-27 15:41:37.46	232.08	20.03	-33.3	-34.1	25.0	0.00e+00	120	33	0	1948254208	40	5647
2026-01-27 15:41:38.32	232.02	19.92	-33.4	-34.3	25.0	0.00e+00	123	33	0	1951399936	40	5750
2026-01-27 15:41:39.48	231.93	19.78	-33.4	-34.3	25.0	0.00e+00	123	33	0	1954545664	40	5750
2026-01-27 15:41:40.34	231.86	19.67	-33.5	-34.4	25.0	0.00e+00	122	33	0	1957691392	40	5808
2026-01-27 15:41:41.50	231.77	19.53	-33.5	-34.3	25.0	0.00e+00	122	33	0	1960837120	40	5779
