passes_logs/2026/01/27/R4.6S_Anadyr/R4.6S_Anadyr__20260127_163633_AQUA_rec.log

#Pass ID: 20260127_163633_AQUA
#Satellite: AQUA
#Configuration: AQUA
#almurnet v.1.7.20251203
#Start time: 2026-01-27 16:36:35

#Version: 2.2.20231116
#Station: R4.6S_Anadyr
#Location: 177.4865 lon 64.73178 lat
#TLE: 1 27424U 02022A   26026.85810808  .00001813  00000+0  37258-3 0  9999
#TLE: 2 27424  98.4101 353.4861 0001866  64.3332 317.5249 14.61864179262622

#Time	Az	El	Level	Level2	SNR	BER	BlckErr	Temp	State	Recorded	gain1	gain2
2026-01-27 16:36:35.64	20.01	0.12	-48.9	-63.8	3.6	1.51e+00	0	31	0	0	60	56110
2026-01-27 16:36:36.65	20.01	0.18	-49.2	-67.0	3.5	3.02e+01	0	32	104	0	60	86610
2026-01-27 16:36:37.66	20.01	0.24	-49.3	-67.1	3.5	3.02e+01	0	32	104	0	60	87436
2026-01-27 16:36:38.67	20.01	0.31	-49.1	-67.1	3.5	3.02e+01	0	32	104	0	60	86691
2026-01-27 16:36:39.68	20.00	0.37	-49.2	-67.0	3.5	3.02e+01	0	32	104	0	60	86446
2026-01-27 16:36:40.69	20.00	0.43	-49.1	-67.0	3.5	3.02e+01	0	32	104	0	60	86602
2026-01-27 16:36:41.70	20.00	0.50	-49.0	-67.0	3.5	3.02e+01	0	32	104	0	60	86163
2026-01-27 16:36:42.71	20.00	0.56	-49.2	-67.0	3.5	3.02e+01	0	32	104	0	60	86567
2026-01-27 16:36:43.72	19.99	0.62	-49.1	-67.1	3.5	3.02e+01	0	32	104	0	60	87110
2026-01-27 16:36:44.73	19.99	0.69	-49.2	-67.1	3.5	3.02e+01	0	32	104	0	60	87346
2026-01-27 16:36:45.74	19.99	0.75	-49.3	-67.1	3.5	3.02e+01	0	32	104	0	60	87289
2026-01-27 16:36:46.75	19.99	0.81	-49.1	-67.1	3.5	3.02e+01	0	32	104	0	60	87307
2026-01-27 16:36:47.76	19.98	0.88	-49.2	-67.0	3.5	3.02e+01	0	32	104	0	60	86216
2026-01-27 16:36:48.77	19.98	0.94	-49.2	-67.1	3.5	3.02e+01	0	32	104	0	60	86896
2026-01-27 16:36:49.78	19.98	1.00	-49.1	-67.1	3.5	3.02e+01	0	32	104	0	60	86821
2026-01-27 16:36:50.79	19.98	1.07	-49.0	-67.0	3.5	3.02e+01	0	32	104	0	60	85667
2026-01-27 16:36:51.80	19.97	1.13	-49.0	-67.0	3.5	3.02e+01	0	32	104	0	60	86093
2026-01-27 16:36:52.81	19.97	1.20	-48.8	-66.8	3.5	3.02e+01	0	32	104	0	60	84511
2026-01-27 16:36:53.82	19.97	1.26	-49.0	-66.8	3.5	3.02e+01	0	32	104	0	60	84292
2026-01-27 16:36:54.83	19.96	1.33	-48.8	-66.7	3.5	3.02e+01	0	32	104	0	60	83056
2026-01-27 16:36:55.82	19.96	1.39	-48.4	-66.5	3.5	3.02e+01	0	32	104	0	60	81222
2026-01-27 16:36:56.84	19.96	1.46	-48.6	-66.4	3.5	3.02e+01	0	32	104	0	60	80775
2026-01-27 16:36:57.85	19.96	1.52	-48.5	-66.3	3.5	3.02e+01	0	32	104	0	60	79603
2026-01-27 16:36:58.86	19.95	1.59	-48.2	-66.2	3.5	3.02e+01	0	32	104	0	60	78332
2026-01-27 16:36:59.86	19.95	1.65	-48.1	-66.0	3.5	3.02e+01	0	32	104	0	60	76716
2026-01-27 16:37:00.87	19.95	1.72	-47.9	-65.2	3.5	3.02e+01	0	32	104	0	60	69806
2026-01-27 16:37:01.89	19.94	1.79	-47.9	-64.8	3.5	3.02e+01	0	32	104	0	60	67079
2026-01-27 16:37:02.90	19.94	1.85	-47.9	-64.6	3.5	3.02e+01	0	32	104	0	60	65627
2026-01-27 16:37:03.90	19.94	1.92	-47.9	-63.8	3.5	3.02e+01	0	32	104	0	60	59396
2026-01-27 16:37:04.92	19.93	1.99	-47.9	-64.7	3.5	3.02e+01	0	32	104	0	60	65937
2026-01-27 16:37:05.93	19.93	2.05	-47.9	-64.7	3.5	3.02e+01	0	32	104	0	60	65846
2026-01-27 16:37:06.94	19.93	2.12	-47.9	-65.1	3.5	3.02e+01	0	32	104	0	60	68866
2026-01-27 16:37:07.95	19.92	2.19	-47.9	-65.0	3.5	3.02e+01	0	32	104	0	60	68812
2026-01-27 16:37:08.96	19.92	2.25	-47.9	-65.3	3.5	3.02e+01	0	32	104	0	60	70532
2026-01-27 16:37:09.97	19.92	2.32	-47.9	-65.4	3.5	3.02e+01	0	32	104	0	60	71791
2026-01-27 16:37:10.97	19.91	2.39	-47.9	-65.6	3.5	3.02e+01	0	32	104	0	60	73436
2026-01-27 16:37:11.99	19.91	2.46	-47.9	-65.5	3.5	3.02e+01	0	32	104	0	60	72606
2026-01-27 16:37:13.00	19.91	2.53	-47.9	-65.0	3.5	3.02e+01	0	32	104	0	60	68463
2026-01-27 16:37:14.01	19.90	2.59	-47.8	-63.2	3.6	3.02e+01	0	32	104	0	60	55325
2026-01-27 16:37:15.02	19.90	2.66	-47.8	-62.1	4.3	3.02e+01	0	32	104	0	60	48939
2026-01-27 16:37:16.03	19.89	2.73	-47.7	-60.8	3.8	3.02e+01	0	32	104	0	60	42013
2026-01-27 16:37:17.04	19.89	2.80	-47.5	-58.2	6.4	3.02e+01	91	32	0	0	60	31368
2026-01-27 16:37:18.05	19.89	2.87	-47.6	-58.3	5.8	3.02e+01	90	32	0	2097152	60	31531
2026-01-27 16:37:19.06	19.88	2.94	-47.6	-59.3	6.0	3.02e+01	92	32	104	2621440	60	35469
2026-01-27 16:37:20.07	19.88	3.01	-47.6	-58.4	6.0	3.02e+01	91	32	0	3145728	60	31895
2026-01-27 16:37:21.08	19.88	3.08	-47.6	-59.9	5.6	3.02e+01	26	32	104	3670016	60	37842
2026-01-27 16:37:22.09	19.87	3.15	-47.5	-57.7	6.7	3.02e+01	92	32	0	4194304	60	29638
2026-01-27 16:37:23.10	19.87	3.22	-47.0	-54.7	10.6	3.02e+01	60	32	0	6291456	60	20797
2026-01-27 16:37:24.11	19.86	3.29	-46.1	-51.4	13.8	3.02e+01	46	32	0	8388608	60	14284
2026-01-27 16:37:25.12	19.86	3.36	-45.1	-49.1	16.3	3.02e+01	58	32	0	9961472	60	10982
2026-01-27 16:37:26.13	19.86	3.43	-43.8	-46.9	18.1	3.02e+01	64	32	0	12058624	60	8502
2026-01-27 16:37:27.14	19.85	3.50	-42.6	-45.0	20.2	3.02e+01	63	32	0	13631488	60	6847
2026-01-27 16:37:28.15	19.85	3.57	-41.3	-43.4	21.8	3.02e+01	58	32	0	15728640	58	6387
2026-01-27 16:37:29.15	19.84	3.64	-41.5	-43.6	21.6	3.02e+01	46	32	0	17825792	56	7346
2026-01-27 16:37:30.16	19.84	3.71	-40.7	-42.6	22.7	3.02e+01	59	32	0	19398656	56	6516
2026-01-27 16:37:31.17	19.83	3.78	-41.3	-43.4	21.9	3.02e+01	59	32	0	21495808	56	7141
2026-01-27 16:37:32.18	19.83	3.85	-41.3	-43.3	21.9	3.02e+01	36	32	0	23068672	56	7105
2026-01-27 16:37:33.19	19.82	3.93	-41.5	-43.6	22.0	3.02e+01	59	32	0	25165824	58	6514
2026-01-27 16:37:34.20	19.82	4.00	-37.5	-38.9	25.9	3.02e+01	46	32	0	27262976	50	6057
2026-01-27 16:37:35.21	19.82	4.07	-44.6	-48.1	18.8	3.02e+01	61	32	0	28835840	60	9761
2026-01-27 16:37:36.22	19.81	4.14	-47.6	-62.5	3.9	3.02e+01	0	32	104	29884416	60	51212
2026-01-27 16:37:37.23	19.81	4.21	-40.8	-42.7	22.8	3.02e+01	50	32	0	30408704	56	6639
2026-01-27 16:37:38.24	19.80	4.29	-47.8	-62.1	3.9	3.02e+01	0	32	104	31457280	60	49194
2026-01-27 16:37:39.25	19.80	4.36	-41.6	-43.8	21.3	3.02e+01	61	32	0	31981568	58	6665
2026-01-27 16:37:40.26	19.79	4.43	-41.5	-43.6	21.6	3.02e+01	56	32	0	34078720	58	6533
2026-01-27 16:37:41.27	19.79	4.51	-40.4	-42.2	23.1	3.02e+01	59	32	0	35651584	56	6268
2026-01-27 16:37:42.28	19.78	4.58	-40.9	-42.8	22.3	3.02e+01	49	32	0	37748736	56	6706
2026-01-27 16:37:43.29	19.78	4.66	-40.2	-41.9	23.4	3.02e+01	59	32	0	39321600	56	6059
2026-01-27 16:37:44.30	19.77	4.73	-39.6	-41.3	23.9	3.02e+01	57	32	0	41418752	54	6300
2026-01-27 16:37:45.31	19.77	4.81	-39.1	-40.7	24.5	3.02e+01	45	32	0	43515904	54	5914
2026-01-27 16:37:46.32	19.76	4.88	-39.1	-40.6	24.7	3.02e+01	56	32	0	45088768	52	6570
2026-01-27 16:37:47.33	19.76	4.96	-38.3	-39.8	25.5	3.02e+01	57	32	0	47185920	52	5971
2026-01-27 16:37:48.34	19.75	5.03	-37.6	-39.1	26.2	3.02e+01	59	32	0	48758784	50	6151
2026-01-27 16:37:49.35	19.75	5.11	-37.3	-38.7	26.5	3.02e+01	60	32	0	50855936	50	5920
2026-01-27 16:37:50.36	19.74	5.18	-37.5	-38.9	26.2	3.02e+01	59	32	0	52953088	50	6041
2026-01-27 16:37:51.37	19.74	5.26	-37.3	-38.7	26.4	3.02e+01	54	32	0	54525952	50	5908
2026-01-27 16:37:52.38	19.73	5.33	-36.9	-38.3	27.0	3.02e+01	58	32	0	56623104	50	5603
2026-01-27 16:37:53.39	19.73	5.41	-36.9	-38.2	26.9	3.02e+01	47	32	0	58195968	48	6264
2026-01-27 16:37:54.39	19.72	5.49	-37.2	-38.6	26.6	3.02e+01	60	32	0	60293120	48	6549
2026-01-27 16:37:55.40	19.71	5.56	-37.1	-38.4	26.7	3.02e+01	59	32	0	62390272	48	6388
2026-01-27 16:37:56.41	19.71	5.64	-37.6	-39.0	26.3	3.02e+01	57	32	0	63963136	48	6838
2026-01-27 16:37:57.42	19.70	5.72	-37.0	-38.3	26.9	3.02e+01	59	32	0	66060288	48	6321
2026-01-27 16:37:58.42	19.70	5.80	-37.1	-38.5	26.8	3.02e+01	50	32	0	68157440	48	6437
2026-01-27 16:37:59.44	19.69	5.87	-37.2	-38.6	26.6	3.02e+01	62	32	0	69730304	48	6546
2026-01-27 16:38:00.44	19.69	5.95	-37.1	-38.5	26.7	3.02e+01	60	32	0	71827456	48	6467
2026-01-27 16:38:01.45	19.68	6.03	-37.0	-38.3	26.9	3.02e+01	46	32	0	73400320	48	6345
2026-01-27 16:38:02.46	19.67	6.11	-36.8	-38.1	26.9	3.02e+01	60	32	0	75497472	48	6196
2026-01-27 16:38:03.47	19.67	6.19	-36.9	-38.3	26.8	3.02e+01	63	32	0	77594624	48	6312
2026-01-27 16:38:04.48	19.66	6.27	-36.8	-38.1	26.8	3.02e+01	58	32	0	79167488	48	6202
2026-01-27 16:38:05.49	19.65	6.35	-36.7	-38.1	27.0	3.02e+01	62	32	0	81264640	48	6158
2026-01-27 16:38:06.50	19.65	6.43	-36.9	-38.2	26.8	3.02e+01	55	32	0	82837504	48	6239
2026-01-27 16:38:07.51	19.64	6.51	-36.8	-38.1	26.9	3.02e+01	57	32	0	84934656	48	6190
2026-01-27 16:38:08.52	19.64	6.59	-36.7	-38.1	27.3	3.02e+01	59	32	0	87031808	48	6139
2026-01-27 16:38:09.53	19.63	6.67	-36.8	-38.2	27.2	3.02e+01	60	32	0	88604672	48	6216
2026-01-27 16:38:10.54	19.62	6.75	-37.0	-38.3	27.0	3.02e+01	53	32	0	90701824	48	6343
2026-01-27 16:38:11.55	19.62	6.83	-37.4	-38.8	26.6	3.02e+01	47	32	0	92798976	48	6679
2026-01-27 16:38:12.56	19.61	6.91	-36.9	-38.2	26.9	3.02e+01	60	32	0	94371840	48	6274
2026-01-27 16:38:13.57	19.60	6.99	-36.8	-38.2	27.3	3.02e+01	58	32	0	96468992	48	6217
2026-01-27 16:38:14.58	19.60	7.08	-36.8	-38.2	27.2	3.02e+01	49	32	0	98041856	48	6216
2026-01-27 16:38:15.59	19.59	7.16	-37.0	-38.3	27.0	3.02e+01	60	32	0	100139008	48	6318
2026-01-27 16:38:16.60	19.58	7.24	-37.0	-38.4	27.3	3.02e+01	63	32	0	102236160	48	6366
2026-01-27 16:38:17.61	19.57	7.32	-36.7	-38.0	27.5	3.02e+01	64	32	0	103809024	48	6083
2026-01-27 16:38:18.62	19.57	7.41	-36.1	-37.4	27.9	3.02e+01	58	32	0	105906176	48	5702
2026-01-27 16:38:19.63	19.56	7.49	-36.2	-37.4	28.0	3.02e+01	53	32	0	107479040	48	5723
2026-01-27 16:38:20.64	19.55	7.57	-36.0	-37.3	28.0	3.02e+01	62	32	0	109576192	48	5612
2026-01-27 16:38:21.65	19.55	7.66	-36.1	-37.3	28.0	3.02e+01	60	32	0	111673344	46	6337
2026-01-27 16:38:22.66	19.54	7.74	-36.1	-37.4	28.0	3.02e+01	44	32	0	113246208	46	6401
2026-01-27 16:38:23.67	19.53	7.83	-36.0	-37.3	28.1	3.02e+01	61	32	0	115343360	46	6285
2026-01-27 16:38:24.68	19.52	7.91	-36.1	-37.3	28.0	3.02e+01	60	32	0	116916224	46	6345
2026-01-27 16:38:25.69	19.52	8.00	-35.9	-37.2	28.3	3.02e+01	56	32	0	119013376	46	6224
2026-01-27 16:38:26.70	19.51	8.09	-35.9	-37.2	28.1	3.02e+01	57	32	0	121110528	46	6215
2026-01-27 16:38:27.70	19.50	8.17	-35.8	-37.1	28.3	3.02e+01	48	32	0	122683392	46	6159
2026-01-27 16:38:28.71	19.49	8.26	-35.9	-37.2	28.2	3.02e+01	60	32	0	124780544	46	6210
2026-01-27 16:38:29.72	19.49	8.34	-35.7	-37.0	28.4	3.02e+01	52	32	0	126353408	46	6085
2026-01-27 16:38:30.73	19.48	8.43	-35.8	-37.1	28.4	3.02e+01	51	32	0	128450560	46	6145
2026-01-27 16:38:31.74	19.47	8.52	-35.9	-37.1	28.2	3.02e+01	59	32	0	130547712	46	6200
2026-01-27 16:38:32.75	19.46	8.61	-35.8	-37.1	28.4	3.02e+01	59	32	0	132120576	46	6151
2026-01-27 16:38:33.76	19.45	8.69	-35.8	-37.0	28.4	3.02e+01	60	32	0	134217728	46	6124
2026-01-27 16:38:34.77	19.44	8.78	-35.7	-36.9	28.5	3.02e+01	58	32	0	136314880	46	6046
2026-01-27 16:38:35.78	19.44	8.87	-35.7	-36.9	28.4	3.02e+01	50	32	0	137887744	46	6057
2026-01-27 16:38:36.79	19.43	8.96	-35.8	-37.0	28.4	3.02e+01	62	32	0	139984896	46	6129
2026-01-27 16:38:37.80	19.42	9.05	-35.4	-36.7	28.7	3.02e+01	63	32	0	141557760	46	5874
2026-01-27 16:38:38.81	19.41	9.14	-35.7	-37.0	28.5	3.02e+01	50	32	0	143654912	46	6071
2026-01-27 16:38:39.82	19.40	9.23	-35.5	-36.7	28.8	3.02e+01	58	32	0	145752064	46	5888
2026-01-27 16:38:40.83	19.39	9.32	-35.6	-36.8	28.6	3.02e+01	62	32	0	147324928	46	5974
2026-01-27 16:38:41.84	19.38	9.41	-35.6	-36.9	28.6	3.02e+01	59	32	0	149422080	46	5998
2026-01-27 16:38:42.85	19.37	9.50	-35.7	-37.0	28.5	3.02e+01	61	32	0	150994944	46	6092
2026-01-27 16:38:43.85	19.37	9.59	-35.4	-36.6	28.8	3.02e+01	50	32	0	153092096	46	5838
2026-01-27 16:38:44.86	19.36	9.69	-35.5	-36.8	28.7	3.02e+01	57	32	0	155189248	46	5945
2026-01-27 16:38:45.87	19.35	9.78	-35.5	-36.8	28.7	3.02e+01	62	32	0	156762112	46	5931
2026-01-27 16:38:46.88	19.34	9.87	-35.5	-36.8	28.7	3.02e+01	54	32	0	158859264	46	5944
2026-01-27 16:38:47.89	19.33	9.97	-35.3	-36.6	28.8	3.02e+01	61	32	0	160432128	46	5811
2026-01-27 16:38:48.90	19.32	10.06	-35.4	-36.6	28.9	3.02e+01	37	32	0	162529280	46	5819
2026-01-27 16:38:49.91	19.31	10.15	-35.4	-36.6	28.8	3.02e+01	60	32	0	164626432	46	5854
2026-01-27 16:38:50.92	19.30	10.25	-35.4	-36.6	28.9	3.02e+01	61	32	0	166199296	46	5838
2026-01-27 16:38:51.93	19.29	10.34	-35.3	-36.6	28.8	3.02e+01	44	32	0	168296448	46	5821
2026-01-27 16:38:52.94	19.28	10.44	-35.3	-36.5	28.8	3.02e+01	56	32	0	169869312	46	5778
2026-01-27 16:38:53.95	19.27	10.53	-35.4	-36.6	28.8	3.02e+01	56	32	0	171966464	46	5854
2026-01-27 16:38:54.96	19.26	10.63	-35.2	-36.5	28.9	3.02e+01	62	32	0	174063616	46	5770
2026-01-27 16:38:55.97	19.25	10.73	-35.2	-36.5	29.0	3.02e+01	57	32	0	175636480	46	5759
2026-01-27 16:38:56.98	19.24	10.82	-35.4	-36.6	28.9	3.02e+01	57	32	0	177733632	46	5831
2026-01-27 16:38:57.98	19.23	10.92	-35.2	-36.5	29.0	3.02e+01	59	32	0	179306496	46	5733
2026-01-27 16:38:59.00	19.22	11.02	-35.2	-36.4	29.0	3.02e+01	57	32	0	181403648	46	5690
2026-01-27 16:39:00.00	19.21	11.12	-35.2	-36.5	29.0	3.02e+01	44	32	0	183500800	46	5743
2026-01-27 16:39:01.01	19.20	11.21	-35.1	-36.3	29.1	3.02e+01	62	32	0	185073664	46	5617
2026-01-27 16:39:02.02	19.19	11.31	-35.2	-36.4	29.0	3.02e+01	59	32	0	187170816	46	5684
2026-01-27 16:39:03.03	19.17	11.41	-35.1	-36.3	29.1	3.02e+01	60	32	0	189267968	46	5644
2026-01-27 16:39:04.04	19.16	11.51	-35.2	-36.4	29.0	3.02e+01	61	32	0	190840832	46	5687
2026-01-27 16:39:05.05	19.15	11.61	-35.2	-36.4	29.1	3.02e+01	57	32	0	192937984	46	5684
2026-01-27 16:39:06.06	19.14	11.71	-35.0	-36.2	29.3	3.02e+01	58	32	0	194510848	46	5551
2026-01-27 16:39:07.07	19.13	11.82	-35.0	-36.3	28.7	3.02e+01	62	32	0	196608000	46	5604
2026-01-27 16:39:08.08	19.12	11.92	-34.9	-36.1	28.8	3.02e+01	46	32	0	198705152	44	6152
2026-01-27 16:39:09.09	19.11	12.02	-35.0	-36.2	28.8	3.02e+01	57	32	0	200278016	44	6213
2026-01-27 16:39:10.10	19.09	12.12	-34.9	-36.2	28.7	3.02e+01	60	32	0	202375168	44	6209
2026-01-27 16:39:11.10	19.08	12.23	-34.9	-36.1	29.0	3.02e+01	56	32	0	204472320	44	6194
2026-01-27 16:39:12.11	19.07	12.33	-34.9	-36.1	29.1	3.02e+01	62	32	0	206045184	44	6192
2026-01-27 16:39:13.12	19.06	12.43	-34.9	-36.1	29.2	3.02e+01	47	32	0	208142336	44	6149
2026-01-27 16:39:14.13	19.05	12.54	-34.8	-36.0	29.0	3.02e+01	57	32	0	209715200	44	6103
2026-01-27 16:39:15.14	19.03	12.64	-34.8	-36.0	29.4	3.02e+01	59	32	0	211812352	44	6073
2026-01-27 16:39:16.15	19.02	12.75	-34.7	-35.9	29.6	3.02e+01	56	32	0	213909504	44	6020
2026-01-27 16:39:17.16	19.01	12.86	-34.8	-36.0	29.3	3.02e+01	58	32	0	215482368	44	6108
2026-01-27 16:39:18.17	19.00	12.96	-34.6	-35.8	29.6	3.02e+01	58	32	0	217579520	44	5957
2026-01-27 16:39:19.18	18.98	13.07	-34.7	-35.9	29.4	3.02e+01	58	32	0	219152384	44	6028
2026-01-27 16:39:20.19	18.97	13.18	-34.6	-35.8	29.7	3.02e+01	56	32	0	221249536	44	5954
2026-01-27 16:39:21.20	18.96	13.29	-34.7	-35.9	29.5	3.02e+01	47	32	0	223346688	44	5999
2026-01-27 16:39:22.21	18.94	13.40	-34.6	-35.7	29.6	3.02e+01	58	32	0	224919552	44	5925
2026-01-27 16:39:23.22	18.93	13.50	-34.6	-35.8	29.5	3.02e+01	57	32	0	227016704	44	5936
2026-01-27 16:39:24.23	18.92	13.61	-34.6	-35.8	29.3	3.02e+01	61	32	0	228589568	44	5989
2026-01-27 16:39:25.23	18.90	13.72	-34.5	-35.7	29.4	3.02e+01	59	32	0	230686720	44	5924
2026-01-27 16:39:26.24	18.89	13.84	-34.6	-35.8	29.3	3.02e+01	50	32	0	232783872	44	5931
2026-01-27 16:39:27.25	18.87	13.95	-34.6	-35.8	29.1	3.02e+01	58	32	0	234356736	44	5934
2026-01-27 16:39:28.27	18.86	14.06	-34.5	-35.7	29.4	3.02e+01	60	32	0	236453888	44	5909
2026-01-27 16:39:29.27	18.85	14.17	-34.6	-35.8	29.2	3.02e+01	45	32	0	238026752	44	5970
2026-01-27 16:39:30.28	18.83	14.29	-34.5	-35.7	29.4	3.02e+01	49	32	0	240123904	44	5882
2026-01-27 16:39:31.29	18.82	14.40	-34.5	-35.7	29.6	3.02e+01	61	32	0	242221056	44	5871
2026-01-27 16:39:32.30	18.80	14.51	-34.7	-35.9	29.6	3.02e+01	60	32	0	243793920	44	6022
2026-01-27 16:39:33.31	18.79	14.63	-34.6	-35.8	29.6	3.02e+01	57	32	0	245891072	44	5979
2026-01-27 16:39:34.32	18.77	14.75	-34.7	-35.9	29.5	3.02e+01	60	32	0	247463936	44	6011
2026-01-27 16:39:35.33	18.76	14.86	-34.7	-35.9	29.5	3.02e+01	59	32	0	249561088	44	6016
2026-01-27 16:39:36.34	18.74	14.98	-34.7	-35.9	29.5	3.02e+01	58	32	0	251658240	44	6011
2026-01-27 16:39:37.35	18.72	15.10	-34.6	-35.7	29.4	3.02e+01	51	32	0	253231104	44	5920
2026-01-27 16:39:38.36	18.71	15.21	-34.6	-35.8	29.3	3.02e+01	60	32	0	255328256	44	5942
2026-01-27 16:39:39.37	18.69	15.33	-34.6	-35.8	29.3	3.02e+01	62	32	0	257425408	44	5933
2026-01-27 16:39:40.37	18.68	15.45	-34.6	-35.8	29.5	3.02e+01	61	32	0	258998272	44	5930
2026-01-27 16:39:41.39	18.66	15.57	-34.5	-35.6	29.5	3.02e+01	58	32	0	261095424	44	5858
2026-01-27 16:39:42.40	18.64	15.69	-34.5	-35.7	29.6	3.02e+01	50	32	0	262668288	44	5884
2026-01-27 16:39:43.41	18.63	15.82	-34.4	-35.6	29.8	3.02e+01	59	32	0	264765440	44	5821
2026-01-27 16:39:44.41	18.61	15.94	-34.4	-35.6	29.9	3.02e+01	59	32	0	266862592	44	5796
2026-01-27 16:39:45.42	18.59	16.06	-34.4	-35.6	29.9	3.02e+01	46	32	0	268435456	44	5803
2026-01-27 16:39:46.43	18.58	16.18	-34.4	-35.5	29.8	3.02e+01	59	32	0	270532608	44	5787
2026-01-27 16:39:47.44	18.56	16.31	-34.4	-35.6	29.6	3.02e+01	62	32	0	272629760	44	5832
2026-01-27 16:39:48.45	18.54	16.43	-34.3	-35.5	29.7	3.02e+01	58	32	0	274202624	44	5772
2026-01-27 16:39:49.46	18.52	16.56	-34.4	-35.6	29.7	3.02e+01	62	32	0	276299776	44	5831
2026-01-27 16:39:50.47	18.51	16.68	-34.3	-35.5	29.8	3.02e+01	59	32	0	277872640	44	5745
2026-01-27 16:39:51.48	18.49	16.81	-34.5	-35.7	29.6	3.02e+01	60	32	0	279969792	44	5880
2026-01-27 16:39:52.49	18.47	16.94	-34.2	-35.4	30.0	3.02e+01	58	32	0	281542656	44	5707
2026-01-27 16:39:53.50	18.45	17.07	-34.5	-35.7	29.8	3.02e+01	50	32	0	283639808	44	5898
2026-01-27 16:39:54.50	18.43	17.20	-34.4	-35.6	29.9	3.02e+01	57	32	0	285736960	44	5806
2026-01-27 16:39:55.51	18.41	17.33	-34.5	-35.7	29.8	3.02e+01	47	32	0	287309824	44	5887
2026-01-27 16:39:56.52	18.39	17.46	-34.4	-35.6	29.9	3.02e+01	60	32	0	289406976	44	5835
2026-01-27 16:39:57.53	18.37	17.59	-34.5	-35.7	29.8	3.02e+01	58	32	0	290979840	44	5859
2026-01-27 16:39:58.54	18.35	17.72	-34.5	-35.6	29.9	3.02e+01	54	32	0	293076992	44	5858
2026-01-27 16:39:59.55	18.33	17.85	-34.6	-35.8	29.6	3.02e+01	61	32	0	295174144	44	5936
2026-01-27 16:40:00.56	18.31	17.99	-34.6	-35.8	29.7	3.02e+01	59	32	0	296747008	44	5930
2026-01-27 16:40:01.57	18.29	18.12	-34.6	-35.8	29.6	3.02e+01	61	32	0	298844160	44	5942
2026-01-27 16:40:02.58	18.27	18.26	-34.6	-35.8	29.7	3.02e+01	61	32	0	300941312	44	5938
2026-01-27 16:40:03.59	18.25	18.40	-34.6	-35.8	29.7	3.02e+01	47	32	0	302514176	44	5946
2026-01-27 16:40:04.60	18.23	18.53	-34.7	-35.9	29.7	3.02e+01	59	32	0	304611328	44	6000
2026-01-27 16:40:05.61	18.21	18.67	-34.8	-36.0	29.6	3.02e+01	60	32	0	306184192	44	6089
2026-01-27 16:40:06.62	18.19	18.81	-34.7	-35.9	29.6	3.02e+01	47	32	0	308281344	44	6009
2026-01-27 16:40:07.63	18.17	18.95	-34.8	-35.9	29.5	3.02e+01	59	32	0	310378496	44	6056
2026-01-27 16:40:08.63	18.14	19.09	-34.8	-36.0	29.4	3.02e+01	60	32	0	311951360	44	6090
2026-01-27 16:40:09.64	18.12	19.23	-34.8	-35.9	29.4	3.02e+01	60	32	0	314048512	44	6064
2026-01-27 16:40:10.65	18.10	19.37	-34.8	-36.0	29.3	3.02e+01	57	32	0	315621376	44	6120
2026-01-27 16:40:11.66	18.08	19.52	-34.7	-35.9	29.5	3.02e+01	51	32	0	317718528	44	6003
2026-01-27 16:40:12.67	18.05	19.66	-34.8	-36.0	29.4	3.02e+01	58	32	0	319815680	44	6093
2026-01-27 16:40:13.68	18.03	19.81	-34.7	-35.8	29.7	3.02e+01	60	32	0	321388544	44	5991
2026-01-27 16:40:14.69	18.01	19.95	-34.8	-35.9	29.6	3.02e+01	51	32	0	323485696	44	6059
2026-01-27 16:40:15.70	17.98	20.10	-34.7	-35.9	29.7	3.02e+01	57	32	0	325582848	44	6052
2026-01-27 16:40:16.71	17.96	20.25	-34.8	-36.0	29.6	3.02e+01	57	32	0	327155712	44	6106
2026-01-27 16:40:17.72	17.93	20.40	-34.7	-35.9	29.7	3.02e+01	58	32	0	329252864	44	6035
2026-01-27 16:40:18.73	17.91	20.55	-34.8	-36.0	29.6	3.02e+01	58	32	0	330825728	44	6076
2026-01-27 16:40:19.74	17.88	20.70	-34.8	-36.0	29.5	3.02e+01	58	32	0	332922880	44	6126
2026-01-27 16:40:20.75	17.86	20.85	-34.8	-36.0	29.4	3.02e+01	61	32	0	335020032	44	6125
2026-01-27 16:40:21.76	17.83	21.00	-34.9	-36.1	29.3	3.02e+01	55	32	0	336592896	44	6197
2026-01-27 16:40:22.77	17.81	21.15	-34.9	-36.1	29.2	3.02e+01	45	32	0	338690048	44	6187
2026-01-27 16:40:23.78	17.78	21.31	-35.1	-36.3	29.1	3.02e+01	63	32	0	340262912	44	6313
2026-01-27 16:40:24.79	17.75	21.47	-35.0	-36.2	29.1	3.02e+01	55	32	0	342360064	44	6221
2026-01-27 16:40:25.80	17.73	21.62	-35.0	-36.2	29.2	3.02e+01	57	32	0	344457216	44	6251
2026-01-27 16:40:26.81	17.70	21.78	-34.9	-36.1	29.2	3.02e+01	61	32	0	346030080	44	6187
2026-01-27 16:40:27.82	17.67	21.94	-35.1	-36.3	29.1	3.02e+01	53	32	0	348127232	44	6323
2026-01-27 16:40:28.83	17.64	22.10	-35.0	-36.2	29.2	3.02e+01	60	32	0	349700096	44	6246
2026-01-27 16:40:29.84	17.62	22.26	-35.0	-36.2	29.4	3.02e+01	62	32	0	351797248	44	6261
2026-01-27 16:40:30.85	17.59	22.42	-34.9	-36.1	29.5	3.02e+01	49	32	0	353894400	44	6180
2026-01-27 16:40:31.86	17.56	22.59	-35.0	-36.2	29.4	3.02e+01	60	32	0	355467264	44	6233
2026-01-27 16:40:32.87	17.53	22.75	-35.1	-36.3	29.4	3.02e+01	59	32	0	357564416	44	6296
2026-01-27 16:40:33.87	17.50	22.92	-35.1	-36.4	29.2	3.02e+01	60	32	0	359137280	44	6356
2026-01-27 16:40:34.89	17.47	23.09	-35.1	-36.3	29.3	3.02e+01	61	32	0	361234432	44	6286
2026-01-27 16:40:35.89	17.44	23.25	-35.1	-36.3	29.3	3.02e+01	48	32	0	363331584	44	6347
2026-01-27 16:40:36.90	17.41	23.42	-35.0	-36.2	29.5	3.02e+01	57	32	0	364904448	44	6264
2026-01-27 16:40:37.91	17.38	23.59	-35.1	-36.3	29.4	3.02e+01	58	32	0	367001600	44	6285
2026-01-27 16:40:38.92	17.34	23.76	-35.0	-36.2	29.4	3.02e+01	59	32	0	369098752	44	6244
2026-01-27 16:40:39.93	17.31	23.94	-35.0	-36.2	29.4	3.02e+01	59	32	0	370671616	44	6243
2026-01-27 16:40:40.94	17.28	24.11	-35.0	-36.2	29.5	3.02e+01	45	32	0	372768768	44	6235
2026-01-27 16:40:41.95	17.25	24.29	-34.9	-36.1	29.6	3.02e+01	58	32	0	374341632	44	6169
2026-01-27 16:40:42.96	17.21	24.46	-34.9	-36.1	29.6	3.02e+01	59	32	0	376438784	44	6140
2026-01-27 16:40:43.97	17.18	24.64	-34.9	-36.1	29.5	3.02e+01	46	32	0	378535936	44	6190
2026-01-27 16:40:44.98	17.15	24.82	-34.9	-36.1	29.6	3.02e+01	60	32	0	380108800	44	6137
2026-01-27 16:40:45.99	17.11	25.00	-35.0	-36.2	29.4	3.02e+01	58	32	0	382205952	44	6224
2026-01-27 16:40:47.00	17.08	25.18	-34.9	-36.1	29.5	3.02e+01	58	32	0	383778816	44	6166
2026-01-27 16:40:48.01	17.04	25.37	-35.0	-36.1	29.5	3.02e+01	60	32	0	385875968	44	6203
2026-01-27 16:40:49.02	17.00	25.55	-34.9	-36.1	29.6	3.02e+01	60	32	0	387973120	44	6162
2026-01-27 16:40:50.02	16.97	25.74	-35.1	-36.3	29.5	3.02e+01	52	32	0	389545984	44	6302
2026-01-27 16:40:51.04	16.93	25.93	-35.0	-36.2	29.5	3.02e+01	60	32	0	391643136	44	6224
2026-01-27 16:40:52.05	16.89	26.11	-35.0	-36.2	29.5	3.02e+01	51	32	0	393740288	44	6231
2026-01-27 16:40:53.06	16.85	26.31	-35.0	-36.2	29.6	3.02e+01	61	32	0	395313152	44	6230
2026-01-27 16:40:54.07	16.81	26.50	-35.0	-36.2	29.5	3.02e+01	59	32	0	397410304	44	6267
2026-01-27 16:40:55.08	16.77	26.69	-34.9	-36.1	29.6	3.02e+01	61	32	0	398983168	44	6151
2026-01-27 16:40:56.08	16.74	26.88	-34.7	-35.9	29.7	3.02e+01	61	32	0	401080320	44	6045
2026-01-27 16:40:57.10	16.69	27.08	-34.7	-35.9	29.7	3.02e+01	47	32	0	403177472	44	6027
2026-01-27 16:40:58.10	16.65	27.28	-34.6	-35.8	29.9	3.02e+01	61	32	0	404750336	44	5967
2026-01-27 16:40:59.11	16.61	27.48	-34.7	-35.9	29.7	3.02e+01	60	32	0	406847488	44	6035
2026-01-27 16:41:00.12	16.57	27.68	-34.8	-36.0	29.7	3.02e+01	45	32	0	408420352	44	6089
2026-01-27 16:41:01.13	16.53	27.88	-34.8	-36.0	29.7	3.02e+01	58	32	0	410517504	44	6105
2026-01-27 16:41:02.14	16.48	28.08	-34.8	-36.0	29.7	3.02e+01	59	32	0	412090368	44	6087
2026-01-27 16:41:03.15	16.44	28.29	-34.8	-36.0	29.7	3.02e+01	57	32	0	414187520	44	6076
2026-01-27 16:41:04.16	16.40	28.50	-34.9	-36.1	29.6	3.02e+01	58	32	0	416284672	44	6146
2026-01-27 16:41:05.17	16.35	28.71	-34.9	-36.1	29.5	3.02e+01	51	32	0	417857536	44	6173
2026-01-27 16:41:06.18	16.30	28.92	-34.6	-35.8	29.9	3.02e+01	59	32	0	419954688	44	5933
2026-01-27 16:41:07.19	16.26	29.13	-34.5	-35.7	29.9	3.02e+01	56	32	0	422051840	44	5893
2026-01-27 16:41:08.19	16.21	29.34	-34.4	-35.6	30.1	3.02e+01	59	32	0	423624704	44	5801
2026-01-27 16:41:09.20	16.16	29.56	-34.4	-35.5	30.1	3.02e+01	60	32	0	425721856	44	5787
2026-01-27 16:41:10.21	16.11	29.78	-34.3	-35.5	30.1	3.02e+01	48	32	0	427294720	44	5731
2026-01-27 16:41:11.22	16.06	30.00	-34.3	-35.4	30.1	3.02e+01	57	32	0	429391872	44	5710
2026-01-27 16:41:12.23	16.01	30.22	-34.3	-35.4	30.2	3.02e+01	57	32	0	431489024	44	5721
2026-01-27 16:41:13.24	15.96	30.44	-34.4	-35.6	30.0	3.02e+01	44	32	0	433061888	44	5819
2026-01-27 16:41:14.25	15.91	30.66	-34.5	-35.6	29.9	3.02e+01	58	32	0	435159040	44	5851
2026-01-27 16:41:15.26	15.86	30.89	-34.4	-35.6	30.0	3.02e+01	59	32	0	437256192	44	5844
2026-01-27 16:41:16.27	15.80	31.12	-34.5	-35.7	29.9	3.02e+01	60	32	0	438829056	44	5906
2026-01-27 16:41:17.28	15.75	31.35	-34.5	-35.7	29.9	3.02e+01	55	32	0	440926208	44	5917
2026-01-27 16:41:18.29	15.69	31.58	-34.4	-35.5	30.0	3.02e+01	58	32	0	442499072	44	5788
2026-01-27 16:41:19.30	15.64	31.82	-34.2	-35.4	30.2	3.02e+01	58	32	0	444596224	44	5667
2026-01-27 16:41:20.31	15.58	32.05	-34.2	-35.3	30.2	3.02e+01	57	32	0	446693376	44	5648
2026-01-27 16:41:21.32	15.52	32.29	-34.2	-35.4	30.2	3.02e+01	54	32	0	448266240	44	5702
2026-01-27 16:41:22.33	15.46	32.53	-34.1	-35.2	30.4	3.02e+01	61	32	0	450363392	44	5578
2026-01-27 16:41:23.34	15.40	32.77	-34.2	-35.4	30.2	3.02e+01	61	32	0	451936256	44	5692
2026-01-27 16:41:24.35	15.34	33.02	-34.5	-35.7	29.9	3.02e+01	59	32	0	454033408	44	5893
2026-01-27 16:41:25.36	15.28	33.27	-34.7	-35.9	29.7	3.02e+01	58	32	0	456130560	44	6032
2026-01-27 16:41:26.37	15.22	33.51	-34.8	-36.0	29.7	3.02e+01	53	32	0	457703424	44	6065
2026-01-27 16:41:27.37	15.15	33.76	-34.8	-36.0	29.7	3.02e+01	59	32	0	459800576	44	6096
2026-01-27 16:41:28.38	15.09	34.02	-34.9	-36.0	29.6	3.02e+01	56	32	0	461373440	44	6130
2026-01-27 16:41:29.39	15.02	34.27	-35.0	-36.2	29.5	3.02e+01	48	32	0	463470592	44	6210
2026-01-27 16:41:30.40	14.96	34.53	-35.1	-36.3	29.5	3.02e+01	60	32	0	465567744	44	6288
2026-01-27 16:41:31.41	14.89	34.79	-35.2	-36.4	29.3	3.02e+01	60	32	0	467140608	44	6399
2026-01-27 16:41:32.42	14.82	35.05	-35.4	-36.6	29.1	3.02e+01	62	32	0	469237760	44	6516
2026-01-27 16:41:33.43	14.75	35.31	-35.5	-36.7	29.1	3.02e+01	57	32	0	470810624	44	6621
2026-01-27 16:41:34.44	14.67	35.58	-35.5	-36.8	29.0	3.02e+01	57	32	0	472907776	44	6657
2026-01-27 16:41:35.45	14.60	35.85	-35.7	-36.9	28.8	3.02e+01	59	32	0	475004928	44	6797
2026-01-27 16:41:36.46	14.53	36.12	-35.9	-37.2	28.7	3.02e+01	58	32	0	476577792	44	6977
2026-01-27 16:41:37.47	14.45	36.39	-35.9	-37.2	28.6	3.02e+01	46	32	0	478674944	46	6230
2026-01-27 16:41:38.48	14.37	36.67	-36.0	-37.2	28.5	3.02e+01	60	32	0	480247808	46	6277
2026-01-27 16:41:39.49	14.29	36.95	-36.0	-37.2	28.6	3.02e+01	58	32	0	482344960	46	6260
2026-01-27 16:41:40.50	14.21	37.23	-36.2	-37.5	28.3	3.02e+01	59	32	0	484442112	46	6440
2026-01-27 16:41:41.51	14.13	37.51	-36.5	-37.8	28.2	3.02e+01	57	32	0	486014976	46	6664
2026-01-27 16:41:42.51	14.05	37.80	-36.5	-37.8	28.2	3.02e+01	51	32	0	488112128	46	6689
2026-01-27 16:41:43.52	13.96	38.08	-36.7	-38.0	28.0	3.02e+01	60	32	0	490209280	46	6858
2026-01-27 16:41:44.53	13.88	38.37	-36.6	-37.9	28.1	3.02e+01	61	32	0	491782144	46	6766
2026-01-27 16:41:45.54	13.79	38.67	-36.6	-37.9	28.1	3.02e+01	59	32	0	493879296	46	6772
2026-01-27 16:41:46.55	13.70	38.96	-36.4	-37.6	28.6	3.02e+01	60	32	0	495452160	46	6552
2026-01-27 16:41:47.56	13.61	39.26	-36.4	-37.6	28.4	3.02e+01	46	32	0	497549312	46	6549
2026-01-27 16:41:48.57	13.51	39.56	-36.4	-37.7	28.4	3.02e+01	60	32	0	499646464	46	6578
2026-01-27 16:41:49.58	13.42	39.87	-36.5	-37.8	28.3	3.02e+01	63	32	0	501219328	46	6686
2026-01-27 16:41:50.58	13.32	40.17	-36.6	-37.9	28.1	3.02e+01	41	32	0	503316480	46	6770
2026-01-27 16:41:51.59	13.22	40.48	-36.6	-37.8	28.3	3.02e+01	57	32	0	505413632	46	6717
2026-01-27 16:41:52.60	13.12	40.79	-36.4	-37.7	28.4	3.02e+01	59	32	0	506986496	46	6581
2026-01-27 16:41:53.62	13.02	41.11	-36.3	-37.6	28.4	3.02e+01	58	32	0	509083648	46	6542
2026-01-27 16:41:54.63	12.91	41.43	-36.2	-37.5	28.5	3.02e+01	62	32	0	510656512	46	6425
2026-01-27 16:41:55.63	12.80	41.75	-36.0	-37.2	28.8	3.02e+01	47	32	0	512753664	46	6249
2026-01-27 16:41:56.64	12.69	42.07	-36.0	-37.2	28.8	3.02e+01	58	32	0	514850816	46	6249
2026-01-27 16:41:57.65	12.58	42.40	-35.8	-37.0	29.0	3.02e+01	57	32	0	516423680	46	6098
2026-01-27 16:41:58.66	12.46	42.73	-35.9	-37.2	28.8	3.02e+01	45	32	0	518520832	46	6217
2026-01-27 16:41:59.67	12.35	43.06	-35.8	-37.0	28.9	3.02e+01	57	32	0	520093696	46	6107
2026-01-27 16:42:00.68	12.23	43.39	-35.5	-36.8	29.2	3.02e+01	60	32	0	522190848	46	5931
2026-01-27 16:42:01.69	12.10	43.73	-35.5	-36.7	29.2	3.02e+01	57	32	0	523763712	46	5908
2026-01-27 16:42:02.70	11.98	44.07	-35.2	-36.4	29.5	3.02e+01	55	32	0	525860864	46	5678
2026-01-27 16:42:03.71	11.85	44.42	-35.1	-36.3	29.5	3.02e+01	45	32	0	527958016	46	5627
2026-01-27 16:42:04.72	11.72	44.77	-35.1	-36.3	29.6	3.02e+01	59	32	0	529530880	46	5601
2026-01-27 16:42:05.73	11.58	45.12	-34.9	-36.1	29.7	3.02e+01	58	32	0	531628032	44	6146
2026-01-27 16:42:06.74	11.45	45.47	-34.9	-36.1	29.6	3.02e+01	45	32	0	533725184	44	6187
2026-01-27 16:42:07.75	11.31	45.83	-35.0	-36.2	29.6	3.02e+01	60	32	0	535298048	44	6241
2026-01-27 16:42:08.75	11.16	46.18	-35.1	-36.3	29.5	3.02e+01	59	32	0	537395200	44	6296
2026-01-27 16:42:09.77	11.01	46.55	-35.1	-36.3	29.5	3.02e+01	57	32	0	538968064	44	6315
2026-01-27 16:42:10.78	10.86	46.92	-34.8	-36.0	29.7	3.02e+01	61	32	0	541065216	44	6074
2026-01-27 16:42:11.79	10.71	47.28	-34.8	-36.0	29.8	3.02e+01	52	32	0	543162368	44	6094
2026-01-27 16:42:12.79	10.55	47.65	-35.1	-36.3	29.5	3.02e+01	61	32	0	544735232	44	6340
2026-01-27 16:42:13.80	10.39	48.03	-35.2	-36.4	29.4	3.02e+01	62	32	0	546832384	44	6378
2026-01-27 16:42:14.81	10.22	48.41	-35.3	-36.5	29.3	3.02e+01	55	32	0	548405248	44	6458
2026-01-27 16:42:15.82	10.05	48.79	-34.9	-36.1	29.7	3.02e+01	61	32	0	550502400	44	6147
2026-01-27 16:42:16.83	9.87	49.17	-34.9	-36.1	29.6	3.02e+01	58	32	0	552599552	44	6154
2026-01-27 16:42:17.84	9.69	49.56	-35.1	-36.3	29.5	3.02e+01	59	32	0	554172416	44	6285
2026-01-27 16:42:18.85	9.51	49.95	-35.1	-36.3	29.4	3.02e+01	63	32	0	556269568	44	6341
2026-01-27 16:42:19.86	9.32	50.35	-34.9	-36.1	29.6	3.02e+01	55	32	0	558366720	44	6173
2026-01-27 16:42:20.87	9.12	50.75	-35.0	-36.2	29.6	3.02e+01	58	32	0	559939584	44	6251
2026-01-27 16:42:21.88	8.92	51.15	-34.8	-35.9	29.7	3.02e+01	60	32	0	562036736	44	6063
2026-01-27 16:42:22.89	8.71	51.55	-34.8	-36.0	29.7	3.02e+01	55	32	0	563609600	44	6109
2026-01-27 16:42:23.90	8.50	51.96	-34.5	-35.7	29.9	3.02e+01	58	32	0	565706752	44	5897
2026-01-27 16:42:24.91	8.28	52.37	-34.3	-35.5	30.2	3.02e+01	46	32	0	567803904	44	5745
2026-01-27 16:42:25.92	8.06	52.78	-34.3	-35.5	30.0	3.02e+01	58	32	0	569376768	44	5754
2026-01-27 16:42:26.93	7.83	53.20	-34.1	-35.3	30.2	3.02e+01	56	32	0	571473920	44	5629
2026-01-27 16:42:27.93	7.59	53.62	-34.3	-35.5	30.1	3.02e+01	48	32	0	573046784	44	5727
2026-01-27 16:42:28.94	7.34	54.04	-34.2	-35.3	30.2	3.02e+01	59	32	0	575143936	44	5651
2026-01-27 16:42:29.95	7.09	54.47	-34.1	-35.2	30.4	3.02e+01	59	32	0	577241088	42	6259
2026-01-27 16:42:30.96	6.83	54.90	-34.2	-35.3	30.3	3.02e+01	59	32	0	578813952	42	6330
2026-01-27 16:42:31.97	6.56	55.33	-34.0	-35.2	30.4	3.02e+01	59	32	0	580911104	42	6238
2026-01-27 16:42:32.98	6.28	55.77	-34.3	-35.4	30.1	3.02e+01	44	32	0	582483968	42	6422
2026-01-27 16:42:33.99	6.00	56.20	-34.6	-35.8	29.8	3.02e+01	57	32	0	584581120	42	6672
2026-01-27 16:42:35.00	5.70	56.65	-34.6	-35.7	29.9	3.02e+01	59	32	0	586678272	42	6643
2026-01-27 16:42:36.01	5.39	57.09	-35.3	-36.5	29.2	3.02e+01	54	32	0	588251136	44	6444
2026-01-27 16:42:37.02	5.08	57.54	-34.9	-36.0	29.6	3.02e+01	58	32	0	590348288	44	6131
2026-01-27 16:42:38.03	4.75	57.99	-35.4	-36.6	29.1	3.02e+01	61	32	0	591921152	44	6515
2026-01-27 16:42:39.04	4.41	58.44	-35.8	-37.0	28.8	3.02e+01	59	32	0	594018304	44	6842
2026-01-27 16:42:40.04	4.07	58.89	-35.8	-37.0	28.8	3.02e+01	60	32	0	596115456	46	6125
2026-01-27 16:42:41.06	3.70	59.35	-35.4	-36.6	29.2	3.02e+01	58	32	0	597688320	46	5802
2026-01-27 16:42:42.06	3.33	59.81	-36.1	-37.3	28.6	3.02e+01	58	32	0	599785472	46	6325
2026-01-27 16:42:43.08	2.93	60.28	-35.9	-37.1	28.7	3.02e+01	62	32	0	601882624	46	6179
2026-01-27 16:42:44.08	2.53	60.74	-36.3	-37.6	28.4	3.02e+01	53	32	0	603455488	46	6507
2026-01-27 16:42:45.10	2.11	61.21	-36.0	-37.3	28.5	3.02e+01	61	32	0	605552640	46	6285
2026-01-27 16:42:46.11	1.67	61.68	-36.1	-37.4	28.4	3.02e+01	64	32	0	607125504	46	6375
2026-01-27 16:42:47.11	1.22	62.15	-36.3	-37.6	28.3	3.02e+01	62	32	0	609222656	46	6518
2026-01-27 16:42:48.12	0.75	62.62	-36.2	-37.4	28.5	3.02e+01	57	32	0	611319808	46	6388
2026-01-27 16:42:49.13	0.26	63.09	-36.5	-37.8	28.0	3.02e+01	46	32	0	612892672	46	6695
2026-01-27 16:42:50.14	359.75	63.57	-36.8	-38.1	27.9	3.02e+01	59	32	0	614989824	48	6143
2026-01-27 16:42:51.15	359.21	64.05	-36.8	-38.1	27.9	3.02e+01	60	32	0	616562688	48	6141
2026-01-27 16:42:52.16	358.66	64.53	-37.2	-38.5	27.5	3.02e+01	58	32	0	618659840	48	6477
2026-01-27 16:42:53.17	358.08	65.01	-38.0	-39.4	26.7	3.02e+01	60	32	0	620756992	48	7162
2026-01-27 16:42:54.18	357.47	65.49	-38.3	-39.8	26.4	3.02e+01	52	32	0	622329856	50	6661
2026-01-27 16:42:55.19	356.84	65.97	-38.1	-39.5	26.7	3.02e+01	59	32	0	624427008	50	6452
2026-01-27 16:42:56.20	356.18	66.45	-38.8	-40.3	25.8	3.02e+01	58	32	0	626524160	50	7066
2026-01-27 16:42:57.21	355.49	66.93	-39.3	-40.8	25.4	3.02e+01	46	32	0	628097024	52	6677
2026-01-27 16:42:58.22	354.76	67.41	-38.4	-39.8	26.3	3.02e+01	58	32	0	630194176	52	5949
2026-01-27 16:42:59.23	354.01	67.89	-39.1	-40.6	25.5	3.02e+01	58	32	0	631767040	52	6533
2026-01-27 16:43:00.24	353.21	68.37	-39.0	-40.5	25.7	3.02e+01	58	32	0	633864192	52	6482
2026-01-27 16:43:01.25	352.37	68.85	-38.4	-39.8	26.3	3.02e+01	59	32	0	635961344	52	5969
2026-01-27 16:43:02.26	351.50	69.32	-38.7	-40.1	26.0	3.02e+01	51	32	0	637534208	52	6202
2026-01-27 16:43:03.27	350.58	69.80	-39.2	-40.8	25.5	3.02e+01	59	32	0	639631360	52	6672
2026-01-27 16:43:04.28	349.61	70.27	-38.7	-40.1	26.1	3.02e+01	59	32	0	641204224	52	6177
2026-01-27 16:43:05.29	348.59	70.73	-38.6	-40.0	26.2	3.02e+01	48	32	0	643301376	52	6096
2026-01-27 16:43:06.30	347.51	71.20	-38.8	-40.3	25.9	3.02e+01	59	32	0	645398528	52	6340
2026-01-27 16:43:07.31	346.38	71.66	-38.1	-39.5	26.6	3.02e+01	55	32	0	646971392	52	5781
2026-01-27 16:43:08.32	345.18	72.11	-38.8	-40.2	25.9	3.02e+01	61	32	0	649068544	52	6272
2026-01-27 16:43:09.33	343.92	72.56	-39.4	-40.9	25.3	3.02e+01	57	32	0	650641408	52	6785
2026-01-27 16:43:10.34	342.59	73.00	-38.7	-40.2	26.0	3.02e+01	49	32	0	652738560	52	6232
2026-01-27 16:43:11.35	341.19	73.44	-38.8	-40.3	25.9	3.02e+01	61	32	0	654835712	52	6307
2026-01-27 16:43:12.35	339.72	73.86	-39.0	-40.5	25.6	3.02e+01	62	32	0	656408576	52	6487
2026-01-27 16:43:13.36	338.16	74.27	-38.7	-40.1	25.9	3.02e+01	48	32	0	658505728	52	6189
2026-01-27 16:43:14.37	336.50	74.68	-38.6	-40.0	26.2	3.02e+01	62	32	0	660078592	52	6106
2026-01-27 16:43:15.38	334.76	75.07	-38.8	-40.3	25.9	3.02e+01	57	32	0	662175744	52	6281
2026-01-27 16:43:16.39	332.91	75.45	-38.0	-39.3	26.7	3.02e+01	58	32	0	664272896	52	5654
2026-01-27 16:43:17.39	330.99	75.82	-38.1	-39.5	26.5	3.02e+01	60	32	0	665845760	50	6462
2026-01-27 16:43:18.40	328.94	76.17	-38.8	-40.3	26.0	3.02e+01	53	32	0	667942912	50	7101
2026-01-27 16:43:19.41	326.78	76.50	-37.1	-38.5	27.5	3.02e+01	60	32	0	670040064	50	5733
2026-01-27 16:43:20.42	324.52	76.82	-37.9	-39.3	26.8	3.02e+01	59	32	0	671612928	50	6348
2026-01-27 16:43:21.43	322.14	77.11	-37.6	-39.1	27.0	3.02e+01	47	32	0	673710080	50	6138
2026-01-27 16:43:22.44	319.65	77.39	-36.9	-38.2	26.0	3.02e+01	56	32	0	675282944	50	5566
2026-01-27 16:43:23.45	317.05	77.64	-37.2	-38.6	27.3	3.02e+01	61	32	0	677380096	48	6544
2026-01-27 16:43:24.46	314.35	77.86	-37.5	-38.9	27.1	3.02e+01	57	32	0	679477248	48	6788
2026-01-27 16:43:25.47	311.56	78.06	-36.8	-38.1	27.8	3.02e+01	59	32	0	681050112	48	6173
2026-01-27 16:43:26.47	308.70	78.22	-38.4	-39.8	26.4	3.02e+01	51	32	0	683147264	50	6718
2026-01-27 16:43:27.48	305.73	78.36	-38.0	-39.3	26.7	3.02e+01	59	32	0	684720128	50	6328
2026-01-27 16:43:28.49	302.70	78.47	-38.0	-39.3	26.6	3.02e+01	61	32	0	686817280	50	6337
2026-01-27 16:43:29.50	299.62	78.54	-38.7	-40.1	26.0	3.02e+01	59	32	0	688914432	52	6170
2026-01-27 16:43:30.51	296.51	78.59	-38.4	-39.8	26.1	3.02e+01	59	32	0	690487296	52	5984
2026-01-27 16:43:31.52	293.38	78.60	-38.4	-39.9	26.4	3.02e+01	62	32	0	692584448	52	6001
2026-01-27 16:43:32.53	290.26	78.57	-37.2	-38.5	27.4	3.02e+01	53	32	0	694157312	50	5771
2026-01-27 16:43:33.54	287.16	78.51	-37.2	-38.5	27.4	3.02e+01	58	32	0	696254464	50	5765
2026-01-27 16:43:34.55	284.10	78.42	-36.7	-38.0	28.0	3.02e+01	49	32	0	698351616	48	6123
2026-01-27 16:43:35.56	281.09	78.30	-37.2	-38.5	27.5	3.02e+01	59	32	0	699924480	48	6486
2026-01-27 16:43:36.57	278.16	78.15	-36.9	-38.2	27.9	3.02e+01	57	32	0	702021632	48	6251
2026-01-27 16:43:37.58	275.31	77.97	-37.3	-38.6	27.3	3.02e+01	60	32	0	703594496	48	6554
2026-01-27 16:43:38.59	272.56	77.76	-37.1	-38.4	27.5	3.02e+01	60	32	0	705691648	48	6421
2026-01-27 16:43:39.59	269.93	77.53	-37.1	-38.4	27.5	3.02e+01	54	32	0	707788800	48	6392
2026-01-27 16:43:40.60	267.38	77.27	-37.3	-38.6	27.5	3.02e+01	60	32	0	709361664	48	6505
2026-01-27 16:43:41.61	264.94	76.98	-37.5	-38.8	27.2	3.02e+01	60	32	0	711458816	48	6682
2026-01-27 16:43:42.62	262.61	76.68	-37.5	-38.8	27.1	3.02e+01	48	32	0	713031680	48	6666
2026-01-27 16:43:43.63	260.39	76.36	-37.6	-38.9	27.2	3.02e+01	61	32	0	715128832	48	6790
2026-01-27 16:43:44.63	258.30	76.02	-38.0	-39.4	26.5	3.02e+01	58	32	0	717225984	48	7203
2026-01-27 16:43:45.64	256.29	75.66	-37.8	-39.2	26.8	3.02e+01	58	32	0	718798848	50	6239
2026-01-27 16:43:46.65	254.39	75.28	-38.2	-39.6	26.5	3.02e+01	59	32	0	720896000	50	6558
2026-01-27 16:43:47.66	252.59	74.90	-38.8	-40.3	25.9	3.02e+01	53	32	0	722993152	52	6300
2026-01-27 16:43:48.67	250.89	74.50	-38.1	-39.5	26.6	3.02e+01	58	32	0	724566016	50	6450
2026-01-27 16:43:49.68	249.27	74.09	-39.0	-40.5	25.4	3.02e+01	59	32	0	726663168	50	7213
2026-01-27 16:43:50.69	247.75	73.66	-39.0	-40.5	25.6	3.02e+01	52	32	0	728236032	52	6475
2026-01-27 16:43:51.70	246.30	73.23	-38.9	-40.4	25.7	3.02e+01	59	32	0	730333184	52	6391
2026-01-27 16:43:52.71	244.93	72.80	-39.1	-40.6	25.4	3.02e+01	59	32	0	732430336	52	6542
2026-01-27 16:43:53.72	243.63	72.35	-39.5	-41.0	25.0	3.02e+01	59	32	0	734003200	52	6880
2026-01-27 16:43:54.73	242.40	71.90	-39.9	-41.6	24.5	3.02e+01	52	32	0	736100352	54	6504
2026-01-27 16:43:55.74	241.23	71.44	-39.1	-40.5	25.5	3.02e+01	54	32	0	738197504	52	6492
2026-01-27 16:43:56.75	240.13	70.98	-40.0	-41.5	24.4	3.02e+01	56	32	0	739770368	52	7288
2026-01-27 16:43:57.76	239.08	70.51	-40.1	-41.7	24.5	3.02e+01	61	32	0	741867520	54	6640
2026-01-27 16:43:58.77	238.08	70.04	-39.7	-41.3	24.9	3.02e+01	45	32	0	743440384	54	6304
2026-01-27 16:43:59.78	237.13	69.57	-40.5	-42.2	23.9	3.02e+01	63	32	0	745537536	54	7021
2026-01-27 16:44:00.79	236.23	69.10	-40.8	-42.6	23.6	3.02e+01	59	32	0	747110400	56	6500
2026-01-27 16:44:01.79	235.38	68.62	-41.3	-43.2	23.1	3.02e+01	61	32	0	749207552	56	6982
2026-01-27 16:44:02.80	234.56	68.14	-40.5	-42.1	24.1	3.02e+01	60	32	0	751304704	56	6200
2026-01-27 16:44:03.81	233.78	67.66	-40.9	-42.6	23.8	3.02e+01	52	32	0	752877568	56	6535
2026-01-27 16:44:04.82	233.04	67.18	-41.0	-42.8	23.6	3.02e+01	58	32	0	754974720	56	6656
2026-01-27 16:44:05.82	232.34	66.71	-39.8	-41.3	23.6	3.02e+01	57	32	0	756547584	56	5641
2026-01-27 16:44:06.83	231.66	66.22	-39.1	-40.6	25.6	3.02e+01	54	32	0	758644736	54	5846
2026-01-27 16:44:07.84	231.01	65.74	-39.3	-40.8	25.5	3.02e+01	58	32	0	760741888	54	5979
2026-01-27 16:44:08.85	230.39	65.26	-39.2	-40.7	25.5	3.02e+01	60	32	0	762314752	54	5893
2026-01-27 16:44:09.86	229.79	64.78	-38.2	-39.6	26.4	3.02e+01	60	32	0	764411904	52	5841
2026-01-27 16:44:10.87	229.22	64.30	-37.6	-38.9	27.1	3.02e+01	62	32	0	766509056	50	6039
2026-01-27 16:44:11.88	228.68	63.82	-37.8	-39.1	26.8	3.02e+01	48	32	0	768081920	50	6201
2026-01-27 16:44:12.89	228.15	63.34	-38.1	-39.5	26.4	3.02e+01	59	32	0	770179072	50	6442
2026-01-27 16:44:13.90	227.65	62.86	-37.3	-38.7	27.4	3.02e+01	52	32	0	771751936	50	5877
2026-01-27 16:44:14.91	227.17	62.39	-36.4	-37.6	28.2	3.02e+01	61	32	0	773849088	48	5827
2026-01-27 16:44:15.92	226.71	61.92	-36.6	-37.9	27.9	3.02e+01	56	32	0	775946240	48	5998
2026-01-27 16:44:16.93	226.26	61.44	-36.8	-38.1	27.8	3.02e+01	44	32	0	777519104	48	6178
2026-01-27 16:44:17.94	225.83	60.98	-37.0	-38.3	27.6	3.02e+01	57	32	0	779616256	48	6336
2026-01-27 16:44:18.95	225.42	60.51	-36.5	-37.8	28.1	3.02e+01	60	32	0	781189120	48	5949
2026-01-27 16:44:19.96	225.02	60.04	-36.4	-37.7	28.1	3.02e+01	48	32	0	783286272	48	5908
2026-01-27 16:44:20.97	224.63	59.58	-36.4	-37.7	28.2	3.02e+01	59	32	0	785383424	48	5901
2026-01-27 16:44:21.97	224.27	59.12	-36.7	-38.0	28.0	3.02e+01	60	32	0	786956288	48	6082
2026-01-27 16:44:22.98	223.91	58.67	-36.8	-38.1	27.6	3.02e+01	62	32	0	789053440	48	6188
2026-01-27 16:44:23.99	223.56	58.21	-36.1	-37.4	28.5	3.02e+01	60	32	0	791150592	48	5661
2026-01-27 16:44:25.00	223.23	57.76	-35.1	-36.3	29.2	3.02e+01	58	32	0	792723456	46	5610
2026-01-27 16:44:26.01	222.91	57.31	-34.8	-36.0	29.6	3.02e+01	58	32	0	794820608	44	6124
2026-01-27 16:44:27.02	222.59	56.86	-34.8	-36.0	29.7	3.02e+01	60	32	0	796393472	44	6116
2026-01-27 16:44:28.03	222.29	56.42	-34.9	-36.1	29.5	3.02e+01	44	32	0	798490624	44	6180
2026-01-27 16:44:29.04	222.00	55.97	-34.8	-36.0	29.7	3.02e+01	57	32	0	800063488	44	6125
2026-01-27 16:44:30.05	221.72	55.54	-33.8	-35.0	30.1	3.02e+01	63	32	0	802160640	44	5432
2026-01-27 16:44:31.06	221.44	55.10	-33.4	-34.5	30.8	3.02e+01	59	32	0	804257792	42	5762
2026-01-27 16:44:32.07	221.18	54.67	-33.8	-35.0	30.6	3.02e+01	61	32	0	805830656	42	6071
2026-01-27 16:44:33.07	220.92	54.24	-34.2	-35.4	30.4	3.02e+01	41	32	0	807927808	42	6366
2026-01-27 16:44:34.08	220.67	53.82	-34.5	-35.7	29.8	3.02e+01	58	32	0	809500672	42	6615
2026-01-27 16:44:35.09	220.43	53.39	-33.9	-35.1	30.5	3.02e+01	60	32	0	811597824	42	6162
2026-01-27 16:44:36.10	220.19	52.97	-33.5	-34.6	30.7	3.02e+01	46	32	0	813694976	42	5848
2026-01-27 16:44:37.11	219.96	52.56	-33.6	-34.7	30.7	3.02e+01	60	32	0	815267840	42	5926
2026-01-27 16:44:38.12	219.74	52.14	-33.8	-35.0	30.5	3.02e+01	61	32	0	817364992	42	6072
2026-01-27 16:44:39.13	219.53	51.73	-33.8	-34.9	30.6	3.02e+01	65	32	0	819462144	42	6060
2026-01-27 16:44:40.14	219.32	51.33	-34.0	-35.2	30.4	3.02e+01	56	32	0	821035008	42	6230
2026-01-27 16:44:41.15	219.11	50.92	-34.6	-35.8	29.9	3.02e+01	49	32	0	823132160	42	6705
2026-01-27 16:44:42.16	218.91	50.52	-34.8	-36.0	29.7	3.02e+01	60	32	0	824705024	42	6826
2026-01-27 16:44:43.17	218.72	50.12	-34.5	-35.6	29.8	3.02e+01	57	32	0	826802176	42	6555
2026-01-27 16:44:44.18	218.53	49.73	-34.1	-35.3	30.3	3.02e+01	57	32	0	828899328	42	6280
2026-01-27 16:44:45.19	218.35	49.34	-34.5	-35.7	29.9	3.02e+01	56	32	0	830472192	42	6638
2026-01-27 16:44:46.20	218.17	48.95	-35.0	-36.2	29.5	3.02e+01	49	32	0	832569344	42	7007
2026-01-27 16:44:47.21	217.99	48.56	-34.9	-36.1	29.3	3.02e+01	57	32	0	834666496	44	6166
2026-01-27 16:44:48.21	217.83	48.19	-34.9	-36.1	29.4	3.02e+01	58	32	0	836239360	44	6197
2026-01-27 16:44:49.22	217.66	47.81	-34.7	-35.9	29.8	3.02e+01	51	32	0	838336512	44	6020
2026-01-27 16:44:50.23	217.50	47.43	-35.0	-36.2	29.4	3.02e+01	59	32	0	839909376	44	6260
2026-01-27 16:44:51.24	217.34	47.06	-34.8	-36.0	29.4	3.02e+01	58	32	0	842006528	44	6115
2026-01-27 16:44:52.25	217.19	46.69	-34.2	-35.4	29.9	3.02e+01	57	32	0	844103680	44	5660
2026-01-27 16:44:53.26	217.04	46.33	-34.1	-35.2	30.1	3.02e+01	58	32	0	845676544	44	5585
2026-01-27 16:44:54.27	216.89	45.96	-34.5	-35.6	30.0	3.02e+01	47	32	0	847773696	44	5838
2026-01-27 16:44:55.29	216.75	45.60	-34.5	-35.7	29.9	3.02e+01	54	32	0	849346560	44	5894
2026-01-27 16:44:56.30	216.61	45.25	-35.1	-36.3	29.4	3.02e+01	56	32	0	851443712	44	6310
2026-01-27 16:44:57.31	216.47	44.89	-35.0	-36.3	29.4	3.02e+01	44	32	0	853540864	44	6293
2026-01-27 16:44:58.32	216.34	44.54	-34.9	-36.1	29.5	3.02e+01	57	32	0	855113728	44	6152
2026-01-27 16:44:59.33	216.21	44.20	-35.0	-36.2	29.4	3.02e+01	57	32	0	857210880	44	6225
2026-01-27 16:45:00.34	216.08	43.85	-35.0	-36.2	29.5	3.02e+01	60	32	0	858783744	44	6257
2026-01-27 16:45:01.35	215.96	43.51	-34.8	-36.0	29.7	3.02e+01	57	32	0	860880896	44	6097
2026-01-27 16:45:02.36	215.83	43.17	-34.5	-35.6	30.0	3.02e+01	53	32	0	862978048	44	5836
2026-01-27 16:45:03.36	215.72	42.84	-34.5	-35.6	30.0	3.02e+01	60	32	0	864550912	44	5845
2026-01-27 16:45:04.37	215.60	42.51	-34.9	-36.1	29.7	3.02e+01	63	32	0	866648064	44	6165
2026-01-27 16:45:05.38	215.49	42.18	-35.2	-36.4	29.3	3.02e+01	47	32	0	868220928	44	6381
2026-01-27 16:45:06.39	215.37	41.85	-35.5	-36.7	29.0	3.02e+01	61	32	0	870318080	44	6631
2026-01-27 16:45:07.40	215.26	41.53	-35.7	-36.9	28.9	3.02e+01	58	32	0	872415232	44	6786
2026-01-27 16:45:08.41	215.16	41.21	-36.0	-37.3	28.6	3.02e+01	58	32	0	873988096	46	6307
2026-01-27 16:45:09.42	215.05	40.89	-36.0	-37.3	28.6	3.02e+01	62	32	0	876085248	46	6293
2026-01-27 16:45:10.43	214.95	40.58	-36.2	-37.5	28.4	3.02e+01	50	32	0	877658112	46	6442
2026-01-27 16:45:11.43	214.85	40.27	-36.1	-37.3	28.5	3.02e+01	60	32	0	879755264	46	6331
2026-01-27 16:45:12.44	214.75	39.96	-36.1	-37.3	28.6	3.02e+01	59	32	0	881852416	46	6332
2026-01-27 16:45:13.45	214.65	39.65	-36.4	-37.6	28.3	3.02e+01	47	32	0	883425280	46	6560
2026-01-27 16:45:14.46	214.56	39.35	-36.6	-37.9	28.1	3.02e+01	57	32	0	885522432	46	6744
2026-01-27 16:45:15.47	214.47	39.05	-36.8	-38.1	27.9	3.02e+01	60	32	0	887619584	46	6938
2026-01-27 16:45:16.48	214.37	38.75	-36.7	-38.0	28.0	3.02e+01	59	32	0	889192448	46	6849
2026-01-27 16:45:17.49	214.28	38.45	-36.8	-38.1	27.9	3.02e+01	61	32	0	891289600	46	6914
2026-01-27 16:45:18.50	214.20	38.16	-36.6	-37.9	28.1	3.02e+01	57	32	0	892862464	46	6764
2026-01-27 16:45:19.51	214.11	37.87	-36.2	-37.4	28.4	3.02e+01	59	32	0	894959616	46	6423
2026-01-27 16:45:20.52	214.03	37.58	-36.2	-37.5	28.4	3.02e+01	57	32	0	897056768	46	6465
2026-01-27 16:45:21.53	213.94	37.30	-36.3	-37.6	28.3	3.02e+01	57	32	0	898629632	46	6515
2026-01-27 16:45:22.54	213.86	37.01	-36.3	-37.5	28.3	3.02e+01	59	32	0	900726784	46	6486
2026-01-27 16:45:23.55	213.78	36.73	-36.0	-37.3	28.5	3.02e+01	46	32	0	902823936	46	6289
2026-01-27 16:45:24.56	213.70	36.46	-36.0	-37.2	28.7	3.02e+01	63	32	0	904396800	46	6252
2026-01-27 16:45:25.57	213.62	36.18	-36.1	-37.3	28.6	3.02e+01	62	32	0	906493952	46	6306
2026-01-27 16:45:26.58	213.55	35.91	-35.7	-37.0	28.9	3.02e+01	49	32	0	908066816	46	6080
2026-01-27 16:45:27.59	213.47	35.64	-35.5	-36.7	29.2	3.02e+01	60	32	0	910163968	46	5871
2026-01-27 16:45:28.60	213.40	35.37	-35.3	-36.5	29.3	3.02e+01	58	32	0	912261120	46	5745
2026-01-27 16:45:29.60	213.33	35.10	-35.4	-36.6	29.2	3.02e+01	59	32	0	913833984	46	5794
2026-01-27 16:45:30.61	213.26	34.84	-35.4	-36.6	29.1	3.02e+01	58	32	0	915931136	46	5844
2026-01-27 16:45:31.62	213.19	34.58	-35.3	-36.5	29.2	3.02e+01	47	32	0	917504000	46	5755
2026-01-27 16:45:32.63	213.12	34.32	-35.2	-36.4	29.4	3.02e+01	63	32	0	919601152	46	5712
2026-01-27 16:45:33.64	213.05	34.06	-35.1	-36.3	29.3	3.02e+01	60	32	0	921698304	46	5651
2026-01-27 16:45:34.65	212.99	33.81	-34.7	-35.9	29.6	3.02e+01	51	32	0	923271168	44	6054
2026-01-27 16:45:35.66	212.92	33.55	-34.5	-35.6	29.8	3.02e+01	56	32	0	925368320	44	5845
2026-01-27 16:45:36.67	212.86	33.30	-34.4	-35.6	29.9	3.02e+01	57	32	0	926941184	44	5825
2026-01-27 16:45:37.68	212.80	33.06	-34.3	-35.4	30.1	3.02e+01	61	32	0	929038336	44	5711
2026-01-27 16:45:38.69	212.74	32.81	-34.1	-35.3	30.2	3.02e+01	58	32	0	931135488	44	5619
2026-01-27 16:45:39.70	212.67	32.57	-34.1	-35.3	30.2	3.02e+01	48	32	0	932708352	44	5631
2026-01-27 16:45:40.71	212.61	32.32	-34.2	-35.3	30.2	3.02e+01	59	32	0	934805504	44	5653
2026-01-27 16:45:41.72	212.56	32.08	-34.2	-35.4	30.1	3.02e+01	59	32	0	936378368	44	5704
2026-01-27 16:45:42.73	212.50	31.85	-34.4	-35.5	30.0	3.02e+01	42	32	0	938475520	44	5788
2026-01-27 16:45:43.73	212.44	31.61	-34.2	-35.4	30.1	3.02e+01	56	32	0	940572672	44	5678
2026-01-27 16:45:44.74	212.39	31.38	-34.3	-35.5	30.1	3.02e+01	57	32	0	942145536	44	5735
2026-01-27 16:45:45.75	212.33	31.15	-34.4	-35.6	30.0	3.02e+01	59	32	0	944242688	44	5811
2026-01-27 16:45:46.76	212.28	30.92	-34.1	-35.3	30.1	3.02e+01	57	32	0	945815552	44	5613
2026-01-27 16:45:47.77	212.22	30.69	-34.1	-35.3	30.1	3.02e+01	46	32	0	947912704	44	5633
2026-01-27 16:45:48.78	212.17	30.46	-34.1	-35.3	30.1	3.02e+01	59	32	0	950009856	44	5600
2026-01-27 16:45:49.79	212.12	30.24	-34.1	-35.2	30.2	3.02e+01	63	32	0	951582720	42	6265
2026-01-27 16:45:50.80	212.07	30.01	-34.0	-35.1	30.2	3.02e+01	45	32	0	953679872	42	6188
2026-01-27 16:45:51.81	212.02	29.79	-33.8	-34.9	30.4	3.02e+01	62	32	0	955777024	42	6046
2026-01-27 16:45:52.82	211.97	29.57	-33.8	-35.0	30.4	3.02e+01	58	32	0	957349888	42	6067
2026-01-27 16:45:53.83	211.92	29.36	-33.7	-34.9	30.6	3.02e+01	59	32	0	959447040	42	6013
2026-01-27 16:45:54.84	211.87	29.14	-33.8	-34.9	30.4	3.02e+01	60	32	0	961019904	42	6034
2026-01-27 16:45:55.85	211.82	28.93	-33.9	-35.1	30.4	3.02e+01	54	32	0	963117056	42	6138
2026-01-27 16:45:56.86	211.78	28.71	-33.9	-35.0	30.3	3.02e+01	63	32	0	965214208	42	6115
2026-01-27 16:45:57.87	211.73	28.50	-33.9	-35.0	30.4	3.02e+01	61	32	0	966787072	42	6113
2026-01-27 16:45:58.88	211.68	28.29	-33.9	-35.0	30.4	3.02e+01	56	32	0	968884224	42	6104
2026-01-27 16:45:59.89	211.64	28.09	-34.1	-35.3	30.2	3.02e+01	56	32	0	970457088	42	6289
2026-01-27 16:46:00.90	211.59	27.88	-34.2	-35.3	30.1	3.02e+01	46	32	0	972554240	42	6331
2026-01-27 16:46:01.91	211.55	27.68	-34.1	-35.3	30.1	3.02e+01	60	32	0	974651392	42	6313
2026-01-27 16:46:02.92	211.51	27.48	-34.2	-35.4	30.1	3.02e+01	59	32	0	976224256	42	6368
2026-01-27 16:46:03.93	211.47	27.27	-34.4	-35.6	30.0	3.02e+01	47	32	0	978321408	42	6541
2026-01-27 16:46:04.93	211.42	27.08	-34.5	-35.7	29.9	3.02e+01	55	32	0	979894272	42	6586
2026-01-27 16:46:05.94	211.38	26.88	-34.6	-35.7	29.8	3.02e+01	57	32	0	981991424	42	6647
2026-01-27 16:46:06.95	211.34	26.68	-34.7	-35.8	29.7	3.02e+01	58	32	0	984088576	42	6726
2026-01-27 16:46:07.96	211.30	26.49	-34.8	-36.0	29.6	3.02e+01	57	32	0	985661440	42	6845
2026-01-27 16:46:08.97	211.26	26.30	-34.8	-36.0	29.6	3.02e+01	58	32	0	987758592	42	6857
2026-01-27 16:46:09.98	211.22	26.10	-34.9	-36.1	29.4	3.02e+01	58	32	0	989331456	42	6915
2026-01-27 16:46:10.99	211.19	25.91	-34.8	-36.0	29.6	3.02e+01	56	32	0	991428608	44	6069
2026-01-27 16:46:12.00	211.15	25.72	-34.8	-36.0	29.5	3.02e+01	46	32	0	993525760	44	6069
2026-01-27 16:46:13.01	211.11	25.54	-34.8	-36.0	29.5	3.02e+01	60	32	0	995098624	44	6119
2026-01-27 16:46:14.02	211.07	25.35	-34.8	-36.0	29.5	3.02e+01	58	32	0	997195776	44	6098
2026-01-27 16:46:15.03	211.04	25.17	-34.9	-36.1	29.5	3.02e+01	54	32	0	999292928	44	6142
2026-01-27 16:46:16.04	211.00	24.98	-34.9	-36.1	29.4	3.02e+01	61	32	0	1000865792	44	6203
2026-01-27 16:46:17.05	210.97	24.80	-35.0	-36.2	29.3	3.02e+01	46	32	0	1002962944	44	6274
2026-01-27 16:46:18.06	210.93	24.62	-35.0	-36.2	29.2	3.02e+01	60	32	0	1004535808	44	6234
2026-01-27 16:46:19.06	210.90	24.44	-34.9	-36.1	29.4	3.02e+01	62	32	0	1006632960	44	6160
2026-01-27 16:46:20.07	210.86	24.27	-34.9	-36.1	29.4	3.02e+01	48	32	0	1008730112	44	6161
2026-01-27 16:46:21.08	210.83	24.09	-34.8	-36.0	29.4	3.02e+01	62	32	0	1010302976	44	6128
2026-01-27 16:46:22.09	210.80	23.91	-34.9	-36.1	29.4	3.02e+01	62	32	0	1012400128	44	6194
2026-01-27 16:46:23.10	210.76	23.74	-35.1	-36.3	29.3	3.02e+01	60	32	0	1013972992	44	6288
2026-01-27 16:46:24.11	210.73	23.57	-35.0	-36.2	29.3	3.02e+01	60	32	0	1016070144	44	6238
2026-01-27 16:46:25.12	210.70	23.39	-34.9	-36.1	29.3	3.02e+01	55	32	0	1018167296	44	6168
2026-01-27 16:46:26.13	210.67	23.22	-35.0	-36.2	29.3	3.02e+01	61	32	0	1019740160	44	6243
2026-01-27 16:46:27.14	210.64	23.06	-35.0	-36.2	29.3	3.02e+01	59	32	0	1021837312	44	6218
2026-01-27 16:46:28.15	210.61	22.89	-35.0	-36.2	29.3	3.02e+01	44	32	0	1023934464	44	6260
2026-01-27 16:46:29.16	210.57	22.72	-35.0	-36.2	29.3	3.02e+01	56	32	0	1025507328	44	6267
2026-01-27 16:46:30.17	210.54	22.55	-35.0	-36.2	29.3	3.02e+01	59	32	0	1027604480	44	6253
2026-01-27 16:46:31.18	210.51	22.39	-35.0	-36.2	29.3	3.02e+01	57	32	0	1029177344	44	6255
2026-01-27 16:46:32.19	210.49	22.23	-35.1	-36.3	29.2	3.02e+01	58	32	0	1031274496	44	6325
2026-01-27 16:46:33.19	210.46	22.07	-35.1	-36.3	29.2	3.02e+01	48	32	0	1033371648	44	6325
2026-01-27 16:46:34.20	210.43	21.90	-35.2	-36.4	29.0	3.02e+01	59	32	0	1034944512	44	6376
2026-01-27 16:46:35.22	210.40	21.74	-35.1	-36.3	29.1	3.02e+01	60	32	0	1037041664	44	6340
2026-01-27 16:46:36.22	210.37	21.59	-35.1	-36.4	29.1	3.02e+01	59	32	0	1038614528	44	6359
2026-01-27 16:46:37.23	210.34	21.43	-35.1	-36.3	29.1	3.02e+01	51	32	0	1040711680	44	6338
2026-01-27 16:46:38.25	210.32	21.27	-35.0	-36.2	29.2	3.02e+01	47	32	0	1042808832	44	6263
2026-01-27 16:46:39.26	210.29	21.11	-35.0	-36.2	29.2	3.02e+01	56	32	0	1044381696	44	6235
2026-01-27 16:46:40.26	210.26	20.96	-34.9	-36.1	29.3	3.02e+01	59	32	0	1046478848	44	6197
2026-01-27 16:46:41.27	210.24	20.81	-34.9	-36.1	29.3	3.02e+01	47	32	0	1048051712	44	6152
2026-01-27 16:46:42.28	210.21	20.65	-34.9	-36.1	29.4	3.02e+01	56	32	0	1050148864	44	6141
2026-01-27 16:46:43.29	210.19	20.50	-34.9	-36.1	29.3	3.02e+01	61	32	0	1052246016	44	6156
2026-01-27 16:46:44.31	210.16	20.35	-34.9	-36.1	29.4	3.02e+01	61	32	0	1053818880	44	6140
2026-01-27 16:46:45.32	210.13	20.20	-34.8	-36.0	29.3	3.02e+01	59	32	0	1055916032	44	6132
2026-01-27 16:46:46.33	210.11	20.05	-34.9	-36.1	29.3	3.02e+01	49	32	0	1057488896	44	6147
2026-01-27 16:46:47.34	210.09	19.90	-34.8	-36.0	29.3	3.02e+01	60	32	0	1059586048	44	6095
2026-01-27 16:46:48.35	210.06	19.76	-34.8	-36.0	29.3	3.02e+01	58	32	0	1061683200	44	6092
2026-01-27 16:46:49.36	210.04	19.61	-34.9	-36.0	29.3	3.02e+01	47	32	0	1063256064	44	6130
2026-01-27 16:46:50.37	210.01	19.47	-34.8	-35.9	29.4	3.02e+01	60	32	0	1065353216	44	6060
2026-01-27 16:46:51.38	209.99	19.32	-34.7	-35.9	29.5	3.02e+01	57	32	0	1067450368	44	6050
2026-01-27 16:46:52.39	209.97	19.18	-34.6	-35.7	29.6	3.02e+01	57	32	0	1069023232	44	5912
2026-01-27 16:46:53.40	209.94	19.04	-34.4	-35.6	29.7	3.02e+01	54	32	0	1071120384	44	5840
2026-01-27 16:46:54.41	209.92	18.89	-34.5	-35.7	29.6	3.02e+01	53	32	0	1072693248	44	5879
2026-01-27 16:46:55.42	209.90	18.75	-34.5	-35.6	29.7	3.02e+01	58	32	0	1074790400	44	5846
2026-01-27 16:46:56.43	209.88	18.61	-34.4	-35.6	29.7	3.02e+01	56	32	0	1076887552	44	5812
2026-01-27 16:46:57.43	209.86	18.48	-34.4	-35.6	29.7	3.02e+01	49	32	0	1078460416	44	5834
2026-01-27 16:46:58.44	209.83	18.34	-34.5	-35.7	29.7	3.02e+01	58	32	0	1080557568	44	5873
2026-01-27 16:46:59.45	209.81	18.20	-34.5	-35.7	29.7	3.02e+01	60	32	0	1082130432	44	5862
2026-01-27 16:47:00.46	209.79	18.07	-34.5	-35.7	29.7	3.02e+01	55	32	0	1084227584	44	5890
2026-01-27 16:47:01.47	209.77	17.93	-34.5	-35.7	29.6	3.02e+01	59	32	0	1086324736	44	5901
2026-01-27 16:47:02.48	209.75	17.80	-34.6	-35.8	29.6	3.02e+01	59	32	0	1087897600	44	5941
2026-01-27 16:47:03.49	209.73	17.66	-34.6	-35.8	29.6	3.02e+01	57	32	0	1089994752	44	5984
2026-01-27 16:47:04.50	209.71	17.53	-34.6	-35.8	29.6	3.02e+01	59	32	0	1092091904	44	5978
2026-01-27 16:47:05.51	209.69	17.40	-34.6	-35.8	29.6	3.02e+01	60	32	0	1093664768	44	5942
2026-01-27 16:47:06.52	209.67	17.26	-34.7	-35.9	29.6	3.02e+01	59	32	0	1095761920	44	6006
2026-01-27 16:47:07.53	209.65	17.13	-34.6	-35.8	29.6	3.02e+01	48	32	0	1097334784	44	5982
2026-01-27 16:47:08.54	209.63	17.00	-34.7	-35.9	29.5	3.02e+01	56	32	0	1099431936	44	5997
2026-01-27 16:47:09.55	209.61	16.87	-34.7	-35.9	29.6	3.02e+01	60	32	0	1101529088	44	6003
2026-01-27 16:47:10.56	209.59	16.75	-34.7	-35.9	29.5	3.02e+01	52	32	0	1103101952	44	6010
2026-01-27 16:47:11.57	209.57	16.62	-34.7	-35.9	29.5	3.02e+01	57	32	0	1105199104	44	6039
2026-01-27 16:47:12.57	209.55	16.49	-34.6	-35.8	29.6	3.02e+01	58	32	0	1106771968	44	5966
2026-01-27 16:47:13.59	209.53	16.36	-34.8	-36.0	29.5	3.02e+01	59	32	0	1108869120	44	6069
2026-01-27 16:47:14.59	209.52	16.24	-34.6	-35.8	29.7	3.02e+01	58	32	0	1110966272	44	5945
2026-01-27 16:47:15.61	209.50	16.11	-34.6	-35.8	29.5	3.02e+01	52	32	0	1112539136	44	5957
2026-01-27 16:47:16.61	209.48	15.99	-34.6	-35.8	29.6	3.02e+01	58	32	0	1114636288	44	5965
2026-01-27 16:47:17.62	209.46	15.87	-34.6	-35.8	29.5	3.02e+01	62	32	0	1116209152	44	5987
2026-01-27 16:47:18.63	209.45	15.74	-34.7	-35.9	29.4	3.02e+01	46	32	0	1118306304	44	6019
2026-01-27 16:47:19.64	209.43	15.62	-34.6	-35.8	29.5	3.02e+01	57	32	0	1120403456	44	5968
2026-01-27 16:47:20.65	209.41	15.50	-34.7	-35.9	29.5	3.02e+01	58	32	0	1121976320	44	6015
2026-01-27 16:47:21.66	209.39	15.38	-34.7	-35.9	29.4	3.02e+01	57	32	0	1124073472	44	6051
2026-01-27 16:47:22.67	209.38	15.26	-34.9	-36.1	29.2	3.02e+01	60	32	0	1125646336	44	6146
2026-01-27 16:47:23.68	209.36	15.14	-34.8	-36.0	29.3	3.02e+01	59	32	0	1127743488	44	6075
2026-01-27 16:47:24.69	209.34	15.02	-34.8	-36.0	29.3	3.02e+01	58	32	0	1129840640	44	6078
2026-01-27 16:47:25.69	209.33	14.90	-34.7	-35.9	29.3	3.02e+01	57	32	0	1131413504	44	6047
2026-01-27 16:47:26.70	209.31	14.79	-34.8	-36.0	29.3	3.02e+01	46	32	0	1133510656	44	6079
2026-01-27 16:47:27.71	209.30	14.67	-34.7	-35.9	29.3	3.02e+01	62	32	0	1135083520	44	6022
2026-01-27 16:47:28.72	209.28	14.55	-34.8	-36.0	29.2	3.02e+01	62	32	0	1137180672	44	6085
2026-01-27 16:47:29.73	209.26	14.44	-34.8	-36.0	29.3	3.02e+01	58	32	0	1139277824	44	6071
2026-01-27 16:47:30.74	209.25	14.32	-34.8	-36.0	29.2	3.02e+01	58	32	0	1140850688	44	6112
2026-01-27 16:47:31.75	209.23	14.21	-34.8	-36.0	29.2	3.02e+01	49	33	0	1142947840	44	6103
2026-01-27 16:47:32.76	209.22	14.09	-34.8	-36.0	29.2	3.02e+01	57	32	0	1145044992	44	6109
2026-01-27 16:47:33.77	209.20	13.98	-34.7	-35.9	29.3	3.02e+01	59	32	0	1146617856	44	6057
2026-01-27 16:47:34.78	209.19	13.87	-34.8	-36.0	29.2	3.02e+01	37	32	0	1148715008	44	6125
2026-01-27 16:47:35.79	209.17	13.76	-34.8	-36.0	29.2	3.02e+01	58	32	0	1150287872	44	6092
2026-01-27 16:47:36.80	209.16	13.64	-34.7	-35.9	29.3	3.02e+01	58	32	0	1152385024	44	6022
2026-01-27 16:47:37.81	209.15	13.53	-34.8	-36.0	29.2	3.02e+01	62	32	0	1154482176	44	6123
2026-01-27 16:47:38.82	209.13	13.42	-34.7	-35.9	29.4	3.02e+01	61	32	0	1156055040	44	6023
2026-01-27 16:47:39.83	209.12	13.31	-34.8	-36.0	29.3	3.02e+01	54	32	0	1158152192	44	6108
2026-01-27 16:47:40.84	209.10	13.20	-34.7	-35.9	29.4	3.02e+01	58	32	0	1159725056	44	6002
2026-01-27 16:47:41.85	209.09	13.09	-34.6	-35.8	29.4	3.02e+01	63	32	0	1161822208	44	5983
2026-01-27 16:47:42.86	209.07	12.99	-34.6	-35.8	29.5	3.02e+01	57	32	0	1163919360	44	5956
2026-01-27 16:47:43.87	209.06	12.88	-34.7	-35.9	29.4	3.02e+01	59	32	0	1165492224	44	6033
2026-01-27 16:47:44.87	209.05	12.77	-34.7	-35.9	29.4	3.02e+01	45	32	0	1167589376	44	6024
2026-01-27 16:47:45.88	209.03	12.67	-34.9	-36.1	29.1	3.02e+01	62	32	0	1169162240	44	6164
2026-01-27 16:47:46.89	209.02	12.56	-34.7	-35.9	29.3	3.02e+01	60	32	0	1171259392	44	6030
2026-01-27 16:47:47.90	209.01	12.45	-34.8	-36.0	29.3	3.02e+01	50	32	0	1173356544	44	6065
2026-01-27 16:47:48.91	209.00	12.35	-34.9	-36.1	29.1	3.02e+01	58	32	0	1174929408	44	6152
2026-01-27 16:47:49.92	208.98	12.24	-34.9	-36.1	29.1	3.02e+01	57	32	0	1177026560	44	6163
2026-01-27 16:47:50.93	208.97	12.14	-35.0	-36.3	29.0	3.02e+01	61	32	0	1178599424	44	6281
2026-01-27 16:47:51.94	208.96	12.04	-35.1	-36.3	29.0	3.02e+01	58	32	0	1180696576	44	6321
2026-01-27 16:47:52.95	208.94	11.93	-35.0	-36.2	29.1	3.02e+01	47	32	0	1182793728	44	6249
2026-01-27 16:47:53.96	208.93	11.83	-35.0	-36.3	29.0	3.02e+01	56	32	0	1184366592	44	6282
2026-01-27 16:47:54.97	208.92	11.73	-35.0	-36.2	29.0	3.02e+01	55	32	0	1186463744	44	6256
2026-01-27 16:47:55.98	208.91	11.63	-35.0	-36.2	29.0	3.02e+01	44	32	0	1188560896	44	6267
2026-01-27 16:47:56.99	208.90	11.52	-35.1	-36.3	29.0	3.02e+01	59	32	0	1190133760	44	6310
2026-01-27 16:47:57.99	208.88	11.42	-35.1	-36.4	28.9	3.02e+01	61	32	0	1192230912	44	6373
2026-01-27 16:47:59.00	208.87	11.32	-35.1	-36.3	28.9	3.02e+01	62	32	0	1193803776	44	6333
2026-01-27 16:48:00.01	208.86	11.22	-35.1	-36.3	28.9	3.02e+01	58	32	0	1195900928	44	6348
2026-01-27 16:48:01.02	208.85	11.12	-35.1	-36.3	29.0	3.02e+01	58	32	0	1197998080	44	6328
2026-01-27 16:48:02.03	208.84	11.02	-35.1	-36.3	28.9	3.02e+01	62	32	0	1199570944	44	6341
2026-01-27 16:48:03.04	208.83	10.93	-35.1	-36.4	28.8	3.02e+01	61	32	0	1201668096	44	6365
2026-01-27 16:48:04.05	208.81	10.83	-35.2	-36.5	28.8	3.02e+01	47	32	0	1203240960	44	6445
2026-01-27 16:48:05.06	208.80	10.73	-35.4	-36.6	28.7	3.02e+01	60	32	0	1205338112	44	6553
2026-01-27 16:48:06.07	208.79	10.63	-35.4	-36.6	28.6	3.02e+01	58	32	0	1207435264	44	6542
