passes_logs/2026/01/27/R4.6S_Anadyr/R4.6S_Anadyr__20260127_220619_NOAA_21_JPSS-2_rec.log

#Pass ID: 20260127_220619_NOAA 21 (JPSS-2)
#Satellite: NOAA 21 (JPSS-2)
#Configuration: NOAA-21
#almurnet v.1.7.20251203
#Start time: 2026-01-27 22:06:20

#Version: 2.2.20231116
#Station: R4.6S_Anadyr
#Location: 177.4865 lon 64.73178 lat
#TLE: 1 54234U 22150A   26027.55906748  .00000170  00000+0  10132-3 0  9996
#TLE: 2 54234  98.7510 328.3076 0000860 204.4692 155.6443 14.19540154166599

#Time	Az	El	Level	Level2	SNR	BER	BlckErr	Temp	State	Recorded	gain1	gain2
2026-01-27 22:06:20.09	105.43	0.06	-45.4	-59.8	3.5	1.51e+00	0	29	0	0	60	39681
2026-01-27 22:06:21.07	105.38	0.12	-48.8	-61.7	3.5	1.52e+00	0	31	104	0	60	42476
2026-01-27 22:06:22.04	105.34	0.17	-48.8	-61.6	3.5	1.52e+00	0	31	104	0	60	42398
2026-01-27 22:06:23.02	105.29	0.23	-48.8	-61.6	3.5	1.52e+00	0	31	104	0	60	42056
2026-01-27 22:06:24.00	105.24	0.28	-48.7	-61.6	3.5	1.52e+00	0	31	104	0	60	42231
2026-01-27 22:06:24.98	105.19	0.33	-48.8	-61.6	3.5	1.52e+00	0	31	104	0	60	42360
2026-01-27 22:06:25.96	105.14	0.39	-48.8	-61.6	3.5	1.52e+00	0	31	104	0	60	42360
2026-01-27 22:06:26.94	105.09	0.44	-48.8	-61.6	3.5	1.51e+00	0	31	104	0	60	42140
2026-01-27 22:06:27.92	105.04	0.50	-48.7	-61.6	3.5	1.52e+00	0	31	104	0	60	42163
2026-01-27 22:06:28.90	104.99	0.55	-48.8	-61.7	3.5	1.52e+00	0	31	104	0	60	42558
2026-01-27 22:06:29.89	104.94	0.61	-48.8	-61.7	3.5	1.51e+00	0	31	104	0	60	42535
2026-01-27 22:06:30.87	104.89	0.67	-48.8	-61.6	3.5	1.52e+00	0	31	104	0	60	42371
2026-01-27 22:06:31.85	104.84	0.72	-48.4	-61.7	3.5	1.52e+00	0	31	104	0	60	42542
2026-01-27 22:06:32.83	104.79	0.78	-48.8	-61.7	3.5	1.52e+00	0	31	104	0	60	42912
2026-01-27 22:06:33.81	104.74	0.83	-48.4	-61.7	3.5	1.52e+00	0	31	104	0	60	42682
2026-01-27 22:06:34.79	104.69	0.89	-48.7	-61.6	3.5	1.52e+00	0	31	104	0	60	42440
2026-01-27 22:06:35.77	104.64	0.94	-48.7	-61.6	3.5	1.51e+00	0	31	104	0	60	42321
2026-01-27 22:06:36.75	104.59	1.00	-48.8	-61.6	3.5	1.52e+00	0	31	104	0	60	42298
2026-01-27 22:06:37.73	104.54	1.05	-48.7	-61.5	3.5	1.51e+00	0	31	104	0	60	41924
2026-01-27 22:06:38.71	104.48	1.11	-48.6	-61.6	3.5	1.52e+00	0	31	104	0	60	42011
2026-01-27 22:06:39.69	104.43	1.17	-48.6	-61.5	3.5	1.52e+00	0	31	104	0	60	41487
2026-01-27 22:06:40.67	104.38	1.22	-48.5	-61.4	3.5	1.52e+00	0	31	104	0	60	41443
2026-01-27 22:06:41.65	104.33	1.28	-48.5	-61.3	3.5	1.52e+00	0	31	104	0	60	40979
2026-01-27 22:06:42.63	104.28	1.33	-48.0	-61.2	3.5	1.52e+00	0	31	104	0	60	40174
2026-01-27 22:06:43.61	104.22	1.39	-47.8	-61.0	3.5	1.52e+00	0	31	104	0	60	39572
2026-01-27 22:06:44.59	104.17	1.45	-47.6	-60.9	3.5	1.52e+00	0	31	104	0	60	38868
2026-01-27 22:06:45.57	104.12	1.50	-47.0	-60.5	3.5	1.52e+00	0	31	104	0	60	37124
2026-01-27 22:06:46.55	104.06	1.56	-46.4	-60.0	3.5	1.51e+00	0	31	104	0	60	34910
2026-01-27 22:06:47.53	104.01	1.62	-46.4	-59.9	3.5	1.51e+00	0	31	104	0	60	34746
2026-01-27 22:06:48.52	103.96	1.67	-46.4	-59.9	3.5	1.52e+00	0	31	104	0	60	34782
2026-01-27 22:06:49.49	103.90	1.73	-46.4	-59.9	3.5	1.52e+00	0	31	104	0	60	34642
2026-01-27 22:06:50.47	103.85	1.79	-46.4	-59.9	3.5	1.52e+00	0	31	104	0	60	34653
2026-01-27 22:06:51.45	103.79	1.84	-46.4	-59.9	3.5	1.52e+00	0	31	104	0	60	34663
2026-01-27 22:06:52.43	103.74	1.90	-46.4	-59.9	3.5	1.52e+00	0	31	104	0	60	34612
2026-01-27 22:06:53.41	103.68	1.96	-46.5	-59.9	3.5	1.52e+00	0	31	104	0	60	34724
2026-01-27 22:06:54.39	103.63	2.02	-46.5	-59.9	3.5	1.52e+00	0	32	104	0	60	34642
2026-01-27 22:06:55.37	103.57	2.07	-46.5	-59.9	3.5	1.52e+00	0	31	104	0	60	34737
2026-01-27 22:06:56.35	103.52	2.13	-46.5	-59.8	3.5	1.52e+00	0	32	104	0	60	34293
2026-01-27 22:06:57.33	103.46	2.19	-46.5	-59.8	3.5	1.52e+00	0	31	104	0	60	34391
2026-01-27 22:06:58.31	103.41	2.25	-46.5	-59.8	3.5	1.52e+00	0	32	104	0	60	34221
2026-01-27 22:06:59.29	103.35	2.30	-46.5	-59.9	3.5	1.52e+00	0	31	104	0	60	34642
2026-01-27 22:07:00.27	103.29	2.36	-46.5	-59.9	3.5	1.51e+00	0	32	104	0	60	34754
2026-01-27 22:07:01.24	103.24	2.42	-46.5	-59.9	3.5	1.52e+00	0	32	104	0	60	34767
2026-01-27 22:07:02.23	103.18	2.48	-46.5	-59.9	3.5	1.52e+00	0	31	104	0	60	34702
2026-01-27 22:07:03.20	103.12	2.53	-46.5	-59.9	3.5	1.52e+00	0	32	104	0	60	34765
2026-01-27 22:07:04.18	103.07	2.59	-46.5	-59.9	3.5	1.52e+00	0	32	104	0	60	34827
2026-01-27 22:07:05.17	103.01	2.65	-46.4	-60.0	3.5	1.52e+00	0	31	104	0	60	34915
2026-01-27 22:07:06.15	102.95	2.71	-46.4	-59.9	3.5	1.52e+00	0	32	104	0	60	34868
2026-01-27 22:07:07.13	102.89	2.77	-46.4	-59.8	3.5	1.52e+00	0	32	104	0	60	34382
2026-01-27 22:07:08.10	102.83	2.83	-46.3	-59.4	3.5	1.52e+00	0	32	104	0	60	32896
2026-01-27 22:07:09.08	102.78	2.89	-46.3	-59.4	3.5	1.52e+00	0	32	104	0	60	32668
2026-01-27 22:07:10.06	102.72	2.94	-46.3	-59.4	3.5	1.52e+00	0	32	104	0	60	32756
2026-01-27 22:07:11.04	102.66	3.00	-46.4	-59.5	3.5	1.52e+00	0	32	104	0	60	33272
2026-01-27 22:07:12.02	102.60	3.06	-46.4	-59.5	3.5	1.52e+00	0	32	104	0	60	33284
2026-01-27 22:07:13.00	102.54	3.12	-46.2	-58.0	3.5	1.51e+00	0	32	104	0	60	27756
2026-01-27 22:07:13.98	102.48	3.18	-45.4	-51.8	7.1	5.50e-01	0	32	0	0	60	13641
2026-01-27 22:07:14.96	102.42	3.24	-44.4	-48.6	10.8	1.78e-02	0	32	0	3145728	60	9420
2026-01-27 22:07:15.94	102.36	3.30	-42.6	-45.4	14.2	1.11e-04	0	32	0	5242880	60	6513
2026-01-27 22:07:16.92	102.30	3.36	-41.1	-43.2	15.9	1.50e-06	0	32	0	8388608	56	6368
2026-01-27 22:07:17.91	102.24	3.42	-39.7	-41.4	17.9	0.00e+00	0	32	0	11534336	52	6508
2026-01-27 22:07:18.89	102.18	3.48	-47.1	-60.3	3.5	1.51e+00	0	32	104	13631488	60	36424
2026-01-27 22:07:19.87	102.11	3.54	-44.4	-54.0	8.1	1.30e+00	0	32	104	13631488	60	17576
2026-01-27 22:07:20.84	102.05	3.60	-42.2	-53.0	4.8	0.00e+00	0	32	0	14680064	56	19762
2026-01-27 22:07:21.83	101.99	3.66	-46.9	-58.6	3.6	3.73e-01	0	32	104	14680064	60	29930
2026-01-27 22:07:22.80	101.93	3.72	-41.4	-43.8	5.1	1.42e+00	0	32	104	14680064	56	6808
2026-01-27 22:07:23.78	101.87	3.78	-41.1	-43.1	15.8	7.00e-07	0	32	0	14680064	56	6306
2026-01-27 22:07:24.75	101.80	3.84	-41.1	-43.0	15.7	0.00e+00	0	32	0	17825792	54	7009
2026-01-27 22:07:25.74	101.74	3.90	-41.8	-43.9	14.8	0.00e+00	0	32	0	20971520	56	6915
2026-01-27 22:07:26.71	101.68	3.96	-42.1	-44.2	15.0	0.00e+00	0	32	0	24117248	56	7160
2026-01-27 22:07:27.69	101.62	4.02	-41.6	-43.4	16.1	0.00e+00	0	32	0	27262976	56	6565
2026-01-27 22:07:28.67	101.55	4.08	-40.9	-42.6	16.6	0.00e+00	0	32	0	30408704	56	5949
2026-01-27 22:07:29.65	101.49	4.14	-42.1	-44.2	15.6	0.00e+00	0	32	0	32505856	56	7174
2026-01-27 22:07:30.62	101.42	4.20	-40.0	-41.6	17.7	0.00e+00	0	32	0	35651584	54	5967
2026-01-27 22:07:31.60	101.36	4.26	-41.7	-43.8	15.8	0.00e+00	0	32	0	38797312	54	7662
2026-01-27 22:07:32.58	101.29	4.32	-40.7	-42.7	16.6	0.00e+00	0	32	0	41943040	54	6746
2026-01-27 22:07:33.56	101.23	4.38	-39.7	-41.4	18.0	0.00e+00	0	32	0	45088768	54	5796
2026-01-27 22:07:34.54	101.16	4.44	-40.1	-42.0	17.6	0.00e+00	0	32	0	48234496	52	7022
2026-01-27 22:07:35.53	101.10	4.51	-38.2	-39.7	19.7	0.00e+00	0	32	0	51380224	50	6051
2026-01-27 22:07:36.51	101.03	4.57	-37.2	-38.5	20.8	0.00e+00	0	32	0	54525952	48	5890
2026-01-27 22:07:37.49	100.96	4.63	-38.0	-39.4	19.7	0.00e+00	0	32	0	57671680	48	6561
2026-01-27 22:07:38.46	100.90	4.69	-37.0	-38.2	20.8	0.00e+00	0	32	0	60817408	48	5717
2026-01-27 22:07:39.44	100.83	4.75	-37.6	-38.8	20.4	0.00e+00	0	32	0	63963136	48	6122
2026-01-27 22:07:40.42	100.76	4.81	-37.7	-38.9	20.4	0.00e+00	0	32	0	67108864	48	6200
2026-01-27 22:07:41.40	100.70	4.87	-38.0	-39.2	20.1	0.00e+00	0	32	0	69206016	48	6421
2026-01-27 22:07:42.39	100.63	4.94	-37.6	-38.8	20.5	0.00e+00	0	32	0	72351744	48	6086
2026-01-27 22:07:43.36	100.56	5.00	-38.4	-39.6	19.7	0.00e+00	0	32	0	75497472	48	6671
2026-01-27 22:07:44.34	100.49	5.06	-37.3	-38.4	20.6	0.00e+00	0	32	0	78643200	48	5850
2026-01-27 22:07:45.33	100.42	5.12	-38.0	-39.2	19.7	0.00e+00	0	32	0	81788928	48	6397
2026-01-27 22:07:46.31	100.35	5.19	-38.5	-39.8	19.1	0.00e+00	0	32	0	84934656	48	6806
2026-01-27 22:07:47.29	100.29	5.25	-38.8	-40.2	18.9	0.00e+00	0	32	0	88080384	50	6352
2026-01-27 22:07:48.27	100.22	5.31	-38.8	-40.2	18.9	0.00e+00	0	32	0	91226112	50	6402
2026-01-27 22:07:49.25	100.15	5.38	-38.8	-40.3	18.9	0.00e+00	0	32	0	94371840	50	6425
2026-01-27 22:07:50.23	100.08	5.44	-38.3	-39.6	19.7	0.00e+00	0	32	0	97517568	50	5978
2026-01-27 22:07:51.20	100.01	5.50	-39.1	-40.6	18.7	0.00e+00	0	32	0	100663296	50	6678
2026-01-27 22:07:52.18	99.93	5.56	-39.4	-41.0	18.8	0.00e+00	0	32	0	103809024	50	6974
2026-01-27 22:07:53.16	99.86	5.63	-40.0	-41.7	18.0	0.00e+00	0	32	0	106954752	52	6792
2026-01-27 22:07:54.14	99.79	5.69	-38.8	-40.3	19.1	0.00e+00	0	32	0	109051904	52	5762
2026-01-27 22:07:55.11	99.72	5.75	-39.5	-41.2	18.5	0.00e+00	0	32	0	112197632	52	6413
2026-01-27 22:07:56.09	99.65	5.82	-39.2	-41.0	18.2	0.00e+00	0	32	0	115343360	52	6229
2026-01-27 22:07:57.07	99.58	5.88	-39.0	-40.8	19.0	0.00e+00	0	32	0	118489088	52	6108
2026-01-27 22:07:58.05	99.50	5.94	-38.2	-39.8	19.9	0.00e+00	0	32	0	121634816	50	6089
2026-01-27 22:07:59.02	99.43	6.01	-38.8	-40.4	19.3	0.00e+00	0	32	0	124780544	50	6545
2026-01-27 22:08:00.00	99.36	6.07	-38.3	-39.7	20.1	0.00e+00	0	32	0	127926272	50	6035
2026-01-27 22:08:00.98	99.28	6.14	-38.5	-39.9	20.0	0.00e+00	0	32	0	131072000	50	6156
2026-01-27 22:08:01.96	99.21	6.20	-36.6	-37.8	21.7	0.00e+00	0	32	0	134217728	48	5419
2026-01-27 22:08:02.94	99.13	6.26	-36.9	-38.1	21.4	0.00e+00	0	32	0	137363456	46	6320
2026-01-27 22:08:03.92	99.06	6.33	-37.0	-38.3	21.2	0.00e+00	0	32	0	140509184	46	6436
2026-01-27 22:08:04.90	98.98	6.39	-36.4	-37.6	21.9	0.00e+00	0	32	0	143654912	46	5943
2026-01-27 22:08:05.89	98.91	6.46	-36.4	-37.5	22.0	0.00e+00	0	32	0	146800640	46	5919
2026-01-27 22:08:06.87	98.83	6.52	-36.7	-37.8	21.7	0.00e+00	0	32	0	148897792	46	6120
2026-01-27 22:08:07.86	98.76	6.59	-36.9	-38.0	21.6	0.00e+00	0	32	0	152043520	46	6265
2026-01-27 22:08:08.84	98.68	6.65	-36.8	-37.9	21.7	0.00e+00	0	32	0	155189248	46	6188
2026-01-27 22:08:09.82	98.60	6.72	-36.5	-37.6	22.0	0.00e+00	0	32	0	158334976	46	5962
2026-01-27 22:08:10.80	98.52	6.78	-36.7	-37.8	21.7	0.00e+00	0	32	0	161480704	46	6097
2026-01-27 22:08:11.80	98.45	6.85	-37.0	-38.1	21.5	0.00e+00	0	32	0	164626432	46	6319
2026-01-27 22:08:12.79	98.37	6.92	-36.6	-37.7	21.7	0.00e+00	0	32	0	167772160	46	6063
2026-01-27 22:08:13.79	98.29	6.98	-36.5	-37.6	21.8	0.00e+00	0	32	0	170917888	46	5955
2026-01-27 22:08:14.78	98.21	7.05	-36.5	-37.6	21.8	0.00e+00	0	32	0	174063616	46	5970
2026-01-27 22:08:15.78	98.13	7.12	-36.3	-37.4	22.0	0.00e+00	0	32	0	177209344	46	5847
2026-01-27 22:08:16.77	98.05	7.18	-36.4	-37.5	21.9	0.00e+00	0	32	0	180355072	46	5894
2026-01-27 22:08:17.77	97.96	7.25	-36.8	-37.9	21.6	0.00e+00	0	32	0	183500800	46	6149
2026-01-27 22:08:18.76	97.88	7.32	-36.6	-37.7	21.9	0.00e+00	0	32	0	186646528	46	5995
2026-01-27 22:08:19.76	97.80	7.39	-36.5	-37.6	21.8	0.00e+00	0	32	0	189792256	46	5982
2026-01-27 22:08:20.76	97.72	7.45	-37.0	-38.1	21.5	0.00e+00	0	32	0	192937984	46	6340
2026-01-27 22:08:21.76	97.63	7.52	-36.6	-37.7	21.8	0.00e+00	0	32	0	196083712	46	6018
2026-01-27 22:08:22.76	97.55	7.59	-36.4	-37.5	22.0	0.00e+00	0	32	0	199229440	46	5866
2026-01-27 22:08:23.76	97.47	7.66	-36.1	-37.1	22.3	0.00e+00	0	32	0	202375168	46	5639
2026-01-27 22:08:24.75	97.38	7.73	-36.2	-37.3	22.1	0.00e+00	0	32	0	205520896	46	5734
2026-01-27 22:08:25.75	97.30	7.79	-36.7	-37.7	21.8	0.00e+00	0	32	0	208666624	46	6050
2026-01-27 22:08:26.74	97.21	7.86	-36.1	-37.2	22.3	0.00e+00	0	32	0	211812352	46	5661
2026-01-27 22:08:27.74	97.13	7.93	-36.3	-37.4	22.1	0.00e+00	0	32	0	214958080	46	5799
2026-01-27 22:08:28.73	97.04	8.00	-37.1	-38.2	21.7	0.00e+00	0	32	0	218103808	46	6376
2026-01-27 22:08:29.74	96.96	8.07	-36.5	-37.5	22.1	0.00e+00	0	32	0	221249536	46	5926
2026-01-27 22:08:30.75	96.87	8.14	-36.4	-37.5	22.2	0.00e+00	0	32	0	224395264	46	5887
2026-01-27 22:08:31.76	96.78	8.21	-36.4	-37.4	22.1	0.00e+00	0	32	0	227540992	46	5835
2026-01-27 22:08:32.75	96.69	8.28	-36.2	-37.2	22.3	0.00e+00	0	32	0	230686720	46	5661
2026-01-27 22:08:33.75	96.61	8.35	-36.4	-37.4	22.1	0.00e+00	0	32	0	233832448	46	5849
2026-01-27 22:08:34.74	96.52	8.42	-36.2	-37.2	22.4	0.00e+00	0	32	0	235929600	46	5662
2026-01-27 22:08:35.73	96.43	8.48	-36.0	-37.0	22.5	0.00e+00	0	32	0	239075328	46	5575
2026-01-27 22:08:36.72	96.34	8.55	-35.8	-36.8	22.6	0.00e+00	0	32	0	242221056	46	5441
2026-01-27 22:08:37.71	96.25	8.62	-36.1	-37.2	22.3	0.00e+00	0	32	0	245366784	44	6354
2026-01-27 22:08:38.69	96.16	8.69	-36.0	-37.0	22.6	0.00e+00	0	32	0	248512512	44	6240
2026-01-27 22:08:39.67	96.08	8.76	-36.0	-37.0	22.4	0.00e+00	0	32	0	251658240	44	6247
2026-01-27 22:08:40.65	95.99	8.83	-36.0	-37.0	22.5	0.00e+00	0	32	0	254803968	44	6218
2026-01-27 22:08:41.63	95.90	8.90	-35.9	-36.9	22.6	0.00e+00	0	32	0	257949696	44	6150
2026-01-27 22:08:42.61	95.81	8.97	-35.8	-36.8	22.7	0.00e+00	0	32	0	261095424	44	6125
2026-01-27 22:08:43.59	95.72	9.04	-36.0	-37.0	22.4	0.00e+00	0	32	0	264241152	44	6243
2026-01-27 22:08:44.57	95.62	9.11	-35.6	-36.6	22.9	0.00e+00	0	32	0	267386880	44	5945
2026-01-27 22:08:45.55	95.53	9.18	-35.4	-36.3	23.1	0.00e+00	0	32	0	270532608	44	5785
2026-01-27 22:08:46.53	95.44	9.24	-35.7	-36.7	22.7	0.00e+00	0	32	0	273678336	44	6045
2026-01-27 22:08:47.52	95.35	9.32	-35.6	-36.6	22.9	0.00e+00	0	32	0	276824064	44	5960
2026-01-27 22:08:48.50	95.25	9.39	-35.3	-36.3	23.1	0.00e+00	0	32	0	278921216	44	5751
2026-01-27 22:08:49.48	95.16	9.46	-35.3	-36.3	23.1	0.00e+00	0	32	0	282066944	44	5767
2026-01-27 22:08:50.46	95.07	9.53	-35.3	-36.3	23.1	0.00e+00	0	32	0	285212672	44	5746
2026-01-27 22:08:51.43	94.97	9.59	-35.2	-36.1	23.1	0.00e+00	0	32	0	288358400	44	5655
2026-01-27 22:08:52.41	94.88	9.67	-35.6	-36.6	22.8	0.00e+00	0	32	0	291504128	44	5933
2026-01-27 22:08:53.39	94.78	9.74	-35.5	-36.5	23.0	0.00e+00	0	32	0	294649856	44	5884
2026-01-27 22:08:54.36	94.69	9.81	-35.2	-36.1	23.2	0.00e+00	0	32	0	297795584	44	5646
2026-01-27 22:08:55.34	94.59	9.88	-35.3	-36.3	23.2	0.00e+00	0	32	0	300941312	44	5741
2026-01-27 22:08:56.32	94.50	9.95	-35.1	-36.1	23.3	0.00e+00	0	32	0	304087040	44	5617
2026-01-27 22:08:57.31	94.40	10.02	-35.1	-36.1	23.2	0.00e+00	0	32	0	307232768	44	5613
2026-01-27 22:08:58.30	94.30	10.09	-35.0	-36.0	23.4	0.00e+00	0	32	0	310378496	44	5531
2026-01-27 22:08:59.27	94.20	10.16	-35.1	-36.0	23.3	0.00e+00	0	32	0	313524224	44	5570
2026-01-27 22:09:00.25	94.10	10.23	-35.0	-36.0	23.3	0.00e+00	0	32	0	315621376	44	5563
2026-01-27 22:09:01.23	94.00	10.30	-35.0	-36.0	23.3	0.00e+00	0	32	0	318767104	44	5551
2026-01-27 22:09:02.21	93.91	10.38	-35.0	-35.9	23.3	0.00e+00	0	32	0	321912832	44	5519
2026-01-27 22:09:03.18	93.81	10.45	-34.9	-35.9	23.3	0.00e+00	0	32	0	325058560	44	5473
2026-01-27 22:09:04.16	93.71	10.52	-35.1	-36.0	23.2	0.00e+00	0	32	0	328204288	44	5584
2026-01-27 22:09:05.15	93.60	10.59	-34.8	-35.7	23.5	0.00e+00	0	32	0	331350016	44	5401
2026-01-27 22:09:06.13	93.50	10.66	-34.9	-35.8	23.5	0.00e+00	0	32	0	334495744	42	6124
2026-01-27 22:09:07.11	93.40	10.73	-34.9	-35.9	23.4	0.00e+00	0	32	0	337641472	42	6161
2026-01-27 22:09:08.09	93.30	10.81	-34.8	-35.8	23.5	0.00e+00	0	32	0	340787200	42	6099
2026-01-27 22:09:09.07	93.19	10.88	-34.8	-35.8	23.6	0.00e+00	0	32	0	343932928	42	6081
2026-01-27 22:09:10.05	93.09	10.95	-34.9	-35.8	23.6	0.00e+00	0	32	0	347078656	42	6103
2026-01-27 22:09:11.03	92.99	11.02	-34.8	-35.8	23.6	0.00e+00	0	32	0	350224384	42	6092
2026-01-27 22:09:12.01	92.88	11.10	-34.9	-35.8	23.6	0.00e+00	0	32	0	353370112	42	6083
2026-01-27 22:09:12.99	92.78	11.17	-34.8	-35.7	23.7	0.00e+00	0	32	0	355467264	42	6040
2026-01-27 22:09:13.98	92.67	11.24	-34.6	-35.6	23.8	0.00e+00	0	32	0	358612992	42	5931
2026-01-27 22:09:14.96	92.56	11.32	-34.7	-35.6	23.8	0.00e+00	0	32	0	361758720	42	5976
2026-01-27 22:09:15.95	92.45	11.39	-34.7	-35.7	23.8	0.00e+00	0	32	0	364904448	42	5999
2026-01-27 22:09:16.93	92.35	11.46	-34.7	-35.6	23.8	0.00e+00	0	32	0	368050176	42	5980
2026-01-27 22:09:17.92	92.24	11.54	-34.7	-35.6	23.8	0.00e+00	0	32	0	371195904	42	5994
2026-01-27 22:09:18.90	92.13	11.61	-34.7	-35.7	23.7	0.00e+00	0	32	0	374341632	42	6025
2026-01-27 22:09:19.88	92.02	11.69	-34.5	-35.4	24.0	0.00e+00	0	32	0	377487360	42	5853
2026-01-27 22:09:20.86	91.91	11.76	-34.3	-35.2	24.1	0.00e+00	0	32	0	380633088	42	5666
2026-01-27 22:09:21.85	91.80	11.83	-34.2	-35.2	24.1	0.00e+00	0	32	0	383778816	42	5663
2026-01-27 22:09:22.83	91.69	11.91	-34.3	-35.3	24.1	0.00e+00	0	32	0	386924544	42	5730
2026-01-27 22:09:23.82	91.58	11.98	-34.5	-35.4	23.9	0.00e+00	0	32	0	390070272	42	5811
2026-01-27 22:09:24.81	91.46	12.06	-34.2	-35.2	24.1	0.00e+00	0	32	0	393216000	42	5670
2026-01-27 22:09:25.80	91.35	12.13	-34.2	-35.2	24.1	0.00e+00	0	32	0	396361728	42	5670
2026-01-27 22:09:26.79	91.23	12.21	-34.4	-35.3	23.9	0.00e+00	0	32	0	399507456	42	5752
2026-01-27 22:09:27.78	91.12	12.29	-34.4	-35.4	24.0	0.00e+00	0	32	0	402653184	42	5810
2026-01-27 22:09:28.76	91.00	12.36	-34.5	-35.4	23.9	0.00e+00	0	32	0	405798912	42	5833
2026-01-27 22:09:29.74	90.89	12.43	-34.3	-35.2	24.1	0.00e+00	0	32	0	407896064	42	5715
2026-01-27 22:09:30.73	90.77	12.51	-34.3	-35.3	24.1	0.00e+00	0	32	0	411041792	42	5732
2026-01-27 22:09:31.71	90.66	12.59	-34.4	-35.3	24.1	0.00e+00	0	32	0	414187520	42	5747
2026-01-27 22:09:32.70	90.54	12.66	-34.3	-35.3	24.2	0.00e+00	0	32	0	417333248	42	5727
2026-01-27 22:09:33.70	90.42	12.74	-34.3	-35.2	24.2	0.00e+00	0	32	0	420478976	42	5697
2026-01-27 22:09:34.70	90.30	12.82	-34.3	-35.2	24.2	0.00e+00	0	32	0	423624704	42	5694
2026-01-27 22:09:35.70	90.18	12.89	-34.4	-35.3	24.1	0.00e+00	0	32	0	426770432	42	5753
2026-01-27 22:09:36.70	90.06	12.97	-34.5	-35.4	24.0	0.00e+00	0	32	0	429916160	42	5807
2026-01-27 22:09:37.70	89.93	13.05	-34.4	-35.3	24.0	0.00e+00	0	32	0	433061888	42	5779
2026-01-27 22:09:38.70	89.81	13.12	-34.5	-35.4	23.9	0.00e+00	0	32	0	436207616	42	5823
2026-01-27 22:09:39.69	89.69	13.20	-34.5	-35.4	23.9	0.00e+00	0	32	0	439353344	42	5809
2026-01-27 22:09:40.69	89.56	13.28	-34.3	-35.3	24.1	0.00e+00	0	32	0	442499072	42	5730
2026-01-27 22:09:41.68	89.44	13.36	-34.4	-35.3	23.9	0.00e+00	0	32	0	445644800	42	5773
2026-01-27 22:09:42.68	89.31	13.43	-34.4	-35.4	24.0	0.00e+00	0	32	0	448790528	42	5795
2026-01-27 22:09:43.68	89.19	13.51	-34.4	-35.3	24.0	0.00e+00	0	32	0	451936256	42	5788
2026-01-27 22:09:44.67	89.06	13.59	-34.5	-35.4	24.0	0.00e+00	0	32	0	455081984	42	5823
2026-01-27 22:09:45.68	88.93	13.67	-34.4	-35.3	24.1	0.00e+00	0	32	0	458227712	42	5756
2026-01-27 22:09:46.69	88.80	13.75	-34.3	-35.3	24.2	0.00e+00	0	32	0	461373440	42	5729
2026-01-27 22:09:47.69	88.67	13.83	-34.5	-35.4	24.1	0.00e+00	0	32	0	464519168	42	5839
2026-01-27 22:09:48.70	88.54	13.91	-34.4	-35.4	24.2	0.00e+00	0	32	0	467664896	42	5807
2026-01-27 22:09:49.70	88.41	13.98	-34.2	-35.1	24.3	0.00e+00	0	32	0	470810624	42	5642
2026-01-27 22:09:50.71	88.28	14.06	-34.3	-35.2	24.2	0.00e+00	0	32	0	473956352	42	5667
2026-01-27 22:09:51.72	88.15	14.14	-34.3	-35.2	24.2	0.00e+00	0	32	0	477102080	42	5672
2026-01-27 22:09:52.73	88.01	14.22	-34.4	-35.3	24.1	0.00e+00	0	32	0	480247808	42	5762
2026-01-27 22:09:53.72	87.88	14.30	-34.5	-35.4	24.1	0.00e+00	0	32	0	483393536	42	5798
2026-01-27 22:09:54.72	87.75	14.38	-34.4	-35.3	24.0	0.00e+00	0	32	0	486539264	42	5765
2026-01-27 22:09:55.71	87.61	14.46	-34.6	-35.5	23.8	0.00e+00	0	32	0	489684992	42	5890
2026-01-27 22:09:56.71	87.48	14.54	-34.6	-35.5	23.9	0.00e+00	0	32	0	492830720	42	5921
2026-01-27 22:09:57.71	87.34	14.62	-34.5	-35.4	23.9	0.00e+00	0	32	0	495976448	42	5834
2026-01-27 22:09:58.70	87.21	14.70	-34.5	-35.4	23.9	0.00e+00	0	32	0	499122176	42	5845
2026-01-27 22:09:59.70	87.07	14.78	-34.6	-35.5	23.9	0.00e+00	0	32	0	502267904	42	5919
2026-01-27 22:10:00.69	86.93	14.86	-34.7	-35.6	24.0	0.00e+00	0	32	0	505413632	42	5978
2026-01-27 22:10:01.69	86.79	14.94	-34.6	-35.6	24.0	0.00e+00	0	32	0	508559360	42	5933
2026-01-27 22:10:02.68	86.65	15.01	-34.6	-35.5	24.0	0.00e+00	0	32	0	511705088	42	5879
2026-01-27 22:10:03.68	86.51	15.09	-34.6	-35.5	24.0	0.00e+00	0	32	0	514850816	42	5887
2026-01-27 22:10:04.68	86.37	15.18	-34.5	-35.4	24.1	0.00e+00	0	32	0	517996544	42	5807
2026-01-27 22:10:05.67	86.23	15.25	-34.4	-35.3	24.2	0.00e+00	0	32	0	521142272	42	5778
2026-01-27 22:10:06.67	86.09	15.33	-34.6	-35.5	23.9	0.00e+00	0	32	0	524288000	42	5913
2026-01-27 22:10:07.67	85.94	15.42	-34.5	-35.4	24.0	0.00e+00	0	32	0	527433728	42	5813
2026-01-27 22:10:08.67	85.80	15.50	-34.5	-35.4	24.0	0.00e+00	0	32	0	529530880	42	5821
2026-01-27 22:10:09.66	85.65	15.58	-34.6	-35.6	23.9	0.00e+00	0	32	0	532676608	42	5929
2026-01-27 22:10:10.67	85.51	15.66	-34.5	-35.5	23.9	0.00e+00	0	32	0	535822336	42	5889
2026-01-27 22:10:11.67	85.36	15.74	-34.6	-35.5	23.9	0.00e+00	0	32	0	538968064	42	5900
2026-01-27 22:10:12.68	85.21	15.82	-34.7	-35.6	23.8	0.00e+00	0	32	0	542113792	42	5974
2026-01-27 22:10:13.69	85.06	15.90	-34.7	-35.6	23.9	0.00e+00	0	32	0	545259520	42	5978
2026-01-27 22:10:14.70	84.91	15.98	-34.7	-35.7	23.9	0.00e+00	0	32	0	548405248	42	6008
2026-01-27 22:10:15.71	84.76	16.06	-34.7	-35.6	24.0	0.00e+00	0	32	0	551550976	42	5957
2026-01-27 22:10:16.72	84.60	16.15	-34.7	-35.6	24.0	0.00e+00	0	32	0	554696704	42	5966
2026-01-27 22:10:17.73	84.45	16.23	-34.7	-35.6	24.0	0.00e+00	0	32	0	557842432	42	5960
2026-01-27 22:10:18.74	84.29	16.31	-34.7	-35.6	23.9	0.00e+00	0	32	0	560988160	42	5989
2026-01-27 22:10:19.75	84.14	16.39	-34.6	-35.5	23.8	0.00e+00	0	32	0	564133888	42	5923
2026-01-27 22:10:20.75	83.98	16.47	-34.6	-35.5	23.8	0.00e+00	0	32	0	567279616	42	5902
2026-01-27 22:10:21.76	83.83	16.55	-34.7	-35.7	23.6	0.00e+00	0	32	0	571473920	42	6006
2026-01-27 22:10:22.77	83.67	16.64	-34.8	-35.7	23.5	0.00e+00	0	32	0	574619648	42	6051
2026-01-27 22:10:23.78	83.51	16.72	-34.8	-35.8	23.5	0.00e+00	0	32	0	576716800	42	6072
2026-01-27 22:10:24.79	83.35	16.80	-35.0	-35.9	23.5	0.00e+00	0	32	0	579862528	42	6204
2026-01-27 22:10:25.80	83.19	16.88	-35.0	-35.9	23.6	0.00e+00	0	32	0	584056832	42	6193
2026-01-27 22:10:26.81	83.03	16.97	-35.1	-36.0	23.6	0.00e+00	0	32	0	587202560	42	6249
2026-01-27 22:10:27.82	82.87	17.05	-35.0	-35.9	23.7	0.00e+00	0	32	0	590348288	42	6189
2026-01-27 22:10:28.83	82.70	17.13	-35.0	-35.9	23.7	0.00e+00	0	32	0	593494016	42	6181
2026-01-27 22:10:29.84	82.54	17.21	-34.8	-35.8	23.9	0.00e+00	0	32	0	596639744	42	6067
2026-01-27 22:10:30.85	82.37	17.30	-34.8	-35.7	23.9	0.00e+00	0	32	0	598736896	42	6062
2026-01-27 22:10:31.86	82.21	17.38	-34.7	-35.7	23.8	0.00e+00	0	32	0	602931200	42	6001
2026-01-27 22:10:32.88	82.04	17.46	-34.6	-35.5	24.0	0.00e+00	0	32	0	606076928	42	5896
2026-01-27 22:10:33.89	81.87	17.54	-34.6	-35.6	23.9	0.00e+00	0	32	0	609222656	42	5939
2026-01-27 22:10:34.90	81.70	17.63	-34.6	-35.6	23.8	0.00e+00	0	32	0	612368384	42	5962
2026-01-27 22:10:35.90	81.53	17.71	-34.5	-35.5	23.9	0.00e+00	0	32	0	615514112	42	5883
2026-01-27 22:10:36.91	81.36	17.79	-34.5	-35.4	23.9	0.00e+00	0	32	0	618659840	42	5847
2026-01-27 22:10:37.93	81.19	17.88	-34.6	-35.5	23.9	0.00e+00	0	32	0	621805568	42	5896
2026-01-27 22:10:38.94	81.02	17.96	-34.5	-35.5	23.9	0.00e+00	0	32	0	624951296	42	5860
2026-01-27 22:10:39.95	80.84	18.04	-34.4	-35.4	24.1	0.00e+00	0	32	0	628097024	42	5803
2026-01-27 22:10:40.95	80.67	18.12	-34.4	-35.3	24.1	0.00e+00	0	32	0	631242752	42	5791
2026-01-27 22:10:41.96	80.50	18.21	-34.5	-35.5	24.0	0.00e+00	0	32	0	634388480	42	5859
2026-01-27 22:10:42.97	80.32	18.29	-34.4	-35.4	24.1	0.00e+00	0	32	0	637534208	42	5810
2026-01-27 22:10:43.98	80.14	18.37	-34.5	-35.4	24.1	0.00e+00	0	32	0	640679936	42	5820
2026-01-27 22:10:44.99	79.96	18.45	-34.7	-35.6	24.0	0.00e+00	0	32	0	643825664	42	5955
2026-01-27 22:10:46.01	79.78	18.54	-34.3	-35.2	24.2	0.00e+00	0	32	0	646971392	42	5719
2026-01-27 22:10:47.02	79.60	18.62	-34.4	-35.3	24.1	0.00e+00	0	32	0	650117120	42	5781
2026-01-27 22:10:48.03	79.42	18.70	-34.2	-35.1	24.3	0.00e+00	0	32	0	653262848	42	5608
2026-01-27 22:10:49.04	79.24	18.78	-34.3	-35.2	24.2	0.00e+00	0	32	0	656408576	42	5717
2026-01-27 22:10:50.05	79.06	18.87	-34.4	-35.3	24.1	0.00e+00	0	32	0	659554304	42	5762
2026-01-27 22:10:51.06	78.87	18.95	-34.2	-35.2	24.3	0.00e+00	0	32	0	662700032	42	5667
2026-01-27 22:10:52.07	78.69	19.03	-34.1	-35.0	24.3	0.00e+00	0	32	0	665845760	42	5545
2026-01-27 22:10:53.08	78.50	19.11	-34.2	-35.1	24.4	0.00e+00	0	32	0	668991488	42	5633
2026-01-27 22:10:54.09	78.31	19.20	-33.9	-34.8	24.5	0.00e+00	0	32	0	672137216	42	5436
2026-01-27 22:10:55.10	78.12	19.28	-33.9	-34.8	24.5	0.00e+00	0	32	0	675282944	42	5455
2026-01-27 22:10:56.11	77.93	19.36	-33.9	-34.8	24.5	0.00e+00	0	32	0	678428672	42	5455
2026-01-27 22:10:57.12	77.74	19.44	-34.1	-35.0	24.4	0.00e+00	0	32	0	681574400	42	5550
2026-01-27 22:10:58.13	77.55	19.53	-34.0	-34.9	24.6	0.00e+00	0	32	0	684720128	42	5479
2026-01-27 22:10:59.14	77.36	19.61	-33.8	-34.7	24.7	0.00e+00	0	32	0	687865856	42	5389
2026-01-27 22:11:00.15	77.17	19.69	-33.9	-34.8	24.7	0.00e+00	0	32	0	691011584	42	5406
2026-01-27 22:11:01.16	76.97	19.77	-33.9	-34.8	24.6	0.00e+00	0	32	0	694157312	42	5419
2026-01-27 22:11:02.17	76.78	19.85	-33.9	-34.8	24.5	0.00e+00	0	32	0	697303040	42	5439
2026-01-27 22:11:03.18	76.58	19.93	-33.7	-34.6	24.6	0.00e+00	0	32	0	700448768	42	5323
2026-01-27 22:11:04.19	76.38	20.02	-33.8	-34.7	24.4	0.00e+00	0	32	0	703594496	40	5996
2026-01-27 22:11:05.20	76.18	20.10	-33.7	-34.7	24.4	0.00e+00	0	32	0	706740224	40	5998
2026-01-27 22:11:06.21	75.98	20.18	-33.8	-34.7	24.6	0.00e+00	0	32	0	709885952	40	6020
2026-01-27 22:11:07.22	75.78	20.26	-34.0	-34.9	24.3	0.00e+00	0	32	0	713031680	40	6160
2026-01-27 22:11:08.23	75.58	20.34	-33.9	-34.8	24.5	0.00e+00	0	32	0	716177408	40	6083
2026-01-27 22:11:09.24	75.38	20.42	-34.0	-34.9	24.5	0.00e+00	0	32	0	719323136	40	6155
2026-01-27 22:11:10.25	75.17	20.50	-33.9	-34.8	24.6	0.00e+00	0	32	0	722468864	40	6078
2026-01-27 22:11:11.26	74.97	20.59	-33.8	-34.7	24.6	0.00e+00	0	32	0	725614592	40	6001
2026-01-27 22:11:12.27	74.76	20.67	-33.7	-34.6	24.7	0.00e+00	0	32	0	728760320	40	5971
2026-01-27 22:11:13.27	74.56	20.75	-33.7	-34.6	24.7	0.00e+00	0	32	0	731906048	40	5962
2026-01-27 22:11:14.28	74.35	20.83	-33.8	-34.6	24.5	0.00e+00	0	32	0	735051776	40	5989
2026-01-27 22:11:15.29	74.14	20.91	-33.8	-34.7	24.6	0.00e+00	0	32	0	738197504	40	5996
2026-01-27 22:11:16.30	73.93	20.99	-34.0	-34.9	24.5	0.00e+00	0	32	0	741343232	40	6137
2026-01-27 22:11:17.31	73.71	21.07	-34.0	-34.9	24.5	0.00e+00	0	32	0	744488960	40	6162
2026-01-27 22:11:18.33	73.50	21.15	-33.8	-34.7	24.7	0.00e+00	0	32	0	747634688	40	6044
2026-01-27 22:11:19.34	73.29	21.23	-33.5	-34.3	25.0	0.00e+00	0	32	0	750780416	40	5772
2026-01-27 22:11:20.35	73.07	21.31	-33.6	-34.5	24.9	0.00e+00	0	32	0	753926144	40	5869
2026-01-27 22:11:21.35	72.86	21.38	-33.4	-34.2	24.9	0.00e+00	0	32	0	757071872	40	5705
2026-01-27 22:11:22.36	72.64	21.46	-33.4	-34.3	24.9	0.00e+00	0	32	0	760217600	40	5746
2026-01-27 22:11:23.37	72.42	21.54	-33.3	-34.2	24.9	0.00e+00	0	32	0	763363328	40	5687
2026-01-27 22:11:24.38	72.20	21.62	-33.3	-34.1	25.0	0.00e+00	0	32	0	766509056	40	5657
2026-01-27 22:11:25.39	71.98	21.70	-33.3	-34.2	25.0	0.00e+00	0	32	0	769654784	40	5675
2026-01-27 22:11:26.40	71.76	21.78	-33.2	-34.1	25.0	0.00e+00	0	32	0	772800512	40	5622
2026-01-27 22:11:27.41	71.53	21.86	-33.2	-34.1	25.0	0.00e+00	0	32	0	775946240	40	5612
2026-01-27 22:11:28.42	71.31	21.93	-33.3	-34.1	24.9	0.00e+00	0	32	0	779091968	40	5636
2026-01-27 22:11:29.43	71.08	22.01	-33.5	-34.4	24.9	0.00e+00	0	32	0	782237696	40	5811
2026-01-27 22:11:30.44	70.86	22.09	-33.4	-34.2	24.9	0.00e+00	0	32	0	785383424	40	5720
2026-01-27 22:11:31.45	70.63	22.17	-33.5	-34.4	24.8	0.00e+00	0	32	0	788529152	40	5793
2026-01-27 22:11:32.46	70.40	22.24	-33.6	-34.4	24.8	0.00e+00	0	32	0	791674880	40	5851
2026-01-27 22:11:33.47	70.17	22.32	-33.6	-34.5	24.8	0.00e+00	0	32	0	794820608	40	5878
2026-01-27 22:11:34.48	69.94	22.40	-33.6	-34.5	24.9	0.00e+00	0	32	0	797966336	40	5904
2026-01-27 22:11:35.49	69.71	22.47	-33.7	-34.5	24.7	0.00e+00	0	32	0	801112064	40	5921
2026-01-27 22:11:36.50	69.47	22.55	-33.5	-34.4	24.9	0.00e+00	0	32	0	804257792	40	5834
2026-01-27 22:11:37.51	69.24	22.62	-33.6	-34.5	24.9	0.00e+00	0	32	0	807403520	40	5895
2026-01-27 22:11:38.52	69.00	22.70	-33.6	-34.4	24.8	0.00e+00	0	32	0	810549248	40	5842
2026-01-27 22:11:39.53	68.77	22.77	-33.6	-34.5	24.8	0.00e+00	0	32	0	813694976	40	5864
2026-01-27 22:11:40.54	68.53	22.85	-33.6	-34.5	24.8	0.00e+00	0	32	0	816840704	40	5864
2026-01-27 22:11:41.55	68.29	22.92	-33.7	-34.6	24.7	0.00e+00	0	32	0	819986432	40	5950
2026-01-27 22:11:42.56	68.05	23.00	-33.7	-34.5	24.7	0.00e+00	0	32	0	823132160	40	5918
2026-01-27 22:11:43.57	67.81	23.07	-33.6	-34.5	24.8	0.00e+00	0	32	0	826277888	40	5896
2026-01-27 22:11:44.57	67.57	23.14	-33.8	-34.7	24.7	0.00e+00	0	32	0	829423616	40	6008
2026-01-27 22:11:45.58	67.32	23.21	-33.6	-34.5	24.8	0.00e+00	0	32	0	832569344	40	5918
2026-01-27 22:11:46.59	67.08	23.29	-33.8	-34.7	24.7	0.00e+00	0	32	0	835715072	40	6019
2026-01-27 22:11:47.60	66.83	23.36	-33.8	-34.7	24.6	0.00e+00	0	32	0	838860800	40	6032
2026-01-27 22:11:48.61	66.59	23.43	-33.8	-34.7	24.7	0.00e+00	0	32	0	842006528	40	6037
2026-01-27 22:11:49.62	66.34	23.50	-34.0	-34.9	24.5	0.00e+00	0	32	0	845152256	40	6183
2026-01-27 22:11:50.63	66.09	23.57	-33.9	-34.8	24.6	0.00e+00	0	32	0	848297984	40	6069
2026-01-27 22:11:51.64	65.84	23.64	-34.1	-34.9	24.5	0.00e+00	0	32	0	851443712	40	6205
2026-01-27 22:11:52.65	65.59	23.71	-33.9	-34.8	24.7	0.00e+00	0	32	0	854589440	40	6107
2026-01-27 22:11:53.66	65.33	23.78	-34.0	-34.9	24.5	0.00e+00	0	32	0	857735168	40	6151
2026-01-27 22:11:54.67	65.08	23.85	-34.1	-35.0	24.5	0.00e+00	0	32	0	860880896	40	6259
2026-01-27 22:11:55.68	64.83	23.92	-34.1	-35.0	24.5	0.00e+00	0	32	0	864026624	40	6248
2026-01-27 22:11:56.69	64.57	23.99	-34.2	-35.1	24.5	0.00e+00	0	32	0	867172352	40	6308
2026-01-27 22:11:57.70	64.31	24.06	-34.1	-34.9	24.6	0.00e+00	0	32	0	870318080	40	6197
2026-01-27 22:11:58.71	64.05	24.13	-34.1	-35.0	24.6	0.00e+00	0	32	0	873463808	40	6207
2026-01-27 22:11:59.72	63.79	24.19	-34.0	-34.9	24.6	0.00e+00	0	32	0	876609536	40	6182
2026-01-27 22:12:00.73	63.53	24.26	-33.9	-34.8	24.6	0.00e+00	0	32	0	879755264	40	6087
2026-01-27 22:12:01.74	63.27	24.33	-33.9	-34.8	24.6	0.00e+00	0	32	0	882900992	40	6104
2026-01-27 22:12:02.75	63.01	24.39	-33.7	-34.6	24.9	0.00e+00	0	32	0	886046720	40	5951
2026-01-27 22:12:03.76	62.75	24.46	-33.8	-34.7	24.7	0.00e+00	0	32	0	890241024	40	6035
2026-01-27 22:12:04.77	62.48	24.52	-33.9	-34.7	24.6	0.00e+00	0	32	0	892338176	40	6048
2026-01-27 22:12:05.78	62.21	24.59	-33.8	-34.7	24.8	0.00e+00	0	32	0	895483904	40	6003
2026-01-27 22:12:06.79	61.95	24.65	-33.7	-34.6	24.8	0.00e+00	0	32	0	898629632	40	5956
2026-01-27 22:12:07.80	61.68	24.71	-33.8	-34.7	24.7	0.00e+00	0	32	0	901775360	40	6051
2026-01-27 22:12:08.81	61.41	24.78	-33.9	-34.8	24.7	0.00e+00	0	32	0	905969664	40	6078
2026-01-27 22:12:09.82	61.14	24.84	-34.0	-34.9	24.6	0.00e+00	0	32	0	909115392	40	6146
2026-01-27 22:12:10.83	60.87	24.90	-34.0	-34.9	24.5	0.00e+00	0	32	0	912261120	40	6178
2026-01-27 22:12:11.84	60.59	24.96	-33.8	-34.7	24.7	0.00e+00	0	32	0	915406848	40	6043
2026-01-27 22:12:12.85	60.32	25.02	-34.1	-35.0	24.4	0.00e+00	0	32	0	917504000	40	6211
2026-01-27 22:12:13.86	60.05	25.08	-34.2	-35.1	24.3	0.00e+00	0	32	0	921698304	40	6336
2026-01-27 22:12:14.87	59.77	25.14	-34.3	-35.2	24.4	0.00e+00	0	32	0	924844032	40	6368
2026-01-27 22:12:15.88	59.49	25.20	-34.1	-34.9	24.6	0.00e+00	0	32	0	927989760	40	6201
2026-01-27 22:12:16.89	59.22	25.26	-34.0	-34.9	24.5	0.00e+00	0	32	0	931135488	40	6187
2026-01-27 22:12:17.90	58.94	25.31	-34.0	-34.9	24.5	0.00e+00	0	32	0	934281216	40	6185
2026-01-27 22:12:18.91	58.66	25.37	-34.1	-35.0	24.5	0.00e+00	0	32	0	937426944	40	6244
2026-01-27 22:12:19.92	58.38	25.43	-33.9	-34.8	24.7	0.00e+00	0	32	0	940572672	40	6080
2026-01-27 22:12:20.92	58.10	25.48	-34.0	-34.9	24.7	0.00e+00	0	32	0	943718400	40	6148
2026-01-27 22:12:21.93	57.81	25.53	-33.9	-34.8	24.7	0.00e+00	0	32	0	946864128	40	6113
2026-01-27 22:12:22.94	57.53	25.59	-33.9	-34.8	24.7	0.00e+00	0	32	0	950009856	40	6082
2026-01-27 22:12:23.95	57.25	25.64	-34.0	-34.9	24.7	0.00e+00	0	32	0	953155584	40	6168
2026-01-27 22:12:24.96	56.96	25.70	-33.5	-34.4	25.0	0.00e+00	0	32	0	956301312	40	5801
2026-01-27 22:12:25.97	56.67	25.75	-33.5	-34.4	25.0	0.00e+00	0	32	0	959447040	40	5827
2026-01-27 22:12:26.99	56.38	25.80	-33.3	-34.1	25.2	0.00e+00	0	32	0	962592768	40	5634
2026-01-27 22:12:28.00	56.10	25.85	-33.2	-34.1	25.2	0.00e+00	0	32	0	965738496	40	5601
2026-01-27 22:12:29.00	55.81	25.90	-33.2	-34.1	25.2	0.00e+00	0	32	0	968884224	40	5627
2026-01-27 22:12:30.01	55.52	25.95	-33.4	-34.3	25.0	0.00e+00	0	32	0	972029952	40	5732
2026-01-27 22:12:31.02	55.23	26.00	-33.4	-34.3	25.0	0.00e+00	0	32	0	975175680	40	5742
2026-01-27 22:12:32.03	54.93	26.05	-33.7	-34.5	24.9	0.00e+00	0	32	0	978321408	40	5891
2026-01-27 22:12:33.03	54.64	26.09	-33.4	-34.2	25.1	0.00e+00	0	32	0	981467136	40	5717
2026-01-27 22:12:34.04	54.35	26.14	-33.5	-34.4	24.9	0.00e+00	0	32	0	984612864	40	5834
2026-01-27 22:12:35.05	54.06	26.18	-33.6	-34.4	24.8	0.00e+00	0	32	0	987758592	40	5856
2026-01-27 22:12:36.06	53.76	26.23	-33.8	-34.7	24.8	0.00e+00	0	32	0	990904320	40	5996
2026-01-27 22:12:37.07	53.46	26.27	-33.5	-34.4	25.0	0.00e+00	0	32	0	994050048	40	5836
2026-01-27 22:12:38.08	53.17	26.32	-33.5	-34.4	25.0	0.00e+00	0	32	0	997195776	40	5803
2026-01-27 22:12:39.09	52.87	26.36	-33.6	-34.5	25.0	0.00e+00	0	32	0	1000341504	40	5862
2026-01-27 22:12:40.10	52.57	26.40	-33.3	-34.2	25.2	0.00e+00	0	32	0	1003487232	40	5692
2026-01-27 22:12:41.11	52.27	26.44	-33.3	-34.2	25.1	0.00e+00	0	32	0	1006632960	40	5700
2026-01-27 22:12:42.12	51.97	26.48	-33.3	-34.2	25.1	0.00e+00	0	32	0	1009778688	40	5678
2026-01-27 22:12:43.13	51.67	26.52	-33.4	-34.3	25.0	0.00e+00	0	32	0	1012924416	40	5744
2026-01-27 22:12:44.14	51.37	26.56	-33.4	-34.3	25.0	0.00e+00	0	32	0	1016070144	40	5759
2026-01-27 22:12:45.15	51.06	26.60	-33.4	-34.3	25.0	0.00e+00	0	32	0	1019215872	40	5754
2026-01-27 22:12:46.16	50.76	26.63	-33.5	-34.4	24.9	0.00e+00	0	32	0	1022361600	40	5833
2026-01-27 22:12:47.17	50.46	26.67	-33.5	-34.4	25.1	0.00e+00	0	32	0	1025507328	40	5819
2026-01-27 22:12:48.18	50.15	26.70	-33.6	-34.5	24.9	0.00e+00	0	32	0	1028653056	40	5876
2026-01-27 22:12:49.19	49.85	26.74	-33.6	-34.4	24.9	0.00e+00	0	32	0	1031798784	40	5841
2026-01-27 22:12:50.20	49.54	26.77	-33.5	-34.4	24.8	0.00e+00	0	32	0	1034944512	40	5831
2026-01-27 22:12:51.21	49.24	26.80	-33.6	-34.5	24.8	0.00e+00	0	32	0	1038090240	40	5881
2026-01-27 22:12:52.22	48.93	26.84	-33.7	-34.6	24.8	0.00e+00	0	32	0	1041235968	40	5955
2026-01-27 22:12:53.23	48.62	26.87	-33.7	-34.6	24.9	0.00e+00	0	32	0	1044381696	40	5971
2026-01-27 22:12:54.24	48.31	26.90	-33.7	-34.5	24.8	0.00e+00	0	32	0	1047527424	40	5913
2026-01-27 22:12:55.25	48.00	26.93	-33.7	-34.6	24.6	0.00e+00	0	32	0	1050673152	40	5929
2026-01-27 22:12:56.26	47.69	26.95	-33.7	-34.6	24.7	0.00e+00	0	32	0	1053818880	40	5951
2026-01-27 22:12:57.27	47.38	26.98	-33.7	-34.6	24.6	0.00e+00	0	32	0	1056964608	40	5950
2026-01-27 22:12:58.29	47.07	27.01	-33.7	-34.6	24.8	0.00e+00	0	32	0	1060110336	40	5950
2026-01-27 22:12:59.30	46.76	27.03	-33.5	-34.4	24.8	0.00e+00	0	32	0	1063256064	40	5833
2026-01-27 22:13:00.30	46.45	27.06	-33.6	-34.5	24.8	0.00e+00	0	32	0	1066401792	40	5864
2026-01-27 22:13:01.32	46.13	27.08	-33.5	-34.4	24.9	0.00e+00	0	32	0	1069547520	40	5796
2026-01-27 22:13:02.33	45.82	27.10	-33.6	-34.5	24.9	0.00e+00	0	32	0	1072693248	40	5887
2026-01-27 22:13:03.34	45.51	27.13	-33.4	-34.3	25.0	0.00e+00	0	32	0	1075838976	40	5740
2026-01-27 22:13:04.35	45.20	27.15	-33.7	-34.6	24.7	0.00e+00	0	32	0	1078984704	40	5972
2026-01-27 22:13:05.35	44.89	27.17	-34.0	-34.9	24.5	0.00e+00	0	32	0	1082130432	40	6182
2026-01-27 22:13:06.36	44.57	27.19	-34.0	-34.9	24.5	0.00e+00	0	32	0	1085276160	40	6192
2026-01-27 22:13:07.37	44.26	27.20	-34.1	-35.0	24.5	0.00e+00	0	32	0	1088421888	40	6249
2026-01-27 22:13:08.38	43.94	27.22	-34.1	-35.0	24.4	0.00e+00	0	32	0	1091567616	40	6252
2026-01-27 22:13:09.39	43.63	27.24	-34.0	-34.9	24.3	0.00e+00	0	32	0	1094713344	40	6170
2026-01-27 22:13:10.40	43.31	27.25	-33.9	-34.8	24.3	0.00e+00	0	32	0	1097859072	40	6129
2026-01-27 22:13:11.41	43.00	27.27	-33.9	-34.8	24.5	0.00e+00	0	32	0	1101004800	40	6086
2026-01-27 22:13:12.43	42.68	27.28	-33.9	-34.8	24.6	0.00e+00	0	32	0	1104150528	40	6079
2026-01-27 22:13:13.44	42.36	27.29	-33.7	-34.6	24.7	0.00e+00	0	32	0	1107296256	40	5941
2026-01-27 22:13:14.45	42.04	27.30	-33.7	-34.6	24.7	0.00e+00	0	32	0	1110441984	40	5976
2026-01-27 22:13:15.46	41.73	27.31	-33.7	-34.5	24.7	0.00e+00	0	32	0	1113587712	40	5919
2026-01-27 22:13:16.47	41.41	27.32	-33.7	-34.6	24.5	0.00e+00	0	32	0	1116733440	40	5962
2026-01-27 22:13:17.48	41.09	27.33	-33.7	-34.6	24.6	0.00e+00	0	32	0	1119879168	40	5946
2026-01-27 22:13:18.49	40.78	27.34	-33.6	-34.5	24.7	0.00e+00	0	32	0	1123024896	40	5903
2026-01-27 22:13:19.49	40.46	27.35	-33.4	-34.3	24.9	0.00e+00	0	32	0	1126170624	40	5755
2026-01-27 22:13:20.50	40.14	27.35	-33.5	-34.4	24.8	0.00e+00	0	32	0	1129316352	40	5817
2026-01-27 22:13:21.51	39.83	27.36	-33.6	-34.4	24.7	0.00e+00	0	32	0	1132462080	40	5854
2026-01-27 22:13:22.52	39.51	27.36	-33.6	-34.5	24.8	0.00e+00	0	32	0	1135607808	40	5890
2026-01-27 22:13:23.53	39.19	27.36	-33.6	-34.4	24.8	0.00e+00	0	32	0	1138753536	40	5855
2026-01-27 22:13:24.54	38.87	27.36	-33.7	-34.6	24.6	0.00e+00	0	32	0	1141899264	40	5964
2026-01-27 22:13:25.55	38.56	27.36	-33.8	-34.6	24.6	0.00e+00	0	32	0	1145044992	40	5994
2026-01-27 22:13:26.56	38.24	27.36	-33.7	-34.6	24.6	0.00e+00	0	32	0	1148190720	40	5982
2026-01-27 22:13:27.57	37.92	27.36	-33.7	-34.6	24.7	0.00e+00	0	32	0	1151336448	40	5972
2026-01-27 22:13:28.58	37.60	27.36	-33.6	-34.5	24.8	0.00e+00	0	32	0	1154482176	40	5859
2026-01-27 22:13:29.59	37.28	27.36	-33.4	-34.3	24.9	0.00e+00	0	32	0	1157627904	40	5753
2026-01-27 22:13:30.60	36.97	27.35	-33.5	-34.4	24.8	0.00e+00	0	32	0	1160773632	40	5794
2026-01-27 22:13:31.61	36.65	27.35	-33.2	-34.1	25.1	0.00e+00	0	32	0	1163919360	40	5624
2026-01-27 22:13:32.62	36.33	27.34	-33.4	-34.3	25.1	0.00e+00	0	32	0	1167065088	40	5730
2026-01-27 22:13:33.63	36.02	27.33	-33.3	-34.2	25.1	0.00e+00	0	32	0	1170210816	40	5675
2026-01-27 22:13:34.64	35.70	27.33	-33.3	-34.2	25.1	0.00e+00	0	32	0	1173356544	40	5678
2026-01-27 22:13:35.65	35.38	27.32	-33.4	-34.3	25.0	0.00e+00	0	32	0	1176502272	40	5750
2026-01-27 22:13:36.66	35.06	27.31	-33.5	-34.4	24.9	0.00e+00	0	32	0	1179648000	40	5807
2026-01-27 22:13:37.67	34.75	27.30	-33.5	-34.4	24.9	0.00e+00	0	32	0	1182793728	40	5847
2026-01-27 22:13:38.68	34.43	27.28	-33.5	-34.3	24.9	0.00e+00	0	32	0	1185939456	40	5776
2026-01-27 22:13:39.69	34.12	27.27	-33.6	-34.4	24.9	0.00e+00	0	32	0	1189085184	40	5850
2026-01-27 22:13:40.70	33.80	27.26	-33.5	-34.4	25.0	0.00e+00	0	32	0	1192230912	40	5793
2026-01-27 22:13:41.71	33.49	27.24	-33.5	-34.3	24.9	0.00e+00	0	32	0	1195376640	40	5777
2026-01-27 22:13:42.72	33.17	27.23	-33.5	-34.4	24.9	0.00e+00	0	32	0	1198522368	40	5804
2026-01-27 22:13:43.74	32.85	27.21	-33.7	-34.6	24.8	0.00e+00	0	32	0	1201668096	40	5946
2026-01-27 22:13:44.75	32.54	27.19	-33.8	-34.7	24.7	0.00e+00	0	32	0	1204813824	40	6015
2026-01-27 22:13:45.76	32.22	27.17	-33.8	-34.6	24.9	0.00e+00	0	32	0	1207959552	40	5989
2026-01-27 22:13:46.77	31.91	27.15	-33.7	-34.5	24.8	0.00e+00	0	32	0	1211105280	40	5918
2026-01-27 22:13:47.78	31.60	27.13	-33.6	-34.5	24.9	0.00e+00	0	32	0	1214251008	40	5874
2026-01-27 22:13:48.79	31.28	27.11	-33.7	-34.6	24.9	0.00e+00	0	32	0	1217396736	40	5944
2026-01-27 22:13:49.80	30.97	27.09	-33.5	-34.3	24.9	0.00e+00	0	32	0	1220542464	40	5788
2026-01-27 22:13:50.81	30.66	27.06	-33.6	-34.5	24.8	0.00e+00	0	32	0	1224736768	40	5883
2026-01-27 22:13:51.82	30.35	27.04	-33.5	-34.4	24.8	0.00e+00	0	32	0	1227882496	40	5816
2026-01-27 22:13:52.83	30.04	27.02	-33.4	-34.2	25.0	0.00e+00	0	32	0	1231028224	40	5724
2026-01-27 22:13:53.84	29.73	26.99	-33.4	-34.3	24.9	0.00e+00	0	32	0	1233125376	40	5768
2026-01-27 22:13:54.85	29.42	26.96	-33.5	-34.3	24.9	0.00e+00	0	32	0	1236271104	40	5784
2026-01-27 22:13:55.86	29.11	26.93	-33.5	-34.4	24.9	0.00e+00	0	32	0	1240465408	40	5796
2026-01-27 22:13:56.87	28.80	26.91	-33.6	-34.5	24.7	0.00e+00	0	32	0	1243611136	40	5885
2026-01-27 22:13:57.88	28.49	26.88	-33.6	-34.4	24.8	0.00e+00	0	32	0	1246756864	40	5848
2026-01-27 22:13:58.89	28.18	26.85	-33.6	-34.5	24.8	0.00e+00	0	32	0	1249902592	40	5885
2026-01-27 22:13:59.90	27.88	26.81	-33.7	-34.6	24.8	0.00e+00	0	32	0	1253048320	40	5959
2026-01-27 22:14:00.91	27.57	26.78	-33.8	-34.7	24.8	0.00e+00	0	32	0	1256194048	40	6031
2026-01-27 22:14:01.92	27.26	26.75	-33.8	-34.6	24.8	0.00e+00	0	32	0	1259339776	40	5985
2026-01-27 22:14:02.93	26.96	26.71	-33.8	-34.7	24.9	0.00e+00	0	32	0	1262485504	40	6021
2026-01-27 22:14:03.94	26.65	26.68	-33.5	-34.4	25.1	0.00e+00	0	32	0	1265631232	40	5800
2026-01-27 22:14:04.95	26.35	26.64	-33.5	-34.3	25.0	0.00e+00	0	32	0	1268776960	40	5785
2026-01-27 22:14:05.96	26.05	26.61	-33.5	-34.3	25.1	0.00e+00	0	32	0	1271922688	40	5771
2026-01-27 22:14:06.97	25.74	26.57	-33.5	-34.3	25.0	0.00e+00	0	32	0	1275068416	40	5768
2026-01-27 22:14:07.98	25.44	26.53	-33.5	-34.4	25.0	0.00e+00	0	32	0	1278214144	40	5823
2026-01-27 22:14:08.99	25.14	26.49	-33.6	-34.5	24.9	0.00e+00	0	33	0	1281359872	40	5874
2026-01-27 22:14:10.00	24.84	26.45	-33.8	-34.7	24.8	0.00e+00	0	32	0	1284505600	40	5996
2026-01-27 22:14:11.01	24.54	26.41	-33.7	-34.6	24.9	0.00e+00	0	32	0	1287651328	40	5977
2026-01-27 22:14:12.02	24.24	26.37	-34.0	-34.8	24.8	0.00e+00	0	32	0	1290797056	40	6117
2026-01-27 22:14:13.03	23.95	26.33	-33.7	-34.6	24.8	0.00e+00	0	32	0	1293942784	40	5969
2026-01-27 22:14:14.04	23.65	26.29	-33.8	-34.7	24.8	0.00e+00	0	32	0	1297088512	40	6024
2026-01-27 22:14:15.05	23.35	26.24	-33.7	-34.6	24.9	0.00e+00	0	32	0	1300234240	40	5947
2026-01-27 22:14:16.06	23.06	26.20	-33.8	-34.7	24.8	0.00e+00	0	32	0	1303379968	40	6024
2026-01-27 22:14:17.07	22.76	26.15	-33.9	-34.8	24.8	0.00e+00	0	32	0	1306525696	40	6107
2026-01-27 22:14:18.08	22.47	26.11	-33.9	-34.7	24.8	0.00e+00	0	32	0	1309671424	40	6056
2026-01-27 22:14:19.09	22.18	26.06	-33.8	-34.7	24.8	0.00e+00	0	32	0	1312817152	40	6031
2026-01-27 22:14:20.10	21.88	26.01	-33.8	-34.6	24.8	0.00e+00	0	32	0	1315962880	40	5983
2026-01-27 22:14:21.11	21.59	25.96	-33.7	-34.6	24.8	0.00e+00	0	32	0	1319108608	40	5946
2026-01-27 22:14:22.12	21.30	25.91	-33.8	-34.7	24.7	0.00e+00	0	32	0	1322254336	40	6020
2026-01-27 22:14:23.13	21.01	25.86	-33.7	-34.6	24.9	0.00e+00	0	32	0	1325400064	40	5967
2026-01-27 22:14:24.14	20.73	25.81	-33.8	-34.7	24.9	0.00e+00	0	32	0	1328545792	40	5996
2026-01-27 22:14:25.15	20.44	25.76	-33.7	-34.6	24.9	0.00e+00	0	32	0	1331691520	40	5964
2026-01-27 22:14:26.16	20.15	25.71	-33.9	-34.7	24.8	0.00e+00	0	32	0	1334837248	40	6057
2026-01-27 22:14:27.17	19.87	25.66	-33.8	-34.7	24.8	0.00e+00	0	32	0	1337982976	40	6022
2026-01-27 22:14:28.18	19.58	25.60	-33.9	-34.7	24.7	0.00e+00	0	32	0	1341128704	40	6053
2026-01-27 22:14:29.19	19.30	25.55	-33.8	-34.7	24.8	0.00e+00	0	32	0	1344274432	40	6012
2026-01-27 22:14:30.20	19.02	25.50	-33.4	-34.2	25.1	0.00e+00	0	32	0	1347420160	40	5710
2026-01-27 22:14:31.21	18.73	25.44	-33.4	-34.2	25.1	0.00e+00	0	32	0	1350565888	40	5712
2026-01-27 22:14:32.22	18.45	25.39	-33.4	-34.3	25.1	0.00e+00	0	32	0	1353711616	40	5730
2026-01-27 22:14:33.23	18.17	25.33	-33.3	-34.2	25.1	0.00e+00	0	32	0	1356857344	40	5664
2026-01-27 22:14:34.24	17.90	25.27	-33.4	-34.3	24.9	0.00e+00	0	32	0	1360003072	40	5761
2026-01-27 22:14:35.25	17.62	25.21	-33.6	-34.5	24.8	0.00e+00	0	32	0	1363148800	40	5879
2026-01-27 22:14:36.26	17.34	25.16	-33.7	-34.6	24.7	0.00e+00	0	32	0	1366294528	40	5970
2026-01-27 22:14:37.27	17.07	25.10	-33.6	-34.5	24.9	0.00e+00	0	32	0	1369440256	40	5859
2026-01-27 22:14:38.28	16.79	25.04	-33.2	-34.1	25.0	0.00e+00	0	32	0	1372585984	40	5615
2026-01-27 22:14:39.29	16.52	24.98	-33.2	-34.0	25.2	0.00e+00	0	32	0	1375731712	40	5586
2026-01-27 22:14:40.30	16.25	24.92	-33.2	-34.0	25.2	0.00e+00	0	32	0	1378877440	40	5573
2026-01-27 22:14:41.31	15.97	24.86	-33.2	-34.0	25.3	0.00e+00	0	32	0	1382023168	40	5593
2026-01-27 22:14:42.32	15.70	24.79	-33.3	-34.2	25.2	0.00e+00	0	32	0	1385168896	40	5670
2026-01-27 22:14:43.33	15.44	24.73	-33.4	-34.3	25.0	0.00e+00	0	32	0	1388314624	40	5735
2026-01-27 22:14:44.34	15.17	24.67	-33.7	-34.5	24.8	0.00e+00	0	32	0	1391460352	40	5922
2026-01-27 22:14:45.35	14.90	24.61	-33.9	-34.7	24.5	0.00e+00	0	32	0	1394606080	40	6051
2026-01-27 22:14:46.36	14.63	24.54	-33.7	-34.6	24.5	0.00e+00	0	32	0	1397751808	40	5985
2026-01-27 22:14:47.37	14.37	24.48	-33.6	-34.5	24.6	0.00e+00	0	32	0	1400897536	40	5876
2026-01-27 22:14:48.38	14.11	24.41	-33.4	-34.2	24.8	0.00e+00	0	32	0	1404043264	40	5706
2026-01-27 22:14:49.39	13.84	24.35	-32.9	-33.8	25.3	0.00e+00	0	32	0	1407188992	40	5426
2026-01-27 22:14:50.40	13.58	24.28	-33.0	-33.9	25.3	0.00e+00	0	32	0	1410334720	40	5494
2026-01-27 22:14:51.41	13.32	24.21	-32.7	-33.5	25.6	0.00e+00	0	32	0	1413480448	40	5271
2026-01-27 22:14:52.42	13.06	24.15	-32.7	-33.5	25.7	0.00e+00	0	32	0	1416626176	38	5882
2026-01-27 22:14:53.43	12.80	24.08	-32.9	-33.7	25.4	0.00e+00	0	32	0	1419771904	38	6058
2026-01-27 22:14:54.45	12.55	24.01	-33.2	-34.1	25.3	0.00e+00	0	32	0	1422917632	38	6279
2026-01-27 22:14:55.46	12.29	23.94	-33.4	-34.2	25.1	0.00e+00	0	32	0	1426063360	38	6383
2026-01-27 22:14:56.47	12.03	23.88	-33.3	-34.2	25.1	0.00e+00	0	32	0	1429209088	38	6374
2026-01-27 22:14:57.48	11.78	23.81	-33.4	-34.3	25.0	0.00e+00	0	32	0	1432354816	38	6440
2026-01-27 22:14:58.49	11.53	23.74	-33.3	-34.2	25.0	0.00e+00	0	32	0	1435500544	38	6368
2026-01-27 22:14:59.50	11.28	23.67	-33.3	-34.2	24.9	0.00e+00	0	32	0	1438646272	38	6374
2026-01-27 22:15:00.51	11.03	23.60	-33.5	-34.4	24.9	0.00e+00	0	32	0	1441792000	38	6510
2026-01-27 22:15:01.52	10.78	23.53	-33.5	-34.4	24.9	0.00e+00	0	32	0	1444937728	38	6519
2026-01-27 22:15:02.53	10.53	23.45	-33.6	-34.5	24.9	0.00e+00	0	32	0	1448083456	38	6616
2026-01-27 22:15:03.54	10.28	23.38	-33.7	-34.6	24.8	0.00e+00	0	32	0	1451229184	38	6694
2026-01-27 22:15:04.55	10.04	23.31	-33.8	-34.7	24.7	0.00e+00	0	32	0	1454374912	40	5999
2026-01-27 22:15:05.56	9.79	23.24	-33.8	-34.7	24.7	0.00e+00	0	32	0	1457520640	40	5995
2026-01-27 22:15:06.57	9.55	23.17	-33.4	-34.3	25.0	0.00e+00	0	32	0	1460666368	40	5735
2026-01-27 22:15:07.58	9.31	23.09	-33.3	-34.2	25.0	0.00e+00	0	32	0	1463812096	40	5669
2026-01-27 22:15:08.59	9.07	23.02	-33.1	-34.0	25.0	0.00e+00	0	32	0	1466957824	40	5556
2026-01-27 22:15:09.60	8.83	22.95	-33.2	-34.1	25.2	0.00e+00	0	32	0	1470103552	40	5614
2026-01-27 22:15:10.61	8.59	22.87	-33.2	-34.0	25.2	0.00e+00	0	32	0	1473249280	40	5579
2026-01-27 22:15:11.62	8.35	22.80	-33.3	-34.2	25.1	0.00e+00	0	32	0	1476395008	40	5682
2026-01-27 22:15:12.63	8.11	22.72	-33.5	-34.4	24.9	0.00e+00	0	32	0	1479540736	40	5797
2026-01-27 22:15:13.64	7.88	22.65	-33.7	-34.6	24.8	0.00e+00	0	32	0	1482686464	40	5991
2026-01-27 22:15:14.65	7.64	22.57	-33.9	-34.8	24.6	0.00e+00	0	32	0	1485832192	40	6112
2026-01-27 22:15:15.66	7.41	22.50	-34.1	-35.0	24.4	0.00e+00	0	32	0	1488977920	40	6246
2026-01-27 22:15:16.67	7.18	22.42	-34.1	-35.0	24.5	0.00e+00	0	32	0	1492123648	40	6228
2026-01-27 22:15:17.68	6.95	22.35	-34.0	-34.9	24.6	0.00e+00	0	32	0	1495269376	40	6189
2026-01-27 22:15:18.69	6.72	22.27	-33.8	-34.7	24.6	0.00e+00	0	32	0	1498415104	40	6031
2026-01-27 22:15:19.70	6.49	22.19	-33.8	-34.7	24.6	0.00e+00	0	32	0	1501560832	40	6053
2026-01-27 22:15:20.71	6.26	22.12	-33.7	-34.6	24.9	0.00e+00	0	32	0	1504706560	40	5943
2026-01-27 22:15:21.72	6.04	22.04	-33.8	-34.7	24.8	0.00e+00	0	32	0	1507852288	40	6061
2026-01-27 22:15:22.73	5.81	21.96	-33.7	-34.6	24.8	0.00e+00	0	32	0	1510998016	40	5981
2026-01-27 22:15:23.74	5.59	21.88	-33.9	-34.8	24.8	0.00e+00	0	32	0	1514143744	40	6071
2026-01-27 22:15:24.75	5.37	21.81	-34.0	-34.9	24.6	0.00e+00	0	32	0	1517289472	40	6197
2026-01-27 22:15:25.76	5.14	21.73	-33.9	-34.8	24.8	0.00e+00	0	32	0	1521483776	40	6073
2026-01-27 22:15:26.77	4.92	21.65	-33.9	-34.8	24.7	0.00e+00	0	32	0	1523580928	40	6130
2026-01-27 22:15:27.78	4.70	21.57	-34.0	-34.9	24.7	0.00e+00	0	32	0	1526726656	40	6176
2026-01-27 22:15:28.79	4.49	21.49	-33.7	-34.6	24.7	0.00e+00	0	32	0	1529872384	40	5969
2026-01-27 22:15:29.80	4.27	21.41	-33.6	-34.4	24.9	0.00e+00	0	32	0	1533018112	40	5858
2026-01-27 22:15:30.81	4.05	21.34	-33.6	-34.5	24.9	0.00e+00	0	32	0	1537212416	40	5868
2026-01-27 22:15:31.83	3.84	21.26	-33.6	-34.5	24.9	0.00e+00	0	32	0	1540358144	40	5868
2026-01-27 22:15:32.84	3.62	21.18	-33.6	-34.5	24.8	0.00e+00	0	32	0	1543503872	40	5890
2026-01-27 22:15:33.85	3.41	21.10	-33.8	-34.7	24.7	0.00e+00	0	32	0	1546649600	40	6028
2026-01-27 22:15:34.86	3.20	21.02	-33.8	-34.7	24.6	0.00e+00	0	32	0	1549795328	40	6048
2026-01-27 22:15:35.87	2.99	20.94	-33.9	-34.8	24.5	0.00e+00	0	32	0	1552941056	40	6099
2026-01-27 22:15:36.88	2.78	20.86	-34.0	-34.9	24.4	0.00e+00	0	32	0	1556086784	40	6143
2026-01-27 22:15:37.89	2.57	20.78	-33.9	-34.8	24.5	0.00e+00	0	32	0	1559232512	40	6119
2026-01-27 22:15:38.90	2.36	20.70	-33.8	-34.7	24.6	0.00e+00	0	32	0	1562378240	40	6020
2026-01-27 22:15:39.91	2.16	20.62	-33.8	-34.7	24.8	0.00e+00	0	32	0	1565523968	40	5998
2026-01-27 22:15:40.92	1.95	20.53	-33.7	-34.5	24.9	0.00e+00	0	32	0	1568669696	40	5902
2026-01-27 22:15:41.93	1.75	20.45	-33.6	-34.4	25.0	0.00e+00	0	32	0	1571815424	40	5847
2026-01-27 22:15:42.94	1.55	20.37	-33.7	-34.6	24.8	0.00e+00	0	32	0	1574961152	40	5983
2026-01-27 22:15:43.95	1.34	20.29	-33.8	-34.7	24.8	0.00e+00	0	32	0	1578106880	40	6031
2026-01-27 22:15:44.96	1.14	20.21	-33.9	-34.8	24.7	0.00e+00	0	32	0	1581252608	40	6107
2026-01-27 22:15:45.97	0.94	20.13	-34.0	-34.9	24.7	0.00e+00	0	32	0	1584398336	40	6146
2026-01-27 22:15:46.98	0.75	20.05	-33.9	-34.8	24.7	0.00e+00	0	32	0	1587544064	40	6125
2026-01-27 22:15:47.99	0.55	19.97	-34.0	-34.9	24.7	0.00e+00	0	32	0	1590689792	40	6137
2026-01-27 22:15:49.00	0.35	19.89	-34.0	-34.8	24.6	0.00e+00	0	32	0	1593835520	40	6131
2026-01-27 22:15:50.01	0.16	19.80	-33.9	-34.8	24.6	0.00e+00	0	32	0	1596981248	40	6106
2026-01-27 22:15:51.02	359.96	19.72	-34.0	-34.9	24.5	0.00e+00	0	32	0	1600126976	40	6173
2026-01-27 22:15:52.03	359.77	19.64	-33.8	-34.7	24.6	0.00e+00	0	32	0	1603272704	40	6036
2026-01-27 22:15:53.04	359.58	19.56	-33.9	-34.8	24.6	0.00e+00	0	32	0	1606418432	40	6087
2026-01-27 22:15:54.05	359.39	19.48	-34.0	-34.9	24.5	0.00e+00	0	32	0	1609564160	40	6143
2026-01-27 22:15:55.06	359.20	19.40	-33.9	-34.8	24.5	0.00e+00	0	32	0	1612709888	40	6092
2026-01-27 22:15:56.07	359.01	19.31	-34.0	-34.9	24.4	0.00e+00	0	32	0	1615855616	40	6153
2026-01-27 22:15:57.08	358.82	19.23	-34.0	-34.9	24.3	0.00e+00	0	32	0	1619001344	40	6182
2026-01-27 22:15:58.09	358.63	19.15	-33.9	-34.8	24.4	0.00e+00	0	32	0	1622147072	40	6109
2026-01-27 22:15:59.10	358.45	19.07	-33.8	-34.7	24.5	0.00e+00	0	32	0	1625292800	40	6018
2026-01-27 22:16:00.11	358.26	18.98	-33.9	-34.8	24.4	0.00e+00	0	32	0	1628438528	40	6078
2026-01-27 22:16:01.12	358.08	18.90	-33.8	-34.7	24.4	0.00e+00	0	32	0	1631584256	40	6057
2026-01-27 22:16:02.13	357.89	18.82	-33.8	-34.7	24.4	0.00e+00	0	32	0	1634729984	40	6034
2026-01-27 22:16:03.14	357.71	18.74	-33.8	-34.7	24.4	0.00e+00	0	32	0	1637875712	40	6012
2026-01-27 22:16:04.15	357.53	18.66	-33.8	-34.7	24.5	0.00e+00	0	32	0	1641021440	40	6004
2026-01-27 22:16:05.15	357.35	18.57	-33.7	-34.6	24.5	0.00e+00	0	32	0	1644167168	40	5976
2026-01-27 22:16:06.16	357.17	18.49	-33.7	-34.6	24.5	0.00e+00	0	32	0	1647312896	40	5971
2026-01-27 22:16:07.17	357.00	18.41	-33.7	-34.6	24.6	0.00e+00	0	32	0	1650458624	40	5953
2026-01-27 22:16:08.19	356.82	18.33	-33.8	-34.7	24.5	0.00e+00	0	32	0	1653604352	40	6014
2026-01-27 22:16:09.19	356.64	18.24	-33.8	-34.6	24.6	0.00e+00	0	32	0	1656750080	40	5969
2026-01-27 22:16:10.20	356.47	18.16	-33.8	-34.7	24.7	0.00e+00	0	32	0	1659895808	40	6002
2026-01-27 22:16:11.21	356.29	18.08	-33.8	-34.7	24.7	0.00e+00	0	32	0	1663041536	40	6000
2026-01-27 22:16:12.22	356.12	18.00	-33.9	-34.8	24.6	0.00e+00	0	32	0	1666187264	40	6079
2026-01-27 22:16:13.23	355.95	17.91	-33.9	-34.8	24.6	0.00e+00	0	32	0	1669332992	40	6111
2026-01-27 22:16:14.24	355.78	17.83	-34.0	-34.9	24.6	0.00e+00	0	32	0	1672478720	40	6149
2026-01-27 22:16:15.25	355.61	17.75	-34.2	-35.1	24.4	0.00e+00	0	32	0	1675624448	40	6305
2026-01-27 22:16:16.26	355.44	17.67	-34.4	-35.3	24.3	0.00e+00	0	32	0	1678770176	40	6465
2026-01-27 22:16:17.27	355.27	17.58	-34.4	-35.4	24.2	0.00e+00	0	32	0	1681915904	40	6502
2026-01-27 22:16:18.28	355.10	17.50	-34.4	-35.3	24.3	0.00e+00	0	32	0	1685061632	40	6478
2026-01-27 22:16:19.29	354.94	17.42	-34.2	-35.1	24.4	0.00e+00	0	32	0	1688207360	40	6297
2026-01-27 22:16:20.30	354.77	17.34	-34.1	-35.0	24.4	0.00e+00	0	32	0	1691353088	40	6243
2026-01-27 22:16:21.31	354.61	17.26	-34.0	-34.9	24.5	0.00e+00	0	32	0	1694498816	40	6156
2026-01-27 22:16:22.32	354.44	17.17	-34.0	-34.9	24.4	0.00e+00	0	32	0	1697644544	40	6172
2026-01-27 22:16:23.33	354.28	17.09	-34.0	-34.9	24.5	0.00e+00	0	32	0	1700790272	40	6141
2026-01-27 22:16:24.34	354.12	17.01	-33.9	-34.8	24.6	0.00e+00	0	32	0	1703936000	40	6079
2026-01-27 22:16:25.35	353.96	16.93	-34.0	-34.8	24.6	0.00e+00	0	32	0	1707081728	40	6134
2026-01-27 22:16:26.35	353.80	16.85	-33.9	-34.8	24.6	0.00e+00	0	32	0	1710227456	40	6073
2026-01-27 22:16:27.36	353.64	16.76	-34.1	-35.0	24.5	0.00e+00	0	32	0	1713373184	40	6253
2026-01-27 22:16:28.38	353.48	16.68	-34.1	-35.0	24.5	0.00e+00	0	32	0	1716518912	40	6238
2026-01-27 22:16:29.39	353.32	16.60	-34.2	-35.1	24.3	0.00e+00	0	32	0	1719664640	40	6344
2026-01-27 22:16:30.40	353.16	16.52	-34.4	-35.3	24.2	0.00e+00	0	32	0	1722810368	40	6462
2026-01-27 22:16:31.41	353.01	16.43	-34.5	-35.5	24.0	0.00e+00	0	32	0	1725956096	40	6577
2026-01-27 22:16:32.42	352.85	16.35	-34.6	-35.6	24.0	0.00e+00	0	32	0	1729101824	40	6651
2026-01-27 22:16:33.43	352.70	16.27	-34.5	-35.4	24.0	0.00e+00	0	32	0	1732247552	40	6565
2026-01-27 22:16:34.44	352.55	16.19	-34.4	-35.3	24.1	0.00e+00	0	32	0	1735393280	40	6477
2026-01-27 22:16:35.45	352.39	16.11	-34.5	-35.4	24.0	0.00e+00	0	32	0	1738539008	40	6517
2026-01-27 22:16:36.46	352.24	16.03	-34.3	-35.2	24.2	0.00e+00	0	32	0	1741684736	40	6383
2026-01-27 22:16:37.47	352.09	15.94	-34.0	-34.9	24.5	0.00e+00	0	32	0	1744830464	40	6137
2026-01-27 22:16:38.48	351.94	15.86	-34.0	-34.8	24.5	0.00e+00	0	32	0	1747976192	40	6134
2026-01-27 22:16:39.50	351.79	15.78	-33.9	-34.8	24.5	0.00e+00	0	32	0	1751121920	40	6106
2026-01-27 22:16:40.51	351.64	15.70	-34.0	-34.9	24.5	0.00e+00	0	32	0	1754267648	40	6174
2026-01-27 22:16:41.52	351.50	15.62	-34.2	-35.0	24.4	0.00e+00	0	32	0	1757413376	40	6273
2026-01-27 22:16:42.53	351.35	15.54	-34.4	-35.3	24.3	0.00e+00	0	32	0	1760559104	40	6446
2026-01-27 22:16:43.54	351.20	15.46	-34.7	-35.6	24.0	0.00e+00	0	32	0	1763704832	40	6724
2026-01-27 22:16:44.55	351.06	15.38	-34.9	-35.8	23.9	0.00e+00	0	32	0	1766850560	42	6082
2026-01-27 22:16:45.56	350.92	15.29	-34.8	-35.7	24.0	0.00e+00	0	32	0	1769996288	42	6064
2026-01-27 22:16:46.57	350.77	15.21	-35.0	-35.9	23.8	0.00e+00	0	32	0	1773142016	42	6180
2026-01-27 22:16:47.58	350.63	15.13	-35.1	-36.0	23.6	0.00e+00	0	32	0	1776287744	42	6276
2026-01-27 22:16:48.59	350.49	15.05	-34.9	-35.8	23.7	0.00e+00	0	32	0	1779433472	42	6134
2026-01-27 22:16:49.60	350.35	14.97	-34.9	-35.8	23.6	0.00e+00	0	32	0	1782579200	42	6118
2026-01-27 22:16:50.61	350.21	14.89	-34.6	-35.5	23.7	0.00e+00	0	32	0	1785724928	42	5909
2026-01-27 22:16:51.62	350.07	14.81	-34.5	-35.4	23.8	0.00e+00	0	32	0	1788870656	42	5813
2026-01-27 22:16:52.63	349.93	14.73	-34.4	-35.3	23.9	0.00e+00	0	32	0	1792016384	42	5762
2026-01-27 22:16:53.64	349.79	14.65	-34.4	-35.4	24.0	0.00e+00	0	32	0	1795162112	42	5803
2026-01-27 22:16:54.65	349.65	14.57	-34.3	-35.2	24.0	0.00e+00	0	32	0	1798307840	42	5686
2026-01-27 22:16:55.66	349.52	14.49	-34.3	-35.2	24.1	0.00e+00	0	32	0	1801453568	42	5683
2026-01-27 22:16:56.67	349.38	14.41	-34.5	-35.4	24.1	0.00e+00	0	32	0	1804599296	42	5802
2026-01-27 22:16:57.68	349.25	14.33	-34.5	-35.4	24.1	0.00e+00	0	32	0	1807745024	42	5832
2026-01-27 22:16:58.69	349.11	14.25	-34.6	-35.5	24.0	0.00e+00	0	32	0	1810890752	42	5873
2026-01-27 22:16:59.70	348.98	14.17	-34.7	-35.6	23.9	0.00e+00	0	32	0	1814036480	42	5958
2026-01-27 22:17:00.71	348.85	14.09	-34.8	-35.7	23.8	0.00e+00	0	32	0	1817182208	42	6018
2026-01-27 22:17:01.73	348.71	14.01	-34.9	-35.8	23.7	0.00e+00	0	32	0	1820327936	42	6104
2026-01-27 22:17:02.74	348.58	13.93	-34.9	-35.8	23.7	0.00e+00	0	32	0	1823473664	42	6122
2026-01-27 22:17:03.75	348.45	13.85	-35.0	-35.9	23.6	0.00e+00	0	32	0	1826619392	42	6202
2026-01-27 22:17:04.75	348.32	13.78	-34.8	-35.7	23.7	0.00e+00	0	32	0	1830813696	42	6054
2026-01-27 22:17:05.76	348.19	13.70	-34.8	-35.8	23.6	0.00e+00	0	32	0	1833959424	42	6087
2026-01-27 22:17:06.78	348.06	13.62	-34.7	-35.6	23.7	0.00e+00	0	32	0	1837105152	42	5961
2026-01-27 22:17:07.79	347.94	13.54	-34.7	-35.6	23.7	0.00e+00	0	32	0	1839202304	42	5964
2026-01-27 22:17:08.80	347.81	13.46	-34.5	-35.4	23.8	0.00e+00	0	32	0	1842348032	42	5834
2026-01-27 22:17:09.81	347.68	13.38	-34.4	-35.3	23.9	0.00e+00	0	32	0	1846542336	42	5735
2026-01-27 22:17:10.82	347.56	13.30	-34.3	-35.2	24.0	0.00e+00	0	32	0	1849688064	42	5708
2026-01-27 22:17:11.83	347.43	13.22	-34.3	-35.2	24.2	0.00e+00	0	32	0	1852833792	42	5672
2026-01-27 22:17:12.84	347.31	13.15	-34.0	-34.8	24.3	0.00e+00	0	32	0	1855979520	42	5456
2026-01-27 22:17:13.85	347.19	13.07	-34.0	-34.9	24.4	0.00e+00	0	32	0	1859125248	42	5487
2026-01-27 22:17:14.86	347.06	12.99	-34.0	-34.9	24.3	0.00e+00	0	32	0	1862270976	42	5513
2026-01-27 22:17:15.87	346.94	12.91	-34.2	-35.2	24.2	0.00e+00	0	32	0	1865416704	42	5665
2026-01-27 22:17:16.88	346.82	12.83	-34.3	-35.1	24.3	0.00e+00	0	32	0	1868562432	42	5659
2026-01-27 22:17:17.89	346.70	12.76	-34.5	-35.4	24.0	0.00e+00	0	32	0	1871708160	42	5807
2026-01-27 22:17:18.90	346.58	12.68	-34.6	-35.5	23.9	0.00e+00	0	32	0	1874853888	42	5918
2026-01-27 22:17:19.91	346.46	12.60	-34.9	-35.9	23.6	0.00e+00	0	32	0	1877999616	42	6152
2026-01-27 22:17:20.92	346.34	12.53	-35.0	-36.0	23.6	0.00e+00	0	32	0	1881145344	42	6219
2026-01-27 22:17:21.93	346.22	12.45	-35.2	-36.2	23.4	0.00e+00	0	32	0	1884291072	42	6394
2026-01-27 22:17:22.94	346.10	12.37	-35.5	-36.4	23.3	0.00e+00	0	32	0	1887436800	42	6569
2026-01-27 22:17:23.95	345.99	12.29	-35.4	-36.4	23.2	0.00e+00	0	32	0	1890582528	42	6567
2026-01-27 22:17:24.96	345.87	12.22	-35.3	-36.3	23.2	0.00e+00	0	32	0	1893728256	42	6443
2026-01-27 22:17:25.97	345.75	12.14	-35.3	-36.2	23.2	0.00e+00	0	32	0	1896873984	42	6416
2026-01-27 22:17:26.98	345.64	12.06	-35.1	-36.1	23.2	0.00e+00	0	32	0	1900019712	42	6305
2026-01-27 22:17:27.99	345.52	11.99	-35.2	-36.2	23.1	0.00e+00	0	32	0	1903165440	42	6384
2026-01-27 22:17:29.00	345.41	11.91	-34.8	-35.7	23.5	0.00e+00	0	32	0	1906311168	42	6054
2026-01-27 22:17:30.01	345.30	11.84	-34.8	-35.7	23.6	0.00e+00	0	32	0	1909456896	42	6022
2026-01-27 22:17:31.02	345.18	11.76	-34.6	-35.5	23.8	0.00e+00	0	32	0	1912602624	42	5904
2026-01-27 22:17:32.03	345.07	11.68	-34.5	-35.4	23.8	0.00e+00	0	32	0	1915748352	42	5821
2026-01-27 22:17:33.04	344.96	11.61	-34.6	-35.5	23.8	0.00e+00	0	32	0	1918894080	42	5907
2026-01-27 22:17:34.05	344.85	11.53	-34.6	-35.5	23.9	0.00e+00	0	32	0	1922039808	42	5913
2026-01-27 22:17:35.06	344.74	11.46	-34.6	-35.5	24.0	0.00e+00	0	32	0	1925185536	42	5876
2026-01-27 22:17:36.07	344.63	11.38	-34.7	-35.6	23.8	0.00e+00	0	32	0	1928331264	42	5970
2026-01-27 22:17:37.08	344.52	11.31	-34.9	-35.9	23.6	0.00e+00	0	32	0	1931476992	42	6166
2026-01-27 22:17:38.09	344.41	11.23	-35.2	-36.1	23.5	0.00e+00	0	32	0	1934622720	42	6345
2026-01-27 22:17:39.10	344.30	11.16	-35.2	-36.2	23.4	0.00e+00	0	32	0	1937768448	42	6373
2026-01-27 22:17:40.11	344.20	11.08	-35.6	-36.5	23.2	0.00e+00	0	32	0	1940914176	42	6647
2026-01-27 22:17:41.12	344.09	11.01	-35.6	-36.6	23.0	0.00e+00	0	32	0	1944059904	42	6714
2026-01-27 22:17:42.13	343.98	10.93	-35.8	-36.8	22.9	0.00e+00	0	32	0	1947205632	42	6827
2026-01-27 22:17:43.14	343.88	10.86	-35.7	-36.7	22.9	0.00e+00	0	32	0	1950351360	44	6048
2026-01-27 22:17:44.15	343.77	10.78	-36.0	-37.0	22.8	0.00e+00	0	32	0	1953497088	44	6235
2026-01-27 22:17:45.16	343.67	10.71	-35.8	-36.9	22.8	0.00e+00	0	32	0	1956642816	44	6139
2026-01-27 22:17:46.17	343.56	10.64	-35.9	-36.9	22.7	0.00e+00	0	32	0	1959788544	44	6156
2026-01-27 22:17:47.18	343.46	10.56	-36.0	-37.0	22.6	0.00e+00	0	32	0	1962934272	44	6241
2026-01-27 22:17:48.19	343.36	10.49	-36.1	-37.1	22.4	0.00e+00	0	32	0	1966080000	44	6322
2026-01-27 22:17:49.20	343.25	10.41	-35.8	-36.7	22.7	0.00e+00	0	32	0	1969225728	44	6060
2026-01-27 22:17:50.21	343.15	10.34	-35.7	-36.7	22.8	0.00e+00	0	32	0	1972371456	44	6007
2026-01-27 22:17:51.22	343.05	10.27	-35.5	-36.5	22.9	0.00e+00	0	33	0	1975517184	44	5884
2026-01-27 22:17:52.23	342.95	10.19	-35.5	-36.5	23.0	0.00e+00	0	32	0	1978662912	44	5902
