passes_logs/2026/01/27/R4.6S_Anadyr/R4.6S_Anadyr__20260127_021534_SUOMI_NPP_rec.log

#Pass ID: 20260127_021534_SUOMI NPP
#Satellite: SUOMI NPP
#Configuration: NPP
#almurnet v.1.7.20251203
#Start time: 2026-01-27 02:15:37

#Version: 2.2.20231116
#Station: R4.6S_Anadyr
#Location: 177.4865 lon 64.73178 lat
#TLE: 1 37849U 11061A   26026.52266023  .00000173  00000+0  10323-3 0  9994
#TLE: 2 37849  98.7822 328.4727 0002140  43.9411 316.1934 14.19530258738341

#Time	Az	El	Level	Level2	SNR	BER	BlckErr	Temp	State	Recorded	gain1	gain2
2026-01-27 02:15:37.76	207.33	0.17	-49.2	-63.0	3.3	1.54e+00	0	27	0	0	60	51001
2026-01-27 02:15:38.76	207.39	0.22	-49.2	-64.5	3.6	1.51e+00	0	27	104	0	60	61017
2026-01-27 02:15:39.77	207.46	0.27	-49.3	-64.5	3.6	1.51e+00	0	27	104	0	60	60495
2026-01-27 02:15:40.78	207.52	0.33	-49.2	-64.5	3.6	1.51e+00	0	27	104	0	60	60461
2026-01-27 02:15:41.79	207.58	0.38	-49.2	-64.4	3.5	1.51e+00	0	27	104	0	60	59944
2026-01-27 02:15:42.80	207.65	0.43	-49.1	-64.4	3.6	1.51e+00	0	28	104	0	60	60032
2026-01-27 02:15:43.81	207.71	0.49	-48.9	-64.4	3.6	1.51e+00	0	28	104	0	60	60045
2026-01-27 02:15:44.82	207.78	0.54	-49.0	-64.3	3.6	1.51e+00	0	28	104	0	60	59547
2026-01-27 02:15:45.83	207.84	0.60	-49.1	-64.3	3.6	1.51e+00	0	28	104	0	60	59643
2026-01-27 02:15:46.84	207.90	0.65	-49.1	-64.3	3.6	1.51e+00	0	28	104	0	60	59620
2026-01-27 02:15:47.85	207.97	0.70	-49.2	-64.4	3.6	1.51e+00	0	28	104	0	60	59895
2026-01-27 02:15:48.86	208.04	0.76	-49.1	-64.3	3.6	1.51e+00	0	28	104	0	60	59381
2026-01-27 02:15:49.87	208.10	0.81	-49.1	-64.3	3.6	1.51e+00	0	28	104	0	60	59056
2026-01-27 02:15:50.88	208.17	0.87	-49.0	-64.3	3.6	1.51e+00	0	28	104	0	60	59160
2026-01-27 02:15:51.89	208.23	0.92	-48.9	-64.2	3.6	1.51e+00	0	28	104	0	60	58670
2026-01-27 02:15:52.90	208.30	0.98	-49.0	-64.2	3.6	1.51e+00	0	28	104	0	60	58669
2026-01-27 02:15:53.91	208.36	1.03	-48.9	-64.1	3.6	1.51e+00	0	28	104	0	60	58135
2026-01-27 02:15:54.92	208.43	1.09	-48.9	-64.1	3.6	1.51e+00	0	28	104	0	60	57705
2026-01-27 02:15:55.93	208.50	1.14	-48.8	-64.0	3.6	1.51e+00	0	28	104	0	60	57291
2026-01-27 02:15:56.94	208.57	1.19	-48.6	-63.8	3.6	1.51e+00	0	28	104	0	60	55910
2026-01-27 02:15:57.95	208.63	1.25	-48.4	-63.6	3.6	1.51e+00	0	28	104	0	60	54773
2026-01-27 02:15:58.96	208.70	1.30	-48.1	-63.2	3.6	1.51e+00	0	28	104	0	60	52249
2026-01-27 02:15:59.96	208.77	1.36	-47.8	-62.9	3.6	1.51e+00	0	28	104	0	60	50441
2026-01-27 02:16:00.97	208.84	1.41	-47.7	-62.9	3.6	1.51e+00	0	28	104	0	60	50432
2026-01-27 02:16:01.98	208.90	1.47	-47.7	-62.9	3.6	1.51e+00	0	28	104	0	60	50479
2026-01-27 02:16:02.99	208.97	1.52	-47.7	-62.9	3.6	1.51e+00	0	28	104	0	60	50185
2026-01-27 02:16:04.00	209.04	1.58	-47.7	-62.9	3.6	1.51e+00	0	28	104	0	60	50471
2026-01-27 02:16:05.01	209.11	1.63	-47.7	-62.9	3.5	1.51e+00	0	28	104	0	60	50474
2026-01-27 02:16:06.02	209.18	1.69	-47.7	-62.9	3.6	1.51e+00	0	28	104	0	60	50235
2026-01-27 02:16:07.03	209.25	1.75	-47.7	-62.8	3.6	1.51e+00	0	28	104	0	60	49984
2026-01-27 02:16:08.04	209.32	1.80	-47.7	-62.7	3.6	1.51e+00	0	28	104	0	60	49474
2026-01-27 02:16:09.05	209.39	1.86	-47.7	-62.8	3.6	1.51e+00	0	28	104	0	60	49758
2026-01-27 02:16:10.06	209.46	1.91	-47.7	-62.7	3.6	1.51e+00	0	28	104	0	60	49462
2026-01-27 02:16:11.07	209.53	1.97	-47.7	-62.7	3.6	1.51e+00	0	28	104	0	60	49508
2026-01-27 02:16:12.08	209.60	2.02	-47.7	-62.7	3.6	1.51e+00	0	28	104	0	60	49528
2026-01-27 02:16:13.09	209.67	2.08	-47.7	-62.7	3.6	1.51e+00	0	28	104	0	60	49371
2026-01-27 02:16:14.10	209.74	2.14	-47.7	-62.7	3.6	1.51e+00	0	28	104	0	60	49071
2026-01-27 02:16:15.11	209.81	2.19	-47.7	-62.7	3.6	1.51e+00	0	28	104	0	60	49424
2026-01-27 02:16:16.12	209.89	2.25	-47.7	-62.8	3.6	1.51e+00	0	28	104	0	60	50057
2026-01-27 02:16:17.13	209.96	2.30	-47.7	-62.9	3.6	1.51e+00	0	28	104	0	60	50319
2026-01-27 02:16:18.14	210.03	2.36	-47.7	-62.5	3.6	1.51e+00	0	28	104	0	60	48335
2026-01-27 02:16:19.15	210.10	2.42	-47.7	-62.2	3.6	1.51e+00	0	28	104	0	60	46326
2026-01-27 02:16:20.16	210.18	2.47	-47.7	-61.5	3.6	1.51e+00	0	28	104	0	60	43182
2026-01-27 02:16:21.17	210.25	2.53	-47.7	-61.5	3.6	1.51e+00	0	28	104	0	60	43013
2026-01-27 02:16:22.18	210.32	2.59	-47.7	-61.5	3.6	1.51e+00	0	28	104	0	60	43195
2026-01-27 02:16:23.19	210.40	2.64	-47.6	-60.2	3.7	1.51e+00	0	28	104	0	60	36840
2026-01-27 02:16:24.20	210.47	2.70	-47.3	-56.5	4.8	1.19e+00	0	28	0	0	60	24192
2026-01-27 02:16:25.21	210.54	2.76	-46.9	-53.8	7.3	2.12e-01	0	28	0	2097152	60	17613
2026-01-27 02:16:26.22	210.62	2.81	-46.1	-51.0	11.0	7.56e-03	0	28	0	4194304	60	12815
2026-01-27 02:16:27.23	210.69	2.87	-45.2	-48.8	12.8	6.41e-04	0	28	0	5242880	60	9959
2026-01-27 02:16:28.24	210.77	2.93	-44.2	-47.0	14.8	0.00e+00	0	28	0	7340032	60	8110
2026-01-27 02:16:29.25	210.84	2.99	-44.0	-46.7	15.1	0.00e+00	0	28	0	9437184	60	7800
2026-01-27 02:16:30.26	210.92	3.04	-44.1	-47.0	14.8	0.00e+00	0	28	0	11534336	60	8046
2026-01-27 02:16:31.27	210.99	3.10	-44.8	-48.1	13.6	6.80e-06	0	28	0	13631488	60	9211
2026-01-27 02:16:32.28	211.07	3.16	-43.8	-46.3	15.7	6.10e-06	0	28	0	14680064	60	7481
2026-01-27 02:16:33.29	211.15	3.22	-47.3	-54.7	6.5	2.27e-01	0	28	0	16777216	60	19608
2026-01-27 02:16:34.30	211.22	3.27	-44.6	-47.6	14.9	1.63e-03	0	28	0	18874368	60	8703
2026-01-27 02:16:35.31	211.30	3.33	-47.7	-62.8	3.6	1.32e+00	0	28	104	19922944	60	50030
2026-01-27 02:16:36.32	211.38	3.39	-47.6	-62.0	3.6	1.51e+00	0	28	104	19922944	60	45574
2026-01-27 02:16:37.33	211.46	3.45	-42.2	-44.0	18.2	5.54e-04	0	28	0	19922944	56	7185
2026-01-27 02:16:38.34	211.53	3.50	-41.4	-43.0	19.0	0.00e+00	0	28	0	22020096	56	6402
2026-01-27 02:16:39.35	211.61	3.56	-41.4	-42.9	18.9	0.00e+00	0	28	0	24117248	56	6380
2026-01-27 02:16:40.36	211.69	3.62	-41.3	-42.8	19.1	0.00e+00	0	28	0	26214400	56	6271
2026-01-27 02:16:41.36	211.77	3.68	-41.0	-42.4	19.5	0.00e+00	0	28	0	28311552	56	5993
2026-01-27 02:16:42.37	211.85	3.74	-41.1	-42.5	19.4	0.00e+00	0	28	0	29360128	56	6077
2026-01-27 02:16:43.38	211.93	3.79	-40.8	-42.2	19.6	0.00e+00	0	28	0	31457280	54	6603
2026-01-27 02:16:44.39	212.01	3.85	-40.1	-41.4	20.4	0.00e+00	0	28	0	33554432	54	5992
2026-01-27 02:16:45.40	212.09	3.91	-40.4	-41.8	20.0	0.00e+00	0	28	0	35651584	54	6267
2026-01-27 02:16:46.41	212.17	3.97	-40.4	-41.8	20.0	0.00e+00	0	28	0	37748736	54	6261
2026-01-27 02:16:47.42	212.25	4.03	-40.6	-42.0	19.8	0.00e+00	0	28	0	38797312	54	6431
2026-01-27 02:16:48.43	212.33	4.09	-41.0	-42.4	19.6	0.00e+00	0	28	0	40894464	54	6769
2026-01-27 02:16:49.43	212.41	4.15	-40.4	-41.7	20.0	0.00e+00	0	28	0	42991616	54	6198
2026-01-27 02:16:50.45	212.49	4.21	-40.4	-41.7	20.0	0.00e+00	0	28	0	45088768	54	6226
2026-01-27 02:16:51.46	212.57	4.26	-40.6	-42.0	19.9	0.00e+00	0	28	0	47185920	54	6435
2026-01-27 02:16:52.46	212.65	4.32	-40.3	-41.6	20.2	0.00e+00	0	28	0	48234496	54	6141
2026-01-27 02:16:53.47	212.74	4.38	-40.5	-41.9	20.0	0.00e+00	0	28	0	50331648	54	6333
2026-01-27 02:16:54.48	212.82	4.44	-40.4	-41.7	20.1	0.00e+00	0	28	0	52428800	54	6223
2026-01-27 02:16:55.49	212.90	4.50	-40.7	-42.1	19.8	0.00e+00	0	28	0	54525952	54	6475
2026-01-27 02:16:56.50	212.98	4.56	-40.2	-41.5	20.2	0.00e+00	0	28	0	56623104	54	6055
2026-01-27 02:16:57.51	213.07	4.62	-40.8	-42.2	19.7	0.00e+00	0	28	0	57671680	54	6610
2026-01-27 02:16:58.52	213.15	4.68	-40.6	-41.9	20.0	0.00e+00	0	28	0	59768832	54	6384
2026-01-27 02:16:59.53	213.24	4.74	-40.7	-42.0	20.0	0.00e+00	0	28	0	61865984	54	6453
2026-01-27 02:17:00.54	213.32	4.80	-40.6	-41.9	19.9	0.00e+00	0	28	0	63963136	54	6377
2026-01-27 02:17:01.55	213.41	4.86	-40.9	-42.3	19.8	0.00e+00	0	28	0	66060288	54	6635
2026-01-27 02:17:02.56	213.49	4.92	-40.6	-42.0	20.0	0.00e+00	0	28	0	68157440	54	6411
2026-01-27 02:17:03.57	213.58	4.98	-40.5	-41.8	20.2	0.00e+00	0	28	0	69206016	54	6306
2026-01-27 02:17:04.58	213.66	5.04	-40.8	-42.2	19.7	0.00e+00	0	28	0	71303168	54	6611
2026-01-27 02:17:05.59	213.75	5.10	-40.5	-41.9	20.0	0.00e+00	0	28	0	73400320	54	6346
2026-01-27 02:17:06.60	213.84	5.16	-40.7	-42.0	19.9	0.00e+00	0	28	0	75497472	54	6439
2026-01-27 02:17:07.60	213.92	5.22	-40.7	-42.1	19.9	0.00e+00	0	28	0	77594624	54	6488
2026-01-27 02:17:08.61	214.01	5.28	-40.6	-41.9	20.1	0.00e+00	0	28	0	78643200	54	6388
2026-01-27 02:17:09.62	214.10	5.34	-40.5	-41.8	20.2	0.00e+00	0	28	0	80740352	54	6306
2026-01-27 02:17:10.63	214.19	5.40	-40.5	-41.8	20.3	0.00e+00	0	28	0	82837504	54	6258
2026-01-27 02:17:11.64	214.27	5.46	-40.4	-41.7	20.4	0.00e+00	0	28	0	84934656	54	6207
2026-01-27 02:17:12.65	214.36	5.52	-39.9	-41.0	21.0	0.00e+00	0	28	0	87031808	52	6459
2026-01-27 02:17:13.66	214.45	5.58	-39.9	-41.1	21.0	0.00e+00	0	28	0	88080384	52	6484
2026-01-27 02:17:14.68	214.54	5.64	-39.7	-40.8	21.1	0.00e+00	0	28	0	90177536	52	6294
2026-01-27 02:17:15.68	214.63	5.70	-40.0	-41.2	20.9	0.00e+00	0	28	0	92274688	52	6548
2026-01-27 02:17:16.69	214.72	5.77	-40.2	-41.4	20.7	0.00e+00	0	28	0	94371840	52	6705
2026-01-27 02:17:17.70	214.81	5.83	-39.8	-41.0	21.1	0.00e+00	0	28	0	96468992	52	6424
2026-01-27 02:17:18.71	214.90	5.89	-39.8	-41.0	21.1	0.00e+00	0	28	0	97517568	52	6392
2026-01-27 02:17:19.72	214.99	5.95	-39.7	-40.8	21.2	0.00e+00	0	28	0	99614720	52	6288
2026-01-27 02:17:20.73	215.09	6.01	-39.9	-41.0	21.0	0.00e+00	0	28	0	101711872	52	6454
2026-01-27 02:17:21.74	215.18	6.07	-39.8	-41.0	21.1	0.00e+00	0	28	0	103809024	52	6432
2026-01-27 02:17:22.75	215.27	6.13	-39.6	-40.8	21.3	0.00e+00	0	28	0	105906176	52	6247
2026-01-27 02:17:23.76	215.36	6.20	-39.6	-40.8	21.2	0.00e+00	0	28	0	106954752	52	6251
2026-01-27 02:17:24.77	215.46	6.26	-39.5	-40.7	21.4	0.00e+00	0	28	0	109051904	52	6184
2026-01-27 02:17:25.78	215.55	6.32	-39.6	-40.7	21.3	0.00e+00	0	28	0	111149056	52	6210
2026-01-27 02:17:26.79	215.64	6.38	-39.7	-40.9	21.2	0.00e+00	0	28	0	113246208	52	6349
2026-01-27 02:17:27.80	215.74	6.44	-39.3	-40.4	21.6	0.00e+00	0	28	0	115343360	52	5971
2026-01-27 02:17:28.81	215.83	6.50	-39.6	-40.8	21.3	0.00e+00	0	28	0	116391936	52	6266
2026-01-27 02:17:29.82	215.93	6.57	-39.5	-40.7	21.4	0.00e+00	0	28	0	118489088	52	6190
2026-01-27 02:17:30.83	216.02	6.63	-39.4	-40.5	21.5	0.00e+00	0	28	0	120586240	52	6087
2026-01-27 02:17:31.84	216.12	6.69	-39.4	-40.6	21.5	0.00e+00	0	28	0	122683392	52	6118
2026-01-27 02:17:32.85	216.21	6.75	-39.6	-40.8	21.3	0.00e+00	0	28	0	124780544	52	6276
2026-01-27 02:17:33.86	216.31	6.82	-39.4	-40.5	21.5	0.00e+00	0	28	0	125829120	52	6091
2026-01-27 02:17:34.87	216.41	6.88	-39.5	-40.7	21.4	0.00e+00	0	28	0	127926272	52	6196
2026-01-27 02:17:35.88	216.51	6.94	-39.8	-41.0	21.3	0.00e+00	0	28	0	130023424	52	6430
2026-01-27 02:17:36.88	216.60	7.00	-39.2	-40.2	21.8	0.00e+00	0	28	0	132120576	52	5893
2026-01-27 02:17:37.89	216.70	7.07	-39.2	-40.3	21.7	0.00e+00	0	28	0	134217728	52	5949
2026-01-27 02:17:38.90	216.80	7.13	-39.2	-40.3	21.9	0.00e+00	0	28	0	136314880	52	5897
2026-01-27 02:17:39.91	216.90	7.19	-39.3	-40.3	21.7	0.00e+00	0	28	0	137363456	52	5940
2026-01-27 02:17:40.92	217.00	7.26	-39.5	-40.6	21.5	0.00e+00	0	28	0	139460608	52	6140
2026-01-27 02:17:41.93	217.10	7.32	-39.1	-40.1	21.9	0.00e+00	0	28	0	141557760	52	5800
2026-01-27 02:17:42.94	217.20	7.38	-39.3	-40.3	21.8	0.00e+00	0	28	0	143654912	52	5961
2026-01-27 02:17:43.95	217.30	7.45	-39.2	-40.3	21.9	0.00e+00	0	28	0	145752064	52	5924
2026-01-27 02:17:44.96	217.40	7.51	-39.4	-40.5	21.6	0.00e+00	0	28	0	146800640	52	6045
2026-01-27 02:17:45.97	217.50	7.57	-39.6	-40.7	21.5	0.00e+00	0	28	0	148897792	52	6220
2026-01-27 02:17:46.98	217.60	7.64	-39.8	-41.0	21.2	0.00e+00	0	28	0	150994944	52	6393
2026-01-27 02:17:47.99	217.71	7.70	-39.6	-40.7	21.5	0.00e+00	0	28	0	153092096	52	6184
2026-01-27 02:17:49.00	217.81	7.76	-39.8	-40.9	21.3	0.00e+00	0	28	0	155189248	52	6350
2026-01-27 02:17:50.02	217.91	7.83	-39.9	-41.1	21.2	0.00e+00	0	28	0	156237824	52	6466
2026-01-27 02:17:51.03	218.02	7.89	-39.7	-40.8	21.3	0.00e+00	0	29	0	158334976	52	6297
2026-01-27 02:17:52.04	218.12	7.96	-39.8	-41.0	21.1	0.00e+00	0	28	0	160432128	52	6429
2026-01-27 02:17:53.05	218.22	8.02	-39.9	-41.1	21.2	0.00e+00	0	29	0	162529280	52	6478
2026-01-27 02:17:54.06	218.33	8.09	-39.9	-41.0	21.2	0.00e+00	0	28	0	164626432	52	6443
2026-01-27 02:17:55.07	218.44	8.15	-39.9	-41.1	21.1	0.00e+00	0	28	0	165675008	52	6471
2026-01-27 02:17:56.08	218.54	8.21	-39.9	-41.1	21.2	0.00e+00	0	28	0	167772160	52	6512
2026-01-27 02:17:57.09	218.65	8.28	-39.6	-40.8	21.4	0.00e+00	0	28	0	169869312	52	6269
2026-01-27 02:17:58.10	218.75	8.34	-39.9	-41.1	21.1	0.00e+00	0	28	0	171966464	52	6506
2026-01-27 02:17:59.11	218.86	8.41	-39.8	-40.9	21.4	0.00e+00	0	28	0	174063616	52	6366
2026-01-27 02:18:00.11	218.97	8.47	-39.6	-40.7	21.5	0.00e+00	0	28	0	175112192	52	6214
2026-01-27 02:18:01.12	219.08	8.54	-39.5	-40.6	21.5	0.00e+00	0	28	0	177209344	52	6155
2026-01-27 02:18:02.13	219.18	8.60	-39.4	-40.5	21.6	0.00e+00	0	28	0	179306496	52	6075
2026-01-27 02:18:03.14	219.29	8.67	-39.1	-40.1	21.9	0.00e+00	0	28	0	181403648	52	5815
2026-01-27 02:18:04.16	219.40	8.73	-39.2	-40.3	21.8	0.00e+00	0	28	0	183500800	52	5933
2026-01-27 02:18:05.16	219.51	8.80	-39.3	-40.3	21.8	0.00e+00	0	28	0	184549376	52	5942
2026-01-27 02:18:06.18	219.63	8.86	-39.1	-40.1	22.1	0.00e+00	0	28	0	186646528	52	5788
2026-01-27 02:18:07.19	219.74	8.93	-38.9	-39.9	22.2	0.00e+00	0	28	0	188743680	52	5681
2026-01-27 02:18:08.19	219.85	8.99	-38.9	-40.0	22.2	0.00e+00	0	28	0	190840832	52	5701
2026-01-27 02:18:09.20	219.96	9.06	-38.8	-39.8	22.4	0.00e+00	0	28	0	192937984	52	5593
2026-01-27 02:18:10.21	220.07	9.12	-38.9	-39.9	22.1	0.00e+00	0	29	0	193986560	52	5676
2026-01-27 02:18:11.22	220.18	9.19	-39.1	-40.1	22.1	0.00e+00	0	28	0	196083712	52	5827
2026-01-27 02:18:12.23	220.30	9.25	-39.0	-40.0	22.2	0.00e+00	0	28	0	198180864	52	5734
2026-01-27 02:18:13.24	220.41	9.32	-38.9	-40.0	22.2	0.00e+00	0	28	0	200278016	52	5707
2026-01-27 02:18:14.25	220.53	9.39	-38.9	-39.9	22.2	0.00e+00	0	28	0	202375168	52	5665
2026-01-27 02:18:15.26	220.64	9.45	-39.0	-40.0	22.1	0.00e+00	0	28	0	204472320	52	5754
2026-01-27 02:18:16.27	220.76	9.52	-39.4	-40.4	21.8	0.00e+00	0	28	0	205520896	52	6011
2026-01-27 02:18:17.28	220.87	9.58	-39.3	-40.4	21.8	0.00e+00	0	28	0	207618048	52	5972
2026-01-27 02:18:18.29	220.99	9.65	-39.2	-40.3	21.8	0.00e+00	0	28	0	209715200	52	5912
2026-01-27 02:18:19.30	221.10	9.72	-39.2	-40.3	21.9	0.00e+00	0	28	0	211812352	52	5920
2026-01-27 02:18:20.31	221.22	9.78	-39.4	-40.5	21.7	0.00e+00	0	28	0	213909504	52	6059
2026-01-27 02:18:21.32	221.34	9.85	-39.4	-40.4	21.6	0.00e+00	0	28	0	214958080	52	6023
2026-01-27 02:18:22.32	221.46	9.91	-39.4	-40.4	21.7	0.00e+00	0	28	0	217055232	52	6020
2026-01-27 02:18:23.33	221.58	9.98	-39.4	-40.5	21.7	0.00e+00	0	28	0	219152384	52	6073
2026-01-27 02:18:24.34	221.70	10.05	-39.2	-40.3	21.9	0.00e+00	0	28	0	221249536	52	5933
2026-01-27 02:18:25.36	221.82	10.11	-39.3	-40.4	21.9	0.00e+00	0	28	0	223346688	52	5979
2026-01-27 02:18:26.36	221.94	10.18	-39.5	-40.6	21.6	0.00e+00	0	28	0	224395264	52	6163
2026-01-27 02:18:27.38	222.06	10.25	-39.6	-40.7	21.5	0.00e+00	0	28	0	226492416	52	6195
2026-01-27 02:18:28.39	222.18	10.32	-39.6	-40.7	21.7	0.00e+00	0	29	0	228589568	52	6200
2026-01-27 02:18:29.40	222.30	10.38	-39.4	-40.5	21.7	0.00e+00	0	28	0	230686720	52	6074
2026-01-27 02:18:30.41	222.43	10.45	-39.4	-40.4	21.8	0.00e+00	0	29	0	232783872	52	6031
2026-01-27 02:18:31.42	222.55	10.52	-39.5	-40.6	21.7	0.00e+00	0	28	0	233832448	52	6138
2026-01-27 02:18:32.43	222.67	10.58	-39.6	-40.7	21.6	0.00e+00	0	28	0	235929600	52	6235
2026-01-27 02:18:33.44	222.80	10.65	-39.4	-40.5	21.7	0.00e+00	0	29	0	238026752	52	6087
2026-01-27 02:18:34.44	222.92	10.72	-39.7	-40.9	21.4	0.00e+00	0	28	0	240123904	52	6330
2026-01-27 02:18:35.46	223.05	10.79	-39.9	-41.0	21.4	0.00e+00	0	28	0	242221056	52	6414
2026-01-27 02:18:36.46	223.17	10.85	-39.7	-40.8	21.6	0.00e+00	0	29	0	243269632	52	6314
2026-01-27 02:18:37.47	223.30	10.92	-39.8	-40.9	21.4	0.00e+00	0	29	0	245366784	52	6354
2026-01-27 02:18:38.48	223.42	10.99	-39.9	-41.0	21.3	0.00e+00	0	28	0	247463936	52	6458
2026-01-27 02:18:39.49	223.55	11.05	-39.8	-40.9	21.4	0.00e+00	0	29	0	249561088	52	6388
2026-01-27 02:18:40.50	223.68	11.12	-39.4	-40.5	21.8	0.00e+00	0	29	0	251658240	52	6040
2026-01-27 02:18:41.51	223.81	11.19	-39.5	-40.5	21.7	0.00e+00	0	28	0	252706816	52	6100
2026-01-27 02:18:42.52	223.94	11.26	-39.3	-40.3	21.9	0.00e+00	0	29	0	254803968	52	5943
2026-01-27 02:18:43.53	224.07	11.33	-39.3	-40.3	21.9	0.00e+00	0	28	0	256901120	52	5935
2026-01-27 02:18:44.54	224.20	11.39	-39.1	-40.1	22.1	0.00e+00	0	28	0	258998272	52	5801
2026-01-27 02:18:45.55	224.33	11.46	-39.0	-40.0	22.2	0.00e+00	0	29	0	261095424	52	5711
2026-01-27 02:18:46.56	224.46	11.53	-39.0	-40.1	22.2	0.00e+00	0	29	0	262144000	52	5763
2026-01-27 02:18:47.56	224.59	11.60	-38.8	-39.8	22.4	0.00e+00	0	29	0	264241152	52	5588
2026-01-27 02:18:48.57	224.73	11.66	-38.8	-39.8	22.3	0.00e+00	0	29	0	266338304	50	6264
2026-01-27 02:18:49.58	224.86	11.73	-38.7	-39.7	22.4	0.00e+00	0	29	0	268435456	50	6185
2026-01-27 02:18:50.60	224.99	11.80	-38.6	-39.6	22.5	0.00e+00	0	29	0	270532608	50	6152
2026-01-27 02:18:51.60	225.13	11.87	-38.7	-39.7	22.4	0.00e+00	0	28	0	272629760	50	6181
2026-01-27 02:18:52.61	225.26	11.94	-38.4	-39.3	22.7	0.00e+00	0	29	0	273678336	50	5946
2026-01-27 02:18:53.62	225.40	12.01	-38.2	-39.2	22.8	0.00e+00	0	29	0	275775488	50	5856
2026-01-27 02:18:54.63	225.54	12.07	-38.2	-39.1	22.9	0.00e+00	0	29	0	277872640	50	5827
2026-01-27 02:18:55.64	225.67	12.14	-38.3	-39.2	22.8	0.00e+00	0	28	0	279969792	50	5874
2026-01-27 02:18:56.65	225.81	12.21	-38.4	-39.4	22.7	0.00e+00	0	28	0	282066944	50	6002
2026-01-27 02:18:57.66	225.95	12.28	-38.4	-39.3	22.8	0.00e+00	0	29	0	283115520	50	5938
2026-01-27 02:18:58.67	226.09	12.35	-38.4	-39.3	22.8	0.00e+00	0	28	0	285212672	50	5962
2026-01-27 02:18:59.68	226.23	12.42	-38.5	-39.4	22.6	0.00e+00	0	29	0	287309824	50	6017
2026-01-27 02:19:00.69	226.37	12.49	-38.6	-39.6	22.5	0.00e+00	0	29	0	289406976	50	6153
2026-01-27 02:19:01.70	226.51	12.55	-38.6	-39.5	22.7	0.00e+00	0	28	0	291504128	50	6095
2026-01-27 02:19:02.70	226.65	12.62	-38.6	-39.5	22.6	0.00e+00	0	29	0	292552704	50	6088
2026-01-27 02:19:03.71	226.79	12.69	-38.7	-39.7	22.5	0.00e+00	0	29	0	294649856	50	6175
2026-01-27 02:19:04.72	226.93	12.76	-38.6	-39.6	22.6	0.00e+00	0	29	0	296747008	50	6131
2026-01-27 02:19:05.73	227.08	12.83	-38.7	-39.7	22.4	0.00e+00	0	29	0	298844160	50	6237
2026-01-27 02:19:06.74	227.22	12.90	-38.8	-39.8	22.4	0.00e+00	0	29	0	300941312	50	6265
2026-01-27 02:19:07.75	227.37	12.97	-38.6	-39.6	22.5	0.00e+00	0	29	0	301989888	50	6112
2026-01-27 02:19:08.76	227.51	13.04	-38.7	-39.7	22.5	0.00e+00	0	29	0	304087040	50	6191
2026-01-27 02:19:09.77	227.66	13.10	-38.7	-39.7	22.4	0.00e+00	0	28	0	306184192	50	6233
2026-01-27 02:19:10.78	227.80	13.17	-38.9	-39.9	22.3	0.00e+00	0	29	0	308281344	50	6387
2026-01-27 02:19:11.79	227.95	13.24	-38.6	-39.6	22.5	0.00e+00	0	29	0	310378496	50	6136
2026-01-27 02:19:12.80	228.10	13.31	-39.1	-40.1	22.1	0.00e+00	0	29	0	311427072	50	6539
2026-01-27 02:19:13.81	228.25	13.38	-39.1	-40.1	22.2	0.00e+00	0	29	0	313524224	50	6490
2026-01-27 02:19:14.82	228.40	13.45	-39.0	-40.0	21.8	0.00e+00	0	29	0	315621376	50	6444
2026-01-27 02:19:15.83	228.55	13.52	-39.0	-40.1	22.1	0.00e+00	0	29	0	317718528	50	6480
2026-01-27 02:19:16.84	228.70	13.59	-39.0	-40.0	22.3	0.00e+00	0	29	0	319815680	50	6432
2026-01-27 02:19:17.85	228.85	13.66	-38.6	-39.6	22.5	0.00e+00	0	29	0	320864256	50	6138
2026-01-27 02:19:18.86	229.00	13.73	-38.6	-39.5	22.6	0.00e+00	0	29	0	322961408	50	6087
2026-01-27 02:19:19.87	229.15	13.79	-38.5	-39.5	22.7	0.00e+00	0	29	0	325058560	50	6067
2026-01-27 02:19:20.88	229.31	13.86	-38.3	-39.2	22.8	0.00e+00	0	29	0	327155712	50	5888
2026-01-27 02:19:21.89	229.46	13.93	-38.2	-39.1	23.1	0.00e+00	0	29	0	329252864	50	5810
2026-01-27 02:19:22.90	229.62	14.00	-38.2	-39.2	23.0	0.00e+00	0	29	0	330301440	50	5836
2026-01-27 02:19:23.90	229.77	14.07	-37.9	-38.9	23.2	0.00e+00	0	29	0	332398592	50	5631
2026-01-27 02:19:24.91	229.93	14.14	-38.0	-38.9	23.0	0.00e+00	0	29	0	334495744	50	5679
2026-01-27 02:19:25.92	230.08	14.21	-38.0	-38.9	23.2	0.00e+00	0	29	0	336592896	50	5669
2026-01-27 02:19:26.93	230.24	14.28	-38.0	-38.9	23.2	0.00e+00	0	29	0	338690048	50	5660
2026-01-27 02:19:27.94	230.40	14.35	-37.8	-38.7	23.3	0.00e+00	0	29	0	340787200	48	6229
2026-01-27 02:19:28.95	230.56	14.42	-37.8	-38.8	23.3	0.00e+00	0	29	0	341835776	48	6250
2026-01-27 02:19:29.96	230.72	14.49	-37.7	-38.6	23.4	0.00e+00	0	29	0	343932928	48	6133
2026-01-27 02:19:30.97	230.88	14.56	-37.8	-38.7	23.3	0.00e+00	0	29	0	346030080	48	6235
2026-01-27 02:19:31.98	231.04	14.62	-37.8	-38.7	23.3	0.00e+00	0	29	0	348127232	48	6239
2026-01-27 02:19:32.99	231.20	14.69	-37.9	-38.8	23.2	0.00e+00	0	29	0	350224384	48	6253
2026-01-27 02:19:34.00	231.36	14.76	-37.7	-38.6	23.3	0.00e+00	0	29	0	351272960	48	6110
2026-01-27 02:19:35.01	231.53	14.83	-37.7	-38.6	23.4	0.00e+00	0	29	0	353370112	48	6124
2026-01-27 02:19:36.02	231.69	14.90	-37.6	-38.5	23.3	0.00e+00	0	29	0	355467264	48	6048
2026-01-27 02:19:37.03	231.86	14.97	-37.7	-38.6	23.3	0.00e+00	0	29	0	357564416	48	6135
2026-01-27 02:19:38.04	232.02	15.04	-37.8	-38.6	23.4	0.00e+00	0	29	0	359661568	48	6173
2026-01-27 02:19:39.05	232.19	15.11	-37.9	-38.8	23.3	0.00e+00	0	29	0	360710144	48	6280
2026-01-27 02:19:40.06	232.36	15.18	-37.9	-38.9	23.2	0.00e+00	0	29	0	362807296	48	6321
2026-01-27 02:19:41.07	232.52	15.25	-38.1	-39.0	23.0	0.00e+00	0	29	0	364904448	48	6433
2026-01-27 02:19:42.08	232.69	15.31	-38.4	-39.3	22.7	0.00e+00	0	29	0	367001600	48	6673
2026-01-27 02:19:43.10	232.86	15.38	-38.4	-39.4	22.8	0.00e+00	0	29	0	369098752	48	6709
2026-01-27 02:19:44.10	233.03	15.45	-38.3	-39.3	22.9	0.00e+00	0	29	0	370147328	48	6642
2026-01-27 02:19:45.12	233.20	15.52	-38.2	-39.1	23.0	0.00e+00	0	29	0	372244480	48	6520
2026-01-27 02:19:46.13	233.38	15.59	-38.1	-39.0	23.1	0.00e+00	0	29	0	374341632	48	6449
2026-01-27 02:19:47.14	233.55	15.66	-37.9	-38.9	23.3	0.00e+00	0	29	0	376438784	48	6320
2026-01-27 02:19:48.15	233.72	15.73	-38.0	-38.9	23.2	0.00e+00	0	29	0	378535936	48	6333
2026-01-27 02:19:49.16	233.90	15.80	-38.1	-39.0	23.1	0.00e+00	0	29	0	379584512	48	6419
2026-01-27 02:19:50.17	234.07	15.87	-37.8	-38.7	23.3	0.00e+00	0	29	0	381681664	48	6245
2026-01-27 02:19:51.17	234.24	15.93	-37.8	-38.7	23.2	0.00e+00	0	29	0	383778816	48	6181
2026-01-27 02:19:52.18	234.42	16.00	-37.7	-38.6	23.4	0.00e+00	0	29	0	385875968	48	6153
2026-01-27 02:19:53.19	234.60	16.07	-37.8	-38.7	23.3	0.00e+00	0	29	0	387973120	48	6231
2026-01-27 02:19:54.20	234.78	16.14	-37.6	-38.5	23.4	0.00e+00	0	29	0	389021696	48	6038
2026-01-27 02:19:55.21	234.95	16.21	-37.6	-38.5	23.5	0.00e+00	0	29	0	391118848	48	6037
2026-01-27 02:19:56.22	235.13	16.27	-37.4	-38.2	23.7	0.00e+00	0	29	0	393216000	48	5883
2026-01-27 02:19:57.23	235.31	16.34	-37.3	-38.1	23.7	0.00e+00	0	29	0	395313152	48	5816
2026-01-27 02:19:58.24	235.49	16.41	-37.4	-38.2	23.7	0.00e+00	0	29	0	397410304	48	5867
2026-01-27 02:19:59.25	235.68	16.48	-37.2	-38.1	23.9	0.00e+00	0	29	0	398458880	48	5770
2026-01-27 02:20:00.26	235.86	16.55	-37.3	-38.2	23.7	0.00e+00	0	29	0	400556032	48	5829
2026-01-27 02:20:01.27	236.04	16.61	-37.1	-37.9	24.0	0.00e+00	0	29	0	402653184	48	5680
2026-01-27 02:20:02.28	236.23	16.68	-37.0	-37.8	24.0	0.00e+00	0	29	0	404750336	48	5593
2026-01-27 02:20:03.29	236.41	16.75	-36.9	-37.7	24.1	0.00e+00	0	29	0	406847488	48	5532
2026-01-27 02:20:04.30	236.60	16.82	-37.0	-37.8	24.0	0.00e+00	0	29	0	408944640	48	5623
2026-01-27 02:20:05.31	236.78	16.88	-37.0	-37.9	24.0	0.00e+00	0	29	0	409993216	48	5636
2026-01-27 02:20:06.32	236.97	16.95	-37.0	-37.9	24.0	0.00e+00	0	29	0	412090368	48	5632
2026-01-27 02:20:07.32	237.16	17.02	-37.1	-38.0	23.8	0.00e+00	0	29	0	414187520	48	5698
2026-01-27 02:20:08.34	237.35	17.09	-37.3	-38.1	23.7	0.00e+00	0	29	0	416284672	48	5821
2026-01-27 02:20:09.35	237.54	17.15	-37.4	-38.3	23.6	0.00e+00	0	29	0	418381824	48	5950
2026-01-27 02:20:10.36	237.73	17.22	-37.7	-38.6	23.2	0.00e+00	0	29	0	419430400	48	6110
2026-01-27 02:20:11.37	237.92	17.29	-37.7	-38.6	23.5	0.00e+00	0	29	0	421527552	48	6105
2026-01-27 02:20:12.37	238.11	17.35	-37.6	-38.5	23.6	0.00e+00	0	29	0	423624704	48	6061
2026-01-27 02:20:13.38	238.30	17.42	-37.2	-38.1	23.8	0.00e+00	0	29	0	425721856	48	5775
2026-01-27 02:20:14.39	238.50	17.49	-37.5	-38.3	23.7	0.00e+00	0	29	0	427819008	48	5962
2026-01-27 02:20:15.40	238.69	17.55	-37.4	-38.3	23.8	0.00e+00	0	29	0	428867584	48	5927
2026-01-27 02:20:16.41	238.89	17.62	-37.5	-38.3	23.6	0.00e+00	0	29	0	430964736	48	5956
2026-01-27 02:20:17.42	239.09	17.68	-37.6	-38.5	23.5	0.00e+00	0	29	0	433061888	48	6078
2026-01-27 02:20:18.43	239.28	17.75	-37.8	-38.7	23.5	0.00e+00	0	29	0	435159040	48	6203
2026-01-27 02:20:19.44	239.48	17.81	-37.9	-38.8	23.3	0.00e+00	0	29	0	437256192	48	6317
2026-01-27 02:20:20.45	239.68	17.88	-37.9	-38.8	23.3	0.00e+00	0	29	0	438304768	48	6297
2026-01-27 02:20:21.46	239.88	17.95	-38.0	-39.0	23.2	0.00e+00	0	29	0	440401920	48	6391
2026-01-27 02:20:22.47	240.08	18.01	-38.1	-39.0	23.2	0.00e+00	0	29	0	442499072	48	6432
2026-01-27 02:20:23.48	240.28	18.08	-37.8	-38.7	23.4	0.00e+00	0	29	0	444596224	48	6201
2026-01-27 02:20:24.49	240.48	18.14	-37.8	-38.7	23.5	0.00e+00	0	29	0	446693376	48	6182
2026-01-27 02:20:25.49	240.69	18.20	-37.7	-38.5	23.5	0.00e+00	0	29	0	447741952	48	6102
2026-01-27 02:20:26.50	240.89	18.27	-37.8	-38.7	23.2	0.00e+00	0	29	0	449839104	48	6243
2026-01-27 02:20:27.52	241.10	18.33	-37.8	-38.7	23.4	0.00e+00	0	29	0	451936256	48	6205
2026-01-27 02:20:28.53	241.30	18.40	-37.9	-38.8	23.3	0.00e+00	0	29	0	454033408	48	6281
2026-01-27 02:20:29.53	241.51	18.46	-38.0	-39.0	23.3	0.00e+00	0	29	0	456130560	48	6403
2026-01-27 02:20:30.55	241.72	18.53	-37.9	-38.8	23.3	0.00e+00	0	29	0	457179136	48	6283
2026-01-27 02:20:31.55	241.92	18.59	-37.8	-38.7	23.5	0.00e+00	0	29	0	459276288	48	6177
2026-01-27 02:20:32.56	242.13	18.65	-37.6	-38.4	23.6	0.00e+00	0	29	0	461373440	48	6028
2026-01-27 02:20:33.57	242.34	18.71	-37.6	-38.5	23.6	0.00e+00	0	29	0	463470592	48	6075
2026-01-27 02:20:34.58	242.55	18.78	-37.6	-38.5	23.6	0.00e+00	0	29	0	465567744	48	6038
2026-01-27 02:20:35.59	242.76	18.84	-37.6	-38.5	23.5	0.00e+00	0	29	0	466616320	48	6075
2026-01-27 02:20:36.60	242.98	18.90	-37.8	-38.7	23.4	0.00e+00	0	29	0	468713472	48	6225
2026-01-27 02:20:37.61	243.19	18.96	-38.2	-39.1	23.0	0.00e+00	0	29	0	470810624	48	6514
2026-01-27 02:20:38.62	243.40	19.03	-38.2	-39.2	23.0	0.00e+00	0	29	0	472907776	48	6569
2026-01-27 02:20:39.63	243.62	19.09	-38.4	-39.4	23.0	0.00e+00	0	29	0	475004928	48	6697
2026-01-27 02:20:40.64	243.83	19.15	-38.3	-39.2	22.9	0.00e+00	0	29	0	477102080	48	6598
2026-01-27 02:20:41.65	244.05	19.21	-38.0	-38.9	23.2	0.00e+00	0	29	0	478150656	48	6384
2026-01-27 02:20:42.66	244.27	19.27	-38.0	-38.9	23.2	0.00e+00	0	29	0	480247808	48	6375
2026-01-27 02:20:43.67	244.49	19.33	-38.0	-38.9	23.2	0.00e+00	0	29	0	482344960	48	6373
2026-01-27 02:20:44.68	244.71	19.39	-38.0	-38.9	23.2	0.00e+00	0	29	0	484442112	48	6339
2026-01-27 02:20:45.69	244.93	19.45	-38.3	-39.3	22.8	0.00e+00	0	29	0	486539264	48	6647
2026-01-27 02:20:46.70	245.15	19.51	-38.6	-39.6	22.7	0.00e+00	0	29	0	487587840	48	6861
2026-01-27 02:20:47.71	245.37	19.57	-38.7	-39.7	22.7	0.00e+00	0	29	0	489684992	50	6221
2026-01-27 02:20:48.72	245.59	19.63	-38.6	-39.6	22.7	0.00e+00	0	29	0	491782144	50	6150
2026-01-27 02:20:49.73	245.81	19.69	-38.5	-39.5	22.9	0.00e+00	0	29	0	493879296	50	6049
2026-01-27 02:20:50.74	246.04	19.75	-38.3	-39.2	23.0	0.00e+00	0	29	0	495976448	50	5881
2026-01-27 02:20:51.75	246.26	19.81	-38.2	-39.1	23.1	0.00e+00	0	29	0	497025024	50	5791
2026-01-27 02:20:52.76	246.49	19.87	-38.3	-39.2	23.0	0.00e+00	0	29	0	499122176	50	5841
2026-01-27 02:20:53.77	246.72	19.92	-38.4	-39.3	22.9	0.00e+00	0	29	0	501219328	50	5940
2026-01-27 02:20:54.78	246.94	19.98	-39.0	-40.0	22.3	0.00e+00	0	29	0	503316480	50	6415
2026-01-27 02:20:55.79	247.17	20.04	-39.4	-40.4	22.1	0.00e+00	0	29	0	505413632	50	6749
2026-01-27 02:20:56.80	247.40	20.10	-39.4	-40.5	22.0	0.00e+00	0	29	0	506462208	50	6822
2026-01-27 02:20:57.81	247.63	20.15	-39.5	-40.6	21.9	0.00e+00	0	29	0	508559360	50	6866
2026-01-27 02:20:58.82	247.86	20.21	-39.2	-40.3	22.2	0.00e+00	0	29	0	510656512	50	6622
2026-01-27 02:20:59.83	248.09	20.27	-38.8	-39.8	22.7	0.00e+00	0	29	0	512753664	50	6265
2026-01-27 02:21:00.84	248.33	20.32	-38.6	-39.5	22.8	0.00e+00	0	29	0	514850816	50	6074
2026-01-27 02:21:01.85	248.56	20.38	-38.4	-39.3	23.0	0.00e+00	0	29	0	515899392	50	5933
2026-01-27 02:21:02.86	248.79	20.43	-38.8	-39.8	22.6	0.00e+00	0	29	0	517996544	50	6255
2026-01-27 02:21:03.87	249.03	20.49	-38.6	-39.5	22.9	0.00e+00	0	29	0	520093696	50	6073
2026-01-27 02:21:04.88	249.26	20.54	-38.7	-39.6	22.6	0.00e+00	0	29	0	522190848	50	6156
2026-01-27 02:21:05.89	249.50	20.59	-38.7	-39.7	22.8	0.00e+00	0	29	0	524288000	50	6180
2026-01-27 02:21:06.90	249.74	20.65	-38.7	-39.7	22.7	0.00e+00	0	29	0	525336576	50	6184
2026-01-27 02:21:07.91	249.98	20.70	-38.5	-39.5	22.7	0.00e+00	0	29	0	527433728	50	6044
2026-01-27 02:21:08.91	250.21	20.75	-38.6	-39.6	22.7	0.00e+00	0	29	0	529530880	50	6121
2026-01-27 02:21:09.92	250.45	20.80	-38.9	-39.8	22.5	0.00e+00	0	29	0	531628032	50	6311
2026-01-27 02:21:10.93	250.69	20.86	-39.4	-40.4	22.1	0.00e+00	0	29	0	533725184	50	6725
2026-01-27 02:21:11.94	250.94	20.91	-39.2	-40.2	22.2	0.00e+00	0	29	0	534773760	50	6585
2026-01-27 02:21:12.95	251.18	20.96	-39.0	-40.0	22.4	0.00e+00	0	29	0	536870912	50	6448
2026-01-27 02:21:13.96	251.42	21.01	-39.0	-39.9	22.5	0.00e+00	0	29	0	538968064	50	6389
2026-01-27 02:21:14.97	251.66	21.06	-38.5	-39.5	22.8	0.00e+00	0	29	0	541065216	50	6052
2026-01-27 02:21:15.97	251.91	21.11	-37.9	-38.8	23.3	0.00e+00	0	29	0	543162368	50	5619
2026-01-27 02:21:16.98	252.15	21.16	-37.9	-38.8	23.5	0.00e+00	0	29	0	545259520	50	5621
2026-01-27 02:21:17.99	252.40	21.21	-37.6	-38.5	23.5	0.00e+00	0	29	0	546308096	48	6066
2026-01-27 02:21:19.00	252.64	21.26	-37.8	-38.7	23.3	0.00e+00	0	29	0	548405248	48	6199
2026-01-27 02:21:20.01	252.89	21.31	-37.8	-38.7	23.4	0.00e+00	0	29	0	550502400	48	6196
2026-01-27 02:21:21.02	253.14	21.35	-37.9	-38.8	23.4	0.00e+00	0	29	0	552599552	48	6283
2026-01-27 02:21:22.03	253.39	21.40	-37.9	-38.8	23.2	0.00e+00	0	29	0	554696704	48	6283
2026-01-27 02:21:23.04	253.64	21.45	-38.4	-39.3	23.0	0.00e+00	0	29	0	555745280	48	6681
2026-01-27 02:21:24.05	253.89	21.49	-38.9	-39.9	22.5	0.00e+00	0	28	0	557842432	50	6329
2026-01-27 02:21:25.05	254.14	21.54	-39.3	-40.3	22.1	0.00e+00	0	29	0	559939584	50	6643
2026-01-27 02:21:26.06	254.39	21.58	-39.2	-40.3	22.3	0.00e+00	0	29	0	562036736	50	6625
2026-01-27 02:21:27.07	254.64	21.63	-39.2	-40.2	22.3	0.00e+00	0	29	0	564133888	50	6613
2026-01-27 02:21:28.08	254.89	21.67	-39.0	-40.0	22.3	0.00e+00	0	29	0	565182464	50	6443
2026-01-27 02:21:29.09	255.15	21.72	-38.3	-39.2	23.1	0.00e+00	0	29	0	567279616	50	5859
2026-01-27 02:21:30.10	255.40	21.76	-38.1	-39.0	22.7	0.00e+00	0	29	0	569376768	50	5704
2026-01-27 02:21:31.11	255.66	21.80	-37.8	-38.7	23.4	0.00e+00	0	29	0	571473920	50	5552
2026-01-27 02:21:32.12	255.91	21.85	-38.4	-39.4	22.9	0.00e+00	0	29	0	573571072	50	5969
2026-01-27 02:21:33.13	256.17	21.89	-38.9	-39.9	22.5	0.00e+00	0	29	0	574619648	50	6338
2026-01-27 02:21:34.14	256.43	21.93	-39.0	-40.0	22.5	0.00e+00	0	29	0	576716800	50	6464
2026-01-27 02:21:35.15	256.69	21.97	-38.8	-39.7	22.7	0.00e+00	0	29	0	578813952	50	6235
2026-01-27 02:21:36.16	256.95	22.01	-38.6	-39.6	22.8	0.00e+00	0	29	0	580911104	50	6133
2026-01-27 02:21:37.17	257.20	22.05	-38.4	-39.4	23.1	0.00e+00	0	29	0	583008256	50	5970
2026-01-27 02:21:38.18	257.46	22.09	-38.4	-39.4	22.9	0.00e+00	0	29	0	584056832	50	5992
2026-01-27 02:21:39.19	257.73	22.13	-38.6	-39.5	22.8	0.00e+00	0	29	0	586153984	50	6080
2026-01-27 02:21:40.20	257.99	22.17	-38.8	-39.8	22.6	0.00e+00	0	29	0	588251136	50	6284
2026-01-27 02:21:41.21	258.25	22.21	-38.8	-39.9	22.4	0.00e+00	0	29	0	590348288	50	6324
2026-01-27 02:21:42.22	258.51	22.24	-38.6	-39.6	22.9	0.00e+00	0	29	0	592445440	50	6146
2026-01-27 02:21:43.23	258.77	22.28	-38.3	-39.3	23.1	0.00e+00	0	29	0	593494016	50	5903
2026-01-27 02:21:44.23	259.04	22.32	-37.9	-38.8	23.4	0.00e+00	0	29	0	595591168	50	5583
2026-01-27 02:21:45.24	259.30	22.35	-37.8	-38.7	23.4	0.00e+00	0	29	0	597688320	50	5553
2026-01-27 02:21:46.25	259.56	22.39	-38.1	-39.0	23.2	0.00e+00	0	29	0	599785472	50	5755
2026-01-27 02:21:47.26	259.83	22.42	-38.6	-39.6	22.8	0.00e+00	0	29	0	601882624	50	6117
2026-01-27 02:21:48.27	260.10	22.45	-38.9	-40.0	22.5	0.00e+00	0	29	0	602931200	50	6396
2026-01-27 02:21:49.28	260.36	22.49	-39.0	-40.0	22.4	0.00e+00	0	29	0	605028352	50	6393
2026-01-27 02:21:50.29	260.63	22.52	-38.8	-39.7	22.7	0.00e+00	0	29	0	607125504	50	6240
2026-01-27 02:21:51.30	260.90	22.55	-38.4	-39.3	22.7	0.00e+00	0	29	0	609222656	50	5936
2026-01-27 02:21:52.31	261.17	22.58	-38.2	-39.1	23.1	0.00e+00	0	29	0	611319808	50	5809
2026-01-27 02:21:53.32	261.43	22.61	-38.2	-39.1	23.2	0.00e+00	0	29	0	612368384	50	5771
2026-01-27 02:21:54.33	261.70	22.64	-38.1	-39.0	23.1	0.00e+00	0	29	0	614465536	50	5697
2026-01-27 02:21:55.34	261.97	22.67	-38.2	-39.2	23.1	0.00e+00	0	29	0	616562688	50	5843
2026-01-27 02:21:56.35	262.24	22.70	-38.3	-39.2	23.1	0.00e+00	0	29	0	618659840	50	5864
2026-01-27 02:21:57.36	262.51	22.73	-38.4	-39.4	23.0	0.00e+00	0	29	0	620756992	50	5983
2026-01-27 02:21:58.37	262.79	22.76	-38.6	-39.6	22.8	0.00e+00	0	29	0	621805568	50	6112
2026-01-27 02:21:59.38	263.06	22.79	-38.7	-39.7	22.7	0.00e+00	0	29	0	623902720	50	6183
2026-01-27 02:22:00.38	263.33	22.81	-38.8	-39.7	22.7	0.00e+00	0	29	0	625999872	50	6243
2026-01-27 02:22:01.39	263.60	22.84	-38.8	-39.8	22.4	0.00e+00	0	29	0	628097024	50	6278
2026-01-27 02:22:02.40	263.87	22.86	-39.2	-40.2	22.2	0.00e+00	0	29	0	630194176	50	6593
2026-01-27 02:22:03.41	264.15	22.89	-39.1	-40.1	22.4	0.00e+00	0	29	0	631242752	50	6491
2026-01-27 02:22:04.42	264.42	22.91	-39.3	-40.4	22.2	0.00e+00	0	29	0	633339904	50	6713
2026-01-27 02:22:05.43	264.69	22.94	-39.6	-40.6	22.0	0.00e+00	0	29	0	635437056	52	6163
2026-01-27 02:22:06.44	264.97	22.96	-39.8	-40.9	21.9	0.00e+00	0	29	0	637534208	52	6336
2026-01-27 02:22:07.45	265.24	22.98	-39.7	-40.8	22.0	0.00e+00	0	29	0	639631360	52	6268
2026-01-27 02:22:08.46	265.52	23.00	-39.6	-40.6	22.0	0.00e+00	0	29	0	641728512	52	6154
2026-01-27 02:22:09.47	265.79	23.02	-39.0	-39.9	22.7	0.00e+00	0	29	0	642777088	52	5683
2026-01-27 02:22:10.48	266.07	23.04	-38.8	-39.7	22.6	0.00e+00	0	29	0	644874240	50	6232
2026-01-27 02:22:11.49	266.35	23.06	-38.6	-39.5	22.8	0.00e+00	0	29	0	646971392	50	6070
2026-01-27 02:22:12.50	266.62	23.08	-38.7	-39.6	22.8	0.00e+00	0	29	0	649068544	50	6172
2026-01-27 02:22:13.51	266.90	23.10	-38.6	-39.5	22.8	0.00e+00	0	29	0	651165696	50	6100
2026-01-27 02:22:14.52	267.18	23.12	-38.5	-39.4	22.9	0.00e+00	0	29	0	652214272	50	6009
2026-01-27 02:22:15.53	267.45	23.13	-37.8	-38.7	23.4	0.00e+00	0	29	0	654311424	50	5560
2026-01-27 02:22:16.54	267.73	23.15	-37.6	-38.5	23.7	0.00e+00	0	29	0	656408576	50	5411
2026-01-27 02:22:17.55	268.01	23.17	-37.7	-38.6	23.6	0.00e+00	0	29	0	658505728	48	6129
2026-01-27 02:22:18.56	268.29	23.18	-37.9	-38.8	23.3	0.00e+00	0	29	0	660602880	48	6264
2026-01-27 02:22:19.56	268.57	23.19	-38.4	-39.3	22.9	0.00e+00	0	28	0	661651456	48	6671
2026-01-27 02:22:20.57	268.84	23.21	-38.8	-39.8	22.6	0.00e+00	0	29	0	663748608	50	6273
2026-01-27 02:22:21.58	269.12	23.22	-39.0	-40.0	22.4	0.00e+00	0	29	0	665845760	50	6449
2026-01-27 02:22:22.59	269.40	23.23	-38.8	-39.7	22.7	0.00e+00	0	29	0	667942912	50	6223
2026-01-27 02:22:23.60	269.68	23.24	-38.2	-39.1	23.2	0.00e+00	0	29	0	670040064	50	5785
2026-01-27 02:22:24.61	269.96	23.25	-38.3	-39.2	23.1	0.00e+00	0	29	0	671088640	50	5849
2026-01-27 02:22:25.62	270.24	23.26	-38.0	-38.9	23.4	0.00e+00	0	29	0	673185792	50	5680
2026-01-27 02:22:26.63	270.52	23.27	-38.1	-39.0	23.2	0.00e+00	0	29	0	675282944	50	5719
2026-01-27 02:22:27.64	270.80	23.28	-38.3	-39.2	23.1	0.00e+00	0	29	0	677380096	50	5874
2026-01-27 02:22:28.65	271.08	23.29	-38.4	-39.3	23.0	0.00e+00	0	29	0	679477248	50	5909
2026-01-27 02:22:29.65	271.36	23.30	-38.6	-39.5	22.9	0.00e+00	0	29	0	680525824	50	6050
2026-01-27 02:22:30.66	271.64	23.30	-38.4	-39.3	22.9	0.00e+00	0	29	0	682622976	50	5956
2026-01-27 02:22:31.67	271.92	23.31	-38.2	-39.1	23.2	0.00e+00	0	29	0	684720128	50	5778
2026-01-27 02:22:32.68	272.20	23.31	-38.3	-39.2	23.1	0.00e+00	0	29	0	686817280	50	5851
2026-01-27 02:22:33.69	272.48	23.32	-38.4	-39.3	23.0	0.00e+00	0	29	0	688914432	50	5943
2026-01-27 02:22:34.70	272.76	23.32	-38.7	-39.6	22.7	0.00e+00	0	29	0	689963008	50	6171
2026-01-27 02:22:35.72	273.05	23.33	-38.6	-39.6	22.8	0.00e+00	0	29	0	692060160	50	6125
2026-01-27 02:22:36.72	273.33	23.33	-38.3	-39.2	23.2	0.00e+00	0	29	0	694157312	50	5867
2026-01-27 02:22:37.73	273.61	23.33	-38.1	-39.0	23.2	0.00e+00	0	29	0	696254464	50	5748
2026-01-27 02:22:38.74	273.89	23.33	-38.1	-39.0	23.2	0.00e+00	0	29	0	698351616	50	5741
2026-01-27 02:22:39.75	274.17	23.33	-38.0	-39.0	23.2	0.00e+00	0	29	0	699400192	50	5696
2026-01-27 02:22:40.76	274.45	23.33	-38.4	-39.4	23.0	0.00e+00	0	29	0	701497344	50	5965
2026-01-27 02:22:41.77	274.73	23.33	-38.4	-39.3	23.0	0.00e+00	0	29	0	703594496	50	5951
2026-01-27 02:22:42.78	275.01	23.33	-38.4	-39.3	23.0	0.00e+00	0	29	0	705691648	50	5932
2026-01-27 02:22:43.79	275.29	23.32	-38.5	-39.5	22.9	0.00e+00	0	29	0	707788800	50	6039
2026-01-27 02:22:44.80	275.57	23.32	-38.5	-39.4	22.9	0.00e+00	0	29	0	708837376	50	5999
2026-01-27 02:22:45.81	275.85	23.32	-38.3	-39.2	23.1	0.00e+00	0	29	0	710934528	50	5890
2026-01-27 02:22:46.81	276.13	23.31	-38.4	-39.3	23.1	0.00e+00	0	29	0	713031680	50	5932
2026-01-27 02:22:47.83	276.42	23.31	-38.2	-39.1	23.2	0.00e+00	0	29	0	715128832	50	5787
2026-01-27 02:22:48.84	276.70	23.30	-38.1	-39.0	23.3	0.00e+00	0	29	0	717225984	50	5724
2026-01-27 02:22:49.84	276.97	23.29	-38.1	-39.0	23.4	0.00e+00	0	29	0	719323136	50	5697
2026-01-27 02:22:50.85	277.25	23.29	-38.1	-39.0	23.3	0.00e+00	0	29	0	720371712	50	5742
2026-01-27 02:22:51.87	277.54	23.28	-38.1	-39.0	22.8	0.00e+00	0	29	0	722468864	50	5723
2026-01-27 02:22:52.87	277.81	23.27	-38.0	-38.9	23.3	0.00e+00	0	29	0	724566016	50	5635
2026-01-27 02:22:53.88	278.09	23.26	-38.0	-38.9	23.3	0.00e+00	0	29	0	726663168	50	5655
2026-01-27 02:22:54.89	278.37	23.25	-37.9	-38.8	23.5	0.00e+00	0	29	0	728760320	50	5584
2026-01-27 02:22:55.90	278.65	23.24	-37.9	-38.8	23.3	0.00e+00	0	29	0	729808896	50	5608
2026-01-27 02:22:56.91	278.93	23.23	-38.0	-38.8	23.4	0.00e+00	0	29	0	731906048	50	5630
2026-01-27 02:22:57.92	279.21	23.21	-37.8	-38.6	23.5	0.00e+00	0	29	0	734003200	48	6165
2026-01-27 02:22:58.93	279.49	23.20	-37.4	-38.3	23.8	0.00e+00	0	29	0	736100352	48	5899
2026-01-27 02:22:59.94	279.77	23.19	-37.2	-38.0	24.0	0.00e+00	0	29	0	738197504	48	5719
2026-01-27 02:23:00.95	280.05	23.17	-37.2	-38.1	23.9	0.00e+00	0	29	0	739246080	48	5773
2026-01-27 02:23:01.96	280.32	23.16	-37.1	-37.9	24.1	0.00e+00	0	29	0	741343232	48	5679
2026-01-27 02:23:02.97	280.60	23.14	-37.1	-37.9	24.1	0.00e+00	0	29	0	743440384	48	5690
2026-01-27 02:23:03.98	280.88	23.13	-37.3	-38.2	23.9	0.00e+00	0	29	0	745537536	48	5842
2026-01-27 02:23:04.99	281.16	23.11	-37.6	-38.4	23.7	0.00e+00	0	29	0	747634688	48	6025
2026-01-27 02:23:06.00	281.43	23.09	-37.5	-38.4	23.6	0.00e+00	0	29	0	748683264	48	5977
2026-01-27 02:23:07.01	281.71	23.07	-37.6	-38.5	23.6	0.00e+00	0	29	0	750780416	48	6058
2026-01-27 02:23:08.02	281.99	23.05	-37.9	-38.7	23.5	0.00e+00	0	29	0	752877568	48	6245
2026-01-27 02:23:09.03	282.26	23.03	-37.8	-38.7	23.5	0.00e+00	0	29	0	754974720	48	6189
2026-01-27 02:23:10.04	282.54	23.01	-37.9	-38.8	23.4	0.00e+00	0	29	0	757071872	48	6267
2026-01-27 02:23:11.05	282.81	22.99	-37.9	-38.8	23.4	0.00e+00	0	29	0	758120448	48	6280
2026-01-27 02:23:12.06	283.09	22.97	-37.8	-38.7	23.3	0.00e+00	0	29	0	760217600	48	6191
2026-01-27 02:23:13.07	283.36	22.95	-37.9	-38.8	23.3	0.00e+00	0	29	0	762314752	48	6308
2026-01-27 02:23:14.08	283.64	22.93	-38.1	-38.9	23.3	0.00e+00	0	29	0	764411904	48	6387
2026-01-27 02:23:15.09	283.91	22.90	-38.0	-38.9	23.1	0.00e+00	0	29	0	766509056	48	6367
2026-01-27 02:23:16.10	284.18	22.88	-38.1	-39.0	23.2	0.00e+00	0	29	0	767557632	48	6406
2026-01-27 02:23:17.11	284.45	22.85	-38.1	-39.0	23.2	0.00e+00	0	29	0	769654784	48	6439
2026-01-27 02:23:18.12	284.73	22.83	-38.1	-39.0	23.2	0.00e+00	0	29	0	771751936	48	6427
2026-01-27 02:23:19.13	285.00	22.80	-37.8	-38.7	23.5	0.00e+00	0	29	0	773849088	48	6199
2026-01-27 02:23:20.14	285.27	22.77	-38.0	-38.9	23.2	0.00e+00	0	29	0	775946240	48	6346
2026-01-27 02:23:21.15	285.54	22.75	-38.6	-39.5	22.8	0.00e+00	0	29	0	776994816	48	6848
2026-01-27 02:23:22.16	285.81	22.72	-38.9	-39.8	22.6	0.00e+00	0	29	0	779091968	50	6310
2026-01-27 02:23:23.17	286.08	22.69	-38.8	-39.8	22.4	0.00e+00	0	29	0	781189120	50	6262
2026-01-27 02:23:24.18	286.35	22.66	-38.1	-39.0	23.3	0.00e+00	0	29	0	783286272	50	5739
2026-01-27 02:23:25.19	286.62	22.63	-37.8	-38.7	23.5	0.00e+00	0	29	0	785383424	50	5550
2026-01-27 02:23:26.20	286.89	22.60	-37.4	-38.2	23.8	0.00e+00	0	29	0	787480576	48	5871
2026-01-27 02:23:27.21	287.16	22.57	-37.4	-38.2	24.0	0.00e+00	0	29	0	788529152	48	5871
2026-01-27 02:23:28.22	287.42	22.54	-37.0	-37.9	24.1	0.00e+00	0	29	0	790626304	48	5647
2026-01-27 02:23:29.23	287.69	22.51	-37.0	-37.9	24.0	0.00e+00	0	29	0	792723456	48	5640
2026-01-27 02:23:30.24	287.96	22.47	-37.1	-37.9	24.1	0.00e+00	0	29	0	794820608	48	5682
2026-01-27 02:23:31.25	288.22	22.44	-37.1	-37.9	24.1	0.00e+00	0	29	0	796917760	48	5680
2026-01-27 02:23:32.26	288.49	22.40	-36.9	-37.7	24.2	0.00e+00	0	29	0	797966336	48	5536
2026-01-27 02:23:33.27	288.75	22.37	-36.9	-37.8	24.0	0.00e+00	0	29	0	800063488	46	6246
2026-01-27 02:23:34.28	289.02	22.34	-36.8	-37.6	24.3	0.00e+00	0	29	0	802160640	46	6124
2026-01-27 02:23:35.28	289.28	22.30	-36.7	-37.5	24.3	0.00e+00	0	29	0	804257792	46	6079
2026-01-27 02:23:36.29	289.54	22.26	-36.8	-37.7	24.2	0.00e+00	0	29	0	806354944	46	6188
2026-01-27 02:23:37.30	289.80	22.23	-36.7	-37.6	24.4	0.00e+00	0	29	0	807403520	46	6104
2026-01-27 02:23:38.31	290.06	22.19	-36.9	-37.7	24.2	0.00e+00	0	29	0	809500672	46	6211
2026-01-27 02:23:39.32	290.32	22.15	-37.0	-37.9	24.1	0.00e+00	0	29	0	811597824	46	6337
2026-01-27 02:23:40.33	290.58	22.11	-37.1	-37.9	24.1	0.00e+00	0	29	0	813694976	46	6378
2026-01-27 02:23:41.34	290.84	22.07	-37.1	-38.0	23.9	0.00e+00	0	29	0	815792128	46	6397
2026-01-27 02:23:42.35	291.10	22.03	-37.3	-38.2	23.9	0.00e+00	0	29	0	816840704	46	6571
2026-01-27 02:23:43.37	291.36	21.99	-37.3	-38.2	23.9	0.00e+00	0	29	0	818937856	46	6566
2026-01-27 02:23:44.38	291.62	21.95	-37.3	-38.1	23.9	0.00e+00	0	29	0	821035008	46	6508
2026-01-27 02:23:45.38	291.88	21.91	-37.2	-38.0	24.0	0.00e+00	0	29	0	823132160	46	6455
2026-01-27 02:23:46.39	292.13	21.87	-37.1	-38.0	23.8	0.00e+00	0	29	0	825229312	46	6397
2026-01-27 02:23:47.40	292.39	21.83	-37.3	-38.1	23.8	0.00e+00	0	29	0	826277888	46	6513
2026-01-27 02:23:48.41	292.64	21.79	-37.1	-38.0	23.9	0.00e+00	0	29	0	828375040	46	6420
2026-01-27 02:23:49.42	292.90	21.74	-37.2	-38.1	24.0	0.00e+00	0	29	0	830472192	46	6482
2026-01-27 02:23:50.43	293.15	21.70	-37.0	-37.8	24.2	0.00e+00	0	29	0	832569344	46	6291
2026-01-27 02:23:51.44	293.40	21.66	-36.8	-37.6	24.3	0.00e+00	0	29	0	834666496	46	6131
2026-01-27 02:23:52.45	293.65	21.61	-36.5	-37.3	24.5	0.00e+00	0	29	0	835715072	46	5944
2026-01-27 02:23:53.46	293.91	21.57	-36.5	-37.4	24.5	0.00e+00	0	29	0	837812224	46	5971
2026-01-27 02:23:54.48	294.16	21.52	-36.6	-37.4	24.5	0.00e+00	0	29	0	839909376	46	5989
2026-01-27 02:23:55.48	294.41	21.48	-36.4	-37.2	24.5	0.00e+00	0	29	0	842006528	46	5895
2026-01-27 02:23:56.49	294.66	21.43	-36.5	-37.3	24.6	0.00e+00	0	29	0	844103680	46	5942
2026-01-27 02:23:57.50	294.90	21.38	-36.3	-37.1	24.6	0.00e+00	0	29	0	845152256	46	5805
2026-01-27 02:23:58.51	295.15	21.34	-36.4	-37.2	24.5	0.00e+00	0	29	0	847249408	46	5875
2026-01-27 02:23:59.52	295.40	21.29	-36.6	-37.4	24.5	0.00e+00	0	29	0	849346560	46	5984
2026-01-27 02:24:00.53	295.65	21.24	-36.7	-37.5	24.3	0.00e+00	0	29	0	851443712	46	6080
2026-01-27 02:24:01.54	295.89	21.19	-36.8	-37.7	24.4	0.00e+00	0	29	0	853540864	46	6178
2026-01-27 02:24:02.55	296.14	21.14	-36.9	-37.8	24.1	0.00e+00	0	29	0	855638016	46	6248
2026-01-27 02:24:03.56	296.38	21.09	-37.1	-38.0	24.0	0.00e+00	0	29	0	856686592	46	6428
2026-01-27 02:24:04.57	296.62	21.04	-37.2	-38.1	23.9	0.00e+00	0	29	0	858783744	46	6478
2026-01-27 02:24:05.58	296.87	20.99	-37.2	-38.1	24.0	0.00e+00	0	29	0	860880896	46	6469
2026-01-27 02:24:06.59	297.11	20.94	-36.9	-37.8	24.0	0.00e+00	0	29	0	862978048	46	6270
2026-01-27 02:24:07.60	297.35	20.89	-37.0	-37.8	24.1	0.00e+00	0	29	0	865075200	46	6307
2026-01-27 02:24:08.61	297.59	20.84	-36.8	-37.6	24.2	0.00e+00	0	29	0	866123776	46	6171
2026-01-27 02:24:09.62	297.83	20.79	-37.0	-37.8	24.1	0.00e+00	0	29	0	868220928	46	6301
2026-01-27 02:24:10.63	298.07	20.74	-37.1	-38.0	23.7	0.00e+00	0	29	0	870318080	46	6398
2026-01-27 02:24:11.64	298.30	20.68	-37.3	-38.1	23.9	0.00e+00	0	29	0	872415232	46	6507
2026-01-27 02:24:12.65	298.54	20.63	-37.5	-38.4	23.7	0.00e+00	0	29	0	874512384	46	6726
2026-01-27 02:24:13.66	298.78	20.58	-37.5	-38.3	23.7	0.00e+00	0	29	0	875560960	48	5960
2026-01-27 02:24:14.67	299.01	20.52	-37.3	-38.2	23.8	0.00e+00	0	29	0	877658112	48	5830
2026-01-27 02:24:15.68	299.25	20.47	-37.2	-38.0	24.1	0.00e+00	0	29	0	879755264	48	5760
2026-01-27 02:24:16.69	299.48	20.41	-36.9	-37.8	24.1	0.00e+00	0	29	0	881852416	48	5570
2026-01-27 02:24:17.70	299.71	20.36	-36.9	-37.7	24.2	0.00e+00	0	29	0	883949568	48	5524
2026-01-27 02:24:18.71	299.94	20.30	-36.7	-37.5	24.3	0.00e+00	0	29	0	884998144	48	5403
2026-01-27 02:24:19.71	300.17	20.25	-36.7	-37.5	24.2	0.00e+00	0	29	0	887095296	46	6095
2026-01-27 02:24:20.72	300.40	20.19	-36.9	-37.7	24.1	0.00e+00	0	29	0	889192448	46	6213
2026-01-27 02:24:21.73	300.63	20.14	-36.9	-37.7	24.3	0.00e+00	0	29	0	891289600	46	6196
2026-01-27 02:24:22.74	300.86	20.08	-37.2	-38.0	23.7	0.00e+00	0	29	0	893386752	46	6419
2026-01-27 02:24:23.75	301.09	20.02	-37.7	-38.6	23.5	0.00e+00	0	29	0	894435328	46	6852
2026-01-27 02:24:24.76	301.32	19.97	-38.1	-39.0	23.2	0.00e+00	0	29	0	896532480	48	6428
2026-01-27 02:24:25.77	301.54	19.91	-38.6	-39.6	22.7	0.00e+00	0	29	0	898629632	48	6849
2026-01-27 02:24:26.78	301.77	19.85	-38.7	-39.7	22.6	0.00e+00	0	29	0	900726784	48	6931
2026-01-27 02:24:27.79	301.99	19.79	-38.7	-39.6	22.7	0.00e+00	0	29	0	902823936	50	6173
2026-01-27 02:24:28.80	302.22	19.74	-38.7	-39.7	22.7	0.00e+00	0	29	0	903872512	50	6189
2026-01-27 02:24:29.81	302.44	19.68	-38.4	-39.4	22.9	0.00e+00	0	29	0	905969664	50	5968
2026-01-27 02:24:30.81	302.66	19.62	-38.5	-39.5	22.8	0.00e+00	0	29	0	908066816	50	6041
2026-01-27 02:24:31.82	302.88	19.56	-38.3	-39.2	23.1	0.00e+00	0	29	0	910163968	50	5864
2026-01-27 02:24:32.83	303.10	19.50	-38.7	-39.6	22.7	0.00e+00	0	29	0	912261120	50	6148
2026-01-27 02:24:33.84	303.32	19.44	-38.2	-39.1	23.1	0.00e+00	0	29	0	913309696	50	5816
2026-01-27 02:24:34.85	303.54	19.38	-38.2	-39.1	23.2	0.00e+00	0	29	0	915406848	50	5774
2026-01-27 02:24:35.86	303.76	19.32	-37.9	-38.7	23.4	0.00e+00	0	29	0	917504000	48	6245
2026-01-27 02:24:36.87	303.98	19.26	-37.8	-38.7	23.4	0.00e+00	0	29	0	919601152	48	6219
2026-01-27 02:24:37.88	304.19	19.20	-37.9	-38.8	23.3	0.00e+00	0	29	0	921698304	48	6248
2026-01-27 02:24:38.89	304.41	19.14	-37.9	-38.8	23.3	0.00e+00	0	29	0	923795456	48	6281
2026-01-27 02:24:39.90	304.62	19.08	-38.1	-39.0	23.2	0.00e+00	0	29	0	924844032	48	6441
2026-01-27 02:24:40.91	304.84	19.02	-38.2	-39.1	23.2	0.00e+00	0	29	0	926941184	48	6493
2026-01-27 02:24:41.91	305.05	18.96	-38.0	-38.9	23.3	0.00e+00	0	29	0	929038336	48	6337
2026-01-27 02:24:42.92	305.26	18.89	-38.1	-39.0	23.1	0.00e+00	0	29	0	931135488	48	6430
2026-01-27 02:24:43.93	305.47	18.83	-38.2	-39.1	23.1	0.00e+00	0	29	0	933232640	48	6530
2026-01-27 02:24:44.94	305.68	18.77	-38.2	-39.1	23.2	0.00e+00	0	29	0	934281216	48	6538
2026-01-27 02:24:45.95	305.89	18.71	-38.5	-39.4	22.8	0.00e+00	0	29	0	936378368	48	6760
2026-01-27 02:24:46.96	306.10	18.64	-38.8	-39.8	22.5	0.00e+00	0	29	0	938475520	50	6278
2026-01-27 02:24:47.97	306.31	18.58	-39.4	-40.5	22.1	0.00e+00	0	29	0	940572672	50	6814
2026-01-27 02:24:48.98	306.51	18.52	-39.7	-40.8	21.7	0.00e+00	0	29	0	942669824	50	7045
2026-01-27 02:24:49.99	306.72	18.46	-40.0	-41.1	21.4	0.00e+00	0	29	0	943718400	52	6511
2026-01-27 02:24:51.00	306.92	18.39	-40.2	-41.4	21.4	0.00e+00	0	29	0	945815552	52	6703
2026-01-27 02:24:52.01	307.13	18.33	-39.9	-41.0	21.6	0.00e+00	0	29	0	947912704	52	6456
2026-01-27 02:24:53.02	307.33	18.26	-39.6	-40.7	21.9	0.00e+00	0	29	0	950009856	52	6187
2026-01-27 02:24:54.03	307.53	18.20	-39.2	-40.3	22.2	0.00e+00	0	29	0	952107008	52	5907
2026-01-27 02:24:55.04	307.74	18.14	-39.0	-40.0	22.4	0.00e+00	0	29	0	953155584	52	5729
2026-01-27 02:24:56.05	307.94	18.07	-38.6	-39.6	22.8	0.00e+00	0	29	0	955252736	50	6145
2026-01-27 02:24:57.06	308.14	18.01	-38.7	-39.7	22.7	0.00e+00	0	29	0	957349888	50	6221
2026-01-27 02:24:58.07	308.34	17.94	-38.7	-39.7	22.6	0.00e+00	0	29	0	959447040	50	6205
2026-01-27 02:24:59.08	308.54	17.88	-38.8	-39.8	22.5	0.00e+00	0	29	0	961544192	50	6274
2026-01-27 02:25:00.09	308.73	17.81	-39.1	-40.1	22.3	0.00e+00	0	29	0	962592768	50	6497
2026-01-27 02:25:01.10	308.93	17.75	-39.1	-40.1	22.3	0.00e+00	0	29	0	964689920	50	6483
2026-01-27 02:25:02.10	309.12	17.68	-39.0	-40.0	22.3	0.00e+00	0	29	0	966787072	50	6397
2026-01-27 02:25:03.11	309.32	17.62	-38.9	-39.9	22.4	0.00e+00	0	29	0	968884224	50	6358
2026-01-27 02:25:04.12	309.51	17.55	-38.7	-39.7	22.6	0.00e+00	0	28	0	970981376	50	6187
2026-01-27 02:25:05.12	309.71	17.49	-38.4	-39.3	22.8	0.00e+00	0	29	0	972029952	50	5946
2026-01-27 02:25:06.13	309.90	17.42	-38.2	-39.2	22.9	0.00e+00	0	29	0	974127104	50	5857
2026-01-27 02:25:07.14	310.09	17.35	-38.4	-39.3	22.8	0.00e+00	0	29	0	976224256	50	5955
2026-01-27 02:25:08.16	310.28	17.29	-38.4	-39.3	22.8	0.00e+00	0	29	0	978321408	50	5957
2026-01-27 02:25:09.17	310.47	17.22	-38.4	-39.4	22.8	0.00e+00	0	29	0	980418560	50	5988
2026-01-27 02:25:10.18	310.66	17.16	-38.7	-39.7	22.5	0.00e+00	0	29	0	981467136	50	6183
2026-01-27 02:25:11.19	310.85	17.09	-38.4	-39.4	22.7	0.00e+00	0	29	0	983564288	50	5991
2026-01-27 02:25:12.20	311.04	17.02	-38.5	-39.5	22.6	0.00e+00	0	29	0	985661440	50	6063
2026-01-27 02:25:13.21	311.23	16.96	-38.3	-39.3	22.8	0.00e+00	0	29	0	987758592	50	5941
2026-01-27 02:25:14.22	311.41	16.89	-38.1	-39.1	23.0	0.00e+00	0	29	0	989855744	50	5767
2026-01-27 02:25:15.23	311.60	16.82	-38.3	-39.2	22.8	0.00e+00	0	29	0	991952896	50	5877
2026-01-27 02:25:16.24	311.78	16.75	-38.3	-39.2	22.9	0.00e+00	0	29	0	993001472	50	5893
2026-01-27 02:25:17.25	311.97	16.69	-38.8	-39.8	22.6	0.00e+00	0	29	0	995098624	50	6251
2026-01-27 02:25:18.26	312.15	16.62	-39.1	-40.1	22.1	0.00e+00	0	29	0	997195776	50	6522
2026-01-27 02:25:19.27	312.33	16.55	-39.0	-40.1	22.1	0.00e+00	0	29	0	999292928	50	6501
2026-01-27 02:25:20.28	312.52	16.49	-39.2	-40.2	22.1	0.00e+00	0	29	0	1001390080	50	6613
2026-01-27 02:25:21.29	312.70	16.42	-38.9	-40.0	22.3	0.00e+00	0	29	0	1002438656	50	6393
2026-01-27 02:25:22.30	312.88	16.35	-38.6	-39.6	22.5	0.00e+00	0	29	0	1004535808	50	6137
2026-01-27 02:25:23.31	313.06	16.28	-38.2	-39.2	22.8	0.00e+00	0	29	0	1006632960	50	5858
2026-01-27 02:25:24.32	313.23	16.22	-38.0	-38.9	23.2	0.00e+00	0	29	0	1008730112	50	5672
2026-01-27 02:25:25.33	313.41	16.15	-37.7	-38.6	23.4	0.00e+00	0	29	0	1010827264	48	6145
2026-01-27 02:25:26.34	313.59	16.08	-37.7	-38.5	23.4	0.00e+00	0	29	0	1011875840	48	6100
2026-01-27 02:25:27.35	313.76	16.01	-37.8	-38.7	23.2	0.00e+00	0	29	0	1013972992	48	6234
2026-01-27 02:25:28.35	313.94	15.95	-37.8	-38.7	23.2	0.00e+00	0	29	0	1016070144	48	6221
2026-01-27 02:25:29.37	314.11	15.88	-38.4	-39.3	22.7	0.00e+00	0	29	0	1018167296	48	6671
2026-01-27 02:25:30.38	314.29	15.81	-38.5	-39.5	22.6	0.00e+00	0	29	0	1020264448	48	6814
2026-01-27 02:25:31.38	314.46	15.74	-38.5	-39.4	22.6	0.00e+00	0	29	0	1021313024	48	6767
2026-01-27 02:25:32.39	314.63	15.67	-38.7	-39.7	22.5	0.00e+00	0	29	0	1023410176	48	6930
2026-01-27 02:25:33.40	314.80	15.61	-38.4	-39.4	22.7	0.00e+00	0	29	0	1025507328	48	6747
2026-01-27 02:25:34.41	314.97	15.54	-38.5	-39.5	22.6	0.00e+00	0	29	0	1027604480	48	6786
2026-01-27 02:25:35.42	315.14	15.47	-38.4	-39.4	22.7	0.00e+00	0	29	0	1029701632	48	6717
2026-01-27 02:25:36.44	315.31	15.40	-38.4	-39.4	22.6	0.00e+00	0	29	0	1030750208	48	6722
2026-01-27 02:25:37.44	315.48	15.33	-38.6	-39.6	22.4	0.00e+00	0	29	0	1032847360	48	6879
2026-01-27 02:25:38.45	315.65	15.26	-39.0	-40.1	22.2	0.00e+00	0	29	0	1034944512	50	6496
2026-01-27 02:25:39.46	315.82	15.20	-39.2	-40.3	22.0	0.00e+00	0	29	0	1037041664	50	6629
2026-01-27 02:25:40.47	315.98	15.13	-39.4	-40.5	21.8	0.00e+00	0	29	0	1039138816	50	6777
2026-01-27 02:25:41.48	316.15	15.06	-39.4	-40.6	21.8	0.00e+00	0	29	0	1040187392	50	6852
2026-01-27 02:25:42.49	316.31	14.99	-39.2	-40.3	22.1	0.00e+00	0	29	0	1042284544	50	6665
2026-01-27 02:25:43.50	316.48	14.92	-38.7	-39.7	22.4	0.00e+00	0	29	0	1044381696	50	6225
2026-01-27 02:25:44.51	316.64	14.85	-38.3	-39.3	22.7	0.00e+00	0	29	0	1046478848	50	5944
2026-01-27 02:25:45.52	316.80	14.78	-37.9	-38.9	23.1	0.00e+00	0	29	0	1048576000	50	5653
2026-01-27 02:25:46.53	316.96	14.72	-37.9	-38.9	23.1	0.00e+00	0	29	0	1049624576	50	5632
2026-01-27 02:25:47.54	317.12	14.65	-38.0	-38.9	23.0	0.00e+00	0	29	0	1051721728	50	5659
2026-01-27 02:25:48.55	317.28	14.58	-37.8	-38.7	23.3	0.00e+00	0	29	0	1053818880	48	6225
2026-01-27 02:25:49.56	317.44	14.51	-37.9	-38.8	23.1	0.00e+00	0	29	0	1055916032	48	6283
2026-01-27 02:25:50.57	317.60	14.44	-37.8	-38.7	23.3	0.00e+00	0	29	0	1058013184	48	6198
2026-01-27 02:25:51.57	317.76	14.37	-37.8	-38.7	23.2	0.00e+00	0	29	0	1060110336	48	6232
2026-01-27 02:25:52.58	317.92	14.31	-37.8	-38.7	23.1	0.00e+00	0	29	0	1061158912	48	6207
2026-01-27 02:25:53.59	318.07	14.24	-37.7	-38.6	23.3	0.00e+00	0	29	0	1063256064	48	6133
2026-01-27 02:25:54.60	318.23	14.17	-37.7	-38.6	23.3	0.00e+00	0	29	0	1065353216	48	6107
2026-01-27 02:25:55.61	318.39	14.10	-37.3	-38.2	23.6	0.00e+00	0	29	0	1067450368	48	5866
2026-01-27 02:25:56.62	318.54	14.03	-37.0	-37.9	23.8	0.00e+00	0	29	0	1069547520	48	5652
2026-01-27 02:25:57.63	318.69	13.96	-37.2	-38.0	23.8	0.00e+00	0	29	0	1070596096	48	5739
2026-01-27 02:25:58.64	318.85	13.89	-37.0	-37.8	23.8	0.00e+00	0	29	0	1072693248	48	5621
2026-01-27 02:25:59.65	319.00	13.83	-37.1	-38.0	23.8	0.00e+00	0	29	0	1074790400	48	5711
2026-01-27 02:26:00.66	319.15	13.76	-37.5	-38.3	23.5	0.00e+00	0	29	0	1076887552	48	5952
2026-01-27 02:26:01.67	319.30	13.69	-37.8	-38.8	23.1	0.00e+00	0	29	0	1078984704	48	6254
2026-01-27 02:26:02.68	319.45	13.62	-38.1	-39.0	22.9	0.00e+00	0	29	0	1080033280	48	6463
2026-01-27 02:26:03.69	319.60	13.55	-38.5	-39.5	22.6	0.00e+00	0	29	0	1082130432	48	6776
2026-01-27 02:26:04.70	319.75	13.48	-38.5	-39.5	22.6	0.00e+00	0	29	0	1084227584	48	6793
2026-01-27 02:26:05.71	319.90	13.41	-38.6	-39.6	22.5	0.00e+00	0	29	0	1086324736	48	6900
2026-01-27 02:26:06.71	320.05	13.35	-38.6	-39.6	22.5	0.00e+00	0	29	0	1088421888	48	6891
2026-01-27 02:26:07.72	320.20	13.28	-38.7	-39.7	22.5	0.00e+00	0	29	0	1089470464	50	6196
2026-01-27 02:26:08.73	320.34	13.21	-38.7	-39.7	22.3	0.00e+00	0	29	0	1091567616	50	6212
2026-01-27 02:26:09.75	320.49	13.14	-38.8	-39.8	22.3	0.00e+00	0	29	0	1093664768	50	6280
2026-01-27 02:26:10.76	320.64	13.07	-38.9	-39.9	22.2	0.00e+00	0	29	0	1095761920	50	6375
2026-01-27 02:26:11.76	320.78	13.00	-39.0	-40.1	22.1	0.00e+00	0	29	0	1097859072	50	6490
2026-01-27 02:26:12.78	320.92	12.94	-39.1	-40.2	22.0	0.00e+00	0	29	0	1098907648	50	6565
2026-01-27 02:26:13.79	321.07	12.87	-39.3	-40.4	21.8	0.00e+00	0	29	0	1101004800	50	6753
2026-01-27 02:26:14.79	321.21	12.80	-39.4	-40.5	21.7	0.00e+00	0	29	0	1103101952	50	6812
2026-01-27 02:26:15.80	321.35	12.73	-39.3	-40.4	21.9	0.00e+00	0	29	0	1105199104	50	6706
2026-01-27 02:26:16.81	321.49	12.66	-39.5	-40.6	21.6	0.00e+00	0	29	0	1107296256	50	6896
2026-01-27 02:26:17.82	321.63	12.60	-39.1	-40.2	22.0	0.00e+00	0	29	0	1108344832	50	6554
2026-01-27 02:26:18.83	321.77	12.53	-38.9	-40.0	22.2	0.00e+00	0	29	0	1110441984	50	6407
2026-01-27 02:26:19.83	321.91	12.46	-38.7	-39.7	22.4	0.00e+00	0	29	0	1112539136	50	6197
2026-01-27 02:26:20.84	322.05	12.39	-38.3	-39.3	22.7	0.00e+00	0	29	0	1114636288	50	5918
2026-01-27 02:26:21.85	322.19	12.32	-38.2	-39.1	22.5	0.00e+00	0	29	0	1116733440	50	5820
2026-01-27 02:26:22.86	322.33	12.26	-38.2	-39.1	22.9	0.00e+00	0	29	0	1117782016	50	5792
2026-01-27 02:26:23.87	322.46	12.19	-38.0	-38.9	23.0	0.00e+00	0	29	0	1119879168	50	5694
2026-01-27 02:26:24.88	322.60	12.12	-38.4	-39.3	22.7	0.00e+00	0	29	0	1121976320	50	5946
2026-01-27 02:26:25.89	322.74	12.05	-38.2	-39.2	22.7	0.00e+00	0	29	0	1124073472	50	5840
2026-01-27 02:26:26.90	322.87	11.98	-38.3	-39.3	22.4	0.00e+00	0	29	0	1126170624	50	5904
2026-01-27 02:26:27.91	323.01	11.92	-38.5	-39.5	22.5	0.00e+00	0	29	0	1127219200	50	6063
2026-01-27 02:26:28.93	323.14	11.85	-38.7	-39.7	22.2	0.00e+00	0	29	0	1129316352	50	6236
2026-01-27 02:26:29.94	323.27	11.78	-38.7	-39.7	22.3	0.00e+00	0	29	0	1131413504	50	6179
2026-01-27 02:26:30.95	323.41	11.71	-38.6	-39.6	22.4	0.00e+00	0	29	0	1133510656	50	6112
2026-01-27 02:26:31.96	323.54	11.65	-38.7	-39.7	22.3	0.00e+00	0	29	0	1135607808	50	6229
2026-01-27 02:26:32.97	323.67	11.58	-39.0	-40.0	22.2	0.00e+00	0	29	0	1136656384	50	6429
2026-01-27 02:26:33.97	323.80	11.51	-38.8	-39.8	22.2	0.00e+00	0	29	0	1138753536	50	6300
2026-01-27 02:26:34.98	323.93	11.44	-39.4	-40.4	22.0	0.00e+00	0	29	0	1140850688	50	6761
2026-01-27 02:26:35.99	324.06	11.38	-39.2	-40.2	21.8	0.00e+00	0	29	0	1142947840	50	6610
2026-01-27 02:26:37.00	324.19	11.31	-39.4	-40.5	21.6	0.00e+00	0	29	0	1145044992	50	6829
2026-01-27 02:26:38.01	324.32	11.24	-39.6	-40.8	21.5	0.00e+00	0	29	0	1146093568	50	7020
2026-01-27 02:26:39.03	324.45	11.18	-39.7	-40.8	21.4	0.00e+00	0	29	0	1148190720	50	7042
2026-01-27 02:26:40.04	324.58	11.11	-40.0	-41.2	21.1	0.00e+00	0	29	0	1150287872	52	6552
2026-01-27 02:26:41.05	324.71	11.04	-40.2	-41.4	20.9	0.00e+00	0	29	0	1152385024	52	6757
2026-01-27 02:26:42.06	324.83	10.97	-40.0	-41.2	21.0	0.00e+00	0	29	0	1154482176	52	6595
2026-01-27 02:26:43.07	324.96	10.91	-39.8	-41.0	21.1	0.00e+00	0	29	0	1156579328	52	6426
2026-01-27 02:26:44.08	325.08	10.84	-39.7	-40.8	21.4	0.00e+00	0	29	0	1157627904	52	6316
2026-01-27 02:26:45.09	325.21	10.77	-39.4	-40.6	21.7	0.00e+00	0	29	0	1159725056	52	6110
2026-01-27 02:26:46.10	325.33	10.71	-39.3	-40.4	21.7	0.00e+00	0	29	0	1161822208	52	5981
2026-01-27 02:26:47.11	325.46	10.64	-39.2	-40.2	22.0	0.00e+00	0	29	0	1163919360	52	5868
2026-01-27 02:26:48.12	325.58	10.57	-38.7	-39.7	22.3	0.00e+00	0	29	0	1166016512	52	5549
2026-01-27 02:26:49.13	325.70	10.51	-38.5	-39.5	22.5	0.00e+00	0	29	0	1167065088	50	6041
2026-01-27 02:26:50.14	325.83	10.44	-38.2	-39.2	22.8	0.00e+00	0	29	0	1169162240	50	5837
2026-01-27 02:26:51.15	325.95	10.38	-38.1	-39.1	22.8	0.00e+00	0	29	0	1171259392	50	5792
2026-01-27 02:26:52.16	326.07	10.31	-38.3	-39.3	22.6	0.00e+00	0	29	0	1173356544	50	5915
2026-01-27 02:26:53.17	326.19	10.24	-38.1	-39.1	22.9	0.00e+00	0	29	0	1175453696	50	5779
2026-01-27 02:26:54.17	326.31	10.18	-38.3	-39.3	22.6	0.00e+00	0	29	0	1176502272	50	5939
2026-01-27 02:26:55.18	326.43	10.11	-38.5	-39.5	22.4	0.00e+00	0	29	0	1178599424	50	6080
2026-01-27 02:26:56.19	326.55	10.05	-38.7	-39.7	22.3	0.00e+00	0	29	0	1180696576	50	6191
2026-01-27 02:26:57.20	326.67	9.98	-38.7	-39.8	22.2	0.00e+00	0	29	0	1182793728	50	6257
2026-01-27 02:26:58.21	326.78	9.91	-38.8	-39.8	22.2	0.00e+00	0	29	0	1184890880	50	6289
2026-01-27 02:26:59.22	326.90	9.85	-38.9	-40.0	22.0	0.00e+00	0	29	0	1185939456	50	6415
2026-01-27 02:27:00.23	327.02	9.78	-39.0	-40.0	22.0	0.00e+00	0	29	0	1188036608	50	6436
2026-01-27 02:27:01.24	327.14	9.72	-39.1	-40.2	21.8	0.00e+00	0	29	0	1190133760	50	6573
2026-01-27 02:27:02.25	327.25	9.65	-39.2	-40.3	21.7	0.00e+00	0	29	0	1192230912	50	6661
2026-01-27 02:27:03.26	327.37	9.59	-39.4	-40.5	21.7	0.00e+00	0	29	0	1194328064	50	6840
2026-01-27 02:27:04.26	327.48	9.52	-39.6	-40.7	21.4	0.00e+00	0	29	0	1195376640	50	6974
2026-01-27 02:27:05.27	327.60	9.46	-39.7	-40.8	21.3	0.00e+00	0	29	0	1197473792	52	6303
2026-01-27 02:27:06.29	327.71	9.39	-39.7	-40.8	21.3	0.00e+00	0	29	0	1199570944	52	6292
2026-01-27 02:27:07.30	327.82	9.33	-39.8	-41.0	21.1	0.00e+00	0	29	0	1201668096	52	6406
2026-01-27 02:27:08.31	327.94	9.26	-39.8	-40.9	21.3	0.00e+00	0	29	0	1203765248	52	6378
2026-01-27 02:27:09.32	328.05	9.20	-40.1	-41.4	20.8	0.00e+00	0	29	0	1204813824	52	6697
2026-01-27 02:27:10.33	328.16	9.13	-40.3	-41.5	20.7	0.00e+00	0	29	0	1206910976	52	6808
2026-01-27 02:27:11.34	328.27	9.07	-40.2	-41.5	20.7	0.00e+00	0	29	0	1209008128	52	6795
2026-01-27 02:27:12.35	328.39	9.00	-40.5	-41.8	20.5	0.00e+00	0	29	0	1211105280	52	7035
