passes_logs/2026/01/27/R4.6S_Anadyr/R4.6S_Anadyr__20260127_183709_FENGYUN_3D_rec.log

#Pass ID: 20260127_183709_FENGYUN 3D
#Satellite: FENGYUN 3D
#Configuration: FENGYUN 3D
#almurnet v.1.7.20251203
#Start time: 2026-01-27 18:37:10

#Version: 2.2.20231116
#Station: R4.6S_Anadyr
#Location: 177.4865 lon 64.73178 lat
#TLE: 1 43010U 17072A   26026.91415486  .00000072  00000+0  55983-4 0  9991
#TLE: 2 43010  98.9962 358.9161 0002508  89.0320 271.1142 14.19700283424949

#Time	Az	El	Level	Level2	SNR	BER	BlckErr	Temp	State	Recorded	gain1	gain2
2026-01-27 18:37:10.36	27.08	0.03	-48.9	-66.6	3.4	3.02e+01	0	30	0	0	60	82692
2026-01-27 18:37:11.36	27.04	0.09	-48.6	-60.8	3.6	8.46e-01	0	31	104	0	60	39447
2026-01-27 18:37:12.37	26.99	0.15	-48.6	-60.7	3.5	8.45e-01	0	31	104	0	60	39267
2026-01-27 18:37:13.38	26.95	0.20	-48.6	-60.7	3.6	8.45e-01	0	31	104	0	60	39197
2026-01-27 18:37:14.39	26.91	0.26	-48.6	-60.7	3.6	8.46e-01	0	31	104	0	60	39329
2026-01-27 18:37:15.41	26.87	0.32	-48.6	-60.7	3.6	8.45e-01	0	31	104	0	60	39363
2026-01-27 18:37:16.42	26.83	0.38	-48.6	-60.8	3.6	8.45e-01	0	31	104	0	60	39477
2026-01-27 18:37:17.42	26.79	0.44	-48.6	-60.8	3.6	8.45e-01	0	31	104	0	60	39603
2026-01-27 18:37:18.43	26.74	0.49	-48.6	-60.8	3.6	8.44e-01	0	31	104	0	60	39626
2026-01-27 18:37:19.45	26.70	0.55	-48.7	-60.9	3.6	8.45e-01	0	31	104	0	60	39875
2026-01-27 18:37:20.46	26.66	0.61	-48.7	-60.9	3.6	8.45e-01	0	31	104	0	60	39863
2026-01-27 18:37:21.47	26.62	0.67	-48.7	-60.8	3.6	8.47e-01	0	31	104	0	60	39519
2026-01-27 18:37:22.48	26.57	0.73	-48.7	-60.8	3.6	8.44e-01	0	31	104	0	60	39569
2026-01-27 18:37:23.49	26.53	0.79	-48.6	-60.7	3.6	8.45e-01	0	31	104	0	60	39256
2026-01-27 18:37:24.50	26.49	0.84	-48.5	-60.7	3.6	8.46e-01	0	31	104	0	60	39114
2026-01-27 18:37:25.51	26.44	0.90	-48.5	-60.7	3.6	8.46e-01	0	31	104	0	60	38982
2026-01-27 18:37:26.51	26.40	0.96	-48.4	-60.6	3.6	8.46e-01	0	31	104	0	60	38666
2026-01-27 18:37:27.52	26.36	1.02	-48.4	-60.5	3.6	8.46e-01	0	31	104	0	60	38210
2026-01-27 18:37:28.53	26.31	1.08	-48.3	-60.4	3.6	8.46e-01	0	31	104	0	60	37705
2026-01-27 18:37:29.54	26.27	1.14	-48.1	-60.3	3.6	8.46e-01	0	31	104	0	60	37428
2026-01-27 18:37:30.55	26.22	1.20	-48.0	-60.1	3.6	8.44e-01	0	31	104	0	60	36405
2026-01-27 18:37:31.57	26.18	1.26	-48.0	-60.1	3.6	8.46e-01	0	31	104	0	60	36708
2026-01-27 18:37:32.57	26.13	1.31	-47.9	-60.0	3.6	8.45e-01	0	31	104	0	60	36010
2026-01-27 18:37:33.58	26.09	1.37	-47.6	-59.7	3.6	8.45e-01	0	31	104	0	60	35076
2026-01-27 18:37:34.59	26.04	1.43	-47.3	-59.4	3.6	8.45e-01	0	31	104	0	60	33675
2026-01-27 18:37:35.60	26.00	1.49	-47.1	-59.2	3.6	8.46e-01	0	31	104	0	60	32911
2026-01-27 18:37:36.61	25.95	1.55	-47.1	-59.2	3.6	8.45e-01	0	31	104	0	60	33073
2026-01-27 18:37:37.62	25.91	1.61	-47.1	-59.2	3.6	8.45e-01	0	31	104	0	60	33067
2026-01-27 18:37:38.63	25.86	1.67	-47.1	-59.2	3.6	8.45e-01	0	31	104	0	60	33090
2026-01-27 18:37:39.64	25.81	1.73	-47.1	-59.3	3.6	8.46e-01	0	31	104	0	60	33167
2026-01-27 18:37:40.65	25.77	1.79	-47.1	-59.2	3.6	8.46e-01	0	31	104	0	60	32948
2026-01-27 18:37:41.66	25.72	1.85	-47.1	-59.2	3.6	8.45e-01	0	31	104	0	60	32796
2026-01-27 18:37:42.67	25.67	1.91	-47.1	-59.1	3.6	8.46e-01	0	31	104	0	60	32714
2026-01-27 18:37:43.68	25.63	1.97	-47.1	-59.0	3.6	8.45e-01	0	31	104	0	60	32334
2026-01-27 18:37:44.69	25.58	2.03	-47.1	-59.0	3.6	8.45e-01	0	31	104	0	60	32339
2026-01-27 18:37:45.70	25.53	2.10	-47.1	-59.1	3.6	8.46e-01	0	31	104	0	60	32601
2026-01-27 18:37:46.71	25.49	2.16	-47.1	-59.1	3.6	8.46e-01	0	31	104	0	60	32702
2026-01-27 18:37:47.72	25.44	2.22	-47.1	-59.1	3.6	8.45e-01	0	31	104	0	60	32567
2026-01-27 18:37:48.73	25.39	2.28	-47.1	-59.2	3.6	8.45e-01	0	31	104	0	60	32792
2026-01-27 18:37:49.74	25.34	2.34	-47.1	-59.2	3.5	8.45e-01	0	31	104	0	60	32832
2026-01-27 18:37:50.75	25.29	2.40	-47.1	-59.1	3.6	8.45e-01	0	31	104	0	60	32716
2026-01-27 18:37:51.76	25.24	2.46	-47.1	-59.1	3.6	8.46e-01	0	31	104	0	60	32767
2026-01-27 18:37:52.77	25.19	2.52	-47.1	-59.1	3.6	8.45e-01	0	31	104	0	60	32713
2026-01-27 18:37:53.78	25.15	2.58	-47.1	-59.0	3.6	8.46e-01	0	31	104	0	60	32160
2026-01-27 18:37:54.79	25.10	2.65	-47.0	-58.6	3.6	8.45e-01	0	32	104	0	60	30652
2026-01-27 18:37:55.80	25.05	2.71	-47.0	-57.8	3.6	8.45e-01	0	32	104	0	60	28074
2026-01-27 18:37:56.81	25.00	2.77	-46.9	-57.5	3.6	8.44e-01	0	32	104	0	60	27214
2026-01-27 18:37:57.82	24.95	2.83	-47.0	-57.7	3.6	8.45e-01	0	32	104	0	60	27617
2026-01-27 18:37:58.83	24.90	2.89	-47.0	-58.4	3.6	8.45e-01	0	32	104	0	60	30100
2026-01-27 18:37:59.84	24.85	2.96	-47.1	-59.2	3.6	8.44e-01	0	32	104	0	60	32878
2026-01-27 18:38:00.85	24.79	3.02	-46.9	-57.0	3.7	8.44e-01	0	32	104	0	60	25495
2026-01-27 18:38:01.86	24.74	3.08	-46.2	-52.0	5.5	7.48e-01	0	32	0	0	60	14393
2026-01-27 18:38:02.87	24.69	3.14	-45.0	-48.7	9.0	1.20e-01	0	32	0	5242880	60	9870
2026-01-27 18:38:03.88	24.64	3.21	-43.7	-46.4	11.6	2.11e-03	0	32	0	11534336	60	7589
2026-01-27 18:38:04.89	24.59	3.27	-41.7	-43.4	14.7	0.00e+00	0	32	0	16777216	58	6020
2026-01-27 18:38:05.90	24.54	3.33	-40.6	-42.1	16.2	0.00e+00	0	32	0	22020096	56	5812
2026-01-27 18:38:06.91	24.48	3.40	-39.7	-40.9	17.4	0.00e+00	0	32	0	28311552	52	6376
2026-01-27 18:38:07.92	24.43	3.46	-38.9	-40.0	17.9	0.00e+00	0	32	0	33554432	52	5735
2026-01-27 18:38:08.93	24.38	3.52	-47.1	-58.6	3.6	2.88e-01	0	32	104	37748736	60	30896
2026-01-27 18:38:09.94	24.33	3.59	-38.4	-39.4	17.9	8.06e-01	0	32	104	37748736	50	6016
2026-01-27 18:38:10.94	24.27	3.65	-47.0	-58.4	3.6	1.35e-01	0	32	104	37748736	60	29967
2026-01-27 18:38:11.95	24.22	3.71	-46.0	-51.6	4.6	8.17e-01	0	32	104	37748736	60	13770
2026-01-27 18:38:12.96	24.17	3.78	-43.4	-46.0	11.5	1.10e-06	0	32	0	38797312	56	9067
2026-01-27 18:38:13.97	24.11	3.84	-40.0	-41.3	17.2	0.00e+00	0	32	0	45088768	54	5903
2026-01-27 18:38:14.98	24.06	3.90	-39.1	-40.3	18.1	0.00e+00	0	32	0	50331648	52	5898
2026-01-27 18:38:15.99	24.00	3.97	-38.2	-39.3	18.6	0.00e+00	0	32	0	55574528	50	5897
2026-01-27 18:38:17.00	23.95	4.03	-39.9	-41.2	17.3	0.00e+00	0	32	0	61865984	52	6590
2026-01-27 18:38:18.01	23.89	4.10	-37.4	-38.4	20.1	0.00e+00	0	32	0	67108864	48	5982
2026-01-27 18:38:19.02	23.84	4.16	-37.0	-37.9	20.4	0.00e+00	0	32	0	73400320	48	5644
2026-01-27 18:38:20.03	23.78	4.23	-36.6	-37.5	20.7	0.00e+00	0	31	0	78643200	46	6098
2026-01-27 18:38:21.04	23.73	4.29	-36.2	-37.0	21.3	0.00e+00	0	32	0	83886080	46	5760
2026-01-27 18:38:22.05	23.67	4.36	-35.8	-36.7	21.8	0.00e+00	0	32	0	90177536	46	5510
2026-01-27 18:38:23.06	23.62	4.42	-35.4	-36.2	22.0	0.00e+00	0	32	0	95420416	44	5885
2026-01-27 18:38:24.07	23.56	4.49	-35.2	-36.0	22.4	0.00e+00	0	32	0	101711872	44	5701
2026-01-27 18:38:25.08	23.50	4.55	-35.4	-36.2	22.1	0.00e+00	0	32	0	106954752	44	5846
2026-01-27 18:38:26.09	23.44	4.62	-35.3	-36.2	22.1	0.00e+00	0	32	0	113246208	44	5842
2026-01-27 18:38:27.10	23.39	4.68	-35.2	-36.0	22.2	0.00e+00	0	32	0	118489088	44	5748
2026-01-27 18:38:28.11	23.33	4.75	-35.3	-36.1	22.2	0.00e+00	0	32	0	123731968	44	5790
2026-01-27 18:38:29.12	23.27	4.82	-35.0	-35.8	22.5	0.00e+00	0	32	0	130023424	42	6286
2026-01-27 18:38:30.14	23.21	4.88	-35.5	-36.3	22.0	0.00e+00	0	32	0	135266304	42	6626
2026-01-27 18:38:31.15	23.15	4.95	-35.1	-35.9	22.5	0.00e+00	0	32	0	141557760	42	6348
2026-01-27 18:38:32.16	23.10	5.01	-35.4	-36.2	22.1	0.00e+00	0	32	0	146800640	42	6593
2026-01-27 18:38:33.17	23.04	5.08	-35.7	-36.5	21.9	0.00e+00	0	32	0	152043520	42	6813
2026-01-27 18:38:34.18	22.98	5.15	-35.5	-36.3	22.1	0.00e+00	0	32	0	158334976	42	6668
2026-01-27 18:38:35.18	22.92	5.21	-35.3	-36.1	22.4	0.00e+00	0	32	0	163577856	42	6508
2026-01-27 18:38:36.19	22.86	5.28	-35.5	-36.3	22.0	0.00e+00	0	32	0	169869312	42	6690
2026-01-27 18:38:37.20	22.80	5.35	-35.3	-36.1	22.4	0.00e+00	0	32	0	175112192	42	6493
2026-01-27 18:38:38.21	22.74	5.41	-35.2	-36.0	22.3	0.00e+00	0	32	0	180355072	42	6447
2026-01-27 18:38:39.22	22.68	5.48	-35.6	-36.4	22.3	0.00e+00	0	32	0	186646528	42	6706
2026-01-27 18:38:40.23	22.61	5.55	-35.0	-35.9	22.6	0.00e+00	0	32	0	191889408	42	6319
2026-01-27 18:38:41.24	22.55	5.62	-35.0	-35.8	22.7	0.00e+00	0	32	0	198180864	42	6256
2026-01-27 18:38:42.25	22.49	5.68	-35.1	-35.9	22.6	0.00e+00	0	32	0	203423744	42	6350
2026-01-27 18:38:43.26	22.43	5.75	-35.1	-35.9	22.7	0.00e+00	0	32	0	209715200	42	6357
2026-01-27 18:38:44.27	22.37	5.82	-35.2	-36.0	22.6	0.00e+00	0	32	0	214958080	42	6427
2026-01-27 18:38:45.28	22.30	5.89	-34.9	-35.7	22.7	0.00e+00	0	32	0	221249536	42	6224
2026-01-27 18:38:46.29	22.24	5.96	-35.0	-35.8	22.8	0.00e+00	0	32	0	226492416	42	6288
2026-01-27 18:38:47.30	22.18	6.02	-35.4	-36.2	22.4	0.00e+00	0	32	0	231735296	42	6559
2026-01-27 18:38:48.31	22.11	6.09	-34.8	-35.5	23.0	0.00e+00	0	32	0	238026752	42	6087
2026-01-27 18:38:49.31	22.05	6.16	-34.5	-35.2	23.2	0.00e+00	0	32	0	243269632	42	5882
2026-01-27 18:38:50.33	21.99	6.23	-34.7	-35.4	23.2	0.00e+00	0	32	0	249561088	42	6003
2026-01-27 18:38:51.33	21.92	6.30	-34.8	-35.5	23.2	0.00e+00	0	32	0	254803968	42	6060
2026-01-27 18:38:52.34	21.86	6.37	-35.2	-36.0	22.8	0.00e+00	0	32	0	260046848	42	6404
2026-01-27 18:38:53.35	21.79	6.44	-34.5	-35.2	23.5	0.00e+00	0	32	0	266338304	42	5883
2026-01-27 18:38:54.37	21.73	6.51	-34.6	-35.3	23.2	0.00e+00	0	32	0	271581184	42	5929
2026-01-27 18:38:55.37	21.66	6.58	-34.4	-35.2	23.4	0.00e+00	0	32	0	277872640	42	5830
2026-01-27 18:38:56.38	21.59	6.65	-34.4	-35.1	23.5	0.00e+00	0	32	0	283115520	42	5826
2026-01-27 18:38:57.39	21.53	6.72	-34.4	-35.2	23.4	0.00e+00	0	32	0	288358400	42	5856
2026-01-27 18:38:58.40	21.46	6.79	-34.3	-35.0	23.6	0.00e+00	0	32	0	294649856	42	5731
2026-01-27 18:38:59.41	21.39	6.86	-34.3	-35.0	23.6	0.00e+00	0	32	0	299892736	42	5716
2026-01-27 18:39:00.42	21.33	6.93	-34.3	-35.1	23.6	0.00e+00	0	32	0	306184192	42	5764
2026-01-27 18:39:01.43	21.26	7.00	-34.2	-34.9	23.7	0.00e+00	0	32	0	311427072	42	5651
2026-01-27 18:39:02.44	21.19	7.07	-34.1	-34.8	23.8	0.00e+00	0	32	0	317718528	42	5613
2026-01-27 18:39:03.45	21.12	7.14	-34.2	-34.9	23.7	0.00e+00	0	32	0	322961408	42	5689
2026-01-27 18:39:04.46	21.05	7.21	-33.9	-34.6	24.0	0.00e+00	0	32	0	328204288	42	5481
2026-01-27 18:39:05.47	20.98	7.28	-34.1	-34.8	23.9	0.00e+00	0	32	0	334495744	42	5577
2026-01-27 18:39:06.48	20.91	7.35	-33.9	-34.6	23.9	0.00e+00	0	32	0	339738624	42	5490
2026-01-27 18:39:07.49	20.84	7.42	-34.0	-34.7	23.9	0.00e+00	0	32	0	346030080	42	5522
2026-01-27 18:39:08.50	20.77	7.50	-34.0	-34.7	23.8	0.00e+00	0	32	0	351272960	42	5555
2026-01-27 18:39:09.51	20.70	7.57	-34.2	-35.0	23.7	0.00e+00	0	32	0	356515840	42	5707
2026-01-27 18:39:10.52	20.63	7.64	-34.0	-34.7	23.9	0.00e+00	0	32	0	362807296	42	5539
2026-01-27 18:39:11.53	20.56	7.71	-33.9	-34.6	24.1	0.00e+00	0	32	0	368050176	42	5460
2026-01-27 18:39:12.54	20.49	7.78	-34.2	-34.9	23.7	0.00e+00	0	32	0	374341632	42	5687
2026-01-27 18:39:13.55	20.41	7.86	-34.3	-35.0	23.8	0.00e+00	0	32	0	379584512	42	5730
2026-01-27 18:39:14.56	20.34	7.93	-33.9	-34.5	24.1	0.00e+00	0	32	0	384827392	42	5432
2026-01-27 18:39:15.57	20.27	8.00	-33.9	-34.6	24.0	0.00e+00	0	32	0	391118848	42	5491
2026-01-27 18:39:16.58	20.20	8.07	-33.9	-34.6	24.1	0.00e+00	0	32	0	396361728	42	5451
2026-01-27 18:39:17.59	20.12	8.15	-34.2	-34.9	23.9	0.00e+00	0	32	0	402653184	42	5645
2026-01-27 18:39:18.60	20.05	8.22	-34.1	-34.8	23.9	0.00e+00	0	32	0	407896064	42	5592
2026-01-27 18:39:19.61	19.97	8.29	-34.2	-34.9	23.8	0.00e+00	0	32	0	414187520	42	5650
2026-01-27 18:39:20.62	19.90	8.37	-33.9	-34.6	24.1	0.00e+00	0	32	0	419430400	42	5483
2026-01-27 18:39:21.63	19.82	8.44	-34.0	-34.7	24.0	0.00e+00	0	32	0	425721856	42	5520
2026-01-27 18:39:22.64	19.75	8.51	-34.1	-34.8	23.8	0.00e+00	0	32	0	430964736	42	5618
2026-01-27 18:39:23.65	19.67	8.59	-34.2	-34.9	23.8	0.00e+00	0	32	0	436207616	42	5640
2026-01-27 18:39:24.66	19.59	8.66	-34.0	-34.7	24.0	0.00e+00	0	32	0	442499072	42	5523
2026-01-27 18:39:25.67	19.52	8.74	-34.0	-34.7	24.0	0.00e+00	0	32	0	447741952	42	5523
2026-01-27 18:39:26.68	19.44	8.81	-34.2	-34.9	23.9	0.00e+00	0	32	0	454033408	42	5679
2026-01-27 18:39:27.69	19.36	8.89	-33.9	-34.6	24.1	0.00e+00	0	32	0	459276288	42	5484
2026-01-27 18:39:28.70	19.28	8.96	-34.0	-34.7	24.0	0.00e+00	0	32	0	464519168	42	5553
2026-01-27 18:39:29.71	19.20	9.04	-33.6	-34.3	24.3	0.00e+00	0	32	0	470810624	40	5944
2026-01-27 18:39:30.72	19.13	9.11	-33.7	-34.4	24.3	0.00e+00	0	32	0	476053504	40	6015
2026-01-27 18:39:31.73	19.05	9.19	-34.1	-34.8	23.9	0.00e+00	0	32	0	482344960	40	6258
2026-01-27 18:39:32.74	18.97	9.26	-33.8	-34.5	24.3	0.00e+00	0	32	0	487587840	40	6059
2026-01-27 18:39:33.75	18.89	9.34	-33.8	-34.5	24.3	0.00e+00	0	32	0	492830720	40	6034
2026-01-27 18:39:34.76	18.80	9.41	-33.6	-34.3	24.4	0.00e+00	0	32	0	499122176	40	5908
2026-01-27 18:39:35.77	18.72	9.49	-33.7	-34.4	24.4	0.00e+00	0	32	0	504365056	40	5996
2026-01-27 18:39:36.78	18.64	9.57	-33.5	-34.2	24.6	0.00e+00	0	32	0	510656512	40	5850
2026-01-27 18:39:37.79	18.56	9.64	-33.6	-34.3	24.5	0.00e+00	0	32	0	515899392	40	5901
2026-01-27 18:39:38.80	18.48	9.72	-33.5	-34.1	24.7	0.00e+00	0	32	0	522190848	40	5823
2026-01-27 18:39:39.81	18.39	9.80	-33.4	-34.1	24.6	0.00e+00	0	32	0	527433728	40	5778
2026-01-27 18:39:40.82	18.31	9.87	-33.3	-34.0	24.7	0.00e+00	0	32	0	532676608	40	5736
2026-01-27 18:39:41.83	18.23	9.95	-33.4	-34.1	24.6	0.00e+00	0	32	0	538968064	40	5824
2026-01-27 18:39:42.84	18.14	10.03	-33.5	-34.2	24.5	0.00e+00	0	32	0	544210944	40	5855
2026-01-27 18:39:43.85	18.06	10.10	-33.3	-34.0	24.8	0.00e+00	0	32	0	550502400	40	5716
2026-01-27 18:39:44.86	17.97	10.18	-33.2	-33.9	24.8	0.00e+00	0	32	0	555745280	40	5661
2026-01-27 18:39:45.87	17.88	10.26	-33.4	-34.1	24.7	0.00e+00	0	32	0	560988160	40	5771
2026-01-27 18:39:46.87	17.80	10.34	-33.5	-34.1	24.6	0.00e+00	0	32	0	567279616	40	5826
2026-01-27 18:39:47.88	17.71	10.42	-33.3	-34.0	24.8	0.00e+00	0	32	0	572522496	40	5701
2026-01-27 18:39:48.89	17.62	10.49	-33.3	-33.9	24.8	0.00e+00	0	32	0	578813952	40	5673
2026-01-27 18:39:49.90	17.54	10.57	-33.3	-34.0	24.7	0.00e+00	0	32	0	584056832	40	5724
2026-01-27 18:39:50.91	17.45	10.65	-33.2	-33.8	24.8	0.00e+00	0	32	0	589299712	40	5605
2026-01-27 18:39:51.92	17.36	10.73	-33.2	-33.9	24.7	0.00e+00	0	32	0	595591168	40	5659
2026-01-27 18:39:52.93	17.27	10.81	-33.2	-33.9	24.8	0.00e+00	0	32	0	600834048	40	5666
2026-01-27 18:39:53.94	17.18	10.89	-33.1	-33.8	24.9	0.00e+00	0	32	0	607125504	40	5619
2026-01-27 18:39:54.95	17.09	10.97	-33.2	-33.9	24.8	0.00e+00	0	32	0	612368384	40	5654
2026-01-27 18:39:55.96	17.00	11.05	-33.2	-33.9	24.9	0.00e+00	0	32	0	618659840	40	5639
2026-01-27 18:39:56.97	16.91	11.13	-33.3	-34.0	24.7	0.00e+00	0	32	0	623902720	40	5696
2026-01-27 18:39:57.98	16.82	11.21	-32.8	-33.5	25.1	0.00e+00	0	32	0	630194176	40	5428
2026-01-27 18:39:58.99	16.72	11.29	-32.9	-33.6	25.1	0.00e+00	0	32	0	635437056	40	5479
2026-01-27 18:40:00.00	16.63	11.37	-32.8	-33.5	25.2	0.00e+00	0	32	0	640679936	40	5408
2026-01-27 18:40:01.01	16.54	11.45	-32.9	-33.6	25.1	0.00e+00	0	32	0	646971392	38	6113
2026-01-27 18:40:02.02	16.44	11.53	-32.7	-33.4	25.4	0.00e+00	0	32	0	652214272	38	5991
2026-01-27 18:40:03.03	16.35	11.61	-32.8	-33.4	25.3	0.00e+00	0	32	0	658505728	38	6032
2026-01-27 18:40:04.04	16.25	11.69	-32.7	-33.4	25.3	0.00e+00	0	32	0	663748608	38	6000
2026-01-27 18:40:05.05	16.16	11.77	-32.7	-33.4	25.4	0.00e+00	0	32	0	668991488	38	5997
2026-01-27 18:40:06.06	16.06	11.85	-32.9	-33.5	25.2	0.00e+00	0	32	0	675282944	38	6083
2026-01-27 18:40:07.07	15.96	11.94	-32.9	-33.5	25.2	0.00e+00	0	32	0	680525824	38	6085
2026-01-27 18:40:08.08	15.87	12.02	-32.8	-33.5	25.3	0.00e+00	0	32	0	686817280	38	6076
2026-01-27 18:40:09.09	15.77	12.10	-32.9	-33.6	25.2	0.00e+00	0	32	0	692060160	38	6142
2026-01-27 18:40:10.10	15.67	12.18	-33.0	-33.6	25.1	0.00e+00	0	32	0	697303040	38	6159
2026-01-27 18:40:11.11	15.57	12.27	-33.1	-33.8	24.9	0.00e+00	0	32	0	703594496	38	6251
2026-01-27 18:40:12.12	15.47	12.35	-33.0	-33.7	25.1	0.00e+00	0	32	0	708837376	38	6201
2026-01-27 18:40:13.13	15.37	12.43	-33.3	-34.0	24.9	0.00e+00	0	32	0	715128832	38	6402
2026-01-27 18:40:14.13	15.27	12.51	-33.3	-34.0	24.9	0.00e+00	0	32	0	720371712	38	6412
2026-01-27 18:40:15.14	15.17	12.60	-32.9	-33.6	25.2	0.00e+00	0	32	0	726663168	38	6145
2026-01-27 18:40:16.16	15.07	12.68	-33.0	-33.7	25.2	0.00e+00	0	32	0	731906048	38	6201
2026-01-27 18:40:17.16	14.97	12.76	-32.8	-33.5	25.3	0.00e+00	0	32	0	737148928	38	6057
2026-01-27 18:40:18.17	14.86	12.85	-32.8	-33.4	25.3	0.00e+00	0	32	0	743440384	38	6005
2026-01-27 18:40:19.18	14.76	12.93	-32.6	-33.2	25.5	0.00e+00	0	32	0	748683264	38	5880
2026-01-27 18:40:20.19	14.65	13.02	-32.5	-33.2	25.6	0.00e+00	0	32	0	754974720	38	5834
2026-01-27 18:40:21.20	14.55	13.10	-32.6	-33.3	25.5	0.00e+00	0	32	0	760217600	38	5955
2026-01-27 18:40:22.21	14.44	13.18	-32.6	-33.3	25.6	0.00e+00	0	32	0	765460480	38	5920
2026-01-27 18:40:23.22	14.34	13.27	-32.6	-33.3	25.5	0.00e+00	0	32	0	771751936	38	5937
2026-01-27 18:40:24.23	14.23	13.35	-32.8	-33.5	25.3	0.00e+00	0	32	0	776994816	38	6048
2026-01-27 18:40:25.24	14.12	13.44	-32.6	-33.2	25.5	0.00e+00	0	32	0	783286272	38	5895
2026-01-27 18:40:26.25	14.01	13.53	-32.5	-33.2	25.6	0.00e+00	0	32	0	788529152	38	5860
2026-01-27 18:40:27.26	13.91	13.61	-32.7	-33.3	25.5	0.00e+00	0	32	0	793772032	38	5948
2026-01-27 18:40:28.27	13.80	13.70	-32.5	-33.1	25.6	0.00e+00	0	32	0	800063488	38	5817
2026-01-27 18:40:29.28	13.69	13.78	-32.5	-33.2	25.6	0.00e+00	0	32	0	805306368	38	5848
2026-01-27 18:40:30.29	13.58	13.87	-32.5	-33.2	25.5	0.00e+00	0	32	0	811597824	38	5865
2026-01-27 18:40:31.30	13.46	13.96	-32.5	-33.2	25.6	0.00e+00	0	32	0	816840704	38	5860
2026-01-27 18:40:32.31	13.35	14.04	-32.3	-33.0	25.7	0.00e+00	0	32	0	823132160	38	5722
2026-01-27 18:40:33.32	13.24	14.13	-32.5	-33.2	25.7	0.00e+00	0	32	0	828375040	38	5836
2026-01-27 18:40:34.33	13.12	14.22	-32.4	-33.0	25.8	0.00e+00	0	32	0	834666496	38	5736
2026-01-27 18:40:35.34	13.01	14.30	-32.2	-32.8	25.9	0.00e+00	0	32	0	839909376	38	5615
2026-01-27 18:40:36.35	12.90	14.39	-32.1	-32.8	25.9	0.00e+00	0	32	0	845152256	38	5589
2026-01-27 18:40:37.36	12.78	14.48	-32.1	-32.7	26.0	0.00e+00	0	32	0	851443712	38	5543
2026-01-27 18:40:38.37	12.66	14.57	-32.0	-32.7	26.0	0.00e+00	0	32	0	856686592	38	5534
2026-01-27 18:40:39.38	12.55	14.65	-32.1	-32.8	26.0	0.00e+00	0	32	0	862978048	38	5591
2026-01-27 18:40:40.39	12.43	14.74	-32.0	-32.6	26.0	0.00e+00	0	32	0	868220928	38	5485
2026-01-27 18:40:41.40	12.31	14.83	-32.1	-32.8	26.0	0.00e+00	0	32	0	873463808	38	5571
2026-01-27 18:40:42.40	12.19	14.92	-32.1	-32.7	26.0	0.00e+00	0	32	0	879755264	38	5562
2026-01-27 18:40:43.41	12.07	15.01	-32.0	-32.6	26.1	0.00e+00	0	32	0	884998144	38	5502
2026-01-27 18:40:44.42	11.95	15.10	-32.0	-32.7	26.1	0.00e+00	0	32	0	891289600	38	5516
2026-01-27 18:40:45.43	11.83	15.18	-32.0	-32.6	26.1	0.00e+00	0	32	0	896532480	38	5453
2026-01-27 18:40:46.44	11.71	15.27	-32.1	-32.7	26.0	0.00e+00	0	32	0	901775360	38	5519
2026-01-27 18:40:47.46	11.58	15.36	-32.0	-32.6	26.1	0.00e+00	0	32	0	908066816	38	5481
2026-01-27 18:40:48.46	11.46	15.45	-32.0	-32.6	26.1	0.00e+00	0	32	0	913309696	38	5492
2026-01-27 18:40:49.47	11.34	15.54	-32.1	-32.8	26.1	0.00e+00	0	32	0	919601152	38	5570
2026-01-27 18:40:50.49	11.21	15.63	-31.9	-32.6	26.1	0.00e+00	0	32	0	924844032	38	5468
2026-01-27 18:40:51.49	11.09	15.72	-32.0	-32.6	26.1	0.00e+00	0	32	0	931135488	38	5473
2026-01-27 18:40:52.50	10.96	15.81	-32.0	-32.7	26.1	0.00e+00	0	32	0	936378368	38	5552
2026-01-27 18:40:53.51	10.83	15.91	-32.0	-32.7	26.1	0.00e+00	0	32	0	941621248	38	5539
2026-01-27 18:40:54.53	10.70	16.00	-31.9	-32.6	26.2	0.00e+00	0	32	0	947912704	38	5461
2026-01-27 18:40:55.54	10.57	16.09	-31.8	-32.4	26.3	0.00e+00	0	32	0	953155584	38	5356
2026-01-27 18:40:56.55	10.44	16.18	-31.8	-32.5	26.2	0.00e+00	0	32	0	959447040	36	6065
2026-01-27 18:40:57.56	10.31	16.27	-31.7	-32.3	26.5	0.00e+00	0	32	0	964689920	36	5928
2026-01-27 18:40:58.57	10.18	16.36	-31.6	-32.3	26.4	0.00e+00	0	32	0	969932800	36	5902
2026-01-27 18:40:59.58	10.05	16.45	-31.9	-32.6	26.2	0.00e+00	0	32	0	976224256	36	6122
2026-01-27 18:41:00.59	9.91	16.55	-31.7	-32.3	26.4	0.00e+00	0	32	0	981467136	36	5959
2026-01-27 18:41:01.60	9.78	16.64	-31.8	-32.4	26.3	0.00e+00	0	32	0	987758592	36	6015
2026-01-27 18:41:02.61	9.65	16.73	-31.7	-32.4	26.3	0.00e+00	0	32	0	993001472	36	5981
2026-01-27 18:41:03.61	9.51	16.82	-31.7	-32.4	26.4	0.00e+00	0	32	0	998244352	36	5989
2026-01-27 18:41:04.63	9.37	16.92	-31.6	-32.3	26.5	0.00e+00	0	32	0	1004535808	36	5899
2026-01-27 18:41:05.63	9.24	17.01	-31.4	-32.0	26.7	0.00e+00	0	32	0	1009778688	36	5726
2026-01-27 18:41:06.64	9.10	17.10	-31.5	-32.1	26.7	0.00e+00	0	32	0	1016070144	36	5825
2026-01-27 18:41:07.65	8.96	17.19	-31.1	-31.8	26.8	0.00e+00	0	32	0	1021313024	36	5576
2026-01-27 18:41:08.66	8.82	17.29	-31.3	-31.9	26.7	0.00e+00	0	32	0	1027604480	36	5675
2026-01-27 18:41:09.67	8.68	17.38	-31.3	-31.9	26.7	0.00e+00	0	32	0	1032847360	36	5660
2026-01-27 18:41:10.68	8.54	17.48	-31.2	-31.8	26.8	0.00e+00	0	32	0	1039138816	36	5588
2026-01-27 18:41:11.69	8.39	17.57	-31.3	-31.9	26.8	0.00e+00	0	32	0	1044381696	36	5659
2026-01-27 18:41:12.70	8.25	17.66	-31.3	-31.9	26.8	0.00e+00	0	32	0	1049624576	36	5667
2026-01-27 18:41:13.71	8.10	17.76	-31.3	-31.9	26.8	0.00e+00	0	32	0	1055916032	36	5652
2026-01-27 18:41:14.72	7.96	17.85	-31.3	-32.0	26.8	0.00e+00	0	32	0	1061158912	36	5744
2026-01-27 18:41:15.73	7.81	17.95	-31.3	-31.9	26.7	0.00e+00	0	32	0	1067450368	36	5695
2026-01-27 18:41:16.74	7.66	18.04	-31.2	-31.8	26.9	0.00e+00	0	32	0	1072693248	36	5625
2026-01-27 18:41:17.75	7.52	18.14	-31.1	-31.8	26.9	0.00e+00	0	32	0	1077936128	36	5585
2026-01-27 18:41:18.76	7.37	18.23	-31.1	-31.7	26.9	0.00e+00	0	32	0	1084227584	36	5551
2026-01-27 18:41:19.77	7.22	18.33	-31.1	-31.7	27.0	0.00e+00	0	32	0	1089470464	36	5545
2026-01-27 18:41:20.77	7.07	18.42	-31.0	-31.6	27.0	0.00e+00	0	32	0	1095761920	36	5462
2026-01-27 18:41:21.79	6.91	18.52	-31.0	-31.6	26.9	0.00e+00	0	32	0	1101004800	36	5499
2026-01-27 18:41:22.80	6.76	18.61	-31.0	-31.6	27.0	0.00e+00	0	32	0	1106247680	36	5469
2026-01-27 18:41:23.81	6.60	18.71	-31.0	-31.5	27.0	0.00e+00	0	32	0	1112539136	36	5431
2026-01-27 18:41:24.82	6.45	18.81	-31.0	-31.6	27.1	0.00e+00	0	32	0	1117782016	36	5453
2026-01-27 18:41:25.82	6.29	18.90	-30.9	-31.5	27.0	0.00e+00	0	32	0	1124073472	36	5428
2026-01-27 18:41:26.84	6.14	19.00	-30.9	-31.5	27.2	0.00e+00	0	32	0	1129316352	36	5400
2026-01-27 18:41:27.84	5.98	19.09	-30.9	-31.5	27.1	0.00e+00	0	32	0	1135607808	36	5392
2026-01-27 18:41:28.85	5.82	19.19	-31.1	-31.7	26.9	0.00e+00	0	32	0	1140850688	36	5525
2026-01-27 18:41:29.87	5.66	19.29	-31.0	-31.6	27.0	0.00e+00	0	32	0	1146093568	36	5463
2026-01-27 18:41:30.88	5.50	19.39	-31.1	-31.7	26.9	0.00e+00	0	32	0	1152385024	36	5554
2026-01-27 18:41:31.88	5.33	19.48	-31.2	-31.8	26.9	0.00e+00	0	32	0	1157627904	36	5598
2026-01-27 18:41:32.89	5.17	19.58	-31.2	-31.9	26.8	0.00e+00	0	32	0	1163919360	36	5642
2026-01-27 18:41:33.90	5.01	19.68	-31.0	-31.6	27.1	0.00e+00	0	32	0	1169162240	36	5465
2026-01-27 18:41:34.91	4.84	19.77	-30.8	-31.5	27.2	0.00e+00	0	32	0	1174405120	36	5398
2026-01-27 18:41:35.92	4.67	19.87	-30.9	-31.5	27.2	0.00e+00	0	32	0	1180696576	36	5432
2026-01-27 18:41:36.93	4.51	19.97	-30.6	-31.3	27.4	0.00e+00	0	32	0	1185939456	34	5897
2026-01-27 18:41:37.94	4.34	20.07	-30.5	-31.1	27.3	0.00e+00	0	32	0	1192230912	34	5828
2026-01-27 18:41:38.95	4.17	20.17	-30.5	-31.1	27.5	0.00e+00	0	32	0	1197473792	34	5786
2026-01-27 18:41:39.95	4.00	20.26	-30.6	-31.1	27.4	0.00e+00	0	32	0	1202716672	34	5827
2026-01-27 18:41:40.96	3.83	20.36	-30.4	-31.1	27.6	0.00e+00	0	32	0	1209008128	34	5779
2026-01-27 18:41:41.97	3.65	20.46	-30.5	-31.1	27.5	0.00e+00	0	32	0	1214251008	34	5799
2026-01-27 18:41:42.98	3.48	20.56	-30.5	-31.1	27.4	0.00e+00	0	32	0	1220542464	34	5810
2026-01-27 18:41:43.99	3.30	20.66	-30.5	-31.1	27.5	0.00e+00	0	32	0	1225785344	34	5816
2026-01-27 18:41:45.00	3.12	20.76	-30.6	-31.2	27.5	0.00e+00	0	32	0	1232076800	34	5883
2026-01-27 18:41:46.01	2.95	20.85	-30.8	-31.4	27.2	0.00e+00	0	32	0	1237319680	34	6005
2026-01-27 18:41:47.02	2.77	20.95	-30.8	-31.4	27.2	0.00e+00	0	32	0	1243611136	34	6027
2026-01-27 18:41:48.03	2.59	21.05	-30.8	-31.4	27.3	0.00e+00	0	32	0	1248854016	34	6024
2026-01-27 18:41:49.04	2.41	21.15	-30.7	-31.3	27.3	0.00e+00	0	32	0	1254096896	34	5961
2026-01-27 18:41:50.05	2.22	21.25	-30.7	-31.3	27.3	0.00e+00	0	32	0	1260388352	34	5959
2026-01-27 18:41:51.06	2.04	21.35	-30.7	-31.3	27.3	0.00e+00	0	32	0	1265631232	34	5952
2026-01-27 18:41:52.07	1.85	21.45	-30.7	-31.3	27.3	0.00e+00	0	32	0	1270874112	34	5957
2026-01-27 18:41:53.08	1.67	21.55	-30.7	-31.3	27.3	0.00e+00	0	32	0	1277165568	34	5961
2026-01-27 18:41:54.09	1.48	21.65	-30.5	-31.1	27.4	0.00e+00	0	32	0	1282408448	34	5816
2026-01-27 18:41:55.10	1.29	21.75	-30.5	-31.1	27.5	0.00e+00	0	32	0	1288699904	34	5796
2026-01-27 18:41:56.11	1.10	21.85	-30.3	-30.9	27.6	0.00e+00	0	32	0	1293942784	34	5690
2026-01-27 18:41:57.12	0.91	21.95	-30.3	-30.8	27.6	0.00e+00	0	32	0	1300234240	34	5626
2026-01-27 18:41:58.13	0.72	22.05	-30.3	-30.9	27.7	0.00e+00	0	32	0	1305477120	34	5655
2026-01-27 18:41:59.14	0.52	22.14	-30.3	-30.9	27.6	0.00e+00	0	32	0	1310720000	34	5665
2026-01-27 18:42:00.15	0.33	22.24	-30.3	-30.9	27.5	0.00e+00	0	32	0	1317011456	34	5692
2026-01-27 18:42:01.16	0.13	22.34	-30.3	-30.9	27.6	0.00e+00	0	32	0	1322254336	34	5673
2026-01-27 18:42:02.17	359.93	22.44	-30.4	-31.0	27.6	0.00e+00	0	32	0	1328545792	34	5741
2026-01-27 18:42:03.18	359.73	22.54	-30.4	-31.0	27.5	0.00e+00	0	32	0	1333788672	34	5721
2026-01-27 18:42:04.18	359.54	22.64	-30.3	-31.0	27.6	0.00e+00	0	32	0	1340080128	34	5708
2026-01-27 18:42:05.20	359.33	22.74	-30.4	-31.0	27.5	0.00e+00	0	32	0	1345323008	34	5723
2026-01-27 18:42:06.20	359.13	22.84	-30.2	-30.8	27.7	0.00e+00	0	32	0	1350565888	34	5604
2026-01-27 18:42:07.21	358.93	22.94	-30.1	-30.7	27.7	0.00e+00	0	32	0	1356857344	34	5548
2026-01-27 18:42:08.22	358.72	23.04	-30.0	-30.6	27.8	0.00e+00	0	32	0	1362100224	34	5480
2026-01-27 18:42:09.23	358.52	23.14	-30.1	-30.7	27.8	0.00e+00	0	32	0	1368391680	34	5506
2026-01-27 18:42:10.24	358.31	23.24	-30.0	-30.6	27.9	0.00e+00	0	32	0	1373634560	34	5442
2026-01-27 18:42:11.26	358.10	23.34	-29.9	-30.5	27.8	0.00e+00	0	32	0	1378877440	34	5425
2026-01-27 18:42:12.27	357.89	23.44	-30.0	-30.6	27.9	0.00e+00	0	32	0	1385168896	34	5454
2026-01-27 18:42:13.28	357.67	23.54	-30.1	-30.7	27.8	0.00e+00	0	32	0	1390411776	34	5563
2026-01-27 18:42:14.29	357.46	23.64	-30.1	-30.7	27.8	0.00e+00	0	32	0	1396703232	34	5545
2026-01-27 18:42:15.30	357.24	23.74	-30.1	-30.7	27.7	0.00e+00	0	32	0	1401946112	34	5561
2026-01-27 18:42:16.31	357.03	23.84	-30.3	-30.9	27.6	0.00e+00	0	32	0	1407188992	34	5643
2026-01-27 18:42:17.32	356.81	23.94	-30.3	-30.9	27.7	0.00e+00	0	32	0	1413480448	34	5648
2026-01-27 18:42:18.33	356.59	24.04	-30.2	-30.8	27.7	0.00e+00	0	32	0	1418723328	34	5623
2026-01-27 18:42:19.34	356.37	24.14	-30.3	-30.9	27.6	0.00e+00	0	32	0	1425014784	34	5687
2026-01-27 18:42:20.35	356.15	24.24	-30.1	-30.7	27.8	0.00e+00	0	32	0	1430257664	34	5532
2026-01-27 18:42:21.36	355.92	24.33	-30.0	-30.6	27.9	0.00e+00	0	32	0	1436549120	34	5495
2026-01-27 18:42:22.37	355.70	24.43	-30.1	-30.7	27.8	0.00e+00	0	32	0	1441792000	34	5536
2026-01-27 18:42:23.38	355.47	24.53	-30.0	-30.6	27.9	0.00e+00	0	32	0	1448083456	34	5487
2026-01-27 18:42:24.39	355.25	24.63	-29.7	-30.3	28.1	0.00e+00	0	32	0	1453326336	32	5947
2026-01-27 18:42:25.40	355.02	24.73	-29.7	-30.3	28.1	0.00e+00	0	32	0	1458569216	32	5909
2026-01-27 18:42:26.41	354.79	24.83	-29.8	-30.4	28.0	0.00e+00	0	32	0	1464860672	32	5991
2026-01-27 18:42:27.42	354.55	24.93	-29.7	-30.3	28.1	0.00e+00	0	32	0	1470103552	32	5939
2026-01-27 18:42:28.43	354.32	25.02	-29.7	-30.3	28.2	0.00e+00	0	32	0	1476395008	32	5922
2026-01-27 18:42:29.44	354.08	25.12	-29.6	-30.2	28.3	0.00e+00	0	32	0	1481637888	32	5866
2026-01-27 18:42:30.45	353.85	25.22	-29.5	-30.1	28.2	0.00e+00	0	32	0	1486880768	32	5797
2026-01-27 18:42:31.46	353.61	25.32	-29.5	-30.1	28.3	0.00e+00	0	32	0	1493172224	32	5792
2026-01-27 18:42:32.47	353.37	25.42	-29.5	-30.2	28.2	0.00e+00	0	32	0	1498415104	32	5832
2026-01-27 18:42:33.48	353.13	25.51	-29.6	-30.2	28.2	0.00e+00	0	32	0	1504706560	32	5844
2026-01-27 18:42:34.49	352.89	25.61	-29.6	-30.2	28.1	0.00e+00	0	32	0	1509949440	32	5891
2026-01-27 18:42:35.50	352.64	25.71	-29.6	-30.3	28.1	0.00e+00	0	32	0	1515192320	32	5899
2026-01-27 18:42:36.51	352.40	25.80	-29.7	-30.3	28.2	0.00e+00	0	32	0	1521483776	32	5911
2026-01-27 18:42:37.52	352.15	25.90	-29.5	-30.1	28.3	0.00e+00	0	32	0	1526726656	32	5815
2026-01-27 18:42:38.53	351.90	26.00	-29.5	-30.1	28.3	0.00e+00	0	32	0	1533018112	32	5762
2026-01-27 18:42:39.53	351.65	26.09	-29.5	-30.1	28.2	0.00e+00	0	32	0	1538260992	32	5818
2026-01-27 18:42:40.54	351.40	26.19	-29.4	-30.0	28.3	0.00e+00	0	32	0	1544552448	32	5731
2026-01-27 18:42:41.55	351.15	26.28	-29.4	-29.9	28.3	0.00e+00	0	32	0	1549795328	32	5695
2026-01-27 18:42:42.56	350.89	26.38	-29.4	-30.0	28.4	0.00e+00	0	32	0	1555038208	32	5732
2026-01-27 18:42:43.57	350.64	26.47	-29.4	-30.1	28.4	0.00e+00	0	32	0	1561329664	32	5763
2026-01-27 18:42:44.58	350.38	26.57	-29.5	-30.1	28.3	0.00e+00	0	32	0	1566572544	32	5816
2026-01-27 18:42:45.59	350.12	26.66	-29.6	-30.2	28.3	0.00e+00	0	32	0	1572864000	32	5851
2026-01-27 18:42:46.60	349.86	26.75	-29.8	-30.3	28.0	0.00e+00	0	32	0	1578106880	32	5963
2026-01-27 18:42:47.61	349.60	26.85	-29.7	-30.3	28.1	0.00e+00	0	32	0	1583349760	32	5964
2026-01-27 18:42:48.62	349.33	26.94	-29.6	-30.2	28.3	0.00e+00	0	32	0	1589641216	32	5859
2026-01-27 18:42:49.63	349.07	27.03	-29.6	-30.2	28.2	0.00e+00	0	32	0	1594884096	32	5850
2026-01-27 18:42:50.64	348.80	27.12	-29.5	-30.0	28.3	0.00e+00	0	32	0	1601175552	32	5739
2026-01-27 18:42:51.64	348.53	27.22	-29.5	-30.1	28.3	0.00e+00	0	32	0	1606418432	32	5763
2026-01-27 18:42:52.65	348.26	27.31	-29.4	-30.0	28.3	0.00e+00	0	32	0	1611661312	32	5747
2026-01-27 18:42:53.66	347.99	27.40	-29.4	-30.0	28.3	0.00e+00	0	32	0	1617952768	32	5703
2026-01-27 18:42:54.67	347.72	27.49	-29.6	-30.2	28.1	0.00e+00	0	32	0	1623195648	32	5861
2026-01-27 18:42:55.68	347.44	27.58	-29.7	-30.2	28.1	0.00e+00	0	32	0	1629487104	32	5893
2026-01-27 18:42:56.69	347.17	27.67	-29.7	-30.3	28.2	0.00e+00	0	32	0	1634729984	32	5952
2026-01-27 18:42:57.70	346.89	27.76	-29.4	-30.0	28.2	0.00e+00	0	32	0	1641021440	32	5735
2026-01-27 18:42:58.71	346.61	27.85	-29.5	-30.1	28.3	0.00e+00	0	32	0	1646264320	32	5764
2026-01-27 18:42:59.72	346.33	27.94	-29.5	-30.2	28.3	0.00e+00	0	32	0	1652555776	32	5832
2026-01-27 18:43:00.73	346.04	28.02	-29.6	-30.3	28.2	0.00e+00	0	32	0	1657798656	32	5921
2026-01-27 18:43:01.74	345.76	28.11	-29.5	-30.1	28.3	0.00e+00	0	32	0	1663041536	32	5804
2026-01-27 18:43:02.75	345.47	28.20	-29.4	-30.0	28.4	0.00e+00	0	32	0	1669332992	32	5713
2026-01-27 18:43:03.76	345.19	28.28	-29.2	-29.8	28.5	0.00e+00	0	32	0	1674575872	32	5587
2026-01-27 18:43:04.77	344.90	28.37	-29.0	-29.6	28.7	0.00e+00	0	32	0	1680867328	32	5477
2026-01-27 18:43:05.78	344.61	28.46	-29.1	-29.7	28.6	0.00e+00	0	32	0	1686110208	32	5519
2026-01-27 18:43:06.79	344.31	28.54	-29.2	-29.8	28.5	0.00e+00	0	32	0	1691353088	32	5603
2026-01-27 18:43:07.80	344.02	28.62	-29.2	-29.8	28.5	0.00e+00	0	32	0	1697644544	32	5628
2026-01-27 18:43:08.81	343.72	28.71	-29.3	-29.9	28.4	0.00e+00	0	32	0	1702887424	32	5654
2026-01-27 18:43:09.82	343.43	28.79	-29.3	-29.9	28.4	0.00e+00	0	32	0	1708130304	32	5654
2026-01-27 18:43:10.83	343.13	28.87	-29.3	-29.9	28.4	0.00e+00	0	32	0	1714421760	32	5673
2026-01-27 18:43:11.84	342.83	28.95	-29.5	-30.1	28.3	0.00e+00	0	32	0	1719664640	32	5798
2026-01-27 18:43:12.85	342.53	29.04	-29.6	-30.2	28.2	0.00e+00	0	32	0	1725956096	32	5888
2026-01-27 18:43:13.86	342.22	29.12	-29.4	-30.0	28.3	0.00e+00	0	32	0	1731198976	32	5733
2026-01-27 18:43:14.87	341.92	29.20	-29.4	-30.0	28.3	0.00e+00	0	32	0	1737490432	32	5739
2026-01-27 18:43:15.87	341.62	29.27	-29.2	-29.8	28.5	0.00e+00	0	32	0	1742733312	32	5575
2026-01-27 18:43:16.88	341.31	29.35	-29.3	-30.0	28.4	0.00e+00	0	32	0	1749024768	32	5713
2026-01-27 18:43:17.90	341.00	29.43	-29.3	-29.9	28.4	0.00e+00	0	32	0	1754267648	32	5663
2026-01-27 18:43:18.90	340.69	29.51	-29.4	-30.0	28.3	0.00e+00	0	32	0	1759510528	32	5760
2026-01-27 18:43:19.91	340.38	29.58	-29.3	-29.9	28.4	0.00e+00	0	32	0	1765801984	32	5687
2026-01-27 18:43:20.92	340.06	29.66	-29.3	-29.9	28.4	0.00e+00	0	32	0	1771044864	32	5660
2026-01-27 18:43:21.93	339.75	29.73	-29.4	-30.0	28.3	0.00e+00	0	32	0	1777336320	32	5728
2026-01-27 18:43:22.94	339.43	29.81	-29.4	-30.0	28.5	0.00e+00	0	32	0	1782579200	32	5711
2026-01-27 18:43:23.95	339.11	29.88	-29.4	-30.0	28.3	0.00e+00	0	32	0	1787822080	32	5708
2026-01-27 18:43:24.96	338.79	29.95	-29.4	-30.0	28.4	0.00e+00	0	32	0	1794113536	32	5710
2026-01-27 18:43:25.97	338.47	30.02	-29.4	-30.0	28.3	0.00e+00	0	32	0	1799356416	32	5740
2026-01-27 18:43:26.98	338.15	30.09	-29.3	-29.9	28.5	0.00e+00	0	32	0	1805647872	32	5637
2026-01-27 18:43:27.98	337.83	30.16	-29.1	-29.7	28.6	0.00e+00	0	32	0	1810890752	32	5507
2026-01-27 18:43:29.00	337.50	30.23	-29.1	-29.7	28.5	0.00e+00	0	32	0	1816133632	32	5563
2026-01-27 18:43:30.00	337.18	30.30	-29.1	-29.7	28.6	0.00e+00	0	32	0	1822425088	32	5524
2026-01-27 18:43:31.01	336.85	30.37	-29.1	-29.7	28.6	0.00e+00	0	32	0	1827667968	32	5539
2026-01-27 18:43:32.02	336.52	30.43	-28.8	-29.4	28.8	0.00e+00	0	32	0	1833959424	32	5343
2026-01-27 18:43:33.03	336.19	30.50	-28.9	-29.5	28.8	0.00e+00	0	32	0	1839202304	32	5408
2026-01-27 18:43:34.04	335.86	30.56	-29.1	-29.7	28.6	0.00e+00	0	32	0	1845493760	32	5513
2026-01-27 18:43:35.05	335.52	30.63	-29.1	-29.7	28.6	0.00e+00	0	32	0	1850736640	32	5516
2026-01-27 18:43:36.06	335.19	30.69	-29.1	-29.8	28.6	0.00e+00	0	32	0	1855979520	32	5572
2026-01-27 18:43:37.07	334.85	30.75	-29.0	-29.6	28.8	0.00e+00	0	32	0	1862270976	32	5456
2026-01-27 18:43:38.08	334.51	30.81	-28.9	-29.5	28.8	0.00e+00	0	32	0	1867513856	32	5417
2026-01-27 18:43:39.09	334.18	30.87	-28.9	-29.5	28.7	0.00e+00	0	32	0	1873805312	32	5421
2026-01-27 18:43:40.10	333.84	30.93	-28.9	-29.5	28.6	0.00e+00	0	32	0	1879048192	32	5410
2026-01-27 18:43:41.11	333.49	30.99	-29.1	-29.7	28.6	0.00e+00	0	32	0	1884291072	32	5512
2026-01-27 18:43:42.13	333.15	31.04	-29.3	-29.9	28.5	0.00e+00	0	32	0	1890582528	32	5631
2026-01-27 18:43:43.13	332.81	31.10	-29.2	-29.8	28.5	0.00e+00	0	32	0	1895825408	32	5595
2026-01-27 18:43:44.14	332.46	31.15	-29.3	-29.9	28.5	0.00e+00	0	32	0	1902116864	32	5679
2026-01-27 18:43:45.15	332.12	31.20	-29.0	-29.7	28.6	0.00e+00	0	32	0	1907359744	32	5503
2026-01-27 18:43:46.16	331.77	31.26	-29.0	-29.6	28.7	0.00e+00	0	32	0	1912602624	32	5484
2026-01-27 18:43:47.17	331.42	31.31	-28.9	-29.5	28.7	0.00e+00	0	32	0	1918894080	32	5416
2026-01-27 18:43:48.18	331.07	31.36	-29.0	-29.7	28.7	0.00e+00	0	32	0	1924136960	32	5503
2026-01-27 18:43:49.19	330.72	31.41	-28.9	-29.4	28.7	0.00e+00	0	32	0	1930428416	32	5372
2026-01-27 18:43:50.20	330.37	31.45	-29.0	-29.6	28.7	0.00e+00	0	32	0	1935671296	32	5467
2026-01-27 18:43:51.21	330.02	31.50	-29.0	-29.6	28.7	0.00e+00	0	32	0	1941962752	32	5482
2026-01-27 18:43:52.22	329.67	31.54	-29.0	-29.6	28.7	0.00e+00	0	32	0	1947205632	32	5457
2026-01-27 18:43:53.23	329.31	31.59	-28.9	-29.5	28.8	0.00e+00	0	32	0	1953497088	32	5387
2026-01-27 18:43:54.23	328.96	31.63	-28.9	-29.5	28.8	0.00e+00	0	32	0	1958739968	32	5406
2026-01-27 18:43:55.24	328.60	31.67	-28.8	-29.5	28.8	0.00e+00	0	32	0	1963982848	32	5385
2026-01-27 18:43:56.26	328.24	31.71	-29.0	-29.6	28.6	0.00e+00	0	32	0	1970274304	32	5474
2026-01-27 18:43:57.27	327.89	31.75	-29.0	-29.6	28.6	0.00e+00	0	32	0	1975517184	32	5482
2026-01-27 18:43:58.28	327.53	31.79	-29.3	-29.9	28.5	0.00e+00	0	32	0	1981808640	32	5683
2026-01-27 18:43:59.28	327.17	31.83	-28.8	-29.4	28.8	0.00e+00	0	32	0	1987051520	32	5323
2026-01-27 18:44:00.29	326.81	31.86	-28.8	-29.3	28.8	0.00e+00	0	32	0	1992294400	30	5953
2026-01-27 18:44:01.30	326.45	31.90	-28.8	-29.5	28.7	0.00e+00	0	32	0	1998585856	30	6041
2026-01-27 18:44:02.31	326.09	31.93	-28.9	-29.5	28.8	0.00e+00	0	32	0	2003828736	30	6043
2026-01-27 18:44:03.32	325.72	31.96	-28.9	-29.5	28.8	0.00e+00	0	32	0	2010120192	30	6053
2026-01-27 18:44:04.33	325.36	31.99	-29.0	-29.6	28.7	0.00e+00	0	32	0	2015363072	30	6150
2026-01-27 18:44:05.34	325.00	32.02	-28.9	-29.5	28.8	0.00e+00	0	32	0	2020605952	30	6038
2026-01-27 18:44:06.35	324.63	32.05	-28.9	-29.5	28.8	0.00e+00	0	32	0	2026897408	30	6102
2026-01-27 18:44:07.36	324.26	32.08	-28.9	-29.5	28.8	0.00e+00	0	32	0	2032140288	30	6049
2026-01-27 18:44:08.37	323.90	32.10	-28.7	-29.3	28.8	0.00e+00	0	32	0	2038431744	30	5927
2026-01-27 18:44:09.38	323.53	32.13	-28.7	-29.3	28.8	0.00e+00	0	32	0	2043674624	30	5938
2026-01-27 18:44:10.39	323.16	32.15	-28.8	-29.4	28.8	0.00e+00	0	32	0	2049966080	30	5988
2026-01-27 18:44:11.40	322.80	32.17	-28.6	-29.2	29.0	0.00e+00	0	32	0	2055208960	30	5896
2026-01-27 18:44:12.41	322.43	32.19	-28.5	-29.2	29.0	0.00e+00	0	32	0	2060451840	30	5832
2026-01-27 18:44:13.42	322.06	32.21	-28.6	-29.2	28.9	0.00e+00	0	32	0	2066743296	30	5878
2026-01-27 18:44:14.43	321.69	32.23	-28.5	-29.1	29.1	0.00e+00	0	32	0	2071986176	30	5799
2026-01-27 18:44:15.44	321.32	32.25	-28.7	-29.3	29.0	0.00e+00	0	32	0	2078277632	30	5909
2026-01-27 18:44:16.45	320.95	32.26	-28.8	-29.4	28.8	0.00e+00	0	32	0	2083520512	30	5994
2026-01-27 18:44:17.46	320.58	32.27	-29.0	-29.6	28.7	0.00e+00	0	32	0	2088763392	30	6152
2026-01-27 18:44:18.47	320.21	32.29	-29.1	-29.6	28.7	0.00e+00	0	32	0	2095054848	30	6156
2026-01-27 18:44:19.48	319.84	32.30	-29.1	-29.7	28.6	0.00e+00	0	32	0	2100297728	30	6238
2026-01-27 18:44:20.49	319.47	32.31	-29.0	-29.6	28.7	0.00e+00	0	32	0	2106589184	30	6145
2026-01-27 18:44:21.50	319.10	32.31	-28.9	-29.6	28.8	0.00e+00	0	32	0	2111832064	30	6107
2026-01-27 18:44:22.51	318.73	32.32	-29.0	-29.6	28.8	0.00e+00	0	32	0	2117074944	30	6131
2026-01-27 18:44:23.52	318.35	32.33	-28.8	-29.5	28.8	0.00e+00	0	32	0	2123366400	30	6034
2026-01-27 18:44:24.53	317.98	32.33	-28.8	-29.4	28.9	0.00e+00	0	32	0	2128609280	30	6010
2026-01-27 18:44:25.54	317.61	32.33	-28.9	-29.5	28.8	0.00e+00	0	32	0	2134900736	30	6054
2026-01-27 18:44:26.56	317.24	32.33	-28.7	-29.3	29.0	0.00e+00	0	32	0	2140143616	30	5953
2026-01-27 18:44:27.57	316.86	32.33	-28.6	-29.2	28.9	0.00e+00	0	32	0	2146435072	30	5853
2026-01-27 18:44:28.58	316.49	32.33	-28.7	-29.3	28.9	0.00e+00	0	32	0	2151677952	30	5914
2026-01-27 18:44:29.58	316.12	32.33	-28.9	-29.6	28.9	0.00e+00	0	32	0	2157969408	30	6114
2026-01-27 18:44:30.59	315.75	32.33	-29.0	-29.6	28.7	0.00e+00	0	32	0	2163212288	30	6127
2026-01-27 18:44:31.60	315.38	32.32	-29.0	-29.6	28.6	0.00e+00	0	32	0	2168455168	30	6173
2026-01-27 18:44:32.61	315.01	32.31	-29.0	-29.5	28.6	0.00e+00	0	32	0	2174746624	30	6096
2026-01-27 18:44:33.62	314.64	32.31	-29.2	-29.7	28.5	0.00e+00	0	32	0	2179989504	30	6235
2026-01-27 18:44:34.63	314.27	32.30	-29.3	-29.9	28.2	0.00e+00	0	32	0	2186280960	30	6362
2026-01-27 18:44:35.64	313.90	32.28	-28.9	-29.5	28.4	0.00e+00	0	32	0	2191523840	30	6053
2026-01-27 18:44:36.65	313.52	32.27	-29.2	-29.7	28.5	0.00e+00	0	32	0	2196766720	30	6245
2026-01-27 18:44:37.66	313.15	32.26	-29.2	-29.8	28.5	0.00e+00	0	32	0	2203058176	30	6291
2026-01-27 18:44:38.67	312.78	32.24	-29.1	-29.7	28.5	0.00e+00	0	32	0	2208301056	30	6190
2026-01-27 18:44:39.68	312.41	32.23	-28.9	-29.5	28.7	0.00e+00	0	32	0	2214592512	30	6064
2026-01-27 18:44:40.69	312.05	32.21	-28.9	-29.5	28.8	0.00e+00	0	32	0	2219835392	30	6052
2026-01-27 18:44:41.70	311.68	32.19	-28.9	-29.5	28.7	0.00e+00	0	32	0	2225078272	30	6067
2026-01-27 18:44:42.70	311.31	32.17	-28.9	-29.5	28.8	0.00e+00	0	32	0	2231369728	30	6045
2026-01-27 18:44:43.71	310.94	32.15	-28.6	-29.2	29.1	0.00e+00	0	32	0	2236612608	30	5878
2026-01-27 18:44:44.73	310.57	32.13	-28.4	-28.9	29.2	0.00e+00	0	32	0	2242904064	30	5681
2026-01-27 18:44:45.73	310.21	32.10	-28.3	-28.9	29.2	0.00e+00	0	32	0	2248146944	30	5632
2026-01-27 18:44:46.75	309.84	32.08	-28.4	-28.9	29.1	0.00e+00	0	32	0	2254438400	30	5683
2026-01-27 18:44:47.76	309.47	32.05	-28.6	-29.2	28.9	0.00e+00	0	32	0	2259681280	30	5846
2026-01-27 18:44:48.77	309.11	32.02	-28.8	-29.4	28.9	0.00e+00	0	32	0	2264924160	30	5989
2026-01-27 18:44:49.78	308.74	31.99	-28.8	-29.4	28.8	0.00e+00	0	32	0	2271215616	30	5979
2026-01-27 18:44:50.79	308.38	31.96	-28.8	-29.4	28.8	0.00e+00	0	32	0	2276458496	30	6027
2026-01-27 18:44:51.80	308.02	31.93	-28.9	-29.5	28.7	0.00e+00	0	32	0	2282749952	30	6059
2026-01-27 18:44:52.81	307.65	31.89	-29.1	-29.7	28.6	0.00e+00	0	32	0	2287992832	30	6184
2026-01-27 18:44:53.82	307.29	31.86	-29.3	-29.9	28.4	0.00e+00	0	32	0	2293235712	30	6334
2026-01-27 18:44:54.82	306.94	31.82	-29.3	-29.9	28.5	0.00e+00	0	32	0	2299527168	30	6351
2026-01-27 18:44:55.83	306.58	31.79	-29.4	-30.0	28.4	0.00e+00	0	32	0	2304770048	30	6449
2026-01-27 18:44:56.84	306.22	31.75	-29.5	-30.0	28.4	0.00e+00	0	33	0	2311061504	30	6451
2026-01-27 18:44:57.85	305.86	31.71	-29.6	-30.2	28.4	0.00e+00	0	32	0	2316304384	30	6572
2026-01-27 18:44:58.86	305.50	31.67	-29.1	-29.7	28.7	0.00e+00	0	32	0	2321547264	30	6176
2026-01-27 18:44:59.87	305.14	31.63	-29.2	-29.8	28.6	0.00e+00	0	32	0	2327838720	30	6270
2026-01-27 18:45:00.88	304.79	31.58	-28.9	-29.5	28.7	0.00e+00	0	32	0	2333081600	30	6049
2026-01-27 18:45:01.89	304.43	31.54	-28.8	-29.3	28.9	0.00e+00	0	32	0	2339373056	30	5953
2026-01-27 18:45:02.90	304.08	31.49	-28.8	-29.5	28.9	0.00e+00	0	32	0	2344615936	30	6068
2026-01-27 18:45:03.91	303.73	31.45	-28.9	-29.5	28.9	0.00e+00	0	32	0	2350907392	30	6042
2026-01-27 18:45:04.92	303.38	31.40	-29.0	-29.6	28.8	0.00e+00	0	32	0	2356150272	30	6154
2026-01-27 18:45:05.92	303.03	31.35	-29.0	-29.7	28.7	0.00e+00	0	32	0	2362441728	30	6187
2026-01-27 18:45:06.94	302.68	31.30	-28.9	-29.4	28.8	0.00e+00	0	32	0	2367684608	30	5993
2026-01-27 18:45:07.95	302.33	31.25	-28.7	-29.3	28.9	0.00e+00	0	32	0	2372927488	30	5944
2026-01-27 18:45:08.96	301.98	31.20	-28.7	-29.3	28.8	0.00e+00	0	32	0	2379218944	30	5944
2026-01-27 18:45:09.97	301.63	31.14	-28.8	-29.3	28.9	0.00e+00	0	32	0	2384461824	30	5925
2026-01-27 18:45:10.98	301.29	31.09	-29.0	-29.6	28.6	0.00e+00	0	32	0	2390753280	30	6124
2026-01-27 18:45:11.99	300.95	31.03	-29.2	-29.7	28.5	0.00e+00	0	32	0	2395996160	30	6223
2026-01-27 18:45:13.00	300.60	30.98	-29.3	-29.9	28.5	0.00e+00	0	32	0	2401239040	30	6383
2026-01-27 18:45:14.01	300.26	30.92	-28.9	-29.6	28.6	0.00e+00	0	32	0	2407530496	30	6107
2026-01-27 18:45:15.02	299.92	30.86	-28.9	-29.4	28.7	0.00e+00	0	32	0	2412773376	30	6017
2026-01-27 18:45:16.03	299.58	30.80	-28.9	-29.5	28.7	0.00e+00	0	32	0	2419064832	30	6084
2026-01-27 18:45:17.04	299.24	30.74	-28.9	-29.4	28.7	0.00e+00	0	32	0	2424307712	30	6022
2026-01-27 18:45:18.05	298.91	30.68	-28.8	-29.3	28.8	0.00e+00	0	32	0	2429550592	30	5938
2026-01-27 18:45:19.06	298.57	30.62	-28.6	-29.3	29.0	0.00e+00	0	32	0	2435842048	30	5914
2026-01-27 18:45:20.07	298.24	30.55	-28.6	-29.1	29.0	0.00e+00	0	32	0	2441084928	30	5789
2026-01-27 18:45:21.08	297.91	30.49	-28.7	-29.3	28.9	0.00e+00	0	32	0	2447376384	30	5940
2026-01-27 18:45:22.09	297.58	30.42	-28.9	-29.5	28.6	0.00e+00	0	32	0	2452619264	30	6064
2026-01-27 18:45:23.10	297.25	30.36	-29.1	-29.6	28.6	0.00e+00	0	32	0	2458910720	30	6164
2026-01-27 18:45:24.11	296.92	30.29	-29.1	-29.8	28.6	0.00e+00	0	32	0	2464153600	30	6282
2026-01-27 18:45:25.12	296.59	30.22	-29.1	-29.6	28.7	0.00e+00	0	32	0	2469396480	30	6139
2026-01-27 18:45:26.13	296.26	30.15	-29.0	-29.5	28.7	0.00e+00	0	32	0	2475687936	30	6103
2026-01-27 18:45:27.14	295.94	30.08	-29.1	-29.8	28.5	0.00e+00	0	32	0	2480930816	30	6263
2026-01-27 18:45:28.15	295.62	30.01	-29.4	-30.1	28.4	0.00e+00	0	32	0	2487222272	30	6480
2026-01-27 18:45:29.16	295.30	29.94	-29.4	-30.0	28.3	0.00e+00	0	32	0	2492465152	30	6399
2026-01-27 18:45:30.17	294.98	29.87	-29.6	-30.2	28.2	0.00e+00	0	32	0	2497708032	30	6572
2026-01-27 18:45:31.18	294.66	29.79	-29.6	-30.2	28.3	0.00e+00	0	32	0	2503999488	30	6544
2026-01-27 18:45:32.19	294.34	29.72	-29.6	-30.3	28.2	0.00e+00	0	32	0	2509242368	30	6659
2026-01-27 18:45:33.20	294.02	29.65	-29.4	-30.1	28.4	0.00e+00	0	32	0	2515533824	32	5762
2026-01-27 18:45:34.21	293.71	29.57	-29.4	-30.0	28.4	0.00e+00	0	32	0	2520776704	32	5722
2026-01-27 18:45:35.22	293.40	29.49	-29.2	-29.9	28.5	0.00e+00	0	32	0	2526019584	32	5655
2026-01-27 18:45:36.23	293.09	29.42	-29.1	-29.8	28.6	0.00e+00	0	32	0	2532311040	32	5603
2026-01-27 18:45:37.24	292.78	29.34	-29.1	-29.6	28.6	0.00e+00	0	32	0	2537553920	32	5487
2026-01-27 18:45:38.25	292.47	29.26	-29.2	-29.9	28.6	0.00e+00	0	32	0	2543845376	32	5640
2026-01-27 18:45:39.26	292.16	29.18	-29.2	-29.8	28.5	0.00e+00	0	32	0	2549088256	32	5612
2026-01-27 18:45:40.27	291.86	29.10	-29.2	-29.7	28.4	0.00e+00	0	32	0	2555379712	32	5555
2026-01-27 18:45:41.28	291.55	29.02	-29.2	-29.8	28.6	0.00e+00	0	32	0	2560622592	32	5623
2026-01-27 18:45:42.29	291.25	28.94	-29.3	-29.8	28.5	0.00e+00	0	32	0	2566914048	32	5626
2026-01-27 18:45:43.30	290.95	28.86	-29.2	-29.9	28.6	0.00e+00	0	32	0	2572156928	32	5648
2026-01-27 18:45:44.31	290.65	28.77	-29.2	-29.8	28.6	0.00e+00	0	32	0	2577399808	32	5592
2026-01-27 18:45:45.32	290.35	28.69	-29.1	-29.6	28.6	0.00e+00	0	32	0	2583691264	32	5448
2026-01-27 18:45:46.33	290.06	28.61	-29.1	-29.7	28.6	0.00e+00	0	32	0	2588934144	32	5551
2026-01-27 18:45:47.34	289.76	28.52	-29.0	-29.6	28.7	0.00e+00	0	32	0	2595225600	32	5449
2026-01-27 18:45:48.35	289.47	28.44	-29.2	-29.8	28.5	0.00e+00	0	32	0	2600468480	32	5608
2026-01-27 18:45:49.36	289.18	28.35	-29.4	-30.0	28.4	0.00e+00	0	32	0	2605711360	32	5712
2026-01-27 18:45:50.37	288.89	28.27	-29.2	-29.9	28.5	0.00e+00	0	32	0	2612002816	32	5679
2026-01-27 18:45:51.38	288.60	28.18	-29.2	-29.7	28.5	0.00e+00	0	32	0	2617245696	32	5534
2026-01-27 18:45:52.38	288.32	28.09	-29.2	-29.8	28.5	0.00e+00	0	32	0	2623537152	32	5616
2026-01-27 18:45:53.39	288.03	28.01	-29.1	-29.7	28.6	0.00e+00	0	32	0	2628780032	32	5512
2026-01-27 18:45:54.40	287.75	27.92	-29.2	-29.9	28.5	0.00e+00	0	32	0	2634022912	32	5641
2026-01-27 18:45:55.41	287.47	27.83	-29.3	-29.8	28.4	0.00e+00	0	32	0	2640314368	32	5611
2026-01-27 18:45:56.42	287.19	27.74	-29.3	-29.9	28.4	0.00e+00	0	32	0	2645557248	32	5671
2026-01-27 18:45:57.43	286.91	27.65	-29.3	-30.0	28.4	0.00e+00	0	32	0	2651848704	32	5734
2026-01-27 18:45:58.44	286.63	27.56	-29.5	-30.2	28.3	0.00e+00	0	32	0	2657091584	32	5860
2026-01-27 18:45:59.45	286.36	27.47	-29.5	-30.1	28.4	0.00e+00	0	32	0	2663383040	32	5799
2026-01-27 18:46:00.46	286.08	27.38	-29.4	-30.0	28.3	0.00e+00	0	32	0	2668625920	32	5716
2026-01-27 18:46:01.47	285.81	27.29	-29.4	-30.0	28.3	0.00e+00	0	32	0	2673868800	32	5715
2026-01-27 18:46:02.48	285.54	27.19	-29.5	-30.1	28.3	0.00e+00	0	32	0	2680160256	32	5806
2026-01-27 18:46:03.49	285.27	27.10	-29.5	-30.1	28.3	0.00e+00	0	32	0	2685403136	32	5764
2026-01-27 18:46:04.50	285.00	27.01	-29.6	-30.3	28.1	0.00e+00	0	32	0	2691694592	32	5935
2026-01-27 18:46:05.51	284.74	26.92	-29.6	-30.3	28.2	0.00e+00	0	32	0	2696937472	32	5936
2026-01-27 18:46:06.51	284.47	26.82	-29.7	-30.3	28.2	0.00e+00	0	32	0	2702180352	32	5920
2026-01-27 18:46:07.52	284.21	26.73	-29.7	-30.3	28.1	0.00e+00	0	32	0	2708471808	32	5938
2026-01-27 18:46:08.53	283.95	26.64	-29.7	-30.3	27.9	0.00e+00	0	32	0	2713714688	32	5957
2026-01-27 18:46:09.55	283.69	26.54	-29.7	-30.4	27.8	0.00e+00	0	32	0	2720006144	32	5993
2026-01-27 18:46:10.55	283.43	26.45	-29.7	-30.3	27.9	0.00e+00	0	32	0	2725249024	32	5917
2026-01-27 18:46:11.56	283.17	26.35	-29.7	-30.2	27.9	0.00e+00	0	32	0	2730491904	32	5848
2026-01-27 18:46:12.57	282.92	26.26	-29.8	-30.5	27.7	0.00e+00	0	32	0	2736783360	32	6037
2026-01-27 18:46:13.58	282.67	26.16	-29.8	-30.5	27.8	0.00e+00	0	32	0	2742026240	32	6043
2026-01-27 18:46:14.59	282.41	26.07	-30.0	-30.5	27.7	0.00e+00	0	32	0	2748317696	32	6067
2026-01-27 18:46:15.60	282.16	25.97	-29.6	-30.3	28.0	0.00e+00	0	32	0	2753560576	32	5949
2026-01-27 18:46:16.61	281.91	25.87	-29.7	-30.2	27.9	0.00e+00	0	32	0	2759852032	32	5886
2026-01-27 18:46:17.62	281.67	25.78	-29.8	-30.3	27.9	0.00e+00	0	32	0	2765094912	32	5940
2026-01-27 18:46:18.63	281.42	25.68	-29.7	-30.3	27.8	0.00e+00	0	32	0	2771386368	32	5919
2026-01-27 18:46:19.64	281.18	25.58	-29.9	-30.4	27.8	0.00e+00	0	32	0	2776629248	32	6007
2026-01-27 18:46:20.65	280.93	25.49	-29.6	-30.2	28.0	0.00e+00	0	32	0	2781872128	32	5842
2026-01-27 18:46:21.66	280.69	25.39	-29.6	-30.1	28.0	0.00e+00	0	32	0	2788163584	32	5805
2026-01-27 18:46:22.67	280.45	25.29	-29.6	-30.2	27.9	0.00e+00	0	32	0	2793406464	32	5837
2026-01-27 18:46:23.68	280.21	25.19	-29.7	-30.2	27.6	0.00e+00	0	32	0	2799697920	32	5882
2026-01-27 18:46:24.68	279.98	25.10	-29.8	-30.3	27.6	0.00e+00	0	32	0	2804940800	32	5952
2026-01-27 18:46:25.69	279.74	25.00	-29.8	-30.4	27.8	0.00e+00	0	32	0	2810183680	32	5996
2026-01-27 18:46:26.70	279.51	24.90	-29.6	-30.1	28.0	0.00e+00	0	32	0	2816475136	32	5819
2026-01-27 18:46:27.72	279.27	24.80	-29.5	-30.2	27.9	0.00e+00	0	32	0	2821718016	32	5843
2026-01-27 18:46:28.72	279.04	24.70	-29.4	-30.1	27.8	0.00e+00	0	32	0	2828009472	32	5775
2026-01-27 18:46:29.73	278.81	24.60	-29.5	-30.1	27.9	0.00e+00	0	32	0	2833252352	32	5769
2026-01-27 18:46:30.74	278.59	24.50	-29.6	-30.3	27.6	0.00e+00	0	32	0	2838495232	32	5921
2026-01-27 18:46:31.75	278.36	24.40	-29.8	-30.3	27.7	0.00e+00	0	32	0	2844786688	32	5951
2026-01-27 18:46:32.76	278.13	24.31	-29.9	-30.5	27.8	0.00e+00	0	32	0	2850029568	32	6037
2026-01-27 18:46:33.77	277.91	24.21	-30.0	-30.5	27.2	0.00e+00	0	32	0	2856321024	32	6101
2026-01-27 18:46:34.78	277.69	24.11	-29.9	-30.4	27.6	0.00e+00	0	32	0	2861563904	32	6014
2026-01-27 18:46:35.79	277.47	24.01	-29.8	-30.4	27.8	0.00e+00	0	32	0	2867855360	32	6032
2026-01-27 18:46:36.80	277.25	23.91	-29.9	-30.4	27.8	0.00e+00	0	32	0	2873098240	32	5990
2026-01-27 18:46:37.81	277.03	23.81	-29.9	-30.5	27.8	0.00e+00	0	32	0	2878341120	32	6073
2026-01-27 18:46:38.82	276.81	23.71	-30.0	-30.7	27.7	0.00e+00	0	32	0	2884632576	32	6221
2026-01-27 18:46:39.83	276.60	23.61	-30.1	-30.7	27.7	0.00e+00	0	32	0	2889875456	32	6207
2026-01-27 18:46:40.84	276.38	23.51	-30.1	-30.6	27.6	0.00e+00	0	32	0	2896166912	32	6155
2026-01-27 18:46:41.85	276.17	23.41	-29.9	-30.5	27.6	0.00e+00	0	32	0	2901409792	32	6095
2026-01-27 18:46:42.86	275.96	23.31	-30.1	-30.7	27.5	0.00e+00	0	32	0	2906652672	32	6199
2026-01-27 18:46:43.87	275.75	23.21	-30.2	-30.8	27.6	0.00e+00	0	32	0	2912944128	32	6307
2026-01-27 18:46:44.88	275.54	23.11	-30.2	-30.9	27.5	0.00e+00	0	32	0	2918187008	32	6373
2026-01-27 18:46:45.89	275.33	23.01	-30.3	-31.0	27.4	0.00e+00	0	32	0	2924478464	32	6448
2026-01-27 18:46:46.90	275.12	22.91	-30.1	-30.7	27.6	0.00e+00	0	32	0	2929721344	32	6199
2026-01-27 18:46:47.91	274.92	22.81	-30.0	-30.6	27.6	0.00e+00	0	32	0	2934964224	32	6120
2026-01-27 18:46:48.92	274.72	22.71	-30.0	-30.7	27.6	0.00e+00	0	32	0	2941255680	32	6208
2026-01-27 18:46:49.93	274.51	22.61	-30.0	-30.7	27.6	0.00e+00	0	32	0	2946498560	32	6220
2026-01-27 18:46:50.93	274.32	22.51	-30.1	-30.8	27.6	0.00e+00	0	32	0	2952790016	32	6260
2026-01-27 18:46:51.95	274.11	22.41	-30.2	-30.9	27.5	0.00e+00	0	32	0	2958032896	32	6371
2026-01-27 18:46:52.96	273.92	22.31	-30.1	-30.7	27.5	0.00e+00	0	32	0	2964324352	32	6184
2026-01-27 18:46:53.96	273.72	22.21	-30.3	-30.9	27.5	0.00e+00	0	32	0	2969567232	32	6340
2026-01-27 18:46:54.98	273.52	22.11	-30.2	-30.8	27.5	0.00e+00	0	32	0	2975858688	32	6317
2026-01-27 18:46:55.98	273.33	22.01	-30.3	-30.8	27.4	0.00e+00	0	32	0	2981101568	32	6311
2026-01-27 18:46:56.99	273.14	21.91	-30.0	-30.7	27.7	0.00e+00	0	32	0	2986344448	32	6223
2026-01-27 18:46:58.00	272.95	21.81	-30.2	-30.9	27.5	0.00e+00	0	32	0	2992635904	32	6322
2026-01-27 18:46:59.01	272.76	21.71	-30.2	-30.9	27.5	0.00e+00	0	32	0	2997878784	32	6349
2026-01-27 18:47:00.02	272.57	21.61	-30.2	-30.8	27.4	0.00e+00	0	32	0	3004170240	32	6259
2026-01-27 18:47:01.03	272.38	21.51	-30.1	-30.7	27.5	0.00e+00	0	32	0	3009413120	32	6179
2026-01-27 18:47:02.04	272.19	21.41	-30.1	-30.6	27.6	0.00e+00	0	32	0	3014656000	32	6172
2026-01-27 18:47:03.05	272.01	21.31	-30.1	-30.6	27.6	0.00e+00	0	32	0	3020947456	32	6138
2026-01-27 18:47:04.06	271.82	21.21	-30.2	-30.7	27.5	0.00e+00	0	32	0	3026190336	32	6212
2026-01-27 18:47:05.07	271.64	21.11	-30.1	-30.8	27.5	0.00e+00	0	32	0	3031433216	32	6291
2026-01-27 18:47:06.08	271.46	21.01	-30.0	-30.7	27.6	0.00e+00	0	32	0	3037724672	32	6211
2026-01-27 18:47:07.09	271.28	20.91	-30.0	-30.7	27.7	0.00e+00	0	32	0	3042967552	32	6179
2026-01-27 18:47:08.10	271.10	20.82	-30.0	-30.6	27.7	0.00e+00	0	32	0	3049259008	32	6121
2026-01-27 18:47:09.11	270.92	20.72	-30.1	-30.7	27.6	0.00e+00	0	32	0	3054501888	32	6179
2026-01-27 18:47:10.12	270.74	20.62	-30.0	-30.6	27.7	0.00e+00	0	32	0	3060793344	32	6110
2026-01-27 18:47:11.13	270.56	20.52	-30.0	-30.6	27.6	0.00e+00	0	32	0	3066036224	32	6171
2026-01-27 18:47:12.14	270.39	20.42	-30.0	-30.6	27.7	0.00e+00	0	32	0	3072327680	32	6105
2026-01-27 18:47:13.15	270.21	20.32	-30.1	-30.7	27.6	0.00e+00	0	32	0	3077570560	32	6211
2026-01-27 18:47:14.16	270.04	20.22	-30.2	-30.8	27.5	0.00e+00	0	32	0	3082813440	32	6256
2026-01-27 18:47:15.16	269.87	20.12	-30.4	-31.1	27.3	0.00e+00	0	32	0	3089104896	32	6480
2026-01-27 18:47:16.17	269.70	20.03	-30.5	-31.0	27.4	0.00e+00	0	32	0	3094347776	32	6437
2026-01-27 18:47:17.18	269.53	19.93	-30.5	-31.0	27.3	0.00e+00	0	32	0	3100639232	32	6457
2026-01-27 18:47:18.19	269.36	19.83	-30.6	-31.3	27.2	0.00e+00	0	32	0	3105882112	32	6639
2026-01-27 18:47:19.20	269.20	19.73	-30.6	-31.1	27.2	0.00e+00	0	32	0	3111124992	32	6503
2026-01-27 18:47:20.21	269.03	19.63	-30.6	-31.1	27.2	0.00e+00	0	32	0	3117416448	32	6516
2026-01-27 18:47:21.22	268.86	19.54	-30.5	-31.0	27.3	0.00e+00	0	32	0	3122659328	32	6445
2026-01-27 18:47:22.23	268.70	19.44	-30.5	-31.2	27.3	0.00e+00	0	32	0	3128950784	32	6601
2026-01-27 18:47:23.24	268.54	19.34	-30.6	-31.3	27.2	0.00e+00	0	32	0	3134193664	32	6625
2026-01-27 18:47:24.25	268.37	19.24	-30.6	-31.3	27.2	0.00e+00	0	32	0	3139436544	32	6660
2026-01-27 18:47:25.25	268.22	19.15	-30.6	-31.3	27.2	0.00e+00	0	32	0	3145728000	32	6636
2026-01-27 18:47:26.26	268.06	19.05	-30.6	-31.2	27.2	0.00e+00	0	32	0	3150970880	32	6559
2026-01-27 18:47:27.27	267.90	18.95	-30.6	-31.2	27.2	0.00e+00	0	32	0	3157262336	32	6559
2026-01-27 18:47:28.28	267.74	18.86	-30.9	-31.4	27.0	0.00e+00	0	32	0	3162505216	34	6018
2026-01-27 18:47:29.29	267.58	18.76	-30.6	-31.2	27.2	0.00e+00	0	32	0	3168796672	34	5857
2026-01-27 18:47:30.30	267.43	18.67	-30.7	-31.4	27.0	0.00e+00	0	32	0	3174039552	34	6013
2026-01-27 18:47:31.31	267.27	18.57	-30.8	-31.4	27.0	0.00e+00	0	32	0	3179282432	34	5972
2026-01-27 18:47:32.32	267.12	18.47	-30.8	-31.4	27.0	0.00e+00	0	32	0	3185573888	34	5986
2026-01-27 18:47:33.33	266.96	18.38	-30.8	-31.4	27.0	0.00e+00	0	32	0	3190816768	34	5984
2026-01-27 18:47:34.34	266.81	18.28	-30.8	-31.5	27.1	0.00e+00	0	32	0	3197108224	34	6061
2026-01-27 18:47:35.35	266.66	18.19	-30.8	-31.4	27.0	0.00e+00	0	32	0	3202351104	34	5975
2026-01-27 18:47:36.36	266.51	18.09	-30.9	-31.6	26.9	0.00e+00	0	32	0	3207593984	34	6158
2026-01-27 18:47:37.37	266.36	17.99	-30.9	-31.6	26.9	0.00e+00	0	32	0	3213885440	34	6162
2026-01-27 18:47:38.38	266.21	17.90	-31.1	-31.7	26.7	0.00e+00	0	32	0	3219128320	34	6220
2026-01-27 18:47:39.39	266.07	17.80	-31.1	-31.8	26.8	0.00e+00	0	32	0	3225419776	34	6252
2026-01-27 18:47:40.40	265.92	17.71	-31.1	-31.7	26.8	0.00e+00	0	32	0	3230662656	34	6221
2026-01-27 18:47:41.41	265.78	17.62	-31.1	-31.7	26.8	0.00e+00	0	32	0	3235905536	34	6221
2026-01-27 18:47:42.42	265.63	17.52	-31.0	-31.7	26.8	0.00e+00	0	32	0	3242196992	34	6233
2026-01-27 18:47:43.43	265.49	17.43	-31.0	-31.7	26.9	0.00e+00	0	32	0	3247439872	34	6204
2026-01-27 18:47:44.44	265.35	17.33	-31.1	-31.8	26.8	0.00e+00	0	32	0	3253731328	34	6273
2026-01-27 18:47:45.44	265.21	17.24	-31.1	-31.8	26.8	0.00e+00	0	32	0	3258974208	34	6247
2026-01-27 18:47:46.46	265.06	17.15	-31.1	-31.6	26.8	0.00e+00	0	32	0	3265265664	34	6161
2026-01-27 18:47:47.46	264.92	17.05	-31.2	-31.7	26.8	0.00e+00	0	32	0	3270508544	34	6205
2026-01-27 18:47:48.47	264.79	16.96	-31.2	-31.9	26.8	0.00e+00	0	32	0	3276800000	34	6370
2026-01-27 18:47:49.48	264.65	16.87	-31.4	-31.9	26.5	0.00e+00	0	32	0	3282042880	34	6382
2026-01-27 18:47:50.49	264.51	16.77	-31.4	-32.1	26.5	0.00e+00	0	32	0	3287285760	34	6526
2026-01-27 18:47:51.51	264.37	16.68	-31.5	-32.2	26.3	0.00e+00	0	32	0	3293577216	36	5890
2026-01-27 18:47:52.52	264.24	16.59	-31.6	-32.2	26.5	0.00e+00	0	32	0	3298820096	36	5843
2026-01-27 18:47:53.53	264.10	16.49	-31.5	-32.2	26.5	0.00e+00	0	32	0	3305111552	36	5873
2026-01-27 18:47:54.53	263.97	16.40	-31.6	-32.2	26.4	0.00e+00	0	32	0	3310354432	36	5854
2026-01-27 18:47:55.54	263.84	16.31	-31.6	-32.2	26.4	0.00e+00	0	32	0	3315597312	36	5860
2026-01-27 18:47:56.56	263.70	16.22	-31.5	-32.2	26.4	0.00e+00	0	32	0	3321888768	36	5870
2026-01-27 18:47:57.57	263.57	16.13	-31.5	-32.1	26.4	0.00e+00	0	32	0	3327131648	36	5787
2026-01-27 18:47:58.57	263.44	16.04	-31.6	-32.2	26.4	0.00e+00	0	32	0	3333423104	36	5858
2026-01-27 18:47:59.59	263.31	15.94	-31.8	-32.3	26.3	0.00e+00	0	32	0	3338665984	36	5960
2026-01-27 18:48:00.60	263.18	15.85	-31.7	-32.4	26.2	0.00e+00	0	32	0	3343908864	36	6033
2026-01-27 18:48:01.61	263.05	15.76	-31.9	-32.7	26.1	0.00e+00	0	32	0	3350200320	36	6175
2026-01-27 18:48:02.62	262.93	15.67	-32.2	-32.9	26.0	0.00e+00	0	32	0	3355443200	36	6346
2026-01-27 18:48:03.63	262.80	15.58	-32.0	-32.7	26.1	0.00e+00	0	32	0	3361734656	36	6198
2026-01-27 18:48:04.64	262.67	15.49	-32.0	-32.6	26.1	0.00e+00	0	32	0	3366977536	36	6144
2026-01-27 18:48:05.65	262.55	15.40	-32.0	-32.5	26.1	0.00e+00	0	32	0	3373268992	36	6087
2026-01-27 18:48:06.66	262.43	15.31	-31.9	-32.5	26.1	0.00e+00	0	32	0	3378511872	36	6052
2026-01-27 18:48:07.67	262.30	15.22	-32.1	-32.7	26.0	0.00e+00	0	32	0	3383754752	36	6179
2026-01-27 18:48:08.68	262.18	15.13	-31.9	-32.4	26.2	0.00e+00	0	32	0	3390046208	36	6028
2026-01-27 18:48:09.68	262.06	15.04	-32.0	-32.6	26.0	0.00e+00	0	32	0	3395289088	36	6148
2026-01-27 18:48:10.69	261.94	14.95	-31.9	-32.5	26.0	0.00e+00	0	32	0	3401580544	36	6068
2026-01-27 18:48:11.71	261.82	14.86	-31.9	-32.6	26.0	0.00e+00	0	32	0	3406823424	36	6168
2026-01-27 18:48:12.71	261.70	14.77	-31.9	-32.7	26.0	0.00e+00	0	32	0	3412066304	36	6175
2026-01-27 18:48:13.73	261.58	14.69	-32.0	-32.8	26.0	0.00e+00	0	32	0	3418357760	36	6248
2026-01-27 18:48:14.74	261.46	14.60	-32.1	-32.6	25.9	0.00e+00	0	32	0	3423600640	36	6166
2026-01-27 18:48:15.75	261.34	14.51	-32.1	-32.7	25.9	0.00e+00	0	32	0	3429892096	36	6186
2026-01-27 18:48:16.76	261.22	14.42	-32.0	-32.6	26.0	0.00e+00	0	32	0	3435134976	36	6158
2026-01-27 18:48:17.77	261.11	14.33	-32.1	-32.7	26.0	0.00e+00	0	32	0	3440377856	36	6178
2026-01-27 18:48:18.78	260.99	14.25	-32.2	-32.9	25.8	0.00e+00	0	32	0	3446669312	36	6375
2026-01-27 18:48:19.79	260.88	14.16	-32.3	-33.0	25.7	0.00e+00	0	32	0	3451912192	36	6424
2026-01-27 18:48:20.80	260.76	14.07	-32.4	-33.0	25.7	0.00e+00	0	32	0	3458203648	36	6417
2026-01-27 18:48:21.81	260.65	13.98	-32.2	-32.8	25.8	0.00e+00	0	32	0	3463446528	36	6248
2026-01-27 18:48:22.82	260.54	13.90	-32.2	-32.8	25.8	0.00e+00	0	32	0	3469737984	36	6254
2026-01-27 18:48:23.83	260.43	13.81	-32.3	-32.8	25.8	0.00e+00	0	32	0	3474980864	36	6314
2026-01-27 18:48:24.84	260.31	13.72	-32.4	-32.9	25.7	0.00e+00	0	32	0	3480223744	36	6383
2026-01-27 18:48:25.85	260.20	13.64	-32.3	-32.9	25.7	0.00e+00	0	32	0	3486515200	36	6360
2026-01-27 18:48:26.86	260.09	13.55	-32.5	-33.2	25.6	0.00e+00	0	32	0	3491758080	36	6577
2026-01-27 18:48:27.87	259.98	13.47	-32.7	-33.3	25.4	0.00e+00	0	32	0	3498049536	36	6627
2026-01-27 18:48:28.87	259.88	13.38	-32.6	-33.3	25.5	0.00e+00	0	32	0	3503292416	36	6678
2026-01-27 18:48:29.88	259.77	13.30	-32.8	-33.3	25.3	0.00e+00	0	32	0	3509583872	38	5962
2026-01-27 18:48:30.89	259.66	13.21	-32.6	-33.2	25.5	0.00e+00	0	32	0	3514826752	38	5869
2026-01-27 18:48:31.90	259.55	13.13	-32.7	-33.4	25.4	0.00e+00	0	32	0	3520069632	38	5995
2026-01-27 18:48:32.91	259.45	13.04	-32.7	-33.2	25.4	0.00e+00	0	32	0	3526361088	38	5890
2026-01-27 18:48:33.92	259.34	12.96	-32.7	-33.4	25.4	0.00e+00	0	32	0	3531603968	38	6033
2026-01-27 18:48:34.93	259.24	12.87	-32.7	-33.4	25.3	0.00e+00	0	32	0	3537895424	38	6024
2026-01-27 18:48:35.94	259.13	12.79	-32.8	-33.5	25.3	0.00e+00	0	32	0	3543138304	38	6081
2026-01-27 18:48:36.95	259.03	12.70	-32.7	-33.3	25.4	0.00e+00	0	32	0	3548381184	38	5904
2026-01-27 18:48:37.96	258.93	12.62	-32.7	-33.4	25.3	0.00e+00	0	32	0	3554672640	38	6005
2026-01-27 18:48:38.96	258.82	12.54	-32.7	-33.4	25.4	0.00e+00	0	32	0	3559915520	38	6019
2026-01-27 18:48:39.97	258.72	12.45	-32.7	-33.3	25.4	0.00e+00	0	32	0	3566206976	38	5957
2026-01-27 18:48:40.98	258.62	12.37	-32.7	-33.5	25.3	0.00e+00	0	32	0	3571449856	38	6043
2026-01-27 18:48:41.99	258.52	12.29	-32.8	-33.6	25.2	0.00e+00	0	32	0	3576692736	38	6115
2026-01-27 18:48:43.00	258.42	12.20	-32.8	-33.6	25.2	0.00e+00	0	32	0	3582984192	38	6118
2026-01-27 18:48:44.01	258.32	12.12	-32.9	-33.6	25.1	0.00e+00	0	32	0	3588227072	38	6169
