passes_logs/2026/01/27/R4.6S_Anadyr/R4.6S_Anadyr__20260127_032905_NOAA_21_JPSS-2_rec.log

#Pass ID: 20260127_032905_NOAA 21 (JPSS-2)
#Satellite: NOAA 21 (JPSS-2)
#Configuration: NOAA-21
#almurnet v.1.7.20251203
#Start time: 2026-01-27 03:29:07

#Version: 2.2.20231116
#Station: R4.6S_Anadyr
#Location: 177.4865 lon 64.73178 lat
#TLE: 1 54234U 22150A   26026.43130734  .00000179  00000+0  10559-3 0  9998
#TLE: 2 54234  98.7509 327.1934 0000805 209.8356 150.2774 14.19539635166435

#Time	Az	El	Level	Level2	SNR	BER	BlckErr	Temp	State	Recorded	gain1	gain2
2026-01-27 03:29:07.28	245.31	0.07	-48.9	-60.5	3.5	8.47e-01	0	28	0	0	60	38483
2026-01-27 03:29:08.29	245.41	0.11	-49.0	-61.9	3.5	1.52e+00	0	30	104	0	60	43590
2026-01-27 03:29:09.30	245.51	0.15	-48.7	-61.9	3.5	1.52e+00	0	30	104	0	60	43507
2026-01-27 03:29:10.31	245.61	0.19	-48.8	-61.9	3.5	1.52e+00	0	30	104	0	60	43579
2026-01-27 03:29:11.32	245.71	0.23	-48.7	-61.9	3.5	1.52e+00	0	30	104	0	60	43553
2026-01-27 03:29:12.33	245.81	0.27	-48.7	-61.9	3.5	1.52e+00	0	30	104	0	60	43684
2026-01-27 03:29:13.34	245.91	0.31	-48.7	-61.9	3.5	1.52e+00	0	30	104	0	60	43612
2026-01-27 03:29:14.35	246.00	0.35	-48.9	-61.9	3.5	1.52e+00	0	30	104	0	60	43690
2026-01-27 03:29:15.36	246.10	0.38	-49.0	-61.9	3.5	1.51e+00	0	30	104	0	60	43819
2026-01-27 03:29:16.37	246.20	0.42	-49.1	-62.0	3.5	1.52e+00	0	30	104	0	60	44049
2026-01-27 03:29:17.38	246.30	0.46	-49.1	-62.0	3.5	1.52e+00	0	30	104	0	60	44390
2026-01-27 03:29:18.39	246.41	0.50	-49.2	-62.0	3.5	1.52e+00	0	30	104	0	60	44382
2026-01-27 03:29:19.40	246.51	0.54	-49.2	-62.0	3.5	1.52e+00	0	30	104	0	60	44360
2026-01-27 03:29:20.41	246.61	0.58	-49.2	-62.1	3.5	1.52e+00	0	30	104	0	60	44581
2026-01-27 03:29:21.42	246.71	0.62	-49.2	-62.1	3.5	1.52e+00	0	30	104	0	60	44486
2026-01-27 03:29:22.43	246.81	0.66	-49.2	-62.1	3.5	1.52e+00	0	30	104	0	60	44599
2026-01-27 03:29:23.44	246.91	0.70	-49.2	-62.0	3.5	1.51e+00	0	30	104	0	60	44410
2026-01-27 03:29:24.45	247.01	0.74	-49.2	-62.0	3.5	1.52e+00	0	30	104	0	60	44265
2026-01-27 03:29:25.46	247.12	0.78	-49.1	-62.0	3.5	1.52e+00	0	30	104	0	60	44061
2026-01-27 03:29:26.47	247.22	0.82	-49.1	-61.9	3.5	1.52e+00	0	30	104	0	60	43827
2026-01-27 03:29:27.48	247.32	0.86	-49.1	-61.9	3.5	1.52e+00	0	30	104	0	60	43542
2026-01-27 03:29:28.49	247.43	0.90	-49.0	-61.8	3.5	1.51e+00	0	30	104	0	60	43264
2026-01-27 03:29:29.50	247.53	0.94	-48.8	-61.6	3.5	1.52e+00	0	30	104	0	60	42360
2026-01-27 03:29:30.51	247.63	0.98	-48.6	-61.4	3.5	1.52e+00	0	30	104	0	60	41144
2026-01-27 03:29:31.52	247.74	1.02	-48.2	-61.0	3.5	1.52e+00	0	30	104	0	60	39452
2026-01-27 03:29:32.53	247.84	1.06	-47.6	-60.4	3.5	1.52e+00	0	30	104	0	60	36760
2026-01-27 03:29:33.54	247.95	1.10	-47.6	-60.4	3.5	1.52e+00	0	30	104	0	60	36803
2026-01-27 03:29:34.55	248.05	1.14	-47.6	-60.4	3.5	1.51e+00	0	30	104	0	60	36961
2026-01-27 03:29:35.56	248.16	1.18	-47.6	-60.4	3.5	1.52e+00	0	30	104	0	60	36639
2026-01-27 03:29:36.57	248.26	1.21	-47.6	-60.4	3.5	1.51e+00	0	30	104	0	60	36893
2026-01-27 03:29:37.58	248.37	1.25	-47.6	-60.3	3.5	1.52e+00	0	30	104	0	60	36421
2026-01-27 03:29:38.59	248.47	1.29	-47.6	-60.4	3.5	1.52e+00	0	30	104	0	60	36754
2026-01-27 03:29:39.60	248.58	1.33	-47.6	-60.3	3.5	1.52e+00	0	30	104	0	60	36509
2026-01-27 03:29:40.61	248.68	1.37	-47.6	-60.4	3.5	1.52e+00	0	30	104	0	60	36605
2026-01-27 03:29:41.61	248.79	1.41	-47.6	-60.4	3.5	1.52e+00	0	30	104	0	60	36716
2026-01-27 03:29:42.62	248.90	1.45	-47.6	-60.4	3.5	1.52e+00	0	30	104	0	60	36658
2026-01-27 03:29:43.63	249.00	1.49	-47.6	-60.4	3.5	1.52e+00	0	30	104	0	60	36794
2026-01-27 03:29:44.64	249.11	1.53	-47.6	-60.4	3.5	1.52e+00	0	30	104	0	60	36616
2026-01-27 03:29:45.65	249.22	1.57	-47.6	-60.4	3.5	1.52e+00	0	30	104	0	60	36641
2026-01-27 03:29:46.66	249.33	1.61	-47.6	-60.3	3.5	1.51e+00	0	30	104	0	60	36474
2026-01-27 03:29:47.67	249.44	1.64	-47.6	-60.4	3.5	1.52e+00	0	30	104	0	60	36724
2026-01-27 03:29:48.68	249.54	1.68	-47.6	-60.4	3.5	1.52e+00	0	30	104	0	60	36706
2026-01-27 03:29:49.69	249.65	1.72	-47.6	-60.3	3.5	1.52e+00	0	30	104	0	60	36527
2026-01-27 03:29:50.70	249.76	1.76	-47.6	-60.4	3.5	1.52e+00	0	30	104	0	60	36546
2026-01-27 03:29:51.71	249.87	1.80	-47.6	-60.4	3.5	1.52e+00	0	30	104	0	60	36648
2026-01-27 03:29:52.72	249.98	1.84	-47.6	-60.4	3.5	1.51e+00	0	30	104	0	60	36677
2026-01-27 03:29:53.73	250.09	1.88	-47.5	-60.3	3.5	1.52e+00	0	30	104	0	60	36406
2026-01-27 03:29:54.74	250.20	1.92	-47.6	-60.3	3.5	1.52e+00	0	30	104	0	60	36473
2026-01-27 03:29:55.75	250.31	1.96	-47.6	-60.3	3.5	1.52e+00	0	30	104	0	60	36385
2026-01-27 03:29:56.76	250.42	1.99	-47.6	-60.3	3.5	1.51e+00	0	30	104	0	60	36276
2026-01-27 03:29:57.77	250.53	2.03	-47.6	-60.4	3.5	1.52e+00	0	30	104	0	60	36568
2026-01-27 03:29:58.78	250.64	2.07	-47.6	-60.3	3.5	1.52e+00	0	30	104	0	60	36426
2026-01-27 03:29:59.79	250.76	2.11	-47.6	-60.4	3.5	1.52e+00	0	30	104	0	60	36659
2026-01-27 03:30:00.80	250.87	2.15	-47.6	-60.4	3.5	1.52e+00	0	30	104	0	60	36672
2026-01-27 03:30:01.81	250.98	2.19	-47.6	-60.4	3.5	1.52e+00	0	30	104	0	60	36599
2026-01-27 03:30:02.81	251.09	2.23	-47.6	-60.4	3.5	1.52e+00	0	30	104	0	60	36577
2026-01-27 03:30:03.82	251.20	2.26	-47.6	-60.4	3.5	1.52e+00	0	30	104	0	60	36696
2026-01-27 03:30:04.83	251.32	2.30	-47.6	-60.4	3.5	1.52e+00	0	30	104	0	60	36709
2026-01-27 03:30:05.84	251.43	2.34	-47.6	-60.3	3.5	1.52e+00	0	30	104	0	60	36374
2026-01-27 03:30:06.85	251.54	2.38	-47.5	-60.3	3.5	1.52e+00	0	30	104	0	60	36206
2026-01-27 03:30:07.86	251.66	2.42	-47.6	-60.3	3.5	1.52e+00	0	30	104	0	60	36391
2026-01-27 03:30:08.87	251.77	2.46	-47.6	-60.4	3.5	1.52e+00	0	30	104	0	60	36625
2026-01-27 03:30:09.88	251.88	2.50	-47.5	-60.4	3.5	1.52e+00	0	30	104	0	60	36636
2026-01-27 03:30:10.89	252.00	2.53	-47.5	-60.2	3.5	1.51e+00	0	30	104	0	60	35869
2026-01-27 03:30:11.90	252.11	2.57	-47.5	-60.1	3.5	1.52e+00	0	30	104	0	60	35590
2026-01-27 03:30:12.91	252.23	2.61	-47.5	-60.2	3.5	1.52e+00	0	30	104	0	60	35982
2026-01-27 03:30:13.92	252.35	2.65	-47.6	-60.2	3.5	1.51e+00	0	30	104	0	60	36033
2026-01-27 03:30:14.93	252.46	2.69	-47.5	-60.0	3.5	1.51e+00	0	30	104	0	60	35002
2026-01-27 03:30:15.94	252.58	2.72	-47.5	-59.6	3.5	1.51e+00	0	30	104	0	60	33488
2026-01-27 03:30:16.95	252.69	2.76	-47.5	-59.5	3.5	1.51e+00	0	31	104	0	60	33201
2026-01-27 03:30:17.96	252.81	2.80	-47.5	-60.2	3.5	1.52e+00	0	31	104	0	60	35796
2026-01-27 03:30:18.97	252.93	2.84	-47.5	-59.9	3.5	1.52e+00	0	31	104	0	60	34680
2026-01-27 03:30:19.98	253.04	2.88	-47.2	-56.9	3.7	1.51e+00	0	31	104	0	60	24656
2026-01-27 03:30:20.99	253.16	2.91	-46.6	-52.7	6.4	3.36e-01	121	30	0	0	60	15159
2026-01-27 03:30:22.00	253.28	2.95	-46.1	-51.1	7.8	7.76e-02	123	30	0	3145728	60	12642
2026-01-27 03:30:23.01	253.40	2.99	-45.9	-50.6	8.4	4.69e-02	122	30	0	6291456	60	11860
2026-01-27 03:30:24.02	253.52	3.03	-46.2	-51.4	7.4	6.60e-02	123	30	0	9437184	60	13099
2026-01-27 03:30:25.03	253.63	3.06	-48.1	-60.8	3.5	1.27e+00	0	31	104	11534336	60	38327
2026-01-27 03:30:26.04	253.75	3.10	-47.3	-59.3	3.5	1.44e+00	0	30	104	11534336	60	32454
2026-01-27 03:30:27.05	253.87	3.14	-39.1	-40.7	18.3	3.16e-01	122	30	104	11534336	50	6757
2026-01-27 03:30:28.06	253.99	3.18	-41.7	-43.5	16.4	0.00e+00	122	30	0	13631488	54	7410
2026-01-27 03:30:29.06	254.11	3.21	-44.8	-48.2	10.7	6.63e-05	123	30	0	15728640	60	9006
2026-01-27 03:30:30.07	254.23	3.25	-40.1	-41.5	18.3	0.00e+00	122	30	0	18874368	54	5888
2026-01-27 03:30:31.08	254.35	3.29	-39.9	-41.3	18.4	0.00e+00	120	30	0	22020096	54	5786
2026-01-27 03:30:32.09	254.47	3.33	-39.4	-40.7	19.1	0.00e+00	122	30	0	25165824	52	6010
2026-01-27 03:30:33.10	254.59	3.36	-39.5	-40.9	19.0	0.00e+00	123	30	0	29360128	52	6149
2026-01-27 03:30:34.11	254.71	3.40	-39.3	-40.6	19.2	0.00e+00	122	30	0	32505856	52	5974
2026-01-27 03:30:35.12	254.84	3.44	-38.1	-39.3	20.3	0.00e+00	123	30	0	35651584	50	5771
2026-01-27 03:30:36.13	254.96	3.48	-38.6	-39.8	19.7	0.00e+00	123	30	0	38797312	50	6124
2026-01-27 03:30:37.14	255.08	3.51	-38.8	-40.0	19.7	0.00e+00	123	31	0	40894464	50	6232
2026-01-27 03:30:38.15	255.20	3.55	-39.4	-40.7	19.1	0.00e+00	123	30	0	45088768	50	6745
2026-01-27 03:30:39.16	255.32	3.59	-39.2	-40.5	19.3	0.00e+00	122	30	0	48234496	50	6618
2026-01-27 03:30:40.17	255.45	3.62	-38.7	-40.0	19.8	0.00e+00	123	30	0	51380224	50	6208
2026-01-27 03:30:41.18	255.57	3.66	-38.9	-40.2	19.6	0.00e+00	123	30	0	54525952	50	6359
2026-01-27 03:30:42.19	255.69	3.70	-38.6	-39.8	19.9	0.00e+00	123	31	0	57671680	50	6106
2026-01-27 03:30:43.20	255.82	3.73	-38.5	-39.7	20.0	0.00e+00	123	30	0	60817408	50	6032
2026-01-27 03:30:44.20	255.94	3.77	-38.3	-39.5	20.2	0.00e+00	122	30	0	63963136	50	5865
2026-01-27 03:30:45.22	256.07	3.81	-38.4	-39.7	20.1	0.00e+00	122	30	0	67108864	50	6003
2026-01-27 03:30:46.23	256.19	3.84	-38.6	-39.8	20.0	0.00e+00	120	30	0	70254592	50	6081
2026-01-27 03:30:47.24	256.32	3.88	-38.6	-39.8	19.9	0.00e+00	123	30	0	73400320	50	6098
2026-01-27 03:30:48.25	256.44	3.92	-38.5	-39.7	20.0	0.00e+00	120	30	0	76546048	50	6032
2026-01-27 03:30:49.26	256.57	3.95	-38.3	-39.5	20.3	0.00e+00	123	30	0	79691776	50	5862
2026-01-27 03:30:50.27	256.69	3.99	-38.3	-39.5	20.2	0.00e+00	120	30	0	82837504	50	5866
2026-01-27 03:30:51.28	256.82	4.02	-38.3	-39.5	20.3	0.00e+00	122	30	0	85983232	50	5917
2026-01-27 03:30:52.29	256.95	4.06	-38.6	-39.8	20.0	0.00e+00	122	30	0	89128960	50	6110
2026-01-27 03:30:53.30	257.07	4.10	-39.1	-40.4	19.5	0.00e+00	123	30	0	92274688	50	6542
2026-01-27 03:30:54.31	257.20	4.13	-39.2	-40.5	19.5	0.00e+00	122	31	0	95420416	50	6584
2026-01-27 03:30:55.32	257.33	4.17	-39.1	-40.4	19.5	0.00e+00	123	30	0	98566144	50	6540
2026-01-27 03:30:56.33	257.46	4.20	-38.6	-39.8	20.1	0.00e+00	121	30	0	101711872	50	6105
2026-01-27 03:30:57.34	257.58	4.24	-38.3	-39.5	20.3	0.00e+00	122	30	0	104857600	50	5895
2026-01-27 03:30:58.35	257.71	4.28	-38.5	-39.7	20.2	0.00e+00	123	30	0	108003328	50	6025
2026-01-27 03:30:59.36	257.84	4.31	-38.4	-39.6	20.2	0.00e+00	122	30	0	111149056	50	5932
2026-01-27 03:31:00.37	257.97	4.35	-38.2	-39.4	20.5	0.00e+00	122	31	0	114294784	50	5818
2026-01-27 03:31:01.38	258.10	4.38	-38.4	-39.6	20.2	0.00e+00	123	31	0	117440512	50	5951
2026-01-27 03:31:02.39	258.23	4.42	-38.5	-39.7	20.2	0.00e+00	120	30	0	120586240	50	6019
2026-01-27 03:31:03.40	258.36	4.45	-38.2	-39.4	20.4	0.00e+00	122	30	0	123731968	50	5830
2026-01-27 03:31:04.41	258.49	4.49	-38.3	-39.5	20.4	0.00e+00	123	31	0	126877696	50	5881
2026-01-27 03:31:05.42	258.62	4.52	-38.2	-39.4	20.3	0.00e+00	123	31	0	130023424	50	5823
2026-01-27 03:31:06.43	258.75	4.56	-38.2	-39.3	20.5	0.00e+00	123	31	0	133169152	50	5787
2026-01-27 03:31:07.44	258.88	4.59	-38.2	-39.4	20.4	0.00e+00	121	31	0	136314880	50	5839
2026-01-27 03:31:08.45	259.01	4.63	-38.4	-39.6	20.3	0.00e+00	123	31	0	139460608	50	5931
2026-01-27 03:31:09.46	259.15	4.66	-38.3	-39.5	20.4	0.00e+00	123	31	0	142606336	50	5893
2026-01-27 03:31:10.47	259.28	4.70	-38.1	-39.3	20.6	0.00e+00	123	31	0	145752064	50	5767
2026-01-27 03:31:11.48	259.41	4.73	-37.9	-39.0	20.7	0.00e+00	122	30	0	148897792	50	5587
2026-01-27 03:31:12.49	259.54	4.77	-38.1	-39.3	20.5	0.00e+00	120	30	0	152043520	50	5765
2026-01-27 03:31:13.50	259.67	4.80	-38.1	-39.3	20.6	0.00e+00	123	30	0	155189248	50	5726
2026-01-27 03:31:14.51	259.81	4.84	-38.2	-39.4	20.5	0.00e+00	122	30	0	158334976	50	5822
2026-01-27 03:31:15.52	259.94	4.87	-38.2	-39.4	20.5	0.00e+00	123	30	0	161480704	50	5808
2026-01-27 03:31:16.53	260.08	4.91	-38.1	-39.3	20.6	0.00e+00	122	30	0	164626432	50	5742
2026-01-27 03:31:17.54	260.21	4.94	-38.2	-39.4	20.4	0.00e+00	123	30	0	167772160	50	5826
2026-01-27 03:31:18.55	260.34	4.97	-38.0	-39.2	20.7	0.00e+00	122	30	0	170917888	50	5689
2026-01-27 03:31:19.56	260.48	5.01	-38.0	-39.1	20.7	0.00e+00	123	31	0	174063616	50	5634
2026-01-27 03:31:20.57	260.61	5.04	-38.1	-39.2	20.7	0.00e+00	121	30	0	177209344	50	5701
2026-01-27 03:31:21.58	260.75	5.08	-38.3	-39.5	20.5	0.00e+00	123	31	0	180355072	50	5894
2026-01-27 03:31:22.59	260.88	5.11	-38.4	-39.6	20.4	0.00e+00	120	30	0	183500800	50	5966
2026-01-27 03:31:23.60	261.02	5.14	-38.5	-39.7	20.3	0.00e+00	123	30	0	186646528	50	6020
2026-01-27 03:31:24.61	261.16	5.18	-38.5	-39.7	20.4	0.00e+00	122	31	0	189792256	50	6004
2026-01-27 03:31:25.62	261.29	5.21	-38.3	-39.5	20.5	0.00e+00	122	31	0	192937984	50	5867
2026-01-27 03:31:26.63	261.43	5.25	-37.9	-39.0	20.9	0.00e+00	123	30	0	196083712	50	5577
2026-01-27 03:31:27.64	261.57	5.28	-38.0	-39.1	20.8	0.00e+00	120	30	0	199229440	50	5646
2026-01-27 03:31:28.65	261.70	5.31	-37.8	-38.9	21.1	0.00e+00	123	30	0	202375168	50	5473
2026-01-27 03:31:29.66	261.84	5.34	-37.9	-39.0	20.9	0.00e+00	120	30	0	205520896	48	6250
2026-01-27 03:31:30.67	261.98	5.38	-37.8	-38.9	21.1	0.00e+00	123	30	0	208666624	48	6148
2026-01-27 03:31:31.68	262.12	5.41	-37.8	-38.9	21.0	0.00e+00	122	30	0	211812352	48	6174
2026-01-27 03:31:32.69	262.26	5.44	-37.7	-38.8	21.1	0.00e+00	123	31	0	214958080	48	6120
2026-01-27 03:31:33.70	262.40	5.48	-37.7	-38.8	21.2	0.00e+00	123	30	0	218103808	48	6090
2026-01-27 03:31:34.71	262.54	5.51	-37.6	-38.7	21.2	0.00e+00	120	31	0	221249536	48	6042
2026-01-27 03:31:35.72	262.67	5.54	-37.7	-38.8	21.1	0.00e+00	123	30	0	224395264	48	6072
2026-01-27 03:31:36.73	262.81	5.57	-37.5	-38.5	21.4	0.00e+00	123	31	0	227540992	48	5925
2026-01-27 03:31:37.74	262.95	5.61	-37.5	-38.6	21.4	0.00e+00	123	31	0	230686720	48	5932
2026-01-27 03:31:38.74	263.09	5.64	-37.4	-38.5	21.4	0.00e+00	122	30	0	233832448	48	5885
2026-01-27 03:31:39.75	263.23	5.67	-37.6	-38.7	21.2	0.00e+00	123	30	0	236978176	48	6051
2026-01-27 03:31:40.76	263.38	5.70	-37.6	-38.7	21.2	0.00e+00	123	31	0	240123904	48	6035
2026-01-27 03:31:41.77	263.52	5.74	-37.8	-38.9	21.0	0.00e+00	123	31	0	243269632	48	6160
2026-01-27 03:31:42.78	263.66	5.77	-37.9	-39.0	21.0	0.00e+00	122	31	0	246415360	48	6269
2026-01-27 03:31:43.79	263.80	5.80	-37.8	-38.9	21.1	0.00e+00	120	31	0	249561088	48	6141
2026-01-27 03:31:44.80	263.94	5.83	-37.6	-38.7	21.3	0.00e+00	123	31	0	252706816	48	5998
2026-01-27 03:31:45.81	264.08	5.86	-37.6	-38.7	21.2	0.00e+00	120	31	0	255852544	48	5995
2026-01-27 03:31:46.82	264.23	5.89	-37.6	-38.7	21.2	0.00e+00	123	31	0	258998272	48	6019
2026-01-27 03:31:47.83	264.37	5.92	-37.6	-38.7	21.3	0.00e+00	122	30	0	262144000	48	5996
2026-01-27 03:31:48.84	264.51	5.96	-37.7	-38.8	21.3	0.00e+00	120	31	0	265289728	48	6073
2026-01-27 03:31:49.85	264.66	5.99	-37.7	-38.8	20.8	0.00e+00	120	31	0	268435456	48	6128
2026-01-27 03:31:50.86	264.80	6.02	-37.8	-38.8	21.3	0.00e+00	123	30	0	271581184	48	6131
2026-01-27 03:31:51.87	264.95	6.05	-37.4	-38.4	21.5	0.00e+00	123	31	0	274726912	48	5853
2026-01-27 03:31:52.88	265.09	6.08	-37.4	-38.5	21.5	0.00e+00	123	31	0	277872640	48	5874
2026-01-27 03:31:53.89	265.24	6.11	-37.2	-38.3	21.7	0.00e+00	120	30	0	281018368	48	5756
2026-01-27 03:31:54.90	265.38	6.14	-37.3	-38.4	21.6	0.00e+00	123	30	0	284164096	48	5799
2026-01-27 03:31:55.91	265.53	6.17	-37.4	-38.4	21.5	0.00e+00	123	30	0	287309824	48	5856
2026-01-27 03:31:56.92	265.67	6.20	-37.3	-38.3	21.6	0.00e+00	123	31	0	290455552	48	5767
2026-01-27 03:31:57.93	265.82	6.23	-37.5	-38.6	21.4	0.00e+00	123	30	0	293601280	48	5933
2026-01-27 03:31:58.94	265.96	6.26	-37.4	-38.5	21.5	0.00e+00	123	30	0	296747008	48	5871
2026-01-27 03:31:59.95	266.11	6.29	-37.4	-38.5	21.5	0.00e+00	122	31	0	299892736	48	5890
2026-01-27 03:32:00.96	266.26	6.32	-37.4	-38.5	21.5	0.00e+00	123	31	0	303038464	48	5873
2026-01-27 03:32:01.97	266.40	6.35	-37.5	-38.6	21.4	0.00e+00	123	30	0	306184192	48	5946
2026-01-27 03:32:02.98	266.55	6.38	-37.5	-38.6	21.4	0.00e+00	122	30	0	309329920	48	5936
2026-01-27 03:32:03.99	266.70	6.41	-37.7	-38.8	21.3	0.00e+00	121	31	0	312475648	48	6085
2026-01-27 03:32:05.00	266.85	6.44	-37.5	-38.6	21.4	0.00e+00	123	31	0	315621376	48	5982
2026-01-27 03:32:06.01	267.00	6.47	-37.5	-38.6	21.4	0.00e+00	123	31	0	318767104	48	5940
2026-01-27 03:32:07.02	267.14	6.50	-37.4	-38.5	21.5	0.00e+00	123	31	0	321912832	48	5879
2026-01-27 03:32:08.04	267.29	6.53	-37.5	-38.6	21.5	0.00e+00	123	30	0	325058560	48	5927
2026-01-27 03:32:09.05	267.44	6.56	-37.3	-38.3	21.6	0.00e+00	123	30	0	329252864	48	5780
2026-01-27 03:32:10.06	267.59	6.58	-37.4	-38.5	21.6	0.00e+00	123	30	0	332398592	48	5869
2026-01-27 03:32:11.07	267.74	6.61	-37.2	-38.3	21.8	0.00e+00	123	30	0	334495744	48	5739
2026-01-27 03:32:12.08	267.89	6.64	-37.3	-38.3	21.6	0.00e+00	122	30	0	337641472	48	5787
2026-01-27 03:32:13.09	268.04	6.67	-37.3	-38.4	21.6	0.00e+00	123	31	0	340787200	48	5849
2026-01-27 03:32:14.09	268.19	6.70	-37.2	-38.2	21.8	0.00e+00	123	30	0	343932928	48	5691
2026-01-27 03:32:15.10	268.34	6.73	-37.2	-38.3	21.7	0.00e+00	123	31	0	348127232	48	5740
2026-01-27 03:32:16.11	268.49	6.75	-37.1	-38.2	21.8	0.00e+00	122	30	0	351272960	48	5661
2026-01-27 03:32:17.12	268.65	6.78	-37.1	-38.2	21.8	0.00e+00	120	30	0	354418688	48	5682
2026-01-27 03:32:18.13	268.80	6.81	-37.2	-38.2	21.7	0.00e+00	122	31	0	356515840	48	5718
2026-01-27 03:32:19.14	268.95	6.84	-37.2	-38.3	21.7	0.00e+00	122	31	0	359661568	48	5743
2026-01-27 03:32:20.15	269.10	6.86	-37.2	-38.3	21.8	0.00e+00	122	31	0	363855872	48	5739
2026-01-27 03:32:21.16	269.25	6.89	-37.2	-38.3	21.7	0.00e+00	123	31	0	367001600	48	5740
2026-01-27 03:32:22.17	269.41	6.92	-37.3	-38.4	21.6	0.00e+00	123	31	0	370147328	48	5831
2026-01-27 03:32:23.18	269.56	6.94	-37.4	-38.5	21.6	0.00e+00	123	31	0	373293056	48	5862
2026-01-27 03:32:24.19	269.71	6.97	-37.2	-38.3	21.8	0.00e+00	122	31	0	376438784	48	5737
2026-01-27 03:32:25.20	269.87	7.00	-37.3	-38.3	21.7	0.00e+00	120	31	0	379584512	48	5778
2026-01-27 03:32:26.21	270.02	7.02	-37.3	-38.4	21.6	0.00e+00	122	30	0	382730240	48	5824
2026-01-27 03:32:27.22	270.17	7.05	-37.2	-38.3	21.8	0.00e+00	122	31	0	385875968	48	5733
2026-01-27 03:32:28.23	270.33	7.08	-37.2	-38.3	21.8	0.00e+00	123	31	0	389021696	48	5737
2026-01-27 03:32:29.24	270.48	7.10	-37.2	-38.3	21.8	0.00e+00	122	30	0	392167424	48	5748
2026-01-27 03:32:30.25	270.64	7.13	-37.1	-38.2	21.9	0.00e+00	122	31	0	395313152	48	5661
2026-01-27 03:32:31.26	270.79	7.15	-37.3	-38.3	21.8	0.00e+00	123	30	0	398458880	48	5765
2026-01-27 03:32:32.27	270.95	7.18	-37.2	-38.2	21.8	0.00e+00	123	31	0	401604608	48	5719
2026-01-27 03:32:33.28	271.10	7.21	-37.2	-38.3	21.7	0.00e+00	123	31	0	404750336	48	5763
2026-01-27 03:32:34.29	271.26	7.23	-37.4	-38.4	21.6	0.00e+00	121	30	0	407896064	48	5829
2026-01-27 03:32:35.30	271.42	7.26	-37.2	-38.3	21.8	0.00e+00	123	31	0	411041792	48	5741
2026-01-27 03:32:36.31	271.57	7.28	-37.2	-38.3	21.9	0.00e+00	122	30	0	414187520	48	5736
2026-01-27 03:32:37.32	271.73	7.31	-37.3	-38.3	21.7	0.00e+00	123	31	0	417333248	48	5761
2026-01-27 03:32:38.33	271.89	7.33	-37.3	-38.4	21.7	0.00e+00	122	31	0	420478976	48	5814
2026-01-27 03:32:39.34	272.04	7.35	-37.1	-38.2	21.8	0.00e+00	123	31	0	423624704	48	5682
2026-01-27 03:32:40.35	272.20	7.38	-37.2	-38.3	21.8	0.00e+00	123	30	0	426770432	48	5739
2026-01-27 03:32:41.36	272.36	7.40	-37.1	-38.2	21.9	0.00e+00	120	30	0	429916160	48	5680
2026-01-27 03:32:42.37	272.52	7.43	-37.0	-38.0	22.0	0.00e+00	123	31	0	433061888	48	5586
2026-01-27 03:32:43.38	272.67	7.45	-36.9	-37.9	22.1	0.00e+00	122	31	0	436207616	48	5496
2026-01-27 03:32:44.39	272.83	7.47	-37.0	-38.1	22.0	0.00e+00	122	30	0	439353344	48	5602
2026-01-27 03:32:45.41	272.99	7.50	-36.8	-37.8	22.2	0.00e+00	120	31	0	442499072	48	5444
2026-01-27 03:32:46.42	273.15	7.52	-36.8	-37.9	22.1	0.00e+00	120	31	0	445644800	48	5476
2026-01-27 03:32:47.43	273.31	7.54	-36.8	-37.8	22.2	0.00e+00	122	31	0	448790528	48	5464
2026-01-27 03:32:48.43	273.47	7.57	-36.9	-37.9	22.2	0.00e+00	123	31	0	451936256	48	5486
2026-01-27 03:32:49.44	273.63	7.59	-36.8	-37.9	22.2	0.00e+00	120	31	0	455081984	48	5471
2026-01-27 03:32:50.45	273.79	7.61	-36.9	-37.9	22.1	0.00e+00	122	31	0	458227712	48	5499
2026-01-27 03:32:51.47	273.95	7.63	-36.9	-38.0	22.1	0.00e+00	120	30	0	461373440	48	5540
2026-01-27 03:32:52.47	274.11	7.66	-37.0	-38.1	22.0	0.00e+00	122	31	0	464519168	48	5597
2026-01-27 03:32:53.48	274.27	7.68	-37.1	-38.2	21.9	0.00e+00	120	30	0	467664896	48	5670
2026-01-27 03:32:54.49	274.43	7.70	-37.2	-38.2	21.8	0.00e+00	123	31	0	470810624	48	5702
2026-01-27 03:32:55.51	274.59	7.72	-37.1	-38.1	22.0	0.00e+00	123	31	0	473956352	48	5638
2026-01-27 03:32:56.52	274.75	7.74	-36.9	-38.0	22.1	0.00e+00	124	31	0	477102080	48	5540
2026-01-27 03:32:57.53	274.92	7.77	-36.9	-38.0	22.1	0.00e+00	120	31	0	480247808	48	5532
2026-01-27 03:32:58.54	275.08	7.79	-37.0	-38.0	22.1	0.00e+00	122	31	0	483393536	48	5556
2026-01-27 03:32:59.54	275.24	7.81	-37.0	-38.0	22.1	0.00e+00	121	31	0	486539264	48	5550
2026-01-27 03:33:00.56	275.40	7.83	-36.8	-37.8	22.2	0.00e+00	123	30	0	489684992	48	5433
2026-01-27 03:33:01.57	275.56	7.85	-36.8	-37.8	22.2	0.00e+00	122	31	0	492830720	48	5442
2026-01-27 03:33:02.58	275.73	7.87	-36.9	-37.9	22.2	0.00e+00	123	31	0	495976448	48	5519
2026-01-27 03:33:03.59	275.89	7.89	-36.8	-37.8	22.2	0.00e+00	120	31	0	499122176	46	6090
2026-01-27 03:33:04.60	276.05	7.91	-36.8	-37.8	22.2	0.00e+00	123	31	0	502267904	46	6110
2026-01-27 03:33:05.61	276.22	7.93	-36.8	-37.9	22.1	0.00e+00	122	31	0	505413632	46	6146
2026-01-27 03:33:06.62	276.38	7.95	-37.0	-38.1	22.0	0.00e+00	122	31	0	508559360	46	6286
2026-01-27 03:33:07.63	276.54	7.97	-37.1	-38.1	22.1	0.00e+00	123	31	0	511705088	46	6297
2026-01-27 03:33:08.64	276.71	7.99	-37.1	-38.1	22.0	0.00e+00	120	31	0	514850816	46	6341
2026-01-27 03:33:09.65	276.87	8.01	-37.2	-38.2	22.1	0.00e+00	123	31	0	517996544	46	6396
2026-01-27 03:33:10.66	277.04	8.03	-37.0	-38.0	22.1	0.00e+00	123	31	0	521142272	46	6226
2026-01-27 03:33:11.67	277.20	8.05	-37.1	-38.1	22.0	0.00e+00	120	31	0	524288000	46	6310
2026-01-27 03:33:12.68	277.37	8.07	-37.0	-38.1	22.1	0.00e+00	123	31	0	527433728	46	6278
2026-01-27 03:33:13.69	277.53	8.08	-37.0	-38.0	22.1	0.00e+00	122	31	0	530579456	46	6273
2026-01-27 03:33:14.70	277.70	8.10	-37.0	-38.1	22.0	0.00e+00	123	31	0	533725184	46	6286
2026-01-27 03:33:15.71	277.86	8.12	-37.1	-38.1	22.1	0.00e+00	123	31	0	536870912	46	6313
2026-01-27 03:33:16.72	278.03	8.14	-37.0	-38.1	22.0	0.00e+00	123	31	0	540016640	46	6278
2026-01-27 03:33:17.73	278.19	8.16	-37.0	-38.1	22.0	0.00e+00	122	31	0	543162368	46	6283
2026-01-27 03:33:18.74	278.36	8.17	-37.0	-38.0	22.2	0.00e+00	122	31	0	546308096	46	6230
2026-01-27 03:33:19.75	278.52	8.19	-37.0	-38.0	22.1	0.00e+00	123	31	0	549453824	46	6249
2026-01-27 03:33:20.76	278.69	8.21	-37.0	-38.0	22.2	0.00e+00	123	31	0	552599552	46	6242
2026-01-27 03:33:21.77	278.86	8.23	-36.8	-37.8	22.3	0.00e+00	122	31	0	555745280	46	6119
2026-01-27 03:33:22.78	279.02	8.24	-36.8	-37.8	22.3	0.00e+00	123	31	0	558891008	46	6112
2026-01-27 03:33:23.79	279.19	8.26	-36.8	-37.8	22.3	0.00e+00	123	31	0	562036736	46	6099
2026-01-27 03:33:24.80	279.36	8.28	-36.7	-37.7	22.4	0.00e+00	122	31	0	565182464	46	6008
2026-01-27 03:33:25.81	279.52	8.29	-36.7	-37.7	22.5	0.00e+00	120	31	0	568328192	46	6005
2026-01-27 03:33:26.82	279.69	8.31	-36.7	-37.8	22.3	0.00e+00	123	31	0	571473920	46	6069
2026-01-27 03:33:27.83	279.86	8.32	-36.9	-37.9	22.2	0.00e+00	122	31	0	574619648	46	6168
2026-01-27 03:33:28.84	280.03	8.34	-36.9	-37.9	22.2	0.00e+00	122	31	0	577765376	46	6146
2026-01-27 03:33:29.84	280.19	8.35	-37.0	-38.0	22.2	0.00e+00	123	31	0	580911104	46	6235
2026-01-27 03:33:30.85	280.36	8.37	-37.0	-38.0	22.1	0.00e+00	120	31	0	584056832	46	6227
2026-01-27 03:33:31.86	280.53	8.38	-37.0	-38.1	22.1	0.00e+00	122	31	0	587202560	46	6299
2026-01-27 03:33:32.87	280.70	8.40	-37.2	-38.2	21.9	0.00e+00	122	31	0	590348288	46	6400
2026-01-27 03:33:33.88	280.87	8.41	-37.1	-38.1	22.0	0.00e+00	123	31	0	593494016	46	6330
2026-01-27 03:33:34.89	281.04	8.43	-37.0	-38.1	22.1	0.00e+00	123	31	0	596639744	46	6285
2026-01-27 03:33:35.90	281.20	8.44	-37.1	-38.1	22.1	0.00e+00	120	31	0	599785472	46	6310
2026-01-27 03:33:36.91	281.37	8.46	-37.0	-38.0	22.2	0.00e+00	122	31	0	602931200	46	6264
2026-01-27 03:33:37.92	281.54	8.47	-37.0	-38.0	22.2	0.00e+00	122	31	0	606076928	46	6260
2026-01-27 03:33:38.93	281.71	8.48	-36.9	-37.9	22.2	0.00e+00	123	31	0	609222656	46	6203
2026-01-27 03:33:39.94	281.88	8.50	-36.8	-37.8	22.4	0.00e+00	123	31	0	612368384	46	6117
2026-01-27 03:33:40.95	282.05	8.51	-36.8	-37.8	22.2	0.00e+00	123	31	0	615514112	46	6113
2026-01-27 03:33:41.96	282.22	8.52	-36.8	-37.8	22.3	0.00e+00	123	31	0	618659840	46	6122
2026-01-27 03:33:42.97	282.39	8.54	-36.9	-37.9	22.2	0.00e+00	123	31	0	621805568	46	6145
2026-01-27 03:33:43.98	282.56	8.55	-36.7	-37.7	22.4	0.00e+00	120	31	0	624951296	46	6015
2026-01-27 03:33:44.99	282.73	8.56	-36.7	-37.7	22.4	0.00e+00	123	31	0	628097024	46	6062
2026-01-27 03:33:46.00	282.90	8.57	-36.8	-37.8	22.3	0.00e+00	123	31	0	631242752	46	6111
2026-01-27 03:33:47.01	283.07	8.58	-36.8	-37.8	22.3	0.00e+00	123	31	0	634388480	46	6106
2026-01-27 03:33:48.02	283.24	8.60	-36.9	-37.9	22.3	0.00e+00	122	31	0	637534208	46	6146
2026-01-27 03:33:49.03	283.41	8.61	-36.8	-37.8	22.4	0.00e+00	123	31	0	640679936	46	6108
2026-01-27 03:33:50.04	283.58	8.62	-36.8	-37.8	22.2	0.00e+00	122	31	0	643825664	46	6134
2026-01-27 03:33:51.05	283.75	8.63	-36.9	-38.0	22.2	0.00e+00	122	31	0	648019968	46	6219
2026-01-27 03:33:52.06	283.93	8.64	-36.8	-37.8	22.3	0.00e+00	122	31	0	650117120	46	6111
2026-01-27 03:33:53.07	284.10	8.65	-36.9	-37.9	22.2	0.00e+00	122	31	0	653262848	46	6163
2026-01-27 03:33:54.08	284.27	8.66	-36.9	-38.0	22.1	0.00e+00	123	31	0	656408576	46	6221
2026-01-27 03:33:55.09	284.44	8.67	-37.0	-38.1	22.1	0.00e+00	123	31	0	659554304	46	6288
2026-01-27 03:33:56.10	284.61	8.68	-37.1	-38.1	22.0	0.00e+00	122	31	0	663748608	46	6316
2026-01-27 03:33:57.11	284.78	8.69	-37.0	-38.1	22.0	0.00e+00	122	31	0	666894336	46	6313
2026-01-27 03:33:58.12	284.95	8.70	-36.9	-38.0	22.1	0.00e+00	120	31	0	670040064	46	6210
2026-01-27 03:33:59.13	285.13	8.71	-36.8	-37.8	22.2	0.00e+00	123	31	0	673185792	46	6090
2026-01-27 03:34:00.14	285.30	8.72	-36.9	-37.9	22.2	0.00e+00	122	31	0	675282944	46	6164
2026-01-27 03:34:01.15	285.47	8.73	-36.9	-37.9	22.3	0.00e+00	123	31	0	679477248	46	6190
2026-01-27 03:34:02.16	285.64	8.74	-36.7	-37.7	22.3	0.00e+00	123	31	0	682622976	46	6042
2026-01-27 03:34:03.17	285.81	8.74	-36.6	-37.6	22.4	0.00e+00	122	31	0	685768704	46	5954
2026-01-27 03:34:04.18	285.99	8.75	-36.7	-37.7	22.4	0.00e+00	123	31	0	688914432	46	6002
2026-01-27 03:34:05.19	286.16	8.76	-36.6	-37.6	22.5	0.00e+00	122	31	0	692060160	46	5986
2026-01-27 03:34:06.20	286.33	8.77	-36.6	-37.6	22.5	0.00e+00	123	31	0	695205888	46	5934
2026-01-27 03:34:07.21	286.50	8.78	-36.7	-37.7	22.3	0.00e+00	123	31	0	698351616	46	6048
2026-01-27 03:34:08.22	286.68	8.78	-36.7	-37.7	22.4	0.00e+00	122	31	0	701497344	46	6034
2026-01-27 03:34:09.23	286.85	8.79	-36.8	-37.8	22.3	0.00e+00	122	31	0	704643072	46	6107
2026-01-27 03:34:10.24	287.02	8.80	-36.7	-37.8	22.4	0.00e+00	123	31	0	707788800	46	6066
2026-01-27 03:34:11.25	287.20	8.80	-36.9	-37.9	22.3	0.00e+00	120	31	0	710934528	46	6166
2026-01-27 03:34:12.26	287.37	8.81	-36.9	-37.9	22.3	0.00e+00	123	31	0	714080256	46	6175
2026-01-27 03:34:13.27	287.54	8.82	-37.0	-38.0	22.2	0.00e+00	123	31	0	717225984	46	6231
2026-01-27 03:34:14.28	287.71	8.82	-37.0	-38.0	22.2	0.00e+00	122	31	0	720371712	46	6273
2026-01-27 03:34:15.29	287.89	8.83	-37.1	-38.1	22.0	0.00e+00	120	31	0	723517440	46	6340
2026-01-27 03:34:16.30	288.06	8.83	-36.8	-37.8	22.2	0.00e+00	120	31	0	726663168	46	6126
2026-01-27 03:34:17.31	288.23	8.84	-37.0	-38.0	22.1	0.00e+00	120	31	0	729808896	46	6260
2026-01-27 03:34:18.32	288.41	8.84	-36.7	-37.7	22.4	0.00e+00	123	31	0	732954624	46	6019
2026-01-27 03:34:19.33	288.58	8.85	-36.7	-37.7	22.3	0.00e+00	120	31	0	736100352	46	6013
2026-01-27 03:34:20.34	288.75	8.85	-36.8	-37.8	22.3	0.00e+00	123	31	0	739246080	46	6080
2026-01-27 03:34:21.35	288.93	8.86	-36.7	-37.7	22.3	0.00e+00	123	31	0	742391808	46	6040
2026-01-27 03:34:22.36	289.10	8.86	-36.8	-37.8	22.2	0.00e+00	123	31	0	745537536	46	6111
2026-01-27 03:34:23.37	289.28	8.87	-36.8	-37.9	22.2	0.00e+00	123	31	0	748683264	46	6141
2026-01-27 03:34:24.38	289.45	8.87	-36.9	-38.0	22.1	0.00e+00	122	31	0	751828992	46	6211
2026-01-27 03:34:25.39	289.62	8.87	-36.8	-37.8	22.3	0.00e+00	122	31	0	754974720	46	6087
2026-01-27 03:34:26.40	289.80	8.88	-37.0	-38.0	22.1	0.00e+00	122	31	0	758120448	46	6258
2026-01-27 03:34:27.41	289.97	8.88	-36.7	-37.7	22.4	0.00e+00	123	31	0	761266176	46	6032
2026-01-27 03:34:28.42	290.14	8.88	-36.8	-37.8	22.2	0.00e+00	123	31	0	764411904	46	6125
2026-01-27 03:34:29.43	290.32	8.88	-36.9	-37.9	22.2	0.00e+00	122	31	0	767557632	46	6162
2026-01-27 03:34:30.44	290.49	8.89	-36.7	-37.8	22.2	0.00e+00	122	31	0	770703360	46	6071
2026-01-27 03:34:31.45	290.67	8.89	-36.8	-37.8	22.2	0.00e+00	122	31	0	773849088	46	6092
2026-01-27 03:34:32.46	290.84	8.89	-36.7	-37.8	22.2	0.00e+00	120	31	0	776994816	46	6088
2026-01-27 03:34:33.47	291.01	8.89	-36.8	-37.8	22.2	0.00e+00	122	31	0	780140544	46	6095
2026-01-27 03:34:34.48	291.19	8.89	-36.9	-37.9	22.2	0.00e+00	123	31	0	783286272	46	6163
2026-01-27 03:34:35.49	291.36	8.89	-36.9	-37.9	22.1	0.00e+00	122	31	0	786432000	46	6163
2026-01-27 03:34:36.50	291.53	8.90	-36.8	-37.8	22.3	0.00e+00	120	31	0	789577728	46	6128
2026-01-27 03:34:37.51	291.71	8.90	-36.7	-37.7	22.4	0.00e+00	123	31	0	792723456	46	6064
2026-01-27 03:34:38.52	291.88	8.90	-36.7	-37.7	22.3	0.00e+00	123	31	0	795869184	46	6009
2026-01-27 03:34:39.53	292.06	8.90	-36.7	-37.7	22.3	0.00e+00	122	31	0	799014912	46	6059
2026-01-27 03:34:40.54	292.23	8.90	-36.6	-37.7	22.4	0.00e+00	122	31	0	802160640	46	6003
2026-01-27 03:34:41.55	292.40	8.90	-36.7	-37.7	22.3	0.00e+00	123	31	0	805306368	46	6007
2026-01-27 03:34:42.56	292.58	8.90	-36.7	-37.7	22.3	0.00e+00	123	31	0	808452096	46	6037
2026-01-27 03:34:43.57	292.75	8.90	-36.8	-37.8	22.2	0.00e+00	120	31	0	811597824	46	6082
2026-01-27 03:34:44.57	292.92	8.90	-36.8	-37.8	22.3	0.00e+00	122	31	0	814743552	46	6126
2026-01-27 03:34:45.58	293.10	8.89	-36.8	-37.9	22.2	0.00e+00	123	31	0	817889280	46	6141
2026-01-27 03:34:46.59	293.27	8.89	-36.8	-37.9	22.3	0.00e+00	120	31	0	821035008	46	6142
2026-01-27 03:34:47.60	293.45	8.89	-36.6	-37.6	22.5	0.00e+00	120	31	0	824180736	46	5949
2026-01-27 03:34:48.62	293.62	8.89	-36.6	-37.7	22.4	0.00e+00	123	31	0	827326464	46	5995
2026-01-27 03:34:49.63	293.80	8.89	-36.5	-37.5	22.5	0.00e+00	120	31	0	830472192	46	5918
2026-01-27 03:34:50.64	293.97	8.89	-36.7	-37.7	22.4	0.00e+00	123	31	0	833617920	46	6027
2026-01-27 03:34:51.65	294.14	8.88	-36.6	-37.6	22.4	0.00e+00	123	31	0	836763648	46	5975
2026-01-27 03:34:52.66	294.32	8.88	-36.8	-37.8	22.3	0.00e+00	120	31	0	839909376	46	6094
2026-01-27 03:34:53.67	294.49	8.88	-36.9	-37.9	22.2	0.00e+00	123	31	0	843055104	46	6198
2026-01-27 03:34:54.68	294.66	8.87	-36.8	-37.8	22.3	0.00e+00	123	31	0	846200832	46	6124
2026-01-27 03:34:55.69	294.84	8.87	-36.8	-37.8	22.3	0.00e+00	120	31	0	849346560	46	6115
2026-01-27 03:34:56.70	295.01	8.87	-36.8	-37.9	22.3	0.00e+00	123	31	0	852492288	46	6146
2026-01-27 03:34:57.71	295.18	8.86	-37.0	-38.0	22.1	0.00e+00	120	31	0	855638016	46	6239
2026-01-27 03:34:58.72	295.36	8.86	-36.8	-37.8	22.3	0.00e+00	122	31	0	858783744	46	6130
2026-01-27 03:34:59.73	295.53	8.86	-36.6	-37.6	22.4	0.00e+00	120	31	0	861929472	46	5988
2026-01-27 03:35:00.74	295.70	8.85	-36.7	-37.7	22.4	0.00e+00	123	31	0	865075200	46	6018
2026-01-27 03:35:01.75	295.88	8.85	-36.6	-37.6	22.4	0.00e+00	120	31	0	868220928	46	5977
2026-01-27 03:35:02.76	296.05	8.84	-36.6	-37.6	22.4	0.00e+00	123	31	0	871366656	46	5973
2026-01-27 03:35:03.77	296.22	8.84	-36.5	-37.4	22.6	0.00e+00	120	31	0	874512384	46	5858
2026-01-27 03:35:04.78	296.40	8.83	-36.5	-37.5	22.5	0.00e+00	120	31	0	877658112	46	5871
2026-01-27 03:35:05.79	296.57	8.82	-36.5	-37.5	22.5	0.00e+00	120	31	0	880803840	46	5899
2026-01-27 03:35:06.80	296.74	8.82	-36.5	-37.5	22.5	0.00e+00	123	31	0	883949568	46	5917
2026-01-27 03:35:07.81	296.92	8.81	-36.5	-37.5	22.6	0.00e+00	123	31	0	887095296	46	5877
2026-01-27 03:35:08.82	297.09	8.81	-36.3	-37.3	22.7	0.00e+00	122	31	0	890241024	46	5775
2026-01-27 03:35:09.83	297.26	8.80	-36.4	-37.4	22.6	0.00e+00	123	31	0	893386752	46	5816
2026-01-27 03:35:10.84	297.44	8.79	-36.4	-37.4	22.6	0.00e+00	122	31	0	896532480	46	5813
2026-01-27 03:35:11.85	297.61	8.79	-36.5	-37.5	22.6	0.00e+00	123	31	0	899678208	46	5867
2026-01-27 03:35:12.86	297.78	8.78	-36.6	-37.5	22.6	0.00e+00	123	31	0	902823936	46	5924
2026-01-27 03:35:13.87	297.95	8.77	-36.6	-37.6	22.5	0.00e+00	122	31	0	905969664	46	5961
2026-01-27 03:35:14.88	298.13	8.76	-36.5	-37.5	22.5	0.00e+00	122	31	0	909115392	46	5911
2026-01-27 03:35:15.89	298.30	8.76	-36.6	-37.6	22.6	0.00e+00	122	31	0	912261120	46	5928
2026-01-27 03:35:16.90	298.47	8.75	-36.5	-37.4	22.6	0.00e+00	123	31	0	915406848	46	5854
2026-01-27 03:35:17.91	298.64	8.74	-36.6	-37.5	22.6	0.00e+00	120	31	0	918552576	46	5925
2026-01-27 03:35:18.92	298.81	8.73	-36.5	-37.4	22.6	0.00e+00	123	31	0	921698304	46	5849
2026-01-27 03:35:19.93	298.99	8.72	-36.5	-37.5	22.6	0.00e+00	122	31	0	924844032	46	5869
2026-01-27 03:35:20.94	299.16	8.71	-36.4	-37.4	22.7	0.00e+00	122	31	0	927989760	46	5813
2026-01-27 03:35:21.95	299.33	8.71	-36.4	-37.4	22.6	0.00e+00	122	31	0	931135488	46	5798
2026-01-27 03:35:22.96	299.50	8.70	-36.4	-37.4	22.6	0.00e+00	122	31	0	934281216	46	5854
2026-01-27 03:35:23.97	299.67	8.69	-36.4	-37.4	22.5	0.00e+00	123	31	0	937426944	46	5810
2026-01-27 03:35:24.98	299.84	8.68	-36.6	-37.6	22.5	0.00e+00	122	31	0	940572672	46	5987
2026-01-27 03:35:25.99	300.01	8.67	-36.5	-37.5	22.5	0.00e+00	121	31	0	943718400	46	5910
2026-01-27 03:35:27.00	300.19	8.66	-36.6	-37.6	22.5	0.00e+00	123	31	0	946864128	46	5951
2026-01-27 03:35:28.01	300.36	8.65	-36.5	-37.5	22.6	0.00e+00	122	31	0	950009856	46	5865
2026-01-27 03:35:29.02	300.53	8.64	-36.5	-37.5	22.5	0.00e+00	123	31	0	953155584	46	5875
2026-01-27 03:35:30.03	300.70	8.62	-36.4	-37.4	22.6	0.00e+00	123	31	0	956301312	46	5822
2026-01-27 03:35:31.04	300.87	8.61	-36.5	-37.4	22.6	0.00e+00	124	31	0	959447040	46	5856
2026-01-27 03:35:32.05	301.04	8.60	-36.6	-37.6	22.5	0.00e+00	122	31	0	963641344	46	5940
2026-01-27 03:35:33.06	301.21	8.59	-36.6	-37.6	22.5	0.00e+00	122	31	0	965738496	46	5957
2026-01-27 03:35:34.07	301.38	8.58	-36.6	-37.5	22.5	0.00e+00	123	31	0	968884224	46	5921
2026-01-27 03:35:35.08	301.55	8.57	-36.6	-37.6	22.5	0.00e+00	123	31	0	972029952	46	5935
2026-01-27 03:35:36.09	301.72	8.55	-36.5	-37.4	22.6	0.00e+00	123	31	0	975175680	46	5858
2026-01-27 03:35:37.10	301.89	8.54	-36.4	-37.4	22.6	0.00e+00	120	31	0	979369984	46	5842
2026-01-27 03:35:38.11	302.06	8.53	-36.5	-37.5	22.6	0.00e+00	122	31	0	982515712	46	5872
2026-01-27 03:35:39.12	302.23	8.52	-36.5	-37.5	22.5	0.00e+00	122	31	0	985661440	46	5919
2026-01-27 03:35:40.13	302.40	8.50	-36.5	-37.5	22.5	0.00e+00	123	31	0	988807168	46	5877
2026-01-27 03:35:41.14	302.57	8.49	-36.5	-37.5	22.5	0.00e+00	123	31	0	990904320	46	5915
2026-01-27 03:35:42.15	302.74	8.48	-36.6	-37.6	22.5	0.00e+00	123	31	0	995098624	46	5949
2026-01-27 03:35:43.16	302.91	8.46	-36.5	-37.5	22.6	0.00e+00	120	31	0	998244352	46	5877
2026-01-27 03:35:44.18	303.08	8.45	-36.6	-37.6	22.5	0.00e+00	122	31	0	1001390080	46	5946
2026-01-27 03:35:45.18	303.24	8.44	-36.7	-37.7	22.4	0.00e+00	123	31	0	1004535808	46	6017
2026-01-27 03:35:46.19	303.41	8.42	-36.7	-37.7	22.4	0.00e+00	120	31	0	1007681536	46	6039
2026-01-27 03:35:47.21	303.58	8.41	-36.7	-37.7	22.4	0.00e+00	122	31	0	1010827264	46	6005
2026-01-27 03:35:48.22	303.75	8.39	-36.9	-37.9	22.3	0.00e+00	122	31	0	1013972992	46	6163
2026-01-27 03:35:49.23	303.92	8.38	-36.8	-37.9	22.3	0.00e+00	123	31	0	1017118720	46	6145
2026-01-27 03:35:50.24	304.08	8.36	-36.8	-37.9	22.3	0.00e+00	123	31	0	1020264448	46	6151
2026-01-27 03:35:51.25	304.25	8.35	-36.9	-37.9	22.2	0.00e+00	120	31	0	1023410176	46	6182
2026-01-27 03:35:52.26	304.42	8.33	-36.8	-37.8	22.3	0.00e+00	122	31	0	1026555904	46	6113
2026-01-27 03:35:53.27	304.59	8.32	-36.8	-37.8	22.3	0.00e+00	122	31	0	1029701632	46	6109
2026-01-27 03:35:54.28	304.75	8.30	-36.9	-37.9	22.2	0.00e+00	123	31	0	1032847360	46	6183
2026-01-27 03:35:55.29	304.92	8.28	-37.0	-38.0	22.0	0.00e+00	120	31	0	1035993088	46	6253
2026-01-27 03:35:56.30	305.09	8.27	-37.1	-38.2	21.9	0.00e+00	120	31	0	1039138816	46	6354
2026-01-27 03:35:57.31	305.25	8.25	-37.1	-38.2	22.0	0.00e+00	122	31	0	1042284544	46	6372
2026-01-27 03:35:58.32	305.42	8.24	-37.1	-38.2	21.9	0.00e+00	123	31	0	1045430272	46	6377
2026-01-27 03:35:59.33	305.59	8.22	-37.1	-38.2	22.0	0.00e+00	123	31	0	1048576000	46	6395
2026-01-27 03:36:00.34	305.75	8.20	-37.1	-38.1	22.0	0.00e+00	122	31	0	1051721728	46	6325
2026-01-27 03:36:01.35	305.92	8.18	-37.2	-38.2	21.9	0.00e+00	123	31	0	1054867456	46	6404
2026-01-27 03:36:02.36	306.08	8.17	-37.2	-38.3	21.8	0.00e+00	122	31	0	1058013184	46	6455
2026-01-27 03:36:03.37	306.25	8.15	-37.1	-38.1	21.9	0.00e+00	122	31	0	1061158912	46	6349
2026-01-27 03:36:04.38	306.41	8.13	-37.2	-38.3	21.8	0.00e+00	123	31	0	1064304640	46	6424
2026-01-27 03:36:05.39	306.58	8.11	-37.1	-38.2	21.9	0.00e+00	123	31	0	1067450368	46	6375
2026-01-27 03:36:06.40	306.74	8.10	-37.1	-38.1	22.0	0.00e+00	120	31	0	1070596096	46	6323
2026-01-27 03:36:07.41	306.91	8.08	-37.1	-38.1	21.9	0.00e+00	123	31	0	1073741824	46	6329
2026-01-27 03:36:08.42	307.07	8.06	-37.2	-38.3	21.8	0.00e+00	123	31	0	1076887552	46	6452
2026-01-27 03:36:09.43	307.24	8.04	-37.3	-38.3	21.8	0.00e+00	123	31	0	1080033280	46	6493
2026-01-27 03:36:10.44	307.40	8.02	-37.3	-38.3	21.8	0.00e+00	123	31	0	1083179008	46	6472
2026-01-27 03:36:11.45	307.57	8.00	-37.2	-38.2	21.9	0.00e+00	123	31	0	1086324736	46	6409
2026-01-27 03:36:12.46	307.73	7.98	-37.3	-38.4	21.7	0.00e+00	123	31	0	1089470464	46	6544
2026-01-27 03:36:13.48	307.89	7.96	-37.1	-38.1	21.9	0.00e+00	122	31	0	1092616192	46	6333
2026-01-27 03:36:14.49	308.06	7.94	-37.1	-38.1	21.8	0.00e+00	123	31	0	1095761920	46	6330
2026-01-27 03:36:15.50	308.22	7.92	-37.2	-38.2	21.7	0.00e+00	123	31	0	1098907648	46	6407
2026-01-27 03:36:16.51	308.38	7.90	-37.2	-38.3	21.8	0.00e+00	121	31	0	1102053376	46	6455
2026-01-27 03:36:17.52	308.55	7.88	-37.1	-38.2	21.8	0.00e+00	122	31	0	1105199104	46	6375
2026-01-27 03:36:18.52	308.71	7.86	-37.1	-38.2	21.8	0.00e+00	120	31	0	1108344832	46	6368
2026-01-27 03:36:19.53	308.87	7.84	-37.2	-38.2	21.8	0.00e+00	123	31	0	1111490560	46	6413
2026-01-27 03:36:20.54	309.03	7.82	-37.1	-38.1	22.0	0.00e+00	121	31	0	1114636288	46	6319
2026-01-27 03:36:21.55	309.19	7.80	-37.2	-38.3	21.8	0.00e+00	120	31	0	1117782016	46	6446
2026-01-27 03:36:22.56	309.35	7.78	-37.1	-38.2	21.9	0.00e+00	122	31	0	1120927744	46	6361
2026-01-27 03:36:23.57	309.51	7.76	-37.0	-38.1	21.9	0.00e+00	121	31	0	1124073472	46	6302
2026-01-27 03:36:24.58	309.67	7.74	-37.0	-38.0	22.0	0.00e+00	123	31	0	1127219200	46	6257
2026-01-27 03:36:25.58	309.83	7.72	-37.0	-38.1	21.9	0.00e+00	121	31	0	1130364928	46	6320
2026-01-27 03:36:26.59	309.99	7.69	-36.9	-37.9	22.1	0.00e+00	122	31	0	1133510656	46	6163
2026-01-27 03:36:27.60	310.15	7.67	-37.0	-38.1	21.9	0.00e+00	122	31	0	1136656384	46	6299
2026-01-27 03:36:28.61	310.31	7.65	-36.9	-38.0	22.0	0.00e+00	123	31	0	1139802112	46	6214
2026-01-27 03:36:29.62	310.47	7.63	-36.8	-37.8	22.1	0.00e+00	124	31	0	1142947840	46	6124
2026-01-27 03:36:30.63	310.63	7.61	-36.8	-37.8	22.1	0.00e+00	122	31	0	1146093568	46	6099
2026-01-27 03:36:31.64	310.79	7.58	-36.9	-37.9	22.1	0.00e+00	122	31	0	1149239296	46	6170
2026-01-27 03:36:32.65	310.95	7.56	-37.0	-38.0	22.0	0.00e+00	122	31	0	1152385024	46	6269
2026-01-27 03:36:33.66	311.11	7.54	-36.9	-37.9	22.1	0.00e+00	122	31	0	1155530752	46	6193
2026-01-27 03:36:34.68	311.27	7.51	-36.9	-38.0	22.0	0.00e+00	123	31	0	1158676480	46	6221
2026-01-27 03:36:35.68	311.43	7.49	-37.1	-38.2	21.9	0.00e+00	123	31	0	1161822208	46	6355
2026-01-27 03:36:36.69	311.59	7.47	-36.8	-37.8	22.2	0.00e+00	120	31	0	1164967936	46	6091
2026-01-27 03:36:37.70	311.74	7.44	-36.8	-37.9	22.1	0.00e+00	123	31	0	1168113664	46	6151
2026-01-27 03:36:38.71	311.90	7.42	-37.0	-38.0	22.1	0.00e+00	121	31	0	1171259392	46	6253
2026-01-27 03:36:39.72	312.06	7.40	-36.9	-37.9	22.1	0.00e+00	123	31	0	1174405120	46	6156
2026-01-27 03:36:40.73	312.22	7.37	-36.9	-37.9	22.0	0.00e+00	123	31	0	1177550848	46	6191
2026-01-27 03:36:41.74	312.37	7.35	-37.2	-38.2	21.9	0.00e+00	122	31	0	1180696576	46	6392
2026-01-27 03:36:42.75	312.53	7.32	-37.1	-38.1	21.8	0.00e+00	123	31	0	1183842304	46	6320
2026-01-27 03:36:43.75	312.68	7.30	-37.1	-38.1	22.0	0.00e+00	122	31	0	1186988032	46	6288
2026-01-27 03:36:44.77	312.84	7.27	-37.2	-38.2	21.7	0.00e+00	123	31	0	1190133760	46	6413
2026-01-27 03:36:45.78	313.00	7.25	-37.2	-38.2	21.9	0.00e+00	123	31	0	1193279488	46	6398
2026-01-27 03:36:46.79	313.15	7.23	-37.3	-38.3	21.7	0.00e+00	122	31	0	1196425216	46	6475
2026-01-27 03:36:47.80	313.31	7.20	-37.2	-38.2	21.8	0.00e+00	122	31	0	1199570944	46	6419
2026-01-27 03:36:48.81	313.46	7.17	-37.4	-38.5	21.5	0.00e+00	123	31	0	1202716672	46	6614
2026-01-27 03:36:49.82	313.62	7.15	-37.3	-38.4	21.8	0.00e+00	123	31	0	1205862400	46	6504
2026-01-27 03:36:50.82	313.77	7.12	-37.2	-38.2	21.9	0.00e+00	123	31	0	1209008128	46	6387
2026-01-27 03:36:51.84	313.93	7.10	-37.2	-38.3	21.8	0.00e+00	123	31	0	1212153856	46	6464
2026-01-27 03:36:52.85	314.08	7.07	-37.0	-38.0	21.9	0.00e+00	120	31	0	1215299584	46	6253
2026-01-27 03:36:53.78	314.22	7.05	-36.9	-37.9	22.1	0.00e+00	122	31	0	1218445312	46	6191
2026-01-27 03:36:54.79	314.38	7.02	-37.0	-38.0	21.9	0.00e+00	120	31	0	1221591040	46	6234
2026-01-27 03:36:55.80	314.53	7.00	-36.9	-37.9	22.1	0.00e+00	123	31	0	1224736768	46	6200
2026-01-27 03:36:56.81	314.68	6.97	-37.0	-38.0	21.9	0.00e+00	122	31	0	1227882496	46	6244
2026-01-27 03:36:57.82	314.83	6.94	-37.0	-38.0	22.0	0.00e+00	120	31	0	1231028224	46	6267
2026-01-27 03:36:58.83	314.99	6.92	-36.9	-38.0	22.0	0.00e+00	122	31	0	1234173952	46	6225
2026-01-27 03:36:59.84	315.14	6.89	-37.0	-38.1	21.8	0.00e+00	123	31	0	1237319680	46	6291
2026-01-27 03:37:00.84	315.29	6.86	-37.0	-38.1	21.8	0.00e+00	122	31	0	1240465408	46	6305
2026-01-27 03:37:01.85	315.44	6.84	-37.0	-38.0	21.9	0.00e+00	120	31	0	1243611136	46	6264
2026-01-27 03:37:02.86	315.59	6.81	-37.1	-38.1	21.8	0.00e+00	123	31	0	1246756864	46	6345
2026-01-27 03:37:03.87	315.74	6.78	-37.1	-38.1	21.8	0.00e+00	123	31	0	1249902592	46	6325
2026-01-27 03:37:04.88	315.89	6.75	-37.1	-38.1	21.8	0.00e+00	123	31	0	1253048320	46	6342
2026-01-27 03:37:05.89	316.04	6.72	-37.0	-38.1	21.9	0.00e+00	123	31	0	1256194048	46	6294
2026-01-27 03:37:06.90	316.19	6.70	-37.0	-38.1	21.9	0.00e+00	123	31	0	1259339776	46	6278
2026-01-27 03:37:07.92	316.35	6.67	-37.0	-38.1	21.9	0.00e+00	123	31	0	1262485504	46	6281
2026-01-27 03:37:08.93	316.49	6.64	-37.0	-38.0	21.9	0.00e+00	123	31	0	1265631232	46	6245
2026-01-27 03:37:09.94	316.64	6.61	-36.9	-37.9	22.0	0.00e+00	122	31	0	1268776960	46	6199
2026-01-27 03:37:10.95	316.79	6.58	-37.1	-38.1	21.8	0.00e+00	122	31	0	1271922688	46	6309
2026-01-27 03:37:11.96	316.94	6.56	-37.1	-38.2	21.7	0.00e+00	123	31	0	1275068416	46	6377
2026-01-27 03:37:12.96	317.09	6.53	-37.1	-38.2	21.7	0.00e+00	123	31	0	1279262720	46	6372
2026-01-27 03:37:13.97	317.24	6.50	-37.3	-38.4	21.6	0.00e+00	123	31	0	1281359872	46	6536
2026-01-27 03:37:14.98	317.38	6.47	-37.4	-38.5	21.4	0.00e+00	123	31	0	1284505600	46	6603
2026-01-27 03:37:16.00	317.53	6.44	-37.5	-38.6	21.4	0.00e+00	123	31	0	1287651328	46	6705
2026-01-27 03:37:17.01	317.68	6.41	-37.6	-38.7	21.2	0.00e+00	123	31	0	1290797056	46	6797
2026-01-27 03:37:18.02	317.83	6.38	-37.5	-38.6	21.4	0.00e+00	122	31	0	1294991360	46	6715
2026-01-27 03:37:19.03	317.98	6.35	-37.4	-38.5	21.5	0.00e+00	123	31	0	1298137088	46	6611
2026-01-27 03:37:20.04	318.12	6.32	-37.4	-38.5	21.4	0.00e+00	122	31	0	1301282816	46	6605
2026-01-27 03:37:21.05	318.27	6.29	-37.4	-38.5	21.4	0.00e+00	123	31	0	1304428544	46	6603
2026-01-27 03:37:22.06	318.41	6.26	-37.2	-38.3	21.7	0.00e+00	123	31	0	1306525696	46	6448
2026-01-27 03:37:23.07	318.56	6.23	-37.0	-38.0	21.8	0.00e+00	122	31	0	1310720000	46	6248
2026-01-27 03:37:24.08	318.70	6.20	-37.0	-38.0	21.8	0.00e+00	123	31	0	1313865728	46	6261
2026-01-27 03:37:25.09	318.85	6.17	-36.8	-37.9	22.0	0.00e+00	122	31	0	1317011456	46	6164
2026-01-27 03:37:26.10	318.99	6.14	-37.0	-38.1	21.8	0.00e+00	120	31	0	1320157184	46	6290
2026-01-27 03:37:27.11	319.14	6.11	-37.1	-38.1	21.7	0.00e+00	123	31	0	1323302912	46	6344
2026-01-27 03:37:28.12	319.28	6.08	-37.0	-38.1	21.9	0.00e+00	122	31	0	1326448640	46	6293
2026-01-27 03:37:29.13	319.43	6.05	-37.1	-38.2	21.7	0.00e+00	123	31	0	1329594368	46	6372
2026-01-27 03:37:30.14	319.57	6.02	-37.1	-38.2	21.7	0.00e+00	122	31	0	1332740096	46	6363
2026-01-27 03:37:31.15	319.71	5.99	-37.3	-38.3	21.6	0.00e+00	121	31	0	1335885824	46	6471
2026-01-27 03:37:32.16	319.86	5.96	-37.3	-38.3	21.6	0.00e+00	122	31	0	1339031552	46	6486
2026-01-27 03:37:33.17	320.00	5.93	-37.6	-38.7	21.4	0.00e+00	120	31	0	1342177280	46	6800
2026-01-27 03:37:34.18	320.14	5.90	-37.6	-38.7	21.3	0.00e+00	123	31	0	1345323008	46	6736
2026-01-27 03:37:35.19	320.28	5.87	-37.4	-38.5	21.4	0.00e+00	120	31	0	1348468736	46	6608
2026-01-27 03:37:36.20	320.43	5.84	-37.7	-38.8	21.1	0.00e+00	123	31	0	1351614464	46	6864
2026-01-27 03:37:37.21	320.57	5.80	-37.6	-38.7	21.2	0.00e+00	122	31	0	1354760192	48	6009
2026-01-27 03:37:38.22	320.71	5.77	-37.7	-38.8	21.1	0.00e+00	123	31	0	1357905920	48	6103
2026-01-27 03:37:39.23	320.85	5.74	-37.7	-38.9	21.0	0.00e+00	123	31	0	1361051648	48	6155
2026-01-27 03:37:40.24	320.99	5.71	-37.9	-39.1	20.9	0.00e+00	122	31	0	1364197376	48	6296
2026-01-27 03:37:41.25	321.13	5.68	-37.8	-38.9	21.1	0.00e+00	123	31	0	1367343104	48	6165
2026-01-27 03:37:42.26	321.27	5.65	-37.5	-38.6	21.3	0.00e+00	122	31	0	1370488832	48	5964
2026-01-27 03:37:43.27	321.41	5.61	-37.5	-38.6	21.3	0.00e+00	123	31	0	1373634560	48	5987
2026-01-27 03:37:44.28	321.55	5.58	-37.3	-38.4	21.5	0.00e+00	120	31	0	1376780288	48	5801
2026-01-27 03:37:45.29	321.69	5.55	-37.4	-38.5	21.4	0.00e+00	123	31	0	1379926016	48	5870
2026-01-27 03:37:46.30	321.83	5.52	-37.5	-38.7	21.3	0.00e+00	123	31	0	1383071744	48	6005
2026-01-27 03:37:47.31	321.97	5.48	-37.4	-38.5	21.4	0.00e+00	123	31	0	1386217472	48	5901
2026-01-27 03:37:48.32	322.10	5.45	-37.4	-38.5	21.3	0.00e+00	123	31	0	1389363200	48	5904
2026-01-27 03:37:49.33	322.24	5.42	-37.5	-38.6	21.3	0.00e+00	121	31	0	1392508928	48	5952
2026-01-27 03:37:50.34	322.38	5.39	-37.7	-38.9	21.0	0.00e+00	123	31	0	1395654656	48	6144
2026-01-27 03:37:51.35	322.52	5.35	-37.7	-38.8	21.1	0.00e+00	122	31	0	1398800384	48	6122
2026-01-27 03:37:52.36	322.66	5.32	-37.8	-39.0	21.0	0.00e+00	123	31	0	1401946112	48	6207
2026-01-27 03:37:53.37	322.79	5.29	-37.9	-39.0	20.9	0.00e+00	123	31	0	1405091840	48	6244
2026-01-27 03:37:54.38	322.93	5.25	-37.8	-39.0	20.9	0.00e+00	120	31	0	1408237568	48	6211
2026-01-27 03:37:55.39	323.06	5.22	-37.8	-38.9	21.0	0.00e+00	122	31	0	1411383296	48	6171
2026-01-27 03:37:56.40	323.20	5.19	-37.8	-38.9	21.0	0.00e+00	122	31	0	1414529024	48	6157
2026-01-27 03:37:57.41	323.34	5.15	-38.0	-39.2	20.7	0.00e+00	122	31	0	1417674752	48	6351
2026-01-27 03:37:58.42	323.47	5.12	-38.0	-39.1	20.8	0.00e+00	123	31	0	1420820480	48	6326
2026-01-27 03:37:59.43	323.61	5.09	-38.0	-39.1	20.8	0.00e+00	123	31	0	1423966208	48	6341
2026-01-27 03:38:00.44	323.74	5.05	-37.8	-38.9	21.0	0.00e+00	122	31	0	1427111936	48	6176
2026-01-27 03:38:01.45	323.88	5.02	-37.9	-39.1	20.8	0.00e+00	123	31	0	1430257664	48	6300
2026-01-27 03:38:02.46	324.01	4.99	-38.0	-39.1	20.7	0.00e+00	122	31	0	1433403392	48	6346
2026-01-27 03:38:03.47	324.14	4.95	-38.0	-39.1	20.7	0.00e+00	122	31	0	1436549120	48	6327
2026-01-27 03:38:04.48	324.28	4.92	-38.0	-39.1	20.6	0.00e+00	122	31	0	1439694848	48	6323
2026-01-27 03:38:05.49	324.41	4.88	-37.6	-38.8	21.0	0.00e+00	123	31	0	1442840576	48	6076
2026-01-27 03:38:06.50	324.54	4.85	-37.6	-38.7	21.0	0.00e+00	120	31	0	1445986304	48	6051
2026-01-27 03:38:07.51	324.68	4.82	-37.6	-38.7	21.1	0.00e+00	122	31	0	1449132032	48	6004
2026-01-27 03:38:08.52	324.81	4.78	-37.9	-39.1	20.8	0.00e+00	122	31	0	1452277760	48	6300
2026-01-27 03:38:09.53	324.94	4.75	-37.9	-39.1	20.7	0.00e+00	122	31	0	1455423488	48	6290
2026-01-27 03:38:10.54	325.07	4.71	-38.0	-39.1	20.7	0.00e+00	122	31	0	1458569216	48	6308
2026-01-27 03:38:11.55	325.20	4.68	-37.9	-39.0	20.8	0.00e+00	120	31	0	1461714944	48	6230
2026-01-27 03:38:12.56	325.33	4.64	-37.5	-38.6	21.0	0.00e+00	122	31	0	1464860672	48	5940
2026-01-27 03:38:13.57	325.46	4.61	-37.6	-38.7	21.0	0.00e+00	123	31	0	1468006400	48	6053
2026-01-27 03:38:14.58	325.60	4.57	-38.3	-39.5	20.4	0.00e+00	122	31	0	1471152128	48	6596
2026-01-27 03:38:15.59	325.73	4.54	-38.2	-39.3	20.5	0.00e+00	123	31	0	1474297856	48	6478
2026-01-27 03:38:16.60	325.86	4.50	-38.0	-39.2	20.5	0.00e+00	123	31	0	1477443584	48	6383
2026-01-27 03:38:17.61	325.99	4.47	-38.0	-39.1	20.6	0.00e+00	123	31	0	1480589312	48	6334
2026-01-27 03:38:18.62	326.11	4.43	-38.3	-39.5	20.3	0.00e+00	123	31	0	1483735040	48	6610
2026-01-27 03:38:19.63	326.24	4.40	-38.3	-39.5	20.1	0.00e+00	123	31	0	1486880768	48	6606
2026-01-27 03:38:20.64	326.37	4.36	-38.1	-39.2	20.5	0.00e+00	120	31	0	1490026496	48	6403
2026-01-27 03:38:21.65	326.50	4.33	-38.1	-39.3	20.5	0.00e+00	122	31	0	1493172224	48	6453
2026-01-27 03:38:22.66	326.63	4.29	-38.4	-39.6	20.1	0.00e+00	123	31	0	1496317952	48	6712
2026-01-27 03:38:23.67	326.76	4.26	-38.5	-39.7	20.1	0.00e+00	123	31	0	1499463680	48	6750
2026-01-27 03:38:24.68	326.88	4.22	-38.4	-39.6	19.9	0.00e+00	122	31	0	1502609408	48	6652
2026-01-27 03:38:25.69	327.01	4.19	-38.3	-39.5	20.2	0.00e+00	123	31	0	1505755136	50	5892
2026-01-27 03:38:26.70	327.14	4.15	-37.9	-39.1	20.5	0.00e+00	123	31	0	1508900864	50	5618
2026-01-27 03:38:27.71	327.27	4.12	-38.2	-39.3	20.2	0.00e+00	123	31	0	1512046592	50	5788
2026-01-27 03:38:28.73	327.39	4.08	-38.8	-40.0	19.6	0.00e+00	123	31	0	1515192320	50	6272
2026-01-27 03:38:29.74	327.52	4.04	-38.5	-39.7	19.9	0.00e+00	122	31	0	1518338048	50	6037
2026-01-27 03:38:30.75	327.64	4.01	-38.8	-40.1	19.6	0.00e+00	122	31	0	1521483776	50	6289
2026-01-27 03:38:31.75	327.77	3.97	-38.8	-40.1	19.6	0.00e+00	121	31	0	1524629504	50	6278
2026-01-27 03:38:32.76	327.89	3.94	-38.1	-39.3	20.3	0.00e+00	123	31	0	1527775232	50	5772
2026-01-27 03:38:33.77	328.02	3.90	-38.1	-39.3	20.5	0.00e+00	121	31	0	1530920960	50	5729
2026-01-27 03:38:34.79	328.14	3.86	-38.0	-39.2	20.3	0.00e+00	123	31	0	1534066688	50	5674
2026-01-27 03:38:35.79	328.27	3.83	-38.5	-39.7	20.0	0.00e+00	120	31	0	1537212416	50	6024
2026-01-27 03:38:36.80	328.39	3.79	-38.4	-39.7	20.0	0.00e+00	123	31	0	1540358144	50	6012
2026-01-27 03:38:37.81	328.52	3.76	-38.6	-39.9	19.6	0.00e+00	122	31	0	1543503872	50	6136
2026-01-27 03:38:38.82	328.64	3.72	-38.4	-39.7	19.9	0.00e+00	122	31	0	1546649600	50	5998
2026-01-27 03:38:39.83	328.76	3.68	-37.9	-39.1	20.3	0.00e+00	123	31	0	1549795328	50	5608
2026-01-27 03:38:40.84	328.88	3.65	-38.1	-39.3	20.1	0.00e+00	122	31	0	1552941056	50	5729
2026-01-27 03:38:41.85	329.01	3.61	-38.0	-39.3	20.1	0.00e+00	123	31	0	1556086784	50	5729
2026-01-27 03:38:42.86	329.13	3.57	-38.2	-39.4	20.0	0.00e+00	122	31	0	1559232512	50	5853
2026-01-27 03:38:43.87	329.25	3.54	-38.5	-39.8	19.6	0.00e+00	123	31	0	1562378240	50	6082
2026-01-27 03:38:44.88	329.37	3.50	-38.2	-39.4	19.9	0.00e+00	123	31	0	1565523968	50	5830
2026-01-27 03:38:45.89	329.49	3.46	-38.6	-39.8	19.4	0.00e+00	123	31	0	1568669696	50	6134
2026-01-27 03:38:46.90	329.62	3.43	-38.7	-40.1	19.1	0.00e+00	122	31	0	1571815424	50	6278
2026-01-27 03:38:47.91	329.74	3.39	-38.7	-40.0	19.1	0.00e+00	122	31	0	1574961152	50	6227
2026-01-27 03:38:48.92	329.86	3.35	-38.9	-40.3	18.7	0.00e+00	123	31	0	1578106880	50	6456
2026-01-27 03:38:49.93	329.98	3.32	-39.2	-40.6	18.4	0.00e+00	123	31	0	1581252608	50	6708
2026-01-27 03:38:50.94	330.10	3.28	-39.6	-41.1	17.9	0.00e+00	123	31	0	1584398336	50	7117
2026-01-27 03:38:51.95	330.22	3.24	-40.0	-41.6	17.3	0.00e+00	123	31	0	1587544064	52	6680
2026-01-27 03:38:52.96	330.34	3.20	-39.8	-41.4	17.2	0.00e+00	123	31	0	1591738368	52	6565
2026-01-27 03:38:53.97	330.46	3.17	-40.5	-42.3	16.2	0.00e+00	123	31	0	1594884096	52	7246
2026-01-27 03:38:54.98	330.57	3.13	-40.8	-42.8	15.5	0.00e+00	123	31	0	1596981248	54	6842
2026-01-27 03:38:55.99	330.69	3.09	-40.9	-43.0	15.1	0.00e+00	122	31	0	1600126976	54	7014
2026-01-27 03:38:57.00	330.81	3.06	-41.3	-43.5	14.3	0.00e+00	122	31	0	1603272704	54	7430
2026-01-27 03:38:58.01	330.93	3.02	-42.1	-44.8	12.7	2.67e-05	122	31	0	1607467008	56	7684
2026-01-27 03:38:59.02	331.05	2.98	-48.0	-60.8	3.5	1.52e+00	0	31	104	1608515584	60	38691
2026-01-27 03:39:00.03	331.16	2.94	-48.4	-61.2	3.5	1.52e+00	0	31	104	1608515584	60	40274
2026-01-27 03:39:01.04	331.28	2.91	-48.6	-61.4	3.5	1.51e+00	0	31	104	1608515584	60	41278
2026-01-27 03:39:02.05	331.40	2.87	-48.8	-61.6	3.5	1.52e+00	0	31	104	1608515584	60	42035
2026-01-27 03:39:03.06	331.51	2.83	-48.9	-61.7	3.5	1.52e+00	0	31	104	1608515584	60	42736
2026-01-27 03:39:04.07	331.63	2.79	-49.0	-61.8	3.5	1.52e+00	0	31	104	1608515584	60	43278
2026-01-27 03:39:05.08	331.75	2.76	-49.0	-61.9	3.5	1.52e+00	0	31	104	1608515584	60	43784
2026-01-27 03:39:06.09	331.86	2.72	-49.1	-62.0	3.5	1.52e+00	0	31	104	1608515584	60	43985
2026-01-27 03:39:07.10	331.98	2.68	-49.1	-61.9	3.5	1.52e+00	0	31	104	1608515584	60	43914
2026-01-27 03:39:08.11	332.09	2.64	-49.2	-62.0	3.5	1.52e+00	0	31	104	1608515584	60	44123
2026-01-27 03:39:09.11	332.21	2.61	-49.2	-62.0	3.5	1.52e+00	0	31	104	1608515584	60	44161
2026-01-27 03:39:10.12	332.32	2.57	-49.2	-62.0	3.5	1.52e+00	0	31	104	1608515584	60	44206
2026-01-27 03:39:11.13	332.43	2.53	-49.2	-62.0	3.5	1.52e+00	0	31	104	1608515584	60	44327
2026-01-27 03:39:12.14	332.55	2.49	-49.1	-61.9	3.5	1.52e+00	0	31	104	1608515584	60	43838
2026-01-27 03:39:13.15	332.66	2.45	-49.0	-62.0	3.5	1.52e+00	0	31	104	1608515584	60	44211
2026-01-27 03:39:14.16	332.78	2.42	-48.7	-62.0	3.5	1.52e+00	0	31	104	1608515584	60	43956
2026-01-27 03:39:15.17	332.89	2.38	-48.6	-61.9	3.5	1.52e+00	0	31	104	1608515584	60	43494
2026-01-27 03:39:16.19	333.00	2.34	-48.8	-61.9	3.5	1.52e+00	0	31	104	1608515584	60	43643
2026-01-27 03:39:17.20	333.12	2.30	-49.0	-61.9	3.5	1.52e+00	0	31	104	1608515584	60	43851
2026-01-27 03:39:18.21	333.23	2.26	-49.0	-61.9	3.5	1.52e+00	0	31	104	1608515584	60	43555
2026-01-27 03:39:19.21	333.34	2.23	-48.9	-61.9	3.5	1.52e+00	0	31	104	1608515584	60	43512
2026-01-27 03:39:20.22	333.45	2.19	-48.8	-61.8	3.5	1.52e+00	0	31	104	1608515584	60	43288
2026-01-27 03:39:21.23	333.56	2.15	-49.0	-61.8	3.5	1.52e+00	0	31	104	1608515584	60	43354
2026-01-27 03:39:22.24	333.67	2.11	-49.0	-61.8	3.5	1.52e+00	0	31	104	1608515584	60	43418
2026-01-27 03:39:23.25	333.78	2.07	-49.0	-61.9	3.5	1.52e+00	0	31	104	1608515584	60	43737
2026-01-27 03:39:24.26	333.89	2.03	-49.0	-61.9	3.5	1.52e+00	0	31	104	1608515584	60	43519
2026-01-27 03:39:25.27	334.01	2.00	-49.0	-61.9	3.5	1.52e+00	0	31	104	1608515584	60	43597
2026-01-27 03:39:26.28	334.12	1.96	-49.0	-61.9	3.5	1.51e+00	0	31	104	1608515584	60	43476
2026-01-27 03:39:27.29	334.22	1.92	-49.0	-61.9	3.5	1.52e+00	0	31	104	1608515584	60	43456
2026-01-27 03:39:28.30	334.33	1.88	-49.0	-61.9	3.5	1.51e+00	0	31	104	1608515584	60	43508
2026-01-27 03:39:29.31	334.44	1.84	-49.0	-61.9	3.5	1.52e+00	0	31	104	1608515584	60	43460
2026-01-27 03:39:30.32	334.55	1.80	-49.0	-61.9	3.5	1.52e+00	0	31	104	1608515584	60	43433
2026-01-27 03:39:31.33	334.66	1.76	-49.0	-61.8	3.5	1.52e+00	0	31	104	1608515584	60	43308
2026-01-27 03:39:32.34	334.77	1.73	-49.0	-61.8	3.5	1.52e+00	0	31	104	1608515584	60	43240
2026-01-27 03:39:33.34	334.88	1.69	-49.0	-61.9	3.5	1.52e+00	0	31	104	1608515584	60	43508
2026-01-27 03:39:34.36	334.99	1.65	-49.0	-61.8	3.5	1.52e+00	0	31	104	1608515584	60	43240
2026-01-27 03:39:35.36	335.09	1.61	-49.0	-61.9	3.5	1.52e+00	0	31	104	1608515584	60	43472
2026-01-27 03:39:36.38	335.20	1.57	-49.0	-61.8	3.5	1.52e+00	0	31	104	1608515584	60	43398
2026-01-27 03:39:37.38	335.31	1.53	-49.0	-61.9	3.5	1.51e+00	0	31	104	1608515584	60	43511
2026-01-27 03:39:38.40	335.42	1.49	-49.0	-61.9	3.5	1.52e+00	0	31	104	1608515584	60	43456
2026-01-27 03:39:39.41	335.52	1.46	-49.0	-61.9	3.5	1.52e+00	0	31	104	1608515584	60	43515
2026-01-27 03:39:40.42	335.63	1.42	-49.0	-61.9	3.5	1.52e+00	0	31	104	1608515584	60	43460
2026-01-27 03:39:41.43	335.73	1.38	-49.0	-61.8	3.5	1.52e+00	0	31	104	1608515584	60	43327
2026-01-27 03:39:42.44	335.84	1.34	-49.0	-61.8	3.5	1.52e+00	0	31	104	1608515584	60	43298
2026-01-27 03:39:43.45	335.95	1.30	-49.0	-61.8	3.5	1.52e+00	0	31	104	1608515584	60	43393
2026-01-27 03:39:44.46	336.05	1.26	-49.0	-61.8	3.5	1.52e+00	0	31	104	1608515584	60	43379
2026-01-27 03:39:45.47	336.16	1.22	-49.0	-61.8	3.5	1.52e+00	0	31	104	1608515584	60	43301
2026-01-27 03:39:46.48	336.26	1.18	-49.0	-61.8	3.5	1.52e+00	0	31	104	1608515584	60	43421
2026-01-27 03:39:47.49	336.37	1.14	-49.0	-61.8	3.5	1.52e+00	0	31	104	1608515584	60	43406
2026-01-27 03:39:48.50	336.47	1.11	-49.0	-61.8	3.5	1.52e+00	0	31	104	1608515584	60	43379
2026-01-27 03:39:49.51	336.57	1.07	-49.0	-61.9	3.5	1.52e+00	0	31	104	1608515584	60	43435
2026-01-27 03:39:50.52	336.68	1.03	-49.0	-61.8	3.5	1.51e+00	0	31	104	1608515584	60	43429
2026-01-27 03:39:51.53	336.78	0.99	-49.0	-61.8	3.5	1.52e+00	0	31	104	1608515584	60	43416
2026-01-27 03:39:52.54	336.88	0.95	-49.0	-61.8	3.5	1.52e+00	0	31	104	1608515584	60	43308
2026-01-27 03:39:53.55	336.99	0.91	-49.0	-61.8	3.5	1.52e+00	0	31	104	1608515584	60	43397
2026-01-27 03:39:54.56	337.09	0.87	-49.0	-61.9	3.5	1.52e+00	0	31	104	1608515584	60	43476
2026-01-27 03:39:55.57	337.19	0.83	-49.0	-61.8	3.5	1.52e+00	0	31	104	1608515584	60	43363
2026-01-27 03:39:56.58	337.29	0.79	-49.0	-61.8	3.5	1.52e+00	0	31	104	1608515584	60	43295
2026-01-27 03:39:57.59	337.40	0.75	-49.0	-61.8	3.5	1.52e+00	0	31	104	1608515584	60	43372
2026-01-27 03:39:58.60	337.50	0.72	-49.0	-61.8	3.5	1.52e+00	0	31	104	1608515584	60	43145
2026-01-27 03:39:59.61	337.60	0.68	-49.0	-61.8	3.5	1.52e+00	0	31	104	1608515584	60	43249
2026-01-27 03:40:00.62	337.70	0.64	-49.0	-61.9	3.5	1.52e+00	0	31	104	1608515584	60	43434
2026-01-27 03:40:01.63	337.80	0.60	-49.0	-61.9	3.5	1.52e+00	0	31	104	1608515584	60	43538
2026-01-27 03:40:02.64	337.90	0.56	-49.0	-61.9	3.5	1.52e+00	0	31	104	1608515584	60	43485
2026-01-27 03:40:03.65	338.00	0.52	-49.0	-61.8	3.5	1.52e+00	0	31	104	1608515584	60	43380
2026-01-27 03:40:04.66	338.10	0.48	-49.0	-61.8	3.5	1.52e+00	0	31	104	1608515584	60	43384
2026-01-27 03:40:05.67	338.20	0.44	-49.0	-61.9	3.5	1.51e+00	0	31	104	1608515584	60	43521
2026-01-27 03:40:06.68	338.30	0.40	-49.0	-61.9	3.5	1.51e+00	0	31	104	1608515584	60	43474
2026-01-27 03:40:07.69	338.40	0.36	-49.0	-61.8	3.5	1.52e+00	0	31	104	1608515584	60	43311
2026-01-27 03:40:08.70	338.50	0.32	-49.0	-61.8	3.5	1.51e+00	0	31	104	1608515584	60	43347
2026-01-27 03:40:09.71	338.60	0.28	-49.0	-61.9	3.5	1.52e+00	0	31	104	1608515584	60	43511
2026-01-27 03:40:10.72	338.70	0.24	-49.0	-61.9	3.5	1.52e+00	0	31	104	1608515584	60	43518
2026-01-27 03:40:11.73	338.80	0.21	-49.0	-61.8	3.5	1.52e+00	0	31	104	1608515584	60	43413
2026-01-27 03:40:12.74	338.90	0.17	-49.0	-61.9	3.5	1.52e+00	0	31	104	1608515584	60	43478
2026-01-27 03:40:13.75	338.99	0.13	-49.0	-61.9	3.5	1.52e+00	0	31	104	1608515584	60	43552
2026-01-27 03:40:14.76	339.09	0.09	-49.0	-61.8	3.5	1.51e+00	0	31	104	1608515584	60	43372
2026-01-27 03:40:15.77	339.19	0.05	-49.0	-61.8	3.5	1.52e+00	0	31	104	1608515584	60	43257
2026-01-27 03:40:16.78	339.29	0.01	-49.0	-61.8	3.5	1.52e+00	0	31	104	1608515584	60	43235
2026-01-27 03:40:17.79	339.38	-0.03	-49.0	-61.9	3.5	1.52e+00	0	31	104	1608515584	60	43623
2026-01-27 03:40:18.80	339.48	-0.07	-49.0	-61.9	3.5	1.51e+00	0	31	104	1608515584	60	43683

#Closed at: 2026-01-27 03:40:19
#Recorded file [1608 MB]: D:/lorett/data/35029_260127_152907.dat