passes_logs/2026/01/27/R4.6S_Anadyr/R4.6S_Anadyr__20260127_031121_FENGYUN_3D_rec.log

#Pass ID: 20260127_031121_FENGYUN 3D
#Satellite: FENGYUN 3D
#Configuration: FENGYUN 3D
#almurnet v.1.7.20251203
#Start time: 2026-01-27 03:11:24

#Version: 2.2.20231116
#Station: R4.6S_Anadyr
#Location: 177.4865 lon 64.73178 lat
#TLE: 1 43010U 17072A   26026.49129444  .00000151  00000+0  93391-4 0  9993
#TLE: 2 43010  98.9962 358.4866 0002525  88.1664 271.9801 14.19700337424889

#Time	Az	El	Level	Level2	SNR	BER	BlckErr	Temp	State	Recorded	gain1	gain2
2026-01-27 03:11:24.19	179.08	0.18	-48.9	-59.6	3.3	8.40e-01	0	28	0	0	60	34559
2026-01-27 03:11:25.19	179.11	0.24	-49.0	-61.1	3.6	8.46e-01	0	28	104	0	60	41237
2026-01-27 03:11:26.20	179.14	0.30	-48.8	-61.1	3.6	8.46e-01	0	28	104	0	60	41015
2026-01-27 03:11:27.21	179.17	0.35	-48.9	-61.1	3.6	8.45e-01	0	28	104	0	60	40858
2026-01-27 03:11:28.22	179.20	0.41	-49.0	-61.1	3.6	8.45e-01	0	28	104	0	60	41132
2026-01-27 03:11:29.23	179.23	0.47	-49.0	-61.1	3.6	8.46e-01	0	28	104	0	60	41225
2026-01-27 03:11:30.24	179.27	0.53	-49.0	-61.2	3.6	8.44e-01	0	28	104	0	60	41324
2026-01-27 03:11:31.25	179.30	0.59	-49.0	-61.2	3.6	8.45e-01	0	28	104	0	60	41592
2026-01-27 03:11:32.26	179.33	0.65	-49.0	-61.2	3.6	8.46e-01	0	28	104	0	60	41623
2026-01-27 03:11:33.27	179.36	0.71	-49.1	-61.2	3.6	8.45e-01	0	28	104	0	60	41659
2026-01-27 03:11:34.28	179.39	0.77	-49.1	-61.2	3.6	8.46e-01	0	28	104	0	60	41338
2026-01-27 03:11:35.29	179.43	0.84	-49.0	-61.2	3.6	8.46e-01	0	28	104	0	60	41366
2026-01-27 03:11:36.29	179.46	0.90	-48.9	-61.1	3.6	8.45e-01	0	28	104	0	60	41192
2026-01-27 03:11:37.30	179.49	0.96	-49.0	-61.1	3.6	8.44e-01	0	28	104	0	60	41058
2026-01-27 03:11:38.31	179.53	1.02	-48.8	-61.0	3.6	8.46e-01	0	29	104	0	60	40695
2026-01-27 03:11:39.32	179.56	1.08	-48.8	-61.0	3.6	8.44e-01	0	29	104	0	60	40555
2026-01-27 03:11:40.33	179.59	1.14	-48.8	-60.9	3.6	8.45e-01	0	28	104	0	60	40015
2026-01-27 03:11:41.34	179.63	1.20	-48.7	-60.8	3.6	8.45e-01	0	29	104	0	60	39585
2026-01-27 03:11:42.35	179.66	1.26	-48.6	-60.6	3.6	8.45e-01	0	29	104	0	60	38908
2026-01-27 03:11:43.36	179.69	1.32	-48.4	-60.5	3.6	8.45e-01	0	28	104	0	60	38379
2026-01-27 03:11:44.37	179.73	1.38	-48.3	-60.4	3.6	8.45e-01	0	29	104	0	60	37694
2026-01-27 03:11:45.38	179.76	1.45	-48.0	-60.1	3.6	8.45e-01	0	29	104	0	60	36526
2026-01-27 03:11:46.39	179.79	1.51	-47.8	-59.8	3.6	8.45e-01	0	28	104	0	60	35241
2026-01-27 03:11:47.40	179.83	1.57	-47.8	-59.7	3.6	8.45e-01	0	29	104	0	60	35113
2026-01-27 03:11:48.41	179.86	1.63	-47.7	-59.7	3.6	8.47e-01	0	29	104	0	60	34741
2026-01-27 03:11:49.42	179.90	1.69	-47.7	-59.7	3.6	8.44e-01	0	29	104	0	60	34813
2026-01-27 03:11:50.43	179.93	1.76	-47.7	-59.6	3.6	8.45e-01	0	29	104	0	60	34699
2026-01-27 03:11:51.44	179.97	1.82	-47.7	-59.7	3.6	8.45e-01	0	29	104	0	60	34846
2026-01-27 03:11:52.45	180.00	1.88	-47.7	-59.7	3.6	8.46e-01	0	29	104	0	60	34910
2026-01-27 03:11:53.46	180.04	1.94	-47.7	-59.8	3.6	8.46e-01	0	29	104	0	60	35123
2026-01-27 03:11:54.47	180.07	2.01	-47.7	-59.7	3.6	8.45e-01	0	29	104	0	60	34749
2026-01-27 03:11:55.48	180.11	2.07	-47.7	-59.6	3.6	8.44e-01	0	29	104	0	60	34407
2026-01-27 03:11:56.49	180.14	2.13	-47.7	-59.7	3.6	8.46e-01	0	29	104	0	60	34974
2026-01-27 03:11:57.50	180.18	2.20	-47.7	-59.8	3.6	8.46e-01	0	29	104	0	60	35221
2026-01-27 03:11:58.51	180.21	2.26	-47.7	-59.8	3.6	8.45e-01	0	29	104	0	60	35490
2026-01-27 03:11:59.52	180.25	2.32	-47.7	-59.7	3.6	8.45e-01	0	29	104	0	60	34886
2026-01-27 03:12:00.53	180.28	2.39	-47.7	-59.1	3.6	8.46e-01	0	29	104	0	60	32665
2026-01-27 03:12:01.54	180.32	2.45	-47.6	-58.5	3.6	8.45e-01	0	29	104	0	60	30319
2026-01-27 03:12:02.55	180.36	2.51	-47.5	-57.4	3.6	8.44e-01	0	29	104	0	60	26937
2026-01-27 03:12:03.56	180.39	2.58	-47.5	-57.6	3.7	8.43e-01	0	29	104	0	60	27342
2026-01-27 03:12:04.57	180.43	2.64	-47.6	-57.9	3.6	8.42e-01	0	29	104	0	60	28268
2026-01-27 03:12:05.58	180.47	2.71	-47.7	-59.1	3.6	8.45e-01	0	29	104	0	60	32590
2026-01-27 03:12:06.59	180.50	2.77	-47.7	-59.1	3.6	8.46e-01	0	29	104	0	60	32731
2026-01-27 03:12:07.60	180.54	2.84	-47.2	-55.1	4.5	8.37e-01	0	29	104	0	60	20606
2026-01-27 03:12:08.61	180.58	2.90	-45.8	-49.6	8.8	2.20e-01	0	29	0	3145728	60	10855
2026-01-27 03:12:09.62	180.61	2.96	-44.2	-46.7	12.0	1.58e-03	0	29	0	8388608	60	7814
2026-01-27 03:12:10.63	180.65	3.03	-41.4	-42.8	16.1	0.00e+00	0	29	0	13631488	56	6313
2026-01-27 03:12:11.64	180.69	3.09	-39.9	-41.1	17.8	0.00e+00	0	29	0	19922944	54	5790
2026-01-27 03:12:12.65	180.73	3.16	-38.8	-39.8	18.9	0.00e+00	0	29	0	25165824	50	6269
2026-01-27 03:12:13.66	180.76	3.23	-37.3	-38.2	20.5	0.00e+00	0	29	0	31457280	48	5887
2026-01-27 03:12:14.67	180.80	3.29	-37.1	-38.0	21.0	0.00e+00	0	29	0	36700160	48	5714
2026-01-27 03:12:15.68	180.84	3.36	-36.1	-36.9	21.9	0.00e+00	0	29	0	41943040	46	5661
2026-01-27 03:12:16.69	180.88	3.42	-36.3	-37.2	21.5	0.00e+00	0	29	0	48234496	46	5835
2026-01-27 03:12:17.70	180.92	3.49	-36.5	-37.3	21.3	0.00e+00	0	29	0	53477376	44	6660
2026-01-27 03:12:18.71	180.95	3.56	-37.0	-37.8	20.9	0.00e+00	0	29	0	59768832	46	6308
2026-01-27 03:12:19.73	180.99	3.62	-36.5	-37.4	21.4	0.00e+00	0	29	0	65011712	46	5978
2026-01-27 03:12:20.74	181.03	3.69	-43.0	-45.0	10.0	1.10e-06	0	29	0	71303168	54	9104
2026-01-27 03:12:21.75	181.07	3.76	-36.4	-37.2	20.9	3.81e-02	0	29	0	75497472	48	5209
2026-01-27 03:12:22.76	181.11	3.82	-41.3	-42.7	16.0	0.00e+00	0	29	0	80740352	52	7814
2026-01-27 03:12:23.77	181.15	3.89	-41.6	-43.2	13.7	0.00e+00	0	29	0	87031808	50	9263
2026-01-27 03:12:24.78	181.19	3.96	-39.8	-40.9	18.5	4.54e-04	0	29	0	92274688	54	5665
2026-01-27 03:12:25.79	181.23	4.02	-38.3	-39.3	19.8	0.00e+00	0	29	0	97517568	50	5923
2026-01-27 03:12:26.80	181.27	4.09	-38.2	-39.1	19.8	0.00e+00	0	29	0	103809024	48	6516
2026-01-27 03:12:27.81	181.31	4.16	-37.8	-38.7	20.6	0.00e+00	0	29	0	109051904	48	6211
2026-01-27 03:12:28.82	181.35	4.23	-37.8	-38.7	20.4	0.00e+00	0	29	0	114294784	48	6237
2026-01-27 03:12:29.83	181.39	4.29	-37.3	-38.2	20.7	0.00e+00	0	29	0	120586240	48	5883
2026-01-27 03:12:30.85	181.43	4.36	-36.6	-37.5	21.2	0.00e+00	0	29	0	125829120	46	6055
2026-01-27 03:12:31.86	181.47	4.43	-37.0	-37.8	21.2	0.00e+00	0	29	0	132120576	46	6293
2026-01-27 03:12:32.87	181.51	4.50	-36.4	-37.2	21.7	0.00e+00	0	29	0	137363456	46	5868
2026-01-27 03:12:33.87	181.55	4.57	-36.9	-37.7	21.5	0.00e+00	0	29	0	142606336	46	6217
2026-01-27 03:12:34.89	181.59	4.64	-36.2	-37.1	22.2	0.00e+00	0	29	0	148897792	46	5764
2026-01-27 03:12:35.90	181.64	4.71	-36.9	-37.8	21.5	0.00e+00	0	29	0	154140672	46	6253
2026-01-27 03:12:36.91	181.68	4.77	-36.7	-37.6	21.4	0.00e+00	0	29	0	160432128	46	6115
2026-01-27 03:12:37.92	181.72	4.84	-36.4	-37.2	21.6	0.00e+00	0	29	0	165675008	46	5892
2026-01-27 03:12:38.93	181.76	4.91	-36.4	-37.2	21.5	0.00e+00	0	29	0	170917888	46	5859
2026-01-27 03:12:39.94	181.80	4.98	-36.7	-37.6	21.3	0.00e+00	0	29	0	177209344	46	6130
2026-01-27 03:12:40.95	181.85	5.05	-36.3	-37.1	21.8	0.00e+00	0	29	0	182452224	46	5785
2026-01-27 03:12:41.96	181.89	5.12	-35.9	-36.7	22.2	0.00e+00	0	29	0	188743680	44	6214
2026-01-27 03:12:42.97	181.93	5.19	-36.5	-37.3	21.5	0.00e+00	0	29	0	193986560	44	6683
2026-01-27 03:12:43.98	181.97	5.26	-36.6	-37.4	21.8	0.00e+00	0	29	0	200278016	46	6011
2026-01-27 03:12:44.99	182.02	5.33	-36.8	-37.7	21.6	0.00e+00	0	29	0	205520896	46	6176
2026-01-27 03:12:46.00	182.06	5.40	-36.4	-37.2	22.0	0.00e+00	0	29	0	210763776	46	5885
2026-01-27 03:12:47.01	182.10	5.47	-36.8	-37.6	21.5	0.00e+00	0	29	0	217055232	46	6151
2026-01-27 03:12:48.02	182.15	5.55	-36.0	-36.9	22.4	0.00e+00	0	29	0	222298112	46	5637
2026-01-27 03:12:49.03	182.19	5.62	-36.0	-36.8	22.3	0.00e+00	0	29	0	228589568	44	6275
2026-01-27 03:12:50.04	182.24	5.69	-35.3	-36.0	22.9	0.00e+00	0	29	0	233832448	44	5760
2026-01-27 03:12:51.05	182.28	5.76	-35.3	-36.1	23.0	0.00e+00	0	29	0	240123904	44	5767
2026-01-27 03:12:52.06	182.32	5.83	-34.9	-35.7	23.3	0.00e+00	0	29	0	245366784	44	5513
2026-01-27 03:12:53.07	182.37	5.90	-35.1	-35.8	23.2	0.00e+00	0	29	0	250609664	44	5609
2026-01-27 03:12:54.08	182.41	5.98	-35.1	-35.9	23.1	0.00e+00	0	29	0	256901120	44	5672
2026-01-27 03:12:55.09	182.46	6.05	-35.2	-35.9	23.0	0.00e+00	0	29	0	262144000	44	5695
2026-01-27 03:12:56.10	182.50	6.12	-35.0	-35.7	23.4	0.00e+00	0	29	0	267386880	42	6242
2026-01-27 03:12:57.11	182.55	6.19	-35.1	-35.8	23.3	0.00e+00	0	29	0	273678336	42	6282
2026-01-27 03:12:58.12	182.60	6.27	-35.2	-35.9	23.0	0.00e+00	0	29	0	278921216	42	6371
2026-01-27 03:12:59.13	182.64	6.34	-35.1	-35.8	23.3	0.00e+00	0	29	0	285212672	42	6313
2026-01-27 03:13:00.14	182.69	6.41	-34.8	-35.5	23.4	0.00e+00	0	29	0	290455552	42	6098
2026-01-27 03:13:01.15	182.73	6.48	-34.9	-35.7	23.3	0.00e+00	0	29	0	296747008	42	6182
2026-01-27 03:13:02.16	182.78	6.56	-34.7	-35.4	23.7	0.00e+00	0	29	0	301989888	42	5980
2026-01-27 03:13:03.17	182.83	6.63	-34.8	-35.5	23.5	0.00e+00	0	29	0	308281344	42	6087
2026-01-27 03:13:04.18	182.87	6.71	-35.1	-35.8	23.4	0.00e+00	0	29	0	313524224	42	6293
2026-01-27 03:13:05.19	182.92	6.78	-35.0	-35.8	23.3	0.00e+00	0	29	0	318767104	42	6247
2026-01-27 03:13:06.20	182.97	6.85	-34.8	-35.5	23.7	0.00e+00	0	29	0	325058560	42	6065
2026-01-27 03:13:07.21	183.02	6.93	-34.8	-35.5	23.6	0.00e+00	0	29	0	330301440	42	6063
2026-01-27 03:13:08.22	183.06	7.00	-34.6	-35.3	23.7	0.00e+00	0	29	0	336592896	42	5921
2026-01-27 03:13:09.23	183.11	7.08	-35.1	-35.8	23.4	0.00e+00	0	29	0	341835776	42	6279
2026-01-27 03:13:10.24	183.16	7.15	-35.0	-35.7	23.6	0.00e+00	0	29	0	347078656	42	6197
2026-01-27 03:13:11.25	183.21	7.23	-34.9	-35.6	23.6	0.00e+00	0	29	0	353370112	42	6146
2026-01-27 03:13:12.26	183.26	7.31	-34.6	-35.3	23.8	0.00e+00	0	29	0	358612992	42	5933
2026-01-27 03:13:13.27	183.31	7.38	-34.3	-35.0	24.2	0.00e+00	0	29	0	364904448	42	5728
2026-01-27 03:13:14.28	183.36	7.46	-33.9	-34.6	24.5	0.00e+00	0	29	0	370147328	42	5482
2026-01-27 03:13:15.29	183.41	7.53	-34.0	-34.7	24.4	0.00e+00	0	29	0	375390208	42	5553
2026-01-27 03:13:16.30	183.46	7.61	-33.8	-34.5	24.6	0.00e+00	0	29	0	381681664	42	5426
2026-01-27 03:13:17.31	183.51	7.69	-33.9	-34.6	24.6	0.00e+00	0	29	0	386924544	40	6123
2026-01-27 03:13:18.32	183.56	7.76	-33.8	-34.5	24.5	0.00e+00	0	29	0	393216000	40	6048
2026-01-27 03:13:19.34	183.61	7.84	-33.9	-34.6	24.6	0.00e+00	0	29	0	398458880	40	6145
2026-01-27 03:13:20.35	183.66	7.92	-34.0	-34.7	24.5	0.00e+00	0	29	0	404750336	40	6176
2026-01-27 03:13:21.36	183.71	8.00	-34.0	-34.7	24.5	0.00e+00	0	29	0	409993216	40	6177
2026-01-27 03:13:22.36	183.76	8.07	-34.0	-34.7	24.4	0.00e+00	0	29	0	416284672	40	6232
2026-01-27 03:13:23.37	183.81	8.15	-34.1	-34.8	24.3	0.00e+00	0	29	0	421527552	40	6295
2026-01-27 03:13:24.38	183.86	8.23	-33.8	-34.5	24.6	0.00e+00	0	29	0	426770432	40	6061
2026-01-27 03:13:25.39	183.92	8.31	-33.9	-34.6	24.5	0.00e+00	0	29	0	433061888	40	6120
2026-01-27 03:13:26.41	183.97	8.39	-33.8	-34.5	24.6	0.00e+00	0	29	0	438304768	40	6060
2026-01-27 03:13:27.41	184.02	8.47	-33.9	-34.6	24.6	0.00e+00	0	29	0	444596224	40	6138
2026-01-27 03:13:28.42	184.07	8.54	-34.1	-34.8	24.5	0.00e+00	0	29	0	449839104	40	6300
2026-01-27 03:13:29.44	184.13	8.62	-33.9	-34.6	24.6	0.00e+00	0	29	0	455081984	40	6159
2026-01-27 03:13:30.44	184.18	8.70	-33.7	-34.4	24.7	0.00e+00	0	29	0	461373440	40	6016
2026-01-27 03:13:31.45	184.23	8.78	-33.8	-34.5	24.6	0.00e+00	0	29	0	466616320	40	6061
2026-01-27 03:13:32.46	184.29	8.86	-34.0	-34.7	24.5	0.00e+00	0	29	0	472907776	40	6199
2026-01-27 03:13:33.47	184.34	8.94	-33.9	-34.6	24.7	0.00e+00	0	29	0	478150656	40	6107
2026-01-27 03:13:34.48	184.40	9.02	-33.8	-34.5	24.7	0.00e+00	0	29	0	483393536	40	6065
2026-01-27 03:13:35.49	184.45	9.11	-33.8	-34.4	24.7	0.00e+00	0	29	0	489684992	40	6026
2026-01-27 03:13:36.50	184.51	9.19	-33.8	-34.5	24.7	0.00e+00	0	29	0	494927872	40	6087
2026-01-27 03:13:37.51	184.56	9.27	-33.6	-34.3	24.9	0.00e+00	0	29	0	501219328	40	5943
2026-01-27 03:13:38.52	184.62	9.35	-33.6	-34.3	24.9	0.00e+00	0	29	0	506462208	40	5926
2026-01-27 03:13:39.53	184.67	9.43	-33.7	-34.4	24.8	0.00e+00	0	29	0	512753664	40	5997
2026-01-27 03:13:40.54	184.73	9.51	-33.5	-34.2	25.0	0.00e+00	0	29	0	517996544	40	5832
2026-01-27 03:13:41.55	184.79	9.59	-33.4	-34.0	25.0	0.00e+00	0	29	0	524288000	40	5756
2026-01-27 03:13:42.56	184.84	9.68	-33.5	-34.1	25.0	0.00e+00	0	29	0	529530880	40	5826
2026-01-27 03:13:43.57	184.90	9.76	-33.5	-34.1	25.0	0.00e+00	0	29	0	534773760	40	5799
2026-01-27 03:13:44.59	184.96	9.84	-33.6	-34.3	24.9	0.00e+00	0	29	0	541065216	40	5898
2026-01-27 03:13:45.60	185.02	9.93	-33.4	-34.0	25.1	0.00e+00	0	29	0	546308096	40	5758
2026-01-27 03:13:46.61	185.07	10.01	-33.5	-34.1	25.0	0.00e+00	0	29	0	552599552	40	5824
2026-01-27 03:13:47.62	185.13	10.09	-33.3	-34.0	25.2	0.00e+00	0	29	0	557842432	40	5735
2026-01-27 03:13:48.63	185.19	10.18	-33.2	-33.9	25.2	0.00e+00	0	29	0	563085312	40	5666
2026-01-27 03:13:49.64	185.25	10.26	-33.4	-34.0	25.1	0.00e+00	0	29	0	569376768	40	5756
2026-01-27 03:13:50.65	185.31	10.35	-33.2	-33.9	25.2	0.00e+00	0	29	0	574619648	40	5672
2026-01-27 03:13:51.66	185.37	10.43	-33.3	-34.0	25.1	0.00e+00	0	29	0	580911104	40	5733
2026-01-27 03:13:52.67	185.43	10.52	-33.2	-33.9	25.3	0.00e+00	0	29	0	586153984	40	5638
2026-01-27 03:13:53.68	185.49	10.60	-33.2	-33.9	25.3	0.00e+00	0	29	0	591396864	40	5642
2026-01-27 03:13:54.69	185.55	10.69	-33.3	-34.0	25.2	0.00e+00	0	29	0	597688320	40	5696
2026-01-27 03:13:55.70	185.61	10.77	-33.2	-33.8	25.3	0.00e+00	0	29	0	602931200	40	5611
2026-01-27 03:13:56.71	185.67	10.86	-33.1	-33.8	25.4	0.00e+00	0	29	0	609222656	40	5568
2026-01-27 03:13:57.72	185.73	10.95	-33.2	-33.8	25.3	0.00e+00	0	29	0	614465536	40	5610
2026-01-27 03:13:58.72	185.80	11.03	-33.1	-33.8	25.3	0.00e+00	0	29	0	620756992	40	5602
2026-01-27 03:13:59.73	185.86	11.12	-33.4	-34.0	25.2	0.00e+00	0	29	0	625999872	40	5752
2026-01-27 03:14:00.75	185.92	11.21	-33.3	-33.9	25.2	0.00e+00	0	29	0	631242752	40	5679
2026-01-27 03:14:01.76	185.98	11.30	-33.1	-33.8	25.4	0.00e+00	0	29	0	637534208	40	5582
2026-01-27 03:14:02.77	186.05	11.38	-33.2	-33.9	25.3	0.00e+00	0	29	0	642777088	40	5660
2026-01-27 03:14:03.78	186.11	11.47	-33.4	-34.0	25.2	0.00e+00	0	29	0	649068544	40	5760
2026-01-27 03:14:04.79	186.18	11.56	-33.3	-34.0	25.2	0.00e+00	0	29	0	654311424	40	5707
2026-01-27 03:14:05.80	186.24	11.65	-33.4	-34.1	25.2	0.00e+00	0	29	0	660602880	40	5762
2026-01-27 03:14:06.81	186.30	11.74	-33.3	-34.0	25.3	0.00e+00	0	29	0	665845760	40	5711
2026-01-27 03:14:07.82	186.37	11.83	-33.4	-34.0	25.2	0.00e+00	0	29	0	671088640	40	5760
2026-01-27 03:14:08.83	186.44	11.92	-33.3	-34.0	25.2	0.00e+00	0	29	0	677380096	40	5714
2026-01-27 03:14:09.83	186.50	12.01	-33.2	-33.9	25.3	0.00e+00	0	29	0	682622976	40	5637
2026-01-27 03:14:10.84	186.57	12.10	-33.2	-33.9	25.5	0.00e+00	0	29	0	687865856	40	5638
2026-01-27 03:14:11.85	186.63	12.19	-33.3	-33.9	25.3	0.00e+00	0	29	0	694157312	40	5677
2026-01-27 03:14:12.86	186.70	12.28	-33.2	-33.9	25.4	0.00e+00	0	29	0	699400192	40	5652
2026-01-27 03:14:13.87	186.77	12.37	-33.2	-33.8	25.4	0.00e+00	0	29	0	705691648	40	5624
2026-01-27 03:14:14.88	186.84	12.46	-33.0	-33.7	25.5	0.00e+00	0	29	0	710934528	40	5511
2026-01-27 03:14:15.89	186.90	12.55	-32.9	-33.6	25.7	0.00e+00	0	29	0	717225984	40	5442
2026-01-27 03:14:16.90	186.97	12.64	-32.9	-33.6	25.6	0.00e+00	0	29	0	722468864	40	5447
2026-01-27 03:14:17.91	187.04	12.74	-32.9	-33.6	25.6	0.00e+00	0	29	0	728760320	40	5447
2026-01-27 03:14:18.92	187.11	12.83	-32.8	-33.5	25.8	0.00e+00	0	29	0	734003200	40	5406
2026-01-27 03:14:19.94	187.18	12.92	-32.9	-33.6	25.6	0.00e+00	0	29	0	739246080	40	5455
2026-01-27 03:14:20.95	187.25	13.02	-32.8	-33.5	25.7	0.00e+00	0	29	0	745537536	40	5386
2026-01-27 03:14:21.96	187.32	13.11	-33.0	-33.6	25.6	0.00e+00	0	30	0	750780416	40	5491
2026-01-27 03:14:22.97	187.40	13.20	-32.8	-33.5	25.8	0.00e+00	0	29	0	757071872	40	5388
2026-01-27 03:14:23.98	187.47	13.30	-32.9	-33.6	25.7	0.00e+00	0	29	0	762314752	40	5459
2026-01-27 03:14:24.99	187.54	13.39	-33.0	-33.6	25.6	0.00e+00	0	29	0	767557632	40	5476
2026-01-27 03:14:26.00	187.61	13.49	-33.1	-33.8	25.5	0.00e+00	0	29	0	773849088	40	5581
2026-01-27 03:14:27.01	187.68	13.58	-32.8	-33.5	25.8	0.00e+00	0	29	0	779091968	40	5379
2026-01-27 03:14:28.02	187.76	13.68	-33.0	-33.6	25.7	0.00e+00	0	29	0	785383424	40	5479
2026-01-27 03:14:29.03	187.83	13.77	-32.9	-33.6	25.7	0.00e+00	0	29	0	790626304	40	5447
2026-01-27 03:14:30.04	187.91	13.87	-33.0	-33.7	25.6	0.00e+00	0	29	0	795869184	40	5509
2026-01-27 03:14:31.05	187.98	13.97	-32.8	-33.4	25.9	0.00e+00	0	29	0	802160640	40	5364
2026-01-27 03:14:32.06	188.06	14.06	-32.7	-33.4	25.9	0.00e+00	0	29	0	807403520	38	5989
2026-01-27 03:14:33.07	188.13	14.16	-32.8	-33.4	25.8	0.00e+00	0	29	0	813694976	38	6023
2026-01-27 03:14:34.08	188.21	14.26	-32.7	-33.3	26.0	0.00e+00	0	29	0	818937856	38	5964
2026-01-27 03:14:35.08	188.28	14.36	-32.6	-33.3	26.0	0.00e+00	0	29	0	825229312	38	5900
2026-01-27 03:14:36.10	188.36	14.46	-32.5	-33.1	26.1	0.00e+00	0	29	0	830472192	38	5822
2026-01-27 03:14:37.10	188.44	14.55	-32.4	-33.1	26.1	0.00e+00	0	29	0	836763648	38	5778
2026-01-27 03:14:38.12	188.52	14.65	-32.6	-33.2	26.0	0.00e+00	0	29	0	842006528	38	5890
2026-01-27 03:14:39.12	188.60	14.75	-32.5	-33.1	26.2	0.00e+00	0	29	0	847249408	38	5785
2026-01-27 03:14:40.14	188.68	14.85	-32.4	-33.0	26.2	0.00e+00	0	29	0	853540864	38	5735
2026-01-27 03:14:41.15	188.76	14.95	-32.4	-33.1	26.1	0.00e+00	0	29	0	858783744	38	5794
2026-01-27 03:14:42.16	188.84	15.05	-32.3	-32.9	26.3	0.00e+00	0	29	0	865075200	38	5691
2026-01-27 03:14:43.17	188.92	15.16	-32.5	-33.1	26.1	0.00e+00	0	29	0	870318080	38	5795
2026-01-27 03:14:44.18	189.00	15.26	-32.4	-33.0	26.2	0.00e+00	0	29	0	875560960	38	5728
2026-01-27 03:14:45.19	189.08	15.36	-32.4	-33.1	26.2	0.00e+00	0	29	0	881852416	38	5798
2026-01-27 03:14:46.20	189.16	15.46	-32.1	-32.8	26.4	0.00e+00	0	29	0	887095296	38	5592
2026-01-27 03:14:47.21	189.24	15.56	-32.2	-32.8	26.4	0.00e+00	0	29	0	893386752	38	5608
2026-01-27 03:14:48.22	189.33	15.67	-32.1	-32.7	26.5	0.00e+00	0	29	0	898629632	38	5529
2026-01-27 03:14:49.23	189.41	15.77	-32.0	-32.7	26.5	0.00e+00	0	29	0	903872512	38	5516
2026-01-27 03:14:50.24	189.50	15.87	-31.8	-32.4	26.7	0.00e+00	0	29	0	910163968	38	5376
2026-01-27 03:14:51.25	189.58	15.98	-31.9	-32.6	26.7	0.00e+00	0	29	0	915406848	38	5470
2026-01-27 03:14:52.26	189.67	16.08	-31.7	-32.3	26.8	0.00e+00	0	29	0	921698304	36	5916
2026-01-27 03:14:53.27	189.75	16.19	-31.9	-32.5	26.6	0.00e+00	0	29	0	926941184	36	6077
2026-01-27 03:14:54.28	189.84	16.29	-31.7	-32.3	26.9	0.00e+00	0	29	0	933232640	36	5903
2026-01-27 03:14:55.29	189.93	16.40	-31.4	-32.0	27.1	0.00e+00	0	29	0	938475520	36	5737
2026-01-27 03:14:56.30	190.01	16.50	-31.3	-31.9	27.1	0.00e+00	0	29	0	943718400	36	5692
2026-01-27 03:14:57.31	190.10	16.61	-31.4	-32.0	27.0	0.00e+00	0	29	0	950009856	36	5738
2026-01-27 03:14:58.32	190.19	16.72	-31.4	-32.0	27.1	0.00e+00	0	29	0	955252736	36	5728
2026-01-27 03:14:59.33	190.28	16.82	-31.5	-32.1	26.9	0.00e+00	0	29	0	961544192	36	5804
2026-01-27 03:15:00.34	190.37	16.93	-31.5	-32.1	27.0	0.00e+00	0	29	0	966787072	36	5783
2026-01-27 03:15:01.35	190.46	17.04	-31.5	-32.1	27.0	0.00e+00	0	29	0	973078528	36	5768
2026-01-27 03:15:02.36	190.55	17.15	-31.5	-32.1	26.9	0.00e+00	0	29	0	978321408	36	5797
2026-01-27 03:15:03.37	190.65	17.25	-31.4	-32.1	27.0	0.00e+00	0	29	0	983564288	36	5768
2026-01-27 03:15:04.38	190.74	17.36	-31.5	-32.1	26.9	0.00e+00	0	29	0	989855744	36	5774
2026-01-27 03:15:05.39	190.83	17.47	-31.5	-32.1	27.0	0.00e+00	0	29	0	995098624	36	5789
2026-01-27 03:15:06.41	190.93	17.58	-31.3	-31.9	27.2	0.00e+00	0	29	0	1001390080	36	5666
2026-01-27 03:15:07.42	191.02	17.70	-31.3	-32.0	27.1	0.00e+00	0	29	0	1006632960	36	5712
2026-01-27 03:15:08.43	191.12	17.81	-31.2	-31.8	27.2	0.00e+00	0	30	0	1011875840	36	5628
2026-01-27 03:15:09.44	191.21	17.92	-31.3	-32.0	27.1	0.00e+00	0	29	0	1018167296	36	5708
2026-01-27 03:15:10.45	191.31	18.03	-31.3	-31.9	27.1	0.00e+00	0	29	0	1023410176	36	5686
2026-01-27 03:15:11.46	191.41	18.14	-31.3	-31.9	27.2	0.00e+00	0	29	0	1029701632	36	5652
2026-01-27 03:15:12.47	191.51	18.25	-31.4	-32.0	27.1	0.00e+00	0	30	0	1034944512	36	5720
2026-01-27 03:15:13.48	191.61	18.37	-31.3	-31.9	27.2	0.00e+00	0	29	0	1041235968	36	5685
2026-01-27 03:15:14.49	191.70	18.48	-31.3	-31.9	27.2	0.00e+00	0	29	0	1046478848	36	5655
2026-01-27 03:15:15.50	191.81	18.59	-31.2	-31.9	27.2	0.00e+00	0	29	0	1052770304	36	5634
2026-01-27 03:15:16.52	191.91	18.71	-31.2	-31.8	27.2	0.00e+00	0	29	0	1058013184	36	5625
2026-01-27 03:15:17.53	192.01	18.83	-31.1	-31.7	27.3	0.00e+00	0	29	0	1063256064	36	5550
2026-01-27 03:15:18.53	192.11	18.94	-31.1	-31.7	27.4	0.00e+00	0	29	0	1069547520	36	5515
2026-01-27 03:15:19.55	192.21	19.06	-31.1	-31.7	27.2	0.00e+00	0	29	0	1074790400	36	5535
2026-01-27 03:15:20.56	192.32	19.17	-31.1	-31.7	27.4	0.00e+00	0	29	0	1081081856	36	5524
2026-01-27 03:15:21.57	192.42	19.29	-31.1	-31.7	27.4	0.00e+00	0	30	0	1086324736	36	5512
2026-01-27 03:15:22.58	192.53	19.41	-30.9	-31.5	27.5	0.00e+00	0	30	0	1091567616	36	5433
2026-01-27 03:15:23.59	192.64	19.52	-30.9	-31.5	27.4	0.00e+00	0	29	0	1097859072	36	5403
2026-01-27 03:15:24.60	192.74	19.64	-30.9	-31.5	27.4	0.00e+00	0	30	0	1103101952	36	5411
2026-01-27 03:15:25.61	192.85	19.76	-31.1	-31.7	27.4	0.00e+00	0	30	0	1109393408	36	5532
2026-01-27 03:15:26.62	192.96	19.88	-30.9	-31.5	27.5	0.00e+00	0	29	0	1114636288	36	5439
2026-01-27 03:15:27.63	193.07	20.00	-31.0	-31.6	27.4	0.00e+00	0	29	0	1119879168	36	5501
2026-01-27 03:15:28.64	193.18	20.12	-31.1	-31.7	27.4	0.00e+00	0	30	0	1126170624	36	5512
2026-01-27 03:15:29.65	193.29	20.24	-30.9	-31.5	27.5	0.00e+00	0	30	0	1131413504	36	5429
2026-01-27 03:15:30.66	193.40	20.36	-31.0	-31.6	27.3	0.00e+00	0	30	0	1137704960	36	5489
2026-01-27 03:15:31.67	193.52	20.48	-30.9	-31.5	27.5	0.00e+00	0	30	0	1142947840	36	5416
2026-01-27 03:15:32.68	193.63	20.60	-30.9	-31.6	27.5	0.00e+00	0	30	0	1149239296	36	5440
2026-01-27 03:15:33.69	193.74	20.73	-31.0	-31.6	27.5	0.00e+00	0	30	0	1154482176	36	5447
2026-01-27 03:15:34.70	193.86	20.85	-30.7	-31.3	27.7	0.00e+00	0	29	0	1160773632	34	5924
2026-01-27 03:15:35.71	193.98	20.97	-30.5	-31.2	27.9	0.00e+00	0	30	0	1166016512	34	5830
2026-01-27 03:15:36.72	194.09	21.10	-30.6	-31.2	27.8	0.00e+00	0	30	0	1171259392	34	5838
2026-01-27 03:15:37.73	194.21	21.22	-30.6	-31.2	27.8	0.00e+00	0	29	0	1177550848	34	5839
2026-01-27 03:15:38.74	194.33	21.35	-30.4	-31.0	27.9	0.00e+00	0	30	0	1182793728	34	5724
2026-01-27 03:15:39.75	194.45	21.47	-30.5	-31.1	27.8	0.00e+00	0	30	0	1189085184	34	5774
2026-01-27 03:15:40.76	194.57	21.60	-30.5	-31.1	27.8	0.00e+00	0	30	0	1194328064	34	5771
2026-01-27 03:15:41.77	194.69	21.72	-30.5	-31.1	27.8	0.00e+00	0	30	0	1199570944	34	5796
2026-01-27 03:15:42.78	194.82	21.85	-30.5	-31.1	27.8	0.00e+00	0	30	0	1205862400	34	5827
2026-01-27 03:15:43.79	194.94	21.98	-30.5	-31.1	27.9	0.00e+00	0	29	0	1211105280	34	5807
2026-01-27 03:15:44.80	195.07	22.10	-30.5	-31.1	27.7	0.00e+00	0	30	0	1217396736	34	5800
2026-01-27 03:15:45.81	195.19	22.23	-30.3	-30.9	27.9	0.00e+00	0	30	0	1222639616	34	5694
2026-01-27 03:15:46.82	195.32	22.36	-30.3	-30.9	27.9	0.00e+00	0	29	0	1227882496	34	5687
2026-01-27 03:15:47.83	195.45	22.49	-30.4	-31.0	27.9	0.00e+00	0	30	0	1234173952	34	5722
2026-01-27 03:15:48.84	195.57	22.62	-30.3	-30.9	28.0	0.00e+00	0	30	0	1239416832	34	5656
2026-01-27 03:15:49.85	195.70	22.75	-30.2	-30.8	28.0	0.00e+00	0	30	0	1245708288	34	5625
2026-01-27 03:15:50.86	195.84	22.88	-30.2	-30.8	28.0	0.00e+00	0	29	0	1250951168	34	5585
2026-01-27 03:15:51.88	195.97	23.02	-30.3	-30.9	28.0	0.00e+00	0	29	0	1257242624	34	5644
2026-01-27 03:15:52.88	196.10	23.15	-30.3	-31.0	28.0	0.00e+00	0	30	0	1262485504	34	5698
2026-01-27 03:15:53.89	196.24	23.28	-30.2	-30.8	28.1	0.00e+00	0	30	0	1267728384	34	5581
2026-01-27 03:15:54.90	196.37	23.41	-30.2	-30.8	28.0	0.00e+00	0	29	0	1274019840	34	5599
2026-01-27 03:15:55.91	196.51	23.54	-30.1	-30.7	28.1	0.00e+00	0	29	0	1279262720	34	5550
2026-01-27 03:15:56.92	196.65	23.68	-30.1	-30.8	28.1	0.00e+00	0	30	0	1285554176	34	5591
2026-01-27 03:15:57.93	196.78	23.81	-30.1	-30.7	28.1	0.00e+00	0	30	0	1290797056	34	5562
2026-01-27 03:15:58.94	196.92	23.95	-30.2	-30.8	28.1	0.00e+00	0	29	0	1296039936	34	5606
2026-01-27 03:15:59.96	197.07	24.09	-30.2	-30.7	28.1	0.00e+00	0	30	0	1302331392	34	5564
2026-01-27 03:16:00.97	197.21	24.22	-30.2	-30.8	28.0	0.00e+00	0	30	0	1307574272	34	5628
2026-01-27 03:16:01.98	197.35	24.36	-30.3	-30.9	28.0	0.00e+00	0	30	0	1313865728	34	5652
2026-01-27 03:16:02.99	197.50	24.50	-30.3	-30.9	28.0	0.00e+00	0	30	0	1319108608	34	5661
2026-01-27 03:16:04.00	197.64	24.63	-30.0	-30.6	28.2	0.00e+00	0	30	0	1325400064	34	5465
2026-01-27 03:16:05.01	197.79	24.77	-30.0	-30.6	28.2	0.00e+00	0	29	0	1330642944	34	5464
2026-01-27 03:16:06.02	197.94	24.91	-29.9	-30.5	28.3	0.00e+00	0	29	0	1335885824	34	5407
2026-01-27 03:16:07.03	198.09	25.05	-29.7	-30.3	28.4	0.00e+00	0	30	0	1342177280	34	5308
2026-01-27 03:16:08.04	198.24	25.19	-29.7	-30.3	28.4	0.00e+00	0	29	0	1347420160	32	5945
2026-01-27 03:16:09.05	198.39	25.33	-29.9	-30.5	28.3	0.00e+00	0	29	0	1353711616	32	6087
2026-01-27 03:16:10.06	198.55	25.47	-29.9	-30.5	28.3	0.00e+00	0	30	0	1358954496	32	6071
2026-01-27 03:16:11.07	198.70	25.61	-29.8	-30.4	28.3	0.00e+00	0	30	0	1365245952	32	5968
2026-01-27 03:16:12.08	198.86	25.76	-29.9	-30.5	28.3	0.00e+00	0	30	0	1370488832	32	6046
2026-01-27 03:16:13.09	199.02	25.90	-29.9	-30.5	28.3	0.00e+00	0	30	0	1375731712	32	6053
2026-01-27 03:16:14.10	199.17	26.04	-30.0	-30.6	28.2	0.00e+00	0	30	0	1382023168	32	6163
2026-01-27 03:16:15.11	199.33	26.19	-30.1	-30.7	28.1	0.00e+00	0	30	0	1387266048	32	6231
2026-01-27 03:16:16.12	199.50	26.33	-30.1	-30.7	28.2	0.00e+00	0	30	0	1393557504	32	6186
2026-01-27 03:16:17.13	199.66	26.47	-30.0	-30.7	28.2	0.00e+00	0	30	0	1398800384	32	6181
2026-01-27 03:16:18.14	199.83	26.62	-30.0	-30.6	28.2	0.00e+00	0	30	0	1404043264	32	6111
2026-01-27 03:16:19.15	199.99	26.77	-29.8	-30.4	28.4	0.00e+00	0	30	0	1410334720	32	5978
2026-01-27 03:16:20.16	200.16	26.91	-30.0	-30.6	28.3	0.00e+00	0	29	0	1415577600	32	6155
2026-01-27 03:16:21.17	200.33	27.06	-29.7	-30.3	28.4	0.00e+00	0	30	0	1421869056	32	5925
2026-01-27 03:16:22.18	200.50	27.21	-29.8	-30.4	28.4	0.00e+00	0	29	0	1427111936	32	5981
2026-01-27 03:16:23.19	200.67	27.35	-29.7	-30.3	28.4	0.00e+00	0	29	0	1432354816	32	5952
2026-01-27 03:16:24.20	200.85	27.50	-29.6	-30.2	28.6	0.00e+00	0	30	0	1438646272	32	5868
2026-01-27 03:16:25.21	201.02	27.65	-29.6	-30.2	28.5	0.00e+00	0	29	0	1443889152	32	5872
2026-01-27 03:16:26.22	201.20	27.80	-29.6	-30.2	28.5	0.00e+00	0	29	0	1450180608	32	5869
2026-01-27 03:16:27.24	201.38	27.95	-29.7	-30.3	28.4	0.00e+00	0	30	0	1455423488	32	5915
2026-01-27 03:16:28.24	201.56	28.10	-29.8	-30.4	28.4	0.00e+00	0	30	0	1461714944	32	5980
2026-01-27 03:16:29.26	201.74	28.26	-29.8	-30.4	28.4	0.00e+00	0	30	0	1466957824	32	5978
2026-01-27 03:16:30.27	201.93	28.41	-29.8	-30.4	28.4	0.00e+00	0	30	0	1473249280	32	5985
2026-01-27 03:16:31.27	202.11	28.56	-29.8	-30.4	28.3	0.00e+00	0	30	0	1478492160	32	5985
2026-01-27 03:16:32.29	202.30	28.71	-29.8	-30.4	28.4	0.00e+00	0	30	0	1483735040	32	5974
2026-01-27 03:16:33.29	202.49	28.86	-29.8	-30.4	28.4	0.00e+00	0	30	0	1490026496	32	5994
2026-01-27 03:16:34.30	202.68	29.02	-29.6	-30.2	28.5	0.00e+00	0	29	0	1495269376	32	5887
2026-01-27 03:16:35.31	202.87	29.17	-29.6	-30.2	28.5	0.00e+00	0	29	0	1501560832	32	5877
2026-01-27 03:16:36.32	203.06	29.33	-29.8	-30.3	28.4	0.00e+00	0	30	0	1506803712	32	5956
2026-01-27 03:16:37.33	203.26	29.48	-29.7	-30.3	28.4	0.00e+00	0	30	0	1512046592	32	5940
2026-01-27 03:16:38.34	203.46	29.64	-30.0	-30.5	28.3	0.00e+00	0	29	0	1518338048	32	6100
2026-01-27 03:16:39.35	203.66	29.79	-29.8	-30.4	28.4	0.00e+00	0	29	0	1523580928	32	5992
2026-01-27 03:16:40.36	203.86	29.95	-29.6	-30.2	28.5	0.00e+00	0	29	0	1529872384	32	5893
2026-01-27 03:16:41.37	204.06	30.11	-29.8	-30.4	28.3	0.00e+00	0	29	0	1535115264	32	5976
2026-01-27 03:16:42.38	204.27	30.27	-29.7	-30.3	28.4	0.00e+00	0	29	0	1540358144	32	5926
2026-01-27 03:16:43.39	204.48	30.42	-29.7	-30.4	28.2	0.00e+00	0	30	0	1546649600	32	5978
2026-01-27 03:16:44.40	204.69	30.58	-29.6	-30.2	28.4	0.00e+00	0	29	0	1551892480	32	5890
2026-01-27 03:16:45.41	204.90	30.74	-29.8	-30.4	28.4	0.00e+00	0	29	0	1558183936	32	5985
2026-01-27 03:16:46.42	205.11	30.90	-29.7	-30.3	28.4	0.00e+00	0	30	0	1563426816	32	5923
2026-01-27 03:16:47.43	205.33	31.06	-29.7	-30.3	28.4	0.00e+00	0	30	0	1569718272	32	5959
2026-01-27 03:16:48.43	205.54	31.22	-29.6	-30.2	28.5	0.00e+00	0	30	0	1574961152	32	5888
2026-01-27 03:16:49.44	205.76	31.38	-29.5	-30.1	28.6	0.00e+00	0	30	0	1580204032	32	5800
2026-01-27 03:16:50.45	205.99	31.54	-29.5	-30.1	28.6	0.00e+00	0	30	0	1586495488	32	5763
2026-01-27 03:16:51.46	206.21	31.70	-29.3	-29.9	28.7	0.00e+00	0	30	0	1591738368	32	5676
2026-01-27 03:16:52.47	206.44	31.87	-29.3	-29.9	28.7	0.00e+00	0	30	0	1598029824	32	5665
2026-01-27 03:16:53.48	206.67	32.03	-29.4	-30.0	28.7	0.00e+00	0	30	0	1603272704	32	5721
2026-01-27 03:16:54.49	206.90	32.19	-29.4	-30.0	28.6	0.00e+00	0	30	0	1608515584	32	5715
2026-01-27 03:16:55.50	207.13	32.36	-29.5	-30.1	28.6	0.00e+00	0	30	0	1614807040	32	5784
2026-01-27 03:16:56.51	207.37	32.52	-29.6	-30.2	28.5	0.00e+00	0	30	0	1620049920	32	5855
2026-01-27 03:16:57.52	207.60	32.68	-29.7	-30.3	28.5	0.00e+00	0	30	0	1626341376	32	5948
2026-01-27 03:16:58.53	207.84	32.85	-29.7	-30.3	28.4	0.00e+00	0	30	0	1631584256	32	5932
2026-01-27 03:16:59.54	208.09	33.01	-29.7	-30.3	28.4	0.00e+00	0	30	0	1636827136	32	5922
2026-01-27 03:17:00.55	208.33	33.18	-29.5	-30.2	28.5	0.00e+00	0	30	0	1643118592	32	5834
2026-01-27 03:17:01.56	208.58	33.34	-29.6	-30.2	28.5	0.00e+00	0	30	0	1648361472	32	5840
2026-01-27 03:17:02.57	208.83	33.51	-29.3	-29.9	28.7	0.00e+00	0	30	0	1654652928	32	5651
2026-01-27 03:17:03.58	209.08	33.68	-29.4	-30.0	28.6	0.00e+00	0	30	0	1659895808	32	5709
2026-01-27 03:17:04.59	209.34	33.84	-29.4	-30.0	28.6	0.00e+00	0	30	0	1666187264	32	5713
2026-01-27 03:17:05.60	209.59	34.01	-29.2	-29.8	28.9	0.00e+00	0	30	0	1671430144	32	5592
2026-01-27 03:17:06.60	209.85	34.17	-29.3	-30.0	28.6	0.00e+00	0	30	0	1677721600	32	5711
2026-01-27 03:17:07.61	210.12	34.34	-29.5	-30.1	28.6	0.00e+00	0	30	0	1682964480	32	5769
2026-01-27 03:17:08.62	210.38	34.51	-29.6	-30.2	28.5	0.00e+00	0	30	0	1688207360	32	5852
2026-01-27 03:17:09.63	210.65	34.68	-29.7	-30.3	28.4	0.00e+00	0	30	0	1694498816	32	5953
2026-01-27 03:17:10.64	210.92	34.84	-29.7	-30.3	28.5	0.00e+00	0	30	0	1699741696	32	5953
2026-01-27 03:17:11.65	211.19	35.01	-29.5	-30.1	28.5	0.00e+00	0	30	0	1706033152	32	5828
2026-01-27 03:17:12.66	211.47	35.18	-29.3	-30.0	28.7	0.00e+00	0	30	0	1711276032	32	5699
2026-01-27 03:17:13.67	211.75	35.35	-29.3	-29.9	28.6	0.00e+00	0	30	0	1716518912	32	5639
2026-01-27 03:17:14.68	212.03	35.52	-29.2	-29.8	28.8	0.00e+00	0	30	0	1722810368	32	5568
2026-01-27 03:17:15.69	212.32	35.69	-29.3	-29.8	28.8	0.00e+00	0	30	0	1728053248	32	5614
2026-01-27 03:17:16.70	212.61	35.86	-29.5	-30.1	28.6	0.00e+00	0	30	0	1734344704	32	5763
2026-01-27 03:17:17.71	212.90	36.02	-29.4	-30.0	28.7	0.00e+00	0	30	0	1739587584	32	5696
2026-01-27 03:17:18.72	213.19	36.19	-29.5	-30.1	28.7	0.00e+00	0	30	0	1744830464	32	5795
2026-01-27 03:17:19.73	213.49	36.36	-29.5	-30.1	28.6	0.00e+00	0	30	0	1751121920	32	5796
2026-01-27 03:17:20.74	213.79	36.53	-29.5	-30.1	28.6	0.00e+00	0	30	0	1756364800	32	5805
2026-01-27 03:17:21.75	214.09	36.70	-29.5	-30.1	28.6	0.00e+00	0	30	0	1762656256	32	5789
2026-01-27 03:17:22.76	214.40	36.87	-29.3	-29.9	28.8	0.00e+00	0	30	0	1767899136	32	5685
2026-01-27 03:17:23.77	214.71	37.04	-29.4	-30.0	28.7	0.00e+00	0	30	0	1774190592	32	5747
2026-01-27 03:17:24.78	215.02	37.21	-29.2	-29.7	28.8	0.00e+00	0	30	0	1779433472	32	5566
2026-01-27 03:17:25.79	215.33	37.38	-29.1	-29.6	28.9	0.00e+00	0	30	0	1784676352	32	5494
2026-01-27 03:17:26.80	215.65	37.54	-29.1	-29.7	28.8	0.00e+00	0	30	0	1790967808	32	5524
2026-01-27 03:17:27.80	215.97	37.71	-29.3	-30.0	28.7	0.00e+00	0	30	0	1796210688	32	5703
2026-01-27 03:17:28.81	216.30	37.88	-29.5	-30.1	28.6	0.00e+00	0	30	0	1802502144	32	5769
2026-01-27 03:17:29.82	216.62	38.05	-29.2	-29.8	28.8	0.00e+00	0	30	0	1807745024	32	5615
2026-01-27 03:17:30.83	216.96	38.22	-29.1	-29.7	28.8	0.00e+00	0	30	0	1812987904	32	5545
2026-01-27 03:17:31.84	217.29	38.38	-29.0	-29.6	28.9	0.00e+00	0	30	0	1819279360	32	5475
2026-01-27 03:17:32.86	217.63	38.55	-28.9	-29.5	29.0	0.00e+00	0	30	0	1824522240	32	5416
2026-01-27 03:17:33.86	217.97	38.72	-28.9	-29.5	28.9	0.00e+00	0	30	0	1830813696	32	5414
2026-01-27 03:17:34.87	218.32	38.89	-29.0	-29.7	28.9	0.00e+00	0	30	0	1836056576	32	5513
2026-01-27 03:17:35.88	218.67	39.05	-29.3	-29.8	28.8	0.00e+00	0	30	0	1841299456	32	5624
2026-01-27 03:17:36.89	219.02	39.22	-29.4	-30.0	28.7	0.00e+00	0	30	0	1847590912	32	5736
2026-01-27 03:17:37.90	219.38	39.38	-29.5	-30.1	28.6	0.00e+00	0	30	0	1852833792	32	5784
2026-01-27 03:17:38.91	219.74	39.55	-29.5	-30.1	28.6	0.00e+00	0	30	0	1859125248	32	5806
2026-01-27 03:17:39.92	220.10	39.72	-29.4	-30.0	28.7	0.00e+00	0	30	0	1864368128	32	5720
2026-01-27 03:17:40.94	220.47	39.88	-29.1	-29.7	28.8	0.00e+00	0	30	0	1870659584	32	5544
2026-01-27 03:17:41.95	220.84	40.05	-29.0	-29.6	28.9	0.00e+00	0	30	0	1875902464	32	5491
2026-01-27 03:17:42.95	221.21	40.21	-29.2	-29.8	28.7	0.00e+00	0	30	0	1882193920	32	5582
2026-01-27 03:17:43.96	221.59	40.37	-29.2	-29.8	28.7	0.00e+00	0	30	0	1887436800	32	5568
2026-01-27 03:17:44.97	221.97	40.53	-29.4	-30.0	28.4	0.00e+00	0	30	0	1892679680	32	5705
2026-01-27 03:17:45.99	222.36	40.69	-29.5	-30.0	28.5	0.00e+00	0	30	0	1898971136	32	5730
2026-01-27 03:17:47.00	222.75	40.86	-29.4	-30.0	28.7	0.00e+00	0	30	0	1904214016	32	5726
2026-01-27 03:17:48.01	223.15	41.02	-29.4	-30.0	28.6	0.00e+00	0	30	0	1910505472	32	5748
2026-01-27 03:17:49.02	223.54	41.17	-29.3	-29.9	28.7	0.00e+00	0	30	0	1915748352	32	5683
2026-01-27 03:17:50.03	223.95	41.33	-29.2	-29.8	28.8	0.00e+00	0	30	0	1920991232	32	5611
2026-01-27 03:17:51.04	224.35	41.49	-29.2	-29.8	28.8	0.00e+00	0	30	0	1927282688	32	5603
2026-01-27 03:17:52.05	224.76	41.65	-29.2	-29.8	28.8	0.00e+00	0	30	0	1932525568	32	5606
2026-01-27 03:17:53.06	225.17	41.80	-29.3	-29.9	28.8	0.00e+00	0	30	0	1938817024	32	5688
2026-01-27 03:17:54.07	225.59	41.96	-29.3	-29.9	28.7	0.00e+00	0	30	0	1944059904	32	5661
2026-01-27 03:17:55.08	226.01	42.11	-29.2	-29.8	28.8	0.00e+00	0	30	0	1949302784	32	5596
2026-01-27 03:17:56.09	226.44	42.26	-29.4	-29.9	28.7	0.00e+00	0	30	0	1955594240	32	5686
2026-01-27 03:17:57.10	226.86	42.41	-29.5	-30.1	28.6	0.00e+00	0	30	0	1960837120	32	5793
2026-01-27 03:17:58.11	227.30	42.57	-29.6	-30.2	28.5	0.00e+00	0	30	0	1967128576	32	5858
2026-01-27 03:17:59.12	227.73	42.71	-29.6	-30.2	28.5	0.00e+00	0	30	0	1972371456	32	5877
2026-01-27 03:18:00.13	228.17	42.86	-29.5	-30.1	28.6	0.00e+00	0	30	0	1978662912	32	5767
2026-01-27 03:18:01.14	228.62	43.01	-29.5	-30.1	28.6	0.00e+00	0	30	0	1983905792	32	5814
2026-01-27 03:18:02.15	229.07	43.15	-29.3	-29.9	28.8	0.00e+00	0	30	0	1990197248	32	5675
2026-01-27 03:18:03.16	229.52	43.30	-29.5	-30.0	28.6	0.00e+00	0	30	0	1995440128	32	5755
2026-01-27 03:18:04.17	229.98	43.44	-29.5	-30.1	28.6	0.00e+00	0	30	0	2000683008	32	5783
2026-01-27 03:18:05.18	230.44	43.58	-29.6	-30.1	28.5	0.00e+00	0	30	0	2006974464	32	5817
2026-01-27 03:18:06.19	230.90	43.72	-29.7	-30.3	28.4	0.00e+00	0	30	0	2012217344	32	5957
2026-01-27 03:18:07.20	231.37	43.86	-30.0	-30.6	28.3	0.00e+00	0	30	0	2018508800	32	6109
2026-01-27 03:18:08.21	231.84	43.99	-29.9	-30.5	28.4	0.00e+00	0	30	0	2023751680	32	6056
2026-01-27 03:18:09.22	232.32	44.13	-29.8	-30.4	28.3	0.00e+00	0	30	0	2028994560	32	6002
2026-01-27 03:18:10.23	232.80	44.26	-29.5	-30.0	28.5	0.00e+00	0	30	0	2035286016	32	5755
2026-01-27 03:18:11.24	233.29	44.39	-29.3	-29.9	28.8	0.00e+00	0	30	0	2040528896	32	5676
2026-01-27 03:18:12.25	233.77	44.52	-29.5	-30.0	28.6	0.00e+00	0	30	0	2046820352	32	5746
2026-01-27 03:18:13.26	234.27	44.65	-29.6	-30.2	28.4	0.00e+00	0	30	0	2052063232	32	5885
2026-01-27 03:18:14.27	234.76	44.77	-29.7	-30.3	28.4	0.00e+00	0	30	0	2057306112	32	5909
2026-01-27 03:18:15.28	235.26	44.90	-29.5	-30.2	28.5	0.00e+00	0	30	0	2063597568	32	5844
2026-01-27 03:18:16.29	235.77	45.02	-29.6	-30.2	28.6	0.00e+00	0	30	0	2068840448	32	5848
2026-01-27 03:18:17.30	236.27	45.14	-29.4	-30.0	28.6	0.00e+00	0	30	0	2075131904	32	5723
2026-01-27 03:18:18.31	236.79	45.26	-29.5	-30.0	28.6	0.00e+00	0	30	0	2080374784	32	5752
2026-01-27 03:18:19.32	237.30	45.37	-29.7	-30.4	28.4	0.00e+00	0	30	0	2086666240	32	5979
2026-01-27 03:18:20.33	237.82	45.48	-30.0	-30.7	28.3	0.00e+00	0	30	0	2091909120	32	6178
2026-01-27 03:18:21.34	238.34	45.59	-30.1	-30.6	28.2	0.00e+00	0	30	0	2097152000	32	6162
2026-01-27 03:18:22.35	238.87	45.70	-29.9	-30.5	28.3	0.00e+00	0	30	0	2103443456	32	6100
2026-01-27 03:18:23.36	239.40	45.81	-29.8	-30.4	28.4	0.00e+00	0	30	0	2108686336	32	5995
2026-01-27 03:18:24.37	239.93	45.91	-29.6	-30.3	28.5	0.00e+00	0	30	0	2114977792	32	5900
2026-01-27 03:18:25.38	240.47	46.01	-29.7	-30.3	28.5	0.00e+00	0	30	0	2120220672	32	5921
2026-01-27 03:18:26.39	241.01	46.11	-29.8	-30.4	28.4	0.00e+00	0	30	0	2125463552	32	6017
2026-01-27 03:18:27.40	241.55	46.21	-29.7	-30.2	28.5	0.00e+00	0	30	0	2131755008	32	5883
2026-01-27 03:18:28.41	242.10	46.30	-29.9	-30.5	28.4	0.00e+00	0	30	0	2136997888	32	6050
2026-01-27 03:18:29.42	242.65	46.39	-30.0	-30.6	28.3	0.00e+00	0	30	0	2143289344	32	6129
2026-01-27 03:18:30.43	243.20	46.48	-29.7	-30.3	28.5	0.00e+00	0	30	0	2148532224	32	5905
2026-01-27 03:18:31.45	243.76	46.57	-29.6	-30.2	28.5	0.00e+00	0	30	0	2153775104	32	5848
2026-01-27 03:18:32.46	244.32	46.65	-29.9	-30.5	28.2	0.00e+00	0	30	0	2160066560	32	6043
2026-01-27 03:18:33.46	244.88	46.73	-29.8	-30.3	28.3	0.00e+00	0	30	0	2165309440	32	5950
2026-01-27 03:18:34.47	245.44	46.81	-29.7	-30.2	28.6	0.00e+00	0	30	0	2171600896	32	5871
2026-01-27 03:18:35.48	246.01	46.88	-29.8	-30.3	28.4	0.00e+00	0	30	0	2176843776	32	5961
2026-01-27 03:18:36.49	246.58	46.96	-29.8	-30.4	28.4	0.00e+00	0	30	0	2183135232	32	5966
2026-01-27 03:18:37.50	247.15	47.02	-29.8	-30.4	28.4	0.00e+00	0	30	0	2188378112	32	5976
2026-01-27 03:18:38.51	247.73	47.09	-29.8	-30.4	28.4	0.00e+00	0	30	0	2194669568	32	5995
2026-01-27 03:18:39.53	248.31	47.15	-29.6	-30.2	28.5	0.00e+00	0	30	0	2199912448	32	5882
2026-01-27 03:18:40.54	248.89	47.21	-29.4	-30.0	28.6	0.00e+00	0	30	0	2205155328	32	5731
2026-01-27 03:18:41.55	249.47	47.27	-29.5	-30.1	28.5	0.00e+00	0	30	0	2211446784	32	5772
2026-01-27 03:18:42.56	250.05	47.32	-29.5	-30.2	28.6	0.00e+00	0	30	0	2216689664	32	5830
2026-01-27 03:18:43.57	250.64	47.37	-29.9	-30.5	28.3	0.00e+00	0	30	0	2222981120	32	6067
2026-01-27 03:18:44.57	251.22	47.42	-30.0	-30.6	28.2	0.00e+00	0	30	0	2228224000	32	6120
2026-01-27 03:18:45.58	251.81	47.47	-29.8	-30.4	28.4	0.00e+00	0	30	0	2233466880	32	5974
2026-01-27 03:18:46.59	252.40	47.51	-29.9	-30.5	28.3	0.00e+00	0	30	0	2239758336	32	6081
2026-01-27 03:18:47.60	252.99	47.55	-29.9	-30.5	28.2	0.00e+00	0	30	0	2245001216	32	6095
2026-01-27 03:18:48.61	253.58	47.58	-30.0	-30.6	28.1	0.00e+00	0	30	0	2251292672	32	6165
2026-01-27 03:18:49.62	254.18	47.61	-29.8	-30.4	28.4	0.00e+00	0	30	0	2256535552	32	6005
2026-01-27 03:18:50.63	254.77	47.64	-29.6	-30.2	28.5	0.00e+00	0	30	0	2261778432	32	5843
2026-01-27 03:18:51.64	255.37	47.66	-29.5	-30.1	28.7	0.00e+00	0	30	0	2268069888	32	5795
2026-01-27 03:18:52.65	255.97	47.69	-29.2	-29.8	28.8	0.00e+00	0	30	0	2273312768	32	5622
2026-01-27 03:18:53.67	256.57	47.70	-29.2	-29.8	28.8	0.00e+00	0	30	0	2279604224	32	5576
2026-01-27 03:18:54.68	257.17	47.72	-29.2	-29.9	28.7	0.00e+00	0	30	0	2284847104	32	5632
2026-01-27 03:18:55.69	257.77	47.73	-29.4	-30.0	28.8	0.00e+00	0	30	0	2291138560	32	5701
2026-01-27 03:18:56.70	258.37	47.74	-29.6	-30.2	28.5	0.00e+00	0	30	0	2296381440	32	5854
2026-01-27 03:18:57.71	258.97	47.74	-29.8	-30.3	28.4	0.00e+00	0	30	0	2302672896	32	5946
2026-01-27 03:18:58.72	259.57	47.75	-29.9	-30.4	28.2	0.00e+00	0	30	0	2307915776	32	6027
2026-01-27 03:18:59.73	260.17	47.74	-29.7	-30.3	28.5	0.00e+00	0	30	0	2313158656	32	5954
2026-01-27 03:19:00.74	260.77	47.74	-29.6	-30.2	28.5	0.00e+00	0	30	0	2319450112	32	5847
2026-01-27 03:19:01.75	261.37	47.73	-29.5	-30.2	28.6	0.00e+00	0	30	0	2324692992	32	5844
2026-01-27 03:19:02.77	261.98	47.72	-29.6	-30.2	28.6	0.00e+00	0	30	0	2330984448	32	5845
2026-01-27 03:19:03.78	262.57	47.70	-29.6	-30.2	28.4	0.00e+00	0	30	0	2336227328	32	5863
2026-01-27 03:19:04.79	263.17	47.68	-29.5	-30.1	28.4	0.00e+00	0	30	0	2341470208	32	5794
2026-01-27 03:19:05.80	263.77	47.66	-29.7	-30.2	28.3	0.00e+00	0	30	0	2347761664	32	5849
2026-01-27 03:19:06.81	264.37	47.64	-29.7	-30.3	28.3	0.00e+00	0	30	0	2353004544	32	5911
2026-01-27 03:19:07.82	264.96	47.61	-29.5	-30.1	28.6	0.00e+00	0	30	0	2359296000	32	5820
2026-01-27 03:19:08.83	265.56	47.58	-29.8	-30.3	28.4	0.00e+00	0	30	0	2364538880	32	5919
2026-01-27 03:19:09.84	266.15	47.54	-29.8	-30.4	28.3	0.00e+00	0	30	0	2369781760	32	6012
2026-01-27 03:19:10.85	266.74	47.50	-29.8	-30.4	28.3	0.00e+00	0	30	0	2376073216	32	5989
2026-01-27 03:19:11.86	267.33	47.46	-29.8	-30.4	28.4	0.00e+00	0	30	0	2381316096	32	5979
2026-01-27 03:19:12.87	267.92	47.42	-29.8	-30.4	28.4	0.00e+00	0	30	0	2387607552	32	5987
2026-01-27 03:19:13.88	268.51	47.37	-29.8	-30.4	28.4	0.00e+00	0	30	0	2392850432	32	6031
2026-01-27 03:19:14.89	269.09	47.32	-29.9	-30.5	28.3	0.00e+00	0	30	0	2399141888	32	6077
2026-01-27 03:19:15.90	269.67	47.27	-29.8	-30.5	28.4	0.00e+00	0	30	0	2404384768	32	6036
2026-01-27 03:19:16.91	270.25	47.21	-29.7	-30.2	28.5	0.00e+00	0	30	0	2410676224	32	5896
2026-01-27 03:19:17.92	270.83	47.15	-29.6	-30.2	28.6	0.00e+00	0	30	0	2415919104	32	5856
2026-01-27 03:19:18.93	271.41	47.09	-29.6	-30.1	28.5	0.00e+00	0	30	0	2421161984	32	5797
2026-01-27 03:19:19.94	271.98	47.02	-29.6	-30.2	28.5	0.00e+00	0	30	0	2427453440	32	5859
2026-01-27 03:19:20.95	272.55	46.95	-29.7	-30.3	28.5	0.00e+00	0	30	0	2432696320	32	5923
2026-01-27 03:19:21.96	273.12	46.88	-29.7	-30.3	28.4	0.00e+00	0	30	0	2438987776	32	5934
2026-01-27 03:19:22.97	273.69	46.81	-29.6	-30.2	28.7	0.00e+00	0	30	0	2444230656	32	5847
2026-01-27 03:19:23.98	274.25	46.73	-29.7	-30.3	28.5	0.00e+00	0	30	0	2449473536	32	5910
2026-01-27 03:19:24.99	274.81	46.65	-29.9	-30.6	28.3	0.00e+00	0	30	0	2455764992	32	6142
2026-01-27 03:19:26.00	275.37	46.56	-30.0	-30.6	28.2	0.00e+00	0	30	0	2461007872	32	6159
2026-01-27 03:19:27.01	275.93	46.48	-30.0	-30.5	28.3	0.00e+00	0	30	0	2467299328	32	6078
2026-01-27 03:19:28.02	276.48	46.39	-30.1	-30.7	28.2	0.00e+00	0	30	0	2472542208	32	6201
2026-01-27 03:19:29.03	277.03	46.30	-29.9	-30.5	28.3	0.00e+00	0	30	0	2477785088	32	6071
2026-01-27 03:19:30.04	277.57	46.21	-29.7	-30.3	28.5	0.00e+00	0	30	0	2484076544	32	5909
2026-01-27 03:19:31.06	278.12	46.11	-29.7	-30.3	28.5	0.00e+00	0	30	0	2489319424	32	5947
2026-01-27 03:19:32.06	278.65	46.01	-29.9	-30.6	28.3	0.00e+00	0	30	0	2495610880	32	6106
2026-01-27 03:19:33.08	279.20	45.91	-30.0	-30.6	28.2	0.00e+00	0	30	0	2500853760	32	6134
2026-01-27 03:19:34.09	279.73	45.80	-30.1	-30.8	28.2	0.00e+00	0	30	0	2507145216	32	6268
2026-01-27 03:19:35.09	280.25	45.70	-30.1	-30.8	28.2	0.00e+00	0	30	0	2512388096	32	6253
2026-01-27 03:19:36.11	280.78	45.59	-29.8	-30.5	28.4	0.00e+00	0	30	0	2518679552	32	6061
2026-01-27 03:19:37.11	281.30	45.48	-29.9	-30.4	28.4	0.00e+00	0	30	0	2523922432	32	6005
2026-01-27 03:19:38.12	281.82	45.37	-29.9	-30.6	28.3	0.00e+00	0	30	0	2529165312	32	6135
2026-01-27 03:19:39.13	282.33	45.25	-29.8	-30.3	28.4	0.00e+00	0	30	0	2535456768	32	5917
2026-01-27 03:19:40.14	282.84	45.14	-29.5	-30.1	28.6	0.00e+00	0	30	0	2540699648	32	5816
2026-01-27 03:19:41.15	283.35	45.02	-29.5	-30.1	28.6	0.00e+00	0	30	0	2546991104	32	5800
2026-01-27 03:19:42.16	283.85	44.90	-29.7	-30.4	28.5	0.00e+00	0	30	0	2552233984	32	5971
2026-01-27 03:19:43.17	284.35	44.77	-29.8	-30.4	28.4	0.00e+00	0	30	0	2557476864	32	6001
2026-01-27 03:19:44.18	284.84	44.65	-29.7	-30.3	28.5	0.00e+00	0	30	0	2563768320	32	5927
2026-01-27 03:19:45.19	285.33	44.52	-29.6	-30.1	28.6	0.00e+00	0	30	0	2569011200	32	5823
2026-01-27 03:19:46.20	285.82	44.39	-29.7	-30.4	28.4	0.00e+00	0	30	0	2575302656	32	5975
2026-01-27 03:19:47.21	286.31	44.26	-30.1	-30.7	28.1	0.00e+00	0	30	0	2580545536	32	6206
2026-01-27 03:19:48.22	286.78	44.13	-30.3	-31.0	27.8	0.00e+00	0	30	0	2585788416	32	6438
2026-01-27 03:19:49.23	287.26	43.99	-30.3	-30.9	27.9	0.00e+00	0	30	0	2592079872	32	6331
2026-01-27 03:19:50.24	287.73	43.86	-30.2	-30.8	28.1	0.00e+00	0	30	0	2597322752	32	6259
2026-01-27 03:19:51.25	288.20	43.72	-30.1	-30.6	28.3	0.00e+00	0	30	0	2603614208	32	6131
2026-01-27 03:19:52.26	288.66	43.58	-30.1	-30.7	28.2	0.00e+00	0	30	0	2608857088	32	6238
2026-01-27 03:19:53.26	289.12	43.44	-30.1	-30.7	28.2	0.00e+00	0	30	0	2615148544	32	6179
2026-01-27 03:19:54.28	289.58	43.30	-30.0	-30.6	28.2	0.00e+00	0	30	0	2620391424	32	6144
2026-01-27 03:19:55.28	290.03	43.16	-30.2	-30.8	28.0	0.00e+00	0	30	0	2625634304	32	6317
2026-01-27 03:19:56.29	290.47	43.01	-29.7	-30.3	28.5	0.00e+00	0	30	0	2631925760	32	5904
2026-01-27 03:19:57.30	290.92	42.87	-29.6	-30.3	28.4	0.00e+00	0	30	0	2637168640	32	5927
2026-01-27 03:19:58.31	291.36	42.72	-29.7	-30.3	28.4	0.00e+00	0	30	0	2643460096	32	5912
2026-01-27 03:19:59.32	291.79	42.57	-29.8	-30.3	28.3	0.00e+00	0	30	0	2648702976	32	5950
2026-01-27 03:20:00.33	292.22	42.42	-29.8	-30.4	28.3	0.00e+00	0	30	0	2653945856	32	5997
2026-01-27 03:20:01.34	292.65	42.27	-29.9	-30.4	28.3	0.00e+00	0	30	0	2660237312	32	6000
2026-01-27 03:20:02.35	293.07	42.12	-29.8	-30.4	28.4	0.00e+00	0	30	0	2665480192	32	5980
2026-01-27 03:20:03.36	293.49	41.97	-29.9	-30.5	28.2	0.00e+00	0	30	0	2671771648	32	6085
2026-01-27 03:20:04.37	293.91	41.81	-29.7	-30.4	28.4	0.00e+00	0	30	0	2677014528	32	5972
2026-01-27 03:20:05.38	294.32	41.66	-29.6	-30.1	28.6	0.00e+00	0	30	0	2682257408	32	5808
2026-01-27 03:20:06.39	294.73	41.50	-29.5	-30.1	28.7	0.00e+00	0	30	0	2688548864	32	5808
2026-01-27 03:20:07.40	295.13	41.34	-29.6	-30.2	28.5	0.00e+00	0	30	0	2693791744	32	5840
2026-01-27 03:20:08.41	295.53	41.19	-29.6	-30.3	28.4	0.00e+00	0	30	0	2700083200	32	5935
2026-01-27 03:20:09.42	295.93	41.03	-29.4	-30.1	28.7	0.00e+00	0	30	0	2705326080	32	5772
2026-01-27 03:20:10.43	296.32	40.87	-29.3	-29.9	28.7	0.00e+00	0	30	0	2711617536	32	5633
2026-01-27 03:20:11.44	296.71	40.71	-29.3	-29.9	28.7	0.00e+00	0	30	0	2716860416	32	5673
2026-01-27 03:20:12.45	297.10	40.55	-29.3	-29.9	28.7	0.00e+00	0	30	0	2723151872	32	5676
2026-01-27 03:20:13.46	297.48	40.39	-29.4	-29.9	28.5	0.00e+00	0	30	0	2728394752	32	5656
2026-01-27 03:20:14.47	297.86	40.22	-29.5	-30.1	28.5	0.00e+00	0	30	0	2733637632	32	5767
2026-01-27 03:20:15.48	298.23	40.06	-29.6	-30.1	28.4	0.00e+00	0	30	0	2739929088	32	5802
2026-01-27 03:20:16.49	298.60	39.90	-29.6	-30.1	28.4	0.00e+00	0	30	0	2745171968	32	5823
2026-01-27 03:20:17.50	298.97	39.73	-29.5	-30.2	28.6	0.00e+00	0	30	0	2751463424	32	5846
2026-01-27 03:20:18.51	299.33	39.57	-29.4	-29.9	28.6	0.00e+00	0	30	0	2756706304	32	5685
2026-01-27 03:20:19.52	299.69	39.40	-29.3	-30.0	28.7	0.00e+00	0	30	0	2761949184	32	5720
2026-01-27 03:20:20.53	300.04	39.24	-29.4	-29.9	28.6	0.00e+00	0	30	0	2768240640	32	5679
2026-01-27 03:20:21.54	300.39	39.07	-29.2	-29.9	28.8	0.00e+00	0	30	0	2773483520	32	5652
2026-01-27 03:20:22.55	300.74	38.91	-29.4	-30.0	28.6	0.00e+00	0	30	0	2779774976	32	5696
2026-01-27 03:20:23.56	301.09	38.74	-29.3	-29.8	28.7	0.00e+00	0	30	0	2785017856	32	5608
2026-01-27 03:20:24.57	301.43	38.58	-29.4	-29.9	28.6	0.00e+00	0	30	0	2790260736	32	5675
2026-01-27 03:20:25.58	301.77	38.41	-29.3	-30.0	28.7	0.00e+00	0	30	0	2796552192	32	5706
2026-01-27 03:20:26.59	302.10	38.24	-29.3	-29.9	28.7	0.00e+00	0	30	0	2801795072	32	5642
2026-01-27 03:20:27.60	302.43	38.07	-29.1	-29.7	28.8	0.00e+00	0	30	0	2808086528	32	5514
2026-01-27 03:20:28.61	302.76	37.91	-29.1	-29.7	28.7	0.00e+00	0	30	0	2813329408	32	5533
2026-01-27 03:20:29.62	303.09	37.74	-29.3	-29.9	28.6	0.00e+00	0	30	0	2819620864	32	5692
2026-01-27 03:20:30.63	303.41	37.57	-29.3	-30.0	28.6	0.00e+00	0	30	0	2824863744	32	5716
2026-01-27 03:20:31.64	303.73	37.40	-29.4	-30.1	28.6	0.00e+00	0	30	0	2830106624	32	5764
2026-01-27 03:20:32.65	304.04	37.24	-29.5	-30.0	28.3	0.00e+00	0	30	0	2836398080	32	5723
2026-01-27 03:20:33.66	304.35	37.07	-29.4	-30.0	28.2	0.00e+00	0	30	0	2841640960	32	5744
2026-01-27 03:20:34.67	304.66	36.90	-29.5	-30.1	28.3	0.00e+00	0	30	0	2847932416	32	5816
2026-01-27 03:20:35.68	304.97	36.73	-29.6	-30.1	28.2	0.00e+00	0	30	0	2853175296	32	5811
2026-01-27 03:20:36.69	305.27	36.56	-29.4	-30.1	28.4	0.00e+00	0	30	0	2858418176	32	5777
2026-01-27 03:20:37.70	305.57	36.39	-29.4	-30.0	28.3	0.00e+00	0	30	0	2864709632	32	5708
2026-01-27 03:20:38.72	305.87	36.22	-29.3	-30.0	28.6	0.00e+00	0	30	0	2869952512	32	5719
2026-01-27 03:20:39.73	306.16	36.06	-29.4	-30.0	28.3	0.00e+00	0	30	0	2876243968	32	5759
2026-01-27 03:20:40.74	306.45	35.89	-29.5	-30.1	28.3	0.00e+00	0	30	0	2881486848	32	5775
2026-01-27 03:20:41.75	306.74	35.72	-29.5	-30.2	28.5	0.00e+00	0	30	0	2886729728	32	5837
2026-01-27 03:20:42.76	307.02	35.55	-29.6	-30.2	28.4	0.00e+00	0	30	0	2893021184	32	5843
2026-01-27 03:20:43.77	307.30	35.38	-29.7	-30.2	28.4	0.00e+00	0	30	0	2898264064	32	5883
2026-01-27 03:20:44.78	307.58	35.22	-29.7	-30.4	28.4	0.00e+00	0	30	0	2904555520	32	5999
2026-01-27 03:20:45.79	307.86	35.05	-29.5	-30.0	28.6	0.00e+00	0	30	0	2909798400	32	5750
2026-01-27 03:20:46.79	308.13	34.88	-29.4	-30.1	28.5	0.00e+00	0	30	0	2916089856	32	5804
2026-01-27 03:20:47.80	308.40	34.72	-29.5	-30.2	28.6	0.00e+00	0	30	0	2921332736	32	5846
2026-01-27 03:20:48.81	308.67	34.55	-29.3	-29.8	28.7	0.00e+00	0	30	0	2927624192	32	5608
2026-01-27 03:20:49.82	308.93	34.38	-29.5	-30.2	28.5	0.00e+00	0	30	0	2932867072	32	5832
2026-01-27 03:20:50.84	309.20	34.22	-29.5	-30.0	28.5	0.00e+00	0	30	0	2938109952	32	5734
2026-01-27 03:20:51.85	309.46	34.05	-29.6	-30.1	28.5	0.00e+00	0	30	0	2944401408	32	5797
2026-01-27 03:20:52.85	309.71	33.89	-29.5	-30.2	28.5	0.00e+00	0	30	0	2949644288	32	5849
2026-01-27 03:20:53.86	309.97	33.72	-29.4	-30.0	28.6	0.00e+00	0	30	0	2955935744	32	5703
2026-01-27 03:20:54.87	310.22	33.55	-29.3	-30.0	28.7	0.00e+00	0	30	0	2961178624	32	5726
2026-01-27 03:20:55.89	310.47	33.39	-29.2	-29.9	28.7	0.00e+00	0	30	0	2966421504	32	5653
2026-01-27 03:20:56.90	310.72	33.22	-29.3	-29.8	28.7	0.00e+00	0	30	0	2972712960	32	5591
2026-01-27 03:20:57.91	310.96	33.06	-29.3	-29.8	28.6	0.00e+00	0	30	0	2977955840	32	5615
2026-01-27 03:20:58.92	311.20	32.89	-29.4	-29.9	28.7	0.00e+00	0	30	0	2984247296	32	5656
2026-01-27 03:20:59.93	311.44	32.73	-29.4	-29.9	28.5	0.00e+00	0	30	0	2989490176	32	5679
2026-01-27 03:21:00.94	311.68	32.57	-29.6	-30.1	28.4	0.00e+00	0	30	0	2994733056	32	5814
2026-01-27 03:21:01.95	311.92	32.41	-29.8	-30.3	28.2	0.00e+00	0	30	0	3001024512	32	5940
2026-01-27 03:21:02.96	312.15	32.24	-29.8	-30.5	28.3	0.00e+00	0	30	0	3006267392	32	6056
2026-01-27 03:21:03.97	312.38	32.08	-29.7	-30.2	28.4	0.00e+00	0	30	0	3012558848	32	5855
2026-01-27 03:21:04.98	312.61	31.92	-29.8	-30.3	28.4	0.00e+00	0	30	0	3017801728	32	5952
2026-01-27 03:21:05.99	312.83	31.76	-29.7	-30.4	28.4	0.00e+00	0	30	0	3023044608	32	6003
2026-01-27 03:21:07.00	313.06	31.60	-29.8	-30.5	28.3	0.00e+00	0	30	0	3029336064	32	6054
2026-01-27 03:21:08.01	313.28	31.44	-29.7	-30.3	28.3	0.00e+00	0	30	0	3035627520	32	5964
2026-01-27 03:21:09.02	313.50	31.28	-29.7	-30.2	28.4	0.00e+00	0	30	0	3040870400	32	5893
2026-01-27 03:21:10.03	313.72	31.12	-29.7	-30.2	28.4	0.00e+00	0	30	0	3046113280	32	5886
2026-01-27 03:21:11.04	313.93	30.96	-29.7	-30.2	28.4	0.00e+00	0	30	0	3052404736	32	5864
2026-01-27 03:21:12.05	314.15	30.80	-29.7	-30.3	28.4	0.00e+00	0	30	0	3057647616	32	5956
2026-01-27 03:21:13.06	314.36	30.64	-29.7	-30.4	28.4	0.00e+00	0	30	0	3063939072	32	5999
2026-01-27 03:21:14.07	314.57	30.48	-29.9	-30.6	28.3	0.00e+00	0	30	0	3069181952	32	6142
2026-01-27 03:21:15.08	314.77	30.32	-29.7	-30.4	28.3	0.00e+00	0	30	0	3074424832	32	5990
2026-01-27 03:21:16.10	314.98	30.17	-29.8	-30.4	28.3	0.00e+00	0	30	0	3080716288	32	5968
2026-01-27 03:21:17.11	315.18	30.01	-29.6	-30.2	28.4	0.00e+00	0	30	0	3085959168	32	5843
2026-01-27 03:21:18.12	315.39	29.85	-29.7	-30.2	28.4	0.00e+00	0	30	0	3092250624	32	5895
2026-01-27 03:21:19.13	315.59	29.70	-29.6	-30.1	28.5	0.00e+00	0	30	0	3097493504	32	5809
2026-01-27 03:21:20.14	315.78	29.54	-29.6	-30.1	28.5	0.00e+00	0	30	0	3102736384	32	5807
2026-01-27 03:21:21.15	315.98	29.39	-29.5	-30.1	28.5	0.00e+00	0	30	0	3109027840	32	5763
2026-01-27 03:21:22.16	316.17	29.23	-29.6	-30.2	28.5	0.00e+00	0	30	0	3114270720	32	5869
2026-01-27 03:21:23.17	316.37	29.08	-29.7	-30.3	28.4	0.00e+00	0	30	0	3120562176	32	5961
2026-01-27 03:21:24.18	316.56	28.93	-29.8	-30.5	28.4	0.00e+00	0	30	0	3125805056	32	6035
2026-01-27 03:21:25.19	316.74	28.78	-29.8	-30.3	28.2	0.00e+00	0	30	0	3132096512	32	5928
2026-01-27 03:21:26.20	316.93	28.62	-29.9	-30.5	28.2	0.00e+00	0	30	0	3137339392	32	6037
2026-01-27 03:21:27.21	317.12	28.47	-29.9	-30.6	28.3	0.00e+00	0	30	0	3143630848	32	6154
2026-01-27 03:21:28.22	317.30	28.32	-30.1	-30.7	28.1	0.00e+00	0	30	0	3148873728	32	6179
2026-01-27 03:21:29.24	317.48	28.17	-30.0	-30.5	28.1	0.00e+00	0	30	0	3154116608	32	6098
2026-01-27 03:21:30.25	317.66	28.02	-30.0	-30.7	28.1	0.00e+00	0	30	0	3160408064	32	6188
2026-01-27 03:21:31.26	317.84	27.87	-30.1	-30.8	28.0	0.00e+00	0	30	0	3165650944	32	6307
2026-01-27 03:21:32.27	318.02	27.72	-30.0	-30.7	28.2	0.00e+00	0	30	0	3171942400	32	6205
2026-01-27 03:21:33.28	318.20	27.57	-30.0	-30.6	28.1	0.00e+00	0	30	0	3177185280	32	6122
2026-01-27 03:21:34.29	318.37	27.43	-30.1	-30.8	28.1	0.00e+00	0	30	0	3182428160	32	6281
2026-01-27 03:21:35.30	318.54	27.28	-29.8	-30.5	28.2	0.00e+00	0	30	0	3188719616	32	6095
2026-01-27 03:21:36.31	318.71	27.13	-29.9	-30.6	28.1	0.00e+00	0	30	0	3193962496	32	6159
2026-01-27 03:21:37.32	318.88	26.99	-29.8	-30.4	28.2	0.00e+00	0	30	0	3200253952	32	5979
2026-01-27 03:21:38.33	319.05	26.84	-29.8	-30.4	28.2	0.00e+00	0	30	0	3205496832	32	5997
2026-01-27 03:21:39.34	319.22	26.69	-29.9	-30.4	28.3	0.00e+00	0	30	0	3210739712	32	5998
2026-01-27 03:21:40.35	319.38	26.55	-30.0	-30.5	28.1	0.00e+00	0	30	0	3217031168	32	6083
2026-01-27 03:21:41.36	319.54	26.41	-30.1	-30.6	28.0	0.00e+00	0	30	0	3222274048	32	6124
2026-01-27 03:21:42.37	319.71	26.26	-30.2	-30.7	28.0	0.00e+00	0	30	0	3228565504	32	6203
2026-01-27 03:21:43.38	319.87	26.12	-30.1	-30.6	28.1	0.00e+00	0	30	0	3233808384	32	6158
2026-01-27 03:21:44.39	320.02	25.98	-30.2	-30.7	28.0	0.00e+00	0	30	0	3240099840	32	6241
2026-01-27 03:21:45.40	320.18	25.84	-30.2	-30.7	28.0	0.00e+00	0	30	0	3245342720	32	6225
2026-01-27 03:21:46.41	320.34	25.69	-30.2	-30.9	27.9	0.00e+00	0	30	0	3251634176	32	6339
2026-01-27 03:21:47.42	320.49	25.55	-30.3	-31.0	27.9	0.00e+00	0	30	0	3256877056	32	6423
2026-01-27 03:21:48.43	320.65	25.41	-30.1	-30.7	28.0	0.00e+00	0	30	0	3262119936	32	6195
2026-01-27 03:21:49.44	320.80	25.27	-30.2	-30.8	27.8	0.00e+00	0	30	0	3268411392	32	6270
2026-01-27 03:21:50.45	320.95	25.13	-30.2	-30.7	28.0	0.00e+00	0	30	0	3273654272	32	6235
2026-01-27 03:21:51.46	321.10	24.99	-30.2	-30.8	28.0	0.00e+00	0	30	0	3279945728	32	6248
2026-01-27 03:21:52.47	321.25	24.86	-30.2	-30.8	27.9	0.00e+00	0	30	0	3285188608	32	6248
2026-01-27 03:21:53.48	321.40	24.72	-30.2	-30.8	28.1	0.00e+00	0	30	0	3290431488	32	6317
2026-01-27 03:21:54.49	321.54	24.58	-30.2	-30.7	28.0	0.00e+00	0	30	0	3296722944	32	6219
2026-01-27 03:21:55.51	321.69	24.44	-30.3	-31.0	27.9	0.00e+00	0	30	0	3301965824	32	6432
2026-01-27 03:21:56.51	321.83	24.31	-30.2	-30.9	27.9	0.00e+00	0	30	0	3308257280	32	6356
2026-01-27 03:21:57.53	321.97	24.17	-30.2	-30.8	27.9	0.00e+00	0	30	0	3313500160	32	6315
2026-01-27 03:21:58.54	322.12	24.04	-30.3	-30.9	28.0	0.00e+00	0	30	0	3318743040	32	6361
2026-01-27 03:21:59.55	322.26	23.90	-30.2	-30.8	28.0	0.00e+00	0	30	0	3325034496	32	6298
2026-01-27 03:22:00.56	322.39	23.77	-30.2	-30.8	28.0	0.00e+00	0	30	0	3330277376	32	6294
2026-01-27 03:22:01.57	322.53	23.64	-30.2	-30.8	28.1	0.00e+00	0	30	0	3336568832	32	6290
2026-01-27 03:22:02.58	322.67	23.50	-30.2	-30.8	28.0	0.00e+00	0	30	0	3341811712	32	6317
2026-01-27 03:22:03.59	322.80	23.37	-30.3	-31.0	27.9	0.00e+00	0	30	0	3348103168	32	6403
2026-01-27 03:22:04.60	322.94	23.24	-30.5	-31.1	27.7	0.00e+00	0	30	0	3353346048	32	6533
2026-01-27 03:22:05.61	323.07	23.11	-30.5	-31.1	27.8	0.00e+00	0	30	0	3359637504	32	6538
2026-01-27 03:22:06.62	323.20	22.98	-30.6	-31.3	27.7	0.00e+00	0	30	0	3364880384	32	6660
2026-01-27 03:22:07.63	323.34	22.85	-30.7	-31.4	27.6	0.00e+00	0	30	0	3370123264	34	6019
2026-01-27 03:22:08.64	323.47	22.72	-31.0	-31.7	27.4	0.00e+00	0	30	0	3376414720	34	6203
2026-01-27 03:22:09.65	323.59	22.59	-31.0	-31.7	27.3	0.00e+00	0	30	0	3381657600	34	6234
2026-01-27 03:22:10.66	323.72	22.46	-31.2	-31.9	27.2	0.00e+00	0	30	0	3387949056	34	6369
2026-01-27 03:22:11.67	323.85	22.33	-31.3	-32.0	27.0	0.00e+00	0	30	0	3393191936	34	6447
2026-01-27 03:22:12.68	323.98	22.20	-31.5	-32.2	27.1	0.00e+00	0	30	0	3398434816	34	6575
2026-01-27 03:22:13.69	324.10	22.08	-31.1	-31.6	27.3	0.00e+00	0	30	0	3404726272	34	6150
2026-01-27 03:22:14.70	324.22	21.95	-31.2	-31.7	27.2	0.00e+00	0	30	0	3409969152	34	6245
2026-01-27 03:22:15.71	324.35	21.82	-31.1	-31.7	27.2	0.00e+00	0	30	0	3416260608	34	6217
2026-01-27 03:22:16.72	324.47	21.70	-30.9	-31.6	27.3	0.00e+00	0	30	0	3421503488	34	6157
2026-01-27 03:22:17.73	324.59	21.57	-30.9	-31.4	27.4	0.00e+00	0	30	0	3426746368	34	6029
2026-01-27 03:22:18.74	324.71	21.45	-30.9	-31.6	27.4	0.00e+00	0	30	0	3433037824	34	6140
2026-01-27 03:22:19.75	324.83	21.32	-30.7	-31.3	27.5	0.00e+00	0	30	0	3438280704	34	5897
2026-01-27 03:22:20.76	324.95	21.20	-30.9	-31.6	27.4	0.00e+00	0	30	0	3444572160	34	6149
2026-01-27 03:22:21.77	325.07	21.08	-31.0	-31.5	27.4	0.00e+00	0	30	0	3449815040	34	6056
2026-01-27 03:22:22.78	325.18	20.95	-30.8	-31.3	27.5	0.00e+00	0	30	0	3456106496	34	5956
2026-01-27 03:22:23.78	325.30	20.83	-30.8	-31.5	27.5	0.00e+00	0	30	0	3461349376	34	6066
2026-01-27 03:22:24.79	325.41	20.71	-31.0	-31.6	27.4	0.00e+00	0	30	0	3466592256	34	6165
2026-01-27 03:22:25.80	325.53	20.59	-31.1	-31.7	27.3	0.00e+00	0	30	0	3472883712	34	6175
2026-01-27 03:22:26.81	325.64	20.47	-31.0	-31.5	27.4	0.00e+00	0	30	0	3478126592	34	6097
2026-01-27 03:22:27.82	325.75	20.35	-31.2	-31.7	27.2	0.00e+00	0	30	0	3484418048	34	6227
2026-01-27 03:22:28.84	325.86	20.23	-31.1	-31.7	27.2	0.00e+00	0	30	0	3489660928	34	6174
2026-01-27 03:22:29.85	325.97	20.11	-31.2	-31.7	27.2	0.00e+00	0	30	0	3494903808	34	6232
2026-01-27 03:22:30.86	326.08	19.99	-31.2	-31.7	27.2	0.00e+00	0	30	0	3501195264	34	6239
2026-01-27 03:22:31.87	326.19	19.87	-31.3	-31.8	27.1	0.00e+00	0	30	0	3506438144	34	6296
2026-01-27 03:22:32.88	326.30	19.75	-31.5	-32.0	26.9	0.00e+00	0	30	0	3512729600	34	6443
2026-01-27 03:22:33.88	326.41	19.64	-31.3	-31.9	27.1	0.00e+00	0	30	0	3517972480	34	6337
2026-01-27 03:22:34.89	326.51	19.52	-31.4	-32.0	27.0	0.00e+00	0	30	0	3523215360	34	6410
2026-01-27 03:22:35.90	326.62	19.40	-31.4	-32.0	27.0	0.00e+00	0	30	0	3529506816	34	6418
2026-01-27 03:22:36.92	326.73	19.29	-31.3	-31.8	27.1	0.00e+00	0	30	0	3534749696	34	6311
2026-01-27 03:22:37.92	326.83	19.17	-31.3	-31.8	27.0	0.00e+00	0	30	0	3541041152	34	6278
2026-01-27 03:22:38.94	326.93	19.05	-31.4	-32.0	26.9	0.00e+00	0	30	0	3546284032	34	6415
2026-01-27 03:22:39.95	327.04	18.94	-31.4	-31.9	27.0	0.00e+00	0	30	0	3552575488	34	6364
2026-01-27 03:22:40.95	327.14	18.83	-31.4	-32.0	26.9	0.00e+00	0	30	0	3557818368	34	6415
2026-01-27 03:22:41.97	327.24	18.71	-31.7	-32.2	26.9	0.00e+00	0	30	0	3564109824	34	6581
2026-01-27 03:22:42.98	327.34	18.60	-31.7	-32.2	26.8	0.00e+00	0	30	0	3569352704	34	6590
2026-01-27 03:22:43.99	327.44	18.49	-31.7	-32.3	26.7	0.00e+00	0	30	0	3574595584	34	6648
2026-01-27 03:22:45.00	327.54	18.37	-31.9	-32.4	26.6	0.00e+00	0	30	0	3580887040	36	6016
2026-01-27 03:22:46.01	327.64	18.26	-32.1	-32.6	26.6	0.00e+00	0	30	0	3586129920	36	6159
2026-01-27 03:22:47.02	327.74	18.15	-32.1	-32.6	26.5	0.00e+00	0	30	0	3592421376	36	6160
2026-01-27 03:22:48.03	327.83	18.04	-32.0	-32.5	26.5	0.00e+00	0	30	0	3597664256	36	6095
2026-01-27 03:22:49.04	327.93	17.93	-32.0	-32.8	26.5	0.00e+00	0	30	0	3602907136	36	6247
2026-01-27 03:22:50.05	328.03	17.82	-32.1	-32.8	26.4	0.00e+00	0	30	0	3609198592	36	6275
2026-01-27 03:22:51.06	328.12	17.71	-32.2	-32.8	26.3	0.00e+00	0	30	0	3614441472	36	6303
2026-01-27 03:22:52.07	328.22	17.60	-32.1	-32.8	26.5	0.00e+00	0	30	0	3620732928	36	6316
2026-01-27 03:22:53.08	328.31	17.49	-32.0	-32.6	26.4	0.00e+00	0	30	0	3625975808	36	6139
2026-01-27 03:22:54.09	328.40	17.38	-32.0	-32.7	26.5	0.00e+00	0	30	0	3631218688	36	6214
