passes_logs/2026/01/27/R4.6S_Anadyr/R4.6S_Anadyr__20260127_013650_AQUA_rec.log

#Pass ID: 20260127_013650_AQUA
#Satellite: AQUA
#Configuration: AQUA
#almurnet v.1.7.20251203
#Start time: 2026-01-27 01:36:52

#Version: 2.2.20231116
#Station: R4.6S_Anadyr
#Location: 177.4865 lon 64.73178 lat
#TLE: 1 27424U 02022A   26026.53345137  .00001758  00000+0  36150-3 0  9990
#TLE: 2 27424  98.4100 353.1559 0001880  64.8012  49.4917 14.61862630262575

#Time	Az	El	Level	Level2	SNR	BER	BlckErr	Temp	State	Recorded	gain1	gain2
2026-01-27 01:36:52.75	147.03	0.15	-49.1	-64.0	3.5	1.51e+00	0	26	0	0	60	57434
2026-01-27 01:36:53.74	147.02	0.22	-49.4	-67.3	3.5	3.02e+01	0	27	104	0	60	89357
2026-01-27 01:36:54.75	147.01	0.28	-49.4	-67.3	3.5	3.02e+01	0	27	104	0	60	88777
2026-01-27 01:36:55.76	147.00	0.34	-49.4	-67.3	3.5	3.02e+01	0	27	104	0	60	89041
2026-01-27 01:36:56.77	146.99	0.40	-49.4	-67.2	3.5	3.02e+01	0	27	104	0	60	88604
2026-01-27 01:36:57.78	146.98	0.47	-49.4	-67.3	3.5	3.02e+01	0	27	104	0	60	89118
2026-01-27 01:36:58.78	146.97	0.53	-49.5	-67.3	3.5	3.02e+01	0	27	104	0	60	89027
2026-01-27 01:36:59.80	146.96	0.60	-49.5	-67.3	3.5	3.02e+01	0	27	104	0	60	89337
2026-01-27 01:37:00.80	146.95	0.66	-49.5	-67.3	3.5	3.02e+01	0	27	104	0	60	89658
2026-01-27 01:37:01.81	146.94	0.72	-49.5	-67.3	3.5	3.02e+01	0	27	104	0	60	89215
2026-01-27 01:37:02.82	146.93	0.79	-49.5	-67.4	3.5	3.02e+01	0	27	104	0	60	89935
2026-01-27 01:37:03.83	146.92	0.85	-49.4	-67.4	3.5	3.02e+01	0	27	104	0	60	89751
2026-01-27 01:37:04.85	146.91	0.92	-49.4	-67.3	3.5	3.02e+01	0	27	104	0	60	89098
2026-01-27 01:37:05.86	146.90	0.98	-49.4	-67.2	3.5	3.02e+01	0	27	104	0	60	88668
2026-01-27 01:37:06.87	146.88	1.04	-49.2	-67.2	3.5	3.02e+01	0	27	104	0	60	88005
2026-01-27 01:37:07.88	146.87	1.11	-49.3	-67.2	3.5	3.02e+01	0	27	104	0	60	88117
2026-01-27 01:37:08.88	146.86	1.17	-49.2	-67.0	3.5	3.02e+01	0	28	104	0	60	86519
2026-01-27 01:37:09.90	146.85	1.24	-49.1	-67.0	3.5	3.02e+01	0	28	104	0	60	85954
2026-01-27 01:37:10.91	146.84	1.30	-49.0	-66.9	3.5	3.02e+01	0	28	104	0	60	84837
2026-01-27 01:37:11.91	146.83	1.37	-48.9	-66.8	3.5	3.02e+01	0	28	104	0	60	84124
2026-01-27 01:37:12.92	146.82	1.43	-48.9	-66.7	3.5	3.02e+01	0	28	104	0	60	83431
2026-01-27 01:37:13.93	146.81	1.50	-48.7	-66.6	3.5	3.02e+01	0	28	104	0	60	81945
2026-01-27 01:37:14.94	146.79	1.57	-48.5	-66.3	3.5	3.02e+01	0	28	104	0	60	79884
2026-01-27 01:37:15.95	146.78	1.63	-48.1	-66.1	3.5	3.02e+01	0	28	104	0	60	78081
2026-01-27 01:37:16.96	146.77	1.70	-47.7	-65.0	3.5	3.02e+01	0	28	104	0	60	68662
2026-01-27 01:37:17.97	146.76	1.76	-47.7	-65.0	3.5	3.02e+01	0	28	104	0	60	68828
2026-01-27 01:37:18.98	146.75	1.83	-47.7	-65.3	3.5	3.02e+01	0	28	104	0	60	70458
2026-01-27 01:37:19.99	146.74	1.90	-47.7	-65.1	3.5	3.02e+01	0	28	104	0	60	69109
2026-01-27 01:37:21.00	146.72	1.97	-47.7	-65.1	3.5	3.02e+01	0	28	104	0	60	69293
2026-01-27 01:37:22.01	146.71	2.03	-47.7	-65.1	3.5	3.02e+01	0	28	104	0	60	69170
2026-01-27 01:37:23.02	146.70	2.10	-47.7	-65.1	3.5	3.02e+01	0	28	104	0	60	69601
2026-01-27 01:37:24.03	146.69	2.17	-47.7	-65.0	3.5	3.02e+01	0	28	104	0	60	68048
2026-01-27 01:37:25.04	146.68	2.23	-47.7	-65.0	3.5	3.02e+01	0	28	104	0	60	68755
2026-01-27 01:37:26.05	146.66	2.30	-47.7	-65.1	3.5	3.02e+01	0	28	104	0	60	69478
2026-01-27 01:37:27.06	146.65	2.37	-47.7	-65.2	3.5	3.02e+01	0	28	104	0	60	69914
2026-01-27 01:37:28.07	146.64	2.44	-47.7	-65.2	3.5	3.02e+01	0	28	104	0	60	70191
2026-01-27 01:37:29.08	146.63	2.51	-47.7	-65.4	3.5	3.02e+01	0	28	104	0	60	71388
2026-01-27 01:37:30.09	146.61	2.58	-47.7	-65.4	3.5	3.02e+01	0	28	104	0	60	71406
2026-01-27 01:37:31.10	146.60	2.64	-47.7	-65.4	3.5	3.02e+01	0	28	104	0	60	71728
2026-01-27 01:37:32.10	146.59	2.71	-47.7	-65.3	3.5	3.02e+01	0	28	104	0	60	70490
2026-01-27 01:37:33.11	146.57	2.78	-47.7	-65.1	3.5	3.02e+01	0	28	104	0	60	69253
2026-01-27 01:37:34.13	146.56	2.85	-47.7	-64.9	3.5	3.02e+01	0	28	104	0	60	67832
2026-01-27 01:37:35.14	146.55	2.92	-47.7	-64.7	3.5	3.02e+01	0	28	104	0	60	66050
2026-01-27 01:37:36.15	146.54	2.99	-47.6	-64.3	3.5	3.02e+01	0	28	104	0	60	63148
2026-01-27 01:37:37.16	146.52	3.06	-47.6	-64.6	3.5	3.02e+01	0	28	104	0	60	65209
2026-01-27 01:37:38.16	146.51	3.13	-47.7	-65.1	3.5	3.02e+01	0	28	104	0	60	69170
2026-01-27 01:37:39.17	146.50	3.20	-47.7	-65.6	3.5	3.02e+01	0	28	104	0	60	73178
2026-01-27 01:37:40.19	146.48	3.27	-47.6	-64.3	3.5	3.02e+01	0	28	104	0	60	63047
2026-01-27 01:37:41.20	146.47	3.34	-47.5	-60.6	5.2	3.02e+01	24	28	104	0	60	41394
2026-01-27 01:37:42.21	146.45	3.41	-47.1	-55.8	9.1	3.02e+01	2	28	0	1048576	60	23763
2026-01-27 01:37:43.22	146.44	3.48	-46.5	-53.3	11.7	3.02e+01	0	28	0	3145728	60	17808
2026-01-27 01:37:44.23	146.43	3.55	-45.6	-50.5	14.7	3.02e+01	0	28	0	4718592	60	12876
2026-01-27 01:37:45.24	146.41	3.63	-44.6	-48.5	16.8	3.02e+01	0	28	0	6815744	60	10184
2026-01-27 01:37:46.25	146.40	3.70	-42.6	-45.2	20.1	3.02e+01	0	28	0	8388608	60	6999
2026-01-27 01:37:47.26	146.39	3.77	-42.1	-44.5	20.7	3.02e+01	0	28	0	10485760	60	6451
2026-01-27 01:37:48.27	146.37	3.84	-41.1	-43.2	22.0	3.02e+01	0	28	0	12582912	58	6243
2026-01-27 01:37:49.28	146.36	3.91	-40.5	-42.4	22.7	3.02e+01	0	28	0	14155776	56	6406
2026-01-27 01:37:50.29	146.34	3.99	-40.8	-42.8	22.6	3.02e+01	0	28	0	16252928	56	6651
2026-01-27 01:37:51.30	146.33	4.06	-48.0	-61.8	4.6	3.02e+01	0	28	104	16777216	60	47404
2026-01-27 01:37:52.31	146.31	4.13	-45.5	-50.4	17.1	3.02e+01	0	28	104	16777216	60	12671
2026-01-27 01:37:53.32	146.30	4.21	-44.9	-49.3	16.4	3.02e+01	0	28	0	17825792	60	11191
2026-01-27 01:37:54.33	146.28	4.28	-40.4	-42.3	22.9	3.02e+01	0	28	0	19922944	56	6327
2026-01-27 01:37:55.34	146.27	4.35	-46.9	-55.2	9.9	3.02e+01	0	28	0	21495808	60	22249
2026-01-27 01:37:56.35	146.25	4.43	-40.4	-42.3	23.0	3.02e+01	0	28	0	23592960	56	6286
2026-01-27 01:37:57.36	146.24	4.50	-39.6	-41.4	23.9	3.02e+01	0	28	0	25690112	54	6353
2026-01-27 01:37:58.37	146.22	4.57	-39.2	-40.8	24.6	3.02e+01	0	28	0	27262976	54	5977
2026-01-27 01:37:59.38	146.21	4.65	-39.2	-40.8	24.4	3.02e+01	0	28	0	29360128	52	6688
2026-01-27 01:38:00.39	146.19	4.72	-38.5	-40.0	25.3	3.02e+01	0	28	0	30932992	52	6104
2026-01-27 01:38:01.39	146.18	4.80	-38.3	-39.8	25.5	3.02e+01	0	28	0	33030144	52	5953
2026-01-27 01:38:02.40	146.16	4.87	-38.3	-39.8	25.6	3.02e+01	0	28	0	35127296	52	5948
2026-01-27 01:38:03.41	146.15	4.95	-38.2	-39.7	25.6	3.02e+01	0	28	0	36700160	50	6578
2026-01-27 01:38:04.42	146.13	5.02	-38.3	-39.8	25.6	3.02e+01	0	28	0	38797312	50	6698
2026-01-27 01:38:05.43	146.11	5.10	-38.5	-40.1	25.4	3.02e+01	0	28	0	40894464	50	6899
2026-01-27 01:38:06.44	146.10	5.18	-38.5	-40.1	25.6	3.02e+01	0	28	0	42467328	50	6913
2026-01-27 01:38:07.45	146.08	5.25	-38.6	-40.1	25.4	3.02e+01	0	28	0	44564480	50	6957
2026-01-27 01:38:08.46	146.07	5.33	-38.6	-40.1	25.3	3.02e+01	0	28	0	46137344	50	6950
2026-01-27 01:38:09.47	146.05	5.41	-37.6	-39.0	26.4	3.02e+01	0	28	0	48234496	50	6110
2026-01-27 01:38:10.48	146.03	5.48	-38.4	-39.9	25.5	3.02e+01	0	28	0	50331648	50	6795
2026-01-27 01:38:11.49	146.02	5.56	-38.1	-39.6	25.9	3.02e+01	0	28	0	51904512	50	6509
2026-01-27 01:38:12.50	146.00	5.64	-38.5	-40.0	25.7	3.02e+01	0	28	0	54001664	50	6873
2026-01-27 01:38:13.51	145.98	5.72	-38.0	-39.5	26.0	3.02e+01	0	28	0	56098816	50	6462
2026-01-27 01:38:14.52	145.97	5.79	-37.9	-39.3	26.2	3.02e+01	0	28	0	57671680	50	6342
2026-01-27 01:38:15.53	145.95	5.87	-38.0	-39.5	25.9	3.02e+01	0	28	0	59768832	50	6463
2026-01-27 01:38:16.54	145.93	5.95	-37.9	-39.3	26.2	3.02e+01	0	28	0	61341696	50	6323
2026-01-27 01:38:17.55	145.92	6.03	-37.0	-38.4	27.1	3.02e+01	0	28	0	63438848	50	5661
2026-01-27 01:38:18.56	145.90	6.11	-37.4	-38.8	26.6	3.02e+01	0	28	0	65536000	48	6659
2026-01-27 01:38:19.57	145.88	6.19	-37.1	-38.4	27.0	3.02e+01	0	28	0	67108864	48	6411
2026-01-27 01:38:20.58	145.86	6.27	-37.2	-38.6	26.9	3.02e+01	0	28	0	69206016	48	6504
2026-01-27 01:38:21.59	145.84	6.35	-37.3	-38.7	26.7	3.02e+01	0	28	0	70778880	48	6584
2026-01-27 01:38:22.60	145.83	6.43	-37.0	-38.3	27.0	3.02e+01	0	28	0	72876032	48	6336
2026-01-27 01:38:23.61	145.81	6.51	-36.8	-38.1	27.2	3.02e+01	0	28	0	74973184	48	6172
2026-01-27 01:38:24.62	145.79	6.59	-37.0	-38.3	27.1	3.02e+01	0	28	0	76546048	48	6330
2026-01-27 01:38:25.63	145.77	6.67	-37.1	-38.4	27.0	3.02e+01	0	28	0	78643200	48	6400
2026-01-27 01:38:26.64	145.75	6.75	-37.1	-38.4	27.0	3.02e+01	0	28	0	80216064	48	6408
2026-01-27 01:38:27.65	145.74	6.83	-36.8	-38.1	27.3	3.02e+01	0	28	0	82313216	48	6202
2026-01-27 01:38:28.66	145.72	6.92	-37.1	-38.4	27.0	3.02e+01	0	28	0	84410368	48	6389
2026-01-27 01:38:29.67	145.70	7.00	-37.0	-38.4	27.1	3.02e+01	0	28	0	85983232	48	6373
2026-01-27 01:38:30.68	145.68	7.08	-36.6	-37.9	27.5	3.02e+01	0	28	0	88080384	48	6015
2026-01-27 01:38:31.69	145.66	7.16	-36.7	-38.0	27.5	3.02e+01	0	28	0	89653248	48	6088
2026-01-27 01:38:32.70	145.64	7.25	-36.8	-38.2	27.3	3.02e+01	0	28	0	91750400	48	6227
2026-01-27 01:38:33.71	145.62	7.33	-36.9	-38.2	27.2	3.02e+01	0	28	0	93847552	48	6277
2026-01-27 01:38:34.72	145.60	7.41	-37.0	-38.3	27.3	3.02e+01	0	28	0	95420416	48	6347
2026-01-27 01:38:35.73	145.58	7.50	-36.6	-38.0	27.5	3.02e+01	0	28	0	97517568	48	6085
2026-01-27 01:38:36.73	145.56	7.58	-36.4	-37.7	27.8	3.02e+01	0	28	0	99090432	48	5922
2026-01-27 01:38:37.74	145.54	7.67	-36.6	-37.9	27.6	3.02e+01	0	28	0	101187584	48	6032
2026-01-27 01:38:38.75	145.52	7.75	-36.7	-38.0	27.6	3.02e+01	0	28	0	103284736	48	6092
2026-01-27 01:38:39.76	145.50	7.84	-36.8	-38.1	27.4	3.02e+01	0	28	0	104857600	48	6205
2026-01-27 01:38:40.77	145.48	7.92	-36.4	-37.7	27.8	3.02e+01	0	28	0	106954752	48	5919
2026-01-27 01:38:41.78	145.46	8.01	-36.5	-37.8	27.7	3.02e+01	0	28	0	109051904	48	5956
2026-01-27 01:38:42.79	145.44	8.09	-36.3	-37.6	27.9	3.02e+01	0	28	0	110624768	48	5823
2026-01-27 01:38:43.80	145.42	8.18	-36.3	-37.6	27.9	3.02e+01	0	28	0	112721920	48	5824
2026-01-27 01:38:44.81	145.40	8.27	-36.3	-37.6	28.0	3.02e+01	0	28	0	114294784	48	5812
2026-01-27 01:38:45.82	145.38	8.35	-36.2	-37.5	28.0	3.02e+01	0	28	0	116391936	48	5766
2026-01-27 01:38:46.83	145.36	8.44	-36.3	-37.6	27.9	3.02e+01	0	28	0	118489088	48	5837
2026-01-27 01:38:47.84	145.34	8.53	-36.4	-37.7	27.9	3.02e+01	0	28	0	120061952	48	5879
2026-01-27 01:38:48.85	145.31	8.62	-36.5	-37.8	27.9	3.02e+01	0	28	0	122159104	48	5981
2026-01-27 01:38:49.86	145.29	8.71	-36.2	-37.5	28.1	3.02e+01	0	28	0	124256256	48	5737
2026-01-27 01:38:50.87	145.27	8.79	-36.1	-37.4	28.1	3.02e+01	0	28	0	125829120	48	5707
2026-01-27 01:38:51.88	145.25	8.88	-36.1	-37.3	28.1	3.02e+01	0	28	0	127926272	46	6323
2026-01-27 01:38:52.88	145.23	8.97	-36.4	-37.7	28.0	3.02e+01	0	28	0	129499136	46	6582
2026-01-27 01:38:53.90	145.20	9.06	-36.2	-37.5	28.1	3.02e+01	0	28	0	131596288	46	6432
2026-01-27 01:38:54.90	145.18	9.15	-36.1	-37.4	28.2	3.02e+01	0	28	0	133693440	46	6375
2026-01-27 01:38:55.91	145.16	9.24	-36.0	-37.3	28.2	3.02e+01	0	28	0	135266304	46	6304
2026-01-27 01:38:56.92	145.14	9.33	-36.1	-37.4	28.2	3.02e+01	0	28	0	137363456	46	6388
2026-01-27 01:38:57.93	145.11	9.43	-35.9	-37.2	28.3	3.02e+01	0	28	0	138936320	46	6228
2026-01-27 01:38:58.94	145.09	9.52	-36.0	-37.3	28.3	3.02e+01	0	28	0	141033472	46	6280
2026-01-27 01:38:59.95	145.07	9.61	-35.9	-37.2	28.4	3.02e+01	0	28	0	143130624	46	6223
2026-01-27 01:39:00.96	145.04	9.70	-35.9	-37.1	28.4	3.02e+01	0	28	0	144703488	46	6194
2026-01-27 01:39:01.97	145.02	9.80	-36.0	-37.3	28.3	3.02e+01	0	28	0	146800640	46	6302
2026-01-27 01:39:02.98	144.99	9.89	-36.0	-37.3	28.3	3.02e+01	0	28	0	148373504	46	6327
2026-01-27 01:39:03.99	144.97	9.98	-36.0	-37.3	28.3	3.02e+01	0	28	0	150470656	46	6317
2026-01-27 01:39:05.00	144.95	10.08	-35.8	-37.0	28.6	3.02e+01	0	28	0	152567808	46	6117
2026-01-27 01:39:06.01	144.92	10.17	-35.8	-37.0	28.6	3.02e+01	0	28	0	154140672	46	6112
2026-01-27 01:39:07.02	144.90	10.27	-35.8	-37.1	28.5	3.02e+01	0	28	0	156237824	46	6163
2026-01-27 01:39:08.03	144.87	10.36	-35.7	-36.9	28.5	3.02e+01	0	28	0	157810688	46	6040
2026-01-27 01:39:09.05	144.85	10.46	-35.8	-37.1	28.4	3.02e+01	0	28	0	159907840	46	6135
2026-01-27 01:39:10.06	144.82	10.55	-35.7	-36.9	28.5	3.02e+01	0	28	0	162004992	46	6056
2026-01-27 01:39:11.07	144.79	10.65	-35.6	-36.9	28.5	3.02e+01	0	28	0	163577856	46	6029
2026-01-27 01:39:12.07	144.77	10.75	-35.7	-37.0	28.5	3.02e+01	0	28	0	165675008	46	6094
2026-01-27 01:39:13.09	144.74	10.84	-35.7	-36.9	28.5	3.02e+01	0	28	0	167247872	46	6038
2026-01-27 01:39:14.09	144.72	10.94	-35.8	-37.0	28.5	3.02e+01	0	28	0	169345024	46	6104
2026-01-27 01:39:15.10	144.69	11.04	-35.6	-36.8	28.7	3.02e+01	0	28	0	171442176	46	5963
2026-01-27 01:39:16.11	144.66	11.14	-36.0	-46.2	3.6	3.02e+01	0	28	104	171442176	46	17540
2026-01-27 01:39:17.12	144.64	11.24	-36.0	-46.2	3.4	3.02e+01	0	28	104	171442176	46	17630
2026-01-27 01:39:18.13	144.61	11.34	-39.0	-49.5	3.6	3.02e+01	0	28	104	171442176	52	18183
2026-01-27 01:39:19.14	144.58	11.44	-41.0	-51.5	3.6	3.02e+01	0	28	104	171442176	56	18230
2026-01-27 01:39:20.15	144.55	11.54	-47.1	-60.9	3.5	3.02e+01	0	28	104	171442176	60	42462
2026-01-27 01:39:21.16	144.53	11.64	-48.6	-66.0	3.5	3.02e+01	0	28	104	171442176	60	77045
2026-01-27 01:39:22.17	144.50	11.74	-45.3	-57.4	3.5	3.02e+01	0	28	104	171442176	60	28637
2026-01-27 01:39:23.18	144.47	11.84	-39.6	-50.1	3.4	3.02e+01	0	28	104	171442176	54	17367
2026-01-27 01:39:24.19	144.44	11.94	-38.8	-49.1	3.6	3.02e+01	0	28	104	171442176	52	17430
2026-01-27 01:39:25.20	144.41	12.05	-39.1	-49.5	3.6	3.02e+01	0	28	104	171442176	52	18127
2026-01-27 01:39:26.21	144.38	12.15	-39.9	-50.4	3.4	3.02e+01	0	28	104	171442176	54	17954
2026-01-27 01:39:27.22	144.36	12.25	-42.0	-52.8	4.1	3.02e+01	0	28	104	171442176	58	18877
2026-01-27 01:39:28.23	144.33	12.36	-48.6	-65.7	3.5	3.02e+01	0	28	104	171442176	60	73801
2026-01-27 01:39:29.24	144.30	12.46	-40.4	-50.9	4.1	3.02e+01	0	28	104	171442176	58	15190
2026-01-27 01:39:30.25	144.27	12.57	-46.1	-58.7	3.7	3.02e+01	0	28	104	171442176	60	33051
2026-01-27 01:39:31.26	144.24	12.67	-37.0	-47.1	4.1	3.02e+01	0	28	104	171442176	48	17420
2026-01-27 01:39:32.27	144.21	12.78	-36.2	-46.3	4.1	3.02e+01	0	28	104	171442176	48	15876
2026-01-27 01:39:33.28	144.18	12.88	-35.9	-46.0	3.5	3.02e+01	0	28	104	171442176	46	17238
2026-01-27 01:39:34.29	144.14	12.99	-39.1	-49.6	3.4	3.02e+01	0	28	104	171442176	56	14576
2026-01-27 01:39:35.30	144.11	13.10	-39.4	-49.8	3.6	3.02e+01	0	28	104	171442176	58	13364
2026-01-27 01:39:36.30	144.08	13.21	-48.9	-66.6	3.6	3.02e+01	0	28	104	171442176	60	82022
2026-01-27 01:39:37.31	144.05	13.32	-38.6	-49.1	3.5	3.02e+01	0	28	104	171442176	54	15428
2026-01-27 01:39:38.32	144.02	13.42	-46.2	-58.7	3.5	3.02e+01	0	28	104	171442176	60	33219
2026-01-27 01:39:39.33	143.99	13.53	-37.9	-48.2	3.5	3.02e+01	0	28	104	171442176	52	15672
2026-01-27 01:39:40.34	143.95	13.64	-36.9	-47.2	3.5	3.02e+01	0	28	104	171442176	50	15634
2026-01-27 01:39:41.35	143.92	13.76	-36.4	-46.6	3.6	3.02e+01	0	28	104	171442176	48	16434
2026-01-27 01:39:42.36	143.89	13.87	-40.3	-50.9	3.5	3.02e+01	0	28	104	171442176	54	18963
2026-01-27 01:39:43.37	143.85	13.98	-38.6	-49.0	3.6	3.02e+01	0	28	104	171442176	56	13617
2026-01-27 01:39:44.38	143.82	14.09	-46.7	-59.7	3.5	3.02e+01	0	28	104	171442176	60	37149
2026-01-27 01:39:45.39	143.79	14.20	-47.8	-62.2	3.6	3.02e+01	0	28	104	171442176	60	49694
2026-01-27 01:39:46.40	143.75	14.32	-42.0	-52.9	3.5	3.02e+01	0	28	104	171442176	60	16910
2026-01-27 01:39:47.41	143.72	14.43	-37.9	-48.3	3.6	3.02e+01	0	28	104	171442176	50	17700
2026-01-27 01:39:48.42	143.68	14.55	-36.7	-47.0	3.5	3.02e+01	0	28	104	171442176	48	17100
2026-01-27 01:39:49.43	143.65	14.66	-35.6	-45.8	3.5	3.02e+01	0	28	104	171442176	46	16796
2026-01-27 01:39:50.44	143.61	14.78	-35.2	-45.4	3.5	3.02e+01	0	28	104	171442176	46	16014
2026-01-27 01:39:51.45	143.57	14.90	-35.7	-45.9	3.5	3.02e+01	0	28	104	171442176	48	15185
2026-01-27 01:39:52.46	143.54	15.01	-47.2	-60.8	3.6	3.02e+01	0	28	104	171442176	60	42186
2026-01-27 01:39:53.47	143.50	15.13	-36.3	-46.6	3.6	3.02e+01	0	28	104	171442176	50	14571
2026-01-27 01:39:54.48	143.46	15.25	-43.2	-54.3	3.5	3.02e+01	0	28	104	171442176	60	19981
2026-01-27 01:39:55.49	143.43	15.37	-37.2	-47.5	3.5	3.02e+01	0	28	104	171442176	50	16155
2026-01-27 01:39:56.50	143.39	15.49	-36.2	-46.4	3.5	3.02e+01	0	28	104	171442176	48	16076
2026-01-27 01:39:57.51	143.35	15.61	-36.6	-46.9	3.5	3.02e+01	0	28	104	171442176	48	16935
2026-01-27 01:39:58.52	143.31	15.73	-35.5	-45.7	3.5	3.02e+01	0	28	104	171442176	48	14813
2026-01-27 01:39:59.52	143.27	15.85	-35.3	-45.5	3.5	3.02e+01	0	28	104	171442176	46	16181
2026-01-27 01:40:00.53	143.24	15.97	-47.0	-60.3	3.5	3.02e+01	0	28	104	171442176	60	39855
2026-01-27 01:40:01.54	143.20	16.09	-36.1	-46.3	3.5	3.02e+01	0	28	104	171442176	48	15821
2026-01-27 01:40:02.55	143.16	16.22	-38.8	-49.3	3.3	3.02e+01	0	28	104	171442176	56	14065
2026-01-27 01:40:03.56	143.12	16.34	-36.0	-46.2	3.5	3.02e+01	0	28	104	171442176	46	17635
2026-01-27 01:40:04.57	143.08	16.47	-35.4	-45.6	3.6	3.02e+01	0	28	104	171442176	46	16446
2026-01-27 01:40:05.58	143.03	16.59	-35.7	-45.8	3.6	3.02e+01	0	28	104	171442176	46	16884
2026-01-27 01:40:06.59	142.99	16.72	-35.2	-45.4	3.6	3.02e+01	0	28	104	171442176	46	15951
2026-01-27 01:40:07.61	142.95	16.85	-37.9	-48.2	3.5	3.02e+01	0	28	104	171442176	46	22208
2026-01-27 01:40:08.61	142.91	16.98	-47.8	-62.1	3.5	3.02e+01	0	28	104	171442176	60	48906
2026-01-27 01:40:09.62	142.87	17.10	-40.3	-50.9	3.6	3.02e+01	0	28	104	171442176	56	16939
2026-01-27 01:40:10.63	142.82	17.23	-43.4	-54.5	3.5	3.02e+01	0	28	104	171442176	60	20493
2026-01-27 01:40:11.64	142.78	17.36	-40.5	-51.1	3.5	3.02e+01	0	28	104	171442176	56	17311
2026-01-27 01:40:12.65	142.74	17.49	-38.5	-48.9	3.5	3.02e+01	0	28	104	171442176	52	16951
2026-01-27 01:40:13.66	142.69	17.63	-38.0	-48.3	3.5	3.02e+01	0	28	104	171442176	50	17881
2026-01-27 01:40:14.67	142.65	17.76	-41.3	-52.0	3.6	3.02e+01	0	28	104	171442176	54	21716
2026-01-27 01:40:15.68	142.60	17.89	-36.6	-46.8	3.5	3.02e+01	0	28	104	171442176	48	16883
2026-01-27 01:40:16.69	142.56	18.02	-48.7	-64.7	3.5	3.02e+01	0	28	104	171442176	60	65764
2026-01-27 01:40:17.70	142.51	18.16	-36.1	-46.3	3.5	3.02e+01	0	28	104	171442176	48	15862
2026-01-27 01:40:18.71	142.46	18.30	-38.3	-48.7	3.6	3.02e+01	0	28	104	171442176	52	16636
2026-01-27 01:40:19.72	142.42	18.43	-37.5	-47.8	3.5	3.02e+01	0	28	104	171442176	50	16768
2026-01-27 01:40:20.73	142.37	18.57	-36.5	-46.7	3.5	3.02e+01	0	28	104	171442176	48	16617
2026-01-27 01:40:21.74	142.32	18.71	-36.7	-46.9	3.5	3.02e+01	0	28	104	171442176	48	16934
2026-01-27 01:40:22.75	142.27	18.85	-42.8	-53.6	3.5	3.02e+01	0	28	104	171442176	56	23235
2026-01-27 01:40:23.76	142.22	18.98	-39.6	-50.0	3.5	3.02e+01	0	28	104	171442176	48	24246
2026-01-27 01:40:24.77	142.17	19.13	-49.1	-66.8	3.5	3.02e+01	0	28	104	171442176	60	83831
2026-01-27 01:40:25.78	142.12	19.27	-37.2	-47.4	3.5	3.02e+01	0	29	104	171442176	46	20219
2026-01-27 01:40:26.79	142.07	19.41	-37.4	-47.7	3.5	3.02e+01	0	28	104	171442176	50	16692
2026-01-27 01:40:27.80	142.02	19.55	-36.5	-46.8	3.5	3.02e+01	0	28	104	171442176	48	16843
2026-01-27 01:40:28.81	141.97	19.70	-36.4	-46.7	3.5	3.02e+01	0	28	104	171442176	48	16515
2026-01-27 01:40:29.82	141.92	19.84	-37.2	-47.5	3.5	3.02e+01	0	28	104	171442176	48	18130
2026-01-27 01:40:30.83	141.87	19.99	-37.8	-48.1	3.6	3.02e+01	0	28	104	171442176	46	21919
2026-01-27 01:40:31.84	141.81	20.13	-47.7	-61.7	3.5	3.02e+01	0	28	104	171442176	60	46917
2026-01-27 01:40:32.85	141.76	20.28	-48.0	-62.4	3.5	3.02e+01	0	28	104	171442176	60	50795
2026-01-27 01:40:33.86	141.70	20.43	-44.5	-55.8	3.5	3.02e+01	0	28	104	171442176	58	26666
2026-01-27 01:40:34.87	141.65	20.58	-44.2	-55.5	3.5	3.02e+01	0	28	104	171442176	60	23027
2026-01-27 01:40:35.88	141.59	20.73	-42.1	-52.9	3.5	3.02e+01	0	28	104	171442176	60	16978
2026-01-27 01:40:36.88	141.54	20.88	-40.9	-51.6	3.5	3.02e+01	0	28	104	171442176	58	16352
2026-01-27 01:40:37.89	141.48	21.03	-43.3	-54.5	3.5	3.02e+01	0	28	104	171442176	58	22988
2026-01-27 01:40:38.90	141.42	21.18	-48.9	-65.9	3.5	3.02e+01	0	28	104	171442176	60	75671
2026-01-27 01:40:39.91	141.37	21.34	-38.1	-48.4	3.6	3.02e+01	0	28	104	171442176	46	22781
2026-01-27 01:40:40.92	141.31	21.49	-42.0	-52.8	3.5	3.02e+01	0	28	104	171442176	56	21079
2026-01-27 01:40:41.93	141.25	21.65	-46.2	-58.7	3.5	3.02e+01	0	28	104	171442176	60	32976
2026-01-27 01:40:42.94	141.19	21.81	-38.7	-49.1	3.4	3.02e+01	0	28	104	171442176	54	15478
2026-01-27 01:40:43.95	141.13	21.96	-38.2	-48.5	3.5	3.02e+01	0	28	104	171442176	52	16170
2026-01-27 01:40:44.96	141.06	22.12	-36.9	-47.2	3.5	3.02e+01	0	28	104	171442176	48	17523
2026-01-27 01:40:45.97	141.00	22.28	-36.0	-46.3	3.5	3.02e+01	0	28	104	171442176	46	17699
2026-01-27 01:40:46.98	140.94	22.45	-39.4	-49.8	3.5	3.02e+01	0	28	104	171442176	50	21202
2026-01-27 01:40:47.99	140.88	22.61	-49.1	-66.7	3.5	3.02e+01	0	28	104	171442176	60	83541
2026-01-27 01:40:49.00	140.81	22.77	-45.2	-57.0	3.6	3.02e+01	0	28	104	171442176	60	27093
2026-01-27 01:40:50.01	140.75	22.94	-44.5	-55.9	3.5	3.02e+01	0	28	104	171442176	60	24101
2026-01-27 01:40:51.02	140.68	23.10	-37.4	-47.7	3.5	3.02e+01	0	28	104	171442176	50	16640
2026-01-27 01:40:52.03	140.61	23.27	-36.6	-46.9	3.6	3.02e+01	0	28	104	171442176	48	17026
2026-01-27 01:40:53.04	140.55	23.44	-36.8	-47.1	3.6	3.02e+01	0	28	104	171442176	48	17377
2026-01-27 01:40:54.05	140.48	23.61	-39.0	-49.5	3.5	3.02e+01	0	28	104	171442176	52	18182
2026-01-27 01:40:55.06	140.41	23.78	-40.4	-51.1	3.6	3.02e+01	0	28	104	171442176	52	21787
2026-01-27 01:40:56.07	140.34	23.95	-49.0	-65.8	3.5	3.02e+01	0	28	104	171442176	60	75159
2026-01-27 01:40:57.08	140.27	24.12	-45.7	-57.6	3.5	3.02e+01	0	28	104	171442176	60	29050
2026-01-27 01:40:58.09	140.20	24.30	-45.7	-57.6	3.5	3.02e+01	0	28	104	171442176	60	29060
2026-01-27 01:40:59.10	140.13	24.47	-36.9	-47.1	3.6	3.02e+01	0	28	104	171442176	50	15423
2026-01-27 01:41:00.11	140.05	24.65	-36.1	-46.4	3.5	3.02e+01	0	28	104	171442176	48	15965
2026-01-27 01:41:01.12	139.98	24.82	-35.8	-46.0	3.5	3.02e+01	0	29	104	171442176	46	17176
2026-01-27 01:41:02.13	139.90	25.00	-35.5	-45.7	3.6	3.02e+01	0	28	104	171442176	46	16584
2026-01-27 01:41:03.14	139.83	25.18	-40.2	-50.7	3.6	3.02e+01	0	28	104	171442176	54	18669
2026-01-27 01:41:04.15	139.75	25.36	-48.9	-65.9	3.5	3.02e+01	0	28	104	171442176	60	75760
2026-01-27 01:41:05.16	139.67	25.55	-48.4	-63.8	3.6	3.02e+01	0	28	104	171442176	60	59629
2026-01-27 01:41:06.17	139.59	25.73	-48.1	-62.2	3.5	3.02e+01	0	28	104	171442176	60	49734
2026-01-27 01:41:07.18	139.51	25.92	-42.5	-53.4	3.5	3.02e+01	0	28	104	171442176	60	18053
2026-01-27 01:41:08.19	139.43	26.10	-42.5	-53.4	3.5	3.02e+01	0	28	104	171442176	60	18036
2026-01-27 01:41:09.20	139.35	26.29	-42.1	-52.9	3.5	3.02e+01	0	28	104	171442176	58	19061
2026-01-27 01:41:10.21	139.27	26.48	-46.0	-58.5	3.6	3.02e+01	0	28	104	171442176	60	32552
2026-01-27 01:41:11.21	139.18	26.67	-42.9	-53.7	3.6	3.02e+01	0	28	104	171442176	60	18554
2026-01-27 01:41:12.23	139.10	26.86	-46.4	-58.8	3.5	3.02e+01	0	28	104	171442176	60	33600
2026-01-27 01:41:13.24	139.01	27.06	-48.9	-65.4	3.5	3.02e+01	0	29	104	171442176	60	71768
2026-01-27 01:41:14.25	138.92	27.25	-39.8	-50.4	3.6	3.02e+01	0	28	104	171442176	54	17911
2026-01-27 01:41:15.26	138.84	27.45	-36.8	-47.1	3.6	3.02e+01	0	29	104	171442176	48	17309
2026-01-27 01:41:16.27	138.75	27.65	-35.6	-45.8	3.5	3.02e+01	0	29	104	171442176	46	16791
2026-01-27 01:41:17.28	138.65	27.85	-35.4	-45.6	3.6	3.02e+01	0	28	104	171442176	46	16449
2026-01-27 01:41:18.29	138.56	28.05	-38.0	-48.3	3.5	3.02e+01	0	28	104	171442176	52	15769
2026-01-27 01:41:19.29	138.47	28.25	-37.6	-47.9	3.5	3.02e+01	0	29	104	171442176	52	15137
2026-01-27 01:41:20.30	138.38	28.45	-49.3	-67.0	3.5	3.02e+01	0	29	104	171442176	60	86171
2026-01-27 01:41:21.31	138.28	28.66	-43.3	-54.4	3.5	3.02e+01	0	28	104	171442176	60	20133
2026-01-27 01:41:22.32	138.18	28.86	-43.3	-54.3	3.5	3.02e+01	0	28	104	171442176	60	19944
2026-01-27 01:41:23.33	138.08	29.07	-36.3	-46.5	3.5	3.02e+01	0	28	104	171442176	48	16183
2026-01-27 01:41:24.34	137.98	29.28	-36.1	-46.3	3.6	3.02e+01	0	28	104	171442176	46	17869
2026-01-27 01:41:25.35	137.88	29.49	-35.2	-45.4	3.5	3.02e+01	0	28	104	171442176	46	15970
2026-01-27 01:41:26.36	137.78	29.71	-36.2	-46.4	3.6	3.02e+01	0	28	104	171442176	48	15958
2026-01-27 01:41:27.36	137.68	29.92	-36.7	-46.9	3.6	3.02e+01	0	28	104	171442176	52	13488
2026-01-27 01:41:28.37	137.57	30.13	-49.3	-66.8	3.5	3.02e+01	0	28	104	171442176	60	84582
2026-01-27 01:41:29.38	137.46	30.35	-46.7	-59.3	3.6	3.02e+01	0	28	104	171442176	60	35702
2026-01-27 01:41:30.39	137.35	30.57	-45.8	-57.7	3.5	3.02e+01	0	28	104	171442176	60	29408
2026-01-27 01:41:31.40	137.24	30.79	-41.7	-52.4	3.5	3.02e+01	0	29	104	171442176	58	17946
2026-01-27 01:41:32.41	137.13	31.02	-39.4	-49.8	3.5	3.02e+01	0	28	104	171442176	54	16750
2026-01-27 01:41:33.42	137.02	31.24	-37.5	-47.8	3.5	3.02e+01	0	28	104	171442176	50	16747
2026-01-27 01:41:34.43	136.90	31.47	-37.4	-47.6	3.5	3.02e+01	0	28	104	171442176	48	18409
2026-01-27 01:41:35.44	136.78	31.70	-37.1	-47.3	3.4	3.02e+01	0	28	104	171442176	54	12634
2026-01-27 01:41:36.45	136.66	31.93	-47.9	-61.8	3.5	3.02e+01	0	28	104	171442176	60	47495
2026-01-27 01:41:37.46	136.54	32.16	-44.5	-56.1	3.6	3.02e+01	0	28	104	171442176	60	24513
2026-01-27 01:41:38.47	136.42	32.39	-39.6	-50.0	3.5	3.02e+01	0	28	104	171442176	54	17097
2026-01-27 01:41:39.48	136.30	32.63	-37.4	-47.6	3.5	3.02e+01	0	28	104	171442176	50	16496
2026-01-27 01:41:40.49	136.17	32.86	-36.3	-46.5	3.5	3.02e+01	0	28	104	171442176	48	16263
2026-01-27 01:41:41.50	136.04	33.10	-36.2	-46.4	3.5	3.02e+01	0	28	104	171442176	48	15970
2026-01-27 01:41:42.51	135.91	33.34	-36.0	-46.1	3.5	3.02e+01	0	28	104	171442176	48	15569
2026-01-27 01:41:43.52	135.78	33.59	-35.1	-45.3	3.5	3.02e+01	0	28	104	171442176	46	15776
2026-01-27 01:41:44.53	135.64	33.83	-49.0	-65.6	3.5	3.02e+01	0	28	104	171442176	60	73087
2026-01-27 01:41:45.54	135.51	34.08	-38.7	-49.1	3.6	3.02e+01	0	29	104	171442176	60	10969
2026-01-27 01:41:46.55	135.37	34.33	-39.3	-49.7	3.5	3.02e+01	0	28	104	171442176	54	16628
2026-01-27 01:41:47.56	135.23	34.58	-36.9	-47.1	3.5	3.02e+01	0	29	104	171442176	48	17400
2026-01-27 01:41:48.57	135.08	34.83	-37.3	-47.6	3.6	3.02e+01	0	29	104	171442176	48	18316
2026-01-27 01:41:49.58	134.94	35.08	-38.0	-48.3	3.6	3.02e+01	0	29	104	171442176	48	19959
2026-01-27 01:41:50.59	134.79	35.34	-38.0	-48.3	3.5	3.02e+01	0	28	104	171442176	50	17693
2026-01-27 01:41:51.59	134.64	35.60	-38.4	-48.7	3.5	3.02e+01	0	29	104	171442176	50	18579
2026-01-27 01:41:52.60	134.49	35.86	-49.1	-65.6	3.5	3.02e+01	0	28	104	171442176	60	73359
2026-01-27 01:41:53.61	134.33	36.12	-37.9	-48.2	3.6	3.02e+01	0	29	104	171442176	58	11139
2026-01-27 01:41:54.62	134.17	36.38	-39.1	-49.5	3.6	3.02e+01	0	29	104	171442176	56	14518
2026-01-27 01:41:55.63	134.01	36.65	-37.9	-48.1	3.5	3.02e+01	0	28	104	171442176	50	17352
2026-01-27 01:41:56.64	133.85	36.92	-37.8	-48.1	3.5	3.02e+01	0	29	104	171442176	50	17381
2026-01-27 01:41:57.65	133.68	37.19	-36.7	-46.9	3.5	3.02e+01	0	28	104	171442176	48	17037
2026-01-27 01:41:58.66	133.51	37.46	-37.3	-47.6	3.5	3.02e+01	0	28	104	171442176	48	18455
2026-01-27 01:41:59.67	133.34	37.73	-41.6	-52.3	3.5	3.02e+01	0	29	104	171442176	48	31487
2026-01-27 01:42:00.68	133.17	38.01	-48.7	-64.5	3.5	3.02e+01	0	28	104	171442176	60	64300
2026-01-27 01:42:01.69	132.99	38.29	-38.4	-48.8	3.5	3.02e+01	0	29	104	171442176	52	16722
2026-01-27 01:42:02.70	132.80	38.57	-40.9	-51.5	3.5	3.02e+01	0	29	104	171442176	58	16223
2026-01-27 01:42:03.71	132.62	38.85	-39.1	-49.5	3.5	3.02e+01	0	29	104	171442176	54	16278
2026-01-27 01:42:04.72	132.43	39.14	-38.4	-48.8	3.6	3.02e+01	0	29	104	171442176	52	16807
2026-01-27 01:42:05.73	132.24	39.43	-41.0	-51.7	3.5	3.02e+01	0	29	104	171442176	54	20971
2026-01-27 01:42:06.74	132.04	39.72	-43.5	-54.6	3.5	3.02e+01	0	29	104	171442176	60	20708
2026-01-27 01:42:07.75	131.84	40.01	-45.2	-56.8	3.5	3.02e+01	0	29	104	171442176	58	29917
2026-01-27 01:42:08.75	131.64	40.30	-49.4	-66.9	3.5	3.02e+01	0	29	104	171442176	60	84855
2026-01-27 01:42:09.77	131.43	40.60	-37.1	-47.4	3.5	3.02e+01	0	29	104	171442176	48	17978
2026-01-27 01:42:10.77	131.22	40.89	-38.4	-48.7	3.5	3.02e+01	0	29	104	171442176	52	16645
2026-01-27 01:42:11.78	131.01	41.19	-38.6	-49.1	3.5	3.02e+01	0	29	104	171442176	52	17307
2026-01-27 01:42:12.79	130.79	41.50	-37.3	-47.6	3.5	3.02e+01	0	29	104	171442176	50	16392
2026-01-27 01:42:13.80	130.57	41.80	-38.2	-48.6	3.5	3.02e+01	0	29	104	171442176	48	20592
2026-01-27 01:42:14.81	130.34	42.11	-37.9	-48.2	3.5	3.02e+01	0	29	104	171442176	48	19637
2026-01-27 01:42:15.82	130.11	42.42	-48.9	-64.9	3.5	3.02e+01	0	29	104	171442176	60	67557
2026-01-27 01:42:16.83	129.87	42.73	-48.9	-64.9	3.5	3.02e+01	0	29	104	171442176	60	67687
2026-01-27 01:42:17.84	129.63	43.04	-39.8	-50.3	3.5	3.02e+01	0	29	104	171442176	50	22465
2026-01-27 01:42:18.85	129.38	43.36	-38.0	-48.4	3.5	3.02e+01	0	29	104	171442176	50	17972
2026-01-27 01:42:19.86	129.13	43.67	-37.6	-47.9	3.6	3.02e+01	0	29	104	171442176	50	16999
2026-01-27 01:42:20.87	128.87	43.99	-36.9	-47.0	3.6	3.02e+01	0	29	104	171442176	48	17225
2026-01-27 01:42:21.88	128.61	44.31	-46.8	-59.5	3.5	3.02e+01	0	29	104	171442176	60	36142
2026-01-27 01:42:22.89	128.34	44.64	-42.3	-53.2	3.5	3.02e+01	0	28	104	171442176	56	22267
2026-01-27 01:42:23.90	128.07	44.96	-48.9	-64.7	3.5	3.02e+01	0	29	104	171442176	60	66074
2026-01-27 01:42:24.90	127.79	45.29	-49.0	-65.2	3.5	3.02e+01	0	29	104	171442176	60	69642
2026-01-27 01:42:25.91	127.51	45.62	-39.9	-50.4	3.5	3.02e+01	0	29	104	171442176	52	20177
2026-01-27 01:42:26.92	127.22	45.95	-39.6	-50.1	3.6	3.02e+01	0	29	104	171442176	54	17332
2026-01-27 01:42:27.93	126.92	46.29	-39.0	-49.4	3.5	3.02e+01	0	29	104	171442176	54	15980
2026-01-27 01:42:28.94	126.62	46.62	-37.6	-48.0	3.5	3.02e+01	0	29	104	171442176	50	17234
2026-01-27 01:42:29.95	126.30	46.96	-37.0	-47.2	3.5	3.02e+01	0	29	104	171442176	48	17590
2026-01-27 01:42:30.96	125.99	47.30	-38.9	-49.3	3.6	3.02e+01	0	29	104	171442176	48	22286
2026-01-27 01:42:31.97	125.66	47.64	-49.3	-66.4	3.5	3.02e+01	0	29	104	171442176	60	80790
2026-01-27 01:42:32.98	125.33	47.99	-49.0	-65.1	3.5	3.02e+01	0	29	104	171442176	60	69020
2026-01-27 01:42:33.99	124.99	48.33	-43.1	-54.0	3.5	3.02e+01	0	29	104	171442176	56	24387
2026-01-27 01:42:35.00	124.64	48.68	-38.7	-49.2	3.5	3.02e+01	0	29	104	171442176	54	15613
2026-01-27 01:42:36.01	124.28	49.03	-37.1	-47.3	3.6	3.02e+01	0	29	104	171442176	50	15949
2026-01-27 01:42:37.02	123.92	49.38	-37.2	-47.6	3.6	3.02e+01	0	29	104	171442176	48	18315
2026-01-27 01:42:38.03	123.55	49.73	-43.8	-55.0	3.5	3.02e+01	0	29	104	171442176	60	21652
2026-01-27 01:42:39.04	123.16	50.08	-43.7	-54.7	3.5	3.02e+01	0	29	104	171442176	60	20935
2026-01-27 01:42:40.05	122.77	50.44	-48.9	-64.7	3.5	3.02e+01	0	29	104	171442176	60	66298
2026-01-27 01:42:41.06	122.37	50.80	-49.1	-65.6	3.5	3.02e+01	0	29	104	171442176	60	73665
2026-01-27 01:42:42.07	121.96	51.15	-39.7	-50.2	3.6	3.02e+01	0	29	104	171442176	50	22071
2026-01-27 01:42:43.08	121.54	51.51	-36.9	-47.1	3.5	3.02e+01	0	29	104	171442176	48	17355
2026-01-27 01:42:44.09	121.11	51.87	-35.8	-46.0	3.5	3.02e+01	0	29	104	171442176	46	17156
2026-01-27 01:42:45.10	120.67	52.24	-35.5	-45.7	3.5	3.02e+01	0	29	104	171442176	46	16560
2026-01-27 01:42:46.11	120.22	52.60	-43.7	-54.8	3.5	3.02e+01	0	29	104	171442176	60	21268
2026-01-27 01:42:47.12	119.75	52.96	-39.9	-50.4	3.5	3.02e+01	0	29	104	171442176	50	22757
2026-01-27 01:42:48.13	119.27	53.33	-49.0	-65.1	3.5	3.02e+01	0	29	104	171442176	60	69526
2026-01-27 01:42:49.14	118.79	53.69	-48.6	-63.7	3.5	3.02e+01	0	29	104	171442176	60	58610
2026-01-27 01:42:50.15	118.28	54.06	-47.0	-59.8	3.5	3.02e+01	0	29	104	171442176	60	37546
2026-01-27 01:42:51.16	117.77	54.42	-41.8	-52.6	3.5	3.02e+01	0	29	104	171442176	60	16496
2026-01-27 01:42:52.17	117.24	54.79	-41.4	-52.1	3.5	3.02e+01	0	29	104	171442176	58	17349
2026-01-27 01:42:53.18	116.70	55.16	-42.0	-52.8	3.5	3.02e+01	0	29	104	171442176	58	18850
2026-01-27 01:42:54.19	116.15	55.52	-48.5	-63.9	3.6	3.02e+01	0	29	104	171442176	60	60379
2026-01-27 01:42:55.20	115.57	55.89	-40.1	-50.4	3.5	3.02e+01	0	29	104	171442176	60	12766
2026-01-27 01:42:56.21	114.99	56.25	-48.9	-64.6	3.5	3.02e+01	0	29	104	171442176	60	65035
2026-01-27 01:42:57.22	114.39	56.62	-49.3	-67.1	3.5	3.02e+01	0	29	104	171442176	60	87296
2026-01-27 01:42:58.23	113.77	56.98	-41.3	-52.0	3.5	3.02e+01	0	29	104	171442176	56	19372
2026-01-27 01:42:59.24	113.13	57.35	-37.7	-47.9	3.6	3.02e+01	0	29	104	171442176	50	17003
2026-01-27 01:43:00.24	112.49	57.71	-37.3	-47.5	3.5	3.02e+01	0	29	104	171442176	50	16248
2026-01-27 01:43:01.25	111.82	58.07	-37.6	-47.9	3.5	3.02e+01	0	29	104	171442176	50	16919
2026-01-27 01:43:02.26	111.13	58.43	-40.8	-51.3	3.6	3.02e+01	0	29	104	171442176	60	14158
2026-01-27 01:43:03.28	110.41	58.79	-40.2	-50.7	3.6	3.02e+01	0	29	104	171442176	56	16548
2026-01-27 01:43:04.28	109.69	59.14	-49.3	-66.4	3.5	3.02e+01	0	29	104	171442176	60	80128
2026-01-27 01:43:05.29	108.94	59.50	-49.0	-64.8	3.5	3.02e+01	0	29	104	171442176	60	67136
2026-01-27 01:43:06.31	108.17	59.85	-41.7	-52.4	3.5	3.02e+01	0	29	104	171442176	60	16111
2026-01-27 01:43:07.32	107.38	60.20	-38.8	-49.3	3.6	3.02e+01	0	29	104	171442176	52	17786
2026-01-27 01:43:08.33	106.57	60.55	-37.4	-47.5	3.5	3.02e+01	0	29	104	171442176	50	16256
2026-01-27 01:43:09.34	105.73	60.89	-36.7	-47.0	3.5	3.02e+01	0	29	104	171442176	48	17099
2026-01-27 01:43:10.35	104.88	61.23	-38.3	-48.5	3.6	3.02e+01	0	29	104	171442176	52	16317
2026-01-27 01:43:11.36	103.99	61.56	-38.6	-48.9	3.4	3.02e+01	0	29	104	171442176	54	15150
2026-01-27 01:43:12.37	103.09	61.89	-49.0	-65.0	3.5	3.02e+01	0	29	104	171442176	60	68477
2026-01-27 01:43:13.38	102.16	62.22	-49.2	-66.7	3.6	3.02e+01	0	29	104	171442176	60	82987
2026-01-27 01:43:14.39	101.21	62.54	-42.8	-53.6	3.5	3.02e+01	0	29	104	171442176	58	20662
2026-01-27 01:43:15.40	100.22	62.86	-41.0	-51.7	3.5	3.02e+01	0	29	104	171442176	56	18546
2026-01-27 01:43:16.41	99.22	63.17	-40.8	-51.3	3.5	3.02e+01	0	29	104	171442176	56	17734
2026-01-27 01:43:17.41	98.20	63.47	-40.4	-51.0	3.5	3.02e+01	0	29	104	171442176	56	17241
2026-01-27 01:43:18.43	97.12	63.77	-40.8	-51.1	3.5	3.02e+01	0	29	104	171442176	56	17434
2026-01-27 01:43:19.44	96.04	64.06	-39.4	-50.0	3.5	3.02e+01	0	29	104	171442176	56	15254
2026-01-27 01:43:20.45	94.92	64.34	-49.3	-66.7	3.5	3.02e+01	0	29	104	171442176	60	83355
2026-01-27 01:43:21.46	93.78	64.61	-46.6	-58.9	3.5	3.02e+01	0	29	104	171442176	60	34071
2026-01-27 01:43:22.46	92.62	64.88	-43.1	-54.2	3.5	3.02e+01	0	29	104	171442176	60	19646
2026-01-27 01:43:23.48	91.41	65.14	-40.5	-51.0	3.5	3.02e+01	0	29	104	171442176	56	17253
2026-01-27 01:43:24.49	90.19	65.39	-39.6	-50.2	3.5	3.02e+01	0	29	104	171442176	54	17617
2026-01-27 01:43:25.50	88.94	65.63	-39.6	-50.0	3.5	3.02e+01	0	29	104	171442176	54	17213
2026-01-27 01:43:26.51	87.66	65.86	-40.8	-51.4	3.5	3.02e+01	0	29	104	171442176	56	17941
2026-01-27 01:43:27.51	86.36	66.07	-41.1	-51.5	3.5	3.02e+01	0	29	104	171442176	58	16198
2026-01-27 01:43:28.52	85.03	66.28	-49.1	-65.7	3.5	3.02e+01	0	29	104	171442176	60	74310
2026-01-27 01:43:29.53	83.68	66.48	-47.0	-60.0	3.6	3.02e+01	0	29	104	171442176	60	38267
2026-01-27 01:43:30.54	82.29	66.66	-43.7	-54.8	3.5	3.02e+01	0	29	104	171442176	60	21256
2026-01-27 01:43:31.55	80.89	66.83	-40.9	-51.4	3.6	3.02e+01	0	29	104	171442176	58	16020
2026-01-27 01:43:32.56	79.46	66.99	-40.9	-51.4	3.5	3.02e+01	0	29	104	171442176	56	17908
2026-01-27 01:43:33.57	78.01	67.14	-40.8	-51.4	3.5	3.02e+01	0	29	104	171442176	56	17955
2026-01-27 01:43:34.58	76.55	67.27	-39.9	-50.3	3.5	3.02e+01	0	29	104	171442176	56	15923
2026-01-27 01:43:35.59	75.06	67.39	-44.3	-55.6	3.5	3.02e+01	0	29	104	171442176	56	29248
2026-01-27 01:43:36.60	73.56	67.50	-49.2	-65.9	3.5	3.02e+01	0	29	104	171442176	60	76236
2026-01-27 01:43:37.61	72.04	67.59	-43.0	-54.3	3.5	3.02e+01	0	29	104	171442176	60	19894
2026-01-27 01:43:38.62	70.51	67.67	-43.8	-54.7	3.5	3.02e+01	0	29	104	171442176	60	21008
2026-01-27 01:43:39.62	68.99	67.73	-42.5	-53.6	3.5	3.02e+01	0	29	104	171442176	60	18426
2026-01-27 01:43:40.63	67.44	67.78	-43.3	-54.3	3.5	3.02e+01	0	29	104	171442176	60	19884
2026-01-27 01:43:41.64	65.89	67.81	-44.5	-55.8	3.5	3.02e+01	0	29	104	171442176	60	23630
2026-01-27 01:43:42.65	64.33	67.83	-45.8	-57.9	3.5	3.02e+01	0	29	104	171442176	60	30199
2026-01-27 01:43:43.66	62.77	67.83	-45.7	-57.7	3.5	3.02e+01	0	29	104	171442176	60	29423
2026-01-27 01:43:44.67	61.21	67.82	-49.2	-66.3	3.5	3.02e+01	0	29	104	171442176	60	79299
2026-01-27 01:43:45.68	59.66	67.79	-42.9	-54.0	3.5	3.02e+01	0	29	104	171442176	60	19375
2026-01-27 01:43:46.69	58.11	67.75	-42.9	-53.8	3.5	3.02e+01	0	29	104	171442176	60	18838
2026-01-27 01:43:47.70	56.57	67.69	-42.5	-53.1	3.6	3.02e+01	0	29	104	171442176	60	17435
2026-01-27 01:43:48.71	55.03	67.62	-42.1	-52.9	3.5	3.02e+01	0	29	104	171442176	58	19122
2026-01-27 01:43:49.72	53.51	67.53	-43.0	-54.0	3.6	3.02e+01	0	29	104	171442176	58	21575
2026-01-27 01:43:50.73	52.01	67.43	-41.9	-52.6	3.5	3.02e+01	0	29	104	171442176	58	18427
2026-01-27 01:43:51.74	50.52	67.32	-49.2	-66.3	3.5	3.02e+01	0	29	104	171442176	60	79619
2026-01-27 01:43:52.75	49.04	67.19	-49.1	-65.8	3.5	3.02e+01	0	29	104	171442176	60	75261
2026-01-27 01:43:53.76	47.59	67.04	-44.0	-55.1	3.5	3.02e+01	0	29	104	171442176	60	21872
2026-01-27 01:43:54.77	46.15	66.89	-44.7	-56.5	3.5	3.02e+01	0	29	104	171442176	60	25589
2026-01-27 01:43:55.78	44.74	66.72	-43.1	-54.2	3.6	3.02e+01	0	29	104	171442176	60	19664
2026-01-27 01:43:56.79	43.35	66.54	-43.4	-54.4	3.5	3.02e+01	0	29	104	171442176	60	20292
2026-01-27 01:43:57.80	41.99	66.35	-46.9	-59.5	3.6	3.02e+01	0	29	104	171442176	60	36324
2026-01-27 01:43:58.81	40.65	66.14	-47.5	-61.7	3.5	3.02e+01	0	29	104	171442176	60	46887
2026-01-27 01:43:59.82	39.34	65.93	-49.1	-65.7	3.5	3.02e+01	0	29	104	171442176	60	74076
2026-01-27 01:44:00.83	38.05	65.70	-49.2	-66.6	3.5	3.02e+01	0	29	104	171442176	60	81941
2026-01-27 01:44:01.84	36.79	65.47	-40.7	-50.9	3.5	3.02e+01	0	29	104	171442176	58	15180
2026-01-27 01:44:02.85	35.56	65.22	-41.1	-52.2	3.5	3.02e+01	0	29	104	171442176	58	17584
2026-01-27 01:44:03.86	34.35	64.97	-41.3	-51.9	3.5	3.02e+01	0	29	104	171442176	58	17059
2026-01-27 01:44:04.87	33.18	64.71	-40.4	-50.7	3.5	3.02e+01	0	29	104	171442176	56	16620
2026-01-27 01:44:05.88	32.03	64.43	-43.2	-54.1	3.6	3.02e+01	0	29	104	171442176	58	22009
2026-01-27 01:44:06.89	30.90	64.16	-41.7	-52.7	3.5	3.02e+01	0	29	104	171442176	56	20905
2026-01-27 01:44:07.90	29.81	63.87	-49.2	-66.6	3.5	3.02e+01	0	29	104	171442176	60	82009
2026-01-27 01:44:08.91	28.74	63.57	-49.0	-65.3	3.5	3.02e+01	0	29	104	171442176	60	71056
2026-01-27 01:44:09.92	27.70	63.27	-46.0	-58.2	3.5	3.02e+01	0	29	104	171442176	60	31239
2026-01-27 01:44:10.93	26.69	62.97	-43.4	-54.4	3.5	3.02e+01	0	29	104	171442176	60	20125
2026-01-27 01:44:11.94	25.70	62.65	-41.2	-51.5	3.5	3.02e+01	0	29	104	171442176	58	16255
2026-01-27 01:44:12.95	24.73	62.33	-40.6	-51.7	3.5	3.02e+01	0	29	104	171442176	56	18640
2026-01-27 01:44:13.96	23.80	62.01	-47.2	-60.6	3.5	3.02e+01	0	29	104	171442176	60	41344
2026-01-27 01:44:14.97	22.89	61.68	-47.3	-60.3	3.5	3.02e+01	0	29	104	171442176	60	39636
2026-01-27 01:44:15.98	22.00	61.35	-48.8	-64.9	3.5	3.02e+01	0	29	104	171442176	60	67446
2026-01-27 01:44:16.99	21.13	61.01	-49.2	-66.5	3.5	3.02e+01	0	29	104	171442176	60	81217
2026-01-27 01:44:18.00	20.29	60.67	-39.7	-49.8	3.7	3.02e+01	0	29	104	171442176	50	21177
2026-01-27 01:44:19.01	19.48	60.33	-39.4	-50.0	3.5	3.02e+01	0	29	104	171442176	52	19257
2026-01-27 01:44:20.02	18.68	59.98	-38.8	-49.2	3.5	3.02e+01	0	29	104	171442176	52	17661
2026-01-27 01:44:21.03	17.91	59.63	-38.2	-48.9	3.5	3.02e+01	0	29	104	171442176	52	17029
2026-01-27 01:44:22.04	17.15	59.28	-43.8	-55.0	3.5	3.02e+01	0	29	104	171442176	58	24406
2026-01-27 01:44:23.05	16.42	58.92	-40.2	-50.4	3.5	3.02e+01	0	29	104	171442176	52	20242
2026-01-27 01:44:24.06	15.71	58.57	-49.2	-66.0	3.5	3.02e+01	0	29	104	171442176	60	76507
2026-01-27 01:44:25.07	15.01	58.21	-48.8	-64.6	3.5	3.02e+01	0	29	104	171442176	60	65476
2026-01-27 01:44:26.08	14.34	57.85	-45.4	-57.3	3.5	3.02e+01	0	29	104	171442176	60	28050
2026-01-27 01:44:27.09	13.68	57.49	-39.9	-50.2	3.5	3.02e+01	0	29	104	171442176	56	15701
2026-01-27 01:44:28.10	13.04	57.12	-39.7	-50.1	3.5	3.02e+01	0	29	104	171442176	54	17476
2026-01-27 01:44:29.11	12.41	56.76	-37.8	-48.3	3.5	3.02e+01	0	29	104	171442176	52	15778
2026-01-27 01:44:30.12	11.81	56.40	-48.6	-63.8	3.5	3.02e+01	0	29	104	171442176	60	59441
2026-01-27 01:44:31.13	11.22	56.03	-45.6	-57.5	3.5	3.02e+01	0	29	104	171442176	60	28934
2026-01-27 01:44:32.14	10.64	55.67	-48.6	-63.7	3.5	3.02e+01	0	29	104	171442176	60	58929
2026-01-27 01:44:33.15	10.08	55.30	-49.2	-66.0	3.5	3.02e+01	0	29	104	171442176	60	76519
2026-01-27 01:44:34.16	9.54	54.94	-38.7	-49.0	3.5	3.02e+01	0	29	104	171442176	50	19375
2026-01-27 01:44:35.17	9.01	54.57	-35.8	-46.2	3.5	3.02e+01	0	29	104	171442176	46	17645
2026-01-27 01:44:36.18	8.49	54.21	-35.5	-45.7	3.5	3.02e+01	0	29	104	171442176	46	16524
2026-01-27 01:44:37.19	7.98	53.84	-35.1	-45.2	3.5	3.02e+01	0	29	104	171442176	46	15662
2026-01-27 01:44:38.20	7.49	53.48	-41.4	-52.2	3.6	3.02e+01	0	29	104	171442176	60	15666
2026-01-27 01:44:39.21	7.01	53.11	-37.4	-47.5	3.5	3.02e+01	0	29	104	171442176	50	16250
2026-01-27 01:44:40.22	6.54	52.75	-49.1	-65.5	3.5	3.02e+01	0	29	104	171442176	60	72754
2026-01-27 01:44:41.23	6.09	52.39	-48.6	-63.8	3.5	3.02e+01	0	29	104	171442176	60	59796
2026-01-27 01:44:42.24	5.64	52.03	-43.4	-54.6	3.6	3.02e+01	0	29	104	171442176	60	20776
2026-01-27 01:44:43.25	5.21	51.67	-38.9	-49.3	3.5	3.02e+01	0	29	104	171442176	52	17851
2026-01-27 01:44:44.26	4.78	51.31	-37.6	-47.9	3.5	3.02e+01	0	29	104	171442176	50	16981
2026-01-27 01:44:45.27	4.37	50.95	-36.2	-46.1	3.5	3.02e+01	0	29	104	171442176	48	15469
2026-01-27 01:44:46.28	3.97	50.60	-38.1	-48.4	3.5	3.02e+01	0	29	104	171442176	52	16060
2026-01-27 01:44:47.29	3.57	50.24	-42.0	-52.5	3.5	3.02e+01	0	29	104	171442176	60	16320
2026-01-27 01:44:48.30	3.19	49.89	-48.7	-64.0	3.5	3.02e+01	0	29	104	171442176	60	61153
2026-01-27 01:44:49.31	2.81	49.54	-49.3	-66.5	3.5	3.02e+01	0	29	104	171442176	60	81027
2026-01-27 01:44:50.32	2.45	49.19	-38.7	-49.1	3.5	3.02e+01	0	29	104	171442176	50	19586
2026-01-27 01:44:51.33	2.09	48.84	-36.3	-46.3	3.5	3.02e+01	0	29	104	171442176	46	17806
2026-01-27 01:44:52.34	1.74	48.49	-35.8	-45.9	3.6	3.02e+01	0	29	104	171442176	46	16983
2026-01-27 01:44:53.35	1.40	48.15	-35.6	-45.8	3.5	3.02e+01	0	29	104	171442176	46	16867
2026-01-27 01:44:54.37	1.06	47.80	-35.2	-45.3	3.5	3.02e+01	0	29	104	171442176	46	15857
2026-01-27 01:44:55.38	0.73	47.46	-36.0	-46.3	3.5	3.02e+01	0	29	104	171442176	50	14143
2026-01-27 01:44:56.38	0.42	47.12	-49.2	-66.0	3.5	3.02e+01	0	29	104	171442176	60	76592
2026-01-27 01:44:57.39	0.10	46.79	-44.2	-55.4	3.6	3.02e+01	0	29	104	171442176	60	22604
2026-01-27 01:44:58.40	359.80	46.45	-40.6	-51.0	3.5	3.02e+01	0	29	104	171442176	58	15244
2026-01-27 01:44:59.41	359.50	46.12	-36.5	-46.7	3.5	3.02e+01	0	29	104	171442176	48	16652
2026-01-27 01:45:00.42	359.20	45.78	-35.9	-45.9	3.5	3.02e+01	0	29	104	171442176	46	16990
2026-01-27 01:45:01.43	358.92	45.45	-35.7	-45.7	3.5	3.02e+01	0	29	104	171442176	46	16591
2026-01-27 01:45:02.44	358.64	45.13	-35.2	-45.3	3.5	3.02e+01	0	29	104	171442176	46	15886
2026-01-27 01:45:03.45	358.36	44.80	-35.9	-46.2	3.5	3.02e+01	0	29	104	171442176	48	15603
2026-01-27 01:45:04.46	358.09	44.48	-49.1	-65.7	3.5	3.02e+01	0	29	104	171442176	60	73844
2026-01-27 01:45:05.47	357.83	44.16	-44.5	-56.0	3.6	3.02e+01	0	29	104	171442176	60	24402
2026-01-27 01:45:06.48	357.57	43.84	-43.5	-54.4	3.5	3.02e+01	0	29	104	171442176	60	20181
2026-01-27 01:45:07.49	357.32	43.52	-40.1	-50.5	3.5	3.02e+01	0	29	104	171442176	54	18190
2026-01-27 01:45:08.50	357.07	43.20	-38.3	-48.5	3.5	3.02e+01	0	29	104	171442176	52	16269
2026-01-27 01:45:09.51	356.83	42.89	-37.5	-47.9	3.5	3.02e+01	0	29	104	171442176	50	16920
2026-01-27 01:45:10.52	356.59	42.58	-40.5	-51.2	3.5	3.02e+01	0	29	104	171442176	52	22218
2026-01-27 01:45:11.53	356.36	42.27	-39.7	-50.1	3.5	3.02e+01	0	29	104	171442176	54	17434
2026-01-27 01:45:12.54	356.13	41.97	-48.8	-64.5	3.5	3.02e+01	0	29	104	171442176	60	64269
2026-01-27 01:45:13.55	355.90	41.66	-43.7	-54.7	3.6	3.02e+01	0	29	104	171442176	60	20838
2026-01-27 01:45:14.56	355.68	41.36	-40.8	-51.2	3.6	3.02e+01	0	29	104	171442176	58	15672
2026-01-27 01:45:15.57	355.47	41.06	-39.6	-49.8	3.5	3.02e+01	0	29	104	171442176	54	16724
2026-01-27 01:45:16.58	355.26	40.76	-39.6	-49.8	3.5	3.02e+01	0	29	104	171442176	54	16789
2026-01-27 01:45:17.59	355.05	40.47	-39.2	-49.8	3.5	3.02e+01	0	29	104	171442176	54	16757
2026-01-27 01:45:18.60	354.84	40.17	-38.6	-49.1	3.6	3.02e+01	0	29	104	171442176	52	17473
2026-01-27 01:45:19.61	354.64	39.88	-40.4	-50.8	3.5	3.02e+01	0	29	104	171442176	50	23700
2026-01-27 01:45:20.62	354.45	39.59	-48.9	-64.7	3.5	3.02e+01	0	29	104	171442176	60	66326
2026-01-27 01:45:21.63	354.25	39.30	-40.5	-51.2	3.5	3.02e+01	0	29	104	171442176	60	13941
2026-01-27 01:45:22.64	354.07	39.02	-42.8	-53.9	3.5	3.02e+01	0	29	104	171442176	60	19175
2026-01-27 01:45:23.65	353.88	38.74	-40.1	-50.7	3.5	3.02e+01	0	29	104	171442176	56	16625
2026-01-27 01:45:24.66	353.70	38.46	-38.6	-48.8	3.5	3.02e+01	0	29	104	171442176	52	16755
2026-01-27 01:45:25.67	353.52	38.18	-40.6	-50.9	3.5	3.02e+01	0	29	104	171442176	54	19003
2026-01-27 01:45:26.68	353.34	37.90	-38.1	-48.4	3.5	3.02e+01	0	29	104	171442176	52	16007
2026-01-27 01:45:27.69	353.17	37.63	-47.6	-61.4	3.5	3.02e+01	0	29	104	171442176	58	50962
2026-01-27 01:45:28.70	353.00	37.35	-47.6	-61.4	3.5	3.02e+01	0	29	104	171442176	60	44977
2026-01-27 01:45:29.71	352.83	37.08	-37.9	-48.3	3.5	3.02e+01	0	29	104	171442176	48	19907
2026-01-27 01:45:30.72	352.67	36.82	-40.0	-50.4	3.5	3.02e+01	0	29	104	171442176	56	16040
2026-01-27 01:45:31.73	352.50	36.55	-38.4	-48.8	3.5	3.02e+01	0	29	104	171442176	52	16818
2026-01-27 01:45:32.74	352.35	36.29	-38.4	-48.9	3.5	3.02e+01	0	29	104	171442176	52	17066
2026-01-27 01:45:33.75	352.19	36.02	-39.8	-50.3	3.5	3.02e+01	0	29	104	171442176	52	20003
2026-01-27 01:45:34.76	352.04	35.76	-46.1	-58.3	3.5	3.02e+01	0	29	104	171442176	60	31509
2026-01-27 01:45:35.77	351.89	35.51	-43.9	-54.9	3.5	3.02e+01	0	29	104	171442176	54	30206
2026-01-27 01:45:36.78	351.74	35.25	-48.9	-64.6	3.5	3.02e+01	0	29	104	171442176	60	65472
2026-01-27 01:45:37.79	351.59	35.00	-37.9	-48.3	3.5	3.02e+01	0	29	104	171442176	54	14055
2026-01-27 01:45:38.80	351.45	34.74	-38.5	-48.8	3.5	3.02e+01	0	29	104	171442176	52	16779
2026-01-27 01:45:39.81	351.31	34.49	-37.8	-48.0	3.4	3.02e+01	0	29	104	171442176	52	15327
2026-01-27 01:45:40.82	351.17	34.25	-36.4	-46.6	3.5	3.02e+01	0	29	104	171442176	48	16449
2026-01-27 01:45:41.83	351.03	34.00	-35.8	-45.9	3.5	3.02e+01	0	29	104	171442176	46	17005
2026-01-27 01:45:42.84	350.89	33.75	-36.1	-46.3	3.5	3.02e+01	0	29	104	171442176	46	17805
2026-01-27 01:45:43.85	350.76	33.51	-49.1	-66.2	3.5	3.02e+01	0	29	104	171442176	60	78160
2026-01-27 01:45:44.86	350.63	33.27	-48.1	-62.3	3.5	3.02e+01	0	29	104	171442176	60	50188
2026-01-27 01:45:45.87	350.50	33.03	-43.6	-54.7	3.5	3.02e+01	0	29	104	171442176	56	26213
2026-01-27 01:45:46.88	350.38	32.80	-39.3	-50.0	3.6	3.02e+01	0	29	104	171442176	54	17110
2026-01-27 01:45:47.89	350.25	32.56	-38.6	-49.2	3.6	3.02e+01	0	29	104	171442176	52	17531
2026-01-27 01:45:48.90	350.13	32.33	-36.6	-38.1	27.0	3.02e+01	0	29	104	171442176	48	6178
2026-01-27 01:45:49.91	350.01	32.10	-35.1	-36.3	29.7	3.02e+01	0	29	0	173015040	46	5628
2026-01-27 01:45:50.92	349.89	31.87	-34.4	-35.6	30.2	3.02e+01	0	29	0	175112192	44	5831
2026-01-27 01:45:51.93	349.77	31.64	-34.5	-35.7	30.2	3.02e+01	0	29	0	176685056	44	5866
2026-01-27 01:45:52.94	349.66	31.41	-34.1	-35.3	30.5	3.02e+01	0	29	0	178782208	44	5605
2026-01-27 01:45:53.95	349.54	31.19	-34.3	-35.4	30.3	3.02e+01	0	29	0	180355072	44	5718
2026-01-27 01:45:54.96	349.43	30.96	-34.1	-35.3	30.5	3.02e+01	0	29	0	182452224	44	5610
2026-01-27 01:45:55.97	349.32	30.74	-34.2	-35.4	30.5	3.02e+01	0	29	0	184549376	44	5663
2026-01-27 01:45:56.98	349.21	30.52	-34.1	-35.2	30.5	3.02e+01	0	29	0	186122240	44	5589
2026-01-27 01:45:57.99	349.10	30.31	-34.1	-35.2	30.5	3.02e+01	0	29	0	188219392	44	5589
2026-01-27 01:45:59.00	349.00	30.09	-34.1	-35.2	30.6	3.02e+01	0	29	0	190316544	44	5577
2026-01-27 01:46:00.01	348.89	29.87	-34.3	-35.4	30.3	3.02e+01	0	29	0	191889408	44	5709
2026-01-27 01:46:01.02	348.79	29.66	-34.3	-35.4	30.3	3.02e+01	0	29	0	193986560	44	5708
2026-01-27 01:46:02.03	348.69	29.45	-34.5	-35.7	30.2	3.02e+01	0	29	0	195559424	44	5868
2026-01-27 01:46:03.04	348.59	29.24	-34.5	-35.7	30.2	3.02e+01	0	29	0	197656576	44	5873
2026-01-27 01:46:04.05	348.49	29.03	-34.5	-35.7	30.1	3.02e+01	0	29	0	199753728	44	5905
2026-01-27 01:46:05.06	348.39	28.83	-34.6	-35.8	30.0	3.02e+01	0	29	0	201326592	44	5954
2026-01-27 01:46:06.07	348.29	28.62	-34.7	-35.8	30.0	3.02e+01	0	29	0	203423744	44	5993
2026-01-27 01:46:07.07	348.20	28.42	-34.6	-35.8	29.9	3.02e+01	0	29	0	204996608	44	5970
2026-01-27 01:46:08.08	348.11	28.22	-34.5	-35.7	30.0	3.02e+01	0	29	0	207093760	44	5881
2026-01-27 01:46:09.09	348.02	28.02	-34.4	-35.6	30.2	3.02e+01	0	29	0	208666624	44	5829
2026-01-27 01:46:10.10	347.92	27.82	-34.6	-35.8	30.1	3.02e+01	0	29	0	210763776	44	5953
2026-01-27 01:46:11.11	347.83	27.62	-34.6	-35.8	30.0	3.02e+01	0	29	0	212860928	44	5973
2026-01-27 01:46:12.12	347.75	27.42	-34.8	-36.0	29.9	3.02e+01	0	29	0	214433792	44	6115
2026-01-27 01:46:13.13	347.66	27.23	-34.9	-36.1	29.8	3.02e+01	0	29	0	216530944	44	6148
2026-01-27 01:46:14.14	347.57	27.03	-35.0	-36.2	29.6	3.02e+01	0	29	0	218628096	44	6259
2026-01-27 01:46:15.15	347.49	26.84	-34.9	-36.1	29.7	3.02e+01	0	29	0	220200960	44	6179
2026-01-27 01:46:16.16	347.40	26.65	-35.0	-36.1	29.6	3.02e+01	0	29	0	222298112	44	6198
2026-01-27 01:46:17.17	347.32	26.46	-34.8	-36.0	29.8	3.02e+01	0	29	0	223870976	44	6082
2026-01-27 01:46:18.18	347.24	26.28	-34.8	-36.0	29.8	3.02e+01	0	29	0	225968128	44	6083
2026-01-27 01:46:19.19	347.16	26.09	-34.7	-35.8	30.0	3.02e+01	0	29	0	228065280	44	5983
2026-01-27 01:46:20.19	347.08	25.91	-34.6	-35.8	30.1	3.02e+01	0	29	0	229638144	44	5953
2026-01-27 01:46:21.21	347.00	25.72	-34.7	-35.9	30.1	3.02e+01	0	29	0	231735296	44	6001
2026-01-27 01:46:22.21	346.92	25.54	-34.7	-35.9	30.0	3.02e+01	0	29	0	233832448	44	6027
2026-01-27 01:46:23.22	346.85	25.36	-34.9	-36.1	29.8	3.02e+01	0	29	0	235405312	44	6154
2026-01-27 01:46:24.23	346.77	25.18	-35.0	-36.1	29.7	3.02e+01	0	29	0	237502464	44	6204
2026-01-27 01:46:25.25	346.69	25.00	-34.9	-36.1	29.7	3.02e+01	0	29	0	239075328	44	6164
2026-01-27 01:46:26.26	346.62	24.82	-35.1	-36.3	29.5	3.02e+01	0	29	0	241172480	44	6285
2026-01-27 01:46:27.26	346.55	24.64	-34.8	-36.0	29.8	3.02e+01	0	29	0	243269632	44	6078
2026-01-27 01:46:28.27	346.47	24.47	-34.9	-36.1	29.7	3.02e+01	0	29	0	244842496	44	6165
2026-01-27 01:46:29.28	346.40	24.30	-35.0	-36.1	29.7	3.02e+01	0	29	0	246939648	44	6196
2026-01-27 01:46:30.29	346.33	24.12	-35.1	-36.3	29.6	3.02e+01	0	29	0	248512512	44	6296
2026-01-27 01:46:31.30	346.26	23.95	-35.1	-36.3	29.6	3.02e+01	0	29	0	250609664	44	6302
2026-01-27 01:46:32.31	346.19	23.78	-35.2	-36.4	29.5	3.02e+01	0	29	0	252706816	44	6357
2026-01-27 01:46:33.32	346.13	23.61	-35.3	-36.5	29.3	3.02e+01	0	29	0	254279680	44	6487
2026-01-27 01:46:34.34	346.06	23.44	-35.4	-36.7	29.1	3.02e+01	0	29	0	256376832	44	6580
2026-01-27 01:46:35.34	345.99	23.28	-35.7	-36.9	28.9	3.02e+01	0	29	0	257949696	44	6767
2026-01-27 01:46:36.35	345.93	23.11	-35.4	-36.6	29.1	3.02e+01	0	29	0	260046848	44	6547
2026-01-27 01:46:37.37	345.86	22.95	-35.4	-36.7	29.1	3.02e+01	0	29	0	262144000	44	6575
2026-01-27 01:46:38.37	345.80	22.78	-35.4	-36.6	29.2	3.02e+01	0	29	0	263716864	44	6556
2026-01-27 01:46:39.38	345.73	22.62	-35.4	-36.6	29.2	3.02e+01	0	29	0	265814016	44	6551
2026-01-27 01:46:40.39	345.67	22.46	-35.2	-36.4	29.5	3.02e+01	0	29	0	267386880	44	6364
2026-01-27 01:46:41.40	345.61	22.30	-35.2	-36.4	29.4	3.02e+01	0	29	0	269484032	44	6412
2026-01-27 01:46:42.41	345.55	22.14	-35.2	-36.4	29.4	3.02e+01	0	29	0	271581184	44	6360
2026-01-27 01:46:43.42	345.49	21.98	-35.2	-36.4	29.3	3.02e+01	0	29	0	273154048	44	6383
2026-01-27 01:46:44.43	345.43	21.83	-35.2	-36.4	29.1	3.02e+01	0	29	0	275251200	44	6410
2026-01-27 01:46:45.44	345.37	21.67	-35.3	-36.5	29.1	3.02e+01	0	29	0	276824064	44	6460
2026-01-27 01:46:46.45	345.31	21.51	-35.2	-36.4	29.0	3.02e+01	0	29	0	278921216	44	6408
2026-01-27 01:46:47.46	345.25	21.36	-35.3	-36.5	29.1	3.02e+01	0	29	0	281018368	44	6459
2026-01-27 01:46:48.47	345.20	21.21	-35.3	-36.5	29.3	3.02e+01	0	29	0	282591232	44	6491
2026-01-27 01:46:49.48	345.14	21.05	-35.4	-36.6	29.2	3.02e+01	0	29	0	284688384	44	6567
2026-01-27 01:46:50.49	345.08	20.90	-35.5	-36.7	29.2	3.02e+01	0	29	0	286785536	44	6624
2026-01-27 01:46:51.50	345.03	20.75	-35.3	-36.5	29.4	3.02e+01	0	29	0	288358400	44	6487
2026-01-27 01:46:52.51	344.97	20.60	-35.3	-36.5	29.3	3.02e+01	0	29	0	290455552	44	6490
2026-01-27 01:46:53.52	344.92	20.46	-35.4	-36.7	29.2	3.02e+01	0	29	0	292028416	44	6579
2026-01-27 01:46:54.52	344.87	20.31	-35.5	-36.7	29.1	3.02e+01	0	29	0	294125568	44	6645
2026-01-27 01:46:55.53	344.81	20.16	-35.4	-36.7	29.2	3.02e+01	0	29	0	296222720	44	6599
2026-01-27 01:46:56.54	344.76	20.02	-35.6	-36.9	28.9	3.02e+01	0	29	0	297795584	44	6732
2026-01-27 01:46:57.55	344.71	19.87	-35.4	-36.6	29.2	3.02e+01	0	29	0	299892736	44	6526
2026-01-27 01:46:58.56	344.66	19.73	-35.4	-36.7	29.0	3.02e+01	0	29	0	301989888	44	6582
2026-01-27 01:46:59.57	344.61	19.59	-35.3	-36.5	29.3	3.02e+01	0	29	0	303562752	44	6464
2026-01-27 01:47:00.58	344.56	19.44	-35.5	-36.7	29.2	3.02e+01	0	29	0	305659904	44	6617
2026-01-27 01:47:01.59	344.51	19.30	-35.3	-36.5	29.4	3.02e+01	0	29	0	307232768	44	6496
2026-01-27 01:47:02.60	344.46	19.16	-35.3	-36.5	29.3	3.02e+01	0	29	0	309329920	44	6486
2026-01-27 01:47:03.61	344.41	19.02	-35.3	-36.6	29.3	3.02e+01	0	29	0	311427072	44	6503
2026-01-27 01:47:04.62	344.36	18.88	-35.3	-36.5	29.3	3.02e+01	0	29	0	312999936	44	6434
2026-01-27 01:47:05.63	344.31	18.75	-35.1	-36.3	29.4	3.02e+01	0	29	0	315097088	44	6341
2026-01-27 01:47:06.64	344.27	18.61	-35.2	-36.4	29.4	3.02e+01	0	29	0	316669952	44	6359
2026-01-27 01:47:07.65	344.22	18.47	-35.0	-36.2	29.6	3.02e+01	0	29	0	318767104	44	6229
2026-01-27 01:47:08.66	344.17	18.34	-35.2	-36.4	29.5	3.02e+01	0	29	0	320864256	44	6359
2026-01-27 01:47:09.67	344.13	18.20	-35.0	-36.2	29.6	3.02e+01	0	29	0	322437120	44	6248
2026-01-27 01:47:10.68	344.08	18.07	-35.1	-36.3	29.5	3.02e+01	0	29	0	324534272	44	6279
2026-01-27 01:47:11.69	344.04	17.94	-35.0	-36.2	29.5	3.02e+01	0	29	0	326107136	44	6220
2026-01-27 01:47:12.70	343.99	17.80	-35.1	-36.3	29.4	3.02e+01	0	29	0	328204288	44	6289
2026-01-27 01:47:13.71	343.95	17.67	-35.0	-36.2	29.5	3.02e+01	0	29	0	330301440	44	6249
2026-01-27 01:47:14.71	343.91	17.54	-35.0	-36.2	29.6	3.02e+01	0	29	0	331874304	44	6219
2026-01-27 01:47:15.72	343.86	17.41	-35.0	-36.2	29.6	3.02e+01	0	29	0	333971456	44	6225
2026-01-27 01:47:16.73	343.82	17.28	-35.0	-36.2	29.4	3.02e+01	0	29	0	335544320	44	6230
2026-01-27 01:47:17.74	343.78	17.16	-35.0	-36.2	29.5	3.02e+01	0	29	0	337641472	44	6208
2026-01-27 01:47:18.75	343.74	17.03	-35.0	-36.2	29.4	3.02e+01	0	29	0	339738624	44	6265
2026-01-27 01:47:19.76	343.69	16.90	-35.0	-36.2	29.4	3.02e+01	0	29	0	341311488	44	6267
2026-01-27 01:47:20.78	343.65	16.77	-34.9	-36.1	29.6	3.02e+01	0	29	0	343408640	44	6193
2026-01-27 01:47:21.79	343.61	16.65	-35.0	-36.2	29.5	3.02e+01	0	29	0	344981504	44	6276
2026-01-27 01:47:22.79	343.57	16.52	-35.0	-36.2	29.5	3.02e+01	0	29	0	347078656	44	6219
2026-01-27 01:47:23.80	343.53	16.40	-35.0	-36.2	29.2	3.02e+01	0	29	0	349175808	44	6276
2026-01-27 01:47:24.81	343.49	16.28	-35.0	-36.2	29.3	3.02e+01	0	29	0	350748672	44	6266
2026-01-27 01:47:25.82	343.45	16.15	-35.1	-36.3	29.2	3.02e+01	0	29	0	352845824	44	6300
2026-01-27 01:47:26.83	343.42	16.03	-35.1	-36.3	29.2	3.02e+01	0	29	0	354942976	44	6325
2026-01-27 01:47:27.84	343.38	15.91	-35.0	-36.2	29.4	3.02e+01	0	29	0	356515840	44	6220
2026-01-27 01:47:28.85	343.34	15.79	-35.1	-36.3	29.3	3.02e+01	0	29	0	358612992	44	6326
2026-01-27 01:47:29.86	343.30	15.67	-34.9	-36.1	29.4	3.02e+01	0	29	0	360185856	44	6189
2026-01-27 01:47:30.87	343.26	15.55	-35.0	-36.2	29.2	3.02e+01	0	28	0	362283008	44	6213
2026-01-27 01:47:31.88	343.23	15.43	-35.0	-36.2	29.2	3.02e+01	0	29	0	364380160	44	6268
2026-01-27 01:47:32.89	343.19	15.31	-34.9	-36.1	29.3	3.02e+01	0	29	0	365953024	44	6203
2026-01-27 01:47:33.90	343.15	15.19	-35.1	-36.3	29.3	3.02e+01	0	29	0	368050176	44	6290
2026-01-27 01:47:34.91	343.12	15.08	-35.1	-36.3	29.4	3.02e+01	0	29	0	370147328	44	6282
2026-01-27 01:47:35.92	343.08	14.96	-35.1	-36.3	29.3	3.02e+01	0	29	0	371720192	44	6334
2026-01-27 01:47:36.93	343.05	14.84	-35.1	-36.3	29.0	3.02e+01	0	29	0	373817344	44	6334
2026-01-27 01:47:37.94	343.01	14.73	-35.0	-36.2	29.1	3.02e+01	0	29	0	375390208	44	6265
2026-01-27 01:47:38.95	342.98	14.61	-35.1	-36.4	28.9	3.02e+01	0	29	0	377487360	44	6352
2026-01-27 01:47:39.96	342.94	14.50	-35.1	-36.3	28.9	3.02e+01	0	29	0	379584512	44	6329
2026-01-27 01:47:40.97	342.91	14.39	-35.2	-36.4	29.1	3.02e+01	0	29	0	381157376	44	6356
2026-01-27 01:47:41.98	342.88	14.27	-35.1	-36.3	29.3	3.02e+01	0	29	0	383254528	44	6285
2026-01-27 01:47:42.99	342.84	14.16	-35.0	-36.2	29.4	3.02e+01	0	29	0	384827392	44	6267
2026-01-27 01:47:44.00	342.81	14.05	-35.2	-36.4	29.3	3.02e+01	0	29	0	386924544	44	6393
2026-01-27 01:47:45.01	342.78	13.94	-35.2	-36.4	29.2	3.02e+01	0	29	0	389021696	44	6364
2026-01-27 01:47:46.02	342.75	13.83	-35.3	-36.5	29.0	3.02e+01	0	29	0	390594560	44	6476
2026-01-27 01:47:47.03	342.71	13.72	-35.2	-36.4	29.1	3.02e+01	0	29	0	392691712	44	6418
2026-01-27 01:47:48.04	342.68	13.61	-35.3	-36.5	29.1	3.02e+01	0	29	0	394264576	44	6494
2026-01-27 01:47:49.05	342.65	13.50	-35.4	-36.6	29.1	3.02e+01	0	29	0	396361728	44	6557
2026-01-27 01:47:50.06	342.62	13.39	-35.2	-36.4	29.3	3.02e+01	0	29	0	398458880	44	6414
2026-01-27 01:47:51.07	342.59	13.28	-35.5	-36.7	29.0	3.02e+01	0	29	0	400031744	44	6611
2026-01-27 01:47:52.08	342.56	13.17	-35.2	-36.4	29.2	3.02e+01	0	29	0	402128896	44	6371
2026-01-27 01:47:53.09	342.53	13.06	-35.2	-36.4	28.9	3.02e+01	0	29	0	403701760	44	6397
2026-01-27 01:47:54.10	342.50	12.96	-35.3	-36.5	28.9	3.02e+01	0	29	0	405798912	44	6457
2026-01-27 01:47:55.11	342.47	12.85	-35.4	-36.6	28.9	3.02e+01	0	29	0	407896064	44	6561
2026-01-27 01:47:56.11	342.44	12.75	-35.4	-36.6	29.0	3.02e+01	0	29	0	409468928	44	6555
2026-01-27 01:47:57.13	342.41	12.64	-35.3	-36.5	29.2	3.02e+01	0	29	0	411566080	44	6481
2026-01-27 01:47:58.13	342.38	12.54	-35.4	-36.6	29.0	3.02e+01	0	29	0	413138944	44	6542
2026-01-27 01:47:59.15	342.35	12.43	-35.3	-36.5	29.2	3.02e+01	0	29	0	415236096	44	6438
2026-01-27 01:48:00.16	342.32	12.33	-35.3	-36.5	29.0	3.02e+01	0	29	0	417333248	44	6444
2026-01-27 01:48:01.17	342.29	12.23	-35.3	-36.5	29.0	3.02e+01	0	29	0	418906112	44	6444
2026-01-27 01:48:02.18	342.26	12.12	-35.2	-36.5	28.9	3.02e+01	0	29	0	421003264	44	6432
2026-01-27 01:48:03.19	342.24	12.02	-35.3	-36.5	28.8	3.02e+01	0	29	0	423100416	44	6493
2026-01-27 01:48:04.20	342.21	11.92	-35.3	-36.6	28.6	3.02e+01	0	29	0	424673280	44	6505
2026-01-27 01:48:05.20	342.18	11.82	-35.4	-36.6	28.6	3.02e+01	0	29	0	426770432	44	6550
2026-01-27 01:48:06.21	342.15	11.72	-35.4	-36.6	28.7	3.02e+01	0	29	0	428343296	44	6567
2026-01-27 01:48:07.22	342.13	11.62	-35.4	-36.6	28.7	3.02e+01	0	29	0	430440448	44	6541
2026-01-27 01:48:08.23	342.10	11.52	-35.4	-36.6	28.9	3.02e+01	0	28	0	432537600	44	6549
2026-01-27 01:48:09.24	342.07	11.42	-35.5	-36.7	28.9	3.02e+01	0	29	0	434110464	44	6622
2026-01-27 01:48:10.25	342.05	11.32	-35.5	-36.8	28.8	3.02e+01	0	28	0	436207616	44	6667
2026-01-27 01:48:11.26	342.02	11.22	-35.5	-36.8	28.8	3.02e+01	0	29	0	437780480	44	6652
2026-01-27 01:48:12.27	342.00	11.12	-35.5	-36.7	28.7	3.02e+01	0	29	0	439877632	44	6641
2026-01-27 01:48:13.28	341.97	11.03	-35.5	-36.7	28.6	3.02e+01	0	29	0	441974784	44	6648
2026-01-27 01:48:14.29	341.94	10.93	-35.5	-36.8	28.5	3.02e+01	0	29	0	443547648	44	6657
2026-01-27 01:48:15.30	341.92	10.83	-35.7	-36.9	28.3	3.02e+01	0	29	0	445644800	44	6794
2026-01-27 01:48:16.31	341.89	10.74	-35.7	-36.9	28.4	3.02e+01	0	29	0	447741952	44	6796
2026-01-27 01:48:17.32	341.87	10.64	-35.8	-37.1	28.4	3.02e+01	0	29	0	449314816	44	6921
2026-01-27 01:48:18.33	341.84	10.54	-35.7	-37.0	28.6	3.02e+01	0	29	0	451411968	44	6808
2026-01-27 01:48:19.35	341.82	10.45	-35.8	-37.0	28.5	3.02e+01	0	29	0	452984832	44	6857
2026-01-27 01:48:20.36	341.80	10.35	-35.9	-37.1	28.5	3.02e+01	0	29	0	455081984	46	6188
