passes_logs/2026/01/27/R4.6S_Anadyr/R4.6S_Anadyr__20260127_133619_FENGYUN_3D_rec.log

#Pass ID: 20260127_133619_FENGYUN 3D
#Satellite: FENGYUN 3D
#Configuration: FENGYUN 3D
#almurnet v.1.7.20251203
#Start time: 2026-01-27 13:36:20

#Version: 2.2.20231116
#Station: R4.6S_Anadyr
#Location: 177.4865 lon 64.73178 lat
#TLE: 1 43010U 17072A   26026.91415486  .00000072  00000+0  55983-4 0  9991
#TLE: 2 43010  98.9962 358.9161 0002508  89.0320 271.1142 14.19700283424949

#Time	Az	El	Level	Level2	SNR	BER	BlckErr	Temp	State	Recorded	gain1	gain2
2026-01-27 13:36:20.62	21.74	0.05	-48.9	-63.8	3.5	1.51e+00	0	30	0	0	60	55938
2026-01-27 13:36:21.63	21.83	0.08	-48.9	-60.9	3.6	8.45e-01	0	31	104	0	60	40323
2026-01-27 13:36:22.64	21.93	0.12	-48.9	-61.0	3.6	8.45e-01	0	31	104	0	60	40625
2026-01-27 13:36:23.65	22.03	0.16	-48.9	-61.0	3.6	8.45e-01	0	31	104	0	60	40619
2026-01-27 13:36:24.66	22.13	0.20	-48.9	-61.0	3.6	8.45e-01	0	31	104	0	60	40483
2026-01-27 13:36:25.67	22.23	0.24	-48.9	-61.0	3.6	8.46e-01	0	31	104	0	60	40609
2026-01-27 13:36:26.68	22.33	0.28	-48.9	-61.0	3.6	8.45e-01	0	31	104	0	60	40701
2026-01-27 13:36:27.69	22.43	0.32	-48.9	-61.1	3.6	8.45e-01	0	31	104	0	60	40914
2026-01-27 13:36:28.70	22.53	0.36	-49.0	-61.1	3.6	8.44e-01	0	31	104	0	60	41005
2026-01-27 13:36:29.71	22.64	0.39	-49.0	-61.1	3.6	8.44e-01	0	31	104	0	60	40865
2026-01-27 13:36:30.72	22.74	0.43	-48.9	-61.1	3.6	8.46e-01	0	31	104	0	60	40845
2026-01-27 13:36:31.72	22.84	0.47	-48.9	-61.0	3.6	8.45e-01	0	31	104	0	60	40785
2026-01-27 13:36:32.73	22.94	0.51	-48.9	-61.1	3.6	8.46e-01	0	31	104	0	60	40891
2026-01-27 13:36:33.74	23.04	0.55	-48.9	-61.0	3.6	8.45e-01	0	31	104	0	60	40569
2026-01-27 13:36:34.75	23.14	0.59	-48.8	-61.0	3.6	8.46e-01	0	31	104	0	60	40410
2026-01-27 13:36:35.76	23.25	0.62	-48.8	-60.9	3.6	8.44e-01	0	31	104	0	60	39997
2026-01-27 13:36:36.77	23.35	0.66	-48.7	-60.8	3.6	8.46e-01	0	31	104	0	60	39674
2026-01-27 13:36:37.78	23.45	0.70	-48.7	-60.8	3.5	8.45e-01	0	31	104	0	60	39453
2026-01-27 13:36:38.79	23.55	0.74	-48.6	-60.7	3.6	8.44e-01	0	31	104	0	60	39332
2026-01-27 13:36:39.80	23.66	0.78	-48.5	-60.7	3.6	8.44e-01	0	31	104	0	60	39144
2026-01-27 13:36:40.81	23.76	0.82	-48.5	-60.5	3.6	8.45e-01	0	31	104	0	60	38470
2026-01-27 13:36:41.82	23.86	0.86	-48.4	-60.5	3.6	8.45e-01	0	31	104	0	60	38098
2026-01-27 13:36:42.83	23.97	0.89	-48.2	-60.4	3.6	8.44e-01	0	32	104	0	60	37650
2026-01-27 13:36:43.84	24.07	0.93	-48.0	-60.1	3.6	8.45e-01	0	32	104	0	60	36492
2026-01-27 13:36:44.85	24.18	0.97	-47.7	-59.8	3.6	8.46e-01	0	31	104	0	60	35496
2026-01-27 13:36:45.86	24.28	1.01	-47.4	-59.4	3.6	8.45e-01	0	32	104	0	60	33849
2026-01-27 13:36:46.87	24.39	1.05	-47.4	-59.5	3.6	8.45e-01	0	31	104	0	60	34077
2026-01-27 13:36:47.87	24.49	1.08	-47.4	-59.4	3.6	8.46e-01	0	31	104	0	60	33923
2026-01-27 13:36:48.89	24.60	1.12	-47.4	-59.5	3.6	8.46e-01	0	31	104	0	60	33958
2026-01-27 13:36:49.90	24.71	1.16	-47.4	-59.4	3.6	8.45e-01	0	32	104	0	60	33900
2026-01-27 13:36:50.91	24.81	1.20	-47.4	-59.4	3.6	8.45e-01	0	32	104	0	60	33856
2026-01-27 13:36:51.92	24.92	1.24	-47.4	-59.4	3.6	8.44e-01	0	32	104	0	60	33637
2026-01-27 13:36:52.93	25.02	1.28	-47.4	-59.3	3.6	8.46e-01	0	32	104	0	60	33519
2026-01-27 13:36:53.94	25.13	1.31	-47.4	-59.4	3.6	8.45e-01	0	32	104	0	60	33610
2026-01-27 13:36:54.93	25.24	1.35	-47.4	-59.4	3.6	8.46e-01	0	32	104	0	60	33693
2026-01-27 13:36:55.94	25.34	1.39	-47.4	-59.5	3.6	8.45e-01	0	32	104	0	60	34006
2026-01-27 13:36:56.95	25.45	1.43	-47.4	-59.4	3.6	8.45e-01	0	32	104	0	60	33797
2026-01-27 13:36:57.96	25.56	1.46	-47.4	-59.4	3.6	8.46e-01	0	32	104	0	60	33785
2026-01-27 13:36:58.97	25.67	1.50	-47.4	-59.4	3.6	8.45e-01	0	32	104	0	60	33817
2026-01-27 13:36:59.97	25.78	1.54	-47.4	-59.4	3.6	8.45e-01	0	32	104	0	60	33737
2026-01-27 13:37:00.99	25.89	1.58	-47.4	-59.4	3.6	8.44e-01	0	32	104	0	60	33921
2026-01-27 13:37:02.00	26.00	1.62	-47.4	-59.4	3.6	8.45e-01	0	32	104	0	60	33910
2026-01-27 13:37:03.01	26.10	1.65	-47.4	-59.4	3.6	8.45e-01	0	32	104	0	60	33678
2026-01-27 13:37:04.01	26.21	1.69	-47.3	-59.5	3.6	8.45e-01	0	32	104	0	60	33964
2026-01-27 13:37:05.03	26.32	1.73	-47.4	-59.4	3.6	8.46e-01	0	32	104	0	60	33814
2026-01-27 13:37:06.03	26.43	1.77	-47.4	-59.4	3.6	8.46e-01	0	32	104	0	60	33904
2026-01-27 13:37:07.04	26.54	1.80	-47.3	-59.4	3.6	8.45e-01	0	32	104	0	60	33876
2026-01-27 13:37:08.05	26.65	1.84	-47.3	-59.4	3.6	8.45e-01	0	32	104	0	60	33835
2026-01-27 13:37:09.06	26.77	1.88	-47.3	-59.4	3.6	8.46e-01	0	32	104	0	60	33715
2026-01-27 13:37:10.07	26.88	1.92	-47.3	-59.4	3.6	8.45e-01	0	32	104	0	60	33593
2026-01-27 13:37:11.08	26.99	1.96	-47.3	-59.4	3.6	8.46e-01	0	32	104	0	60	33739
2026-01-27 13:37:12.09	27.10	1.99	-47.4	-59.4	3.6	8.44e-01	0	32	104	0	60	33672
2026-01-27 13:37:13.10	27.21	2.03	-47.3	-59.4	3.6	8.45e-01	0	32	104	0	60	33618
2026-01-27 13:37:14.11	27.32	2.07	-47.3	-59.4	3.6	8.44e-01	0	32	104	0	60	33704
2026-01-27 13:37:15.12	27.44	2.10	-47.3	-59.4	3.6	8.45e-01	0	32	104	0	60	33851
2026-01-27 13:37:16.13	27.55	2.14	-47.3	-59.4	3.6	8.45e-01	0	32	104	0	60	33837
2026-01-27 13:37:17.14	27.66	2.18	-47.3	-59.4	3.6	8.46e-01	0	32	104	0	60	33659
2026-01-27 13:37:18.15	27.78	2.22	-47.4	-59.4	3.6	8.44e-01	0	32	104	0	60	33928
2026-01-27 13:37:19.16	27.89	2.25	-47.3	-59.4	3.6	8.45e-01	0	32	104	0	60	33735
2026-01-27 13:37:20.17	28.00	2.29	-47.3	-59.3	3.6	8.45e-01	0	32	104	0	60	33371
2026-01-27 13:37:21.18	28.12	2.33	-47.3	-59.2	3.6	8.45e-01	0	32	104	0	60	33081
2026-01-27 13:37:22.18	28.23	2.37	-47.3	-59.2	3.6	8.46e-01	0	32	104	0	60	32900
2026-01-27 13:37:23.19	28.35	2.40	-47.3	-59.4	3.6	8.46e-01	0	32	104	0	60	33550
2026-01-27 13:37:24.20	28.46	2.44	-47.3	-59.4	3.6	8.45e-01	0	32	104	0	60	33588
2026-01-27 13:37:25.21	28.58	2.48	-47.3	-59.3	3.6	8.45e-01	0	32	104	0	60	33321
2026-01-27 13:37:26.22	28.69	2.51	-47.3	-59.4	3.6	8.46e-01	0	32	104	0	60	33802
2026-01-27 13:37:27.24	28.81	2.55	-47.3	-59.4	3.6	8.46e-01	0	32	104	0	60	33684
2026-01-27 13:37:28.24	28.92	2.59	-47.3	-58.6	3.6	8.46e-01	0	32	104	0	60	30764
2026-01-27 13:37:29.25	29.04	2.62	-47.1	-57.0	3.8	8.45e-01	0	32	104	0	60	25501
2026-01-27 13:37:30.27	29.16	2.66	-47.2	-57.7	3.7	8.44e-01	0	32	104	0	60	27630
2026-01-27 13:37:31.28	29.28	2.70	-47.2	-58.5	3.6	8.45e-01	0	32	104	0	60	30376
2026-01-27 13:37:32.28	29.39	2.73	-46.5	-53.2	6.1	8.36e-01	0	32	104	0	60	16586
2026-01-27 13:37:33.29	29.51	2.77	-43.9	-46.5	12.4	6.62e-03	0	32	0	5242880	60	7616
2026-01-27 13:37:34.31	29.63	2.81	-40.4	-41.8	16.8	0.00e+00	0	32	0	10485760	54	6272
2026-01-27 13:37:35.31	29.75	2.84	-38.9	-40.0	18.6	0.00e+00	0	32	0	16777216	52	5723
2026-01-27 13:37:36.33	29.87	2.88	-36.2	-37.0	21.4	0.00e+00	0	32	0	22020096	46	5745
2026-01-27 13:37:37.34	29.98	2.92	-36.5	-37.4	21.0	0.00e+00	0	32	0	27262976	46	5983
2026-01-27 13:37:38.35	30.10	2.95	-37.3	-38.2	20.1	0.00e+00	0	32	0	33554432	46	6610
2026-01-27 13:37:39.36	30.22	2.99	-38.5	-39.6	18.8	0.00e+00	0	32	0	38797312	48	6893
2026-01-27 13:37:40.37	30.34	3.03	-38.0	-39.0	19.8	0.00e+00	0	32	0	45088768	50	5722
2026-01-27 13:37:41.38	30.46	3.06	-37.0	-37.9	20.7	0.00e+00	0	32	0	50331648	48	5637
2026-01-27 13:37:42.39	30.58	3.10	-36.9	-37.8	19.4	0.00e+00	0	32	0	56623104	46	6278
2026-01-27 13:37:43.40	30.70	3.13	-46.9	-55.9	4.1	8.44e-01	0	32	104	57671680	60	22548
2026-01-27 13:37:44.41	30.82	3.17	-40.4	-41.7	18.1	4.73e-01	0	32	104	57671680	60	4416
2026-01-27 13:37:45.42	30.94	3.21	-41.2	-42.7	17.2	0.00e+00	0	32	0	60817408	58	5522
2026-01-27 13:37:46.43	31.07	3.24	-37.3	-38.2	20.4	0.00e+00	0	32	0	67108864	48	5896
2026-01-27 13:37:47.44	31.19	3.28	-37.3	-38.2	19.8	0.00e+00	0	32	0	72351744	48	5861
2026-01-27 13:37:48.46	31.31	3.32	-38.3	-39.3	19.4	0.00e+00	0	32	0	78643200	48	6628
2026-01-27 13:37:49.47	31.43	3.35	-36.1	-37.0	21.5	0.00e+00	0	32	0	83886080	46	5696
2026-01-27 13:37:50.48	31.55	3.39	-36.2	-37.1	21.5	0.00e+00	0	32	0	90177536	46	5770
2026-01-27 13:37:51.49	31.68	3.42	-35.4	-36.2	22.4	0.00e+00	0	32	0	95420416	44	5863
2026-01-27 13:37:52.50	31.80	3.46	-36.3	-37.1	21.4	0.00e+00	0	32	0	100663296	44	6508
2026-01-27 13:37:53.51	31.92	3.49	-35.7	-36.5	22.0	0.00e+00	0	32	0	106954752	44	6084
2026-01-27 13:37:54.52	32.05	3.53	-35.8	-36.6	21.9	0.00e+00	0	32	0	112197632	44	6153
2026-01-27 13:37:55.53	32.17	3.56	-36.1	-37.0	21.5	0.00e+00	0	32	0	118489088	44	6396
2026-01-27 13:37:56.54	32.29	3.60	-36.1	-37.0	21.5	0.00e+00	0	32	0	123731968	44	6417
2026-01-27 13:37:57.55	32.42	3.64	-36.3	-37.2	21.5	0.00e+00	0	32	0	128974848	44	6591
2026-01-27 13:37:58.56	32.54	3.67	-35.6	-36.4	21.9	0.00e+00	0	32	0	135266304	44	6022
2026-01-27 13:37:59.57	32.67	3.71	-35.5	-36.3	22.3	0.00e+00	0	32	0	140509184	44	5915
2026-01-27 13:38:00.58	32.79	3.74	-35.9	-36.7	21.9	0.00e+00	0	32	0	146800640	44	6211
2026-01-27 13:38:01.59	32.92	3.78	-35.7	-36.5	21.8	0.00e+00	0	32	0	152043520	44	6090
2026-01-27 13:38:02.60	33.05	3.81	-35.6	-36.4	22.1	0.00e+00	0	32	0	157286400	44	6020
2026-01-27 13:38:03.61	33.17	3.85	-35.6	-36.3	22.1	0.00e+00	0	32	0	163577856	44	5960
2026-01-27 13:38:04.62	33.30	3.88	-36.1	-36.9	21.6	0.00e+00	0	32	0	168820736	44	6344
2026-01-27 13:38:05.63	33.42	3.92	-35.6	-36.4	22.1	0.00e+00	0	32	0	175112192	44	6019
2026-01-27 13:38:06.64	33.55	3.95	-35.5	-36.3	22.1	0.00e+00	0	32	0	180355072	44	5948
2026-01-27 13:38:07.65	33.68	3.99	-35.6	-36.4	22.2	0.00e+00	0	32	0	186646528	44	6025
2026-01-27 13:38:08.66	33.81	4.02	-35.6	-36.5	22.1	0.00e+00	0	32	0	191889408	44	6043
2026-01-27 13:38:09.67	33.93	4.05	-35.7	-36.5	22.0	0.00e+00	0	32	0	197132288	44	6038
2026-01-27 13:38:10.68	34.06	4.09	-35.2	-36.0	22.6	0.00e+00	0	32	0	203423744	44	5696
2026-01-27 13:38:11.69	34.19	4.12	-35.5	-36.3	22.2	0.00e+00	0	32	0	208666624	44	5962
2026-01-27 13:38:12.70	34.32	4.16	-35.3	-36.1	22.6	0.00e+00	0	32	0	214958080	44	5821
2026-01-27 13:38:13.71	34.45	4.19	-35.2	-36.0	22.8	0.00e+00	0	32	0	220200960	44	5736
2026-01-27 13:38:14.72	34.58	4.23	-35.3	-36.1	22.6	0.00e+00	0	32	0	226492416	44	5813
2026-01-27 13:38:15.73	34.71	4.26	-35.1	-35.8	22.7	0.00e+00	0	32	0	231735296	44	5624
2026-01-27 13:38:16.74	34.84	4.29	-35.3	-36.1	22.5	0.00e+00	0	32	0	236978176	44	5774
2026-01-27 13:38:17.75	34.97	4.33	-35.3	-36.0	22.5	0.00e+00	0	32	0	243269632	44	5761
2026-01-27 13:38:18.76	35.10	4.36	-35.4	-36.1	22.5	0.00e+00	0	32	0	248512512	44	5828
2026-01-27 13:38:19.78	35.23	4.40	-35.5	-36.3	22.3	0.00e+00	0	32	0	254803968	44	5958
2026-01-27 13:38:20.79	35.36	4.43	-36.0	-36.8	21.8	0.00e+00	0	32	0	260046848	44	6279
2026-01-27 13:38:21.80	35.49	4.46	-36.0	-36.8	21.9	0.00e+00	0	32	0	265289728	44	6296
2026-01-27 13:38:22.81	35.62	4.50	-35.1	-35.9	22.7	0.00e+00	0	32	0	271581184	44	5660
2026-01-27 13:38:23.82	35.76	4.53	-35.1	-35.9	22.7	0.00e+00	0	32	0	276824064	44	5639
2026-01-27 13:38:24.83	35.89	4.56	-35.3	-36.0	22.6	0.00e+00	0	32	0	283115520	44	5761
2026-01-27 13:38:25.84	36.02	4.60	-35.0	-35.8	22.8	0.00e+00	0	32	0	288358400	44	5591
2026-01-27 13:38:26.85	36.15	4.63	-35.3	-36.1	22.6	0.00e+00	0	32	0	293601280	44	5793
2026-01-27 13:38:27.86	36.29	4.66	-35.7	-36.5	22.2	0.00e+00	0	32	0	299892736	44	6059
2026-01-27 13:38:28.87	36.42	4.70	-35.2	-36.0	22.5	0.00e+00	0	32	0	305135616	44	5710
2026-01-27 13:38:29.88	36.55	4.73	-35.4	-36.2	22.5	0.00e+00	0	32	0	311427072	44	5841
2026-01-27 13:38:30.89	36.69	4.76	-35.5	-36.3	22.2	0.00e+00	0	32	0	316669952	44	5953
2026-01-27 13:38:31.90	36.82	4.80	-35.6	-36.4	22.4	0.00e+00	0	32	0	322961408	44	5980
2026-01-27 13:38:32.91	36.96	4.83	-35.3	-36.1	22.6	0.00e+00	0	32	0	328204288	44	5807
2026-01-27 13:38:33.92	37.09	4.86	-35.5	-36.3	22.3	0.00e+00	0	32	0	334495744	44	5902
2026-01-27 13:38:34.93	37.23	4.89	-35.4	-36.2	22.5	0.00e+00	0	32	0	339738624	44	5873
2026-01-27 13:38:35.94	37.36	4.93	-35.6	-36.4	22.3	0.00e+00	0	32	0	344981504	44	5981
2026-01-27 13:38:36.95	37.50	4.96	-35.7	-36.5	22.2	0.00e+00	0	32	0	351272960	44	6047
2026-01-27 13:38:37.96	37.63	4.99	-35.2	-36.0	22.7	0.00e+00	0	32	0	356515840	44	5699
2026-01-27 13:38:38.97	37.77	5.02	-35.4	-36.2	22.5	0.00e+00	0	32	0	362807296	44	5841
2026-01-27 13:38:39.98	37.91	5.06	-35.5	-36.3	22.3	0.00e+00	0	32	0	368050176	44	5944
2026-01-27 13:38:40.99	38.04	5.09	-35.3	-36.0	22.6	0.00e+00	0	32	0	373293056	44	5759
2026-01-27 13:38:42.00	38.18	5.12	-35.1	-35.9	22.7	0.00e+00	0	32	0	379584512	44	5649
2026-01-27 13:38:43.01	38.32	5.15	-34.9	-35.7	22.9	0.00e+00	0	32	0	384827392	44	5544
2026-01-27 13:38:44.02	38.46	5.18	-35.4	-36.2	22.6	0.00e+00	0	32	0	391118848	44	5856
2026-01-27 13:38:45.03	38.59	5.22	-35.0	-35.8	22.8	0.00e+00	0	32	0	396361728	44	5604
2026-01-27 13:38:46.04	38.73	5.25	-35.1	-35.9	22.8	0.00e+00	0	32	0	402653184	44	5657
2026-01-27 13:38:47.05	38.87	5.28	-34.8	-35.6	23.2	0.00e+00	0	32	0	407896064	44	5465
2026-01-27 13:38:48.06	39.01	5.31	-34.9	-35.6	23.1	0.00e+00	0	32	0	413138944	42	6152
2026-01-27 13:38:49.07	39.15	5.34	-34.7	-35.4	23.3	0.00e+00	0	32	0	419430400	42	6006
2026-01-27 13:38:50.08	39.29	5.37	-34.9	-35.7	23.1	0.00e+00	0	32	0	424673280	42	6222
2026-01-27 13:38:51.09	39.43	5.40	-35.1	-35.9	22.9	0.00e+00	0	32	0	430964736	42	6325
2026-01-27 13:38:52.10	39.57	5.43	-35.1	-35.8	23.0	0.00e+00	0	32	0	436207616	42	6304
2026-01-27 13:38:53.11	39.71	5.46	-35.0	-35.8	23.0	0.00e+00	0	32	0	441450496	42	6263
2026-01-27 13:38:54.12	39.85	5.50	-34.9	-35.7	23.1	0.00e+00	0	32	0	447741952	42	6200
2026-01-27 13:38:55.13	39.99	5.53	-34.9	-35.6	23.1	0.00e+00	0	32	0	452984832	42	6164
2026-01-27 13:38:56.14	40.13	5.56	-34.9	-35.6	23.1	0.00e+00	0	32	0	459276288	42	6163
2026-01-27 13:38:57.15	40.27	5.59	-34.7	-35.5	23.2	0.00e+00	0	32	0	464519168	42	6065
2026-01-27 13:38:58.16	40.41	5.62	-34.9	-35.6	23.2	0.00e+00	0	32	0	469762048	42	6154
2026-01-27 13:38:59.17	40.56	5.65	-34.6	-35.4	23.3	0.00e+00	0	32	0	476053504	42	5976
2026-01-27 13:39:00.18	40.70	5.68	-34.8	-35.5	23.2	0.00e+00	0	32	0	481296384	42	6053
2026-01-27 13:39:01.19	40.84	5.71	-34.5	-35.3	23.4	0.00e+00	0	32	0	487587840	42	5908
2026-01-27 13:39:02.20	40.98	5.74	-34.5	-35.2	23.5	0.00e+00	0	32	0	492830720	42	5879
2026-01-27 13:39:03.21	41.13	5.77	-34.3	-35.0	23.6	0.00e+00	0	32	0	498073600	42	5728
2026-01-27 13:39:04.22	41.27	5.80	-34.5	-35.2	23.6	0.00e+00	0	32	0	504365056	42	5843
2026-01-27 13:39:05.23	41.41	5.83	-34.4	-35.1	23.6	0.00e+00	0	32	0	509607936	42	5796
2026-01-27 13:39:06.24	41.56	5.86	-34.4	-35.1	23.7	0.00e+00	0	32	0	515899392	42	5796
2026-01-27 13:39:07.25	41.70	5.88	-34.5	-35.3	23.5	0.00e+00	0	32	0	521142272	42	5900
2026-01-27 13:39:08.26	41.85	5.91	-34.6	-35.4	23.4	0.00e+00	0	32	0	527433728	42	5981
2026-01-27 13:39:09.27	41.99	5.94	-34.5	-35.2	23.6	0.00e+00	0	32	0	532676608	42	5852
2026-01-27 13:39:10.28	42.14	5.97	-34.6	-35.3	23.4	0.00e+00	0	32	0	538968064	42	5930
2026-01-27 13:39:11.29	42.28	6.00	-34.7	-35.5	23.4	0.00e+00	0	32	0	544210944	42	6069
2026-01-27 13:39:12.30	42.43	6.03	-34.6	-35.4	23.5	0.00e+00	0	32	0	549453824	42	5972
2026-01-27 13:39:13.31	42.57	6.06	-34.7	-35.4	23.4	0.00e+00	0	32	0	555745280	42	6011
2026-01-27 13:39:14.32	42.72	6.09	-34.6	-35.4	23.4	0.00e+00	0	32	0	560988160	42	5971
2026-01-27 13:39:15.33	42.87	6.12	-34.6	-35.3	23.5	0.00e+00	0	32	0	567279616	42	5928
2026-01-27 13:39:16.34	43.01	6.14	-34.6	-35.3	23.5	0.00e+00	0	32	0	572522496	42	5941
2026-01-27 13:39:17.35	43.16	6.17	-34.6	-35.3	23.5	0.00e+00	0	32	0	577765376	42	5964
2026-01-27 13:39:18.36	43.31	6.20	-34.8	-35.5	23.3	0.00e+00	0	32	0	584056832	42	6097
2026-01-27 13:39:19.37	43.46	6.23	-34.7	-35.4	23.4	0.00e+00	0	32	0	589299712	42	6029
2026-01-27 13:39:20.38	43.60	6.25	-34.9	-35.6	23.3	0.00e+00	0	32	0	595591168	42	6150
2026-01-27 13:39:21.39	43.75	6.28	-34.4	-35.1	23.7	0.00e+00	0	32	0	600834048	42	5819
2026-01-27 13:39:22.40	43.90	6.31	-34.3	-35.1	23.7	0.00e+00	0	32	0	606076928	42	5770
2026-01-27 13:39:23.41	44.05	6.34	-34.4	-35.1	23.6	0.00e+00	0	32	0	612368384	42	5819
2026-01-27 13:39:24.42	44.20	6.36	-34.4	-35.1	23.7	0.00e+00	0	32	0	617611264	42	5799
2026-01-27 13:39:25.43	44.35	6.39	-34.6	-35.3	23.5	0.00e+00	0	32	0	623902720	42	5929
2026-01-27 13:39:26.44	44.50	6.42	-34.8	-35.5	23.3	0.00e+00	0	32	0	629145600	42	6068
2026-01-27 13:39:27.45	44.65	6.45	-35.0	-35.8	23.1	0.00e+00	0	32	0	635437056	42	6265
2026-01-27 13:39:28.46	44.80	6.47	-34.5	-35.2	23.5	0.00e+00	0	32	0	640679936	42	5867
2026-01-27 13:39:29.47	44.95	6.50	-34.5	-35.3	23.5	0.00e+00	0	32	0	646971392	42	5908
2026-01-27 13:39:30.48	45.10	6.52	-34.5	-35.3	23.5	0.00e+00	0	32	0	652214272	42	5916
2026-01-27 13:39:31.49	45.25	6.55	-34.5	-35.2	23.6	0.00e+00	0	32	0	657457152	42	5858
2026-01-27 13:39:32.50	45.40	6.58	-34.4	-35.2	23.6	0.00e+00	0	32	0	663748608	42	5841
2026-01-27 13:39:33.51	45.55	6.60	-34.5	-35.2	23.6	0.00e+00	0	32	0	668991488	42	5895
2026-01-27 13:39:34.52	45.70	6.63	-34.4	-35.1	23.7	0.00e+00	0	32	0	675282944	42	5785
2026-01-27 13:39:35.53	45.85	6.65	-34.3	-35.0	23.9	0.00e+00	0	32	0	680525824	42	5723
2026-01-27 13:39:36.54	46.01	6.68	-34.4	-35.1	23.7	0.00e+00	0	32	0	685768704	42	5801
2026-01-27 13:39:37.55	46.16	6.71	-34.4	-35.1	23.7	0.00e+00	0	32	0	692060160	42	5823
2026-01-27 13:39:38.56	46.31	6.73	-34.5	-35.3	23.6	0.00e+00	0	32	0	697303040	42	5910
2026-01-27 13:39:39.57	46.46	6.76	-34.5	-35.3	23.6	0.00e+00	0	32	0	703594496	42	5936
2026-01-27 13:39:40.58	46.62	6.78	-34.5	-35.3	23.5	0.00e+00	0	32	0	708837376	42	5910
2026-01-27 13:39:41.59	46.77	6.81	-34.4	-35.2	23.7	0.00e+00	0	32	0	714080256	42	5835
2026-01-27 13:39:42.60	46.93	6.83	-34.4	-35.1	23.7	0.00e+00	0	32	0	720371712	42	5808
2026-01-27 13:39:43.61	47.08	6.85	-34.3	-35.1	23.7	0.00e+00	0	32	0	725614592	42	5763
2026-01-27 13:39:44.62	47.23	6.88	-34.4	-35.1	23.8	0.00e+00	0	32	0	731906048	42	5825
2026-01-27 13:39:45.63	47.39	6.90	-34.3	-35.1	23.8	0.00e+00	0	32	0	737148928	42	5762
2026-01-27 13:39:46.64	47.54	6.93	-34.2	-34.9	23.9	0.00e+00	0	32	0	743440384	42	5659
2026-01-27 13:39:47.65	47.70	6.95	-34.3	-35.0	23.9	0.00e+00	0	32	0	748683264	42	5747
2026-01-27 13:39:48.66	47.85	6.97	-34.4	-35.2	23.7	0.00e+00	0	32	0	753926144	42	5862
2026-01-27 13:39:49.67	48.01	7.00	-34.4	-35.1	23.7	0.00e+00	0	32	0	760217600	42	5797
2026-01-27 13:39:50.69	48.17	7.02	-34.5	-35.3	23.6	0.00e+00	0	32	0	765460480	42	5903
2026-01-27 13:39:51.70	48.32	7.05	-34.4	-35.1	23.8	0.00e+00	0	32	0	771751936	42	5813
2026-01-27 13:39:52.70	48.48	7.07	-34.4	-35.1	23.7	0.00e+00	0	32	0	776994816	42	5804
2026-01-27 13:39:53.71	48.63	7.09	-34.4	-35.1	23.7	0.00e+00	0	32	0	783286272	42	5816
2026-01-27 13:39:54.72	48.79	7.11	-34.5	-35.3	23.6	0.00e+00	0	32	0	788529152	42	5904
2026-01-27 13:39:55.73	48.95	7.14	-34.5	-35.3	23.6	0.00e+00	0	32	0	793772032	42	5908
2026-01-27 13:39:56.74	49.10	7.16	-34.4	-35.2	23.7	0.00e+00	0	32	0	800063488	42	5870
2026-01-27 13:39:57.75	49.26	7.18	-34.4	-35.2	23.7	0.00e+00	0	32	0	805306368	42	5839
2026-01-27 13:39:58.76	49.42	7.20	-34.4	-35.1	23.8	0.00e+00	0	32	0	811597824	42	5826
2026-01-27 13:39:59.77	49.58	7.23	-34.4	-35.1	23.8	0.00e+00	0	32	0	816840704	42	5791
2026-01-27 13:40:00.78	49.73	7.25	-34.3	-35.1	23.8	0.00e+00	0	32	0	822083584	42	5794
2026-01-27 13:40:01.79	49.89	7.27	-34.3	-35.0	23.9	0.00e+00	0	32	0	828375040	42	5744
2026-01-27 13:40:02.80	50.05	7.29	-34.4	-35.1	23.8	0.00e+00	0	32	0	833617920	42	5803
2026-01-27 13:40:03.81	50.21	7.31	-34.1	-34.8	24.1	0.00e+00	0	32	0	839909376	42	5601
2026-01-27 13:40:04.82	50.37	7.33	-34.2	-35.0	23.9	0.00e+00	0	32	0	845152256	42	5710
2026-01-27 13:40:05.83	50.53	7.35	-34.1	-34.8	24.1	0.00e+00	0	32	0	851443712	42	5622
2026-01-27 13:40:06.84	50.69	7.37	-34.1	-34.8	24.0	0.00e+00	0	32	0	856686592	42	5620
2026-01-27 13:40:07.85	50.85	7.40	-34.1	-34.8	24.2	0.00e+00	0	32	0	861929472	42	5607
2026-01-27 13:40:08.86	51.01	7.42	-34.0	-34.7	24.2	0.00e+00	0	32	0	868220928	42	5537
2026-01-27 13:40:09.87	51.17	7.44	-33.9	-34.6	24.2	0.00e+00	0	32	0	873463808	42	5475
2026-01-27 13:40:10.88	51.33	7.46	-33.8	-34.6	24.3	0.00e+00	0	32	0	879755264	42	5443
2026-01-27 13:40:11.89	51.49	7.48	-34.0	-34.7	24.2	0.00e+00	0	32	0	884998144	42	5517
2026-01-27 13:40:12.90	51.65	7.50	-34.0	-34.7	24.1	0.00e+00	0	32	0	890241024	42	5532
2026-01-27 13:40:13.91	51.81	7.52	-34.0	-34.8	24.0	0.00e+00	0	32	0	896532480	42	5573
2026-01-27 13:40:14.92	51.97	7.54	-34.2	-34.9	23.9	0.00e+00	0	32	0	901775360	42	5688
2026-01-27 13:40:15.93	52.13	7.55	-34.1	-34.9	24.0	0.00e+00	0	32	0	908066816	42	5643
2026-01-27 13:40:16.94	52.29	7.57	-34.1	-34.8	24.0	0.00e+00	0	32	0	913309696	42	5620
2026-01-27 13:40:17.95	52.45	7.59	-34.1	-34.9	24.0	0.00e+00	0	32	0	918552576	42	5635
2026-01-27 13:40:18.95	52.62	7.61	-34.1	-34.8	24.1	0.00e+00	0	32	0	924844032	42	5594
2026-01-27 13:40:19.96	52.78	7.63	-34.0	-34.7	24.2	0.00e+00	0	32	0	930086912	42	5508
2026-01-27 13:40:20.97	52.94	7.65	-33.9	-34.6	24.2	0.00e+00	0	32	0	936378368	42	5486
2026-01-27 13:40:21.98	53.10	7.67	-33.8	-34.6	24.3	0.00e+00	0	32	0	941621248	42	5451
2026-01-27 13:40:22.99	53.26	7.68	-33.9	-34.6	24.1	0.00e+00	0	32	0	947912704	40	6129
2026-01-27 13:40:24.00	53.43	7.70	-33.9	-34.6	24.2	0.00e+00	0	32	0	953155584	40	6114
2026-01-27 13:40:25.01	53.59	7.72	-33.7	-34.4	24.3	0.00e+00	0	32	0	958398464	40	6006
2026-01-27 13:40:26.02	53.75	7.74	-33.8	-34.6	24.2	0.00e+00	0	32	0	964689920	40	6109
2026-01-27 13:40:27.03	53.92	7.75	-33.9	-34.6	24.2	0.00e+00	0	32	0	969932800	40	6158
2026-01-27 13:40:28.04	54.08	7.77	-34.0	-34.7	24.0	0.00e+00	0	32	0	976224256	40	6205
2026-01-27 13:40:29.04	54.24	7.79	-34.0	-34.7	24.0	0.00e+00	0	32	0	981467136	40	6213
2026-01-27 13:40:30.05	54.41	7.81	-34.1	-34.8	23.9	0.00e+00	0	32	0	986710016	40	6303
2026-01-27 13:40:31.06	54.57	7.82	-34.1	-34.9	24.0	0.00e+00	0	32	0	993001472	40	6329
2026-01-27 13:40:32.08	54.74	7.84	-34.1	-34.8	23.9	0.00e+00	0	32	0	998244352	40	6309
2026-01-27 13:40:33.08	54.90	7.85	-34.1	-34.9	23.9	0.00e+00	0	32	0	1004535808	40	6331
2026-01-27 13:40:34.09	55.07	7.87	-34.1	-34.8	24.0	0.00e+00	0	32	0	1009778688	40	6274
2026-01-27 13:40:35.10	55.23	7.89	-34.0	-34.8	24.1	0.00e+00	0	32	0	1015021568	40	6251
2026-01-27 13:40:36.11	55.40	7.90	-34.1	-34.8	24.1	0.00e+00	0	32	0	1021313024	40	6262
2026-01-27 13:40:37.12	55.56	7.92	-33.8	-34.6	24.3	0.00e+00	0	32	0	1026555904	40	6114
2026-01-27 13:40:38.14	55.73	7.93	-33.8	-34.6	24.2	0.00e+00	0	32	0	1032847360	40	6105
2026-01-27 13:40:39.14	55.89	7.95	-33.8	-34.5	24.2	0.00e+00	0	32	0	1038090240	40	6066
2026-01-27 13:40:40.15	56.06	7.96	-33.9	-34.6	24.1	0.00e+00	0	32	0	1044381696	40	6147
2026-01-27 13:40:41.16	56.23	7.98	-33.7	-34.4	24.3	0.00e+00	0	32	0	1049624576	40	6021
2026-01-27 13:40:42.17	56.39	7.99	-33.8	-34.6	24.2	0.00e+00	0	32	0	1055916032	40	6115
2026-01-27 13:40:43.18	56.56	8.01	-34.0	-34.7	24.2	0.00e+00	0	32	0	1061158912	40	6181
2026-01-27 13:40:44.19	56.72	8.02	-33.9	-34.6	24.2	0.00e+00	0	32	0	1066401792	40	6155
2026-01-27 13:40:45.21	56.89	8.03	-34.0	-34.7	24.2	0.00e+00	0	32	0	1072693248	40	6205
2026-01-27 13:40:46.22	57.06	8.05	-34.0	-34.7	24.2	0.00e+00	0	32	0	1077936128	40	6228
2026-01-27 13:40:47.23	57.23	8.06	-34.1	-34.8	24.1	0.00e+00	0	32	0	1084227584	40	6306
2026-01-27 13:40:48.24	57.39	8.07	-34.0	-34.8	24.1	0.00e+00	0	32	0	1089470464	40	6250
2026-01-27 13:40:49.25	57.56	8.09	-34.1	-34.8	24.0	0.00e+00	0	32	0	1094713344	40	6306
2026-01-27 13:40:50.25	57.73	8.10	-34.0	-34.8	24.1	0.00e+00	0	32	0	1101004800	40	6260
2026-01-27 13:40:51.26	57.89	8.11	-34.1	-34.8	24.0	0.00e+00	0	32	0	1106247680	40	6316
2026-01-27 13:40:52.27	58.06	8.12	-33.9	-34.7	24.2	0.00e+00	0	32	0	1112539136	40	6183
2026-01-27 13:40:53.28	58.23	8.14	-34.0	-34.7	24.2	0.00e+00	0	32	0	1117782016	40	6199
2026-01-27 13:40:54.29	58.40	8.15	-33.9	-34.6	24.2	0.00e+00	0	32	0	1123024896	40	6152
2026-01-27 13:40:55.30	58.57	8.16	-34.0	-34.7	24.2	0.00e+00	0	32	0	1129316352	40	6222
2026-01-27 13:40:56.31	58.73	8.17	-33.9	-34.6	24.2	0.00e+00	0	32	0	1134559232	40	6151
2026-01-27 13:40:57.32	58.90	8.18	-33.9	-34.5	24.4	0.00e+00	0	32	0	1140850688	40	6099
2026-01-27 13:40:58.33	59.07	8.19	-33.8	-34.5	24.2	0.00e+00	0	32	0	1146093568	40	6090
2026-01-27 13:40:59.35	59.24	8.21	-34.0	-34.7	24.2	0.00e+00	0	32	0	1152385024	40	6202
2026-01-27 13:41:00.36	59.41	8.22	-33.9	-34.6	24.2	0.00e+00	0	32	0	1157627904	40	6172
2026-01-27 13:41:01.37	59.58	8.23	-33.8	-34.5	24.2	0.00e+00	0	32	0	1163919360	40	6098
2026-01-27 13:41:02.38	59.75	8.24	-33.8	-34.5	24.3	0.00e+00	0	32	0	1169162240	40	6060
2026-01-27 13:41:03.39	59.92	8.25	-33.8	-34.5	24.3	0.00e+00	0	32	0	1174405120	40	6059
2026-01-27 13:41:04.40	60.09	8.26	-33.8	-34.5	24.3	0.00e+00	0	32	0	1180696576	40	6085
2026-01-27 13:41:05.41	60.26	8.27	-33.8	-34.5	24.3	0.00e+00	0	32	0	1185939456	40	6070
2026-01-27 13:41:06.42	60.42	8.28	-33.6	-34.3	24.5	0.00e+00	0	33	0	1192230912	40	5931
2026-01-27 13:41:07.43	60.59	8.29	-33.7	-34.4	24.4	0.00e+00	0	32	0	1197473792	40	6018
2026-01-27 13:41:08.44	60.76	8.29	-33.7	-34.4	24.4	0.00e+00	0	32	0	1202716672	40	6007
2026-01-27 13:41:09.45	60.93	8.30	-33.6	-34.3	24.4	0.00e+00	0	32	0	1209008128	40	5941
2026-01-27 13:41:10.46	61.10	8.31	-33.6	-34.3	24.4	0.00e+00	0	32	0	1214251008	40	5926
2026-01-27 13:41:11.47	61.27	8.32	-33.8	-34.5	24.2	0.00e+00	0	32	0	1220542464	40	6055
2026-01-27 13:41:12.48	61.44	8.33	-33.8	-34.5	24.3	0.00e+00	0	32	0	1225785344	40	6100
2026-01-27 13:41:13.49	61.61	8.34	-34.0	-34.7	24.1	0.00e+00	0	32	0	1231028224	40	6220
2026-01-27 13:41:14.50	61.78	8.34	-33.9	-34.6	24.0	0.00e+00	0	32	0	1237319680	40	6155
2026-01-27 13:41:15.51	61.95	8.35	-34.1	-34.8	23.9	0.00e+00	0	32	0	1242562560	40	6287
2026-01-27 13:41:16.53	62.13	8.36	-34.0	-34.7	23.9	0.00e+00	0	32	0	1248854016	40	6242
2026-01-27 13:41:17.53	62.30	8.37	-34.0	-34.7	24.0	0.00e+00	0	32	0	1254096896	40	6192
2026-01-27 13:41:18.54	62.47	8.37	-34.0	-34.8	24.1	0.00e+00	0	32	0	1260388352	40	6248
2026-01-27 13:41:19.55	62.64	8.38	-33.9	-34.7	24.2	0.00e+00	0	32	0	1265631232	40	6177
2026-01-27 13:41:20.56	62.81	8.39	-34.0	-34.8	23.9	0.00e+00	0	32	0	1271922688	40	6282
2026-01-27 13:41:21.58	62.98	8.39	-33.9	-34.7	24.0	0.00e+00	0	32	0	1277165568	40	6182
2026-01-27 13:41:22.59	63.15	8.40	-33.8	-34.5	24.1	0.00e+00	0	32	0	1282408448	40	6088
2026-01-27 13:41:23.60	63.32	8.41	-33.8	-34.5	24.3	0.00e+00	0	32	0	1288699904	40	6058
2026-01-27 13:41:24.61	63.49	8.41	-33.9	-34.6	24.3	0.00e+00	0	33	0	1293942784	40	6128
2026-01-27 13:41:25.62	63.66	8.42	-33.8	-34.5	24.1	0.00e+00	0	32	0	1300234240	40	6035
2026-01-27 13:41:26.63	63.84	8.42	-33.6	-34.3	23.8	0.00e+00	0	32	0	1305477120	40	5900
2026-01-27 13:41:27.64	64.01	8.43	-33.6	-34.2	23.9	0.00e+00	0	32	0	1310720000	40	5890
2026-01-27 13:41:28.65	64.18	8.43	-33.6	-34.3	24.0	0.00e+00	0	32	0	1317011456	40	5943
2026-01-27 13:41:29.66	64.35	8.44	-33.7	-34.4	24.1	0.00e+00	0	32	0	1322254336	40	5989
2026-01-27 13:41:30.67	64.52	8.44	-33.7	-34.3	24.3	0.00e+00	0	33	0	1328545792	40	5935
2026-01-27 13:41:31.68	64.69	8.44	-33.7	-34.4	24.4	0.00e+00	0	32	0	1333788672	40	5972
2026-01-27 13:41:32.69	64.86	8.45	-33.7	-34.3	24.4	0.00e+00	0	33	0	1339031552	40	5960
2026-01-27 13:41:33.70	65.04	8.45	-33.6	-34.3	24.5	0.00e+00	0	32	0	1345323008	40	5937
2026-01-27 13:41:34.71	65.21	8.46	-33.6	-34.4	24.5	0.00e+00	0	32	0	1350565888	40	5971
2026-01-27 13:41:35.72	65.38	8.46	-33.8	-34.5	24.3	0.00e+00	0	32	0	1356857344	40	6075
2026-01-27 13:41:36.73	65.55	8.46	-33.7	-34.4	24.4	0.00e+00	0	33	0	1362100224	40	6017
2026-01-27 13:41:37.74	65.72	8.47	-33.7	-34.5	24.3	0.00e+00	0	33	0	1368391680	40	6071
2026-01-27 13:41:38.75	65.89	8.47	-33.8	-34.6	24.3	0.00e+00	0	32	0	1373634560	40	6117
2026-01-27 13:41:39.77	66.07	8.47	-33.8	-34.5	24.2	0.00e+00	0	32	0	1379926016	40	6074
2026-01-27 13:41:40.78	66.24	8.47	-33.6	-34.3	24.4	0.00e+00	0	32	0	1385168896	40	5923
2026-01-27 13:41:41.79	66.41	8.47	-33.6	-34.4	24.4	0.00e+00	0	33	0	1390411776	40	5965
2026-01-27 13:41:42.79	66.58	8.48	-33.7	-34.4	24.2	0.00e+00	0	32	0	1396703232	40	6003
2026-01-27 13:41:43.80	66.75	8.48	-33.7	-34.4	24.2	0.00e+00	0	32	0	1401946112	40	6006
2026-01-27 13:41:44.82	66.93	8.48	-33.8	-34.5	24.1	0.00e+00	0	32	0	1408237568	40	6095
2026-01-27 13:41:45.82	67.10	8.48	-33.8	-34.5	24.1	0.00e+00	0	32	0	1413480448	40	6099
2026-01-27 13:41:46.84	67.27	8.48	-34.0	-34.7	23.8	0.00e+00	0	32	0	1418723328	40	6227
2026-01-27 13:41:47.84	67.44	8.48	-33.9	-34.6	23.9	0.00e+00	0	32	0	1425014784	40	6126
2026-01-27 13:41:48.85	67.61	8.48	-33.9	-34.6	24.0	0.00e+00	0	32	0	1430257664	40	6166
2026-01-27 13:41:49.87	67.79	8.48	-33.9	-34.6	24.1	0.00e+00	0	32	0	1436549120	40	6132
2026-01-27 13:41:50.87	67.96	8.48	-33.9	-34.6	24.1	0.00e+00	0	32	0	1441792000	40	6170
2026-01-27 13:41:51.88	68.13	8.48	-33.8	-34.5	24.0	0.00e+00	0	32	0	1447034880	40	6082
2026-01-27 13:41:52.89	68.30	8.48	-33.7	-34.4	24.1	0.00e+00	0	32	0	1453326336	40	5984
2026-01-27 13:41:53.90	68.47	8.48	-33.8	-34.5	24.0	0.00e+00	0	32	0	1458569216	40	6036
2026-01-27 13:41:54.91	68.64	8.48	-33.7	-34.4	24.2	0.00e+00	0	32	0	1464860672	40	6009
2026-01-27 13:41:55.92	68.82	8.48	-33.7	-34.4	24.3	0.00e+00	0	32	0	1470103552	40	5973
2026-01-27 13:41:56.94	68.99	8.48	-33.6	-34.3	24.5	0.00e+00	0	32	0	1476395008	40	5929
2026-01-27 13:41:57.95	69.16	8.48	-33.8	-34.5	24.4	0.00e+00	0	33	0	1481637888	40	6060
2026-01-27 13:41:58.95	69.33	8.47	-33.7	-34.4	24.3	0.00e+00	0	32	0	1486880768	40	6012
2026-01-27 13:41:59.97	69.51	8.47	-33.8	-34.5	24.4	0.00e+00	0	32	0	1493172224	40	6086
2026-01-27 13:42:00.98	69.68	8.47	-33.7	-34.4	24.4	0.00e+00	0	32	0	1498415104	40	6025
2026-01-27 13:42:01.99	69.85	8.47	-33.8	-34.5	24.3	0.00e+00	0	32	0	1504706560	40	6034
2026-01-27 13:42:03.00	70.02	8.46	-33.8	-34.5	24.3	0.00e+00	0	33	0	1509949440	40	6090
2026-01-27 13:42:04.01	70.19	8.46	-33.8	-34.5	24.4	0.00e+00	0	32	0	1515192320	40	6078
2026-01-27 13:42:05.02	70.36	8.46	-33.7	-34.4	24.3	0.00e+00	0	32	0	1521483776	40	6022
2026-01-27 13:42:06.03	70.54	8.45	-33.8	-34.5	24.3	0.00e+00	0	32	0	1526726656	40	6067
2026-01-27 13:42:07.04	70.71	8.45	-33.9	-34.6	24.3	0.00e+00	0	32	0	1533018112	40	6107
2026-01-27 13:42:08.05	70.88	8.45	-34.0	-34.7	24.1	0.00e+00	0	32	0	1538260992	40	6244
2026-01-27 13:42:09.06	71.05	8.44	-33.9	-34.6	24.2	0.00e+00	0	32	0	1543503872	40	6122
2026-01-27 13:42:10.07	71.22	8.44	-33.9	-34.7	24.2	0.00e+00	0	32	0	1549795328	40	6198
2026-01-27 13:42:11.08	71.39	8.43	-34.0	-34.8	24.1	0.00e+00	0	32	0	1555038208	40	6288
2026-01-27 13:42:12.09	71.57	8.43	-34.0	-34.7	24.1	0.00e+00	0	32	0	1561329664	40	6185
2026-01-27 13:42:13.10	71.74	8.42	-33.9	-34.6	24.3	0.00e+00	0	32	0	1566572544	40	6168
2026-01-27 13:42:14.11	71.91	8.42	-34.0	-34.6	24.1	0.00e+00	0	33	0	1572864000	40	6169
2026-01-27 13:42:15.12	72.08	8.41	-34.1	-34.8	24.0	0.00e+00	0	32	0	1578106880	40	6266
2026-01-27 13:42:16.13	72.25	8.41	-34.0	-34.7	23.9	0.00e+00	0	32	0	1584398336	40	6231
2026-01-27 13:42:17.14	72.42	8.40	-33.9	-34.6	24.1	0.00e+00	0	32	0	1589641216	40	6158
2026-01-27 13:42:18.15	72.59	8.40	-33.9	-34.7	23.9	0.00e+00	0	32	0	1594884096	40	6176
2026-01-27 13:42:19.16	72.76	8.39	-34.0	-34.7	23.5	0.00e+00	0	33	0	1601175552	40	6200
2026-01-27 13:42:20.17	72.94	8.38	-33.9	-34.6	23.6	0.00e+00	0	32	0	1606418432	40	6129
2026-01-27 13:42:21.18	73.11	8.38	-33.8	-34.6	23.8	0.00e+00	0	32	0	1612709888	40	6108
2026-01-27 13:42:22.19	73.28	8.37	-33.9	-34.6	24.1	0.00e+00	0	32	0	1617952768	40	6128
2026-01-27 13:42:23.20	73.45	8.36	-33.9	-34.6	24.1	0.00e+00	0	32	0	1623195648	40	6172
2026-01-27 13:42:24.21	73.62	8.36	-34.0	-34.7	24.0	0.00e+00	0	32	0	1629487104	40	6176
2026-01-27 13:42:25.22	73.79	8.35	-33.8	-34.6	24.2	0.00e+00	0	33	0	1634729984	40	6104
2026-01-27 13:42:26.23	73.96	8.34	-33.8	-34.5	24.3	0.00e+00	0	33	0	1641021440	40	6075
2026-01-27 13:42:27.24	74.13	8.33	-33.7	-34.4	24.4	0.00e+00	0	33	0	1646264320	40	5987
2026-01-27 13:42:28.25	74.30	8.32	-33.7	-34.4	24.3	0.00e+00	0	33	0	1651507200	40	6015
2026-01-27 13:42:29.26	74.47	8.32	-33.7	-34.4	24.2	0.00e+00	0	33	0	1657798656	40	6010
2026-01-27 13:42:30.27	74.64	8.31	-33.7	-34.4	24.3	0.00e+00	0	33	0	1663041536	40	6006
2026-01-27 13:42:31.28	74.81	8.30	-33.7	-34.3	24.3	0.00e+00	0	32	0	1669332992	40	5929
2026-01-27 13:42:32.28	74.98	8.29	-33.6	-34.3	24.5	0.00e+00	0	32	0	1674575872	40	5926
2026-01-27 13:42:33.30	75.15	8.28	-33.6	-34.3	24.5	0.00e+00	0	33	0	1680867328	40	5929
2026-01-27 13:42:34.30	75.32	8.27	-33.7	-34.4	24.3	0.00e+00	0	32	0	1686110208	40	6013
2026-01-27 13:42:35.31	75.49	8.26	-34.0	-34.7	24.1	0.00e+00	0	33	0	1692401664	40	6197
2026-01-27 13:42:36.32	75.66	8.25	-33.9	-34.6	24.2	0.00e+00	0	32	0	1697644544	40	6132
2026-01-27 13:42:37.33	75.83	8.24	-34.0	-34.7	24.1	0.00e+00	0	32	0	1702887424	40	6233
2026-01-27 13:42:38.34	76.00	8.23	-34.0	-34.8	24.2	0.00e+00	0	32	0	1709178880	40	6247
2026-01-27 13:42:39.35	76.17	8.22	-34.1	-34.8	24.0	0.00e+00	0	32	0	1714421760	40	6255
2026-01-27 13:42:40.36	76.33	8.21	-33.7	-34.4	24.4	0.00e+00	0	32	0	1719664640	40	6006
2026-01-27 13:42:41.37	76.50	8.20	-33.8	-34.5	24.3	0.00e+00	0	33	0	1725956096	40	6063
2026-01-27 13:42:42.38	76.67	8.19	-33.8	-34.5	24.3	0.00e+00	0	32	0	1731198976	40	6099
2026-01-27 13:42:43.39	76.84	8.18	-33.9	-34.6	24.2	0.00e+00	0	32	0	1737490432	40	6139
2026-01-27 13:42:44.40	77.01	8.17	-34.0	-34.8	24.2	0.00e+00	0	32	0	1742733312	40	6249
2026-01-27 13:42:45.41	77.18	8.15	-34.0	-34.6	24.2	0.00e+00	0	33	0	1747976192	40	6140
2026-01-27 13:42:46.42	77.35	8.14	-34.0	-34.7	24.1	0.00e+00	0	33	0	1754267648	40	6204
2026-01-27 13:42:47.43	77.51	8.13	-34.2	-34.9	24.0	0.00e+00	0	32	0	1759510528	40	6322
2026-01-27 13:42:48.44	77.68	8.12	-34.1	-34.8	24.0	0.00e+00	0	33	0	1765801984	40	6274
2026-01-27 13:42:49.45	77.85	8.10	-34.0	-34.7	24.1	0.00e+00	0	33	0	1771044864	40	6211
2026-01-27 13:42:50.46	78.02	8.09	-33.9	-34.7	24.2	0.00e+00	0	32	0	1777336320	40	6196
2026-01-27 13:42:51.47	78.19	8.08	-33.9	-34.6	24.2	0.00e+00	0	33	0	1782579200	40	6145
2026-01-27 13:42:52.47	78.35	8.07	-33.8	-34.5	24.1	0.00e+00	0	33	0	1788870656	40	6070
2026-01-27 13:42:53.48	78.52	8.05	-33.9	-34.7	24.0	0.00e+00	0	33	0	1794113536	40	6185
2026-01-27 13:42:54.49	78.69	8.04	-34.0	-34.7	23.9	0.00e+00	0	33	0	1799356416	40	6196
2026-01-27 13:42:55.50	78.85	8.03	-33.9	-34.6	24.1	0.00e+00	0	32	0	1805647872	40	6160
2026-01-27 13:42:56.51	79.02	8.01	-33.9	-34.6	24.2	0.00e+00	0	32	0	1810890752	40	6164
2026-01-27 13:42:57.52	79.19	8.00	-34.0	-34.6	24.2	0.00e+00	0	33	0	1817182208	40	6157
2026-01-27 13:42:58.53	79.35	7.98	-34.0	-34.7	24.2	0.00e+00	0	32	0	1822425088	40	6211
2026-01-27 13:42:59.54	79.52	7.97	-34.0	-34.7	24.1	0.00e+00	0	33	0	1827667968	40	6228
2026-01-27 13:43:00.55	79.69	7.95	-33.8	-34.6	24.3	0.00e+00	0	33	0	1833959424	40	6123
2026-01-27 13:43:01.56	79.85	7.94	-34.0	-34.7	24.1	0.00e+00	0	33	0	1839202304	40	6223
2026-01-27 13:43:02.57	80.02	7.92	-33.9	-34.6	24.3	0.00e+00	0	33	0	1845493760	40	6123
2026-01-27 13:43:03.58	80.18	7.91	-34.0	-34.7	24.1	0.00e+00	0	33	0	1850736640	40	6241
2026-01-27 13:43:04.59	80.35	7.89	-34.0	-34.8	24.1	0.00e+00	0	32	0	1855979520	40	6264
2026-01-27 13:43:05.60	80.52	7.88	-34.1	-34.8	24.0	0.00e+00	0	33	0	1862270976	40	6275
2026-01-27 13:43:06.61	80.68	7.86	-34.0	-34.7	24.1	0.00e+00	0	33	0	1867513856	40	6233
2026-01-27 13:43:07.62	80.85	7.84	-34.0	-34.8	24.0	0.00e+00	0	33	0	1873805312	40	6289
2026-01-27 13:43:08.63	81.01	7.83	-34.1	-34.8	23.9	0.00e+00	0	33	0	1879048192	40	6272
2026-01-27 13:43:09.64	81.18	7.81	-34.1	-34.8	23.9	0.00e+00	0	32	0	1885339648	40	6307
2026-01-27 13:43:10.65	81.34	7.80	-34.2	-34.9	23.9	0.00e+00	0	33	0	1890582528	40	6390
2026-01-27 13:43:11.66	81.50	7.78	-34.1	-34.9	24.0	0.00e+00	0	33	0	1895825408	40	6323
2026-01-27 13:43:12.67	81.67	7.76	-34.1	-34.8	24.0	0.00e+00	0	33	0	1902116864	40	6317
2026-01-27 13:43:13.67	81.83	7.74	-34.0	-34.8	24.1	0.00e+00	0	33	0	1907359744	40	6276
2026-01-27 13:43:14.68	82.00	7.73	-34.0	-34.8	24.2	0.00e+00	0	33	0	1913651200	40	6260
2026-01-27 13:43:15.69	82.16	7.71	-34.0	-34.7	24.2	0.00e+00	0	33	0	1918894080	40	6214
2026-01-27 13:43:16.70	82.32	7.69	-34.0	-34.7	24.2	0.00e+00	0	33	0	1924136960	40	6195
2026-01-27 13:43:17.71	82.49	7.67	-34.0	-34.7	24.1	0.00e+00	0	32	0	1930428416	40	6202
2026-01-27 13:43:18.72	82.65	7.66	-33.9	-34.6	24.2	0.00e+00	0	32	0	1935671296	40	6139
2026-01-27 13:43:19.73	82.81	7.64	-34.0	-34.8	24.1	0.00e+00	0	32	0	1941962752	40	6264
2026-01-27 13:43:20.74	82.97	7.62	-34.2	-34.8	23.9	0.00e+00	0	33	0	1947205632	40	6313
2026-01-27 13:43:21.75	83.14	7.60	-34.4	-35.1	23.7	0.00e+00	0	33	0	1952448512	40	6487
2026-01-27 13:43:22.76	83.30	7.58	-34.6	-35.4	23.4	0.00e+00	0	33	0	1958739968	40	6708
2026-01-27 13:43:23.76	83.46	7.56	-34.7	-35.5	23.4	0.00e+00	0	33	0	1963982848	42	6073
2026-01-27 13:43:24.77	83.62	7.54	-34.6	-35.4	23.5	0.00e+00	0	33	0	1970274304	42	5967
2026-01-27 13:43:25.78	83.78	7.52	-34.4	-35.2	23.8	0.00e+00	0	32	0	1975517184	42	5895
2026-01-27 13:43:26.79	83.94	7.50	-34.4	-35.1	23.8	0.00e+00	0	33	0	1981808640	42	5815
2026-01-27 13:43:27.81	84.11	7.48	-34.3	-35.1	23.8	0.00e+00	0	33	0	1987051520	42	5805
2026-01-27 13:43:28.82	84.27	7.46	-34.5	-35.2	23.6	0.00e+00	0	32	0	1993342976	42	5841
2026-01-27 13:43:29.82	84.43	7.44	-34.4	-35.2	23.7	0.00e+00	0	32	0	1998585856	42	5871
2026-01-27 13:43:30.83	84.59	7.42	-34.3	-35.1	23.8	0.00e+00	0	33	0	2003828736	42	5815
2026-01-27 13:43:31.84	84.75	7.40	-34.5	-35.2	23.5	0.00e+00	0	33	0	2010120192	42	5879
2026-01-27 13:43:32.85	84.91	7.38	-34.5	-35.3	23.6	0.00e+00	0	32	0	2015363072	42	5918
2026-01-27 13:43:33.86	85.07	7.36	-34.5	-35.2	23.6	0.00e+00	0	32	0	2020605952	42	5849
2026-01-27 13:43:34.87	85.23	7.34	-34.6	-35.4	23.5	0.00e+00	0	32	0	2026897408	42	5996
2026-01-27 13:43:35.88	85.39	7.32	-34.5	-35.3	23.6	0.00e+00	0	33	0	2032140288	42	5904
2026-01-27 13:43:36.90	85.55	7.30	-34.4	-35.1	23.6	0.00e+00	0	32	0	2038431744	42	5803
2026-01-27 13:43:37.90	85.71	7.28	-34.4	-35.2	23.6	0.00e+00	0	32	0	2043674624	42	5853
2026-01-27 13:43:38.91	85.87	7.25	-34.5	-35.4	23.6	0.00e+00	0	33	0	2049966080	42	5965
2026-01-27 13:43:39.92	86.02	7.23	-34.4	-35.2	23.6	0.00e+00	0	32	0	2055208960	42	5871
2026-01-27 13:43:40.93	86.18	7.21	-34.5	-35.3	23.4	0.00e+00	0	33	0	2060451840	42	5915
2026-01-27 13:43:41.94	86.34	7.19	-34.5	-35.2	23.5	0.00e+00	0	32	0	2066743296	42	5855
2026-01-27 13:43:42.95	86.50	7.17	-34.5	-35.3	23.4	0.00e+00	0	32	0	2071986176	42	5961
2026-01-27 13:43:43.96	86.66	7.14	-34.5	-35.2	23.6	0.00e+00	0	32	0	2078277632	42	5884
2026-01-27 13:43:44.97	86.81	7.12	-34.4	-35.1	23.6	0.00e+00	0	33	0	2083520512	42	5815
2026-01-27 13:43:45.98	86.97	7.10	-34.8	-35.6	23.2	0.00e+00	0	33	0	2089811968	42	6173
2026-01-27 13:43:46.99	87.13	7.07	-34.7	-35.4	23.4	0.00e+00	0	32	0	2095054848	42	6006
2026-01-27 13:43:48.00	87.29	7.05	-34.3	-35.1	23.7	0.00e+00	0	32	0	2100297728	42	5774
2026-01-27 13:43:49.00	87.44	7.03	-34.4	-35.1	23.7	0.00e+00	0	33	0	2106589184	42	5792
2026-01-27 13:43:50.01	87.60	7.00	-34.5	-35.2	23.6	0.00e+00	0	33	0	2111832064	42	5885
2026-01-27 13:43:51.02	87.75	6.98	-34.6	-35.4	23.4	0.00e+00	0	33	0	2118123520	42	6003
2026-01-27 13:43:52.03	87.91	6.96	-34.2	-35.0	23.7	0.00e+00	0	32	0	2123366400	42	5728
2026-01-27 13:43:53.04	88.06	6.93	-34.2	-35.0	23.7	0.00e+00	0	33	0	2128609280	42	5711
2026-01-27 13:43:54.04	88.22	6.91	-34.3	-35.0	23.7	0.00e+00	0	32	0	2134900736	42	5745
2026-01-27 13:43:55.05	88.37	6.89	-34.4	-35.2	23.6	0.00e+00	0	33	0	2140143616	42	5832
2026-01-27 13:43:56.06	88.53	6.86	-34.5	-35.3	23.6	0.00e+00	0	32	0	2145386496	42	5897
2026-01-27 13:43:57.07	88.68	6.84	-34.6	-35.4	23.5	0.00e+00	0	32	0	2151677952	42	5968
2026-01-27 13:43:58.08	88.84	6.81	-34.4	-35.2	23.6	0.00e+00	0	32	0	2156920832	42	5843
2026-01-27 13:43:59.09	88.99	6.79	-34.6	-35.3	23.4	0.00e+00	0	33	0	2163212288	42	5913
2026-01-27 13:44:00.10	89.14	6.76	-34.7	-35.5	23.3	0.00e+00	0	32	0	2168455168	42	6034
2026-01-27 13:44:01.11	89.30	6.74	-34.8	-35.5	23.3	0.00e+00	0	32	0	2174746624	42	6075
2026-01-27 13:44:02.12	89.45	6.71	-34.5	-35.2	23.5	0.00e+00	0	33	0	2179989504	42	5890
2026-01-27 13:44:03.14	89.61	6.69	-34.5	-35.3	23.5	0.00e+00	0	33	0	2186280960	42	5909
2026-01-27 13:44:04.15	89.76	6.66	-34.7	-35.4	23.2	0.00e+00	0	33	0	2191523840	42	6028
2026-01-27 13:44:05.16	89.91	6.63	-34.8	-35.5	23.1	0.00e+00	0	33	0	2196766720	42	6101
2026-01-27 13:44:06.17	90.06	6.61	-34.6	-35.3	23.3	0.00e+00	0	33	0	2203058176	42	5946
2026-01-27 13:44:07.17	90.21	6.58	-34.5	-35.3	23.3	0.00e+00	0	32	0	2208301056	42	5953
2026-01-27 13:44:08.18	90.37	6.56	-34.8	-35.6	23.2	0.00e+00	0	33	0	2214592512	42	6125
2026-01-27 13:44:09.19	90.52	6.53	-34.9	-35.7	23.1	0.00e+00	0	33	0	2219835392	42	6179
2026-01-27 13:44:10.20	90.67	6.50	-35.0	-35.8	22.9	0.00e+00	0	32	0	2225078272	42	6295
2026-01-27 13:44:11.21	90.82	6.48	-34.9	-35.7	23.1	0.00e+00	0	32	0	2231369728	42	6177
2026-01-27 13:44:12.22	90.97	6.45	-34.9	-35.8	23.0	0.00e+00	0	32	0	2236612608	42	6258
2026-01-27 13:44:13.22	91.12	6.42	-34.6	-35.4	23.3	0.00e+00	0	33	0	2242904064	42	5995
2026-01-27 13:44:14.23	91.27	6.40	-34.5	-35.3	23.4	0.00e+00	0	32	0	2248146944	42	5929
2026-01-27 13:44:15.24	91.42	6.37	-34.6	-35.4	23.3	0.00e+00	0	32	0	2253389824	42	5968
2026-01-27 13:44:16.26	91.57	6.34	-34.4	-35.1	23.4	0.00e+00	0	33	0	2259681280	42	5790
2026-01-27 13:44:17.27	91.72	6.31	-34.4	-35.0	23.5	0.00e+00	0	33	0	2264924160	42	5755
2026-01-27 13:44:18.28	91.87	6.29	-34.3	-35.0	23.8	0.00e+00	0	33	0	2271215616	42	5733
2026-01-27 13:44:19.29	92.02	6.26	-34.3	-35.0	23.6	0.00e+00	0	33	0	2276458496	42	5742
2026-01-27 13:44:20.30	92.17	6.23	-34.4	-35.1	23.5	0.00e+00	0	32	0	2282749952	42	5811
2026-01-27 13:44:21.31	92.31	6.20	-34.6	-35.4	23.3	0.00e+00	0	32	0	2287992832	42	5967
2026-01-27 13:44:22.31	92.46	6.17	-34.8	-35.6	23.1	0.00e+00	0	33	0	2294284288	42	6157
2026-01-27 13:44:23.32	92.61	6.15	-35.1	-35.9	22.9	0.00e+00	0	32	0	2299527168	42	6329
2026-01-27 13:44:24.33	92.76	6.12	-35.1	-35.9	22.8	0.00e+00	0	32	0	2304770048	42	6330
2026-01-27 13:44:25.34	92.90	6.09	-35.1	-35.9	22.8	0.00e+00	0	32	0	2311061504	42	6329
2026-01-27 13:44:26.35	93.05	6.06	-35.0	-35.7	23.0	0.00e+00	0	33	0	2316304384	42	6214
2026-01-27 13:44:27.36	93.20	6.03	-35.0	-35.9	22.9	0.00e+00	0	32	0	2321547264	42	6321
2026-01-27 13:44:28.37	93.34	6.00	-35.0	-35.9	22.9	0.00e+00	0	32	0	2327838720	42	6322
2026-01-27 13:44:29.38	93.49	5.97	-34.9	-35.7	23.0	0.00e+00	0	32	0	2333081600	42	6191
2026-01-27 13:44:30.39	93.64	5.95	-34.7	-35.5	23.1	0.00e+00	0	32	0	2339373056	42	6087
2026-01-27 13:44:31.40	93.78	5.92	-34.9	-35.7	22.8	0.00e+00	0	33	0	2344615936	42	6217
2026-01-27 13:44:32.41	93.93	5.89	-35.1	-35.9	22.7	0.00e+00	0	32	0	2349858816	42	6338
2026-01-27 13:44:33.41	94.07	5.86	-35.2	-36.0	22.7	0.00e+00	0	32	0	2356150272	42	6438
2026-01-27 13:44:34.43	94.22	5.83	-34.9	-35.7	22.9	0.00e+00	0	32	0	2361393152	42	6226
2026-01-27 13:44:35.44	94.36	5.80	-35.0	-35.8	22.9	0.00e+00	0	32	0	2367684608	42	6299
2026-01-27 13:44:36.44	94.50	5.77	-34.9	-35.7	23.0	0.00e+00	0	32	0	2372927488	42	6208
2026-01-27 13:44:37.46	94.65	5.74	-34.8	-35.5	22.9	0.00e+00	0	32	0	2379218944	42	6088
2026-01-27 13:44:38.47	94.79	5.71	-35.0	-35.7	22.9	0.00e+00	0	33	0	2384461824	42	6217
2026-01-27 13:44:39.47	94.93	5.68	-34.8	-35.6	23.0	0.00e+00	0	32	0	2390753280	42	6146
2026-01-27 13:44:40.48	95.08	5.65	-34.8	-35.6	23.0	0.00e+00	0	32	0	2395996160	42	6137
2026-01-27 13:44:41.49	95.22	5.62	-35.0	-35.9	22.8	0.00e+00	0	33	0	2401239040	42	6357
2026-01-27 13:44:42.50	95.36	5.59	-35.3	-36.2	22.6	0.00e+00	0	33	0	2407530496	42	6547
2026-01-27 13:44:43.52	95.51	5.56	-35.0	-35.8	23.0	0.00e+00	0	32	0	2412773376	42	6249
2026-01-27 13:44:44.53	95.65	5.53	-35.3	-36.0	22.6	0.00e+00	0	32	0	2419064832	42	6418
2026-01-27 13:44:45.54	95.79	5.49	-35.5	-36.3	22.3	0.00e+00	0	32	0	2424307712	42	6639
2026-01-27 13:44:46.55	95.93	5.46	-35.5	-36.2	22.2	0.00e+00	0	32	0	2429550592	42	6589
2026-01-27 13:44:47.56	96.07	5.43	-35.0	-35.8	22.9	0.00e+00	0	32	0	2435842048	42	6268
2026-01-27 13:44:48.57	96.21	5.40	-35.1	-35.9	22.7	0.00e+00	0	32	0	2441084928	42	6336
2026-01-27 13:44:49.58	96.35	5.37	-35.0	-35.8	22.7	0.00e+00	0	32	0	2447376384	42	6294
2026-01-27 13:44:50.59	96.49	5.34	-35.1	-35.8	22.6	0.00e+00	0	32	0	2452619264	42	6315
2026-01-27 13:44:51.60	96.63	5.31	-34.9	-35.6	22.7	0.00e+00	0	32	0	2457862144	42	6138
2026-01-27 13:44:52.61	96.77	5.28	-35.2	-36.0	22.2	0.00e+00	0	32	0	2464153600	42	6425
2026-01-27 13:44:53.62	96.91	5.24	-35.4	-36.2	21.8	0.00e+00	0	33	0	2469396480	42	6590
2026-01-27 13:44:54.63	97.05	5.21	-34.8	-35.6	22.4	0.00e+00	0	32	0	2475687936	42	6132
2026-01-27 13:44:55.64	97.19	5.18	-35.0	-35.7	22.3	0.00e+00	0	32	0	2480930816	42	6228
2026-01-27 13:44:56.65	97.33	5.15	-35.1	-35.9	22.3	0.00e+00	0	32	0	2487222272	42	6344
2026-01-27 13:44:57.66	97.46	5.12	-35.2	-36.0	22.1	0.00e+00	0	32	0	2492465152	42	6415
2026-01-27 13:44:58.66	97.60	5.09	-35.2	-36.1	22.4	0.00e+00	0	32	0	2497708032	42	6466
2026-01-27 13:44:59.67	97.74	5.05	-35.4	-36.2	22.1	0.00e+00	0	32	0	2503999488	42	6614
2026-01-27 13:45:00.68	97.88	5.02	-35.3	-36.2	22.2	0.00e+00	0	32	0	2509242368	42	6545
2026-01-27 13:45:01.69	98.01	4.99	-35.4	-36.4	22.2	0.00e+00	0	32	0	2515533824	42	6694
2026-01-27 13:45:02.70	98.15	4.96	-35.9	-36.8	21.7	0.00e+00	0	32	0	2520776704	44	6280
2026-01-27 13:45:03.71	98.29	4.92	-35.4	-36.3	22.2	0.00e+00	0	32	0	2526019584	44	5922
2026-01-27 13:45:04.72	98.42	4.89	-35.8	-36.7	21.8	0.00e+00	0	32	0	2532311040	44	6180
2026-01-27 13:45:05.73	98.56	4.86	-36.0	-36.8	21.8	0.00e+00	0	32	0	2537553920	44	6261
2026-01-27 13:45:06.74	98.69	4.82	-35.7	-36.5	22.1	0.00e+00	0	32	0	2543845376	44	6036
2026-01-27 13:45:07.75	98.83	4.79	-35.1	-35.9	22.5	0.00e+00	0	32	0	2549088256	44	5656
2026-01-27 13:45:08.76	98.96	4.76	-35.3	-36.1	22.2	0.00e+00	0	32	0	2554331136	44	5783
2026-01-27 13:45:09.76	99.10	4.73	-35.4	-36.3	22.0	0.00e+00	0	32	0	2560622592	44	5939
2026-01-27 13:45:10.77	99.23	4.69	-35.4	-36.2	22.1	0.00e+00	0	32	0	2565865472	44	5839
2026-01-27 13:45:11.79	99.37	4.66	-35.5	-36.3	22.0	0.00e+00	0	32	0	2572156928	44	5926
2026-01-27 13:45:12.80	99.50	4.62	-35.3	-36.1	21.9	0.00e+00	0	32	0	2577399808	44	5814
2026-01-27 13:45:13.80	99.63	4.59	-36.0	-36.9	21.1	0.00e+00	0	33	0	2583691264	44	6320
2026-01-27 13:45:14.81	99.76	4.56	-35.4	-36.2	22.0	0.00e+00	0	33	0	2588934144	44	5860
2026-01-27 13:45:15.82	99.90	4.52	-35.3	-36.2	22.2	0.00e+00	0	33	0	2595225600	44	5860
2026-01-27 13:45:16.83	100.03	4.49	-35.7	-36.5	21.8	0.00e+00	0	33	0	2600468480	44	6083
2026-01-27 13:45:17.84	100.16	4.46	-35.5	-36.5	21.8	0.00e+00	0	33	0	2605711360	44	6051
2026-01-27 13:45:18.85	100.29	4.42	-35.5	-36.4	21.8	0.00e+00	0	32	0	2612002816	44	6008
2026-01-27 13:45:19.86	100.43	4.39	-35.1	-36.1	22.2	0.00e+00	0	33	0	2617245696	44	5780
2026-01-27 13:45:20.87	100.56	4.35	-35.5	-36.4	22.0	0.00e+00	0	32	0	2623537152	44	5983
2026-01-27 13:45:21.87	100.69	4.32	-35.1	-36.1	22.3	0.00e+00	0	32	0	2628780032	44	5786
2026-01-27 13:45:22.88	100.82	4.29	-35.2	-36.2	22.3	0.00e+00	0	32	0	2634022912	44	5831
2026-01-27 13:45:23.89	100.95	4.25	-35.4	-36.3	22.2	0.00e+00	0	32	0	2640314368	44	5957
2026-01-27 13:45:24.90	101.08	4.22	-35.3	-36.2	22.2	0.00e+00	0	33	0	2645557248	44	5859
2026-01-27 13:45:25.91	101.21	4.18	-35.3	-36.2	22.2	0.00e+00	0	33	0	2651848704	44	5885
2026-01-27 13:45:26.92	101.34	4.15	-35.5	-36.4	21.9	0.00e+00	0	32	0	2657091584	44	5977
2026-01-27 13:45:27.93	101.47	4.11	-35.3	-36.2	22.1	0.00e+00	0	32	0	2662334464	44	5855
2026-01-27 13:45:28.94	101.60	4.08	-35.5	-36.4	21.7	0.00e+00	0	32	0	2668625920	44	6017
2026-01-27 13:45:29.95	101.72	4.04	-35.4	-36.3	21.9	0.00e+00	0	32	0	2673868800	44	5936
2026-01-27 13:45:30.96	101.85	4.01	-35.5	-36.3	21.8	0.00e+00	0	33	0	2680160256	44	5963
2026-01-27 13:45:31.97	101.98	3.98	-35.2	-36.0	22.2	0.00e+00	0	33	0	2685403136	44	5702
2026-01-27 13:45:32.98	102.11	3.94	-35.5	-36.4	21.9	0.00e+00	0	32	0	2691694592	44	6023
2026-01-27 13:45:33.98	102.24	3.91	-35.0	-35.9	22.1	0.00e+00	0	32	0	2696937472	44	5693
2026-01-27 13:45:34.99	102.36	3.87	-35.1	-36.1	21.9	0.00e+00	0	33	0	2702180352	44	5799
2026-01-27 13:45:36.00	102.49	3.83	-35.0	-36.1	22.0	0.00e+00	0	32	0	2708471808	44	5801
2026-01-27 13:45:37.01	102.62	3.80	-36.0	-37.1	21.2	0.00e+00	0	32	0	2713714688	44	6482
2026-01-27 13:45:38.02	102.74	3.76	-36.2	-37.2	21.1	0.00e+00	0	32	0	2720006144	44	6541
2026-01-27 13:45:39.03	102.87	3.73	-36.6	-37.5	20.6	0.00e+00	0	32	0	2725249024	44	6837
2026-01-27 13:45:40.03	102.99	3.69	-36.6	-37.6	20.6	0.00e+00	0	32	0	2730491904	46	6124
2026-01-27 13:45:41.04	103.12	3.66	-36.6	-37.5	20.6	0.00e+00	0	32	0	2736783360	46	6072
2026-01-27 13:45:42.05	103.24	3.62	-36.5	-37.5	20.9	0.00e+00	0	32	0	2742026240	46	6074
2026-01-27 13:45:43.06	103.37	3.59	-36.7	-37.7	20.6	0.00e+00	0	32	0	2747269120	46	6234
2026-01-27 13:45:44.07	103.49	3.55	-36.2	-37.2	21.0	0.00e+00	0	33	0	2753560576	46	5860
2026-01-27 13:45:45.08	103.62	3.52	-37.0	-38.1	20.1	0.00e+00	0	32	0	2758803456	46	6507
2026-01-27 13:45:46.09	103.74	3.48	-36.0	-36.9	21.2	0.00e+00	0	32	0	2765094912	46	5668
2026-01-27 13:45:47.10	103.87	3.44	-35.6	-36.5	21.5	0.00e+00	0	33	0	2770337792	44	6065
2026-01-27 13:45:48.11	103.99	3.41	-35.8	-36.7	21.3	0.00e+00	0	33	0	2776629248	44	6233
2026-01-27 13:45:49.12	104.11	3.37	-36.3	-37.2	20.8	0.00e+00	0	32	0	2781872128	44	6601
2026-01-27 13:45:50.13	104.24	3.34	-35.9	-36.8	21.1	0.00e+00	0	33	0	2788163584	44	6307
2026-01-27 13:45:51.14	104.36	3.30	-35.8	-36.8	21.0	0.00e+00	0	33	0	2793406464	44	6305
2026-01-27 13:45:52.15	104.48	3.26	-36.3	-37.4	20.6	0.00e+00	0	33	0	2798649344	44	6704
2026-01-27 13:45:53.16	104.60	3.23	-36.8	-37.9	20.0	0.00e+00	0	33	0	2804940800	46	6356
2026-01-27 13:45:54.17	104.72	3.19	-36.5	-37.6	20.2	0.00e+00	0	32	0	2810183680	46	6141
2026-01-27 13:45:55.18	104.85	3.15	-36.0	-37.0	20.8	0.00e+00	0	32	0	2816475136	46	5744
2026-01-27 13:45:56.19	104.97	3.12	-37.0	-38.2	19.6	0.00e+00	0	32	0	2821718016	46	6600
2026-01-27 13:45:57.19	105.09	3.08	-37.2	-38.5	19.4	0.00e+00	0	32	0	2826960896	46	6787
2026-01-27 13:45:58.20	105.21	3.05	-37.4	-38.6	19.1	0.00e+00	0	32	0	2833252352	46	6901
2026-01-27 13:45:59.21	105.33	3.01	-36.8	-37.9	19.7	0.00e+00	0	32	0	2838495232	46	6322
2026-01-27 13:46:00.22	105.45	2.97	-47.0	-59.9	3.6	8.44e-01	0	33	104	2839543808	60	35542
2026-01-27 13:46:01.22	105.57	2.94	-47.9	-60.1	3.6	8.44e-01	0	33	104	2839543808	60	36657
2026-01-27 13:46:02.23	105.69	2.90	-48.3	-60.5	3.6	8.47e-01	0	33	104	2839543808	60	38186
2026-01-27 13:46:03.24	105.80	2.86	-48.3	-60.6	3.6	8.47e-01	0	32	104	2839543808	60	38784
2026-01-27 13:46:04.25	105.92	2.83	-48.6	-60.7	3.6	8.45e-01	0	33	104	2839543808	60	39087
2026-01-27 13:46:05.26	106.04	2.79	-48.6	-60.8	3.6	8.46e-01	0	32	104	2839543808	60	39547
2026-01-27 13:46:06.28	106.16	2.75	-48.6	-60.8	3.6	8.46e-01	0	33	104	2839543808	60	39689
2026-01-27 13:46:07.29	106.28	2.71	-48.7	-60.8	3.6	8.44e-01	0	33	104	2839543808	60	39718
2026-01-27 13:46:08.30	106.40	2.68	-48.7	-60.8	3.6	8.45e-01	0	33	104	2839543808	60	39827
2026-01-27 13:46:09.31	106.51	2.64	-48.8	-60.9	3.6	8.45e-01	0	33	104	2839543808	60	40046
2026-01-27 13:46:10.32	106.63	2.60	-48.8	-61.0	3.6	8.45e-01	0	33	104	2839543808	60	40338
2026-01-27 13:46:11.33	106.75	2.57	-48.8	-61.0	3.6	8.45e-01	0	33	104	2839543808	60	40461
2026-01-27 13:46:12.34	106.87	2.53	-48.8	-61.0	3.6	8.45e-01	0	33	104	2839543808	60	40382
2026-01-27 13:46:13.35	106.98	2.49	-48.8	-60.9	3.6	8.45e-01	0	33	104	2839543808	60	40221
2026-01-27 13:46:14.36	107.10	2.45	-48.8	-61.0	3.6	8.46e-01	0	33	104	2839543808	60	40353
2026-01-27 13:46:15.36	107.21	2.42	-48.8	-61.0	3.6	8.46e-01	0	33	104	2839543808	60	40331
2026-01-27 13:46:16.37	107.33	2.38	-48.8	-61.0	3.6	8.45e-01	0	33	104	2839543808	60	40424
2026-01-27 13:46:17.38	107.44	2.34	-48.8	-60.9	3.6	8.45e-01	0	33	104	2839543808	60	40189
2026-01-27 13:46:18.39	107.56	2.30	-48.7	-60.9	3.6	8.46e-01	0	33	104	2839543808	60	39976
2026-01-27 13:46:19.40	107.67	2.27	-48.8	-60.9	3.6	8.46e-01	0	33	104	2839543808	60	40251
2026-01-27 13:46:20.41	107.79	2.23	-48.8	-60.9	3.6	8.45e-01	0	33	104	2839543808	60	40281
2026-01-27 13:46:21.42	107.90	2.19	-48.8	-60.9	3.6	8.45e-01	0	33	104	2839543808	60	40281
2026-01-27 13:46:22.43	108.01	2.15	-48.8	-60.9	3.6	8.45e-01	0	33	104	2839543808	60	40212
2026-01-27 13:46:23.44	108.13	2.12	-48.8	-60.9	3.6	8.44e-01	0	33	104	2839543808	60	40128
2026-01-27 13:46:24.45	108.24	2.08	-48.8	-60.9	3.6	8.46e-01	0	33	104	2839543808	60	40099
2026-01-27 13:46:25.47	108.36	2.04	-48.8	-60.9	3.6	8.46e-01	0	33	104	2839543808	60	40077
2026-01-27 13:46:26.48	108.47	2.00	-48.8	-60.9	3.5	8.46e-01	0	33	104	2839543808	60	40018
2026-01-27 13:46:27.49	108.58	1.96	-48.8	-60.9	3.6	8.45e-01	0	33	104	2839543808	60	39965
2026-01-27 13:46:28.50	108.69	1.93	-48.8	-60.9	3.6	8.45e-01	0	33	104	2839543808	60	40080
2026-01-27 13:46:29.51	108.81	1.89	-48.8	-60.9	3.6	8.45e-01	0	33	104	2839543808	60	40166
2026-01-27 13:46:30.52	108.92	1.85	-48.8	-60.9	3.6	8.43e-01	0	33	104	2839543808	60	40214
2026-01-27 13:46:31.53	109.03	1.81	-48.8	-60.9	3.6	8.45e-01	0	33	104	2839543808	60	40159
2026-01-27 13:46:32.54	109.14	1.77	-48.8	-60.9	3.6	8.45e-01	0	33	104	2839543808	60	40013
2026-01-27 13:46:33.55	109.25	1.74	-48.8	-60.9	3.6	8.46e-01	0	33	104	2839543808	60	40161
2026-01-27 13:46:34.56	109.36	1.70	-48.8	-60.9	3.6	8.44e-01	0	33	104	2839543808	60	40262
2026-01-27 13:46:35.57	109.47	1.66	-48.8	-60.9	3.6	8.46e-01	0	33	104	2839543808	60	40102
2026-01-27 13:46:36.58	109.58	1.62	-48.8	-60.9	3.6	8.47e-01	0	33	104	2839543808	60	39969
2026-01-27 13:46:37.59	109.69	1.58	-48.8	-60.9	3.6	8.45e-01	0	33	104	2839543808	60	39910
2026-01-27 13:46:38.59	109.80	1.55	-48.8	-60.9	3.6	8.44e-01	0	33	104	2839543808	60	39963
2026-01-27 13:46:39.61	109.91	1.51	-48.8	-60.9	3.6	8.45e-01	0	33	104	2839543808	60	39927
2026-01-27 13:46:40.62	110.02	1.47	-48.8	-60.9	3.6	8.46e-01	0	33	104	2839543808	60	40123
2026-01-27 13:46:41.63	110.13	1.43	-48.8	-60.9	3.6	8.45e-01	0	33	104	2839543808	60	39952
2026-01-27 13:46:42.64	110.23	1.39	-48.7	-60.9	3.6	8.46e-01	0	33	104	2839543808	60	40072
2026-01-27 13:46:43.65	110.34	1.35	-48.8	-60.9	3.6	8.45e-01	0	33	104	2839543808	60	40043
2026-01-27 13:46:44.66	110.45	1.32	-48.8	-60.9	3.6	8.45e-01	0	33	104	2839543808	60	40006
2026-01-27 13:46:45.67	110.56	1.28	-48.8	-60.9	3.6	8.44e-01	0	33	104	2839543808	60	39934
2026-01-27 13:46:46.67	110.66	1.24	-48.8	-60.9	3.6	8.46e-01	0	33	104	2839543808	60	40222
2026-01-27 13:46:47.68	110.77	1.20	-48.8	-60.9	3.6	8.45e-01	0	33	104	2839543808	60	39992
2026-01-27 13:46:48.69	110.88	1.16	-48.8	-60.9	3.6	8.45e-01	0	33	104	2839543808	60	40098
2026-01-27 13:46:49.70	110.98	1.12	-48.8	-60.9	3.6	8.46e-01	0	33	104	2839543808	60	40102
2026-01-27 13:46:50.71	111.09	1.09	-48.7	-60.8	3.6	8.45e-01	0	33	104	2839543808	60	39846
2026-01-27 13:46:51.72	111.20	1.05	-48.8	-60.9	3.6	8.45e-01	0	33	104	2839543808	60	40131
2026-01-27 13:46:52.73	111.30	1.01	-48.8	-60.9	3.5	8.46e-01	0	33	104	2839543808	60	39932
2026-01-27 13:46:53.74	111.41	0.97	-48.8	-60.9	3.6	8.45e-01	0	33	104	2839543808	60	40262
2026-01-27 13:46:54.75	111.51	0.93	-48.7	-60.9	3.6	8.45e-01	0	33	104	2839543808	60	40087
2026-01-27 13:46:55.76	111.62	0.89	-48.8	-60.9	3.6	8.45e-01	0	33	104	2839543808	60	40095
2026-01-27 13:46:56.77	111.72	0.85	-48.7	-60.9	3.6	8.45e-01	0	33	104	2839543808	60	40032
2026-01-27 13:46:57.78	111.83	0.81	-48.8	-60.9	3.6	8.46e-01	0	33	104	2839543808	60	40165
2026-01-27 13:46:58.79	111.93	0.78	-48.7	-60.9	3.6	8.45e-01	0	33	104	2839543808	60	39992
2026-01-27 13:46:59.80	112.04	0.74	-48.8	-60.8	3.5	8.45e-01	0	33	104	2839543808	60	39822
2026-01-27 13:47:00.81	112.14	0.70	-48.7	-60.9	3.6	8.45e-01	0	33	104	2839543808	60	40085
2026-01-27 13:47:01.82	112.24	0.66	-48.8	-61.0	3.6	8.45e-01	0	33	104	2839543808	60	40367
2026-01-27 13:47:02.83	112.35	0.62	-48.8	-60.9	3.5	8.46e-01	0	33	104	2839543808	60	40176
2026-01-27 13:47:03.84	112.45	0.58	-48.8	-60.9	3.6	8.45e-01	0	33	104	2839543808	60	39988
2026-01-27 13:47:04.85	112.55	0.54	-48.7	-60.9	3.6	8.45e-01	0	33	104	2839543808	60	40171
2026-01-27 13:47:05.86	112.65	0.50	-48.7	-60.9	3.6	8.45e-01	0	33	104	2839543808	60	39989
2026-01-27 13:47:06.87	112.76	0.47	-48.8	-60.9	3.6	8.45e-01	0	33	104	2839543808	60	40128
2026-01-27 13:47:07.88	112.86	0.43	-48.7	-60.9	3.6	8.44e-01	0	33	104	2839543808	60	40025
2026-01-27 13:47:08.89	112.96	0.39	-48.8	-60.9	3.6	8.46e-01	0	33	104	2839543808	60	40315
2026-01-27 13:47:09.90	113.06	0.35	-48.8	-60.9	3.6	8.45e-01	0	33	104	2839543808	60	40064
2026-01-27 13:47:10.91	113.16	0.31	-48.8	-60.9	3.6	8.44e-01	0	33	104	2839543808	60	40127
2026-01-27 13:47:11.92	113.26	0.27	-48.7	-60.9	3.6	8.45e-01	0	33	104	2839543808	60	40032
2026-01-27 13:47:12.93	113.36	0.23	-48.8	-61.0	3.6	8.44e-01	0	33	104	2839543808	60	40372
2026-01-27 13:47:13.94	113.46	0.19	-48.8	-60.9	3.6	8.45e-01	0	33	104	2839543808	60	40224
2026-01-27 13:47:14.95	113.56	0.15	-48.8	-60.9	3.6	8.45e-01	0	33	104	2839543808	60	39981
2026-01-27 13:47:15.96	113.66	0.11	-48.7	-60.9	3.6	8.46e-01	0	33	104	2839543808	60	39947
2026-01-27 13:47:16.97	113.76	0.07	-48.8	-60.9	3.6	8.47e-01	0	33	104	2839543808	60	40109
2026-01-27 13:47:17.98	113.86	0.04	-48.8	-60.9	3.6	8.44e-01	0	33	104	2839543808	60	40069
2026-01-27 13:47:18.98	113.96	-0.00	-48.8	-60.9	3.6	8.46e-01	0	33	104	2839543808	60	40198
2026-01-27 13:47:19.99	114.06	-0.04	-48.7	-60.9	3.6	8.45e-01	0	33	104	2839543808	60	40030
2026-01-27 13:47:21.00	114.16	-0.08	-48.7	-60.9	3.6	8.45e-01	0	33	104	2839543808	60	40128

#Closed at: 2026-01-27 13:47:21
#Recorded file [2839 MB]: D:/lorett/data/35029_260128_013620.dat