passes_logs/2026/01/27/R4.6S_Anadyr/R4.6S_Anadyr__20260127_165655_FENGYUN_3D_rec.log

#Pass ID: 20260127_165655_FENGYUN 3D
#Satellite: FENGYUN 3D
#Configuration: FENGYUN 3D
#almurnet v.1.7.20251203
#Start time: 2026-01-27 16:56:57

#Version: 2.2.20231116
#Station: R4.6S_Anadyr
#Location: 177.4865 lon 64.73178 lat
#TLE: 1 43010U 17072A   26026.91415486  .00000072  00000+0  55983-4 0  9991
#TLE: 2 43010  98.9962 358.9161 0002508  89.0320 271.1142 14.19700283424949

#Time	Az	El	Level	Level2	SNR	BER	BlckErr	Temp	State	Recorded	gain1	gain2
2026-01-27 16:56:57.47	21.31	0.13	-48.8	-66.5	3.5	3.02e+01	0	30	0	0	60	81489
2026-01-27 16:56:58.48	21.31	0.19	-48.6	-60.7	3.6	8.44e-01	0	31	104	0	60	39169
2026-01-27 16:56:59.49	21.31	0.25	-48.6	-60.7	3.6	8.46e-01	0	31	104	0	60	39299
2026-01-27 16:57:00.47	21.31	0.31	-48.6	-60.7	3.6	8.46e-01	0	31	104	0	60	39261
2026-01-27 16:57:01.47	21.32	0.37	-48.6	-60.7	3.6	8.45e-01	0	31	104	0	60	39319
2026-01-27 16:57:02.48	21.32	0.43	-48.6	-60.7	3.6	8.45e-01	0	31	104	0	60	39294
2026-01-27 16:57:03.49	21.32	0.49	-48.6	-60.8	3.6	8.46e-01	0	31	104	0	60	39495
2026-01-27 16:57:04.50	21.32	0.55	-48.5	-60.8	3.6	8.45e-01	0	31	104	0	60	39497
2026-01-27 16:57:05.51	21.32	0.61	-48.6	-60.8	3.6	8.45e-01	0	31	104	0	60	39645
2026-01-27 16:57:06.52	21.32	0.67	-48.7	-60.8	3.6	8.45e-01	0	31	104	0	60	39676
2026-01-27 16:57:07.53	21.32	0.74	-48.7	-60.8	3.6	8.45e-01	0	31	104	0	60	39620
2026-01-27 16:57:08.54	21.33	0.80	-48.7	-60.8	3.6	8.46e-01	0	31	104	0	60	39465
2026-01-27 16:57:09.55	21.33	0.86	-48.7	-60.8	3.6	8.44e-01	0	31	104	0	60	39571
2026-01-27 16:57:10.56	21.33	0.92	-48.5	-60.7	3.6	8.45e-01	0	31	104	0	60	39337
2026-01-27 16:57:11.57	21.33	0.98	-48.6	-60.7	3.6	8.46e-01	0	31	104	0	60	39298
2026-01-27 16:57:12.58	21.33	1.05	-48.5	-60.6	3.5	8.45e-01	0	32	104	0	60	38808
2026-01-27 16:57:13.59	21.33	1.11	-48.5	-60.6	3.6	8.47e-01	0	31	104	0	60	38656
2026-01-27 16:57:14.60	21.33	1.17	-48.4	-60.5	3.6	8.44e-01	0	32	104	0	60	38450
2026-01-27 16:57:15.61	21.34	1.23	-48.2	-60.4	3.6	8.44e-01	0	31	104	0	60	37761
2026-01-27 16:57:16.62	21.34	1.30	-48.1	-60.2	3.6	8.46e-01	0	32	104	0	60	37188
2026-01-27 16:57:17.63	21.34	1.36	-48.1	-60.2	3.6	8.45e-01	0	32	104	0	60	36844
2026-01-27 16:57:18.64	21.34	1.42	-48.0	-60.1	3.6	8.44e-01	0	32	104	0	60	36559
2026-01-27 16:57:19.65	21.34	1.49	-47.8	-59.9	3.6	8.45e-01	0	32	104	0	60	35847
2026-01-27 16:57:20.66	21.34	1.55	-47.6	-59.7	3.6	8.44e-01	0	32	104	0	60	34836
2026-01-27 16:57:21.67	21.34	1.61	-47.3	-59.4	3.6	8.44e-01	0	32	104	0	60	33703
2026-01-27 16:57:22.68	21.34	1.68	-47.2	-58.8	3.6	8.46e-01	0	32	104	0	60	31347
2026-01-27 16:57:23.69	21.35	1.74	-47.2	-58.9	3.6	8.45e-01	0	32	104	0	60	31958
2026-01-27 16:57:24.70	21.35	1.80	-47.2	-58.9	3.6	8.46e-01	0	32	104	0	60	31752
2026-01-27 16:57:25.71	21.35	1.87	-47.2	-58.9	3.6	8.44e-01	0	32	104	0	60	31859
2026-01-27 16:57:26.72	21.35	1.93	-47.2	-59.1	3.6	8.47e-01	0	32	104	0	60	32725
2026-01-27 16:57:27.72	21.35	2.00	-47.3	-59.2	3.6	8.45e-01	0	32	104	0	60	33048
2026-01-27 16:57:28.73	21.35	2.06	-47.3	-59.3	3.6	8.45e-01	0	32	104	0	60	33438
2026-01-27 16:57:29.74	21.35	2.13	-47.3	-59.3	3.6	8.44e-01	0	32	104	0	60	33348
2026-01-27 16:57:30.75	21.35	2.19	-47.3	-59.3	3.6	8.46e-01	0	32	104	0	60	33320
2026-01-27 16:57:31.76	21.36	2.26	-47.3	-59.3	3.6	8.45e-01	0	32	104	0	60	33171
2026-01-27 16:57:32.77	21.36	2.32	-47.2	-58.8	3.6	8.45e-01	0	32	104	0	60	31401
2026-01-27 16:57:33.78	21.36	2.39	-47.2	-58.3	3.6	8.45e-01	0	32	104	0	60	29555
2026-01-27 16:57:34.79	21.36	2.45	-47.1	-57.5	3.6	8.43e-01	0	32	104	0	60	27068
2026-01-27 16:57:35.80	21.36	2.52	-47.0	-56.7	3.8	8.43e-01	0	32	104	0	60	24628
2026-01-27 16:57:36.81	21.36	2.58	-46.9	-55.9	4.0	8.40e-01	0	32	104	0	60	22418
2026-01-27 16:57:37.82	21.36	2.65	-46.7	-53.4	4.4	7.56e-01	0	32	0	0	60	16827
2026-01-27 16:57:38.83	21.36	2.71	-46.8	-53.8	4.1	8.24e-01	0	32	0	0	60	17631
2026-01-27 16:57:39.84	21.36	2.78	-46.8	-54.1	3.9	8.30e-01	0	32	0	0	60	18278
2026-01-27 16:57:40.85	21.37	2.85	-46.9	-56.2	3.7	8.35e-01	0	32	104	0	60	23411
2026-01-27 16:57:41.86	21.37	2.91	-46.8	-54.8	4.0	8.31e-01	0	32	0	0	60	19972
2026-01-27 16:57:42.87	21.37	2.98	-46.3	-51.7	5.9	7.50e-01	0	32	0	0	60	13933
2026-01-27 16:57:43.88	21.37	3.05	-45.5	-49.5	8.7	1.18e-01	0	32	0	5242880	60	10767
2026-01-27 16:57:44.89	21.37	3.11	-44.4	-47.4	10.7	1.04e-02	0	32	0	11534336	60	8476
2026-01-27 16:57:45.90	21.37	3.18	-43.2	-45.5	13.0	2.57e-04	0	32	0	16777216	60	6804
2026-01-27 16:57:46.91	21.37	3.25	-41.0	-42.6	15.7	0.00e+00	0	32	0	23068672	56	6105
2026-01-27 16:57:47.92	21.37	3.32	-40.8	-42.3	16.1	0.00e+00	0	32	0	28311552	54	6618
2026-01-27 16:57:48.93	21.37	3.38	-39.7	-41.0	17.4	0.00e+00	0	32	0	33554432	52	6400
2026-01-27 16:57:49.94	21.37	3.45	-39.0	-40.1	18.5	0.00e+00	0	32	0	39845888	52	5788
2026-01-27 16:57:50.95	21.37	3.52	-38.0	-38.9	19.4	0.00e+00	0	32	0	45088768	50	5693
2026-01-27 16:57:51.96	21.38	3.59	-37.9	-38.9	19.5	0.00e+00	0	32	0	51380224	48	6383
2026-01-27 16:57:52.97	21.38	3.66	-38.5	-39.6	18.7	0.00e+00	0	32	0	56623104	48	6851
2026-01-27 16:57:53.98	21.38	3.72	-38.7	-39.8	18.6	0.00e+00	0	32	0	62914560	50	6304
2026-01-27 16:57:54.99	21.38	3.79	-39.9	-41.1	17.4	0.00e+00	0	32	0	68157440	52	6517
2026-01-27 16:57:56.00	21.38	3.86	-36.1	-37.0	21.2	0.00e+00	0	32	0	74448896	44	6415
2026-01-27 16:57:57.01	21.38	3.93	-36.5	-37.4	20.7	0.00e+00	0	32	0	79691776	44	6717
2026-01-27 16:57:58.02	21.38	4.00	-47.0	-56.0	3.6	2.42e-01	0	32	104	83886080	60	22809
2026-01-27 16:57:59.03	21.38	4.07	-40.9	-42.4	15.7	3.40e-06	0	32	104	83886080	54	6744
2026-01-27 16:58:00.04	21.38	4.14	-47.0	-57.8	3.6	3.76e-01	0	32	104	88080384	60	28155
2026-01-27 16:58:01.05	21.38	4.21	-36.5	-37.4	6.2	8.10e-01	0	32	104	88080384	46	5999
2026-01-27 16:58:02.06	21.38	4.28	-36.3	-37.1	21.2	0.00e+00	0	32	0	89128960	46	5818
2026-01-27 16:58:03.07	21.38	4.35	-35.6	-36.4	21.9	0.00e+00	0	32	0	94371840	44	6009
2026-01-27 16:58:04.08	21.38	4.42	-35.2	-36.0	22.3	0.00e+00	0	32	0	99614720	44	5758
2026-01-27 16:58:05.09	21.38	4.49	-35.0	-35.7	22.7	0.00e+00	0	32	0	105906176	44	5551
2026-01-27 16:58:06.10	21.39	4.56	-35.3	-36.1	22.4	0.00e+00	0	32	0	111149056	44	5786
2026-01-27 16:58:07.11	21.39	4.63	-34.9	-35.7	22.7	0.00e+00	0	32	0	117440512	44	5531
2026-01-27 16:58:08.12	21.39	4.70	-35.0	-35.8	22.5	0.00e+00	0	32	0	122683392	44	5573
2026-01-27 16:58:09.13	21.39	4.77	-34.6	-35.3	23.1	0.00e+00	0	32	0	128974848	42	5954
2026-01-27 16:58:10.14	21.39	4.84	-34.8	-35.5	23.0	0.00e+00	0	32	0	134217728	42	6077
2026-01-27 16:58:11.15	21.39	4.92	-35.0	-35.7	22.7	0.00e+00	0	32	0	140509184	42	6238
2026-01-27 16:58:12.16	21.39	4.99	-34.8	-35.6	22.9	0.00e+00	0	32	0	145752064	42	6146
2026-01-27 16:58:13.17	21.39	5.06	-34.8	-35.5	22.7	0.00e+00	0	32	0	150994944	42	6094
2026-01-27 16:58:14.18	21.39	5.13	-35.1	-35.8	22.7	0.00e+00	0	32	0	157286400	42	6304
2026-01-27 16:58:15.19	21.39	5.20	-34.9	-35.7	22.9	0.00e+00	0	32	0	162529280	42	6196
2026-01-27 16:58:16.20	21.39	5.28	-34.6	-35.4	23.1	0.00e+00	0	32	0	168820736	42	5981
2026-01-27 16:58:17.21	21.39	5.35	-34.6	-35.3	23.2	0.00e+00	0	32	0	174063616	42	5946
2026-01-27 16:58:18.22	21.39	5.42	-34.7	-35.5	23.1	0.00e+00	0	32	0	179306496	42	6034
2026-01-27 16:58:19.23	21.39	5.50	-34.6	-35.3	23.2	0.00e+00	0	32	0	185597952	42	5944
2026-01-27 16:58:20.24	21.39	5.57	-34.5	-35.3	23.4	0.00e+00	0	32	0	190840832	42	5903
2026-01-27 16:58:21.25	21.39	5.64	-34.4	-35.1	23.4	0.00e+00	0	32	0	197132288	42	5808
2026-01-27 16:58:22.26	21.39	5.72	-34.6	-35.4	23.1	0.00e+00	0	32	0	202375168	42	5979
2026-01-27 16:58:23.27	21.39	5.79	-34.1	-34.9	23.7	0.00e+00	0	32	0	207618048	42	5641
2026-01-27 16:58:24.28	21.39	5.86	-34.8	-35.6	23.0	0.00e+00	0	32	0	213909504	42	6132
2026-01-27 16:58:25.29	21.39	5.94	-34.4	-35.2	23.5	0.00e+00	0	32	0	219152384	42	5847
2026-01-27 16:58:26.30	21.39	6.01	-34.1	-34.8	23.8	0.00e+00	0	32	0	225443840	42	5570
2026-01-27 16:58:27.31	21.39	6.09	-34.4	-35.2	23.5	0.00e+00	0	32	0	230686720	42	5839
2026-01-27 16:58:28.31	21.39	6.16	-34.5	-35.3	23.4	0.00e+00	0	32	0	236978176	42	5904
2026-01-27 16:58:29.32	21.39	6.24	-34.3	-35.0	23.5	0.00e+00	0	32	0	242221056	42	5745
2026-01-27 16:58:30.33	21.39	6.31	-34.8	-35.5	23.1	0.00e+00	0	32	0	247463936	42	6081
2026-01-27 16:58:31.34	21.39	6.39	-34.9	-35.6	23.0	0.00e+00	0	32	0	253755392	42	6152
2026-01-27 16:58:32.35	21.39	6.46	-34.2	-34.9	23.7	0.00e+00	0	32	0	258998272	42	5684
2026-01-27 16:58:33.36	21.39	6.54	-34.3	-35.1	23.6	0.00e+00	0	32	0	265289728	42	5775
2026-01-27 16:58:34.37	21.39	6.62	-34.0	-34.7	23.9	0.00e+00	0	32	0	270532608	42	5523
2026-01-27 16:58:35.38	21.39	6.69	-34.1	-34.8	23.8	0.00e+00	0	32	0	275775488	42	5604
2026-01-27 16:58:36.39	21.39	6.77	-34.3	-35.0	23.6	0.00e+00	0	32	0	282066944	42	5747
2026-01-27 16:58:37.40	21.39	6.85	-34.3	-35.0	23.7	0.00e+00	0	32	0	287309824	42	5716
2026-01-27 16:58:38.41	21.39	6.92	-34.1	-34.8	23.8	0.00e+00	0	32	0	293601280	42	5583
2026-01-27 16:58:39.42	21.39	7.00	-34.4	-35.1	23.6	0.00e+00	0	32	0	298844160	42	5792
2026-01-27 16:58:40.43	21.39	7.08	-34.2	-34.9	23.8	0.00e+00	0	32	0	304087040	42	5660
2026-01-27 16:58:41.44	21.39	7.16	-34.2	-34.9	23.9	0.00e+00	0	32	0	310378496	42	5659
2026-01-27 16:58:42.45	21.39	7.24	-34.2	-35.0	23.8	0.00e+00	0	32	0	315621376	42	5700
2026-01-27 16:58:43.46	21.39	7.31	-34.0	-34.7	23.9	0.00e+00	0	32	0	321912832	42	5550
2026-01-27 16:58:44.47	21.39	7.39	-34.2	-34.9	23.8	0.00e+00	0	32	0	327155712	42	5679
2026-01-27 16:58:45.48	21.39	7.47	-33.8	-34.5	24.1	0.00e+00	0	32	0	333447168	42	5416
2026-01-27 16:58:46.49	21.39	7.55	-33.9	-34.7	24.0	0.00e+00	0	32	0	338690048	42	5511
2026-01-27 16:58:47.50	21.39	7.63	-33.8	-34.6	24.1	0.00e+00	0	32	0	344981504	42	5446
2026-01-27 16:58:48.51	21.39	7.71	-34.0	-34.7	24.0	0.00e+00	0	32	0	350224384	42	5556
2026-01-27 16:58:49.52	21.39	7.79	-34.0	-34.7	24.0	0.00e+00	0	32	0	355467264	42	5511
2026-01-27 16:58:50.53	21.39	7.87	-34.1	-34.8	24.0	0.00e+00	0	32	0	361758720	42	5614
2026-01-27 16:58:51.54	21.39	7.95	-33.9	-34.6	24.3	0.00e+00	0	32	0	367001600	42	5448
2026-01-27 16:58:52.54	21.39	8.03	-33.7	-34.4	24.4	0.00e+00	0	32	0	373293056	40	5971
2026-01-27 16:58:53.55	21.39	8.11	-33.8	-34.5	24.2	0.00e+00	0	32	0	378535936	40	6097
2026-01-27 16:58:54.56	21.39	8.19	-33.8	-34.6	24.2	0.00e+00	0	32	0	383778816	40	6104
2026-01-27 16:58:55.57	21.39	8.28	-33.9	-34.6	24.1	0.00e+00	0	32	0	390070272	40	6129
2026-01-27 16:58:56.58	21.39	8.36	-33.8	-34.5	24.2	0.00e+00	0	32	0	395313152	40	6048
2026-01-27 16:58:57.59	21.39	8.44	-33.8	-34.6	24.3	0.00e+00	0	32	0	401604608	40	6105
2026-01-27 16:58:58.60	21.38	8.52	-33.8	-34.5	24.2	0.00e+00	0	32	0	406847488	40	6058
2026-01-27 16:58:59.61	21.38	8.60	-33.6	-34.3	24.4	0.00e+00	0	32	0	412090368	40	5929
2026-01-27 16:59:00.62	21.38	8.69	-33.5	-34.2	24.4	0.00e+00	0	32	0	418381824	40	5878
2026-01-27 16:59:01.63	21.38	8.77	-33.6	-34.2	24.4	0.00e+00	0	32	0	423624704	40	5893
2026-01-27 16:59:02.64	21.38	8.85	-33.4	-34.1	24.7	0.00e+00	0	32	0	429916160	40	5802
2026-01-27 16:59:03.65	21.38	8.94	-33.5	-34.2	24.6	0.00e+00	0	32	0	435159040	40	5849
2026-01-27 16:59:04.66	21.38	9.02	-33.4	-34.1	24.6	0.00e+00	0	32	0	441450496	40	5819
2026-01-27 16:59:05.67	21.38	9.11	-33.4	-34.1	24.7	0.00e+00	0	32	0	446693376	40	5797
2026-01-27 16:59:06.68	21.38	9.19	-33.4	-34.1	24.6	0.00e+00	0	32	0	451936256	40	5800
2026-01-27 16:59:07.68	21.38	9.27	-33.4	-34.1	24.7	0.00e+00	0	32	0	458227712	40	5770
2026-01-27 16:59:08.70	21.38	9.36	-33.4	-34.0	24.7	0.00e+00	0	32	0	463470592	40	5752
2026-01-27 16:59:09.71	21.38	9.44	-33.2	-33.9	24.9	0.00e+00	0	32	0	469762048	40	5636
2026-01-27 16:59:10.72	21.37	9.53	-33.2	-33.9	24.8	0.00e+00	0	32	0	475004928	40	5678
2026-01-27 16:59:11.73	21.37	9.62	-33.3	-34.0	24.7	0.00e+00	0	32	0	480247808	40	5703
2026-01-27 16:59:12.74	21.37	9.70	-33.2	-33.9	24.8	0.00e+00	0	32	0	486539264	40	5666
2026-01-27 16:59:13.75	21.37	9.79	-33.4	-34.1	24.7	0.00e+00	0	32	0	491782144	40	5787
2026-01-27 16:59:14.76	21.37	9.88	-33.1	-33.8	24.9	0.00e+00	0	32	0	498073600	40	5606
2026-01-27 16:59:15.77	21.37	9.96	-33.2	-33.8	24.9	0.00e+00	0	32	0	503316480	40	5627
2026-01-27 16:59:16.78	21.37	10.05	-33.2	-33.9	24.9	0.00e+00	0	32	0	508559360	40	5645
2026-01-27 16:59:17.79	21.37	10.14	-33.2	-33.9	24.9	0.00e+00	0	32	0	514850816	40	5665
2026-01-27 16:59:18.80	21.37	10.23	-33.3	-33.9	24.8	0.00e+00	0	32	0	520093696	40	5688
2026-01-27 16:59:19.81	21.36	10.32	-33.2	-33.9	24.9	0.00e+00	0	32	0	526385152	40	5636
2026-01-27 16:59:20.82	21.36	10.40	-33.2	-33.8	24.9	0.00e+00	0	32	0	531628032	40	5612
2026-01-27 16:59:21.83	21.36	10.49	-33.4	-34.1	24.8	0.00e+00	0	32	0	537919488	40	5764
2026-01-27 16:59:22.84	21.36	10.58	-33.3	-34.0	24.8	0.00e+00	0	32	0	543162368	40	5736
2026-01-27 16:59:23.85	21.36	10.67	-33.2	-33.8	24.9	0.00e+00	0	32	0	549453824	40	5627
2026-01-27 16:59:24.86	21.36	10.76	-33.0	-33.7	25.0	0.00e+00	0	32	0	554696704	40	5529
2026-01-27 16:59:25.87	21.36	10.85	-33.0	-33.6	25.1	0.00e+00	0	32	0	559939584	40	5491
2026-01-27 16:59:26.87	21.35	10.94	-33.1	-33.7	25.0	0.00e+00	0	32	0	566231040	40	5554
2026-01-27 16:59:27.88	21.35	11.03	-33.2	-33.9	25.0	0.00e+00	0	32	0	571473920	40	5639
2026-01-27 16:59:28.89	21.35	11.13	-33.3	-33.9	24.9	0.00e+00	0	32	0	577765376	40	5678
2026-01-27 16:59:29.90	21.35	11.22	-33.2	-33.8	25.0	0.00e+00	0	32	0	583008256	40	5622
2026-01-27 16:59:30.91	21.35	11.31	-33.0	-33.6	25.1	0.00e+00	0	32	0	588251136	40	5491
2026-01-27 16:59:31.92	21.35	11.40	-32.8	-33.5	25.3	0.00e+00	0	32	0	594542592	40	5400
2026-01-27 16:59:32.93	21.34	11.49	-32.9	-33.6	25.2	0.00e+00	0	32	0	599785472	40	5442
2026-01-27 16:59:33.93	21.34	11.59	-32.9	-33.5	25.2	0.00e+00	0	32	0	605028352	40	5422
2026-01-27 16:59:34.94	21.34	11.68	-32.9	-33.5	25.1	0.00e+00	0	32	0	611319808	40	5435
2026-01-27 16:59:35.95	21.34	11.77	-32.9	-33.6	25.2	0.00e+00	0	32	0	616562688	40	5442
2026-01-27 16:59:36.96	21.34	11.87	-33.0	-33.7	25.1	0.00e+00	0	32	0	622854144	40	5531
2026-01-27 16:59:37.97	21.33	11.96	-32.8	-33.5	25.3	0.00e+00	0	32	0	628097024	40	5408
2026-01-27 16:59:38.98	21.33	12.06	-32.9	-33.6	25.2	0.00e+00	0	32	0	634388480	40	5445
2026-01-27 16:59:39.99	21.33	12.15	-33.0	-33.7	25.1	0.00e+00	0	32	0	639631360	40	5531
2026-01-27 16:59:41.00	21.33	12.25	-33.2	-33.8	25.0	0.00e+00	0	32	0	645922816	40	5620
2026-01-27 16:59:42.01	21.33	12.34	-33.2	-33.9	25.0	0.00e+00	0	32	0	651165696	40	5656
2026-01-27 16:59:43.01	21.32	12.44	-33.0	-33.6	25.2	0.00e+00	0	32	0	656408576	40	5499
2026-01-27 16:59:44.02	21.32	12.54	-32.8	-33.5	25.2	0.00e+00	0	32	0	662700032	40	5395
2026-01-27 16:59:45.03	21.32	12.63	-32.9	-33.6	25.3	0.00e+00	0	32	0	667942912	40	5446
2026-01-27 16:59:46.04	21.32	12.73	-32.9	-33.6	25.2	0.00e+00	0	32	0	674234368	40	5464
2026-01-27 16:59:47.05	21.32	12.83	-32.8	-33.5	25.3	0.00e+00	0	32	0	679477248	40	5378
2026-01-27 16:59:48.06	21.31	12.93	-32.7	-33.3	25.4	0.00e+00	0	32	0	684720128	40	5314
2026-01-27 16:59:49.07	21.31	13.03	-32.7	-33.4	25.5	0.00e+00	0	32	0	691011584	38	5982
2026-01-27 16:59:50.08	21.31	13.13	-32.5	-33.2	25.6	0.00e+00	0	32	0	696254464	38	5845
2026-01-27 16:59:51.09	21.31	13.23	-32.6	-33.3	25.4	0.00e+00	0	32	0	702545920	38	5938
2026-01-27 16:59:52.10	21.30	13.33	-32.5	-33.2	25.6	0.00e+00	0	32	0	707788800	38	5858
2026-01-27 16:59:53.11	21.30	13.43	-32.4	-33.1	25.7	0.00e+00	0	32	0	713031680	38	5771
2026-01-27 16:59:54.11	21.30	13.53	-32.4	-33.0	25.8	0.00e+00	0	32	0	719323136	38	5728
2026-01-27 16:59:55.12	21.29	13.63	-32.3	-32.9	25.9	0.00e+00	0	32	0	724566016	38	5667
2026-01-27 16:59:56.13	21.29	13.73	-32.4	-33.0	25.8	0.00e+00	0	32	0	730857472	38	5721
2026-01-27 16:59:57.14	21.29	13.83	-32.2	-32.8	25.9	0.00e+00	0	32	0	736100352	38	5609
2026-01-27 16:59:58.15	21.29	13.93	-32.2	-32.8	25.7	0.00e+00	0	32	0	742391808	38	5627
2026-01-27 16:59:59.16	21.28	14.04	-31.9	-32.5	26.1	0.00e+00	0	32	0	747634688	38	5426
2026-01-27 17:00:00.17	21.28	14.14	-32.0	-32.6	26.1	0.00e+00	0	32	0	752877568	38	5489
2026-01-27 17:00:01.18	21.28	14.24	-31.8	-32.4	26.2	0.00e+00	0	32	0	759169024	38	5376
2026-01-27 17:00:02.19	21.27	14.35	-31.8	-32.4	26.2	0.00e+00	0	32	0	764411904	38	5355
2026-01-27 17:00:03.20	21.27	14.45	-31.8	-32.4	26.2	0.00e+00	0	32	0	770703360	38	5368
2026-01-27 17:00:04.21	21.27	14.56	-31.7	-32.4	26.4	0.00e+00	0	32	0	775946240	38	5326
2026-01-27 17:00:05.22	21.26	14.66	-31.8	-32.4	26.3	0.00e+00	0	32	0	781189120	36	5991
2026-01-27 17:00:06.23	21.26	14.77	-31.6	-32.3	26.4	0.00e+00	0	32	0	787480576	36	5916
2026-01-27 17:00:07.23	21.26	14.88	-31.5	-32.2	26.5	0.00e+00	0	32	0	792723456	36	5836
2026-01-27 17:00:08.24	21.25	14.98	-31.5	-32.2	26.4	0.00e+00	0	32	0	799014912	36	5834
2026-01-27 17:00:09.25	21.25	15.09	-31.5	-32.1	26.5	0.00e+00	0	32	0	804257792	36	5795
2026-01-27 17:00:10.26	21.25	15.20	-31.4	-32.1	26.6	0.00e+00	0	32	0	809500672	36	5776
2026-01-27 17:00:11.27	21.24	15.31	-31.5	-32.1	26.6	0.00e+00	0	32	0	815792128	36	5807
2026-01-27 17:00:12.27	21.24	15.42	-31.5	-32.2	26.4	0.00e+00	0	32	0	821035008	36	5837
2026-01-27 17:00:13.28	21.24	15.52	-31.3	-31.9	26.5	0.00e+00	0	32	0	827326464	36	5693
2026-01-27 17:00:14.29	21.23	15.63	-31.4	-32.0	26.6	0.00e+00	0	32	0	832569344	36	5737
2026-01-27 17:00:15.31	21.23	15.75	-31.3	-31.9	26.7	0.00e+00	0	32	0	838860800	36	5691
2026-01-27 17:00:16.31	21.23	15.86	-31.3	-31.9	26.7	0.00e+00	0	32	0	844103680	36	5670
2026-01-27 17:00:17.33	21.22	15.97	-31.3	-31.9	26.7	0.00e+00	0	32	0	849346560	36	5687
2026-01-27 17:00:18.33	21.22	16.08	-31.2	-31.9	26.8	0.00e+00	0	32	0	855638016	36	5648
2026-01-27 17:00:19.34	21.21	16.19	-31.4	-32.1	26.6	0.00e+00	0	32	0	860880896	36	5764
2026-01-27 17:00:20.35	21.21	16.31	-31.2	-31.8	26.7	0.00e+00	0	32	0	867172352	36	5624
2026-01-27 17:00:21.37	21.21	16.42	-31.3	-31.9	26.7	0.00e+00	0	32	0	872415232	36	5640
2026-01-27 17:00:22.37	21.20	16.53	-31.3	-32.0	26.6	0.00e+00	0	32	0	877658112	36	5701
2026-01-27 17:00:23.39	21.20	16.65	-31.2	-31.8	26.7	0.00e+00	0	32	0	883949568	36	5620
2026-01-27 17:00:24.39	21.19	16.76	-31.3	-31.9	26.7	0.00e+00	0	32	0	889192448	36	5642
2026-01-27 17:00:25.40	21.19	16.88	-31.2	-31.8	26.8	0.00e+00	0	32	0	895483904	36	5608
2026-01-27 17:00:26.41	21.18	17.00	-31.4	-32.1	26.6	0.00e+00	0	32	0	900726784	36	5774
2026-01-27 17:00:27.42	21.18	17.11	-31.1	-31.7	26.9	0.00e+00	0	32	0	905969664	36	5537
2026-01-27 17:00:28.43	21.17	17.23	-31.1	-31.8	26.9	0.00e+00	0	32	0	912261120	36	5574
2026-01-27 17:00:29.43	21.17	17.35	-31.2	-31.8	26.8	0.00e+00	0	32	0	917504000	36	5592
2026-01-27 17:00:30.44	21.17	17.46	-31.0	-31.6	26.8	0.00e+00	0	32	0	923795456	36	5475
2026-01-27 17:00:31.45	21.16	17.58	-30.9	-31.5	27.0	0.00e+00	0	32	0	929038336	36	5435
2026-01-27 17:00:32.46	21.16	17.70	-31.0	-31.6	26.9	0.00e+00	0	32	0	935329792	36	5466
2026-01-27 17:00:33.47	21.15	17.82	-31.1	-31.7	27.0	0.00e+00	0	32	0	940572672	36	5532
2026-01-27 17:00:34.48	21.15	17.94	-31.0	-31.6	27.0	0.00e+00	0	32	0	945815552	36	5484
2026-01-27 17:00:35.49	21.14	18.07	-30.8	-31.5	27.2	0.00e+00	0	32	0	952107008	36	5389
2026-01-27 17:00:36.50	21.14	18.19	-30.9	-31.5	27.1	0.00e+00	0	32	0	957349888	36	5421
2026-01-27 17:00:37.51	21.13	18.31	-30.9	-31.5	27.0	0.00e+00	0	32	0	963641344	36	5419
2026-01-27 17:00:38.51	21.12	18.43	-30.8	-31.4	27.2	0.00e+00	0	32	0	968884224	36	5359
2026-01-27 17:00:39.52	21.12	18.56	-30.7	-31.3	27.2	0.00e+00	0	32	0	974127104	34	5952
2026-01-27 17:00:40.53	21.11	18.68	-30.7	-31.3	27.3	0.00e+00	0	32	0	980418560	34	5929
2026-01-27 17:00:41.54	21.11	18.81	-30.7	-31.3	27.3	0.00e+00	0	32	0	985661440	34	5911
2026-01-27 17:00:42.55	21.10	18.93	-30.7	-31.3	27.1	0.00e+00	0	32	0	991952896	34	5961
2026-01-27 17:00:43.56	21.10	19.06	-30.6	-31.2	27.2	0.00e+00	0	32	0	997195776	34	5884
2026-01-27 17:00:44.57	21.09	19.19	-30.6	-31.2	27.3	0.00e+00	0	32	0	1002438656	34	5895
2026-01-27 17:00:45.58	21.09	19.31	-30.6	-31.2	27.3	0.00e+00	0	32	0	1008730112	34	5895
2026-01-27 17:00:46.59	21.08	19.44	-30.5	-31.1	27.4	0.00e+00	0	32	0	1013972992	34	5806
2026-01-27 17:00:47.60	21.07	19.57	-30.5	-31.2	27.3	0.00e+00	0	32	0	1020264448	34	5854
2026-01-27 17:00:48.61	21.07	19.70	-30.4	-31.0	27.5	0.00e+00	0	32	0	1025507328	34	5752
2026-01-27 17:00:49.62	21.06	19.83	-30.4	-31.1	27.5	0.00e+00	0	32	0	1031798784	34	5762
2026-01-27 17:00:50.63	21.05	19.96	-30.5	-31.1	27.4	0.00e+00	0	32	0	1037041664	34	5824
2026-01-27 17:00:51.64	21.05	20.10	-30.4	-31.0	27.5	0.00e+00	0	32	0	1043333120	34	5711
2026-01-27 17:00:52.64	21.04	20.23	-30.5	-31.1	27.4	0.00e+00	0	32	0	1048576000	34	5791
2026-01-27 17:00:53.65	21.03	20.36	-30.4	-31.0	27.6	0.00e+00	0	32	0	1053818880	34	5745
2026-01-27 17:00:54.66	21.03	20.49	-30.4	-31.0	27.5	0.00e+00	0	32	0	1060110336	34	5748
2026-01-27 17:00:55.67	21.02	20.63	-30.3	-30.9	27.6	0.00e+00	0	32	0	1065353216	34	5643
2026-01-27 17:00:56.68	21.01	20.76	-30.3	-30.9	27.6	0.00e+00	0	32	0	1071644672	34	5663
2026-01-27 17:00:57.69	21.01	20.90	-30.4	-31.0	27.6	0.00e+00	0	32	0	1076887552	34	5701
2026-01-27 17:00:58.70	21.00	21.04	-30.4	-31.1	27.5	0.00e+00	0	32	0	1082130432	34	5775
2026-01-27 17:00:59.71	20.99	21.17	-30.3	-30.9	27.7	0.00e+00	0	32	0	1088421888	34	5631
2026-01-27 17:01:00.72	20.99	21.31	-30.3	-30.9	27.6	0.00e+00	0	32	0	1093664768	34	5665
2026-01-27 17:01:01.73	20.98	21.45	-30.1	-30.7	27.8	0.00e+00	0	32	0	1098907648	34	5532
2026-01-27 17:01:02.74	20.97	21.59	-30.2	-30.8	27.8	0.00e+00	0	32	0	1105199104	34	5593
2026-01-27 17:01:03.75	20.96	21.73	-30.1	-30.6	27.8	0.00e+00	0	32	0	1110441984	34	5500
2026-01-27 17:01:04.76	20.96	21.87	-30.1	-30.7	27.8	0.00e+00	0	32	0	1116733440	34	5557
2026-01-27 17:01:05.77	20.95	22.02	-30.2	-30.8	27.7	0.00e+00	0	32	0	1121976320	34	5598
2026-01-27 17:01:06.78	20.94	22.16	-30.2	-30.8	27.7	0.00e+00	0	32	0	1128267776	34	5601
2026-01-27 17:01:07.79	20.93	22.30	-30.3	-31.0	27.6	0.00e+00	0	32	0	1133510656	34	5702
2026-01-27 17:01:08.80	20.92	22.45	-30.2	-30.8	27.7	0.00e+00	0	32	0	1139802112	34	5621
2026-01-27 17:01:09.81	20.92	22.59	-30.3	-30.9	27.7	0.00e+00	0	32	0	1145044992	34	5653
2026-01-27 17:01:10.82	20.91	22.74	-30.3	-30.9	27.6	0.00e+00	0	32	0	1150287872	34	5685
2026-01-27 17:01:11.83	20.90	22.89	-30.2	-30.9	27.7	0.00e+00	0	32	0	1156579328	34	5632
2026-01-27 17:01:12.84	20.89	23.04	-30.3	-30.9	27.6	0.00e+00	0	32	0	1161822208	34	5688
2026-01-27 17:01:13.85	20.88	23.19	-30.4	-31.0	27.6	0.00e+00	0	32	0	1168113664	34	5727
2026-01-27 17:01:14.86	20.87	23.34	-30.2	-30.8	27.7	0.00e+00	0	32	0	1173356544	34	5615
2026-01-27 17:01:15.87	20.86	23.49	-30.2	-30.8	27.7	0.00e+00	0	33	0	1178599424	34	5604
2026-01-27 17:01:16.88	20.85	23.64	-30.1	-30.8	27.7	0.00e+00	0	32	0	1184890880	34	5585
2026-01-27 17:01:17.89	20.84	23.79	-30.1	-30.8	27.7	0.00e+00	0	32	0	1190133760	34	5567
2026-01-27 17:01:18.90	20.84	23.94	-30.1	-30.7	27.8	0.00e+00	0	32	0	1196425216	34	5517
2026-01-27 17:01:19.90	20.83	24.10	-30.1	-30.7	27.8	0.00e+00	0	32	0	1201668096	34	5516
2026-01-27 17:01:20.92	20.82	24.25	-30.0	-30.6	27.8	0.00e+00	0	32	0	1206910976	34	5494
2026-01-27 17:01:21.93	20.81	24.41	-30.0	-30.6	27.9	0.00e+00	0	32	0	1213202432	34	5499
2026-01-27 17:01:22.94	20.80	24.57	-30.0	-30.6	27.9	0.00e+00	0	32	0	1218445312	34	5475
2026-01-27 17:01:23.94	20.79	24.72	-29.9	-30.5	28.0	0.00e+00	0	32	0	1224736768	34	5406
2026-01-27 17:01:24.95	20.78	24.88	-29.7	-30.3	28.1	0.00e+00	0	32	0	1229979648	34	5314
2026-01-27 17:01:25.97	20.77	25.04	-29.9	-30.5	28.0	0.00e+00	0	32	0	1236271104	32	6092
2026-01-27 17:01:26.98	20.76	25.20	-29.9	-30.6	28.0	0.00e+00	0	32	0	1241513984	32	6107
2026-01-27 17:01:27.99	20.74	25.37	-29.9	-30.4	28.0	0.00e+00	0	32	0	1247805440	32	6033
2026-01-27 17:01:29.00	20.73	25.53	-29.9	-30.5	28.0	0.00e+00	0	32	0	1253048320	32	6043
2026-01-27 17:01:30.00	20.72	25.69	-29.8	-30.4	28.1	0.00e+00	0	32	0	1258291200	32	5972
2026-01-27 17:01:31.02	20.71	25.86	-29.6	-30.2	28.2	0.00e+00	0	32	0	1264582656	32	5851
2026-01-27 17:01:32.02	20.70	26.02	-29.8	-30.4	28.1	0.00e+00	0	32	0	1269825536	32	5996
2026-01-27 17:01:33.03	20.69	26.19	-29.6	-30.2	28.2	0.00e+00	0	32	0	1275068416	32	5874
2026-01-27 17:01:34.04	20.68	26.36	-29.6	-30.2	28.3	0.00e+00	0	32	0	1281359872	32	5873
2026-01-27 17:01:35.05	20.67	26.53	-29.6	-30.2	28.2	0.00e+00	0	32	0	1286602752	32	5880
2026-01-27 17:01:36.06	20.65	26.70	-29.5	-30.1	28.3	0.00e+00	0	32	0	1292894208	32	5811
2026-01-27 17:01:37.07	20.64	26.87	-29.5	-30.1	28.3	0.00e+00	0	32	0	1298137088	32	5780
2026-01-27 17:01:38.08	20.63	27.04	-29.5	-30.1	28.3	0.00e+00	0	32	0	1303379968	32	5827
2026-01-27 17:01:39.09	20.62	27.21	-29.6	-30.2	28.2	0.00e+00	0	32	0	1309671424	32	5846
2026-01-27 17:01:40.10	20.60	27.39	-29.5	-30.1	28.2	0.00e+00	0	32	0	1314914304	32	5818
2026-01-27 17:01:41.11	20.59	27.56	-29.5	-30.1	28.3	0.00e+00	0	32	0	1321205760	32	5777
2026-01-27 17:01:42.12	20.58	27.74	-29.5	-30.2	28.3	0.00e+00	0	32	0	1326448640	32	5846
2026-01-27 17:01:43.13	20.57	27.92	-29.5	-30.1	28.3	0.00e+00	0	32	0	1332740096	32	5796
2026-01-27 17:01:44.13	20.55	28.10	-29.6	-30.2	28.2	0.00e+00	0	32	0	1337982976	32	5847
2026-01-27 17:01:45.14	20.54	28.28	-29.6	-30.2	28.3	0.00e+00	0	32	0	1344274432	32	5861
2026-01-27 17:01:46.15	20.52	28.46	-29.7	-30.3	28.2	0.00e+00	0	32	0	1349517312	32	5902
2026-01-27 17:01:47.16	20.51	28.64	-29.5	-30.1	28.3	0.00e+00	0	32	0	1354760192	32	5818
2026-01-27 17:01:48.17	20.50	28.82	-29.7	-30.3	28.3	0.00e+00	0	32	0	1361051648	32	5960
2026-01-27 17:01:49.19	20.48	29.01	-29.5	-30.1	28.3	0.00e+00	0	32	0	1366294528	32	5786
2026-01-27 17:01:50.19	20.47	29.20	-29.6	-30.2	28.3	0.00e+00	0	32	0	1372585984	32	5859
2026-01-27 17:01:51.20	20.45	29.38	-29.4	-30.0	28.3	0.00e+00	0	32	0	1377828864	32	5745
2026-01-27 17:01:52.21	20.44	29.57	-29.5	-30.1	28.4	0.00e+00	0	32	0	1383071744	32	5792
2026-01-27 17:01:53.22	20.42	29.76	-29.5	-30.1	28.3	0.00e+00	0	32	0	1389363200	32	5814
2026-01-27 17:01:54.23	20.41	29.95	-29.5	-30.1	28.3	0.00e+00	0	32	0	1394606080	32	5813
2026-01-27 17:01:55.24	20.39	30.15	-29.7	-30.3	28.2	0.00e+00	0	32	0	1400897536	32	5961
2026-01-27 17:01:56.26	20.37	30.34	-29.6	-30.2	28.3	0.00e+00	0	32	0	1406140416	32	5842
2026-01-27 17:01:57.27	20.36	30.54	-29.6	-30.2	28.2	0.00e+00	0	32	0	1411383296	32	5891
2026-01-27 17:01:58.28	20.34	30.73	-29.6	-30.2	28.2	0.00e+00	0	32	0	1417674752	32	5868
2026-01-27 17:01:59.28	20.32	30.93	-29.7	-30.4	28.2	0.00e+00	0	32	0	1422917632	32	5976
2026-01-27 17:02:00.29	20.31	31.13	-29.6	-30.2	28.2	0.00e+00	0	32	0	1429209088	32	5883
2026-01-27 17:02:01.31	20.29	31.33	-29.6	-30.2	28.2	0.00e+00	0	32	0	1434451968	32	5879
2026-01-27 17:02:02.32	20.27	31.53	-29.5	-30.1	28.4	0.00e+00	0	32	0	1440743424	32	5811
2026-01-27 17:02:03.33	20.25	31.74	-29.4	-30.0	28.4	0.00e+00	0	33	0	1445986304	32	5744
2026-01-27 17:02:04.34	20.24	31.94	-29.2	-29.9	28.5	0.00e+00	0	32	0	1452277760	32	5631
2026-01-27 17:02:05.35	20.22	32.15	-29.2	-29.8	28.6	0.00e+00	0	32	0	1457520640	32	5581
2026-01-27 17:02:06.35	20.20	32.35	-28.9	-29.5	28.8	0.00e+00	0	32	0	1462763520	32	5402
2026-01-27 17:02:07.36	20.18	32.56	-28.8	-29.4	29.0	0.00e+00	0	32	0	1469054976	30	5968
2026-01-27 17:02:08.37	20.16	32.77	-28.9	-29.4	28.8	0.00e+00	0	32	0	1474297856	30	6019
2026-01-27 17:02:09.38	20.14	32.99	-28.8	-29.4	28.8	0.00e+00	0	32	0	1480589312	30	5992
2026-01-27 17:02:10.39	20.12	33.20	-29.0	-29.5	28.8	0.00e+00	0	33	0	1485832192	30	6096
2026-01-27 17:02:11.40	20.10	33.41	-29.1	-29.7	28.7	0.00e+00	0	32	0	1491075072	30	6187
2026-01-27 17:02:12.41	20.08	33.63	-29.2	-29.8	28.6	0.00e+00	0	32	0	1497366528	30	6295
2026-01-27 17:02:13.42	20.06	33.85	-29.2	-29.8	28.6	0.00e+00	0	32	0	1502609408	30	6246
2026-01-27 17:02:14.43	20.04	34.07	-29.3	-29.9	28.5	0.00e+00	0	32	0	1507852288	30	6322
2026-01-27 17:02:15.44	20.02	34.29	-29.1	-29.7	28.6	0.00e+00	0	32	0	1514143744	30	6232
2026-01-27 17:02:16.45	20.00	34.51	-29.2	-29.8	28.6	0.00e+00	0	32	0	1519386624	30	6271
2026-01-27 17:02:17.46	19.97	34.74	-29.2	-29.8	28.7	0.00e+00	0	32	0	1525678080	30	6283
2026-01-27 17:02:18.47	19.95	34.96	-28.9	-29.5	28.7	0.00e+00	0	32	0	1530920960	30	6034
2026-01-27 17:02:19.48	19.93	35.19	-29.0	-29.7	28.8	0.00e+00	0	32	0	1537212416	30	6179
2026-01-27 17:02:20.49	19.90	35.42	-29.0	-29.6	28.8	0.00e+00	0	32	0	1542455296	30	6127
2026-01-27 17:02:21.50	19.88	35.65	-29.1	-29.7	28.7	0.00e+00	0	32	0	1548746752	30	6235
2026-01-27 17:02:22.51	19.86	35.88	-29.3	-29.9	28.5	0.00e+00	0	32	0	1553989632	30	6361
2026-01-27 17:02:23.52	19.83	36.12	-29.4	-30.0	28.4	0.00e+00	0	32	0	1559232512	30	6453
2026-01-27 17:02:24.53	19.81	36.36	-29.4	-29.9	28.5	0.00e+00	0	32	0	1565523968	30	6388
2026-01-27 17:02:25.54	19.78	36.59	-29.0	-29.6	28.7	0.00e+00	0	32	0	1570766848	30	6142
2026-01-27 17:02:26.55	19.76	36.83	-28.7	-29.3	29.0	0.00e+00	0	32	0	1577058304	30	5908
2026-01-27 17:02:27.56	19.73	37.07	-28.7	-29.2	29.0	0.00e+00	0	32	0	1582301184	30	5887
2026-01-27 17:02:28.57	19.70	37.32	-28.5	-29.0	29.1	0.00e+00	0	32	0	1587544064	30	5759
2026-01-27 17:02:29.58	19.68	37.56	-28.5	-29.1	29.1	0.00e+00	0	32	0	1593835520	30	5789
2026-01-27 17:02:30.59	19.65	37.81	-28.6	-29.2	29.1	0.00e+00	0	32	0	1599078400	30	5893
2026-01-27 17:02:31.60	19.62	38.06	-28.8	-29.4	28.9	0.00e+00	0	32	0	1605369856	30	6028
2026-01-27 17:02:32.61	19.59	38.31	-29.0	-29.6	28.8	0.00e+00	0	32	0	1610612736	30	6131
2026-01-27 17:02:33.62	19.56	38.56	-29.2	-29.8	28.6	0.00e+00	0	32	0	1615855616	30	6252
2026-01-27 17:02:34.63	19.53	38.82	-29.2	-29.8	28.6	0.00e+00	0	32	0	1622147072	30	6287
2026-01-27 17:02:35.63	19.50	39.07	-29.2	-29.8	28.5	0.00e+00	0	32	0	1627389952	30	6255
2026-01-27 17:02:36.64	19.47	39.33	-29.1	-29.7	28.7	0.00e+00	0	32	0	1633681408	30	6186
2026-01-27 17:02:37.65	19.44	39.59	-28.9	-29.5	28.8	0.00e+00	0	32	0	1638924288	30	6089
2026-01-27 17:02:38.66	19.41	39.85	-29.0	-29.5	28.8	0.00e+00	0	32	0	1645215744	30	6099
2026-01-27 17:02:39.67	19.38	40.11	-29.1	-29.7	28.7	0.00e+00	0	32	0	1650458624	30	6233
2026-01-27 17:02:40.68	19.34	40.38	-29.2	-29.8	28.6	0.00e+00	0	32	0	1655701504	30	6256
2026-01-27 17:02:41.69	19.31	40.65	-29.3	-29.9	28.6	0.00e+00	0	32	0	1661992960	30	6366
2026-01-27 17:02:42.70	19.28	40.92	-29.3	-29.9	28.6	0.00e+00	0	32	0	1667235840	30	6351
2026-01-27 17:02:43.71	19.24	41.19	-29.1	-29.7	28.7	0.00e+00	0	32	0	1673527296	30	6208
2026-01-27 17:02:44.71	19.21	41.46	-29.1	-29.8	28.7	0.00e+00	0	32	0	1678770176	30	6248
2026-01-27 17:02:45.72	19.17	41.74	-28.9	-29.5	28.8	0.00e+00	0	32	0	1684013056	30	6099
2026-01-27 17:02:46.73	19.13	42.01	-29.1	-29.7	28.7	0.00e+00	0	32	0	1690304512	30	6188
2026-01-27 17:02:47.74	19.09	42.29	-29.0	-29.6	28.6	0.00e+00	0	32	0	1695547392	30	6153
2026-01-27 17:02:48.76	19.06	42.58	-29.1	-29.7	28.7	0.00e+00	0	32	0	1701838848	30	6183
2026-01-27 17:02:49.77	19.02	42.86	-29.2	-29.8	28.6	0.00e+00	0	32	0	1707081728	30	6266
2026-01-27 17:02:50.78	18.98	43.15	-29.4	-30.0	28.6	0.00e+00	0	32	0	1712324608	30	6423
2026-01-27 17:02:51.79	18.94	43.44	-29.6	-30.2	28.3	0.00e+00	0	32	0	1718616064	30	6572
2026-01-27 17:02:52.79	18.90	43.73	-29.7	-30.3	28.2	0.00e+00	0	32	0	1723858944	30	6664
2026-01-27 17:02:53.80	18.85	44.02	-29.8	-30.4	28.2	0.00e+00	0	32	0	1730150400	32	5991
2026-01-27 17:02:54.81	18.81	44.32	-29.7	-30.3	28.2	0.00e+00	0	32	0	1735393280	32	5948
2026-01-27 17:02:55.82	18.77	44.61	-29.7	-30.3	28.3	0.00e+00	0	32	0	1741684736	32	5909
2026-01-27 17:02:56.83	18.72	44.91	-29.6	-30.2	28.3	0.00e+00	0	32	0	1746927616	32	5893
2026-01-27 17:02:57.84	18.67	45.22	-29.5	-30.1	28.3	0.00e+00	0	32	0	1753219072	32	5815
2026-01-27 17:02:58.85	18.63	45.52	-29.6	-30.2	28.4	0.00e+00	0	32	0	1758461952	32	5839
2026-01-27 17:02:59.86	18.58	45.83	-29.7	-30.3	28.3	0.00e+00	0	32	0	1763704832	32	5917
2026-01-27 17:03:00.87	18.53	46.14	-30.0	-30.6	28.1	0.00e+00	0	32	0	1769996288	32	6144
2026-01-27 17:03:01.88	18.48	46.45	-30.1	-30.7	27.9	0.00e+00	0	32	0	1775239168	32	6229
2026-01-27 17:03:02.89	18.43	46.76	-29.9	-30.6	28.1	0.00e+00	0	32	0	1781530624	32	6117
2026-01-27 17:03:03.90	18.38	47.08	-29.9	-30.4	28.2	0.00e+00	0	32	0	1786773504	32	6032
2026-01-27 17:03:04.91	18.32	47.40	-29.8	-30.4	28.3	0.00e+00	0	32	0	1792016384	32	5981
2026-01-27 17:03:05.92	18.27	47.72	-29.2	-29.8	28.6	0.00e+00	0	32	0	1798307840	32	5584
2026-01-27 17:03:06.93	18.21	48.04	-29.3	-29.9	28.5	0.00e+00	0	32	0	1803550720	32	5662
2026-01-27 17:03:07.94	18.16	48.37	-29.6	-30.2	28.3	0.00e+00	0	32	0	1809842176	32	5834
2026-01-27 17:03:08.95	18.10	48.69	-29.7	-30.3	28.2	0.00e+00	0	32	0	1815085056	32	5933
2026-01-27 17:03:09.96	18.04	49.02	-29.8	-30.4	28.2	0.00e+00	0	32	0	1820327936	32	5994
2026-01-27 17:03:10.97	17.98	49.36	-29.7	-30.3	28.3	0.00e+00	0	32	0	1826619392	32	5931
2026-01-27 17:03:11.98	17.91	49.69	-29.3	-29.9	28.6	0.00e+00	0	32	0	1831862272	32	5635
2026-01-27 17:03:12.99	17.85	50.03	-29.4	-29.9	28.6	0.00e+00	0	32	0	1838153728	32	5688
2026-01-27 17:03:14.00	17.79	50.37	-29.6	-30.2	28.3	0.00e+00	0	32	0	1843396608	32	5860
2026-01-27 17:03:15.01	17.72	50.71	-30.1	-30.7	28.0	0.00e+00	0	32	0	1849688064	32	6233
2026-01-27 17:03:16.02	17.65	51.06	-30.3	-30.9	27.8	0.00e+00	0	32	0	1854930944	32	6363
2026-01-27 17:03:17.03	17.58	51.41	-30.2	-30.8	27.8	0.00e+00	0	32	0	1860173824	32	6273
2026-01-27 17:03:18.04	17.51	51.76	-30.2	-30.8	27.9	0.00e+00	0	32	0	1866465280	32	6270
2026-01-27 17:03:19.05	17.43	52.11	-30.3	-31.0	27.8	0.00e+00	0	32	0	1871708160	32	6404
2026-01-27 17:03:20.06	17.36	52.47	-30.6	-31.2	27.6	0.00e+00	0	32	0	1877999616	32	6583
2026-01-27 17:03:21.08	17.28	52.83	-30.7	-31.2	27.5	0.00e+00	0	32	0	1883242496	32	6608
2026-01-27 17:03:22.08	17.20	53.19	-30.7	-31.3	27.5	0.00e+00	0	32	0	1889533952	32	6680
2026-01-27 17:03:23.09	17.12	53.55	-30.8	-31.4	27.4	0.00e+00	0	32	0	1894776832	34	5992
2026-01-27 17:03:24.10	17.03	53.91	-30.7	-31.3	27.6	0.00e+00	0	32	0	1900019712	34	5943
2026-01-27 17:03:25.11	16.95	54.28	-30.9	-31.5	27.3	0.00e+00	0	32	0	1906311168	34	6070
2026-01-27 17:03:26.12	16.86	54.65	-31.2	-31.8	27.1	0.00e+00	0	32	0	1911554048	34	6277
2026-01-27 17:03:27.13	16.77	55.03	-31.0	-31.6	27.2	0.00e+00	0	32	0	1916796928	34	6140
2026-01-27 17:03:28.14	16.67	55.40	-30.8	-31.4	27.4	0.00e+00	0	32	0	1923088384	34	5998
2026-01-27 17:03:29.15	16.58	55.78	-30.4	-31.0	27.7	0.00e+00	0	32	0	1928331264	34	5754
2026-01-27 17:03:30.16	16.48	56.16	-30.4	-31.0	27.7	0.00e+00	0	32	0	1934622720	34	5760
2026-01-27 17:03:31.16	16.38	56.54	-30.1	-30.6	27.9	0.00e+00	0	32	0	1939865600	34	5500
2026-01-27 17:03:32.17	16.27	56.93	-30.1	-30.6	28.0	0.00e+00	0	32	0	1946157056	34	5498
2026-01-27 17:03:33.18	16.16	57.32	-30.2	-30.8	27.9	0.00e+00	0	32	0	1951399936	34	5589
2026-01-27 17:03:34.19	16.05	57.71	-30.3	-30.9	27.8	0.00e+00	0	32	0	1957691392	34	5645
2026-01-27 17:03:35.20	15.94	58.11	-29.9	-30.4	28.1	0.00e+00	0	32	0	1962934272	34	5351
2026-01-27 17:03:36.21	15.82	58.50	-29.7	-30.3	28.2	0.00e+00	0	32	0	1968177152	32	5937
2026-01-27 17:03:37.22	15.70	58.90	-29.6	-30.2	28.2	0.00e+00	0	32	0	1974468608	32	5885
2026-01-27 17:03:38.23	15.57	59.30	-29.4	-30.0	28.4	0.00e+00	0	32	0	1979711488	32	5743
2026-01-27 17:03:39.24	15.44	59.71	-29.3	-29.9	28.5	0.00e+00	0	32	0	1986002944	32	5674
2026-01-27 17:03:40.25	15.31	60.11	-29.2	-29.8	28.7	0.00e+00	0	32	0	1991245824	32	5574
2026-01-27 17:03:41.26	15.17	60.52	-29.3	-29.9	28.4	0.00e+00	0	32	0	1996488704	32	5679
2026-01-27 17:03:42.27	15.02	60.94	-29.6	-30.2	28.3	0.00e+00	0	32	0	2002780160	32	5859
2026-01-27 17:03:43.28	14.87	61.35	-29.7	-30.3	28.1	0.00e+00	0	32	0	2008023040	32	5935
2026-01-27 17:03:44.29	14.72	61.77	-29.5	-30.1	28.4	0.00e+00	0	32	0	2014314496	32	5771
2026-01-27 17:03:45.30	14.56	62.19	-29.3	-29.9	28.3	0.00e+00	0	32	0	2019557376	32	5639
2026-01-27 17:03:46.31	14.40	62.61	-29.1	-29.7	28.4	0.00e+00	0	32	0	2024800256	32	5563
2026-01-27 17:03:47.32	14.23	63.03	-29.2	-29.8	28.5	0.00e+00	0	33	0	2031091712	32	5594
2026-01-27 17:03:48.33	14.05	63.46	-28.9	-29.5	28.7	0.00e+00	0	32	0	2036334592	32	5385
2026-01-27 17:03:49.34	13.87	63.89	-28.7	-29.3	28.9	0.00e+00	0	32	0	2042626048	30	5911
2026-01-27 17:03:50.35	13.67	64.32	-28.8	-29.4	28.8	0.00e+00	0	32	0	2047868928	30	5998
2026-01-27 17:03:51.36	13.48	64.75	-28.8	-29.4	28.8	0.00e+00	0	32	0	2054160384	30	6006
2026-01-27 17:03:52.37	13.27	65.18	-28.8	-29.4	28.8	0.00e+00	0	32	0	2059403264	30	6025
2026-01-27 17:03:53.38	13.06	65.62	-28.7	-29.3	29.0	0.00e+00	0	32	0	2064646144	30	5912
2026-01-27 17:03:54.39	12.83	66.06	-28.7	-29.2	28.9	0.00e+00	0	32	0	2070937600	30	5884
2026-01-27 17:03:55.40	12.60	66.50	-28.7	-29.3	28.9	0.00e+00	0	32	0	2076180480	30	5919
2026-01-27 17:03:56.41	12.36	66.95	-28.7	-29.3	28.9	0.00e+00	0	32	0	2082471936	30	5926
2026-01-27 17:03:57.42	12.10	67.39	-28.8	-29.4	28.8	0.00e+00	0	32	0	2087714816	30	6004
2026-01-27 17:03:58.43	11.84	67.84	-28.9	-29.5	28.7	0.00e+00	0	32	0	2092957696	30	6095
2026-01-27 17:03:59.43	11.56	68.29	-28.9	-29.5	28.8	0.00e+00	0	32	0	2099249152	30	6056
2026-01-27 17:04:00.44	11.27	68.74	-28.8	-29.4	29.0	0.00e+00	0	32	0	2104492032	30	5987
2026-01-27 17:04:01.45	10.97	69.19	-28.6	-29.1	29.0	0.00e+00	0	32	0	2110783488	30	5818
2026-01-27 17:04:02.46	10.65	69.65	-28.2	-28.8	29.3	0.00e+00	0	32	0	2116026368	30	5582
2026-01-27 17:04:03.46	10.32	70.10	-28.1	-28.7	29.2	0.00e+00	0	32	0	2121269248	30	5533
2026-01-27 17:04:04.47	9.97	70.55	-28.0	-28.6	29.4	0.00e+00	0	32	0	2127560704	30	5447
2026-01-27 17:04:05.48	9.60	71.01	-28.1	-28.7	29.2	0.00e+00	0	32	0	2132803584	30	5562
2026-01-27 17:04:06.49	9.21	71.47	-28.0	-28.6	29.3	0.00e+00	0	32	0	2139095040	30	5452
2026-01-27 17:04:07.50	8.80	71.94	-27.9	-28.5	29.5	0.00e+00	0	32	0	2144337920	30	5391
2026-01-27 17:04:08.51	8.37	72.40	-27.9	-28.5	29.4	0.00e+00	0	32	0	2150629376	30	5395
2026-01-27 17:04:09.51	7.91	72.86	-27.7	-28.4	29.5	0.00e+00	0	32	0	2155872256	30	5317
2026-01-27 17:04:10.53	7.42	73.33	-27.7	-28.3	29.4	0.00e+00	0	32	0	2161115136	28	5916
2026-01-27 17:04:11.53	6.91	73.79	-27.5	-28.1	29.8	0.00e+00	0	32	0	2167406592	28	5773
2026-01-27 17:04:12.54	6.37	74.25	-27.2	-27.7	29.9	0.00e+00	0	32	0	2172649472	28	5546
2026-01-27 17:04:13.55	5.78	74.72	-27.2	-27.7	29.9	0.00e+00	0	32	0	2178940928	28	5520
2026-01-27 17:04:14.56	5.16	75.18	-27.2	-27.8	29.9	0.00e+00	0	32	0	2184183808	28	5603
2026-01-27 17:04:15.57	4.50	75.65	-27.4	-28.0	29.7	0.00e+00	0	32	0	2189426688	28	5703
2026-01-27 17:04:16.58	3.79	76.11	-27.4	-28.0	29.6	0.00e+00	0	32	0	2195718144	28	5727
2026-01-27 17:04:17.59	3.03	76.58	-27.3	-27.9	29.8	0.00e+00	0	32	0	2200961024	28	5639
2026-01-27 17:04:18.60	2.22	77.04	-27.4	-28.0	29.7	0.00e+00	0	32	0	2207252480	28	5726
2026-01-27 17:04:19.61	1.34	77.51	-27.5	-28.0	29.7	0.00e+00	0	32	0	2212495360	28	5754
2026-01-27 17:04:20.62	0.39	77.97	-26.9	-27.5	30.1	0.00e+00	0	32	0	2217738240	28	5408
2026-01-27 17:04:21.63	359.37	78.42	-27.0	-27.6	29.9	0.00e+00	0	32	0	2224029696	28	5457
2026-01-27 17:04:22.64	358.25	78.88	-27.1	-27.7	29.9	0.00e+00	0	32	0	2229272576	28	5509
2026-01-27 17:04:23.65	357.04	79.33	-26.6	-27.2	30.2	0.00e+00	0	32	0	2235564032	26	5849
2026-01-27 17:04:24.65	355.74	79.78	-26.8	-27.4	30.1	0.00e+00	0	32	0	2240806912	26	5986
2026-01-27 17:04:25.66	354.30	80.22	-27.0	-27.6	30.0	0.00e+00	0	32	0	2247098368	26	6133
2026-01-27 17:04:26.67	352.72	80.66	-26.8	-27.4	30.1	0.00e+00	0	32	0	2252341248	26	5990
2026-01-27 17:04:27.68	350.98	81.09	-26.7	-27.3	30.2	0.00e+00	0	32	0	2257584128	26	5899
2026-01-27 17:04:28.69	349.07	81.51	-26.7	-27.3	30.2	0.00e+00	0	32	0	2263875584	26	5907
2026-01-27 17:04:29.70	346.96	81.92	-27.0	-27.6	30.1	0.00e+00	0	32	0	2269118464	26	6157
2026-01-27 17:04:30.71	344.61	82.33	-27.0	-27.6	30.0	0.00e+00	0	32	0	2275409920	26	6138
2026-01-27 17:04:31.72	342.01	82.71	-26.6	-27.2	30.2	0.00e+00	0	32	0	2280652800	26	5843
2026-01-27 17:04:32.73	339.12	83.09	-26.8	-27.3	30.2	0.00e+00	0	32	0	2285895680	26	5949
2026-01-27 17:04:33.74	335.91	83.44	-26.5	-27.1	30.3	0.00e+00	0	32	0	2292187136	26	5823
2026-01-27 17:04:34.75	332.34	83.77	-26.7	-27.3	30.3	0.00e+00	0	32	0	2297430016	26	5963
2026-01-27 17:04:35.76	328.39	84.08	-26.8	-27.4	30.1	0.00e+00	0	32	0	2303721472	26	5990
2026-01-27 17:04:36.77	324.02	84.35	-27.0	-27.5	30.0	0.00e+00	0	32	0	2308964352	26	6080
2026-01-27 17:04:37.78	319.24	84.59	-27.1	-27.6	29.8	0.00e+00	0	32	0	2314207232	26	6149
2026-01-27 17:04:38.79	314.06	84.79	-27.0	-27.5	30.0	0.00e+00	0	32	0	2320498688	26	6101
2026-01-27 17:04:39.80	308.51	84.94	-26.8	-27.3	30.1	0.00e+00	0	32	0	2325741568	26	5961
2026-01-27 17:04:40.81	302.68	85.04	-27.0	-27.6	29.9	0.00e+00	0	33	0	2332033024	26	6136
2026-01-27 17:04:41.82	296.67	85.09	-26.7	-27.2	30.2	0.00e+00	0	32	0	2337275904	26	5881
2026-01-27 17:04:42.83	290.61	85.08	-26.6	-27.2	30.1	0.00e+00	0	32	0	2343567360	26	5888
2026-01-27 17:04:43.84	284.63	85.02	-26.9	-27.4	30.1	0.00e+00	0	32	0	2348810240	26	6024
2026-01-27 17:04:44.85	278.85	84.91	-27.0	-27.6	30.0	0.00e+00	0	32	0	2355101696	26	6121
2026-01-27 17:04:45.86	273.37	84.75	-27.2	-27.9	29.8	0.00e+00	0	32	0	2360344576	26	6321
2026-01-27 17:04:46.87	268.27	84.54	-27.3	-27.8	29.6	0.00e+00	0	32	0	2365587456	26	6315
2026-01-27 17:04:47.88	263.57	84.30	-27.2	-27.8	29.6	0.00e+00	0	32	0	2371878912	26	6306
2026-01-27 17:04:48.88	259.34	84.02	-27.3	-27.8	29.6	0.00e+00	0	32	0	2377121792	26	6253
2026-01-27 17:04:49.90	255.42	83.70	-27.2	-27.8	29.8	0.00e+00	0	32	0	2383413248	26	6248
2026-01-27 17:04:50.90	251.96	83.37	-27.2	-27.8	29.8	0.00e+00	0	32	0	2388656128	26	6257
2026-01-27 17:04:51.91	248.82	83.01	-26.7	-27.3	30.1	0.00e+00	0	32	0	2393899008	26	5922
2026-01-27 17:04:52.92	245.99	82.64	-26.6	-27.1	30.2	0.00e+00	0	32	0	2400190464	26	5814
2026-01-27 17:04:53.94	243.42	82.24	-26.8	-27.4	29.9	0.00e+00	0	32	0	2405433344	26	5979
2026-01-27 17:04:54.95	241.12	81.84	-26.6	-27.2	30.1	0.00e+00	0	32	0	2411724800	26	5835
2026-01-27 17:04:55.96	239.05	81.42	-26.8	-27.5	30.0	0.00e+00	0	32	0	2416967680	26	6038
2026-01-27 17:04:56.97	237.18	81.00	-27.0	-27.6	30.0	0.00e+00	0	32	0	2422210560	26	6173
2026-01-27 17:04:57.98	235.48	80.56	-26.6	-27.2	30.3	0.00e+00	0	32	0	2428502016	26	5860
2026-01-27 17:04:58.99	233.93	80.12	-26.8	-27.4	30.0	0.00e+00	0	32	0	2433744896	26	6016
2026-01-27 17:04:59.99	232.53	79.68	-26.9	-27.5	30.1	0.00e+00	0	32	0	2440036352	26	6055
2026-01-27 17:05:01.01	231.22	79.23	-26.8	-27.4	30.1	0.00e+00	0	32	0	2445279232	26	6030
2026-01-27 17:05:02.01	230.05	78.78	-26.8	-27.3	30.1	0.00e+00	0	32	0	2451570688	26	5954
2026-01-27 17:05:03.02	228.95	78.32	-26.8	-27.5	30.1	0.00e+00	0	33	0	2456813568	26	6041
2026-01-27 17:05:04.03	227.94	77.86	-26.8	-27.4	30.1	0.00e+00	0	32	0	2463105024	26	5967
2026-01-27 17:05:05.04	227.01	77.40	-26.7	-27.3	30.1	0.00e+00	0	32	0	2468347904	26	5917
2026-01-27 17:05:06.05	226.14	76.94	-26.8	-27.4	30.1	0.00e+00	0	32	0	2473590784	26	5996
2026-01-27 17:05:07.06	225.34	76.48	-26.9	-27.5	30.0	0.00e+00	0	32	0	2479882240	26	6055
2026-01-27 17:05:08.07	224.59	76.01	-26.9	-27.4	30.0	0.00e+00	0	32	0	2485125120	26	6022
2026-01-27 17:05:09.08	223.89	75.54	-27.1	-27.6	29.9	0.00e+00	0	32	0	2490368000	26	6146
2026-01-27 17:05:10.09	223.24	75.08	-27.4	-28.0	29.7	0.00e+00	0	32	0	2496659456	26	6429
2026-01-27 17:05:11.10	222.63	74.61	-27.5	-28.2	29.6	0.00e+00	0	32	0	2501902336	26	6565
2026-01-27 17:05:12.11	222.05	74.14	-27.5	-28.0	29.6	0.00e+00	0	32	0	2508193792	26	6435
2026-01-27 17:05:13.12	221.51	73.68	-27.7	-28.4	29.5	0.00e+00	0	32	0	2513436672	26	6693
2026-01-27 17:05:14.13	221.01	73.21	-27.9	-28.5	29.2	0.00e+00	0	32	0	2519728128	28	6048
2026-01-27 17:05:15.14	220.53	72.75	-28.3	-28.9	29.2	0.00e+00	0	32	0	2524971008	28	6374
2026-01-27 17:05:16.16	220.07	72.28	-28.5	-29.2	28.9	0.00e+00	0	32	0	2530213888	28	6559
2026-01-27 17:05:17.16	219.64	71.82	-28.3	-28.8	29.0	0.00e+00	0	33	0	2536505344	28	6317
2026-01-27 17:05:18.17	219.24	71.36	-28.1	-28.7	29.2	0.00e+00	0	32	0	2541748224	28	6236
2026-01-27 17:05:19.18	218.85	70.90	-28.6	-29.1	28.8	0.00e+00	0	32	0	2548039680	28	6534
2026-01-27 17:05:20.20	218.49	70.43	-28.5	-29.0	29.0	0.00e+00	0	32	0	2553282560	28	6462
2026-01-27 17:05:21.21	218.14	69.98	-28.2	-28.8	29.2	0.00e+00	0	32	0	2559574016	28	6279
2026-01-27 17:05:22.21	217.81	69.52	-28.4	-28.9	29.0	0.00e+00	0	32	0	2564816896	28	6325
2026-01-27 17:05:23.22	217.50	69.07	-28.7	-29.4	28.8	0.00e+00	0	32	0	2570059776	28	6722
2026-01-27 17:05:24.23	217.20	68.62	-28.8	-29.4	28.7	0.00e+00	0	32	0	2576351232	30	5996
2026-01-27 17:05:25.24	216.91	68.16	-28.5	-29.0	28.9	0.00e+00	0	32	0	2581594112	30	5753
2026-01-27 17:05:26.25	216.63	67.71	-28.7	-29.3	28.8	0.00e+00	0	33	0	2587885568	30	5912
2026-01-27 17:05:27.26	216.37	67.27	-28.9	-29.6	28.7	0.00e+00	0	32	0	2593128448	30	6128
2026-01-27 17:05:28.27	216.12	66.82	-28.9	-29.4	28.6	0.00e+00	0	32	0	2598371328	30	5995
2026-01-27 17:05:29.28	215.88	66.38	-28.6	-29.3	28.9	0.00e+00	0	32	0	2604662784	30	5931
2026-01-27 17:05:30.29	215.65	65.93	-28.8	-29.5	28.7	0.00e+00	0	32	0	2609905664	30	6039
2026-01-27 17:05:31.30	215.43	65.49	-28.7	-29.2	28.8	0.00e+00	0	32	0	2616197120	30	5859
2026-01-27 17:05:32.31	215.22	65.06	-28.2	-28.9	29.1	0.00e+00	0	32	0	2621440000	30	5666
2026-01-27 17:05:33.32	215.01	64.62	-28.3	-28.9	29.2	0.00e+00	0	32	0	2626682880	30	5651
2026-01-27 17:05:34.33	214.81	64.19	-28.4	-28.9	29.0	0.00e+00	0	32	0	2632974336	30	5684
2026-01-27 17:05:35.34	214.62	63.76	-28.5	-29.1	28.9	0.00e+00	0	32	0	2638217216	30	5817
2026-01-27 17:05:36.35	214.44	63.33	-28.7	-29.3	28.9	0.00e+00	0	32	0	2644508672	30	5930
2026-01-27 17:05:37.36	214.27	62.90	-28.4	-28.9	29.0	0.00e+00	0	32	0	2649751552	30	5678
2026-01-27 17:05:38.37	214.10	62.48	-28.5	-29.1	29.0	0.00e+00	0	32	0	2656043008	30	5815
2026-01-27 17:05:39.38	213.93	62.05	-28.5	-29.1	28.9	0.00e+00	0	32	0	2661285888	30	5796
2026-01-27 17:05:40.39	213.78	61.63	-28.9	-29.5	28.7	0.00e+00	0	32	0	2667577344	30	6051
2026-01-27 17:05:41.39	213.62	61.22	-29.2	-29.9	28.4	0.00e+00	0	32	0	2672820224	30	6371
2026-01-27 17:05:42.41	213.48	60.80	-29.3	-30.0	28.4	0.00e+00	0	32	0	2678063104	30	6393
2026-01-27 17:05:43.41	213.33	60.39	-29.1	-29.8	28.6	0.00e+00	0	32	0	2684354560	30	6248
2026-01-27 17:05:44.42	213.20	59.98	-29.2	-29.7	28.5	0.00e+00	0	32	0	2689597440	30	6186
2026-01-27 17:05:45.43	213.06	59.58	-29.4	-30.0	28.3	0.00e+00	0	32	0	2694840320	30	6405
2026-01-27 17:05:46.44	212.93	59.17	-29.7	-30.3	28.2	0.00e+00	0	32	0	2701131776	30	6632
2026-01-27 17:05:47.45	212.81	58.77	-29.8	-30.3	28.1	0.00e+00	0	32	0	2706374656	32	5946
2026-01-27 17:05:48.46	212.69	58.37	-30.0	-30.7	27.9	0.00e+00	0	32	0	2712666112	32	6194
2026-01-27 17:05:49.47	212.57	57.97	-29.9	-30.5	28.0	0.00e+00	0	32	0	2717908992	32	6058
2026-01-27 17:05:50.48	212.46	57.58	-30.0	-30.6	27.9	0.00e+00	0	32	0	2723151872	32	6163
2026-01-27 17:05:51.49	212.34	57.19	-30.3	-30.9	27.7	0.00e+00	0	32	0	2729443328	32	6388
2026-01-27 17:05:52.50	212.24	56.80	-30.6	-31.1	27.3	0.00e+00	0	32	0	2734686208	32	6515
2026-01-27 17:05:53.51	212.13	56.41	-30.7	-31.3	27.0	0.00e+00	0	32	0	2740977664	34	5915
2026-01-27 17:05:54.52	212.03	56.03	-30.7	-31.2	27.1	0.00e+00	0	32	0	2746220544	34	5885
2026-01-27 17:05:55.53	211.93	55.65	-30.5	-31.0	27.4	0.00e+00	0	32	0	2752512000	34	5746
2026-01-27 17:05:56.54	211.84	55.27	-30.6	-31.3	27.3	0.00e+00	0	32	0	2757754880	34	5913
2026-01-27 17:05:57.55	211.74	54.89	-30.6	-31.3	27.3	0.00e+00	0	32	0	2764046336	34	5947
2026-01-27 17:05:58.56	211.65	54.52	-30.2	-30.7	27.6	0.00e+00	0	32	0	2769289216	34	5547
2026-01-27 17:05:59.57	211.56	54.14	-30.2	-30.9	27.7	0.00e+00	0	32	0	2774532096	34	5650
2026-01-27 17:06:00.58	211.48	53.78	-30.2	-30.8	27.9	0.00e+00	0	32	0	2780823552	34	5611
2026-01-27 17:06:01.59	211.39	53.41	-29.8	-30.3	28.0	0.00e+00	0	32	0	2786066432	34	5262
2026-01-27 17:06:02.60	211.31	53.05	-29.6	-30.1	28.3	0.00e+00	0	32	0	2792357888	32	5768
2026-01-27 17:06:03.61	211.23	52.69	-29.6	-30.1	28.3	0.00e+00	0	32	0	2797600768	32	5812
2026-01-27 17:06:04.62	211.15	52.33	-29.7	-30.3	28.1	0.00e+00	0	32	0	2802843648	32	5897
2026-01-27 17:06:05.63	211.08	51.97	-29.9	-30.5	27.9	0.00e+00	0	32	0	2809135104	32	6054
2026-01-27 17:06:06.64	211.01	51.62	-29.9	-30.6	27.9	0.00e+00	0	32	0	2814377984	32	6118
2026-01-27 17:06:07.65	210.93	51.27	-29.8	-30.3	28.0	0.00e+00	0	32	0	2820669440	32	5946
2026-01-27 17:06:08.66	210.86	50.92	-29.3	-29.9	28.4	0.00e+00	0	32	0	2825912320	32	5687
2026-01-27 17:06:09.66	210.80	50.58	-29.2	-29.8	28.4	0.00e+00	0	33	0	2831155200	32	5597
2026-01-27 17:06:10.67	210.73	50.23	-29.3	-29.8	28.4	0.00e+00	0	32	0	2837446656	32	5609
2026-01-27 17:06:11.68	210.66	49.89	-29.5	-30.1	28.2	0.00e+00	0	32	0	2842689536	32	5826
2026-01-27 17:06:12.70	210.60	49.55	-29.6	-30.1	28.1	0.00e+00	0	32	0	2848980992	32	5800
2026-01-27 17:06:13.70	210.54	49.22	-29.5	-30.2	28.3	0.00e+00	0	32	0	2854223872	32	5852
2026-01-27 17:06:14.71	210.48	48.88	-29.1	-29.8	28.5	0.00e+00	0	32	0	2860515328	32	5568
2026-01-27 17:06:15.72	210.42	48.55	-29.2	-29.7	28.5	0.00e+00	0	32	0	2865758208	32	5554
2026-01-27 17:06:16.73	210.36	48.23	-29.3	-29.8	28.3	0.00e+00	0	32	0	2871001088	32	5600
2026-01-27 17:06:17.74	210.30	47.90	-29.1	-29.6	28.5	0.00e+00	0	32	0	2877292544	32	5497
2026-01-27 17:06:18.75	210.25	47.58	-29.3	-29.8	28.3	0.00e+00	0	32	0	2882535424	32	5599
2026-01-27 17:06:19.76	210.19	47.25	-29.1	-29.8	28.5	0.00e+00	0	32	0	2888826880	32	5604
2026-01-27 17:06:20.77	210.14	46.94	-29.3	-29.9	28.5	0.00e+00	0	32	0	2894069760	32	5691
2026-01-27 17:06:21.78	210.09	46.62	-29.1	-29.7	28.4	0.00e+00	0	32	0	2899312640	32	5535
2026-01-27 17:06:22.79	210.03	46.31	-29.1	-29.7	28.5	0.00e+00	0	32	0	2905604096	32	5519
2026-01-27 17:06:23.80	209.98	45.99	-29.0	-29.6	28.6	0.00e+00	0	32	0	2910846976	32	5492
2026-01-27 17:06:24.81	209.94	45.68	-29.0	-29.6	28.6	0.00e+00	0	32	0	2917138432	32	5495
2026-01-27 17:06:25.82	209.89	45.38	-29.0	-29.5	28.6	0.00e+00	0	32	0	2922381312	32	5410
2026-01-27 17:06:26.82	209.84	45.08	-28.9	-29.6	28.7	0.00e+00	0	32	0	2927624192	32	5441
2026-01-27 17:06:27.83	209.79	44.77	-29.0	-29.7	28.6	0.00e+00	0	32	0	2933915648	32	5533
2026-01-27 17:06:28.84	209.75	44.47	-29.1	-29.7	28.5	0.00e+00	0	32	0	2939158528	32	5505
2026-01-27 17:06:29.85	209.71	44.17	-29.2	-29.8	28.4	0.00e+00	0	33	0	2945449984	32	5585
2026-01-27 17:06:30.86	209.66	43.88	-29.3	-29.8	28.4	0.00e+00	0	32	0	2950692864	32	5601
2026-01-27 17:06:31.87	209.62	43.59	-29.2	-29.8	28.4	0.00e+00	0	33	0	2956984320	32	5576
2026-01-27 17:06:32.88	209.58	43.29	-29.1	-29.8	28.6	0.00e+00	0	32	0	2962227200	32	5594
2026-01-27 17:06:33.89	209.54	43.01	-29.2	-29.8	28.5	0.00e+00	0	32	0	2968518656	32	5617
2026-01-27 17:06:34.90	209.50	42.72	-29.0	-29.6	28.6	0.00e+00	0	32	0	2973761536	32	5495
2026-01-27 17:06:35.91	209.46	42.43	-29.2	-29.7	28.6	0.00e+00	0	32	0	2979004416	32	5505
2026-01-27 17:06:36.92	209.42	42.15	-29.0	-29.7	28.6	0.00e+00	0	32	0	2985295872	32	5536
2026-01-27 17:06:37.93	209.38	41.87	-29.0	-29.7	28.7	0.00e+00	0	32	0	2990538752	32	5507
2026-01-27 17:06:38.94	209.34	41.59	-28.8	-29.5	28.8	0.00e+00	0	32	0	2996830208	32	5403
2026-01-27 17:06:39.94	209.31	41.32	-28.9	-29.4	28.6	0.00e+00	0	32	0	3002073088	32	5344
2026-01-27 17:06:40.96	209.27	41.04	-28.9	-29.4	28.7	0.00e+00	0	32	0	3007315968	32	5332
2026-01-27 17:06:41.97	209.24	40.77	-28.8	-29.3	28.8	0.00e+00	0	32	0	3013607424	32	5298
2026-01-27 17:06:42.98	209.20	40.50	-28.7	-29.3	28.8	0.00e+00	0	32	0	3018850304	32	5269
2026-01-27 17:06:43.99	209.17	40.23	-28.6	-29.2	28.9	0.00e+00	0	32	0	3025141760	30	5890
2026-01-27 17:06:45.00	209.14	39.96	-28.5	-29.1	29.0	0.00e+00	0	32	0	3030384640	30	5799
2026-01-27 17:06:46.01	209.10	39.70	-28.6	-29.2	29.0	0.00e+00	0	32	0	3035627520	30	5858
2026-01-27 17:06:47.02	209.07	39.44	-28.6	-29.2	29.0	0.00e+00	0	32	0	3041918976	30	5861
2026-01-27 17:06:48.03	209.04	39.18	-28.4	-29.0	29.2	0.00e+00	0	32	0	3047161856	30	5749
2026-01-27 17:06:49.04	209.01	38.92	-28.4	-29.1	29.1	0.00e+00	0	32	0	3053453312	30	5774
2026-01-27 17:06:50.05	208.98	38.66	-28.4	-29.1	29.0	0.00e+00	0	32	0	3058696192	30	5765
2026-01-27 17:06:51.06	208.95	38.41	-28.5	-29.2	28.8	0.00e+00	0	32	0	3064987648	30	5863
2026-01-27 17:06:52.07	208.92	38.16	-28.5	-29.1	29.0	0.00e+00	0	32	0	3070230528	30	5816
2026-01-27 17:06:53.08	208.89	37.91	-28.3	-29.0	29.1	0.00e+00	0	32	0	3075473408	30	5743
2026-01-27 17:06:54.09	208.86	37.66	-28.2	-28.9	29.1	0.00e+00	0	32	0	3081764864	30	5676
2026-01-27 17:06:55.10	208.83	37.41	-28.3	-29.0	29.1	0.00e+00	0	32	0	3087007744	30	5721
2026-01-27 17:06:56.10	208.81	37.17	-28.2	-28.9	29.1	0.00e+00	0	32	0	3093299200	30	5657
2026-01-27 17:06:57.11	208.78	36.92	-28.1	-28.8	29.1	0.00e+00	0	32	0	3098542080	30	5596
2026-01-27 17:06:58.12	208.75	36.68	-28.3	-28.9	29.2	0.00e+00	0	32	0	3103784960	30	5666
2026-01-27 17:06:59.13	208.73	36.44	-28.4	-28.9	29.1	0.00e+00	0	32	0	3110076416	30	5647
2026-01-27 17:07:00.14	208.70	36.20	-28.5	-29.0	29.0	0.00e+00	0	32	0	3115319296	30	5752
2026-01-27 17:07:01.15	208.68	35.97	-28.7	-29.2	28.8	0.00e+00	0	32	0	3121610752	30	5866
2026-01-27 17:07:02.16	208.65	35.73	-28.8	-29.4	28.8	0.00e+00	0	33	0	3126853632	30	5974
2026-01-27 17:07:03.17	208.63	35.50	-28.9	-29.5	28.7	0.00e+00	0	33	0	3132096512	30	6050
2026-01-27 17:07:04.18	208.60	35.27	-29.1	-29.6	28.6	0.00e+00	0	33	0	3138387968	30	6140
2026-01-27 17:07:05.19	208.58	35.04	-29.1	-29.7	28.5	0.00e+00	0	32	0	3143630848	30	6189
2026-01-27 17:07:06.20	208.56	34.81	-29.1	-29.8	28.5	0.00e+00	0	32	0	3149922304	30	6278
2026-01-27 17:07:07.21	208.53	34.58	-29.1	-29.7	28.5	0.00e+00	0	33	0	3155165184	30	6200
2026-01-27 17:07:08.22	208.51	34.36	-29.0	-29.6	28.6	0.00e+00	0	32	0	3161456640	30	6169
2026-01-27 17:07:09.23	208.49	34.14	-29.1	-29.6	28.5	0.00e+00	0	33	0	3166699520	30	6161
2026-01-27 17:07:10.24	208.47	33.92	-29.0	-29.5	28.7	0.00e+00	0	33	0	3172990976	30	6055
2026-01-27 17:07:11.25	208.45	33.70	-29.0	-29.7	28.6	0.00e+00	0	33	0	3178233856	30	6200
2026-01-27 17:07:12.26	208.43	33.48	-29.0	-29.5	28.6	0.00e+00	0	32	0	3183476736	30	6083
2026-01-27 17:07:13.27	208.41	33.26	-29.1	-29.6	28.6	0.00e+00	0	32	0	3189768192	30	6153
2026-01-27 17:07:14.28	208.38	33.04	-28.9	-29.4	28.7	0.00e+00	0	33	0	3195011072	30	6016
2026-01-27 17:07:15.29	208.36	32.83	-29.1	-29.6	28.6	0.00e+00	0	33	0	3201302528	30	6136
2026-01-27 17:07:16.30	208.34	32.62	-29.2	-29.7	28.6	0.00e+00	0	32	0	3206545408	30	6194
2026-01-27 17:07:17.31	208.33	32.41	-29.3	-29.8	28.5	0.00e+00	0	33	0	3211788288	30	6288
2026-01-27 17:07:18.32	208.31	32.20	-29.1	-29.8	28.6	0.00e+00	0	32	0	3218079744	30	6276
2026-01-27 17:07:19.33	208.29	31.99	-29.2	-29.9	28.5	0.00e+00	0	32	0	3223322624	30	6369
2026-01-27 17:07:20.34	208.27	31.78	-29.2	-29.9	28.5	0.00e+00	0	33	0	3229614080	30	6322
2026-01-27 17:07:21.35	208.25	31.58	-29.3	-29.8	28.5	0.00e+00	0	32	0	3234856960	30	6277
2026-01-27 17:07:22.36	208.23	31.38	-29.3	-29.9	28.4	0.00e+00	0	32	0	3240099840	30	6326
2026-01-27 17:07:23.37	208.21	31.17	-29.2	-29.9	28.5	0.00e+00	0	32	0	3246391296	30	6318
2026-01-27 17:07:24.38	208.20	30.97	-29.4	-29.9	28.4	0.00e+00	0	32	0	3251634176	30	6337
2026-01-27 17:07:25.39	208.18	30.77	-29.0	-29.7	28.6	0.00e+00	0	32	0	3257925632	30	6201
2026-01-27 17:07:26.40	208.16	30.57	-29.0	-29.6	28.6	0.00e+00	0	32	0	3263168512	30	6157
2026-01-27 17:07:27.41	208.15	30.38	-29.2	-29.8	28.6	0.00e+00	0	32	0	3269459968	30	6290
2026-01-27 17:07:28.42	208.13	30.18	-28.9	-29.5	28.8	0.00e+00	0	32	0	3274702848	30	6082
2026-01-27 17:07:29.43	208.11	29.99	-28.8	-29.5	28.8	0.00e+00	0	32	0	3279945728	30	6060
2026-01-27 17:07:30.44	208.10	29.80	-28.9	-29.5	28.7	0.00e+00	0	32	0	3286237184	30	6085
2026-01-27 17:07:31.45	208.08	29.60	-28.8	-29.5	28.7	0.00e+00	0	32	0	3291480064	30	6048
2026-01-27 17:07:32.46	208.06	29.41	-29.0	-29.6	28.7	0.00e+00	0	32	0	3297771520	30	6152
2026-01-27 17:07:33.47	208.05	29.23	-28.9	-29.6	28.7	0.00e+00	0	32	0	3303014400	30	6129
2026-01-27 17:07:34.48	208.03	29.04	-29.0	-29.7	28.6	0.00e+00	0	32	0	3308257280	30	6203
2026-01-27 17:07:35.49	208.02	28.85	-29.1	-29.7	28.5	0.00e+00	0	32	0	3314548736	30	6236
2026-01-27 17:07:36.50	208.00	28.67	-29.1	-29.8	28.5	0.00e+00	0	32	0	3319791616	30	6288
2026-01-27 17:07:37.51	207.99	28.48	-29.3	-30.0	28.4	0.00e+00	0	32	0	3326083072	30	6431
2026-01-27 17:07:38.52	207.98	28.30	-29.3	-30.0	28.4	0.00e+00	0	32	0	3331325952	30	6394
2026-01-27 17:07:39.53	207.96	28.12	-29.4	-30.1	28.3	0.00e+00	0	32	0	3336568832	30	6472
2026-01-27 17:07:40.54	207.95	27.94	-29.3	-30.0	28.3	0.00e+00	0	32	0	3342860288	30	6435
2026-01-27 17:07:41.55	207.93	27.76	-29.3	-30.0	28.4	0.00e+00	0	32	0	3348103168	30	6394
2026-01-27 17:07:42.56	207.92	27.58	-29.4	-30.1	28.4	0.00e+00	0	32	0	3354394624	30	6466
2026-01-27 17:07:43.57	207.91	27.40	-29.1	-29.8	28.6	0.00e+00	0	32	0	3359637504	30	6293
2026-01-27 17:07:44.58	207.89	27.23	-29.4	-30.0	28.5	0.00e+00	0	32	0	3365928960	30	6462
2026-01-27 17:07:45.59	207.88	27.05	-29.2	-29.7	28.5	0.00e+00	0	32	0	3371171840	30	6204
2026-01-27 17:07:46.60	207.87	26.88	-29.3	-29.9	28.4	0.00e+00	0	32	0	3377463296	30	6318
2026-01-27 17:07:47.61	207.85	26.71	-29.3	-29.8	28.5	0.00e+00	0	32	0	3382706176	30	6265
2026-01-27 17:07:48.62	207.84	26.53	-29.4	-29.9	28.3	0.00e+00	0	32	0	3387949056	30	6345
2026-01-27 17:07:49.63	207.83	26.36	-29.1	-29.6	28.5	0.00e+00	0	32	0	3394240512	30	6159
2026-01-27 17:07:50.64	207.82	26.20	-29.1	-29.6	28.5	0.00e+00	0	32	0	3399483392	30	6168
2026-01-27 17:07:51.65	207.81	26.03	-29.2	-29.8	28.5	0.00e+00	0	32	0	3405774848	30	6248
2026-01-27 17:07:52.66	207.79	25.86	-29.3	-29.8	28.4	0.00e+00	0	32	0	3411017728	30	6295
2026-01-27 17:07:53.67	207.78	25.69	-29.3	-29.8	28.4	0.00e+00	0	32	0	3416260608	30	6291
2026-01-27 17:07:54.68	207.77	25.53	-29.4	-29.9	28.4	0.00e+00	0	32	0	3422552064	30	6341
2026-01-27 17:07:55.69	207.76	25.36	-29.4	-30.0	28.3	0.00e+00	0	32	0	3427794944	30	6398
2026-01-27 17:07:56.70	207.75	25.20	-29.5	-30.0	28.2	0.00e+00	0	32	0	3434086400	30	6437
2026-01-27 17:07:57.71	207.74	25.04	-29.5	-30.1	28.3	0.00e+00	0	32	0	3439329280	30	6479
2026-01-27 17:07:58.72	207.73	24.88	-29.6	-30.2	28.2	0.00e+00	0	33	0	3444572160	30	6561
2026-01-27 17:07:59.73	207.71	24.72	-29.7	-30.2	28.1	0.00e+00	0	32	0	3450863616	30	6576
2026-01-27 17:08:00.74	207.70	24.56	-29.7	-30.2	28.1	0.00e+00	0	32	0	3456106496	32	5869
2026-01-27 17:08:01.74	207.69	24.40	-29.7	-30.3	28.0	0.00e+00	0	32	0	3462397952	32	5914
2026-01-27 17:08:02.76	207.68	24.24	-29.8	-30.3	28.0	0.00e+00	0	32	0	3467640832	32	5959
2026-01-27 17:08:03.76	207.67	24.09	-29.8	-30.3	28.0	0.00e+00	0	32	0	3473932288	32	5941
2026-01-27 17:08:04.77	207.66	23.93	-29.7	-30.3	28.1	0.00e+00	0	32	0	3479175168	32	5929
2026-01-27 17:08:05.78	207.65	23.78	-29.8	-30.3	28.0	0.00e+00	0	32	0	3484418048	32	5953
2026-01-27 17:08:06.79	207.64	23.63	-29.7	-30.4	28.1	0.00e+00	0	32	0	3490709504	32	6007
2026-01-27 17:08:07.80	207.63	23.47	-29.8	-30.5	28.1	0.00e+00	0	32	0	3495952384	32	6088
2026-01-27 17:08:08.81	207.62	23.32	-29.9	-30.4	27.9	0.00e+00	0	32	0	3502243840	32	6011
2026-01-27 17:08:09.82	207.61	23.17	-29.8	-30.3	28.0	0.00e+00	0	32	0	3507486720	32	5957
2026-01-27 17:08:10.83	207.61	23.02	-29.7	-30.3	28.0	0.00e+00	0	33	0	3512729600	32	5907
2026-01-27 17:08:11.84	207.60	22.87	-29.8	-30.3	28.0	0.00e+00	0	33	0	3519021056	32	5921
2026-01-27 17:08:12.85	207.59	22.72	-29.8	-30.3	28.0	0.00e+00	0	32	0	3524263936	32	5953
2026-01-27 17:08:13.86	207.58	22.58	-29.9	-30.4	27.9	0.00e+00	0	32	0	3530555392	32	6007
2026-01-27 17:08:14.87	207.57	22.43	-29.7	-30.3	28.0	0.00e+00	0	32	0	3535798272	32	5897
2026-01-27 17:08:15.88	207.56	22.28	-29.8	-30.3	28.0	0.00e+00	0	32	0	3541041152	32	5937
2026-01-27 17:08:16.89	207.55	22.14	-29.8	-30.4	28.0	0.00e+00	0	33	0	3547332608	32	5965
2026-01-27 17:08:17.89	207.54	22.00	-29.8	-30.4	27.9	0.00e+00	0	33	0	3552575488	32	5980
2026-01-27 17:08:18.90	207.53	21.85	-30.0	-30.5	27.8	0.00e+00	0	33	0	3558866944	32	6089
2026-01-27 17:08:19.92	207.53	21.71	-30.0	-30.5	27.8	0.00e+00	0	32	0	3564109824	32	6058
2026-01-27 17:08:20.93	207.52	21.57	-30.1	-30.6	27.8	0.00e+00	0	32	0	3570401280	32	6161
2026-01-27 17:08:21.94	207.51	21.43	-30.0	-30.7	27.9	0.00e+00	0	32	0	3575644160	32	6190
2026-01-27 17:08:22.95	207.50	21.29	-30.0	-30.7	27.8	0.00e+00	0	32	0	3581935616	32	6214
2026-01-27 17:08:23.96	207.49	21.15	-30.2	-30.9	27.7	0.00e+00	0	32	0	3587178496	32	6335
2026-01-27 17:08:24.97	207.49	21.01	-30.2	-30.8	27.8	0.00e+00	0	32	0	3592421376	32	6309
2026-01-27 17:08:25.98	207.48	20.87	-30.1	-30.8	27.7	0.00e+00	0	32	0	3598712832	32	6304
2026-01-27 17:08:26.99	207.47	20.73	-30.3	-31.0	27.6	0.00e+00	0	33	0	3603955712	32	6425
2026-01-27 17:08:27.99	207.46	20.60	-30.3	-31.0	27.6	0.00e+00	0	32	0	3610247168	32	6413
2026-01-27 17:08:29.01	207.46	20.46	-30.4	-31.1	27.6	0.00e+00	0	33	0	3615490048	32	6466
2026-01-27 17:08:30.02	207.45	20.33	-30.4	-30.9	27.6	0.00e+00	0	33	0	3620732928	32	6353
2026-01-27 17:08:31.03	207.44	20.19	-30.4	-31.0	27.5	0.00e+00	0	32	0	3627024384	32	6415
2026-01-27 17:08:32.04	207.43	20.06	-30.5	-31.1	27.4	0.00e+00	0	33	0	3632267264	32	6473
