passes_logs/2026/01/27/R4.6S_Anadyr/R4.6S_Anadyr__20260127_120929_NOAA_21_JPSS-2_rec.log

#Pass ID: 20260127_120929_NOAA 21 (JPSS-2)
#Satellite: NOAA 21 (JPSS-2)
#Configuration: NOAA-21
#almurnet v.1.7.20251203
#Start time: 2026-01-27 12:09:30

#Version: 2.2.20231116
#Station: R4.6S_Anadyr
#Location: 177.4865 lon 64.73178 lat
#TLE: 1 54234U 22150A   26026.78373243  .00000177  00000+0  10458-3 0  9996
#TLE: 2 54234  98.7509 327.5416 0000822 208.1870 151.9262 14.19539807166482

#Time	Az	El	Level	Level2	SNR	BER	BlckErr	Temp	State	Recorded	gain1	gain2
2026-01-27 12:09:30.44	19.31	0.05	-45.5	-59.9	3.5	1.51e+00	0	29	0	0	60	40110
2026-01-27 12:09:31.45	19.39	0.10	-49.2	-62.1	3.5	1.52e+00	0	30	104	0	60	44630
2026-01-27 12:09:32.46	19.47	0.14	-49.3	-62.2	3.5	1.52e+00	0	31	104	0	60	45014
2026-01-27 12:09:33.47	19.55	0.19	-49.1	-62.0	3.5	1.52e+00	0	31	104	0	60	44199
2026-01-27 12:09:34.49	19.63	0.24	-49.1	-62.0	3.5	1.52e+00	0	31	104	0	60	44063
2026-01-27 12:09:35.50	19.71	0.29	-49.1	-61.9	3.5	1.52e+00	0	31	104	0	60	43789
2026-01-27 12:09:36.51	19.79	0.33	-49.0	-61.9	3.5	1.52e+00	0	31	104	0	60	43697
2026-01-27 12:09:37.51	19.87	0.38	-49.0	-61.9	3.5	1.52e+00	0	31	104	0	60	43761
2026-01-27 12:09:38.53	19.96	0.43	-49.1	-61.9	3.5	1.52e+00	0	31	104	0	60	43769
2026-01-27 12:09:39.54	20.04	0.47	-49.1	-61.9	3.5	1.52e+00	0	31	104	0	60	43875
2026-01-27 12:09:40.55	20.12	0.52	-49.1	-61.9	3.5	1.52e+00	0	31	104	0	60	43638
2026-01-27 12:09:41.56	20.20	0.57	-49.1	-61.9	3.5	1.52e+00	0	31	104	0	60	43847
2026-01-27 12:09:42.57	20.29	0.62	-49.1	-61.9	3.5	1.51e+00	0	31	104	0	60	43605
2026-01-27 12:09:43.58	20.37	0.66	-49.0	-61.9	3.5	1.52e+00	0	31	104	0	60	43674
2026-01-27 12:09:44.59	20.45	0.71	-49.0	-61.8	3.5	1.52e+00	0	31	104	0	60	43422
2026-01-27 12:09:45.59	20.54	0.76	-48.9	-61.8	3.5	1.51e+00	0	31	104	0	60	43014
2026-01-27 12:09:46.60	20.62	0.81	-48.9	-61.7	3.5	1.52e+00	0	31	104	0	60	42747
2026-01-27 12:09:47.61	20.71	0.85	-48.8	-61.6	3.5	1.52e+00	0	31	104	0	60	42227
2026-01-27 12:09:48.62	20.79	0.90	-48.7	-61.5	3.5	1.52e+00	0	31	104	0	60	41853
2026-01-27 12:09:49.64	20.88	0.95	-48.4	-61.4	3.5	1.51e+00	0	31	104	0	60	41445
2026-01-27 12:09:50.65	20.96	1.00	-48.5	-61.4	3.5	1.52e+00	0	31	104	0	60	41090
2026-01-27 12:09:51.66	21.05	1.04	-48.4	-61.3	3.5	1.52e+00	0	31	104	0	60	40760
2026-01-27 12:09:52.67	21.13	1.09	-48.3	-61.1	3.5	1.52e+00	0	31	104	0	60	40042
2026-01-27 12:09:53.68	21.22	1.14	-48.1	-60.9	3.5	1.52e+00	0	31	104	0	60	39005
2026-01-27 12:09:54.69	21.30	1.19	-47.8	-60.5	3.5	1.52e+00	0	31	104	0	60	37353
2026-01-27 12:09:55.70	21.39	1.24	-47.5	-60.4	3.5	1.52e+00	0	31	104	0	60	36571
2026-01-27 12:09:56.70	21.48	1.28	-47.5	-60.3	3.5	1.52e+00	0	31	104	0	60	36300
2026-01-27 12:09:57.71	21.56	1.33	-47.5	-60.3	3.5	1.52e+00	0	31	104	0	60	36404
2026-01-27 12:09:58.72	21.65	1.38	-47.5	-60.3	3.5	1.52e+00	0	31	104	0	60	36386
2026-01-27 12:09:59.73	21.74	1.43	-47.5	-60.3	3.5	1.52e+00	0	31	104	0	60	36324
2026-01-27 12:10:00.74	21.83	1.47	-47.5	-60.3	3.5	1.52e+00	0	31	104	0	60	36218
2026-01-27 12:10:01.75	21.91	1.52	-47.5	-60.3	3.5	1.52e+00	0	31	104	0	60	36229
2026-01-27 12:10:02.77	22.00	1.57	-47.5	-60.3	3.5	1.52e+00	0	31	104	0	60	36184
2026-01-27 12:10:03.77	22.09	1.62	-47.5	-60.3	3.5	1.52e+00	0	31	104	0	60	36340
2026-01-27 12:10:04.78	22.18	1.67	-47.5	-60.3	3.5	1.52e+00	0	31	104	0	60	36501
2026-01-27 12:10:05.79	22.27	1.71	-47.5	-60.3	3.5	1.52e+00	0	31	104	0	60	36399
2026-01-27 12:10:06.80	22.36	1.76	-47.5	-60.3	3.5	1.52e+00	0	31	104	0	60	36496
2026-01-27 12:10:07.81	22.45	1.81	-47.5	-60.3	3.5	1.51e+00	0	31	104	0	60	36447
2026-01-27 12:10:08.82	22.54	1.86	-47.5	-60.3	3.5	1.52e+00	0	31	104	0	60	36239
2026-01-27 12:10:09.83	22.63	1.91	-47.5	-60.2	3.5	1.52e+00	0	31	104	0	60	36000
2026-01-27 12:10:10.84	22.72	1.96	-47.5	-60.2	3.5	1.52e+00	0	31	104	0	60	35926
2026-01-27 12:10:11.85	22.81	2.00	-47.5	-60.2	3.5	1.52e+00	0	31	104	0	60	35778
2026-01-27 12:10:12.86	22.90	2.05	-47.5	-60.2	3.5	1.52e+00	0	31	104	0	60	36106
2026-01-27 12:10:13.87	22.99	2.10	-47.5	-60.2	3.5	1.52e+00	0	31	104	0	60	35926
2026-01-27 12:10:14.88	23.08	2.15	-47.5	-60.2	3.5	1.52e+00	0	31	104	0	60	36112
2026-01-27 12:10:15.89	23.17	2.20	-47.5	-60.2	3.5	1.52e+00	0	31	104	0	60	36091
2026-01-27 12:10:16.90	23.27	2.25	-47.5	-60.3	3.5	1.52e+00	0	31	104	0	60	36322
2026-01-27 12:10:17.91	23.36	2.29	-47.5	-60.3	3.5	1.52e+00	0	31	104	0	60	36305
2026-01-27 12:10:18.92	23.45	2.34	-47.5	-60.1	3.5	1.52e+00	0	31	104	0	60	35487
2026-01-27 12:10:19.93	23.54	2.39	-47.4	-59.3	3.5	1.52e+00	0	31	104	0	60	32308
2026-01-27 12:10:20.94	23.64	2.44	-47.4	-58.9	3.5	1.51e+00	0	31	104	0	60	31088
2026-01-27 12:10:21.95	23.73	2.49	-47.4	-59.4	3.5	1.51e+00	0	31	104	0	60	32569
2026-01-27 12:10:22.96	23.83	2.54	-47.4	-59.2	3.6	1.51e+00	0	31	104	0	60	32166
2026-01-27 12:10:23.97	23.92	2.58	-47.0	-55.9	4.6	1.20e+00	123	31	104	0	60	21880
2026-01-27 12:10:24.98	24.01	2.63	-44.8	-48.3	11.2	2.98e-03	122	31	0	2097152	60	9079
2026-01-27 12:10:25.99	24.11	2.68	-44.1	-47.0	12.4	2.26e-04	123	31	0	5242880	60	7902
2026-01-27 12:10:27.00	24.20	2.73	-41.0	-42.7	16.9	0.00e+00	123	31	0	7340032	56	6007
2026-01-27 12:10:28.01	24.30	2.78	-39.3	-40.6	18.8	0.00e+00	122	31	0	11534336	52	5986
2026-01-27 12:10:29.02	24.39	2.83	-39.2	-40.5	19.2	0.00e+00	120	31	0	14680064	52	5906
2026-01-27 12:10:30.03	24.49	2.88	-38.7	-40.0	19.4	0.00e+00	122	31	0	17825792	50	6255
2026-01-27 12:10:31.04	24.59	2.93	-38.6	-39.9	19.5	0.00e+00	122	31	0	20971520	50	6141
2026-01-27 12:10:32.05	24.68	2.97	-40.0	-41.5	18.1	0.00e+00	122	31	0	24117248	52	6576
2026-01-27 12:10:33.06	24.78	3.02	-42.8	-45.1	14.7	0.00e+00	123	31	0	27262976	56	7975
2026-01-27 12:10:34.07	24.88	3.07	-47.6	-58.2	3.7	1.18e+00	0	31	104	28311552	60	28481
2026-01-27 12:10:35.08	24.97	3.12	-39.0	-40.3	19.6	0.00e+00	123	31	0	28311552	50	6477
2026-01-27 12:10:36.09	25.07	3.17	-47.5	-60.0	3.5	1.44e+00	0	31	104	30408704	60	34900
2026-01-27 12:10:37.10	25.17	3.22	-47.2	-57.8	4.3	1.50e+00	0	31	104	30408704	60	27330
2026-01-27 12:10:38.11	25.27	3.27	-44.6	-47.8	11.9	1.28e-03	123	31	0	31457280	60	8569
2026-01-27 12:10:39.12	25.37	3.32	-41.6	-43.4	16.3	0.00e+00	122	31	0	34603008	56	6561
2026-01-27 12:10:40.13	25.47	3.36	-41.2	-42.9	16.9	0.00e+00	123	31	0	37748736	56	6177
2026-01-27 12:10:41.14	25.57	3.41	-40.8	-42.4	17.7	0.00e+00	123	32	0	40894464	54	6519
2026-01-27 12:10:42.15	25.67	3.46	-41.0	-42.6	16.8	0.00e+00	120	31	0	44040192	54	6697
2026-01-27 12:10:43.16	25.77	3.51	-41.1	-42.8	17.0	0.00e+00	122	32	0	47185920	54	6841
2026-01-27 12:10:44.17	25.87	3.56	-42.1	-44.0	15.9	0.00e+00	123	32	0	50331648	56	6997
2026-01-27 12:10:45.18	25.97	3.61	-42.1	-44.0	15.8	0.00e+00	123	31	0	53477376	56	7006
2026-01-27 12:10:46.19	26.07	3.66	-42.1	-44.0	16.0	0.00e+00	123	31	0	56623104	56	7007
2026-01-27 12:10:47.20	26.17	3.71	-41.3	-43.0	16.9	0.00e+00	122	32	0	59768832	56	6236
2026-01-27 12:10:48.21	26.27	3.76	-39.8	-41.2	18.6	0.00e+00	122	31	0	62914560	54	5698
2026-01-27 12:10:49.22	26.37	3.81	-40.5	-42.0	18.0	0.00e+00	122	31	0	66060288	52	6988
2026-01-27 12:10:50.23	26.47	3.85	-40.3	-41.8	17.9	0.00e+00	120	31	0	69206016	52	6880
2026-01-27 12:10:51.24	26.58	3.90	-40.6	-42.2	17.8	0.00e+00	123	31	0	72351744	54	6372
2026-01-27 12:10:52.25	26.68	3.95	-40.8	-42.4	17.2	0.00e+00	120	31	0	75497472	54	6522
2026-01-27 12:10:53.26	26.78	4.00	-39.7	-41.1	18.7	0.00e+00	123	32	0	78643200	52	6324
2026-01-27 12:10:54.27	26.89	4.05	-39.3	-40.6	19.1	0.00e+00	123	32	0	81788928	52	5978
2026-01-27 12:10:55.28	26.99	4.10	-39.1	-40.4	19.2	0.00e+00	122	32	0	84934656	52	5839
2026-01-27 12:10:56.29	27.09	4.15	-39.3	-40.6	19.2	0.00e+00	123	32	0	88080384	52	5979
2026-01-27 12:10:57.30	27.20	4.20	-39.4	-40.8	19.1	0.00e+00	123	32	0	91226112	52	6093
2026-01-27 12:10:58.31	27.30	4.25	-39.1	-40.4	19.3	0.00e+00	121	32	0	94371840	52	5831
2026-01-27 12:10:59.32	27.41	4.30	-39.7	-41.1	18.8	0.00e+00	123	32	0	97517568	52	6317
2026-01-27 12:11:00.33	27.51	4.35	-39.6	-41.0	18.7	0.00e+00	122	32	0	100663296	52	6232
2026-01-27 12:11:01.34	27.62	4.40	-39.6	-41.0	18.8	0.00e+00	123	31	0	103809024	52	6245
2026-01-27 12:11:02.35	27.73	4.45	-39.4	-40.8	19.0	0.00e+00	122	32	0	106954752	52	6098
2026-01-27 12:11:03.36	27.83	4.49	-40.1	-41.5	18.3	0.00e+00	122	32	0	110100480	52	6604
2026-01-27 12:11:04.37	27.94	4.54	-38.8	-40.1	19.7	0.00e+00	123	32	0	113246208	50	6308
2026-01-27 12:11:05.38	28.05	4.59	-38.8	-40.1	19.6	0.00e+00	123	32	0	116391936	50	6305
2026-01-27 12:11:06.39	28.15	4.64	-38.9	-40.2	19.5	0.00e+00	120	32	0	119537664	50	6357
2026-01-27 12:11:07.40	28.26	4.69	-39.0	-40.2	19.6	0.00e+00	124	32	0	122683392	50	6398
2026-01-27 12:11:08.41	28.37	4.74	-38.6	-39.8	20.1	0.00e+00	122	32	0	125829120	50	6110
2026-01-27 12:11:09.42	28.48	4.79	-38.1	-39.2	20.5	0.00e+00	120	32	0	128974848	50	5724
2026-01-27 12:11:10.43	28.59	4.84	-37.8	-39.0	20.6	0.00e+00	123	32	0	132120576	50	5563
2026-01-27 12:11:11.44	28.70	4.89	-37.8	-39.0	20.8	0.00e+00	122	32	0	135266304	50	5535
2026-01-27 12:11:12.45	28.81	4.94	-37.8	-39.0	20.7	0.00e+00	123	32	0	138412032	50	5543
2026-01-27 12:11:13.46	28.92	4.99	-37.9	-39.0	20.8	0.00e+00	122	32	0	141557760	50	5566
2026-01-27 12:11:14.47	29.03	5.04	-38.2	-39.4	20.5	0.00e+00	120	32	0	144703488	50	5810
2026-01-27 12:11:15.48	29.14	5.09	-38.1	-39.3	20.5	0.00e+00	122	32	0	147849216	50	5735
2026-01-27 12:11:16.49	29.25	5.14	-38.2	-39.3	20.5	0.00e+00	122	32	0	150994944	50	5775
2026-01-27 12:11:17.50	29.36	5.19	-37.5	-38.7	21.0	0.00e+00	123	32	0	154140672	48	5995
2026-01-27 12:11:18.51	29.47	5.23	-37.5	-38.7	21.0	0.00e+00	123	32	0	157286400	48	6003
2026-01-27 12:11:19.52	29.58	5.28	-37.5	-38.6	21.0	0.00e+00	123	32	0	160432128	48	5988
2026-01-27 12:11:20.53	29.70	5.33	-37.6	-38.7	20.9	0.00e+00	122	32	0	163577856	48	6039
2026-01-27 12:11:21.54	29.81	5.38	-37.5	-38.6	21.0	0.00e+00	122	32	0	166723584	48	5989
2026-01-27 12:11:22.55	29.92	5.43	-37.5	-38.6	21.1	0.00e+00	123	32	0	169869312	48	5946
2026-01-27 12:11:23.57	30.04	5.48	-37.3	-38.4	21.3	0.00e+00	123	32	0	173015040	48	5847
2026-01-27 12:11:24.58	30.15	5.53	-37.6	-38.8	21.0	0.00e+00	123	32	0	176160768	48	6078
2026-01-27 12:11:25.59	30.26	5.58	-37.5	-38.7	21.1	0.00e+00	123	32	0	179306496	48	5996
2026-01-27 12:11:26.60	30.38	5.63	-37.7	-38.8	21.1	0.00e+00	122	32	0	182452224	48	6081
2026-01-27 12:11:27.61	30.49	5.68	-37.2	-38.3	21.5	0.00e+00	123	32	0	185597952	48	5737
2026-01-27 12:11:28.62	30.61	5.73	-37.3	-38.4	21.4	0.00e+00	123	32	0	188743680	48	5840
2026-01-27 12:11:29.62	30.72	5.78	-37.3	-38.4	21.4	0.00e+00	123	32	0	191889408	48	5834
2026-01-27 12:11:30.64	30.84	5.83	-37.4	-38.4	21.3	0.00e+00	123	32	0	195035136	48	5848
2026-01-27 12:11:31.64	30.96	5.88	-37.0	-38.1	21.6	0.00e+00	123	32	0	198180864	48	5628
2026-01-27 12:11:32.66	31.08	5.93	-37.2	-38.3	21.5	0.00e+00	123	32	0	201326592	48	5759
2026-01-27 12:11:33.67	31.19	5.98	-37.3	-38.4	21.4	0.00e+00	123	32	0	204472320	48	5817
2026-01-27 12:11:34.68	31.31	6.03	-37.2	-38.3	21.5	0.00e+00	123	32	0	207618048	48	5749
2026-01-27 12:11:35.69	31.43	6.08	-37.2	-38.3	21.4	0.00e+00	120	32	0	210763776	48	5759
2026-01-27 12:11:36.70	31.55	6.13	-37.3	-38.3	21.5	0.00e+00	120	32	0	213909504	48	5789
2026-01-27 12:11:37.71	31.67	6.17	-37.0	-38.1	21.7	0.00e+00	123	32	0	217055232	48	5600
2026-01-27 12:11:38.72	31.79	6.22	-37.2	-38.3	21.4	0.00e+00	123	32	0	221249536	48	5763
2026-01-27 12:11:39.72	31.90	6.27	-37.4	-38.5	21.5	0.00e+00	122	32	0	224395264	48	5895
2026-01-27 12:11:40.74	32.02	6.32	-37.3	-38.4	21.5	0.00e+00	122	32	0	226492416	48	5793
2026-01-27 12:11:41.75	32.15	6.37	-36.8	-37.8	22.0	0.00e+00	123	32	0	229638144	48	5424
2026-01-27 12:11:42.76	32.27	6.42	-36.9	-37.9	21.9	0.00e+00	121	32	0	232783872	46	6191
2026-01-27 12:11:43.77	32.39	6.47	-36.7	-37.8	22.0	0.00e+00	122	32	0	236978176	46	6069
2026-01-27 12:11:44.78	32.51	6.52	-36.7	-37.7	22.0	0.00e+00	122	32	0	240123904	46	6063
2026-01-27 12:11:45.79	32.63	6.57	-36.7	-37.8	22.0	0.00e+00	123	32	0	243269632	46	6074
2026-01-27 12:11:46.80	32.75	6.62	-37.0	-38.0	21.8	0.00e+00	123	32	0	246415360	46	6251
2026-01-27 12:11:47.81	32.88	6.67	-37.0	-38.0	21.8	0.00e+00	123	32	0	249561088	46	6257
2026-01-27 12:11:48.82	33.00	6.72	-37.2	-38.2	21.6	0.00e+00	122	32	0	252706816	46	6409
2026-01-27 12:11:49.83	33.12	6.77	-37.3	-38.4	21.5	0.00e+00	123	32	0	255852544	46	6554
2026-01-27 12:11:50.84	33.25	6.82	-37.1	-38.1	21.7	0.00e+00	122	32	0	258998272	46	6326
2026-01-27 12:11:51.85	33.37	6.87	-37.2	-38.3	21.6	0.00e+00	123	32	0	262144000	46	6450
2026-01-27 12:11:52.86	33.50	6.91	-36.9	-38.0	21.8	0.00e+00	122	32	0	265289728	46	6231
2026-01-27 12:11:53.86	33.62	6.96	-36.8	-37.9	21.9	0.00e+00	123	32	0	268435456	46	6164
2026-01-27 12:11:54.88	33.75	7.01	-36.8	-37.9	21.9	0.00e+00	123	32	0	271581184	46	6164
2026-01-27 12:11:55.88	33.87	7.06	-37.0	-38.1	21.8	0.00e+00	123	32	0	274726912	46	6281
2026-01-27 12:11:56.89	34.00	7.11	-36.9	-37.9	21.9	0.00e+00	122	32	0	277872640	46	6182
2026-01-27 12:11:57.90	34.12	7.16	-37.0	-38.1	21.7	0.00e+00	122	32	0	281018368	46	6313
2026-01-27 12:11:58.91	34.25	7.21	-37.0	-38.1	21.8	0.00e+00	120	32	0	284164096	46	6312
2026-01-27 12:11:59.92	34.38	7.26	-37.2	-38.2	21.6	0.00e+00	122	32	0	287309824	46	6404
2026-01-27 12:12:00.93	34.51	7.31	-37.1	-38.2	21.7	0.00e+00	123	32	0	290455552	46	6394
2026-01-27 12:12:01.95	34.64	7.36	-37.2	-38.2	21.7	0.00e+00	120	32	0	293601280	46	6407
2026-01-27 12:12:02.96	34.77	7.41	-37.0	-38.1	21.8	0.00e+00	122	32	0	296747008	46	6318
2026-01-27 12:12:03.97	34.90	7.45	-36.8	-37.9	22.0	0.00e+00	120	32	0	299892736	46	6141
2026-01-27 12:12:04.98	35.03	7.50	-36.8	-37.8	22.1	0.00e+00	123	32	0	303038464	46	6110
2026-01-27 12:12:05.99	35.16	7.55	-36.6	-37.6	22.3	0.00e+00	122	32	0	306184192	46	5965
2026-01-27 12:12:07.00	35.29	7.60	-36.6	-37.6	22.3	0.00e+00	123	32	0	309329920	46	5945
2026-01-27 12:12:08.01	35.42	7.65	-36.6	-37.6	22.2	0.00e+00	120	32	0	312475648	46	5943
2026-01-27 12:12:09.02	35.55	7.70	-36.6	-37.7	22.2	0.00e+00	123	32	0	315621376	46	6013
2026-01-27 12:12:10.03	35.68	7.75	-36.5	-37.6	22.3	0.00e+00	120	32	0	318767104	46	5927
2026-01-27 12:12:11.04	35.81	7.80	-36.4	-37.4	22.4	0.00e+00	122	32	0	321912832	46	5845
2026-01-27 12:12:12.05	35.94	7.85	-36.3	-37.4	22.4	0.00e+00	122	32	0	325058560	46	5803
2026-01-27 12:12:13.05	36.08	7.89	-36.4	-37.4	22.3	0.00e+00	120	32	0	328204288	46	5836
2026-01-27 12:12:14.06	36.21	7.94	-36.4	-37.4	22.4	0.00e+00	123	32	0	331350016	46	5811
2026-01-27 12:12:15.08	36.35	7.99	-36.2	-37.2	22.6	0.00e+00	120	32	0	334495744	46	5680
2026-01-27 12:12:16.09	36.48	8.04	-36.4	-37.4	22.4	0.00e+00	120	32	0	337641472	46	5805
2026-01-27 12:12:17.10	36.61	8.09	-36.3	-37.3	22.5	0.00e+00	123	32	0	340787200	46	5734
2026-01-27 12:12:18.11	36.75	8.14	-36.4	-37.4	22.5	0.00e+00	120	32	0	343932928	46	5801
2026-01-27 12:12:19.12	36.89	8.19	-36.2	-37.2	22.5	0.00e+00	123	32	0	347078656	46	5719
2026-01-27 12:12:20.13	37.02	8.23	-36.1	-37.1	22.6	0.00e+00	121	32	0	350224384	46	5634
2026-01-27 12:12:21.14	37.16	8.28	-36.3	-37.3	22.5	0.00e+00	123	32	0	353370112	46	5730
2026-01-27 12:12:22.15	37.30	8.33	-36.3	-37.3	22.5	0.00e+00	127	32	0	356515840	46	5778
2026-01-27 12:12:23.17	37.43	8.38	-36.3	-37.3	22.5	0.00e+00	122	32	0	359661568	46	5747
2026-01-27 12:12:24.18	37.57	8.43	-36.3	-37.3	22.5	0.00e+00	123	32	0	362807296	46	5781
2026-01-27 12:12:25.19	37.71	8.48	-36.2	-37.2	22.6	0.00e+00	122	32	0	365953024	46	5697
2026-01-27 12:12:26.20	37.85	8.52	-36.4	-37.4	22.5	0.00e+00	122	32	0	369098752	46	5827
2026-01-27 12:12:27.21	37.99	8.57	-36.3	-37.3	22.5	0.00e+00	123	32	0	372244480	46	5769
2026-01-27 12:12:28.22	38.13	8.62	-36.3	-37.3	22.5	0.00e+00	122	32	0	375390208	46	5754
2026-01-27 12:12:29.23	38.27	8.67	-36.3	-37.3	22.6	0.00e+00	123	32	0	378535936	46	5768
2026-01-27 12:12:30.24	38.41	8.72	-36.1	-37.1	22.7	0.00e+00	123	32	0	381681664	46	5611
2026-01-27 12:12:31.25	38.55	8.76	-36.0	-37.0	22.7	0.00e+00	123	32	0	384827392	46	5579
2026-01-27 12:12:32.26	38.69	8.81	-36.1	-37.1	22.7	0.00e+00	123	32	0	387973120	46	5613
2026-01-27 12:12:33.27	38.83	8.86	-36.2	-37.2	22.7	0.00e+00	122	32	0	391118848	46	5674
2026-01-27 12:12:34.28	38.98	8.91	-36.1	-37.1	22.8	0.00e+00	123	32	0	394264576	46	5601
2026-01-27 12:12:35.29	39.12	8.96	-36.0	-37.1	22.8	0.00e+00	123	32	0	397410304	46	5596
2026-01-27 12:12:36.30	39.26	9.00	-36.1	-37.0	22.7	0.00e+00	123	32	0	400556032	46	5584
2026-01-27 12:12:37.31	39.41	9.05	-35.8	-36.8	23.0	0.00e+00	120	32	0	403701760	46	5440
2026-01-27 12:12:38.32	39.55	9.10	-35.9	-36.9	22.9	0.00e+00	123	32	0	406847488	46	5513
2026-01-27 12:12:39.33	39.69	9.15	-36.0	-37.0	22.8	0.00e+00	122	32	0	409993216	46	5535
2026-01-27 12:12:40.34	39.84	9.19	-35.9	-36.9	22.9	0.00e+00	123	32	0	413138944	46	5507
2026-01-27 12:12:41.36	39.99	9.24	-35.7	-36.7	23.1	0.00e+00	123	32	0	416284672	46	5377
2026-01-27 12:12:42.36	40.13	9.29	-35.8	-36.8	23.0	0.00e+00	122	32	0	419430400	44	6092
2026-01-27 12:12:43.37	40.28	9.33	-35.9	-36.9	22.9	0.00e+00	122	32	0	422576128	44	6146
2026-01-27 12:12:44.38	40.42	9.38	-35.9	-36.9	22.9	0.00e+00	123	32	0	425721856	44	6147
2026-01-27 12:12:45.39	40.57	9.43	-36.0	-37.0	22.8	0.00e+00	123	32	0	428867584	44	6257
2026-01-27 12:12:46.41	40.72	9.48	-35.9	-36.9	22.8	0.00e+00	122	32	0	432013312	44	6144
2026-01-27 12:12:47.42	40.87	9.52	-35.9	-36.8	22.9	0.00e+00	123	32	0	435159040	44	6126
2026-01-27 12:12:48.43	41.02	9.57	-35.6	-36.6	23.1	0.00e+00	123	32	0	438304768	44	5962
2026-01-27 12:12:49.44	41.17	9.62	-35.7	-36.7	23.0	0.00e+00	123	32	0	441450496	44	6034
2026-01-27 12:12:50.45	41.32	9.66	-35.7	-36.7	23.1	0.00e+00	120	32	0	444596224	44	6000
2026-01-27 12:12:51.46	41.47	9.71	-35.8	-36.8	23.0	0.00e+00	123	32	0	447741952	44	6103
2026-01-27 12:12:52.47	41.62	9.76	-35.8	-36.8	23.0	0.00e+00	123	32	0	450887680	44	6086
2026-01-27 12:12:53.48	41.77	9.80	-35.8	-36.8	23.0	0.00e+00	122	32	0	454033408	44	6092
2026-01-27 12:12:54.49	41.92	9.85	-35.7	-36.7	23.1	0.00e+00	121	32	0	457179136	44	6014
2026-01-27 12:12:55.50	42.07	9.89	-35.6	-36.6	23.1	0.00e+00	122	32	0	460324864	44	5950
2026-01-27 12:12:56.51	42.22	9.94	-35.8	-36.8	23.0	0.00e+00	123	32	0	463470592	44	6066
2026-01-27 12:12:57.52	42.38	9.99	-35.9	-36.9	22.9	0.00e+00	122	32	0	466616320	44	6166
2026-01-27 12:12:58.53	42.53	10.03	-35.9	-36.8	22.9	0.00e+00	122	32	0	469762048	44	6130
2026-01-27 12:12:59.54	42.68	10.08	-35.8	-36.8	23.0	0.00e+00	122	32	0	472907776	44	6090
2026-01-27 12:13:00.55	42.84	10.12	-35.7	-36.6	23.1	0.00e+00	122	32	0	476053504	44	5982
2026-01-27 12:13:01.56	42.99	10.17	-35.6	-36.6	23.2	0.00e+00	122	32	0	479199232	44	5947
2026-01-27 12:13:02.57	43.15	10.22	-35.8	-36.7	23.1	0.00e+00	122	32	0	482344960	44	6045
2026-01-27 12:13:03.58	43.30	10.26	-35.9	-36.9	23.0	0.00e+00	120	32	0	485490688	44	6142
2026-01-27 12:13:04.59	43.46	10.31	-35.7	-36.6	23.2	0.00e+00	122	32	0	488636416	44	5979
2026-01-27 12:13:05.60	43.62	10.35	-35.7	-36.7	23.1	0.00e+00	123	32	0	491782144	44	6012
2026-01-27 12:13:06.61	43.77	10.40	-35.7	-36.7	23.1	0.00e+00	120	32	0	494927872	44	6038
2026-01-27 12:13:07.62	43.93	10.44	-35.7	-36.7	23.1	0.00e+00	122	32	0	498073600	44	6035
2026-01-27 12:13:08.63	44.09	10.49	-35.7	-36.7	23.1	0.00e+00	123	32	0	501219328	44	6009
2026-01-27 12:13:09.64	44.25	10.53	-35.8	-36.7	23.0	0.00e+00	120	32	0	504365056	44	6059
2026-01-27 12:13:10.65	44.41	10.58	-35.8	-36.8	23.0	0.00e+00	127	32	0	507510784	44	6073
2026-01-27 12:13:11.66	44.57	10.62	-35.8	-36.7	23.0	0.00e+00	122	32	0	511705088	44	6057
2026-01-27 12:13:12.67	44.73	10.67	-35.8	-36.8	23.1	0.00e+00	120	32	0	514850816	44	6080
2026-01-27 12:13:13.68	44.89	10.71	-35.7	-36.7	23.1	0.00e+00	122	32	0	517996544	44	6011
2026-01-27 12:13:14.69	45.05	10.75	-35.7	-36.7	23.1	0.00e+00	122	32	0	520093696	44	6022
2026-01-27 12:13:15.70	45.21	10.80	-35.8	-36.8	23.1	0.00e+00	123	32	0	523239424	44	6077
2026-01-27 12:13:16.71	45.37	10.84	-35.8	-36.8	23.1	0.00e+00	120	32	0	527433728	44	6082
2026-01-27 12:13:17.72	45.53	10.89	-36.0	-36.9	22.9	0.00e+00	120	32	0	530579456	44	6196
2026-01-27 12:13:18.73	45.70	10.93	-35.9	-36.9	22.9	0.00e+00	122	32	0	533725184	44	6180
2026-01-27 12:13:19.74	45.86	10.97	-35.9	-36.9	23.0	0.00e+00	123	32	0	536870912	44	6190
2026-01-27 12:13:20.75	46.02	11.02	-36.0	-37.0	23.0	0.00e+00	120	32	0	540016640	44	6225
2026-01-27 12:13:21.76	46.19	11.06	-36.0	-36.9	22.9	0.00e+00	122	32	0	543162368	44	6191
2026-01-27 12:13:22.77	46.35	11.10	-35.8	-36.7	23.2	0.00e+00	122	32	0	546308096	44	6062
2026-01-27 12:13:23.78	46.52	11.15	-35.7	-36.6	23.3	0.00e+00	123	32	0	549453824	44	5990
2026-01-27 12:13:24.79	46.68	11.19	-35.7	-36.7	23.2	0.00e+00	122	32	0	552599552	44	6017
2026-01-27 12:13:25.80	46.85	11.23	-35.6	-36.6	23.2	0.00e+00	122	32	0	555745280	44	5956
2026-01-27 12:13:26.81	47.02	11.28	-35.6	-36.6	23.2	0.00e+00	122	32	0	558891008	44	5957
2026-01-27 12:13:27.82	47.18	11.32	-35.6	-36.6	23.2	0.00e+00	120	32	0	562036736	44	5952
2026-01-27 12:13:28.83	47.35	11.36	-35.6	-36.6	23.3	0.00e+00	122	32	0	565182464	44	5958
2026-01-27 12:13:29.84	47.52	11.40	-35.6	-36.6	23.2	0.00e+00	123	32	0	568328192	44	5952
2026-01-27 12:13:30.85	47.69	11.45	-35.5	-36.4	23.4	0.00e+00	122	32	0	571473920	44	5837
2026-01-27 12:13:31.86	47.86	11.49	-35.6	-36.6	23.2	0.00e+00	122	32	0	574619648	44	5950
2026-01-27 12:13:32.87	48.03	11.53	-35.7	-36.7	23.2	0.00e+00	123	32	0	577765376	44	6006
2026-01-27 12:13:33.88	48.20	11.57	-35.8	-36.7	23.1	0.00e+00	123	32	0	580911104	44	6053
2026-01-27 12:13:34.90	48.37	11.61	-35.7	-36.6	23.1	0.00e+00	121	32	0	584056832	44	5973
2026-01-27 12:13:35.91	48.54	11.65	-35.8	-36.7	23.2	0.00e+00	123	32	0	587202560	44	6035
2026-01-27 12:13:36.92	48.71	11.70	-35.8	-36.7	23.3	0.00e+00	120	32	0	590348288	44	6056
2026-01-27 12:13:37.93	48.88	11.74	-35.9	-36.8	23.1	0.00e+00	122	32	0	593494016	44	6118
2026-01-27 12:13:38.94	49.05	11.78	-35.9	-36.9	23.0	0.00e+00	120	32	0	596639744	44	6151
2026-01-27 12:13:39.95	49.23	11.82	-35.8	-36.8	23.1	0.00e+00	123	32	0	599785472	44	6118
2026-01-27 12:13:40.96	49.40	11.86	-36.0	-36.9	23.0	0.00e+00	123	32	0	602931200	44	6191
2026-01-27 12:13:41.97	49.57	11.90	-36.0	-37.0	22.9	0.00e+00	123	32	0	606076928	44	6222
2026-01-27 12:13:42.98	49.75	11.94	-35.8	-36.7	23.1	0.00e+00	120	32	0	609222656	44	6050
2026-01-27 12:13:43.99	49.92	11.98	-35.9	-36.8	23.0	0.00e+00	123	32	0	612368384	44	6131
2026-01-27 12:13:45.00	50.10	12.02	-35.8	-36.8	23.1	0.00e+00	120	32	0	615514112	44	6093
2026-01-27 12:13:46.01	50.27	12.06	-35.7	-36.6	23.2	0.00e+00	123	32	0	618659840	44	5974
2026-01-27 12:13:47.02	50.45	12.10	-35.7	-36.6	23.2	0.00e+00	120	32	0	621805568	44	5968
2026-01-27 12:13:48.03	50.62	12.14	-35.7	-36.7	23.1	0.00e+00	122	32	0	624951296	44	6025
2026-01-27 12:13:49.04	50.80	12.18	-35.7	-36.6	23.2	0.00e+00	122	32	0	628097024	44	5965
2026-01-27 12:13:50.05	50.98	12.22	-35.8	-36.8	23.1	0.00e+00	123	32	0	631242752	44	6083
2026-01-27 12:13:51.06	51.16	12.26	-35.9	-36.8	23.0	0.00e+00	123	32	0	634388480	44	6130
2026-01-27 12:13:52.07	51.33	12.29	-35.6	-36.6	23.3	0.00e+00	123	32	0	637534208	44	5959
2026-01-27 12:13:53.08	51.51	12.33	-35.7	-36.7	23.2	0.00e+00	123	32	0	640679936	44	6011
2026-01-27 12:13:54.09	51.69	12.37	-35.7	-36.6	23.2	0.00e+00	123	32	0	643825664	44	5972
2026-01-27 12:13:55.10	51.87	12.41	-35.7	-36.6	23.2	0.00e+00	120	32	0	646971392	44	5991
2026-01-27 12:13:56.11	52.05	12.45	-35.7	-36.7	23.2	0.00e+00	123	32	0	650117120	44	5999
2026-01-27 12:13:57.12	52.23	12.48	-35.6	-36.6	23.2	0.00e+00	123	32	0	653262848	44	5927
2026-01-27 12:13:58.13	52.41	12.52	-35.3	-36.3	23.4	0.00e+00	122	32	0	656408576	44	5733
2026-01-27 12:13:59.14	52.59	12.56	-35.4	-36.4	23.3	0.00e+00	123	32	0	659554304	44	5792
2026-01-27 12:14:00.15	52.78	12.60	-35.5	-36.4	23.2	0.00e+00	123	32	0	662700032	44	5837
2026-01-27 12:14:01.16	52.96	12.63	-35.4	-36.4	23.3	0.00e+00	122	32	0	665845760	44	5802
2026-01-27 12:14:02.17	53.14	12.67	-35.5	-36.4	23.1	0.00e+00	123	32	0	668991488	44	5845
2026-01-27 12:14:03.19	53.33	12.71	-35.6	-36.5	23.2	0.00e+00	123	32	0	672137216	44	5925
2026-01-27 12:14:04.19	53.51	12.74	-35.7	-36.7	23.1	0.00e+00	120	32	0	675282944	44	6001
2026-01-27 12:14:05.20	53.69	12.78	-35.6	-36.6	23.2	0.00e+00	123	32	0	678428672	44	5963
2026-01-27 12:14:06.22	53.88	12.82	-35.4	-36.3	23.4	0.00e+00	123	32	0	681574400	44	5785
2026-01-27 12:14:07.22	54.06	12.85	-35.5	-36.4	23.4	0.00e+00	123	32	0	684720128	44	5826
2026-01-27 12:14:08.24	54.25	12.89	-35.4	-36.3	23.4	0.00e+00	120	32	0	687865856	44	5791
2026-01-27 12:14:09.25	54.43	12.92	-35.4	-36.3	23.4	0.00e+00	123	32	0	691011584	44	5787
2026-01-27 12:14:10.26	54.62	12.96	-35.3	-36.3	23.4	0.00e+00	121	32	0	694157312	44	5750
2026-01-27 12:14:11.27	54.81	12.99	-35.3	-36.3	23.4	0.00e+00	123	32	0	697303040	44	5747
2026-01-27 12:14:12.28	54.99	13.03	-35.4	-36.3	23.4	0.00e+00	122	32	0	700448768	44	5756
2026-01-27 12:14:13.29	55.18	13.06	-35.4	-36.4	23.3	0.00e+00	122	32	0	703594496	44	5814
2026-01-27 12:14:14.30	55.37	13.09	-35.7	-36.6	23.2	0.00e+00	123	32	0	706740224	44	5969
2026-01-27 12:14:15.31	55.56	13.13	-35.7	-36.7	23.1	0.00e+00	122	32	0	709885952	44	6020
2026-01-27 12:14:16.32	55.75	13.16	-35.7	-36.7	23.1	0.00e+00	122	32	0	713031680	44	6025
2026-01-27 12:14:17.33	55.94	13.19	-35.7	-36.7	23.3	0.00e+00	122	32	0	716177408	44	6026
2026-01-27 12:14:18.34	56.13	13.23	-35.5	-36.5	23.4	0.00e+00	120	32	0	719323136	44	5867
2026-01-27 12:14:19.35	56.32	13.26	-35.5	-36.5	23.4	0.00e+00	123	32	0	722468864	44	5863
2026-01-27 12:14:20.36	56.51	13.29	-35.4	-36.3	23.5	0.00e+00	122	32	0	725614592	44	5774
2026-01-27 12:14:21.37	56.70	13.33	-35.2	-36.1	23.6	0.00e+00	123	32	0	728760320	44	5631
2026-01-27 12:14:22.37	56.89	13.36	-35.3	-36.2	23.5	0.00e+00	123	32	0	731906048	44	5718
2026-01-27 12:14:23.39	57.08	13.39	-35.4	-36.4	23.4	0.00e+00	121	32	0	735051776	44	5795
2026-01-27 12:14:24.40	57.27	13.42	-35.4	-36.4	23.4	0.00e+00	120	32	0	738197504	44	5833
2026-01-27 12:14:25.41	57.46	13.45	-35.4	-36.3	23.4	0.00e+00	123	32	0	741343232	44	5788
2026-01-27 12:14:26.42	57.66	13.48	-35.4	-36.3	23.5	0.00e+00	122	32	0	744488960	44	5773
2026-01-27 12:14:27.43	57.85	13.52	-35.4	-36.4	23.3	0.00e+00	122	32	0	747634688	44	5822
2026-01-27 12:14:28.44	58.04	13.55	-35.2	-36.2	23.6	0.00e+00	123	32	0	750780416	44	5675
2026-01-27 12:14:29.45	58.24	13.58	-35.2	-36.1	23.6	0.00e+00	123	32	0	753926144	44	5645
2026-01-27 12:14:30.46	58.43	13.61	-35.3	-36.2	23.6	0.00e+00	122	32	0	757071872	44	5685
2026-01-27 12:14:31.47	58.63	13.64	-35.2	-36.2	23.6	0.00e+00	123	32	0	760217600	44	5668
2026-01-27 12:14:32.48	58.82	13.67	-35.1	-36.0	23.7	0.00e+00	122	32	0	763363328	44	5563
2026-01-27 12:14:33.49	59.02	13.70	-35.1	-36.0	23.7	0.00e+00	123	32	0	766509056	44	5565
2026-01-27 12:14:34.50	59.21	13.72	-35.1	-36.0	23.7	0.00e+00	122	32	0	769654784	44	5564
2026-01-27 12:14:35.51	59.41	13.75	-35.1	-36.0	23.6	0.00e+00	123	32	0	772800512	44	5553
2026-01-27 12:14:36.52	59.61	13.78	-35.1	-36.0	23.5	0.00e+00	122	32	0	775946240	44	5588
2026-01-27 12:14:37.53	59.80	13.81	-35.2	-36.1	23.5	0.00e+00	122	32	0	779091968	44	5635
2026-01-27 12:14:38.54	60.00	13.84	-35.1	-36.1	23.5	0.00e+00	122	32	0	782237696	44	5620
2026-01-27 12:14:39.55	60.20	13.87	-35.2	-36.1	23.6	0.00e+00	120	32	0	785383424	44	5655
2026-01-27 12:14:40.56	60.40	13.89	-35.2	-36.2	23.5	0.00e+00	122	32	0	788529152	44	5669
2026-01-27 12:14:41.57	60.60	13.92	-35.3	-36.2	23.6	0.00e+00	122	32	0	791674880	44	5715
2026-01-27 12:14:42.58	60.80	13.95	-35.4	-36.3	23.6	0.00e+00	123	32	0	794820608	44	5791
2026-01-27 12:14:43.59	60.99	13.97	-35.3	-36.2	23.5	0.00e+00	123	32	0	797966336	44	5717
2026-01-27 12:14:44.60	61.19	14.00	-35.3	-36.2	23.5	0.00e+00	123	32	0	801112064	44	5724
2026-01-27 12:14:45.61	61.39	14.03	-35.0	-36.0	23.7	0.00e+00	123	32	0	805306368	44	5547
2026-01-27 12:14:46.62	61.59	14.05	-35.2	-36.1	23.4	0.00e+00	123	32	0	808452096	44	5654
2026-01-27 12:14:47.63	61.80	14.08	-35.3	-36.3	23.4	0.00e+00	122	32	0	811597824	44	5762
2026-01-27 12:14:48.64	62.00	14.10	-35.4	-36.3	23.3	0.00e+00	123	32	0	813694976	44	5772
2026-01-27 12:14:49.65	62.20	14.13	-34.9	-35.9	23.7	0.00e+00	123	32	0	816840704	44	5481
2026-01-27 12:14:50.66	62.40	14.15	-35.0	-35.9	23.6	0.00e+00	122	32	0	821035008	44	5527
2026-01-27 12:14:51.67	62.60	14.18	-35.1	-36.0	23.6	0.00e+00	123	32	0	824180736	44	5587
2026-01-27 12:14:52.68	62.80	14.20	-35.0	-35.9	23.7	0.00e+00	123	32	0	827326464	44	5493
2026-01-27 12:14:53.69	63.01	14.22	-35.0	-35.9	23.8	0.00e+00	122	32	0	830472192	44	5499
2026-01-27 12:14:54.70	63.21	14.25	-34.8	-35.8	23.9	0.00e+00	122	32	0	833617920	44	5408
2026-01-27 12:14:55.71	63.41	14.27	-34.9	-35.8	23.9	0.00e+00	120	32	0	836763648	44	5426
2026-01-27 12:14:56.72	63.62	14.29	-34.9	-35.8	23.8	0.00e+00	122	32	0	839909376	44	5436
2026-01-27 12:14:57.74	63.82	14.31	-34.9	-35.8	23.8	0.00e+00	120	32	0	843055104	44	5464
2026-01-27 12:14:58.75	64.03	14.34	-35.0	-35.9	23.7	0.00e+00	123	32	0	846200832	44	5515
2026-01-27 12:14:59.76	64.23	14.36	-35.5	-36.5	23.4	0.00e+00	122	32	0	849346560	44	5890
2026-01-27 12:15:00.77	64.43	14.38	-35.2	-36.1	23.6	0.00e+00	123	32	0	852492288	44	5626
2026-01-27 12:15:01.78	64.64	14.40	-35.3	-36.3	23.5	0.00e+00	123	32	0	855638016	44	5733
2026-01-27 12:15:02.79	64.85	14.42	-35.1	-36.0	23.6	0.00e+00	123	32	0	858783744	44	5578
2026-01-27 12:15:03.80	65.05	14.44	-35.0	-35.9	23.7	0.00e+00	122	32	0	861929472	44	5509
2026-01-27 12:15:04.81	65.26	14.46	-35.0	-35.9	23.8	0.00e+00	122	32	0	865075200	44	5481
2026-01-27 12:15:05.82	65.46	14.48	-34.9	-35.8	23.8	0.00e+00	123	32	0	868220928	44	5441
2026-01-27 12:15:06.83	65.67	14.50	-34.9	-35.8	23.8	0.00e+00	122	32	0	871366656	44	5430
2026-01-27 12:15:07.84	65.88	14.52	-34.9	-35.9	23.7	0.00e+00	123	32	0	874512384	44	5477
2026-01-27 12:15:08.85	66.08	14.54	-35.0	-36.0	23.7	0.00e+00	122	32	0	877658112	44	5532
2026-01-27 12:15:09.86	66.29	14.56	-35.0	-35.9	23.7	0.00e+00	122	32	0	880803840	44	5493
2026-01-27 12:15:10.87	66.50	14.58	-34.9	-35.9	23.7	0.00e+00	122	32	0	883949568	44	5493
2026-01-27 12:15:11.88	66.71	14.59	-34.8	-35.7	23.9	0.00e+00	120	32	0	887095296	44	5378
2026-01-27 12:15:12.89	66.91	14.61	-34.8	-35.7	23.8	0.00e+00	122	32	0	890241024	44	5387
2026-01-27 12:15:13.90	67.12	14.63	-34.8	-35.8	23.8	0.00e+00	120	32	0	893386752	44	5406
2026-01-27 12:15:14.91	67.33	14.64	-34.8	-35.7	23.8	0.00e+00	123	32	0	896532480	44	5385
2026-01-27 12:15:15.92	67.54	14.66	-34.8	-35.8	23.7	0.00e+00	122	32	0	899678208	44	5426
2026-01-27 12:15:16.93	67.75	14.68	-34.9	-35.8	23.7	0.00e+00	123	32	0	902823936	44	5442
2026-01-27 12:15:17.94	67.96	14.69	-35.0	-35.9	23.7	0.00e+00	120	32	0	905969664	44	5515
2026-01-27 12:15:18.95	68.17	14.71	-35.0	-35.9	23.8	0.00e+00	123	32	0	909115392	44	5520
2026-01-27 12:15:19.96	68.38	14.72	-35.0	-35.9	23.7	0.00e+00	123	32	0	912261120	44	5518
2026-01-27 12:15:20.97	68.58	14.74	-34.9	-35.8	23.8	0.00e+00	122	32	0	915406848	44	5464
2026-01-27 12:15:21.98	68.79	14.75	-35.1	-36.1	23.7	0.00e+00	122	32	0	918552576	44	5598
2026-01-27 12:15:22.99	69.00	14.77	-34.9	-35.9	23.8	0.00e+00	123	32	0	921698304	44	5479
2026-01-27 12:15:24.00	69.22	14.78	-35.2	-36.1	23.6	0.00e+00	123	32	0	924844032	44	5637
2026-01-27 12:15:25.01	69.43	14.79	-35.1	-36.0	23.7	0.00e+00	123	32	0	927989760	44	5574
2026-01-27 12:15:26.02	69.64	14.81	-35.0	-36.0	23.6	0.00e+00	122	32	0	931135488	44	5540
2026-01-27 12:15:27.03	69.85	14.82	-35.0	-35.9	23.5	0.00e+00	122	32	0	934281216	44	5515
2026-01-27 12:15:28.05	70.06	14.83	-35.3	-36.2	23.4	0.00e+00	122	32	0	937426944	44	5701
2026-01-27 12:15:29.05	70.27	14.84	-35.4	-36.3	23.3	0.00e+00	122	32	0	940572672	44	5782
2026-01-27 12:15:30.06	70.48	14.85	-35.4	-36.4	23.3	0.00e+00	123	32	0	943718400	44	5797
2026-01-27 12:15:31.07	70.69	14.87	-35.4	-36.3	23.4	0.00e+00	123	32	0	946864128	44	5777
2026-01-27 12:15:32.08	70.90	14.88	-35.4	-36.3	23.4	0.00e+00	123	32	0	950009856	44	5766
2026-01-27 12:15:33.09	71.12	14.89	-35.1	-36.0	23.5	0.00e+00	122	32	0	953155584	44	5579
2026-01-27 12:15:34.10	71.33	14.90	-35.0	-36.0	23.6	0.00e+00	123	32	0	956301312	44	5537
2026-01-27 12:15:35.11	71.54	14.91	-35.1	-36.0	23.6	0.00e+00	120	32	0	959447040	44	5566
2026-01-27 12:15:36.12	71.75	14.92	-35.1	-36.0	23.6	0.00e+00	123	32	0	962592768	44	5578
2026-01-27 12:15:37.14	71.97	14.93	-35.2	-36.1	23.5	0.00e+00	121	32	0	965738496	44	5636
2026-01-27 12:15:38.14	72.18	14.93	-35.2	-36.1	23.5	0.00e+00	123	32	0	968884224	44	5652
2026-01-27 12:15:39.15	72.39	14.94	-35.4	-36.3	23.5	0.00e+00	123	32	0	972029952	44	5764
2026-01-27 12:15:40.16	72.60	14.95	-35.2	-36.2	23.6	0.00e+00	120	32	0	975175680	44	5673
2026-01-27 12:15:41.17	72.82	14.96	-35.1	-36.1	23.6	0.00e+00	120	32	0	978321408	44	5608
2026-01-27 12:15:42.18	73.03	14.97	-35.3	-36.2	23.6	0.00e+00	123	32	0	981467136	44	5699
2026-01-27 12:15:43.19	73.24	14.97	-35.3	-36.2	23.5	0.00e+00	123	32	0	984612864	44	5703
2026-01-27 12:15:44.20	73.46	14.98	-35.4	-36.4	23.3	0.00e+00	123	32	0	987758592	44	5822
2026-01-27 12:15:45.22	73.67	14.98	-35.4	-36.4	23.4	0.00e+00	123	32	0	990904320	44	5794
2026-01-27 12:15:46.23	73.88	14.99	-35.2	-36.2	23.6	0.00e+00	123	32	0	994050048	44	5675
2026-01-27 12:15:47.24	74.10	15.00	-35.2	-36.1	23.6	0.00e+00	123	32	0	997195776	44	5639
2026-01-27 12:15:48.25	74.31	15.00	-35.3	-36.2	23.6	0.00e+00	120	32	0	1000341504	44	5709
2026-01-27 12:15:49.26	74.52	15.01	-35.2	-36.1	23.6	0.00e+00	123	32	0	1003487232	44	5638
2026-01-27 12:15:50.27	74.74	15.01	-35.1	-36.0	23.7	0.00e+00	123	32	0	1006632960	44	5565
2026-01-27 12:15:51.28	74.95	15.01	-35.2	-36.1	23.6	0.00e+00	122	32	0	1009778688	44	5619
2026-01-27 12:15:52.29	75.17	15.02	-35.1	-36.0	23.7	0.00e+00	123	32	0	1012924416	44	5591
2026-01-27 12:15:53.30	75.38	15.02	-35.0	-36.0	23.7	0.00e+00	122	32	0	1016070144	44	5552
2026-01-27 12:15:54.31	75.59	15.02	-35.2	-36.2	23.5	0.00e+00	122	32	0	1019215872	44	5688
2026-01-27 12:15:55.32	75.81	15.03	-35.5	-36.5	23.4	0.00e+00	120	32	0	1022361600	44	5860
2026-01-27 12:15:56.33	76.02	15.03	-35.5	-36.4	23.5	0.00e+00	122	32	0	1025507328	44	5826
2026-01-27 12:15:57.34	76.24	15.03	-35.1	-36.0	23.7	0.00e+00	120	32	0	1028653056	44	5559
2026-01-27 12:15:58.35	76.45	15.03	-35.2	-36.1	23.6	0.00e+00	122	32	0	1031798784	44	5654
2026-01-27 12:15:59.36	76.66	15.03	-35.1	-36.0	23.7	0.00e+00	122	32	0	1034944512	44	5566
2026-01-27 12:16:00.37	76.88	15.03	-35.1	-36.0	23.7	0.00e+00	122	32	0	1038090240	44	5558
2026-01-27 12:16:01.38	77.09	15.03	-35.0	-35.9	23.8	0.00e+00	123	32	0	1041235968	44	5498
2026-01-27 12:16:02.39	77.31	15.03	-34.9	-35.8	23.8	0.00e+00	122	32	0	1044381696	44	5454
2026-01-27 12:16:03.40	77.52	15.03	-34.8	-35.7	23.9	0.00e+00	122	32	0	1047527424	44	5359
2026-01-27 12:16:04.41	77.73	15.03	-34.8	-35.7	23.9	0.00e+00	120	32	0	1050673152	42	6049
2026-01-27 12:16:05.42	77.95	15.03	-34.8	-35.7	24.0	0.00e+00	122	32	0	1053818880	42	6040
2026-01-27 12:16:06.43	78.16	15.03	-34.8	-35.7	24.0	0.00e+00	119	32	0	1056964608	42	6023
2026-01-27 12:16:07.44	78.38	15.03	-34.8	-35.7	24.0	0.00e+00	123	32	0	1060110336	42	6031
2026-01-27 12:16:08.45	78.59	15.02	-34.9	-35.8	23.9	0.00e+00	120	32	0	1063256064	42	6097
2026-01-27 12:16:09.46	78.80	15.02	-34.9	-35.8	23.9	0.00e+00	123	32	0	1066401792	42	6108
2026-01-27 12:16:10.47	79.02	15.02	-34.9	-35.8	23.9	0.00e+00	120	32	0	1069547520	42	6129
2026-01-27 12:16:11.48	79.23	15.01	-34.9	-35.8	23.9	0.00e+00	122	32	0	1072693248	42	6134
2026-01-27 12:16:12.49	79.45	15.01	-35.0	-35.9	23.8	0.00e+00	123	32	0	1075838976	42	6171
2026-01-27 12:16:13.50	79.66	15.01	-35.0	-36.0	23.7	0.00e+00	123	32	0	1078984704	42	6213
2026-01-27 12:16:14.51	79.87	15.00	-35.1	-36.0	23.7	0.00e+00	121	32	0	1082130432	42	6250
2026-01-27 12:16:15.51	80.09	15.00	-35.1	-36.0	23.7	0.00e+00	123	32	0	1085276160	42	6236
2026-01-27 12:16:16.52	80.30	14.99	-35.0	-35.9	23.7	0.00e+00	122	32	0	1088421888	42	6195
2026-01-27 12:16:17.53	80.51	14.99	-35.0	-35.9	23.7	0.00e+00	123	32	0	1091567616	42	6191
2026-01-27 12:16:18.54	80.73	14.98	-35.1	-36.0	23.6	0.00e+00	123	32	0	1094713344	42	6254
2026-01-27 12:16:19.55	80.94	14.97	-35.1	-36.1	23.6	0.00e+00	122	32	0	1097859072	42	6307
2026-01-27 12:16:20.56	81.15	14.97	-35.2	-36.1	23.6	0.00e+00	121	32	0	1102053376	42	6343
2026-01-27 12:16:21.57	81.37	14.96	-35.2	-36.2	23.6	0.00e+00	123	32	0	1104150528	42	6356
2026-01-27 12:16:22.58	81.58	14.95	-35.2	-36.1	23.6	0.00e+00	120	32	0	1107296256	42	6350
2026-01-27 12:16:23.59	81.79	14.94	-35.2	-36.1	23.6	0.00e+00	122	32	0	1110441984	42	6342
2026-01-27 12:16:24.60	82.00	14.93	-35.3	-36.3	23.5	0.00e+00	122	32	0	1113587712	42	6448
2026-01-27 12:16:25.61	82.22	14.93	-35.2	-36.1	23.6	0.00e+00	123	32	0	1117782016	42	6324
2026-01-27 12:16:26.62	82.43	14.92	-35.0	-36.0	23.6	0.00e+00	120	32	0	1120927744	42	6214
2026-01-27 12:16:27.63	82.64	14.91	-35.2	-36.1	23.5	0.00e+00	122	32	0	1124073472	42	6340
2026-01-27 12:16:28.64	82.86	14.90	-35.2	-36.1	23.5	0.00e+00	120	32	0	1127219200	42	6324
2026-01-27 12:16:29.65	83.07	14.89	-35.3	-36.2	23.5	0.00e+00	123	32	0	1129316352	42	6399
2026-01-27 12:16:30.66	83.28	14.88	-35.2	-36.1	23.6	0.00e+00	122	32	0	1133510656	42	6324
2026-01-27 12:16:31.67	83.49	14.87	-35.2	-36.2	23.6	0.00e+00	123	32	0	1136656384	42	6374
2026-01-27 12:16:32.68	83.70	14.85	-35.4	-36.3	23.5	0.00e+00	123	32	0	1139802112	42	6474
2026-01-27 12:16:33.69	83.92	14.84	-35.1	-36.0	23.7	0.00e+00	122	32	0	1142947840	42	6230
2026-01-27 12:16:34.70	84.13	14.83	-35.0	-35.9	23.7	0.00e+00	123	32	0	1146093568	42	6179
2026-01-27 12:16:35.71	84.34	14.82	-35.1	-36.0	23.6	0.00e+00	122	32	0	1149239296	42	6277
2026-01-27 12:16:36.72	84.55	14.81	-35.2	-36.1	23.7	0.00e+00	123	32	0	1152385024	42	6344
2026-01-27 12:16:37.73	84.76	14.79	-35.1	-36.0	23.6	0.00e+00	123	32	0	1155530752	42	6247
2026-01-27 12:16:38.74	84.97	14.78	-35.3	-36.3	23.6	0.00e+00	123	32	0	1158676480	42	6425
2026-01-27 12:16:39.75	85.18	14.77	-35.0	-35.9	23.9	0.00e+00	123	32	0	1161822208	42	6171
2026-01-27 12:16:40.76	85.39	14.75	-35.0	-35.9	23.8	0.00e+00	122	32	0	1164967936	42	6164
2026-01-27 12:16:41.77	85.60	14.74	-35.0	-36.0	23.7	0.00e+00	123	32	0	1168113664	42	6206
2026-01-27 12:16:42.78	85.81	14.72	-35.2	-36.2	23.6	0.00e+00	122	32	0	1171259392	42	6382
2026-01-27 12:16:43.79	86.02	14.71	-35.0	-35.9	23.8	0.00e+00	123	32	0	1174405120	42	6186
2026-01-27 12:16:44.80	86.23	14.69	-35.1	-36.0	23.7	0.00e+00	123	32	0	1177550848	42	6254
2026-01-27 12:16:45.81	86.44	14.68	-35.2	-36.1	23.7	0.00e+00	123	32	0	1180696576	42	6319
2026-01-27 12:16:46.82	86.65	14.66	-35.1	-36.1	23.7	0.00e+00	123	32	0	1183842304	42	6305
2026-01-27 12:16:47.83	86.86	14.64	-35.1	-36.0	23.8	0.00e+00	122	32	0	1186988032	42	6251
2026-01-27 12:16:48.84	87.07	14.63	-35.1	-36.0	23.8	0.00e+00	123	32	0	1190133760	42	6273
2026-01-27 12:16:49.85	87.28	14.61	-35.0	-35.9	23.8	0.00e+00	123	32	0	1193279488	42	6194
2026-01-27 12:16:50.86	87.49	14.59	-34.9	-35.9	23.9	0.00e+00	123	32	0	1196425216	42	6155
2026-01-27 12:16:51.87	87.69	14.57	-35.0	-35.9	23.9	0.00e+00	120	32	0	1199570944	42	6204
2026-01-27 12:16:52.88	87.90	14.56	-35.0	-36.0	23.8	0.00e+00	122	32	0	1202716672	42	6211
2026-01-27 12:16:53.89	88.11	14.54	-34.9	-35.9	23.8	0.00e+00	123	32	0	1205862400	42	6147
2026-01-27 12:16:54.90	88.32	14.52	-35.0	-36.0	23.9	0.00e+00	123	32	0	1209008128	42	6231
2026-01-27 12:16:55.91	88.52	14.50	-35.0	-35.9	23.9	0.00e+00	122	32	0	1212153856	42	6198
2026-01-27 12:16:56.92	88.73	14.48	-35.0	-35.9	23.8	0.00e+00	120	32	0	1215299584	42	6203
2026-01-27 12:16:57.93	88.94	14.46	-35.0	-36.0	23.9	0.00e+00	123	32	0	1218445312	42	6223
2026-01-27 12:16:58.94	89.14	14.44	-35.1	-36.0	23.8	0.00e+00	123	32	0	1221591040	42	6271
2026-01-27 12:16:59.95	89.35	14.42	-35.3	-36.2	23.7	0.00e+00	122	32	0	1224736768	42	6393
2026-01-27 12:17:00.96	89.56	14.40	-35.0	-36.0	23.8	0.00e+00	122	32	0	1227882496	42	6209
2026-01-27 12:17:01.97	89.76	14.38	-35.2	-36.1	23.7	0.00e+00	122	32	0	1231028224	42	6330
2026-01-27 12:17:02.98	89.97	14.36	-35.2	-36.1	23.7	0.00e+00	123	32	0	1234173952	42	6348
2026-01-27 12:17:03.99	90.17	14.33	-35.0	-36.0	23.8	0.00e+00	122	32	0	1237319680	42	6215
2026-01-27 12:17:05.00	90.38	14.31	-35.1	-36.1	23.7	0.00e+00	122	32	0	1240465408	42	6305
2026-01-27 12:17:06.01	90.58	14.29	-35.1	-36.1	23.7	0.00e+00	120	32	0	1243611136	42	6278
2026-01-27 12:17:07.02	90.78	14.27	-35.1	-36.0	23.7	0.00e+00	122	32	0	1246756864	42	6269
2026-01-27 12:17:08.03	90.99	14.24	-35.2	-36.1	23.8	0.00e+00	122	32	0	1249902592	42	6327
2026-01-27 12:17:09.04	91.19	14.22	-35.0	-36.0	23.8	0.00e+00	123	32	0	1253048320	42	6218
2026-01-27 12:17:10.05	91.40	14.20	-34.8	-35.7	24.0	0.00e+00	122	32	0	1256194048	42	6061
2026-01-27 12:17:11.06	91.60	14.17	-34.9	-35.8	23.9	0.00e+00	120	32	0	1259339776	42	6094
2026-01-27 12:17:12.07	91.80	14.15	-34.9	-35.8	23.9	0.00e+00	122	32	0	1262485504	42	6123
2026-01-27 12:17:13.08	92.00	14.12	-35.1	-36.0	23.7	0.00e+00	122	32	0	1265631232	42	6259
2026-01-27 12:17:14.09	92.20	14.10	-34.9	-35.9	23.8	0.00e+00	122	32	0	1268776960	42	6152
2026-01-27 12:17:15.10	92.41	14.07	-35.1	-36.0	23.8	0.00e+00	122	32	0	1271922688	42	6263
2026-01-27 12:17:16.11	92.61	14.05	-35.0	-35.9	23.8	0.00e+00	122	32	0	1275068416	42	6199
2026-01-27 12:17:17.12	92.81	14.02	-35.0	-35.9	23.8	0.00e+00	123	32	0	1278214144	42	6167
2026-01-27 12:17:18.14	93.01	14.00	-35.1	-36.0	23.6	0.00e+00	120	32	0	1281359872	42	6263
2026-01-27 12:17:19.15	93.21	13.97	-35.1	-36.0	23.7	0.00e+00	123	32	0	1284505600	42	6275
2026-01-27 12:17:20.16	93.41	13.94	-35.1	-36.0	23.7	0.00e+00	123	32	0	1287651328	42	6253
2026-01-27 12:17:21.16	93.61	13.92	-35.4	-36.3	23.5	0.00e+00	122	32	0	1290797056	42	6480
2026-01-27 12:17:22.17	93.81	13.89	-35.1	-36.1	23.7	0.00e+00	122	32	0	1293942784	42	6303
2026-01-27 12:17:23.18	94.01	13.86	-35.0	-35.9	23.8	0.00e+00	123	32	0	1297088512	42	6204
2026-01-27 12:17:24.19	94.21	13.83	-35.2	-36.1	23.8	0.00e+00	123	32	0	1300234240	42	6326
2026-01-27 12:17:25.20	94.40	13.81	-35.2	-36.1	23.7	0.00e+00	123	32	0	1303379968	42	6334
2026-01-27 12:17:26.21	94.60	13.78	-35.2	-36.1	23.7	0.00e+00	121	32	0	1306525696	42	6346
2026-01-27 12:17:27.22	94.80	13.75	-35.3	-36.2	23.7	0.00e+00	123	32	0	1309671424	42	6398
2026-01-27 12:17:28.23	95.00	13.72	-35.2	-36.2	23.6	0.00e+00	120	32	0	1312817152	42	6366
2026-01-27 12:17:29.24	95.19	13.69	-35.1	-36.1	23.8	0.00e+00	122	32	0	1315962880	42	6295
2026-01-27 12:17:30.25	95.39	13.66	-35.0	-36.0	23.8	0.00e+00	122	32	0	1319108608	42	6220
2026-01-27 12:17:31.26	95.58	13.63	-35.1	-36.1	23.6	0.00e+00	122	32	0	1322254336	42	6280
2026-01-27 12:17:32.27	95.78	13.60	-35.1	-36.0	23.7	0.00e+00	123	32	0	1325400064	42	6258
2026-01-27 12:17:33.28	95.97	13.57	-35.0	-36.0	23.7	0.00e+00	123	32	0	1328545792	42	6218
2026-01-27 12:17:34.29	96.17	13.54	-35.0	-35.9	23.7	0.00e+00	123	32	0	1331691520	42	6203
2026-01-27 12:17:35.30	96.36	13.51	-35.1	-36.1	23.7	0.00e+00	123	32	0	1334837248	42	6280
2026-01-27 12:17:36.31	96.56	13.48	-34.9	-35.9	23.9	0.00e+00	122	32	0	1337982976	42	6140
2026-01-27 12:17:37.32	96.75	13.45	-34.9	-35.8	23.9	0.00e+00	121	32	0	1341128704	42	6090
2026-01-27 12:17:38.33	96.94	13.42	-35.0	-35.9	23.8	0.00e+00	123	32	0	1344274432	42	6183
2026-01-27 12:17:39.34	97.14	13.38	-35.0	-35.9	23.8	0.00e+00	123	32	0	1347420160	42	6191
2026-01-27 12:17:40.36	97.33	13.35	-35.2	-36.1	23.6	0.00e+00	120	32	0	1350565888	42	6309
2026-01-27 12:17:41.37	97.52	13.32	-35.0	-36.0	23.7	0.00e+00	123	32	0	1353711616	42	6223
2026-01-27 12:17:42.38	97.72	13.29	-35.1	-36.0	23.7	0.00e+00	122	32	0	1356857344	42	6242
2026-01-27 12:17:43.39	97.91	13.25	-35.1	-36.1	23.7	0.00e+00	122	32	0	1360003072	42	6289
2026-01-27 12:17:44.40	98.10	13.22	-34.9	-35.8	23.9	0.00e+00	120	32	0	1363148800	42	6083
2026-01-27 12:17:45.41	98.29	13.19	-34.8	-35.7	23.8	0.00e+00	122	32	0	1366294528	42	6053
2026-01-27 12:17:46.42	98.48	13.15	-34.8	-35.7	23.9	0.00e+00	122	32	0	1369440256	42	6036
2026-01-27 12:17:47.43	98.67	13.12	-35.0	-35.9	23.6	0.00e+00	123	32	0	1372585984	42	6205
2026-01-27 12:17:48.44	98.86	13.09	-34.8	-35.7	23.8	0.00e+00	123	32	0	1375731712	42	6051
2026-01-27 12:17:49.45	99.04	13.05	-34.9	-35.9	23.7	0.00e+00	123	32	0	1378877440	42	6147
2026-01-27 12:17:50.46	99.23	13.02	-34.9	-35.8	23.9	0.00e+00	123	32	0	1382023168	42	6091
2026-01-27 12:17:51.47	99.42	12.98	-35.0	-35.9	23.8	0.00e+00	123	32	0	1385168896	42	6181
2026-01-27 12:17:52.48	99.61	12.95	-34.9	-35.9	23.8	0.00e+00	123	32	0	1388314624	42	6140
2026-01-27 12:17:53.49	99.79	12.91	-34.9	-35.8	23.9	0.00e+00	121	32	0	1391460352	42	6120
2026-01-27 12:17:54.50	99.98	12.88	-35.0	-35.9	23.8	0.00e+00	122	32	0	1394606080	42	6187
2026-01-27 12:17:55.51	100.17	12.84	-35.1	-36.0	23.8	0.00e+00	122	32	0	1397751808	42	6217
2026-01-27 12:17:56.52	100.35	12.81	-35.1	-36.0	23.7	0.00e+00	120	32	0	1400897536	42	6243
2026-01-27 12:17:57.53	100.54	12.77	-35.1	-36.0	23.7	0.00e+00	123	32	0	1404043264	42	6263
2026-01-27 12:17:58.54	100.72	12.73	-35.0	-36.0	23.6	0.00e+00	120	32	0	1407188992	42	6207
2026-01-27 12:17:59.55	100.91	12.70	-35.0	-35.9	23.6	0.00e+00	123	32	0	1410334720	42	6187
2026-01-27 12:18:00.56	101.09	12.66	-35.1	-36.0	23.5	0.00e+00	122	32	0	1414529024	42	6243
2026-01-27 12:18:01.57	101.27	12.62	-34.9	-35.9	23.6	0.00e+00	120	32	0	1417674752	42	6145
2026-01-27 12:18:02.58	101.46	12.59	-35.1	-36.0	23.6	0.00e+00	123	32	0	1420820480	42	6235
2026-01-27 12:18:03.59	101.64	12.55	-34.9	-35.9	23.7	0.00e+00	120	32	0	1422917632	42	6146
2026-01-27 12:18:04.60	101.82	12.51	-35.0	-36.0	23.7	0.00e+00	123	32	0	1426063360	42	6237
2026-01-27 12:18:05.61	102.00	12.47	-35.1	-36.0	23.7	0.00e+00	122	32	0	1430257664	42	6251
2026-01-27 12:18:06.62	102.19	12.43	-35.0	-35.9	23.8	0.00e+00	123	32	0	1433403392	42	6196
2026-01-27 12:18:07.63	102.37	12.40	-35.1	-36.0	23.7	0.00e+00	120	32	0	1436549120	42	6275
2026-01-27 12:18:08.64	102.55	12.36	-35.2	-36.1	23.7	0.00e+00	123	32	0	1439694848	42	6335
2026-01-27 12:18:09.65	102.73	12.32	-35.2	-36.1	23.6	0.00e+00	120	32	0	1442840576	42	6339
2026-01-27 12:18:10.66	102.91	12.28	-35.4	-36.3	23.4	0.00e+00	122	32	0	1445986304	42	6496
2026-01-27 12:18:11.67	103.08	12.24	-35.4	-36.4	23.4	0.00e+00	123	32	0	1449132032	42	6555
2026-01-27 12:18:12.68	103.26	12.20	-35.5	-36.5	23.3	0.00e+00	123	32	0	1452277760	42	6589
2026-01-27 12:18:13.69	103.44	12.16	-35.4	-36.4	23.3	0.00e+00	122	32	0	1455423488	42	6571
2026-01-27 12:18:14.70	103.62	12.12	-35.4	-36.4	23.3	0.00e+00	123	32	0	1458569216	42	6535
2026-01-27 12:18:15.71	103.80	12.08	-35.5	-36.5	23.2	0.00e+00	122	32	0	1461714944	42	6591
2026-01-27 12:18:16.72	103.97	12.04	-35.3	-36.3	23.3	0.00e+00	122	32	0	1464860672	42	6483
2026-01-27 12:18:17.73	104.15	12.00	-35.4	-36.4	23.2	0.00e+00	122	32	0	1468006400	42	6519
2026-01-27 12:18:18.74	104.32	11.96	-35.2	-36.2	23.3	0.00e+00	120	32	0	1471152128	42	6388
2026-01-27 12:18:19.75	104.50	11.92	-35.3	-36.3	23.3	0.00e+00	122	32	0	1474297856	42	6435
2026-01-27 12:18:20.76	104.67	11.88	-35.1	-36.1	23.5	0.00e+00	122	32	0	1477443584	42	6325
2026-01-27 12:18:21.77	104.85	11.84	-35.3	-36.2	23.4	0.00e+00	122	32	0	1480589312	42	6414
2026-01-27 12:18:22.78	105.02	11.80	-35.3	-36.2	23.5	0.00e+00	122	32	0	1483735040	42	6408
2026-01-27 12:18:23.79	105.20	11.76	-35.4	-36.3	23.4	0.00e+00	123	32	0	1486880768	42	6467
2026-01-27 12:18:24.80	105.37	11.72	-35.5	-36.5	23.3	0.00e+00	123	32	0	1490026496	42	6579
2026-01-27 12:18:25.81	105.54	11.68	-35.5	-36.5	23.3	0.00e+00	120	32	0	1493172224	42	6574
2026-01-27 12:18:26.82	105.71	11.64	-35.6	-36.6	23.1	0.00e+00	120	32	0	1496317952	42	6650
2026-01-27 12:18:27.83	105.89	11.59	-35.7	-36.7	23.0	0.00e+00	122	32	0	1499463680	42	6739
2026-01-27 12:18:28.84	106.06	11.55	-35.3	-36.3	23.3	0.00e+00	122	32	0	1502609408	42	6465
2026-01-27 12:18:29.84	106.23	11.51	-35.6	-36.6	23.1	0.00e+00	123	32	0	1505755136	42	6676
2026-01-27 12:18:30.85	106.40	11.47	-35.6	-36.6	23.0	0.00e+00	123	32	0	1508900864	42	6669
2026-01-27 12:18:31.86	106.56	11.43	-35.7	-36.7	22.9	0.00e+00	123	32	0	1512046592	44	6036
2026-01-27 12:18:32.87	106.73	11.38	-35.5	-36.6	23.0	0.00e+00	123	32	0	1515192320	44	5930
2026-01-27 12:18:33.88	106.90	11.34	-35.7	-36.7	22.9	0.00e+00	121	32	0	1518338048	44	6037
2026-01-27 12:18:34.89	107.07	11.30	-35.8	-36.8	22.8	0.00e+00	122	32	0	1521483776	44	6119
2026-01-27 12:18:35.90	107.24	11.26	-35.7	-36.7	22.9	0.00e+00	122	32	0	1524629504	44	6025
2026-01-27 12:18:36.91	107.41	11.21	-35.8	-36.7	22.9	0.00e+00	123	32	0	1527775232	44	6064
2026-01-27 12:18:37.92	107.57	11.17	-36.0	-37.0	22.6	0.00e+00	123	32	0	1530920960	44	6250
2026-01-27 12:18:38.93	107.74	11.13	-36.0	-37.0	22.6	0.00e+00	123	32	0	1534066688	44	6249
2026-01-27 12:18:39.94	107.91	11.08	-36.0	-37.0	22.8	0.00e+00	122	32	0	1537212416	44	6232
2026-01-27 12:18:40.95	108.07	11.04	-35.8	-36.7	22.9	0.00e+00	123	32	0	1540358144	44	6062
2026-01-27 12:18:41.96	108.24	10.99	-35.7	-36.7	22.9	0.00e+00	123	32	0	1543503872	44	6029
2026-01-27 12:18:42.97	108.40	10.95	-35.8	-36.8	22.8	0.00e+00	120	32	0	1546649600	44	6109
2026-01-27 12:18:43.98	108.56	10.91	-35.9	-36.9	22.8	0.00e+00	123	32	0	1549795328	44	6192
2026-01-27 12:18:44.99	108.73	10.86	-35.9	-36.9	22.8	0.00e+00	121	32	0	1552941056	44	6137
2026-01-27 12:18:46.00	108.89	10.82	-35.9	-36.9	22.8	0.00e+00	120	32	0	1556086784	44	6181
2026-01-27 12:18:47.01	109.05	10.77	-36.0	-37.0	22.8	0.00e+00	122	32	0	1559232512	44	6207
2026-01-27 12:18:48.02	109.21	10.73	-35.8	-36.8	22.8	0.00e+00	123	32	0	1562378240	44	6091
2026-01-27 12:18:49.03	109.38	10.68	-36.0	-37.0	22.7	0.00e+00	121	32	0	1565523968	44	6243
2026-01-27 12:18:50.04	109.54	10.64	-36.0	-37.0	22.8	0.00e+00	123	32	0	1568669696	44	6207
2026-01-27 12:18:51.05	109.70	10.59	-36.0	-37.0	22.7	0.00e+00	120	32	0	1571815424	44	6238
2026-01-27 12:18:52.06	109.86	10.55	-36.1	-37.1	22.6	0.00e+00	123	32	0	1574961152	44	6292
2026-01-27 12:18:53.07	110.02	10.50	-35.9	-36.9	22.7	0.00e+00	123	32	0	1578106880	44	6164
2026-01-27 12:18:54.08	110.18	10.46	-35.8	-36.8	22.8	0.00e+00	120	32	0	1581252608	44	6131
2026-01-27 12:18:55.09	110.34	10.41	-35.9	-36.9	22.7	0.00e+00	123	32	0	1584398336	44	6205
2026-01-27 12:18:56.10	110.49	10.37	-35.9	-36.9	22.8	0.00e+00	121	32	0	1587544064	44	6151
2026-01-27 12:18:57.11	110.65	10.32	-35.9	-37.0	22.8	0.00e+00	122	32	0	1590689792	44	6220
2026-01-27 12:18:58.12	110.81	10.28	-35.8	-36.8	22.8	0.00e+00	123	32	0	1593835520	44	6131
2026-01-27 12:18:59.13	110.97	10.23	-36.0	-37.1	22.7	0.00e+00	123	32	0	1596981248	44	6291
2026-01-27 12:19:00.14	111.12	10.19	-35.7	-36.8	22.9	0.00e+00	120	32	0	1600126976	44	6092
2026-01-27 12:19:01.15	111.28	10.14	-36.0	-37.0	22.8	0.00e+00	122	32	0	1603272704	44	6264
2026-01-27 12:19:02.16	111.43	10.09	-36.3	-37.3	22.5	0.00e+00	123	32	0	1606418432	44	6459
2026-01-27 12:19:03.17	111.59	10.05	-36.0	-37.0	22.7	0.00e+00	122	32	0	1609564160	44	6271
2026-01-27 12:19:04.18	111.74	10.00	-36.2	-37.2	22.5	0.00e+00	120	32	0	1612709888	44	6364
2026-01-27 12:19:05.19	111.90	9.96	-36.1	-37.1	22.6	0.00e+00	123	32	0	1615855616	44	6326
2026-01-27 12:19:06.20	112.05	9.91	-36.4	-37.4	22.4	0.00e+00	120	32	0	1619001344	44	6572
2026-01-27 12:19:07.21	112.20	9.86	-36.4	-37.4	22.4	0.00e+00	122	32	0	1622147072	44	6532
2026-01-27 12:19:08.22	112.36	9.82	-36.1	-37.2	22.6	0.00e+00	123	32	0	1625292800	44	6353
2026-01-27 12:19:09.24	112.51	9.77	-36.0	-37.0	22.7	0.00e+00	123	32	0	1628438528	44	6247
2026-01-27 12:19:10.25	112.66	9.72	-36.4	-37.5	22.3	0.00e+00	123	32	0	1631584256	44	6585
2026-01-27 12:19:11.26	112.81	9.67	-36.2	-37.2	22.5	0.00e+00	120	32	0	1634729984	44	6403
2026-01-27 12:19:12.27	112.96	9.63	-36.2	-37.2	22.5	0.00e+00	122	32	0	1637875712	44	6368
2026-01-27 12:19:13.28	113.11	9.58	-36.2	-37.2	22.5	0.00e+00	123	32	0	1641021440	44	6415
2026-01-27 12:19:14.29	113.26	9.53	-36.2	-37.2	22.4	0.00e+00	122	32	0	1644167168	44	6404
2026-01-27 12:19:15.30	113.41	9.49	-36.2	-37.3	22.5	0.00e+00	122	32	0	1647312896	44	6433
2026-01-27 12:19:16.31	113.56	9.44	-36.2	-37.2	22.5	0.00e+00	123	32	0	1650458624	44	6423
2026-01-27 12:19:17.32	113.71	9.39	-36.4	-37.4	22.3	0.00e+00	123	32	0	1653604352	44	6570
2026-01-27 12:19:18.33	113.86	9.34	-36.5	-37.6	22.3	0.00e+00	123	32	0	1656750080	44	6664
2026-01-27 12:19:19.33	114.00	9.30	-36.4	-37.5	22.3	0.00e+00	123	32	0	1659895808	44	6600
2026-01-27 12:19:20.35	114.15	9.25	-36.5	-37.5	22.2	0.00e+00	123	32	0	1663041536	44	6635
2026-01-27 12:19:21.36	114.30	9.20	-36.3	-37.3	22.4	0.00e+00	123	32	0	1666187264	44	6453
2026-01-27 12:19:22.37	114.45	9.15	-36.3	-37.3	22.4	0.00e+00	123	32	0	1669332992	44	6451
2026-01-27 12:19:23.38	114.59	9.11	-36.3	-37.4	22.3	0.00e+00	120	32	0	1672478720	44	6516
2026-01-27 12:19:24.39	114.74	9.06	-36.3	-37.3	22.4	0.00e+00	123	32	0	1675624448	44	6456
2026-01-27 12:19:25.40	114.88	9.01	-36.5	-37.5	22.2	0.00e+00	123	32	0	1678770176	44	6623
2026-01-27 12:19:26.41	115.03	8.96	-36.3	-37.3	22.4	0.00e+00	122	32	0	1681915904	44	6459
2026-01-27 12:19:27.42	115.17	8.91	-36.3	-37.4	22.3	0.00e+00	123	32	0	1685061632	44	6517
2026-01-27 12:19:28.43	115.31	8.87	-36.3	-37.4	22.2	0.00e+00	123	32	0	1688207360	44	6499
2026-01-27 12:19:29.44	115.46	8.82	-36.5	-37.6	22.1	0.00e+00	122	32	0	1691353088	44	6686
2026-01-27 12:19:30.45	115.60	8.77	-36.3	-37.3	22.4	0.00e+00	122	32	0	1694498816	44	6472
2026-01-27 12:19:31.46	115.74	8.72	-36.2	-37.2	22.4	0.00e+00	122	32	0	1697644544	44	6417
2026-01-27 12:19:32.47	115.88	8.67	-36.1	-37.1	22.6	0.00e+00	123	32	0	1700790272	44	6350
2026-01-27 12:19:33.48	116.02	8.62	-36.1	-37.2	22.4	0.00e+00	123	32	0	1703936000	44	6389
2026-01-27 12:19:34.49	116.16	8.58	-36.2	-37.3	22.4	0.00e+00	120	32	0	1707081728	44	6444
2026-01-27 12:19:35.50	116.30	8.53	-36.3	-37.4	22.3	0.00e+00	123	32	0	1710227456	44	6506
2026-01-27 12:19:36.51	116.44	8.48	-36.4	-37.4	22.3	0.00e+00	122	32	0	1713373184	44	6558
2026-01-27 12:19:37.52	116.58	8.43	-36.3	-37.4	22.4	0.00e+00	122	32	0	1716518912	44	6517
2026-01-27 12:19:38.53	116.72	8.38	-36.5	-37.6	22.3	0.00e+00	122	32	0	1719664640	44	6663
2026-01-27 12:19:39.54	116.86	8.33	-36.5	-37.5	22.2	0.00e+00	122	32	0	1722810368	44	6630
2026-01-27 12:19:40.55	117.00	8.28	-36.7	-37.8	22.0	0.00e+00	123	32	0	1725956096	44	6826
2026-01-27 12:19:41.56	117.14	8.23	-36.3	-37.3	22.4	0.00e+00	123	32	0	1730150400	44	6498
2026-01-27 12:19:42.57	117.27	8.19	-36.6	-37.7	22.1	0.00e+00	123	32	0	1733296128	44	6736
2026-01-27 12:19:43.58	117.41	8.14	-36.6	-37.6	22.2	0.00e+00	123	32	0	1735393280	46	5953
2026-01-27 12:19:44.59	117.55	8.09	-36.2	-37.3	22.5	0.00e+00	122	32	0	1738539008	46	5742
2026-01-27 12:19:45.60	117.68	8.04	-36.2	-37.3	22.4	0.00e+00	122	32	0	1741684736	46	5743
2026-01-27 12:19:46.61	117.82	7.99	-36.5	-37.5	22.2	0.00e+00	120	32	0	1745879040	46	5904
2026-01-27 12:19:47.62	117.95	7.94	-36.6	-37.7	22.2	0.00e+00	123	32	0	1749024768	46	6000
2026-01-27 12:19:48.64	118.09	7.89	-36.8	-37.8	21.9	0.00e+00	123	32	0	1752170496	46	6126
2026-01-27 12:19:49.65	118.22	7.84	-36.6	-37.6	22.1	0.00e+00	123	32	0	1755316224	46	5952
2026-01-27 12:19:50.65	118.35	7.79	-36.9	-38.0	21.8	0.00e+00	122	32	0	1758461952	46	6219
2026-01-27 12:19:51.66	118.49	7.74	-36.5	-37.5	22.1	0.00e+00	120	32	0	1761607680	46	5913
2026-01-27 12:19:52.67	118.62	7.69	-36.6	-37.7	22.0	0.00e+00	123	32	0	1764753408	46	6010
2026-01-27 12:19:53.69	118.75	7.65	-36.7	-37.7	22.0	0.00e+00	120	32	0	1767899136	46	6033
2026-01-27 12:19:54.69	118.88	7.60	-36.5	-37.5	22.2	0.00e+00	123	32	0	1771044864	46	5918
2026-01-27 12:19:55.70	119.01	7.55	-36.6	-37.6	22.0	0.00e+00	123	32	0	1774190592	46	5991
2026-01-27 12:19:56.71	119.15	7.50	-36.6	-37.7	22.0	0.00e+00	123	32	0	1777336320	46	6024
2026-01-27 12:19:57.72	119.28	7.45	-36.7	-37.8	21.9	0.00e+00	123	32	0	1780482048	46	6069
2026-01-27 12:19:58.74	119.41	7.40	-36.9	-37.9	21.8	0.00e+00	122	32	0	1783627776	46	6187
2026-01-27 12:19:59.75	119.54	7.35	-36.9	-38.0	21.8	0.00e+00	122	32	0	1786773504	46	6225
2026-01-27 12:20:00.76	119.67	7.30	-36.8	-37.9	21.8	0.00e+00	122	32	0	1789919232	46	6179
2026-01-27 12:20:01.77	119.80	7.25	-36.8	-37.9	21.9	0.00e+00	120	32	0	1793064960	46	6143
2026-01-27 12:20:02.78	119.92	7.20	-37.0	-38.1	21.5	0.00e+00	122	32	0	1796210688	46	6328
2026-01-27 12:20:03.79	120.05	7.15	-37.2	-38.3	21.4	0.00e+00	123	32	0	1799356416	46	6475
2026-01-27 12:20:04.80	120.18	7.10	-36.9	-37.9	21.7	0.00e+00	123	32	0	1802502144	46	6198
2026-01-27 12:20:05.81	120.31	7.05	-37.2	-38.3	21.4	0.00e+00	122	32	0	1805647872	46	6469
2026-01-27 12:20:06.82	120.43	7.00	-37.3	-38.4	21.3	0.00e+00	123	32	0	1808793600	46	6526
2026-01-27 12:20:07.83	120.56	6.95	-37.1	-38.2	21.5	0.00e+00	122	32	0	1811939328	46	6414
2026-01-27 12:20:08.83	120.68	6.90	-37.4	-38.5	21.2	0.00e+00	122	32	0	1815085056	46	6630
2026-01-27 12:20:09.84	120.81	6.85	-37.2	-38.3	21.4	0.00e+00	120	32	0	1818230784	46	6440
2026-01-27 12:20:10.85	120.94	6.80	-37.2	-38.3	21.4	0.00e+00	122	32	0	1821376512	46	6495
2026-01-27 12:20:11.86	121.06	6.75	-37.0	-38.1	21.5	0.00e+00	123	32	0	1824522240	46	6344
2026-01-27 12:20:12.87	121.18	6.70	-37.3	-38.4	21.3	0.00e+00	122	32	0	1827667968	46	6514
2026-01-27 12:20:13.88	121.31	6.65	-37.3	-38.4	21.3	0.00e+00	122	32	0	1830813696	46	6526
2026-01-27 12:20:14.89	121.43	6.60	-37.3	-38.4	21.3	0.00e+00	123	32	0	1833959424	46	6514
2026-01-27 12:20:15.90	121.55	6.55	-37.4	-38.5	21.1	0.00e+00	123	32	0	1837105152	46	6646
2026-01-27 12:20:16.91	121.68	6.50	-37.3	-38.4	21.2	0.00e+00	123	32	0	1840250880	46	6521
2026-01-27 12:20:17.93	121.80	6.45	-37.5	-38.7	20.9	0.00e+00	121	32	0	1843396608	46	6769
2026-01-27 12:20:18.94	121.92	6.40	-37.5	-38.7	21.0	0.00e+00	123	32	0	1846542336	46	6749
2026-01-27 12:20:19.95	122.04	6.35	-37.0	-38.1	21.5	0.00e+00	122	32	0	1849688064	46	6302
2026-01-27 12:20:20.96	122.17	6.30	-36.7	-37.8	21.7	0.00e+00	120	32	0	1852833792	46	6126
2026-01-27 12:20:21.97	122.29	6.25	-37.3	-38.4	21.1	0.00e+00	123	32	0	1855979520	46	6553
2026-01-27 12:20:22.98	122.41	6.20	-37.3	-38.4	21.2	0.00e+00	123	32	0	1859125248	46	6538
2026-01-27 12:20:23.99	122.53	6.15	-37.2	-38.3	21.3	0.00e+00	123	32	0	1862270976	46	6450
2026-01-27 12:20:25.00	122.65	6.10	-37.1	-38.3	21.3	0.00e+00	123	32	0	1865416704	46	6438
2026-01-27 12:20:26.00	122.76	6.06	-37.1	-38.2	21.3	0.00e+00	120	32	0	1868562432	46	6393
2026-01-27 12:20:27.01	122.88	6.01	-37.0	-38.1	21.4	0.00e+00	122	32	0	1871708160	46	6331
2026-01-27 12:20:28.03	123.00	5.95	-37.1	-38.2	21.3	0.00e+00	122	32	0	1874853888	46	6417
2026-01-27 12:20:29.03	123.12	5.91	-37.3	-38.5	21.1	0.00e+00	123	32	0	1877999616	46	6606
2026-01-27 12:20:30.05	123.24	5.85	-37.2	-38.3	21.2	0.00e+00	120	32	0	1881145344	46	6497
2026-01-27 12:20:31.06	123.35	5.81	-37.3	-38.5	21.1	0.00e+00	123	32	0	1884291072	46	6633
2026-01-27 12:20:32.07	123.47	5.76	-37.2	-38.3	21.3	0.00e+00	122	32	0	1887436800	46	6465
2026-01-27 12:20:33.08	123.59	5.71	-37.4	-38.5	21.0	0.00e+00	123	32	0	1890582528	46	6610
2026-01-27 12:20:34.09	123.70	5.66	-37.6	-38.7	20.9	0.00e+00	120	32	0	1893728256	46	6788
2026-01-27 12:20:35.10	123.82	5.61	-37.7	-38.9	20.8	0.00e+00	123	32	0	1896873984	46	6894
2026-01-27 12:20:36.11	123.93	5.56	-37.1	-38.2	21.3	0.00e+00	123	32	0	1900019712	46	6403
2026-01-27 12:20:37.12	124.05	5.51	-37.4	-38.5	21.0	0.00e+00	121	32	0	1903165440	46	6646
2026-01-27 12:20:38.13	124.16	5.46	-37.6	-38.7	20.9	0.00e+00	122	32	0	1906311168	46	6747
2026-01-27 12:20:39.14	124.28	5.41	-37.4	-38.5	21.0	0.00e+00	123	32	0	1909456896	46	6648
2026-01-27 12:20:40.15	124.39	5.36	-37.6	-38.8	20.7	0.00e+00	123	32	0	1912602624	46	6833
2026-01-27 12:20:41.16	124.51	5.31	-37.8	-38.9	20.6	0.00e+00	123	32	0	1915748352	48	6193
2026-01-27 12:20:42.17	124.62	5.26	-37.7	-38.9	20.7	0.00e+00	123	32	0	1918894080	48	6164
2026-01-27 12:20:43.18	124.73	5.21	-37.6	-38.7	20.8	0.00e+00	120	32	0	1922039808	48	6058
2026-01-27 12:20:44.19	124.84	5.16	-37.4	-38.5	20.9	0.00e+00	123	32	0	1925185536	48	5898
2026-01-27 12:20:45.20	124.96	5.11	-37.9	-39.0	20.4	0.00e+00	122	32	0	1928331264	48	6272
2026-01-27 12:20:46.21	125.07	5.06	-37.6	-38.8	20.7	0.00e+00	120	32	0	1931476992	48	6094
2026-01-27 12:20:47.22	125.18	5.01	-37.7	-38.9	20.5	0.00e+00	122	32	0	1934622720	48	6172
2026-01-27 12:20:48.23	125.29	4.96	-38.3	-39.6	20.1	0.00e+00	123	32	0	1937768448	48	6666
2026-01-27 12:20:49.24	125.40	4.91	-37.7	-38.9	20.6	0.00e+00	123	32	0	1940914176	48	6147
2026-01-27 12:20:50.25	125.51	4.86	-38.4	-39.7	19.9	0.00e+00	123	32	0	1944059904	48	6736
2026-01-27 12:20:51.26	125.62	4.81	-37.8	-39.0	20.8	0.00e+00	123	32	0	1947205632	48	6216
2026-01-27 12:20:52.27	125.73	4.76	-37.6	-38.8	20.8	0.00e+00	122	32	0	1950351360	48	6070
2026-01-27 12:20:53.28	125.84	4.71	-37.7	-38.9	20.7	0.00e+00	120	32	0	1953497088	48	6142
2026-01-27 12:20:54.29	125.95	4.66	-37.6	-38.8	20.7	0.00e+00	120	32	0	1956642816	48	6102
2026-01-27 12:20:55.30	126.05	4.61	-37.6	-38.8	20.7	0.00e+00	122	32	0	1959788544	48	6106
