passes_logs/2026/01/27/R4.6S_Anadyr/R4.6S_Anadyr__20260127_234518_NOAA_21_JPSS-2_rec.log

#Pass ID: 20260127_234518_NOAA 21 (JPSS-2)
#Satellite: NOAA 21 (JPSS-2)
#Configuration: NOAA-21
#almurnet v.1.7.20251203
#Start time: 2026-01-27 23:45:20

#Version: 2.2.20231116
#Station: R4.6S_Anadyr
#Location: 177.4865 lon 64.73178 lat
#TLE: 1 54234U 22150A   26027.55906748  .00000170  00000+0  10132-3 0  9996
#TLE: 2 54234  98.7510 328.3076 0000860 204.4692 155.6443 14.19540154166599

#Time	Az	El	Level	Level2	SNR	BER	BlckErr	Temp	State	Recorded	gain1	gain2
2026-01-27 23:45:20.74	144.79	0.15	-45.6	-60.0	3.5	1.51e+00	0	29	0	0	60	40508
2026-01-27 23:45:21.74	144.78	0.21	-48.8	-61.7	3.5	1.52e+00	0	30	104	0	60	42619
2026-01-27 23:45:22.75	144.77	0.27	-48.8	-61.7	3.5	1.52e+00	0	31	104	0	60	42740
2026-01-27 23:45:23.76	144.76	0.34	-48.8	-61.7	3.5	1.52e+00	0	31	104	0	60	42798
2026-01-27 23:45:24.77	144.75	0.40	-48.9	-61.8	3.5	1.52e+00	0	31	104	0	60	42961
2026-01-27 23:45:25.78	144.74	0.46	-48.8	-61.7	3.5	1.51e+00	0	31	104	0	60	42694
2026-01-27 23:45:26.78	144.73	0.52	-48.9	-61.7	3.5	1.52e+00	0	31	104	0	60	42826
2026-01-27 23:45:27.79	144.72	0.58	-48.9	-61.8	3.5	1.52e+00	0	31	104	0	60	43060
2026-01-27 23:45:28.80	144.71	0.64	-48.8	-61.8	3.5	1.51e+00	0	31	104	0	60	43112
2026-01-27 23:45:29.82	144.70	0.70	-48.9	-61.8	3.5	1.52e+00	0	31	104	0	60	43359
2026-01-27 23:45:30.82	144.69	0.77	-48.9	-61.8	3.5	1.52e+00	0	31	104	0	60	43187
2026-01-27 23:45:31.84	144.68	0.83	-48.9	-61.8	3.5	1.52e+00	0	31	104	0	60	43083
2026-01-27 23:45:32.84	144.67	0.89	-48.9	-61.7	3.5	1.52e+00	0	31	104	0	60	42730
2026-01-27 23:45:33.85	144.66	0.95	-48.7	-61.7	3.5	1.52e+00	0	31	104	0	60	42637
2026-01-27 23:45:34.86	144.65	1.01	-48.8	-61.7	3.5	1.52e+00	0	31	104	0	60	42496
2026-01-27 23:45:35.87	144.64	1.08	-48.7	-61.6	3.5	1.52e+00	0	31	104	0	60	42128
2026-01-27 23:45:36.88	144.63	1.14	-48.6	-61.5	3.5	1.52e+00	0	31	104	0	60	41862
2026-01-27 23:45:37.89	144.62	1.20	-48.5	-61.4	3.5	1.52e+00	0	31	104	0	60	41128
2026-01-27 23:45:38.90	144.61	1.27	-48.5	-61.4	3.5	1.52e+00	0	31	104	0	60	41120
2026-01-27 23:45:39.91	144.59	1.33	-48.3	-61.2	3.5	1.52e+00	0	31	104	0	60	40356
2026-01-27 23:45:40.92	144.58	1.39	-48.2	-61.1	3.5	1.52e+00	0	31	104	0	60	39688
2026-01-27 23:45:41.93	144.57	1.46	-47.9	-60.8	3.5	1.52e+00	0	31	104	0	60	38449
2026-01-27 23:45:42.94	144.56	1.52	-47.3	-60.6	3.5	1.52e+00	0	31	104	0	60	37683
2026-01-27 23:45:43.95	144.55	1.58	-47.2	-60.1	3.5	1.52e+00	0	31	104	0	60	35551
2026-01-27 23:45:44.96	144.54	1.65	-46.9	-59.7	3.5	1.52e+00	0	31	104	0	60	33989
2026-01-27 23:45:45.97	144.53	1.71	-46.9	-59.8	3.5	1.52e+00	0	31	104	0	60	34160
2026-01-27 23:45:46.98	144.52	1.77	-46.9	-59.8	3.6	1.52e+00	0	31	104	0	60	34140
2026-01-27 23:45:47.99	144.51	1.84	-46.9	-59.7	3.5	1.52e+00	0	31	104	0	60	33718
2026-01-27 23:45:49.00	144.50	1.90	-46.9	-59.7	3.5	1.52e+00	0	31	104	0	60	33918
2026-01-27 23:45:50.01	144.48	1.97	-46.9	-59.7	3.5	1.51e+00	0	31	104	0	60	33769
2026-01-27 23:45:51.02	144.47	2.03	-46.9	-59.6	3.5	1.51e+00	0	31	104	0	60	33628
2026-01-27 23:45:52.02	144.46	2.10	-46.9	-59.7	3.5	1.52e+00	0	31	104	0	60	33820
2026-01-27 23:45:53.03	144.45	2.16	-46.9	-59.7	3.5	1.52e+00	0	31	104	0	60	33851
2026-01-27 23:45:54.04	144.44	2.23	-46.9	-59.7	3.5	1.52e+00	0	31	104	0	60	34083
2026-01-27 23:45:55.05	144.43	2.29	-46.8	-59.8	3.5	1.52e+00	0	31	104	0	60	34207
2026-01-27 23:45:56.06	144.42	2.36	-46.9	-59.7	3.5	1.52e+00	0	31	104	0	60	34069
2026-01-27 23:45:57.07	144.40	2.42	-46.9	-59.8	3.5	1.52e+00	0	31	104	0	60	34204
2026-01-27 23:45:58.08	144.39	2.49	-46.9	-59.8	3.5	1.52e+00	0	31	104	0	60	34171
2026-01-27 23:45:59.09	144.38	2.55	-46.9	-59.7	3.5	1.52e+00	0	31	104	0	60	33937
2026-01-27 23:46:00.10	144.37	2.62	-46.9	-59.7	3.5	1.52e+00	0	31	104	0	60	33852
2026-01-27 23:46:01.11	144.36	2.69	-46.9	-59.6	3.5	1.52e+00	0	31	104	0	60	33554
2026-01-27 23:46:02.12	144.34	2.75	-46.9	-59.7	3.5	1.52e+00	0	31	104	0	60	33794
2026-01-27 23:46:03.13	144.33	2.82	-46.9	-59.6	3.5	1.52e+00	0	31	104	0	60	33655
2026-01-27 23:46:04.14	144.32	2.89	-46.9	-59.7	3.5	1.52e+00	0	31	104	0	60	33844
2026-01-27 23:46:05.15	144.31	2.95	-46.9	-59.7	3.5	1.52e+00	0	31	104	0	60	33894
2026-01-27 23:46:06.16	144.29	3.02	-46.9	-59.5	3.5	1.52e+00	0	31	104	0	60	33065
2026-01-27 23:46:07.16	144.28	3.09	-46.8	-59.1	3.5	1.52e+00	0	31	104	0	60	31486
2026-01-27 23:46:08.17	144.27	3.15	-46.7	-57.6	3.7	1.51e+00	0	31	104	0	60	26733
2026-01-27 23:46:09.19	144.26	3.22	-46.5	-55.8	4.4	1.43e+00	2	31	104	0	60	21730
2026-01-27 23:46:10.19	144.24	3.29	-46.0	-53.1	6.2	4.59e-01	0	31	104	0	60	15948
2026-01-27 23:46:11.20	144.23	3.36	-45.3	-49.8	8.7	8.19e-02	0	32	0	2097152	60	10909
2026-01-27 23:46:12.21	144.22	3.42	-44.9	-49.0	10.0	2.39e-02	0	31	0	5242880	60	9876
2026-01-27 23:46:13.22	144.21	3.49	-43.7	-46.8	12.3	2.59e-03	0	32	0	8388608	60	7696
2026-01-27 23:46:14.23	144.19	3.56	-43.6	-46.6	12.3	2.66e-04	0	32	0	11534336	60	7498
2026-01-27 23:46:15.24	144.18	3.63	-42.6	-45.0	14.1	9.90e-06	0	32	0	14680064	60	6246
2026-01-27 23:46:16.25	144.17	3.70	-42.1	-44.3	14.6	7.00e-07	0	32	0	17825792	58	6485
2026-01-27 23:46:17.26	144.15	3.77	-41.7	-43.7	15.3	7.00e-07	0	32	0	20971520	56	6766
2026-01-27 23:46:18.27	144.14	3.84	-41.5	-43.4	14.4	0.00e+00	0	32	0	24117248	56	6561
2026-01-27 23:46:19.28	144.13	3.90	-46.6	-57.2	3.5	1.47e+00	0	32	104	25165824	60	25337
2026-01-27 23:46:20.29	144.11	3.97	-40.5	-42.2	17.1	0.00e+00	0	32	0	26214400	54	6380
2026-01-27 23:46:21.30	144.10	4.04	-46.7	-58.2	3.5	1.50e+00	0	32	104	28311552	60	28547
2026-01-27 23:46:22.31	144.09	4.11	-44.5	-48.9	11.9	1.27e+00	0	32	104	28311552	60	9830
2026-01-27 23:46:23.32	144.07	4.18	-45.2	-49.9	8.8	4.67e-02	0	32	0	29360128	60	10930
2026-01-27 23:46:24.34	144.06	4.25	-42.5	-45.0	13.9	7.00e-07	0	32	0	32505856	58	6964
2026-01-27 23:46:25.35	144.05	4.32	-41.7	-43.7	15.2	0.00e+00	0	32	0	35651584	56	6766
2026-01-27 23:46:26.36	144.03	4.39	-41.7	-43.7	15.2	7.00e-07	0	32	0	38797312	56	6774
2026-01-27 23:46:27.36	144.02	4.46	-41.7	-43.7	15.6	0.00e+00	0	32	0	41943040	56	6752
2026-01-27 23:46:28.37	144.00	4.53	-40.5	-42.2	16.8	0.00e+00	0	32	0	45088768	54	6380
2026-01-27 23:46:29.38	143.99	4.61	-40.7	-42.5	16.3	0.00e+00	0	32	0	48234496	54	6588
2026-01-27 23:46:30.39	143.98	4.68	-40.9	-42.7	16.1	0.00e+00	0	32	0	51380224	54	6803
2026-01-27 23:46:31.40	143.96	4.75	-39.8	-41.3	17.7	0.00e+00	0	32	0	54525952	52	6476
2026-01-27 23:46:32.41	143.95	4.82	-40.1	-41.7	17.4	0.00e+00	0	32	0	57671680	52	6753
2026-01-27 23:46:33.42	143.93	4.89	-39.8	-41.4	17.7	0.00e+00	0	32	0	60817408	52	6513
2026-01-27 23:46:34.43	143.92	4.96	-39.9	-41.4	18.2	0.00e+00	0	32	0	63963136	52	6514
2026-01-27 23:46:35.44	143.90	5.03	-38.8	-40.2	18.8	0.00e+00	0	32	0	67108864	52	5696
2026-01-27 23:46:36.45	143.89	5.11	-39.1	-40.5	18.7	0.00e+00	0	32	0	70254592	52	5872
2026-01-27 23:46:37.46	143.87	5.18	-38.8	-40.1	19.0	0.00e+00	0	32	0	73400320	50	6330
2026-01-27 23:46:38.47	143.86	5.25	-38.9	-40.2	18.9	0.00e+00	0	32	0	76546048	50	6390
2026-01-27 23:46:39.48	143.84	5.32	-38.7	-40.0	19.1	0.00e+00	0	32	0	79691776	50	6243
2026-01-27 23:46:40.49	143.83	5.40	-38.3	-39.6	19.5	0.00e+00	0	32	0	82837504	50	5975
2026-01-27 23:46:41.50	143.81	5.47	-38.2	-39.5	19.2	0.00e+00	0	32	0	85983232	50	5877
2026-01-27 23:46:42.51	143.80	5.54	-38.6	-39.9	19.2	0.00e+00	0	32	0	89128960	50	6176
2026-01-27 23:46:43.52	143.78	5.62	-38.2	-39.4	19.7	0.00e+00	0	32	0	92274688	50	5856
2026-01-27 23:46:44.53	143.77	5.69	-38.5	-39.7	19.3	0.00e+00	0	32	0	95420416	50	6059
2026-01-27 23:46:45.54	143.75	5.77	-38.4	-39.7	19.3	0.00e+00	0	32	0	98566144	50	6051
2026-01-27 23:46:46.55	143.74	5.84	-38.3	-39.6	19.6	0.00e+00	0	32	0	102760448	50	5994
2026-01-27 23:46:47.56	143.72	5.91	-38.4	-39.7	19.4	0.00e+00	0	32	0	104857600	50	6001
2026-01-27 23:46:48.57	143.71	5.99	-38.4	-39.7	19.4	0.00e+00	0	32	0	108003328	50	6048
2026-01-27 23:46:49.58	143.69	6.06	-38.3	-39.7	19.4	0.00e+00	0	32	0	111149056	50	6055
2026-01-27 23:46:50.59	143.67	6.14	-37.6	-38.9	20.0	0.00e+00	0	32	0	114294784	48	6158
2026-01-27 23:46:51.60	143.66	6.21	-38.4	-39.7	19.4	0.00e+00	0	32	0	118489088	48	6788
2026-01-27 23:46:52.62	143.64	6.29	-38.2	-39.5	19.7	0.00e+00	0	32	0	121634816	48	6606
2026-01-27 23:46:53.63	143.62	6.37	-38.3	-39.7	19.5	0.00e+00	0	32	0	124780544	48	6743
2026-01-27 23:46:54.64	143.61	6.44	-38.0	-39.2	19.9	0.00e+00	0	32	0	127926272	48	6398
2026-01-27 23:46:55.65	143.59	6.52	-38.3	-39.5	19.6	0.00e+00	0	32	0	130023424	48	6641
2026-01-27 23:46:56.66	143.57	6.60	-38.4	-39.6	19.7	0.00e+00	0	32	0	134217728	48	6707
2026-01-27 23:46:57.67	143.56	6.67	-38.3	-39.6	19.6	0.00e+00	0	32	0	137363456	48	6665
2026-01-27 23:46:58.68	143.54	6.75	-37.9	-39.1	20.1	0.00e+00	0	32	0	140509184	48	6350
2026-01-27 23:46:59.69	143.52	6.83	-38.0	-39.2	20.0	0.00e+00	0	32	0	143654912	48	6422
2026-01-27 23:47:00.70	143.51	6.90	-37.7	-39.0	20.3	0.00e+00	0	32	0	146800640	48	6212
2026-01-27 23:47:01.71	143.49	6.98	-37.7	-38.9	20.2	0.00e+00	0	32	0	149946368	48	6167
2026-01-27 23:47:02.72	143.47	7.06	-37.8	-39.0	20.4	0.00e+00	0	32	0	153092096	48	6234
2026-01-27 23:47:03.73	143.46	7.14	-37.5	-38.7	20.6	0.00e+00	0	32	0	156237824	48	6033
2026-01-27 23:47:04.74	143.44	7.21	-37.7	-38.9	20.4	0.00e+00	0	32	0	159383552	48	6149
2026-01-27 23:47:05.75	143.42	7.29	-37.6	-38.7	20.5	0.00e+00	0	32	0	162529280	48	6055
2026-01-27 23:47:06.76	143.40	7.37	-37.6	-38.8	20.5	0.00e+00	0	32	0	165675008	48	6082
2026-01-27 23:47:07.77	143.38	7.45	-37.3	-38.4	20.8	0.00e+00	0	32	0	168820736	48	5856
2026-01-27 23:47:08.78	143.37	7.53	-37.8	-38.9	20.4	0.00e+00	0	32	0	171966464	48	6195
2026-01-27 23:47:09.79	143.35	7.61	-37.5	-38.6	20.7	0.00e+00	0	32	0	175112192	48	5988
2026-01-27 23:47:10.80	143.33	7.69	-37.5	-38.6	20.8	0.00e+00	0	32	0	178257920	48	5975
2026-01-27 23:47:11.81	143.31	7.77	-37.4	-38.6	20.8	0.00e+00	0	32	0	181403648	48	5936
2026-01-27 23:47:12.82	143.29	7.85	-37.3	-38.5	20.9	0.00e+00	0	32	0	184549376	48	5871
2026-01-27 23:47:13.83	143.28	7.93	-37.3	-38.4	20.9	0.00e+00	0	32	0	187695104	48	5853
2026-01-27 23:47:14.84	143.26	8.01	-37.3	-38.5	20.8	0.00e+00	0	32	0	190840832	48	5899
2026-01-27 23:47:15.85	143.24	8.09	-37.5	-38.7	20.7	0.00e+00	0	32	0	193986560	48	6011
2026-01-27 23:47:16.86	143.22	8.17	-37.3	-38.5	21.0	0.00e+00	0	32	0	197132288	48	5864
2026-01-27 23:47:17.87	143.20	8.25	-37.5	-38.6	20.8	0.00e+00	0	32	0	200278016	48	5968
2026-01-27 23:47:18.88	143.18	8.34	-37.3	-38.4	21.1	0.00e+00	0	32	0	203423744	48	5830
2026-01-27 23:47:19.89	143.16	8.42	-37.3	-38.4	21.0	0.00e+00	0	32	0	206569472	48	5827
2026-01-27 23:47:20.90	143.14	8.50	-37.0	-38.1	21.3	0.00e+00	0	32	0	209715200	48	5630
2026-01-27 23:47:21.91	143.12	8.58	-36.9	-38.0	21.4	0.00e+00	0	32	0	212860928	48	5557
2026-01-27 23:47:22.92	143.10	8.67	-37.0	-38.1	21.3	0.00e+00	0	32	0	216006656	48	5598
2026-01-27 23:47:23.92	143.08	8.75	-37.0	-38.1	21.3	0.00e+00	0	32	0	219152384	48	5637
2026-01-27 23:47:24.94	143.06	8.83	-36.9	-38.0	21.4	0.00e+00	0	32	0	222298112	48	5557
2026-01-27 23:47:25.95	143.04	8.92	-37.1	-38.2	21.2	0.00e+00	0	32	0	225443840	48	5704
2026-01-27 23:47:26.95	143.02	9.00	-37.0	-38.1	21.3	0.00e+00	0	32	0	228589568	48	5627
2026-01-27 23:47:27.97	143.00	9.08	-37.0	-38.1	21.4	0.00e+00	0	32	0	231735296	48	5609
2026-01-27 23:47:28.97	142.98	9.17	-37.0	-38.1	21.4	0.00e+00	0	32	0	234881024	48	5645
2026-01-27 23:47:29.99	142.96	9.25	-37.1	-38.2	21.2	0.00e+00	0	32	0	238026752	48	5692
2026-01-27 23:47:31.00	142.94	9.34	-37.0	-38.1	21.5	0.00e+00	0	32	0	241172480	48	5604
2026-01-27 23:47:32.01	142.92	9.42	-36.8	-37.8	21.6	0.00e+00	0	32	0	244318208	48	5455
2026-01-27 23:47:33.02	142.90	9.51	-36.7	-37.8	21.7	0.00e+00	0	32	0	247463936	46	6079
2026-01-27 23:47:34.03	142.88	9.59	-36.8	-37.8	21.7	0.00e+00	0	32	0	250609664	46	6133
2026-01-27 23:47:35.03	142.86	9.68	-36.7	-37.7	21.7	0.00e+00	0	32	0	253755392	46	6051
2026-01-27 23:47:36.04	142.84	9.77	-36.8	-37.9	21.6	0.00e+00	0	32	0	256901120	46	6170
2026-01-27 23:47:37.06	142.81	9.85	-37.1	-38.1	21.3	0.00e+00	0	32	0	260046848	46	6343
2026-01-27 23:47:38.07	142.79	9.94	-36.8	-37.9	21.6	0.00e+00	0	32	0	263192576	46	6143
2026-01-27 23:47:39.08	142.77	10.03	-36.6	-37.6	21.8	0.00e+00	0	32	0	266338304	46	5986
2026-01-27 23:47:40.09	142.75	10.12	-36.7	-37.7	21.8	0.00e+00	0	32	0	269484032	46	6054
2026-01-27 23:47:41.10	142.73	10.20	-36.7	-37.7	21.7	0.00e+00	0	32	0	272629760	46	6044
2026-01-27 23:47:42.11	142.71	10.29	-36.7	-37.8	21.7	0.00e+00	0	32	0	275775488	46	6097
2026-01-27 23:47:43.12	142.68	10.38	-36.5	-37.6	21.6	0.00e+00	0	32	0	278921216	46	5950
2026-01-27 23:47:44.13	142.66	10.47	-36.7	-37.8	21.6	0.00e+00	0	32	0	282066944	46	6108
2026-01-27 23:47:45.14	142.64	10.56	-36.8	-37.9	21.5	0.00e+00	0	32	0	285212672	46	6152
2026-01-27 23:47:46.15	142.61	10.65	-36.7	-37.8	21.6	0.00e+00	0	32	0	288358400	46	6098
2026-01-27 23:47:47.16	142.59	10.74	-36.6	-37.7	21.7	0.00e+00	0	32	0	291504128	46	6027
2026-01-27 23:47:48.17	142.57	10.83	-36.6	-37.7	21.7	0.00e+00	0	32	0	294649856	46	6032
2026-01-27 23:47:49.18	142.54	10.92	-36.6	-37.6	21.8	0.00e+00	0	32	0	297795584	46	5972
2026-01-27 23:47:50.19	142.52	11.01	-36.7	-37.7	21.7	0.00e+00	0	32	0	300941312	46	6054
2026-01-27 23:47:51.20	142.50	11.10	-36.7	-37.7	21.3	7.60e-06	0	32	0	304087040	46	6064
2026-01-27 23:47:52.21	142.47	11.19	-36.5	-37.5	21.9	1.50e-06	0	32	0	307232768	46	5916
2026-01-27 23:47:53.22	142.45	11.28	-36.6	-37.6	21.3	0.00e+00	0	32	0	310378496	46	5989
2026-01-27 23:47:54.23	142.43	11.38	-36.6	-37.7	21.3	0.00e+00	0	32	0	313524224	46	6004
2026-01-27 23:47:55.24	142.40	11.47	-36.7	-37.8	21.7	0.00e+00	0	32	0	316669952	46	6085
2026-01-27 23:47:56.25	142.38	11.56	-36.7	-37.7	21.6	0.00e+00	0	32	0	319815680	46	6051
2026-01-27 23:47:57.26	142.35	11.65	-36.5	-37.5	21.8	7.00e-07	0	32	0	322961408	46	5916
2026-01-27 23:47:58.27	142.33	11.75	-36.5	-37.6	21.8	0.00e+00	0	32	0	326107136	46	5943
2026-01-27 23:47:59.28	142.30	11.84	-36.4	-37.4	21.9	0.00e+00	0	32	0	329252864	46	5839
2026-01-27 23:48:00.29	142.28	11.94	-36.6	-37.6	21.8	0.00e+00	0	32	0	332398592	46	5980
2026-01-27 23:48:01.30	142.25	12.03	-36.5	-37.6	21.9	0.00e+00	0	32	0	335544320	46	5954
2026-01-27 23:48:02.31	142.23	12.13	-36.4	-37.5	22.0	0.00e+00	0	32	0	338690048	46	5866
2026-01-27 23:48:03.32	142.20	12.22	-36.4	-37.5	22.0	0.00e+00	0	32	0	341835776	46	5888
2026-01-27 23:48:04.33	142.17	12.32	-36.1	-37.1	22.3	0.00e+00	0	32	0	344981504	46	5625
2026-01-27 23:48:05.34	142.15	12.41	-36.2	-37.2	22.2	0.00e+00	0	32	0	348127232	46	5684
2026-01-27 23:48:06.35	142.12	12.51	-36.2	-37.2	22.3	0.00e+00	0	32	0	351272960	46	5695
2026-01-27 23:48:07.36	142.09	12.61	-36.1	-37.1	22.4	0.00e+00	0	32	0	354418688	46	5625
2026-01-27 23:48:08.37	142.07	12.70	-36.2	-37.2	21.3	0.00e+00	0	32	0	357564416	46	5689
2026-01-27 23:48:09.38	142.04	12.80	-35.9	-37.0	22.4	0.00e+00	0	32	0	360710144	46	5545
2026-01-27 23:48:10.39	142.01	12.90	-35.8	-36.8	22.6	0.00e+00	0	32	0	363855872	46	5443
2026-01-27 23:48:11.40	141.99	13.00	-35.8	-36.9	22.6	0.00e+00	0	32	0	367001600	46	5474
2026-01-27 23:48:12.41	141.96	13.10	-35.6	-36.5	22.9	0.00e+00	0	32	0	370147328	44	5915
2026-01-27 23:48:13.42	141.93	13.20	-35.5	-36.5	23.0	0.00e+00	0	32	0	373293056	44	5899
2026-01-27 23:48:14.43	141.90	13.30	-35.4	-36.4	23.1	0.00e+00	0	32	0	376438784	44	5808
2026-01-27 23:48:15.44	141.87	13.40	-35.4	-36.3	23.0	0.00e+00	0	32	0	379584512	44	5778
2026-01-27 23:48:16.45	141.85	13.50	-35.3	-36.2	23.2	0.00e+00	0	32	0	382730240	44	5719
2026-01-27 23:48:17.45	141.82	13.60	-35.2	-36.1	23.4	0.00e+00	0	32	0	385875968	44	5631
2026-01-27 23:48:18.47	141.79	13.70	-35.1	-36.1	23.4	0.00e+00	0	32	0	389021696	44	5595
2026-01-27 23:48:19.47	141.76	13.80	-35.0	-36.0	23.5	0.00e+00	0	32	0	392167424	44	5548
2026-01-27 23:48:20.49	141.73	13.90	-35.0	-36.0	23.5	0.00e+00	0	32	0	395313152	44	5549
2026-01-27 23:48:21.50	141.70	14.00	-35.0	-35.9	23.6	0.00e+00	0	32	0	398458880	44	5491
2026-01-27 23:48:22.51	141.67	14.11	-35.0	-35.9	23.6	0.00e+00	0	32	0	401604608	44	5507
2026-01-27 23:48:23.51	141.64	14.21	-35.0	-35.9	23.6	0.00e+00	0	32	0	404750336	44	5503
2026-01-27 23:48:24.53	141.61	14.31	-34.7	-35.7	23.9	0.00e+00	0	32	0	407896064	42	6004
2026-01-27 23:48:25.54	141.58	14.42	-34.8	-35.8	23.8	0.00e+00	0	32	0	411041792	42	6071
2026-01-27 23:48:26.55	141.55	14.52	-34.5	-35.4	24.0	0.00e+00	0	32	0	414187520	42	5845
2026-01-27 23:48:27.56	141.52	14.63	-34.7	-35.6	24.0	0.00e+00	0	32	0	418381824	42	5934
2026-01-27 23:48:28.57	141.49	14.73	-34.7	-35.6	23.9	0.00e+00	0	32	0	421527552	42	5987
2026-01-27 23:48:29.58	141.46	14.84	-34.4	-35.4	24.1	0.00e+00	0	32	0	423624704	42	5792
2026-01-27 23:48:30.59	141.42	14.95	-34.6	-35.5	24.1	0.00e+00	0	32	0	426770432	42	5888
2026-01-27 23:48:31.60	141.39	15.05	-34.6	-35.5	24.1	0.00e+00	0	32	0	430964736	42	5872
2026-01-27 23:48:32.61	141.36	15.16	-34.4	-35.3	24.3	0.00e+00	0	32	0	434110464	42	5759
2026-01-27 23:48:33.62	141.33	15.27	-34.5	-35.4	24.1	0.00e+00	0	32	0	437256192	42	5812
2026-01-27 23:48:34.63	141.29	15.38	-34.5	-35.3	24.2	0.00e+00	0	32	0	440401920	42	5789
2026-01-27 23:48:35.64	141.26	15.48	-34.5	-35.3	24.2	0.00e+00	0	32	0	443547648	42	5784
2026-01-27 23:48:36.65	141.23	15.59	-34.4	-35.3	24.1	0.00e+00	0	32	0	446693376	42	5770
2026-01-27 23:48:37.66	141.19	15.70	-34.4	-35.2	24.2	0.00e+00	0	32	0	449839104	42	5724
2026-01-27 23:48:38.67	141.16	15.81	-34.4	-35.3	24.2	0.00e+00	0	32	0	452984832	42	5759
2026-01-27 23:48:39.68	141.13	15.92	-34.4	-35.3	24.2	0.00e+00	0	32	0	456130560	42	5754
2026-01-27 23:48:40.69	141.09	16.03	-34.5	-35.4	24.2	0.00e+00	0	32	0	459276288	42	5792
2026-01-27 23:48:41.70	141.06	16.15	-34.4	-35.3	24.2	0.00e+00	0	32	0	462422016	42	5754
2026-01-27 23:48:42.71	141.02	16.26	-34.5	-35.3	24.2	0.00e+00	0	32	0	465567744	42	5790
2026-01-27 23:48:43.72	140.99	16.37	-34.4	-35.3	24.3	0.00e+00	0	32	0	468713472	42	5785
2026-01-27 23:48:44.73	140.95	16.48	-34.5	-35.4	24.2	0.00e+00	0	32	0	471859200	42	5795
2026-01-27 23:48:45.74	140.92	16.60	-34.5	-35.4	24.2	0.00e+00	0	32	0	475004928	42	5844
2026-01-27 23:48:46.75	140.88	16.71	-34.5	-35.4	24.1	0.00e+00	0	32	0	478150656	42	5819
2026-01-27 23:48:47.77	140.84	16.83	-34.5	-35.4	24.1	0.00e+00	0	32	0	481296384	42	5846
2026-01-27 23:48:48.78	140.81	16.94	-34.5	-35.4	24.2	0.00e+00	0	32	0	484442112	42	5803
2026-01-27 23:48:49.79	140.77	17.06	-34.4	-35.3	24.2	0.00e+00	0	32	0	487587840	42	5740
2026-01-27 23:48:50.79	140.73	17.17	-34.4	-35.3	24.2	0.00e+00	0	32	0	490733568	42	5774
2026-01-27 23:48:51.80	140.70	17.29	-34.4	-35.3	24.1	0.00e+00	0	32	0	493879296	42	5773
2026-01-27 23:48:52.82	140.66	17.41	-34.5	-35.3	24.1	0.00e+00	0	32	0	497025024	42	5790
2026-01-27 23:48:53.83	140.62	17.53	-34.4	-35.3	24.3	0.00e+00	0	32	0	500170752	42	5728
2026-01-27 23:48:54.83	140.58	17.64	-34.4	-35.3	24.2	0.00e+00	0	32	0	503316480	42	5789
2026-01-27 23:48:55.84	140.54	17.76	-34.4	-35.3	24.2	0.00e+00	0	32	0	506462208	42	5761
2026-01-27 23:48:56.86	140.50	17.88	-34.4	-35.3	24.2	0.00e+00	0	32	0	509607936	42	5758
2026-01-27 23:48:57.87	140.46	18.00	-34.5	-35.4	24.2	0.00e+00	0	32	0	512753664	42	5844
2026-01-27 23:48:58.88	140.42	18.13	-34.4	-35.3	24.2	0.00e+00	0	32	0	515899392	42	5765
2026-01-27 23:48:59.89	140.38	18.25	-34.4	-35.3	24.2	0.00e+00	0	32	0	519045120	42	5777
2026-01-27 23:49:00.89	140.34	18.37	-34.5	-35.4	24.2	0.00e+00	0	32	0	522190848	42	5792
2026-01-27 23:49:01.90	140.30	18.49	-34.4	-35.4	24.3	0.00e+00	0	32	0	525336576	42	5792
2026-01-27 23:49:02.91	140.26	18.61	-34.4	-35.4	24.2	0.00e+00	0	32	0	528482304	42	5793
2026-01-27 23:49:03.92	140.22	18.74	-34.6	-35.5	24.1	0.00e+00	0	32	0	531628032	42	5911
2026-01-27 23:49:04.94	140.18	18.86	-34.5	-35.4	24.1	0.00e+00	0	32	0	534773760	42	5836
2026-01-27 23:49:05.95	140.14	18.99	-34.6	-35.5	24.1	0.00e+00	0	32	0	537919488	42	5886
2026-01-27 23:49:06.95	140.09	19.11	-34.8	-35.7	24.0	0.00e+00	0	32	0	541065216	42	6041
2026-01-27 23:49:07.96	140.05	19.24	-34.8	-35.8	23.9	0.00e+00	0	32	0	544210944	42	6076
2026-01-27 23:49:08.97	140.01	19.36	-34.7	-35.7	24.0	0.00e+00	0	32	0	547356672	42	6001
2026-01-27 23:49:09.99	139.96	19.49	-34.6	-35.5	24.1	0.00e+00	0	32	0	550502400	42	5921
2026-01-27 23:49:11.00	139.92	19.62	-34.7	-35.6	24.1	0.00e+00	0	32	0	553648128	42	5950
2026-01-27 23:49:12.01	139.87	19.75	-34.4	-35.3	24.3	0.00e+00	0	32	0	556793856	42	5739
2026-01-27 23:49:13.02	139.83	19.88	-34.5	-35.4	24.3	0.00e+00	0	32	0	559939584	42	5814
2026-01-27 23:49:14.03	139.78	20.01	-34.4	-35.3	24.3	0.00e+00	0	32	0	563085312	42	5773
2026-01-27 23:49:15.04	139.74	20.14	-34.3	-35.2	24.4	0.00e+00	0	32	0	566231040	42	5664
2026-01-27 23:49:16.05	139.69	20.27	-34.3	-35.2	24.4	0.00e+00	0	32	0	569376768	42	5692
2026-01-27 23:49:17.06	139.64	20.40	-34.2	-35.1	24.5	0.00e+00	0	32	0	572522496	42	5600
2026-01-27 23:49:18.07	139.60	20.54	-34.2	-35.1	24.5	0.00e+00	0	32	0	575668224	42	5644
2026-01-27 23:49:19.08	139.55	20.67	-34.1	-35.0	24.6	0.00e+00	0	32	0	578813952	42	5556
2026-01-27 23:49:20.09	139.50	20.80	-34.1	-35.0	24.6	0.00e+00	0	32	0	581959680	42	5561
2026-01-27 23:49:21.10	139.45	20.94	-34.0	-34.9	24.7	0.00e+00	0	32	0	585105408	42	5499
2026-01-27 23:49:22.11	139.40	21.07	-33.8	-34.7	24.8	0.00e+00	0	32	0	588251136	42	5379
2026-01-27 23:49:23.12	139.35	21.21	-33.8	-34.7	24.8	0.00e+00	0	32	0	591396864	42	5350
2026-01-27 23:49:24.13	139.30	21.35	-33.8	-34.7	24.9	0.00e+00	0	32	0	594542592	40	5995
2026-01-27 23:49:25.14	139.25	21.48	-33.6	-34.5	25.0	0.00e+00	0	32	0	597688320	40	5881
2026-01-27 23:49:26.15	139.20	21.62	-33.5	-34.4	25.1	0.00e+00	0	32	0	600834048	40	5799
2026-01-27 23:49:27.16	139.15	21.76	-33.7	-34.5	24.9	0.00e+00	0	32	0	603979776	40	5907
2026-01-27 23:49:28.16	139.10	21.90	-33.4	-34.2	25.2	0.00e+00	0	32	0	607125504	40	5708
2026-01-27 23:49:29.18	139.05	22.04	-33.3	-34.1	25.2	0.00e+00	0	32	0	610271232	40	5649
2026-01-27 23:49:30.19	139.00	22.18	-33.2	-34.0	25.3	0.00e+00	0	32	0	613416960	40	5580
2026-01-27 23:49:31.20	138.94	22.32	-32.9	-33.7	25.5	0.00e+00	0	32	0	616562688	40	5398
2026-01-27 23:49:32.21	138.89	22.47	-32.9	-33.8	25.4	0.00e+00	0	32	0	619708416	40	5409
2026-01-27 23:49:33.22	138.83	22.61	-32.8	-33.7	25.6	0.00e+00	0	32	0	622854144	40	5357
2026-01-27 23:49:34.23	138.78	22.76	-32.9	-33.8	25.5	0.00e+00	0	32	0	625999872	40	5422
2026-01-27 23:49:35.24	138.72	22.90	-32.8	-33.6	25.5	0.00e+00	0	32	0	629145600	38	5979
2026-01-27 23:49:36.25	138.67	23.05	-32.7	-33.5	25.6	0.00e+00	0	32	0	632291328	38	5890
2026-01-27 23:49:37.26	138.61	23.19	-32.7	-33.5	25.7	0.00e+00	0	32	0	635437056	38	5885
2026-01-27 23:49:38.27	138.55	23.34	-32.7	-33.5	25.6	0.00e+00	0	32	0	638582784	38	5924
2026-01-27 23:49:39.28	138.50	23.49	-32.7	-33.5	25.6	0.00e+00	0	32	0	641728512	38	5899
2026-01-27 23:49:40.29	138.44	23.64	-32.8	-33.6	25.5	0.00e+00	0	32	0	644874240	38	5986
2026-01-27 23:49:41.30	138.38	23.79	-33.0	-33.9	25.4	0.00e+00	0	32	0	648019968	38	6140
2026-01-27 23:49:42.31	138.32	23.94	-32.8	-33.7	25.5	0.00e+00	0	32	0	651165696	38	6011
2026-01-27 23:49:43.32	138.26	24.09	-32.8	-33.6	25.7	0.00e+00	0	32	0	654311424	38	5963
2026-01-27 23:49:44.33	138.20	24.24	-32.8	-33.7	25.6	0.00e+00	0	32	0	657457152	38	6000
2026-01-27 23:49:45.34	138.14	24.40	-32.7	-33.6	25.6	0.00e+00	0	32	0	660602880	38	5936
2026-01-27 23:49:46.35	138.08	24.55	-32.8	-33.7	25.6	0.00e+00	0	32	0	663748608	38	6009
2026-01-27 23:49:47.36	138.01	24.71	-32.7	-33.6	25.6	0.00e+00	0	32	0	666894336	38	5930
2026-01-27 23:49:48.37	137.95	24.86	-32.9	-33.7	25.6	0.00e+00	0	32	0	670040064	38	6029
2026-01-27 23:49:49.38	137.89	25.02	-32.8	-33.6	25.6	0.00e+00	0	32	0	673185792	38	5993
2026-01-27 23:49:50.39	137.82	25.18	-32.8	-33.7	25.5	0.00e+00	0	32	0	676331520	38	6004
2026-01-27 23:49:51.40	137.76	25.33	-32.9	-33.7	25.5	0.00e+00	0	32	0	679477248	38	6038
2026-01-27 23:49:52.41	137.69	25.49	-32.9	-33.7	25.5	0.00e+00	0	32	0	682622976	38	6049
2026-01-27 23:49:53.42	137.63	25.65	-33.0	-33.9	25.3	0.00e+00	0	32	0	685768704	38	6142
2026-01-27 23:49:54.43	137.56	25.82	-33.1	-34.0	25.3	0.00e+00	0	32	0	688914432	38	6210
2026-01-27 23:49:55.44	137.49	25.98	-33.2	-34.1	25.1	0.00e+00	0	32	0	692060160	38	6303
2026-01-27 23:49:56.45	137.42	26.14	-33.4	-34.2	25.1	0.00e+00	0	32	0	695205888	38	6403
2026-01-27 23:49:57.46	137.35	26.31	-33.5	-34.3	24.9	0.00e+00	0	32	0	698351616	38	6486
2026-01-27 23:49:58.47	137.28	26.47	-33.6	-34.4	25.0	0.00e+00	0	32	0	701497344	38	6558
2026-01-27 23:49:59.48	137.21	26.64	-33.6	-34.4	24.9	0.00e+00	0	32	0	704643072	38	6563
2026-01-27 23:50:00.50	137.14	26.81	-33.8	-34.6	24.8	0.00e+00	0	32	0	707788800	40	5978
2026-01-27 23:50:01.51	137.07	26.97	-33.9	-34.8	24.6	0.00e+00	0	32	0	711983104	40	6083
2026-01-27 23:50:02.51	136.99	27.14	-34.0	-34.9	24.5	0.00e+00	0	32	0	715128832	40	6178
2026-01-27 23:50:03.52	136.92	27.31	-34.2	-35.1	24.4	0.00e+00	0	32	0	717225984	40	6287
2026-01-27 23:50:04.53	136.84	27.48	-34.3	-35.2	24.4	0.00e+00	0	32	0	720371712	40	6357
2026-01-27 23:50:05.54	136.77	27.65	-34.2	-35.1	24.4	0.00e+00	0	32	0	723517440	40	6305
2026-01-27 23:50:06.55	136.69	27.83	-34.2	-35.1	24.3	0.00e+00	0	32	0	727711744	40	6327
2026-01-27 23:50:07.56	136.61	28.00	-34.2	-35.1	24.3	0.00e+00	0	32	0	730857472	40	6343
2026-01-27 23:50:08.57	136.54	28.18	-34.3	-35.2	24.3	0.00e+00	0	32	0	734003200	40	6357
2026-01-27 23:50:09.58	136.46	28.35	-34.4	-35.3	24.2	0.00e+00	0	32	0	737148928	40	6427
2026-01-27 23:50:10.59	136.38	28.53	-34.4	-35.3	24.2	0.00e+00	0	32	0	739246080	40	6451
2026-01-27 23:50:11.60	136.29	28.71	-34.4	-35.3	24.1	0.00e+00	0	32	0	742391808	40	6474
2026-01-27 23:50:12.61	136.21	28.89	-34.5	-35.4	24.2	0.00e+00	0	32	0	746586112	40	6506
2026-01-27 23:50:13.62	136.13	29.07	-34.4	-35.3	24.2	0.00e+00	0	32	0	749731840	40	6439
2026-01-27 23:50:14.63	136.05	29.25	-34.4	-35.3	24.2	0.00e+00	0	32	0	752877568	40	6450
2026-01-27 23:50:15.64	135.96	29.43	-34.2	-35.1	24.5	0.00e+00	0	32	0	756023296	40	6331
2026-01-27 23:50:16.65	135.87	29.62	-34.2	-35.1	24.5	0.00e+00	0	32	0	759169024	40	6285
2026-01-27 23:50:17.66	135.79	29.80	-34.1	-35.0	24.5	0.00e+00	0	32	0	762314752	40	6233
2026-01-27 23:50:18.66	135.70	29.99	-34.2	-35.0	24.4	0.00e+00	0	32	0	765460480	40	6269
2026-01-27 23:50:19.67	135.61	30.17	-34.1	-35.0	24.5	0.00e+00	0	32	0	768606208	40	6208
2026-01-27 23:50:20.68	135.52	30.36	-34.0	-34.9	24.5	0.00e+00	0	32	0	771751936	40	6159
2026-01-27 23:50:21.70	135.43	30.55	-34.1	-35.0	24.5	0.00e+00	0	32	0	774897664	40	6206
2026-01-27 23:50:22.71	135.34	30.74	-33.8	-34.7	24.5	0.00e+00	0	32	0	778043392	40	6035
2026-01-27 23:50:23.72	135.24	30.94	-33.8	-34.7	24.5	0.00e+00	0	32	0	781189120	40	6032
2026-01-27 23:50:24.73	135.15	31.13	-33.8	-34.7	24.4	0.00e+00	0	32	0	784334848	40	6019
2026-01-27 23:50:25.74	135.05	31.32	-33.6	-34.4	24.5	0.00e+00	0	32	0	787480576	40	5851
2026-01-27 23:50:26.75	134.95	31.52	-33.7	-34.6	24.4	0.00e+00	0	32	0	790626304	40	5966
2026-01-27 23:50:27.76	134.86	31.71	-33.6	-34.5	24.4	0.00e+00	0	32	0	793772032	40	5913
2026-01-27 23:50:28.77	134.76	31.91	-33.7	-34.6	24.5	0.00e+00	0	32	0	796917760	40	5988
2026-01-27 23:50:29.78	134.66	32.11	-33.8	-34.7	24.4	0.00e+00	0	32	0	800063488	40	6027
2026-01-27 23:50:30.79	134.55	32.31	-33.9	-34.8	24.4	0.00e+00	0	32	0	803209216	40	6069
2026-01-27 23:50:31.80	134.45	32.51	-34.0	-34.9	24.3	0.00e+00	0	32	0	806354944	40	6183
2026-01-27 23:50:32.81	134.35	32.72	-34.2	-35.1	24.3	0.00e+00	0	32	0	809500672	40	6324
2026-01-27 23:50:33.82	134.24	32.92	-34.4	-35.3	24.2	0.00e+00	0	32	0	812646400	40	6429
2026-01-27 23:50:34.83	134.13	33.12	-34.5	-35.4	24.1	0.00e+00	0	32	0	815792128	40	6569
2026-01-27 23:50:35.84	134.02	33.33	-34.6	-35.5	24.2	0.00e+00	0	32	0	818937856	40	6620
2026-01-27 23:50:36.85	133.91	33.54	-34.6	-35.5	24.2	0.00e+00	0	32	0	822083584	40	6610
2026-01-27 23:50:37.86	133.80	33.75	-34.5	-35.4	24.3	0.00e+00	0	32	0	825229312	40	6566
2026-01-27 23:50:38.87	133.69	33.96	-34.5	-35.4	24.3	0.00e+00	0	32	0	828375040	40	6522
2026-01-27 23:50:39.88	133.57	34.17	-34.5	-35.4	24.3	0.00e+00	0	32	0	831520768	40	6548
2026-01-27 23:50:40.89	133.46	34.38	-34.5	-35.4	24.2	0.00e+00	0	32	0	834666496	40	6546
2026-01-27 23:50:41.90	133.34	34.60	-34.7	-35.6	24.2	0.00e+00	0	32	0	837812224	40	6676
2026-01-27 23:50:42.91	133.22	34.81	-34.9	-35.9	24.0	0.00e+00	0	32	0	840957952	42	6141
2026-01-27 23:50:43.92	133.10	35.03	-35.2	-36.1	23.8	0.00e+00	0	32	0	844103680	42	6304
2026-01-27 23:50:44.93	132.97	35.25	-35.4	-36.3	23.6	0.00e+00	0	32	0	847249408	42	6473
2026-01-27 23:50:45.94	132.85	35.47	-35.7	-36.6	23.5	0.00e+00	0	32	0	850395136	42	6693
2026-01-27 23:50:46.95	132.72	35.69	-35.7	-36.7	23.4	0.00e+00	0	32	0	853540864	44	6025
2026-01-27 23:50:47.96	132.60	35.91	-35.9	-36.9	23.2	0.00e+00	0	32	0	856686592	44	6175
2026-01-27 23:50:48.97	132.47	36.14	-35.9	-36.8	23.3	0.00e+00	0	32	0	859832320	44	6117
2026-01-27 23:50:49.98	132.33	36.36	-36.0	-36.9	23.2	0.00e+00	0	32	0	862978048	44	6203
2026-01-27 23:50:50.99	132.20	36.59	-36.3	-37.3	23.0	0.00e+00	0	32	0	866123776	44	6436
2026-01-27 23:50:52.00	132.06	36.82	-36.3	-37.2	22.9	0.00e+00	0	32	0	869269504	44	6412
2026-01-27 23:50:53.01	131.93	37.05	-36.3	-37.3	22.9	0.00e+00	0	32	0	872415232	44	6434
2026-01-27 23:50:54.02	131.79	37.28	-36.3	-37.3	22.9	0.00e+00	0	32	0	875560960	44	6466
2026-01-27 23:50:55.03	131.65	37.51	-36.3	-37.3	22.8	0.00e+00	0	32	0	878706688	44	6467
2026-01-27 23:50:56.04	131.50	37.74	-36.4	-37.4	22.8	0.00e+00	0	32	0	881852416	44	6503
2026-01-27 23:50:57.05	131.36	37.98	-36.2	-37.2	22.9	0.00e+00	0	32	0	884998144	44	6373
2026-01-27 23:50:58.06	131.21	38.21	-36.2	-37.2	22.7	0.00e+00	0	32	0	888143872	44	6375
2026-01-27 23:50:59.07	131.06	38.45	-36.2	-37.2	22.7	0.00e+00	0	32	0	891289600	44	6402
2026-01-27 23:51:00.08	130.91	38.69	-36.2	-37.2	22.9	0.00e+00	0	32	0	894435328	44	6356
2026-01-27 23:51:01.09	130.75	38.93	-35.9	-36.9	23.0	0.00e+00	0	32	0	897581056	44	6176
2026-01-27 23:51:02.10	130.60	39.17	-35.9	-36.9	23.1	0.00e+00	0	32	0	900726784	44	6164
2026-01-27 23:51:03.11	130.44	39.42	-35.8	-36.8	23.2	0.00e+00	0	32	0	903872512	44	6101
2026-01-27 23:51:04.12	130.27	39.66	-35.8	-36.7	23.2	0.00e+00	0	32	0	907018240	44	6057
2026-01-27 23:51:05.13	130.11	39.91	-35.6	-36.5	23.2	0.00e+00	0	32	0	910163968	44	5917
2026-01-27 23:51:06.14	129.94	40.16	-35.5	-36.5	23.4	0.00e+00	0	32	0	913309696	44	5862
2026-01-27 23:51:07.15	129.77	40.41	-35.6	-36.6	23.4	0.00e+00	0	32	0	916455424	44	5961
2026-01-27 23:51:08.17	129.60	40.66	-35.4	-36.3	23.7	0.00e+00	0	32	0	919601152	44	5777
2026-01-27 23:51:09.17	129.43	40.91	-35.2	-36.2	23.8	0.00e+00	0	32	0	922746880	44	5661
2026-01-27 23:51:10.19	129.25	41.17	-35.3	-36.2	23.9	0.00e+00	0	32	0	925892608	44	5697
2026-01-27 23:51:11.19	129.07	41.42	-35.2	-36.1	23.8	0.00e+00	0	32	0	929038336	44	5604
2026-01-27 23:51:12.20	128.88	41.68	-35.3	-36.2	23.7	0.00e+00	0	32	0	932184064	44	5687
2026-01-27 23:51:13.21	128.70	41.94	-35.5	-36.4	23.4	0.00e+00	0	32	0	935329792	44	5809
2026-01-27 23:51:14.22	128.51	42.20	-35.8	-36.8	22.8	0.00e+00	0	32	0	938475520	44	6093
2026-01-27 23:51:15.23	128.32	42.46	-36.2	-37.2	22.5	0.00e+00	0	32	0	941621248	44	6402
2026-01-27 23:51:16.25	128.12	42.72	-36.3	-37.4	22.4	0.00e+00	0	32	0	944766976	44	6509
2026-01-27 23:51:17.26	127.92	42.99	-36.6	-37.6	22.2	0.00e+00	0	32	0	947912704	44	6724
2026-01-27 23:51:18.27	127.72	43.25	-36.9	-38.0	22.2	0.00e+00	0	32	0	951058432	46	6216
2026-01-27 23:51:19.28	127.51	43.52	-37.0	-38.0	22.3	0.00e+00	0	32	0	954204160	46	6258
2026-01-27 23:51:20.29	127.30	43.79	-37.1	-38.1	22.2	0.00e+00	0	32	0	957349888	46	6343
2026-01-27 23:51:21.30	127.09	44.06	-37.3	-38.3	22.2	0.00e+00	0	32	0	960495616	46	6461
2026-01-27 23:51:22.31	126.87	44.33	-37.4	-38.4	22.1	0.00e+00	0	32	0	963641344	46	6529
2026-01-27 23:51:23.32	126.65	44.60	-37.4	-38.4	22.0	0.00e+00	0	32	0	966787072	46	6573
2026-01-27 23:51:24.33	126.42	44.88	-37.3	-38.3	22.1	0.00e+00	0	32	0	969932800	46	6456
2026-01-27 23:51:25.34	126.20	45.15	-37.3	-38.3	22.0	0.00e+00	0	32	0	973078528	46	6466
2026-01-27 23:51:26.34	125.97	45.43	-37.1	-38.2	21.9	0.00e+00	0	32	0	976224256	46	6361
2026-01-27 23:51:27.35	125.73	45.70	-36.7	-37.7	22.3	0.00e+00	0	32	0	979369984	46	6016
2026-01-27 23:51:28.36	125.49	45.98	-36.7	-37.8	22.3	0.00e+00	0	32	0	982515712	46	6075
2026-01-27 23:51:29.37	125.24	46.26	-36.7	-37.7	22.5	0.00e+00	0	32	0	985661440	46	6019
2026-01-27 23:51:30.38	124.99	46.55	-36.5	-37.5	22.8	0.00e+00	0	32	0	988807168	46	5898
2026-01-27 23:51:31.40	124.74	46.83	-36.5	-37.5	22.8	0.00e+00	0	32	0	991952896	46	5873
2026-01-27 23:51:32.40	124.48	47.12	-36.4	-37.3	22.9	0.00e+00	0	32	0	995098624	46	5791
2026-01-27 23:51:33.41	124.22	47.40	-36.3	-37.2	23.0	0.00e+00	0	32	0	998244352	46	5712
2026-01-27 23:51:34.43	123.94	47.69	-36.3	-37.2	22.9	0.00e+00	0	32	0	1001390080	46	5716
2026-01-27 23:51:35.44	123.67	47.98	-36.0	-37.0	22.9	0.00e+00	0	32	0	1004535808	46	5535
2026-01-27 23:51:36.45	123.39	48.27	-36.0	-37.0	22.8	0.00e+00	0	32	0	1007681536	46	5566
2026-01-27 23:51:37.46	123.11	48.56	-35.9	-36.8	23.1	0.00e+00	0	32	0	1010827264	46	5453
2026-01-27 23:51:38.47	122.82	48.85	-35.8	-36.7	23.2	0.00e+00	0	32	0	1013972992	46	5368
2026-01-27 23:51:39.48	122.52	49.15	-35.4	-36.3	23.6	0.00e+00	0	32	0	1017118720	44	5770
2026-01-27 23:51:40.49	122.22	49.44	-35.6	-36.6	23.2	0.00e+00	0	32	0	1020264448	44	5937
2026-01-27 23:51:41.50	121.91	49.74	-36.0	-36.9	22.7	0.00e+00	0	32	0	1023410176	44	6192
2026-01-27 23:51:42.51	121.60	50.03	-36.3	-37.3	22.6	0.00e+00	0	32	0	1027604480	44	6463
2026-01-27 23:51:43.52	121.28	50.33	-36.4	-37.4	22.4	0.00e+00	0	32	0	1030750208	44	6554
2026-01-27 23:51:44.53	120.95	50.63	-36.2	-37.1	22.7	0.00e+00	0	32	0	1032847360	44	6349
2026-01-27 23:51:45.54	120.62	50.93	-36.2	-37.2	22.8	0.00e+00	0	32	0	1035993088	44	6388
2026-01-27 23:51:46.55	120.28	51.23	-36.1	-37.0	23.0	0.00e+00	0	32	0	1040187392	44	6275
2026-01-27 23:51:47.56	119.93	51.53	-35.8	-36.8	23.2	0.00e+00	0	32	0	1043333120	44	6069
2026-01-27 23:51:48.57	119.58	51.83	-35.6	-36.5	23.4	0.00e+00	0	32	0	1046478848	44	5877
2026-01-27 23:51:49.58	119.22	52.13	-35.5	-36.4	23.2	0.00e+00	0	32	0	1049624576	44	5820
2026-01-27 23:51:50.59	118.85	52.44	-35.4	-36.4	23.4	0.00e+00	0	32	0	1052770304	44	5799
2026-01-27 23:51:51.60	118.47	52.74	-35.6	-36.6	23.4	0.00e+00	0	32	0	1055916032	44	5952
2026-01-27 23:51:52.61	118.09	53.05	-35.8	-36.7	23.4	0.00e+00	0	32	0	1059061760	44	6041
2026-01-27 23:51:53.62	117.70	53.35	-35.7	-36.6	23.5	0.00e+00	0	32	0	1062207488	44	5967
2026-01-27 23:51:54.63	117.30	53.66	-35.7	-36.6	23.6	0.00e+00	0	32	0	1065353216	44	5969
2026-01-27 23:51:55.64	116.89	53.96	-35.6	-36.5	23.3	0.00e+00	0	32	0	1068498944	44	5906
2026-01-27 23:51:56.65	116.47	54.27	-35.2	-36.1	23.3	0.00e+00	0	32	0	1071644672	44	5626
2026-01-27 23:51:57.66	116.04	54.57	-35.2	-36.2	23.4	0.00e+00	0	32	0	1074790400	44	5673
2026-01-27 23:51:58.67	115.61	54.88	-34.6	-35.5	24.2	0.00e+00	0	32	0	1077936128	42	5895
2026-01-27 23:51:59.68	115.16	55.19	-34.2	-35.1	24.4	0.00e+00	0	32	0	1081081856	42	5624
2026-01-27 23:52:00.69	114.70	55.49	-34.1	-35.0	24.6	0.00e+00	0	32	0	1084227584	42	5558
2026-01-27 23:52:01.70	114.24	55.80	-34.0	-34.9	24.7	0.00e+00	0	32	0	1087373312	42	5486
2026-01-27 23:52:02.71	113.76	56.11	-34.1	-34.9	24.6	0.00e+00	0	32	0	1090519040	42	5525
2026-01-27 23:52:03.72	113.27	56.41	-34.0	-34.8	24.4	0.00e+00	0	32	0	1093664768	42	5461
2026-01-27 23:52:04.73	112.78	56.72	-34.2	-35.1	24.1	0.00e+00	0	32	0	1096810496	42	5619
2026-01-27 23:52:05.74	112.27	57.02	-34.3	-35.2	24.3	0.00e+00	0	32	0	1099956224	42	5684
2026-01-27 23:52:06.75	111.75	57.33	-34.2	-35.1	24.6	0.00e+00	0	32	0	1103101952	42	5610
2026-01-27 23:52:07.76	111.21	57.63	-34.0	-34.9	24.6	0.00e+00	0	32	0	1106247680	42	5514
2026-01-27 23:52:08.77	110.67	57.93	-34.0	-35.0	24.5	0.00e+00	0	32	0	1109393408	42	5532
2026-01-27 23:52:09.78	110.11	58.23	-34.1	-35.0	24.5	0.00e+00	0	32	0	1112539136	42	5591
2026-01-27 23:52:10.79	109.54	58.53	-34.1	-35.0	24.4	0.00e+00	0	32	0	1115684864	42	5561
2026-01-27 23:52:11.80	108.96	58.83	-34.2	-35.1	24.1	0.00e+00	0	32	0	1118830592	42	5636
2026-01-27 23:52:12.81	108.36	59.13	-34.3	-35.2	24.4	0.00e+00	0	32	0	1121976320	42	5725
2026-01-27 23:52:13.82	107.75	59.43	-34.1	-35.0	24.6	0.00e+00	0	32	0	1125122048	42	5591
2026-01-27 23:52:14.83	107.13	59.72	-34.2	-35.1	24.5	0.00e+00	0	32	0	1128267776	42	5601
2026-01-27 23:52:15.84	106.49	60.02	-34.6	-35.5	24.3	0.00e+00	0	32	0	1131413504	42	5891
2026-01-27 23:52:16.85	105.84	60.31	-33.9	-34.7	25.0	0.00e+00	0	32	0	1134559232	42	5391
2026-01-27 23:52:17.86	105.17	60.60	-33.8	-34.7	24.9	0.00e+00	0	32	0	1137704960	40	6020
2026-01-27 23:52:18.87	104.49	60.89	-33.8	-34.7	25.0	0.00e+00	0	32	0	1140850688	40	6018
2026-01-27 23:52:19.88	103.79	61.17	-33.5	-34.4	25.1	0.00e+00	0	32	0	1143996416	40	5793
2026-01-27 23:52:20.89	103.07	61.45	-33.1	-34.0	25.4	0.00e+00	0	32	0	1147142144	40	5546
2026-01-27 23:52:21.90	102.34	61.73	-32.8	-33.6	25.6	0.00e+00	0	32	0	1150287872	38	5959
2026-01-27 23:52:22.92	101.59	62.01	-32.7	-33.5	25.6	0.00e+00	0	32	0	1153433600	38	5905
2026-01-27 23:52:23.92	100.83	62.28	-33.0	-33.8	25.5	0.00e+00	0	32	0	1156579328	38	6119
2026-01-27 23:52:24.94	100.04	62.55	-32.9	-33.7	25.6	0.00e+00	0	32	0	1159725056	38	6052
2026-01-27 23:52:25.95	99.24	62.82	-33.0	-33.9	25.4	0.00e+00	0	32	0	1162870784	38	6145
2026-01-27 23:52:26.96	98.42	63.08	-33.0	-33.8	25.4	0.00e+00	0	32	0	1166016512	38	6097
2026-01-27 23:52:27.97	97.58	63.34	-33.2	-34.0	25.2	0.00e+00	0	32	0	1169162240	38	6274
2026-01-27 23:52:28.98	96.73	63.59	-33.1	-34.0	25.3	0.00e+00	0	32	0	1172307968	38	6237
2026-01-27 23:52:29.99	95.85	63.84	-33.1	-33.9	25.2	0.00e+00	0	32	0	1175453696	38	6197
2026-01-27 23:52:31.00	94.96	64.09	-33.2	-34.1	25.0	0.00e+00	0	32	0	1178599424	38	6333
2026-01-27 23:52:32.01	94.05	64.32	-33.6	-34.5	24.9	0.00e+00	0	32	0	1181745152	38	6601
2026-01-27 23:52:33.02	93.12	64.56	-33.6	-34.5	25.1	0.00e+00	0	32	0	1184890880	38	6614
2026-01-27 23:52:34.03	92.17	64.79	-33.1	-34.0	25.5	0.00e+00	0	32	0	1188036608	38	6207
2026-01-27 23:52:35.04	91.20	65.01	-32.8	-33.6	25.6	0.00e+00	0	32	0	1191182336	38	5959
2026-01-27 23:52:36.05	90.21	65.23	-33.0	-33.9	25.2	0.00e+00	0	32	0	1194328064	38	6153
2026-01-27 23:52:37.05	89.22	65.44	-33.5	-34.3	25.0	0.00e+00	0	32	0	1197473792	38	6490
2026-01-27 23:52:38.06	88.19	65.64	-33.5	-34.4	25.0	0.00e+00	0	32	0	1200619520	38	6510
2026-01-27 23:52:39.07	87.15	65.84	-33.3	-34.2	24.8	0.00e+00	0	32	0	1203765248	38	6376
2026-01-27 23:52:40.09	86.07	66.03	-33.3	-34.2	24.9	0.00e+00	0	32	0	1206910976	38	6358
2026-01-27 23:52:41.10	84.99	66.22	-33.2	-34.1	25.1	0.00e+00	0	32	0	1210056704	38	6302
2026-01-27 23:52:42.11	83.89	66.39	-33.1	-34.0	25.4	0.00e+00	0	32	0	1213202432	38	6234
2026-01-27 23:52:43.12	82.77	66.56	-33.1	-34.0	25.3	0.00e+00	0	32	0	1216348160	38	6227
2026-01-27 23:52:44.13	81.63	66.72	-33.2	-34.1	25.4	0.00e+00	0	32	0	1219493888	38	6286
2026-01-27 23:52:45.14	80.48	66.87	-33.0	-33.9	25.3	0.00e+00	0	32	0	1222639616	38	6147
2026-01-27 23:52:46.15	79.31	67.02	-32.9	-33.8	25.2	0.00e+00	0	32	0	1225785344	38	6101
2026-01-27 23:52:47.16	78.13	67.15	-32.6	-33.5	25.7	0.00e+00	0	32	0	1228931072	38	5886
2026-01-27 23:52:48.17	76.93	67.28	-32.7	-33.6	25.8	0.00e+00	0	32	0	1232076800	38	5933
2026-01-27 23:52:49.18	75.72	67.39	-32.6	-33.4	25.8	0.00e+00	0	32	0	1235222528	38	5829
2026-01-27 23:52:50.19	74.49	67.50	-32.9	-33.7	25.8	0.00e+00	0	32	0	1238368256	38	6063
2026-01-27 23:52:51.20	73.25	67.60	-32.8	-33.6	25.6	0.00e+00	0	32	0	1241513984	38	5952
2026-01-27 23:52:52.21	72.00	67.69	-32.5	-33.3	25.9	0.00e+00	0	32	0	1244659712	38	5783
2026-01-27 23:52:53.22	70.74	67.77	-32.7	-33.6	25.7	0.00e+00	0	32	0	1247805440	38	5944
2026-01-27 23:52:54.23	69.47	67.84	-32.6	-33.5	25.6	0.00e+00	0	32	0	1250951168	38	5869
2026-01-27 23:52:55.24	68.19	67.90	-32.5	-33.3	25.9	0.00e+00	0	32	0	1254096896	38	5778
2026-01-27 23:52:56.25	66.91	67.94	-32.7	-33.5	25.8	0.00e+00	0	32	0	1257242624	38	5916
2026-01-27 23:52:57.26	65.62	67.98	-33.0	-33.8	25.3	0.00e+00	0	32	0	1260388352	38	6110
2026-01-27 23:52:58.27	64.32	68.01	-32.8	-33.7	25.2	0.00e+00	0	32	0	1263534080	38	5997
2026-01-27 23:52:59.28	63.03	68.03	-32.8	-33.7	25.3	0.00e+00	0	32	0	1266679808	38	6009
2026-01-27 23:53:00.29	61.73	68.04	-32.8	-33.7	25.4	0.00e+00	0	32	0	1269825536	38	6023
2026-01-27 23:53:01.30	60.43	68.03	-33.3	-34.2	25.1	0.00e+00	0	32	0	1272971264	38	6397
2026-01-27 23:53:02.31	59.13	68.02	-33.5	-34.4	25.1	0.00e+00	0	32	0	1276116992	38	6515
2026-01-27 23:53:03.32	57.84	67.99	-33.5	-34.4	25.1	0.00e+00	0	32	0	1279262720	38	6500
2026-01-27 23:53:04.33	56.54	67.96	-33.4	-34.3	25.0	0.00e+00	0	32	0	1282408448	38	6477
2026-01-27 23:53:05.34	55.26	67.92	-33.0	-33.9	25.4	0.00e+00	0	32	0	1285554176	38	6157
2026-01-27 23:53:06.35	53.98	67.86	-32.6	-33.5	25.7	0.00e+00	0	32	0	1288699904	38	5881
2026-01-27 23:53:07.36	52.71	67.80	-32.8	-33.7	25.6	0.00e+00	0	32	0	1291845632	38	6020
2026-01-27 23:53:08.37	51.44	67.72	-33.0	-33.9	25.5	0.00e+00	0	32	0	1294991360	38	6155
2026-01-27 23:53:09.38	50.19	67.64	-33.1	-34.0	25.2	0.00e+00	0	32	0	1298137088	38	6229
2026-01-27 23:53:10.39	48.95	67.54	-33.2	-34.1	25.1	0.00e+00	0	32	0	1301282816	38	6311
2026-01-27 23:53:11.40	47.71	67.44	-33.2	-34.1	25.2	0.00e+00	0	32	0	1304428544	38	6280
2026-01-27 23:53:12.41	46.50	67.32	-33.2	-34.1	25.4	0.00e+00	0	32	0	1307574272	38	6286
2026-01-27 23:53:13.42	45.29	67.20	-33.4	-34.3	25.2	0.00e+00	0	32	0	1310720000	38	6455
2026-01-27 23:53:14.43	44.10	67.07	-33.8	-34.6	25.0	0.00e+00	0	32	0	1313865728	40	5989
2026-01-27 23:53:15.44	42.93	66.93	-33.8	-34.7	25.1	0.00e+00	0	32	0	1317011456	40	5996
2026-01-27 23:53:16.45	41.77	66.78	-33.2	-34.1	25.1	0.00e+00	0	32	0	1321205760	40	5629
2026-01-27 23:53:17.46	40.63	66.62	-32.9	-33.7	25.4	0.00e+00	0	32	0	1324351488	40	5401
2026-01-27 23:53:18.47	39.51	66.46	-32.9	-33.7	25.5	0.00e+00	0	32	0	1326448640	38	6053
2026-01-27 23:53:19.48	38.40	66.28	-33.6	-34.5	25.1	0.00e+00	0	32	0	1329594368	38	6585
2026-01-27 23:53:20.49	37.31	66.10	-33.2	-34.0	25.4	0.00e+00	0	32	0	1332740096	38	6252
2026-01-27 23:53:21.50	36.24	65.92	-32.8	-33.6	25.7	0.00e+00	0	32	0	1336934400	38	5959
2026-01-27 23:53:22.51	35.19	65.72	-32.9	-33.7	25.0	0.00e+00	0	32	0	1340080128	38	6037
2026-01-27 23:53:23.52	34.16	65.52	-33.0	-33.8	24.7	0.00e+00	0	32	0	1343225856	38	6129
2026-01-27 23:53:24.53	33.14	65.31	-33.1	-34.0	24.9	0.00e+00	0	32	0	1346371584	38	6226
2026-01-27 23:53:25.54	32.15	65.10	-33.4	-34.3	25.3	0.00e+00	0	32	0	1348468736	38	6457
2026-01-27 23:53:26.55	31.18	64.88	-34.0	-34.9	24.7	0.00e+00	0	32	0	1352663040	40	6180
2026-01-27 23:53:27.56	30.22	64.65	-34.5	-35.4	23.7	0.00e+00	0	32	0	1355808768	40	6563
2026-01-27 23:53:28.58	29.27	64.41	-33.8	-34.7	23.9	0.00e+00	0	32	0	1358954496	40	6059
2026-01-27 23:53:29.59	28.36	64.18	-33.4	-34.3	24.7	0.00e+00	0	32	0	1362100224	40	5766
2026-01-27 23:53:30.60	27.46	63.94	-33.2	-34.1	25.2	0.00e+00	0	32	0	1365245952	40	5610
2026-01-27 23:53:31.60	26.59	63.69	-33.7	-34.5	24.9	0.00e+00	0	32	0	1368391680	40	5918
2026-01-27 23:53:32.61	25.73	63.44	-34.2	-35.1	24.7	0.00e+00	0	32	0	1371537408	40	6322
2026-01-27 23:53:33.63	24.88	63.18	-34.5	-35.4	24.4	0.00e+00	0	32	0	1374683136	40	6532
2026-01-27 23:53:34.64	24.05	62.92	-34.4	-35.3	24.2	0.00e+00	0	32	0	1377828864	40	6464
2026-01-27 23:53:35.65	23.25	62.66	-34.0	-34.9	23.7	0.00e+00	0	32	0	1380974592	40	6176
2026-01-27 23:53:36.66	22.46	62.39	-33.4	-34.4	24.3	0.00e+00	0	32	0	1384120320	40	5798
2026-01-27 23:53:37.67	21.69	62.12	-33.9	-34.8	24.4	0.00e+00	0	32	0	1387266048	40	6106
2026-01-27 23:53:38.67	20.94	61.85	-34.8	-35.8	24.3	0.00e+00	0	32	0	1390411776	40	6819
2026-01-27 23:53:39.68	20.20	61.57	-35.1	-36.1	23.8	0.00e+00	0	32	0	1393557504	42	6302
2026-01-27 23:53:40.69	19.48	61.29	-35.1	-36.1	23.8	0.00e+00	0	32	0	1396703232	42	6318
2026-01-27 23:53:41.70	18.78	61.01	-34.6	-35.5	23.5	0.00e+00	0	32	0	1399848960	42	5920
2026-01-27 23:53:42.71	18.09	60.72	-34.5	-35.4	23.8	0.00e+00	0	32	0	1402994688	42	5839
2026-01-27 23:53:43.72	17.42	60.43	-34.0	-34.8	24.8	0.00e+00	0	32	0	1406140416	42	5442
2026-01-27 23:53:44.74	16.75	60.14	-33.3	-34.1	25.3	0.00e+00	0	32	0	1409286144	40	5656
2026-01-27 23:53:45.75	16.11	59.85	-34.1	-35.0	24.6	0.00e+00	0	32	0	1412431872	40	6230
2026-01-27 23:53:46.76	15.48	59.55	-35.6	-36.6	23.4	0.00e+00	0	32	0	1415577600	42	6676
2026-01-27 23:53:47.77	14.86	59.26	-35.8	-36.8	23.0	0.00e+00	0	32	0	1418723328	44	6100
2026-01-27 23:53:48.78	14.26	58.96	-34.6	-35.6	23.7	0.00e+00	0	32	0	1421869056	42	5954
2026-01-27 23:53:49.79	13.68	58.66	-33.8	-34.6	24.7	0.00e+00	0	32	0	1425014784	42	5341
2026-01-27 23:53:50.80	13.10	58.36	-33.5	-34.3	25.1	0.00e+00	0	32	0	1428160512	40	5787
2026-01-27 23:53:51.81	12.54	58.06	-33.9	-34.8	24.8	0.00e+00	0	32	0	1431306240	40	6068
2026-01-27 23:53:52.82	11.99	57.76	-34.8	-35.7	24.2	0.00e+00	0	32	0	1434451968	40	6772
2026-01-27 23:53:53.83	11.46	57.46	-35.4	-36.4	23.5	0.00e+00	0	32	0	1437597696	42	6524
2026-01-27 23:53:54.84	10.93	57.16	-36.1	-37.1	22.5	0.00e+00	0	32	0	1440743424	44	6344
2026-01-27 23:53:55.85	10.42	56.85	-36.1	-37.1	23.1	0.00e+00	0	32	0	1443889152	44	6331
2026-01-27 23:53:56.86	9.92	56.55	-35.3	-36.3	23.4	0.00e+00	0	32	0	1447034880	44	5739
2026-01-27 23:53:57.87	9.43	56.24	-34.9	-35.8	24.0	0.00e+00	0	32	0	1450180608	44	5424
2026-01-27 23:53:58.88	8.95	55.94	-34.0	-34.8	24.9	0.00e+00	0	32	0	1453326336	42	5462
2026-01-27 23:53:59.88	8.48	55.63	-33.5	-34.3	25.2	0.00e+00	0	32	0	1456472064	40	5757
2026-01-27 23:54:00.89	8.03	55.33	-34.6	-35.4	24.0	0.00e+00	0	32	0	1459617792	40	6567
2026-01-27 23:54:01.90	7.58	55.02	-35.8	-36.7	23.3	0.00e+00	0	32	0	1462763520	42	6759
2026-01-27 23:54:02.92	7.13	54.71	-36.3	-37.3	22.9	0.00e+00	0	32	0	1465909248	44	6443
2026-01-27 23:54:03.92	6.71	54.41	-36.7	-37.7	22.1	0.00e+00	0	32	0	1469054976	44	6775
2026-01-27 23:54:04.93	6.29	54.11	-36.0	-37.0	22.6	0.00e+00	0	32	0	1472200704	46	5561
2026-01-27 23:54:05.94	5.87	53.80	-35.3	-36.3	23.1	0.00e+00	0	32	0	1475346432	44	5774
2026-01-27 23:54:06.95	5.47	53.50	-35.2	-36.2	23.4	0.00e+00	0	32	0	1478492160	44	5691
2026-01-27 23:54:07.96	5.08	53.19	-35.0	-35.9	24.0	0.00e+00	0	32	0	1481637888	44	5488
2026-01-27 23:54:08.97	4.69	52.89	-34.9	-35.8	24.2	0.00e+00	0	32	0	1484783616	42	6074
2026-01-27 23:54:09.98	4.31	52.59	-35.4	-36.3	23.3	0.00e+00	0	32	0	1487929344	42	6477
2026-01-27 23:54:10.99	3.94	52.28	-36.2	-37.2	22.6	0.00e+00	0	32	0	1491075072	44	6401
2026-01-27 23:54:12.00	3.58	51.98	-37.1	-38.1	22.3	0.00e+00	0	32	0	1494220800	46	6350
2026-01-27 23:54:13.01	3.22	51.68	-36.7	-37.8	22.7	0.00e+00	0	32	0	1497366528	46	6068
2026-01-27 23:54:14.02	2.87	51.38	-36.3	-37.3	23.1	0.00e+00	0	32	0	1500512256	46	5739
2026-01-27 23:54:15.03	2.53	51.08	-35.5	-36.4	23.7	0.00e+00	0	32	0	1503657984	44	5848
2026-01-27 23:54:16.04	2.19	50.78	-35.2	-36.1	24.0	0.00e+00	0	32	0	1506803712	44	5602
2026-01-27 23:54:17.05	1.87	50.48	-35.2	-36.1	24.0	0.00e+00	0	32	0	1509949440	44	5608
2026-01-27 23:54:18.06	1.54	50.19	-34.6	-35.5	24.4	0.00e+00	0	32	0	1513095168	42	5866
2026-01-27 23:54:19.07	1.23	49.89	-34.7	-35.6	24.3	0.00e+00	0	32	0	1516240896	42	5946
2026-01-27 23:54:20.08	0.92	49.60	-35.2	-36.1	23.9	0.00e+00	0	32	0	1519386624	42	6287
2026-01-27 23:54:21.09	0.62	49.30	-36.2	-37.2	23.0	0.00e+00	0	32	0	1522532352	44	6358
2026-01-27 23:54:22.10	0.32	49.01	-37.3	-38.4	21.5	0.00e+00	0	32	0	1525678080	46	6563
2026-01-27 23:54:23.11	0.03	48.72	-37.7	-38.9	20.9	0.00e+00	0	32	0	1528823808	48	6144
2026-01-27 23:54:24.12	359.74	48.43	-36.9	-38.0	21.8	0.00e+00	0	32	0	1531969536	48	5543
2026-01-27 23:54:25.13	359.46	48.14	-36.3	-37.3	22.6	0.00e+00	0	32	0	1535115264	46	5736
2026-01-27 23:54:26.14	359.18	47.85	-35.7	-36.7	23.3	0.00e+00	0	32	0	1538260992	46	5354
2026-01-27 23:54:27.15	358.91	47.56	-36.1	-37.0	23.2	0.00e+00	0	32	0	1541406720	44	6248
2026-01-27 23:54:28.16	358.65	47.28	-36.3	-37.3	22.9	0.00e+00	0	32	0	1544552448	44	6444
2026-01-27 23:54:29.17	358.39	46.99	-36.3	-37.3	23.0	0.00e+00	0	32	0	1547698176	44	6463
2026-01-27 23:54:30.18	358.13	46.71	-36.1	-37.1	23.2	0.00e+00	0	32	0	1550843904	44	6295
2026-01-27 23:54:31.19	357.88	46.43	-36.3	-37.2	22.8	0.00e+00	0	32	0	1553989632	44	6421
2026-01-27 23:54:32.20	357.63	46.14	-36.4	-37.3	22.9	0.00e+00	0	32	0	1557135360	44	6498
2026-01-27 23:54:33.21	357.39	45.87	-36.7	-37.7	22.6	0.00e+00	0	32	0	1560281088	44	6796
2026-01-27 23:54:34.22	357.15	45.59	-37.5	-38.7	21.7	0.00e+00	0	32	0	1563426816	46	6745
2026-01-27 23:54:35.23	356.92	45.31	-38.3	-39.6	20.3	0.00e+00	0	32	0	1566572544	48	6666
2026-01-27 23:54:36.24	356.69	45.04	-38.4	-39.7	20.0	0.00e+00	0	32	0	1569718272	48	6780
2026-01-27 23:54:37.25	356.46	44.76	-38.0	-39.2	20.7	0.00e+00	0	32	0	1572864000	48	6365
2026-01-27 23:54:38.26	356.24	44.49	-37.4	-38.4	21.9	0.00e+00	0	32	0	1576009728	48	5828
2026-01-27 23:54:39.27	356.02	44.22	-36.7	-37.6	22.7	0.00e+00	0	32	0	1579155456	48	5337
2026-01-27 23:54:40.28	355.81	43.95	-36.3	-37.2	23.0	0.00e+00	0	32	0	1582301184	46	5708
2026-01-27 23:54:41.29	355.60	43.68	-36.2	-37.1	22.9	0.00e+00	0	32	0	1585446912	46	5630
2026-01-27 23:54:42.30	355.39	43.41	-36.2	-37.1	23.0	0.00e+00	0	32	0	1588592640	46	5631
2026-01-27 23:54:43.31	355.19	43.15	-36.4	-37.4	22.7	0.00e+00	0	32	0	1591738368	46	5845
2026-01-27 23:54:44.33	354.99	42.88	-36.6	-37.6	22.8	0.00e+00	0	32	0	1594884096	46	5944
2026-01-27 23:54:45.34	354.79	42.62	-36.9	-37.9	22.4	0.00e+00	0	32	0	1598029824	46	6163
2026-01-27 23:54:46.34	354.60	42.36	-37.3	-38.3	22.0	0.00e+00	0	32	0	1601175552	46	6482
2026-01-27 23:54:47.36	354.41	42.10	-37.6	-38.7	21.8	0.00e+00	0	32	0	1604321280	46	6750
2026-01-27 23:54:48.37	354.22	41.84	-37.5	-38.6	21.9	0.00e+00	0	32	0	1607467008	46	6705
2026-01-27 23:54:49.38	354.03	41.58	-37.1	-38.1	22.2	0.00e+00	0	32	0	1610612736	46	6344
2026-01-27 23:54:50.39	353.85	41.33	-36.9	-38.0	22.0	0.00e+00	0	32	0	1613758464	46	6206
2026-01-27 23:54:51.40	353.67	41.07	-36.6	-37.6	21.9	0.00e+00	0	32	0	1616904192	46	5991
2026-01-27 23:54:52.41	353.50	40.82	-35.9	-37.0	22.0	0.00e+00	0	32	0	1620049920	46	5546
2026-01-27 23:54:53.42	353.33	40.57	-35.7	-36.7	22.4	0.00e+00	0	32	0	1623195648	44	5997
2026-01-27 23:54:54.43	353.16	40.32	-35.5	-36.5	23.0	0.00e+00	0	32	0	1626341376	44	5865
2026-01-27 23:54:55.44	352.99	40.07	-34.9	-35.8	23.9	0.00e+00	0	32	0	1629487104	44	5433
2026-01-27 23:54:56.45	352.82	39.83	-34.8	-35.7	24.2	0.00e+00	0	32	0	1632632832	42	6014
2026-01-27 23:54:57.46	352.66	39.58	-35.0	-35.9	24.0	0.00e+00	0	32	0	1636827136	42	6184
2026-01-27 23:54:58.47	352.50	39.34	-35.3	-36.2	23.7	0.00e+00	0	32	0	1639972864	42	6422
2026-01-27 23:54:59.48	352.34	39.10	-35.8	-36.7	23.2	0.00e+00	0	32	0	1642070016	44	6039
2026-01-27 23:55:00.49	352.19	38.86	-36.3	-37.2	22.8	0.00e+00	0	32	0	1645215744	44	6412
2026-01-27 23:55:01.50	352.03	38.62	-36.6	-37.7	22.7	0.00e+00	0	32	0	1648361472	44	6741
2026-01-27 23:55:02.51	351.88	38.38	-37.0	-38.0	22.4	0.00e+00	0	32	0	1652555776	46	6275
2026-01-27 23:55:03.52	351.74	38.14	-37.2	-38.2	22.2	0.00e+00	0	32	0	1655701504	46	6407
2026-01-27 23:55:04.53	351.59	37.91	-37.2	-38.2	22.2	0.00e+00	0	32	0	1658847232	46	6399
2026-01-27 23:55:05.54	351.45	37.67	-36.7	-37.7	22.7	0.00e+00	0	32	0	1661992960	46	6050
2026-01-27 23:55:06.55	351.30	37.44	-36.5	-37.5	22.8	0.00e+00	0	32	0	1665138688	46	5889
2026-01-27 23:55:07.56	351.16	37.21	-36.2	-37.2	23.1	0.00e+00	0	32	0	1668284416	46	5691
2026-01-27 23:55:08.57	351.03	36.98	-35.4	-36.3	23.8	0.00e+00	0	32	0	1671430144	44	5785
2026-01-27 23:55:09.58	350.89	36.75	-34.9	-35.7	24.1	0.00e+00	0	32	0	1674575872	44	5403
2026-01-27 23:55:10.59	350.76	36.53	-34.9	-35.8	24.0	0.00e+00	0	32	0	1677721600	44	5447
2026-01-27 23:55:11.60	350.62	36.30	-34.8	-35.7	24.1	0.00e+00	0	32	0	1680867328	44	5380
2026-01-27 23:55:12.61	350.49	36.08	-34.7	-35.7	24.0	0.00e+00	0	32	0	1684013056	42	5996
2026-01-27 23:55:13.62	350.37	35.86	-34.7	-35.7	23.9	0.00e+00	0	32	0	1687158784	42	6014
2026-01-27 23:55:14.63	350.24	35.64	-34.9	-35.8	23.9	0.00e+00	0	32	0	1690304512	42	6091
2026-01-27 23:55:15.64	350.11	35.42	-34.8	-35.7	24.1	0.00e+00	0	32	0	1693450240	42	6053
2026-01-27 23:55:16.65	349.99	35.20	-34.8	-35.7	24.1	0.00e+00	0	32	0	1696595968	42	6032
2026-01-27 23:55:17.66	349.87	34.98	-35.0	-35.9	23.9	0.00e+00	0	32	0	1699741696	42	6181
2026-01-27 23:55:18.67	349.75	34.76	-34.7	-35.6	24.2	0.00e+00	0	32	0	1702887424	42	5987
2026-01-27 23:55:19.68	349.63	34.55	-34.9	-35.8	24.0	0.00e+00	0	32	0	1706033152	42	6124
2026-01-27 23:55:20.69	349.52	34.34	-34.9	-35.9	23.9	0.00e+00	0	32	0	1709178880	42	6143
2026-01-27 23:55:21.70	349.40	34.13	-35.2	-36.1	23.6	0.00e+00	0	32	0	1712324608	42	6336
2026-01-27 23:55:22.71	349.29	33.92	-35.3	-36.3	23.4	0.00e+00	0	32	0	1715470336	42	6435
2026-01-27 23:55:23.72	349.17	33.71	-35.2	-36.2	23.4	0.00e+00	0	32	0	1718616064	42	6358
2026-01-27 23:55:24.74	349.06	33.50	-35.2	-36.2	23.4	0.00e+00	0	32	0	1721761792	42	6394
2026-01-27 23:55:25.75	348.95	33.29	-35.3	-36.3	23.5	0.00e+00	0	32	0	1724907520	42	6445
2026-01-27 23:55:26.76	348.85	33.09	-35.2	-36.2	23.8	0.00e+00	0	32	0	1728053248	42	6375
2026-01-27 23:55:27.77	348.74	32.88	-35.2	-36.1	23.8	0.00e+00	0	32	0	1731198976	42	6341
2026-01-27 23:55:28.78	348.64	32.68	-34.7	-35.6	24.4	0.00e+00	0	32	0	1734344704	42	5948
2026-01-27 23:55:29.78	348.53	32.48	-34.3	-35.2	24.6	0.00e+00	0	32	0	1737490432	42	5686
2026-01-27 23:55:30.79	348.43	32.28	-34.2	-35.0	24.7	0.00e+00	0	32	0	1740636160	42	5583
2026-01-27 23:55:31.80	348.33	32.08	-34.0	-34.9	24.9	0.00e+00	0	32	0	1743781888	42	5483
2026-01-27 23:55:32.81	348.23	31.88	-33.6	-34.5	25.1	0.00e+00	0	32	0	1746927616	40	5861
2026-01-27 23:55:33.82	348.13	31.69	-33.8	-34.6	25.0	0.00e+00	0	32	0	1750073344	40	5981
2026-01-27 23:55:34.83	348.03	31.49	-33.9	-34.8	24.9	0.00e+00	0	32	0	1753219072	40	6078
2026-01-27 23:55:35.85	347.94	31.29	-33.9	-34.7	24.9	0.00e+00	0	32	0	1756364800	40	6064
2026-01-27 23:55:36.86	347.84	31.10	-34.1	-35.0	24.7	0.00e+00	0	32	0	1759510528	40	6218
2026-01-27 23:55:37.87	347.75	30.91	-34.3	-35.2	24.4	0.00e+00	0	32	0	1762656256	40	6412
2026-01-27 23:55:38.88	347.66	30.72	-34.5	-35.4	24.4	0.00e+00	0	32	0	1765801984	40	6500
2026-01-27 23:55:39.89	347.56	30.53	-34.6	-35.5	24.2	0.00e+00	0	32	0	1768947712	40	6600
2026-01-27 23:55:40.90	347.47	30.34	-34.8	-35.7	24.1	0.00e+00	0	32	0	1772093440	42	6055
2026-01-27 23:55:41.91	347.39	30.15	-34.9	-35.8	24.1	0.00e+00	0	32	0	1775239168	42	6097
2026-01-27 23:55:42.92	347.30	29.97	-35.0	-35.9	24.0	0.00e+00	0	32	0	1778384896	42	6163
2026-01-27 23:55:43.93	347.21	29.78	-34.6	-35.5	24.2	0.00e+00	0	32	0	1781530624	42	5926
2026-01-27 23:55:44.94	347.12	29.60	-34.6	-35.5	24.3	0.00e+00	0	32	0	1784676352	42	5890
2026-01-27 23:55:45.95	347.04	29.42	-34.5	-35.4	24.3	0.00e+00	0	32	0	1787822080	42	5851
2026-01-27 23:55:46.96	346.96	29.24	-34.5	-35.4	24.3	0.00e+00	0	32	0	1790967808	42	5833
2026-01-27 23:55:47.97	346.87	29.06	-34.4	-35.3	24.3	0.00e+00	0	32	0	1794113536	42	5752
2026-01-27 23:55:48.98	346.79	28.88	-34.2	-35.1	24.4	0.00e+00	0	32	0	1797259264	42	5609
2026-01-27 23:55:49.99	346.71	28.70	-34.1	-35.0	24.4	0.00e+00	0	32	0	1800404992	42	5575
2026-01-27 23:55:51.00	346.63	28.52	-33.8	-34.7	24.7	0.00e+00	0	32	0	1803550720	42	5359
2026-01-27 23:55:52.01	346.55	28.34	-33.8	-34.6	24.7	0.00e+00	0	32	0	1806696448	40	5977
2026-01-27 23:55:53.02	346.47	28.17	-33.6	-34.5	24.8	0.00e+00	0	32	0	1809842176	40	5894
2026-01-27 23:55:54.03	346.39	28.00	-33.6	-34.4	24.8	0.00e+00	0	32	0	1812987904	40	5848
2026-01-27 23:55:55.05	346.32	27.82	-33.4	-34.3	24.9	0.00e+00	0	32	0	1816133632	40	5740
2026-01-27 23:55:56.05	346.24	27.65	-33.0	-33.9	25.3	0.00e+00	0	32	0	1819279360	40	5486
2026-01-27 23:55:57.07	346.17	27.48	-33.1	-33.9	25.2	0.00e+00	0	32	0	1822425088	40	5488
2026-01-27 23:55:58.07	346.09	27.31	-32.9	-33.7	25.3	0.00e+00	0	32	0	1825570816	40	5402
2026-01-27 23:55:59.09	346.02	27.14	-32.8	-33.7	25.4	0.00e+00	0	32	0	1828716544	40	5348
2026-01-27 23:56:00.10	345.95	26.97	-32.9	-33.7	25.4	0.00e+00	0	32	0	1831862272	40	5367
2026-01-27 23:56:01.11	345.87	26.80	-33.0	-33.8	25.3	0.00e+00	0	32	0	1835008000	40	5443
2026-01-27 23:56:02.11	345.80	26.64	-33.0	-33.9	25.3	0.00e+00	0	32	0	1838153728	40	5473
2026-01-27 23:56:03.12	345.73	26.47	-33.0	-33.9	25.3	0.00e+00	0	32	0	1841299456	40	5471
2026-01-27 23:56:04.13	345.66	26.31	-33.2	-34.0	25.1	0.00e+00	0	32	0	1844445184	40	5581
2026-01-27 23:56:05.14	345.60	26.15	-33.3	-34.1	25.1	0.00e+00	0	32	0	1847590912	40	5639
2026-01-27 23:56:06.15	345.53	25.99	-33.3	-34.2	25.1	0.00e+00	0	32	0	1850736640	40	5686
2026-01-27 23:56:07.16	345.46	25.82	-33.4	-34.2	25.1	0.00e+00	0	32	0	1853882368	40	5711
2026-01-27 23:56:08.17	345.39	25.66	-33.4	-34.3	25.0	0.00e+00	0	32	0	1857028096	40	5767
2026-01-27 23:56:09.18	345.33	25.50	-33.6	-34.5	24.8	0.00e+00	0	32	0	1860173824	40	5896
2026-01-27 23:56:10.19	345.26	25.35	-33.6	-34.5	24.9	0.00e+00	0	32	0	1863319552	40	5900
2026-01-27 23:56:11.20	345.20	25.19	-33.7	-34.6	24.8	0.00e+00	0	32	0	1866465280	40	5987
2026-01-27 23:56:12.21	345.14	25.03	-33.8	-34.7	24.7	0.00e+00	0	32	0	1869611008	40	6032
2026-01-27 23:56:13.22	345.07	24.88	-34.0	-34.9	24.6	0.00e+00	0	32	0	1872756736	40	6153
2026-01-27 23:56:14.23	345.01	24.72	-33.9	-34.9	24.6	0.00e+00	0	32	0	1875902464	40	6136
2026-01-27 23:56:15.23	344.95	24.57	-34.0	-34.9	24.6	0.00e+00	0	32	0	1879048192	40	6154
2026-01-27 23:56:16.24	344.89	24.41	-34.1	-35.0	24.5	0.00e+00	0	32	0	1882193920	40	6229
2026-01-27 23:56:17.25	344.83	24.26	-34.2	-35.2	24.5	0.00e+00	0	32	0	1885339648	40	6359
2026-01-27 23:56:18.26	344.77	24.11	-34.4	-35.2	24.4	0.00e+00	0	32	0	1888485376	40	6416
2026-01-27 23:56:19.27	344.71	23.96	-34.2	-35.2	24.5	0.00e+00	0	32	0	1891631104	40	6351
2026-01-27 23:56:20.28	344.65	23.81	-34.4	-35.3	24.3	0.00e+00	0	32	0	1894776832	40	6478
2026-01-27 23:56:21.29	344.59	23.66	-34.3	-35.2	24.4	0.00e+00	0	32	0	1897922560	40	6419
2026-01-27 23:56:22.30	344.54	23.51	-34.5	-35.4	24.2	0.00e+00	0	32	0	1901068288	40	6541
2026-01-27 23:56:23.31	344.48	23.36	-34.5	-35.4	24.3	0.00e+00	0	32	0	1904214016	40	6525
2026-01-27 23:56:24.32	344.42	23.22	-34.6	-35.5	24.3	0.00e+00	0	32	0	1907359744	40	6614
2026-01-27 23:56:25.33	344.37	23.07	-34.6	-35.5	24.3	0.00e+00	0	32	0	1910505472	40	6608
2026-01-27 23:56:26.34	344.31	22.93	-34.5	-35.4	24.3	0.00e+00	0	32	0	1913651200	40	6523
2026-01-27 23:56:27.35	344.26	22.78	-34.6	-35.6	24.2	0.00e+00	0	32	0	1916796928	40	6660
2026-01-27 23:56:28.36	344.20	22.64	-34.4	-35.4	24.3	0.00e+00	0	32	0	1919942656	40	6502
2026-01-27 23:56:29.37	344.15	22.50	-34.5	-35.4	24.3	0.00e+00	0	32	0	1923088384	40	6557
2026-01-27 23:56:30.38	344.10	22.35	-34.3	-35.2	24.4	0.00e+00	0	32	0	1926234112	40	6419
2026-01-27 23:56:31.39	344.04	22.21	-34.3	-35.2	24.4	0.00e+00	0	32	0	1929379840	40	6415
2026-01-27 23:56:32.40	343.99	22.07	-34.3	-35.2	24.5	0.00e+00	0	32	0	1932525568	40	6422
2026-01-27 23:56:33.41	343.94	21.93	-34.3	-35.2	24.5	0.00e+00	0	32	0	1935671296	40	6388
2026-01-27 23:56:34.42	343.89	21.79	-34.1	-35.0	24.5	0.00e+00	0	32	0	1938817024	40	6228
2026-01-27 23:56:35.43	343.84	21.66	-34.1	-35.0	24.5	0.00e+00	0	32	0	1941962752	40	6218
2026-01-27 23:56:36.44	343.79	21.52	-34.0	-34.9	24.4	0.00e+00	0	32	0	1945108480	40	6205
2026-01-27 23:56:37.45	343.74	21.38	-34.2	-35.1	24.3	0.00e+00	0	32	0	1948254208	40	6301
2026-01-27 23:56:38.45	343.69	21.25	-34.1	-35.1	24.3	0.00e+00	0	32	0	1952448512	40	6279
2026-01-27 23:56:39.46	343.64	21.11	-34.1	-35.0	24.4	0.00e+00	0	32	0	1955594240	40	6232
2026-01-27 23:56:40.48	343.59	20.98	-33.9	-34.8	24.5	0.00e+00	0	32	0	1957691392	40	6097
2026-01-27 23:56:41.48	343.55	20.84	-34.0	-34.9	24.3	0.00e+00	0	32	0	1960837120	40	6177
2026-01-27 23:56:42.49	343.50	20.71	-34.0	-34.9	24.2	0.00e+00	0	32	0	1963982848	40	6201
2026-01-27 23:56:43.50	343.45	20.58	-33.8	-34.7	24.5	0.00e+00	0	32	0	1968177152	40	6056
2026-01-27 23:56:44.51	343.41	20.45	-33.8	-34.7	24.5	0.00e+00	0	32	0	1971322880	40	6003
2026-01-27 23:56:45.52	343.36	20.31	-33.7	-34.6	24.5	0.00e+00	0	32	0	1974468608	40	5944
2026-01-27 23:56:46.53	343.32	20.18	-33.8	-34.7	24.5	0.00e+00	0	32	0	1977614336	40	6025
2026-01-27 23:56:47.54	343.27	20.05	-33.8	-34.6	24.5	0.00e+00	0	32	0	1979711488	40	5992
2026-01-27 23:56:48.55	343.23	19.92	-33.7	-34.6	24.5	0.00e+00	0	32	0	1983905792	40	5951
2026-01-27 23:56:49.56	343.18	19.80	-33.7	-34.6	24.5	0.00e+00	0	32	0	1987051520	40	5941
2026-01-27 23:56:50.57	343.14	19.67	-33.7	-34.6	24.6	0.00e+00	0	32	0	1990197248	40	5962
2026-01-27 23:56:51.58	343.09	19.54	-33.5	-34.4	24.6	0.00e+00	0	32	0	1993342976	40	5817
2026-01-27 23:56:52.59	343.05	19.41	-33.7	-34.6	24.5	0.00e+00	0	32	0	1996488704	40	5944
2026-01-27 23:56:53.60	343.01	19.29	-33.5	-34.4	24.6	0.00e+00	0	32	0	1999634432	40	5799
