passes_logs/2026/01/27/R4.6S_Anadyr/R4.6S_Anadyr__20260127_023653_NOAA_20_JPSS-1_rec.log

#Pass ID: 20260127_023653_NOAA 20 (JPSS-1)
#Satellite: NOAA 20 (JPSS-1)
#Configuration: NOAA 20
#almurnet v.1.7.20251203
#Start time: 2026-01-27 02:36:57

#Version: 2.2.20231116
#Station: R4.6S_Anadyr
#Location: 177.4865 lon 64.73178 lat
#TLE: 1 43013U 17073A   26026.46665230  .00000148  00000+0  91302-4 0  9998
#TLE: 2 43013  98.7646 327.2856 0001008  22.9532 337.1688 14.19540616424360

#Time	Az	El	Level	Level2	SNR	BER	BlckErr	Temp	State	Recorded	gain1	gain2
2026-01-27 02:36:57.35	219.37	0.17	-49.0	-62.8	3.3	1.54e+00	0	27	0	0	60	50104
2026-01-27 02:36:58.35	219.45	0.22	-49.0	-64.3	3.6	1.51e+00	0	28	104	0	60	58972
2026-01-27 02:36:59.36	219.52	0.27	-49.1	-64.2	3.6	1.51e+00	0	28	104	0	60	58953
2026-01-27 02:37:00.37	219.60	0.32	-49.0	-64.3	3.6	1.51e+00	0	28	104	0	60	59220
2026-01-27 02:37:01.38	219.67	0.37	-49.1	-64.3	3.6	1.51e+00	0	28	104	0	60	59396
2026-01-27 02:37:02.39	219.75	0.42	-49.1	-64.3	3.6	1.51e+00	0	28	104	0	60	59369
2026-01-27 02:37:03.40	219.83	0.47	-48.8	-64.3	3.6	1.51e+00	0	28	104	0	60	59473
2026-01-27 02:37:04.42	219.91	0.52	-48.9	-64.3	3.6	1.51e+00	0	28	104	0	60	59138
2026-01-27 02:37:05.43	219.98	0.57	-48.9	-64.3	3.6	1.51e+00	0	28	104	0	60	59340
2026-01-27 02:37:06.44	220.06	0.62	-49.0	-64.3	3.6	1.51e+00	0	28	104	0	60	59529
2026-01-27 02:37:07.45	220.14	0.67	-49.0	-64.4	3.6	1.51e+00	0	28	104	0	60	59832
2026-01-27 02:37:08.46	220.22	0.72	-49.1	-64.3	3.6	1.51e+00	0	28	104	0	60	59401
2026-01-27 02:37:09.47	220.29	0.77	-49.1	-64.3	3.6	1.51e+00	0	28	104	0	60	59511
2026-01-27 02:37:10.48	220.37	0.82	-49.1	-64.3	3.6	1.51e+00	0	28	104	0	60	59133
2026-01-27 02:37:11.49	220.45	0.87	-48.8	-64.2	3.6	1.51e+00	0	28	104	0	60	58881
2026-01-27 02:37:12.50	220.53	0.92	-48.7	-64.2	3.6	1.51e+00	0	28	104	0	60	58594
2026-01-27 02:37:13.51	220.61	0.97	-48.7	-64.2	3.6	1.51e+00	0	28	104	0	60	58471
2026-01-27 02:37:14.52	220.69	1.03	-48.6	-64.1	3.6	1.51e+00	0	28	104	0	60	58132
2026-01-27 02:37:15.53	220.77	1.08	-48.7	-64.1	3.6	1.51e+00	0	28	104	0	60	57717
2026-01-27 02:37:16.54	220.85	1.13	-48.7	-64.0	3.6	1.51e+00	0	28	104	0	60	57255
2026-01-27 02:37:17.55	220.93	1.18	-48.6	-63.7	3.6	1.51e+00	0	28	104	0	60	55560
2026-01-27 02:37:18.56	221.01	1.23	-48.1	-63.3	3.6	1.51e+00	0	28	104	0	60	52554
2026-01-27 02:37:19.57	221.09	1.28	-47.4	-62.5	3.6	1.51e+00	0	28	104	0	60	48219
2026-01-27 02:37:20.58	221.17	1.33	-46.9	-62.1	3.6	1.51e+00	0	28	104	0	60	45991
2026-01-27 02:37:21.59	221.25	1.38	-46.9	-62.1	3.6	1.51e+00	0	28	104	0	60	45944
2026-01-27 02:37:22.60	221.33	1.43	-46.9	-62.1	3.6	1.51e+00	0	28	104	0	60	45813
2026-01-27 02:37:23.61	221.42	1.48	-46.9	-62.1	3.6	1.51e+00	0	28	104	0	60	45864
2026-01-27 02:37:24.62	221.50	1.53	-46.9	-62.1	3.6	1.51e+00	0	28	104	0	60	46185
2026-01-27 02:37:25.63	221.58	1.58	-46.9	-62.1	3.6	1.51e+00	0	28	104	0	60	45929
2026-01-27 02:37:26.64	221.66	1.64	-46.9	-62.1	3.6	1.51e+00	0	28	104	0	60	45950
2026-01-27 02:37:27.65	221.75	1.69	-46.9	-62.1	3.6	1.51e+00	0	28	104	0	60	45914
2026-01-27 02:37:28.66	221.83	1.74	-46.9	-62.1	3.6	1.51e+00	0	28	104	0	60	45779
2026-01-27 02:37:29.67	221.91	1.79	-46.9	-62.1	3.6	1.51e+00	0	28	104	0	60	45849
2026-01-27 02:37:30.68	222.00	1.84	-46.9	-62.0	3.6	1.51e+00	0	28	104	0	60	45480
2026-01-27 02:37:31.69	222.08	1.89	-46.9	-61.9	3.6	1.51e+00	0	28	104	0	60	45137
2026-01-27 02:37:32.70	222.16	1.94	-46.9	-61.9	3.6	1.51e+00	0	28	104	0	60	45215
2026-01-27 02:37:33.71	222.25	1.99	-46.9	-61.9	3.6	1.51e+00	0	28	104	0	60	45117
2026-01-27 02:37:34.72	222.33	2.05	-46.9	-61.9	3.6	1.51e+00	0	28	104	0	60	44999
2026-01-27 02:37:35.73	222.42	2.10	-46.9	-61.9	3.6	1.51e+00	0	28	104	0	60	44768
2026-01-27 02:37:36.74	222.50	2.15	-46.9	-61.8	3.6	1.51e+00	0	28	104	0	60	44326
2026-01-27 02:37:37.75	222.59	2.20	-46.9	-61.9	3.6	1.51e+00	0	28	104	0	60	44761
2026-01-27 02:37:38.76	222.68	2.25	-46.9	-61.8	3.6	1.51e+00	0	28	104	0	60	44529
2026-01-27 02:37:39.76	222.76	2.30	-46.9	-62.0	3.6	1.51e+00	0	28	104	0	60	45277
2026-01-27 02:37:40.77	222.85	2.35	-46.9	-61.8	3.6	1.51e+00	0	28	104	0	60	44653
2026-01-27 02:37:41.79	222.94	2.41	-46.9	-61.9	3.6	1.51e+00	0	28	104	0	60	44955
2026-01-27 02:37:42.79	223.02	2.46	-46.9	-61.4	3.6	1.51e+00	0	28	104	0	60	42479
2026-01-27 02:37:43.81	223.11	2.51	-46.8	-60.8	3.6	1.51e+00	0	28	104	0	60	39634
2026-01-27 02:37:44.82	223.20	2.56	-46.7	-58.8	4.0	1.50e+00	0	28	104	0	60	31409
2026-01-27 02:37:45.82	223.28	2.61	-46.5	-55.2	5.0	8.73e-01	0	28	0	1048576	60	20732
2026-01-27 02:37:46.84	223.37	2.67	-46.3	-54.0	6.0	3.75e-01	0	28	0	2097152	60	18022
2026-01-27 02:37:47.85	223.46	2.72	-45.7	-51.4	9.0	8.18e-02	0	28	0	4194304	60	13397
2026-01-27 02:37:48.85	223.55	2.77	-45.6	-51.0	9.8	1.65e-02	0	28	0	6291456	60	12851
2026-01-27 02:37:49.86	223.64	2.82	-45.3	-50.3	10.4	4.91e-03	0	28	0	8388608	60	11849
2026-01-27 02:37:50.87	223.73	2.87	-45.2	-50.1	10.6	5.63e-03	0	28	0	10485760	60	11517
2026-01-27 02:37:51.88	223.82	2.93	-45.3	-50.2	10.4	5.93e-03	0	28	0	11534336	60	11741
2026-01-27 02:37:52.89	223.91	2.98	-45.7	-51.6	8.8	2.46e-02	0	28	0	13631488	60	13755
2026-01-27 02:37:53.90	224.00	3.03	-46.3	-53.8	5.9	1.79e-01	0	28	0	15728640	60	17639
2026-01-27 02:37:54.91	224.09	3.08	-47.6	-62.7	3.6	2.27e-01	0	28	104	16777216	60	49263
2026-01-27 02:37:55.92	224.18	3.13	-46.7	-60.1	3.6	1.42e+00	0	28	104	16777216	60	36538
2026-01-27 02:37:56.93	224.27	3.19	-44.1	-47.2	13.9	5.32e-01	0	29	0	16777216	60	8307
2026-01-27 02:37:57.94	224.36	3.24	-46.0	-52.0	8.8	1.05e-04	0	28	0	18874368	60	14413
2026-01-27 02:37:58.95	224.46	3.29	-46.0	-52.0	8.5	2.40e-03	0	28	0	20971520	60	14353
2026-01-27 02:37:59.96	224.55	3.34	-44.6	-48.1	13.2	1.66e-03	0	28	0	23068672	60	9210
2026-01-27 02:38:00.97	224.64	3.40	-44.4	-47.9	13.3	1.67e-05	0	28	0	24117248	60	8987
2026-01-27 02:38:01.98	224.73	3.45	-44.3	-47.7	13.5	2.36e-05	0	28	0	26214400	60	8752
2026-01-27 02:38:02.99	224.83	3.50	-44.5	-48.0	13.1	7.60e-06	0	28	0	28311552	60	9131
2026-01-27 02:38:04.00	224.92	3.55	-44.5	-47.9	13.4	1.60e-05	0	28	0	30408704	60	9022
2026-01-27 02:38:05.01	225.01	3.61	-44.4	-47.8	13.5	1.52e-05	0	28	0	32505856	60	8889
2026-01-27 02:38:06.02	225.11	3.66	-44.4	-47.8	13.5	1.90e-05	0	28	0	33554432	60	8887
2026-01-27 02:38:07.03	225.20	3.71	-44.3	-47.7	13.6	7.60e-06	0	28	0	35651584	60	8772
2026-01-27 02:38:08.04	225.30	3.77	-44.3	-47.6	13.7	1.14e-05	0	28	0	37748736	60	8672
2026-01-27 02:38:09.05	225.39	3.82	-44.4	-47.9	13.3	5.30e-06	0	28	0	39845888	60	8983
2026-01-27 02:38:10.06	225.49	3.87	-44.5	-48.0	13.3	2.13e-05	0	28	0	41943040	60	9036
2026-01-27 02:38:11.07	225.58	3.92	-44.4	-47.9	13.4	1.75e-05	0	28	0	42991616	60	8953
2026-01-27 02:38:12.08	225.68	3.98	-44.3	-47.7	13.6	9.90e-06	0	28	0	45088768	60	8752
2026-01-27 02:38:13.09	225.78	4.03	-44.4	-47.8	13.5	1.37e-05	0	28	0	47185920	60	8893
2026-01-27 02:38:14.10	225.87	4.08	-44.4	-47.8	13.6	9.10e-06	0	28	0	49283072	60	8824
2026-01-27 02:38:15.11	225.97	4.14	-44.5	-48.0	13.3	8.30e-06	0	28	0	51380224	60	9046
2026-01-27 02:38:16.12	226.07	4.19	-44.6	-48.0	13.3	7.60e-06	0	28	0	53477376	60	9118
2026-01-27 02:38:17.13	226.17	4.24	-44.7	-48.3	13.0	3.20e-05	0	28	0	54525952	60	9376
2026-01-27 02:38:18.14	226.26	4.30	-44.5	-48.0	13.4	1.90e-05	0	28	0	56623104	60	9083
2026-01-27 02:38:19.15	226.36	4.35	-44.6	-48.2	13.1	1.98e-05	0	29	0	58720256	60	9274
2026-01-27 02:38:20.16	226.46	4.40	-44.7	-48.2	13.2	3.35e-05	0	28	0	60817408	60	9318
2026-01-27 02:38:21.17	226.56	4.46	-44.8	-48.4	12.9	3.66e-05	0	29	0	62914560	60	9533
2026-01-27 02:38:22.18	226.66	4.51	-44.8	-48.4	13.0	2.28e-05	0	28	0	63963136	60	9471
2026-01-27 02:38:23.19	226.76	4.56	-44.9	-48.8	12.6	6.02e-05	0	28	0	66060288	60	9899
2026-01-27 02:38:24.20	226.86	4.62	-44.8	-48.5	12.9	7.17e-05	0	29	0	68157440	60	9607
2026-01-27 02:38:25.21	226.96	4.67	-44.9	-48.6	12.8	6.63e-05	0	28	0	70254592	60	9779
2026-01-27 02:38:26.22	227.06	4.72	-44.9	-48.6	12.9	4.95e-05	0	28	0	72351744	60	9718
2026-01-27 02:38:27.23	227.16	4.78	-44.9	-48.6	12.8	3.66e-05	0	29	0	73400320	60	9708
2026-01-27 02:38:28.24	227.26	4.83	-44.9	-48.4	13.1	5.03e-05	0	28	0	75497472	60	9561
2026-01-27 02:38:29.25	227.37	4.88	-45.0	-48.7	12.7	6.17e-05	0	29	0	77594624	60	9885
2026-01-27 02:38:30.26	227.47	4.94	-45.1	-49.0	12.6	8.31e-05	0	29	0	79691776	60	10143
2026-01-27 02:38:31.27	227.57	4.99	-45.0	-48.8	12.8	5.49e-05	0	29	0	81788928	60	9920
2026-01-27 02:38:32.28	227.67	5.04	-45.0	-48.9	12.6	7.85e-05	0	29	0	82837504	60	10035
2026-01-27 02:38:33.29	227.78	5.10	-45.1	-49.0	12.5	6.86e-05	0	29	0	84934656	60	10207
2026-01-27 02:38:34.30	227.88	5.15	-45.1	-48.9	12.7	8.01e-05	0	29	0	87031808	60	10024
2026-01-27 02:38:35.31	227.99	5.21	-45.3	-49.2	12.3	1.59e-04	0	29	0	89128960	60	10479
2026-01-27 02:38:36.31	228.09	5.26	-45.2	-49.0	12.5	8.46e-05	0	29	0	91226112	60	10218
2026-01-27 02:38:37.32	228.19	5.31	-45.2	-49.0	12.5	9.76e-05	0	29	0	92274688	60	10238
2026-01-27 02:38:38.33	228.30	5.37	-45.2	-49.1	12.5	1.01e-04	0	29	0	94371840	60	10325
2026-01-27 02:38:39.34	228.41	5.42	-45.4	-49.4	12.1	1.64e-04	0	29	0	96468992	60	10698
2026-01-27 02:38:40.35	228.51	5.47	-45.4	-49.5	12.2	2.08e-04	0	29	0	98566144	60	10781
2026-01-27 02:38:41.36	228.62	5.53	-45.5	-49.6	12.1	2.86e-04	0	28	0	100663296	60	10933
2026-01-27 02:38:42.37	228.72	5.58	-45.5	-49.5	12.2	2.64e-04	0	29	0	101711872	60	10755
2026-01-27 02:38:43.38	228.83	5.64	-45.5	-49.5	12.2	2.29e-04	0	29	0	103809024	60	10792
2026-01-27 02:38:44.39	228.94	5.69	-45.5	-49.6	12.2	2.13e-04	0	29	0	105906176	60	10859
2026-01-27 02:38:45.40	229.05	5.74	-45.4	-49.4	12.3	1.56e-04	0	29	0	108003328	60	10679
2026-01-27 02:38:46.41	229.16	5.80	-45.3	-49.3	12.4	1.59e-04	0	29	0	110100480	60	10510
2026-01-27 02:38:47.42	229.26	5.85	-45.4	-49.3	12.4	1.08e-04	0	29	0	111149056	60	10537
2026-01-27 02:38:48.43	229.37	5.91	-45.5	-49.6	12.1	2.41e-04	0	29	0	113246208	60	10930
2026-01-27 02:38:49.44	229.48	5.96	-45.5	-49.5	12.4	3.40e-04	0	29	0	115343360	60	10772
2026-01-27 02:38:50.45	229.59	6.02	-45.5	-49.5	12.3	1.52e-04	0	29	0	117440512	60	10732
2026-01-27 02:38:51.46	229.70	6.07	-45.5	-49.6	12.2	1.75e-04	0	29	0	119537664	60	10877
2026-01-27 02:38:52.47	229.81	6.12	-45.6	-49.8	12.0	3.33e-04	0	29	0	121634816	60	11151
2026-01-27 02:38:53.48	229.92	6.18	-45.6	-49.7	12.1	2.92e-04	0	29	0	122683392	60	11081
2026-01-27 02:38:54.49	230.04	6.23	-45.7	-49.8	11.9	3.06e-04	0	29	0	124780544	60	11199
2026-01-27 02:38:55.50	230.15	6.29	-45.7	-50.0	11.8	4.26e-04	0	29	0	126877696	60	11396
2026-01-27 02:38:56.51	230.26	6.34	-45.8	-50.1	11.7	5.44e-04	0	29	0	128974848	60	11514
2026-01-27 02:38:57.53	230.37	6.40	-45.8	-50.0	11.9	4.40e-04	0	29	0	131072000	60	11430
2026-01-27 02:38:58.53	230.49	6.45	-45.8	-50.0	11.8	3.94e-04	0	29	0	132120576	60	11496
2026-01-27 02:38:59.54	230.60	6.50	-45.8	-50.0	11.9	4.38e-04	0	29	0	134217728	60	11409
2026-01-27 02:39:00.56	230.71	6.56	-45.9	-50.1	11.7	4.82e-04	0	29	0	136314880	60	11625
2026-01-27 02:39:01.57	230.83	6.61	-45.8	-50.0	12.0	4.78e-04	0	29	0	138412032	60	11480
2026-01-27 02:39:02.58	230.94	6.67	-45.9	-50.1	11.7	4.54e-04	0	29	0	140509184	60	11612
2026-01-27 02:39:03.59	231.06	6.72	-45.8	-49.9	12.0	4.24e-04	0	29	0	141557760	60	11358
2026-01-27 02:39:04.60	231.17	6.78	-45.7	-49.8	12.2	3.53e-04	0	29	0	143654912	60	11142
2026-01-27 02:39:05.61	231.29	6.83	-45.8	-49.9	12.2	2.53e-04	0	29	0	145752064	60	11270
2026-01-27 02:39:06.62	231.41	6.89	-45.8	-49.9	12.0	2.92e-04	0	29	0	147849216	60	11348
2026-01-27 02:39:07.63	231.52	6.94	-45.8	-49.9	12.1	2.86e-04	0	29	0	149946368	60	11320
2026-01-27 02:39:08.64	231.64	7.00	-45.8	-49.8	12.0	2.29e-04	0	29	0	150994944	60	11217
2026-01-27 02:39:09.64	231.76	7.05	-45.8	-49.8	12.3	2.28e-04	0	29	0	153092096	60	11116
2026-01-27 02:39:10.65	231.87	7.11	-45.8	-49.7	12.3	1.98e-04	0	29	0	155189248	60	11099
2026-01-27 02:39:11.66	231.99	7.16	-45.8	-49.8	12.2	2.11e-04	0	29	0	157286400	60	11200
2026-01-27 02:39:12.67	232.11	7.21	-45.7	-49.7	12.4	1.62e-04	0	29	0	159383552	60	11046
2026-01-27 02:39:13.68	232.23	7.27	-45.7	-49.6	12.5	8.69e-05	0	29	0	160432128	60	10919
2026-01-27 02:39:14.69	232.35	7.32	-45.7	-49.7	12.3	1.54e-04	0	29	0	162529280	60	11105
2026-01-27 02:39:15.70	232.47	7.38	-45.6	-49.5	12.7	1.42e-04	0	29	0	164626432	60	10740
2026-01-27 02:39:16.71	232.59	7.43	-45.4	-49.2	13.0	6.56e-05	0	29	0	166723584	60	10445
2026-01-27 02:39:17.72	232.71	7.49	-45.4	-49.2	13.0	3.50e-05	0	29	0	168820736	60	10365
2026-01-27 02:39:18.73	232.83	7.54	-45.4	-49.1	13.1	2.44e-05	0	29	0	169869312	60	10260
2026-01-27 02:39:19.74	232.96	7.60	-45.4	-49.0	13.2	2.74e-05	0	29	0	171966464	60	10232
2026-01-27 02:39:20.75	233.08	7.65	-45.4	-48.8	13.5	2.74e-05	0	29	0	174063616	60	9995
2026-01-27 02:39:21.76	233.20	7.71	-45.3	-48.8	13.4	1.75e-05	0	29	0	176160768	60	9916
2026-01-27 02:39:22.77	233.32	7.76	-45.4	-48.9	13.3	1.22e-05	0	29	0	178257920	60	10089
2026-01-27 02:39:23.78	233.45	7.82	-45.4	-48.9	13.4	1.67e-05	0	29	0	179306496	60	10085
2026-01-27 02:39:24.79	233.57	7.87	-45.3	-48.8	13.5	1.22e-05	0	29	0	181403648	60	9910
2026-01-27 02:39:25.80	233.70	7.93	-45.3	-48.8	13.6	9.10e-06	0	29	0	183500800	60	9925
2026-01-27 02:39:26.81	233.82	7.98	-45.2	-48.6	13.8	6.10e-06	0	29	0	185597952	60	9684
2026-01-27 02:39:27.83	233.95	8.04	-45.3	-48.7	13.6	4.50e-06	0	29	0	187695104	60	9811
2026-01-27 02:39:28.84	234.07	8.09	-45.3	-48.7	13.7	4.50e-06	0	29	0	189792256	60	9846
2026-01-27 02:39:29.84	234.20	8.15	-45.1	-48.4	13.9	6.80e-06	0	29	0	190840832	60	9531
2026-01-27 02:39:30.86	234.33	8.20	-45.0	-48.3	13.9	5.30e-06	0	29	0	192937984	60	9418
2026-01-27 02:39:31.87	234.46	8.26	-45.0	-48.4	14.0	2.20e-06	0	29	0	195035136	60	9465
2026-01-27 02:39:32.88	234.58	8.31	-45.0	-48.3	14.0	2.20e-06	0	29	0	197132288	60	9398
2026-01-27 02:39:33.89	234.71	8.36	-45.0	-48.1	14.2	7.00e-07	0	29	0	199229440	60	9235
2026-01-27 02:39:34.90	234.84	8.42	-45.1	-48.1	14.2	0.00e+00	0	29	0	200278016	60	9233
2026-01-27 02:39:35.91	234.97	8.47	-45.0	-48.1	14.3	0.00e+00	0	29	0	202375168	60	9168
2026-01-27 02:39:36.92	235.10	8.53	-45.1	-48.2	14.2	1.50e-06	0	29	0	204472320	60	9241
2026-01-27 02:39:37.93	235.23	8.58	-44.9	-47.9	14.5	7.00e-07	0	29	0	206569472	60	8941
2026-01-27 02:39:38.94	235.36	8.64	-44.9	-47.9	14.4	0.00e+00	0	29	0	208666624	60	9001
2026-01-27 02:39:39.95	235.49	8.69	-44.9	-47.9	14.5	1.50e-06	0	29	0	209715200	60	8993
2026-01-27 02:39:40.96	235.62	8.75	-44.8	-47.8	14.6	7.00e-07	0	29	0	211812352	60	8869
2026-01-27 02:39:41.97	235.75	8.80	-44.8	-47.8	14.6	0.00e+00	0	29	0	213909504	60	8881
2026-01-27 02:39:42.97	235.89	8.86	-44.7	-47.6	14.9	0.00e+00	0	29	0	216006656	60	8691
2026-01-27 02:39:43.98	236.02	8.91	-44.5	-47.4	15.1	0.00e+00	0	29	0	218103808	60	8471
2026-01-27 02:39:44.99	236.15	8.97	-44.6	-47.4	14.9	0.00e+00	0	29	0	219152384	60	8514
2026-01-27 02:39:46.00	236.29	9.02	-44.4	-47.1	15.4	0.00e+00	0	29	0	221249536	60	8192
2026-01-27 02:39:47.01	236.42	9.08	-44.2	-46.8	15.6	0.00e+00	0	29	0	223346688	60	7947
2026-01-27 02:39:48.02	236.55	9.13	-44.3	-46.9	15.6	0.00e+00	0	29	0	225443840	60	8014
2026-01-27 02:39:49.03	236.69	9.19	-44.3	-46.9	15.6	0.00e+00	0	29	0	227540992	60	7967
2026-01-27 02:39:50.04	236.83	9.24	-44.1	-46.5	16.0	0.00e+00	0	29	0	228589568	60	7627
2026-01-27 02:39:51.05	236.96	9.29	-44.0	-46.4	16.1	0.00e+00	0	29	0	230686720	60	7566
2026-01-27 02:39:52.06	237.10	9.35	-44.0	-46.4	16.1	0.00e+00	0	29	0	232783872	60	7579
2026-01-27 02:39:53.07	237.24	9.40	-44.0	-46.4	16.1	0.00e+00	0	29	0	234881024	60	7539
2026-01-27 02:39:54.08	237.37	9.46	-43.9	-46.3	16.2	0.00e+00	0	29	0	236978176	60	7430
2026-01-27 02:39:55.09	237.51	9.51	-43.6	-45.8	16.7	0.00e+00	0	29	0	238026752	60	7010
2026-01-27 02:39:56.10	237.65	9.57	-43.5	-45.7	16.9	0.00e+00	0	29	0	240123904	60	6965
2026-01-27 02:39:57.11	237.79	9.62	-43.4	-45.6	16.9	0.00e+00	0	29	0	242221056	60	6880
2026-01-27 02:39:58.12	237.93	9.68	-43.4	-45.5	17.1	0.00e+00	0	29	0	244318208	60	6800
2026-01-27 02:39:59.13	238.07	9.73	-43.2	-45.3	17.2	0.00e+00	0	29	0	246415360	60	6632
2026-01-27 02:40:00.14	238.21	9.78	-43.2	-45.2	17.3	0.00e+00	0	29	0	247463936	60	6604
2026-01-27 02:40:01.15	238.35	9.84	-43.0	-45.0	17.6	0.00e+00	0	29	0	249561088	60	6391
2026-01-27 02:40:02.16	238.50	9.89	-43.0	-44.9	17.6	0.00e+00	0	29	0	251658240	60	6359
2026-01-27 02:40:03.17	238.64	9.95	-42.8	-44.7	17.8	0.00e+00	0	29	0	253755392	60	6215
2026-01-27 02:40:04.18	238.78	10.00	-42.6	-44.5	18.0	0.00e+00	0	29	0	255852544	58	6777
2026-01-27 02:40:05.19	238.92	10.06	-42.7	-44.5	17.9	0.00e+00	0	29	0	257949696	58	6813
2026-01-27 02:40:06.19	239.07	10.11	-42.6	-44.3	18.1	0.00e+00	0	29	0	258998272	58	6686
2026-01-27 02:40:07.20	239.21	10.16	-42.5	-44.2	18.2	0.00e+00	0	29	0	261095424	58	6606
2026-01-27 02:40:08.21	239.36	10.22	-42.3	-43.9	18.5	0.00e+00	0	29	0	263192576	58	6382
2026-01-27 02:40:09.22	239.50	10.27	-42.1	-43.8	18.7	0.00e+00	0	29	0	265289728	58	6267
2026-01-27 02:40:10.23	239.65	10.33	-42.1	-43.7	18.6	0.00e+00	0	29	0	267386880	58	6245
2026-01-27 02:40:11.24	239.79	10.38	-42.1	-43.8	18.7	0.00e+00	0	29	0	268435456	58	6257
2026-01-27 02:40:12.25	239.94	10.43	-41.8	-43.4	19.1	0.00e+00	0	29	0	270532608	58	5975
2026-01-27 02:40:13.26	240.09	10.49	-41.7	-43.2	19.2	0.00e+00	0	29	0	272629760	56	6580
2026-01-27 02:40:14.27	240.24	10.54	-41.6	-43.1	19.3	0.00e+00	0	29	0	274726912	56	6517
2026-01-27 02:40:15.28	240.38	10.60	-41.5	-43.0	19.6	0.00e+00	0	29	0	276824064	56	6409
2026-01-27 02:40:16.29	240.53	10.65	-41.4	-42.9	19.6	0.00e+00	0	29	0	277872640	56	6331
2026-01-27 02:40:17.30	240.68	10.70	-41.3	-42.7	19.8	0.00e+00	0	28	0	279969792	56	6178
2026-01-27 02:40:18.31	240.83	10.76	-41.1	-42.5	20.0	0.00e+00	0	29	0	282066944	56	6047
2026-01-27 02:40:19.32	240.98	10.81	-41.1	-42.4	20.0	0.00e+00	0	29	0	284164096	56	6005
2026-01-27 02:40:20.33	241.14	10.86	-40.9	-42.3	20.2	0.00e+00	0	29	0	286261248	56	5923
2026-01-27 02:40:21.34	241.29	10.92	-40.8	-42.1	20.4	0.00e+00	0	29	0	287309824	56	5806
2026-01-27 02:40:22.35	241.44	10.97	-40.4	-41.6	20.7	0.00e+00	0	29	0	289406976	54	6167
2026-01-27 02:40:23.36	241.59	11.02	-40.3	-41.5	20.9	0.00e+00	0	29	0	291504128	54	6049
2026-01-27 02:40:24.37	241.75	11.08	-40.3	-41.5	20.9	0.00e+00	0	29	0	293601280	54	6090
2026-01-27 02:40:25.38	241.90	11.13	-40.2	-41.4	21.0	0.00e+00	0	29	0	295698432	54	6001
2026-01-27 02:40:26.39	242.05	11.18	-40.0	-41.2	21.2	0.00e+00	0	29	0	296747008	54	5844
2026-01-27 02:40:27.40	242.21	11.24	-39.8	-40.9	21.4	0.00e+00	0	29	0	298844160	54	5693
2026-01-27 02:40:28.41	242.36	11.29	-39.6	-40.7	21.8	0.00e+00	0	29	0	300941312	52	6214
2026-01-27 02:40:29.42	242.52	11.34	-39.6	-40.7	21.8	0.00e+00	0	29	0	303038464	52	6229
2026-01-27 02:40:30.43	242.68	11.39	-39.5	-40.5	21.9	0.00e+00	0	29	0	305135616	52	6094
2026-01-27 02:40:31.43	242.83	11.45	-39.3	-40.3	22.1	0.00e+00	0	29	0	306184192	52	5952
2026-01-27 02:40:32.44	242.99	11.50	-39.1	-40.2	22.4	0.00e+00	0	29	0	308281344	52	5836
2026-01-27 02:40:33.45	243.15	11.55	-39.2	-40.3	22.3	0.00e+00	0	29	0	310378496	52	5905
2026-01-27 02:40:34.46	243.31	11.60	-39.2	-40.2	22.3	0.00e+00	0	29	0	312475648	52	5866
2026-01-27 02:40:35.47	243.47	11.66	-38.8	-39.8	22.6	0.00e+00	0	29	0	314572800	52	5587
2026-01-27 02:40:36.48	243.63	11.71	-38.8	-39.7	22.3	0.00e+00	0	29	0	315621376	52	5556
2026-01-27 02:40:37.49	243.79	11.76	-38.6	-39.6	22.9	0.00e+00	0	29	0	317718528	50	6127
2026-01-27 02:40:38.50	243.95	11.81	-38.5	-39.5	22.9	0.00e+00	0	29	0	319815680	50	6069
2026-01-27 02:40:39.51	244.11	11.87	-38.6	-39.5	23.0	0.00e+00	0	29	0	321912832	50	6088
2026-01-27 02:40:40.52	244.27	11.92	-38.3	-39.3	23.1	0.00e+00	0	29	0	324009984	50	5914
2026-01-27 02:40:41.53	244.43	11.97	-38.3	-39.3	23.2	0.00e+00	0	29	0	326107136	50	5911
2026-01-27 02:40:42.54	244.60	12.02	-38.3	-39.3	23.2	0.00e+00	0	29	0	327155712	50	5897
2026-01-27 02:40:43.55	244.76	12.07	-38.4	-39.3	23.2	0.00e+00	0	29	0	329252864	50	5929
2026-01-27 02:40:44.56	244.93	12.12	-38.4	-39.3	23.2	0.00e+00	0	29	0	331350016	50	5953
2026-01-27 02:40:45.56	245.09	12.18	-38.4	-39.3	23.2	0.00e+00	0	29	0	333447168	50	5942
2026-01-27 02:40:46.57	245.25	12.23	-38.3	-39.2	23.3	0.00e+00	0	29	0	335544320	50	5878
2026-01-27 02:40:47.58	245.42	12.28	-38.2	-39.1	23.4	0.00e+00	0	29	0	336592896	50	5817
2026-01-27 02:40:48.59	245.59	12.33	-38.3	-39.3	23.2	0.00e+00	0	29	0	338690048	50	5910
2026-01-27 02:40:49.60	245.75	12.38	-38.2	-39.1	23.4	0.00e+00	0	29	0	340787200	50	5777
2026-01-27 02:40:50.61	245.92	12.43	-37.9	-38.8	23.7	0.00e+00	0	29	0	342884352	50	5608
2026-01-27 02:40:51.62	246.09	12.48	-37.9	-38.8	23.6	0.00e+00	0	29	0	344981504	50	5626
2026-01-27 02:40:52.63	246.26	12.53	-37.9	-38.8	23.6	0.00e+00	0	29	0	346030080	50	5618
2026-01-27 02:40:53.64	246.43	12.58	-37.9	-38.8	23.7	0.00e+00	0	29	0	348127232	50	5589
2026-01-27 02:40:54.65	246.60	12.63	-37.8	-38.7	23.8	0.00e+00	0	29	0	350224384	50	5550
2026-01-27 02:40:55.66	246.77	12.68	-38.0	-38.8	23.7	0.00e+00	0	29	0	352321536	50	5630
2026-01-27 02:40:56.67	246.94	12.73	-38.0	-38.9	23.6	0.00e+00	0	29	0	354418688	50	5682
2026-01-27 02:40:57.68	247.11	12.78	-38.0	-38.9	23.6	0.00e+00	0	29	0	355467264	50	5651
2026-01-27 02:40:58.69	247.28	12.83	-38.1	-39.0	23.5	0.00e+00	0	29	0	357564416	50	5731
2026-01-27 02:40:59.70	247.46	12.88	-38.2	-39.1	23.4	0.00e+00	0	29	0	359661568	50	5811
2026-01-27 02:41:00.71	247.63	12.93	-38.0	-38.9	23.7	0.00e+00	0	29	0	361758720	50	5686
2026-01-27 02:41:01.72	247.80	12.98	-38.2	-39.2	23.4	0.00e+00	0	29	0	363855872	50	5836
2026-01-27 02:41:02.73	247.98	13.03	-37.9	-38.7	23.8	0.00e+00	0	29	0	364904448	50	5557
2026-01-27 02:41:03.74	248.15	13.08	-37.9	-38.8	23.6	0.00e+00	0	29	0	367001600	50	5618
2026-01-27 02:41:04.75	248.33	13.13	-37.7	-38.6	23.8	0.00e+00	0	29	0	369098752	48	6146
2026-01-27 02:41:05.76	248.50	13.18	-37.8	-38.7	23.8	0.00e+00	0	29	0	371195904	48	6232
2026-01-27 02:41:06.77	248.68	13.23	-37.8	-38.7	23.7	0.00e+00	0	29	0	373293056	48	6232
2026-01-27 02:41:07.78	248.86	13.28	-37.9	-38.8	23.6	0.00e+00	0	29	0	374341632	48	6286
2026-01-27 02:41:08.79	249.03	13.33	-38.1	-39.0	23.6	0.00e+00	0	29	0	376438784	48	6402
2026-01-27 02:41:09.81	249.22	13.37	-38.2	-39.1	23.4	0.00e+00	0	29	0	378535936	48	6490
2026-01-27 02:41:10.81	249.39	13.42	-38.2	-39.1	23.4	0.00e+00	0	29	0	380633088	48	6537
2026-01-27 02:41:11.82	249.57	13.47	-38.3	-39.2	23.3	0.00e+00	0	29	0	382730240	48	6569
2026-01-27 02:41:12.83	249.75	13.52	-38.2	-39.2	23.4	0.00e+00	0	29	0	383778816	48	6552
2026-01-27 02:41:13.84	249.93	13.57	-38.3	-39.2	23.4	0.00e+00	0	29	0	385875968	48	6558
2026-01-27 02:41:14.85	250.11	13.61	-38.3	-39.2	23.3	0.00e+00	0	29	0	387973120	48	6614
2026-01-27 02:41:15.86	250.30	13.66	-38.2	-39.1	23.5	0.00e+00	0	29	0	390070272	48	6477
2026-01-27 02:41:16.87	250.48	13.71	-38.2	-39.1	23.3	0.00e+00	0	29	0	392167424	48	6521
2026-01-27 02:41:17.88	250.66	13.75	-38.3	-39.2	23.3	0.00e+00	0	29	0	394264576	48	6613
2026-01-27 02:41:18.89	250.84	13.80	-38.3	-39.3	23.2	0.00e+00	0	29	0	395313152	48	6635
2026-01-27 02:41:19.90	251.03	13.85	-38.4	-39.3	23.1	0.00e+00	0	29	0	397410304	48	6692
2026-01-27 02:41:20.91	251.21	13.89	-38.6	-39.5	23.1	0.00e+00	0	29	0	399507456	48	6835
2026-01-27 02:41:21.91	251.40	13.94	-38.7	-39.6	23.0	0.00e+00	0	29	0	401604608	48	6916
2026-01-27 02:41:22.92	251.58	13.99	-38.8	-39.8	22.8	0.00e+00	0	29	0	403701760	50	6287
2026-01-27 02:41:23.93	251.77	14.03	-39.0	-40.0	22.7	0.00e+00	0	29	0	404750336	50	6412
2026-01-27 02:41:24.94	251.95	14.08	-39.0	-40.0	22.7	0.00e+00	0	29	0	406847488	50	6463
2026-01-27 02:41:25.95	252.14	14.12	-39.0	-40.0	22.6	0.00e+00	0	29	0	408944640	50	6443
2026-01-27 02:41:26.96	252.33	14.17	-39.1	-40.1	22.5	0.00e+00	0	29	0	411041792	50	6495
2026-01-27 02:41:27.97	252.52	14.21	-39.2	-40.2	22.5	0.00e+00	0	29	0	413138944	50	6548
2026-01-27 02:41:28.98	252.71	14.26	-39.2	-40.2	22.4	0.00e+00	0	29	0	414187520	50	6602
2026-01-27 02:41:29.99	252.90	14.30	-39.4	-40.4	22.3	0.00e+00	0	29	0	416284672	50	6722
2026-01-27 02:41:31.00	253.09	14.35	-39.5	-40.5	22.1	0.00e+00	0	29	0	418381824	50	6793
2026-01-27 02:41:32.00	253.27	14.39	-39.4	-40.4	22.3	0.00e+00	0	29	0	420478976	50	6760
2026-01-27 02:41:33.02	253.47	14.44	-39.5	-40.6	22.2	0.00e+00	0	29	0	422576128	50	6866
2026-01-27 02:41:34.02	253.66	14.48	-39.7	-40.8	21.9	0.00e+00	0	29	0	423624704	50	7015
2026-01-27 02:41:35.03	253.85	14.52	-39.7	-40.8	21.9	0.00e+00	0	29	0	425721856	52	6287
2026-01-27 02:41:36.04	254.04	14.57	-39.8	-40.9	21.9	0.00e+00	0	29	0	427819008	52	6368
2026-01-27 02:41:37.05	254.24	14.61	-40.0	-41.1	21.7	0.00e+00	0	29	0	429916160	52	6517
2026-01-27 02:41:38.06	254.43	14.65	-39.9	-41.0	21.8	0.00e+00	0	29	0	432013312	52	6420
2026-01-27 02:41:39.07	254.62	14.70	-40.0	-41.1	21.7	0.00e+00	0	29	0	433061888	52	6490
2026-01-27 02:41:40.08	254.82	14.74	-40.0	-41.1	21.7	0.00e+00	0	29	0	435159040	52	6520
2026-01-27 02:41:41.09	255.01	14.78	-40.1	-41.2	21.7	0.00e+00	0	29	0	437256192	52	6567
2026-01-27 02:41:42.10	255.21	14.82	-40.1	-41.2	21.7	0.00e+00	0	29	0	439353344	52	6604
2026-01-27 02:41:43.11	255.41	14.87	-40.0	-41.1	21.7	0.00e+00	0	29	0	441450496	52	6472
2026-01-27 02:41:44.12	255.60	14.91	-40.1	-41.2	21.7	0.00e+00	0	29	0	442499072	52	6558
2026-01-27 02:41:45.13	255.80	14.95	-40.1	-41.2	21.7	0.00e+00	0	29	0	444596224	52	6588
2026-01-27 02:41:46.14	256.00	14.99	-40.2	-41.3	21.5	0.00e+00	0	29	0	446693376	52	6645
2026-01-27 02:41:47.15	256.20	15.03	-40.4	-41.5	21.3	0.00e+00	0	29	0	448790528	52	6844
2026-01-27 02:41:48.16	256.40	15.07	-40.5	-41.6	21.2	0.00e+00	0	29	0	450887680	52	6925
2026-01-27 02:41:49.17	256.60	15.11	-40.6	-41.8	21.0	0.00e+00	0	29	0	451936256	52	7081
2026-01-27 02:41:50.18	256.80	15.15	-40.6	-41.8	21.1	0.00e+00	0	29	0	454033408	52	7041
2026-01-27 02:41:51.19	257.00	15.19	-40.6	-41.8	21.1	0.00e+00	0	29	0	456130560	52	7032
2026-01-27 02:41:52.20	257.20	15.23	-40.6	-41.8	21.1	0.00e+00	0	29	0	458227712	52	7023
2026-01-27 02:41:53.21	257.40	15.27	-40.6	-41.8	21.2	0.00e+00	0	29	0	460324864	52	7057
2026-01-27 02:41:54.22	257.60	15.31	-40.4	-41.6	21.4	0.00e+00	0	29	0	462422016	52	6859
2026-01-27 02:41:55.23	257.81	15.35	-40.5	-41.6	21.3	0.00e+00	0	29	0	463470592	52	6912
2026-01-27 02:41:56.24	258.01	15.39	-40.4	-41.6	21.3	0.00e+00	0	29	0	465567744	52	6868
2026-01-27 02:41:57.25	258.21	15.42	-40.5	-41.7	21.3	0.00e+00	0	29	0	467664896	52	6944
2026-01-27 02:41:58.26	258.42	15.46	-40.5	-41.7	21.1	0.00e+00	0	29	0	469762048	52	6980
2026-01-27 02:41:59.27	258.62	15.50	-40.4	-41.5	21.3	0.00e+00	0	29	0	471859200	52	6824
2026-01-27 02:42:00.28	258.83	15.54	-40.5	-41.7	21.2	0.00e+00	0	29	0	472907776	52	6969
2026-01-27 02:42:01.29	259.03	15.57	-40.3	-41.4	21.2	0.00e+00	0	29	0	475004928	52	6748
2026-01-27 02:42:02.30	259.24	15.61	-40.3	-41.4	21.4	0.00e+00	0	29	0	477102080	52	6756
2026-01-27 02:42:03.31	259.45	15.65	-40.2	-41.3	21.6	0.00e+00	0	29	0	479199232	52	6632
2026-01-27 02:42:04.32	259.65	15.68	-40.0	-41.1	21.8	0.00e+00	0	29	0	481296384	52	6494
2026-01-27 02:42:05.33	259.86	15.72	-40.0	-41.1	21.7	0.00e+00	0	29	0	482344960	52	6521
2026-01-27 02:42:06.34	260.07	15.75	-39.6	-40.7	22.1	0.00e+00	0	29	0	484442112	52	6184
2026-01-27 02:42:07.35	260.28	15.79	-39.7	-40.7	22.1	0.00e+00	0	29	0	486539264	52	6211
2026-01-27 02:42:08.36	260.49	15.82	-39.4	-40.4	22.4	0.00e+00	0	29	0	488636416	52	6012
2026-01-27 02:42:09.38	260.70	15.86	-39.4	-40.4	22.4	0.00e+00	0	29	0	490733568	52	5992
2026-01-27 02:42:10.38	260.91	15.89	-39.4	-40.4	22.4	0.00e+00	0	29	0	491782144	52	5990
2026-01-27 02:42:11.39	261.12	15.93	-39.4	-40.4	22.4	0.00e+00	0	29	0	493879296	52	5976
2026-01-27 02:42:12.41	261.33	15.96	-39.5	-40.5	22.3	0.00e+00	0	29	0	495976448	52	6083
2026-01-27 02:42:13.41	261.54	15.99	-39.2	-40.2	22.6	0.00e+00	0	29	0	498073600	52	5896
2026-01-27 02:42:14.42	261.75	16.03	-39.0	-40.0	22.8	0.00e+00	0	29	0	500170752	52	5737
2026-01-27 02:42:15.44	261.97	16.06	-39.1	-40.1	22.7	0.00e+00	0	29	0	501219328	52	5768
2026-01-27 02:42:16.45	262.18	16.09	-38.9	-39.8	22.9	0.00e+00	0	29	0	503316480	52	5625
2026-01-27 02:42:17.46	262.39	16.12	-38.8	-39.8	23.0	0.00e+00	0	29	0	505413632	52	5581
2026-01-27 02:42:18.47	262.61	16.16	-38.7	-39.7	23.0	0.00e+00	0	29	0	507510784	50	6210
2026-01-27 02:42:19.48	262.82	16.19	-38.6	-39.5	23.2	0.00e+00	0	29	0	509607936	50	6093
2026-01-27 02:42:20.49	263.04	16.22	-38.3	-39.2	23.4	0.00e+00	0	29	0	510656512	50	5891
2026-01-27 02:42:21.50	263.25	16.25	-38.3	-39.2	23.5	0.00e+00	0	29	0	512753664	50	5836
2026-01-27 02:42:22.51	263.47	16.28	-38.2	-39.1	23.6	0.00e+00	0	29	0	514850816	50	5797
2026-01-27 02:42:23.52	263.68	16.31	-38.2	-39.1	23.5	0.00e+00	0	29	0	516947968	50	5794
2026-01-27 02:42:24.53	263.90	16.34	-38.1	-39.0	23.6	0.00e+00	0	29	0	519045120	50	5713
2026-01-27 02:42:25.54	264.12	16.37	-38.3	-39.2	23.5	0.00e+00	0	29	0	520093696	50	5887
2026-01-27 02:42:26.55	264.33	16.40	-38.3	-39.3	23.4	0.00e+00	0	29	0	522190848	50	5908
2026-01-27 02:42:27.56	264.55	16.43	-38.4	-39.4	23.3	0.00e+00	0	29	0	524288000	50	5967
2026-01-27 02:42:28.57	264.77	16.45	-38.6	-39.5	23.2	0.00e+00	0	29	0	526385152	50	6074
2026-01-27 02:42:29.58	264.99	16.48	-38.6	-39.6	23.1	0.00e+00	0	29	0	528482304	50	6129
2026-01-27 02:42:30.59	265.20	16.51	-38.5	-39.4	23.2	0.00e+00	0	29	0	530579456	50	6027
2026-01-27 02:42:31.60	265.42	16.54	-38.7	-39.6	23.2	0.00e+00	0	29	0	531628032	50	6135
2026-01-27 02:42:32.61	265.64	16.56	-38.6	-39.5	23.2	0.00e+00	0	29	0	533725184	50	6089
2026-01-27 02:42:33.62	265.86	16.59	-38.7	-39.6	23.1	0.00e+00	0	29	0	535822336	50	6173
2026-01-27 02:42:34.63	266.08	16.62	-38.8	-39.7	23.0	0.00e+00	0	29	0	537919488	50	6218
2026-01-27 02:42:35.64	266.30	16.64	-38.9	-39.9	22.9	0.00e+00	0	29	0	540016640	50	6333
2026-01-27 02:42:36.65	266.52	16.67	-38.9	-39.9	22.8	0.00e+00	0	29	0	541065216	50	6343
2026-01-27 02:42:37.66	266.75	16.69	-38.8	-39.8	22.9	0.00e+00	0	29	0	543162368	50	6285
2026-01-27 02:42:38.67	266.97	16.72	-38.8	-39.7	23.0	0.00e+00	0	29	0	545259520	50	6213
2026-01-27 02:42:39.68	267.19	16.74	-38.7	-39.6	23.1	0.00e+00	0	29	0	547356672	50	6170
2026-01-27 02:42:40.69	267.41	16.76	-38.7	-39.7	23.0	0.00e+00	0	29	0	549453824	50	6182
2026-01-27 02:42:41.70	267.63	16.79	-38.7	-39.6	23.1	0.00e+00	0	29	0	550502400	50	6156
2026-01-27 02:42:42.71	267.86	16.81	-38.8	-39.7	23.0	0.00e+00	0	29	0	552599552	50	6243
2026-01-27 02:42:43.71	268.08	16.83	-38.9	-39.8	22.9	0.00e+00	0	29	0	554696704	50	6288
2026-01-27 02:42:44.72	268.30	16.86	-38.9	-39.8	23.0	0.00e+00	0	29	0	556793856	50	6298
2026-01-27 02:42:45.74	268.53	16.88	-38.9	-39.9	22.8	0.00e+00	0	29	0	558891008	50	6354
2026-01-27 02:42:46.75	268.75	16.90	-39.1	-40.1	22.7	0.00e+00	0	29	0	559939584	50	6470
2026-01-27 02:42:47.76	268.98	16.92	-39.1	-40.1	22.7	0.00e+00	0	29	0	562036736	50	6467
2026-01-27 02:42:48.77	269.20	16.94	-38.9	-39.9	22.9	0.00e+00	0	29	0	564133888	50	6343
2026-01-27 02:42:49.78	269.43	16.96	-39.0	-40.0	22.8	0.00e+00	0	29	0	566231040	50	6436
2026-01-27 02:42:50.79	269.65	16.98	-39.1	-40.1	22.7	0.00e+00	0	29	0	568328192	50	6472
2026-01-27 02:42:51.80	269.88	17.00	-39.1	-40.1	22.7	0.00e+00	0	29	0	569376768	50	6468
2026-01-27 02:42:52.81	270.10	17.02	-39.2	-40.2	22.6	0.00e+00	0	29	0	571473920	50	6549
2026-01-27 02:42:53.82	270.33	17.04	-39.1	-40.1	22.7	0.00e+00	0	29	0	573571072	50	6535
2026-01-27 02:42:54.83	270.56	17.06	-39.1	-40.1	22.8	0.00e+00	0	29	0	575668224	50	6472
2026-01-27 02:42:55.84	270.78	17.07	-38.9	-39.9	22.9	0.00e+00	0	29	0	577765376	50	6336
2026-01-27 02:42:56.85	271.01	17.09	-38.9	-39.8	23.0	0.00e+00	0	29	0	578813952	50	6306
2026-01-27 02:42:57.86	271.24	17.11	-38.8	-39.8	22.9	0.00e+00	0	29	0	580911104	50	6257
2026-01-27 02:42:58.87	271.46	17.12	-39.0	-40.0	22.8	0.00e+00	0	29	0	583008256	50	6440
2026-01-27 02:42:59.88	271.69	17.14	-39.0	-40.0	22.8	0.00e+00	0	29	0	585105408	50	6416
2026-01-27 02:43:00.89	271.92	17.16	-38.9	-39.9	22.9	0.00e+00	0	29	0	587202560	50	6330
2026-01-27 02:43:01.90	272.15	17.17	-39.0	-40.0	22.8	0.00e+00	0	29	0	588251136	50	6394
2026-01-27 02:43:02.91	272.38	17.19	-39.1	-40.1	22.8	0.00e+00	0	29	0	590348288	50	6476
2026-01-27 02:43:03.92	272.61	17.20	-39.2	-40.2	22.5	0.00e+00	0	29	0	592445440	50	6597
2026-01-27 02:43:04.93	272.83	17.21	-39.2	-40.1	22.7	0.00e+00	0	29	0	594542592	50	6539
2026-01-27 02:43:05.94	273.06	17.23	-39.1	-40.1	22.7	0.00e+00	0	29	0	596639744	50	6508
2026-01-27 02:43:06.95	273.29	17.24	-39.1	-40.1	22.7	0.00e+00	0	29	0	598736896	50	6518
2026-01-27 02:43:07.96	273.52	17.25	-39.0	-40.0	22.8	0.00e+00	0	29	0	599785472	50	6416
2026-01-27 02:43:08.97	273.75	17.27	-39.0	-40.0	22.9	0.00e+00	0	29	0	601882624	50	6392
2026-01-27 02:43:09.98	273.98	17.28	-38.7	-39.6	23.1	0.00e+00	0	29	0	603979776	50	6153
2026-01-27 02:43:10.99	274.21	17.29	-38.6	-39.5	23.3	0.00e+00	0	29	0	606076928	50	6062
2026-01-27 02:43:12.00	274.44	17.30	-38.7	-39.6	23.2	0.00e+00	0	29	0	608174080	50	6140
2026-01-27 02:43:13.01	274.67	17.31	-38.8	-39.7	23.0	0.00e+00	0	29	0	609222656	50	6208
2026-01-27 02:43:14.02	274.90	17.32	-38.7	-39.7	23.1	0.00e+00	0	29	0	611319808	50	6175
2026-01-27 02:43:15.03	275.13	17.33	-38.8	-39.7	23.1	0.00e+00	0	29	0	613416960	50	6224
2026-01-27 02:43:16.04	275.36	17.34	-38.9	-39.9	22.9	0.00e+00	0	29	0	615514112	50	6348
2026-01-27 02:43:17.05	275.59	17.35	-39.1	-40.1	22.7	0.00e+00	0	29	0	617611264	50	6495
2026-01-27 02:43:18.06	275.82	17.36	-39.2	-40.2	22.6	0.00e+00	0	29	0	618659840	50	6615
2026-01-27 02:43:19.06	276.05	17.36	-39.5	-40.5	22.4	0.00e+00	0	29	0	620756992	50	6811
2026-01-27 02:43:20.08	276.29	17.37	-39.7	-40.7	22.2	0.00e+00	0	29	0	622854144	50	6980
2026-01-27 02:43:21.08	276.52	17.38	-39.8	-40.8	22.1	0.00e+00	0	29	0	624951296	52	6291
2026-01-27 02:43:22.09	276.75	17.38	-39.6	-40.7	22.2	0.00e+00	0	29	0	627048448	52	6200
2026-01-27 02:43:23.10	276.98	17.39	-39.6	-40.6	22.3	0.00e+00	0	29	0	628097024	52	6168
2026-01-27 02:43:24.11	277.21	17.40	-39.4	-40.4	22.5	0.00e+00	0	29	0	630194176	52	6003
2026-01-27 02:43:25.12	277.44	17.40	-39.2	-40.2	22.6	0.00e+00	0	29	0	632291328	52	5882
2026-01-27 02:43:26.14	277.68	17.41	-39.2	-40.1	22.7	0.00e+00	0	29	0	634388480	52	5825
2026-01-27 02:43:27.15	277.91	17.41	-39.0	-40.0	22.9	0.00e+00	0	29	0	636485632	52	5702
2026-01-27 02:43:28.16	278.14	17.41	-39.0	-40.0	22.9	0.00e+00	0	29	0	637534208	52	5723
2026-01-27 02:43:29.17	278.37	17.42	-39.1	-40.1	22.8	0.00e+00	0	29	0	639631360	52	5797
2026-01-27 02:43:30.18	278.60	17.42	-39.0	-39.9	22.8	0.00e+00	0	29	0	641728512	52	5694
2026-01-27 02:43:31.18	278.83	17.42	-39.0	-40.0	22.8	0.00e+00	0	29	0	643825664	52	5722
2026-01-27 02:43:32.19	279.06	17.42	-39.1	-40.1	22.8	0.00e+00	0	29	0	645922816	52	5794
2026-01-27 02:43:33.20	279.30	17.43	-39.1	-40.1	22.7	0.00e+00	0	29	0	646971392	52	5801
2026-01-27 02:43:34.21	279.53	17.43	-39.2	-40.2	22.7	0.00e+00	0	29	0	649068544	52	5836
2026-01-27 02:43:35.22	279.76	17.43	-39.3	-40.3	22.6	0.00e+00	0	29	0	651165696	52	5928
2026-01-27 02:43:36.23	279.99	17.43	-39.4	-40.4	22.4	0.00e+00	0	29	0	653262848	52	6020
2026-01-27 02:43:37.24	280.22	17.43	-39.2	-40.2	22.6	0.00e+00	0	29	0	655360000	52	5892
2026-01-27 02:43:38.25	280.46	17.43	-39.2	-40.2	22.7	0.00e+00	0	29	0	656408576	52	5856
2026-01-27 02:43:39.26	280.69	17.43	-39.2	-40.2	22.6	0.00e+00	0	29	0	658505728	52	5856
2026-01-27 02:43:40.27	280.92	17.42	-39.2	-40.2	22.7	0.00e+00	0	29	0	660602880	52	5831
2026-01-27 02:43:41.28	281.15	17.42	-39.0	-40.0	22.8	0.00e+00	0	29	0	662700032	52	5713
2026-01-27 02:43:42.29	281.38	17.42	-39.1	-40.1	22.9	0.00e+00	0	29	0	664797184	52	5768
2026-01-27 02:43:43.29	281.61	17.42	-39.1	-40.1	22.6	0.00e+00	0	29	0	666894336	52	5787
2026-01-27 02:43:44.30	281.84	17.41	-38.8	-39.8	23.0	0.00e+00	0	29	0	667942912	52	5568
2026-01-27 02:43:45.31	282.08	17.41	-38.7	-39.7	23.1	0.00e+00	0	29	0	670040064	52	5520
2026-01-27 02:43:46.33	282.31	17.41	-38.9	-39.8	23.0	0.00e+00	0	29	0	672137216	50	6294
2026-01-27 02:43:47.34	282.54	17.40	-38.9	-39.8	22.9	0.00e+00	0	29	0	674234368	50	6316
2026-01-27 02:43:48.34	282.77	17.40	-39.1	-40.1	22.7	0.00e+00	0	29	0	676331520	50	6489
2026-01-27 02:43:49.35	283.00	17.39	-39.0	-39.9	22.8	0.00e+00	0	29	0	677380096	50	6383
2026-01-27 02:43:50.36	283.23	17.38	-39.1	-40.1	22.8	0.00e+00	0	29	0	679477248	50	6528
2026-01-27 02:43:51.37	283.46	17.38	-39.1	-40.0	22.8	0.00e+00	0	29	0	681574400	50	6453
2026-01-27 02:43:52.38	283.69	17.37	-39.0	-39.9	22.9	0.00e+00	0	29	0	683671552	50	6353
2026-01-27 02:43:53.39	283.93	17.36	-38.9	-39.9	23.0	0.00e+00	0	29	0	685768704	50	6322
2026-01-27 02:43:54.40	284.16	17.36	-38.8	-39.8	23.0	0.00e+00	0	29	0	686817280	50	6270
2026-01-27 02:43:55.41	284.39	17.35	-38.8	-39.8	23.0	0.00e+00	0	29	0	688914432	50	6260
2026-01-27 02:43:56.42	284.62	17.34	-38.7	-39.7	23.1	0.00e+00	0	29	0	691011584	50	6191
2026-01-27 02:43:57.43	284.85	17.33	-38.8	-39.7	23.0	0.00e+00	0	29	0	693108736	50	6240
2026-01-27 02:43:58.44	285.08	17.32	-38.8	-39.8	23.0	0.00e+00	0	29	0	695205888	50	6282
2026-01-27 02:43:59.45	285.31	17.31	-38.9	-39.8	23.0	0.00e+00	0	29	0	696254464	50	6288
2026-01-27 02:44:00.46	285.54	17.30	-38.7	-39.7	23.1	0.00e+00	0	29	0	698351616	50	6196
2026-01-27 02:44:01.47	285.77	17.29	-38.7	-39.7	23.1	0.00e+00	0	29	0	700448768	50	6187
2026-01-27 02:44:02.48	286.00	17.28	-38.7	-39.6	23.2	0.00e+00	0	29	0	702545920	50	6154
2026-01-27 02:44:03.48	286.22	17.27	-38.7	-39.7	23.1	0.00e+00	0	29	0	704643072	50	6201
2026-01-27 02:44:04.49	286.45	17.25	-38.8	-39.7	23.0	0.00e+00	0	29	0	705691648	50	6210
2026-01-27 02:44:05.50	286.68	17.24	-38.9	-39.9	23.0	0.00e+00	0	29	0	707788800	50	6324
2026-01-27 02:44:06.51	286.91	17.23	-39.0	-40.0	22.8	0.00e+00	0	29	0	709885952	50	6415
2026-01-27 02:44:07.52	287.14	17.21	-39.0	-39.9	22.9	0.00e+00	0	29	0	711983104	50	6370
2026-01-27 02:44:08.53	287.37	17.20	-38.9	-39.9	23.0	0.00e+00	0	29	0	714080256	50	6325
2026-01-27 02:44:09.54	287.60	17.19	-39.0	-40.0	22.8	0.00e+00	0	29	0	715128832	50	6427
2026-01-27 02:44:10.55	287.83	17.17	-39.0	-40.0	22.9	0.00e+00	0	29	0	717225984	50	6425
2026-01-27 02:44:11.56	288.05	17.16	-38.7	-39.6	23.1	0.00e+00	0	29	0	719323136	50	6155
2026-01-27 02:44:12.57	288.28	17.14	-38.5	-39.5	23.3	0.00e+00	0	29	0	721420288	50	6034
2026-01-27 02:44:13.58	288.51	17.12	-38.4	-39.3	23.5	0.00e+00	0	29	0	723517440	50	5960
2026-01-27 02:44:14.59	288.74	17.11	-38.3	-39.3	23.5	0.00e+00	0	29	0	724566016	50	5898
2026-01-27 02:44:15.60	288.96	17.09	-38.2	-39.1	23.6	0.00e+00	0	29	0	726663168	50	5828
2026-01-27 02:44:16.61	289.19	17.07	-38.4	-39.3	23.4	0.00e+00	0	29	0	728760320	50	5958
2026-01-27 02:44:17.61	289.41	17.06	-38.5	-39.4	23.3	0.00e+00	0	29	0	730857472	50	6003
2026-01-27 02:44:18.63	289.64	17.04	-38.4	-39.3	23.4	0.00e+00	0	29	0	732954624	50	5959
2026-01-27 02:44:19.64	289.87	17.02	-38.5	-39.4	23.4	0.00e+00	0	29	0	735051776	50	5998
2026-01-27 02:44:20.65	290.09	17.00	-38.5	-39.4	23.4	0.00e+00	0	29	0	736100352	50	5997
2026-01-27 02:44:21.66	290.32	16.98	-38.4	-39.3	23.4	0.00e+00	0	29	0	738197504	50	5940
2026-01-27 02:44:22.67	290.54	16.96	-38.5	-39.4	23.4	0.00e+00	0	29	0	740294656	50	6033
2026-01-27 02:44:23.67	290.76	16.94	-38.2	-39.1	23.6	0.00e+00	0	29	0	742391808	50	5825
2026-01-27 02:44:24.68	290.99	16.92	-38.4	-39.3	23.5	0.00e+00	0	29	0	744488960	50	5915
2026-01-27 02:44:25.70	291.22	16.90	-38.3	-39.2	23.5	0.00e+00	0	29	0	745537536	50	5890
2026-01-27 02:44:26.71	291.44	16.88	-38.4	-39.3	23.4	0.00e+00	0	29	0	747634688	50	5949
2026-01-27 02:44:27.72	291.66	16.86	-38.3	-39.2	23.4	0.00e+00	0	29	0	749731840	50	5875
2026-01-27 02:44:28.73	291.89	16.83	-38.2	-39.1	23.7	0.00e+00	0	29	0	751828992	50	5784
2026-01-27 02:44:29.74	292.11	16.81	-38.2	-39.1	23.6	0.00e+00	0	29	0	753926144	50	5803
2026-01-27 02:44:30.75	292.33	16.79	-38.0	-38.9	23.8	0.00e+00	0	29	0	754974720	50	5678
2026-01-27 02:44:31.76	292.55	16.77	-38.0	-38.8	23.8	0.00e+00	0	29	0	757071872	50	5623
2026-01-27 02:44:32.77	292.77	16.74	-37.8	-38.7	23.9	0.00e+00	0	29	0	759169024	50	5540
2026-01-27 02:44:33.77	292.99	16.72	-37.9	-38.8	23.8	0.00e+00	0	29	0	761266176	50	5605
2026-01-27 02:44:34.79	293.22	16.69	-38.0	-38.9	23.9	0.00e+00	0	29	0	763363328	50	5670
2026-01-27 02:44:35.80	293.44	16.67	-38.0	-38.9	23.8	0.00e+00	0	29	0	764411904	50	5659
2026-01-27 02:44:36.81	293.66	16.64	-38.0	-38.8	23.9	0.00e+00	0	29	0	766509056	50	5628
2026-01-27 02:44:37.82	293.88	16.62	-38.0	-38.9	23.8	0.00e+00	0	29	0	768606208	50	5631
2026-01-27 02:44:38.83	294.10	16.59	-37.8	-38.7	24.0	0.00e+00	0	29	0	770703360	50	5541
2026-01-27 02:44:39.84	294.32	16.57	-37.9	-38.8	23.8	0.00e+00	0	29	0	772800512	50	5606
2026-01-27 02:44:40.85	294.54	16.54	-37.8	-38.7	24.0	0.00e+00	0	29	0	773849088	50	5521
2026-01-27 02:44:41.86	294.75	16.51	-37.9	-38.7	23.9	0.00e+00	0	29	0	775946240	48	6244
2026-01-27 02:44:42.87	294.97	16.48	-37.8	-38.7	23.8	0.00e+00	0	29	0	778043392	48	6174
2026-01-27 02:44:43.88	295.19	16.46	-38.0	-38.9	23.7	0.00e+00	0	29	0	780140544	48	6348
2026-01-27 02:44:44.89	295.41	16.43	-38.2	-39.1	23.5	0.00e+00	0	29	0	782237696	48	6479
2026-01-27 02:44:45.90	295.62	16.40	-38.5	-39.4	23.5	0.00e+00	0	29	0	783286272	48	6727
2026-01-27 02:44:46.91	295.84	16.37	-38.5	-39.5	23.4	0.00e+00	0	29	0	785383424	48	6771
2026-01-27 02:44:47.91	296.05	16.34	-38.2	-39.2	23.5	0.00e+00	0	29	0	787480576	48	6543
2026-01-27 02:44:48.92	296.27	16.31	-38.4	-39.3	23.5	0.00e+00	0	29	0	789577728	48	6639
2026-01-27 02:44:49.94	296.49	16.28	-38.0	-38.9	23.8	0.00e+00	0	29	0	791674880	48	6326
2026-01-27 02:44:50.94	296.70	16.25	-38.0	-38.9	23.8	0.00e+00	0	29	0	792723456	48	6347
2026-01-27 02:44:51.95	296.91	16.22	-37.7	-38.6	24.1	0.00e+00	0	29	0	794820608	48	6115
2026-01-27 02:44:52.96	297.13	16.19	-37.4	-38.2	24.4	0.00e+00	0	29	0	796917760	48	5876
2026-01-27 02:44:53.97	297.34	16.16	-37.4	-38.2	24.4	0.00e+00	0	29	0	799014912	48	5870
2026-01-27 02:44:54.98	297.55	16.13	-37.2	-38.0	24.5	0.00e+00	0	29	0	801112064	48	5744
2026-01-27 02:44:55.99	297.77	16.10	-37.0	-37.9	24.7	0.00e+00	0	29	0	803209216	48	5631
2026-01-27 02:44:57.00	297.98	16.06	-37.0	-37.8	24.7	0.00e+00	0	29	0	804257792	48	5575
2026-01-27 02:44:58.01	298.19	16.03	-37.2	-38.0	24.6	0.00e+00	0	29	0	806354944	48	5715
2026-01-27 02:44:59.02	298.40	16.00	-37.0	-37.8	24.6	0.00e+00	0	29	0	808452096	48	5581
2026-01-27 02:45:00.03	298.61	15.97	-37.2	-38.0	24.6	0.00e+00	0	29	0	810549248	48	5713
2026-01-27 02:45:01.04	298.82	15.93	-37.2	-38.0	24.6	0.00e+00	0	29	0	812646400	48	5712
2026-01-27 02:45:02.05	299.03	15.90	-37.1	-37.9	24.6	0.00e+00	0	29	0	813694976	48	5663
2026-01-27 02:45:03.06	299.24	15.86	-37.1	-38.0	24.6	0.00e+00	0	29	0	815792128	48	5696
2026-01-27 02:45:04.07	299.45	15.83	-37.3	-38.1	24.4	0.00e+00	0	29	0	817889280	48	5785
2026-01-27 02:45:05.08	299.66	15.80	-37.4	-38.3	24.3	0.00e+00	0	29	0	819986432	48	5908
2026-01-27 02:45:06.09	299.87	15.76	-37.4	-38.3	24.3	0.00e+00	0	29	0	822083584	48	5907
2026-01-27 02:45:07.10	300.08	15.72	-37.4	-38.2	24.3	0.00e+00	0	29	0	823132160	48	5886
2026-01-27 02:45:08.11	300.28	15.69	-37.5	-38.4	24.3	0.00e+00	0	29	0	825229312	48	5971
2026-01-27 02:45:09.12	300.49	15.65	-37.2	-38.0	24.5	0.00e+00	0	29	0	827326464	48	5735
2026-01-27 02:45:10.13	300.70	15.62	-37.2	-38.0	24.5	0.00e+00	0	29	0	829423616	48	5743
2026-01-27 02:45:11.14	300.90	15.58	-37.1	-38.0	24.6	0.00e+00	0	29	0	831520768	48	5702
2026-01-27 02:45:12.15	301.11	15.54	-37.0	-37.8	24.7	0.00e+00	0	29	0	832569344	48	5599
2026-01-27 02:45:13.16	301.31	15.51	-37.0	-37.8	24.7	0.00e+00	0	29	0	834666496	48	5584
2026-01-27 02:45:14.17	301.52	15.47	-36.9	-37.7	24.7	0.00e+00	0	29	0	836763648	48	5529
2026-01-27 02:45:15.18	301.72	15.43	-36.9	-37.7	24.7	0.00e+00	0	29	0	838860800	48	5559
2026-01-27 02:45:16.19	301.92	15.39	-36.9	-37.7	24.7	0.00e+00	0	29	0	840957952	48	5559
2026-01-27 02:45:17.20	302.12	15.36	-37.0	-37.9	24.6	0.00e+00	0	29	0	842006528	48	5636
2026-01-27 02:45:18.21	302.33	15.32	-37.1	-37.9	24.5	0.00e+00	0	29	0	844103680	48	5686
2026-01-27 02:45:19.22	302.53	15.28	-37.3	-38.2	24.3	0.00e+00	0	29	0	846200832	48	5852
2026-01-27 02:45:20.23	302.73	15.24	-37.5	-38.4	24.2	0.00e+00	0	29	0	848297984	48	5971
2026-01-27 02:45:21.24	302.93	15.20	-37.7	-38.6	23.8	0.00e+00	0	29	0	850395136	48	6144
2026-01-27 02:45:22.25	303.13	15.16	-37.8	-38.7	23.9	0.00e+00	0	29	0	851443712	48	6215
2026-01-27 02:45:23.26	303.33	15.12	-37.9	-38.8	23.8	0.00e+00	0	29	0	853540864	48	6264
2026-01-27 02:45:24.26	303.53	15.08	-37.8	-38.7	23.9	0.00e+00	0	29	0	855638016	48	6226
2026-01-27 02:45:25.27	303.72	15.04	-37.6	-38.5	24.1	0.00e+00	0	29	0	857735168	48	6072
2026-01-27 02:45:26.29	303.92	15.00	-37.7	-38.6	23.9	0.00e+00	0	29	0	859832320	48	6152
2026-01-27 02:45:27.30	304.12	14.96	-37.8	-38.7	23.9	0.00e+00	0	29	0	860880896	48	6227
2026-01-27 02:45:28.31	304.32	14.92	-37.7	-38.6	24.0	0.00e+00	0	29	0	862978048	48	6140
2026-01-27 02:45:29.32	304.51	14.88	-37.8	-38.7	23.9	0.00e+00	0	29	0	865075200	48	6190
2026-01-27 02:45:30.33	304.71	14.84	-37.8	-38.7	23.9	0.00e+00	0	29	0	867172352	48	6209
2026-01-27 02:45:31.33	304.90	14.79	-37.9	-38.8	23.7	0.00e+00	0	29	0	869269504	48	6289
2026-01-27 02:45:32.34	305.10	14.75	-37.8	-38.7	23.8	0.00e+00	0	29	0	871366656	48	6210
2026-01-27 02:45:33.35	305.29	14.71	-37.8	-38.7	23.9	0.00e+00	0	29	0	872415232	48	6181
2026-01-27 02:45:34.36	305.49	14.67	-37.9	-38.8	23.8	0.00e+00	0	29	0	874512384	48	6292
2026-01-27 02:45:35.37	305.68	14.62	-37.8	-38.6	23.9	0.00e+00	0	29	0	876609536	48	6172
2026-01-27 02:45:36.38	305.87	14.58	-37.9	-38.8	23.8	0.00e+00	0	29	0	878706688	48	6257
2026-01-27 02:45:37.39	306.06	14.54	-38.2	-39.1	23.6	0.00e+00	0	29	0	880803840	48	6479
2026-01-27 02:45:38.40	306.26	14.50	-38.5	-39.4	23.2	0.00e+00	0	29	0	881852416	48	6737
2026-01-27 02:45:39.41	306.45	14.45	-38.7	-39.6	23.1	0.00e+00	0	29	0	883949568	48	6893
2026-01-27 02:45:40.42	306.64	14.41	-39.0	-40.0	22.7	0.00e+00	0	29	0	886046720	50	6446
2026-01-27 02:45:41.43	306.83	14.36	-39.2	-40.3	22.5	0.00e+00	0	29	0	888143872	50	6622
2026-01-27 02:45:42.44	307.02	14.32	-39.5	-40.5	22.3	0.00e+00	0	29	0	890241024	50	6847
2026-01-27 02:45:43.45	307.20	14.28	-39.7	-40.8	22.0	0.00e+00	0	29	0	891289600	50	7040
2026-01-27 02:45:44.46	307.39	14.23	-39.9	-41.0	21.9	0.00e+00	0	29	0	893386752	52	6417
2026-01-27 02:45:45.47	307.58	14.19	-40.1	-41.2	21.7	0.00e+00	0	29	0	895483904	52	6583
2026-01-27 02:45:46.47	307.77	14.14	-40.0	-41.1	21.8	0.00e+00	0	29	0	897581056	52	6475
2026-01-27 02:45:47.48	307.95	14.10	-40.0	-41.1	21.8	0.00e+00	0	29	0	899678208	52	6484
2026-01-27 02:45:48.49	308.14	14.05	-40.1	-41.2	21.6	0.00e+00	0	29	0	900726784	52	6587
2026-01-27 02:45:49.50	308.32	14.01	-40.1	-41.3	21.6	0.00e+00	0	29	0	902823936	52	6632
2026-01-27 02:45:50.51	308.51	13.96	-40.1	-41.2	21.7	0.00e+00	0	29	0	904921088	52	6571
2026-01-27 02:45:51.52	308.69	13.91	-40.1	-41.2	21.6	0.00e+00	0	29	0	907018240	52	6556
2026-01-27 02:45:52.53	308.88	13.87	-40.1	-41.2	21.6	0.00e+00	0	29	0	909115392	52	6594
2026-01-27 02:45:53.54	309.06	13.82	-39.8	-40.9	21.9	0.00e+00	0	29	0	910163968	52	6371
2026-01-27 02:45:54.55	309.24	13.77	-39.6	-40.6	22.2	0.00e+00	0	29	0	912261120	52	6139
2026-01-27 02:45:55.56	309.42	13.73	-39.4	-40.5	22.3	0.00e+00	0	29	0	914358272	52	6036
2026-01-27 02:45:56.56	309.60	13.68	-39.3	-40.3	22.4	0.00e+00	0	29	0	916455424	52	5959
2026-01-27 02:45:57.58	309.79	13.63	-39.4	-40.4	22.4	0.00e+00	0	29	0	918552576	52	5997
2026-01-27 02:45:58.59	309.97	13.59	-39.3	-40.3	22.5	0.00e+00	0	29	0	919601152	52	5924
2026-01-27 02:45:59.60	310.15	13.54	-39.4	-40.4	22.4	0.00e+00	0	29	0	921698304	52	5990
2026-01-27 02:46:00.61	310.33	13.49	-39.5	-40.6	22.2	0.00e+00	0	29	0	923795456	52	6117
2026-01-27 02:46:01.61	310.50	13.45	-39.7	-40.8	21.9	0.00e+00	0	29	0	925892608	52	6272
2026-01-27 02:46:02.62	310.68	13.40	-39.6	-40.7	22.1	0.00e+00	0	29	0	927989760	52	6175
2026-01-27 02:46:03.63	310.86	13.35	-39.7	-40.8	22.0	0.00e+00	0	29	0	929038336	52	6261
2026-01-27 02:46:04.64	311.04	13.30	-39.7	-40.8	22.0	0.00e+00	0	29	0	931135488	52	6253
2026-01-27 02:46:05.65	311.21	13.25	-39.9	-41.0	21.8	0.00e+00	0	29	0	933232640	52	6404
2026-01-27 02:46:06.66	311.39	13.20	-40.1	-41.2	21.6	0.00e+00	0	29	0	935329792	52	6609
2026-01-27 02:46:07.67	311.56	13.16	-40.2	-41.3	21.5	0.00e+00	0	29	0	937426944	52	6633
2026-01-27 02:46:08.68	311.74	13.11	-40.3	-41.4	21.3	0.00e+00	0	29	0	939524096	52	6729
2026-01-27 02:46:09.69	311.91	13.06	-40.2	-41.3	21.3	0.00e+00	0	29	0	940572672	52	6664
2026-01-27 02:46:10.70	312.09	13.01	-40.1	-41.2	21.5	0.00e+00	0	29	0	942669824	52	6586
2026-01-27 02:46:11.71	312.26	12.96	-40.0	-41.1	21.6	0.00e+00	0	29	0	944766976	52	6526
2026-01-27 02:46:12.72	312.43	12.91	-39.9	-41.0	21.8	0.00e+00	0	29	0	946864128	52	6423
2026-01-27 02:46:13.73	312.60	12.86	-39.7	-40.7	22.0	0.00e+00	0	29	0	948961280	52	6230
2026-01-27 02:46:14.74	312.78	12.81	-39.7	-40.8	21.9	0.00e+00	0	29	0	950009856	52	6276
2026-01-27 02:46:15.75	312.95	12.76	-39.5	-40.6	22.1	0.00e+00	0	29	0	952107008	52	6116
2026-01-27 02:46:16.76	313.12	12.71	-39.5	-40.6	22.2	0.00e+00	0	29	0	954204160	52	6113
2026-01-27 02:46:17.77	313.29	12.66	-39.6	-40.6	22.1	0.00e+00	0	29	0	956301312	52	6157
2026-01-27 02:46:18.78	313.46	12.61	-39.6	-40.7	22.0	0.00e+00	0	29	0	958398464	52	6184
2026-01-27 02:46:19.79	313.62	12.56	-39.6	-40.7	22.0	0.00e+00	0	29	0	959447040	52	6210
2026-01-27 02:46:20.80	313.79	12.51	-39.4	-40.4	22.3	0.00e+00	0	29	0	961544192	52	6030
2026-01-27 02:46:21.81	313.96	12.46	-39.4	-40.4	22.3	0.00e+00	0	29	0	963641344	52	6023
2026-01-27 02:46:22.82	314.13	12.41	-39.1	-40.1	22.6	0.00e+00	0	29	0	965738496	52	5799
2026-01-27 02:46:23.83	314.29	12.36	-39.0	-39.9	22.7	0.00e+00	0	29	0	967835648	52	5688
2026-01-27 02:46:24.84	314.46	12.31	-38.8	-39.7	23.0	0.00e+00	0	29	0	968884224	52	5544
2026-01-27 02:46:25.84	314.62	12.26	-38.6	-39.5	23.0	0.00e+00	0	29	0	970981376	50	6084
2026-01-27 02:46:26.85	314.79	12.21	-38.6	-39.5	23.0	0.00e+00	0	29	0	973078528	50	6077
2026-01-27 02:46:27.86	314.95	12.16	-38.6	-39.6	23.0	0.00e+00	0	29	0	975175680	50	6107
2026-01-27 02:46:28.88	315.12	12.11	-38.7	-39.7	22.8	0.00e+00	0	29	0	977272832	50	6196
2026-01-27 02:46:29.88	315.28	12.06	-38.9	-39.9	22.7	0.00e+00	0	29	0	978321408	50	6328
2026-01-27 02:46:30.89	315.44	12.00	-38.9	-39.9	22.6	0.00e+00	0	29	0	980418560	50	6369
2026-01-27 02:46:31.90	315.60	11.95	-39.0	-40.0	22.6	0.00e+00	0	29	0	982515712	50	6398
2026-01-27 02:46:32.92	315.77	11.90	-39.1	-40.1	22.3	0.00e+00	0	29	0	984612864	50	6523
2026-01-27 02:46:33.92	315.92	11.85	-39.3	-40.3	22.4	0.00e+00	0	29	0	986710016	50	6655
2026-01-27 02:46:34.93	316.09	11.80	-39.5	-40.6	22.1	0.00e+00	0	29	0	987758592	50	6863
2026-01-27 02:46:35.94	316.24	11.75	-39.5	-40.6	22.1	0.00e+00	0	29	0	989855744	50	6878
2026-01-27 02:46:36.95	316.40	11.70	-39.4	-40.4	22.2	0.00e+00	0	29	0	991952896	50	6749
2026-01-27 02:46:37.96	316.56	11.64	-39.6	-40.6	22.0	0.00e+00	0	29	0	994050048	50	6899
2026-01-27 02:46:38.97	316.72	11.59	-39.7	-40.7	21.9	0.00e+00	0	29	0	996147200	50	6992
2026-01-27 02:46:39.98	316.88	11.54	-39.6	-40.7	22.0	0.00e+00	0	29	0	997195776	50	6939
2026-01-27 02:46:40.99	317.04	11.49	-39.6	-40.7	22.0	0.00e+00	0	29	0	999292928	50	6954
2026-01-27 02:46:42.00	317.19	11.43	-39.3	-40.4	22.3	0.00e+00	0	29	0	1001390080	50	6706
2026-01-27 02:46:43.01	317.35	11.38	-39.2	-40.3	22.4	0.00e+00	0	29	0	1003487232	50	6620
2026-01-27 02:46:44.02	317.50	11.33	-38.9	-39.9	22.8	0.00e+00	0	29	0	1005584384	50	6359
2026-01-27 02:46:45.03	317.66	11.28	-38.6	-39.6	23.0	0.00e+00	0	29	0	1007681536	50	6126
2026-01-27 02:46:46.04	317.81	11.22	-38.3	-39.3	23.2	0.00e+00	0	29	0	1008730112	50	5910
2026-01-27 02:46:47.05	317.97	11.17	-38.3	-39.3	23.3	0.00e+00	0	29	0	1010827264	50	5911
2026-01-27 02:46:48.06	318.12	11.12	-38.0	-38.9	23.5	0.00e+00	0	29	0	1012924416	50	5686
2026-01-27 02:46:49.07	318.27	11.07	-38.0	-38.9	23.5	0.00e+00	0	29	0	1015021568	50	5667
2026-01-27 02:46:50.08	318.43	11.01	-38.3	-39.2	23.3	0.00e+00	0	29	0	1017118720	50	5860
2026-01-27 02:46:51.08	318.58	10.96	-38.3	-39.2	23.2	0.00e+00	0	29	0	1018167296	50	5864
2026-01-27 02:46:52.09	318.73	10.91	-38.5	-39.5	23.0	0.00e+00	0	29	0	1020264448	50	6061
2026-01-27 02:46:53.10	318.88	10.86	-38.5	-39.5	23.0	0.00e+00	0	29	0	1022361600	50	6063
2026-01-27 02:46:54.11	319.03	10.80	-38.7	-39.7	22.9	0.00e+00	0	29	0	1024458752	50	6176
2026-01-27 02:46:55.12	319.18	10.75	-38.8	-39.8	22.7	0.00e+00	0	29	0	1026555904	50	6275
2026-01-27 02:46:56.13	319.33	10.70	-38.8	-39.7	22.7	0.00e+00	0	29	0	1027604480	50	6237
2026-01-27 02:46:57.14	319.47	10.64	-38.8	-39.8	22.7	0.00e+00	0	29	0	1029701632	50	6257
2026-01-27 02:46:58.15	319.62	10.59	-38.8	-39.7	22.7	0.00e+00	0	29	0	1031798784	50	6240
2026-01-27 02:46:59.16	319.77	10.54	-38.8	-39.7	22.8	0.00e+00	0	29	0	1033895936	50	6225
2026-01-27 02:47:00.17	319.92	10.48	-38.7	-39.7	22.7	0.00e+00	0	29	0	1035993088	50	6185
2026-01-27 02:47:01.18	320.06	10.43	-38.6	-39.6	22.8	0.00e+00	0	29	0	1037041664	50	6135
2026-01-27 02:47:02.19	320.21	10.38	-38.9	-39.8	22.6	0.00e+00	0	29	0	1039138816	50	6311
2026-01-27 02:47:03.20	320.36	10.32	-38.9	-39.9	22.6	0.00e+00	0	29	0	1041235968	50	6383
2026-01-27 02:47:04.21	320.50	10.27	-39.1	-40.1	22.4	0.00e+00	0	29	0	1043333120	50	6507
2026-01-27 02:47:05.22	320.64	10.22	-39.1	-40.1	22.4	0.00e+00	0	29	0	1045430272	50	6517
2026-01-27 02:47:06.23	320.79	10.16	-38.9	-39.9	22.6	0.00e+00	0	29	0	1046478848	50	6318
2026-01-27 02:47:07.24	320.93	10.11	-38.9	-39.9	22.6	0.00e+00	0	29	0	1048576000	50	6344
2026-01-27 02:47:08.25	321.07	10.06	-38.8	-39.8	22.7	0.00e+00	0	29	0	1050673152	50	6256
2026-01-27 02:47:09.26	321.22	10.00	-38.7	-39.6	22.8	0.00e+00	0	29	0	1052770304	50	6168
2026-01-27 02:47:10.26	321.36	9.95	-38.5	-39.4	23.0	0.00e+00	0	29	0	1054867456	50	6012
2026-01-27 02:47:11.27	321.50	9.89	-38.5	-39.5	22.9	0.00e+00	0	29	0	1055916032	50	6046
2026-01-27 02:47:12.28	321.64	9.84	-38.3	-39.3	23.1	0.00e+00	0	29	0	1058013184	50	5904
2026-01-27 02:47:13.29	321.78	9.79	-38.4	-39.3	23.1	0.00e+00	0	29	0	1060110336	50	5937
2026-01-27 02:47:14.30	321.92	9.73	-38.6	-39.6	22.8	0.00e+00	0	29	0	1062207488	50	6107
2026-01-27 02:47:15.31	322.06	9.68	-38.7	-39.7	22.8	0.00e+00	0	29	0	1064304640	50	6175
2026-01-27 02:47:16.32	322.20	9.62	-38.8	-39.8	22.6	0.00e+00	0	29	0	1065353216	50	6287
2026-01-27 02:47:17.33	322.34	9.57	-39.0	-40.0	22.5	0.00e+00	0	29	0	1067450368	50	6432
2026-01-27 02:47:18.34	322.47	9.52	-39.2	-40.2	22.3	0.00e+00	0	29	0	1069547520	50	6586
2026-01-27 02:47:19.35	322.61	9.46	-39.1	-40.1	22.3	0.00e+00	0	29	0	1071644672	50	6535
2026-01-27 02:47:20.36	322.75	9.41	-39.1	-40.1	22.3	0.00e+00	0	29	0	1073741824	50	6500
2026-01-27 02:47:21.37	322.89	9.35	-39.1	-40.2	22.3	0.00e+00	0	29	0	1075838976	50	6540
2026-01-27 02:47:22.38	323.02	9.30	-39.2	-40.2	22.2	0.00e+00	0	29	0	1076887552	50	6586
2026-01-27 02:47:23.39	323.16	9.25	-38.7	-39.7	22.7	0.00e+00	0	29	0	1078984704	50	6214
2026-01-27 02:47:24.40	323.29	9.19	-38.8	-39.8	22.5	0.00e+00	0	29	0	1081081856	50	6286
2026-01-27 02:47:25.41	323.43	9.14	-38.7	-39.6	22.8	0.00e+00	0	29	0	1083179008	50	6167
2026-01-27 02:47:26.42	323.56	9.08	-38.6	-39.6	22.7	0.00e+00	0	29	0	1085276160	50	6159
2026-01-27 02:47:27.43	323.69	9.03	-38.7	-39.7	22.6	0.00e+00	0	29	0	1086324736	50	6176
2026-01-27 02:47:28.44	323.83	8.98	-38.9	-39.9	22.5	0.00e+00	0	29	0	1088421888	50	6325
2026-01-27 02:47:29.45	323.96	8.92	-39.0	-40.1	22.3	0.00e+00	0	29	0	1090519040	50	6472
2026-01-27 02:47:30.46	324.09	8.87	-39.2	-40.2	22.1	0.00e+00	0	29	0	1092616192	50	6590
2026-01-27 02:47:31.47	324.22	8.81	-39.2	-40.2	22.2	0.00e+00	0	29	0	1094713344	50	6594
2026-01-27 02:47:32.48	324.35	8.76	-39.3	-40.4	22.0	0.00e+00	0	29	0	1095761920	50	6729
2026-01-27 02:47:33.49	324.49	8.71	-39.4	-40.5	21.9	0.00e+00	0	29	0	1097859072	50	6777
2026-01-27 02:47:34.50	324.62	8.65	-39.5	-40.6	21.8	0.00e+00	0	29	0	1099956224	50	6881
2026-01-27 02:47:35.50	324.74	8.60	-39.4	-40.5	21.8	0.00e+00	0	29	0	1102053376	50	6791
2026-01-27 02:47:36.52	324.88	8.54	-39.2	-40.2	22.1	0.00e+00	0	29	0	1104150528	50	6579
2026-01-27 02:47:37.53	325.00	8.49	-39.1	-40.1	22.1	0.00e+00	0	29	0	1105199104	50	6512
2026-01-27 02:47:38.54	325.13	8.43	-39.0	-40.0	22.2	0.00e+00	0	29	0	1107296256	50	6445
2026-01-27 02:47:39.55	325.26	8.38	-38.9	-39.9	22.2	0.00e+00	0	29	0	1109393408	50	6381
2026-01-27 02:47:40.56	325.39	8.33	-39.0	-40.0	22.1	0.00e+00	0	29	0	1111490560	50	6440
2026-01-27 02:47:41.57	325.51	8.27	-38.9	-39.9	22.2	0.00e+00	0	29	0	1113587712	50	6330
2026-01-27 02:47:42.58	325.64	8.22	-38.9	-39.9	22.0	0.00e+00	0	29	0	1114636288	50	6320
2026-01-27 02:47:43.59	325.77	8.16	-39.1	-40.1	21.8	0.00e+00	0	29	0	1116733440	50	6508
2026-01-27 02:47:44.60	325.89	8.11	-39.2	-40.3	22.1	0.00e+00	0	29	0	1118830592	50	6619
2026-01-27 02:47:45.61	326.02	8.05	-39.3	-40.3	21.9	0.00e+00	0	29	0	1120927744	50	6666
2026-01-27 02:47:46.62	326.14	8.00	-39.4	-40.5	21.9	0.00e+00	0	29	0	1123024896	50	6828
2026-01-27 02:47:47.63	326.27	7.95	-39.4	-40.5	21.8	0.00e+00	0	29	0	1124073472	50	6812
2026-01-27 02:47:48.64	326.39	7.89	-39.6	-40.7	21.6	0.00e+00	0	29	0	1126170624	50	6980
2026-01-27 02:47:49.65	326.51	7.84	-39.6	-40.7	21.6	0.00e+00	0	29	0	1128267776	50	6951
2026-01-27 02:47:50.66	326.64	7.78	-39.5	-40.7	21.6	0.00e+00	0	29	0	1130364928	50	6928
2026-01-27 02:47:51.67	326.76	7.73	-39.6	-40.7	21.5	0.00e+00	0	29	0	1132462080	50	6943
2026-01-27 02:47:52.68	326.88	7.67	-39.7	-40.9	21.5	0.00e+00	0	29	0	1133510656	50	7094
2026-01-27 02:47:53.69	327.00	7.62	-39.5	-40.6	21.5	0.00e+00	0	29	0	1135607808	50	6854
2026-01-27 02:47:54.70	327.13	7.57	-39.5	-40.6	21.7	0.00e+00	0	29	0	1137704960	50	6888
2026-01-27 02:47:55.71	327.25	7.51	-39.5	-40.6	21.5	0.00e+00	0	29	0	1139802112	50	6877
2026-01-27 02:47:56.72	327.37	7.46	-39.6	-40.7	21.5	0.00e+00	0	29	0	1141899264	50	6968
2026-01-27 02:47:57.72	327.49	7.40	-39.7	-40.8	21.5	0.00e+00	0	29	0	1143996416	50	7055
2026-01-27 02:47:58.73	327.61	7.35	-39.8	-40.9	21.4	0.00e+00	0	29	0	1145044992	52	6388
2026-01-27 02:47:59.74	327.72	7.30	-40.0	-41.1	21.2	0.00e+00	0	29	0	1147142144	52	6536
2026-01-27 02:48:00.75	327.84	7.24	-40.1	-41.3	21.1	0.00e+00	0	29	0	1149239296	52	6619
2026-01-27 02:48:01.77	327.96	7.19	-40.2	-41.4	21.0	0.00e+00	0	29	0	1151336448	52	6699
2026-01-27 02:48:02.78	328.08	7.13	-40.1	-41.3	21.0	0.00e+00	0	29	0	1153433600	52	6683
2026-01-27 02:48:03.79	328.20	7.08	-40.3	-41.6	20.8	0.00e+00	0	29	0	1154482176	52	6865
2026-01-27 02:48:04.80	328.31	7.02	-40.3	-41.5	20.8	0.00e+00	0	29	0	1156579328	52	6810
2026-01-27 02:48:05.81	328.43	6.97	-40.0	-41.2	20.9	0.00e+00	0	29	0	1158676480	52	6589
2026-01-27 02:48:06.82	328.55	6.92	-40.2	-41.4	20.9	0.00e+00	0	29	0	1160773632	52	6696
2026-01-27 02:48:07.83	328.66	6.86	-40.1	-41.3	20.9	0.00e+00	0	29	0	1162870784	52	6675
2026-01-27 02:48:08.84	328.78	6.81	-40.1	-41.3	21.0	0.00e+00	0	29	0	1163919360	52	6685
2026-01-27 02:48:09.85	328.89	6.75	-40.2	-41.5	20.9	0.00e+00	0	29	0	1166016512	52	6771
2026-01-27 02:48:10.86	329.01	6.70	-40.3	-41.5	20.9	0.00e+00	0	29	0	1168113664	52	6799
2026-01-27 02:48:11.86	329.12	6.65	-40.6	-41.9	20.5	0.00e+00	0	29	0	1170210816	52	7092
2026-01-27 02:48:12.87	329.23	6.59	-40.4	-41.7	20.7	0.00e+00	0	29	0	1172307968	52	6972
2026-01-27 02:48:13.89	329.35	6.54	-40.3	-41.5	20.8	0.00e+00	0	29	0	1173356544	52	6815
2026-01-27 02:48:14.90	329.46	6.48	-40.4	-41.7	20.6	0.00e+00	0	29	0	1175453696	52	6954
2026-01-27 02:48:15.91	329.57	6.43	-40.6	-41.8	20.4	0.00e+00	0	29	0	1177550848	52	7085
2026-01-27 02:48:16.91	329.69	6.38	-40.7	-42.0	20.4	0.00e+00	0	29	0	1179648000	52	7180
2026-01-27 02:48:17.93	329.80	6.32	-40.8	-42.1	20.2	0.00e+00	0	29	0	1181745152	52	7300
2026-01-27 02:48:18.93	329.91	6.27	-40.7	-42.1	20.2	0.00e+00	0	29	0	1182793728	54	6476
2026-01-27 02:48:19.94	330.02	6.22	-40.7	-42.0	20.3	0.00e+00	0	29	0	1184890880	54	6421
2026-01-27 02:48:20.95	330.13	6.16	-40.7	-42.0	20.2	0.00e+00	0	29	0	1186988032	54	6460
2026-01-27 02:48:21.96	330.24	6.11	-40.7	-42.0	20.1	0.00e+00	0	29	0	1189085184	54	6455
2026-01-27 02:48:22.97	330.35	6.06	-40.8	-42.1	20.1	0.00e+00	0	29	0	1191182336	54	6502
2026-01-27 02:48:23.98	330.46	6.00	-40.7	-42.0	19.9	0.00e+00	0	29	0	1192230912	54	6463
2026-01-27 02:48:24.99	330.57	5.95	-40.8	-42.2	20.1	0.00e+00	0	29	0	1194328064	54	6541
2026-01-27 02:48:26.00	330.68	5.89	-40.6	-41.9	20.3	0.00e+00	0	29	0	1196425216	54	6330
2026-01-27 02:48:27.01	330.79	5.84	-40.7	-42.1	20.1	0.00e+00	0	29	0	1198522368	54	6474
2026-01-27 02:48:28.02	330.89	5.79	-40.6	-41.9	20.2	0.00e+00	0	29	0	1200619520	54	6384
2026-01-27 02:48:29.03	331.00	5.73	-40.6	-41.9	20.2	0.00e+00	0	29	0	1201668096	54	6343
2026-01-27 02:48:30.04	331.11	5.68	-41.0	-42.4	19.6	0.00e+00	0	29	0	1203765248	54	6739
2026-01-27 02:48:31.05	331.22	5.63	-40.7	-42.1	19.9	0.00e+00	0	29	0	1205862400	54	6480
2026-01-27 02:48:32.06	331.32	5.57	-40.8	-42.2	19.9	0.00e+00	0	29	0	1207959552	54	6541
