passes_logs/2026/01/27/R4.6S_Anadyr/R4.6S_Anadyr__20260127_145859_AQUA_rec.log

#Pass ID: 20260127_145859_AQUA
#Satellite: AQUA
#Configuration: AQUA
#almurnet v.1.7.20251203
#Start time: 2026-01-27 14:58:59

#Version: 2.2.20231116
#Station: R4.6S_Anadyr
#Location: 177.4865 lon 64.73178 lat
#TLE: 1 27424U 02022A   26026.85810808  .00001813  00000+0  37258-3 0  9999
#TLE: 2 27424  98.4101 353.4861 0001866  64.3332 317.5249 14.61864179262622

#Time	Az	El	Level	Level2	SNR	BER	BlckErr	Temp	State	Recorded	gain1	gain2
2026-01-27 14:58:59.99	19.98	0.04	-49.0	-63.9	3.5	1.51e+00	0	30	0	0	60	56522
2026-01-27 14:59:01.00	20.03	0.10	-49.3	-67.2	3.5	3.02e+01	0	31	104	0	60	88286
2026-01-27 14:59:02.01	20.09	0.16	-49.3	-67.2	3.5	3.02e+01	0	31	104	0	60	88240
2026-01-27 14:59:03.02	20.14	0.22	-49.3	-67.2	3.5	3.02e+01	0	31	104	0	60	87782
2026-01-27 14:59:04.03	20.20	0.27	-49.2	-67.1	3.5	3.02e+01	0	31	104	0	60	86665
2026-01-27 14:59:05.04	20.26	0.33	-49.3	-67.0	3.5	3.02e+01	0	31	104	0	60	86476
2026-01-27 14:59:06.05	20.31	0.39	-49.2	-67.1	3.5	3.02e+01	0	31	104	0	60	87068
2026-01-27 14:59:07.06	20.37	0.45	-49.3	-67.1	3.5	3.02e+01	0	31	104	0	60	87435
2026-01-27 14:59:08.07	20.43	0.50	-49.3	-67.1	3.5	3.02e+01	0	31	104	0	60	87091
2026-01-27 14:59:09.08	20.49	0.56	-49.3	-67.1	3.5	3.02e+01	0	31	104	0	60	87429
2026-01-27 14:59:10.09	20.55	0.62	-49.2	-67.1	3.5	3.02e+01	0	31	104	0	60	87371
2026-01-27 14:59:11.10	20.60	0.68	-49.3	-67.1	3.6	3.02e+01	0	31	104	0	60	87410
2026-01-27 14:59:12.11	20.66	0.74	-49.2	-67.1	3.5	3.02e+01	0	31	104	0	60	87135
2026-01-27 14:59:13.12	20.72	0.80	-48.8	-67.0	3.5	3.02e+01	0	31	104	0	60	86481
2026-01-27 14:59:14.13	20.78	0.85	-49.2	-67.0	3.5	3.02e+01	0	31	104	0	60	86374
2026-01-27 14:59:15.14	20.84	0.91	-49.1	-66.9	3.5	3.02e+01	0	31	104	0	60	85379
2026-01-27 14:59:16.15	20.90	0.97	-48.9	-66.9	3.5	3.02e+01	0	31	104	0	60	85188
2026-01-27 14:59:17.16	20.96	1.03	-48.9	-66.8	3.5	3.02e+01	0	31	104	0	60	84213
2026-01-27 14:59:18.17	21.02	1.09	-48.9	-66.7	3.5	3.02e+01	0	32	104	0	60	83509
2026-01-27 14:59:19.18	21.08	1.15	-48.5	-66.6	3.5	3.02e+01	0	31	104	0	60	81945
2026-01-27 14:59:20.19	21.14	1.21	-48.7	-66.5	3.5	3.02e+01	0	32	104	0	60	81768
2026-01-27 14:59:21.19	21.20	1.27	-48.6	-66.4	3.5	3.02e+01	0	32	104	0	60	80433
2026-01-27 14:59:22.20	21.26	1.32	-48.5	-66.3	3.5	3.02e+01	0	31	104	0	60	79268
2026-01-27 14:59:23.21	21.32	1.38	-48.1	-66.0	3.5	3.02e+01	0	32	104	0	60	77175
2026-01-27 14:59:24.22	21.38	1.44	-47.9	-65.5	3.5	3.02e+01	0	32	104	0	60	72702
2026-01-27 14:59:25.23	21.44	1.50	-47.8	-65.7	3.5	3.02e+01	0	32	104	0	60	74309
2026-01-27 14:59:26.24	21.50	1.56	-47.8	-65.7	3.5	3.02e+01	0	32	104	0	60	74171
2026-01-27 14:59:27.25	21.57	1.62	-47.8	-65.7	3.5	3.02e+01	0	32	104	0	60	74089
2026-01-27 14:59:28.26	21.63	1.68	-47.8	-65.8	3.5	3.02e+01	0	32	104	0	60	74686
2026-01-27 14:59:29.27	21.69	1.74	-47.8	-65.7	3.5	3.02e+01	0	32	104	0	60	74323
2026-01-27 14:59:30.28	21.75	1.80	-47.8	-65.7	3.5	3.02e+01	0	32	104	0	60	74171
2026-01-27 14:59:31.29	21.82	1.86	-47.8	-65.6	3.5	3.02e+01	0	32	104	0	60	73564
2026-01-27 14:59:32.31	21.88	1.93	-47.8	-65.6	3.5	3.02e+01	0	32	104	0	60	73047
2026-01-27 14:59:33.32	21.94	1.99	-47.8	-65.4	3.5	3.02e+01	0	32	104	0	60	71329
2026-01-27 14:59:34.32	22.01	2.05	-47.8	-65.2	3.5	3.02e+01	0	32	104	0	60	70254
2026-01-27 14:59:35.33	22.07	2.11	-47.8	-65.4	3.5	3.02e+01	0	32	104	0	60	72014
2026-01-27 14:59:36.35	22.14	2.17	-47.8	-65.4	3.5	3.02e+01	0	32	104	0	60	71554
2026-01-27 14:59:37.36	22.20	2.23	-47.8	-65.3	3.5	3.02e+01	0	32	104	0	60	70852
2026-01-27 14:59:38.36	22.26	2.29	-47.8	-65.2	3.5	3.02e+01	0	32	104	0	60	70341
2026-01-27 14:59:39.37	22.33	2.35	-47.8	-65.4	3.5	3.02e+01	0	32	104	0	60	71288
2026-01-27 14:59:40.38	22.39	2.41	-47.8	-65.5	3.5	3.02e+01	0	32	104	0	60	72384
2026-01-27 14:59:41.39	22.46	2.47	-47.8	-65.4	3.5	3.02e+01	0	32	104	0	60	71413
2026-01-27 14:59:42.40	22.53	2.54	-47.8	-64.9	3.5	3.02e+01	0	32	104	0	60	67371
2026-01-27 14:59:43.41	22.59	2.60	-47.7	-63.6	3.5	3.02e+01	0	32	104	0	60	57938
2026-01-27 14:59:44.42	22.66	2.66	-47.7	-63.1	3.8	3.02e+01	0	32	104	0	60	55267
2026-01-27 14:59:45.43	22.73	2.72	-47.8	-64.0	3.5	3.02e+01	0	32	104	0	60	61143
2026-01-27 14:59:46.43	22.79	2.78	-47.8	-65.2	3.5	3.02e+01	0	32	104	0	60	70000
2026-01-27 14:59:47.44	22.86	2.85	-47.5	-59.4	6.1	3.02e+01	56	32	104	0	60	35997
2026-01-27 14:59:48.45	22.93	2.91	-46.6	-53.1	12.5	3.02e+01	56	32	0	1048576	60	17450
2026-01-27 14:59:49.46	23.00	2.97	-44.6	-48.2	16.9	3.02e+01	59	32	0	2621440	60	9929
2026-01-27 14:59:50.47	23.06	3.03	-42.9	-45.6	19.8	3.02e+01	45	32	0	4718592	60	7310
2026-01-27 14:59:51.48	23.13	3.10	-41.3	-43.4	22.2	3.02e+01	58	32	0	6291456	58	6354
2026-01-27 14:59:52.49	23.20	3.16	-39.3	-41.0	23.8	3.02e+01	58	32	0	8388608	54	6106
2026-01-27 14:59:53.50	23.27	3.22	-38.8	-40.4	24.6	3.02e+01	46	32	0	9961472	54	5679
2026-01-27 14:59:54.51	23.34	3.29	-38.1	-39.6	25.3	3.02e+01	59	32	0	12058624	50	6549
2026-01-27 14:59:55.52	23.41	3.35	-38.8	-40.4	24.6	3.02e+01	52	32	0	14155776	50	7166
2026-01-27 14:59:56.53	23.48	3.41	-39.5	-41.2	24.0	3.02e+01	57	32	0	15728640	52	6969
2026-01-27 14:59:57.54	23.55	3.48	-41.1	-43.1	21.9	3.02e+01	60	32	0	17825792	54	7791
2026-01-27 14:59:58.55	23.62	3.54	-42.2	-44.5	21.7	3.02e+01	49	32	0	19922944	58	7290
2026-01-27 14:59:59.56	23.69	3.60	-41.3	-43.4	22.2	3.02e+01	59	32	0	21495808	58	6359
2026-01-27 15:00:00.57	23.76	3.67	-39.0	-40.6	24.0	3.02e+01	59	32	0	23592960	52	6507
2026-01-27 15:00:01.58	23.84	3.73	-47.8	-64.0	4.4	3.02e+01	0	32	104	24117248	60	60726
2026-01-27 15:00:02.58	23.91	3.80	-40.0	-41.7	24.2	3.02e+01	58	32	0	24641536	60	4681
2026-01-27 15:00:03.59	23.98	3.86	-45.7	-50.1	16.3	3.02e+01	61	32	0	26738688	60	12297
2026-01-27 15:00:04.60	24.05	3.93	-38.1	-39.6	25.6	3.02e+01	60	32	0	28835840	52	5808
2026-01-27 15:00:05.61	24.12	3.99	-38.7	-40.3	24.9	3.02e+01	59	32	0	30408704	52	6314
2026-01-27 15:00:06.62	24.20	4.06	-37.9	-39.4	25.5	3.02e+01	47	32	0	32505856	50	6381
2026-01-27 15:00:07.63	24.27	4.12	-37.9	-39.4	25.6	3.02e+01	60	32	0	34078720	50	6388
2026-01-27 15:00:08.64	24.35	4.19	-38.3	-39.8	25.3	3.02e+01	60	32	0	36175872	50	6712
2026-01-27 15:00:09.65	24.42	4.25	-38.2	-39.7	25.5	3.02e+01	44	32	0	38273024	50	6574
2026-01-27 15:00:10.66	24.49	4.32	-38.2	-39.7	25.8	3.02e+01	56	32	0	39845888	50	6605
2026-01-27 15:00:11.67	24.57	4.38	-38.6	-40.1	25.1	3.02e+01	60	32	0	41943040	52	6199
2026-01-27 15:00:12.68	24.64	4.45	-38.7	-40.2	25.1	3.02e+01	57	32	0	44040192	52	6228
2026-01-27 15:00:13.68	24.72	4.51	-38.3	-39.7	25.7	3.02e+01	60	32	0	45613056	52	5915
2026-01-27 15:00:14.69	24.80	4.58	-37.8	-39.3	26.0	3.02e+01	53	32	0	47710208	50	6294
2026-01-27 15:00:15.70	24.87	4.64	-38.4	-39.9	25.3	3.02e+01	60	32	0	49283072	50	6767
2026-01-27 15:00:16.71	24.95	4.71	-37.6	-39.0	26.2	3.02e+01	57	32	0	51380224	50	6080
2026-01-27 15:00:17.72	25.03	4.78	-38.0	-39.4	25.8	3.02e+01	58	32	0	53477376	50	6399
2026-01-27 15:00:18.73	25.10	4.84	-37.9	-39.4	25.9	3.02e+01	58	32	0	55050240	50	6374
2026-01-27 15:00:19.74	25.18	4.91	-37.7	-39.1	26.0	3.02e+01	55	32	0	57147392	50	6180
2026-01-27 15:00:20.75	25.26	4.98	-37.9	-39.4	25.8	3.02e+01	58	32	0	58720256	50	6366
2026-01-27 15:00:21.76	25.34	5.04	-38.1	-39.6	25.4	3.02e+01	62	32	0	60817408	50	6537
2026-01-27 15:00:22.77	25.42	5.11	-38.2	-39.7	25.7	3.02e+01	52	32	0	62914560	50	6633
2026-01-27 15:00:23.78	25.50	5.18	-37.9	-39.4	25.8	3.02e+01	59	32	0	64487424	50	6352
2026-01-27 15:00:24.79	25.58	5.25	-37.9	-39.4	25.9	3.02e+01	59	32	0	66584576	50	6365
2026-01-27 15:00:25.79	25.66	5.31	-37.5	-38.9	26.3	3.02e+01	57	32	0	68157440	50	6022
2026-01-27 15:00:26.80	25.74	5.38	-37.7	-39.1	26.2	3.02e+01	62	32	0	70254592	50	6148
2026-01-27 15:00:27.81	25.82	5.45	-37.9	-39.3	25.9	3.02e+01	47	32	0	72351744	50	6342
2026-01-27 15:00:28.82	25.90	5.52	-37.6	-39.0	26.3	3.02e+01	59	32	0	73924608	50	6082
2026-01-27 15:00:29.83	25.98	5.59	-37.6	-39.0	26.3	3.02e+01	60	32	0	76021760	50	6092
2026-01-27 15:00:30.84	26.06	5.65	-37.6	-39.0	26.2	3.02e+01	45	32	0	77594624	50	6072
2026-01-27 15:00:31.85	26.14	5.72	-37.6	-39.0	26.3	3.02e+01	60	32	0	79691776	50	6123
2026-01-27 15:00:32.86	26.23	5.79	-37.5	-38.9	26.5	3.02e+01	58	32	0	81788928	50	6007
2026-01-27 15:00:33.87	26.31	5.86	-37.5	-38.9	26.4	3.02e+01	58	32	0	83361792	50	6030
2026-01-27 15:00:34.88	26.39	5.93	-37.4	-38.7	26.5	3.02e+01	59	32	0	85458944	50	5921
2026-01-27 15:00:35.89	26.48	6.00	-37.3	-38.7	26.7	3.02e+01	58	32	0	87031808	50	5864
2026-01-27 15:00:36.90	26.56	6.07	-37.4	-38.8	26.5	3.02e+01	50	32	0	89128960	50	5990
2026-01-27 15:00:37.91	26.65	6.14	-37.1	-38.5	26.8	3.02e+01	60	32	0	91226112	50	5738
2026-01-27 15:00:38.92	26.73	6.21	-37.3	-38.6	26.7	3.02e+01	50	32	0	92798976	50	5843
2026-01-27 15:00:39.93	26.82	6.28	-37.2	-38.6	26.7	3.02e+01	57	32	0	94896128	50	5799
2026-01-27 15:00:40.93	26.90	6.35	-37.3	-38.7	26.7	3.02e+01	59	32	0	96993280	50	5873
2026-01-27 15:00:41.94	26.99	6.42	-37.4	-38.7	26.6	3.02e+01	57	32	0	98566144	50	5918
2026-01-27 15:00:42.95	27.08	6.49	-37.4	-38.8	26.6	3.02e+01	57	32	0	100663296	50	5931
2026-01-27 15:00:43.96	27.16	6.56	-37.5	-38.9	26.5	3.02e+01	45	32	0	102236160	50	6034
2026-01-27 15:00:44.97	27.25	6.63	-37.2	-38.5	26.9	3.02e+01	61	32	0	104333312	50	5783
2026-01-27 15:00:45.98	27.34	6.70	-37.0	-38.4	27.1	3.02e+01	59	32	0	106430464	50	5673
2026-01-27 15:00:46.99	27.43	6.77	-37.1	-38.4	27.1	3.02e+01	48	32	0	108003328	50	5713
2026-01-27 15:00:48.00	27.52	6.84	-37.1	-38.4	27.0	3.02e+01	59	32	0	110100480	48	6407
2026-01-27 15:00:49.01	27.61	6.91	-36.9	-38.3	27.2	3.02e+01	57	32	0	112197632	48	6278
2026-01-27 15:00:50.02	27.70	6.98	-37.0	-38.3	27.1	3.02e+01	60	32	0	113770496	48	6340
2026-01-27 15:00:51.03	27.79	7.06	-37.0	-38.3	27.0	3.02e+01	58	32	0	115867648	48	6341
2026-01-27 15:00:52.03	27.88	7.13	-37.2	-38.5	26.9	3.02e+01	58	32	0	117440512	48	6497
2026-01-27 15:00:53.04	27.97	7.20	-37.0	-38.3	27.1	3.02e+01	59	32	0	119537664	48	6308
2026-01-27 15:00:54.05	28.06	7.27	-37.1	-38.5	27.0	3.02e+01	58	32	0	121110528	48	6442
2026-01-27 15:00:55.06	28.15	7.34	-36.9	-38.2	27.1	3.02e+01	59	32	0	123207680	48	6251
2026-01-27 15:00:56.07	28.25	7.42	-37.0	-38.3	27.1	3.02e+01	56	32	0	125304832	48	6320
2026-01-27 15:00:57.08	28.34	7.49	-37.1	-38.4	27.1	3.02e+01	44	32	0	126877696	48	6404
2026-01-27 15:00:58.09	28.43	7.56	-36.9	-38.2	27.2	3.02e+01	62	32	0	128974848	48	6252
2026-01-27 15:00:59.10	28.53	7.63	-37.0	-38.3	27.1	3.02e+01	54	32	0	130547712	48	6334
2026-01-27 15:01:00.11	28.62	7.71	-36.9	-38.2	27.3	3.02e+01	45	32	0	132644864	48	6244
2026-01-27 15:01:01.12	28.72	7.78	-36.9	-38.2	27.4	3.02e+01	59	32	0	134742016	48	6270
2026-01-27 15:01:02.13	28.81	7.85	-36.8	-38.1	27.4	3.02e+01	59	32	0	136314880	48	6196
2026-01-27 15:01:03.14	28.91	7.93	-36.8	-38.2	27.3	3.02e+01	59	32	0	138412032	48	6215
2026-01-27 15:01:04.15	29.01	8.00	-36.8	-38.1	27.4	3.02e+01	58	32	0	140509184	48	6199
2026-01-27 15:01:05.16	29.10	8.08	-36.9	-38.2	27.3	3.02e+01	57	32	0	142082048	48	6245
2026-01-27 15:01:06.17	29.20	8.15	-37.0	-38.3	27.4	3.02e+01	59	32	0	144179200	48	6306
2026-01-27 15:01:07.18	29.30	8.22	-36.7	-38.0	27.5	3.02e+01	59	32	0	145752064	48	6096
2026-01-27 15:01:08.19	29.40	8.30	-36.7	-38.0	27.5	3.02e+01	51	32	0	147849216	48	6114
2026-01-27 15:01:09.19	29.50	8.37	-36.8	-38.2	27.4	3.02e+01	60	32	0	149946368	48	6209
2026-01-27 15:01:10.20	29.60	8.45	-36.7	-38.0	27.5	3.02e+01	59	32	0	151519232	48	6085
2026-01-27 15:01:11.21	29.70	8.52	-36.6	-37.9	27.7	3.02e+01	57	32	0	153616384	48	6019
2026-01-27 15:01:12.22	29.80	8.60	-36.7	-38.0	27.5	3.02e+01	63	32	0	155189248	48	6117
2026-01-27 15:01:13.23	29.90	8.67	-36.5	-37.8	27.7	3.02e+01	56	32	0	157286400	48	5981
2026-01-27 15:01:14.24	30.00	8.75	-36.5	-37.8	27.7	3.02e+01	60	32	0	159383552	48	5980
2026-01-27 15:01:15.25	30.10	8.83	-36.4	-37.6	27.8	3.02e+01	57	32	0	160956416	48	5856
2026-01-27 15:01:16.26	30.21	8.90	-36.4	-37.7	27.8	3.02e+01	45	32	0	163053568	48	5875
2026-01-27 15:01:17.27	30.31	8.98	-36.3	-37.6	27.8	3.02e+01	62	32	0	165150720	48	5856
2026-01-27 15:01:18.28	30.41	9.05	-36.5	-37.9	27.7	3.02e+01	60	32	0	166723584	48	6004
2026-01-27 15:01:19.28	30.52	9.13	-36.6	-37.9	27.7	3.02e+01	59	32	0	168820736	48	6009
2026-01-27 15:01:20.29	30.62	9.21	-36.4	-37.7	27.8	3.02e+01	59	32	0	170393600	48	5926
2026-01-27 15:01:21.30	30.73	9.28	-36.5	-37.8	27.7	3.02e+01	52	32	0	172490752	48	5993
2026-01-27 15:01:22.31	30.84	9.36	-36.6	-37.9	27.7	3.02e+01	56	32	0	174587904	48	6046
2026-01-27 15:01:23.32	30.94	9.44	-36.7	-38.0	27.5	3.02e+01	58	32	0	176160768	48	6105
2026-01-27 15:01:24.32	31.05	9.52	-36.3	-37.6	28.0	3.02e+01	45	32	0	178257920	48	5825
2026-01-27 15:01:25.33	31.16	9.59	-36.2	-37.5	28.0	3.02e+01	58	32	0	179830784	48	5788
2026-01-27 15:01:26.34	31.27	9.67	-36.2	-37.5	28.0	3.02e+01	62	32	0	181927936	48	5785
2026-01-27 15:01:27.35	31.38	9.75	-36.3	-37.6	27.9	3.02e+01	60	32	0	183500800	48	5800
2026-01-27 15:01:28.36	31.49	9.83	-36.3	-37.6	28.0	3.02e+01	56	32	0	185597952	48	5834
2026-01-27 15:01:29.37	31.60	9.91	-36.2	-37.5	28.1	3.02e+01	52	32	0	187695104	48	5733
2026-01-27 15:01:30.38	31.71	9.98	-36.2	-37.5	28.1	3.02e+01	58	32	0	189267968	48	5745
2026-01-27 15:01:31.39	31.82	10.06	-36.1	-37.4	28.2	3.02e+01	61	32	0	191365120	48	5713
2026-01-27 15:01:32.40	31.93	10.14	-36.1	-37.4	28.2	3.02e+01	49	32	0	193462272	48	5682
2026-01-27 15:01:33.41	32.05	10.22	-35.9	-37.2	28.3	3.02e+01	59	32	0	195035136	48	5581
2026-01-27 15:01:34.42	32.16	10.30	-36.0	-37.3	28.3	3.02e+01	45	32	0	197132288	46	6294
2026-01-27 15:01:35.43	32.28	10.38	-36.0	-37.3	28.3	3.02e+01	58	32	0	198705152	46	6279
2026-01-27 15:01:36.43	32.39	10.46	-36.1	-37.3	28.3	3.02e+01	61	32	0	200802304	46	6330
2026-01-27 15:01:37.44	32.51	10.54	-36.2	-37.5	28.1	3.02e+01	51	32	0	202899456	46	6472
2026-01-27 15:01:38.45	32.62	10.62	-36.0	-37.2	28.3	3.02e+01	59	32	0	204472320	46	6277
2026-01-27 15:01:39.46	32.74	10.70	-36.1	-37.4	28.2	3.02e+01	62	32	0	206569472	46	6378
2026-01-27 15:01:40.48	32.86	10.78	-36.0	-37.2	28.4	3.02e+01	51	32	0	208666624	46	6254
2026-01-27 15:01:41.48	32.97	10.86	-36.0	-37.3	28.4	3.02e+01	58	32	0	210239488	46	6303
2026-01-27 15:01:42.49	33.09	10.94	-36.1	-37.4	28.3	3.02e+01	44	32	0	212336640	46	6382
2026-01-27 15:01:43.50	33.21	11.03	-35.9	-37.2	28.5	3.02e+01	59	32	0	213909504	46	6212
2026-01-27 15:01:44.51	33.33	11.11	-36.0	-37.2	28.4	3.02e+01	59	32	0	216006656	46	6256
2026-01-27 15:01:45.52	33.46	11.19	-35.8	-37.1	28.5	3.02e+01	45	32	0	218103808	46	6172
2026-01-27 15:01:46.52	33.58	11.27	-35.9	-37.1	28.5	3.02e+01	57	32	0	219676672	46	6196
2026-01-27 15:01:47.53	33.70	11.35	-35.7	-37.0	28.6	3.02e+01	60	32	0	221773824	46	6088
2026-01-27 15:01:48.55	33.82	11.43	-35.8	-37.0	28.5	3.02e+01	58	32	0	223346688	46	6126
2026-01-27 15:01:49.56	33.95	11.52	-35.7	-36.9	28.6	3.02e+01	61	32	0	225443840	46	6039
2026-01-27 15:01:50.56	34.07	11.60	-35.8	-37.0	28.6	3.02e+01	64	32	0	227540992	46	6122
2026-01-27 15:01:51.57	34.20	11.68	-35.8	-37.1	28.6	3.02e+01	58	32	0	229113856	46	6165
2026-01-27 15:01:52.58	34.32	11.76	-35.8	-37.1	28.5	3.02e+01	58	32	0	231211008	46	6159
2026-01-27 15:01:53.59	34.45	11.85	-35.8	-37.0	28.6	3.02e+01	53	32	0	232783872	46	6115
2026-01-27 15:01:54.60	34.58	11.93	-35.8	-37.0	28.6	3.02e+01	60	32	0	234881024	46	6130
2026-01-27 15:01:55.61	34.71	12.02	-35.9	-37.1	28.6	3.02e+01	66	32	0	236978176	46	6190
2026-01-27 15:01:56.62	34.84	12.10	-35.9	-37.2	28.4	3.02e+01	59	32	0	238551040	46	6249
2026-01-27 15:01:57.63	34.97	12.18	-35.7	-37.0	28.6	3.02e+01	62	32	0	240648192	46	6085
2026-01-27 15:01:58.64	35.10	12.27	-35.7	-37.0	28.7	3.02e+01	54	32	0	242221056	46	6068
2026-01-27 15:01:59.65	35.23	12.35	-35.5	-36.8	28.8	3.02e+01	61	32	0	244318208	46	5967
2026-01-27 15:02:00.66	35.36	12.44	-35.6	-36.8	28.8	3.02e+01	61	32	0	246415360	46	5980
2026-01-27 15:02:01.67	35.49	12.52	-35.5	-36.7	28.9	3.02e+01	47	32	0	247988224	46	5904
2026-01-27 15:02:02.68	35.63	12.61	-35.6	-36.9	28.7	3.02e+01	59	32	0	250085376	46	6005
2026-01-27 15:02:03.68	35.76	12.69	-35.6	-36.8	28.8	3.02e+01	54	32	0	251658240	46	5959
2026-01-27 15:02:04.69	35.90	12.78	-35.7	-36.9	28.7	3.02e+01	59	32	0	253755392	46	6040
2026-01-27 15:02:05.70	36.03	12.86	-35.8	-37.1	28.6	3.02e+01	58	32	0	255852544	46	6156
2026-01-27 15:02:06.71	36.17	12.95	-35.7	-36.9	28.7	3.02e+01	54	32	0	257425408	46	6044
2026-01-27 15:02:07.72	36.31	13.03	-35.5	-36.8	28.9	3.02e+01	57	32	0	259522560	46	5938
2026-01-27 15:02:08.73	36.45	13.12	-35.4	-36.7	29.0	3.02e+01	60	32	0	261619712	46	5875
2026-01-27 15:02:09.74	36.59	13.21	-35.5	-36.7	29.0	3.02e+01	53	32	0	263192576	46	5895
2026-01-27 15:02:10.75	36.73	13.29	-35.5	-36.7	28.9	3.02e+01	61	32	0	265289728	46	5921
2026-01-27 15:02:11.76	36.87	13.38	-35.6	-36.8	28.8	3.02e+01	46	32	0	266862592	46	5994
2026-01-27 15:02:12.77	37.01	13.47	-35.6	-36.9	28.8	3.02e+01	62	32	0	268959744	46	5997
2026-01-27 15:02:13.78	37.15	13.55	-35.5	-36.8	28.8	3.02e+01	56	32	0	271056896	46	5956
2026-01-27 15:02:14.78	37.30	13.64	-35.6	-36.8	28.8	3.02e+01	46	32	0	272629760	46	5984
2026-01-27 15:02:15.79	37.44	13.73	-35.4	-36.7	29.0	3.02e+01	59	32	0	274726912	46	5863
2026-01-27 15:02:16.80	37.59	13.82	-35.3	-36.6	29.0	3.02e+01	58	32	0	276299776	46	5806
2026-01-27 15:02:17.81	37.73	13.90	-35.3	-36.5	29.0	3.02e+01	60	32	0	278396928	46	5762
2026-01-27 15:02:18.82	37.88	13.99	-35.3	-36.5	29.1	3.02e+01	51	32	0	280494080	46	5782
2026-01-27 15:02:19.83	38.03	14.08	-35.3	-36.5	29.2	3.02e+01	46	32	0	282066944	46	5749
2026-01-27 15:02:20.84	38.18	14.17	-35.5	-36.7	28.9	3.02e+01	56	32	0	284164096	46	5919
2026-01-27 15:02:21.85	38.33	14.26	-35.3	-36.6	29.1	3.02e+01	58	32	0	285736960	46	5797
2026-01-27 15:02:22.85	38.48	14.35	-35.4	-36.6	29.0	3.02e+01	50	32	0	287834112	46	5818
2026-01-27 15:02:23.86	38.63	14.44	-35.4	-36.6	29.1	3.02e+01	56	32	0	289931264	46	5821
2026-01-27 15:02:24.87	38.78	14.52	-35.5	-36.8	28.9	3.02e+01	60	32	0	291504128	46	5929
2026-01-27 15:02:25.88	38.94	14.61	-35.4	-36.7	29.0	3.02e+01	56	32	0	293601280	46	5877
2026-01-27 15:02:26.89	39.09	14.70	-35.4	-36.6	29.0	3.02e+01	60	32	0	295174144	46	5827
2026-01-27 15:02:27.90	39.25	14.79	-35.5	-36.7	28.9	3.02e+01	56	32	0	297271296	46	5891
2026-01-27 15:02:28.91	39.41	14.88	-35.3	-36.5	29.0	3.02e+01	59	32	0	299368448	46	5776
2026-01-27 15:02:29.92	39.56	14.97	-35.2	-36.4	29.1	3.02e+01	59	32	0	300941312	46	5695
2026-01-27 15:02:30.93	39.72	15.06	-35.2	-36.4	29.1	3.02e+01	49	32	0	303038464	46	5722
2026-01-27 15:02:31.94	39.88	15.16	-35.3	-36.5	29.1	3.02e+01	57	32	0	305135616	46	5745
2026-01-27 15:02:32.95	40.04	15.25	-35.1	-36.3	29.2	3.02e+01	60	32	0	306708480	46	5645
2026-01-27 15:02:33.96	40.21	15.34	-35.2	-36.5	29.1	3.02e+01	61	32	0	308805632	46	5727
2026-01-27 15:02:34.97	40.37	15.43	-35.2	-36.4	29.1	3.02e+01	58	32	0	310378496	46	5680
2026-01-27 15:02:35.98	40.53	15.52	-35.2	-36.5	29.1	3.02e+01	45	32	0	312475648	46	5730
2026-01-27 15:02:36.98	40.70	15.61	-35.1	-36.3	29.2	3.02e+01	60	32	0	314572800	46	5646
2026-01-27 15:02:37.99	40.86	15.70	-35.1	-36.4	29.1	3.02e+01	60	32	0	316145664	46	5674
2026-01-27 15:02:39.00	41.03	15.79	-35.0	-36.2	29.2	3.02e+01	46	32	0	318242816	46	5583
2026-01-27 15:02:40.01	41.20	15.89	-35.1	-36.3	29.2	3.02e+01	60	32	0	319815680	46	5635
2026-01-27 15:02:41.02	41.37	15.98	-35.2	-36.4	29.1	3.02e+01	55	32	0	321912832	46	5725
2026-01-27 15:02:42.03	41.54	16.07	-35.2	-36.5	29.0	3.02e+01	59	32	0	324009984	46	5747
2026-01-27 15:02:43.04	41.71	16.16	-35.0	-36.3	29.2	3.02e+01	62	32	0	325582848	46	5598
2026-01-27 15:02:44.04	41.88	16.25	-35.0	-36.2	29.4	3.02e+01	57	32	0	327680000	46	5552
2026-01-27 15:02:45.05	42.05	16.35	-35.0	-36.3	29.4	3.02e+01	59	32	0	329252864	46	5603
2026-01-27 15:02:46.06	42.23	16.44	-35.0	-36.2	29.4	3.02e+01	57	32	0	331350016	46	5588
2026-01-27 15:02:47.07	42.41	16.53	-34.9	-36.1	29.5	3.02e+01	61	32	0	333447168	44	6184
2026-01-27 15:02:48.08	42.58	16.63	-34.9	-36.1	29.4	3.02e+01	59	32	0	335020032	44	6199
2026-01-27 15:02:49.08	42.76	16.72	-34.9	-36.1	29.5	3.02e+01	52	32	0	337117184	44	6199
2026-01-27 15:02:50.09	42.94	16.81	-35.1	-36.3	29.3	3.02e+01	56	32	0	338690048	44	6291
2026-01-27 15:02:51.10	43.12	16.91	-34.9	-36.2	29.5	3.02e+01	59	32	0	340787200	44	6207
2026-01-27 15:02:52.11	43.30	17.00	-35.0	-36.2	29.4	3.02e+01	44	32	0	342884352	44	6250
2026-01-27 15:02:53.12	43.48	17.09	-34.9	-36.1	29.5	3.02e+01	56	32	0	344457216	44	6194
2026-01-27 15:02:54.13	43.67	17.19	-34.9	-36.2	29.5	3.02e+01	58	32	0	346554368	44	6217
2026-01-27 15:02:55.14	43.85	17.28	-34.8	-36.0	29.5	3.02e+01	60	32	0	348127232	44	6109
2026-01-27 15:02:56.14	44.04	17.38	-34.9	-36.2	29.5	3.02e+01	57	32	0	350224384	44	6211
2026-01-27 15:02:57.15	44.22	17.47	-34.9	-36.1	29.5	3.02e+01	54	32	0	352321536	44	6174
2026-01-27 15:02:58.16	44.41	17.56	-34.9	-36.1	29.6	3.02e+01	59	32	0	353894400	44	6198
2026-01-27 15:02:59.17	44.60	17.66	-34.9	-36.1	29.5	3.02e+01	61	32	0	355991552	44	6151
2026-01-27 15:03:00.18	44.79	17.75	-34.9	-36.1	29.5	3.02e+01	47	32	0	358088704	44	6173
2026-01-27 15:03:01.19	44.99	17.85	-35.0	-36.2	29.5	3.02e+01	57	32	0	359661568	44	6228
2026-01-27 15:03:02.20	45.18	17.94	-35.1	-36.3	29.5	3.02e+01	57	32	0	361758720	44	6298
2026-01-27 15:03:03.21	45.38	18.04	-35.0	-36.2	29.5	3.02e+01	57	32	0	363331584	44	6250
2026-01-27 15:03:04.22	45.57	18.13	-35.1	-36.3	29.3	3.02e+01	58	32	0	365428736	44	6300
2026-01-27 15:03:05.23	45.77	18.23	-35.0	-36.2	29.5	3.02e+01	56	32	0	367525888	44	6236
2026-01-27 15:03:06.24	45.97	18.33	-34.9	-36.1	29.5	3.02e+01	60	32	0	369098752	44	6196
2026-01-27 15:03:07.25	46.17	18.42	-35.1	-36.3	29.4	3.02e+01	61	32	0	371195904	44	6327
2026-01-27 15:03:08.26	46.37	18.52	-34.9	-36.1	29.5	3.02e+01	47	32	0	373293056	44	6194
2026-01-27 15:03:09.27	46.57	18.61	-34.9	-36.1	29.5	3.02e+01	60	32	0	374865920	44	6174
2026-01-27 15:03:10.28	46.78	18.71	-35.0	-36.2	29.5	3.02e+01	63	32	0	376963072	44	6216
2026-01-27 15:03:11.28	46.98	18.80	-34.9	-36.1	29.5	3.02e+01	59	32	0	378535936	44	6189
2026-01-27 15:03:12.29	47.19	18.90	-34.9	-36.1	29.5	3.02e+01	63	32	0	380633088	44	6189
2026-01-27 15:03:13.30	47.40	19.00	-34.9	-36.1	29.5	3.02e+01	50	32	0	382205952	44	6199
2026-01-27 15:03:14.31	47.61	19.09	-34.9	-36.1	29.6	3.02e+01	56	32	0	384303104	44	6199
2026-01-27 15:03:15.32	47.82	19.19	-35.0	-36.2	29.5	3.02e+01	58	32	0	386400256	44	6214
2026-01-27 15:03:16.33	48.03	19.28	-35.0	-36.2	29.5	3.02e+01	50	32	0	387973120	44	6259
2026-01-27 15:03:17.34	48.24	19.38	-35.0	-36.2	29.5	3.02e+01	59	32	0	390070272	44	6247
2026-01-27 15:03:18.35	48.46	19.48	-34.9	-36.1	29.6	3.02e+01	59	32	0	391643136	44	6163
2026-01-27 15:03:19.35	48.67	19.57	-35.0	-36.2	29.5	3.02e+01	60	32	0	393740288	44	6241
2026-01-27 15:03:20.36	48.89	19.67	-35.0	-36.2	29.5	3.02e+01	63	32	0	395837440	44	6244
2026-01-27 15:03:21.37	49.11	19.76	-34.9	-36.1	29.5	3.02e+01	53	32	0	397410304	44	6181
2026-01-27 15:03:22.38	49.33	19.86	-35.0	-36.2	29.5	3.02e+01	53	32	0	399507456	44	6251
2026-01-27 15:03:23.39	49.55	19.96	-35.0	-36.3	29.4	3.02e+01	59	32	0	401604608	44	6286
2026-01-27 15:03:24.40	49.78	20.05	-35.0	-36.3	29.5	3.02e+01	49	32	0	403177472	44	6279
2026-01-27 15:03:25.41	50.00	20.15	-34.9	-36.1	29.5	3.02e+01	60	32	0	405274624	44	6199
2026-01-27 15:03:26.42	50.23	20.25	-34.9	-36.1	29.6	3.02e+01	46	32	0	406847488	44	6192
2026-01-27 15:03:27.43	50.46	20.34	-34.9	-36.1	29.6	3.02e+01	58	32	0	408944640	44	6188
2026-01-27 15:03:28.44	50.69	20.44	-35.0	-36.2	29.6	3.02e+01	61	32	0	411041792	44	6261
2026-01-27 15:03:29.45	50.92	20.53	-35.0	-36.2	29.5	3.02e+01	52	32	0	412614656	44	6264
2026-01-27 15:03:30.46	51.15	20.63	-35.1	-36.3	29.4	3.02e+01	57	32	0	414711808	44	6343
2026-01-27 15:03:31.47	51.38	20.73	-35.1	-36.3	29.5	3.02e+01	62	32	0	416284672	44	6314
2026-01-27 15:03:32.48	51.62	20.82	-35.1	-36.3	29.4	3.02e+01	57	32	0	418381824	44	6308
2026-01-27 15:03:33.49	51.86	20.92	-35.2	-36.4	29.3	3.02e+01	58	32	0	420478976	44	6366
2026-01-27 15:03:34.50	52.09	21.01	-35.2	-36.4	29.4	3.02e+01	46	32	0	422051840	44	6389
2026-01-27 15:03:35.50	52.33	21.11	-35.0	-36.2	29.5	3.02e+01	58	32	0	424148992	44	6230
2026-01-27 15:03:36.51	52.57	21.21	-35.2	-36.4	29.4	3.02e+01	59	32	0	426246144	44	6391
2026-01-27 15:03:37.52	52.82	21.30	-35.3	-36.5	29.2	3.02e+01	45	32	0	427819008	44	6445
2026-01-27 15:03:38.53	53.06	21.40	-35.3	-36.5	29.3	3.02e+01	64	32	0	429916160	44	6451
2026-01-27 15:03:39.54	53.31	21.49	-35.2	-36.4	29.3	3.02e+01	56	32	0	431489024	44	6418
2026-01-27 15:03:40.55	53.55	21.59	-35.2	-36.4	29.4	3.02e+01	59	32	0	433586176	44	6369
2026-01-27 15:03:41.56	53.80	21.68	-35.1	-36.3	29.4	3.02e+01	53	32	0	435683328	44	6334
2026-01-27 15:03:42.57	54.05	21.78	-35.0	-36.3	29.4	3.02e+01	45	32	0	437256192	44	6325
2026-01-27 15:03:43.58	54.31	21.87	-35.1	-36.3	29.4	3.02e+01	59	32	0	439353344	44	6342
2026-01-27 15:03:44.59	54.56	21.97	-35.1	-36.3	29.4	3.02e+01	60	32	0	440926208	44	6328
2026-01-27 15:03:45.60	54.82	22.06	-35.1	-36.3	29.4	3.02e+01	46	32	0	443023360	44	6342
2026-01-27 15:03:46.61	55.07	22.16	-35.1	-36.4	29.3	3.02e+01	59	32	0	445120512	44	6359
2026-01-27 15:03:47.62	55.33	22.25	-35.3	-36.5	29.3	3.02e+01	62	32	0	446693376	44	6449
2026-01-27 15:03:48.63	55.59	22.35	-35.2	-36.5	29.3	3.02e+01	57	32	0	448790528	44	6437
2026-01-27 15:03:49.64	55.86	22.44	-35.2	-36.4	29.3	3.02e+01	59	32	0	450363392	44	6391
2026-01-27 15:03:50.65	56.12	22.53	-35.2	-36.4	29.4	3.02e+01	57	32	0	452460544	44	6355
2026-01-27 15:03:51.66	56.39	22.63	-35.2	-36.4	29.4	3.02e+01	61	32	0	454557696	44	6385
2026-01-27 15:03:52.67	56.65	22.72	-35.1	-36.4	29.4	3.02e+01	58	32	0	456130560	44	6356
2026-01-27 15:03:53.68	56.92	22.81	-35.2	-36.4	29.3	3.02e+01	48	32	0	458227712	44	6387
2026-01-27 15:03:54.69	57.19	22.91	-35.2	-36.4	29.3	3.02e+01	57	32	0	459800576	44	6383
2026-01-27 15:03:55.69	57.46	23.00	-35.4	-36.6	29.1	3.02e+01	60	32	0	461897728	44	6562
2026-01-27 15:03:56.70	57.74	23.09	-35.3	-36.6	29.2	3.02e+01	61	32	0	463994880	44	6531
2026-01-27 15:03:57.71	58.01	23.18	-35.2	-36.6	29.2	3.02e+01	57	32	0	465567744	44	6502
2026-01-27 15:03:58.72	58.29	23.27	-35.4	-36.7	29.1	3.02e+01	52	32	0	467664896	44	6610
2026-01-27 15:03:59.73	58.57	23.36	-35.3	-36.5	29.2	3.02e+01	57	32	0	469762048	44	6466
2026-01-27 15:04:00.74	58.85	23.46	-35.3	-36.5	29.3	3.02e+01	53	32	0	471334912	44	6489
2026-01-27 15:04:01.75	59.13	23.55	-35.3	-36.5	29.2	3.02e+01	53	32	0	473432064	44	6475
2026-01-27 15:04:02.76	59.41	23.64	-35.4	-36.6	29.2	3.02e+01	60	32	0	475004928	44	6558
2026-01-27 15:04:03.77	59.70	23.73	-35.5	-36.7	29.1	3.02e+01	48	32	0	477102080	44	6621
2026-01-27 15:04:04.78	59.99	23.82	-35.6	-36.8	29.0	3.02e+01	61	32	0	479199232	44	6716
2026-01-27 15:04:05.79	60.28	23.90	-35.5	-36.8	29.1	3.02e+01	60	32	0	480772096	44	6652
2026-01-27 15:04:06.80	60.57	23.99	-35.3	-36.6	29.2	3.02e+01	50	32	0	482869248	44	6507
2026-01-27 15:04:07.81	60.86	24.08	-35.3	-36.5	29.2	3.02e+01	59	32	0	484442112	44	6471
2026-01-27 15:04:08.82	61.15	24.17	-35.3	-36.6	29.2	3.02e+01	62	32	0	486539264	44	6506
2026-01-27 15:04:09.83	61.45	24.26	-35.5	-36.7	29.1	3.02e+01	59	32	0	488636416	44	6614
2026-01-27 15:04:10.84	61.75	24.34	-35.5	-36.7	29.2	3.02e+01	60	32	0	490209280	44	6647
2026-01-27 15:04:11.85	62.04	24.43	-35.3	-36.6	29.3	3.02e+01	45	32	0	492306432	44	6500
2026-01-27 15:04:12.85	62.34	24.52	-35.3	-36.5	29.3	3.02e+01	59	32	0	493879296	44	6440
2026-01-27 15:04:13.86	62.64	24.60	-35.5	-36.7	29.1	3.02e+01	59	32	0	495976448	44	6635
2026-01-27 15:04:14.87	62.95	24.69	-35.6	-36.8	29.0	3.02e+01	51	32	0	498073600	44	6681
2026-01-27 15:04:15.88	63.25	24.77	-35.5	-36.8	29.1	3.02e+01	57	32	0	499646464	44	6654
2026-01-27 15:04:16.89	63.56	24.86	-35.3	-36.6	29.2	3.02e+01	59	32	0	501743616	44	6539
2026-01-27 15:04:17.90	63.87	24.94	-35.2	-36.4	29.3	3.02e+01	56	32	0	503316480	44	6423
2026-01-27 15:04:18.91	64.18	25.02	-35.4	-36.7	29.1	3.02e+01	60	32	0	505413632	44	6576
2026-01-27 15:04:19.92	64.49	25.11	-35.3	-36.6	29.3	3.02e+01	54	32	0	507510784	44	6523
2026-01-27 15:04:20.93	64.81	25.19	-35.6	-36.8	29.0	3.02e+01	60	32	0	509083648	44	6681
2026-01-27 15:04:21.94	65.12	25.27	-35.6	-36.8	29.0	3.02e+01	55	32	0	511180800	44	6725
2026-01-27 15:04:22.95	65.44	25.35	-35.6	-36.8	29.0	3.02e+01	41	32	0	512753664	44	6710
2026-01-27 15:04:23.96	65.76	25.43	-35.5	-36.7	29.2	3.02e+01	61	32	0	514850816	44	6608
2026-01-27 15:04:24.97	66.08	25.51	-35.4	-36.6	29.1	3.02e+01	56	32	0	516947968	44	6542
2026-01-27 15:04:25.98	66.41	25.59	-35.4	-36.6	29.2	3.02e+01	58	32	0	518520832	44	6544
2026-01-27 15:04:26.99	66.73	25.67	-35.3	-36.6	29.2	3.02e+01	58	32	0	520617984	44	6511
2026-01-27 15:04:28.00	67.06	25.74	-35.5	-36.7	29.1	3.02e+01	46	32	0	522715136	44	6598
2026-01-27 15:04:29.01	67.38	25.82	-35.6	-36.8	28.9	3.02e+01	59	32	0	524288000	44	6689
2026-01-27 15:04:30.02	67.71	25.90	-35.6	-36.8	29.0	3.02e+01	59	32	0	526385152	44	6696
2026-01-27 15:04:31.03	68.04	25.97	-35.4	-36.7	29.0	3.02e+01	47	32	0	527958016	44	6601
2026-01-27 15:04:32.04	68.38	26.05	-35.5	-36.7	29.1	3.02e+01	63	32	0	530055168	44	6602
2026-01-27 15:04:33.05	68.71	26.12	-35.3	-36.5	29.2	3.02e+01	60	32	0	532152320	44	6442
2026-01-27 15:04:34.06	69.04	26.19	-35.5	-36.7	29.0	3.02e+01	58	32	0	533725184	44	6629
2026-01-27 15:04:35.07	69.38	26.27	-35.5	-36.7	29.0	3.02e+01	59	32	0	535822336	44	6648
2026-01-27 15:04:36.08	69.72	26.34	-35.5	-36.7	29.0	3.02e+01	52	32	0	537919488	44	6589
2026-01-27 15:04:37.09	70.06	26.41	-35.4	-36.6	29.2	3.02e+01	57	32	0	539492352	44	6544
2026-01-27 15:04:38.10	70.40	26.48	-35.5	-36.7	29.0	3.02e+01	57	32	0	541589504	44	6607
2026-01-27 15:04:39.11	70.75	26.55	-35.6	-36.8	29.0	3.02e+01	50	32	0	543162368	44	6676
2026-01-27 15:04:40.11	71.09	26.61	-35.4	-36.6	29.1	3.02e+01	58	32	0	545259520	44	6520
2026-01-27 15:04:41.12	71.43	26.68	-35.4	-36.6	29.1	3.02e+01	52	32	0	547356672	44	6565
2026-01-27 15:04:42.13	71.78	26.75	-35.3	-36.5	29.1	3.02e+01	53	32	0	548929536	44	6486
2026-01-27 15:04:43.14	72.13	26.81	-35.4	-36.6	29.2	3.02e+01	61	32	0	551026688	44	6554
2026-01-27 15:04:44.15	72.48	26.88	-35.3	-36.6	29.2	3.02e+01	42	32	0	552599552	44	6506
2026-01-27 15:04:45.16	72.83	26.94	-35.4	-36.6	29.1	3.02e+01	59	32	0	554696704	44	6527
2026-01-27 15:04:46.17	73.19	27.00	-35.4	-36.6	29.1	3.02e+01	57	32	0	556793856	44	6543
2026-01-27 15:04:47.18	73.54	27.07	-35.4	-36.6	29.1	3.02e+01	64	32	0	558366720	44	6529
2026-01-27 15:04:48.19	73.90	27.13	-35.3	-36.5	29.2	3.02e+01	61	32	0	560463872	44	6480
2026-01-27 15:04:49.20	74.26	27.19	-35.2	-36.4	29.4	3.02e+01	52	32	0	562036736	44	6369
2026-01-27 15:04:50.21	74.62	27.24	-35.2	-36.4	29.4	3.02e+01	61	32	0	564133888	44	6389
2026-01-27 15:04:51.22	74.98	27.30	-35.3	-36.5	29.3	3.02e+01	58	32	0	566231040	44	6444
2026-01-27 15:04:52.23	75.34	27.36	-35.2	-36.5	29.4	3.02e+01	51	32	0	567803904	44	6425
2026-01-27 15:04:53.24	75.70	27.41	-35.2	-36.4	29.4	3.02e+01	60	32	0	569901056	44	6405
2026-01-27 15:04:54.25	76.07	27.47	-35.2	-36.4	29.3	3.02e+01	57	32	0	571473920	44	6417
2026-01-27 15:04:55.26	76.43	27.52	-35.2	-36.5	29.3	3.02e+01	61	32	0	573571072	44	6430
2026-01-27 15:04:56.26	76.80	27.57	-35.3	-36.6	29.2	3.02e+01	58	32	0	575668224	44	6504
2026-01-27 15:04:57.27	77.17	27.62	-35.1	-36.4	29.4	3.02e+01	50	32	0	577241088	44	6366
2026-01-27 15:04:58.28	77.53	27.67	-35.2	-36.5	29.3	3.02e+01	60	32	0	579338240	44	6447
2026-01-27 15:04:59.29	77.91	27.72	-35.2	-36.4	29.3	3.02e+01	60	32	0	580911104	44	6416
2026-01-27 15:05:00.30	78.28	27.77	-35.1	-36.3	29.4	3.02e+01	46	32	0	583008256	44	6293
2026-01-27 15:05:01.31	78.65	27.82	-35.0	-36.2	29.5	3.02e+01	59	32	0	585105408	44	6248
2026-01-27 15:05:02.32	79.02	27.86	-35.1	-36.3	29.4	3.02e+01	57	32	0	586678272	44	6281
2026-01-27 15:05:03.33	79.40	27.91	-35.0	-36.2	29.6	3.02e+01	57	32	0	588775424	44	6239
2026-01-27 15:05:04.34	79.78	27.95	-35.0	-36.2	29.6	3.02e+01	55	32	0	590872576	44	6218
2026-01-27 15:05:05.35	80.15	27.99	-35.0	-36.1	29.5	3.02e+01	53	32	0	592445440	44	6203
2026-01-27 15:05:06.35	80.53	28.03	-35.1	-36.2	29.5	3.02e+01	60	32	0	594542592	44	6277
2026-01-27 15:05:07.36	80.91	28.07	-34.9	-36.1	29.7	3.02e+01	61	32	0	596115456	44	6135
2026-01-27 15:05:08.37	81.29	28.11	-35.0	-36.2	29.6	3.02e+01	59	32	0	598212608	44	6228
2026-01-27 15:05:09.38	81.67	28.15	-34.9	-36.2	29.6	3.02e+01	61	32	0	600309760	44	6209
2026-01-27 15:05:10.39	82.05	28.18	-35.2	-36.4	29.4	3.02e+01	45	32	0	601882624	44	6376
2026-01-27 15:05:11.40	82.43	28.22	-34.9	-36.1	29.6	3.02e+01	59	32	0	603979776	44	6194
2026-01-27 15:05:12.41	82.82	28.25	-35.0	-36.2	29.5	3.02e+01	58	32	0	606076928	44	6259
2026-01-27 15:05:13.42	83.20	28.28	-34.8	-36.1	29.7	3.02e+01	53	32	0	607649792	44	6139
2026-01-27 15:05:14.43	83.59	28.31	-34.6	-35.9	29.9	3.02e+01	58	32	0	609746944	44	5997
2026-01-27 15:05:15.44	83.97	28.34	-34.7	-35.9	29.8	3.02e+01	60	32	0	611319808	44	6050
2026-01-27 15:05:16.45	84.36	28.37	-34.9	-36.2	29.6	3.02e+01	62	32	0	613416960	44	6226
2026-01-27 15:05:17.45	84.74	28.40	-34.7	-35.9	29.7	3.02e+01	59	32	0	614989824	44	6038
2026-01-27 15:05:18.46	85.13	28.42	-34.7	-35.9	29.9	3.02e+01	57	32	0	617086976	44	6011
2026-01-27 15:05:19.47	85.52	28.45	-34.9	-36.1	29.6	3.02e+01	56	32	0	619184128	44	6152
2026-01-27 15:05:20.48	85.91	28.47	-34.7	-35.8	29.9	3.02e+01	56	32	0	620756992	44	5983
2026-01-27 15:05:21.49	86.30	28.49	-34.6	-35.8	29.8	3.02e+01	46	32	0	622854144	44	5979
2026-01-27 15:05:22.50	86.69	28.51	-34.6	-35.8	29.9	3.02e+01	57	32	0	624427008	44	5968
2026-01-27 15:05:23.51	87.08	28.53	-34.7	-35.9	29.7	3.02e+01	59	32	0	626524160	44	6059
2026-01-27 15:05:24.52	87.47	28.54	-34.7	-35.9	29.8	3.02e+01	57	32	0	628621312	44	6049
2026-01-27 15:05:25.53	87.86	28.56	-34.5	-35.7	30.0	3.02e+01	61	32	0	630194176	44	5918
2026-01-27 15:05:26.54	88.26	28.57	-34.6	-35.8	29.9	3.02e+01	57	32	0	632291328	44	5954
2026-01-27 15:05:27.55	88.65	28.59	-34.8	-36.0	29.8	3.02e+01	59	32	0	634388480	44	6068
2026-01-27 15:05:28.56	89.04	28.60	-34.5	-35.7	29.9	3.02e+01	60	32	0	635961344	44	5896
2026-01-27 15:05:29.57	89.43	28.61	-34.5	-35.6	30.0	3.02e+01	44	32	0	638058496	44	5856
2026-01-27 15:05:30.58	89.83	28.62	-34.7	-35.9	29.8	3.02e+01	58	32	0	639631360	44	6023
2026-01-27 15:05:31.59	90.22	28.62	-34.4	-35.6	30.1	3.02e+01	57	32	0	641728512	44	5839
2026-01-27 15:05:32.59	90.61	28.63	-34.5	-35.7	29.9	3.02e+01	59	32	0	643825664	44	5867
2026-01-27 15:05:33.61	91.01	28.64	-34.5	-35.7	29.8	3.02e+01	61	32	0	645398528	44	5903
2026-01-27 15:05:34.61	91.40	28.64	-34.4	-35.6	29.9	3.02e+01	56	32	0	647495680	44	5841
2026-01-27 15:05:35.62	91.79	28.64	-34.3	-35.4	30.1	3.02e+01	60	32	0	649068544	44	5718
2026-01-27 15:05:36.63	92.19	28.64	-34.5	-35.6	29.9	3.02e+01	58	32	0	651165696	44	5857
2026-01-27 15:05:37.64	92.58	28.64	-34.6	-35.8	29.8	3.02e+01	44	32	0	653262848	44	5986
2026-01-27 15:05:38.65	92.97	28.64	-34.6	-35.8	29.8	3.02e+01	58	32	0	654835712	44	5980
2026-01-27 15:05:39.66	93.37	28.63	-34.7	-35.9	29.7	3.02e+01	60	32	0	656932864	44	6055
2026-01-27 15:05:40.67	93.76	28.63	-34.6	-35.7	29.9	3.02e+01	58	32	0	659030016	44	5918
2026-01-27 15:05:41.68	94.16	28.62	-34.7	-35.9	29.9	3.02e+01	59	32	0	660602880	44	6012
2026-01-27 15:05:42.68	94.54	28.61	-34.2	-35.4	30.1	3.02e+01	50	32	0	662700032	44	5711
2026-01-27 15:05:43.69	94.94	28.60	-34.3	-35.5	30.1	3.02e+01	59	32	0	664272896	44	5782
2026-01-27 15:05:44.70	95.33	28.59	-34.3	-35.5	30.2	3.02e+01	59	32	0	666370048	44	5731
2026-01-27 15:05:45.71	95.72	28.58	-34.4	-35.5	30.1	3.02e+01	58	32	0	668467200	44	5779
2026-01-27 15:05:46.72	96.12	28.57	-34.7	-35.9	29.8	3.02e+01	58	32	0	670040064	44	6060
2026-01-27 15:05:47.73	96.51	28.55	-34.6	-35.8	29.9	3.02e+01	44	32	0	672137216	44	5928
2026-01-27 15:05:48.74	96.90	28.53	-34.1	-35.3	30.2	3.02e+01	61	32	0	673710080	44	5627
2026-01-27 15:05:49.75	97.29	28.52	-34.3	-35.4	30.2	3.02e+01	58	32	0	675807232	44	5722
2026-01-27 15:05:50.75	97.68	28.50	-34.3	-35.5	30.1	3.02e+01	55	32	0	677380096	44	5760
2026-01-27 15:05:51.76	98.07	28.48	-34.4	-35.6	30.1	3.02e+01	59	32	0	679477248	44	5792
2026-01-27 15:05:52.77	98.46	28.45	-34.2	-35.3	30.2	3.02e+01	60	32	0	681574400	44	5652
2026-01-27 15:05:53.78	98.85	28.43	-34.1	-35.3	30.3	3.02e+01	59	32	0	683147264	44	5601
2026-01-27 15:05:54.79	99.24	28.41	-34.3	-35.5	30.2	3.02e+01	59	32	0	685244416	44	5732
2026-01-27 15:05:55.80	99.62	28.38	-34.3	-35.5	30.1	3.02e+01	45	32	0	687341568	44	5760
2026-01-27 15:05:56.81	100.01	28.35	-34.2	-35.4	30.2	3.02e+01	58	32	0	688914432	44	5677
2026-01-27 15:05:57.82	100.40	28.32	-34.2	-35.4	30.2	3.02e+01	60	32	0	691011584	44	5686
2026-01-27 15:05:58.82	100.78	28.30	-34.2	-35.4	30.2	3.02e+01	46	32	0	692584448	44	5724
2026-01-27 15:05:59.83	101.17	28.26	-34.1	-35.2	30.4	3.02e+01	61	32	0	694681600	44	5576
2026-01-27 15:06:00.84	101.55	28.23	-34.2	-35.4	30.2	3.02e+01	59	32	0	696778752	44	5663
2026-01-27 15:06:01.85	101.93	28.20	-34.3	-35.4	30.2	3.02e+01	59	32	0	698351616	44	5723
2026-01-27 15:06:02.86	102.32	28.16	-34.3	-35.4	30.1	3.02e+01	57	32	0	700448768	44	5713
2026-01-27 15:06:03.87	102.70	28.13	-34.2	-35.4	30.2	3.02e+01	57	32	0	702545920	44	5674
2026-01-27 15:06:04.87	103.08	28.09	-34.2	-35.4	30.1	3.02e+01	52	32	0	704118784	44	5668
2026-01-27 15:06:05.88	103.46	28.05	-34.2	-35.4	30.2	3.02e+01	58	32	0	706215936	44	5662
2026-01-27 15:06:06.89	103.84	28.01	-34.3	-35.5	30.0	3.02e+01	51	32	0	707788800	44	5754
2026-01-27 15:06:07.90	104.22	27.97	-34.3	-35.5	30.0	3.02e+01	60	32	0	709885952	44	5764
2026-01-27 15:06:08.91	104.59	27.93	-34.2	-35.4	30.2	3.02e+01	61	32	0	711983104	44	5664
2026-01-27 15:06:09.91	104.97	27.88	-34.2	-35.4	30.2	3.02e+01	57	32	0	713555968	44	5663
2026-01-27 15:06:10.92	105.34	27.84	-34.2	-35.4	30.2	3.02e+01	58	32	0	715653120	44	5675
2026-01-27 15:06:11.93	105.71	27.79	-34.1	-35.3	30.3	3.02e+01	44	32	0	717225984	44	5638
2026-01-27 15:06:12.94	106.09	27.74	-34.2	-35.4	30.2	3.02e+01	59	32	0	719323136	44	5701
2026-01-27 15:06:13.95	106.46	27.69	-34.2	-35.4	30.2	3.02e+01	58	32	0	720896000	44	5686
2026-01-27 15:06:14.96	106.83	27.65	-34.2	-35.3	30.2	3.02e+01	48	32	0	722993152	44	5655
2026-01-27 15:06:15.97	107.20	27.59	-34.2	-35.3	30.3	3.02e+01	60	32	0	725090304	44	5659
2026-01-27 15:06:16.98	107.57	27.54	-34.2	-35.3	30.2	3.02e+01	61	32	0	726663168	44	5651
2026-01-27 15:06:17.99	107.94	27.49	-34.3	-35.5	30.1	3.02e+01	56	32	0	728760320	44	5734
2026-01-27 15:06:19.00	108.30	27.44	-34.2	-35.3	30.2	3.02e+01	60	32	0	730857472	44	5646
2026-01-27 15:06:20.01	108.67	27.38	-34.1	-35.3	30.3	3.02e+01	51	32	0	732430336	44	5628
2026-01-27 15:06:21.02	109.03	27.32	-34.2	-35.4	30.2	3.02e+01	61	32	0	734527488	44	5672
2026-01-27 15:06:22.03	109.39	27.27	-34.3	-35.4	30.2	3.02e+01	59	32	0	736100352	44	5722
2026-01-27 15:06:23.03	109.75	27.21	-34.3	-35.5	30.1	3.02e+01	57	32	0	738197504	44	5732
2026-01-27 15:06:24.04	110.11	27.15	-34.3	-35.5	30.1	3.02e+01	62	32	0	740294656	44	5760
2026-01-27 15:06:25.05	110.47	27.09	-34.2	-35.4	30.1	3.02e+01	52	32	0	741867520	44	5706
2026-01-27 15:06:26.06	110.82	27.03	-34.1	-35.3	30.3	3.02e+01	58	32	0	743964672	44	5614
2026-01-27 15:06:27.07	111.18	26.96	-34.1	-35.2	30.3	3.02e+01	58	32	0	745537536	44	5567
2026-01-27 15:06:28.08	111.53	26.90	-34.1	-35.2	30.4	3.02e+01	51	32	0	747634688	44	5587
2026-01-27 15:06:29.09	111.88	26.84	-34.2	-35.4	30.2	3.02e+01	57	32	0	749731840	44	5679
2026-01-27 15:06:30.10	112.23	26.77	-34.2	-35.3	30.3	3.02e+01	58	32	0	751304704	44	5649
2026-01-27 15:06:31.11	112.58	26.71	-34.2	-35.4	30.2	3.02e+01	61	32	0	753401856	44	5699
2026-01-27 15:06:32.12	112.93	26.64	-34.3	-35.4	30.1	3.02e+01	60	32	0	755499008	44	5710
2026-01-27 15:06:33.13	113.28	26.57	-34.2	-35.3	30.2	3.02e+01	52	32	0	757071872	44	5656
2026-01-27 15:06:34.14	113.62	26.50	-34.2	-35.3	30.2	3.02e+01	59	32	0	759169024	44	5651
2026-01-27 15:06:35.15	113.97	26.43	-34.3	-35.5	30.1	3.02e+01	58	32	0	760741888	44	5771
2026-01-27 15:06:36.16	114.31	26.36	-34.3	-35.5	30.1	3.02e+01	50	32	0	762839040	44	5769
2026-01-27 15:06:37.17	114.65	26.29	-34.2	-35.3	30.2	3.02e+01	61	32	0	764936192	44	5656
2026-01-27 15:06:38.18	114.99	26.22	-34.2	-35.3	30.3	3.02e+01	55	32	0	766509056	44	5656
2026-01-27 15:06:39.18	115.32	26.15	-34.2	-35.3	30.3	3.02e+01	62	32	0	768606208	44	5641
2026-01-27 15:06:40.19	115.66	26.07	-34.3	-35.4	30.2	3.02e+01	59	32	0	770179072	44	5714
2026-01-27 15:06:41.20	115.99	26.00	-34.3	-35.5	30.1	3.02e+01	57	32	0	772276224	44	5760
2026-01-27 15:06:42.21	116.32	25.92	-34.3	-35.5	30.1	3.02e+01	60	32	0	774373376	44	5774
2026-01-27 15:06:43.22	116.65	25.85	-34.2	-35.4	30.2	3.02e+01	59	32	0	775946240	44	5708
2026-01-27 15:06:44.23	116.98	25.77	-34.4	-35.6	29.9	3.02e+01	52	32	0	778043392	44	5814
2026-01-27 15:06:45.24	117.31	25.69	-34.2	-35.4	30.1	3.02e+01	62	32	0	779616256	44	5692
2026-01-27 15:06:46.25	117.64	25.61	-34.3	-35.5	30.0	3.02e+01	62	32	0	781713408	44	5774
2026-01-27 15:06:47.26	117.96	25.53	-34.4	-35.6	30.1	3.02e+01	59	32	0	783810560	44	5792
2026-01-27 15:06:48.27	118.28	25.45	-34.2	-35.4	30.1	3.02e+01	57	32	0	785383424	44	5703
2026-01-27 15:06:49.28	118.61	25.37	-34.2	-35.4	30.2	3.02e+01	52	32	0	787480576	44	5679
2026-01-27 15:06:50.29	118.92	25.29	-34.2	-35.4	30.1	3.02e+01	58	32	0	789053440	44	5684
2026-01-27 15:06:51.30	119.24	25.21	-34.3	-35.5	30.1	3.02e+01	60	32	0	791150592	44	5737
2026-01-27 15:06:52.31	119.56	25.13	-34.4	-35.5	30.0	3.02e+01	48	32	0	793247744	44	5783
2026-01-27 15:06:53.32	119.87	25.05	-34.3	-35.4	30.0	3.02e+01	60	32	0	794820608	44	5714
2026-01-27 15:06:54.33	120.19	24.96	-34.3	-35.5	30.0	3.02e+01	58	32	0	796917760	44	5779
2026-01-27 15:06:55.34	120.50	24.88	-34.4	-35.5	30.0	3.02e+01	57	32	0	799014912	44	5783
2026-01-27 15:06:56.34	120.80	24.80	-34.3	-35.5	30.1	3.02e+01	58	32	0	800587776	44	5757
2026-01-27 15:06:57.35	121.11	24.71	-34.2	-35.4	30.1	3.02e+01	53	32	0	802684928	44	5691
2026-01-27 15:06:58.36	121.42	24.63	-34.4	-35.5	30.1	3.02e+01	60	32	0	804257792	44	5780
2026-01-27 15:06:59.37	121.72	24.54	-34.5	-35.7	29.9	3.02e+01	56	32	0	806354944	44	5860
2026-01-27 15:07:00.38	122.02	24.45	-34.4	-35.5	30.0	3.02e+01	58	32	0	808452096	44	5778
2026-01-27 15:07:01.39	122.32	24.37	-34.4	-35.6	30.0	3.02e+01	58	32	0	810024960	44	5834
2026-01-27 15:07:02.40	122.62	24.28	-34.3	-35.5	30.1	3.02e+01	48	32	0	812122112	44	5745
2026-01-27 15:07:03.41	122.92	24.19	-34.1	-35.3	30.3	3.02e+01	58	32	0	813694976	44	5631
2026-01-27 15:07:04.42	123.22	24.10	-34.2	-35.4	30.0	3.02e+01	60	32	0	815792128	44	5693
2026-01-27 15:07:05.43	123.51	24.01	-34.3	-35.5	29.9	3.02e+01	45	32	0	817889280	44	5733
2026-01-27 15:07:06.44	123.80	23.92	-34.3	-35.5	30.0	3.02e+01	57	32	0	819462144	44	5763
2026-01-27 15:07:07.45	124.09	23.83	-34.3	-35.4	30.0	3.02e+01	61	32	0	821559296	44	5712
2026-01-27 15:07:08.46	124.38	23.74	-34.3	-35.4	30.1	3.02e+01	60	32	0	823656448	44	5713
2026-01-27 15:07:09.47	124.67	23.65	-34.3	-35.5	30.1	3.02e+01	59	32	0	825229312	44	5761
2026-01-27 15:07:10.48	124.95	23.56	-34.3	-35.5	30.1	3.02e+01	44	32	0	827326464	44	5741
2026-01-27 15:07:11.49	125.24	23.47	-34.4	-35.6	30.0	3.02e+01	56	32	0	828899328	44	5809
2026-01-27 15:07:12.50	125.52	23.38	-34.4	-35.6	30.1	3.02e+01	59	32	0	830996480	44	5796
2026-01-27 15:07:13.51	125.80	23.29	-34.1	-35.3	30.3	3.02e+01	53	32	0	833093632	44	5631
2026-01-27 15:07:14.52	126.08	23.20	-34.1	-35.3	30.3	3.02e+01	64	32	0	834666496	44	5629
2026-01-27 15:07:15.53	126.36	23.10	-34.1	-35.3	30.3	3.02e+01	58	32	0	836763648	44	5623
2026-01-27 15:07:16.54	126.63	23.01	-34.3	-35.5	30.2	3.02e+01	62	32	0	838336512	44	5737
2026-01-27 15:07:17.55	126.91	22.92	-34.3	-35.5	30.1	3.02e+01	61	32	0	840433664	44	5742
2026-01-27 15:07:18.56	127.18	22.83	-34.4	-35.6	30.0	3.02e+01	60	32	0	842530816	44	5796
2026-01-27 15:07:19.57	127.45	22.73	-34.2	-35.4	30.2	3.02e+01	60	32	0	844103680	44	5672
2026-01-27 15:07:20.58	127.72	22.64	-34.4	-35.6	29.9	3.02e+01	58	32	0	846200832	44	5827
2026-01-27 15:07:21.59	127.98	22.54	-34.3	-35.5	30.1	3.02e+01	53	32	0	847773696	44	5727
2026-01-27 15:07:22.60	128.25	22.45	-34.3	-35.5	29.9	3.02e+01	58	32	0	849870848	44	5746
2026-01-27 15:07:23.61	128.51	22.36	-34.2	-35.4	30.0	3.02e+01	59	32	0	851968000	44	5689
2026-01-27 15:07:24.62	128.78	22.26	-34.3	-35.4	30.0	3.02e+01	53	32	0	853540864	44	5716
2026-01-27 15:07:25.63	129.04	22.17	-34.2	-35.4	30.0	3.02e+01	60	32	0	855638016	44	5710
2026-01-27 15:07:26.64	129.29	22.07	-34.3	-35.5	29.9	3.02e+01	45	32	0	857210880	44	5767
2026-01-27 15:07:27.65	129.55	21.98	-34.3	-35.5	30.0	3.02e+01	57	32	0	859308032	44	5762
2026-01-27 15:07:28.66	129.81	21.88	-34.2	-35.4	30.2	3.02e+01	60	32	0	861405184	44	5687
2026-01-27 15:07:29.67	130.06	21.79	-34.2	-35.4	30.1	3.02e+01	48	32	0	862978048	44	5687
2026-01-27 15:07:30.68	130.31	21.69	-34.4	-35.5	30.0	3.02e+01	58	32	0	865075200	44	5780
2026-01-27 15:07:31.69	130.57	21.59	-34.4	-35.5	30.0	3.02e+01	55	32	0	867172352	44	5786
2026-01-27 15:07:32.70	130.81	21.50	-34.3	-35.5	30.0	3.02e+01	57	32	0	868745216	44	5745
2026-01-27 15:07:33.71	131.06	21.40	-34.0	-35.2	30.1	3.02e+01	57	32	0	870842368	44	5544
2026-01-27 15:07:34.71	131.31	21.31	-34.1	-35.3	30.2	3.02e+01	51	32	0	872415232	44	5620
2026-01-27 15:07:35.72	131.55	21.21	-34.1	-35.3	30.2	3.02e+01	59	32	0	874512384	44	5595
2026-01-27 15:07:36.73	131.79	21.11	-34.2	-35.4	30.1	3.02e+01	58	32	0	876609536	44	5697
2026-01-27 15:07:37.74	132.03	21.02	-34.2	-35.4	30.1	3.02e+01	52	32	0	878182400	44	5688
2026-01-27 15:07:38.75	132.27	20.92	-34.3	-35.5	30.0	3.02e+01	61	32	0	880279552	44	5731
2026-01-27 15:07:39.76	132.51	20.82	-34.2	-35.4	30.0	3.02e+01	47	32	0	881852416	44	5683
2026-01-27 15:07:40.77	132.75	20.73	-34.3	-35.5	30.0	3.02e+01	59	32	0	883949568	44	5754
2026-01-27 15:07:41.78	132.99	20.63	-34.2	-35.3	30.1	3.02e+01	57	32	0	886046720	44	5644
2026-01-27 15:07:42.79	133.22	20.53	-34.0	-35.2	30.2	3.02e+01	48	32	0	887619584	44	5569
2026-01-27 15:07:43.80	133.45	20.44	-34.0	-35.2	30.1	3.02e+01	58	32	0	889716736	44	5561
2026-01-27 15:07:44.81	133.68	20.34	-34.0	-35.2	30.2	3.02e+01	58	32	0	891813888	44	5567
2026-01-27 15:07:45.82	133.91	20.24	-34.1	-35.2	30.2	3.02e+01	55	32	0	893386752	44	5581
2026-01-27 15:07:46.83	134.14	20.15	-34.1	-35.3	30.1	3.02e+01	58	32	0	895483904	44	5615
2026-01-27 15:07:47.84	134.37	20.05	-34.2	-35.4	30.0	3.02e+01	46	32	0	897056768	44	5673
2026-01-27 15:07:48.85	134.59	19.95	-34.1	-35.3	30.0	3.02e+01	60	32	0	899153920	44	5627
2026-01-27 15:07:49.86	134.81	19.86	-34.3	-35.4	30.0	3.02e+01	58	32	0	901251072	44	5720
2026-01-27 15:07:50.87	135.04	19.76	-34.1	-35.3	30.0	3.02e+01	53	32	0	902823936	44	5608
2026-01-27 15:07:51.88	135.26	19.66	-34.0	-35.1	30.2	3.02e+01	58	32	0	904921088	42	6199
2026-01-27 15:07:52.89	135.48	19.56	-34.1	-35.3	30.2	3.02e+01	59	32	0	906493952	42	6308
2026-01-27 15:07:53.90	135.69	19.47	-34.1	-35.2	30.2	3.02e+01	57	32	0	908591104	42	6268
2026-01-27 15:07:54.91	135.91	19.37	-34.0	-35.2	30.2	3.02e+01	59	32	0	910688256	42	6250
2026-01-27 15:07:55.92	136.12	19.27	-34.1	-35.3	30.1	3.02e+01	60	32	0	912261120	42	6323
2026-01-27 15:07:56.93	136.34	19.18	-34.1	-35.3	30.1	3.02e+01	61	32	0	914358272	42	6325
2026-01-27 15:07:57.94	136.55	19.08	-34.2	-35.3	30.1	3.02e+01	58	32	0	915931136	42	6341
2026-01-27 15:07:58.95	136.76	18.98	-34.3	-35.5	30.0	3.02e+01	50	32	0	918028288	42	6466
2026-01-27 15:07:59.96	136.97	18.89	-34.4	-35.5	29.9	3.02e+01	62	32	0	920125440	42	6482
2026-01-27 15:08:00.97	137.18	18.79	-34.0	-35.2	30.2	3.02e+01	58	32	0	921698304	42	6221
2026-01-27 15:08:01.98	137.39	18.69	-34.2	-35.4	30.1	3.02e+01	60	32	0	923795456	42	6386
2026-01-27 15:08:02.99	137.59	18.60	-34.2	-35.4	30.0	3.02e+01	56	32	0	925368320	42	6366
2026-01-27 15:08:03.99	137.79	18.50	-34.2	-35.4	30.0	3.02e+01	59	32	0	927465472	42	6374
2026-01-27 15:08:05.00	137.99	18.41	-34.0	-35.1	30.2	3.02e+01	59	32	0	929562624	42	6195
2026-01-27 15:08:06.01	138.20	18.31	-34.0	-35.2	30.2	3.02e+01	60	32	0	931135488	42	6224
2026-01-27 15:08:07.02	138.40	18.21	-34.0	-35.2	30.1	3.02e+01	47	32	0	933232640	42	6227
2026-01-27 15:08:08.03	138.59	18.12	-34.1	-35.2	30.2	3.02e+01	62	32	0	935329792	42	6264
2026-01-27 15:08:09.04	138.79	18.02	-34.0	-35.2	30.2	3.02e+01	59	32	0	936902656	42	6253
2026-01-27 15:08:10.05	138.99	17.93	-34.1	-35.3	30.0	3.02e+01	62	32	0	938999808	42	6293
2026-01-27 15:08:11.06	139.18	17.83	-34.1	-35.3	30.0	3.02e+01	62	32	0	940572672	42	6308
2026-01-27 15:08:12.07	139.38	17.73	-34.0	-35.2	30.2	3.02e+01	45	32	0	942669824	42	6221
2026-01-27 15:08:13.07	139.57	17.64	-34.1	-35.3	30.1	3.02e+01	57	32	0	944766976	42	6287
2026-01-27 15:08:14.09	139.76	17.54	-34.1	-35.2	30.1	3.02e+01	61	32	0	946339840	42	6265
2026-01-27 15:08:15.09	139.95	17.45	-34.0	-35.2	30.1	3.02e+01	60	32	0	948436992	42	6252
2026-01-27 15:08:16.10	140.14	17.35	-34.0	-35.2	30.2	3.02e+01	62	32	0	950009856	42	6227
2026-01-27 15:08:17.11	140.32	17.26	-34.1	-35.3	30.2	3.02e+01	44	32	0	952107008	42	6288
2026-01-27 15:08:18.12	140.51	17.16	-34.1	-35.2	30.1	3.02e+01	61	32	0	954204160	42	6254
2026-01-27 15:08:19.13	140.70	17.07	-34.1	-35.3	30.1	3.02e+01	60	32	0	955777024	42	6296
2026-01-27 15:08:20.14	140.88	16.97	-34.1	-35.3	30.0	3.02e+01	45	32	0	957874176	42	6305
2026-01-27 15:08:21.15	141.06	16.88	-34.1	-35.2	30.1	3.02e+01	58	32	0	959447040	42	6274
2026-01-27 15:08:22.16	141.24	16.78	-34.1	-35.3	30.1	3.02e+01	53	32	0	961544192	42	6300
2026-01-27 15:08:23.17	141.42	16.69	-34.1	-35.2	30.1	3.02e+01	59	32	0	963641344	42	6270
2026-01-27 15:08:24.17	141.60	16.60	-33.9	-35.0	30.3	3.02e+01	58	32	0	965214208	42	6130
2026-01-27 15:08:25.18	141.78	16.50	-34.0	-35.2	30.2	3.02e+01	58	32	0	967311360	42	6245
2026-01-27 15:08:26.19	141.96	16.41	-34.0	-35.1	30.2	3.02e+01	62	32	0	968884224	42	6187
2026-01-27 15:08:27.19	142.13	16.32	-34.0	-35.1	30.2	3.02e+01	57	32	0	970981376	42	6201
2026-01-27 15:08:28.20	142.30	16.22	-34.0	-35.1	30.2	3.02e+01	50	32	0	973078528	42	6195
2026-01-27 15:08:29.21	142.48	16.13	-34.1	-35.2	30.2	3.02e+01	58	32	0	974651392	42	6267
2026-01-27 15:08:30.22	142.65	16.04	-34.1	-35.2	30.2	3.02e+01	62	32	0	976748544	42	6263
2026-01-27 15:08:31.23	142.82	15.94	-34.2	-35.3	30.1	3.02e+01	60	32	0	978321408	42	6331
2026-01-27 15:08:32.23	142.99	15.85	-34.2	-35.3	30.1	3.02e+01	60	32	0	980418560	42	6339
2026-01-27 15:08:33.25	143.16	15.76	-34.2	-35.4	30.1	3.02e+01	55	32	0	982515712	42	6360
2026-01-27 15:08:34.26	143.33	15.67	-34.2	-35.4	30.0	3.02e+01	58	32	0	984088576	42	6384
2026-01-27 15:08:35.27	143.49	15.57	-34.2	-35.4	30.0	3.02e+01	59	32	0	986185728	42	6354
2026-01-27 15:08:36.28	143.66	15.48	-34.2	-35.4	30.0	3.02e+01	46	32	0	988282880	42	6379
2026-01-27 15:08:37.29	143.83	15.39	-34.2	-35.4	29.9	3.02e+01	59	32	0	989855744	42	6371
2026-01-27 15:08:38.30	143.99	15.30	-34.2	-35.4	29.8	3.02e+01	63	32	0	991952896	42	6376
2026-01-27 15:08:39.31	144.15	15.21	-34.3	-35.5	29.8	3.02e+01	59	32	0	993525760	42	6427
2026-01-27 15:08:40.32	144.31	15.11	-34.3	-35.5	29.8	3.02e+01	60	32	0	995622912	42	6437
2026-01-27 15:08:41.33	144.47	15.02	-34.2	-35.4	29.7	3.02e+01	48	32	0	997720064	42	6376
2026-01-27 15:08:42.33	144.63	14.93	-34.2	-35.3	29.9	3.02e+01	59	32	0	999292928	42	6333
2026-01-27 15:08:43.35	144.79	14.84	-34.2	-35.4	29.8	3.02e+01	57	32	0	1001390080	42	6386
2026-01-27 15:08:44.36	144.95	14.75	-34.2	-35.3	29.8	3.02e+01	59	32	0	1003487232	42	6349
2026-01-27 15:08:45.37	145.11	14.66	-34.2	-35.4	29.7	3.02e+01	58	32	0	1005060096	42	6369
2026-01-27 15:08:46.37	145.26	14.57	-34.3	-35.5	29.7	3.02e+01	60	32	0	1007157248	42	6429
2026-01-27 15:08:47.38	145.42	14.48	-34.2	-35.4	29.7	3.02e+01	61	32	0	1008730112	42	6395
2026-01-27 15:08:48.39	145.57	14.39	-34.3	-35.5	29.7	3.02e+01	58	32	0	1010827264	42	6444
2026-01-27 15:08:49.40	145.72	14.30	-34.2	-35.4	29.7	3.02e+01	53	32	0	1012400128	42	6386
2026-01-27 15:08:50.41	145.87	14.21	-34.2	-35.4	29.9	3.02e+01	60	32	0	1014497280	42	6407
2026-01-27 15:08:51.41	146.02	14.12	-34.3	-35.5	29.8	3.02e+01	58	32	0	1016594432	42	6432
2026-01-27 15:08:52.42	146.17	14.03	-34.5	-35.7	29.7	3.02e+01	58	32	0	1018167296	42	6583
2026-01-27 15:08:53.43	146.32	13.94	-34.3	-35.5	29.8	3.02e+01	59	32	0	1020264448	42	6466
2026-01-27 15:08:54.44	146.47	13.85	-34.4	-35.5	29.8	3.02e+01	47	32	0	1021837312	42	6493
2026-01-27 15:08:55.45	146.62	13.77	-34.4	-35.5	29.7	3.02e+01	59	32	0	1023934464	42	6493
2026-01-27 15:08:56.46	146.76	13.68	-34.4	-35.6	29.6	3.02e+01	59	32	0	1026031616	42	6510
2026-01-27 15:08:57.47	146.91	13.59	-34.4	-35.6	29.7	3.02e+01	44	32	0	1027604480	42	6517
2026-01-27 15:08:58.48	147.05	13.50	-34.2	-35.4	29.8	3.02e+01	57	32	0	1029701632	42	6356
2026-01-27 15:08:59.49	147.20	13.41	-34.3	-35.5	29.8	3.02e+01	58	32	0	1031274496	42	6430
2026-01-27 15:09:00.50	147.34	13.33	-34.2	-35.4	29.9	3.02e+01	57	32	0	1033371648	42	6385
2026-01-27 15:09:01.51	147.48	13.24	-34.2	-35.4	29.9	3.02e+01	59	32	0	1035468800	42	6401
2026-01-27 15:09:02.52	147.62	13.15	-34.3	-35.5	29.8	3.02e+01	54	32	0	1037041664	42	6464
2026-01-27 15:09:03.53	147.76	13.06	-34.5	-35.7	29.7	3.02e+01	55	32	0	1039138816	42	6593
2026-01-27 15:09:04.54	147.90	12.98	-34.5	-35.6	29.7	3.02e+01	58	32	0	1041235968	42	6564
2026-01-27 15:09:05.55	148.04	12.89	-34.4	-35.5	29.8	3.02e+01	56	32	0	1042808832	42	6486
2026-01-27 15:09:06.56	148.18	12.80	-34.5	-35.7	29.6	3.02e+01	61	32	0	1044905984	42	6585
2026-01-27 15:09:07.57	148.31	12.72	-34.6	-35.8	29.4	3.02e+01	60	32	0	1046478848	42	6719
2026-01-27 15:09:08.57	148.45	12.63	-34.6	-35.8	29.6	3.02e+01	60	32	0	1048576000	42	6696
2026-01-27 15:09:09.58	148.58	12.55	-34.6	-35.8	29.5	3.02e+01	59	32	0	1050673152	42	6698
2026-01-27 15:09:10.59	148.72	12.46	-34.6	-35.8	29.5	3.02e+01	60	32	0	1052246016	42	6671
2026-01-27 15:09:11.60	148.85	12.37	-34.7	-35.9	29.4	3.02e+01	57	32	0	1054343168	42	6770
2026-01-27 15:09:12.61	148.98	12.29	-34.8	-36.0	29.3	3.02e+01	60	32	0	1056440320	42	6869
2026-01-27 15:09:13.62	149.12	12.20	-34.6	-35.8	29.6	3.02e+01	46	32	0	1058013184	42	6699
2026-01-27 15:09:14.63	149.25	12.12	-34.6	-35.8	29.5	3.02e+01	58	32	0	1060110336	42	6689
2026-01-27 15:09:15.64	149.38	12.03	-34.7	-35.9	29.4	3.02e+01	58	32	0	1061683200	42	6756
2026-01-27 15:09:16.65	149.51	11.95	-34.9	-36.1	29.3	3.02e+01	58	32	0	1063780352	42	6924
2026-01-27 15:09:17.66	149.64	11.87	-34.8	-36.1	29.4	3.02e+01	59	32	0	1065877504	42	6886
2026-01-27 15:09:18.67	149.76	11.78	-34.6	-35.8	29.5	3.02e+01	56	32	0	1067450368	42	6668
2026-01-27 15:09:19.68	149.89	11.70	-34.8	-36.0	29.3	3.02e+01	56	32	0	1069547520	42	6820
2026-01-27 15:09:20.69	150.02	11.61	-34.6	-35.8	29.4	3.02e+01	59	32	0	1071120384	42	6714
2026-01-27 15:09:21.70	150.14	11.53	-34.6	-35.8	29.5	3.02e+01	47	32	0	1073217536	42	6650
2026-01-27 15:09:22.71	150.27	11.45	-34.7	-35.9	29.4	3.02e+01	58	32	0	1075314688	42	6754
2026-01-27 15:09:23.72	150.39	11.36	-34.7	-35.9	29.5	3.02e+01	44	32	0	1076887552	42	6731
2026-01-27 15:09:24.73	150.52	11.28	-34.7	-35.9	29.4	3.02e+01	58	32	0	1078984704	42	6769
2026-01-27 15:09:25.73	150.64	11.20	-34.7	-35.9	29.5	3.02e+01	54	32	0	1080557568	42	6727
2026-01-27 15:09:26.74	150.76	11.12	-34.8	-36.0	29.3	3.02e+01	50	32	0	1082654720	42	6857
2026-01-27 15:09:27.75	150.88	11.04	-34.7	-35.9	29.4	3.02e+01	59	32	0	1084751872	42	6776
2026-01-27 15:09:28.76	151.00	10.95	-34.7	-35.9	29.3	3.02e+01	60	32	0	1086324736	42	6789
2026-01-27 15:09:29.77	151.12	10.87	-34.7	-35.9	29.4	3.02e+01	63	32	0	1088421888	42	6761
2026-01-27 15:09:30.78	151.24	10.79	-34.9	-36.1	29.3	3.02e+01	59	32	0	1089994752	42	6892
2026-01-27 15:09:31.79	151.36	10.71	-34.9	-36.1	29.3	3.02e+01	48	32	0	1092091904	42	6890
2026-01-27 15:09:32.80	151.48	10.63	-34.9	-36.1	29.2	3.02e+01	60	32	0	1094189056	42	6956
2026-01-27 15:09:33.81	151.59	10.55	-34.8	-36.0	29.3	3.02e+01	61	32	0	1095761920	42	6846
2026-01-27 15:09:34.82	151.71	10.46	-34.9	-36.1	29.2	3.02e+01	43	32	0	1097859072	42	6909
2026-01-27 15:09:35.83	151.83	10.38	-34.9	-36.1	29.1	3.02e+01	60	32	0	1099431936	44	6178
2026-01-27 15:09:36.83	151.94	10.30	-34.9	-36.1	29.1	3.02e+01	55	32	0	1101529088	44	6197
2026-01-27 15:09:37.84	152.06	10.22	-35.1	-36.3	29.0	3.02e+01	59	32	0	1103626240	44	6303
2026-01-27 15:09:38.85	152.17	10.14	-35.1	-36.4	29.0	3.02e+01	60	32	0	1105199104	44	6373
2026-01-27 15:09:39.87	152.28	10.06	-35.3	-36.5	28.8	3.02e+01	55	32	0	1107296256	44	6490
2026-01-27 15:09:40.88	152.40	9.98	-35.4	-36.7	28.6	3.02e+01	60	32	0	1109393408	44	6580
2026-01-27 15:09:41.89	152.51	9.90	-35.4	-36.6	28.6	3.02e+01	58	32	0	1110966272	44	6564
2026-01-27 15:09:42.90	152.62	9.83	-35.6	-36.8	28.4	3.02e+01	53	32	0	1113063424	44	6720
2026-01-27 15:09:43.91	152.73	9.75	-35.7	-36.9	28.3	3.02e+01	59	32	0	1114636288	44	6795
2026-01-27 15:09:44.91	152.84	9.67	-35.8	-37.1	28.1	3.02e+01	56	32	0	1116733440	44	6929
2026-01-27 15:09:45.92	152.95	9.59	-36.1	-37.4	27.9	3.02e+01	57	32	0	1118830592	46	6379
2026-01-27 15:09:46.94	153.06	9.51	-36.3	-37.6	27.5	3.02e+01	59	32	0	1120403456	46	6530
2026-01-27 15:09:47.95	153.17	9.43	-36.5	-37.8	27.4	3.02e+01	54	32	0	1122500608	46	6683
2026-01-27 15:09:48.96	153.28	9.35	-36.7	-38.1	26.9	3.02e+01	59	32	0	1124597760	46	6909
2026-01-27 15:09:49.97	153.38	9.28	-36.9	-38.3	26.5	3.02e+01	57	32	0	1126170624	46	7101
2026-01-27 15:09:50.98	153.49	9.20	-37.2	-38.6	26.2	3.02e+01	47	32	0	1128267776	48	6554
2026-01-27 15:09:51.99	153.60	9.12	-37.6	-39.1	25.8	3.02e+01	61	32	0	1129840640	48	6891
2026-01-27 15:09:53.00	153.70	9.04	-37.8	-39.3	25.4	3.02e+01	59	32	0	1131937792	48	7086
2026-01-27 15:09:54.01	153.81	8.97	-38.1	-39.7	25.1	3.02e+01	59	32	0	1134034944	50	6575
2026-01-27 15:09:55.01	153.91	8.89	-38.4	-40.0	24.7	3.02e+01	62	32	0	1135607808	50	6825
2026-01-27 15:09:56.02	154.01	8.81	-38.6	-40.2	24.5	3.02e+01	60	32	0	1137704960	50	7005
2026-01-27 15:09:57.03	154.12	8.74	-38.9	-40.5	24.0	3.02e+01	59	32	0	1139277824	50	7259
2026-01-27 15:09:58.04	154.22	8.66	-39.1	-40.8	23.8	3.02e+01	63	32	0	1141374976	52	6716
2026-01-27 15:09:59.05	154.32	8.58	-39.4	-41.2	23.4	3.02e+01	56	32	0	1143472128	52	6966
2026-01-27 15:10:00.07	154.42	8.51	-39.7	-41.5	23.0	3.02e+01	60	32	0	1145044992	52	7236
2026-01-27 15:10:01.07	154.52	8.43	-39.8	-41.6	23.0	3.02e+01	45	32	0	1147142144	52	7375
2026-01-27 15:10:02.08	154.62	8.36	-39.9	-41.7	22.8	3.02e+01	62	32	0	1148715008	52	7441
2026-01-27 15:10:03.09	154.72	8.28	-40.0	-41.9	22.7	3.02e+01	58	32	0	1150812160	54	6781
2026-01-27 15:10:04.10	154.82	8.20	-39.9	-41.8	22.7	3.02e+01	41	32	0	1152909312	54	6704
2026-01-27 15:10:05.11	154.92	8.13	-40.0	-41.9	22.6	3.02e+01	57	32	0	1154482176	54	6788
2026-01-27 15:10:06.12	155.02	8.05	-39.9	-41.8	22.9	3.02e+01	58	32	0	1156579328	54	6656
2026-01-27 15:10:07.13	155.12	7.98	-39.9	-41.7	22.9	3.02e+01	59	32	0	1158152192	54	6609
2026-01-27 15:10:08.14	155.21	7.91	-39.7	-41.5	23.3	3.02e+01	59	32	0	1160249344	54	6468
2026-01-27 15:10:09.15	155.31	7.83	-39.4	-41.2	23.5	3.02e+01	50	32	0	1162346496	54	6239
2026-01-27 15:10:10.15	155.40	7.76	-39.1	-40.8	24.1	3.02e+01	59	32	0	1163919360	54	5953
2026-01-27 15:10:11.16	155.50	7.68	-39.0	-40.6	23.9	3.02e+01	58	32	0	1166016512	54	5831
2026-01-27 15:10:12.17	155.60	7.61	-38.7	-40.2	24.7	3.02e+01	44	32	0	1167589376	52	6268
2026-01-27 15:10:13.18	155.69	7.54	-38.3	-39.9	25.1	3.02e+01	61	32	0	1169686528	52	6008
2026-01-27 15:10:14.19	155.78	7.46	-38.3	-39.8	25.1	3.02e+01	57	32	0	1171783680	52	5966
2026-01-27 15:10:15.20	155.88	7.39	-38.3	-39.8	25.1	3.02e+01	57	32	0	1173356544	52	5988
2026-01-27 15:10:16.21	155.97	7.32	-38.0	-39.4	25.4	3.02e+01	60	32	0	1175453696	52	5713
2026-01-27 15:10:17.22	156.06	7.24	-37.9	-39.3	25.6	3.02e+01	52	32	0	1177550848	50	6342
2026-01-27 15:10:18.23	156.16	7.17	-38.0	-39.5	25.6	3.02e+01	61	32	0	1179123712	50	6435
2026-01-27 15:10:19.24	156.25	7.10	-38.0	-39.4	25.6	3.02e+01	63	32	0	1181220864	50	6408
2026-01-27 15:10:20.25	156.34	7.02	-37.7	-39.1	26.0	3.02e+01	50	32	0	1182793728	50	6195
2026-01-27 15:10:21.26	156.43	6.95	-37.3	-38.7	26.4	3.02e+01	61	32	0	1184890880	50	5892
2026-01-27 15:10:22.27	156.52	6.88	-37.4	-38.8	26.3	3.02e+01	58	32	0	1186988032	50	5940
2026-01-27 15:10:23.28	156.61	6.81	-37.1	-38.5	26.6	3.02e+01	57	32	0	1188560896	50	5743
2026-01-27 15:10:24.29	156.70	6.74	-37.0	-38.4	26.8	3.02e+01	58	32	0	1190658048	50	5674
2026-01-27 15:10:25.30	156.79	6.66	-36.9	-38.3	26.9	3.02e+01	49	32	0	1192230912	48	6317
2026-01-27 15:10:26.31	156.88	6.59	-36.6	-38.0	27.2	3.02e+01	58	32	0	1194328064	48	6084
2026-01-27 15:10:27.32	156.96	6.52	-36.6	-37.9	27.3	3.02e+01	60	32	0	1196425216	48	6060
2026-01-27 15:10:28.32	157.05	6.45	-36.7	-38.0	27.2	3.02e+01	45	32	0	1197998080	48	6103
2026-01-27 15:10:29.33	157.14	6.38	-36.4	-37.7	27.5	3.02e+01	58	32	0	1200095232	48	5923
2026-01-27 15:10:30.34	157.22	6.31	-36.5	-37.8	27.4	3.02e+01	61	32	0	1201668096	48	5953
2026-01-27 15:10:31.35	157.31	6.24	-36.5	-37.8	27.5	3.02e+01	60	32	0	1203765248	48	5954
2026-01-27 15:10:32.36	157.40	6.17	-36.5	-37.8	27.4	3.02e+01	60	32	0	1205862400	48	5960
