passes_logs/2026/01/27/R4.6S_Anadyr/R4.6S_Anadyr__20260127_125948_NOAA_20_JPSS-1_rec.log

#Pass ID: 20260127_125948_NOAA 20 (JPSS-1)
#Satellite: NOAA 20 (JPSS-1)
#Configuration: NOAA 20
#almurnet v.1.7.20251203
#Start time: 2026-01-27 12:59:49

#Version: 2.2.20231116
#Station: R4.6S_Anadyr
#Location: 177.4865 lon 64.73178 lat
#TLE: 1 43013U 17073A   26026.81907703  .00000149  00000+0  91399-4 0  9998
#TLE: 2 43013  98.7647 327.6343 0000991  22.4130 337.7089 14.19540778424411

#Time	Az	El	Level	Level2	SNR	BER	BlckErr	Temp	State	Recorded	gain1	gain2
2026-01-27 12:59:49.48	18.77	0.07	-48.9	-63.8	3.5	1.51e+00	0	30	0	0	60	56005
2026-01-27 12:59:50.49	18.82	0.13	-49.0	-64.3	3.6	1.51e+00	0	31	104	0	60	59074
2026-01-27 12:59:51.49	18.88	0.18	-49.0	-64.2	3.6	1.51e+00	0	31	104	0	60	58667
2026-01-27 12:59:52.50	18.94	0.23	-49.0	-64.3	3.6	1.51e+00	0	31	104	0	60	59057
2026-01-27 12:59:53.51	18.99	0.29	-49.0	-64.3	3.6	1.51e+00	0	31	104	0	60	59029
2026-01-27 12:59:54.52	19.05	0.34	-49.1	-64.2	3.6	1.51e+00	0	31	104	0	60	58555
2026-01-27 12:59:55.53	19.11	0.40	-49.1	-64.3	3.6	1.51e+00	0	31	104	0	60	59069
2026-01-27 12:59:56.54	19.16	0.45	-49.1	-64.3	3.6	1.51e+00	0	31	104	0	60	59482
2026-01-27 12:59:57.55	19.22	0.51	-49.1	-64.3	3.6	1.51e+00	0	31	104	0	60	59252
2026-01-27 12:59:58.56	19.28	0.56	-49.1	-64.3	3.6	1.51e+00	0	31	104	0	60	59267
2026-01-27 12:59:59.57	19.34	0.62	-49.1	-64.3	3.6	1.51e+00	0	31	104	0	60	59570
2026-01-27 13:00:00.58	19.40	0.67	-49.1	-64.3	3.6	1.51e+00	0	31	104	0	60	59137
2026-01-27 13:00:01.59	19.45	0.73	-49.1	-64.3	3.6	1.51e+00	0	31	104	0	60	59190
2026-01-27 13:00:02.60	19.51	0.78	-49.1	-64.3	3.6	1.51e+00	0	31	104	0	60	59132
2026-01-27 13:00:03.61	19.57	0.84	-49.0	-64.2	3.6	1.51e+00	0	31	104	0	60	58703
2026-01-27 13:00:04.62	19.63	0.89	-49.0	-64.2	3.6	1.51e+00	0	31	104	0	60	58390
2026-01-27 13:00:05.64	19.69	0.95	-48.9	-64.1	3.6	1.51e+00	0	31	104	0	60	57782
2026-01-27 13:00:06.64	19.75	1.00	-48.8	-64.0	3.6	1.51e+00	0	31	104	0	60	57391
2026-01-27 13:00:07.65	19.81	1.06	-48.7	-63.8	3.6	1.51e+00	0	31	104	0	60	56261
2026-01-27 13:00:08.67	19.87	1.12	-48.6	-63.8	3.6	1.51e+00	0	31	104	0	60	55924
2026-01-27 13:00:09.67	19.93	1.17	-48.5	-63.7	3.6	1.51e+00	0	31	104	0	60	55501
2026-01-27 13:00:10.69	19.99	1.23	-48.4	-63.6	3.6	1.51e+00	0	31	104	0	60	54666
2026-01-27 13:00:11.70	20.05	1.28	-48.3	-63.5	3.6	1.51e+00	0	31	104	0	60	53785
2026-01-27 13:00:12.71	20.11	1.34	-48.0	-63.2	3.6	1.51e+00	0	31	104	0	60	52067
2026-01-27 13:00:13.71	20.17	1.40	-47.8	-62.9	3.6	1.51e+00	0	31	104	0	60	50535
2026-01-27 13:00:14.72	20.23	1.45	-47.6	-62.8	3.6	1.51e+00	0	31	104	0	60	49643
2026-01-27 13:00:15.73	20.29	1.51	-47.6	-62.8	3.6	1.51e+00	0	31	104	0	60	49633
2026-01-27 13:00:16.74	20.36	1.57	-47.6	-62.8	3.6	1.51e+00	0	31	104	0	60	49863
2026-01-27 13:00:17.75	20.42	1.62	-47.6	-62.7	3.6	1.51e+00	0	31	104	0	60	49419
2026-01-27 13:00:18.76	20.48	1.68	-47.6	-62.7	3.6	1.51e+00	0	31	104	0	60	49521
2026-01-27 13:00:19.77	20.54	1.73	-47.6	-62.6	3.6	1.51e+00	0	31	104	0	60	48494
2026-01-27 13:00:20.78	20.60	1.79	-47.6	-62.6	3.6	1.51e+00	0	31	104	0	60	48999
2026-01-27 13:00:21.79	20.67	1.85	-47.6	-62.6	3.6	1.51e+00	0	31	104	0	60	48907
2026-01-27 13:00:22.81	20.73	1.91	-47.6	-62.7	3.6	1.51e+00	0	31	104	0	60	49087
2026-01-27 13:00:23.82	20.79	1.96	-47.6	-62.7	3.6	1.51e+00	0	31	104	0	60	49253
2026-01-27 13:00:24.82	20.86	2.02	-47.6	-62.7	3.6	1.51e+00	0	31	104	0	60	49221
2026-01-27 13:00:25.84	20.92	2.08	-47.6	-62.7	3.6	1.51e+00	0	31	104	0	60	49524
2026-01-27 13:00:26.85	20.98	2.13	-47.6	-62.7	3.6	1.51e+00	0	31	104	0	60	49496
2026-01-27 13:00:27.86	21.05	2.19	-47.6	-62.8	3.6	1.51e+00	0	31	104	0	60	49623
2026-01-27 13:00:28.87	21.11	2.25	-47.6	-62.7	3.6	1.51e+00	0	31	104	0	60	49042
2026-01-27 13:00:29.88	21.18	2.31	-47.6	-62.4	3.6	1.51e+00	0	31	104	0	60	47558
2026-01-27 13:00:30.89	21.24	2.36	-47.6	-62.1	3.6	1.51e+00	0	31	104	0	60	45945
2026-01-27 13:00:31.90	21.31	2.42	-47.5	-61.6	3.6	1.51e+00	0	31	104	0	60	43455
2026-01-27 13:00:32.91	21.37	2.48	-47.6	-62.0	3.6	1.51e+00	0	31	104	0	60	45408
2026-01-27 13:00:33.92	21.44	2.54	-47.6	-62.5	3.6	1.51e+00	0	31	104	0	60	48460
2026-01-27 13:00:34.93	21.50	2.60	-47.5	-60.8	3.6	1.51e+00	0	31	104	0	60	39832
2026-01-27 13:00:35.93	21.57	2.65	-47.2	-56.4	4.9	1.28e+00	0	31	0	0	60	23981
2026-01-27 13:00:36.95	21.63	2.71	-46.5	-52.4	9.2	5.35e-02	0	31	0	2097152	60	15023
2026-01-27 13:00:37.95	21.70	2.77	-45.2	-49.0	12.8	1.09e-03	0	31	0	4194304	60	10137
2026-01-27 13:00:38.96	21.77	2.83	-44.1	-46.9	15.1	3.80e-06	0	31	0	5242880	60	8037
2026-01-27 13:00:39.97	21.83	2.89	-42.6	-44.6	17.0	0.00e+00	0	32	0	7340032	58	6910
2026-01-27 13:00:40.98	21.90	2.95	-42.0	-43.9	18.2	0.00e+00	0	31	0	9437184	58	6329
2026-01-27 13:00:41.99	21.97	3.00	-41.3	-42.9	18.8	0.00e+00	0	31	0	11534336	56	6346
2026-01-27 13:00:43.00	22.04	3.06	-41.3	-42.9	18.9	0.00e+00	0	31	0	13631488	56	6378
2026-01-27 13:00:44.01	22.10	3.12	-41.3	-42.9	18.9	0.00e+00	0	31	0	14680064	56	6340
2026-01-27 13:00:45.02	22.17	3.18	-42.2	-44.1	17.7	0.00e+00	0	31	0	16777216	56	7336
2026-01-27 13:00:46.03	22.24	3.24	-42.6	-44.7	17.1	0.00e+00	0	31	0	18874368	56	7818
2026-01-27 13:00:47.04	22.31	3.30	-44.2	-47.2	14.3	0.00e+00	0	31	0	20971520	60	8246
2026-01-27 13:00:48.05	22.38	3.36	-41.5	-43.2	18.6	0.00e+00	0	31	0	23068672	54	7370
2026-01-27 13:00:49.06	22.45	3.42	-41.1	-42.6	19.3	0.00e+00	0	31	0	24117248	54	6926
2026-01-27 13:00:50.07	22.52	3.48	-47.5	-62.1	3.6	1.28e+00	0	31	104	26214400	60	45884
2026-01-27 13:00:51.08	22.59	3.54	-46.8	-54.2	8.3	1.38e+00	0	32	104	26214400	60	18626
2026-01-27 13:00:52.09	22.66	3.60	-47.1	-54.4	7.8	4.80e-05	0	32	0	26214400	60	19038
2026-01-27 13:00:53.10	22.73	3.66	-41.6	-43.2	18.7	9.80e-04	0	31	0	28311552	56	6555
2026-01-27 13:00:54.10	22.80	3.72	-41.3	-42.9	18.7	0.00e+00	0	32	0	30408704	56	6343
2026-01-27 13:00:55.11	22.87	3.78	-41.2	-42.7	19.3	0.00e+00	0	32	0	32505856	56	6188
2026-01-27 13:00:56.12	22.94	3.84	-41.0	-42.5	19.3	0.00e+00	0	32	0	34603008	56	6064
2026-01-27 13:00:57.13	23.01	3.90	-40.5	-41.9	19.8	0.00e+00	0	32	0	35651584	54	6330
2026-01-27 13:00:58.14	23.08	3.96	-40.9	-42.4	19.4	0.00e+00	0	31	0	37748736	54	6718
2026-01-27 13:00:59.15	23.15	4.02	-40.7	-42.1	19.6	0.00e+00	0	31	0	39845888	54	6493
2026-01-27 13:01:00.16	23.22	4.08	-40.8	-42.3	19.8	0.00e+00	0	32	0	41943040	54	6632
2026-01-27 13:01:01.17	23.30	4.14	-40.6	-42.0	20.0	0.00e+00	0	31	0	44040192	54	6452
2026-01-27 13:01:02.18	23.37	4.20	-40.1	-41.4	20.4	0.00e+00	0	31	0	45088768	54	5971
2026-01-27 13:01:03.19	23.44	4.26	-40.6	-42.0	20.0	0.00e+00	0	32	0	47185920	54	6407
2026-01-27 13:01:04.20	23.51	4.32	-40.8	-42.2	19.8	0.00e+00	0	31	0	49283072	54	6584
2026-01-27 13:01:05.21	23.59	4.38	-40.9	-42.3	19.6	0.00e+00	0	31	0	51380224	54	6651
2026-01-27 13:01:06.22	23.66	4.44	-40.7	-42.1	19.9	0.00e+00	0	32	0	53477376	54	6475
2026-01-27 13:01:07.23	23.74	4.50	-40.4	-41.7	20.2	0.00e+00	0	32	0	54525952	54	6199
2026-01-27 13:01:08.24	23.81	4.56	-40.1	-41.3	20.6	0.00e+00	0	31	0	56623104	54	5961
2026-01-27 13:01:09.25	23.88	4.62	-40.1	-41.4	20.5	0.00e+00	0	31	0	58720256	54	6013
2026-01-27 13:01:10.26	23.96	4.69	-40.2	-41.4	20.3	0.00e+00	0	32	0	60817408	54	6030
2026-01-27 13:01:11.27	24.03	4.75	-40.4	-41.7	20.3	0.00e+00	0	32	0	62914560	54	6207
2026-01-27 13:01:12.28	24.11	4.81	-40.1	-41.4	20.6	0.00e+00	0	32	0	63963136	54	5992
2026-01-27 13:01:13.29	24.19	4.87	-40.4	-41.8	20.2	0.00e+00	0	32	0	66060288	54	6264
2026-01-27 13:01:14.30	24.26	4.93	-40.2	-41.5	20.4	0.00e+00	0	32	0	68157440	54	6080
2026-01-27 13:01:15.31	24.34	4.99	-40.4	-41.7	20.3	0.00e+00	0	32	0	70254592	54	6208
2026-01-27 13:01:16.32	24.42	5.06	-40.4	-41.7	20.3	0.00e+00	0	32	0	72351744	54	6215
2026-01-27 13:01:17.33	24.49	5.12	-40.0	-41.2	20.9	0.00e+00	0	32	0	73400320	54	5896
2026-01-27 13:01:18.34	24.57	5.18	-40.2	-41.4	20.6	0.00e+00	0	32	0	75497472	54	6029
2026-01-27 13:01:19.35	24.65	5.24	-40.2	-41.4	20.6	0.00e+00	0	32	0	77594624	54	6025
2026-01-27 13:01:20.35	24.72	5.31	-40.4	-41.7	20.5	0.00e+00	0	32	0	79691776	54	6180
2026-01-27 13:01:21.37	24.80	5.37	-40.2	-41.4	20.7	0.00e+00	0	32	0	81788928	54	6015
2026-01-27 13:01:22.37	24.88	5.43	-40.2	-41.5	20.6	0.00e+00	0	32	0	82837504	52	6806
2026-01-27 13:01:23.38	24.96	5.49	-40.6	-42.0	20.2	0.00e+00	0	32	0	84934656	52	7202
2026-01-27 13:01:24.39	25.04	5.56	-40.4	-41.6	20.4	0.00e+00	0	32	0	87031808	52	6925
2026-01-27 13:01:25.40	25.12	5.62	-40.0	-41.3	20.8	0.00e+00	0	32	0	89128960	52	6621
2026-01-27 13:01:26.41	25.20	5.68	-40.4	-41.6	20.5	0.00e+00	0	32	0	91226112	52	6923
2026-01-27 13:01:27.42	25.28	5.75	-40.3	-41.6	20.5	0.00e+00	0	32	0	92274688	52	6893
2026-01-27 13:01:28.43	25.36	5.81	-40.5	-41.8	20.3	0.00e+00	0	32	0	94371840	52	7076
2026-01-27 13:01:29.44	25.44	5.87	-40.3	-41.5	20.6	0.00e+00	0	32	0	96468992	52	6817
2026-01-27 13:01:30.45	25.52	5.94	-40.3	-41.6	20.6	0.00e+00	0	32	0	98566144	52	6863
2026-01-27 13:01:31.46	25.60	6.00	-40.3	-41.6	20.6	0.00e+00	0	32	0	100663296	52	6899
2026-01-27 13:01:32.47	25.68	6.06	-40.4	-41.7	20.5	0.00e+00	0	32	0	102760448	52	6931
2026-01-27 13:01:33.48	25.77	6.13	-40.4	-41.7	20.5	0.00e+00	0	32	0	103809024	52	6966
2026-01-27 13:01:34.49	25.85	6.19	-40.1	-41.3	20.9	0.00e+00	0	32	0	105906176	52	6635
2026-01-27 13:01:35.50	25.93	6.26	-40.0	-41.2	21.0	0.00e+00	0	32	0	108003328	52	6586
2026-01-27 13:01:36.50	26.01	6.32	-40.0	-41.2	20.9	0.00e+00	0	32	0	110100480	52	6595
2026-01-27 13:01:37.51	26.10	6.38	-39.7	-40.9	21.3	0.00e+00	0	32	0	112197632	52	6335
2026-01-27 13:01:38.52	26.18	6.45	-40.0	-41.1	21.0	0.00e+00	0	32	0	113246208	52	6538
2026-01-27 13:01:39.53	26.27	6.51	-40.0	-41.2	21.1	0.00e+00	0	32	0	115343360	52	6551
2026-01-27 13:01:40.54	26.35	6.58	-40.0	-41.2	21.0	0.00e+00	0	32	0	117440512	52	6576
2026-01-27 13:01:41.55	26.44	6.64	-39.8	-40.9	21.3	0.00e+00	0	32	0	119537664	52	6376
2026-01-27 13:01:42.56	26.52	6.71	-39.8	-41.0	21.3	0.00e+00	0	32	0	121634816	52	6444
2026-01-27 13:01:43.57	26.61	6.77	-39.9	-41.1	21.2	0.00e+00	0	32	0	122683392	52	6479
2026-01-27 13:01:44.58	26.69	6.84	-39.7	-40.8	21.4	0.00e+00	0	32	0	124780544	52	6288
2026-01-27 13:01:45.59	26.78	6.90	-39.6	-40.8	21.5	0.00e+00	0	32	0	126877696	52	6246
2026-01-27 13:01:46.60	26.87	6.97	-39.6	-40.8	21.5	0.00e+00	0	32	0	128974848	52	6270
2026-01-27 13:01:47.61	26.95	7.03	-39.7	-40.9	21.3	0.00e+00	0	32	0	131072000	52	6347
2026-01-27 13:01:48.62	27.04	7.10	-39.6	-40.7	21.5	0.00e+00	0	32	0	132120576	52	6202
2026-01-27 13:01:49.63	27.13	7.17	-39.6	-40.7	21.6	0.00e+00	0	32	0	134217728	52	6245
2026-01-27 13:01:50.64	27.22	7.23	-39.4	-40.5	21.7	0.00e+00	0	32	0	136314880	52	6083
2026-01-27 13:01:51.66	27.31	7.30	-39.4	-40.5	21.7	0.00e+00	0	32	0	138412032	52	6085
2026-01-27 13:01:52.67	27.39	7.36	-39.4	-40.5	21.8	0.00e+00	0	32	0	140509184	52	6051
2026-01-27 13:01:53.68	27.48	7.43	-39.5	-40.6	21.7	0.00e+00	0	32	0	141557760	52	6151
2026-01-27 13:01:54.69	27.57	7.50	-39.5	-40.6	21.7	0.00e+00	0	32	0	143654912	52	6135
2026-01-27 13:01:55.70	27.66	7.56	-39.3	-40.4	21.8	0.00e+00	0	32	0	145752064	52	6017
2026-01-27 13:01:56.71	27.75	7.63	-39.4	-40.5	21.8	0.00e+00	0	32	0	147849216	52	6065
2026-01-27 13:01:57.71	27.84	7.70	-39.2	-40.3	21.9	0.00e+00	0	32	0	149946368	52	5917
2026-01-27 13:01:58.72	27.94	7.76	-39.4	-40.5	21.7	0.00e+00	0	32	0	150994944	52	6063
2026-01-27 13:01:59.73	28.03	7.83	-39.3	-40.4	21.8	0.00e+00	0	32	0	153092096	52	6009
2026-01-27 13:02:00.74	28.12	7.90	-39.3	-40.4	21.8	0.00e+00	0	32	0	155189248	52	6009
2026-01-27 13:02:01.75	28.21	7.96	-39.3	-40.4	21.8	0.00e+00	0	32	0	157286400	52	6003
2026-01-27 13:02:02.76	28.30	8.03	-39.3	-40.4	21.8	0.00e+00	0	32	0	159383552	52	5995
2026-01-27 13:02:03.77	28.40	8.10	-39.4	-40.5	21.7	0.00e+00	0	32	0	160432128	52	6092
2026-01-27 13:02:04.78	28.49	8.17	-39.4	-40.4	21.9	0.00e+00	0	32	0	162529280	52	6031
2026-01-27 13:02:05.79	28.59	8.23	-39.5	-40.6	21.8	0.00e+00	0	32	0	164626432	52	6119
2026-01-27 13:02:06.80	28.68	8.30	-39.3	-40.3	22.0	0.00e+00	0	32	0	166723584	52	5948
2026-01-27 13:02:07.81	28.77	8.37	-39.3	-40.4	22.0	0.00e+00	0	32	0	168820736	52	5968
2026-01-27 13:02:08.82	28.87	8.44	-39.4	-40.5	21.8	0.00e+00	0	32	0	170917888	52	6075
2026-01-27 13:02:09.83	28.97	8.50	-39.4	-40.5	21.8	0.00e+00	0	32	0	171966464	52	6074
2026-01-27 13:02:10.84	29.06	8.57	-39.6	-40.7	21.6	0.00e+00	0	32	0	174063616	52	6231
2026-01-27 13:02:11.85	29.16	8.64	-39.6	-40.7	21.7	0.00e+00	0	32	0	176160768	52	6217
2026-01-27 13:02:12.86	29.26	8.71	-39.5	-40.6	21.7	0.00e+00	0	32	0	178257920	52	6168
2026-01-27 13:02:13.87	29.35	8.78	-39.5	-40.6	21.7	0.00e+00	0	32	0	180355072	52	6125
2026-01-27 13:02:14.88	29.45	8.85	-39.3	-40.3	22.0	0.00e+00	0	32	0	181403648	52	5964
2026-01-27 13:02:15.89	29.55	8.92	-39.2	-40.3	22.1	0.00e+00	0	32	0	183500800	52	5917
2026-01-27 13:02:16.90	29.65	8.98	-39.4	-40.5	21.8	0.00e+00	0	32	0	185597952	52	6088
2026-01-27 13:02:17.91	29.75	9.05	-39.5	-40.6	21.8	0.00e+00	0	32	0	187695104	52	6110
2026-01-27 13:02:18.92	29.85	9.12	-39.3	-40.4	22.0	0.00e+00	0	32	0	189792256	52	5974
2026-01-27 13:02:19.93	29.95	9.19	-39.2	-40.2	22.1	0.00e+00	0	32	0	190840832	52	5886
2026-01-27 13:02:20.94	30.05	9.26	-39.2	-40.2	22.1	0.00e+00	0	32	0	192937984	52	5883
2026-01-27 13:02:21.95	30.15	9.33	-39.2	-40.2	22.1	0.00e+00	0	32	0	195035136	52	5888
2026-01-27 13:02:22.95	30.25	9.40	-39.0	-40.0	22.3	0.00e+00	0	32	0	197132288	52	5717
2026-01-27 13:02:23.96	30.35	9.47	-39.1	-40.1	22.3	0.00e+00	0	32	0	199229440	52	5809
2026-01-27 13:02:24.97	30.45	9.54	-38.9	-39.9	22.4	0.00e+00	0	32	0	200278016	52	5678
2026-01-27 13:02:25.98	30.56	9.61	-38.9	-39.9	22.5	0.00e+00	0	32	0	202375168	52	5641
2026-01-27 13:02:26.99	30.66	9.68	-38.7	-39.7	22.6	0.00e+00	0	32	0	204472320	52	5560
2026-01-27 13:02:28.00	30.76	9.75	-38.7	-39.7	22.6	0.00e+00	0	32	0	206569472	50	6239
2026-01-27 13:02:29.01	30.87	9.82	-38.6	-39.6	22.7	0.00e+00	0	32	0	208666624	50	6151
2026-01-27 13:02:30.02	30.97	9.89	-38.7	-39.7	22.6	0.00e+00	0	32	0	209715200	50	6237
2026-01-27 13:02:31.03	31.08	9.96	-38.6	-39.6	22.7	0.00e+00	0	32	0	211812352	50	6151
2026-01-27 13:02:32.05	31.19	10.03	-38.7	-39.7	22.6	0.00e+00	0	32	0	213909504	50	6220
2026-01-27 13:02:33.05	31.29	10.10	-38.7	-39.7	22.7	0.00e+00	0	32	0	216006656	50	6209
2026-01-27 13:02:34.06	31.40	10.17	-38.6	-39.6	22.8	0.00e+00	0	32	0	218103808	50	6144
2026-01-27 13:02:35.07	31.51	10.24	-38.6	-39.5	22.8	0.00e+00	0	32	0	219152384	50	6101
2026-01-27 13:02:36.08	31.61	10.32	-38.7	-39.7	22.7	0.00e+00	0	32	0	221249536	50	6191
2026-01-27 13:02:37.09	31.72	10.39	-38.7	-39.7	22.7	0.00e+00	0	32	0	223346688	50	6239
2026-01-27 13:02:38.09	31.83	10.46	-38.8	-39.8	22.5	0.00e+00	0	32	0	225443840	50	6280
2026-01-27 13:02:39.10	31.94	10.53	-38.7	-39.7	22.6	0.00e+00	0	32	0	227540992	50	6197
2026-01-27 13:02:40.11	32.05	10.60	-38.6	-39.6	22.8	0.00e+00	0	32	0	228589568	50	6155
2026-01-27 13:02:41.13	32.16	10.67	-38.7	-39.7	22.7	0.00e+00	0	32	0	230686720	50	6175
2026-01-27 13:02:42.13	32.27	10.74	-38.6	-39.6	22.6	0.00e+00	0	32	0	232783872	50	6112
2026-01-27 13:02:43.14	32.38	10.82	-38.6	-39.6	22.8	0.00e+00	0	32	0	234881024	50	6151
2026-01-27 13:02:44.16	32.49	10.89	-38.7	-39.6	22.7	0.00e+00	0	32	0	236978176	50	6157
2026-01-27 13:02:45.16	32.60	10.96	-38.6	-39.6	22.8	0.00e+00	0	32	0	239075328	50	6157
2026-01-27 13:02:46.17	32.72	11.03	-38.7	-39.7	22.7	0.00e+00	0	32	0	240123904	50	6200
2026-01-27 13:02:47.18	32.83	11.11	-38.7	-39.7	22.7	0.00e+00	0	32	0	242221056	50	6209
2026-01-27 13:02:48.20	32.95	11.18	-38.8	-39.8	22.6	0.00e+00	0	32	0	244318208	50	6248
2026-01-27 13:02:49.21	33.06	11.25	-38.8	-39.7	22.7	0.00e+00	0	32	0	246415360	50	6243
2026-01-27 13:02:50.22	33.18	11.32	-38.9	-39.9	22.5	0.00e+00	0	32	0	248512512	50	6323
2026-01-27 13:02:51.23	33.29	11.40	-38.9	-39.9	22.5	0.00e+00	0	32	0	249561088	50	6379
2026-01-27 13:02:52.23	33.41	11.47	-39.0	-40.0	22.4	0.00e+00	0	32	0	251658240	50	6440
2026-01-27 13:02:53.24	33.52	11.54	-39.1	-40.1	22.4	0.00e+00	0	32	0	253755392	50	6494
2026-01-27 13:02:54.25	33.64	11.62	-39.0	-40.0	22.4	0.00e+00	0	32	0	255852544	50	6456
2026-01-27 13:02:55.26	33.76	11.69	-39.2	-40.2	22.4	0.00e+00	0	32	0	257949696	50	6589
2026-01-27 13:02:56.27	33.88	11.76	-38.9	-39.9	22.6	0.00e+00	0	32	0	258998272	50	6335
2026-01-27 13:02:57.28	34.00	11.84	-38.9	-39.8	22.6	0.00e+00	0	32	0	261095424	50	6312
2026-01-27 13:02:58.29	34.12	11.91	-38.8	-39.8	22.7	0.00e+00	0	32	0	263192576	50	6271
2026-01-27 13:02:59.30	34.24	11.98	-38.7	-39.6	22.8	0.00e+00	0	32	0	265289728	50	6162
2026-01-27 13:03:00.31	34.36	12.06	-38.7	-39.7	22.7	0.00e+00	0	32	0	267386880	50	6210
2026-01-27 13:03:01.32	34.48	12.13	-38.5	-39.5	23.0	0.00e+00	0	32	0	268435456	50	6041
2026-01-27 13:03:02.33	34.60	12.21	-38.5	-39.5	23.0	0.00e+00	0	32	0	270532608	50	6047
2026-01-27 13:03:03.34	34.72	12.28	-38.6	-39.6	22.9	0.00e+00	0	32	0	272629760	50	6144
2026-01-27 13:03:04.35	34.85	12.36	-38.6	-39.6	22.9	0.00e+00	0	32	0	274726912	50	6141
2026-01-27 13:03:05.36	34.97	12.43	-38.5	-39.5	23.0	0.00e+00	0	32	0	276824064	50	6075
2026-01-27 13:03:06.37	35.09	12.50	-38.6	-39.6	22.9	0.00e+00	0	32	0	277872640	50	6137
2026-01-27 13:03:07.38	35.22	12.58	-38.5	-39.5	23.0	0.00e+00	0	32	0	279969792	50	6070
2026-01-27 13:03:08.39	35.34	12.65	-38.5	-39.4	23.0	0.00e+00	0	32	0	282066944	50	6023
2026-01-27 13:03:09.40	35.47	12.73	-38.7	-39.7	22.8	0.00e+00	0	32	0	284164096	50	6195
2026-01-27 13:03:10.41	35.60	12.80	-38.5	-39.5	22.9	0.00e+00	0	32	0	286261248	50	6047
2026-01-27 13:03:11.42	35.72	12.88	-38.5	-39.4	23.0	0.00e+00	0	32	0	287309824	50	6009
2026-01-27 13:03:12.43	35.85	12.96	-38.5	-39.4	23.0	0.00e+00	0	32	0	289406976	50	6015
2026-01-27 13:03:13.44	35.98	13.03	-38.3	-39.3	23.1	0.00e+00	0	32	0	291504128	50	5922
2026-01-27 13:03:14.45	36.11	13.11	-38.5	-39.4	23.0	0.00e+00	0	32	0	293601280	50	6019
2026-01-27 13:03:15.46	36.24	13.18	-38.3	-39.3	23.2	0.00e+00	0	32	0	295698432	50	5910
2026-01-27 13:03:16.47	36.37	13.26	-38.2	-39.1	23.3	0.00e+00	0	32	0	296747008	50	5809
2026-01-27 13:03:17.48	36.50	13.33	-38.2	-39.1	23.3	0.00e+00	0	32	0	298844160	50	5804
2026-01-27 13:03:18.49	36.63	13.41	-38.3	-39.2	23.3	0.00e+00	0	32	0	300941312	50	5872
2026-01-27 13:03:19.50	36.77	13.49	-38.3	-39.3	23.2	0.00e+00	0	32	0	303038464	50	5916
2026-01-27 13:03:20.51	36.90	13.56	-38.3	-39.2	23.2	0.00e+00	0	32	0	305135616	50	5872
2026-01-27 13:03:21.52	37.03	13.64	-38.4	-39.3	23.2	0.00e+00	0	32	0	307232768	50	5933
2026-01-27 13:03:22.53	37.17	13.71	-38.4	-39.4	23.1	0.00e+00	0	32	0	308281344	50	5986
2026-01-27 13:03:23.54	37.30	13.79	-38.4	-39.4	23.1	0.00e+00	0	32	0	310378496	50	5998
2026-01-27 13:03:24.55	37.44	13.87	-38.5	-39.4	23.1	0.00e+00	0	32	0	312475648	50	6026
2026-01-27 13:03:25.56	37.57	13.94	-38.3	-39.2	23.3	0.00e+00	0	32	0	314572800	50	5887
2026-01-27 13:03:26.57	37.71	14.02	-38.3	-39.2	23.3	0.00e+00	0	32	0	316669952	50	5874
2026-01-27 13:03:27.58	37.85	14.10	-38.3	-39.2	23.2	0.00e+00	0	32	0	317718528	50	5850
2026-01-27 13:03:28.59	37.99	14.17	-38.3	-39.3	23.3	0.00e+00	0	32	0	319815680	50	5912
2026-01-27 13:03:29.60	38.13	14.25	-38.3	-39.2	23.3	0.00e+00	0	32	0	321912832	50	5859
2026-01-27 13:03:30.61	38.27	14.33	-38.2	-39.1	23.5	0.00e+00	0	32	0	324009984	50	5782
2026-01-27 13:03:31.62	38.41	14.41	-38.4	-39.3	23.2	0.00e+00	0	32	0	326107136	50	5949
2026-01-27 13:03:32.63	38.55	14.48	-38.4	-39.4	23.1	0.00e+00	0	32	0	327155712	50	5978
2026-01-27 13:03:33.63	38.69	14.56	-38.1	-39.1	23.4	0.00e+00	0	32	0	329252864	50	5767
2026-01-27 13:03:34.64	38.83	14.64	-38.0	-38.9	23.5	0.00e+00	0	32	0	331350016	50	5682
2026-01-27 13:03:35.65	38.98	14.71	-38.1	-39.0	23.4	0.00e+00	0	32	0	333447168	50	5722
2026-01-27 13:03:36.66	39.12	14.79	-38.0	-38.9	23.5	0.00e+00	0	32	0	335544320	50	5682
2026-01-27 13:03:37.67	39.27	14.87	-38.1	-39.0	23.3	0.00e+00	0	32	0	336592896	50	5753
2026-01-27 13:03:38.68	39.41	14.95	-38.0	-38.9	23.5	0.00e+00	0	32	0	338690048	50	5663
2026-01-27 13:03:39.69	39.56	15.03	-38.0	-38.9	22.6	0.00e+00	0	32	0	340787200	50	5687
2026-01-27 13:03:40.70	39.71	15.10	-38.2	-39.1	23.0	0.00e+00	0	32	0	342884352	50	5773
2026-01-27 13:03:41.71	39.85	15.18	-38.1	-39.0	23.4	0.00e+00	0	32	0	344981504	50	5744
2026-01-27 13:03:42.72	40.00	15.26	-38.0	-38.9	23.6	0.00e+00	0	32	0	346030080	50	5650
2026-01-27 13:03:43.73	40.15	15.34	-38.0	-38.9	23.5	0.00e+00	0	32	0	348127232	50	5665
2026-01-27 13:03:44.74	40.30	15.42	-38.0	-38.9	23.5	0.00e+00	0	32	0	350224384	50	5672
2026-01-27 13:03:45.75	40.45	15.50	-38.1	-39.0	23.5	0.00e+00	0	32	0	352321536	50	5759
2026-01-27 13:03:46.76	40.60	15.57	-38.1	-39.0	23.5	0.00e+00	0	32	0	354418688	50	5708
2026-01-27 13:03:47.77	40.76	15.65	-38.0	-38.9	23.6	0.00e+00	0	32	0	355467264	50	5636
2026-01-27 13:03:48.78	40.91	15.73	-37.9	-38.8	23.6	0.00e+00	0	32	0	357564416	50	5621
2026-01-27 13:03:49.79	41.06	15.81	-37.8	-38.7	23.7	0.00e+00	0	32	0	359661568	50	5552
2026-01-27 13:03:50.81	41.22	15.89	-37.8	-38.7	23.8	0.00e+00	0	32	0	361758720	50	5538
2026-01-27 13:03:51.82	41.38	15.97	-37.8	-38.7	23.7	0.00e+00	0	32	0	363855872	50	5518
2026-01-27 13:03:52.82	41.53	16.05	-37.7	-38.5	23.8	0.00e+00	0	32	0	364904448	48	6096
2026-01-27 13:03:53.83	41.69	16.12	-37.8	-38.6	23.8	0.00e+00	0	32	0	367001600	48	6163
2026-01-27 13:03:54.85	41.85	16.20	-37.7	-38.5	23.9	0.00e+00	0	32	0	369098752	48	6091
2026-01-27 13:03:55.85	42.00	16.28	-37.7	-38.5	23.9	0.00e+00	0	32	0	371195904	48	6084
2026-01-27 13:03:56.86	42.16	16.36	-37.7	-38.6	23.8	0.00e+00	0	32	0	373293056	48	6112
2026-01-27 13:03:57.87	42.32	16.44	-37.6	-38.4	24.0	0.00e+00	0	32	0	375390208	48	6029
2026-01-27 13:03:58.88	42.49	16.52	-37.7	-38.6	23.8	0.00e+00	0	32	0	376438784	48	6135
2026-01-27 13:03:59.89	42.65	16.60	-37.3	-38.2	24.2	0.00e+00	0	32	0	378535936	48	5837
2026-01-27 13:04:00.90	42.81	16.68	-37.4	-38.3	24.1	0.00e+00	0	32	0	380633088	48	5933
2026-01-27 13:04:01.91	42.97	16.76	-37.4	-38.3	24.1	0.00e+00	0	32	0	382730240	48	5918
2026-01-27 13:04:02.92	43.14	16.84	-37.4	-38.3	24.2	0.00e+00	0	32	0	384827392	48	5907
2026-01-27 13:04:03.93	43.30	16.92	-37.4	-38.3	24.2	0.00e+00	0	32	0	385875968	48	5917
2026-01-27 13:04:04.94	43.47	17.00	-37.5	-38.4	24.2	0.00e+00	0	32	0	387973120	48	5974
2026-01-27 13:04:05.95	43.64	17.07	-37.6	-38.5	24.0	0.00e+00	0	32	0	390070272	48	6039
2026-01-27 13:04:06.96	43.81	17.15	-37.5	-38.4	24.0	0.00e+00	0	32	0	392167424	48	5975
2026-01-27 13:04:07.96	43.97	17.23	-37.8	-38.7	23.9	0.00e+00	0	32	0	394264576	48	6182
2026-01-27 13:04:08.97	44.14	17.31	-37.7	-38.6	23.9	0.00e+00	0	32	0	395313152	48	6125
2026-01-27 13:04:09.98	44.31	17.39	-37.9	-38.8	23.7	0.00e+00	0	32	0	397410304	48	6283
2026-01-27 13:04:10.99	44.49	17.47	-37.8	-38.7	23.6	0.00e+00	0	32	0	399507456	48	6205
2026-01-27 13:04:12.00	44.66	17.55	-37.9	-38.8	23.6	0.00e+00	0	32	0	401604608	48	6272
2026-01-27 13:04:13.01	44.83	17.63	-37.8	-38.7	23.8	0.00e+00	0	32	0	403701760	48	6214
2026-01-27 13:04:14.02	45.00	17.71	-37.9	-38.8	23.7	0.00e+00	0	32	0	404750336	48	6246
2026-01-27 13:04:15.03	45.18	17.79	-38.1	-39.0	23.5	0.00e+00	0	32	0	406847488	48	6432
2026-01-27 13:04:16.04	45.36	17.87	-38.0	-38.8	23.6	0.00e+00	0	32	0	408944640	48	6317
2026-01-27 13:04:17.05	45.53	17.95	-37.8	-38.7	23.8	0.00e+00	0	32	0	411041792	48	6177
2026-01-27 13:04:18.06	45.71	18.03	-37.8	-38.7	23.8	0.00e+00	0	32	0	413138944	48	6217
2026-01-27 13:04:19.07	45.89	18.11	-37.9	-38.8	23.7	0.00e+00	0	32	0	414187520	48	6274
2026-01-27 13:04:20.08	46.07	18.19	-37.8	-38.7	23.7	0.00e+00	0	32	0	416284672	48	6222
2026-01-27 13:04:21.09	46.25	18.27	-37.7	-38.6	23.8	0.00e+00	0	32	0	418381824	48	6154
2026-01-27 13:04:22.10	46.43	18.35	-37.7	-38.6	23.9	0.00e+00	0	32	0	420478976	48	6153
2026-01-27 13:04:23.11	46.61	18.43	-37.6	-38.5	24.0	0.00e+00	0	32	0	422576128	48	6035
2026-01-27 13:04:24.12	46.80	18.51	-37.5	-38.4	24.0	0.00e+00	0	32	0	423624704	48	6008
2026-01-27 13:04:25.12	46.98	18.58	-37.5	-38.4	24.1	0.00e+00	0	32	0	425721856	48	5966
2026-01-27 13:04:26.13	47.16	18.66	-37.5	-38.3	24.1	0.00e+00	0	32	0	427819008	48	5945
2026-01-27 13:04:27.14	47.35	18.74	-37.5	-38.3	24.1	0.00e+00	0	32	0	429916160	48	5951
2026-01-27 13:04:28.15	47.54	18.82	-37.2	-38.0	24.4	0.00e+00	0	32	0	432013312	48	5759
2026-01-27 13:04:29.16	47.72	18.90	-37.1	-38.0	24.4	0.00e+00	0	32	0	433061888	48	5703
2026-01-27 13:04:30.17	47.91	18.98	-37.2	-38.0	24.3	0.00e+00	0	32	0	435159040	48	5723
2026-01-27 13:04:31.18	48.10	19.06	-37.1	-37.9	24.5	0.00e+00	0	32	0	437256192	48	5682
2026-01-27 13:04:32.19	48.29	19.14	-37.1	-37.9	24.5	0.00e+00	0	32	0	439353344	48	5661
2026-01-27 13:04:33.20	48.49	19.22	-36.8	-37.6	24.7	0.00e+00	0	32	0	441450496	48	5488
2026-01-27 13:04:34.21	48.68	19.30	-36.9	-37.7	24.6	0.00e+00	0	32	0	443547648	48	5540
2026-01-27 13:04:35.22	48.87	19.38	-36.8	-37.6	24.8	0.00e+00	0	32	0	444596224	46	6130
2026-01-27 13:04:36.23	49.07	19.46	-36.6	-37.4	24.9	0.00e+00	0	32	0	446693376	46	6012
2026-01-27 13:04:37.24	49.26	19.53	-36.6	-37.4	24.9	0.00e+00	0	32	0	448790528	46	6000
2026-01-27 13:04:38.25	49.46	19.61	-36.3	-37.1	24.8	0.00e+00	0	32	0	450887680	46	5803
2026-01-27 13:04:39.26	49.66	19.69	-36.4	-37.2	25.1	0.00e+00	0	32	0	452984832	46	5833
2026-01-27 13:04:40.27	49.86	19.77	-36.3	-37.1	25.2	0.00e+00	0	32	0	454033408	46	5774
2026-01-27 13:04:41.28	50.06	19.85	-36.3	-37.1	25.1	0.00e+00	0	32	0	456130560	46	5801
2026-01-27 13:04:42.29	50.26	19.93	-36.3	-37.0	25.2	0.00e+00	0	32	0	458227712	46	5746
2026-01-27 13:04:43.30	50.46	20.01	-36.4	-37.1	25.2	0.00e+00	0	32	0	460324864	46	5825
2026-01-27 13:04:44.31	50.66	20.08	-36.3	-37.1	25.2	0.00e+00	0	32	0	462422016	46	5768
2026-01-27 13:04:45.32	50.86	20.16	-36.3	-37.1	25.1	0.00e+00	0	32	0	463470592	46	5804
2026-01-27 13:04:46.33	51.07	20.24	-36.4	-37.1	25.0	0.00e+00	0	32	0	465567744	46	5818
2026-01-27 13:04:47.33	51.27	20.32	-36.3	-37.1	25.2	0.00e+00	0	32	0	467664896	46	5783
2026-01-27 13:04:48.34	51.48	20.40	-36.2	-37.0	25.2	0.00e+00	0	32	0	469762048	46	5719
2026-01-27 13:04:49.36	51.69	20.47	-36.3	-37.1	25.1	0.00e+00	0	32	0	471859200	46	5823
2026-01-27 13:04:50.36	51.90	20.55	-36.2	-37.0	25.2	0.00e+00	0	32	0	472907776	46	5732
2026-01-27 13:04:51.37	52.11	20.63	-36.3	-37.1	25.2	0.00e+00	0	32	0	475004928	46	5791
2026-01-27 13:04:52.38	52.32	20.71	-36.4	-37.1	25.0	0.00e+00	0	32	0	477102080	46	5828
2026-01-27 13:04:53.39	52.53	20.78	-36.3	-37.1	25.1	0.00e+00	0	32	0	479199232	46	5812
2026-01-27 13:04:54.40	52.74	20.86	-36.5	-37.3	25.0	0.00e+00	0	32	0	481296384	46	5948
2026-01-27 13:04:55.41	52.96	20.94	-36.3	-37.1	25.1	0.00e+00	0	32	0	482344960	46	5809
2026-01-27 13:04:56.42	53.17	21.01	-36.5	-37.3	24.9	0.00e+00	0	32	0	484442112	46	5940
2026-01-27 13:04:57.43	53.39	21.09	-36.4	-37.2	25.1	0.00e+00	0	32	0	486539264	46	5841
2026-01-27 13:04:58.44	53.60	21.17	-36.5	-37.3	25.1	0.00e+00	0	32	0	488636416	46	5915
2026-01-27 13:04:59.45	53.82	21.24	-36.3	-37.1	25.2	0.00e+00	0	32	0	490733568	46	5808
2026-01-27 13:05:00.46	54.04	21.32	-36.3	-37.1	25.2	0.00e+00	0	32	0	491782144	46	5808
2026-01-27 13:05:01.47	54.26	21.39	-36.4	-37.2	25.1	0.00e+00	0	32	0	493879296	46	5846
2026-01-27 13:05:02.48	54.48	21.47	-36.6	-37.4	24.9	0.00e+00	0	32	0	495976448	46	5980
2026-01-27 13:05:03.49	54.70	21.54	-36.6	-37.4	25.0	0.00e+00	0	32	0	498073600	46	5968
2026-01-27 13:05:04.50	54.93	21.62	-36.6	-37.4	24.9	0.00e+00	0	32	0	500170752	46	5971
2026-01-27 13:05:05.51	55.15	21.69	-36.7	-37.5	24.9	0.00e+00	0	32	0	501219328	46	6062
2026-01-27 13:05:06.52	55.38	21.77	-36.6	-37.4	24.9	0.00e+00	0	32	0	503316480	46	5998
2026-01-27 13:05:07.53	55.60	21.84	-36.7	-37.5	24.8	0.00e+00	0	32	0	505413632	46	6085
2026-01-27 13:05:08.54	55.83	21.92	-36.7	-37.5	24.9	0.00e+00	0	32	0	507510784	46	6059
2026-01-27 13:05:09.55	56.06	21.99	-36.8	-37.6	24.7	0.00e+00	0	32	0	509607936	46	6171
2026-01-27 13:05:10.56	56.29	22.07	-36.9	-37.8	24.6	0.00e+00	0	32	0	511705088	46	6247
2026-01-27 13:05:11.57	56.52	22.14	-37.0	-37.9	24.5	0.00e+00	0	32	0	512753664	46	6356
2026-01-27 13:05:12.58	56.75	22.21	-37.2	-38.0	24.4	0.00e+00	0	32	0	514850816	46	6449
2026-01-27 13:05:13.59	56.99	22.29	-37.2	-38.1	24.4	0.00e+00	0	32	0	516947968	46	6475
2026-01-27 13:05:14.60	57.22	22.36	-37.3	-38.2	24.3	0.00e+00	0	32	0	519045120	46	6556
2026-01-27 13:05:15.61	57.46	22.43	-37.3	-38.2	24.3	0.00e+00	0	32	0	521142272	46	6591
2026-01-27 13:05:16.62	57.69	22.50	-37.4	-38.3	24.2	0.00e+00	0	32	0	522190848	46	6658
2026-01-27 13:05:17.63	57.93	22.58	-37.5	-38.4	24.2	0.00e+00	0	32	0	524288000	46	6705
2026-01-27 13:05:18.64	58.17	22.65	-37.6	-38.5	24.0	0.00e+00	0	32	0	526385152	46	6779
2026-01-27 13:05:19.65	58.41	22.72	-37.6	-38.5	23.7	0.00e+00	0	32	0	528482304	46	6816
2026-01-27 13:05:20.66	58.65	22.79	-37.3	-38.1	24.2	0.00e+00	0	32	0	530579456	46	6504
2026-01-27 13:05:21.67	58.89	22.86	-37.4	-38.3	24.2	0.00e+00	0	32	0	531628032	46	6618
2026-01-27 13:05:22.68	59.13	22.93	-37.1	-38.0	24.5	0.00e+00	0	32	0	533725184	46	6400
2026-01-27 13:05:23.69	59.38	23.00	-37.3	-38.1	24.4	0.00e+00	0	32	0	535822336	46	6495
2026-01-27 13:05:24.70	59.62	23.07	-37.4	-38.2	24.3	0.00e+00	0	32	0	537919488	46	6596
2026-01-27 13:05:25.71	59.87	23.14	-37.3	-38.1	24.3	0.00e+00	0	32	0	540016640	46	6507
2026-01-27 13:05:26.72	60.11	23.21	-37.3	-38.2	24.3	0.00e+00	0	32	0	541065216	46	6565
2026-01-27 13:05:27.73	60.36	23.28	-37.3	-38.1	24.4	0.00e+00	0	32	0	543162368	46	6505
2026-01-27 13:05:28.74	60.61	23.35	-37.2	-38.1	24.4	0.00e+00	0	32	0	545259520	46	6468
2026-01-27 13:05:29.75	60.86	23.41	-37.3	-38.1	24.4	0.00e+00	0	32	0	547356672	46	6507
2026-01-27 13:05:30.76	61.11	23.48	-37.5	-38.3	24.1	0.00e+00	0	32	0	549453824	46	6664
2026-01-27 13:05:31.76	61.36	23.55	-37.4	-38.3	24.0	0.00e+00	0	32	0	550502400	46	6649
2026-01-27 13:05:32.77	61.62	23.61	-37.6	-38.4	24.0	0.00e+00	0	32	0	552599552	46	6757
2026-01-27 13:05:33.79	61.87	23.68	-37.7	-38.6	23.9	0.00e+00	0	32	0	554696704	46	6861
2026-01-27 13:05:34.79	62.13	23.75	-37.9	-38.8	23.7	0.00e+00	0	32	0	556793856	48	6278
2026-01-27 13:05:35.80	62.38	23.81	-38.1	-39.0	23.6	0.00e+00	0	32	0	558891008	48	6400
2026-01-27 13:05:36.81	62.64	23.88	-38.2	-39.2	23.4	0.00e+00	0	32	0	559939584	48	6545
2026-01-27 13:05:37.82	62.90	23.94	-38.4	-39.3	23.3	0.00e+00	0	32	0	562036736	48	6680
2026-01-27 13:05:38.83	63.16	24.01	-38.4	-39.3	23.3	0.00e+00	0	32	0	564133888	48	6644
2026-01-27 13:05:39.84	63.42	24.07	-38.6	-39.5	23.1	0.00e+00	0	32	0	566231040	48	6826
2026-01-27 13:05:40.85	63.68	24.13	-38.5	-39.4	23.2	0.00e+00	0	32	0	568328192	48	6726
2026-01-27 13:05:41.86	63.95	24.20	-38.6	-39.5	23.2	0.00e+00	0	32	0	569376768	48	6807
2026-01-27 13:05:42.87	64.21	24.26	-38.6	-39.5	23.1	0.00e+00	0	32	0	571473920	48	6848
2026-01-27 13:05:43.87	64.47	24.32	-38.6	-39.5	22.9	0.00e+00	0	32	0	573571072	48	6835
2026-01-27 13:05:44.88	64.74	24.38	-38.7	-39.6	23.0	0.00e+00	0	32	0	575668224	48	6922
2026-01-27 13:05:45.89	65.00	24.44	-38.8	-39.8	22.9	0.00e+00	0	32	0	577765376	50	6246
2026-01-27 13:05:46.90	65.27	24.50	-38.9	-39.9	22.7	0.00e+00	0	32	0	579862528	50	6383
2026-01-27 13:05:47.92	65.54	24.56	-39.1	-40.1	22.6	0.00e+00	0	32	0	580911104	50	6488
2026-01-27 13:05:48.93	65.81	24.62	-39.3	-40.3	22.4	0.00e+00	0	32	0	583008256	50	6640
2026-01-27 13:05:49.93	66.08	24.68	-39.4	-40.5	22.3	0.00e+00	0	32	0	585105408	50	6787
2026-01-27 13:05:50.95	66.36	24.74	-39.6	-40.6	22.2	0.00e+00	0	32	0	587202560	50	6899
2026-01-27 13:05:51.96	66.63	24.80	-39.7	-40.8	22.1	0.00e+00	0	32	0	589299712	50	7035
2026-01-27 13:05:52.97	66.90	24.86	-39.7	-40.8	22.0	0.00e+00	0	32	0	590348288	50	7031
2026-01-27 13:05:53.98	67.18	24.91	-39.3	-40.3	22.0	0.00e+00	0	32	0	592445440	50	6689
2026-01-27 13:05:54.99	67.46	24.97	-39.2	-40.2	22.3	0.00e+00	0	32	0	594542592	50	6573
2026-01-27 13:05:56.00	67.73	25.03	-39.0	-40.1	22.7	0.00e+00	0	32	0	596639744	50	6468
2026-01-27 13:05:57.01	68.01	25.08	-39.2	-40.2	22.6	0.00e+00	0	32	0	598736896	50	6556
2026-01-27 13:05:58.01	68.29	25.13	-39.3	-40.3	22.4	0.00e+00	0	32	0	599785472	50	6646
2026-01-27 13:05:59.03	68.57	25.19	-39.6	-40.6	22.2	0.00e+00	0	32	0	601882624	50	6903
2026-01-27 13:06:00.04	68.85	25.24	-39.9	-41.0	21.7	0.00e+00	0	32	0	603979776	52	6438
2026-01-27 13:06:01.04	69.13	25.29	-40.3	-41.5	21.3	0.00e+00	0	32	0	606076928	52	6839
2026-01-27 13:06:02.05	69.41	25.35	-40.8	-42.0	21.0	0.00e+00	0	32	0	608174080	52	7233
2026-01-27 13:06:03.06	69.69	25.40	-40.9	-42.2	20.6	0.00e+00	0	32	0	609222656	54	6590
2026-01-27 13:06:04.07	69.98	25.45	-41.0	-42.3	20.6	0.00e+00	0	32	0	611319808	54	6644
2026-01-27 13:06:05.08	70.26	25.50	-40.9	-42.2	20.8	0.00e+00	0	32	0	613416960	54	6556
2026-01-27 13:06:06.09	70.55	25.55	-40.5	-41.7	21.1	0.00e+00	0	32	0	615514112	54	6195
2026-01-27 13:06:07.10	70.84	25.60	-40.2	-41.3	21.5	0.00e+00	0	32	0	617611264	54	5930
2026-01-27 13:06:08.11	71.13	25.65	-40.1	-41.2	21.7	0.00e+00	0	32	0	618659840	54	5859
2026-01-27 13:06:09.12	71.41	25.69	-39.9	-41.0	21.8	0.00e+00	0	32	0	620756992	54	5705
2026-01-27 13:06:10.13	71.70	25.74	-39.7	-40.8	22.0	0.00e+00	0	32	0	622854144	52	6278
2026-01-27 13:06:11.14	71.99	25.79	-39.8	-40.9	21.9	0.00e+00	0	32	0	624951296	52	6359
2026-01-27 13:06:12.15	72.29	25.83	-40.0	-41.1	21.7	0.00e+00	0	32	0	627048448	52	6480
2026-01-27 13:06:13.16	72.58	25.88	-40.0	-41.2	21.7	0.00e+00	0	32	0	628097024	52	6547
2026-01-27 13:06:14.17	72.87	25.92	-40.1	-41.3	21.6	0.00e+00	0	32	0	630194176	52	6619
2026-01-27 13:06:15.18	73.16	25.96	-40.1	-41.3	21.4	0.00e+00	0	32	0	632291328	52	6656
2026-01-27 13:06:16.19	73.46	26.01	-40.0	-41.1	21.6	0.00e+00	0	32	0	634388480	52	6539
2026-01-27 13:06:17.20	73.75	26.05	-40.0	-41.1	21.7	0.00e+00	0	32	0	636485632	52	6473
2026-01-27 13:06:18.21	74.05	26.09	-40.0	-41.1	21.8	0.00e+00	0	32	0	637534208	52	6538
2026-01-27 13:06:19.22	74.35	26.13	-40.0	-41.1	21.7	0.00e+00	0	32	0	639631360	52	6536
2026-01-27 13:06:20.23	74.64	26.17	-39.8	-40.9	22.0	0.00e+00	0	32	0	641728512	52	6359
2026-01-27 13:06:21.23	74.94	26.21	-39.8	-40.9	21.9	0.00e+00	0	32	0	643825664	52	6369
2026-01-27 13:06:22.24	75.24	26.25	-39.9	-41.0	21.8	0.00e+00	0	32	0	645922816	52	6431
2026-01-27 13:06:23.25	75.54	26.28	-39.6	-40.6	22.2	0.00e+00	0	32	0	648019968	52	6152
2026-01-27 13:06:24.26	75.84	26.32	-39.7	-40.8	22.0	0.00e+00	0	32	0	649068544	52	6265
2026-01-27 13:06:25.27	76.14	26.36	-39.5	-40.6	22.2	0.00e+00	0	32	0	651165696	52	6112
2026-01-27 13:06:26.28	76.44	26.39	-39.2	-40.2	22.5	0.00e+00	0	32	0	653262848	52	5882
2026-01-27 13:06:27.30	76.75	26.43	-39.1	-40.1	22.7	0.00e+00	0	32	0	655360000	52	5813
2026-01-27 13:06:28.31	77.05	26.46	-38.6	-39.6	23.1	0.00e+00	0	32	0	657457152	50	6137
2026-01-27 13:06:29.32	77.35	26.49	-38.6	-39.5	23.2	0.00e+00	0	32	0	658505728	50	6087
2026-01-27 13:06:30.33	77.66	26.53	-38.5	-39.4	23.2	0.00e+00	0	32	0	660602880	50	6028
2026-01-27 13:06:31.34	77.96	26.56	-38.6	-39.6	23.1	0.00e+00	0	32	0	662700032	50	6128
2026-01-27 13:06:32.35	78.27	26.59	-38.7	-39.7	23.0	0.00e+00	0	32	0	664797184	50	6202
2026-01-27 13:06:33.36	78.58	26.62	-38.9	-39.9	22.8	0.00e+00	0	32	0	666894336	50	6334
2026-01-27 13:06:34.37	78.88	26.65	-39.0	-40.0	22.7	0.00e+00	0	32	0	667942912	50	6414
2026-01-27 13:06:35.38	79.19	26.67	-39.1	-40.1	22.6	0.00e+00	0	32	0	670040064	50	6518
2026-01-27 13:06:36.39	79.50	26.70	-39.2	-40.2	22.5	0.00e+00	0	32	0	672137216	50	6610
2026-01-27 13:06:37.40	79.81	26.73	-39.3	-40.3	22.4	0.00e+00	0	32	0	674234368	50	6633
2026-01-27 13:06:38.41	80.11	26.75	-39.5	-40.5	22.2	0.00e+00	0	32	0	676331520	50	6813
2026-01-27 13:06:39.42	80.42	26.78	-39.4	-40.5	22.3	0.00e+00	0	32	0	677380096	50	6798
2026-01-27 13:06:40.43	80.73	26.80	-39.5	-40.5	22.3	0.00e+00	0	32	0	679477248	50	6814
2026-01-27 13:06:41.44	81.04	26.82	-39.5	-40.6	22.2	0.00e+00	0	32	0	681574400	50	6849
2026-01-27 13:06:42.45	81.35	26.85	-39.5	-40.6	22.2	0.00e+00	0	32	0	683671552	50	6875
2026-01-27 13:06:43.46	81.66	26.87	-39.5	-40.5	22.1	0.00e+00	0	32	0	685768704	50	6832
2026-01-27 13:06:44.47	81.98	26.89	-39.4	-40.4	22.3	0.00e+00	0	32	0	686817280	50	6756
2026-01-27 13:06:45.48	82.29	26.91	-39.1	-40.1	22.7	0.00e+00	0	32	0	688914432	50	6483
2026-01-27 13:06:46.49	82.60	26.92	-39.2	-40.2	22.6	0.00e+00	0	32	0	691011584	50	6573
2026-01-27 13:06:47.50	82.91	26.94	-38.8	-39.7	22.9	0.00e+00	0	32	0	693108736	50	6236
2026-01-27 13:06:48.51	83.23	26.96	-38.8	-39.8	22.9	0.00e+00	0	32	0	695205888	50	6291
2026-01-27 13:06:49.52	83.54	26.97	-38.8	-39.8	22.9	0.00e+00	0	32	0	696254464	50	6270
2026-01-27 13:06:50.53	83.85	26.99	-38.5	-39.4	23.2	0.00e+00	0	32	0	698351616	50	6028
2026-01-27 13:06:51.54	84.17	27.00	-38.6	-39.5	23.1	0.00e+00	0	32	0	700448768	50	6068
2026-01-27 13:06:52.55	84.48	27.02	-38.6	-39.5	23.1	0.00e+00	0	32	0	702545920	50	6066
2026-01-27 13:06:53.56	84.79	27.03	-38.2	-39.2	23.4	0.00e+00	0	32	0	704643072	50	5844
2026-01-27 13:06:54.57	85.11	27.04	-38.5	-39.4	23.3	0.00e+00	0	32	0	705691648	50	6011
2026-01-27 13:06:55.58	85.42	27.05	-38.6	-39.5	23.2	0.00e+00	0	32	0	707788800	50	6083
2026-01-27 13:06:56.59	85.74	27.06	-38.5	-39.5	23.2	0.00e+00	0	32	0	709885952	50	6067
2026-01-27 13:06:57.60	86.05	27.07	-38.5	-39.5	23.1	0.00e+00	0	32	0	711983104	50	6069
2026-01-27 13:06:58.61	86.37	27.08	-38.4	-39.3	23.2	0.00e+00	0	32	0	714080256	50	5961
2026-01-27 13:06:59.62	86.68	27.08	-38.2	-39.1	23.6	0.00e+00	0	32	0	716177408	50	5787
2026-01-27 13:07:00.63	87.00	27.09	-38.1	-39.0	23.6	0.00e+00	0	32	0	717225984	50	5704
2026-01-27 13:07:01.64	87.31	27.09	-37.8	-38.7	23.7	0.00e+00	0	32	0	719323136	50	5518
2026-01-27 13:07:02.65	87.63	27.10	-37.5	-38.4	24.2	0.00e+00	0	32	0	721420288	48	5992
2026-01-27 13:07:03.66	87.95	27.10	-37.5	-38.4	24.1	0.00e+00	0	32	0	723517440	48	5987
2026-01-27 13:07:04.67	88.26	27.10	-37.7	-38.6	23.9	0.00e+00	0	32	0	725614592	48	6116
2026-01-27 13:07:05.68	88.58	27.10	-38.0	-38.8	23.7	0.00e+00	0	32	0	726663168	48	6311
2026-01-27 13:07:06.69	88.89	27.10	-38.3	-39.2	23.4	0.00e+00	0	32	0	728760320	48	6551
2026-01-27 13:07:07.70	89.21	27.10	-38.4	-39.4	23.2	0.00e+00	0	32	0	730857472	48	6714
2026-01-27 13:07:08.71	89.53	27.10	-38.5	-39.4	23.1	0.00e+00	0	32	0	732954624	48	6768
2026-01-27 13:07:09.72	89.84	27.10	-38.4	-39.3	23.3	0.00e+00	0	32	0	735051776	48	6656
2026-01-27 13:07:10.73	90.16	27.10	-38.2	-39.1	23.1	0.00e+00	0	32	0	736100352	48	6506
2026-01-27 13:07:11.74	90.47	27.09	-38.1	-39.0	23.5	0.00e+00	0	32	0	738197504	48	6446
2026-01-27 13:07:12.75	90.79	27.09	-38.2	-39.1	23.5	0.00e+00	0	32	0	740294656	48	6465
2026-01-27 13:07:13.76	91.10	27.08	-38.3	-39.3	23.2	0.00e+00	0	32	0	742391808	48	6647
2026-01-27 13:07:14.77	91.42	27.07	-38.7	-39.7	23.0	0.00e+00	0	32	0	744488960	48	6931
2026-01-27 13:07:15.78	91.74	27.07	-39.0	-40.0	22.6	0.00e+00	0	32	0	745537536	50	6426
2026-01-27 13:07:16.79	92.05	27.06	-39.5	-40.5	22.3	0.00e+00	0	32	0	747634688	50	6811
2026-01-27 13:07:17.80	92.37	27.05	-39.6	-40.7	22.1	0.00e+00	0	32	0	749731840	50	6952
2026-01-27 13:07:18.81	92.68	27.04	-39.8	-40.8	22.0	0.00e+00	0	32	0	751828992	52	6314
2026-01-27 13:07:19.82	93.00	27.03	-39.5	-40.6	22.1	0.00e+00	0	32	0	753926144	52	6115
2026-01-27 13:07:20.83	93.31	27.01	-39.3	-40.3	22.4	0.00e+00	0	32	0	754974720	52	5926
2026-01-27 13:07:21.84	93.62	27.00	-39.1	-40.1	22.5	0.00e+00	0	32	0	757071872	52	5814
2026-01-27 13:07:22.85	93.94	26.99	-38.8	-39.8	22.9	0.00e+00	0	32	0	759169024	52	5608
2026-01-27 13:07:23.86	94.25	26.97	-38.6	-39.6	23.1	0.00e+00	0	32	0	761266176	50	6116
2026-01-27 13:07:24.87	94.56	26.95	-38.4	-39.4	23.2	0.00e+00	0	32	0	763363328	50	5971
2026-01-27 13:07:25.88	94.88	26.94	-38.2	-39.2	23.5	0.00e+00	0	32	0	764411904	50	5847
2026-01-27 13:07:26.89	95.19	26.92	-38.2	-39.2	23.4	0.00e+00	0	32	0	766509056	50	5862
2026-01-27 13:07:27.90	95.50	26.90	-38.5	-39.5	23.2	0.00e+00	0	32	0	768606208	50	6050
2026-01-27 13:07:28.91	95.81	26.88	-38.7	-39.7	22.9	0.00e+00	0	32	0	770703360	50	6194
2026-01-27 13:07:29.92	96.13	26.86	-38.8	-39.8	22.9	0.00e+00	0	32	0	772800512	50	6298
2026-01-27 13:07:30.93	96.44	26.84	-38.8	-39.7	22.9	0.00e+00	0	32	0	773849088	50	6240
2026-01-27 13:07:31.93	96.75	26.82	-38.7	-39.7	23.0	0.00e+00	0	32	0	775946240	50	6211
2026-01-27 13:07:32.94	97.06	26.79	-38.5	-39.5	23.1	0.00e+00	0	32	0	778043392	50	6067
2026-01-27 13:07:33.95	97.37	26.77	-38.5	-39.5	23.2	0.00e+00	0	32	0	780140544	50	6055
2026-01-27 13:07:34.96	97.68	26.75	-38.5	-39.4	23.2	0.00e+00	0	32	0	782237696	50	5988
2026-01-27 13:07:35.97	97.98	26.72	-38.6	-39.5	23.1	0.00e+00	0	32	0	784334848	50	6101
2026-01-27 13:07:36.98	98.29	26.69	-38.3	-39.2	23.5	0.00e+00	0	32	0	785383424	50	5858
2026-01-27 13:07:37.99	98.60	26.67	-38.3	-39.2	23.4	0.00e+00	0	32	0	787480576	50	5870
2026-01-27 13:07:39.00	98.91	26.64	-38.4	-39.4	23.2	0.00e+00	0	32	0	789577728	50	5998
2026-01-27 13:07:40.01	99.22	26.61	-38.6	-39.6	23.1	0.00e+00	0	32	0	791674880	50	6129
2026-01-27 13:07:41.02	99.52	26.58	-38.4	-39.3	23.2	0.00e+00	0	32	0	793772032	50	5960
2026-01-27 13:07:42.03	99.83	26.55	-38.5	-39.4	23.1	0.00e+00	0	32	0	794820608	50	6022
2026-01-27 13:07:43.04	100.13	26.52	-38.4	-39.3	23.2	0.00e+00	0	32	0	796917760	50	5932
2026-01-27 13:07:44.05	100.44	26.49	-38.3	-39.2	23.4	0.00e+00	0	32	0	799014912	50	5879
2026-01-27 13:07:45.06	100.74	26.45	-38.3	-39.2	23.3	0.00e+00	0	32	0	801112064	50	5885
2026-01-27 13:07:46.07	101.04	26.42	-38.2	-39.1	23.5	0.00e+00	0	32	0	803209216	50	5806
2026-01-27 13:07:47.08	101.35	26.38	-37.8	-38.7	23.8	0.00e+00	0	32	0	804257792	50	5536
2026-01-27 13:07:48.09	101.65	26.35	-37.9	-38.7	23.7	0.00e+00	0	32	0	806354944	50	5551
2026-01-27 13:07:49.10	101.95	26.31	-37.8	-38.7	23.8	0.00e+00	0	32	0	808452096	48	6220
2026-01-27 13:07:50.11	102.25	26.27	-37.9	-38.8	23.7	0.00e+00	0	32	0	810549248	48	6268
2026-01-27 13:07:51.12	102.55	26.24	-37.7	-38.6	23.9	0.00e+00	0	32	0	812646400	48	6152
2026-01-27 13:07:52.13	102.85	26.20	-37.7	-38.6	23.8	0.00e+00	0	32	0	813694976	48	6162
2026-01-27 13:07:53.14	103.15	26.16	-37.2	-38.1	24.4	0.00e+00	0	32	0	815792128	48	5780
2026-01-27 13:07:54.15	103.45	26.12	-37.2	-38.0	24.4	0.00e+00	0	32	0	817889280	48	5735
2026-01-27 13:07:55.16	103.75	26.08	-37.2	-38.1	24.4	0.00e+00	0	32	0	819986432	48	5782
2026-01-27 13:07:56.17	104.04	26.04	-37.3	-38.1	24.4	0.00e+00	0	32	0	822083584	48	5798
2026-01-27 13:07:57.18	104.34	25.99	-37.2	-38.1	24.3	0.00e+00	0	32	0	823132160	48	5790
2026-01-27 13:07:58.19	104.63	25.95	-37.1	-37.9	24.5	0.00e+00	0	32	0	825229312	48	5647
2026-01-27 13:07:59.20	104.93	25.91	-37.0	-37.8	24.6	0.00e+00	0	32	0	827326464	48	5629
2026-01-27 13:08:00.21	105.22	25.86	-36.8	-37.6	24.7	0.00e+00	0	32	0	829423616	48	5500
2026-01-27 13:08:01.22	105.51	25.82	-37.0	-37.8	24.6	0.00e+00	0	32	0	831520768	48	5615
2026-01-27 13:08:02.23	105.81	25.77	-37.1	-38.0	24.5	0.00e+00	0	32	0	832569344	48	5718
2026-01-27 13:08:03.24	106.10	25.73	-37.1	-37.9	24.4	0.00e+00	0	32	0	834666496	48	5695
2026-01-27 13:08:04.25	106.39	25.68	-37.1	-38.0	24.5	0.00e+00	0	32	0	836763648	48	5711
2026-01-27 13:08:05.26	106.68	25.63	-36.9	-37.7	24.7	0.00e+00	0	32	0	838860800	48	5526
2026-01-27 13:08:06.27	106.96	25.58	-36.6	-37.4	25.0	0.00e+00	0	32	0	840957952	46	5974
2026-01-27 13:08:07.28	107.25	25.53	-36.5	-37.3	25.0	0.00e+00	0	32	0	842006528	46	5918
2026-01-27 13:08:08.29	107.54	25.48	-36.6	-37.4	24.9	0.00e+00	0	32	0	844103680	46	6022
2026-01-27 13:08:09.30	107.82	25.43	-36.8	-37.7	24.7	0.00e+00	0	32	0	846200832	46	6182
2026-01-27 13:08:10.31	108.11	25.38	-37.2	-38.0	24.4	0.00e+00	0	32	0	848297984	46	6445
2026-01-27 13:08:11.32	108.39	25.33	-37.3	-38.2	24.3	0.00e+00	0	32	0	850395136	46	6583
2026-01-27 13:08:12.33	108.68	25.28	-37.2	-38.1	24.4	0.00e+00	0	32	0	852492288	46	6509
2026-01-27 13:08:13.34	108.96	25.22	-37.4	-38.2	24.2	0.00e+00	0	32	0	853540864	46	6608
2026-01-27 13:08:14.35	109.24	25.17	-37.3	-38.1	24.3	0.00e+00	0	32	0	855638016	46	6525
2026-01-27 13:08:15.36	109.52	25.12	-37.0	-37.8	24.5	0.00e+00	0	32	0	857735168	46	6300
2026-01-27 13:08:16.37	109.80	25.06	-36.7	-37.6	24.8	0.00e+00	0	32	0	859832320	46	6113
2026-01-27 13:08:17.38	110.08	25.00	-36.7	-37.5	24.8	0.00e+00	0	32	0	861929472	46	6098
2026-01-27 13:08:18.39	110.35	24.95	-36.7	-37.6	24.7	0.00e+00	0	32	0	862978048	46	6107
2026-01-27 13:08:19.40	110.63	24.89	-36.8	-37.6	24.7	0.00e+00	0	32	0	865075200	46	6171
2026-01-27 13:08:20.41	110.91	24.84	-37.0	-37.8	24.1	0.00e+00	0	32	0	867172352	46	6312
2026-01-27 13:08:21.42	111.18	24.78	-37.1	-38.0	24.4	0.00e+00	0	32	0	869269504	46	6415
2026-01-27 13:08:22.43	111.45	24.72	-37.3	-38.1	24.3	0.00e+00	0	32	0	871366656	46	6523
2026-01-27 13:08:23.44	111.73	24.66	-37.4	-38.3	24.1	0.00e+00	0	32	0	872415232	46	6636
2026-01-27 13:08:24.45	112.00	24.60	-37.6	-38.5	24.0	0.00e+00	0	32	0	874512384	46	6829
2026-01-27 13:08:25.45	112.27	24.54	-37.8	-38.7	23.8	0.00e+00	0	32	0	876609536	48	6216
2026-01-27 13:08:26.46	112.54	24.48	-37.9	-38.8	23.8	0.00e+00	0	32	0	878706688	48	6252
2026-01-27 13:08:27.47	112.80	24.42	-37.8	-38.7	23.7	0.00e+00	0	32	0	880803840	48	6207
2026-01-27 13:08:28.48	113.07	24.36	-37.8	-38.7	23.3	0.00e+00	0	32	0	881852416	48	6182
2026-01-27 13:08:29.49	113.34	24.30	-37.6	-38.5	23.8	0.00e+00	0	32	0	883949568	48	6062
2026-01-27 13:08:30.51	113.61	24.23	-37.6	-38.4	24.0	0.00e+00	0	32	0	886046720	48	6032
2026-01-27 13:08:31.52	113.87	24.17	-37.3	-38.2	24.2	0.00e+00	0	32	0	888143872	48	5875
2026-01-27 13:08:32.53	114.13	24.11	-37.3	-38.2	24.1	0.00e+00	0	32	0	890241024	48	5866
2026-01-27 13:08:33.54	114.40	24.04	-37.6	-38.5	23.9	0.00e+00	0	32	0	891289600	48	6050
2026-01-27 13:08:34.55	114.66	23.98	-37.5	-38.4	24.1	0.00e+00	0	32	0	893386752	48	5992
2026-01-27 13:08:35.55	114.92	23.92	-37.7	-38.5	23.9	0.00e+00	0	32	0	895483904	48	6091
2026-01-27 13:08:36.56	115.18	23.85	-37.6	-38.5	24.0	0.00e+00	0	32	0	897581056	48	6074
2026-01-27 13:08:37.57	115.43	23.78	-37.7	-38.6	23.9	0.00e+00	0	32	0	899678208	48	6135
2026-01-27 13:08:38.58	115.69	23.72	-37.8	-38.7	23.7	0.00e+00	0	32	0	900726784	48	6229
2026-01-27 13:08:39.59	115.95	23.65	-37.8	-38.7	23.7	0.00e+00	0	32	0	902823936	48	6224
2026-01-27 13:08:40.60	116.20	23.59	-37.9	-38.8	23.6	0.00e+00	0	32	0	904921088	48	6316
2026-01-27 13:08:41.61	116.46	23.52	-37.8	-38.7	23.8	0.00e+00	0	32	0	907018240	48	6205
2026-01-27 13:08:42.62	116.71	23.45	-37.4	-38.3	24.1	0.00e+00	0	32	0	909115392	48	5914
2026-01-27 13:08:43.63	116.96	23.38	-37.4	-38.3	24.2	0.00e+00	0	32	0	910163968	48	5929
2026-01-27 13:08:44.64	117.21	23.31	-37.2	-38.0	24.4	0.00e+00	0	32	0	912261120	48	5751
2026-01-27 13:08:45.65	117.46	23.24	-37.2	-38.1	24.3	0.00e+00	0	32	0	914358272	48	5762
2026-01-27 13:08:46.66	117.71	23.18	-37.1	-38.0	24.4	0.00e+00	0	32	0	916455424	48	5724
2026-01-27 13:08:47.67	117.96	23.11	-37.3	-38.2	24.2	0.00e+00	0	32	0	918552576	48	5867
2026-01-27 13:08:48.68	118.20	23.04	-37.3	-38.2	24.1	0.00e+00	0	32	0	920649728	48	5890
2026-01-27 13:08:49.69	118.45	22.97	-37.4	-38.3	24.2	0.00e+00	0	32	0	921698304	48	5914
2026-01-27 13:08:50.70	118.69	22.90	-37.3	-38.2	24.2	0.00e+00	0	32	0	923795456	48	5848
2026-01-27 13:08:51.71	118.94	22.82	-37.4	-38.3	24.0	0.00e+00	0	32	0	925892608	48	5898
2026-01-27 13:08:52.73	119.18	22.75	-37.5	-38.4	24.0	0.00e+00	0	32	0	927989760	48	6019
2026-01-27 13:08:53.73	119.42	22.68	-37.7	-38.6	23.8	0.00e+00	0	32	0	930086912	48	6144
2026-01-27 13:08:54.74	119.66	22.61	-37.8	-38.7	23.7	0.00e+00	0	32	0	931135488	48	6211
2026-01-27 13:08:55.75	119.90	22.54	-37.8	-38.7	23.8	0.00e+00	0	32	0	933232640	48	6226
2026-01-27 13:08:56.76	120.14	22.47	-37.7	-38.6	23.9	0.00e+00	0	32	0	935329792	48	6131
2026-01-27 13:08:57.77	120.37	22.39	-37.4	-38.2	24.1	0.00e+00	0	32	0	937426944	48	5895
2026-01-27 13:08:58.78	120.61	22.32	-37.2	-38.0	24.4	0.00e+00	0	32	0	939524096	48	5738
2026-01-27 13:08:59.79	120.84	22.25	-37.2	-38.1	24.2	0.00e+00	0	32	0	940572672	48	5792
2026-01-27 13:09:00.80	121.08	22.17	-37.3	-38.2	24.1	0.00e+00	0	32	0	942669824	48	5840
2026-01-27 13:09:01.81	121.31	22.10	-37.6	-38.5	23.9	0.00e+00	0	32	0	944766976	48	6035
2026-01-27 13:09:02.82	121.54	22.02	-37.7	-38.6	23.8	0.00e+00	0	32	0	946864128	48	6134
2026-01-27 13:09:03.83	121.77	21.95	-37.7	-38.6	23.8	0.00e+00	0	32	0	948961280	48	6129
2026-01-27 13:09:04.84	122.00	21.88	-37.6	-38.5	23.8	0.00e+00	0	32	0	950009856	48	6096
2026-01-27 13:09:05.85	122.23	21.80	-37.7	-38.6	23.8	0.00e+00	0	32	0	952107008	48	6123
2026-01-27 13:09:06.86	122.46	21.73	-37.7	-38.6	23.8	0.00e+00	0	32	0	954204160	48	6126
2026-01-27 13:09:07.87	122.68	21.65	-37.9	-38.8	23.5	0.00e+00	0	32	0	956301312	48	6264
2026-01-27 13:09:08.87	122.90	21.58	-38.5	-39.4	23.1	0.00e+00	0	32	0	958398464	48	6749
2026-01-27 13:09:09.89	123.13	21.50	-38.9	-40.0	22.6	0.00e+00	0	32	0	959447040	50	6394
2026-01-27 13:09:10.90	123.35	21.42	-39.1	-40.2	22.4	0.00e+00	0	32	0	961544192	50	6614
2026-01-27 13:09:11.91	123.58	21.35	-39.1	-40.2	22.4	0.00e+00	0	32	0	963641344	50	6607
2026-01-27 13:09:12.92	123.80	21.27	-38.9	-39.9	22.7	0.00e+00	0	32	0	965738496	50	6382
2026-01-27 13:09:13.93	124.02	21.19	-38.6	-39.6	22.9	0.00e+00	0	32	0	967835648	50	6156
2026-01-27 13:09:14.93	124.23	21.12	-38.6	-39.6	23.0	0.00e+00	0	32	0	968884224	50	6121
2026-01-27 13:09:15.95	124.45	21.04	-38.2	-39.2	23.3	0.00e+00	0	32	0	970981376	50	5836
2026-01-27 13:09:16.95	124.67	20.96	-38.6	-39.6	22.9	0.00e+00	0	32	0	973078528	50	6119
2026-01-27 13:09:17.96	124.88	20.89	-38.9	-39.9	22.5	0.00e+00	0	32	0	975175680	50	6381
2026-01-27 13:09:18.97	125.10	20.81	-39.1	-40.2	22.4	0.00e+00	0	32	0	977272832	50	6557
2026-01-27 13:09:19.98	125.31	20.73	-39.1	-40.2	22.4	0.00e+00	0	32	0	978321408	50	6574
2026-01-27 13:09:20.99	125.52	20.65	-39.1	-40.1	22.4	0.00e+00	0	32	0	980418560	50	6502
2026-01-27 13:09:22.00	125.73	20.58	-38.8	-39.8	22.6	0.00e+00	0	32	0	982515712	50	6310
2026-01-27 13:09:23.01	125.94	20.50	-38.1	-39.0	23.5	0.00e+00	0	32	0	984612864	50	5724
2026-01-27 13:09:24.02	126.15	20.42	-38.0	-38.9	23.5	0.00e+00	0	32	0	986710016	50	5687
2026-01-27 13:09:25.03	126.36	20.34	-38.1	-39.0	23.4	0.00e+00	0	32	0	988807168	50	5735
2026-01-27 13:09:26.04	126.57	20.26	-38.3	-39.3	23.2	0.00e+00	0	32	0	989855744	50	5918
2026-01-27 13:09:27.05	126.77	20.19	-38.7	-39.7	22.9	0.00e+00	0	32	0	991952896	50	6174
2026-01-27 13:09:28.06	126.98	20.11	-38.7	-39.7	22.9	0.00e+00	0	32	0	994050048	50	6200
2026-01-27 13:09:29.07	127.18	20.03	-38.5	-39.5	23.0	0.00e+00	0	32	0	996147200	50	6047
2026-01-27 13:09:30.08	127.39	19.95	-38.2	-39.2	23.3	0.00e+00	0	32	0	998244352	50	5857
2026-01-27 13:09:31.09	127.59	19.87	-38.3	-39.2	23.3	0.00e+00	0	32	0	999292928	50	5872
2026-01-27 13:09:32.10	127.79	19.79	-37.9	-38.8	23.6	0.00e+00	0	32	0	1001390080	50	5626
2026-01-27 13:09:33.11	127.99	19.71	-38.2	-39.1	23.4	0.00e+00	0	32	0	1003487232	50	5782
2026-01-27 13:09:34.12	128.19	19.63	-38.7	-39.7	22.8	0.00e+00	0	32	0	1005584384	50	6196
2026-01-27 13:09:35.13	128.39	19.55	-39.1	-40.1	22.3	0.00e+00	0	32	0	1007681536	50	6517
2026-01-27 13:09:36.14	128.58	19.47	-39.5	-40.7	22.0	0.00e+00	0	32	0	1008730112	50	6930
2026-01-27 13:09:37.15	128.78	19.39	-39.4	-40.5	22.0	0.00e+00	0	32	0	1010827264	50	6833
2026-01-27 13:09:38.16	128.97	19.31	-39.3	-40.4	22.4	0.00e+00	0	32	0	1012924416	50	6735
2026-01-27 13:09:39.17	129.17	19.24	-38.7	-39.7	22.8	0.00e+00	0	32	0	1015021568	50	6220
2026-01-27 13:09:40.18	129.36	19.16	-38.2	-39.2	23.4	0.00e+00	0	32	0	1017118720	50	5845
2026-01-27 13:09:41.19	129.55	19.08	-37.9	-38.8	23.5	0.00e+00	0	32	0	1018167296	50	5614
2026-01-27 13:09:42.20	129.74	19.00	-37.9	-38.8	23.6	0.00e+00	0	32	0	1020264448	50	5579
2026-01-27 13:09:43.21	129.93	18.92	-38.2	-39.1	23.2	0.00e+00	0	32	0	1022361600	50	5814
2026-01-27 13:09:44.22	130.12	18.84	-38.6	-39.6	22.9	0.00e+00	0	32	0	1024458752	50	6144
2026-01-27 13:09:45.24	130.31	18.76	-39.1	-40.1	22.4	0.00e+00	0	32	0	1026555904	50	6526
2026-01-27 13:09:46.24	130.50	18.68	-39.4	-40.5	22.1	0.00e+00	0	32	0	1028653056	50	6781
2026-01-27 13:09:47.26	130.69	18.60	-39.3	-40.3	22.2	0.00e+00	0	32	0	1029701632	50	6674
2026-01-27 13:09:48.26	130.87	18.52	-39.1	-40.2	22.3	0.00e+00	0	32	0	1031798784	50	6579
2026-01-27 13:09:49.27	131.06	18.44	-39.0	-40.0	22.5	0.00e+00	0	32	0	1033895936	50	6411
2026-01-27 13:09:50.28	131.24	18.36	-38.8	-39.8	22.6	0.00e+00	0	32	0	1035993088	50	6294
2026-01-27 13:09:51.29	131.42	18.28	-38.5	-39.5	23.0	0.00e+00	0	32	0	1038090240	50	6034
2026-01-27 13:09:52.30	131.60	18.20	-38.2	-39.1	23.4	0.00e+00	0	32	0	1039138816	50	5810
2026-01-27 13:09:53.31	131.78	18.12	-38.2	-39.1	23.3	0.00e+00	0	32	0	1041235968	50	5799
2026-01-27 13:09:54.32	131.96	18.04	-38.4	-39.4	23.0	0.00e+00	0	32	0	1043333120	50	5985
2026-01-27 13:09:55.33	132.14	17.96	-38.4	-39.4	23.1	0.00e+00	0	32	0	1045430272	50	5992
2026-01-27 13:09:56.34	132.32	17.88	-38.6	-39.5	23.0	0.00e+00	0	32	0	1047527424	50	6098
2026-01-27 13:09:57.35	132.50	17.80	-38.2	-39.2	23.2	0.00e+00	0	32	0	1048576000	50	5839
2026-01-27 13:09:58.36	132.67	17.72	-38.3	-39.3	23.2	0.00e+00	0	32	0	1050673152	50	5899
2026-01-27 13:09:59.37	132.85	17.64	-37.9	-38.9	23.6	0.00e+00	0	32	0	1052770304	50	5633
2026-01-27 13:10:00.38	133.02	17.55	-37.9	-38.9	23.6	0.00e+00	0	32	0	1054867456	50	5643
2026-01-27 13:10:01.39	133.20	17.47	-37.9	-38.9	23.6	0.00e+00	0	32	0	1056964608	50	5634
2026-01-27 13:10:02.40	133.37	17.39	-38.1	-39.0	23.4	0.00e+00	0	32	0	1058013184	50	5716
2026-01-27 13:10:03.41	133.54	17.31	-38.2	-39.1	23.3	0.00e+00	0	32	0	1060110336	50	5786
2026-01-27 13:10:04.42	133.71	17.23	-38.4	-39.3	23.1	0.00e+00	0	32	0	1062207488	50	5946
2026-01-27 13:10:05.43	133.88	17.15	-38.3	-39.3	23.1	0.00e+00	0	32	0	1064304640	50	5900
2026-01-27 13:10:06.45	134.05	17.07	-38.4	-39.3	23.1	0.00e+00	0	32	0	1066401792	50	5963
2026-01-27 13:10:07.45	134.22	16.99	-38.3	-39.2	22.8	0.00e+00	0	32	0	1067450368	50	5873
2026-01-27 13:10:08.46	134.39	16.91	-38.2	-39.2	23.1	0.00e+00	0	32	0	1069547520	50	5838
2026-01-27 13:10:09.47	134.55	16.83	-38.2	-39.2	23.1	0.00e+00	0	32	0	1071644672	50	5840
2026-01-27 13:10:10.48	134.72	16.75	-37.7	-38.6	23.7	0.00e+00	0	32	0	1073741824	48	6124
2026-01-27 13:10:11.49	134.88	16.67	-37.6	-38.5	23.8	0.00e+00	0	32	0	1075838976	48	6054
2026-01-27 13:10:12.50	135.05	16.59	-37.5	-38.4	23.7	0.00e+00	0	32	0	1076887552	48	6007
2026-01-27 13:10:13.51	135.21	16.52	-37.6	-38.5	23.8	0.00e+00	0	32	0	1078984704	48	6091
2026-01-27 13:10:14.52	135.37	16.44	-37.8	-38.6	23.6	0.00e+00	0	32	0	1081081856	48	6171
2026-01-27 13:10:15.53	135.53	16.36	-37.7	-38.5	23.7	0.00e+00	0	32	0	1083179008	48	6098
2026-01-27 13:10:16.54	135.69	16.28	-37.8	-38.7	23.5	0.00e+00	0	32	0	1085276160	48	6226
2026-01-27 13:10:17.55	135.85	16.20	-37.8	-38.7	23.6	0.00e+00	0	32	0	1086324736	48	6211
2026-01-27 13:10:18.57	136.01	16.12	-37.9	-38.8	23.5	0.00e+00	0	32	0	1088421888	48	6289
2026-01-27 13:10:19.57	136.17	16.04	-37.8	-38.7	23.7	0.00e+00	0	32	0	1090519040	48	6184
2026-01-27 13:10:20.59	136.33	15.96	-37.7	-38.6	23.6	0.00e+00	0	32	0	1092616192	48	6167
2026-01-27 13:10:21.60	136.49	15.88	-37.7	-38.6	23.7	0.00e+00	0	32	0	1094713344	48	6151
2026-01-27 13:10:22.61	136.64	15.80	-37.8	-38.7	23.7	0.00e+00	0	32	0	1096810496	48	6207
2026-01-27 13:10:23.61	136.79	15.72	-37.6	-38.5	23.7	0.00e+00	0	32	0	1097859072	48	6098
2026-01-27 13:10:24.62	136.95	15.64	-37.6	-38.5	23.8	0.00e+00	0	32	0	1099956224	48	6040
2026-01-27 13:10:25.63	137.10	15.56	-37.4	-38.3	23.9	0.00e+00	0	32	0	1102053376	48	5936
2026-01-27 13:10:26.64	137.25	15.48	-37.5	-38.4	23.9	0.00e+00	0	32	0	1104150528	48	6004
2026-01-27 13:10:27.65	137.41	15.40	-37.6	-38.5	23.8	0.00e+00	0	32	0	1106247680	48	6058
2026-01-27 13:10:28.66	137.56	15.32	-37.6	-38.5	23.7	0.00e+00	0	32	0	1107296256	48	6097
2026-01-27 13:10:29.67	137.71	15.25	-37.9	-38.8	23.5	0.00e+00	0	32	0	1109393408	48	6278
2026-01-27 13:10:30.68	137.86	15.17	-38.0	-38.9	23.4	0.00e+00	0	32	0	1111490560	48	6351
2026-01-27 13:10:31.69	138.01	15.09	-38.0	-38.9	23.4	0.00e+00	0	32	0	1113587712	48	6385
2026-01-27 13:10:32.70	138.15	15.01	-38.2	-39.1	23.3	0.00e+00	0	32	0	1115684864	48	6513
2026-01-27 13:10:33.71	138.30	14.93	-38.2	-39.1	23.2	0.00e+00	0	32	0	1116733440	48	6535
2026-01-27 13:10:34.72	138.45	14.85	-38.2	-39.2	23.2	0.00e+00	0	32	0	1118830592	48	6553
2026-01-27 13:10:35.73	138.59	14.77	-38.3	-39.3	23.1	0.00e+00	0	32	0	1120927744	48	6623
2026-01-27 13:10:36.74	138.74	14.70	-38.4	-39.4	22.9	0.00e+00	0	32	0	1123024896	48	6713
2026-01-27 13:10:37.75	138.88	14.62	-38.2	-39.2	23.1	0.00e+00	0	32	0	1125122048	48	6580
2026-01-27 13:10:38.75	139.02	14.54	-38.3	-39.3	23.1	0.00e+00	0	32	0	1126170624	48	6622
2026-01-27 13:10:39.76	139.17	14.46	-38.1	-39.0	23.3	0.00e+00	0	32	0	1128267776	48	6451
2026-01-27 13:10:40.78	139.31	14.38	-37.9	-38.8	23.5	0.00e+00	0	32	0	1130364928	48	6290
2026-01-27 13:10:41.78	139.45	14.31	-38.0	-39.0	23.3	0.00e+00	0	32	0	1132462080	48	6413
2026-01-27 13:10:42.79	139.59	14.23	-38.1	-39.0	23.3	0.00e+00	0	32	0	1134559232	48	6410
2026-01-27 13:10:43.80	139.73	14.15	-38.1	-39.1	23.1	0.00e+00	0	32	0	1135607808	48	6496
2026-01-27 13:10:44.81	139.87	14.07	-38.2	-39.1	23.2	0.00e+00	0	32	0	1137704960	48	6519
2026-01-27 13:10:45.82	140.01	14.00	-38.1	-39.1	23.2	0.00e+00	0	32	0	1139802112	48	6471
2026-01-27 13:10:46.83	140.15	13.92	-38.2	-39.1	23.1	0.00e+00	0	32	0	1141899264	48	6506
2026-01-27 13:10:47.85	140.28	13.84	-38.2	-39.1	23.1	0.00e+00	0	32	0	1143996416	48	6520
2026-01-27 13:10:48.86	140.42	13.76	-38.3	-39.2	22.9	0.00e+00	0	32	0	1145044992	48	6599
2026-01-27 13:10:49.86	140.56	13.69	-38.5	-39.5	22.7	0.00e+00	0	32	0	1147142144	48	6784
2026-01-27 13:10:50.87	140.69	13.61	-38.6	-39.6	22.5	0.00e+00	0	32	0	1149239296	48	6914
2026-01-27 13:10:51.88	140.82	13.53	-38.7	-39.7	22.3	0.00e+00	0	32	0	1151336448	48	6987
2026-01-27 13:10:52.89	140.96	13.46	-39.0	-40.1	22.0	0.00e+00	0	32	0	1153433600	50	6524
2026-01-27 13:10:53.90	141.09	13.38	-39.2	-40.3	21.6	0.00e+00	0	32	0	1154482176	50	6685
2026-01-27 13:10:54.91	141.22	13.30	-39.4	-40.5	21.5	0.00e+00	0	32	0	1156579328	50	6846
2026-01-27 13:10:55.92	141.36	13.23	-39.8	-41.0	21.0	0.00e+00	0	32	0	1158676480	52	6453
2026-01-27 13:10:56.93	141.49	13.15	-39.9	-41.2	20.9	0.00e+00	0	32	0	1160773632	52	6558
2026-01-27 13:10:57.94	141.62	13.07	-40.0	-41.3	20.7	0.00e+00	0	32	0	1162870784	52	6658
2026-01-27 13:10:58.95	141.75	13.00	-40.2	-41.5	20.6	0.00e+00	0	32	0	1164967936	52	6822
2026-01-27 13:10:59.96	141.88	12.92	-40.2	-41.4	20.7	0.00e+00	0	32	0	1166016512	52	6754
2026-01-27 13:11:00.97	142.00	12.85	-40.3	-41.6	20.5	0.00e+00	0	32	0	1168113664	52	6877
2026-01-27 13:11:01.98	142.13	12.77	-40.3	-41.7	20.4	0.00e+00	0	32	0	1170210816	52	6928
2026-01-27 13:11:02.99	142.26	12.69	-40.3	-41.7	20.5	0.00e+00	0	32	0	1172307968	52	6931
2026-01-27 13:11:04.00	142.39	12.62	-40.2	-41.5	20.6	0.00e+00	0	32	0	1174405120	52	6819
2026-01-27 13:11:05.01	142.51	12.54	-40.3	-41.6	20.5	0.00e+00	0	32	0	1175453696	52	6897
2026-01-27 13:11:06.02	142.64	12.47	-40.3	-41.5	20.6	0.00e+00	0	32	0	1177550848	52	6839
2026-01-27 13:11:07.03	142.76	12.39	-40.1	-41.4	20.8	0.00e+00	0	32	0	1179648000	52	6702
2026-01-27 13:11:08.04	142.89	12.32	-40.1	-41.3	20.8	0.00e+00	0	32	0	1181745152	52	6685
2026-01-27 13:11:09.05	143.01	12.24	-40.0	-41.3	20.9	0.00e+00	0	32	0	1183842304	52	6650
2026-01-27 13:11:10.06	143.13	12.17	-40.0	-41.3	20.9	0.00e+00	0	32	0	1184890880	52	6633
2026-01-27 13:11:11.07	143.25	12.09	-40.0	-41.2	21.0	0.00e+00	0	32	0	1186988032	52	6559
2026-01-27 13:11:12.08	143.38	12.02	-40.0	-41.2	20.9	0.00e+00	0	32	0	1189085184	52	6583
2026-01-27 13:11:13.09	143.50	11.94	-40.1	-41.3	20.8	0.00e+00	0	32	0	1191182336	52	6663
2026-01-27 13:11:14.10	143.62	11.87	-40.2	-41.5	20.7	0.00e+00	0	32	0	1193279488	52	6790
2026-01-27 13:11:15.11	143.74	11.79	-39.9	-41.1	21.1	0.00e+00	0	32	0	1194328064	52	6519
2026-01-27 13:11:16.12	143.86	11.72	-40.0	-41.2	20.9	0.00e+00	0	32	0	1196425216	52	6615
2026-01-27 13:11:17.14	143.98	11.64	-40.1	-41.4	20.8	0.00e+00	0	32	0	1198522368	52	6699
2026-01-27 13:11:18.14	144.09	11.57	-40.0	-41.3	20.9	0.00e+00	0	32	0	1200619520	52	6629
2026-01-27 13:11:19.16	144.21	11.50	-40.0	-41.2	21.0	0.00e+00	0	32	0	1202716672	52	6604
2026-01-27 13:11:20.17	144.33	11.42	-40.0	-41.2	21.0	0.00e+00	0	32	0	1203765248	52	6559
2026-01-27 13:11:21.18	144.45	11.35	-39.8	-40.9	21.2	0.00e+00	0	32	0	1205862400	52	6386
2026-01-27 13:11:22.19	144.56	11.27	-39.9	-41.1	21.1	0.00e+00	0	32	0	1207959552	52	6521
2026-01-27 13:11:23.20	144.68	11.20	-39.6	-40.8	21.3	0.00e+00	0	32	0	1210056704	52	6277
2026-01-27 13:11:24.21	144.79	11.13	-39.6	-40.7	21.4	0.00e+00	0	32	0	1212153856	52	6236
2026-01-27 13:11:25.22	144.91	11.05	-39.6	-40.7	21.5	0.00e+00	0	32	0	1213202432	52	6231
2026-01-27 13:11:26.23	145.02	10.98	-39.7	-40.8	21.4	0.00e+00	0	32	0	1215299584	52	6271
2026-01-27 13:11:27.24	145.13	10.91	-39.6	-40.8	21.5	0.00e+00	0	32	0	1217396736	52	6255
2026-01-27 13:11:28.25	145.25	10.84	-39.7	-40.8	21.5	0.00e+00	0	32	0	1219493888	52	6293
2026-01-27 13:11:29.26	145.36	10.76	-39.5	-40.6	21.6	0.00e+00	0	32	0	1221591040	52	6145
