passes_logs/2026/01/27/R4.6S_Anadyr/R4.6S_Anadyr__20260127_144015_NOAA_20_JPSS-1_rec.log

#Pass ID: 20260127_144015_NOAA 20 (JPSS-1)
#Satellite: NOAA 20 (JPSS-1)
#Configuration: NOAA 20
#almurnet v.1.7.20251203
#Start time: 2026-01-27 14:40:17

#Version: 2.2.20231116
#Station: R4.6S_Anadyr
#Location: 177.4865 lon 64.73178 lat
#TLE: 1 43013U 17073A   26026.81907703  .00000149  00000+0  91399-4 0  9998
#TLE: 2 43013  98.7647 327.6343 0000991  22.4130 337.7089 14.19540778424411

#Time	Az	El	Level	Level2	SNR	BER	BlckErr	Temp	State	Recorded	gain1	gain2
2026-01-27 14:40:17.53	20.40	0.10	-48.9	-63.8	3.5	1.51e+00	0	30	0	0	60	56020
2026-01-27 14:40:18.54	20.41	0.17	-48.9	-64.1	3.6	1.51e+00	0	31	104	0	60	57923
2026-01-27 14:40:19.55	20.42	0.23	-48.9	-64.1	3.6	1.51e+00	0	31	104	0	60	57896
2026-01-27 14:40:20.56	20.42	0.29	-48.9	-64.1	3.6	1.51e+00	0	31	104	0	60	58132
2026-01-27 14:40:21.57	20.43	0.35	-48.9	-64.1	3.6	1.51e+00	0	31	104	0	60	57920
2026-01-27 14:40:22.58	20.44	0.41	-49.0	-64.1	3.6	1.51e+00	0	31	104	0	60	58174
2026-01-27 14:40:23.59	20.44	0.47	-48.9	-64.1	3.6	1.51e+00	0	31	104	0	60	58048
2026-01-27 14:40:24.60	20.45	0.53	-48.9	-64.1	3.6	1.51e+00	0	31	104	0	60	58215
2026-01-27 14:40:25.61	20.46	0.59	-48.9	-64.2	3.6	1.51e+00	0	31	104	0	60	58545
2026-01-27 14:40:26.62	20.46	0.65	-49.0	-64.2	3.6	1.51e+00	0	31	104	0	60	58451
2026-01-27 14:40:27.63	20.47	0.71	-49.0	-64.2	3.6	1.51e+00	0	31	104	0	60	58397
2026-01-27 14:40:28.64	20.47	0.78	-49.0	-64.2	3.6	1.51e+00	0	31	104	0	60	58478
2026-01-27 14:40:29.65	20.48	0.84	-49.0	-64.2	3.6	1.51e+00	0	31	104	0	60	58426
2026-01-27 14:40:30.65	20.49	0.90	-48.9	-64.1	3.6	1.51e+00	0	31	104	0	60	58095
2026-01-27 14:40:31.67	20.49	0.96	-48.9	-64.1	3.6	1.51e+00	0	31	104	0	60	58072
2026-01-27 14:40:32.68	20.50	1.02	-48.8	-64.0	3.6	1.51e+00	0	32	104	0	60	57330
2026-01-27 14:40:33.69	20.51	1.09	-48.7	-63.9	3.6	1.51e+00	0	32	104	0	60	56815
2026-01-27 14:40:34.69	20.51	1.15	-48.7	-63.9	3.6	1.51e+00	0	31	104	0	60	56516
2026-01-27 14:40:35.70	20.52	1.21	-48.6	-63.7	3.6	1.51e+00	0	32	104	0	60	55531
2026-01-27 14:40:36.72	20.53	1.27	-48.4	-63.6	3.5	1.51e+00	0	32	104	0	60	54759
2026-01-27 14:40:37.72	20.53	1.34	-48.4	-63.6	3.6	1.51e+00	0	32	104	0	60	54482
2026-01-27 14:40:38.73	20.54	1.40	-48.2	-63.4	3.6	1.51e+00	0	32	104	0	60	53672
2026-01-27 14:40:39.75	20.54	1.46	-48.0	-63.2	3.6	1.51e+00	0	32	104	0	60	52546
2026-01-27 14:40:40.76	20.55	1.53	-47.9	-63.1	3.6	1.51e+00	0	32	104	0	60	51374
2026-01-27 14:40:41.77	20.56	1.59	-47.6	-62.8	3.6	1.51e+00	0	32	104	0	60	49677
2026-01-27 14:40:42.78	20.56	1.65	-47.5	-62.5	3.6	1.51e+00	0	32	104	0	60	48188
2026-01-27 14:40:43.79	20.57	1.72	-47.5	-62.6	3.6	1.51e+00	0	32	104	0	60	48527
2026-01-27 14:40:44.80	20.58	1.78	-47.5	-62.6	3.6	1.51e+00	0	32	104	0	60	48958
2026-01-27 14:40:45.81	20.58	1.84	-47.5	-62.7	3.6	1.51e+00	0	32	104	0	60	49118
2026-01-27 14:40:46.82	20.59	1.91	-47.5	-62.7	3.6	1.51e+00	0	32	104	0	60	49091
2026-01-27 14:40:47.83	20.60	1.97	-47.5	-62.6	3.6	1.51e+00	0	32	104	0	60	48993
2026-01-27 14:40:48.84	20.60	2.04	-47.5	-62.7	3.6	1.51e+00	0	32	104	0	60	49565
2026-01-27 14:40:49.85	20.61	2.10	-47.5	-62.7	3.6	1.51e+00	0	32	104	0	60	49329
2026-01-27 14:40:50.86	20.62	2.17	-47.5	-62.7	3.6	1.51e+00	0	32	104	0	60	49494
2026-01-27 14:40:51.87	20.62	2.23	-47.5	-62.6	3.6	1.51e+00	0	32	104	0	60	48488
2026-01-27 14:40:52.88	20.63	2.29	-47.5	-62.4	3.6	1.51e+00	0	32	104	0	60	47795
2026-01-27 14:40:53.89	20.63	2.36	-47.5	-62.3	3.6	1.51e+00	0	32	104	0	60	46931
2026-01-27 14:40:54.90	20.64	2.43	-47.5	-61.7	3.6	1.51e+00	0	32	104	0	60	43973
2026-01-27 14:40:55.91	20.65	2.49	-47.5	-61.2	3.6	1.51e+00	0	32	104	0	60	41607
2026-01-27 14:40:56.92	20.65	2.56	-47.4	-60.5	3.6	1.51e+00	0	32	104	0	60	38317
2026-01-27 14:40:57.93	20.66	2.62	-47.4	-60.4	3.6	1.49e+00	0	32	104	0	60	37734
2026-01-27 14:40:58.94	20.67	2.69	-47.4	-60.8	3.6	1.50e+00	0	32	104	0	60	39736
2026-01-27 14:40:59.94	20.67	2.75	-47.5	-61.0	3.6	1.50e+00	0	32	104	0	60	40481
2026-01-27 14:41:00.95	20.68	2.82	-47.5	-61.3	3.6	1.51e+00	0	32	104	0	60	42031
2026-01-27 14:41:01.96	20.69	2.89	-47.4	-60.0	3.7	1.51e+00	0	32	104	0	60	36241
2026-01-27 14:41:02.97	20.69	2.95	-47.2	-57.6	4.7	1.25e+00	1	32	104	0	60	27362
2026-01-27 14:41:03.98	20.70	3.02	-46.9	-54.3	6.4	5.49e-01	0	32	0	1048576	60	18805
2026-01-27 14:41:04.99	20.71	3.09	-46.4	-52.0	9.1	1.45e-01	0	32	0	3145728	60	14376
2026-01-27 14:41:06.00	20.71	3.15	-45.9	-50.7	10.7	4.36e-03	0	32	0	5242880	60	12365
2026-01-27 14:41:07.01	20.72	3.22	-45.2	-49.2	12.5	6.00e-04	62	32	0	7340032	60	10373
2026-01-27 14:41:08.02	20.73	3.29	-44.6	-47.9	14.1	3.28e-05	90	32	0	8388608	60	8996
2026-01-27 14:41:09.03	20.73	3.35	-44.6	-47.9	13.5	0.00e+00	15	32	0	10485760	60	9020
2026-01-27 14:41:10.04	20.74	3.42	-43.5	-46.0	15.7	7.00e-07	92	32	0	12582912	60	7253
2026-01-27 14:41:11.05	20.75	3.49	-43.7	-46.3	15.5	0.00e+00	0	32	0	14680064	60	7430
2026-01-27 14:41:12.05	20.75	3.56	-43.5	-46.0	15.6	0.00e+00	0	32	0	16777216	60	7208
2026-01-27 14:41:13.06	20.76	3.62	-43.9	-46.6	15.1	0.00e+00	0	32	0	17825792	60	7748
2026-01-27 14:41:14.07	20.77	3.69	-44.2	-47.1	14.5	0.00e+00	0	32	0	19922944	60	8223
2026-01-27 14:41:15.08	20.77	3.76	-44.1	-47.1	14.2	0.00e+00	92	32	0	22020096	60	8179
2026-01-27 14:41:16.09	20.78	3.83	-41.3	-42.9	18.7	0.00e+00	0	32	0	24117248	56	6387
2026-01-27 14:41:17.10	20.79	3.90	-43.4	-45.8	15.6	0.00e+00	92	32	0	26214400	58	7949
2026-01-27 14:41:18.11	20.79	3.97	-47.5	-60.0	3.6	4.50e-01	0	32	104	27262976	60	36070
2026-01-27 14:41:19.12	20.80	4.04	-45.7	-50.3	5.6	1.10e+00	7	32	104	27262976	60	11783
2026-01-27 14:41:20.13	20.81	4.11	-47.5	-62.4	3.6	2.31e-03	0	32	104	27262976	60	47544
2026-01-27 14:41:21.14	20.81	4.18	-44.2	-47.1	5.9	1.51e+00	0	32	104	27262976	60	8196
2026-01-27 14:41:22.14	20.82	4.24	-43.9	-46.6	15.3	0.00e+00	76	32	0	27262976	60	7708
2026-01-27 14:41:23.15	20.83	4.31	-44.0	-46.8	14.8	0.00e+00	4	32	0	29360128	60	7912
2026-01-27 14:41:24.16	20.83	4.38	-43.8	-46.3	15.5	0.00e+00	92	32	0	31457280	60	7501
2026-01-27 14:41:25.17	20.84	4.45	-43.8	-46.4	15.5	7.00e-07	0	32	0	32505856	60	7579
2026-01-27 14:41:26.18	20.85	4.53	-43.0	-45.1	17.1	0.00e+00	67	32	0	34603008	60	6504
2026-01-27 14:41:27.19	20.86	4.60	-41.8	-43.5	18.3	0.00e+00	20	32	0	36700160	58	6103
2026-01-27 14:41:28.20	20.86	4.67	-41.8	-43.5	18.1	0.00e+00	67	32	0	38797312	58	6065
2026-01-27 14:41:29.21	20.87	4.74	-41.7	-43.4	18.5	0.00e+00	0	32	0	40894464	58	5995
2026-01-27 14:41:30.22	20.88	4.81	-41.9	-43.7	18.1	0.00e+00	21	32	0	41943040	56	6928
2026-01-27 14:41:31.23	20.88	4.88	-41.9	-43.6	18.6	0.00e+00	92	32	0	44040192	56	6900
2026-01-27 14:41:32.24	20.89	4.95	-41.6	-43.3	18.8	0.00e+00	20	32	0	46137344	56	6632
2026-01-27 14:41:33.25	20.90	5.02	-41.6	-43.2	18.6	0.00e+00	92	32	0	48234496	56	6575
2026-01-27 14:41:34.26	20.90	5.10	-41.5	-43.1	18.9	0.00e+00	0	32	0	50331648	56	6515
2026-01-27 14:41:35.27	20.91	5.17	-41.0	-42.4	19.6	0.00e+00	0	32	0	51380224	56	6012
2026-01-27 14:41:36.28	20.92	5.24	-41.3	-42.8	19.2	0.00e+00	0	32	0	53477376	56	6269
2026-01-27 14:41:37.28	20.92	5.31	-41.1	-42.6	19.3	0.00e+00	0	32	0	55574528	56	6172
2026-01-27 14:41:38.29	20.93	5.38	-41.1	-42.5	19.4	0.00e+00	90	32	0	57671680	56	6095
2026-01-27 14:41:39.30	20.94	5.46	-41.0	-42.5	19.4	0.00e+00	0	32	0	59768832	56	6054
2026-01-27 14:41:40.31	20.95	5.53	-41.0	-42.4	19.6	0.00e+00	92	32	0	60817408	56	6022
2026-01-27 14:41:41.32	20.95	5.60	-41.2	-42.7	19.4	0.00e+00	0	32	0	62914560	56	6184
2026-01-27 14:41:42.33	20.96	5.68	-40.9	-42.4	19.7	0.00e+00	0	32	0	65011712	56	5988
2026-01-27 14:41:43.34	20.97	5.75	-41.0	-42.4	19.6	0.00e+00	0	32	0	67108864	56	6003
2026-01-27 14:41:44.35	20.97	5.82	-40.9	-42.3	19.8	0.00e+00	69	32	0	69206016	56	5949
2026-01-27 14:41:45.36	20.98	5.90	-41.0	-42.5	19.7	0.00e+00	67	32	0	70254592	56	6046
2026-01-27 14:41:46.37	20.99	5.97	-41.0	-42.5	19.7	0.00e+00	2	32	0	72351744	56	6045
2026-01-27 14:41:47.38	20.99	6.05	-41.0	-42.4	19.7	0.00e+00	90	32	0	74448896	56	6021
2026-01-27 14:41:48.39	21.00	6.12	-41.1	-42.5	19.6	0.00e+00	68	32	0	76546048	56	6064
2026-01-27 14:41:49.40	21.01	6.20	-41.0	-42.4	19.8	0.00e+00	13	32	0	78643200	56	5984
2026-01-27 14:41:50.41	21.02	6.27	-40.8	-42.2	20.0	0.00e+00	14	32	0	80740352	56	5857
2026-01-27 14:41:51.42	21.02	6.35	-40.7	-42.1	20.0	0.00e+00	68	32	0	81788928	54	6482
2026-01-27 14:41:52.43	21.03	6.42	-40.6	-41.9	20.2	0.00e+00	49	32	0	83886080	54	6347
2026-01-27 14:41:53.44	21.04	6.50	-40.6	-41.9	20.1	0.00e+00	13	32	0	85983232	54	6365
2026-01-27 14:41:54.44	21.04	6.57	-40.6	-42.0	20.1	0.00e+00	92	32	0	88080384	54	6413
2026-01-27 14:41:55.45	21.05	6.65	-40.7	-42.0	20.1	0.00e+00	0	32	0	90177536	54	6435
2026-01-27 14:41:56.46	21.06	6.73	-40.4	-41.7	20.4	0.00e+00	92	32	0	91226112	54	6210
2026-01-27 14:41:57.47	21.07	6.80	-40.5	-41.8	20.4	0.00e+00	12	32	0	93323264	54	6283
2026-01-27 14:41:58.48	21.07	6.88	-40.4	-41.6	20.5	0.00e+00	14	32	0	95420416	54	6170
2026-01-27 14:41:59.49	21.08	6.96	-40.5	-41.8	20.3	0.00e+00	18	32	0	97517568	54	6316
2026-01-27 14:42:00.50	21.09	7.04	-40.4	-41.7	20.4	0.00e+00	0	32	0	99614720	54	6221
2026-01-27 14:42:01.51	21.10	7.11	-40.2	-41.5	20.6	0.00e+00	92	32	0	100663296	54	6056
2026-01-27 14:42:02.52	21.10	7.19	-40.3	-41.6	20.5	0.00e+00	0	32	0	102760448	54	6128
2026-01-27 14:42:03.53	21.11	7.27	-40.3	-41.6	20.5	0.00e+00	92	32	0	104857600	54	6143
2026-01-27 14:42:04.54	21.12	7.35	-40.3	-41.6	20.6	0.00e+00	0	32	0	106954752	54	6123
2026-01-27 14:42:05.55	21.12	7.43	-40.3	-41.5	20.7	0.00e+00	0	32	0	109051904	54	6075
2026-01-27 14:42:06.55	21.13	7.50	-40.1	-41.4	20.8	0.00e+00	0	32	0	110100480	54	5977
2026-01-27 14:42:07.56	21.14	7.58	-40.1	-41.4	20.8	0.00e+00	0	32	0	112197632	54	5982
2026-01-27 14:42:08.57	21.15	7.66	-40.2	-41.4	20.8	0.00e+00	0	32	0	114294784	54	6000
2026-01-27 14:42:09.58	21.15	7.74	-40.3	-41.5	20.7	0.00e+00	67	32	0	116391936	54	6074
2026-01-27 14:42:10.59	21.16	7.82	-40.1	-41.4	20.8	0.00e+00	92	32	0	118489088	54	5981
2026-01-27 14:42:11.60	21.17	7.90	-40.3	-41.5	20.7	0.00e+00	0	32	0	119537664	54	6080
2026-01-27 14:42:12.61	21.18	7.98	-40.0	-41.2	20.9	0.00e+00	90	32	0	121634816	54	5876
2026-01-27 14:42:13.62	21.18	8.06	-40.0	-41.2	21.0	0.00e+00	67	32	0	123731968	54	5866
2026-01-27 14:42:14.63	21.19	8.14	-40.0	-41.2	21.0	0.00e+00	66	32	0	125829120	54	5876
2026-01-27 14:42:15.64	21.20	8.23	-40.1	-41.3	20.9	0.00e+00	56	32	0	127926272	54	5950
2026-01-27 14:42:16.65	21.21	8.31	-39.9	-41.0	21.1	0.00e+00	12	32	0	128974848	54	5749
2026-01-27 14:42:17.66	21.21	8.39	-39.9	-41.1	21.1	0.00e+00	92	32	0	131072000	54	5781
2026-01-27 14:42:18.67	21.22	8.47	-40.0	-41.2	21.0	0.00e+00	0	32	0	133169152	54	5894
2026-01-27 14:42:19.68	21.23	8.55	-40.3	-41.5	20.9	0.00e+00	17	32	0	135266304	54	6065
2026-01-27 14:42:20.69	21.24	8.64	-39.8	-41.0	21.3	0.00e+00	5	32	0	137363456	54	5720
2026-01-27 14:42:21.70	21.24	8.72	-40.0	-41.2	21.1	0.00e+00	6	32	0	138412032	54	5830
2026-01-27 14:42:22.71	21.25	8.80	-39.8	-41.0	21.3	0.00e+00	0	32	0	140509184	52	6412
2026-01-27 14:42:23.71	21.26	8.88	-39.6	-40.7	21.4	0.00e+00	5	32	0	142606336	52	6239
2026-01-27 14:42:24.72	21.27	8.97	-39.7	-40.8	21.4	0.00e+00	92	32	0	144703488	52	6281
2026-01-27 14:42:25.74	21.27	9.05	-39.7	-40.8	21.5	0.00e+00	0	32	0	146800640	52	6294
2026-01-27 14:42:26.74	21.28	9.14	-39.7	-40.8	21.5	0.00e+00	90	32	0	148897792	52	6271
2026-01-27 14:42:27.75	21.29	9.22	-39.6	-40.7	21.5	0.00e+00	66	32	0	149946368	52	6235
2026-01-27 14:42:28.76	21.30	9.30	-39.7	-40.8	21.4	0.00e+00	63	32	0	152043520	52	6294
2026-01-27 14:42:29.77	21.31	9.39	-39.5	-40.6	21.6	0.00e+00	0	32	0	154140672	52	6161
2026-01-27 14:42:30.78	21.31	9.48	-39.6	-40.8	21.6	0.00e+00	63	32	0	156237824	52	6251
2026-01-27 14:42:31.79	21.32	9.56	-39.5	-40.6	21.7	0.00e+00	0	32	0	157286400	52	6132
2026-01-27 14:42:32.80	21.33	9.65	-39.5	-40.6	21.7	0.00e+00	63	32	0	159383552	52	6161
2026-01-27 14:42:33.81	21.34	9.73	-39.6	-40.7	21.6	0.00e+00	92	32	0	161480704	52	6212
2026-01-27 14:42:34.82	21.34	9.82	-39.5	-40.6	21.8	0.00e+00	64	32	0	163577856	52	6109
2026-01-27 14:42:35.83	21.35	9.91	-39.5	-40.6	21.7	0.00e+00	62	32	0	165675008	52	6147
2026-01-27 14:42:36.84	21.36	9.99	-39.5	-40.6	21.7	0.00e+00	22	32	0	166723584	52	6149
2026-01-27 14:42:37.85	21.37	10.08	-39.5	-40.6	21.8	0.00e+00	6	32	0	168820736	52	6119
2026-01-27 14:42:38.86	21.38	10.17	-39.3	-40.4	21.9	0.00e+00	18	32	0	170917888	52	6014
2026-01-27 14:42:39.87	21.38	10.26	-39.3	-40.4	21.9	0.00e+00	6	32	0	173015040	52	5990
2026-01-27 14:42:40.88	21.39	10.34	-39.4	-40.5	21.8	0.00e+00	92	32	0	175112192	52	6058
2026-01-27 14:42:41.89	21.40	10.43	-39.2	-40.3	22.1	0.00e+00	8	32	0	177209344	52	5922
2026-01-27 14:42:42.90	21.41	10.52	-39.3	-40.3	22.1	0.00e+00	92	32	0	178257920	52	5956
2026-01-27 14:42:43.91	21.42	10.61	-39.2	-40.3	22.0	0.00e+00	6	32	0	180355072	52	5933
2026-01-27 14:42:44.92	21.42	10.70	-39.3	-40.4	21.9	0.00e+00	6	32	0	182452224	52	6015
2026-01-27 14:42:45.93	21.43	10.79	-39.5	-40.6	21.8	0.00e+00	6	32	0	184549376	52	6141
2026-01-27 14:42:46.94	21.44	10.88	-39.6	-40.7	21.6	0.00e+00	0	32	0	186646528	52	6206
2026-01-27 14:42:47.95	21.45	10.97	-39.4	-40.5	22.0	0.00e+00	92	32	0	187695104	52	6045
2026-01-27 14:42:48.96	21.46	11.06	-39.4	-40.5	21.9	0.00e+00	70	32	0	189792256	52	6051
2026-01-27 14:42:49.97	21.46	11.15	-39.3	-40.4	22.0	0.00e+00	91	32	0	191889408	52	6002
2026-01-27 14:42:50.98	21.47	11.25	-39.3	-40.3	22.0	0.00e+00	70	32	0	193986560	52	5957
2026-01-27 14:42:51.99	21.48	11.34	-39.0	-40.1	22.3	0.00e+00	0	32	0	196083712	52	5763
2026-01-27 14:42:53.00	21.49	11.43	-39.2	-40.3	22.1	0.00e+00	16	32	0	197132288	52	5920
2026-01-27 14:42:54.01	21.50	11.52	-39.1	-40.1	22.3	0.00e+00	11	32	0	199229440	52	5791
2026-01-27 14:42:55.02	21.51	11.62	-39.0	-40.1	22.3	0.00e+00	0	32	0	201326592	52	5781
2026-01-27 14:42:56.03	21.51	11.71	-39.0	-40.0	22.3	0.00e+00	70	32	0	203423744	52	5746
2026-01-27 14:42:57.04	21.52	11.80	-39.0	-40.0	22.3	0.00e+00	91	32	0	205520896	52	5740
2026-01-27 14:42:58.05	21.53	11.90	-38.9	-40.0	22.4	0.00e+00	0	32	0	206569472	52	5699
2026-01-27 14:42:59.06	21.54	11.99	-39.1	-40.1	22.3	0.00e+00	92	32	0	208666624	52	5812
2026-01-27 14:43:00.07	21.55	12.09	-38.9	-39.9	22.4	0.00e+00	17	32	0	210763776	52	5694
2026-01-27 14:43:01.08	21.56	12.18	-38.8	-39.8	22.5	0.00e+00	17	32	0	212860928	52	5625
2026-01-27 14:43:02.08	21.56	12.28	-38.9	-39.9	22.5	0.00e+00	10	32	0	214958080	52	5666
2026-01-27 14:43:03.10	21.57	12.37	-38.8	-39.8	22.6	0.00e+00	0	32	0	217055232	52	5601
2026-01-27 14:43:04.11	21.58	12.47	-38.8	-39.8	22.6	0.00e+00	92	32	0	218103808	50	6267
2026-01-27 14:43:05.12	21.59	12.57	-38.7	-39.7	22.7	0.00e+00	2	32	0	220200960	50	6227
2026-01-27 14:43:06.12	21.60	12.66	-38.7	-39.7	22.6	0.00e+00	92	32	0	222298112	50	6205
2026-01-27 14:43:07.13	21.61	12.76	-38.6	-39.6	22.7	0.00e+00	0	32	0	224395264	50	6146
2026-01-27 14:43:08.14	21.62	12.86	-38.7	-39.7	22.7	0.00e+00	64	32	0	226492416	50	6195
2026-01-27 14:43:09.15	21.62	12.96	-38.7	-39.6	22.7	0.00e+00	0	32	0	227540992	50	6167
2026-01-27 14:43:10.16	21.63	13.06	-38.8	-39.8	22.5	0.00e+00	71	32	0	229638144	50	6286
2026-01-27 14:43:11.17	21.64	13.15	-38.6	-39.5	22.8	0.00e+00	90	32	0	231735296	50	6091
2026-01-27 14:43:12.18	21.65	13.25	-38.6	-39.5	22.8	0.00e+00	70	32	0	233832448	50	6097
2026-01-27 14:43:13.18	21.66	13.35	-38.5	-39.5	22.9	0.00e+00	92	32	0	234881024	50	6052
2026-01-27 14:43:14.19	21.67	13.45	-38.6	-39.5	22.9	0.00e+00	15	32	0	236978176	50	6087
2026-01-27 14:43:15.20	21.68	13.55	-38.4	-39.4	23.0	0.00e+00	3	32	0	239075328	50	5989
2026-01-27 14:43:16.21	21.69	13.66	-38.4	-39.3	23.0	0.00e+00	16	32	0	241172480	50	5960
2026-01-27 14:43:17.22	21.70	13.76	-38.5	-39.4	22.9	0.00e+00	70	32	0	243269632	50	6012
2026-01-27 14:43:18.23	21.70	13.86	-38.4	-39.4	23.0	0.00e+00	49	32	0	245366784	50	5973
2026-01-27 14:43:19.24	21.71	13.96	-38.4	-39.3	23.1	0.00e+00	11	32	0	246415360	50	5947
2026-01-27 14:43:20.25	21.72	14.06	-38.3	-39.2	23.1	0.00e+00	92	32	0	248512512	50	5871
2026-01-27 14:43:21.26	21.73	14.17	-38.3	-39.2	23.2	0.00e+00	11	32	0	250609664	50	5895
2026-01-27 14:43:22.27	21.74	14.27	-38.4	-39.4	23.0	0.00e+00	92	32	0	252706816	50	5983
2026-01-27 14:43:23.28	21.75	14.38	-38.3	-39.2	23.2	0.00e+00	0	32	0	254803968	50	5870
2026-01-27 14:43:24.28	21.76	14.48	-38.3	-39.2	23.2	0.00e+00	2	32	0	255852544	50	5880
2026-01-27 14:43:25.29	21.77	14.58	-38.3	-39.2	23.2	0.00e+00	0	33	0	257949696	50	5878
2026-01-27 14:43:26.30	21.78	14.69	-38.2	-39.2	23.2	0.00e+00	0	32	0	260046848	50	5831
2026-01-27 14:43:27.31	21.79	14.80	-38.2	-39.2	23.2	0.00e+00	92	32	0	262144000	50	5848
2026-01-27 14:43:28.32	21.80	14.90	-38.4	-39.3	23.1	0.00e+00	2	32	0	264241152	50	5936
2026-01-27 14:43:29.33	21.80	15.01	-38.1	-39.0	23.4	0.00e+00	90	32	0	265289728	50	5727
2026-01-27 14:43:30.34	21.81	15.12	-38.2	-39.1	23.2	0.00e+00	0	32	0	267386880	50	5818
2026-01-27 14:43:31.35	21.82	15.22	-38.1	-39.0	23.4	0.00e+00	0	32	0	269484032	50	5746
2026-01-27 14:43:32.36	21.83	15.33	-38.1	-39.0	23.4	0.00e+00	0	32	0	271581184	50	5727
2026-01-27 14:43:33.37	21.84	15.44	-38.1	-39.0	23.4	0.00e+00	0	32	0	273678336	50	5739
2026-01-27 14:43:34.38	21.85	15.55	-38.1	-39.0	23.4	0.00e+00	75	32	0	274726912	50	5734
2026-01-27 14:43:35.38	21.86	15.66	-38.2	-39.1	23.2	0.00e+00	0	32	0	276824064	50	5824
2026-01-27 14:43:36.39	21.87	15.77	-38.1	-39.0	23.4	0.00e+00	92	32	0	278921216	50	5727
2026-01-27 14:43:37.40	21.88	15.88	-38.0	-38.9	23.5	0.00e+00	10	32	0	281018368	50	5649
2026-01-27 14:43:38.41	21.89	15.99	-38.1	-39.0	23.4	0.00e+00	0	32	0	283115520	50	5760
2026-01-27 14:43:39.42	21.90	16.10	-38.1	-39.0	23.4	0.00e+00	3	32	0	284164096	50	5724
2026-01-27 14:43:40.43	21.91	16.22	-37.9	-38.8	23.6	0.00e+00	16	32	0	286261248	50	5575
2026-01-27 14:43:41.44	21.92	16.33	-38.0	-38.9	23.4	0.00e+00	64	32	0	288358400	50	5685
2026-01-27 14:43:42.45	21.93	16.44	-37.9	-38.8	23.6	0.00e+00	9	32	0	290455552	50	5583
2026-01-27 14:43:43.46	21.94	16.56	-38.0	-38.9	23.6	0.00e+00	92	32	0	292552704	50	5672
2026-01-27 14:43:44.47	21.95	16.67	-38.0	-38.9	23.5	0.00e+00	0	32	0	293601280	50	5650
2026-01-27 14:43:45.48	21.96	16.79	-38.0	-38.9	23.4	0.00e+00	92	32	0	295698432	50	5667
2026-01-27 14:43:46.48	21.97	16.90	-37.9	-38.8	23.6	0.00e+00	0	32	0	297795584	50	5572
2026-01-27 14:43:47.49	21.98	17.02	-37.8	-38.7	23.7	0.00e+00	0	32	0	299892736	50	5539
2026-01-27 14:43:48.50	21.99	17.13	-37.8	-38.7	23.7	0.00e+00	2	32	0	301989888	50	5520
2026-01-27 14:43:49.51	22.00	17.25	-37.9	-38.7	23.6	0.00e+00	0	32	0	303038464	50	5560
2026-01-27 14:43:50.52	22.01	17.37	-37.8	-38.6	23.8	0.00e+00	92	33	0	305135616	50	5501
2026-01-27 14:43:51.53	22.02	17.49	-37.9	-38.8	23.5	0.00e+00	0	32	0	307232768	48	6262
2026-01-27 14:43:52.54	22.03	17.61	-37.9	-38.8	23.6	0.00e+00	91	32	0	309329920	48	6251
2026-01-27 14:43:53.55	22.04	17.72	-37.7	-38.6	23.8	0.00e+00	0	32	0	311427072	48	6127
2026-01-27 14:43:54.55	22.05	17.84	-37.7	-38.6	23.7	0.00e+00	0	32	0	313524224	48	6160
2026-01-27 14:43:55.56	22.06	17.96	-37.7	-38.6	23.8	0.00e+00	0	32	0	314572800	48	6156
2026-01-27 14:43:56.57	22.07	18.09	-37.8	-38.7	23.7	0.00e+00	0	32	0	316669952	48	6183
2026-01-27 14:43:57.58	22.08	18.21	-37.7	-38.6	23.7	0.00e+00	72	32	0	318767104	48	6143
2026-01-27 14:43:58.60	22.09	18.33	-37.9	-38.8	23.7	0.00e+00	11	32	0	320864256	48	6306
2026-01-27 14:43:59.60	22.10	18.45	-37.7	-38.6	23.7	0.00e+00	91	32	0	322961408	48	6155
2026-01-27 14:44:00.61	22.11	18.58	-38.0	-38.9	23.6	0.00e+00	73	32	0	324009984	48	6366
2026-01-27 14:44:01.62	22.12	18.70	-37.7	-38.6	23.8	0.00e+00	92	33	0	326107136	48	6136
2026-01-27 14:44:02.63	22.13	18.83	-37.8	-38.6	23.8	0.00e+00	0	32	0	328204288	48	6163
2026-01-27 14:44:03.64	22.15	18.95	-37.8	-38.7	23.7	0.00e+00	0	33	0	330301440	48	6191
2026-01-27 14:44:04.65	22.16	19.08	-37.8	-38.7	23.7	0.00e+00	0	33	0	332398592	48	6201
2026-01-27 14:44:05.66	22.17	19.21	-37.9	-38.8	23.8	0.00e+00	5	33	0	333447168	48	6294
2026-01-27 14:44:06.67	22.18	19.33	-37.9	-38.8	23.7	0.00e+00	92	33	0	335544320	48	6255
2026-01-27 14:44:07.68	22.19	19.46	-38.0	-38.9	23.6	0.00e+00	9	32	0	337641472	48	6358
2026-01-27 14:44:08.69	22.20	19.59	-38.2	-39.1	23.4	0.00e+00	92	32	0	339738624	48	6487
2026-01-27 14:44:09.70	22.21	19.72	-38.1	-39.0	23.5	0.00e+00	0	32	0	341835776	48	6434
2026-01-27 14:44:10.71	22.22	19.85	-37.9	-38.7	23.7	0.00e+00	5	32	0	342884352	48	6239
2026-01-27 14:44:11.72	22.23	19.98	-37.9	-38.8	23.6	0.00e+00	0	32	0	344981504	48	6305
2026-01-27 14:44:12.73	22.25	20.11	-37.8	-38.7	23.7	0.00e+00	0	33	0	347078656	48	6225
2026-01-27 14:44:13.74	22.26	20.24	-37.9	-38.8	23.7	0.00e+00	92	33	0	349175808	48	6270
2026-01-27 14:44:14.75	22.27	20.38	-37.9	-38.8	23.6	0.00e+00	0	32	0	351272960	48	6308
2026-01-27 14:44:15.76	22.28	20.51	-38.0	-38.9	23.5	0.00e+00	92	32	0	352321536	48	6340
2026-01-27 14:44:16.77	22.29	20.65	-38.0	-38.9	23.6	0.00e+00	0	32	0	354418688	48	6347
2026-01-27 14:44:17.78	22.30	20.78	-37.9	-38.8	23.6	0.00e+00	11	32	0	356515840	48	6315
2026-01-27 14:44:18.79	22.31	20.92	-38.0	-38.9	23.5	0.00e+00	0	33	0	358612992	48	6356
2026-01-27 14:44:19.80	22.33	21.05	-38.0	-38.9	23.6	0.00e+00	22	32	0	360710144	48	6388
2026-01-27 14:44:20.81	22.34	21.19	-37.9	-38.8	23.6	0.00e+00	67	33	0	361758720	48	6269
2026-01-27 14:44:21.82	22.35	21.33	-38.0	-38.9	23.7	0.00e+00	14	32	0	363855872	48	6339
2026-01-27 14:44:22.83	22.36	21.47	-38.0	-38.9	23.5	0.00e+00	92	33	0	365953024	48	6387
2026-01-27 14:44:23.84	22.37	21.61	-37.9	-38.8	23.7	0.00e+00	71	32	0	368050176	48	6294
2026-01-27 14:44:24.85	22.39	21.75	-38.0	-38.9	23.6	0.00e+00	82	32	0	370147328	48	6323
2026-01-27 14:44:25.86	22.40	21.89	-38.0	-38.9	23.6	0.00e+00	0	32	0	371195904	48	6319
2026-01-27 14:44:26.87	22.41	22.03	-38.1	-39.0	23.5	0.00e+00	6	32	0	373293056	48	6396
2026-01-27 14:44:27.87	22.42	22.17	-38.0	-38.9	23.6	0.00e+00	0	32	0	375390208	48	6358
2026-01-27 14:44:28.88	22.44	22.32	-38.0	-38.9	23.6	0.00e+00	21	32	0	377487360	48	6372
2026-01-27 14:44:29.89	22.45	22.46	-38.1	-39.0	23.5	0.00e+00	92	32	0	379584512	48	6406
2026-01-27 14:44:30.90	22.46	22.61	-38.1	-39.0	23.5	0.00e+00	7	32	0	381681664	48	6435
2026-01-27 14:44:31.91	22.47	22.75	-38.2	-39.2	23.4	0.00e+00	92	32	0	382730240	48	6544
2026-01-27 14:44:32.92	22.49	22.90	-38.2	-39.1	23.4	0.00e+00	0	32	0	384827392	48	6473
2026-01-27 14:44:33.93	22.50	23.05	-38.3	-39.2	23.3	0.00e+00	7	32	0	386924544	48	6582
2026-01-27 14:44:34.94	22.51	23.20	-38.1	-39.0	23.6	0.00e+00	0	32	0	389021696	48	6428
2026-01-27 14:44:35.95	22.52	23.34	-38.1	-39.0	23.5	0.00e+00	0	32	0	391118848	48	6415
2026-01-27 14:44:36.96	22.54	23.50	-38.1	-39.0	23.5	0.00e+00	92	33	0	392167424	48	6463
2026-01-27 14:44:37.97	22.55	23.65	-38.2	-39.1	23.4	0.00e+00	73	33	0	394264576	48	6472
2026-01-27 14:44:38.98	22.56	23.80	-38.3	-39.3	23.3	0.00e+00	92	32	0	396361728	48	6621
2026-01-27 14:44:39.99	22.58	23.95	-38.4	-39.3	23.2	0.00e+00	12	32	0	398458880	48	6643
2026-01-27 14:44:41.00	22.59	24.11	-38.1	-38.9	23.4	0.00e+00	73	32	0	400556032	48	6387
2026-01-27 14:44:42.01	22.60	24.26	-38.2	-39.1	23.4	0.00e+00	73	32	0	401604608	48	6468
2026-01-27 14:44:43.02	22.62	24.42	-38.2	-39.1	23.4	0.00e+00	67	32	0	403701760	48	6514
2026-01-27 14:44:44.03	22.63	24.57	-38.2	-39.1	23.4	0.00e+00	0	32	0	405798912	48	6518
2026-01-27 14:44:45.04	22.64	24.73	-38.3	-39.2	23.4	0.00e+00	15	33	0	407896064	48	6568
2026-01-27 14:44:46.05	22.66	24.89	-38.2	-39.1	23.3	0.00e+00	92	33	0	409993216	48	6505
2026-01-27 14:44:47.06	22.67	25.05	-38.2	-39.2	23.4	0.00e+00	8	32	0	411041792	48	6541
2026-01-27 14:44:48.07	22.69	25.21	-38.2	-39.1	23.4	0.00e+00	90	32	0	413138944	48	6528
2026-01-27 14:44:49.08	22.70	25.37	-38.3	-39.2	23.4	0.00e+00	0	33	0	415236096	48	6557
2026-01-27 14:44:50.09	22.72	25.53	-38.4	-39.3	23.3	0.00e+00	0	32	0	417333248	48	6641
2026-01-27 14:44:51.10	22.73	25.70	-38.3	-39.2	23.5	0.00e+00	0	32	0	419430400	48	6605
2026-01-27 14:44:52.11	22.74	25.86	-38.4	-39.3	23.3	0.00e+00	2	32	0	420478976	48	6669
2026-01-27 14:44:53.12	22.76	26.03	-38.4	-39.3	23.3	0.00e+00	92	33	0	422576128	48	6640
2026-01-27 14:44:54.13	22.77	26.19	-38.5	-39.4	23.2	0.00e+00	0	33	0	424673280	48	6755
2026-01-27 14:44:55.14	22.79	26.36	-38.6	-39.5	23.1	0.00e+00	90	33	0	426770432	48	6812
2026-01-27 14:44:56.15	22.80	26.53	-38.5	-39.4	23.1	0.00e+00	73	32	0	428867584	48	6767
2026-01-27 14:44:57.16	22.82	26.70	-38.6	-39.6	23.1	0.00e+00	0	32	0	429916160	48	6871
2026-01-27 14:44:58.17	22.83	26.87	-38.7	-39.7	23.0	0.00e+00	51	32	0	432013312	48	6967
2026-01-27 14:44:59.18	22.85	27.04	-38.9	-39.9	22.8	0.00e+00	4	32	0	434110464	50	6336
2026-01-27 14:45:00.19	22.86	27.22	-39.0	-40.0	22.6	0.00e+00	92	32	0	436207616	50	6421
2026-01-27 14:45:01.20	22.88	27.39	-39.0	-40.0	22.7	0.00e+00	12	32	0	438304768	50	6440
2026-01-27 14:45:02.21	22.90	27.56	-39.3	-40.3	22.3	0.00e+00	92	32	0	439353344	50	6686
2026-01-27 14:45:03.22	22.91	27.74	-39.3	-40.3	22.4	0.00e+00	8	33	0	441450496	50	6683
2026-01-27 14:45:04.23	22.93	27.92	-39.3	-40.3	22.4	0.00e+00	8	33	0	443547648	50	6679
2026-01-27 14:45:05.23	22.94	28.10	-39.4	-40.4	22.3	0.00e+00	74	33	0	445644800	50	6733
2026-01-27 14:45:06.24	22.96	28.28	-39.6	-40.6	22.1	0.00e+00	9	33	0	447741952	50	6891
2026-01-27 14:45:07.25	22.97	28.46	-39.6	-40.7	22.0	0.00e+00	12	33	0	449839104	50	6957
2026-01-27 14:45:08.26	22.99	28.64	-39.9	-40.9	21.8	0.00e+00	0	33	0	450887680	52	6382
2026-01-27 14:45:09.27	23.01	28.82	-39.9	-41.0	21.7	0.00e+00	92	33	0	452984832	52	6444
2026-01-27 14:45:10.27	23.02	29.00	-40.2	-41.3	21.5	0.00e+00	7	33	0	455081984	52	6682
2026-01-27 14:45:11.28	23.04	29.19	-40.0	-41.1	21.7	0.00e+00	92	32	0	457179136	52	6517
2026-01-27 14:45:12.29	23.06	29.38	-40.1	-41.2	21.4	0.00e+00	0	33	0	459276288	52	6611
2026-01-27 14:45:13.30	23.08	29.57	-40.2	-41.3	21.4	0.00e+00	0	33	0	460324864	52	6665
2026-01-27 14:45:14.31	23.09	29.75	-40.3	-41.5	21.3	0.00e+00	2	33	0	462422016	52	6796
2026-01-27 14:45:15.32	23.11	29.95	-40.4	-41.6	21.2	0.00e+00	0	32	0	464519168	52	6869
2026-01-27 14:45:16.33	23.13	30.14	-40.6	-41.7	21.1	0.00e+00	92	33	0	466616320	52	7000
2026-01-27 14:45:17.34	23.15	30.33	-40.6	-41.7	21.1	0.00e+00	75	32	0	468713472	52	7002
2026-01-27 14:45:18.35	23.16	30.53	-40.6	-41.8	21.1	0.00e+00	92	33	0	469762048	52	7060
2026-01-27 14:45:19.36	23.18	30.72	-40.5	-41.6	21.3	0.00e+00	0	33	0	471859200	52	6900
2026-01-27 14:45:20.37	23.20	30.92	-40.5	-41.6	21.3	0.00e+00	0	32	0	473956352	52	6896
2026-01-27 14:45:21.38	23.22	31.12	-40.4	-41.5	21.3	0.00e+00	67	32	0	476053504	52	6830
2026-01-27 14:45:22.39	23.24	31.32	-40.5	-41.7	21.2	0.00e+00	0	32	0	478150656	52	6943
2026-01-27 14:45:23.40	23.26	31.52	-40.4	-41.6	21.3	0.00e+00	75	33	0	479199232	52	6859
2026-01-27 14:45:24.41	23.28	31.72	-40.5	-41.6	21.3	0.00e+00	13	32	0	481296384	52	6922
2026-01-27 14:45:25.42	23.29	31.93	-40.4	-41.6	21.3	0.00e+00	92	33	0	483393536	52	6849
2026-01-27 14:45:26.43	23.31	32.13	-40.3	-41.5	21.4	0.00e+00	5	33	0	485490688	52	6777
2026-01-27 14:45:27.44	23.33	32.34	-40.3	-41.5	21.5	0.00e+00	75	32	0	487587840	52	6793
2026-01-27 14:45:28.45	23.35	32.55	-40.2	-41.3	21.6	0.00e+00	0	32	0	488636416	52	6691
2026-01-27 14:45:29.46	23.37	32.76	-40.2	-41.4	21.5	0.00e+00	5	33	0	490733568	52	6710
2026-01-27 14:45:30.47	23.39	32.97	-40.3	-41.4	21.4	0.00e+00	70	32	0	492830720	52	6743
2026-01-27 14:45:31.48	23.41	33.18	-40.2	-41.3	21.6	0.00e+00	0	33	0	494927872	52	6638
2026-01-27 14:45:32.49	23.43	33.40	-40.1	-41.2	21.7	0.00e+00	92	32	0	497025024	52	6579
2026-01-27 14:45:33.49	23.45	33.61	-40.0	-41.1	21.8	0.00e+00	0	33	0	498073600	52	6465
2026-01-27 14:45:34.51	23.48	33.83	-39.8	-40.9	22.0	0.00e+00	92	33	0	500170752	52	6334
2026-01-27 14:45:35.52	23.50	34.05	-39.5	-40.5	22.2	0.00e+00	0	33	0	502267904	52	6080
2026-01-27 14:45:36.52	23.52	34.27	-39.1	-40.1	22.4	0.00e+00	0	33	0	504365056	52	5827
2026-01-27 14:45:37.53	23.54	34.49	-39.0	-40.0	22.7	0.00e+00	2	33	0	506462208	52	5703
2026-01-27 14:45:38.54	23.56	34.71	-39.0	-40.0	22.8	0.00e+00	0	33	0	507510784	52	5703
2026-01-27 14:45:39.55	23.58	34.94	-38.7	-39.6	23.1	0.00e+00	92	32	0	509607936	52	5488
2026-01-27 14:45:40.56	23.61	35.16	-38.3	-39.2	23.4	0.00e+00	0	32	0	511705088	50	5880
2026-01-27 14:45:41.57	23.63	35.39	-38.2	-39.2	23.4	0.00e+00	90	32	0	513802240	50	5838
2026-01-27 14:45:42.58	23.65	35.62	-38.2	-39.1	23.6	0.00e+00	72	32	0	515899392	50	5814
2026-01-27 14:45:43.59	23.68	35.86	-38.1	-39.0	23.7	0.00e+00	74	32	0	516947968	50	5696
2026-01-27 14:45:44.60	23.70	36.09	-37.9	-38.7	23.8	0.00e+00	69	33	0	519045120	50	5563
2026-01-27 14:45:45.61	23.72	36.33	-37.7	-38.6	24.0	0.00e+00	8	33	0	521142272	48	6110
2026-01-27 14:45:46.62	23.75	36.56	-37.7	-38.6	23.9	0.00e+00	92	33	0	523239424	48	6138
2026-01-27 14:45:47.63	23.77	36.80	-37.5	-38.4	24.2	0.00e+00	0	33	0	525336576	48	5998
2026-01-27 14:45:48.64	23.80	37.04	-37.4	-38.3	24.2	0.00e+00	92	33	0	526385152	48	5910
2026-01-27 14:45:49.64	23.82	37.28	-37.5	-38.3	24.2	0.00e+00	6	32	0	528482304	48	5956
2026-01-27 14:45:50.65	23.85	37.53	-37.4	-38.2	24.3	0.00e+00	6	33	0	530579456	48	5886
2026-01-27 14:45:51.66	23.87	37.77	-37.3	-38.1	24.4	0.00e+00	5	33	0	532676608	48	5795
2026-01-27 14:45:52.67	23.90	38.02	-37.1	-37.9	24.4	0.00e+00	7	33	0	534773760	48	5657
2026-01-27 14:45:53.68	23.93	38.27	-37.2	-38.0	24.4	0.00e+00	72	33	0	535822336	48	5729
2026-01-27 14:45:54.69	23.95	38.52	-37.2	-38.0	24.3	0.00e+00	0	33	0	537919488	48	5758
2026-01-27 14:45:55.70	23.98	38.77	-37.4	-38.3	24.2	0.00e+00	92	33	0	540016640	48	5903
2026-01-27 14:45:56.71	24.01	39.03	-37.1	-37.9	24.6	0.00e+00	0	32	0	542113792	48	5691
2026-01-27 14:45:57.72	24.03	39.29	-37.1	-38.0	24.5	0.00e+00	92	33	0	544210944	48	5699
2026-01-27 14:45:58.73	24.06	39.55	-36.9	-37.7	24.8	0.00e+00	0	32	0	546308096	48	5545
2026-01-27 14:45:59.74	24.09	39.81	-37.1	-37.9	24.6	0.00e+00	6	33	0	547356672	48	5649
2026-01-27 14:46:00.74	24.12	40.07	-36.8	-37.6	24.9	0.00e+00	0	32	0	549453824	48	5494
2026-01-27 14:46:01.75	24.15	40.33	-36.9	-37.7	24.7	0.00e+00	0	33	0	551550976	48	5550
2026-01-27 14:46:02.76	24.18	40.60	-36.8	-37.6	24.7	0.00e+00	92	33	0	553648128	48	5495
2026-01-27 14:46:03.78	24.21	40.87	-36.7	-37.5	24.9	0.00e+00	75	33	0	555745280	46	6076
2026-01-27 14:46:04.79	24.24	41.14	-37.0	-37.9	24.5	0.00e+00	92	33	0	556793856	46	6328
2026-01-27 14:46:05.80	24.27	41.41	-37.5	-38.4	24.2	0.00e+00	75	33	0	558891008	46	6733
2026-01-27 14:46:06.80	24.30	41.69	-37.7	-38.6	23.9	0.00e+00	75	33	0	560988160	46	6891
2026-01-27 14:46:07.81	24.33	41.96	-38.0	-38.9	23.5	0.00e+00	75	33	0	563085312	48	6384
2026-01-27 14:46:08.82	24.37	42.24	-38.3	-39.2	23.5	0.00e+00	74	33	0	565182464	48	6561
2026-01-27 14:46:09.83	24.40	42.52	-38.1	-39.0	23.6	0.00e+00	73	33	0	566231040	48	6436
2026-01-27 14:46:10.84	24.43	42.81	-38.1	-39.0	23.7	0.00e+00	6	32	0	568328192	48	6409
2026-01-27 14:46:11.85	24.47	43.09	-37.9	-38.8	23.8	0.00e+00	92	32	0	570425344	48	6283
2026-01-27 14:46:12.86	24.50	43.38	-37.9	-38.7	23.9	0.00e+00	6	32	0	572522496	48	6220
2026-01-27 14:46:13.87	24.54	43.67	-37.9	-38.7	24.0	0.00e+00	9	32	0	574619648	48	6232
2026-01-27 14:46:14.88	24.57	43.96	-37.9	-38.8	23.8	0.00e+00	5	32	0	575668224	48	6282
2026-01-27 14:46:15.89	24.61	44.26	-37.9	-38.7	23.9	0.00e+00	6	32	0	577765376	48	6243
2026-01-27 14:46:16.90	24.65	44.55	-38.2	-39.1	23.5	0.00e+00	0	33	0	579862528	48	6528
2026-01-27 14:46:17.91	24.68	44.85	-38.7	-39.6	23.1	0.00e+00	0	32	0	581959680	48	6898
2026-01-27 14:46:18.92	24.72	45.16	-39.1	-40.1	22.7	0.00e+00	92	32	0	584056832	50	6506
2026-01-27 14:46:19.93	24.76	45.46	-39.5	-40.5	21.9	0.00e+00	0	33	0	585105408	50	6848
2026-01-27 14:46:20.94	24.80	45.76	-39.8	-40.8	21.9	0.00e+00	90	32	0	587202560	52	6305
2026-01-27 14:46:21.95	24.84	46.07	-39.9	-41.0	21.8	0.00e+00	76	33	0	589299712	52	6439
2026-01-27 14:46:22.96	24.88	46.38	-40.3	-41.5	21.4	0.00e+00	75	32	0	591396864	52	6788
2026-01-27 14:46:23.97	24.92	46.70	-40.3	-41.5	21.5	0.00e+00	0	32	0	593494016	52	6780
2026-01-27 14:46:24.97	24.96	47.01	-40.3	-41.5	21.4	0.00e+00	76	33	0	594542592	52	6770
2026-01-27 14:46:25.98	25.01	47.33	-40.4	-41.6	21.4	0.00e+00	91	33	0	596639744	52	6862
2026-01-27 14:46:26.99	25.05	47.65	-40.5	-41.7	21.4	0.00e+00	0	32	0	598736896	52	6931
2026-01-27 14:46:28.00	25.10	47.97	-41.0	-42.3	20.6	0.00e+00	92	33	0	600834048	54	6641
2026-01-27 14:46:29.01	25.14	48.29	-41.2	-42.5	20.5	0.00e+00	11	33	0	602931200	54	6779
2026-01-27 14:46:30.02	25.19	48.62	-41.0	-42.3	20.8	0.00e+00	72	33	0	603979776	54	6659
2026-01-27 14:46:31.03	25.24	48.95	-40.8	-42.0	20.9	0.00e+00	11	32	0	606076928	54	6425
2026-01-27 14:46:32.04	25.28	49.28	-40.9	-42.2	20.8	0.00e+00	71	33	0	608174080	54	6549
2026-01-27 14:46:33.04	25.33	49.61	-40.4	-41.5	21.4	0.00e+00	90	32	0	610271232	54	6088
2026-01-27 14:46:34.05	25.38	49.95	-40.2	-41.4	21.7	0.00e+00	12	32	0	612368384	54	5975
2026-01-27 14:46:35.06	25.44	50.29	-39.7	-40.8	22.1	0.00e+00	89	32	0	614465536	52	6249
2026-01-27 14:46:36.07	25.49	50.63	-39.3	-40.3	22.5	0.00e+00	0	32	0	615514112	52	5959
2026-01-27 14:46:37.08	25.54	50.98	-38.3	-39.2	23.5	0.00e+00	28	32	0	617611264	50	5850
2026-01-27 14:46:38.09	25.60	51.32	-37.7	-38.6	24.0	0.00e+00	0	32	0	619708416	50	5445
2026-01-27 14:46:39.10	25.65	51.67	-37.7	-38.6	24.1	0.00e+00	0	32	0	621805568	48	6105
2026-01-27 14:46:40.11	25.71	52.02	-37.0	-37.8	24.7	0.00e+00	14	33	0	623902720	48	5610
2026-01-27 14:46:41.12	25.77	52.38	-36.4	-37.2	25.3	0.00e+00	0	33	0	624951296	46	5839
2026-01-27 14:46:42.13	25.83	52.74	-36.5	-37.3	25.1	0.00e+00	92	32	0	627048448	46	5910
2026-01-27 14:46:43.14	25.89	53.10	-36.5	-37.3	25.0	0.00e+00	0	32	0	629145600	46	5945
2026-01-27 14:46:44.15	25.95	53.46	-36.6	-37.4	25.0	0.00e+00	90	32	0	631242752	46	6002
2026-01-27 14:46:45.16	26.02	53.82	-36.2	-37.0	25.4	0.00e+00	76	33	0	633339904	46	5727
2026-01-27 14:46:46.16	26.08	54.19	-36.3	-37.1	25.2	0.00e+00	76	32	0	634388480	46	5783
2026-01-27 14:46:47.17	26.15	54.56	-36.5	-37.2	25.2	0.00e+00	0	33	0	636485632	46	5882
2026-01-27 14:46:48.18	26.22	54.93	-36.6	-37.4	24.7	0.00e+00	0	32	0	638582784	46	6029
2026-01-27 14:46:49.19	26.29	55.31	-36.7	-37.4	24.9	0.00e+00	92	33	0	640679936	46	6027
2026-01-27 14:46:50.20	26.36	55.68	-36.5	-37.3	25.0	0.00e+00	5	32	0	642777088	46	5922
2026-01-27 14:46:51.22	26.44	56.07	-36.5	-37.3	24.9	0.00e+00	92	33	0	643825664	46	5938
2026-01-27 14:46:52.22	26.51	56.45	-36.4	-37.2	25.1	0.00e+00	7	32	0	645922816	46	5843
2026-01-27 14:46:53.23	26.59	56.84	-36.4	-37.2	25.3	0.00e+00	77	33	0	648019968	46	5843
2026-01-27 14:46:54.24	26.67	57.22	-37.0	-37.8	24.6	0.00e+00	0	32	0	650117120	46	6260
2026-01-27 14:46:55.25	26.75	57.62	-37.6	-38.5	24.1	0.00e+00	6	33	0	652214272	46	6799
2026-01-27 14:46:56.26	26.84	58.01	-37.9	-38.8	23.8	0.00e+00	92	32	0	653262848	48	6282
2026-01-27 14:46:57.27	26.93	58.41	-38.1	-39.0	23.7	0.00e+00	12	32	0	655360000	48	6434
2026-01-27 14:46:58.28	27.02	58.80	-38.0	-38.9	23.7	0.00e+00	92	32	0	657457152	48	6337
2026-01-27 14:46:59.29	27.11	59.21	-37.7	-38.5	24.2	0.00e+00	0	32	0	659554304	48	6103
2026-01-27 14:47:00.30	27.20	59.61	-36.8	-37.6	24.9	0.00e+00	26	32	0	661651456	48	5479
2026-01-27 14:47:01.31	27.30	60.02	-36.0	-36.8	25.7	0.00e+00	0	32	0	662700032	46	5567
2026-01-27 14:47:02.32	27.40	60.43	-35.5	-36.2	25.9	0.00e+00	0	33	0	664797184	44	5893
2026-01-27 14:47:03.32	27.51	60.84	-35.1	-35.8	26.2	0.00e+00	0	32	0	666894336	44	5604
2026-01-27 14:47:04.33	27.62	61.25	-34.9	-35.6	26.3	0.00e+00	0	32	0	668991488	44	5478
2026-01-27 14:47:05.34	27.73	61.67	-35.1	-35.8	26.2	0.00e+00	92	32	0	671088640	44	5625
2026-01-27 14:47:06.35	27.84	62.09	-34.9	-35.6	26.4	0.00e+00	0	32	0	672137216	44	5482
2026-01-27 14:47:07.36	27.96	62.51	-34.7	-35.4	26.7	0.00e+00	28	33	0	674234368	42	5969
2026-01-27 14:47:08.37	28.08	62.93	-34.6	-35.3	26.6	0.00e+00	0	33	0	676331520	42	5916
2026-01-27 14:47:09.38	28.21	63.36	-34.9	-35.6	25.6	0.00e+00	78	32	0	678428672	42	6171
2026-01-27 14:47:10.39	28.34	63.79	-35.4	-36.1	25.8	0.00e+00	0	32	0	680525824	42	6531
2026-01-27 14:47:11.40	28.48	64.22	-36.0	-36.8	25.5	0.00e+00	77	33	0	682622976	44	6291
2026-01-27 14:47:12.41	28.62	64.66	-36.6	-37.4	24.8	0.00e+00	90	33	0	683671552	44	6741
2026-01-27 14:47:13.42	28.77	65.10	-37.4	-38.2	24.4	0.00e+00	76	32	0	685768704	46	6587
2026-01-27 14:47:14.43	28.92	65.54	-38.3	-39.2	23.4	0.00e+00	92	32	0	687865856	48	6583
2026-01-27 14:47:15.43	29.08	65.97	-38.9	-39.9	22.8	0.00e+00	0	33	0	689963008	50	6325
2026-01-27 14:47:16.44	29.25	66.42	-38.8	-39.8	23.0	0.00e+00	4	33	0	692060160	50	6258
2026-01-27 14:47:17.45	29.42	66.86	-38.6	-39.6	23.2	0.00e+00	0	33	0	693108736	50	6108
2026-01-27 14:47:18.46	29.60	67.31	-38.5	-39.4	23.1	0.00e+00	0	32	0	695205888	50	5997
2026-01-27 14:47:19.47	29.79	67.76	-38.8	-39.8	22.8	0.00e+00	50	33	0	697303040	50	6255
2026-01-27 14:47:20.48	29.98	68.22	-39.0	-40.0	22.7	0.00e+00	0	33	0	699400192	50	6446
2026-01-27 14:47:21.49	30.19	68.67	-38.9	-39.9	22.8	0.00e+00	92	32	0	700448768	50	6339
2026-01-27 14:47:22.50	30.40	69.13	-38.4	-39.4	23.4	0.00e+00	0	32	0	702545920	50	5966
2026-01-27 14:47:23.50	30.62	69.58	-37.7	-38.5	24.3	0.00e+00	0	32	0	704643072	48	6096
2026-01-27 14:47:24.51	30.86	70.04	-37.1	-38.0	24.6	0.00e+00	0	32	0	706740224	48	5699
2026-01-27 14:47:25.52	31.10	70.51	-36.8	-37.6	24.9	0.00e+00	0	32	0	708837376	46	6118
2026-01-27 14:47:26.53	31.36	70.97	-37.2	-38.0	24.3	0.00e+00	0	32	0	710934528	46	6464
2026-01-27 14:47:27.54	31.64	71.44	-37.8	-38.6	23.7	0.00e+00	0	32	0	711983104	46	6910
2026-01-27 14:47:28.55	31.93	71.91	-38.4	-39.3	23.4	0.00e+00	92	33	0	714080256	48	6653
2026-01-27 14:47:29.56	32.23	72.38	-38.7	-39.6	23.1	0.00e+00	0	32	0	716177408	50	6159
2026-01-27 14:47:30.57	32.55	72.85	-38.8	-39.7	23.0	0.00e+00	90	32	0	718274560	50	6219
2026-01-27 14:47:31.58	32.89	73.32	-39.0	-39.9	22.8	0.00e+00	0	32	0	720371712	50	6378
2026-01-27 14:47:32.59	33.25	73.79	-39.3	-40.3	22.3	0.00e+00	0	32	0	721420288	50	6683
2026-01-27 14:47:33.60	33.64	74.27	-40.0	-41.1	21.7	0.00e+00	67	32	0	723517440	52	6527
2026-01-27 14:47:34.60	34.04	74.74	-40.0	-41.1	21.7	0.00e+00	70	32	0	725614592	52	6509
2026-01-27 14:47:35.61	34.48	75.22	-39.3	-40.2	22.5	0.00e+00	92	32	0	727711744	52	5894
2026-01-27 14:47:36.62	34.94	75.70	-38.9	-39.9	22.9	0.00e+00	71	32	0	729808896	52	5672
2026-01-27 14:47:37.63	35.44	76.18	-38.6	-39.5	23.1	0.00e+00	92	32	0	730857472	50	6073
2026-01-27 14:47:38.64	35.97	76.66	-37.7	-38.6	24.0	0.00e+00	0	32	0	732954624	50	5464
2026-01-27 14:47:39.65	36.55	77.14	-37.6	-38.5	24.0	0.00e+00	5	32	0	735051776	48	6059
2026-01-27 14:47:40.66	37.17	77.62	-38.3	-39.2	23.5	0.00e+00	4	32	0	737148928	48	6566
2026-01-27 14:47:41.67	37.84	78.10	-38.2	-39.1	23.7	0.00e+00	6	32	0	739246080	48	6488
2026-01-27 14:47:42.68	38.58	78.58	-37.8	-38.6	24.0	0.00e+00	70	32	0	740294656	48	6159
2026-01-27 14:47:43.69	39.37	79.06	-37.4	-38.2	24.4	0.00e+00	5	32	0	742391808	48	5859
2026-01-27 14:47:44.70	40.24	79.54	-36.8	-37.6	24.9	0.00e+00	90	32	0	744488960	46	6123
2026-01-27 14:47:45.71	41.20	80.01	-36.3	-37.1	25.3	0.00e+00	5	32	0	746586112	46	5784
2026-01-27 14:47:46.72	42.25	80.49	-36.4	-37.2	25.1	0.00e+00	0	32	0	748683264	46	5884
2026-01-27 14:47:47.73	43.41	80.96	-37.0	-37.9	24.5	0.00e+00	0	32	0	749731840	46	6336
2026-01-27 14:47:48.74	44.70	81.43	-39.2	-40.2	22.4	0.00e+00	0	32	0	751828992	50	6556
2026-01-27 14:47:49.75	46.15	81.90	-42.3	-43.9	19.1	0.00e+00	0	32	0	753926144	56	7161
2026-01-27 14:47:50.76	47.77	82.36	-42.6	-44.3	18.7	0.00e+00	75	32	0	756023296	58	6675
2026-01-27 14:47:51.77	49.60	82.81	-41.2	-42.5	20.6	0.00e+00	90	32	0	758120448	56	6089
2026-01-27 14:47:52.78	51.67	83.26	-40.1	-41.2	21.7	0.00e+00	77	32	0	759169024	54	5865
2026-01-27 14:47:53.78	54.02	83.70	-38.4	-39.3	23.4	0.00e+00	92	32	0	761266176	50	5932
2026-01-27 14:47:54.79	56.73	84.12	-37.8	-38.6	23.9	0.00e+00	77	32	0	763363328	48	6172
2026-01-27 14:47:55.80	59.87	84.54	-37.1	-37.9	24.5	0.00e+00	10	32	0	765460480	48	5685
2026-01-27 14:47:56.81	63.51	84.93	-37.0	-37.8	24.7	0.00e+00	12	33	0	767557632	48	5601
2026-01-27 14:47:57.82	67.75	85.30	-36.9	-37.7	24.9	0.00e+00	9	32	0	768606208	46	6245
2026-01-27 14:47:58.83	72.68	85.64	-37.0	-37.8	24.6	0.00e+00	92	32	0	770703360	46	6307
2026-01-27 14:47:59.84	78.40	85.95	-37.2	-38.0	24.4	0.00e+00	70	32	0	772800512	46	6459
2026-01-27 14:48:00.85	84.97	86.20	-37.8	-38.6	23.9	0.00e+00	92	32	0	774897664	46	6904
2026-01-27 14:48:01.86	92.39	86.40	-38.1	-39.0	23.4	0.00e+00	0	32	0	776994816	48	6420
2026-01-27 14:48:02.87	100.53	86.54	-38.5	-39.4	23.1	0.00e+00	7	33	0	779091968	48	6735
2026-01-27 14:48:03.88	109.15	86.60	-39.1	-40.0	22.9	0.00e+00	5	32	0	780140544	50	6459
2026-01-27 14:48:04.89	117.88	86.58	-38.9	-39.8	23.0	0.00e+00	6	33	0	782237696	50	6304
2026-01-27 14:48:05.89	126.24	86.49	-38.0	-38.9	23.8	0.00e+00	0	33	0	784334848	50	5642
2026-01-27 14:48:06.90	134.08	86.32	-37.9	-38.7	23.7	0.00e+00	8	32	0	786432000	48	6220
2026-01-27 14:48:07.91	141.13	86.10	-38.1	-39.0	23.6	0.00e+00	92	33	0	788529152	48	6444
2026-01-27 14:48:08.92	147.32	85.82	-37.8	-38.6	23.8	0.00e+00	0	33	0	789577728	48	6162
2026-01-27 14:48:09.93	152.68	85.49	-37.4	-38.2	24.4	0.00e+00	1	33	0	791674880	48	5877
2026-01-27 14:48:10.94	157.29	85.14	-37.7	-38.6	24.0	0.00e+00	0	32	0	793772032	48	6106
2026-01-27 14:48:11.94	161.22	84.76	-37.6	-38.4	24.1	0.00e+00	0	33	0	795869184	48	6020
2026-01-27 14:48:12.95	164.63	84.36	-37.5	-38.4	24.2	0.00e+00	0	32	0	797966336	48	5984
2026-01-27 14:48:13.96	167.58	83.94	-39.0	-40.0	22.8	0.00e+00	77	32	0	799014912	50	6427
2026-01-27 14:48:14.96	170.11	83.51	-40.5	-41.7	21.3	0.00e+00	90	33	0	801112064	52	6931
2026-01-27 14:48:15.97	172.35	83.07	-41.5	-42.9	19.8	0.00e+00	0	32	0	803209216	54	7168
2026-01-27 14:48:16.98	174.31	82.62	-41.9	-43.3	19.9	0.00e+00	92	32	0	805306368	56	6655
2026-01-27 14:48:17.99	176.04	82.16	-41.0	-42.3	21.0	0.00e+00	78	32	0	807403520	56	5916
2026-01-27 14:48:19.00	177.58	81.69	-40.1	-41.2	21.6	0.00e+00	5	32	0	808452096	54	5854
2026-01-27 14:48:20.01	178.96	81.22	-39.2	-40.2	22.7	0.00e+00	5	33	0	810549248	52	5839
2026-01-27 14:48:21.02	180.19	80.75	-38.4	-39.3	23.3	0.00e+00	76	33	0	812646400	50	5961
2026-01-27 14:48:22.03	181.31	80.28	-37.7	-38.6	24.0	0.00e+00	77	33	0	814743552	50	5467
2026-01-27 14:48:23.04	182.31	79.80	-36.6	-37.3	25.1	0.00e+00	12	33	0	816840704	46	5954
2026-01-27 14:48:24.05	183.23	79.32	-36.5	-37.3	25.0	0.00e+00	90	32	0	817889280	46	5951
2026-01-27 14:48:25.06	184.07	78.84	-38.2	-39.1	23.5	0.00e+00	3	33	0	819986432	48	6515
2026-01-27 14:48:26.07	184.83	78.36	-39.4	-40.4	22.3	0.00e+00	56	33	0	822083584	50	6751
2026-01-27 14:48:27.08	185.54	77.88	-40.1	-41.2	21.6	0.00e+00	0	32	0	824180736	52	6601
2026-01-27 14:48:28.09	186.19	77.40	-42.4	-44.0	19.1	0.00e+00	7	32	0	826277888	56	7221
2026-01-27 14:48:29.10	186.79	76.92	-43.4	-45.3	17.9	0.00e+00	35	32	0	827326464	58	7469
2026-01-27 14:48:30.11	187.35	76.44	-42.3	-43.8	19.4	0.00e+00	0	33	0	829423616	58	6306
2026-01-27 14:48:31.12	187.86	75.96	-41.1	-42.4	20.6	0.00e+00	92	33	0	831520768	56	6030
2026-01-27 14:48:32.12	188.34	75.49	-41.4	-42.8	20.3	0.00e+00	0	32	0	833617920	56	6264
2026-01-27 14:48:33.13	188.80	75.01	-41.8	-43.2	19.8	0.00e+00	92	33	0	835715072	56	6590
2026-01-27 14:48:34.14	189.22	74.53	-42.5	-44.1	19.1	0.00e+00	0	32	0	836763648	58	6490
2026-01-27 14:48:35.15	189.62	74.05	-39.9	-41.0	21.9	0.00e+00	0	33	0	838860800	54	5699
2026-01-27 14:48:36.16	189.99	73.58	-38.3	-39.2	23.6	0.00e+00	0	32	0	840957952	50	5881
2026-01-27 14:48:37.17	190.34	73.10	-38.2	-39.1	23.7	0.00e+00	75	32	0	843055104	50	5812
2026-01-27 14:48:38.18	190.67	72.63	-38.3	-39.3	23.6	0.00e+00	92	32	0	845152256	50	5909
2026-01-27 14:48:39.19	190.99	72.16	-37.6	-38.5	24.3	0.00e+00	0	33	0	846200832	48	6067
2026-01-27 14:48:40.20	191.28	71.69	-36.9	-37.7	24.8	0.00e+00	92	32	0	848297984	48	5531
2026-01-27 14:48:41.20	191.56	71.22	-36.5	-37.3	24.8	0.00e+00	75	32	0	850395136	46	5906
2026-01-27 14:48:42.22	191.83	70.75	-37.3	-38.1	24.2	0.00e+00	5	32	0	852492288	46	6535
2026-01-27 14:48:43.23	192.09	70.29	-39.0	-40.0	22.7	0.00e+00	0	32	0	854589440	48	7182
2026-01-27 14:48:44.24	192.33	69.83	-39.1	-40.1	22.8	0.00e+00	77	33	0	855638016	50	6465
2026-01-27 14:48:45.25	192.56	69.36	-38.6	-39.5	23.3	0.00e+00	48	33	0	857735168	50	6079
2026-01-27 14:48:46.26	192.78	68.91	-39.8	-40.9	21.9	0.00e+00	4	32	0	859832320	50	7104
2026-01-27 14:48:47.27	192.99	68.45	-42.6	-44.3	18.7	0.00e+00	90	32	0	861929472	56	7456
2026-01-27 14:48:48.28	193.19	67.99	-44.1	-46.3	16.8	0.00e+00	0	33	0	864026624	60	7492
2026-01-27 14:48:49.29	193.38	67.54	-42.2	-43.7	19.5	0.00e+00	49	32	0	865075200	58	6241
2026-01-27 14:48:50.30	193.56	67.09	-40.8	-42.0	21.3	0.00e+00	0	33	0	867172352	56	5742
2026-01-27 14:48:51.31	193.74	66.64	-40.2	-41.2	21.7	0.00e+00	0	33	0	869269504	54	5893
2026-01-27 14:48:52.32	193.91	66.19	-39.9	-41.0	21.7	0.00e+00	0	32	0	871366656	54	5715
2026-01-27 14:48:53.33	194.07	65.75	-41.1	-42.3	20.5	0.00e+00	0	32	0	873463808	54	6679
2026-01-27 14:48:54.34	194.23	65.31	-40.7	-41.9	21.2	0.00e+00	91	32	0	875560960	54	6345
2026-01-27 14:48:55.35	194.38	64.87	-38.0	-38.9	23.9	0.00e+00	76	32	0	876609536	50	5640
2026-01-27 14:48:56.36	194.52	64.43	-36.9	-37.7	24.8	0.00e+00	92	33	0	878706688	48	5511
2026-01-27 14:48:57.37	194.66	64.00	-36.7	-37.5	25.0	0.00e+00	0	33	0	880803840	48	5382
2026-01-27 14:48:58.38	194.80	63.57	-36.5	-37.3	25.1	0.00e+00	0	32	0	882900992	46	5955
2026-01-27 14:48:59.39	194.93	63.14	-36.3	-37.1	25.4	0.00e+00	0	32	0	884998144	46	5776
2026-01-27 14:49:00.39	195.05	62.71	-35.6	-36.4	25.7	0.00e+00	12	33	0	886046720	44	5982
2026-01-27 14:49:01.40	195.17	62.29	-35.2	-35.9	26.2	0.00e+00	92	33	0	888143872	44	5670
2026-01-27 14:49:02.41	195.29	61.87	-34.7	-35.4	26.6	0.00e+00	70	33	0	890241024	44	5358
2026-01-27 14:49:03.42	195.40	61.45	-35.2	-35.9	26.2	0.00e+00	90	33	0	892338176	42	6360
2026-01-27 14:49:04.43	195.51	61.03	-36.5	-37.2	25.2	0.00e+00	71	33	0	894435328	44	6609
2026-01-27 14:49:05.44	195.62	60.62	-37.6	-38.5	24.0	0.00e+00	2	32	0	895483904	46	6797
2026-01-27 14:49:06.45	195.72	60.20	-37.7	-38.6	24.0	0.00e+00	2	33	0	897581056	48	6132
2026-01-27 14:49:07.46	195.82	59.79	-37.7	-38.6	24.1	0.00e+00	0	33	0	899678208	48	6110
2026-01-27 14:49:08.47	195.92	59.39	-38.3	-39.2	23.5	0.00e+00	92	33	0	901775360	48	6547
2026-01-27 14:49:09.48	196.01	58.98	-39.0	-39.9	22.9	0.00e+00	0	33	0	903872512	50	6388
2026-01-27 14:49:10.49	196.10	58.58	-40.0	-41.1	21.8	0.00e+00	91	33	0	904921088	52	6476
2026-01-27 14:49:11.50	196.19	58.18	-40.9	-42.1	20.8	0.00e+00	0	33	0	907018240	54	6496
2026-01-27 14:49:12.51	196.28	57.79	-42.1	-43.6	19.5	0.00e+00	90	33	0	909115392	56	6872
2026-01-27 14:49:13.52	196.36	57.39	-42.6	-44.3	18.8	0.00e+00	0	33	0	911212544	58	6667
2026-01-27 14:49:14.53	196.44	57.00	-41.1	-42.4	20.9	0.00e+00	0	33	0	913309696	56	5996
2026-01-27 14:49:15.54	196.52	56.61	-39.8	-40.9	22.1	0.00e+00	0	32	0	914358272	54	5635
2026-01-27 14:49:16.55	196.60	56.23	-39.0	-40.0	22.8	0.00e+00	74	32	0	916455424	52	5739
2026-01-27 14:49:17.56	196.68	55.84	-38.8	-39.8	23.0	0.00e+00	92	32	0	918552576	52	5567
2026-01-27 14:49:18.57	196.75	55.46	-37.5	-38.3	24.4	0.00e+00	73	33	0	920649728	48	5959
2026-01-27 14:49:19.58	196.82	55.09	-36.8	-37.6	24.8	0.00e+00	92	32	0	922746880	48	5469
2026-01-27 14:49:20.59	196.89	54.71	-36.9	-37.7	24.7	0.00e+00	0	32	0	923795456	48	5563
2026-01-27 14:49:21.60	196.96	54.34	-37.5	-38.4	24.1	0.00e+00	7	33	0	925892608	48	6016
2026-01-27 14:49:22.61	197.03	53.97	-37.4	-38.3	24.3	0.00e+00	0	32	0	927989760	48	5938
2026-01-27 14:49:23.62	197.09	53.60	-37.1	-38.0	24.6	0.00e+00	0	32	0	930086912	48	5724
2026-01-27 14:49:24.63	197.15	53.23	-36.9	-37.7	24.8	0.00e+00	90	32	0	932184064	48	5539
2026-01-27 14:49:25.64	197.22	52.87	-36.1	-36.9	25.5	0.00e+00	6	32	0	933232640	46	5643
2026-01-27 14:49:26.65	197.28	52.51	-36.6	-37.4	24.9	0.00e+00	92	33	0	935329792	46	5978
2026-01-27 14:49:27.65	197.33	52.16	-38.1	-39.0	23.7	0.00e+00	6	32	0	937426944	48	6421
2026-01-27 14:49:28.67	197.39	51.80	-39.1	-40.1	22.7	0.00e+00	5	32	0	939524096	50	6518
2026-01-27 14:49:29.67	197.45	51.45	-39.5	-40.6	22.3	0.00e+00	7	33	0	941621248	50	6899
2026-01-27 14:49:30.68	197.50	51.10	-39.7	-40.8	22.1	0.00e+00	7	33	0	943718400	50	7015
2026-01-27 14:49:31.69	197.56	50.76	-40.1	-41.2	21.8	0.00e+00	92	32	0	944766976	52	6542
2026-01-27 14:49:32.70	197.61	50.41	-39.9	-41.0	22.0	0.00e+00	0	32	0	946864128	52	6411
2026-01-27 14:49:33.71	197.66	50.07	-39.9	-41.0	21.9	0.00e+00	92	32	0	948961280	52	6428
2026-01-27 14:49:34.72	197.71	49.73	-40.1	-41.2	21.8	0.00e+00	0	33	0	951058432	52	6552
2026-01-27 14:49:35.73	197.76	49.39	-41.0	-42.2	20.8	0.00e+00	90	32	0	953155584	54	6564
2026-01-27 14:49:36.74	197.81	49.06	-42.5	-44.1	18.9	0.00e+00	7	32	0	954204160	56	7330
2026-01-27 14:49:37.75	197.86	48.73	-45.0	-47.9	15.1	0.00e+00	0	33	0	956301312	60	8980
2026-01-27 14:49:38.75	197.91	48.40	-44.7	-47.4	15.7	7.00e-07	0	32	0	958398464	60	8490
2026-01-27 14:49:39.76	197.95	48.07	-42.3	-43.9	19.2	0.00e+00	0	33	0	960495616	58	6375
2026-01-27 14:49:40.77	198.00	47.75	-41.0	-42.2	21.0	0.00e+00	92	33	0	962592768	56	5872
2026-01-27 14:49:41.79	198.04	47.43	-39.2	-40.2	22.8	0.00e+00	74	32	0	963641344	52	5838
2026-01-27 14:49:42.79	198.09	47.11	-37.8	-38.7	24.1	0.00e+00	92	33	0	965738496	50	5521
2026-01-27 14:49:43.80	198.13	46.79	-37.7	-38.6	24.1	0.00e+00	13	32	0	967835648	48	6107
2026-01-27 14:49:44.81	198.17	46.48	-38.3	-39.2	23.6	0.00e+00	11	33	0	969932800	48	6551
2026-01-27 14:49:45.82	198.21	46.16	-39.0	-40.0	22.8	0.00e+00	0	33	0	972029952	50	6395
2026-01-27 14:49:46.83	198.25	45.85	-39.6	-40.7	22.2	0.00e+00	73	32	0	973078528	50	6944
2026-01-27 14:49:47.84	198.29	45.55	-39.6	-40.7	22.2	0.00e+00	90	33	0	975175680	52	6178
2026-01-27 14:49:48.85	198.33	45.24	-39.6	-40.7	22.3	0.00e+00	20	33	0	977272832	52	6204
2026-01-27 14:49:49.86	198.37	44.94	-38.9	-39.9	23.0	0.00e+00	92	32	0	979369984	52	5641
2026-01-27 14:49:50.87	198.41	44.64	-38.0	-38.9	23.9	0.00e+00	7	32	0	981467136	50	5683
2026-01-27 14:49:51.88	198.44	44.34	-37.3	-38.1	24.5	0.00e+00	8	32	0	982515712	48	5797
2026-01-27 14:49:52.89	198.48	44.04	-37.0	-37.8	24.8	0.00e+00	13	32	0	984612864	48	5614
2026-01-27 14:49:53.90	198.51	43.75	-36.4	-37.1	25.5	0.00e+00	7	33	0	986710016	46	5806
2026-01-27 14:49:54.91	198.55	43.45	-35.8	-36.5	25.8	0.00e+00	92	33	0	988807168	46	5421
2026-01-27 14:49:55.92	198.58	43.16	-36.2	-37.0	25.4	0.00e+00	7	32	0	990904320	46	5698
2026-01-27 14:49:56.93	198.62	42.88	-37.1	-37.9	24.6	0.00e+00	92	32	0	991952896	46	6339
2026-01-27 14:49:57.94	198.65	42.59	-38.0	-38.9	23.8	0.00e+00	6	32	0	994050048	48	6346
2026-01-27 14:49:58.94	198.68	42.31	-39.1	-40.1	22.6	0.00e+00	67	32	0	996147200	50	6518
2026-01-27 14:49:59.95	198.72	42.03	-39.7	-40.8	22.1	0.00e+00	0	32	0	998244352	50	7070
2026-01-27 14:50:00.96	198.75	41.75	-39.7	-40.8	22.3	0.00e+00	68	33	0	1000341504	52	6247
2026-01-27 14:50:01.97	198.78	41.47	-39.2	-40.2	22.7	0.00e+00	0	32	0	1001390080	52	5878
2026-01-27 14:50:02.98	198.81	41.20	-39.0	-40.0	23.0	0.00e+00	0	32	0	1003487232	52	5704
2026-01-27 14:50:03.99	198.84	40.93	-38.4	-39.3	23.4	0.00e+00	92	32	0	1005584384	50	5938
2026-01-27 14:50:05.00	198.87	40.66	-37.8	-38.6	23.3	0.00e+00	14	32	0	1007681536	50	5488
2026-01-27 14:50:06.02	198.90	40.38	-37.7	-38.5	24.0	0.00e+00	92	32	0	1009778688	48	6085
2026-01-27 14:50:07.02	198.93	40.12	-37.9	-38.7	24.0	0.00e+00	13	32	0	1011875840	48	6236
2026-01-27 14:50:08.03	198.96	39.85	-38.2	-39.1	23.5	0.00e+00	73	32	0	1012924416	48	6518
2026-01-27 14:50:09.04	198.99	39.59	-39.1	-40.1	22.8	0.00e+00	7	33	0	1015021568	50	6478
2026-01-27 14:50:10.05	199.02	39.33	-40.3	-41.4	21.6	0.00e+00	10	33	0	1017118720	52	6715
2026-01-27 14:50:11.06	199.04	39.07	-41.4	-42.7	20.2	0.00e+00	92	33	0	1019215872	54	6989
2026-01-27 14:50:12.07	199.07	38.82	-42.4	-44.0	19.2	0.00e+00	11	33	0	1021313024	56	7235
2026-01-27 14:50:13.08	199.10	38.56	-43.4	-45.4	17.8	0.00e+00	92	32	0	1022361600	58	7536
2026-01-27 14:50:14.09	199.13	38.31	-43.7	-45.7	17.4	0.00e+00	0	32	0	1024458752	58	7823
2026-01-27 14:50:15.10	199.15	38.06	-43.5	-45.5	17.7	0.00e+00	3	32	0	1026555904	58	7659
2026-01-27 14:50:16.11	199.18	37.81	-43.2	-45.1	18.0	0.00e+00	0	33	0	1028653056	58	7296
2026-01-27 14:50:17.12	199.20	37.56	-42.7	-44.4	18.7	0.00e+00	0	32	0	1030750208	58	6697
2026-01-27 14:50:18.13	199.23	37.31	-41.8	-43.2	20.0	0.00e+00	0	32	0	1031798784	58	5888
2026-01-27 14:50:19.14	199.25	37.07	-40.8	-42.0	21.0	0.00e+00	0	33	0	1033895936	56	5742
2026-01-27 14:50:20.15	199.28	36.83	-40.4	-41.6	21.3	0.00e+00	92	32	0	1035993088	54	6133
2026-01-27 14:50:21.16	199.30	36.59	-40.4	-41.5	21.4	0.00e+00	72	33	0	1038090240	54	6091
2026-01-27 14:50:22.17	199.33	36.35	-40.3	-41.4	21.5	0.00e+00	73	32	0	1040187392	54	6029
2026-01-27 14:50:23.17	199.35	36.11	-40.1	-41.2	21.8	0.00e+00	72	32	0	1041235968	54	5829
2026-01-27 14:50:24.18	199.37	35.88	-40.3	-41.4	21.5	0.00e+00	71	33	0	1043333120	54	6014
2026-01-27 14:50:25.19	199.40	35.64	-40.5	-41.7	21.3	0.00e+00	0	32	0	1045430272	54	6176
2026-01-27 14:50:26.20	199.42	35.41	-41.1	-42.3	20.7	0.00e+00	9	33	0	1047527424	54	6678
2026-01-27 14:50:27.21	199.44	35.18	-41.5	-42.9	20.2	0.00e+00	92	33	0	1049624576	54	7102
2026-01-27 14:50:28.22	199.46	34.95	-42.6	-44.2	18.9	0.00e+00	72	33	0	1050673152	56	7420
2026-01-27 14:50:29.23	199.49	34.73	-43.5	-45.4	17.8	0.00e+00	92	33	0	1052770304	58	7550
2026-01-27 14:50:30.24	199.51	34.50	-44.2	-46.5	16.7	0.00e+00	14	33	0	1054867456	60	7658
2026-01-27 14:50:31.25	199.53	34.28	-44.6	-47.0	16.1	0.00e+00	17	32	0	1056964608	60	8094
2026-01-27 14:50:32.26	199.55	34.06	-44.6	-47.0	16.2	0.00e+00	14	32	0	1059061760	60	8090
2026-01-27 14:50:33.27	199.57	33.84	-44.2	-46.4	16.9	0.00e+00	15	33	0	1060110336	60	7551
2026-01-27 14:50:34.28	199.59	33.62	-43.6	-45.5	17.7	0.00e+00	92	33	0	1062207488	60	6825
2026-01-27 14:50:35.28	199.61	33.40	-43.2	-45.0	18.2	0.00e+00	2	32	0	1064304640	60	6459
2026-01-27 14:50:36.29	199.63	33.19	-42.4	-43.9	19.3	0.00e+00	90	33	0	1066401792	58	6363
2026-01-27 14:50:37.30	199.65	32.97	-41.8	-43.2	19.8	0.00e+00	2	32	0	1068498944	58	5881
2026-01-27 14:50:38.31	199.67	32.76	-41.4	-42.7	20.5	0.00e+00	0	33	0	1069547520	56	6186
2026-01-27 14:50:39.32	199.69	32.55	-40.9	-42.1	21.0	0.00e+00	0	32	0	1071644672	56	5812
2026-01-27 14:50:40.33	199.71	32.34	-40.9	-42.1	21.0	0.00e+00	0	33	0	1073741824	56	5781
2026-01-27 14:50:41.34	199.73	32.13	-40.4	-41.5	21.6	0.00e+00	0	33	0	1075838976	54	6090
2026-01-27 14:50:42.35	199.75	31.92	-40.0	-41.1	21.8	0.00e+00	0	33	0	1077936128	54	5815
2026-01-27 14:50:43.36	199.77	31.72	-40.1	-41.2	21.7	0.00e+00	92	32	0	1080033280	54	5869
2026-01-27 14:50:44.36	199.79	31.51	-40.2	-41.4	21.6	0.00e+00	0	32	0	1081081856	54	5968
2026-01-27 14:50:45.37	199.81	31.31	-40.5	-41.7	21.1	0.00e+00	92	33	0	1083179008	54	6189
2026-01-27 14:50:46.38	199.83	31.11	-40.8	-42.0	20.9	0.00e+00	72	32	0	1085276160	54	6445
2026-01-27 14:50:47.39	199.84	30.91	-41.2	-42.5	20.4	0.00e+00	9	33	0	1087373312	54	6833
2026-01-27 14:50:48.40	199.86	30.71	-41.6	-43.0	19.9	0.00e+00	60	33	0	1089470464	54	7210
2026-01-27 14:50:49.41	199.88	30.51	-41.9	-43.4	19.8	0.00e+00	11	33	0	1090519040	56	6717
2026-01-27 14:50:50.42	199.90	30.32	-42.1	-43.6	19.5	0.00e+00	92	33	0	1092616192	56	6876
2026-01-27 14:50:51.43	199.91	30.12	-42.3	-43.8	19.3	0.00e+00	0	33	0	1094713344	56	7059
2026-01-27 14:50:52.44	199.93	29.93	-42.3	-43.8	19.3	0.00e+00	92	32	0	1096810496	56	7058
2026-01-27 14:50:53.44	199.95	29.74	-42.4	-44.0	19.2	0.00e+00	9	33	0	1098907648	56	7171
2026-01-27 14:50:54.45	199.97	29.55	-42.3	-43.8	19.3	0.00e+00	0	33	0	1099956224	56	7056
2026-01-27 14:50:55.46	199.98	29.36	-41.9	-43.4	19.7	0.00e+00	10	32	0	1102053376	56	6724
2026-01-27 14:50:56.47	200.00	29.17	-41.5	-42.9	20.1	0.00e+00	9	32	0	1104150528	56	6343
2026-01-27 14:50:57.48	200.02	28.99	-41.4	-42.7	20.4	0.00e+00	92	32	0	1106247680	56	6205
2026-01-27 14:50:58.49	200.03	28.80	-41.1	-42.4	20.6	0.00e+00	2	33	0	1108344832	56	6001
2026-01-27 14:50:59.50	200.05	28.62	-41.0	-42.3	20.8	0.00e+00	92	32	0	1109393408	56	5947
2026-01-27 14:51:00.51	200.06	28.43	-40.8	-42.0	21.0	0.00e+00	0	33	0	1111490560	56	5760
2026-01-27 14:51:01.52	200.08	28.25	-40.2	-41.4	21.6	0.00e+00	0	32	0	1113587712	54	5977
2026-01-27 14:51:02.53	200.10	28.07	-39.8	-40.9	22.0	0.00e+00	2	33	0	1115684864	54	5669
2026-01-27 14:51:03.53	200.11	27.89	-39.6	-40.6	22.3	0.00e+00	2	32	0	1117782016	52	6168
2026-01-27 14:51:04.54	200.13	27.71	-39.4	-40.5	22.4	0.00e+00	0	32	0	1118830592	52	6037
2026-01-27 14:51:05.55	200.14	27.54	-39.2	-40.2	22.7	0.00e+00	0	32	0	1120927744	52	5832
2026-01-27 14:51:06.56	200.16	27.36	-38.9	-39.9	22.8	0.00e+00	92	32	0	1123024896	52	5660
2026-01-27 14:51:07.57	200.17	27.18	-38.8	-39.8	23.1	0.00e+00	0	32	0	1125122048	52	5575
2026-01-27 14:51:08.58	200.19	27.01	-38.7	-39.6	23.1	0.00e+00	91	33	0	1127219200	50	6143
2026-01-27 14:51:09.59	200.20	26.84	-38.5	-39.4	23.3	0.00e+00	70	33	0	1128267776	50	6033
2026-01-27 14:51:10.60	200.22	26.67	-38.5	-39.5	23.3	0.00e+00	68	33	0	1130364928	50	6057
2026-01-27 14:51:11.61	200.23	26.50	-38.6	-39.5	23.3	0.00e+00	38	33	0	1132462080	50	6080
2026-01-27 14:51:12.62	200.25	26.33	-38.5	-39.4	23.3	0.00e+00	11	32	0	1134559232	50	5994
2026-01-27 14:51:13.63	200.26	26.16	-38.4	-39.4	23.3	0.00e+00	92	32	0	1136656384	50	5990
2026-01-27 14:51:14.64	200.28	25.99	-38.5	-39.4	23.4	0.00e+00	0	32	0	1137704960	50	5991
2026-01-27 14:51:15.65	200.29	25.82	-38.4	-39.4	23.3	0.00e+00	51	32	0	1139802112	50	5986
2026-01-27 14:51:16.66	200.30	25.66	-38.3	-39.2	23.4	0.00e+00	13	32	0	1141899264	50	5890
2026-01-27 14:51:17.67	200.32	25.49	-38.4	-39.4	23.3	0.00e+00	5	32	0	1143996416	50	5982
2026-01-27 14:51:18.68	200.33	25.33	-38.6	-39.6	23.1	0.00e+00	5	33	0	1146093568	50	6113
2026-01-27 14:51:19.69	200.35	25.17	-38.4	-39.4	23.3	0.00e+00	7	32	0	1147142144	50	5987
2026-01-27 14:51:20.69	200.36	25.01	-38.4	-39.4	23.4	0.00e+00	92	32	0	1149239296	50	5982
2026-01-27 14:51:21.70	200.37	24.85	-38.4	-39.3	23.3	0.00e+00	0	32	0	1151336448	50	5923
2026-01-27 14:51:22.70	200.39	24.69	-38.4	-39.3	23.3	0.00e+00	92	32	0	1153433600	50	5941
2026-01-27 14:51:23.71	200.40	24.53	-38.2	-39.1	23.5	0.00e+00	6	32	0	1155530752	50	5795
2026-01-27 14:51:24.73	200.41	24.37	-38.3	-39.2	23.5	0.00e+00	40	32	0	1156579328	50	5872
2026-01-27 14:51:25.73	200.43	24.22	-37.8	-38.7	23.9	0.00e+00	0	33	0	1158676480	50	5547
2026-01-27 14:51:26.75	200.44	24.06	-37.8	-38.7	24.0	0.00e+00	0	32	0	1160773632	48	6174
2026-01-27 14:51:27.76	200.45	23.90	-37.7	-38.6	23.9	0.00e+00	6	32	0	1162870784	48	6124
2026-01-27 14:51:28.77	200.47	23.75	-37.5	-38.3	24.2	0.00e+00	0	32	0	1164967936	48	5940
2026-01-27 14:51:29.78	200.48	23.60	-37.3	-38.1	24.3	0.00e+00	91	32	0	1166016512	48	5819
2026-01-27 14:51:30.79	200.49	23.44	-37.1	-37.9	24.5	0.00e+00	63	32	0	1168113664	48	5689
2026-01-27 14:51:31.80	200.50	23.29	-37.2	-38.0	24.1	0.00e+00	22	32	0	1170210816	48	5710
2026-01-27 14:51:32.81	200.52	23.14	-37.2	-38.1	24.3	0.00e+00	25	32	0	1172307968	48	5780
2026-01-27 14:51:33.82	200.53	22.99	-36.9	-37.7	24.6	0.00e+00	22	32	0	1174405120	48	5551
2026-01-27 14:51:34.83	200.54	22.84	-36.8	-37.6	24.8	0.00e+00	58	32	0	1176502272	48	5464
2026-01-27 14:51:35.84	200.55	22.70	-36.8	-37.6	24.8	0.00e+00	63	32	0	1177550848	48	5486
2026-01-27 14:51:36.85	200.57	22.55	-36.7	-37.5	24.9	0.00e+00	90	32	0	1179648000	46	6069
2026-01-27 14:51:37.86	200.58	22.40	-36.9	-37.7	24.7	0.00e+00	7	32	0	1181745152	46	6194
2026-01-27 14:51:38.87	200.59	22.26	-36.8	-37.6	24.8	0.00e+00	90	32	0	1183842304	46	6165
2026-01-27 14:51:39.88	200.60	22.11	-36.8	-37.6	24.8	0.00e+00	20	32	0	1185939456	46	6161
2026-01-27 14:51:40.88	200.61	21.97	-36.9	-37.6	24.7	0.00e+00	18	32	0	1186988032	46	6170
2026-01-27 14:51:41.89	200.62	21.83	-36.8	-37.6	24.8	0.00e+00	0	32	0	1189085184	46	6172
2026-01-27 14:51:42.90	200.64	21.69	-37.0	-37.8	24.7	0.00e+00	6	32	0	1191182336	46	6262
2026-01-27 14:51:43.91	200.65	21.55	-37.1	-37.9	24.6	0.00e+00	90	32	0	1193279488	46	6331
2026-01-27 14:51:44.92	200.66	21.41	-37.1	-37.9	24.6	0.00e+00	7	32	0	1195376640	46	6350
2026-01-27 14:51:45.93	200.67	21.27	-37.2	-38.0	24.5	0.00e+00	92	32	0	1196425216	46	6412
2026-01-27 14:51:46.94	200.68	21.13	-37.1	-37.9	24.6	0.00e+00	0	32	0	1198522368	46	6383
2026-01-27 14:51:47.95	200.69	20.99	-37.2	-38.0	24.4	0.00e+00	68	32	0	1200619520	46	6428
2026-01-27 14:51:48.95	200.71	20.85	-37.4	-38.2	24.3	0.00e+00	69	32	0	1202716672	46	6600
2026-01-27 14:51:49.96	200.72	20.72	-37.5	-38.3	24.2	0.00e+00	0	32	0	1204813824	46	6669
2026-01-27 14:51:50.97	200.73	20.58	-37.4	-38.2	24.3	0.00e+00	0	32	0	1205862400	46	6602
2026-01-27 14:51:51.98	200.74	20.45	-37.3	-38.2	24.3	0.00e+00	0	32	0	1207959552	46	6563
