passes_logs/2026/01/27/R4.6S_Anadyr/R4.6S_Anadyr__20260127_000401_NOAA_21_JPSS-2_rec.log

#Pass ID: 20260127_000401_NOAA 21 (JPSS-2)
#Satellite: NOAA 21 (JPSS-2)
#Configuration: NOAA-21
#almurnet v.1.7.20251203
#Start time: 2026-01-27 00:04:05

#Version: 2.2.20231116
#Station: R4.6S_Anadyr
#Location: 177.4865 lon 64.73178 lat
#TLE: 1 54234U 22150A   26026.43130734  .00000179  00000+0  10559-3 0  9998
#TLE: 2 54234  98.7509 327.1934 0000805 209.8356 150.2774 14.19539635166435

#Time	Az	El	Level	Level2	SNR	BER	BlckErr	Temp	State	Recorded	gain1	gain2
2026-01-27 00:04:05.61	152.50	0.22	-46.0	-60.4	3.6	1.51e+00	0	25	0	0	60	42399
2026-01-27 00:04:06.58	152.50	0.28	-49.6	-62.4	3.5	1.52e+00	0	26	104	0	60	46441
2026-01-27 00:04:07.56	152.50	0.34	-49.5	-62.4	3.5	1.51e+00	0	26	104	0	60	46389
2026-01-27 00:04:08.54	152.50	0.40	-49.4	-62.3	3.5	1.52e+00	0	27	104	0	60	45487
2026-01-27 00:04:09.52	152.50	0.46	-49.4	-62.2	3.5	1.52e+00	0	27	104	0	60	44965
2026-01-27 00:04:10.50	152.50	0.52	-49.3	-62.2	3.5	1.52e+00	0	27	104	0	60	45027
2026-01-27 00:04:11.48	152.49	0.58	-49.3	-62.1	3.5	1.52e+00	0	27	104	0	60	44864
2026-01-27 00:04:12.46	152.49	0.64	-49.3	-62.2	3.5	1.52e+00	0	27	104	0	60	45128
2026-01-27 00:04:13.43	152.49	0.70	-49.3	-62.2	3.5	1.52e+00	0	27	104	0	60	45047
2026-01-27 00:04:14.41	152.49	0.76	-49.3	-62.1	3.5	1.52e+00	0	27	104	0	60	44850
2026-01-27 00:04:15.39	152.49	0.82	-49.3	-62.2	3.5	1.52e+00	0	27	104	0	60	45049
2026-01-27 00:04:16.37	152.49	0.88	-49.3	-62.1	3.5	1.52e+00	0	27	104	0	60	44934
2026-01-27 00:04:17.36	152.49	0.94	-49.3	-62.1	3.5	1.52e+00	0	27	104	0	60	44600
2026-01-27 00:04:18.34	152.49	1.00	-49.2	-62.1	3.5	1.52e+00	0	27	104	0	60	44693
2026-01-27 00:04:19.32	152.49	1.06	-49.2	-62.1	3.5	1.52e+00	0	27	104	0	60	44543
2026-01-27 00:04:20.29	152.49	1.12	-48.8	-61.9	3.5	1.52e+00	0	27	104	0	60	43907
2026-01-27 00:04:21.27	152.49	1.18	-49.1	-61.9	3.5	1.52e+00	0	27	104	0	60	43876
2026-01-27 00:04:22.25	152.48	1.25	-48.8	-61.8	3.5	1.52e+00	0	27	104	0	60	43418
2026-01-27 00:04:23.23	152.48	1.31	-48.8	-61.7	3.5	1.52e+00	0	27	104	0	60	42880
2026-01-27 00:04:24.22	152.48	1.37	-48.8	-61.6	3.5	1.52e+00	0	27	104	0	60	42408
2026-01-27 00:04:25.20	152.48	1.43	-48.6	-61.4	3.5	1.52e+00	0	27	104	0	60	41383
2026-01-27 00:04:26.18	152.48	1.49	-48.0	-60.8	3.5	1.51e+00	0	27	104	0	60	38589
2026-01-27 00:04:27.16	152.48	1.55	-48.0	-60.9	3.5	1.51e+00	0	27	104	0	60	38813
2026-01-27 00:04:28.14	152.48	1.62	-48.0	-60.9	3.5	1.51e+00	0	27	104	0	60	38743
2026-01-27 00:04:29.12	152.48	1.68	-47.9	-60.7	3.5	1.52e+00	0	27	104	0	60	38063
2026-01-27 00:04:30.10	152.47	1.74	-47.8	-60.5	3.5	1.52e+00	0	27	104	0	60	37156
2026-01-27 00:04:31.08	152.47	1.80	-47.8	-60.5	3.5	1.52e+00	0	27	104	0	60	37366
2026-01-27 00:04:32.06	152.47	1.87	-47.8	-60.6	3.5	1.52e+00	0	27	104	0	60	37493
2026-01-27 00:04:33.04	152.47	1.93	-47.8	-60.6	3.5	1.52e+00	0	27	104	0	60	37406
2026-01-27 00:04:34.02	152.47	1.99	-47.8	-60.6	3.5	1.52e+00	0	27	104	0	60	37501
2026-01-27 00:04:35.00	152.47	2.05	-47.8	-60.6	3.5	1.52e+00	0	27	104	0	60	37546
2026-01-27 00:04:35.97	152.47	2.12	-47.8	-60.6	3.5	1.52e+00	0	27	104	0	60	37658
2026-01-27 00:04:36.95	152.47	2.18	-47.8	-60.6	3.5	1.52e+00	0	27	104	0	60	37694
2026-01-27 00:04:37.93	152.46	2.24	-47.8	-60.6	3.5	1.52e+00	0	27	104	0	60	37822
2026-01-27 00:04:38.91	152.46	2.31	-47.8	-60.6	3.5	1.51e+00	0	27	104	0	60	37709
2026-01-27 00:04:39.89	152.46	2.37	-47.8	-60.6	3.5	1.52e+00	0	27	104	0	60	37783
2026-01-27 00:04:40.87	152.46	2.44	-47.8	-60.6	3.5	1.52e+00	0	27	104	0	60	37799
2026-01-27 00:04:41.85	152.46	2.50	-47.8	-60.6	3.5	1.52e+00	0	27	104	0	60	37563
2026-01-27 00:04:42.83	152.46	2.56	-47.8	-60.5	3.5	1.52e+00	0	27	104	0	60	37247
2026-01-27 00:04:43.81	152.46	2.63	-47.8	-60.3	3.5	1.52e+00	0	27	104	0	60	36340
2026-01-27 00:04:44.79	152.45	2.69	-47.8	-60.0	3.5	1.51e+00	0	27	104	0	60	35216
2026-01-27 00:04:45.76	152.45	2.76	-47.7	-59.6	3.5	1.51e+00	0	27	104	0	60	33501
2026-01-27 00:04:46.75	152.45	2.82	-47.7	-59.3	3.5	1.51e+00	0	27	104	0	60	32517
2026-01-27 00:04:47.72	152.45	2.89	-47.7	-59.5	3.5	1.51e+00	0	27	104	0	60	33029
2026-01-27 00:04:48.70	152.45	2.95	-47.7	-59.3	3.5	1.51e+00	0	27	104	0	60	32524
2026-01-27 00:04:49.68	152.45	3.02	-47.8	-59.9	3.5	1.52e+00	0	27	104	0	60	34626
2026-01-27 00:04:50.66	152.45	3.08	-47.8	-60.4	3.5	1.51e+00	0	28	104	0	60	36796
2026-01-27 00:04:51.64	152.44	3.15	-47.8	-60.5	3.5	1.51e+00	0	27	104	0	60	37065
2026-01-27 00:04:52.62	152.44	3.21	-47.6	-58.0	3.6	1.51e+00	0	27	104	0	60	27824
2026-01-27 00:04:53.60	152.44	3.28	-47.2	-55.7	3.8	8.20e-01	0	27	104	0	60	21324
2026-01-27 00:04:54.58	152.44	3.34	-46.7	-52.4	7.1	2.06e-01	122	28	0	0	60	14598
2026-01-27 00:04:55.56	152.44	3.41	-45.7	-49.9	9.7	2.12e-02	123	27	0	3145728	60	10913
2026-01-27 00:04:56.54	152.44	3.48	-44.6	-47.7	12.2	6.13e-04	124	28	0	6291456	60	8515
2026-01-27 00:04:57.52	152.43	3.54	-43.1	-45.3	14.6	1.50e-06	123	27	0	9437184	60	6459
2026-01-27 00:04:58.50	152.43	3.61	-42.8	-44.9	15.1	0.00e+00	120	28	0	12582912	60	6181
2026-01-27 00:04:59.48	152.43	3.68	-41.7	-43.4	16.4	0.00e+00	122	28	0	15728640	56	6571
2026-01-27 00:05:00.46	152.43	3.74	-40.4	-41.9	17.9	0.00e+00	121	27	0	18874368	54	6200
2026-01-27 00:05:01.43	152.43	3.81	-40.3	-41.8	18.1	0.00e+00	122	28	0	22020096	54	6094
2026-01-27 00:05:02.41	152.42	3.88	-40.0	-41.4	18.4	0.00e+00	123	27	0	24117248	54	5844
2026-01-27 00:05:03.40	152.42	3.95	-40.0	-41.5	18.1	0.00e+00	119	28	0	27262976	54	5863
2026-01-27 00:05:04.37	152.42	4.01	-47.4	-56.2	4.1	1.23e+00	0	27	104	29360128	60	22713
2026-01-27 00:05:05.35	152.42	4.08	-39.5	-40.9	18.9	0.00e+00	121	28	0	29360128	52	6153
2026-01-27 00:05:06.33	152.42	4.15	-46.9	-52.8	6.3	7.71e-03	123	28	0	32505856	60	15406
2026-01-27 00:05:07.30	152.42	4.22	-46.9	-52.8	7.2	5.29e-02	119	28	0	35651584	60	15365
2026-01-27 00:05:08.28	152.41	4.28	-47.6	-58.3	3.6	4.86e-01	0	27	104	38797312	60	29000
2026-01-27 00:05:09.26	152.41	4.35	-40.9	-42.5	17.5	9.91e-05	120	28	0	38797312	56	5889
2026-01-27 00:05:10.24	152.41	4.42	-40.9	-42.5	17.4	0.00e+00	120	27	0	41943040	54	6576
2026-01-27 00:05:11.22	152.41	4.49	-39.9	-41.3	18.6	0.00e+00	120	28	0	45088768	54	5735
2026-01-27 00:05:12.20	152.41	4.56	-39.6	-41.0	18.9	0.00e+00	122	27	0	47185920	52	6234
2026-01-27 00:05:13.18	152.40	4.63	-38.9	-40.1	19.7	0.00e+00	122	28	0	50331648	52	5647
2026-01-27 00:05:14.15	152.40	4.70	-39.2	-40.5	19.2	0.00e+00	122	27	0	53477376	50	6620
2026-01-27 00:05:15.13	152.40	4.77	-38.8	-40.0	19.9	0.00e+00	125	28	0	56623104	50	6272
2026-01-27 00:05:16.11	152.40	4.84	-38.6	-39.8	20.0	0.00e+00	123	28	0	59768832	50	6078
2026-01-27 00:05:17.09	152.39	4.91	-38.6	-39.8	20.0	0.00e+00	123	28	0	62914560	50	6111
2026-01-27 00:05:18.07	152.39	4.98	-39.0	-40.2	19.6	0.00e+00	124	28	0	66060288	50	6408
2026-01-27 00:05:19.05	152.39	5.05	-39.1	-40.4	19.4	0.00e+00	123	27	0	69206016	50	6526
2026-01-27 00:05:20.03	152.39	5.12	-38.8	-40.1	19.8	0.00e+00	120	28	0	72351744	50	6288
2026-01-27 00:05:21.01	152.39	5.19	-39.0	-40.3	19.5	0.00e+00	123	28	0	75497472	50	6452
2026-01-27 00:05:21.99	152.38	5.26	-39.6	-40.9	18.9	0.00e+00	122	28	0	78643200	50	6953
2026-01-27 00:05:22.98	152.38	5.33	-39.1	-40.4	19.6	0.00e+00	120	28	0	81788928	50	6524
2026-01-27 00:05:23.96	152.38	5.40	-39.0	-40.3	19.7	0.00e+00	122	28	0	83886080	50	6429
2026-01-27 00:05:24.94	152.38	5.47	-38.4	-39.6	20.2	0.00e+00	122	28	0	87031808	50	5959
2026-01-27 00:05:25.91	152.37	5.54	-38.5	-39.7	20.2	0.00e+00	122	27	0	90177536	50	5999
2026-01-27 00:05:26.89	152.37	5.62	-38.2	-39.4	20.6	0.00e+00	122	27	0	93323264	50	5807
2026-01-27 00:05:27.87	152.37	5.69	-38.4	-39.6	20.3	0.00e+00	121	28	0	96468992	50	5946
2026-01-27 00:05:28.85	152.37	5.76	-38.4	-39.5	20.4	0.00e+00	121	28	0	99614720	50	5923
2026-01-27 00:05:29.83	152.36	5.83	-38.1	-39.3	20.6	0.00e+00	122	28	0	102760448	50	5735
2026-01-27 00:05:30.81	152.36	5.90	-38.1	-39.3	20.6	0.00e+00	121	28	0	105906176	50	5750
2026-01-27 00:05:31.80	152.36	5.98	-37.8	-38.9	21.0	0.00e+00	125	28	0	109051904	50	5485
2026-01-27 00:05:32.77	152.36	6.05	-38.2	-39.4	20.6	0.00e+00	122	28	0	112197632	50	5801
2026-01-27 00:05:33.76	152.35	6.12	-38.2	-39.3	20.5	0.00e+00	122	28	0	115343360	50	5786
2026-01-27 00:05:34.74	152.35	6.20	-38.0	-39.1	20.8	0.00e+00	119	27	0	118489088	50	5645
2026-01-27 00:05:35.72	152.35	6.27	-38.4	-39.5	20.4	0.00e+00	121	28	0	121634816	50	5910
2026-01-27 00:05:36.70	152.35	6.34	-38.1	-39.2	20.7	0.00e+00	120	28	0	123731968	50	5722
2026-01-27 00:05:37.69	152.34	6.42	-38.1	-39.2	20.8	0.00e+00	121	28	0	126877696	50	5702
2026-01-27 00:05:38.67	152.34	6.49	-37.9	-39.0	20.8	0.00e+00	124	28	0	130023424	50	5594
2026-01-27 00:05:39.65	152.34	6.57	-37.7	-38.9	21.2	0.00e+00	121	28	0	133169152	50	5474
2026-01-27 00:05:40.62	152.33	6.64	-37.9	-39.0	20.9	0.00e+00	123	28	0	136314880	48	6257
2026-01-27 00:05:41.60	152.33	6.72	-38.3	-39.5	20.5	0.00e+00	124	28	0	139460608	48	6610
2026-01-27 00:05:42.58	152.33	6.79	-38.4	-39.5	20.5	0.00e+00	121	28	0	142606336	48	6646
2026-01-27 00:05:43.56	152.33	6.87	-38.2	-39.4	20.6	0.00e+00	125	28	0	145752064	48	6511
2026-01-27 00:05:44.53	152.32	6.94	-37.6	-38.7	21.2	0.00e+00	122	28	0	148897792	48	6036
2026-01-27 00:05:45.51	152.32	7.02	-37.9	-39.0	21.0	0.00e+00	118	28	0	152043520	48	6254
2026-01-27 00:05:46.49	152.32	7.09	-37.8	-38.9	21.2	0.00e+00	122	28	0	155189248	48	6163
2026-01-27 00:05:47.47	152.31	7.17	-37.6	-38.8	21.2	0.00e+00	122	28	0	157286400	48	6065
2026-01-27 00:05:48.45	152.31	7.25	-37.8	-38.9	21.1	0.00e+00	120	28	0	160432128	48	6156
2026-01-27 00:05:49.43	152.31	7.32	-37.5	-38.6	21.4	0.00e+00	122	28	0	163577856	48	5954
2026-01-27 00:05:50.41	152.30	7.40	-37.3	-38.4	21.5	0.00e+00	124	28	0	166723584	48	5815
2026-01-27 00:05:51.38	152.30	7.48	-37.5	-38.6	21.4	0.00e+00	119	28	0	169869312	48	5929
2026-01-27 00:05:52.36	152.30	7.55	-37.4	-38.5	21.5	0.00e+00	124	28	0	173015040	48	5884
2026-01-27 00:05:53.34	152.29	7.63	-37.4	-38.5	21.5	0.00e+00	122	28	0	176160768	48	5883
2026-01-27 00:05:54.31	152.29	7.71	-37.1	-38.1	21.9	0.00e+00	124	28	0	179306496	48	5651
2026-01-27 00:05:55.29	152.29	7.79	-37.0	-38.1	21.9	0.00e+00	122	28	0	182452224	48	5614
2026-01-27 00:05:56.26	152.28	7.86	-37.1	-38.2	21.8	0.00e+00	121	28	0	185597952	48	5668
2026-01-27 00:05:57.24	152.28	7.94	-37.3	-38.3	21.7	0.00e+00	121	28	0	188743680	48	5774
2026-01-27 00:05:58.22	152.28	8.02	-36.9	-37.9	22.1	0.00e+00	121	28	0	190840832	48	5507
2026-01-27 00:05:59.20	152.27	8.10	-37.1	-38.1	22.0	0.00e+00	121	28	0	193986560	48	5640
2026-01-27 00:06:00.17	152.27	8.18	-37.0	-38.1	21.9	0.00e+00	119	28	0	197132288	48	5600
2026-01-27 00:06:01.15	152.27	8.26	-36.8	-37.9	22.2	0.00e+00	121	28	0	200278016	48	5473
2026-01-27 00:06:02.14	152.26	8.34	-36.9	-38.0	22.1	0.00e+00	123	28	0	203423744	48	5538
2026-01-27 00:06:03.11	152.26	8.42	-36.6	-37.6	22.4	0.00e+00	122	28	0	206569472	46	5946
2026-01-27 00:06:04.09	152.26	8.50	-36.9	-37.9	22.0	0.00e+00	121	28	0	209715200	46	6203
2026-01-27 00:06:05.07	152.25	8.58	-37.1	-38.1	22.0	0.00e+00	120	28	0	212860928	46	6309
2026-01-27 00:06:06.05	152.25	8.66	-37.4	-38.4	21.8	0.00e+00	120	28	0	216006656	46	6560
2026-01-27 00:06:07.03	152.25	8.74	-37.0	-38.1	22.1	0.00e+00	124	28	0	219152384	46	6290
2026-01-27 00:06:08.01	152.24	8.82	-37.1	-38.1	22.1	0.00e+00	121	28	0	222298112	46	6316
2026-01-27 00:06:08.99	152.24	8.90	-37.1	-38.1	22.1	0.00e+00	119	28	0	225443840	46	6319
2026-01-27 00:06:09.97	152.23	8.99	-36.9	-37.9	22.2	0.00e+00	121	28	0	228589568	46	6194
2026-01-27 00:06:10.95	152.23	9.07	-37.1	-38.1	22.1	0.00e+00	122	28	0	230686720	46	6297
2026-01-27 00:06:11.93	152.23	9.15	-36.7	-37.7	22.3	0.00e+00	122	28	0	233832448	46	6027
2026-01-27 00:06:12.92	152.22	9.23	-36.7	-37.7	22.4	0.00e+00	123	28	0	236978176	46	6038
2026-01-27 00:06:13.90	152.22	9.32	-36.5	-37.5	22.5	0.00e+00	124	28	0	240123904	46	5917
2026-01-27 00:06:14.88	152.21	9.40	-36.4	-37.4	22.7	0.00e+00	123	28	0	243269632	46	5828
2026-01-27 00:06:15.86	152.21	9.48	-36.3	-37.3	22.6	0.00e+00	125	28	0	246415360	46	5782
2026-01-27 00:06:16.83	152.21	9.57	-36.4	-37.4	22.6	0.00e+00	122	28	0	249561088	46	5836
2026-01-27 00:06:17.80	152.20	9.65	-36.3	-37.3	22.7	0.00e+00	122	28	0	252706816	46	5782
2026-01-27 00:06:18.78	152.20	9.74	-36.2	-37.1	22.8	0.00e+00	121	28	0	255852544	46	5656
2026-01-27 00:06:19.76	152.19	9.82	-36.3	-37.3	22.7	0.00e+00	122	28	0	258998272	46	5764
2026-01-27 00:06:20.75	152.19	9.91	-36.6	-37.6	22.5	0.00e+00	124	28	0	262144000	46	5936
2026-01-27 00:06:21.73	152.18	9.99	-36.2	-37.2	22.8	0.00e+00	122	28	0	265289728	46	5694
2026-01-27 00:06:22.70	152.18	10.08	-36.5	-37.4	22.6	0.00e+00	122	28	0	267386880	46	5851
2026-01-27 00:06:23.68	152.18	10.16	-36.6	-37.6	22.5	0.00e+00	121	28	0	270532608	46	5983
2026-01-27 00:06:24.66	152.17	10.25	-36.5	-37.5	22.7	0.00e+00	120	28	0	273678336	46	5861
2026-01-27 00:06:25.64	152.17	10.33	-36.1	-37.1	23.0	0.00e+00	121	28	0	276824064	46	5616
2026-01-27 00:06:26.62	152.16	10.42	-36.0	-37.0	23.0	0.00e+00	122	28	0	279969792	46	5569
2026-01-27 00:06:27.60	152.16	10.51	-35.9	-36.9	23.1	0.00e+00	121	28	0	283115520	46	5472
2026-01-27 00:06:28.58	152.15	10.60	-36.0	-37.0	23.0	0.00e+00	123	28	0	286261248	46	5555
2026-01-27 00:06:29.56	152.15	10.68	-36.1	-37.0	23.0	0.00e+00	122	28	0	289406976	46	5579
2026-01-27 00:06:30.54	152.14	10.77	-35.8	-36.8	23.2	0.00e+00	122	28	0	292552704	46	5452
2026-01-27 00:06:31.51	152.14	10.86	-35.9	-36.9	23.2	0.00e+00	123	28	0	295698432	46	5484
2026-01-27 00:06:32.49	152.13	10.95	-35.8	-36.8	23.2	0.00e+00	119	28	0	298844160	46	5434
2026-01-27 00:06:33.47	152.13	11.04	-35.8	-36.8	23.2	0.00e+00	123	28	0	301989888	46	5428
2026-01-27 00:06:34.45	152.12	11.13	-35.7	-36.7	23.3	0.00e+00	120	28	0	305135616	44	5997
2026-01-27 00:06:35.42	152.12	11.21	-35.7	-36.7	23.3	0.00e+00	122	28	0	307232768	44	6000
2026-01-27 00:06:36.40	152.11	11.30	-35.8	-36.7	23.3	0.00e+00	123	28	0	310378496	44	6052
2026-01-27 00:06:37.38	152.11	11.39	-35.7	-36.7	23.3	0.00e+00	122	28	0	313524224	44	5997
2026-01-27 00:06:38.36	152.10	11.48	-35.6	-36.6	23.4	0.00e+00	124	28	0	316669952	44	5949
2026-01-27 00:06:39.34	152.10	11.58	-35.5	-36.4	23.5	0.00e+00	121	28	0	319815680	44	5837
2026-01-27 00:06:40.32	152.09	11.67	-35.5	-36.4	23.5	0.00e+00	120	28	0	322961408	44	5854
2026-01-27 00:06:41.30	152.09	11.76	-35.6	-36.6	23.4	0.00e+00	125	28	0	326107136	44	5930
2026-01-27 00:06:42.28	152.08	11.85	-35.5	-36.4	23.6	0.00e+00	123	28	0	329252864	44	5812
2026-01-27 00:06:43.26	152.08	11.94	-35.5	-36.4	23.5	0.00e+00	120	28	0	332398592	44	5809
2026-01-27 00:06:44.24	152.07	12.04	-35.5	-36.4	23.6	0.00e+00	122	28	0	335544320	44	5843
2026-01-27 00:06:45.21	152.07	12.13	-35.4	-36.3	23.6	0.00e+00	119	28	0	338690048	44	5768
2026-01-27 00:06:46.19	152.06	12.22	-35.3	-36.2	23.7	0.00e+00	123	28	0	341835776	44	5688
2026-01-27 00:06:47.17	152.05	12.31	-35.4	-36.4	23.6	0.00e+00	122	28	0	343932928	44	5797
2026-01-27 00:06:48.15	152.05	12.41	-35.3	-36.3	23.7	0.00e+00	121	28	0	347078656	44	5727
2026-01-27 00:06:49.14	152.04	12.50	-35.2	-36.1	23.8	0.00e+00	121	28	0	350224384	44	5656
2026-01-27 00:06:50.11	152.04	12.60	-35.4	-36.4	23.7	0.00e+00	121	28	0	353370112	44	5801
2026-01-27 00:06:51.09	152.03	12.69	-35.3	-36.3	23.7	0.00e+00	122	28	0	356515840	44	5726
2026-01-27 00:06:52.07	152.02	12.79	-35.5	-36.5	23.6	0.00e+00	123	28	0	359661568	44	5878
2026-01-27 00:06:53.06	152.02	12.88	-35.2	-36.2	23.8	0.00e+00	124	28	0	362807296	44	5670
2026-01-27 00:06:54.04	152.01	12.98	-35.0	-36.0	24.0	0.00e+00	123	28	0	365953024	44	5547
2026-01-27 00:06:55.02	152.01	13.08	-35.2	-36.2	23.8	0.00e+00	121	28	0	369098752	44	5664
2026-01-27 00:06:56.00	152.00	13.17	-35.2	-36.1	23.9	0.00e+00	123	28	0	372244480	44	5615
2026-01-27 00:06:56.98	151.99	13.27	-35.1	-36.0	23.8	0.00e+00	121	28	0	375390208	44	5564
2026-01-27 00:06:57.97	151.99	13.37	-35.1	-36.0	23.9	0.00e+00	125	28	0	378535936	44	5567
2026-01-27 00:06:58.94	151.98	13.47	-34.9	-35.8	24.0	0.00e+00	121	28	0	381681664	44	5458
2026-01-27 00:06:59.92	151.98	13.57	-34.9	-35.9	24.1	0.00e+00	121	28	0	384827392	44	5472
2026-01-27 00:07:00.91	151.97	13.67	-34.9	-35.9	24.1	0.00e+00	122	28	0	386924544	44	5472
2026-01-27 00:07:01.88	151.96	13.77	-35.0	-35.9	24.0	0.00e+00	122	28	0	390070272	44	5481
2026-01-27 00:07:02.86	151.96	13.87	-35.0	-35.9	24.0	0.00e+00	123	28	0	393216000	44	5495
2026-01-27 00:07:03.84	151.95	13.97	-34.9	-35.8	24.1	0.00e+00	123	28	0	396361728	44	5446
2026-01-27 00:07:04.82	151.94	14.07	-34.9	-35.8	24.0	0.00e+00	122	28	0	399507456	44	5459
2026-01-27 00:07:05.81	151.94	14.17	-35.0	-35.9	24.1	0.00e+00	122	28	0	402653184	44	5488
2026-01-27 00:07:06.79	151.93	14.27	-35.0	-35.9	24.0	0.00e+00	124	28	0	405798912	44	5485
2026-01-27 00:07:07.77	151.92	14.37	-34.9	-35.8	24.0	0.00e+00	121	28	0	408944640	44	5464
2026-01-27 00:07:08.75	151.91	14.47	-34.9	-35.8	24.1	0.00e+00	125	28	0	412090368	44	5437
2026-01-27 00:07:09.73	151.91	14.58	-34.9	-35.8	24.0	0.00e+00	123	28	0	415236096	44	5458
2026-01-27 00:07:10.71	151.90	14.68	-34.9	-35.9	24.0	0.00e+00	122	28	0	418381824	44	5476
2026-01-27 00:07:11.69	151.89	14.78	-34.8	-35.7	24.1	0.00e+00	120	28	0	421527552	44	5383
2026-01-27 00:07:12.67	151.89	14.89	-34.8	-35.8	24.1	0.00e+00	121	28	0	423624704	44	5405
2026-01-27 00:07:13.64	151.88	14.99	-34.9	-35.8	24.1	0.00e+00	120	28	0	426770432	44	5426
2026-01-27 00:07:14.62	151.87	15.10	-34.9	-35.8	24.1	0.00e+00	123	28	0	429916160	44	5430
2026-01-27 00:07:15.60	151.86	15.20	-35.0	-35.9	24.1	0.00e+00	121	28	0	433061888	44	5498
2026-01-27 00:07:16.58	151.86	15.31	-35.0	-35.9	24.0	0.00e+00	123	28	0	436207616	44	5507
2026-01-27 00:07:17.56	151.85	15.41	-35.0	-35.9	24.0	0.00e+00	121	28	0	439353344	44	5488
2026-01-27 00:07:18.53	151.84	15.52	-34.8	-35.7	24.2	0.00e+00	121	28	0	442499072	44	5380
2026-01-27 00:07:19.51	151.83	15.63	-34.8	-35.7	24.2	0.00e+00	123	28	0	445644800	44	5398
2026-01-27 00:07:20.49	151.82	15.73	-35.0	-35.9	24.1	0.00e+00	122	28	0	448790528	44	5475
2026-01-27 00:07:21.47	151.82	15.84	-34.9	-35.8	24.2	0.00e+00	121	28	0	451936256	44	5424
2026-01-27 00:07:22.45	151.81	15.95	-34.8	-35.8	24.2	0.00e+00	123	28	0	455081984	44	5408
2026-01-27 00:07:23.43	151.80	16.06	-34.9	-35.8	24.2	0.00e+00	124	28	0	458227712	44	5435
2026-01-27 00:07:24.41	151.79	16.17	-35.1	-36.0	24.0	0.00e+00	121	28	0	460324864	44	5587
2026-01-27 00:07:25.39	151.78	16.28	-34.9	-35.8	24.1	0.00e+00	123	28	0	463470592	44	5426
2026-01-27 00:07:26.36	151.78	16.39	-35.0	-35.9	24.1	0.00e+00	120	28	0	466616320	44	5526
2026-01-27 00:07:27.34	151.77	16.50	-34.9	-35.8	24.2	0.00e+00	123	28	0	469762048	44	5460
2026-01-27 00:07:28.33	151.76	16.61	-34.9	-35.8	24.2	0.00e+00	121	28	0	472907776	44	5447
2026-01-27 00:07:29.30	151.75	16.73	-35.0	-36.0	24.1	0.00e+00	121	28	0	476053504	44	5540
2026-01-27 00:07:30.28	151.74	16.84	-35.0	-35.9	24.2	0.00e+00	122	28	0	479199232	44	5526
2026-01-27 00:07:31.26	151.73	16.95	-35.0	-35.9	24.1	0.00e+00	119	28	0	482344960	44	5518
2026-01-27 00:07:32.24	151.72	17.07	-35.1	-36.0	24.0	0.00e+00	122	28	0	485490688	44	5586
2026-01-27 00:07:33.22	151.71	17.18	-35.1	-36.0	24.1	0.00e+00	123	28	0	488636416	44	5585
2026-01-27 00:07:34.20	151.70	17.29	-35.1	-36.1	23.9	0.00e+00	119	28	0	491782144	44	5605
2026-01-27 00:07:35.18	151.70	17.41	-35.1	-36.0	24.0	0.00e+00	121	28	0	494927872	44	5590
2026-01-27 00:07:36.16	151.69	17.53	-35.2	-36.1	24.0	0.00e+00	122	28	0	497025024	44	5631
2026-01-27 00:07:37.14	151.68	17.64	-35.2	-36.1	23.9	0.00e+00	121	28	0	500170752	44	5643
2026-01-27 00:07:38.12	151.67	17.76	-35.3	-36.2	23.8	0.00e+00	125	28	0	503316480	44	5708
2026-01-27 00:07:39.09	151.66	17.88	-35.3	-36.2	23.8	0.00e+00	122	28	0	506462208	44	5696
2026-01-27 00:07:40.07	151.65	17.99	-35.3	-36.3	23.8	0.00e+00	122	28	0	509607936	44	5736
2026-01-27 00:07:41.06	151.64	18.11	-35.3	-36.2	23.8	0.00e+00	122	28	0	512753664	44	5718
2026-01-27 00:07:42.04	151.63	18.23	-35.4	-36.3	23.8	0.00e+00	124	28	0	515899392	44	5756
2026-01-27 00:07:43.02	151.62	18.35	-35.4	-36.3	23.8	0.00e+00	119	28	0	519045120	44	5784
2026-01-27 00:07:44.00	151.61	18.47	-35.4	-36.3	23.8	0.00e+00	121	28	0	522190848	44	5780
2026-01-27 00:07:44.97	151.60	18.59	-35.4	-36.3	23.8	0.00e+00	123	28	0	525336576	44	5760
2026-01-27 00:07:45.95	151.59	18.72	-35.3	-36.2	23.8	0.00e+00	122	28	0	528482304	44	5711
2026-01-27 00:07:46.93	151.58	18.84	-35.3	-36.2	23.8	0.00e+00	124	28	0	531628032	44	5722
2026-01-27 00:07:47.91	151.57	18.96	-35.4	-36.3	23.8	0.00e+00	123	28	0	533725184	44	5755
2026-01-27 00:07:48.89	151.56	19.08	-35.5	-36.4	23.7	0.00e+00	122	28	0	536870912	44	5854
2026-01-27 00:07:49.87	151.55	19.21	-35.2	-36.2	23.9	0.00e+00	123	28	0	540016640	44	5671
2026-01-27 00:07:50.84	151.53	19.33	-35.3	-36.2	23.8	0.00e+00	122	28	0	543162368	44	5695
2026-01-27 00:07:51.82	151.52	19.46	-35.2	-36.2	23.9	0.00e+00	120	28	0	546308096	44	5675
2026-01-27 00:07:52.80	151.51	19.58	-35.1	-36.0	24.0	0.00e+00	122	28	0	549453824	44	5585
2026-01-27 00:07:53.78	151.50	19.71	-35.1	-36.0	24.0	0.00e+00	126	28	0	552599552	44	5572
2026-01-27 00:07:54.76	151.49	19.84	-35.1	-36.0	24.0	0.00e+00	122	28	0	555745280	44	5552
2026-01-27 00:07:55.74	151.48	19.96	-35.0	-35.9	24.0	0.00e+00	125	28	0	558891008	44	5526
2026-01-27 00:07:56.72	151.47	20.09	-35.0	-35.9	24.2	0.00e+00	125	28	0	562036736	44	5487
2026-01-27 00:07:57.70	151.46	20.22	-35.0	-35.9	24.2	0.00e+00	120	28	0	565182464	44	5504
2026-01-27 00:07:58.68	151.44	20.35	-35.0	-35.9	24.1	0.00e+00	122	28	0	568328192	44	5507
2026-01-27 00:07:59.66	151.43	20.48	-34.8	-35.7	24.3	0.00e+00	123	28	0	570425344	44	5372
2026-01-27 00:08:00.64	151.42	20.61	-34.8	-35.8	24.2	0.00e+00	119	28	0	573571072	42	6065
2026-01-27 00:08:01.62	151.41	20.75	-34.6	-35.5	24.5	0.00e+00	123	28	0	576716800	42	5919
2026-01-27 00:08:02.60	151.39	20.88	-34.6	-35.5	24.5	0.00e+00	120	28	0	579862528	42	5901
2026-01-27 00:08:03.58	151.38	21.01	-34.4	-35.3	24.6	0.00e+00	124	28	0	583008256	42	5785
2026-01-27 00:08:04.56	151.37	21.15	-34.5	-35.4	24.6	0.00e+00	122	28	0	586153984	42	5833
2026-01-27 00:08:05.54	151.36	21.28	-34.4	-35.3	24.7	0.00e+00	123	28	0	589299712	42	5758
2026-01-27 00:08:06.52	151.34	21.42	-34.2	-35.1	24.7	0.00e+00	125	28	0	592445440	42	5643
2026-01-27 00:08:07.49	151.33	21.55	-34.3	-35.2	24.6	0.00e+00	123	28	0	595591168	42	5696
2026-01-27 00:08:08.47	151.32	21.69	-34.1	-35.0	24.9	0.00e+00	124	28	0	598736896	42	5532
2026-01-27 00:08:09.45	151.30	21.83	-34.0	-34.9	25.0	0.00e+00	122	28	0	601882624	42	5468
2026-01-27 00:08:10.43	151.29	21.96	-33.9	-34.8	25.0	0.00e+00	120	28	0	605028352	42	5427
2026-01-27 00:08:11.41	151.28	22.10	-33.9	-34.8	25.0	0.00e+00	122	28	0	607125504	42	5420
2026-01-27 00:08:12.39	151.26	22.24	-33.8	-34.7	25.0	0.00e+00	123	28	0	610271232	42	5384
2026-01-27 00:08:13.37	151.25	22.38	-34.0	-34.9	25.0	0.00e+00	123	28	0	613416960	42	5508
2026-01-27 00:08:14.35	151.23	22.53	-33.8	-34.6	25.1	0.00e+00	125	28	0	616562688	42	5331
2026-01-27 00:08:15.32	151.22	22.67	-33.8	-34.7	25.0	0.00e+00	122	28	0	619708416	40	6000
2026-01-27 00:08:16.30	151.21	22.81	-33.5	-34.4	25.2	0.00e+00	123	28	0	622854144	40	5825
2026-01-27 00:08:17.28	151.19	22.95	-33.5	-34.3	25.2	0.00e+00	124	28	0	625999872	40	5783
2026-01-27 00:08:18.26	151.18	23.10	-33.6	-34.5	25.1	0.00e+00	123	28	0	629145600	40	5873
2026-01-27 00:08:19.24	151.16	23.24	-33.5	-34.4	25.1	0.00e+00	121	28	0	632291328	40	5832
2026-01-27 00:08:20.22	151.15	23.39	-33.5	-34.3	25.2	0.00e+00	123	28	0	635437056	40	5765
2026-01-27 00:08:21.20	151.13	23.54	-33.4	-34.2	25.3	0.00e+00	122	28	0	638582784	40	5709
2026-01-27 00:08:22.18	151.12	23.68	-33.5	-34.4	25.2	0.00e+00	122	28	0	641728512	40	5797
2026-01-27 00:08:23.16	151.10	23.83	-33.5	-34.3	25.2	0.00e+00	121	28	0	643825664	40	5783
2026-01-27 00:08:24.14	151.08	23.98	-33.3	-34.2	25.2	0.00e+00	123	28	0	646971392	40	5700
2026-01-27 00:08:25.11	151.07	24.13	-33.4	-34.2	25.1	0.00e+00	124	28	0	650117120	40	5713
2026-01-27 00:08:26.09	151.05	24.28	-33.4	-34.2	25.2	0.00e+00	123	28	0	653262848	40	5724
2026-01-27 00:08:27.07	151.04	24.44	-33.5	-34.3	25.0	0.00e+00	120	28	0	656408576	40	5780
2026-01-27 00:08:28.05	151.02	24.59	-33.4	-34.3	25.1	0.00e+00	124	28	0	659554304	40	5764
2026-01-27 00:08:29.03	151.00	24.74	-33.5	-34.4	25.0	0.00e+00	120	28	0	662700032	40	5843
2026-01-27 00:08:30.01	150.99	24.90	-33.6	-34.4	25.1	0.00e+00	121	28	0	665845760	40	5848
2026-01-27 00:08:30.99	150.97	25.05	-33.6	-34.5	24.9	0.00e+00	121	28	0	668991488	40	5900
2026-01-27 00:08:31.96	150.95	25.21	-33.8	-34.7	24.9	0.00e+00	120	28	0	672137216	40	5999
2026-01-27 00:08:32.94	150.93	25.37	-33.8	-34.7	24.8	0.00e+00	123	28	0	675282944	40	6024
2026-01-27 00:08:33.92	150.92	25.52	-33.9	-34.8	24.7	0.00e+00	123	28	0	678428672	40	6105
2026-01-27 00:08:34.89	150.90	25.68	-34.0	-34.9	24.7	0.00e+00	123	28	0	680525824	40	6147
2026-01-27 00:08:35.87	150.88	25.84	-34.1	-34.9	24.6	0.00e+00	121	28	0	683671552	40	6203
2026-01-27 00:08:36.85	150.86	26.00	-34.1	-35.0	24.6	0.00e+00	122	28	0	686817280	40	6234
2026-01-27 00:08:37.82	150.84	26.17	-34.2	-35.1	24.5	0.00e+00	122	28	0	689963008	40	6332
2026-01-27 00:08:38.80	150.82	26.33	-34.4	-35.3	24.4	0.00e+00	122	28	0	693108736	40	6452
2026-01-27 00:08:39.78	150.81	26.49	-34.5	-35.4	24.4	0.00e+00	123	28	0	696254464	40	6544
2026-01-27 00:08:40.76	150.79	26.66	-34.5	-35.4	24.3	0.00e+00	123	28	0	699400192	40	6542
2026-01-27 00:08:41.73	150.77	26.82	-34.6	-35.5	24.3	0.00e+00	123	28	0	702545920	40	6641
2026-01-27 00:08:42.71	150.75	26.99	-34.6	-35.5	24.4	0.00e+00	123	28	0	705691648	40	6629
2026-01-27 00:08:43.70	150.73	27.16	-34.8	-35.7	24.2	0.00e+00	121	28	0	708837376	42	6054
2026-01-27 00:08:44.68	150.71	27.33	-35.0	-35.9	24.2	0.00e+00	121	28	0	711983104	42	6178
2026-01-27 00:08:45.66	150.69	27.50	-35.2	-36.1	24.0	0.00e+00	121	28	0	715128832	42	6345
2026-01-27 00:08:46.64	150.67	27.67	-35.2	-36.2	24.0	0.00e+00	123	28	0	717225984	42	6359
2026-01-27 00:08:47.62	150.64	27.85	-35.3	-36.2	23.9	0.00e+00	122	28	0	720371712	42	6373
2026-01-27 00:08:48.60	150.62	28.02	-35.5	-36.5	23.8	0.00e+00	123	28	0	723517440	42	6580
2026-01-27 00:08:49.58	150.60	28.19	-35.4	-36.3	24.0	0.00e+00	122	28	0	726663168	42	6495
2026-01-27 00:08:50.55	150.58	28.37	-35.5	-36.5	23.8	0.00e+00	124	28	0	729808896	42	6593
2026-01-27 00:08:51.53	150.56	28.55	-35.4	-36.4	23.9	0.00e+00	125	28	0	732954624	42	6500
2026-01-27 00:08:52.51	150.54	28.72	-35.5	-36.4	23.9	0.00e+00	123	28	0	736100352	42	6517
2026-01-27 00:08:53.49	150.51	28.90	-35.4	-36.3	24.1	0.00e+00	121	28	0	739246080	42	6456
2026-01-27 00:08:54.48	150.49	29.09	-35.2	-36.1	24.1	0.00e+00	120	28	0	742391808	42	6329
2026-01-27 00:08:55.45	150.47	29.26	-35.0	-35.9	24.3	0.00e+00	119	28	0	745537536	42	6193
2026-01-27 00:08:56.43	150.44	29.45	-35.0	-35.9	24.3	0.00e+00	121	28	0	748683264	42	6172
2026-01-27 00:08:57.41	150.42	29.63	-34.8	-35.7	24.5	0.00e+00	121	28	0	751828992	42	6025
2026-01-27 00:08:58.39	150.39	29.82	-34.6	-35.5	24.7	0.00e+00	123	28	0	754974720	42	5898
2026-01-27 00:08:59.38	150.37	30.01	-34.6	-35.5	24.6	0.00e+00	122	28	0	757071872	42	5871
2026-01-27 00:09:00.36	150.35	30.19	-34.3	-35.2	24.8	0.00e+00	122	28	0	760217600	42	5669
2026-01-27 00:09:01.34	150.32	30.38	-34.3	-35.1	24.8	0.00e+00	124	28	0	763363328	42	5645
2026-01-27 00:09:02.32	150.29	30.57	-34.4	-35.2	24.7	0.00e+00	122	28	0	766509056	42	5721
2026-01-27 00:09:03.30	150.27	30.76	-34.1	-35.0	25.0	0.00e+00	124	28	0	769654784	42	5541
2026-01-27 00:09:04.28	150.24	30.96	-34.1	-35.0	25.0	0.00e+00	122	28	0	772800512	42	5550
2026-01-27 00:09:05.26	150.22	31.15	-34.2	-35.0	24.9	0.00e+00	120	28	0	775946240	42	5574
2026-01-27 00:09:06.25	150.19	31.35	-34.2	-35.0	25.0	0.00e+00	121	28	0	779091968	42	5564
2026-01-27 00:09:07.24	150.16	31.54	-34.1	-35.0	24.8	0.00e+00	122	28	0	782237696	42	5543
2026-01-27 00:09:08.22	150.13	31.74	-34.0	-34.9	25.0	0.00e+00	123	28	0	785383424	42	5479
2026-01-27 00:09:09.20	150.11	31.94	-34.2	-35.0	24.9	0.00e+00	123	28	0	788529152	42	5588
2026-01-27 00:09:10.18	150.08	32.14	-34.2	-35.1	24.9	0.00e+00	119	28	0	791674880	42	5609
2026-01-27 00:09:11.16	150.05	32.34	-34.2	-35.1	24.9	0.00e+00	122	28	0	794820608	42	5609
2026-01-27 00:09:12.14	150.02	32.55	-34.2	-35.1	24.9	0.00e+00	120	28	0	796917760	42	5619
2026-01-27 00:09:13.12	149.99	32.75	-34.4	-35.2	24.7	0.00e+00	122	28	0	800063488	42	5710
2026-01-27 00:09:14.10	149.96	32.96	-34.6	-35.5	24.7	0.00e+00	122	28	0	803209216	42	5861
2026-01-27 00:09:15.08	149.93	33.16	-34.9	-35.8	24.4	0.00e+00	124	28	0	806354944	42	6112
2026-01-27 00:09:16.06	149.90	33.37	-34.7	-35.6	24.6	0.00e+00	123	28	0	809500672	42	5978
2026-01-27 00:09:17.04	149.87	33.58	-35.0	-35.9	24.4	0.00e+00	124	28	0	812646400	42	6156
2026-01-27 00:09:18.01	149.83	33.79	-35.1	-36.0	24.2	0.00e+00	122	28	0	815792128	42	6255
2026-01-27 00:09:18.99	149.80	34.01	-35.3	-36.2	24.2	0.00e+00	121	28	0	818937856	42	6372
2026-01-27 00:09:19.98	149.77	34.22	-35.4	-36.3	24.1	0.00e+00	123	28	0	822083584	42	6480
2026-01-27 00:09:20.96	149.74	34.44	-35.5	-36.4	23.9	0.00e+00	120	28	0	825229312	42	6556
2026-01-27 00:09:21.94	149.70	34.66	-35.7	-36.6	23.9	0.00e+00	121	28	0	828375040	42	6682
2026-01-27 00:09:22.92	149.67	34.88	-35.8	-36.7	23.8	0.00e+00	127	28	0	831520768	42	6756
2026-01-27 00:09:23.90	149.63	35.10	-35.8	-36.7	23.8	0.00e+00	121	28	0	834666496	44	6048
2026-01-27 00:09:24.87	149.60	35.32	-35.8	-36.7	23.7	0.00e+00	124	28	0	836763648	44	6060
2026-01-27 00:09:25.86	149.56	35.54	-36.0	-37.0	23.5	0.00e+00	124	28	0	839909376	44	6222
2026-01-27 00:09:26.84	149.53	35.77	-36.0	-37.0	23.4	0.00e+00	125	28	0	843055104	44	6212
2026-01-27 00:09:27.81	149.49	35.99	-36.0	-37.0	23.5	0.00e+00	120	28	0	846200832	44	6233
2026-01-27 00:09:28.79	149.45	36.22	-36.1	-37.1	23.4	0.00e+00	122	28	0	849346560	44	6296
2026-01-27 00:09:29.77	149.41	36.45	-36.3	-37.2	23.3	0.00e+00	124	28	0	852492288	44	6394
2026-01-27 00:09:30.75	149.38	36.68	-36.3	-37.2	23.3	0.00e+00	121	28	0	855638016	44	6420
2026-01-27 00:09:31.72	149.34	36.91	-36.7	-37.6	22.9	0.00e+00	123	28	0	858783744	44	6697
2026-01-27 00:09:32.70	149.30	37.15	-36.6	-37.5	23.0	0.00e+00	121	28	0	861929472	46	5914
2026-01-27 00:09:33.69	149.26	37.38	-36.7	-37.6	23.1	0.00e+00	120	28	0	865075200	46	5989
2026-01-27 00:09:34.67	149.22	37.62	-36.9	-37.8	22.9	0.00e+00	123	28	0	868220928	46	6130
2026-01-27 00:09:35.65	149.17	37.86	-36.7	-37.6	22.9	0.00e+00	123	28	0	871366656	46	5986
2026-01-27 00:09:36.62	149.13	38.10	-36.9	-37.8	22.7	0.00e+00	123	28	0	874512384	46	6122
2026-01-27 00:09:37.61	149.09	38.35	-36.4	-37.4	23.1	0.00e+00	123	28	0	876609536	46	5812
2026-01-27 00:09:38.58	149.04	38.59	-36.3	-37.3	23.1	0.00e+00	121	28	0	879755264	46	5743
2026-01-27 00:09:39.56	149.00	38.84	-36.5	-37.5	22.9	0.00e+00	123	28	0	882900992	46	5871
2026-01-27 00:09:40.55	148.95	39.09	-36.4	-37.4	23.1	0.00e+00	120	28	0	886046720	46	5809
2026-01-27 00:09:41.53	148.91	39.34	-36.6	-37.6	23.0	0.00e+00	121	28	0	889192448	46	5948
2026-01-27 00:09:42.50	148.86	39.59	-36.6	-37.6	23.0	0.00e+00	121	28	0	892338176	46	5933
2026-01-27 00:09:43.48	148.82	39.84	-36.7	-37.7	22.9	0.00e+00	121	28	0	895483904	46	6005
2026-01-27 00:09:44.46	148.77	40.10	-36.6	-37.6	22.9	0.00e+00	121	28	0	898629632	46	5965
2026-01-27 00:09:45.43	148.72	40.35	-36.9	-37.9	22.7	0.00e+00	120	28	0	901775360	46	6182
2026-01-27 00:09:46.41	148.67	40.61	-36.6	-37.5	23.1	0.00e+00	123	28	0	904921088	46	5907
2026-01-27 00:09:47.39	148.62	40.87	-36.6	-37.6	23.1	0.00e+00	121	28	0	908066816	46	5946
2026-01-27 00:09:48.38	148.57	41.14	-36.7	-37.6	23.0	0.00e+00	121	28	0	911212544	46	5992
2026-01-27 00:09:49.36	148.51	41.40	-36.7	-37.7	23.0	0.00e+00	122	28	0	913309696	46	5995
2026-01-27 00:09:50.34	148.46	41.67	-36.9	-37.9	22.7	0.00e+00	123	28	0	916455424	46	6141
2026-01-27 00:09:51.31	148.40	41.94	-36.8	-37.8	22.7	0.00e+00	124	28	0	919601152	46	6075
2026-01-27 00:09:52.29	148.35	42.21	-36.9	-37.9	22.5	0.00e+00	124	28	0	922746880	46	6144
2026-01-27 00:09:53.27	148.29	42.48	-36.9	-37.8	22.7	0.00e+00	120	28	0	925892608	46	6126
2026-01-27 00:09:54.25	148.24	42.75	-37.0	-38.0	22.7	0.00e+00	121	28	0	929038336	46	6238
2026-01-27 00:09:55.23	148.18	43.03	-37.3	-38.3	22.4	0.00e+00	123	28	0	932184064	46	6433
2026-01-27 00:09:56.20	148.12	43.31	-37.3	-38.3	22.3	0.00e+00	121	28	0	935329792	46	6442
2026-01-27 00:09:57.18	148.06	43.59	-37.3	-38.3	22.4	0.00e+00	123	28	0	938475520	46	6446
2026-01-27 00:09:58.16	148.00	43.87	-37.5	-38.5	22.3	0.00e+00	122	28	0	941621248	46	6632
2026-01-27 00:09:59.14	147.93	44.15	-37.6	-38.6	22.2	0.00e+00	121	28	0	944766976	46	6720
2026-01-27 00:10:00.12	147.87	44.44	-37.7	-38.8	22.2	0.00e+00	122	28	0	947912704	48	6081
2026-01-27 00:10:01.10	147.80	44.73	-37.9	-38.9	22.1	0.00e+00	123	28	0	950009856	48	6173
2026-01-27 00:10:02.07	147.74	45.02	-37.9	-39.0	21.9	0.00e+00	122	28	0	953155584	48	6225
2026-01-27 00:10:03.06	147.67	45.31	-38.1	-39.1	21.7	0.00e+00	123	28	0	956301312	48	6328
2026-01-27 00:10:04.04	147.60	45.61	-38.4	-39.5	21.6	0.00e+00	120	28	0	959447040	48	6580
2026-01-27 00:10:05.02	147.53	45.91	-38.3	-39.4	21.5	0.00e+00	122	28	0	962592768	48	6501
2026-01-27 00:10:06.00	147.46	46.21	-38.2	-39.3	21.7	0.00e+00	121	28	0	965738496	48	6441
2026-01-27 00:10:06.98	147.38	46.51	-38.3	-39.4	21.6	0.00e+00	121	28	0	968884224	48	6501
2026-01-27 00:10:07.96	147.31	46.81	-38.0	-39.1	21.8	0.00e+00	124	28	0	972029952	48	6278
2026-01-27 00:10:08.94	147.23	47.12	-37.7	-38.8	22.1	0.00e+00	121	28	0	975175680	48	6081
2026-01-27 00:10:09.92	147.15	47.42	-37.4	-38.4	22.3	0.00e+00	125	28	0	978321408	48	5833
2026-01-27 00:10:10.90	147.07	47.73	-37.4	-38.5	22.3	0.00e+00	119	28	0	981467136	48	5862
2026-01-27 00:10:11.88	146.99	48.05	-37.3	-38.3	22.6	0.00e+00	122	28	0	984612864	48	5788
2026-01-27 00:10:12.86	146.91	48.36	-36.8	-37.8	23.0	0.00e+00	122	28	0	986710016	46	6082
2026-01-27 00:10:13.83	146.82	48.68	-36.7	-37.7	23.1	0.00e+00	122	28	0	989855744	46	6004
2026-01-27 00:10:14.81	146.74	48.99	-36.4	-37.4	23.2	0.00e+00	121	28	0	993001472	46	5810
2026-01-27 00:10:15.79	146.65	49.32	-36.5	-37.5	23.1	0.00e+00	122	28	0	996147200	46	5882
2026-01-27 00:10:16.77	146.56	49.64	-36.9	-37.9	22.8	0.00e+00	121	28	0	999292928	46	6191
2026-01-27 00:10:17.75	146.46	49.96	-37.2	-38.2	22.6	0.00e+00	124	28	0	1002438656	46	6383
2026-01-27 00:10:18.73	146.37	50.29	-37.2	-38.2	22.6	0.00e+00	123	28	0	1005584384	46	6402
2026-01-27 00:10:19.71	146.27	50.62	-37.2	-38.3	22.5	0.00e+00	123	28	0	1008730112	46	6425
2026-01-27 00:10:20.69	146.17	50.95	-36.9	-37.9	22.8	0.00e+00	120	28	0	1011875840	46	6202
2026-01-27 00:10:21.67	146.07	51.29	-36.7	-37.7	23.0	0.00e+00	122	28	0	1015021568	46	6014
2026-01-27 00:10:22.66	145.97	51.63	-37.0	-38.0	22.7	0.00e+00	123	28	0	1018167296	46	6239
2026-01-27 00:10:23.64	145.86	51.97	-36.5	-37.5	23.0	0.00e+00	123	28	0	1021313024	46	5910
2026-01-27 00:10:24.62	145.75	52.31	-36.6	-37.6	22.8	0.00e+00	121	28	0	1023410176	46	5952
2026-01-27 00:10:25.59	145.64	52.65	-36.5	-37.5	23.1	0.00e+00	124	28	0	1026555904	46	5900
2026-01-27 00:10:26.58	145.53	53.00	-36.2	-37.2	23.2	0.00e+00	122	28	0	1029701632	46	5692
2026-01-27 00:10:27.56	145.41	53.35	-36.1	-37.0	23.4	0.00e+00	123	28	0	1032847360	46	5576
2026-01-27 00:10:28.53	145.29	53.70	-35.9	-36.8	23.3	0.00e+00	128	28	0	1035993088	46	5463
2026-01-27 00:10:29.52	145.17	54.05	-35.7	-36.6	23.6	0.00e+00	123	28	0	1039138816	44	5955
2026-01-27 00:10:30.49	145.04	54.40	-35.7	-36.7	23.6	0.00e+00	123	28	0	1042284544	44	6016
2026-01-27 00:10:31.47	144.91	54.76	-35.6	-36.6	23.5	0.00e+00	124	28	0	1045430272	44	5950
2026-01-27 00:10:32.45	144.78	55.12	-35.5	-36.4	23.8	0.00e+00	120	28	0	1048576000	44	5855
2026-01-27 00:10:33.43	144.64	55.48	-35.0	-35.9	24.2	0.00e+00	122	28	0	1051721728	44	5516
2026-01-27 00:10:34.41	144.50	55.85	-35.1	-36.0	24.1	0.00e+00	123	28	0	1054867456	44	5549
2026-01-27 00:10:35.39	144.36	56.21	-35.0	-35.9	24.2	0.00e+00	124	28	0	1058013184	44	5482
2026-01-27 00:10:36.37	144.21	56.58	-35.1	-36.1	24.2	0.00e+00	124	28	0	1061158912	44	5604
2026-01-27 00:10:37.35	144.06	56.96	-34.9	-35.8	24.4	0.00e+00	123	28	0	1063256064	44	5427
2026-01-27 00:10:38.32	143.91	57.32	-34.6	-35.5	24.8	0.00e+00	123	28	0	1066401792	42	5876
2026-01-27 00:10:39.30	143.74	57.70	-34.4	-35.3	24.8	0.00e+00	125	28	0	1069547520	42	5781
2026-01-27 00:10:40.28	143.58	58.08	-34.2	-35.1	24.9	0.00e+00	123	28	0	1072693248	42	5632
2026-01-27 00:10:41.25	143.41	58.45	-33.9	-34.7	25.2	0.00e+00	120	28	0	1075838976	42	5384
2026-01-27 00:10:42.23	143.24	58.84	-33.8	-34.7	25.2	0.00e+00	122	28	0	1078984704	42	5380
2026-01-27 00:10:43.22	143.05	59.22	-34.0	-34.8	25.1	0.00e+00	122	28	0	1082130432	42	5457
2026-01-27 00:10:44.20	142.87	59.61	-34.1	-34.9	25.0	0.00e+00	123	28	0	1085276160	42	5523
2026-01-27 00:10:45.18	142.68	60.00	-34.3	-35.2	24.9	0.00e+00	123	28	0	1088421888	42	5675
2026-01-27 00:10:46.16	142.48	60.39	-34.2	-35.1	24.8	0.00e+00	122	28	0	1091567616	42	5629
2026-01-27 00:10:47.14	142.28	60.78	-34.3	-35.2	24.8	0.00e+00	122	28	0	1094713344	42	5698
2026-01-27 00:10:48.11	142.07	61.17	-34.2	-35.1	24.7	0.00e+00	124	28	0	1096810496	42	5612
2026-01-27 00:10:49.10	141.85	61.58	-34.0	-34.8	24.9	0.00e+00	123	28	0	1099956224	42	5460
2026-01-27 00:10:50.08	141.62	61.97	-33.6	-34.4	25.2	0.00e+00	124	28	0	1103101952	40	5837
2026-01-27 00:10:51.05	141.40	62.37	-33.3	-34.1	25.5	0.00e+00	122	28	0	1106247680	40	5633
2026-01-27 00:10:52.03	141.16	62.77	-33.5	-34.3	25.2	0.00e+00	121	28	0	1109393408	40	5786
2026-01-27 00:10:53.01	140.91	63.18	-33.3	-34.2	25.3	0.00e+00	123	28	0	1112539136	40	5674
2026-01-27 00:10:53.99	140.65	63.58	-33.6	-34.4	25.3	0.00e+00	120	28	0	1115684864	40	5851
2026-01-27 00:10:54.97	140.39	63.99	-33.5	-34.4	25.3	0.00e+00	123	28	0	1118830592	40	5807
2026-01-27 00:10:55.95	140.11	64.40	-33.3	-34.1	25.7	0.00e+00	120	28	0	1121976320	40	5629
2026-01-27 00:10:56.93	139.82	64.82	-33.2	-34.0	25.6	0.00e+00	121	28	0	1125122048	40	5565
2026-01-27 00:10:57.91	139.53	65.23	-32.8	-33.6	25.7	0.00e+00	122	28	0	1128267776	40	5322
2026-01-27 00:10:58.89	139.22	65.64	-33.1	-33.9	25.6	0.00e+00	120	28	0	1131413504	40	5498
2026-01-27 00:10:59.87	138.90	66.06	-33.2	-34.0	25.7	0.00e+00	122	28	0	1133510656	40	5576
2026-01-27 00:11:00.84	138.57	66.47	-33.1	-33.9	25.7	0.00e+00	124	28	0	1136656384	40	5503
2026-01-27 00:11:01.83	138.22	66.90	-32.9	-33.7	26.0	0.00e+00	121	28	0	1139802112	40	5385
2026-01-27 00:11:02.81	137.86	67.32	-32.4	-33.2	26.1	0.00e+00	121	28	0	1142947840	38	5665
2026-01-27 00:11:03.79	137.49	67.74	-32.4	-33.2	26.2	0.00e+00	123	28	0	1146093568	38	5682
2026-01-27 00:11:04.77	137.10	68.16	-32.4	-33.2	26.1	0.00e+00	122	28	0	1149239296	38	5665
2026-01-27 00:11:05.74	136.69	68.58	-32.8	-33.6	25.8	0.00e+00	123	28	0	1152385024	38	5963
2026-01-27 00:11:06.72	136.27	69.01	-33.1	-33.9	25.5	0.00e+00	124	28	0	1155530752	38	6176
2026-01-27 00:11:07.70	135.82	69.43	-33.4	-34.2	25.5	0.00e+00	119	28	0	1158676480	38	6407
2026-01-27 00:11:08.68	135.36	69.86	-33.4	-34.3	25.5	0.00e+00	122	28	0	1161822208	38	6441
2026-01-27 00:11:09.66	134.87	70.29	-33.5	-34.3	25.3	0.00e+00	122	28	0	1164967936	38	6462
2026-01-27 00:11:10.64	134.36	70.71	-33.6	-34.5	25.2	0.00e+00	121	28	0	1168113664	38	6580
2026-01-27 00:11:11.62	133.82	71.14	-33.6	-34.5	25.3	0.00e+00	123	28	0	1171259392	40	5862
2026-01-27 00:11:12.60	133.26	71.57	-33.5	-34.3	25.3	0.00e+00	123	28	0	1173356544	40	5782
2026-01-27 00:11:13.58	132.67	72.00	-33.3	-34.1	25.4	0.00e+00	123	28	0	1176502272	40	5641
2026-01-27 00:11:14.56	132.05	72.42	-33.2	-34.0	25.7	0.00e+00	123	28	0	1179648000	40	5570
2026-01-27 00:11:15.54	131.40	72.85	-33.4	-34.3	25.6	0.00e+00	119	28	0	1182793728	40	5741
2026-01-27 00:11:16.51	130.72	73.27	-33.1	-33.9	25.8	0.00e+00	124	28	0	1185939456	40	5508
2026-01-27 00:11:17.49	129.99	73.70	-33.1	-34.0	25.6	0.00e+00	123	28	0	1189085184	40	5543
2026-01-27 00:11:18.47	129.22	74.12	-33.2	-34.0	25.7	0.00e+00	122	28	0	1192230912	40	5581
2026-01-27 00:11:19.45	128.41	74.55	-33.2	-34.0	25.7	0.00e+00	122	28	0	1195376640	40	5577
2026-01-27 00:11:20.43	127.55	74.97	-33.3	-34.1	25.6	0.00e+00	121	28	0	1198522368	40	5656
2026-01-27 00:11:21.41	126.64	75.39	-33.3	-34.2	25.3	0.00e+00	120	28	0	1201668096	40	5668
2026-01-27 00:11:22.38	125.68	75.80	-33.4	-34.3	25.1	0.00e+00	122	28	0	1204813824	40	5727
2026-01-27 00:11:23.37	124.65	76.22	-33.1	-33.9	25.6	0.00e+00	121	28	0	1207959552	40	5530
2026-01-27 00:11:24.35	123.55	76.63	-33.1	-33.9	25.4	0.00e+00	123	28	0	1210056704	40	5519
2026-01-27 00:11:25.33	122.39	77.03	-33.6	-34.5	25.3	0.00e+00	122	28	0	1213202432	40	5859
2026-01-27 00:11:26.30	121.16	77.43	-33.5	-34.3	25.1	0.00e+00	122	28	0	1216348160	40	5783
2026-01-27 00:11:27.28	119.84	77.83	-33.6	-34.5	25.2	0.00e+00	122	28	0	1219493888	40	5906
2026-01-27 00:11:28.26	118.42	78.22	-33.8	-34.7	25.3	0.00e+00	121	28	0	1222639616	40	5996
2026-01-27 00:11:29.24	116.91	78.60	-33.4	-34.2	25.6	0.00e+00	123	28	0	1225785344	40	5714
2026-01-27 00:11:30.22	115.29	78.98	-33.5	-34.3	25.5	0.00e+00	122	28	0	1228931072	40	5778
2026-01-27 00:11:31.20	113.55	79.35	-33.7	-34.5	25.1	0.00e+00	122	28	0	1232076800	40	5900
2026-01-27 00:11:32.18	111.69	79.71	-34.2	-35.1	24.8	0.00e+00	122	28	0	1235222528	40	6282
2026-01-27 00:11:33.16	109.69	80.05	-33.8	-34.7	25.4	0.00e+00	123	28	0	1238368256	40	6040
2026-01-27 00:11:34.13	107.57	80.39	-33.2	-34.1	25.7	0.00e+00	123	28	0	1241513984	40	5610
2026-01-27 00:11:35.11	105.28	80.71	-33.1	-34.0	25.6	0.00e+00	124	28	0	1244659712	40	5533
2026-01-27 00:11:36.09	102.82	81.01	-33.6	-34.4	25.3	0.00e+00	122	28	0	1247805440	40	5840
2026-01-27 00:11:37.07	100.19	81.30	-33.8	-34.6	25.3	0.00e+00	124	28	0	1249902592	40	5963
2026-01-27 00:11:38.04	97.41	81.57	-33.7	-34.6	25.1	0.00e+00	121	28	0	1253048320	40	5960
2026-01-27 00:11:39.01	94.46	81.82	-33.8	-34.7	25.3	0.00e+00	121	28	0	1256194048	40	5996
2026-01-27 00:11:40.00	91.26	82.05	-33.7	-34.6	25.3	0.00e+00	124	28	0	1259339776	40	5960
2026-01-27 00:11:40.97	87.96	82.25	-34.0	-34.9	25.0	0.00e+00	121	28	0	1262485504	40	6141
2026-01-27 00:11:41.95	84.45	82.42	-33.7	-34.6	25.2	0.00e+00	121	28	0	1265631232	40	5951
2026-01-27 00:11:42.93	80.78	82.56	-33.8	-34.6	25.3	0.00e+00	121	28	0	1268776960	40	5973
2026-01-27 00:11:43.91	76.99	82.68	-33.8	-34.7	25.2	0.00e+00	121	28	0	1271922688	40	6017
2026-01-27 00:11:44.89	73.10	82.76	-34.0	-34.9	25.0	0.00e+00	123	28	0	1275068416	40	6140
2026-01-27 00:11:45.87	69.13	82.81	-34.1	-35.0	24.9	0.00e+00	122	28	0	1278214144	40	6262
2026-01-27 00:11:46.85	65.14	82.82	-34.0	-34.9	25.1	0.00e+00	123	28	0	1281359872	40	6164
2026-01-27 00:11:47.83	61.15	82.80	-34.1	-34.9	25.1	0.00e+00	123	28	0	1284505600	40	6202
2026-01-27 00:11:48.80	57.24	82.74	-34.3	-35.1	24.8	0.00e+00	123	28	0	1286602752	40	6341
2026-01-27 00:11:49.78	53.37	82.65	-34.2	-35.1	24.8	0.00e+00	118	28	0	1289748480	40	6284
2026-01-27 00:11:50.77	49.58	82.53	-34.3	-35.2	24.9	0.00e+00	124	28	0	1292894208	40	6354
2026-01-27 00:11:51.75	45.96	82.37	-33.9	-34.7	25.3	0.00e+00	120	28	0	1296039936	40	6054
2026-01-27 00:11:52.73	42.50	82.19	-33.7	-34.6	25.2	0.00e+00	124	28	0	1299185664	40	5937
2026-01-27 00:11:53.71	39.21	81.98	-33.8	-34.7	25.1	0.00e+00	122	28	0	1302331392	40	6019
2026-01-27 00:11:54.69	36.10	81.75	-34.3	-35.2	24.8	0.00e+00	122	28	0	1305477120	40	6380
2026-01-27 00:11:55.67	33.17	81.49	-33.7	-34.6	25.3	0.00e+00	120	28	0	1308622848	40	5933
2026-01-27 00:11:56.65	30.42	81.22	-33.4	-34.3	25.4	0.00e+00	123	28	0	1311768576	40	5749
2026-01-27 00:11:57.62	27.87	80.92	-33.4	-34.2	25.2	0.00e+00	121	28	0	1314914304	40	5718
2026-01-27 00:11:58.60	25.46	80.61	-33.7	-34.6	25.2	0.00e+00	122	28	0	1318060032	40	5933
2026-01-27 00:11:59.58	23.21	80.29	-33.7	-34.6	25.1	0.00e+00	121	28	0	1321205760	40	5927
2026-01-27 00:12:00.56	21.12	79.95	-34.1	-35.0	24.7	0.00e+00	122	28	0	1323302912	40	6257
2026-01-27 00:12:01.54	19.16	79.60	-34.7	-35.6	24.4	0.00e+00	121	28	0	1326448640	40	6693
2026-01-27 00:12:02.52	17.34	79.24	-34.3	-35.2	24.7	0.00e+00	122	28	0	1329594368	42	5670
2026-01-27 00:12:03.50	15.64	78.87	-33.8	-34.7	25.1	0.00e+00	123	28	0	1332740096	42	5346
2026-01-27 00:12:04.48	14.06	78.49	-33.2	-34.0	25.7	0.00e+00	121	28	0	1335885824	40	5581
2026-01-27 00:12:05.46	12.58	78.10	-33.3	-34.2	25.5	0.00e+00	123	28	0	1339031552	40	5680
2026-01-27 00:12:06.44	11.19	77.71	-33.9	-34.8	25.1	0.00e+00	124	28	0	1342177280	40	6117
2026-01-27 00:12:07.43	9.88	77.31	-33.5	-34.4	25.4	0.00e+00	122	28	0	1345323008	40	5803
2026-01-27 00:12:08.40	8.68	76.91	-33.4	-34.3	25.0	0.00e+00	122	28	0	1348468736	40	5741
2026-01-27 00:12:09.38	7.54	76.50	-33.2	-34.1	25.2	0.00e+00	124	28	0	1351614464	40	5628
2026-01-27 00:12:10.36	6.47	76.09	-33.1	-33.9	25.6	0.00e+00	122	28	0	1354760192	40	5519
2026-01-27 00:12:11.34	5.46	75.68	-33.2	-34.0	25.6	0.00e+00	121	28	0	1357905920	40	5569
2026-01-27 00:12:12.32	4.51	75.26	-33.6	-34.5	25.3	0.00e+00	124	28	0	1360003072	40	5878
2026-01-27 00:12:13.30	3.62	74.84	-34.4	-35.3	24.8	0.00e+00	121	28	0	1363148800	40	6461
2026-01-27 00:12:14.28	2.78	74.42	-34.1	-34.9	24.9	0.00e+00	125	28	0	1366294528	40	6187
2026-01-27 00:12:15.26	1.98	74.00	-33.3	-34.2	25.2	0.00e+00	122	28	0	1369440256	40	5682
2026-01-27 00:12:16.24	1.23	73.57	-32.9	-33.8	25.8	0.00e+00	122	28	0	1372585984	40	5411
2026-01-27 00:12:17.22	0.51	73.15	-32.9	-33.7	25.8	0.00e+00	124	28	0	1375731712	38	6031
2026-01-27 00:12:18.20	359.84	72.72	-33.5	-34.3	25.4	0.00e+00	124	28	0	1378877440	38	6490
2026-01-27 00:12:19.18	359.19	72.29	-33.7	-34.6	25.2	0.00e+00	121	28	0	1382023168	40	5931
2026-01-27 00:12:20.16	358.58	71.87	-33.9	-34.8	24.8	0.00e+00	124	28	0	1385168896	40	6107
2026-01-27 00:12:21.14	358.00	71.44	-33.6	-34.5	24.9	0.00e+00	124	28	0	1388314624	40	5876
2026-01-27 00:12:22.12	357.45	71.01	-32.9	-33.7	24.9	0.00e+00	122	28	0	1391460352	40	5396
2026-01-27 00:12:23.10	356.92	70.59	-32.4	-33.3	25.5	0.00e+00	123	28	0	1394606080	38	5739
2026-01-27 00:12:24.08	356.42	70.16	-32.9	-33.7	25.6	0.00e+00	123	28	0	1397751808	38	6041
2026-01-27 00:12:25.06	355.94	69.73	-33.7	-34.6	25.2	0.00e+00	120	28	0	1399848960	40	5936
2026-01-27 00:12:26.03	355.49	69.31	-34.7	-35.7	24.5	0.00e+00	121	28	0	1402994688	40	6732
2026-01-27 00:12:27.01	355.05	68.89	-34.8	-35.8	24.5	0.00e+00	122	28	0	1406140416	42	6080
2026-01-27 00:12:27.99	354.63	68.46	-34.4	-35.3	24.7	0.00e+00	123	28	0	1409286144	42	5745
2026-01-27 00:12:28.97	354.23	68.04	-33.8	-34.7	24.8	0.00e+00	124	28	0	1412431872	42	5375
2026-01-27 00:12:29.95	353.84	67.62	-33.1	-34.0	25.4	0.00e+00	123	28	0	1415577600	40	5556
2026-01-27 00:12:30.93	353.47	67.20	-32.8	-33.7	25.7	0.00e+00	124	28	0	1418723328	40	5346
2026-01-27 00:12:31.91	353.12	66.78	-32.6	-33.4	25.9	0.00e+00	121	28	0	1421869056	38	5841
2026-01-27 00:12:32.89	352.78	66.36	-32.8	-33.6	25.7	0.00e+00	121	28	0	1425014784	38	5971
2026-01-27 00:12:33.87	352.45	65.94	-33.8	-34.6	25.2	0.00e+00	122	28	0	1428160512	38	6708
2026-01-27 00:12:34.85	352.13	65.53	-33.9	-34.8	24.8	0.00e+00	120	28	0	1431306240	40	6073
2026-01-27 00:12:35.83	351.83	65.12	-33.0	-33.9	25.0	0.00e+00	121	28	0	1434451968	40	5501
2026-01-27 00:12:36.80	351.54	64.71	-32.7	-33.5	25.4	0.00e+00	124	28	0	1436549120	40	5266
2026-01-27 00:12:37.78	351.26	64.30	-32.4	-33.2	26.1	0.00e+00	122	28	0	1439694848	38	5714
2026-01-27 00:12:38.76	350.99	63.89	-32.2	-32.9	26.3	0.00e+00	121	28	0	1442840576	38	5519
2026-01-27 00:12:39.74	350.72	63.48	-32.5	-33.3	26.1	0.00e+00	124	28	0	1445986304	38	5745
2026-01-27 00:12:40.72	350.47	63.08	-33.1	-34.0	25.6	0.00e+00	121	28	0	1449132032	38	6227
2026-01-27 00:12:41.70	350.22	62.67	-33.8	-34.6	25.1	0.00e+00	121	28	0	1452277760	40	5973
2026-01-27 00:12:42.67	349.99	62.28	-34.6	-35.5	24.5	0.00e+00	122	28	0	1455423488	40	6599
2026-01-27 00:12:43.66	349.76	61.87	-34.7	-35.6	24.2	0.00e+00	122	28	0	1458569216	42	5973
2026-01-27 00:12:44.63	349.54	61.48	-33.8	-34.7	24.5	0.00e+00	121	28	0	1461714944	42	5403
2026-01-27 00:12:45.61	349.32	61.08	-33.7	-34.5	24.7	0.00e+00	124	28	0	1464860672	40	5922
2026-01-27 00:12:46.59	349.12	60.69	-32.9	-33.7	25.7	0.00e+00	122	28	0	1468006400	40	5396
2026-01-27 00:12:47.58	348.91	60.30	-32.5	-33.3	26.1	0.00e+00	125	28	0	1471152128	38	5755
2026-01-27 00:12:48.56	348.72	59.91	-32.8	-33.7	25.7	0.00e+00	124	28	0	1473249280	38	6013
2026-01-27 00:12:49.55	348.53	59.52	-33.5	-34.3	25.0	0.00e+00	121	28	0	1476395008	38	6481
2026-01-27 00:12:50.53	348.34	59.13	-33.6	-34.5	24.8	0.00e+00	125	28	0	1479540736	38	6602
2026-01-27 00:12:51.52	348.16	58.74	-34.2	-35.0	24.7	0.00e+00	123	28	0	1482686464	40	6271
2026-01-27 00:12:52.50	347.99	58.36	-34.9	-35.8	24.2	0.00e+00	121	28	0	1485832192	42	6113
2026-01-27 00:12:53.48	347.82	57.99	-34.8	-35.8	24.2	0.00e+00	120	28	0	1488977920	42	6077
2026-01-27 00:12:54.46	347.66	57.61	-34.2	-35.1	24.4	0.00e+00	122	28	0	1492123648	42	5622
2026-01-27 00:12:55.43	347.50	57.24	-33.5	-34.4	24.8	0.00e+00	123	28	0	1495269376	40	5822
2026-01-27 00:12:56.41	347.35	56.87	-33.1	-33.9	25.4	0.00e+00	126	28	0	1498415104	40	5529
2026-01-27 00:12:57.39	347.20	56.50	-33.3	-34.1	25.5	0.00e+00	121	28	0	1501560832	40	5655
2026-01-27 00:12:58.36	347.05	56.14	-34.0	-34.8	25.1	0.00e+00	123	28	0	1504706560	40	6103
2026-01-27 00:12:59.35	346.91	55.77	-34.8	-35.7	24.4	0.00e+00	123	28	0	1507852288	40	6792
2026-01-27 00:13:00.33	346.77	55.40	-35.8	-36.7	23.7	0.00e+00	120	28	0	1510998016	42	6783
2026-01-27 00:13:01.31	346.63	55.04	-36.1	-37.0	23.4	0.00e+00	121	28	0	1513095168	44	6254
2026-01-27 00:13:02.29	346.50	54.69	-36.1	-37.1	23.3	0.00e+00	122	28	0	1516240896	44	6295
2026-01-27 00:13:03.27	346.38	54.33	-36.2	-37.1	23.4	0.00e+00	121	28	0	1519386624	44	6340
2026-01-27 00:13:04.24	346.25	53.98	-36.1	-37.0	23.4	0.00e+00	121	28	0	1522532352	44	6256
2026-01-27 00:13:05.23	346.13	53.62	-35.8	-36.8	23.0	0.00e+00	123	28	0	1525678080	44	6127
2026-01-27 00:13:06.21	346.01	53.28	-35.4	-36.4	22.9	0.00e+00	120	28	0	1528823808	44	5802
2026-01-27 00:13:07.19	345.89	52.93	-35.2	-36.2	23.0	0.00e+00	122	28	0	1531969536	44	5705
2026-01-27 00:13:08.17	345.78	52.58	-35.3	-36.2	23.8	0.00e+00	121	28	0	1535115264	44	5680
2026-01-27 00:13:09.15	345.67	52.24	-34.9	-35.8	24.4	0.00e+00	122	28	0	1538260992	44	5409
2026-01-27 00:13:10.13	345.56	51.90	-35.3	-36.2	24.1	0.00e+00	122	28	0	1541406720	44	5670
2026-01-27 00:13:11.11	345.46	51.57	-36.2	-37.1	23.2	0.00e+00	126	28	0	1544552448	44	6328
2026-01-27 00:13:12.08	345.36	51.23	-37.1	-38.1	22.6	0.00e+00	121	28	0	1547698176	46	6318
2026-01-27 00:13:13.06	345.26	50.90	-37.3	-38.3	22.5	0.00e+00	126	28	0	1549795328	46	6465
2026-01-27 00:13:14.04	345.16	50.57	-36.8	-37.7	23.0	0.00e+00	122	28	0	1552941056	46	6052
2026-01-27 00:13:15.02	345.06	50.24	-36.6	-37.5	23.0	0.00e+00	124	28	0	1556086784	46	5903
2026-01-27 00:13:16.00	344.97	49.92	-36.8	-37.8	22.8	0.00e+00	120	28	0	1559232512	46	6076
2026-01-27 00:13:16.98	344.88	49.59	-37.3	-38.3	22.3	0.00e+00	120	28	0	1562378240	46	6470
2026-01-27 00:13:17.96	344.79	49.27	-37.7	-38.7	21.9	0.00e+00	122	28	0	1565523968	48	6048
2026-01-27 00:13:18.94	344.70	48.95	-37.9	-39.0	21.8	0.00e+00	122	28	0	1568669696	48	6207
2026-01-27 00:13:19.92	344.61	48.63	-37.1	-38.2	22.2	0.00e+00	122	28	0	1571815424	48	5668
2026-01-27 00:13:20.90	344.53	48.32	-36.7	-37.7	22.5	0.00e+00	121	28	0	1574961152	48	5399
2026-01-27 00:13:21.88	344.45	48.00	-36.5	-37.5	22.8	0.00e+00	120	28	0	1578106880	46	5872
2026-01-27 00:13:22.86	344.36	47.69	-36.4	-37.3	23.2	0.00e+00	122	28	0	1581252608	46	5775
2026-01-27 00:13:23.84	344.29	47.39	-36.0	-36.9	23.6	0.00e+00	120	28	0	1584398336	46	5518
2026-01-27 00:13:24.82	344.21	47.08	-36.4	-37.4	23.1	0.00e+00	123	28	0	1587544064	46	5802
2026-01-27 00:13:25.80	344.13	46.77	-37.0	-38.0	22.6	0.00e+00	120	28	0	1589641216	46	6211
2026-01-27 00:13:26.79	344.06	46.47	-37.5	-38.6	22.2	0.00e+00	124	28	0	1592786944	46	6671
2026-01-27 00:13:27.77	343.98	46.17	-38.0	-39.1	21.7	0.00e+00	122	28	0	1595932672	48	6289
2026-01-27 00:13:28.75	343.91	45.87	-38.2	-39.3	21.4	0.00e+00	123	28	0	1599078400	48	6496
2026-01-27 00:13:29.73	343.84	45.58	-38.2	-39.3	21.5	0.00e+00	121	28	0	1602224128	48	6433
2026-01-27 00:13:30.71	343.77	45.28	-38.1	-39.2	21.6	0.00e+00	120	28	0	1605369856	48	6367
2026-01-27 00:13:31.69	343.71	44.99	-38.1	-39.2	21.7	0.00e+00	121	28	0	1608515584	48	6354
2026-01-27 00:13:32.67	343.64	44.70	-38.5	-39.6	21.3	0.00e+00	123	28	0	1611661312	48	6675
2026-01-27 00:13:33.64	343.58	44.42	-38.6	-39.7	21.0	0.00e+00	123	28	0	1614807040	48	6763
2026-01-27 00:13:34.62	343.51	44.13	-38.4	-39.5	21.3	0.00e+00	123	28	0	1617952768	48	6606
2026-01-27 00:13:35.59	343.45	43.85	-38.2	-39.2	21.5	0.00e+00	120	28	0	1621098496	48	6413
2026-01-27 00:13:36.57	343.39	43.57	-37.8	-38.8	21.7	0.00e+00	123	28	0	1624244224	48	6130
2026-01-27 00:13:37.55	343.33	43.29	-37.2	-38.3	22.1	0.00e+00	122	28	0	1626341376	48	5748
2026-01-27 00:13:38.53	343.27	43.02	-36.6	-37.5	22.8	0.00e+00	123	28	0	1629487104	46	5922
2026-01-27 00:13:39.52	343.21	42.74	-36.2	-37.1	23.2	0.00e+00	121	28	0	1632632832	46	5628
2026-01-27 00:13:40.50	343.16	42.46	-35.6	-36.5	23.8	0.00e+00	121	28	0	1635778560	44	5859
2026-01-27 00:13:41.47	343.10	42.20	-35.6	-36.5	23.9	0.00e+00	120	28	0	1638924288	44	5863
2026-01-27 00:13:42.45	343.05	41.93	-35.7	-36.6	23.8	0.00e+00	123	28	0	1642070016	44	5969
2026-01-27 00:13:43.43	342.99	41.66	-36.4	-37.4	23.3	0.00e+00	122	28	0	1645215744	44	6499
2026-01-27 00:13:44.41	342.94	41.39	-37.1	-38.1	22.6	0.00e+00	123	28	0	1648361472	46	6328
2026-01-27 00:13:45.39	342.89	41.13	-37.7	-38.8	22.0	0.00e+00	123	28	0	1651507200	46	6807
2026-01-27 00:13:46.36	342.84	40.87	-38.2	-39.3	21.7	0.00e+00	122	28	0	1654652928	48	6434
2026-01-27 00:13:47.34	342.79	40.61	-38.3	-39.4	21.4	0.00e+00	124	28	0	1657798656	48	6546
2026-01-27 00:13:48.32	342.74	40.35	-38.2	-39.3	21.5	0.00e+00	123	28	0	1659895808	48	6469
2026-01-27 00:13:49.29	342.69	40.10	-37.9	-39.0	21.8	0.00e+00	122	28	0	1663041536	48	6238
2026-01-27 00:13:50.27	342.64	39.84	-37.8	-38.8	21.8	0.00e+00	124	28	0	1666187264	48	6114
2026-01-27 00:13:51.25	342.59	39.59	-37.3	-38.3	22.2	0.00e+00	124	28	0	1669332992	48	5790
2026-01-27 00:13:52.22	342.55	39.34	-37.3	-38.3	22.3	0.00e+00	122	28	0	1672478720	48	5769
2026-01-27 00:13:53.20	342.50	39.10	-37.3	-38.4	22.2	0.00e+00	123	28	0	1675624448	48	5802
2026-01-27 00:13:54.18	342.46	38.85	-37.5	-38.5	22.2	0.00e+00	122	28	0	1678770176	48	5899
2026-01-27 00:13:55.15	342.41	38.61	-37.1	-38.1	22.5	0.00e+00	121	28	0	1681915904	48	5621
2026-01-27 00:13:56.14	342.37	38.36	-37.1	-38.1	22.6	0.00e+00	122	28	0	1685061632	48	5629
2026-01-27 00:13:57.11	342.33	38.12	-36.8	-37.8	22.8	0.00e+00	123	28	0	1688207360	48	5442
2026-01-27 00:13:58.10	342.29	37.88	-36.8	-37.8	22.8	0.00e+00	123	28	0	1691353088	48	5439
2026-01-27 00:13:59.08	342.25	37.64	-36.5	-37.5	23.1	0.00e+00	119	28	0	1694498816	46	5887
2026-01-27 00:14:00.06	342.20	37.40	-36.4	-37.4	23.1	0.00e+00	123	28	0	1697644544	46	5812
2026-01-27 00:14:01.03	342.17	37.17	-36.3	-37.3	23.2	0.00e+00	123	28	0	1699741696	46	5760
2026-01-27 00:14:02.02	342.13	36.93	-36.1	-37.1	23.3	0.00e+00	125	28	0	1702887424	46	5624
2026-01-27 00:14:03.00	342.09	36.70	-35.8	-36.8	23.6	0.00e+00	122	28	0	1706033152	46	5410
2026-01-27 00:14:03.98	342.05	36.47	-35.7	-36.7	23.6	0.00e+00	123	28	0	1709178880	44	6004
2026-01-27 00:14:04.96	342.01	36.24	-35.6	-36.5	23.8	0.00e+00	121	28	0	1712324608	44	5883
2026-01-27 00:14:05.94	341.97	36.01	-35.5	-36.4	23.9	0.00e+00	123	28	0	1715470336	44	5816
2026-01-27 00:14:06.92	341.94	35.79	-35.6	-36.6	23.8	0.00e+00	121	28	0	1718616064	44	5934
2026-01-27 00:14:07.90	341.90	35.56	-35.8	-36.8	23.7	0.00e+00	120	28	0	1721761792	44	6065
2026-01-27 00:14:08.88	341.87	35.34	-35.8	-36.7	23.5	0.00e+00	123	28	0	1724907520	44	6026
2026-01-27 00:14:09.86	341.83	35.12	-35.8	-36.8	23.5	0.00e+00	121	28	0	1728053248	44	6083
2026-01-27 00:14:10.84	341.80	34.90	-35.7	-36.6	23.6	0.00e+00	125	28	0	1731198976	44	5956
2026-01-27 00:14:11.81	341.76	34.69	-35.4	-36.3	23.8	0.00e+00	124	28	0	1734344704	44	5789
2026-01-27 00:14:12.79	341.73	34.47	-35.4	-36.3	23.9	0.00e+00	124	28	0	1736441856	44	5763
2026-01-27 00:14:13.78	341.70	34.25	-35.4	-36.3	23.9	0.00e+00	122	28	0	1739587584	44	5786
2026-01-27 00:14:14.76	341.67	34.04	-35.2	-36.2	24.1	0.00e+00	122	28	0	1742733312	44	5665
2026-01-27 00:14:15.74	341.63	33.83	-35.1	-36.0	24.0	0.00e+00	121	28	0	1745879040	44	5584
2026-01-27 00:14:16.71	341.60	33.62	-35.0	-35.9	24.2	0.00e+00	119	28	0	1749024768	44	5516
2026-01-27 00:14:17.69	341.57	33.41	-35.1	-36.0	24.2	0.00e+00	121	28	0	1752170496	44	5573
2026-01-27 00:14:18.67	341.54	33.20	-35.1	-36.0	24.2	0.00e+00	120	28	0	1755316224	44	5573
2026-01-27 00:14:19.64	341.51	33.00	-35.2	-36.1	24.2	0.00e+00	120	28	0	1758461952	44	5600
2026-01-27 00:14:20.62	341.48	32.79	-34.8	-35.7	24.5	0.00e+00	125	28	0	1761607680	44	5372
2026-01-27 00:14:21.60	341.45	32.59	-35.0	-35.9	24.3	0.00e+00	120	28	0	1764753408	44	5494
2026-01-27 00:14:22.58	341.42	32.39	-34.9	-35.8	24.3	0.00e+00	123	28	0	1767899136	44	5451
2026-01-27 00:14:23.56	341.40	32.19	-35.1	-36.0	24.2	0.00e+00	121	28	0	1771044864	44	5590
2026-01-27 00:14:24.54	341.37	31.99	-35.2	-36.1	24.1	0.00e+00	124	28	0	1774190592	44	5626
2026-01-27 00:14:25.52	341.34	31.79	-35.2	-36.1	24.2	0.00e+00	122	28	0	1776287744	44	5617
2026-01-27 00:14:26.50	341.31	31.59	-34.9	-35.8	24.3	0.00e+00	122	28	0	1779433472	44	5462
2026-01-27 00:14:27.49	341.29	31.40	-35.1	-36.0	24.2	0.00e+00	120	28	0	1782579200	44	5572
2026-01-27 00:14:28.46	341.26	31.20	-35.2	-36.1	24.1	0.00e+00	124	28	0	1785724928	44	5619
2026-01-27 00:14:29.44	341.23	31.01	-34.9	-35.8	24.3	0.00e+00	121	28	0	1788870656	44	5460
2026-01-27 00:14:30.42	341.21	30.82	-35.0	-35.9	24.3	0.00e+00	123	28	0	1792016384	44	5480
2026-01-27 00:14:31.40	341.18	30.63	-35.1	-36.0	24.1	0.00e+00	123	28	0	1795162112	44	5564
2026-01-27 00:14:32.38	341.16	30.44	-35.0	-35.9	24.1	0.00e+00	123	28	0	1798307840	44	5530
2026-01-27 00:14:33.36	341.13	30.25	-35.0	-35.9	24.1	0.00e+00	120	28	0	1801453568	44	5527
2026-01-27 00:14:34.34	341.11	30.06	-35.2	-36.1	24.0	0.00e+00	124	28	0	1804599296	44	5630
2026-01-27 00:14:35.32	341.09	29.88	-35.2	-36.1	24.0	0.00e+00	122	28	0	1807745024	44	5648
2026-01-27 00:14:36.30	341.06	29.69	-35.1	-36.0	24.1	0.00e+00	122	28	0	1810890752	44	5570
2026-01-27 00:14:37.28	341.04	29.51	-35.1	-36.0	24.1	0.00e+00	123	28	0	1814036480	44	5573
2026-01-27 00:14:38.27	341.01	29.33	-35.0	-35.9	24.1	0.00e+00	122	28	0	1816133632	44	5525
2026-01-27 00:14:39.25	340.99	29.15	-35.1	-36.0	24.0	0.00e+00	122	28	0	1819279360	44	5558
2026-01-27 00:14:40.24	340.97	28.96	-34.8	-35.7	24.2	0.00e+00	123	28	0	1822425088	44	5368
2026-01-27 00:14:41.22	340.95	28.79	-34.8	-35.7	24.0	0.00e+00	123	28	0	1825570816	44	5400
2026-01-27 00:14:42.20	340.92	28.61	-34.6	-35.5	24.2	0.00e+00	121	28	0	1828716544	42	5893
2026-01-27 00:14:43.18	340.90	28.43	-34.7	-35.6	24.0	0.00e+00	124	28	0	1831862272	42	5938
2026-01-27 00:14:44.16	340.88	28.26	-34.5	-35.5	24.1	0.00e+00	122	28	0	1835008000	42	5867
2026-01-27 00:14:45.13	340.86	28.09	-34.5	-35.5	23.9	0.00e+00	122	28	0	1838153728	42	5871
2026-01-27 00:14:46.11	340.84	27.91	-34.5	-35.4	23.9	0.00e+00	124	28	0	1841299456	42	5807
2026-01-27 00:14:47.09	340.82	27.74	-34.5	-35.4	23.8	0.00e+00	122	28	0	1844445184	42	5816
2026-01-27 00:14:48.06	340.80	27.57	-34.4	-35.4	23.7	0.00e+00	122	28	0	1847590912	42	5800
2026-01-27 00:14:49.04	340.78	27.40	-34.5	-35.4	23.7	0.00e+00	123	28	0	1850736640	42	5849
2026-01-27 00:14:50.02	340.76	27.23	-34.5	-35.4	23.6	0.00e+00	123	28	0	1853882368	42	5826
2026-01-27 00:14:51.00	340.74	27.06	-34.6	-35.6	23.5	0.00e+00	120	28	0	1855979520	42	5955
2026-01-27 00:14:51.98	340.72	26.90	-34.6	-35.6	23.4	0.00e+00	123	28	0	1859125248	42	5947
2026-01-27 00:14:52.96	340.70	26.73	-34.6	-35.6	23.6	0.00e+00	121	28	0	1862270976	42	5927
2026-01-27 00:14:53.93	340.68	26.57	-34.5	-35.4	23.6	0.00e+00	119	28	0	1865416704	42	5850
2026-01-27 00:14:54.91	340.66	26.41	-34.6	-35.5	23.6	0.00e+00	123	28	0	1868562432	42	5923
2026-01-27 00:14:55.89	340.65	26.24	-34.6	-35.5	23.8	0.00e+00	122	28	0	1871708160	42	5905
2026-01-27 00:14:56.87	340.63	26.08	-34.5	-35.5	23.8	0.00e+00	122	28	0	1874853888	42	5879
2026-01-27 00:14:57.85	340.61	25.92	-34.6	-35.6	23.9	0.00e+00	122	28	0	1877999616	42	5954
2026-01-27 00:14:58.83	340.59	25.76	-34.6	-35.6	24.0	0.00e+00	122	28	0	1881145344	42	5948
2026-01-27 00:14:59.81	340.57	25.60	-34.4	-35.3	24.1	0.00e+00	121	28	0	1884291072	42	5788
2026-01-27 00:15:00.79	340.56	25.44	-34.1	-35.1	24.4	0.00e+00	123	28	0	1887436800	42	5602
2026-01-27 00:15:01.77	340.54	25.29	-34.2	-35.1	24.4	0.00e+00	122	28	0	1890582528	42	5634
2026-01-27 00:15:02.75	340.52	25.13	-34.1	-35.0	24.4	0.00e+00	122	28	0	1892679680	42	5570
