passes_logs/2026/01/27/R4.6S_Anadyr/R4.6S_Anadyr__20260127_212829_TY-42_rec.log

#Pass ID: 20260127_212829_TY-42
#Satellite: TY-42
#Configuration: TY-42_900M
#almurnet v.1.7.20251203
#Start time: 2026-01-27 21:28:59

#Version: 2.2.20231116
#Station: R4.6S_Anadyr
#Location: 177.4865 lon 64.73178 lat
#TLE: 1 64048U 25103A   26027.68657407  .00008010  00000-0  38191-3 0 09997
#TLE: 2 64048 097.4119 102.8659 0001730 093.3854 305.6563 15.19171009 38743

#Time	Az	El	Level	Level2	SNR	BER	BlckErr	Temp	State	Recorded	gain1	gain2
2026-01-27 21:28:59.21	27.53	1.53	-48.9	-50.2	3.4	0.00e+00	0	29	0	0	60	39801
2026-01-27 21:29:00.19	27.65	1.58	-47.2	-49.7	6.1	0.00e+00	0	31	104	0	60	37323
2026-01-27 21:29:01.17	27.76	1.63	-47.2	-49.7	6.1	0.00e+00	0	31	104	0	60	37228
2026-01-27 21:29:02.16	27.88	1.68	-47.2	-49.7	6.1	0.00e+00	0	31	104	0	60	37423
2026-01-27 21:29:03.14	27.99	1.73	-47.2	-49.7	6.1	0.00e+00	0	31	104	0	60	37414
2026-01-27 21:29:04.12	28.11	1.78	-47.2	-49.7	6.1	0.00e+00	0	31	104	0	60	37248
2026-01-27 21:29:05.10	28.22	1.83	-47.2	-49.7	6.0	0.00e+00	0	31	104	0	60	37234
2026-01-27 21:29:06.08	28.34	1.89	-47.2	-49.7	6.1	0.00e+00	0	31	104	0	60	37332
2026-01-27 21:29:07.05	28.45	1.94	-47.2	-49.7	6.1	0.00e+00	0	31	104	0	60	37484
2026-01-27 21:29:08.03	28.57	1.99	-47.2	-49.7	6.1	0.00e+00	0	31	104	0	60	37259
2026-01-27 21:29:09.01	28.69	2.04	-47.2	-49.7	6.0	0.00e+00	0	31	104	0	60	37408
2026-01-27 21:29:10.00	28.81	2.09	-47.2	-49.7	6.1	0.00e+00	0	31	104	0	60	37234
2026-01-27 21:29:10.97	28.93	2.14	-47.2	-49.7	6.1	0.00e+00	0	31	104	0	60	37262
2026-01-27 21:29:11.96	29.05	2.19	-47.2	-49.7	6.1	0.00e+00	0	31	104	0	60	37318
2026-01-27 21:29:12.94	29.17	2.24	-47.2	-49.6	6.1	0.00e+00	0	31	104	0	60	37187
2026-01-27 21:29:13.92	29.29	2.29	-47.2	-49.7	6.1	0.00e+00	0	31	104	0	60	37270
2026-01-27 21:29:14.89	29.41	2.34	-47.2	-49.7	6.1	0.00e+00	0	31	104	0	60	37299
2026-01-27 21:29:15.88	29.53	2.40	-47.2	-49.6	6.0	0.00e+00	0	31	104	0	60	37095
2026-01-27 21:29:16.85	29.65	2.45	-47.2	-49.7	6.1	0.00e+00	0	32	104	0	60	37336
2026-01-27 21:29:17.84	29.78	2.50	-47.2	-49.6	6.1	0.00e+00	0	32	104	0	60	37193
2026-01-27 21:29:18.82	29.90	2.55	-47.2	-49.6	6.1	0.00e+00	0	31	104	0	60	37048
2026-01-27 21:29:19.81	30.02	2.60	-47.2	-49.6	6.1	0.00e+00	0	32	104	0	60	37183
2026-01-27 21:29:20.78	30.15	2.65	-47.2	-49.6	6.1	0.00e+00	0	32	104	0	60	37057
2026-01-27 21:29:21.76	30.27	2.71	-47.2	-49.6	6.1	0.00e+00	0	32	104	0	60	37096
2026-01-27 21:29:22.74	30.40	2.76	-47.2	-49.7	6.1	0.00e+00	0	32	104	0	60	37214
2026-01-27 21:29:23.73	30.52	2.81	-47.2	-49.6	6.1	0.00e+00	0	32	104	0	60	37199
2026-01-27 21:29:24.70	30.65	2.86	-47.2	-49.7	6.1	0.00e+00	0	32	104	0	60	37271
2026-01-27 21:29:25.68	30.78	2.91	-47.2	-49.7	6.1	0.00e+00	0	32	104	0	60	37299
2026-01-27 21:29:26.67	30.90	2.96	-47.2	-49.7	6.1	0.00e+00	0	32	104	0	60	37275
2026-01-27 21:29:27.65	31.03	3.02	-47.2	-49.7	6.1	0.00e+00	0	32	104	0	60	37281
2026-01-27 21:29:28.63	31.16	3.07	-47.3	-49.8	6.1	0.00e+00	0	32	104	0	60	37992
2026-01-27 21:29:29.61	31.29	3.12	-47.5	-49.9	6.1	0.00e+00	0	32	104	0	60	38329
2026-01-27 21:29:30.59	31.42	3.17	-47.2	-49.7	6.1	0.00e+00	0	32	104	0	60	37567
2026-01-27 21:29:31.57	31.55	3.22	-47.0	-49.5	6.1	0.00e+00	0	32	104	0	60	36455
2026-01-27 21:29:32.55	31.68	3.27	-47.5	-49.9	6.1	0.00e+00	0	32	104	0	60	38389
2026-01-27 21:29:33.53	31.81	3.33	-47.5	-50.0	6.1	0.00e+00	0	32	104	0	60	38762
2026-01-27 21:29:34.51	31.94	3.38	-47.5	-50.0	6.1	0.00e+00	0	32	104	0	60	38690
2026-01-27 21:29:35.50	32.08	3.43	-47.4	-49.9	6.1	0.00e+00	0	32	104	0	60	38123
2026-01-27 21:29:36.48	32.21	3.48	-47.5	-50.0	6.1	0.00e+00	0	32	104	0	60	38607
2026-01-27 21:29:37.46	32.34	3.53	-47.6	-50.1	6.1	0.00e+00	0	32	104	0	60	39070
2026-01-27 21:29:38.44	32.48	3.59	-47.4	-49.9	6.1	0.00e+00	0	32	104	0	60	38284
2026-01-27 21:29:39.41	32.61	3.64	-47.4	-49.9	6.1	0.00e+00	0	32	104	0	60	38361
2026-01-27 21:29:40.38	32.75	3.69	-47.2	-49.8	6.1	0.00e+00	0	32	104	0	60	37706
2026-01-27 21:29:41.36	32.88	3.74	-47.7	-50.1	6.1	0.00e+00	0	32	104	0	60	39323
2026-01-27 21:29:42.34	33.02	3.79	-47.7	-50.1	6.1	0.00e+00	0	32	104	0	60	39189
2026-01-27 21:29:43.32	33.16	3.84	-47.3	-49.8	6.1	0.00e+00	0	32	104	0	60	37849
2026-01-27 21:29:44.31	33.29	3.90	-47.6	-50.0	6.1	0.00e+00	0	32	104	0	60	38938
2026-01-27 21:29:45.29	33.43	3.95	-47.7	-50.2	6.1	0.00e+00	0	32	104	0	60	39496
2026-01-27 21:29:46.27	33.57	4.00	-47.5	-50.0	6.1	0.00e+00	0	32	104	0	60	38700
2026-01-27 21:29:47.25	33.71	4.05	-47.6	-50.0	6.1	0.00e+00	0	32	104	0	60	38892
2026-01-27 21:29:48.23	33.85	4.11	-47.5	-49.9	6.1	0.00e+00	0	32	104	0	60	38314
2026-01-27 21:29:49.21	33.99	4.16	-47.5	-50.0	6.1	0.00e+00	0	32	104	0	60	38650
2026-01-27 21:29:50.20	34.13	4.21	-47.6	-50.0	6.1	0.00e+00	0	32	104	0	60	38940
2026-01-27 21:29:51.18	34.28	4.26	-47.5	-50.0	6.1	0.00e+00	0	32	104	0	60	38796
2026-01-27 21:29:52.15	34.42	4.31	-47.5	-50.0	6.1	0.00e+00	0	32	104	0	60	38834
2026-01-27 21:29:53.14	34.56	4.37	-47.7	-50.2	6.1	0.00e+00	0	32	104	0	60	39471
2026-01-27 21:29:54.12	34.71	4.42	-47.6	-50.1	6.1	0.00e+00	0	32	104	0	60	39077
2026-01-27 21:29:55.10	34.85	4.47	-47.6	-50.0	6.1	0.00e+00	0	32	104	0	60	38738
2026-01-27 21:29:56.09	35.00	4.52	-47.7	-50.1	6.1	0.00e+00	0	32	104	0	60	39354
2026-01-27 21:29:57.07	35.14	4.58	-47.8	-50.3	6.1	0.00e+00	0	32	104	0	60	40054
2026-01-27 21:29:58.05	35.29	4.63	-47.7	-50.2	6.1	0.00e+00	0	32	104	0	60	39513
2026-01-27 21:29:59.04	35.44	4.68	-47.6	-50.1	6.1	0.00e+00	0	32	104	0	60	39119
2026-01-27 21:30:00.02	35.59	4.73	-47.7	-50.1	6.1	0.00e+00	0	33	104	0	60	39403
2026-01-27 21:30:01.00	35.73	4.79	-47.9	-50.3	6.1	0.00e+00	0	32	104	0	60	40098
2026-01-27 21:30:01.99	35.88	4.84	-47.7	-50.2	6.1	0.00e+00	0	33	104	0	60	39573
2026-01-27 21:30:02.96	36.03	4.89	-47.7	-50.1	6.1	0.00e+00	0	33	104	0	60	39313
2026-01-27 21:30:03.94	36.18	4.94	-47.7	-50.2	6.1	0.00e+00	0	33	104	0	60	39748
2026-01-27 21:30:04.91	36.33	4.99	-47.9	-50.4	6.1	0.00e+00	0	33	104	0	60	40339
2026-01-27 21:30:05.89	36.48	5.05	-47.7	-50.2	6.1	0.00e+00	0	33	104	0	60	39513
2026-01-27 21:30:06.87	36.64	5.10	-47.8	-50.2	6.1	0.00e+00	0	33	104	0	60	39844
2026-01-27 21:30:07.85	36.79	5.15	-47.7	-50.1	6.1	0.00e+00	0	33	104	0	60	39323
2026-01-27 21:30:08.82	36.94	5.20	-47.9	-50.3	6.1	0.00e+00	0	33	104	0	60	40285
2026-01-27 21:30:09.80	37.10	5.26	-47.8	-50.3	6.1	0.00e+00	0	33	104	0	60	39914
2026-01-27 21:30:10.78	37.25	5.31	-47.8	-50.3	6.1	0.00e+00	0	33	104	0	60	39863
2026-01-27 21:30:11.76	37.41	5.36	-47.8	-50.3	6.1	0.00e+00	0	33	104	0	60	40053
2026-01-27 21:30:12.74	37.56	5.41	-47.7	-50.2	6.1	0.00e+00	0	33	104	0	60	39861
2026-01-27 21:30:13.72	37.72	5.46	-47.8	-50.3	6.1	0.00e+00	0	33	104	0	60	40067
2026-01-27 21:30:14.70	37.88	5.52	-47.8	-50.2	6.1	0.00e+00	0	33	104	0	60	39675
2026-01-27 21:30:15.67	38.03	5.57	-47.8	-50.3	6.1	0.00e+00	0	33	104	0	60	39923
2026-01-27 21:30:16.65	38.19	5.62	-48.0	-50.5	6.1	0.00e+00	0	33	104	0	60	40822
2026-01-27 21:30:17.63	38.35	5.67	-28.8	-29.1	11.6	0.00e+00	832	33	104	0	36	13887
2026-01-27 21:30:18.61	38.51	5.72	-30.3	-30.6	12.6	0.00e+00	0	33	0	0	28	26333
2026-01-27 21:30:19.58	38.67	5.78	-38.2	-38.6	10.0	0.00e+00	0	33	104	16777216	56	13154
2026-01-27 21:30:20.56	38.83	5.83	-27.3	-27.8	16.0	0.00e+00	0	33	0	25165824	30	16957
2026-01-27 21:30:21.55	39.00	5.88	-36.2	-36.5	10.5	0.00e+00	183	33	104	58720256	54	11537
2026-01-27 21:30:22.53	39.16	5.93	-31.5	-31.8	12.4	0.00e+00	5220	33	104	58720256	40	15040
2026-01-27 21:30:23.51	39.33	5.98	-32.2	-32.7	14.3	4.50e-02	0	33	0	150994944	38	18659
2026-01-27 21:30:24.48	39.49	6.04	-31.1	-31.6	14.7	4.50e-02	0	33	0	268435456	38	16549
2026-01-27 21:30:25.46	39.65	6.09	-30.8	-31.3	14.9	1.18e-02	0	33	0	369098752	36	17946
2026-01-27 21:30:26.44	39.82	6.14	-30.9	-31.4	14.9	1.18e-02	0	33	0	486539264	36	18021
2026-01-27 21:30:27.42	39.99	6.19	-30.9	-31.4	14.8	6.30e-03	0	33	0	595591168	36	18121
2026-01-27 21:30:28.40	40.16	6.24	-30.6	-31.1	15.0	6.30e-03	0	33	0	704643072	36	17487
2026-01-27 21:30:29.39	40.33	6.29	-30.3	-30.7	15.4	6.30e-03	0	33	0	813694976	36	16805
2026-01-27 21:30:30.36	40.49	6.35	-29.8	-30.2	15.6	5.07e-03	0	33	0	922746880	34	17801
2026-01-27 21:30:31.35	40.66	6.40	-28.5	-29.0	16.0	5.07e-03	0	33	0	1040187392	32	17254
2026-01-27 21:30:32.33	40.83	6.45	-28.4	-28.9	16.0	1.68e-03	0	33	0	1149239296	32	17128
2026-01-27 21:30:33.31	41.01	6.50	-28.0	-28.5	16.1	8.45e-04	0	33	0	1258291200	32	16338
2026-01-27 21:30:34.29	41.18	6.55	-27.7	-28.2	16.1	8.45e-04	0	33	0	1367343104	32	15807
2026-01-27 21:30:35.27	41.35	6.60	-27.6	-28.1	16.1	3.49e-04	0	33	0	1476395008	30	17591
2026-01-27 21:30:36.25	41.52	6.66	-27.1	-27.6	16.3	3.49e-04	0	33	0	1585446912	30	16507
2026-01-27 21:30:37.23	41.70	6.71	-26.4	-26.9	16.5	1.52e-04	0	33	0	1702887424	28	17128
2026-01-27 21:30:38.21	41.87	6.76	-26.4	-26.9	16.5	1.52e-04	0	33	0	1803550720	28	17036
2026-01-27 21:30:39.18	42.05	6.81	-26.3	-26.8	16.2	1.09e-04	0	34	0	1920991232	28	17001
2026-01-27 21:30:40.16	42.22	6.86	-26.0	-26.5	16.3	1.09e-04	0	33	0	2030043136	28	16381
2026-01-27 21:30:41.14	42.40	6.91	-26.2	-26.7	16.3	1.09e-04	0	33	0	2139095040	28	16776
2026-01-27 21:30:42.12	42.58	6.96	-26.5	-27.0	16.2	1.03e-04	0	34	0	2248146944	28	17298
2026-01-27 21:30:43.10	42.76	7.01	-26.4	-26.9	16.3	1.58e-04	0	33	0	2357198848	28	17058
2026-01-27 21:30:44.08	42.94	7.06	-25.9	-26.4	16.5	1.58e-04	0	33	0	2474639360	28	16133
2026-01-27 21:30:45.07	43.12	7.12	-26.3	-26.8	16.4	5.44e-05	0	34	0	2575302656	28	16865
2026-01-27 21:30:46.04	43.30	7.17	-26.5	-27.0	16.3	5.44e-05	0	34	0	2692743168	28	17321
2026-01-27 21:30:47.03	43.48	7.22	-26.3	-26.9	16.4	1.25e-04	0	34	0	2801795072	28	17026
2026-01-27 21:30:48.01	43.66	7.27	-26.3	-26.8	16.5	1.25e-04	0	34	0	2910846976	28	16943
2026-01-27 21:30:48.99	43.85	7.32	-26.3	-26.9	16.5	9.26e-05	0	34	0	3019898880	28	17025
2026-01-27 21:30:49.97	44.03	7.37	-25.9	-26.5	16.6	9.26e-05	0	34	0	3128950784	28	16256
2026-01-27 21:30:50.95	44.22	7.42	-26.0	-26.5	16.6	4.35e-05	0	34	0	3238002688	28	16424
2026-01-27 21:30:51.93	44.40	7.47	-26.1	-26.6	16.6	4.35e-05	0	34	0	3355443200	28	16557
2026-01-27 21:30:52.91	44.59	7.52	-26.2	-26.7	16.5	4.35e-05	0	34	0	3464495104	28	16659
2026-01-27 21:30:53.89	44.78	7.57	-26.2	-26.7	16.6	7.62e-05	0	34	0	3573547008	28	16630
2026-01-27 21:30:54.86	44.96	7.62	-26.4	-26.9	16.5	7.62e-05	0	34	0	3682598912	28	17166
2026-01-27 21:30:55.84	45.15	7.67	-26.6	-27.1	16.5	8.71e-05	0	34	0	3791650816	28	17564
2026-01-27 21:30:56.82	45.34	7.72	-25.9	-26.4	16.6	8.71e-05	0	34	0	3900702720	28	16194
2026-01-27 21:30:57.80	45.53	7.77	-26.2	-26.7	16.5	3.26e-05	0	34	0	4009754624	28	16796
2026-01-27 21:30:58.78	45.72	7.82	-26.1	-26.6	16.6	3.26e-05	0	34	0	4127195136	28	16446
2026-01-27 21:30:59.75	45.91	7.87	-26.0	-26.5	16.7	4.35e-05	0	34	0	4227858432	28	16289
2026-01-27 21:31:00.73	46.11	7.92	-26.0	-26.5	16.6	4.35e-05	0	34	0	4345298944	26	18366
2026-01-27 21:31:01.71	46.30	7.97	-26.2	-26.7	16.5	4.35e-05	0	34	0	4454350848	26	18770
2026-01-27 21:31:02.68	46.49	8.02	-26.1	-26.6	16.5	3.26e-05	0	34	0	4563402752	26	18613
2026-01-27 21:31:03.66	46.69	8.07	-26.4	-27.0	16.5	3.26e-05	0	34	0	4672454656	26	19324
2026-01-27 21:31:04.65	46.88	8.11	-26.5	-27.0	16.5	1.03e-04	0	34	0	4781506560	26	19395
2026-01-27 21:31:05.62	47.08	8.16	-26.2	-26.7	16.6	1.03e-04	0	34	0	4898947072	26	18687
2026-01-27 21:31:06.60	47.28	8.21	-26.2	-26.8	16.6	6.53e-05	0	34	0	4999610368	26	18876
2026-01-27 21:31:07.58	47.47	8.26	-25.9	-26.4	16.6	6.53e-05	0	34	0	5117050880	26	18182
2026-01-27 21:31:08.55	47.67	8.31	-25.7	-26.2	16.7	3.81e-05	0	34	0	5217714176	26	17649
2026-01-27 21:31:09.53	47.87	8.36	-26.0	-26.5	16.6	3.81e-05	0	34	0	5335154688	26	18401
2026-01-27 21:31:10.51	48.07	8.40	-26.3	-26.8	16.6	3.81e-05	0	34	0	5444206592	26	19019
2026-01-27 21:31:11.49	48.27	8.45	-25.8	-26.3	16.6	2.17e-05	0	34	0	5553258496	26	17972
2026-01-27 21:31:12.47	48.48	8.50	-26.2	-26.7	16.4	7.62e-05	0	34	0	5662310400	26	18702
2026-01-27 21:31:13.44	48.68	8.55	-26.0	-26.5	16.4	7.62e-05	0	34	0	5771362304	26	18268
2026-01-27 21:31:14.42	48.88	8.60	-25.9	-26.4	16.4	7.62e-05	0	34	0	5880414208	26	18028
2026-01-27 21:31:15.40	49.09	8.64	-25.8	-26.3	16.4	5.99e-05	0	34	0	5989466112	26	17995
2026-01-27 21:31:16.38	49.29	8.69	-25.9	-26.4	16.5	5.99e-05	0	34	0	6106906624	26	18120
2026-01-27 21:31:17.36	49.50	8.74	-25.8	-26.3	16.6	2.17e-05	0	34	0	6207569920	26	17951
2026-01-27 21:31:18.34	49.70	8.78	-25.9	-26.4	16.5	2.17e-05	0	34	0	6325010432	26	18151
2026-01-27 21:31:19.32	49.91	8.83	-26.1	-26.6	16.5	2.17e-05	0	34	0	6434062336	26	18445
2026-01-27 21:31:20.30	50.12	8.88	-26.1	-26.6	16.5	3.81e-05	0	34	0	6543114240	26	18494
2026-01-27 21:31:21.28	50.33	8.92	-25.9	-26.4	16.4	3.81e-05	0	34	0	6652166144	26	18146
2026-01-27 21:31:22.26	50.54	8.97	-25.8	-26.3	16.5	7.62e-05	0	34	0	6761218048	26	17907
2026-01-27 21:31:23.24	50.75	9.02	-25.9	-26.4	16.4	7.62e-05	0	34	0	6878658560	26	18132
2026-01-27 21:31:24.22	50.96	9.06	-25.8	-26.3	16.2	4.90e-05	0	34	0	6979321856	26	17933
2026-01-27 21:31:25.20	51.18	9.11	-25.6	-26.1	16.2	4.90e-05	0	34	0	7096762368	26	17522
2026-01-27 21:31:26.18	51.39	9.15	-25.9	-26.4	16.1	1.09e-04	0	34	0	7205814272	26	18201
2026-01-27 21:31:27.15	51.60	9.20	-25.9	-26.4	16.3	1.09e-04	0	34	0	7314866176	26	18197
2026-01-27 21:31:28.13	51.82	9.25	-25.7	-26.2	16.6	1.09e-04	0	34	0	7423918080	26	17662
2026-01-27 21:31:29.11	52.03	9.29	-25.8	-26.3	16.7	8.17e-05	0	34	0	7532969984	26	17873
2026-01-27 21:31:30.10	52.25	9.34	-25.8	-26.3	16.6	8.17e-05	0	34	0	7642021888	26	17894
2026-01-27 21:31:31.07	52.47	9.38	-25.5	-26.0	16.5	1.63e-05	0	34	0	7759462400	26	17294
2026-01-27 21:31:32.05	52.69	9.42	-26.1	-26.6	16.4	1.63e-05	0	34	0	7868514304	26	18533
2026-01-27 21:31:33.03	52.91	9.47	-26.0	-26.5	16.4	5.44e-05	0	34	0	7977566208	26	18373
2026-01-27 21:31:34.00	53.12	9.51	-26.1	-26.6	16.2	5.44e-05	0	34	0	8086618112	26	18471
2026-01-27 21:31:34.98	53.35	9.56	-25.9	-26.4	16.2	9.26e-05	0	34	0	8195670016	26	18059
2026-01-27 21:31:35.96	53.57	9.60	-25.8	-26.2	16.2	9.26e-05	0	34	0	8304721920	26	17787
2026-01-27 21:31:36.94	53.79	9.64	-25.6	-26.0	16.3	9.26e-05	0	34	0	8413773824	26	17348
2026-01-27 21:31:37.91	54.01	9.69	-25.6	-26.1	16.3	9.80e-05	0	34	0	8522825728	26	17426
2026-01-27 21:31:38.89	54.23	9.73	-25.5	-26.0	16.5	9.80e-05	0	34	0	8631877632	26	17274
2026-01-27 21:31:39.87	54.46	9.77	-25.4	-25.9	16.6	5.99e-05	0	34	0	8740929536	26	17159
2026-01-27 21:31:40.85	54.68	9.81	-25.1	-25.6	16.7	5.99e-05	0	34	0	8858370048	26	16602
2026-01-27 21:31:41.83	54.91	9.86	-25.2	-25.7	16.7	1.08e-05	0	34	0	8967421952	26	16658
2026-01-27 21:31:42.81	55.14	9.90	-25.3	-25.8	16.8	1.08e-05	0	34	0	9076473856	26	16914
2026-01-27 21:31:43.79	55.37	9.94	-24.9	-25.5	16.7	0.00e+00	0	34	0	9185525760	26	16265
2026-01-27 21:31:44.76	55.59	9.98	-25.0	-25.5	16.7	0.00e+00	0	34	0	9294577664	26	16416
2026-01-27 21:31:45.74	55.82	10.02	-25.2	-25.8	16.7	0.00e+00	0	34	0	9403629568	26	16826
2026-01-27 21:31:46.72	56.05	10.06	-25.3	-25.8	16.8	5.40e-06	0	34	0	9512681472	26	16849
2026-01-27 21:31:47.70	56.28	10.10	-25.1	-25.6	16.7	5.40e-06	0	34	0	9621733376	26	16484
2026-01-27 21:31:48.68	56.52	10.14	-24.9	-25.5	16.7	0.00e+00	0	34	0	9739173888	26	16248
2026-01-27 21:31:49.66	56.75	10.18	-24.9	-25.4	16.8	0.00e+00	0	34	0	9848225792	26	16188
2026-01-27 21:31:50.64	56.98	10.22	-25.0	-25.5	16.7	1.08e-05	0	34	0	9957277696	26	16351
2026-01-27 21:31:51.62	57.22	10.26	-25.2	-25.7	16.5	1.08e-05	0	34	0	10066329600	26	16789
2026-01-27 21:31:52.59	57.45	10.30	-25.3	-25.8	16.6	1.63e-05	0	34	0	10175381504	26	16977
2026-01-27 21:31:53.57	57.68	10.34	-25.3	-25.8	16.7	1.63e-05	0	34	0	10284433408	26	16910
2026-01-27 21:31:54.55	57.92	10.38	-25.0	-25.5	16.8	1.08e-05	0	34	0	10393485312	26	16382
2026-01-27 21:31:55.53	58.16	10.42	-25.0	-25.5	16.8	1.08e-05	0	34	0	10510925824	26	16387
2026-01-27 21:31:56.51	58.39	10.46	-25.1	-25.6	16.7	1.08e-05	0	34	0	10611589120	26	16478
2026-01-27 21:31:57.49	58.63	10.49	-25.1	-25.6	16.6	1.08e-05	0	34	0	10729029632	26	16482
2026-01-27 21:31:58.48	58.88	10.53	-25.0	-25.5	16.4	5.40e-06	0	34	0	10838081536	26	16427
2026-01-27 21:31:59.46	59.12	10.57	-25.0	-25.5	16.6	5.40e-06	0	34	0	10947133440	26	16332
2026-01-27 21:32:00.44	59.36	10.61	-24.9	-25.4	16.7	5.40e-06	0	34	0	11056185344	26	16112
2026-01-27 21:32:01.42	59.60	10.64	-25.0	-25.5	16.8	5.40e-06	0	34	0	11165237248	26	16275
2026-01-27 21:32:02.40	59.84	10.68	-25.1	-25.6	16.8	5.40e-06	0	34	0	11282677760	26	16558
2026-01-27 21:32:03.38	60.08	10.71	-24.9	-25.5	16.7	5.40e-06	0	34	0	11391729664	26	16261
2026-01-27 21:32:04.36	60.33	10.75	-24.9	-25.4	16.7	5.40e-06	0	34	0	11500781568	26	16178
2026-01-27 21:32:05.33	60.57	10.78	-25.2	-25.7	16.6	5.40e-06	0	34	0	11609833472	26	16718
2026-01-27 21:32:06.31	60.81	10.82	-25.0	-25.5	16.5	1.63e-05	0	34	0	11718885376	26	16414
2026-01-27 21:32:07.29	61.06	10.85	-24.9	-25.4	16.6	1.63e-05	0	34	0	11827937280	26	16146
2026-01-27 21:32:08.28	61.31	10.89	-25.0	-25.5	16.8	1.63e-05	0	34	0	11945377792	24	18227
2026-01-27 21:32:09.26	61.56	10.92	-24.9	-25.4	16.8	5.40e-06	0	34	0	12046041088	24	18074
2026-01-27 21:32:10.24	61.80	10.96	-25.1	-25.6	16.4	5.40e-06	0	34	0	12163481600	24	18621
2026-01-27 21:32:11.22	62.05	10.99	-25.3	-25.8	16.4	5.40e-06	0	34	0	12272533504	24	18925
2026-01-27 21:32:12.20	62.30	11.02	-25.0	-25.5	16.3	5.40e-06	0	34	0	12381585408	24	18366
2026-01-27 21:32:13.17	62.55	11.05	-25.3	-25.8	15.9	5.40e-06	0	34	0	12490637312	24	18953
2026-01-27 21:32:14.15	62.80	11.09	-25.6	-26.1	16.0	8.17e-05	0	35	0	12599689216	24	19606
2026-01-27 21:32:15.12	63.05	11.12	-25.3	-25.8	16.3	7.62e-05	0	34	0	12717129728	24	19030
2026-01-27 21:32:16.10	63.30	11.15	-24.6	-25.1	16.2	7.62e-05	0	34	0	12817793024	24	17534
2026-01-27 21:32:17.08	63.55	11.18	-24.6	-25.1	16.3	7.62e-05	0	34	0	12935233536	24	17547
2026-01-27 21:32:18.06	63.81	11.21	-24.7	-25.2	16.8	4.35e-05	0	34	0	13035896832	24	17789
2026-01-27 21:32:19.03	64.06	11.24	-24.7	-25.2	16.8	4.35e-05	0	34	0	13153337344	24	17772
2026-01-27 21:32:20.01	64.31	11.27	-24.8	-25.3	16.8	5.40e-06	0	34	0	13262389248	24	17866
2026-01-27 21:32:20.98	64.56	11.30	-25.0	-25.5	16.8	5.40e-06	0	34	0	13371441152	24	18269
2026-01-27 21:32:21.97	64.82	11.33	-25.1	-25.6	16.8	0.00e+00	0	34	0	13480493056	24	18436
2026-01-27 21:32:22.95	65.08	11.36	-25.1	-25.6	16.8	0.00e+00	0	35	0	13589544960	24	18530
2026-01-27 21:32:23.92	65.33	11.39	-24.7	-25.2	16.8	0.00e+00	0	34	0	13698596864	24	17749
2026-01-27 21:32:24.90	65.59	11.41	-24.8	-25.3	16.8	0.00e+00	0	34	0	13807648768	24	17987
2026-01-27 21:32:25.88	65.85	11.44	-24.8	-25.3	16.9	0.00e+00	0	35	0	13925089280	24	17915
2026-01-27 21:32:26.86	66.11	11.47	-24.8	-25.3	16.8	0.00e+00	0	34	0	14034141184	24	17937
2026-01-27 21:32:27.84	66.37	11.49	-24.7	-25.2	16.8	0.00e+00	0	35	0	14143193088	24	17734
2026-01-27 21:32:28.82	66.62	11.52	-24.7	-25.2	16.8	1.08e-05	0	34	0	14252244992	24	17714
2026-01-27 21:32:29.79	66.88	11.55	-24.9	-25.4	16.7	1.08e-05	0	34	0	14361296896	24	18095
2026-01-27 21:32:30.76	67.14	11.57	-24.9	-25.3	16.4	5.40e-06	0	34	0	14470348800	24	18012
2026-01-27 21:32:31.75	67.40	11.60	-24.9	-25.4	16.3	2.72e-05	0	35	0	14579400704	24	18115
2026-01-27 21:32:32.73	67.67	11.62	-25.0	-25.4	16.2	2.72e-05	0	35	0	14696841216	24	18185
2026-01-27 21:32:33.70	67.93	11.64	-24.9	-25.3	16.3	2.72e-05	0	34	0	14797504512	24	17998
2026-01-27 21:32:34.68	68.19	11.67	-25.2	-25.7	16.5	3.81e-05	0	34	0	14914945024	24	18646
2026-01-27 21:32:35.66	68.45	11.69	-24.9	-25.4	16.5	3.81e-05	0	35	0	15023996928	24	18121
2026-01-27 21:32:36.64	68.72	11.71	-24.8	-25.3	16.3	1.08e-05	0	35	0	15133048832	24	17821
2026-01-27 21:32:37.62	68.98	11.74	-24.8	-25.3	16.3	1.08e-05	0	34	0	15242100736	24	17913
2026-01-27 21:32:38.59	69.24	11.76	-24.9	-25.3	16.3	5.99e-05	0	35	0	15351152640	24	17984
2026-01-27 21:32:39.57	69.51	11.78	-24.6	-25.1	16.1	5.99e-05	0	35	0	15460204544	24	17468
2026-01-27 21:32:40.55	69.77	11.80	-24.6	-25.0	16.3	5.44e-05	0	34	0	15569256448	24	17332
2026-01-27 21:32:41.53	70.04	11.82	-24.6	-25.1	16.8	3.81e-05	0	35	0	15686696960	24	17533
2026-01-27 21:32:42.50	70.30	11.84	-24.6	-25.1	16.8	3.81e-05	0	35	0	15787360256	24	17412
2026-01-27 21:32:43.48	70.57	11.86	-24.5	-25.0	16.8	3.81e-05	0	35	0	15904800768	24	17235
2026-01-27 21:32:44.46	70.84	11.88	-24.5	-25.0	16.9	0.00e+00	0	35	0	16013852672	24	17291
2026-01-27 21:32:45.45	71.11	11.90	-24.6	-25.1	16.8	0.00e+00	0	35	0	16122904576	24	17414
2026-01-27 21:32:46.43	71.38	11.91	-24.6	-25.1	16.8	0.00e+00	0	34	0	16231956480	24	17429
2026-01-27 21:32:47.41	71.65	11.93	-24.6	-25.1	16.9	1.08e-05	0	35	0	16341008384	24	17506
2026-01-27 21:32:48.40	71.92	11.95	-24.6	-25.1	16.8	1.08e-05	0	35	0	16458448896	24	17427
2026-01-27 21:32:49.38	72.19	11.97	-24.6	-25.1	16.8	1.08e-05	0	35	0	16567500800	24	17405
2026-01-27 21:32:50.36	72.46	11.98	-24.7	-25.2	16.8	5.40e-06	0	35	0	16676552704	24	17735
2026-01-27 21:32:51.34	72.73	12.00	-24.8	-25.3	16.8	5.40e-06	0	35	0	16785604608	24	17826
2026-01-27 21:32:52.32	73.00	12.01	-24.8	-25.3	16.7	0.00e+00	0	35	0	16894656512	24	17816
2026-01-27 21:32:53.29	73.27	12.03	-24.9	-25.4	16.7	0.00e+00	0	35	0	17003708416	24	18115
2026-01-27 21:32:54.27	73.54	12.04	-24.9	-25.4	16.8	2.17e-05	0	35	0	17112760320	24	18032
2026-01-27 21:32:55.25	73.81	12.05	-24.9	-25.3	16.8	2.17e-05	0	35	0	17221812224	24	17966
2026-01-27 21:32:56.23	74.08	12.07	-25.0	-25.4	16.6	0.00e+00	0	35	0	17339252736	24	18194
2026-01-27 21:32:57.20	74.35	12.08	-24.8	-25.3	16.6	0.00e+00	0	35	0	17448304640	24	17881
2026-01-27 21:32:58.18	74.62	12.09	-24.7	-25.1	16.5	0.00e+00	0	35	0	17557356544	24	17577
2026-01-27 21:32:59.16	74.89	12.10	-24.7	-25.2	16.4	0.00e+00	0	35	0	17666408448	24	17670
2026-01-27 21:33:00.14	75.17	12.12	-24.7	-25.1	16.6	0.00e+00	0	35	0	17775460352	24	17546
2026-01-27 21:33:01.12	75.44	12.13	-24.6	-25.1	16.9	4.35e-05	0	35	0	17884512256	24	17440
2026-01-27 21:33:02.10	75.71	12.14	-24.8	-25.2	16.8	4.35e-05	0	35	0	17993564160	24	17797
2026-01-27 21:33:03.08	75.99	12.15	-24.9	-25.4	16.5	2.72e-05	0	35	0	18111004672	24	18084
2026-01-27 21:33:04.06	76.26	12.15	-24.8	-25.2	16.4	2.72e-05	0	35	0	18211667968	24	17784
2026-01-27 21:33:05.04	76.53	12.16	-24.7	-25.1	16.6	2.17e-05	0	35	0	18329108480	24	17531
2026-01-27 21:33:06.02	76.81	12.17	-24.8	-25.3	16.4	2.17e-05	0	35	0	18438160384	24	17825
2026-01-27 21:33:06.99	77.08	12.18	-25.0	-25.4	16.3	2.17e-05	0	35	0	18547212288	24	18170
2026-01-27 21:33:07.97	77.35	12.19	-25.2	-25.6	16.4	3.26e-05	0	35	0	18656264192	24	18565
2026-01-27 21:33:08.94	77.63	12.19	-24.8	-25.3	16.5	3.26e-05	0	35	0	18765316096	24	17894
2026-01-27 21:33:09.92	77.90	12.20	-24.8	-25.3	16.4	2.72e-05	0	35	0	18874368000	24	17835
2026-01-27 21:33:10.90	78.18	12.20	-24.8	-25.3	16.6	2.72e-05	0	35	0	18983419904	24	17819
2026-01-27 21:33:11.88	78.45	12.21	-24.9	-25.3	16.6	5.40e-06	0	35	0	19100860416	24	17955
2026-01-27 21:33:12.86	78.73	12.21	-24.7	-25.2	16.7	5.40e-06	0	35	0	19201523712	24	17711
2026-01-27 21:33:13.84	79.00	12.22	-24.9	-25.4	16.7	5.40e-06	0	35	0	19318964224	24	18014
2026-01-27 21:33:14.82	79.28	12.22	-24.9	-25.3	16.6	5.40e-06	0	35	0	19428016128	24	18007
2026-01-27 21:33:15.80	79.55	12.22	-25.1	-25.5	16.6	5.40e-06	0	35	0	19537068032	24	18383
2026-01-27 21:33:16.77	79.83	12.23	-24.9	-25.4	16.6	3.81e-05	0	35	0	19646119936	24	18074
2026-01-27 21:33:17.75	80.10	12.23	-24.8	-25.2	16.6	3.81e-05	0	35	0	19755171840	24	17768
2026-01-27 21:33:18.73	80.38	12.23	-24.7	-25.2	16.6	1.08e-05	0	35	0	19872612352	24	17619
2026-01-27 21:33:19.70	80.65	12.23	-24.9	-25.3	16.7	1.08e-05	0	35	0	19973275648	24	17933
2026-01-27 21:33:20.68	80.93	12.23	-24.8	-25.3	16.5	5.40e-06	0	35	0	20090716160	24	17891
2026-01-27 21:33:21.66	81.20	12.23	-24.9	-25.3	16.5	5.40e-06	0	35	0	20191379456	24	18010
2026-01-27 21:33:22.63	81.47	12.23	-24.8	-25.3	16.6	5.40e-06	0	35	0	20308819968	24	17827
2026-01-27 21:33:23.61	81.75	12.23	-24.9	-25.4	16.6	3.26e-05	0	35	0	20417871872	24	18019
2026-01-27 21:33:24.59	82.03	12.22	-25.0	-25.5	16.6	3.26e-05	0	35	0	20526923776	24	18298
2026-01-27 21:33:25.58	82.30	12.22	-24.9	-25.4	16.6	1.63e-05	0	35	0	20635975680	24	18094
2026-01-27 21:33:26.56	82.58	12.22	-25.0	-25.5	16.6	1.63e-05	0	35	0	20745027584	24	18229
2026-01-27 21:33:27.55	82.86	12.22	-24.7	-25.2	16.7	0.00e+00	0	35	0	20862468096	24	17641
2026-01-27 21:33:28.53	83.13	12.21	-24.8	-25.2	16.6	0.00e+00	0	35	0	20971520000	24	17749
2026-01-27 21:33:29.51	83.41	12.21	-24.8	-25.2	16.6	1.08e-05	0	35	0	21080571904	24	17792
2026-01-27 21:33:30.50	83.69	12.20	-24.8	-25.2	16.7	1.08e-05	0	35	0	21189623808	24	17753
2026-01-27 21:33:31.48	83.96	12.20	-24.8	-25.3	16.6	1.63e-05	0	35	0	21307064320	24	17816
2026-01-27 21:33:32.45	84.23	12.19	-24.7	-25.2	16.6	1.63e-05	0	35	0	21407727616	24	17669
2026-01-27 21:33:33.44	84.51	12.18	-24.7	-25.2	16.6	0.00e+00	0	35	0	21525168128	24	17621
2026-01-27 21:33:34.42	84.79	12.18	-24.7	-25.2	16.6	0.00e+00	0	35	0	21625831424	24	17616
2026-01-27 21:33:35.40	85.06	12.17	-25.0	-25.5	16.5	5.40e-06	0	35	0	21743271936	24	18324
2026-01-27 21:33:36.38	85.33	12.16	-24.9	-25.4	16.6	5.40e-06	0	35	0	21852323840	24	18119
2026-01-27 21:33:37.36	85.61	12.15	-25.1	-25.6	16.6	5.40e-06	0	35	0	21961375744	24	18448
2026-01-27 21:33:38.34	85.88	12.14	-25.0	-25.5	16.6	5.40e-06	0	35	0	22070427648	24	18266
2026-01-27 21:33:39.32	86.16	12.13	-25.2	-25.6	16.5	5.40e-06	0	35	0	22187868160	24	18586
2026-01-27 21:33:40.31	86.43	12.12	-25.3	-25.7	16.5	1.08e-05	0	35	0	22296920064	24	18849
2026-01-27 21:33:41.29	86.71	12.11	-24.8	-25.2	16.6	1.08e-05	0	35	0	22405971968	24	17725
2026-01-27 21:33:42.27	86.98	12.10	-24.7	-25.2	16.6	1.08e-05	0	35	0	22515023872	24	17706
2026-01-27 21:33:43.26	87.26	12.09	-24.8	-25.3	16.5	1.08e-05	0	35	0	22624075776	24	17901
2026-01-27 21:33:44.24	87.53	12.08	-25.0	-25.4	16.6	1.08e-05	0	35	0	22741516288	24	18112
2026-01-27 21:33:45.23	87.80	12.06	-25.0	-25.4	16.6	1.08e-05	0	35	0	22850568192	24	18137
2026-01-27 21:33:46.22	88.08	12.05	-25.0	-25.5	16.6	2.72e-05	0	35	0	22959620096	24	18231
2026-01-27 21:33:47.22	88.36	12.04	-25.0	-25.4	16.6	2.72e-05	0	35	0	23068672000	24	18152
2026-01-27 21:33:48.21	88.63	12.02	-24.7	-25.2	16.6	1.63e-05	0	35	0	23177723904	24	17654
2026-01-27 21:33:49.20	88.90	12.01	-25.0	-25.4	16.5	1.63e-05	0	35	0	23295164416	24	18147
2026-01-27 21:33:50.20	89.18	11.99	-25.0	-25.4	16.6	1.63e-05	0	35	0	23404216320	24	18194
2026-01-27 21:33:51.19	89.45	11.98	-25.2	-25.6	16.5	1.08e-05	0	35	0	23521656832	24	18556
2026-01-27 21:33:52.18	89.73	11.96	-25.1	-25.5	16.5	1.08e-05	0	35	0	23630708736	24	18282
2026-01-27 21:33:53.17	90.00	11.94	-25.0	-25.4	16.5	0.00e+00	0	35	0	23739760640	24	18099
2026-01-27 21:33:54.15	90.27	11.93	-25.2	-25.6	16.5	0.00e+00	0	35	0	23848812544	24	18642
2026-01-27 21:33:55.14	90.54	11.91	-25.5	-25.9	16.5	0.00e+00	0	35	0	23966253056	24	19278
2026-01-27 21:33:56.13	90.81	11.89	-24.8	-25.2	16.5	2.17e-05	0	35	0	24075304960	24	17780
2026-01-27 21:33:57.12	91.08	11.87	-24.8	-25.2	16.4	2.17e-05	0	35	0	24184356864	24	17758
2026-01-27 21:33:58.10	91.35	11.85	-25.0	-25.4	16.4	5.40e-06	0	35	0	24293408768	24	18095
2026-01-27 21:33:59.08	91.62	11.83	-25.1	-25.5	16.5	5.40e-06	0	35	0	24410849280	24	18296
2026-01-27 21:34:00.06	91.89	11.81	-24.8	-25.2	16.6	2.72e-05	0	35	0	24511512576	24	17766
2026-01-27 21:34:01.04	92.15	11.79	-24.8	-25.3	16.6	2.72e-05	0	35	0	24628953088	24	17815
2026-01-27 21:34:02.03	92.42	11.77	-24.8	-25.2	16.6	0.00e+00	0	35	0	24738004992	24	17698
2026-01-27 21:34:03.03	92.69	11.75	-24.9	-25.3	16.5	0.00e+00	0	35	0	24855445504	24	17898
2026-01-27 21:34:04.03	92.96	11.73	-24.9	-25.3	16.5	1.08e-05	0	35	0	24964497408	24	17945
2026-01-27 21:34:05.03	93.23	11.70	-24.8	-25.2	16.6	1.08e-05	0	35	0	25073549312	24	17688
2026-01-27 21:34:06.03	93.50	11.68	-24.9	-25.4	16.5	1.63e-05	0	35	0	25190989824	24	18028
2026-01-27 21:34:07.04	93.78	11.65	-25.0	-25.4	16.6	1.63e-05	0	35	0	25300041728	24	18139
2026-01-27 21:34:08.05	94.05	11.63	-24.9	-25.4	16.6	1.08e-05	0	35	0	25417482240	24	18038
2026-01-27 21:34:09.05	94.32	11.61	-24.9	-25.3	16.5	1.08e-05	0	35	0	25526534144	24	17843
2026-01-27 21:34:10.05	94.58	11.58	-24.9	-25.3	16.5	2.17e-05	0	35	0	25643974656	24	17934
2026-01-27 21:34:11.06	94.85	11.55	-24.9	-25.3	16.5	1.63e-05	0	35	0	25753026560	24	17940
2026-01-27 21:34:12.07	95.12	11.53	-25.0	-25.5	16.6	1.63e-05	0	35	0	25862078464	24	18225
2026-01-27 21:34:13.07	95.39	11.50	-24.9	-25.3	16.6	1.63e-05	0	35	0	25979518976	24	17954
2026-01-27 21:34:14.07	95.65	11.47	-24.9	-25.3	16.6	1.63e-05	0	35	0	26088570880	24	17872
2026-01-27 21:34:15.06	95.92	11.45	-24.8	-25.2	16.6	1.63e-05	0	35	0	26206011392	24	17782
2026-01-27 21:34:16.06	96.18	11.42	-24.8	-25.2	16.6	5.40e-06	0	35	0	26315063296	24	17693
2026-01-27 21:34:17.07	96.45	11.39	-24.8	-25.2	16.6	5.40e-06	0	35	0	26424115200	24	17799
2026-01-27 21:34:18.07	96.71	11.36	-24.9	-25.3	16.5	5.40e-06	0	35	0	26541555712	24	17824
2026-01-27 21:34:19.08	96.98	11.33	-24.9	-25.3	16.5	5.40e-06	0	35	0	26658996224	24	17882
2026-01-27 21:34:20.08	97.24	11.30	-24.9	-25.3	16.6	5.40e-06	0	35	0	26768048128	24	17917
2026-01-27 21:34:21.07	97.50	11.27	-25.0	-25.4	16.6	5.40e-06	0	35	0	26877100032	24	18185
2026-01-27 21:34:22.06	97.75	11.24	-25.0	-25.4	16.7	5.40e-06	0	35	0	26986151936	24	18123
2026-01-27 21:34:23.06	98.01	11.21	-24.9	-25.4	16.7	1.08e-05	0	35	0	27103592448	24	18047
2026-01-27 21:34:24.05	98.27	11.18	-24.8	-25.2	16.7	1.08e-05	0	35	0	27212644352	24	17619
2026-01-27 21:34:25.05	98.53	11.15	-24.9	-25.3	16.5	0.00e+00	0	35	0	27330084864	24	17923
2026-01-27 21:34:26.04	98.78	11.12	-24.9	-25.3	16.5	0.00e+00	0	35	0	27439136768	24	17863
2026-01-27 21:34:27.04	99.04	11.08	-25.3	-25.7	16.5	1.63e-05	0	35	0	27556577280	24	18766
2026-01-27 21:34:28.03	99.30	11.05	-24.8	-25.2	16.7	1.63e-05	0	35	0	27665629184	24	17652
2026-01-27 21:34:29.02	99.55	11.02	-25.0	-25.4	16.6	1.63e-05	0	35	0	27774681088	24	18219
2026-01-27 21:34:30.01	99.80	10.99	-24.9	-25.3	16.6	1.63e-05	0	35	0	27883732992	24	17958
2026-01-27 21:34:31.01	100.06	10.95	-25.1	-25.5	16.6	1.63e-05	0	35	0	27992784896	24	18303
2026-01-27 21:34:32.00	100.31	10.92	-24.9	-25.3	16.7	1.08e-05	0	35	0	28110225408	24	17983
2026-01-27 21:34:32.99	100.56	10.88	-25.0	-25.4	16.8	1.08e-05	0	35	0	28219277312	24	18110
2026-01-27 21:34:33.98	100.81	10.85	-25.2	-25.6	16.8	1.08e-05	0	35	0	28336717824	24	18490
2026-01-27 21:34:34.98	101.06	10.81	-24.9	-25.3	16.8	1.08e-05	0	35	0	28445769728	24	18001
2026-01-27 21:34:35.97	101.31	10.78	-25.0	-25.4	16.8	5.40e-06	0	35	0	28554821632	24	18167
2026-01-27 21:34:36.97	101.56	10.74	-25.0	-25.4	16.8	5.40e-06	0	35	0	28663873536	24	18051
2026-01-27 21:34:37.96	101.81	10.70	-25.2	-25.6	16.7	5.40e-06	0	35	0	28781314048	24	18510
2026-01-27 21:34:38.96	102.06	10.67	-25.2	-25.6	16.7	5.40e-06	0	35	0	28890365952	24	18478
2026-01-27 21:34:39.96	102.30	10.63	-25.0	-25.4	16.8	5.40e-06	0	35	0	29007806464	24	18149
2026-01-27 21:34:40.95	102.55	10.59	-25.1	-25.5	16.6	5.40e-06	0	35	0	29116858368	24	18302
2026-01-27 21:34:41.95	102.80	10.56	-25.1	-25.5	16.6	5.40e-06	0	35	0	29225910272	24	18418
2026-01-27 21:34:42.95	103.04	10.52	-25.1	-25.5	16.6	0.00e+00	0	35	0	29343350784	24	18374
2026-01-27 21:34:43.94	103.29	10.48	-25.2	-25.6	16.6	0.00e+00	0	35	0	29452402688	24	18511
2026-01-27 21:34:44.93	103.53	10.44	-25.1	-25.5	16.7	0.00e+00	0	35	0	29569843200	24	18352
2026-01-27 21:34:45.93	103.77	10.40	-25.1	-25.5	16.7	5.40e-06	0	35	0	29678895104	24	18349
2026-01-27 21:34:46.93	104.01	10.36	-25.1	-25.5	16.8	5.40e-06	0	35	0	29787947008	24	18346
2026-01-27 21:34:47.92	104.25	10.32	-24.9	-25.3	16.8	5.40e-06	0	35	0	29905387520	24	17922
2026-01-27 21:34:48.92	104.49	10.28	-25.1	-25.5	16.7	0.00e+00	0	35	0	30014439424	24	18365
2026-01-27 21:34:49.91	104.73	10.24	-48.1	-50.7	6.1	0.00e+00	0	35	104	30039605248	60	41818
2026-01-27 21:34:50.91	104.97	10.20	-48.2	-50.7	6.1	5.40e-06	0	35	104	30039605248	60	42016
2026-01-27 21:34:51.90	105.21	10.16	-48.0	-50.5	6.1	5.40e-06	0	35	104	30039605248	60	41083
2026-01-27 21:34:52.89	105.45	10.12	-48.1	-50.6	6.1	5.40e-06	0	35	104	30039605248	60	41538
2026-01-27 21:34:53.88	105.68	10.08	-48.2	-50.7	6.1	5.40e-06	0	35	104	30039605248	60	42149
2026-01-27 21:34:54.87	105.91	10.04	-48.1	-50.6	6.1	5.40e-06	0	35	104	30039605248	60	41320
2026-01-27 21:34:55.86	106.15	10.00	-48.2	-50.6	6.1	5.40e-06	0	35	104	30039605248	60	41727
2026-01-27 21:34:56.85	106.38	9.95	-47.9	-50.5	6.1	5.40e-06	0	35	104	30039605248	60	40813
2026-01-27 21:34:57.84	106.61	9.91	-48.0	-50.6	6.1	5.40e-06	0	35	104	30039605248	60	41283
2026-01-27 21:34:58.85	106.85	9.87	-48.1	-50.6	6.1	5.40e-06	0	35	104	30039605248	60	41468
2026-01-27 21:34:59.86	107.08	9.82	-48.0	-50.6	6.1	5.40e-06	0	34	104	30039605248	60	41462
2026-01-27 21:35:00.86	107.32	9.78	-48.1	-50.6	6.1	0.00e+00	0	35	104	30039605248	60	41360
2026-01-27 21:35:01.86	107.55	9.74	-48.0	-50.5	6.1	0.00e+00	0	35	104	30039605248	60	41235
2026-01-27 21:35:02.87	107.78	9.69	-48.1	-50.6	6.1	0.00e+00	0	35	104	30039605248	60	41525
2026-01-27 21:35:03.87	108.01	9.65	-48.2	-50.7	6.1	0.00e+00	0	34	104	30039605248	60	41785
2026-01-27 21:35:04.87	108.24	9.60	-48.0	-50.6	6.1	0.00e+00	0	35	104	30039605248	60	41278
2026-01-27 21:35:05.87	108.46	9.56	-48.0	-50.5	6.1	0.00e+00	0	35	104	30039605248	60	41057
2026-01-27 21:35:06.86	108.69	9.51	-48.1	-50.6	6.1	0.00e+00	0	35	104	30039605248	60	41353
2026-01-27 21:35:07.86	108.91	9.47	-48.0	-50.5	6.1	0.00e+00	0	35	104	30039605248	60	41062
2026-01-27 21:35:08.86	109.14	9.42	-48.2	-50.6	6.1	0.00e+00	0	35	104	30039605248	60	41616
2026-01-27 21:35:09.85	109.36	9.38	-48.0	-50.6	6.1	0.00e+00	0	34	104	30039605248	60	41285
2026-01-27 21:35:10.84	109.58	9.33	-48.0	-50.5	6.1	0.00e+00	0	35	104	30039605248	60	41149
2026-01-27 21:35:11.85	109.81	9.29	-48.2	-50.7	6.1	0.00e+00	0	34	104	30039605248	60	41833
2026-01-27 21:35:12.86	110.03	9.24	-48.1	-50.7	6.1	0.00e+00	0	34	104	30039605248	60	41820
2026-01-27 21:35:13.87	110.26	9.19	-48.1	-50.6	6.1	0.00e+00	0	34	104	30039605248	60	41552
2026-01-27 21:35:14.88	110.48	9.15	-48.1	-50.6	6.1	0.00e+00	0	35	104	30039605248	60	41332
2026-01-27 21:35:15.89	110.70	9.10	-48.0	-50.6	6.1	0.00e+00	0	35	104	30039605248	60	41321
2026-01-27 21:35:16.90	110.92	9.05	-48.1	-50.6	6.1	0.00e+00	0	35	104	30039605248	60	41480
2026-01-27 21:35:17.91	111.14	9.00	-48.1	-50.6	6.1	0.00e+00	0	34	104	30039605248	60	41463
2026-01-27 21:35:18.92	111.36	8.95	-48.1	-50.6	6.1	0.00e+00	0	34	104	30039605248	60	41619
2026-01-27 21:35:19.93	111.58	8.91	-48.2	-50.6	6.1	0.00e+00	0	34	104	30039605248	60	41630
2026-01-27 21:35:20.94	111.79	8.86	-48.2	-50.7	6.1	0.00e+00	0	34	104	30039605248	60	41853
2026-01-27 21:35:21.95	112.01	8.81	-48.1	-50.6	6.1	0.00e+00	0	35	104	30039605248	60	41402
2026-01-27 21:35:22.96	112.23	8.76	-47.9	-50.5	6.1	0.00e+00	0	34	104	30039605248	60	40840
2026-01-27 21:35:23.97	112.44	8.71	-48.0	-50.5	6.1	0.00e+00	0	34	104	30039605248	60	41152
2026-01-27 21:35:24.98	112.65	8.66	-48.2	-50.6	6.1	0.00e+00	0	34	104	30039605248	60	41640
2026-01-27 21:35:25.99	112.87	8.61	-48.2	-50.6	6.1	0.00e+00	0	34	104	30039605248	60	41653
2026-01-27 21:35:27.00	113.08	8.56	-48.1	-50.6	6.1	0.00e+00	0	34	104	30039605248	60	41462
2026-01-27 21:35:28.01	113.29	8.51	-48.2	-50.7	6.1	0.00e+00	0	34	104	30039605248	60	41930
2026-01-27 21:35:29.02	113.50	8.47	-48.1	-50.7	6.1	0.00e+00	0	34	104	30039605248	60	41807
2026-01-27 21:35:30.03	113.71	8.42	-48.2	-50.7	6.1	0.00e+00	0	34	104	30039605248	60	41760
2026-01-27 21:35:31.04	113.92	8.37	-48.1	-50.6	6.1	0.00e+00	0	34	104	30039605248	60	41512
2026-01-27 21:35:32.05	114.13	8.32	-48.1	-50.6	6.1	0.00e+00	0	34	104	30039605248	60	41449
2026-01-27 21:35:33.05	114.33	8.27	-48.2	-50.6	6.1	0.00e+00	0	35	104	30039605248	60	41662
2026-01-27 21:35:34.06	114.54	8.21	-48.1	-50.7	6.1	0.00e+00	0	34	104	30039605248	60	41754
2026-01-27 21:35:35.07	114.74	8.16	-48.2	-50.6	6.1	0.00e+00	0	34	104	30039605248	60	41505
2026-01-27 21:35:36.08	114.95	8.11	-48.2	-50.7	6.1	0.00e+00	0	34	104	30039605248	60	41799
2026-01-27 21:35:37.09	115.15	8.06	-48.1	-50.6	6.1	0.00e+00	0	34	104	30039605248	60	41485
2026-01-27 21:35:38.10	115.35	8.01	-48.2	-50.7	6.1	0.00e+00	0	34	104	30039605248	60	41926
2026-01-27 21:35:39.11	115.55	7.96	-48.1	-50.6	6.1	0.00e+00	0	34	104	30039605248	60	41726
2026-01-27 21:35:40.12	115.75	7.91	-48.2	-50.7	6.1	0.00e+00	0	34	104	30039605248	60	41918
2026-01-27 21:35:41.13	115.95	7.86	-48.1	-50.6	6.1	0.00e+00	0	34	104	30039605248	60	41626
2026-01-27 21:35:42.13	116.15	7.81	-48.1	-50.6	6.1	0.00e+00	0	34	104	30039605248	60	41579
2026-01-27 21:35:43.14	116.35	7.76	-48.1	-50.5	6.1	0.00e+00	0	34	104	30039605248	60	41162
2026-01-27 21:35:44.15	116.55	7.70	-48.1	-50.6	6.1	0.00e+00	0	34	104	30039605248	60	41353
2026-01-27 21:35:45.16	116.74	7.65	-48.2	-50.7	6.1	0.00e+00	0	34	104	30039605248	60	41863
2026-01-27 21:35:46.17	116.94	7.60	-48.1	-50.6	6.1	0.00e+00	0	34	104	30039605248	60	41608
2026-01-27 21:35:47.17	117.13	7.55	-48.1	-50.6	6.1	0.00e+00	0	34	104	30039605248	60	41434
2026-01-27 21:35:48.18	117.33	7.50	-48.2	-50.6	6.1	0.00e+00	0	34	104	30039605248	60	41548
2026-01-27 21:35:49.19	117.52	7.44	-48.2	-50.7	6.1	0.00e+00	0	34	104	30039605248	60	41896
2026-01-27 21:35:50.20	117.71	7.39	-48.2	-50.6	6.1	0.00e+00	0	34	104	30039605248	60	41604
2026-01-27 21:35:51.21	117.90	7.34	-48.1	-50.6	6.1	0.00e+00	0	34	104	30039605248	60	41415
2026-01-27 21:35:52.22	118.10	7.29	-48.2	-50.6	6.1	0.00e+00	0	34	104	30039605248	60	41702
2026-01-27 21:35:53.23	118.29	7.23	-48.1	-50.6	6.1	0.00e+00	0	34	104	30039605248	60	41448
2026-01-27 21:35:54.24	118.47	7.18	-48.1	-50.6	6.1	0.00e+00	0	34	104	30039605248	60	41309
2026-01-27 21:35:55.25	118.66	7.13	-48.0	-50.6	6.1	0.00e+00	0	34	104	30039605248	60	41343
2026-01-27 21:35:56.26	118.85	7.08	-48.1	-50.6	6.1	0.00e+00	0	34	104	30039605248	60	41585
2026-01-27 21:35:57.27	119.04	7.02	-48.1	-50.6	6.1	0.00e+00	0	34	104	30039605248	60	41489
2026-01-27 21:35:58.28	119.22	6.97	-48.1	-50.6	6.1	0.00e+00	0	34	104	30039605248	60	41347
2026-01-27 21:35:59.29	119.41	6.92	-47.9	-50.4	6.1	0.00e+00	0	34	104	30039605248	60	40599
2026-01-27 21:36:00.30	119.59	6.86	-48.1	-50.6	6.1	0.00e+00	0	34	104	30039605248	60	41706
2026-01-27 21:36:01.31	119.78	6.81	-48.0	-50.5	6.1	0.00e+00	0	34	104	30039605248	60	40993
2026-01-27 21:36:02.32	119.96	6.76	-48.1	-50.5	6.1	0.00e+00	0	34	104	30039605248	60	41139
2026-01-27 21:36:03.33	120.14	6.70	-47.8	-50.3	6.1	0.00e+00	0	34	104	30039605248	60	40312
2026-01-27 21:36:04.34	120.32	6.65	-48.1	-50.6	6.1	0.00e+00	0	34	104	30039605248	60	41331
2026-01-27 21:36:05.34	120.50	6.60	-47.8	-50.3	6.1	0.00e+00	0	34	104	30039605248	60	40314
2026-01-27 21:36:06.35	120.68	6.54	-47.8	-50.4	6.1	0.00e+00	0	34	104	30039605248	60	40361
2026-01-27 21:36:07.36	120.86	6.49	-47.7	-50.3	6.1	0.00e+00	0	34	104	30039605248	60	40155
2026-01-27 21:36:08.37	121.04	6.44	-47.7	-50.3	6.1	0.00e+00	0	34	104	30039605248	60	39917
2026-01-27 21:36:09.38	121.21	6.38	-47.9	-50.4	6.1	0.00e+00	0	34	104	30039605248	60	40534
2026-01-27 21:36:10.39	121.39	6.33	-47.7	-50.3	6.1	0.00e+00	0	34	104	30039605248	60	40067
2026-01-27 21:36:11.40	121.56	6.28	-47.8	-50.4	6.1	0.00e+00	0	34	104	30039605248	60	40347
2026-01-27 21:36:12.41	121.74	6.22	-47.8	-50.4	6.1	0.00e+00	0	34	104	30039605248	60	40415
2026-01-27 21:36:13.42	121.91	6.17	-47.9	-50.4	6.1	0.00e+00	0	34	104	30039605248	60	40523
2026-01-27 21:36:14.43	122.09	6.11	-47.8	-50.3	6.1	0.00e+00	0	34	104	30039605248	60	40035
2026-01-27 21:36:15.44	122.26	6.06	-47.9	-50.4	6.1	0.00e+00	0	34	104	30039605248	60	40398
2026-01-27 21:36:16.45	122.43	6.01	-47.9	-50.4	6.1	0.00e+00	0	34	104	30039605248	60	40754
2026-01-27 21:36:17.45	122.60	5.95	-47.9	-50.4	6.1	0.00e+00	0	34	104	30039605248	60	40652
2026-01-27 21:36:18.47	122.77	5.90	-47.9	-50.4	6.1	0.00e+00	0	34	104	30039605248	60	40613
2026-01-27 21:36:19.47	122.94	5.84	-47.9	-50.4	6.1	0.00e+00	0	34	104	30039605248	60	40689
2026-01-27 21:36:20.48	123.11	5.79	-47.8	-50.4	6.1	0.00e+00	0	34	104	30039605248	60	40339
2026-01-27 21:36:21.49	123.27	5.74	-48.0	-50.4	6.1	0.00e+00	0	34	104	30039605248	60	40602
2026-01-27 21:36:22.50	123.44	5.68	-47.9	-50.4	6.1	0.00e+00	0	34	104	30039605248	60	40342
2026-01-27 21:36:23.51	123.61	5.63	-47.9	-50.4	6.1	0.00e+00	0	34	104	30039605248	60	40467
2026-01-27 21:36:24.52	123.77	5.57	-48.0	-50.5	6.1	0.00e+00	0	34	104	30039605248	60	40792
2026-01-27 21:36:25.53	123.94	5.52	-47.9	-50.4	6.1	0.00e+00	0	35	104	30039605248	60	40668
2026-01-27 21:36:26.54	124.10	5.47	-47.9	-50.3	6.1	0.00e+00	0	34	104	30039605248	60	40172
2026-01-27 21:36:27.55	124.27	5.41	-47.9	-50.4	6.1	0.00e+00	0	34	104	30039605248	60	40530
2026-01-27 21:36:28.56	124.43	5.36	-47.9	-50.4	6.1	0.00e+00	0	34	104	30039605248	60	40351
2026-01-27 21:36:29.57	124.59	5.30	-47.9	-50.4	6.1	0.00e+00	0	34	104	30039605248	60	40506
2026-01-27 21:36:30.58	124.75	5.25	-47.8	-50.3	6.1	0.00e+00	0	34	104	30039605248	60	40019
2026-01-27 21:36:31.59	124.91	5.19	-47.9	-50.4	6.1	0.00e+00	0	34	104	30039605248	60	40446
2026-01-27 21:36:32.60	125.07	5.14	-47.9	-50.4	6.1	0.00e+00	0	34	104	30039605248	60	40457
2026-01-27 21:36:33.61	125.23	5.09	-47.9	-50.4	6.1	0.00e+00	0	34	104	30039605248	60	40455
2026-01-27 21:36:34.62	125.39	5.03	-47.8	-50.3	6.1	0.00e+00	0	34	104	30039605248	60	40046
2026-01-27 21:36:35.63	125.55	4.98	-47.9	-50.3	6.1	0.00e+00	0	34	104	30039605248	60	40233
2026-01-27 21:36:36.63	125.70	4.92	-47.9	-50.4	6.1	0.00e+00	0	34	104	30039605248	60	40361
2026-01-27 21:36:37.64	125.86	4.87	-47.8	-50.2	6.1	0.00e+00	0	34	104	30039605248	60	39832
2026-01-27 21:36:38.65	126.01	4.81	-47.8	-50.3	6.1	0.00e+00	0	34	104	30039605248	60	39992
2026-01-27 21:36:39.66	126.17	4.76	-47.9	-50.3	6.1	0.00e+00	0	34	104	30039605248	60	40145
2026-01-27 21:36:40.67	126.32	4.71	-47.8	-50.3	6.1	0.00e+00	0	34	104	30039605248	60	39906
2026-01-27 21:36:41.68	126.47	4.65	-47.8	-50.3	6.1	0.00e+00	0	34	104	30039605248	60	40041
2026-01-27 21:36:42.68	126.63	4.60	-47.7	-50.2	6.1	0.00e+00	0	34	104	30039605248	60	39795
2026-01-27 21:36:43.69	126.78	4.54	-47.8	-50.3	6.1	0.00e+00	0	34	104	30039605248	60	40113
2026-01-27 21:36:44.70	126.93	4.49	-47.8	-50.3	6.1	0.00e+00	0	34	104	30039605248	60	39959
2026-01-27 21:36:45.71	127.08	4.43	-47.7	-50.2	6.1	0.00e+00	0	34	104	30039605248	60	39644
2026-01-27 21:36:46.72	127.23	4.38	-47.7	-50.2	6.1	0.00e+00	0	34	104	30039605248	60	39579
2026-01-27 21:36:47.73	127.38	4.33	-47.8	-50.3	6.1	0.00e+00	0	34	104	30039605248	60	39919
2026-01-27 21:36:48.74	127.53	4.27	-47.7	-50.2	6.1	0.00e+00	0	34	104	30039605248	60	39598
2026-01-27 21:36:49.75	127.67	4.22	-47.7	-50.2	6.1	0.00e+00	0	34	104	30039605248	60	39569
2026-01-27 21:36:50.76	127.82	4.16	-47.6	-50.1	6.1	0.00e+00	0	34	104	30039605248	60	38990
2026-01-27 21:36:51.77	127.97	4.11	-47.7	-50.2	6.1	0.00e+00	0	34	104	30039605248	60	39686
2026-01-27 21:36:52.78	128.11	4.05	-47.7	-50.2	6.1	0.00e+00	0	34	104	30039605248	60	39514
2026-01-27 21:36:53.79	128.26	4.00	-47.7	-50.2	6.1	0.00e+00	0	34	104	30039605248	60	39539
2026-01-27 21:36:54.80	128.40	3.95	-47.5	-50.0	6.1	0.00e+00	0	34	104	30039605248	60	38677
2026-01-27 21:36:55.81	128.55	3.89	-47.7	-50.2	6.1	0.00e+00	0	34	104	30039605248	60	39474
2026-01-27 21:36:56.80	128.69	3.84	-47.7	-50.1	6.1	0.00e+00	0	34	104	30039605248	60	39122
2026-01-27 21:36:57.81	128.83	3.78	-47.6	-50.1	6.1	0.00e+00	0	34	104	30039605248	60	39206
2026-01-27 21:36:58.82	128.97	3.73	-47.4	-49.9	6.1	0.00e+00	0	34	104	30039605248	60	38269
2026-01-27 21:36:59.83	129.11	3.68	-47.7	-50.2	6.1	0.00e+00	0	34	104	30039605248	60	39558
2026-01-27 21:37:00.84	129.25	3.62	-47.6	-50.0	6.1	0.00e+00	0	34	104	30039605248	60	38783
2026-01-27 21:37:01.85	129.39	3.57	-47.6	-50.1	6.1	0.00e+00	0	34	104	30039605248	60	39051
2026-01-27 21:37:02.85	129.53	3.51	-47.3	-49.8	6.1	0.00e+00	0	34	104	30039605248	60	37969
2026-01-27 21:37:03.86	129.67	3.46	-47.7	-50.1	6.1	0.00e+00	0	34	104	30039605248	60	39373
2026-01-27 21:37:04.87	129.81	3.41	-47.5	-50.0	6.1	0.00e+00	0	34	104	30039605248	60	38542
2026-01-27 21:37:05.88	129.95	3.35	-47.5	-50.0	6.1	0.00e+00	0	34	104	30039605248	60	38842
2026-01-27 21:37:06.89	130.08	3.30	-47.2	-49.7	6.1	0.00e+00	0	34	104	30039605248	60	37586
2026-01-27 21:37:07.90	130.22	3.24	-47.7	-50.1	6.1	0.00e+00	0	34	104	30039605248	60	39122
2026-01-27 21:37:08.91	130.35	3.19	-47.4	-49.9	6.1	0.00e+00	0	34	104	30039605248	60	38429
2026-01-27 21:37:09.92	130.49	3.14	-47.5	-49.9	6.1	0.00e+00	0	34	104	30039605248	60	38330
2026-01-27 21:37:10.93	130.62	3.08	-47.2	-49.7	6.1	0.00e+00	0	34	104	30039605248	60	37613
2026-01-27 21:37:11.94	130.76	3.03	-47.6	-50.1	6.1	0.00e+00	0	34	104	30039605248	60	39123
2026-01-27 21:37:12.95	130.89	2.98	-47.9	-50.4	6.1	0.00e+00	0	34	104	30039605248	60	40579
2026-01-27 21:37:13.96	131.02	2.92	-48.1	-50.6	6.1	0.00e+00	0	34	104	30039605248	60	41334
2026-01-27 21:37:14.97	131.16	2.87	-48.4	-50.9	6.1	0.00e+00	0	34	104	30039605248	60	42846
2026-01-27 21:37:15.99	131.29	2.81	-48.3	-50.9	6.1	0.00e+00	0	34	104	30039605248	60	42867
2026-01-27 21:37:16.99	131.42	2.76	-48.6	-51.1	6.1	0.00e+00	0	34	104	30039605248	60	43744
2026-01-27 21:37:18.00	131.55	2.71	-48.7	-51.2	6.1	0.00e+00	0	34	104	30039605248	60	44272
2026-01-27 21:37:19.01	131.68	2.65	-48.7	-51.2	6.1	0.00e+00	0	34	104	30039605248	60	44475
2026-01-27 21:37:20.02	131.81	2.60	-48.7	-51.2	6.1	0.00e+00	0	34	104	30039605248	60	44400
2026-01-27 21:37:21.03	131.94	2.55	-48.9	-51.4	6.1	0.00e+00	0	34	104	30039605248	60	45298
2026-01-27 21:37:22.04	132.06	2.49	-48.9	-51.3	6.1	0.00e+00	0	34	104	30039605248	60	44950
2026-01-27 21:37:23.05	132.19	2.44	-48.4	-51.0	6.1	0.00e+00	0	34	104	30039605248	60	43295
2026-01-27 21:37:24.06	132.32	2.39	-48.7	-51.2	6.1	0.00e+00	0	34	104	30039605248	60	44573
2026-01-27 21:37:25.07	132.44	2.33	-49.0	-51.5	6.1	0.00e+00	0	34	104	30039605248	60	45963
2026-01-27 21:37:26.08	132.57	2.28	-49.0	-51.5	6.1	0.00e+00	0	34	104	30039605248	60	46121
2026-01-27 21:37:27.09	132.70	2.23	-49.0	-51.5	6.1	0.00e+00	0	34	104	30039605248	60	45937
2026-01-27 21:37:28.10	132.82	2.17	-49.0	-51.5	6.1	0.00e+00	0	34	104	30039605248	60	46018
2026-01-27 21:37:29.11	132.94	2.12	-49.0	-51.5	6.1	0.00e+00	0	34	104	30039605248	60	45809
2026-01-27 21:37:30.12	133.07	2.07	-49.0	-51.5	6.1	0.00e+00	0	34	104	30039605248	60	45847
2026-01-27 21:37:31.12	133.19	2.01	-49.0	-51.5	6.1	0.00e+00	0	34	104	30039605248	60	45878
2026-01-27 21:37:32.13	133.31	1.96	-49.1	-51.6	6.1	0.00e+00	0	34	104	30039605248	60	46399
2026-01-27 21:37:33.14	133.43	1.91	-49.0	-51.5	6.1	0.00e+00	0	34	104	30039605248	60	45909
2026-01-27 21:37:34.15	133.55	1.85	-49.0	-51.5	6.1	0.00e+00	0	34	104	30039605248	60	46068
2026-01-27 21:37:35.16	133.68	1.80	-49.0	-51.4	6.0	0.00e+00	0	34	104	30039605248	60	45499
2026-01-27 21:37:36.17	133.80	1.75	-49.0	-51.5	6.1	0.00e+00	0	34	104	30039605248	60	45774
2026-01-27 21:37:37.18	133.92	1.70	-49.0	-51.5	6.1	0.00e+00	0	34	104	30039605248	60	45803
2026-01-27 21:37:38.19	134.04	1.64	-49.0	-51.4	6.1	0.00e+00	0	34	104	30039605248	60	45739
2026-01-27 21:37:39.19	134.15	1.59	-49.0	-51.4	6.1	0.00e+00	0	34	104	30039605248	60	45497
2026-01-27 21:37:40.20	134.27	1.54	-48.9	-51.4	6.1	0.00e+00	0	34	104	30039605248	60	45424
2026-01-27 21:37:41.21	134.39	1.48	-49.0	-51.4	6.1	0.00e+00	0	34	104	30039605248	60	45512
2026-01-27 21:37:42.22	134.51	1.43	-48.9	-51.4	6.1	0.00e+00	0	34	104	30039605248	60	45576
2026-01-27 21:37:43.23	134.62	1.38	-48.9	-51.4	6.1	0.00e+00	0	34	104	30039605248	60	45751
2026-01-27 21:37:44.24	134.74	1.33	-48.9	-51.4	6.1	0.00e+00	0	34	104	30039605248	60	45648
2026-01-27 21:37:45.25	134.85	1.27	-48.9	-51.4	6.1	0.00e+00	0	34	104	30039605248	60	45562
2026-01-27 21:37:46.26	134.97	1.22	-48.9	-51.4	6.1	0.00e+00	0	34	104	30039605248	60	45729
2026-01-27 21:37:47.27	135.08	1.17	-48.9	-51.4	6.1	0.00e+00	0	34	104	30039605248	60	45646
2026-01-27 21:37:48.29	135.20	1.12	-48.9	-51.4	6.1	0.00e+00	0	34	104	30039605248	60	45737
2026-01-27 21:37:49.29	135.31	1.06	-48.9	-51.4	6.0	0.00e+00	0	34	104	30039605248	60	45641
2026-01-27 21:37:50.30	135.43	1.01	-48.9	-51.4	6.1	0.00e+00	0	34	104	30039605248	60	45629
2026-01-27 21:37:51.31	135.54	0.96	-48.9	-51.4	6.1	0.00e+00	0	34	104	30039605248	60	45502
2026-01-27 21:37:52.32	135.65	0.91	-48.9	-51.4	6.1	0.00e+00	0	34	104	30039605248	60	45549
2026-01-27 21:37:53.34	135.76	0.85	-48.9	-51.4	6.1	0.00e+00	0	34	104	30039605248	60	45365
2026-01-27 21:37:54.35	135.87	0.80	-48.9	-51.4	6.1	0.00e+00	0	34	104	30039605248	60	45503
2026-01-27 21:37:55.36	135.98	0.75	-48.9	-51.4	6.1	0.00e+00	0	34	104	30039605248	60	45631
2026-01-27 21:37:56.37	136.10	0.70	-48.9	-51.4	6.1	0.00e+00	0	34	104	30039605248	60	45657
2026-01-27 21:37:57.38	136.20	0.65	-48.9	-51.4	6.1	0.00e+00	0	34	104	30039605248	60	45408
2026-01-27 21:37:58.39	136.31	0.59	-48.9	-51.4	6.1	0.00e+00	0	34	104	30039605248	60	45427
2026-01-27 21:37:59.40	136.42	0.54	-48.9	-51.4	6.1	0.00e+00	0	34	104	30039605248	60	45360
2026-01-27 21:38:00.41	136.53	0.49	-48.9	-51.4	6.1	0.00e+00	0	34	104	30039605248	60	45477
2026-01-27 21:38:01.42	136.64	0.44	-48.9	-51.4	6.1	0.00e+00	0	34	104	30039605248	60	45337
2026-01-27 21:38:02.43	136.75	0.39	-48.9	-51.4	6.1	0.00e+00	0	34	104	30039605248	60	45394
2026-01-27 21:38:03.44	136.85	0.34	-48.9	-51.4	6.1	0.00e+00	0	34	104	30039605248	60	45548
2026-01-27 21:38:04.45	136.96	0.28	-48.9	-51.4	6.0	0.00e+00	0	34	104	30039605248	60	45532
2026-01-27 21:38:05.46	137.07	0.23	-48.9	-51.4	6.1	0.00e+00	0	34	104	30039605248	60	45284
2026-01-27 21:38:06.47	137.17	0.18	-48.9	-51.4	6.1	0.00e+00	0	34	104	30039605248	60	45313
2026-01-27 21:38:07.48	137.28	0.13	-48.9	-51.4	6.1	0.00e+00	0	34	104	30039605248	60	45260
2026-01-27 21:38:08.49	137.38	0.08	-48.9	-51.4	6.1	0.00e+00	0	34	104	30039605248	60	45587
2026-01-27 21:38:09.50	137.49	0.03	-48.9	-51.4	6.1	0.00e+00	0	34	104	30039605248	60	45433
2026-01-27 21:38:10.51	137.59	-0.02	-48.9	-51.4	6.1	0.00e+00	0	34	104	30039605248	60	45542
2026-01-27 21:38:11.52	137.69	-0.08	-48.9	-51.4	6.1	0.00e+00	0	34	104	30039605248	60	45413

#Closed at: 2026-01-27 21:38:11
#Recorded file [30039 MB]: D:/lorett/data/35029_260128_092859.dat