passes_logs/2026/01/27/R4.6S_Anadyr/R4.6S_Anadyr__20260127_193915_NOAA_20_JPSS-1_rec.log

#Pass ID: 20260127_193915_NOAA 20 (JPSS-1)
#Satellite: NOAA 20 (JPSS-1)
#Configuration: NOAA 20
#almurnet v.1.7.20251203
#Start time: 2026-01-27 19:39:16

#Version: 2.2.20231116
#Station: R4.6S_Anadyr
#Location: 177.4865 lon 64.73178 lat
#TLE: 1 43013U 17073A   26026.81907703  .00000149  00000+0  91399-4 0  9998
#TLE: 2 43013  98.7647 327.6343 0000991  22.4130 337.7089 14.19540778424411

#Time	Az	El	Level	Level2	SNR	BER	BlckErr	Temp	State	Recorded	gain1	gain2
2026-01-27 19:39:16.63	56.50	0.05	-48.5	-63.5	3.5	1.51e+00	0	30	0	0	60	54335
2026-01-27 19:39:17.64	56.42	0.10	-48.7	-63.8	3.6	1.51e+00	0	31	104	0	60	56109
2026-01-27 19:39:18.65	56.35	0.15	-48.6	-63.8	3.6	1.51e+00	0	31	104	0	60	56050
2026-01-27 19:39:19.66	56.27	0.20	-48.6	-63.8	3.6	1.51e+00	0	31	104	0	60	56256
2026-01-27 19:39:20.67	56.19	0.25	-48.6	-63.8	3.6	1.51e+00	0	31	104	0	60	56143
2026-01-27 19:39:21.68	56.12	0.29	-48.6	-63.8	3.6	1.51e+00	0	31	104	0	60	56224
2026-01-27 19:39:22.69	56.04	0.34	-48.6	-63.8	3.6	1.51e+00	0	31	104	0	60	56223
2026-01-27 19:39:23.70	55.96	0.39	-48.7	-63.9	3.6	1.51e+00	0	31	104	0	60	56765
2026-01-27 19:39:24.71	55.88	0.44	-48.7	-63.9	3.6	1.51e+00	0	31	104	0	60	56782
2026-01-27 19:39:25.72	55.81	0.49	-48.7	-63.9	3.6	1.51e+00	0	31	104	0	60	56588
2026-01-27 19:39:26.73	55.73	0.54	-48.7	-63.9	3.6	1.51e+00	0	31	104	0	60	56733
2026-01-27 19:39:27.74	55.65	0.59	-48.7	-63.9	3.6	1.51e+00	0	31	104	0	60	56407
2026-01-27 19:39:28.75	55.57	0.64	-48.6	-63.9	3.6	1.51e+00	0	31	104	0	60	56320
2026-01-27 19:39:29.76	55.49	0.69	-48.7	-63.8	3.6	1.51e+00	0	31	104	0	60	56260
2026-01-27 19:39:30.77	55.41	0.74	-48.6	-63.9	3.6	1.51e+00	0	31	104	0	60	56542
2026-01-27 19:39:31.78	55.33	0.79	-48.6	-63.8	3.6	1.51e+00	0	31	104	0	60	56274
2026-01-27 19:39:32.79	55.25	0.84	-48.4	-63.8	3.6	1.51e+00	0	31	104	0	60	55911
2026-01-27 19:39:33.80	55.17	0.89	-48.6	-63.8	3.6	1.51e+00	0	31	104	0	60	55824
2026-01-27 19:39:34.81	55.09	0.93	-48.5	-63.7	3.6	1.51e+00	0	31	104	0	60	55482
2026-01-27 19:39:35.82	55.01	0.98	-48.5	-63.7	3.6	1.51e+00	0	31	104	0	60	55195
2026-01-27 19:39:36.83	54.93	1.03	-48.4	-63.6	3.6	1.51e+00	0	31	104	0	60	54731
2026-01-27 19:39:37.84	54.85	1.08	-48.3	-63.5	3.6	1.51e+00	0	31	104	0	60	54334
2026-01-27 19:39:38.85	54.76	1.13	-48.2	-63.4	3.6	1.51e+00	0	31	104	0	60	53454
2026-01-27 19:39:39.86	54.68	1.18	-48.1	-63.2	3.6	1.51e+00	0	31	104	0	60	52545
2026-01-27 19:39:40.87	54.60	1.23	-47.7	-63.0	3.5	1.51e+00	0	31	104	0	60	50829
2026-01-27 19:39:41.88	54.52	1.28	-47.2	-62.4	3.6	1.51e+00	0	31	104	0	60	47385
2026-01-27 19:39:42.89	54.43	1.33	-47.0	-62.2	3.6	1.51e+00	0	31	104	0	60	46647
2026-01-27 19:39:43.90	54.35	1.38	-47.0	-62.2	3.6	1.51e+00	0	31	104	0	60	46744
2026-01-27 19:39:44.91	54.27	1.43	-47.0	-62.2	3.6	1.51e+00	0	31	104	0	60	46442
2026-01-27 19:39:45.92	54.18	1.48	-47.0	-62.2	3.6	1.51e+00	0	31	104	0	60	46591
2026-01-27 19:39:46.93	54.10	1.53	-47.0	-62.2	3.6	1.51e+00	0	31	104	0	60	46397
2026-01-27 19:39:47.94	54.02	1.58	-47.0	-62.2	3.6	1.51e+00	0	31	104	0	60	46506
2026-01-27 19:39:48.95	53.93	1.63	-47.0	-62.2	3.6	1.51e+00	0	31	104	0	60	46650
2026-01-27 19:39:49.96	53.85	1.68	-47.0	-62.2	3.6	1.51e+00	0	31	104	0	60	46747
2026-01-27 19:39:50.97	53.76	1.73	-47.0	-62.1	3.6	1.51e+00	0	31	104	0	60	46221
2026-01-27 19:39:51.98	53.67	1.78	-47.0	-62.2	3.6	1.51e+00	0	31	104	0	60	46314
2026-01-27 19:39:52.99	53.59	1.83	-47.0	-62.2	3.6	1.51e+00	0	31	104	0	60	46566
2026-01-27 19:39:54.00	53.50	1.88	-47.0	-62.2	3.6	1.51e+00	0	31	104	0	60	46420
2026-01-27 19:39:55.01	53.42	1.93	-47.0	-62.2	3.6	1.51e+00	0	31	104	0	60	46347
2026-01-27 19:39:56.02	53.33	1.98	-47.0	-62.1	3.6	1.51e+00	0	31	104	0	60	46194
2026-01-27 19:39:57.03	53.24	2.03	-47.0	-62.1	3.6	1.51e+00	0	31	104	0	60	46138
2026-01-27 19:39:58.04	53.15	2.08	-47.0	-62.1	3.6	1.51e+00	0	31	104	0	60	46021
2026-01-27 19:39:59.05	53.07	2.13	-47.0	-62.1	3.6	1.51e+00	0	31	104	0	60	45917
2026-01-27 19:40:00.06	52.98	2.18	-47.0	-62.1	3.6	1.51e+00	0	31	104	0	60	45915
2026-01-27 19:40:01.07	52.89	2.23	-47.0	-62.2	3.6	1.51e+00	0	31	104	0	60	46331
2026-01-27 19:40:02.08	52.80	2.28	-47.0	-62.2	3.6	1.51e+00	0	31	104	0	60	46444
2026-01-27 19:40:03.09	52.71	2.33	-47.0	-62.2	3.6	1.51e+00	0	31	104	0	60	46343
2026-01-27 19:40:04.10	52.62	2.38	-47.0	-62.1	3.6	1.51e+00	0	32	104	0	60	46068
2026-01-27 19:40:05.11	52.53	2.43	-47.0	-62.0	3.6	1.51e+00	0	31	104	0	60	45684
2026-01-27 19:40:06.12	52.44	2.48	-47.0	-62.1	3.6	1.51e+00	0	31	104	0	60	45956
2026-01-27 19:40:07.13	52.35	2.53	-47.0	-62.2	3.6	1.51e+00	0	32	104	0	60	46403
2026-01-27 19:40:08.14	52.26	2.58	-47.0	-62.1	3.6	1.51e+00	0	31	104	0	60	45974
2026-01-27 19:40:09.15	52.17	2.63	-47.0	-61.7	3.6	1.51e+00	0	32	104	0	60	44169
2026-01-27 19:40:10.16	52.08	2.68	-47.0	-61.5	3.6	1.51e+00	0	31	104	0	60	42852
2026-01-27 19:40:11.17	51.99	2.73	-47.0	-61.9	3.6	1.51e+00	0	32	104	0	60	45212
2026-01-27 19:40:12.18	51.90	2.78	-47.0	-61.7	3.6	1.51e+00	0	32	104	0	60	44111
2026-01-27 19:40:13.19	51.81	2.83	-46.8	-58.6	3.8	1.50e+00	0	32	104	0	60	30885
2026-01-27 19:40:14.20	51.71	2.88	-46.4	-54.0	6.8	5.17e-01	92	32	0	0	60	18084
2026-01-27 19:40:15.21	51.62	2.93	-45.5	-50.6	10.3	5.20e-02	0	32	0	2097152	60	12227
2026-01-27 19:40:16.22	51.53	2.99	-44.3	-47.8	13.4	1.44e-04	90	31	0	4194304	60	8858
2026-01-27 19:40:17.23	51.43	3.04	-44.3	-47.7	13.4	7.60e-06	14	32	0	5242880	60	8780
2026-01-27 19:40:18.24	51.34	3.09	-45.5	-50.6	9.8	1.02e-03	92	32	0	7340032	60	12280
2026-01-27 19:40:19.25	51.25	3.14	-46.6	-55.5	8.6	1.31e+00	46	32	104	8388608	60	21411
2026-01-27 19:40:20.26	51.15	3.19	-44.0	-47.1	14.7	5.30e-06	0	32	0	8388608	60	8205
2026-01-27 19:40:21.27	51.06	3.24	-43.2	-45.7	16.5	2.13e-05	92	32	0	10485760	60	6954
2026-01-27 19:40:22.28	50.96	3.29	-46.9	-61.3	3.6	1.51e+00	0	32	104	11534336	60	42123
2026-01-27 19:40:23.29	50.87	3.34	-42.5	-44.7	16.2	8.18e-01	90	32	104	11534336	60	6230
2026-01-27 19:40:24.30	50.77	3.39	-43.3	-46.0	15.1	0.00e+00	0	32	0	12582912	58	8137
2026-01-27 19:40:25.31	50.67	3.44	-42.9	-45.4	15.9	0.00e+00	92	32	0	13631488	58	7532
2026-01-27 19:40:26.32	50.58	3.49	-42.4	-44.6	16.6	0.00e+00	0	31	0	15728640	58	6883
2026-01-27 19:40:27.33	50.48	3.54	-42.9	-45.3	16.2	0.00e+00	79	31	0	17825792	58	7424
2026-01-27 19:40:28.33	50.38	3.59	-42.8	-45.2	16.0	0.00e+00	91	31	0	19922944	58	7341
2026-01-27 19:40:29.34	50.29	3.64	-42.5	-44.8	16.3	0.00e+00	14	31	0	22020096	58	7020
2026-01-27 19:40:30.36	50.19	3.69	-42.7	-45.1	16.2	0.00e+00	92	32	0	23068672	58	7263
2026-01-27 19:40:31.36	50.09	3.74	-42.5	-44.6	16.9	0.00e+00	8	32	0	25165824	58	6912
2026-01-27 19:40:32.37	49.99	3.80	-42.7	-45.0	16.2	0.00e+00	90	31	0	27262976	58	7235
2026-01-27 19:40:33.38	49.89	3.85	-42.9	-45.3	16.1	0.00e+00	1	32	0	29360128	58	7433
2026-01-27 19:40:34.39	49.79	3.90	-42.3	-44.4	17.0	0.00e+00	16	32	0	31457280	58	6762
2026-01-27 19:40:35.40	49.69	3.95	-42.6	-44.8	16.8	0.00e+00	91	32	0	32505856	58	7068
2026-01-27 19:40:36.40	49.60	4.00	-42.2	-44.2	17.2	0.00e+00	11	32	0	34603008	58	6604
2026-01-27 19:40:37.41	49.49	4.05	-42.4	-44.6	16.6	0.00e+00	92	32	0	36700160	58	6863
2026-01-27 19:40:38.42	49.39	4.10	-42.1	-44.1	17.5	0.00e+00	1	32	0	38797312	58	6498
2026-01-27 19:40:39.43	49.29	4.15	-42.0	-44.0	17.5	0.00e+00	92	32	0	40894464	56	7190
2026-01-27 19:40:40.44	49.19	4.20	-42.2	-44.2	17.5	0.00e+00	5	32	0	41943040	56	7394
2026-01-27 19:40:41.45	49.09	4.25	-42.1	-44.1	17.5	0.00e+00	92	31	0	44040192	56	7292
2026-01-27 19:40:42.45	48.99	4.30	-41.7	-43.5	17.7	0.00e+00	25	32	0	46137344	56	6781
2026-01-27 19:40:43.46	48.89	4.35	-41.6	-43.3	18.1	0.00e+00	0	32	0	48234496	56	6678
2026-01-27 19:40:44.47	48.78	4.41	-41.2	-42.8	18.7	0.00e+00	92	32	0	50331648	56	6270
2026-01-27 19:40:45.48	48.68	4.46	-41.4	-43.1	18.2	0.00e+00	0	32	0	51380224	56	6509
2026-01-27 19:40:46.49	48.58	4.51	-41.6	-43.3	18.3	0.00e+00	92	32	0	53477376	56	6671
2026-01-27 19:40:47.50	48.47	4.56	-41.3	-43.0	18.5	0.00e+00	0	32	0	55574528	56	6397
2026-01-27 19:40:48.51	48.37	4.61	-41.5	-43.2	18.3	0.00e+00	92	32	0	57671680	56	6611
2026-01-27 19:40:49.52	48.26	4.66	-41.6	-43.3	18.4	0.00e+00	0	32	0	59768832	56	6638
2026-01-27 19:40:50.53	48.16	4.71	-41.2	-42.8	18.7	0.00e+00	0	32	0	60817408	56	6294
2026-01-27 19:40:51.54	48.05	4.76	-41.2	-42.8	18.8	0.00e+00	92	32	0	62914560	56	6311
2026-01-27 19:40:52.54	47.95	4.81	-41.5	-43.2	18.5	0.00e+00	5	32	0	65011712	56	6607
2026-01-27 19:40:53.55	47.84	4.86	-41.4	-43.1	18.5	0.00e+00	92	32	0	67108864	56	6509
2026-01-27 19:40:54.56	47.73	4.91	-40.9	-42.4	19.1	0.00e+00	81	32	0	69206016	56	6031
2026-01-27 19:40:55.57	47.63	4.97	-41.4	-43.0	18.7	0.00e+00	92	32	0	71303168	56	6437
2026-01-27 19:40:56.58	47.52	5.02	-41.6	-43.3	18.4	0.00e+00	5	31	0	72351744	56	6664
2026-01-27 19:40:57.59	47.41	5.07	-41.5	-43.2	18.4	0.00e+00	91	31	0	74448896	56	6602
2026-01-27 19:40:58.60	47.30	5.12	-41.0	-42.6	19.0	0.00e+00	44	32	0	76546048	56	6140
2026-01-27 19:40:59.60	47.20	5.17	-41.2	-42.7	18.4	0.00e+00	9	32	0	78643200	56	6238
2026-01-27 19:41:00.61	47.09	5.22	-41.5	-43.2	18.5	0.00e+00	90	32	0	80740352	56	6578
2026-01-27 19:41:01.62	46.98	5.27	-41.6	-43.4	18.2	0.00e+00	6	32	0	81788928	56	6693
2026-01-27 19:41:02.63	46.87	5.32	-41.2	-42.8	18.8	0.00e+00	92	32	0	83886080	56	6279
2026-01-27 19:41:03.64	46.76	5.37	-41.2	-42.8	18.9	0.00e+00	5	32	0	85983232	56	6297
2026-01-27 19:41:04.65	46.65	5.42	-41.0	-42.6	19.1	0.00e+00	90	32	0	88080384	56	6113
2026-01-27 19:41:05.66	46.54	5.48	-41.3	-42.9	18.6	7.00e-07	18	32	0	90177536	56	6376
2026-01-27 19:41:06.67	46.42	5.53	-41.2	-42.9	18.8	0.00e+00	5	32	0	91226112	56	6320
2026-01-27 19:41:07.68	46.31	5.58	-41.3	-42.8	18.9	0.00e+00	90	32	0	93323264	56	6315
2026-01-27 19:41:08.68	46.20	5.63	-41.1	-42.6	19.1	0.00e+00	0	32	0	95420416	56	6137
2026-01-27 19:41:09.70	46.09	5.68	-41.0	-42.5	19.2	0.00e+00	92	32	0	97517568	56	6080
2026-01-27 19:41:10.71	45.97	5.73	-41.2	-42.8	19.0	0.00e+00	80	32	0	99614720	56	6249
2026-01-27 19:41:11.72	45.86	5.78	-41.1	-42.7	19.0	0.00e+00	92	32	0	100663296	56	6200
2026-01-27 19:41:12.72	45.75	5.83	-40.6	-42.1	19.6	0.00e+00	0	32	0	102760448	54	6501
2026-01-27 19:41:13.73	45.63	5.88	-40.6	-42.0	19.6	0.00e+00	0	32	0	104857600	54	6431
2026-01-27 19:41:14.74	45.52	5.93	-40.7	-42.2	19.4	0.00e+00	90	32	0	106954752	54	6582
2026-01-27 19:41:15.75	45.40	5.98	-40.7	-42.1	19.6	0.00e+00	81	32	0	109051904	54	6522
2026-01-27 19:41:16.76	45.29	6.04	-40.8	-42.3	19.4	0.00e+00	92	32	0	110100480	54	6673
2026-01-27 19:41:17.77	45.17	6.09	-41.0	-42.5	19.1	0.00e+00	0	32	0	112197632	54	6844
2026-01-27 19:41:18.77	45.06	6.14	-40.6	-42.0	19.7	0.00e+00	91	32	0	114294784	54	6411
2026-01-27 19:41:19.78	44.94	6.19	-40.8	-42.3	19.4	0.00e+00	81	32	0	116391936	54	6658
2026-01-27 19:41:20.79	44.82	6.24	-40.7	-42.2	19.5	0.00e+00	92	32	0	118489088	54	6558
2026-01-27 19:41:21.80	44.71	6.29	-41.3	-42.9	18.8	0.00e+00	91	32	0	119537664	54	7104
2026-01-27 19:41:22.81	44.59	6.34	-40.6	-42.0	19.9	0.00e+00	0	32	0	121634816	54	6427
2026-01-27 19:41:23.82	44.47	6.39	-40.9	-42.3	19.2	0.00e+00	92	32	0	123731968	54	6688
2026-01-27 19:41:24.83	44.35	6.44	-41.1	-42.6	19.3	0.00e+00	0	32	0	125829120	54	6881
2026-01-27 19:41:25.84	44.23	6.49	-40.8	-42.2	19.8	0.00e+00	92	32	0	127926272	54	6575
2026-01-27 19:41:26.84	44.11	6.54	-40.9	-42.4	19.5	0.00e+00	0	32	0	128974848	54	6721
2026-01-27 19:41:27.85	43.99	6.59	-40.8	-42.3	19.6	0.00e+00	92	32	0	131072000	54	6632
2026-01-27 19:41:28.86	43.87	6.65	-40.2	-41.5	20.2	0.00e+00	0	32	0	133169152	54	6090
2026-01-27 19:41:29.87	43.75	6.70	-41.1	-42.6	19.2	0.00e+00	0	32	0	135266304	54	6883
2026-01-27 19:41:30.88	43.63	6.75	-40.7	-42.2	19.6	0.00e+00	92	32	0	137363456	54	6544
2026-01-27 19:41:31.89	43.51	6.80	-40.8	-42.2	19.3	0.00e+00	81	32	0	139460608	54	6610
2026-01-27 19:41:32.90	43.39	6.85	-40.9	-42.3	19.5	0.00e+00	92	32	0	140509184	54	6691
2026-01-27 19:41:33.91	43.26	6.90	-41.1	-42.6	19.4	0.00e+00	0	32	0	142606336	54	6890
2026-01-27 19:41:34.92	43.14	6.95	-40.8	-42.3	19.6	0.00e+00	92	32	0	144703488	54	6650
2026-01-27 19:41:35.92	43.02	7.00	-40.7	-42.1	19.8	0.00e+00	63	32	0	146800640	54	6519
2026-01-27 19:41:36.93	42.89	7.05	-40.5	-41.9	20.0	0.00e+00	92	32	0	147849216	54	6322
2026-01-27 19:41:37.94	42.77	7.10	-40.7	-42.2	19.6	0.00e+00	23	32	0	149946368	54	6551
2026-01-27 19:41:38.95	42.64	7.15	-40.7	-42.1	19.9	0.00e+00	0	32	0	152043520	54	6472
2026-01-27 19:41:39.96	42.52	7.20	-40.3	-41.6	20.1	0.00e+00	92	32	0	154140672	54	6166
2026-01-27 19:41:40.96	42.40	7.25	-40.5	-41.9	19.8	0.00e+00	82	32	0	156237824	54	6374
2026-01-27 19:41:41.97	42.27	7.30	-40.5	-41.8	19.8	0.00e+00	92	32	0	157286400	54	6302
2026-01-27 19:41:42.98	42.14	7.35	-40.5	-41.9	20.0	0.00e+00	0	32	0	159383552	54	6335
2026-01-27 19:41:43.99	42.02	7.40	-40.4	-41.8	20.1	0.00e+00	91	32	0	161480704	54	6259
2026-01-27 19:41:45.00	41.89	7.45	-40.3	-41.7	20.0	0.00e+00	49	32	0	163577856	54	6187
2026-01-27 19:41:46.00	41.76	7.50	-40.3	-41.6	20.3	0.00e+00	2	32	0	165675008	54	6139
2026-01-27 19:41:47.01	41.63	7.55	-40.4	-41.7	19.9	0.00e+00	91	32	0	167772160	54	6233
2026-01-27 19:41:48.02	41.50	7.60	-40.3	-41.6	20.1	0.00e+00	0	32	0	168820736	54	6119
2026-01-27 19:41:49.03	41.37	7.65	-40.1	-41.4	20.4	0.00e+00	92	32	0	170917888	54	5977
2026-01-27 19:41:50.04	41.24	7.70	-40.2	-41.5	20.2	0.00e+00	0	32	0	173015040	54	6101
2026-01-27 19:41:51.05	41.11	7.75	-40.3	-41.6	20.1	0.00e+00	91	32	0	175112192	54	6133
2026-01-27 19:41:52.06	40.98	7.80	-40.3	-41.6	19.9	0.00e+00	0	32	0	177209344	54	6165
2026-01-27 19:41:53.07	40.85	7.85	-40.3	-41.6	20.0	0.00e+00	91	32	0	178257920	54	6158
2026-01-27 19:41:54.08	40.72	7.90	-40.2	-41.5	20.3	0.00e+00	92	32	0	180355072	54	6103
2026-01-27 19:41:55.08	40.59	7.95	-40.0	-41.3	20.6	0.00e+00	0	32	0	182452224	54	5940
2026-01-27 19:41:56.09	40.46	8.00	-40.1	-41.4	20.5	0.00e+00	90	32	0	184549376	52	6729
2026-01-27 19:41:57.10	40.32	8.05	-40.1	-41.4	20.4	0.00e+00	0	32	0	186646528	52	6733
2026-01-27 19:41:58.11	40.19	8.10	-40.1	-41.4	20.3	0.00e+00	92	32	0	187695104	52	6704
2026-01-27 19:41:59.12	40.06	8.15	-40.0	-41.2	20.4	0.00e+00	0	32	0	189792256	52	6611
2026-01-27 19:42:00.13	39.92	8.20	-39.8	-41.0	20.8	0.00e+00	92	32	0	191889408	52	6459
2026-01-27 19:42:01.13	39.79	8.25	-40.0	-41.2	20.6	0.00e+00	92	32	0	193986560	52	6614
2026-01-27 19:42:02.14	39.65	8.30	-39.9	-41.1	20.7	0.00e+00	2	32	0	196083712	52	6520
2026-01-27 19:42:03.15	39.52	8.35	-39.9	-41.1	20.8	0.00e+00	92	32	0	197132288	52	6496
2026-01-27 19:42:04.16	39.38	8.40	-40.1	-41.3	20.5	0.00e+00	82	32	0	199229440	52	6688
2026-01-27 19:42:05.17	39.24	8.45	-39.9	-41.2	20.7	0.00e+00	92	32	0	201326592	52	6544
2026-01-27 19:42:06.18	39.11	8.50	-40.0	-41.3	20.2	0.00e+00	0	32	0	203423744	52	6658
2026-01-27 19:42:07.19	38.97	8.55	-40.0	-41.2	20.6	0.00e+00	85	32	0	205520896	52	6601
2026-01-27 19:42:08.20	38.83	8.60	-40.0	-41.2	20.6	0.00e+00	86	32	0	206569472	52	6606
2026-01-27 19:42:09.21	38.69	8.65	-39.8	-41.0	20.8	0.00e+00	0	32	0	208666624	52	6441
2026-01-27 19:42:10.22	38.55	8.70	-40.0	-41.2	20.6	0.00e+00	92	32	0	210763776	52	6587
2026-01-27 19:42:11.22	38.41	8.74	-39.9	-41.1	20.9	0.00e+00	0	32	0	212860928	52	6483
2026-01-27 19:42:12.23	38.27	8.79	-39.8	-41.0	21.1	0.00e+00	92	32	0	214958080	52	6406
2026-01-27 19:42:13.24	38.13	8.84	-39.8	-41.0	20.9	0.00e+00	0	32	0	216006656	52	6401
2026-01-27 19:42:14.25	37.99	8.89	-39.9	-41.1	20.8	0.00e+00	92	32	0	218103808	52	6512
2026-01-27 19:42:15.26	37.85	8.94	-40.1	-41.4	20.5	0.00e+00	0	32	0	220200960	52	6720
2026-01-27 19:42:16.27	37.71	8.99	-39.9	-41.1	20.7	0.00e+00	89	32	0	222298112	52	6536
2026-01-27 19:42:17.28	37.57	9.04	-40.0	-41.3	20.7	0.00e+00	92	32	0	224395264	52	6633
2026-01-27 19:42:18.29	37.42	9.08	-40.1	-41.3	20.5	0.00e+00	0	32	0	225443840	52	6668
2026-01-27 19:42:19.30	37.28	9.13	-40.0	-41.2	20.9	0.00e+00	92	32	0	227540992	52	6564
2026-01-27 19:42:20.31	37.14	9.18	-40.1	-41.3	20.6	0.00e+00	0	32	0	229638144	52	6690
2026-01-27 19:42:21.32	36.99	9.23	-40.2	-41.5	20.4	0.00e+00	92	32	0	231735296	52	6773
2026-01-27 19:42:22.32	36.85	9.28	-39.7	-40.9	21.1	0.00e+00	0	32	0	233832448	52	6368
2026-01-27 19:42:23.33	36.70	9.33	-39.8	-41.0	21.0	0.00e+00	92	32	0	234881024	52	6461
2026-01-27 19:42:24.34	36.56	9.37	-39.7	-40.8	21.2	0.00e+00	82	32	0	236978176	52	6303
2026-01-27 19:42:25.34	36.41	9.42	-39.6	-40.8	21.2	0.00e+00	1	32	0	239075328	52	6276
2026-01-27 19:42:26.35	36.26	9.47	-39.6	-40.8	21.2	0.00e+00	92	32	0	241172480	52	6274
2026-01-27 19:42:27.36	36.12	9.52	-39.5	-40.6	21.4	0.00e+00	0	32	0	243269632	52	6160
2026-01-27 19:42:28.37	35.97	9.56	-39.6	-40.8	21.2	0.00e+00	92	32	0	244318208	52	6285
2026-01-27 19:42:29.38	35.82	9.61	-39.7	-40.9	21.2	0.00e+00	81	32	0	246415360	52	6343
2026-01-27 19:42:30.39	35.67	9.66	-39.7	-40.9	21.2	0.00e+00	92	32	0	248512512	52	6347
2026-01-27 19:42:31.39	35.52	9.71	-39.2	-40.3	21.7	0.00e+00	77	32	0	250609664	52	5941
2026-01-27 19:42:32.40	35.37	9.75	-39.0	-40.1	21.9	0.00e+00	0	32	0	252706816	52	5817
2026-01-27 19:42:33.41	35.22	9.80	-39.0	-40.1	21.9	0.00e+00	92	32	0	253755392	52	5776
2026-01-27 19:42:34.42	35.07	9.85	-39.2	-40.3	21.6	0.00e+00	6	32	0	255852544	52	5909
2026-01-27 19:42:35.43	34.92	9.89	-39.2	-40.3	21.7	0.00e+00	92	32	0	257949696	52	5919
2026-01-27 19:42:36.44	34.77	9.94	-39.0	-40.1	21.9	0.00e+00	0	32	0	260046848	52	5809
2026-01-27 19:42:37.44	34.62	9.99	-39.1	-40.2	21.7	0.00e+00	92	32	0	262144000	52	5864
2026-01-27 19:42:38.45	34.47	10.03	-39.0	-40.0	21.9	0.00e+00	6	32	0	264241152	52	5757
2026-01-27 19:42:39.46	34.31	10.08	-38.8	-39.9	22.0	0.00e+00	0	32	0	265289728	50	6369
2026-01-27 19:42:40.47	34.16	10.13	-38.7	-39.8	22.3	0.00e+00	92	32	0	267386880	50	6259
2026-01-27 19:42:41.48	34.00	10.17	-38.4	-39.4	22.5	0.00e+00	6	32	0	269484032	50	6011
2026-01-27 19:42:42.49	33.85	10.22	-38.4	-39.4	22.6	0.00e+00	92	32	0	271581184	50	5975
2026-01-27 19:42:43.50	33.69	10.27	-38.5	-39.5	22.6	0.00e+00	0	32	0	273678336	50	6056
2026-01-27 19:42:44.51	33.54	10.31	-38.4	-39.4	22.6	0.00e+00	0	32	0	274726912	50	6007
2026-01-27 19:42:45.52	33.38	10.36	-38.5	-39.5	22.4	0.00e+00	83	32	0	276824064	50	6065
2026-01-27 19:42:46.53	33.23	10.40	-38.6	-39.7	22.3	0.00e+00	83	32	0	278921216	50	6187
2026-01-27 19:42:47.53	33.07	10.45	-38.6	-39.6	22.5	0.00e+00	81	32	0	281018368	50	6115
2026-01-27 19:42:48.54	32.91	10.49	-38.4	-39.4	22.6	0.00e+00	4	32	0	283115520	50	6013
2026-01-27 19:42:49.56	32.75	10.54	-38.4	-39.4	22.5	0.00e+00	92	32	0	284164096	50	6010
2026-01-27 19:42:50.56	32.59	10.58	-38.5	-39.5	22.5	0.00e+00	83	32	0	286261248	50	6075
2026-01-27 19:42:51.57	32.44	10.63	-38.2	-39.2	22.7	0.00e+00	79	32	0	288358400	50	5844
2026-01-27 19:42:52.58	32.28	10.67	-38.2	-39.2	22.7	0.00e+00	5	32	0	290455552	50	5854
2026-01-27 19:42:53.59	32.12	10.72	-38.1	-39.1	22.9	0.00e+00	3	32	0	292552704	50	5789
2026-01-27 19:42:54.60	31.95	10.76	-38.3	-39.3	22.8	0.00e+00	26	32	0	293601280	50	5916
2026-01-27 19:42:55.61	31.79	10.81	-38.2	-39.2	22.8	0.00e+00	7	32	0	295698432	50	5857
2026-01-27 19:42:56.62	31.63	10.85	-38.2	-39.1	22.8	0.00e+00	92	32	0	297795584	50	5822
2026-01-27 19:42:57.63	31.47	10.90	-38.0	-38.9	23.1	0.00e+00	0	32	0	299892736	50	5691
2026-01-27 19:42:58.63	31.31	10.94	-38.0	-39.0	23.0	0.00e+00	18	32	0	301989888	50	5730
2026-01-27 19:42:59.65	31.14	10.98	-37.9	-38.8	23.1	0.00e+00	7	32	0	303038464	50	5610
2026-01-27 19:43:00.66	30.98	11.03	-38.0	-39.0	22.8	0.00e+00	0	32	0	305135616	50	5723
2026-01-27 19:43:01.67	30.81	11.07	-37.9	-38.9	23.1	0.00e+00	5	32	0	307232768	50	5643
2026-01-27 19:43:02.68	30.65	11.12	-37.8	-38.7	23.2	0.00e+00	0	32	0	309329920	50	5534
2026-01-27 19:43:03.68	30.49	11.16	-37.8	-38.8	23.2	0.00e+00	91	32	0	311427072	48	6249
2026-01-27 19:43:04.69	30.32	11.20	-37.8	-38.7	23.2	0.00e+00	6	32	0	312475648	48	6242
2026-01-27 19:43:05.70	30.15	11.24	-37.7	-38.6	23.2	0.00e+00	92	32	0	314572800	48	6169
2026-01-27 19:43:06.71	29.99	11.29	-37.6	-38.5	23.4	0.00e+00	81	32	0	316669952	48	6099
2026-01-27 19:43:07.72	29.82	11.33	-37.6	-38.5	23.4	0.00e+00	0	32	0	318767104	48	6061
2026-01-27 19:43:08.73	29.65	11.37	-37.5	-38.4	23.3	0.00e+00	82	32	0	320864256	48	6004
2026-01-27 19:43:09.74	29.48	11.42	-37.5	-38.4	22.9	0.00e+00	0	32	0	321912832	48	5982
2026-01-27 19:43:10.74	29.32	11.46	-37.6	-38.5	23.4	0.00e+00	82	32	0	324009984	48	6060
2026-01-27 19:43:11.76	29.15	11.50	-37.6	-38.5	23.5	0.00e+00	82	32	0	326107136	48	6071
2026-01-27 19:43:12.76	28.98	11.54	-37.5	-38.4	23.5	0.00e+00	91	32	0	328204288	48	6007
2026-01-27 19:43:13.77	28.81	11.58	-37.4	-38.3	23.5	0.00e+00	82	32	0	330301440	48	5908
2026-01-27 19:43:14.78	28.64	11.62	-37.5	-38.4	23.4	0.00e+00	90	32	0	331350016	48	6018
2026-01-27 19:43:15.79	28.47	11.67	-37.6	-38.5	23.4	0.00e+00	0	32	0	333447168	48	6056
2026-01-27 19:43:16.80	28.29	11.71	-37.7	-38.6	23.3	0.00e+00	0	32	0	335544320	48	6139
2026-01-27 19:43:17.81	28.12	11.75	-37.7	-38.6	23.4	0.00e+00	3	32	0	337641472	48	6145
2026-01-27 19:43:18.82	27.95	11.79	-37.7	-38.7	23.3	0.00e+00	0	32	0	339738624	48	6194
2026-01-27 19:43:19.83	27.78	11.83	-37.8	-38.7	23.2	0.00e+00	92	32	0	340787200	48	6209
2026-01-27 19:43:20.84	27.60	11.87	-37.7	-38.6	23.3	0.00e+00	0	32	0	342884352	48	6150
2026-01-27 19:43:21.85	27.43	11.91	-37.7	-38.7	23.2	0.00e+00	92	32	0	344981504	48	6187
2026-01-27 19:43:22.86	27.25	11.95	-37.7	-38.6	23.3	0.00e+00	0	32	0	347078656	48	6142
2026-01-27 19:43:23.87	27.08	11.99	-37.7	-38.6	23.3	0.00e+00	0	32	0	349175808	48	6171
2026-01-27 19:43:24.88	26.90	12.03	-37.8	-38.7	23.0	0.00e+00	2	32	0	350224384	48	6219
2026-01-27 19:43:25.89	26.73	12.07	-38.0	-39.0	23.0	0.00e+00	0	32	0	352321536	48	6406
2026-01-27 19:43:26.89	26.55	12.11	-37.8	-38.8	23.2	0.00e+00	92	32	0	354418688	48	6267
2026-01-27 19:43:27.90	26.38	12.15	-37.8	-38.8	23.2	0.00e+00	81	32	0	356515840	48	6273
2026-01-27 19:43:28.91	26.20	12.18	-37.9	-38.8	23.1	0.00e+00	92	32	0	358612992	48	6289
2026-01-27 19:43:29.91	26.02	12.22	-38.0	-38.9	23.0	0.00e+00	83	32	0	360710144	48	6350
2026-01-27 19:43:30.92	25.84	12.26	-38.0	-39.0	22.9	0.00e+00	17	32	0	361758720	48	6437
2026-01-27 19:43:31.93	25.67	12.30	-38.0	-39.0	23.0	0.00e+00	82	32	0	363855872	48	6431
2026-01-27 19:43:32.95	25.48	12.34	-38.1	-39.0	22.9	0.00e+00	0	32	0	365953024	48	6455
2026-01-27 19:43:33.96	25.30	12.38	-38.0	-39.0	23.0	0.00e+00	63	32	0	368050176	48	6413
2026-01-27 19:43:34.97	25.12	12.41	-37.9	-38.9	23.1	0.00e+00	0	32	0	370147328	48	6350
2026-01-27 19:43:35.98	24.94	12.45	-37.9	-38.9	23.1	0.00e+00	90	32	0	371195904	48	6339
2026-01-27 19:43:36.98	24.76	12.49	-37.9	-38.8	23.2	0.00e+00	0	32	0	373293056	48	6307
2026-01-27 19:43:37.99	24.58	12.52	-37.9	-38.9	23.1	0.00e+00	0	32	0	375390208	48	6320
2026-01-27 19:43:39.00	24.40	12.56	-37.8	-38.7	23.2	0.00e+00	0	32	0	377487360	48	6224
2026-01-27 19:43:40.01	24.22	12.60	-37.8	-38.8	22.9	0.00e+00	0	32	0	379584512	48	6279
2026-01-27 19:43:41.02	24.03	12.63	-37.9	-38.8	23.0	0.00e+00	0	32	0	380633088	48	6314
2026-01-27 19:43:42.03	23.85	12.67	-37.8	-38.8	23.2	0.00e+00	0	32	0	382730240	48	6261
2026-01-27 19:43:43.04	23.67	12.70	-37.8	-38.7	23.2	0.00e+00	91	32	0	384827392	48	6220
2026-01-27 19:43:44.05	23.48	12.74	-37.9	-38.8	23.1	0.00e+00	0	32	0	386924544	48	6274
2026-01-27 19:43:45.06	23.30	12.78	-37.9	-38.9	23.0	0.00e+00	92	32	0	389021696	48	6334
2026-01-27 19:43:46.07	23.11	12.81	-37.9	-38.8	23.2	0.00e+00	0	32	0	390070272	48	6284
2026-01-27 19:43:47.07	22.93	12.84	-37.8	-38.7	23.3	0.00e+00	0	32	0	392167424	48	6201
2026-01-27 19:43:48.08	22.74	12.88	-37.6	-38.5	23.5	0.00e+00	0	32	0	394264576	48	6077
2026-01-27 19:43:49.09	22.56	12.91	-37.7	-38.6	23.3	0.00e+00	0	32	0	396361728	48	6145
2026-01-27 19:43:50.10	22.37	12.95	-37.7	-38.6	23.3	0.00e+00	92	32	0	398458880	48	6156
2026-01-27 19:43:51.11	22.18	12.98	-37.8	-38.7	23.3	0.00e+00	81	32	0	399507456	48	6185
2026-01-27 19:43:52.12	21.99	13.01	-37.8	-38.7	23.3	0.00e+00	90	32	0	401604608	48	6195
2026-01-27 19:43:53.12	21.81	13.05	-37.7	-38.6	23.3	0.00e+00	82	32	0	403701760	48	6152
2026-01-27 19:43:54.13	21.62	13.08	-37.6	-38.5	22.7	0.00e+00	10	32	0	405798912	48	6055
2026-01-27 19:43:55.14	21.43	13.11	-37.5	-38.4	23.3	0.00e+00	0	32	0	407896064	48	5976
2026-01-27 19:43:56.14	21.24	13.14	-37.6	-38.5	23.4	0.00e+00	81	32	0	408944640	48	6056
2026-01-27 19:43:57.15	21.05	13.18	-37.7	-38.6	23.3	0.00e+00	0	32	0	411041792	48	6158
2026-01-27 19:43:58.16	20.86	13.21	-37.7	-38.7	23.3	0.00e+00	0	32	0	413138944	48	6206
2026-01-27 19:43:59.17	20.67	13.24	-37.7	-38.7	23.3	0.00e+00	90	32	0	415236096	48	6175
2026-01-27 19:44:00.18	20.48	13.27	-37.6	-38.5	23.4	0.00e+00	81	32	0	417333248	48	6094
2026-01-27 19:44:01.19	20.29	13.30	-37.6	-38.5	23.4	0.00e+00	92	32	0	418381824	48	6070
2026-01-27 19:44:02.20	20.10	13.33	-37.6	-38.5	23.5	0.00e+00	0	32	0	420478976	48	6059
2026-01-27 19:44:03.21	19.90	13.36	-37.6	-38.5	23.5	0.00e+00	0	32	0	422576128	48	6086
2026-01-27 19:44:04.22	19.71	13.39	-37.5	-38.4	23.5	0.00e+00	0	32	0	424673280	48	6033
2026-01-27 19:44:05.23	19.52	13.42	-37.6	-38.5	23.5	0.00e+00	0	32	0	426770432	48	6051
2026-01-27 19:44:06.24	19.32	13.45	-37.5	-38.4	23.4	0.00e+00	92	32	0	427819008	48	5983
2026-01-27 19:44:07.25	19.13	13.48	-37.5	-38.4	23.6	0.00e+00	0	32	0	429916160	48	5989
2026-01-27 19:44:08.26	18.94	13.51	-37.4	-38.3	23.6	0.00e+00	90	32	0	432013312	48	5897
2026-01-27 19:44:09.26	18.74	13.54	-37.4	-38.3	23.7	0.00e+00	2	32	0	434110464	48	5927
2026-01-27 19:44:10.27	18.55	13.57	-37.5	-38.4	23.6	0.00e+00	2	32	0	436207616	48	5991
2026-01-27 19:44:11.28	18.35	13.60	-37.5	-38.4	23.5	0.00e+00	2	32	0	437256192	48	6003
2026-01-27 19:44:12.29	18.16	13.62	-37.6	-38.5	23.4	0.00e+00	0	32	0	439353344	48	6085
2026-01-27 19:44:13.30	17.96	13.65	-37.6	-38.5	23.5	0.00e+00	62	32	0	441450496	48	6046
2026-01-27 19:44:14.31	17.76	13.68	-37.5	-38.4	23.6	0.00e+00	81	32	0	443547648	48	5992
2026-01-27 19:44:15.32	17.57	13.71	-37.4	-38.3	23.6	0.00e+00	90	32	0	445644800	48	5918
2026-01-27 19:44:16.33	17.37	13.73	-37.4	-38.3	23.7	0.00e+00	81	32	0	446693376	48	5925
2026-01-27 19:44:17.33	17.17	13.76	-37.3	-38.2	23.7	0.00e+00	10	32	0	448790528	48	5872
2026-01-27 19:44:18.34	16.97	13.78	-37.5	-38.3	23.6	0.00e+00	0	32	0	450887680	48	5963
2026-01-27 19:44:19.35	16.78	13.81	-37.5	-38.4	23.6	0.00e+00	0	32	0	452984832	48	6023
2026-01-27 19:44:20.36	16.58	13.84	-37.7	-38.6	23.3	0.00e+00	0	32	0	455081984	48	6162
2026-01-27 19:44:21.37	16.38	13.86	-37.6	-38.5	23.1	0.00e+00	0	32	0	457179136	48	6047
2026-01-27 19:44:22.38	16.18	13.89	-37.7	-38.6	23.4	0.00e+00	92	32	0	458227712	48	6139
2026-01-27 19:44:23.38	15.98	13.91	-37.6	-38.5	23.4	0.00e+00	0	32	0	460324864	48	6094
2026-01-27 19:44:24.40	15.78	13.93	-37.8	-38.8	23.2	0.00e+00	90	32	0	462422016	48	6246
2026-01-27 19:44:25.40	15.58	13.96	-38.0	-38.9	23.1	0.00e+00	1	32	0	464519168	48	6377
2026-01-27 19:44:26.41	15.38	13.98	-38.0	-38.9	23.1	0.00e+00	0	32	0	466616320	48	6362
2026-01-27 19:44:27.42	15.18	14.00	-38.1	-39.1	23.0	0.00e+00	5	32	0	467664896	48	6471
2026-01-27 19:44:28.43	14.98	14.03	-38.1	-39.1	22.9	0.00e+00	0	32	0	469762048	48	6476
2026-01-27 19:44:29.44	14.78	14.05	-37.9	-38.8	23.2	0.00e+00	92	32	0	471859200	48	6284
2026-01-27 19:44:30.45	14.57	14.07	-38.0	-39.0	23.1	0.00e+00	6	32	0	473956352	48	6394
2026-01-27 19:44:31.46	14.37	14.09	-38.0	-38.9	23.1	0.00e+00	92	32	0	476053504	48	6379
2026-01-27 19:44:32.47	14.17	14.11	-38.1	-39.1	23.0	0.00e+00	5	32	0	477102080	48	6476
2026-01-27 19:44:33.48	13.97	14.14	-38.4	-39.3	22.7	0.00e+00	6	32	0	479199232	48	6683
2026-01-27 19:44:34.49	13.76	14.16	-38.3	-39.2	22.8	0.00e+00	0	32	0	481296384	48	6591
2026-01-27 19:44:35.50	13.56	14.18	-38.4	-39.4	22.7	0.00e+00	0	32	0	483393536	48	6710
2026-01-27 19:44:36.51	13.35	14.20	-38.3	-39.2	22.8	0.00e+00	18	32	0	485490688	48	6604
2026-01-27 19:44:37.52	13.15	14.22	-38.3	-39.3	22.8	0.00e+00	0	32	0	486539264	48	6627
2026-01-27 19:44:38.53	12.95	14.24	-38.3	-39.3	22.7	0.00e+00	92	32	0	488636416	48	6663
2026-01-27 19:44:39.53	12.74	14.25	-38.5	-39.5	22.7	0.00e+00	0	32	0	490733568	48	6784
2026-01-27 19:44:40.54	12.54	14.27	-38.4	-39.3	22.8	0.00e+00	92	32	0	492830720	48	6691
2026-01-27 19:44:41.55	12.33	14.29	-38.3	-39.3	22.8	0.00e+00	0	32	0	494927872	48	6663
2026-01-27 19:44:42.56	12.13	14.31	-38.2	-39.2	22.8	0.00e+00	83	32	0	495976448	48	6598
2026-01-27 19:44:43.57	11.92	14.33	-38.2	-39.2	23.0	0.00e+00	75	32	0	498073600	48	6542
2026-01-27 19:44:44.58	11.72	14.34	-38.0	-39.0	23.0	0.00e+00	2	32	0	500170752	48	6425
2026-01-27 19:44:45.59	11.51	14.36	-37.9	-38.8	23.2	0.00e+00	90	32	0	502267904	48	6310
2026-01-27 19:44:46.59	11.31	14.38	-37.8	-38.8	23.1	0.00e+00	6	32	0	504365056	48	6268
2026-01-27 19:44:47.60	11.10	14.39	-37.8	-38.7	23.3	0.00e+00	92	32	0	505413632	48	6211
2026-01-27 19:44:48.60	10.90	14.41	-37.8	-38.7	23.4	0.00e+00	4	32	0	507510784	48	6213
2026-01-27 19:44:49.61	10.69	14.42	-37.7	-38.6	23.4	0.00e+00	7	32	0	509607936	48	6139
2026-01-27 19:44:50.62	10.48	14.44	-37.6	-38.5	23.5	0.00e+00	4	32	0	511705088	48	6064
2026-01-27 19:44:51.63	10.27	14.45	-37.5	-38.3	23.6	0.00e+00	7	32	0	513802240	48	5964
2026-01-27 19:44:52.64	10.07	14.47	-37.5	-38.4	23.6	0.00e+00	92	32	0	514850816	48	5966
2026-01-27 19:44:53.65	9.86	14.48	-37.6	-38.5	23.5	0.00e+00	0	32	0	516947968	48	6050
2026-01-27 19:44:54.66	9.65	14.50	-37.7	-38.6	23.4	0.00e+00	92	32	0	519045120	48	6127
2026-01-27 19:44:55.67	9.44	14.51	-37.8	-38.8	23.3	0.00e+00	8	32	0	521142272	48	6246
2026-01-27 19:44:56.68	9.23	14.52	-37.9	-38.8	23.2	0.00e+00	76	32	0	523239424	48	6303
2026-01-27 19:44:57.69	9.03	14.53	-37.8	-38.8	23.3	0.00e+00	8	32	0	524288000	48	6269
2026-01-27 19:44:58.70	8.82	14.55	-37.9	-38.8	23.1	0.00e+00	0	32	0	526385152	48	6298
2026-01-27 19:44:59.71	8.61	14.56	-37.8	-38.7	23.3	0.00e+00	78	32	0	528482304	48	6188
2026-01-27 19:45:00.72	8.40	14.57	-37.8	-38.7	23.3	0.00e+00	0	32	0	530579456	48	6207
2026-01-27 19:45:01.73	8.19	14.58	-37.9	-38.8	23.2	0.00e+00	92	32	0	532676608	48	6308
2026-01-27 19:45:02.74	7.98	14.59	-38.1	-39.1	23.0	0.00e+00	0	32	0	533725184	48	6489
2026-01-27 19:45:03.75	7.77	14.60	-38.0	-38.9	23.2	0.00e+00	68	32	0	535822336	48	6355
2026-01-27 19:45:04.76	7.56	14.61	-38.0	-38.9	23.1	0.00e+00	3	32	0	537919488	48	6372
2026-01-27 19:45:05.76	7.35	14.62	-37.9	-38.8	23.3	0.00e+00	0	32	0	540016640	48	6290
2026-01-27 19:45:06.77	7.14	14.63	-37.8	-38.7	23.4	0.00e+00	15	32	0	542113792	48	6240
2026-01-27 19:45:07.78	6.93	14.64	-37.6	-38.6	23.5	0.00e+00	3	32	0	543162368	48	6109
2026-01-27 19:45:08.79	6.72	14.65	-37.6	-38.6	23.5	0.00e+00	92	32	0	545259520	48	6111
2026-01-27 19:45:09.80	6.51	14.65	-37.7	-38.6	23.3	0.00e+00	0	32	0	547356672	48	6141
2026-01-27 19:45:10.80	6.30	14.66	-37.9	-38.8	23.1	0.00e+00	93	32	0	549453824	48	6311
2026-01-27 19:45:11.81	6.09	14.67	-38.0	-38.9	23.1	0.00e+00	0	32	0	551550976	48	6389
2026-01-27 19:45:12.82	5.88	14.68	-37.9	-38.8	23.2	0.00e+00	0	32	0	553648128	48	6303
2026-01-27 19:45:13.83	5.67	14.68	-37.9	-38.9	23.2	0.00e+00	0	32	0	554696704	48	6320
2026-01-27 19:45:14.84	5.46	14.69	-38.0	-38.9	23.2	0.00e+00	0	32	0	556793856	48	6369
2026-01-27 19:45:15.84	5.25	14.69	-37.7	-38.7	23.3	0.00e+00	87	32	0	558891008	48	6183
2026-01-27 19:45:16.85	5.04	14.70	-37.6	-38.5	23.4	0.00e+00	0	32	0	560988160	48	6087
2026-01-27 19:45:17.86	4.83	14.70	-37.8	-38.7	23.3	0.00e+00	90	32	0	563085312	48	6232
2026-01-27 19:45:18.87	4.62	14.71	-37.7	-38.7	23.4	0.00e+00	0	32	0	564133888	48	6176
2026-01-27 19:45:19.88	4.41	14.71	-37.7	-38.7	23.4	0.00e+00	92	32	0	566231040	48	6179
2026-01-27 19:45:20.89	4.20	14.72	-37.8	-38.7	23.3	0.00e+00	80	32	0	568328192	48	6235
2026-01-27 19:45:21.90	3.99	14.72	-37.7	-38.6	23.3	0.00e+00	81	32	0	570425344	48	6171
2026-01-27 19:45:22.91	3.77	14.72	-37.7	-38.6	23.4	0.00e+00	2	32	0	572522496	48	6166
2026-01-27 19:45:23.91	3.57	14.72	-37.6	-38.5	23.5	0.00e+00	0	32	0	573571072	48	6068
2026-01-27 19:45:24.93	3.35	14.73	-37.6	-38.5	23.4	0.00e+00	92	32	0	575668224	48	6086
2026-01-27 19:45:25.94	3.14	14.73	-37.6	-38.5	23.4	0.00e+00	81	32	0	577765376	48	6085
2026-01-27 19:45:26.95	2.93	14.73	-37.6	-38.6	23.5	0.00e+00	75	32	0	579862528	48	6109
2026-01-27 19:45:27.96	2.72	14.73	-37.8	-38.7	23.3	0.00e+00	81	32	0	581959680	48	6216
2026-01-27 19:45:28.96	2.51	14.73	-37.9	-38.8	23.2	0.00e+00	0	32	0	583008256	48	6314
2026-01-27 19:45:29.97	2.30	14.73	-38.1	-39.0	23.1	0.00e+00	9	32	0	585105408	48	6434
2026-01-27 19:45:30.98	2.09	14.73	-37.9	-38.8	23.3	0.00e+00	0	32	0	587202560	48	6317
2026-01-27 19:45:31.99	1.87	14.73	-37.9	-38.8	23.2	0.00e+00	90	32	0	589299712	48	6308
2026-01-27 19:45:33.00	1.66	14.73	-37.8	-38.7	23.4	0.00e+00	2	32	0	591396864	48	6216
2026-01-27 19:45:34.01	1.45	14.73	-37.7	-38.6	23.5	0.00e+00	92	32	0	592445440	48	6140
2026-01-27 19:45:35.02	1.24	14.73	-37.5	-38.4	22.7	0.00e+00	0	32	0	594542592	48	6009
2026-01-27 19:45:36.03	1.03	14.72	-37.6	-38.5	23.4	0.00e+00	6	32	0	596639744	48	6084
2026-01-27 19:45:37.04	0.82	14.72	-37.5	-38.4	23.6	0.00e+00	2	32	0	598736896	48	5999
2026-01-27 19:45:38.05	0.61	14.72	-37.7	-38.6	23.2	0.00e+00	0	32	0	600834048	48	6146
2026-01-27 19:45:39.05	0.40	14.72	-38.0	-38.9	23.3	0.00e+00	83	32	0	601882624	48	6350
2026-01-27 19:45:40.06	0.19	14.71	-37.8	-38.7	23.4	0.00e+00	0	32	0	603979776	48	6212
2026-01-27 19:45:41.07	359.97	14.71	-37.8	-38.8	23.3	0.00e+00	91	32	0	606076928	48	6256
2026-01-27 19:45:42.08	359.76	14.70	-37.8	-38.7	23.3	0.00e+00	0	32	0	608174080	48	6195
2026-01-27 19:45:43.09	359.55	14.70	-37.9	-38.9	23.2	0.00e+00	90	32	0	610271232	48	6321
2026-01-27 19:45:44.10	359.34	14.69	-37.9	-38.9	23.2	0.00e+00	81	32	0	611319808	48	6329
2026-01-27 19:45:45.10	359.13	14.69	-38.1	-39.0	23.1	0.00e+00	82	32	0	613416960	48	6440
2026-01-27 19:45:46.11	358.92	14.68	-38.1	-39.0	23.1	0.00e+00	0	32	0	615514112	48	6433
2026-01-27 19:45:47.12	358.71	14.67	-38.1	-39.1	23.0	0.00e+00	0	32	0	617611264	48	6507
2026-01-27 19:45:48.13	358.50	14.67	-38.2	-39.1	23.0	0.00e+00	91	32	0	619708416	48	6525
2026-01-27 19:45:49.14	358.29	14.66	-38.3	-39.2	22.9	0.00e+00	81	32	0	620756992	48	6601
2026-01-27 19:45:50.15	358.08	14.65	-38.3	-39.2	22.9	0.00e+00	93	32	0	622854144	48	6596
2026-01-27 19:45:51.16	357.87	14.65	-38.2	-39.2	23.0	0.00e+00	81	32	0	624951296	48	6546
2026-01-27 19:45:52.16	357.66	14.64	-38.1	-39.1	23.1	0.00e+00	81	32	0	627048448	48	6506
2026-01-27 19:45:53.17	357.45	14.63	-38.3	-39.2	22.9	0.00e+00	82	32	0	629145600	48	6611
2026-01-27 19:45:54.18	357.24	14.62	-38.1	-39.1	23.0	0.00e+00	0	32	0	630194176	48	6472
2026-01-27 19:45:55.19	357.03	14.61	-38.0	-38.9	23.2	0.00e+00	92	32	0	632291328	48	6356
2026-01-27 19:45:56.20	356.82	14.60	-38.0	-38.9	23.2	0.00e+00	0	32	0	634388480	48	6352
2026-01-27 19:45:57.21	356.61	14.59	-37.9	-38.9	23.2	0.00e+00	91	32	0	636485632	48	6339
2026-01-27 19:45:58.22	356.40	14.58	-38.0	-39.0	23.0	0.00e+00	0	32	0	638582784	48	6433
2026-01-27 19:45:59.23	356.19	14.57	-38.1	-39.1	22.7	0.00e+00	28	32	0	639631360	48	6514
2026-01-27 19:46:00.24	355.98	14.56	-38.3	-39.3	22.7	0.00e+00	0	32	0	641728512	48	6675
2026-01-27 19:46:01.25	355.78	14.54	-38.2	-39.2	22.8	0.00e+00	0	32	0	643825664	48	6603
2026-01-27 19:46:02.26	355.57	14.53	-38.4	-39.4	22.7	0.00e+00	77	32	0	645922816	48	6737
2026-01-27 19:46:03.26	355.36	14.52	-38.2	-39.2	22.9	0.00e+00	0	32	0	648019968	48	6570
2026-01-27 19:46:04.28	355.15	14.51	-38.1	-39.1	22.9	0.00e+00	92	32	0	650117120	48	6508
2026-01-27 19:46:05.29	354.94	14.49	-38.1	-39.1	23.0	0.00e+00	0	32	0	651165696	48	6514
2026-01-27 19:46:06.30	354.73	14.48	-37.9	-38.9	23.2	0.00e+00	75	32	0	653262848	48	6345
2026-01-27 19:46:07.30	354.53	14.47	-38.0	-38.9	23.1	0.00e+00	76	32	0	655360000	48	6363
2026-01-27 19:46:08.31	354.32	14.45	-37.8	-38.7	23.4	0.00e+00	0	32	0	657457152	48	6230
2026-01-27 19:46:09.32	354.11	14.44	-37.8	-38.7	23.4	0.00e+00	0	32	0	659554304	48	6227
2026-01-27 19:46:10.33	353.91	14.42	-37.9	-38.8	23.2	0.00e+00	0	32	0	660602880	48	6309
2026-01-27 19:46:11.34	353.70	14.41	-37.8	-38.8	23.2	0.00e+00	92	32	0	662700032	48	6264
2026-01-27 19:46:12.35	353.49	14.39	-37.9	-38.9	23.2	0.00e+00	80	32	0	664797184	48	6335
2026-01-27 19:46:13.36	353.29	14.37	-37.9	-38.9	23.2	0.00e+00	92	32	0	666894336	48	6349
2026-01-27 19:46:14.37	353.08	14.36	-38.0	-39.0	23.0	0.00e+00	80	32	0	668991488	48	6403
2026-01-27 19:46:15.38	352.87	14.34	-38.1	-39.1	23.0	0.00e+00	0	32	0	670040064	48	6473
2026-01-27 19:46:16.39	352.67	14.32	-38.0	-39.0	23.1	0.00e+00	7	32	0	672137216	48	6396
2026-01-27 19:46:17.40	352.46	14.31	-37.9	-38.8	23.3	0.00e+00	2	32	0	674234368	48	6313
2026-01-27 19:46:18.41	352.26	14.29	-37.7	-38.6	23.5	0.00e+00	92	32	0	676331520	48	6122
2026-01-27 19:46:19.42	352.05	14.27	-37.7	-38.7	23.4	0.00e+00	0	32	0	678428672	48	6185
2026-01-27 19:46:20.43	351.85	14.25	-37.7	-38.6	23.5	0.00e+00	92	32	0	679477248	48	6112
2026-01-27 19:46:21.44	351.64	14.23	-37.6	-38.5	23.6	0.00e+00	0	32	0	681574400	48	6066
2026-01-27 19:46:22.45	351.44	14.21	-37.9	-38.8	23.4	0.00e+00	0	32	0	683671552	48	6293
2026-01-27 19:46:23.46	351.24	14.19	-37.6	-38.6	23.5	0.00e+00	0	32	0	685768704	48	6107
2026-01-27 19:46:24.47	351.03	14.17	-37.7	-38.6	23.4	0.00e+00	0	32	0	687865856	48	6137
2026-01-27 19:46:25.48	350.83	14.15	-37.7	-38.6	23.4	0.00e+00	63	32	0	688914432	48	6151
2026-01-27 19:46:26.49	350.63	14.13	-37.7	-38.6	23.4	0.00e+00	0	32	0	691011584	48	6144
2026-01-27 19:46:27.50	350.42	14.11	-37.7	-38.7	23.4	0.00e+00	92	32	0	693108736	48	6182
2026-01-27 19:46:28.51	350.22	14.09	-37.8	-38.7	23.2	0.00e+00	82	32	0	695205888	48	6234
2026-01-27 19:46:29.52	350.02	14.07	-37.9	-38.8	23.2	0.00e+00	76	32	0	697303040	48	6296
2026-01-27 19:46:30.53	349.82	14.04	-37.9	-38.9	23.2	0.00e+00	76	32	0	698351616	48	6329
2026-01-27 19:46:31.54	349.61	14.02	-37.9	-38.9	23.2	0.00e+00	77	32	0	700448768	48	6347
2026-01-27 19:46:32.54	349.41	14.00	-37.9	-38.9	23.2	0.00e+00	69	32	0	702545920	48	6326
2026-01-27 19:46:33.56	349.21	13.98	-38.0	-38.9	23.2	0.00e+00	0	32	0	704643072	48	6367
2026-01-27 19:46:34.57	349.01	13.95	-38.0	-39.0	23.1	0.00e+00	92	32	0	706740224	48	6434
2026-01-27 19:46:35.58	348.81	13.93	-38.1	-39.1	23.0	0.00e+00	75	32	0	707788800	48	6503
2026-01-27 19:46:36.59	348.61	13.90	-38.0	-38.9	23.1	0.00e+00	92	32	0	709885952	48	6380
2026-01-27 19:46:37.60	348.41	13.88	-38.0	-39.0	23.0	0.00e+00	6	32	0	711983104	48	6418
2026-01-27 19:46:38.61	348.21	13.86	-37.8	-38.8	23.3	0.00e+00	6	32	0	714080256	48	6256
2026-01-27 19:46:39.62	348.01	13.83	-37.9	-38.8	23.1	0.00e+00	3	32	0	716177408	48	6306
2026-01-27 19:46:40.63	347.81	13.80	-37.9	-38.8	23.2	0.00e+00	4	32	0	718274560	48	6311
2026-01-27 19:46:41.64	347.62	13.78	-37.9	-38.8	23.2	0.00e+00	70	32	0	719323136	48	6296
2026-01-27 19:46:42.64	347.42	13.75	-38.0	-38.9	23.1	0.00e+00	0	32	0	721420288	48	6363
2026-01-27 19:46:43.65	347.22	13.73	-38.0	-39.0	23.0	0.00e+00	92	32	0	723517440	48	6428
2026-01-27 19:46:44.66	347.02	13.70	-38.0	-39.0	23.0	0.00e+00	6	32	0	725614592	48	6423
2026-01-27 19:46:45.67	346.83	13.67	-38.3	-39.2	22.9	0.00e+00	0	32	0	727711744	48	6603
2026-01-27 19:46:46.68	346.63	13.65	-38.0	-39.0	23.1	0.00e+00	0	32	0	728760320	48	6423
2026-01-27 19:46:47.68	346.44	13.62	-38.1	-39.1	23.0	0.00e+00	0	32	0	730857472	48	6472
2026-01-27 19:46:48.69	346.24	13.59	-38.1	-39.1	23.0	0.00e+00	0	32	0	732954624	48	6529
2026-01-27 19:46:49.70	346.05	13.56	-38.2	-39.2	22.9	0.00e+00	81	32	0	735051776	48	6586
2026-01-27 19:46:50.70	345.85	13.53	-38.2	-39.2	22.9	0.00e+00	93	32	0	737148928	48	6578
2026-01-27 19:46:51.71	345.66	13.51	-38.2	-39.2	22.9	0.00e+00	80	32	0	738197504	48	6600
2026-01-27 19:46:52.72	345.46	13.48	-38.1	-39.1	23.0	0.00e+00	92	32	0	740294656	48	6514
2026-01-27 19:46:53.73	345.27	13.45	-38.2	-39.2	22.8	0.00e+00	0	32	0	742391808	48	6547
2026-01-27 19:46:54.74	345.08	13.42	-38.2	-39.2	22.9	0.00e+00	0	32	0	744488960	48	6557
2026-01-27 19:46:55.75	344.88	13.39	-38.2	-39.2	22.9	0.00e+00	79	32	0	746586112	48	6572
2026-01-27 19:46:56.76	344.69	13.36	-38.0	-39.0	23.1	0.00e+00	81	32	0	747634688	48	6391
2026-01-27 19:46:57.77	344.50	13.33	-38.2	-39.2	22.9	0.00e+00	92	32	0	749731840	48	6541
2026-01-27 19:46:58.78	344.31	13.30	-37.8	-38.8	23.2	0.00e+00	1	32	0	751828992	48	6280
2026-01-27 19:46:59.79	344.12	13.27	-37.7	-38.6	23.3	0.00e+00	92	32	0	753926144	48	6144
2026-01-27 19:47:00.80	343.92	13.23	-37.7	-38.7	23.2	0.00e+00	2	32	0	756023296	48	6184
2026-01-27 19:47:01.80	343.74	13.20	-37.6	-38.6	23.4	0.00e+00	0	32	0	757071872	48	6130
2026-01-27 19:47:02.81	343.55	13.17	-37.7	-38.6	23.3	0.00e+00	6	32	0	759169024	48	6146
2026-01-27 19:47:03.82	343.36	13.14	-37.7	-38.7	23.2	0.00e+00	0	32	0	761266176	48	6188
2026-01-27 19:47:04.83	343.17	13.11	-37.7	-38.6	23.4	0.00e+00	63	32	0	763363328	48	6152
2026-01-27 19:47:05.84	342.98	13.07	-37.6	-38.6	23.2	0.00e+00	0	32	0	765460480	48	6137
2026-01-27 19:47:06.85	342.79	13.04	-37.7	-38.7	23.3	0.00e+00	90	32	0	766509056	48	6175
2026-01-27 19:47:07.86	342.60	13.01	-37.6	-38.6	23.3	0.00e+00	2	32	0	768606208	48	6122
2026-01-27 19:47:08.87	342.41	12.97	-37.7	-38.6	23.3	0.00e+00	0	32	0	770703360	48	6164
2026-01-27 19:47:09.88	342.23	12.94	-37.7	-38.7	23.3	0.00e+00	0	32	0	772800512	48	6201
2026-01-27 19:47:10.89	342.04	12.91	-37.8	-38.7	23.2	0.00e+00	0	32	0	774897664	48	6223
2026-01-27 19:47:11.90	341.85	12.87	-37.7	-38.6	23.3	0.00e+00	82	32	0	775946240	48	6148
2026-01-27 19:47:12.91	341.67	12.84	-37.9	-38.8	23.2	0.00e+00	0	32	0	778043392	48	6285
2026-01-27 19:47:13.92	341.48	12.80	-37.8	-38.8	23.2	0.00e+00	90	32	0	780140544	48	6260
2026-01-27 19:47:14.92	341.30	12.77	-37.9	-38.8	23.1	0.00e+00	0	32	0	782237696	48	6305
2026-01-27 19:47:15.93	341.11	12.73	-38.0	-38.9	23.1	0.00e+00	92	32	0	784334848	48	6378
2026-01-27 19:47:16.94	340.93	12.70	-38.0	-39.0	23.0	0.00e+00	0	32	0	785383424	48	6427
2026-01-27 19:47:17.95	340.74	12.66	-38.1	-39.0	22.9	0.00e+00	81	32	0	787480576	48	6456
2026-01-27 19:47:18.96	340.56	12.63	-38.0	-39.0	23.1	0.00e+00	13	32	0	789577728	48	6419
2026-01-27 19:47:19.97	340.38	12.59	-37.9	-38.8	23.1	0.00e+00	80	32	0	791674880	48	6289
2026-01-27 19:47:20.98	340.20	12.55	-37.9	-38.9	23.1	0.00e+00	90	32	0	793772032	48	6329
2026-01-27 19:47:21.99	340.01	12.52	-37.8	-38.8	23.1	0.00e+00	0	32	0	794820608	48	6262
2026-01-27 19:47:23.00	339.83	12.48	-38.1	-39.1	22.8	0.00e+00	90	32	0	796917760	48	6506
2026-01-27 19:47:24.01	339.65	12.44	-37.7	-38.6	23.4	0.00e+00	1	32	0	799014912	48	6159
2026-01-27 19:47:25.01	339.47	12.41	-37.9	-38.8	23.2	0.00e+00	2	32	0	801112064	48	6278
2026-01-27 19:47:26.02	339.29	12.37	-37.6	-38.5	23.5	0.00e+00	0	32	0	803209216	48	6097
2026-01-27 19:47:27.03	339.11	12.33	-37.6	-38.6	23.4	0.00e+00	0	32	0	804257792	48	6115
2026-01-27 19:47:28.04	338.93	12.29	-37.7	-38.6	23.4	0.00e+00	91	32	0	806354944	48	6133
2026-01-27 19:47:29.05	338.76	12.25	-37.7	-38.7	23.3	0.00e+00	0	32	0	808452096	48	6201
2026-01-27 19:47:30.06	338.58	12.22	-37.8	-38.7	23.1	0.00e+00	91	32	0	810549248	48	6232
2026-01-27 19:47:31.07	338.40	12.18	-37.7	-38.6	23.2	0.00e+00	0	32	0	812646400	48	6172
2026-01-27 19:47:32.08	338.22	12.14	-37.9	-38.9	23.1	0.00e+00	92	32	0	814743552	48	6340
2026-01-27 19:47:33.09	338.05	12.10	-37.7	-38.6	23.3	0.00e+00	0	32	0	815792128	48	6113
2026-01-27 19:47:34.10	337.87	12.06	-37.9	-38.8	23.2	0.00e+00	0	32	0	817889280	48	6268
2026-01-27 19:47:35.11	337.69	12.02	-37.7	-38.6	23.4	0.00e+00	0	32	0	819986432	48	6165
2026-01-27 19:47:36.12	337.52	11.98	-37.9	-38.8	23.1	0.00e+00	0	32	0	822083584	48	6308
2026-01-27 19:47:37.13	337.34	11.94	-38.1	-39.0	22.9	0.00e+00	90	32	0	824180736	48	6443
2026-01-27 19:47:38.14	337.17	11.90	-38.1	-39.1	22.9	0.00e+00	0	32	0	825229312	48	6504
2026-01-27 19:47:39.15	336.99	11.86	-38.2	-39.2	22.7	0.00e+00	10	32	0	827326464	48	6604
2026-01-27 19:47:40.16	336.82	11.82	-38.3	-39.2	22.7	0.00e+00	0	32	0	829423616	48	6607
2026-01-27 19:47:41.17	336.65	11.78	-38.4	-39.4	22.7	0.00e+00	0	32	0	831520768	48	6729
2026-01-27 19:47:42.18	336.48	11.74	-38.4	-39.4	22.6	0.00e+00	1	32	0	833617920	48	6752
2026-01-27 19:47:43.19	336.30	11.70	-38.5	-39.5	22.6	0.00e+00	81	32	0	834666496	48	6844
2026-01-27 19:47:44.19	336.13	11.66	-38.5	-39.5	22.5	0.00e+00	90	32	0	836763648	48	6839
2026-01-27 19:47:45.20	335.96	11.62	-38.6	-39.6	22.4	0.00e+00	2	32	0	838860800	48	6914
2026-01-27 19:47:46.21	335.79	11.57	-38.8	-39.9	22.2	0.00e+00	92	32	0	840957952	50	6320
2026-01-27 19:47:47.22	335.62	11.53	-38.7	-39.8	22.3	0.00e+00	0	32	0	843055104	50	6254
2026-01-27 19:47:48.23	335.45	11.49	-38.8	-39.8	22.1	0.00e+00	14	32	0	844103680	50	6307
2026-01-27 19:47:49.24	335.28	11.45	-39.0	-40.1	22.0	0.00e+00	0	32	0	846200832	50	6467
2026-01-27 19:47:50.25	335.12	11.41	-39.0	-40.1	22.0	0.00e+00	0	32	0	848297984	50	6504
2026-01-27 19:47:51.26	334.95	11.36	-39.1	-40.2	21.9	0.00e+00	81	32	0	850395136	50	6547
2026-01-27 19:47:52.27	334.78	11.32	-39.3	-40.4	21.8	0.00e+00	0	32	0	852492288	50	6760
2026-01-27 19:47:53.28	334.61	11.28	-39.4	-40.5	21.6	0.00e+00	92	32	0	853540864	50	6845
2026-01-27 19:47:54.29	334.45	11.24	-39.2	-40.3	21.7	0.00e+00	0	32	0	855638016	50	6663
2026-01-27 19:47:55.30	334.28	11.19	-39.3	-40.4	21.6	0.00e+00	0	32	0	857735168	50	6738
2026-01-27 19:47:56.31	334.12	11.15	-39.5	-40.6	21.6	0.00e+00	0	32	0	859832320	50	6880
2026-01-27 19:47:57.32	333.95	11.11	-39.5	-40.6	21.4	0.00e+00	80	32	0	861929472	50	6881
2026-01-27 19:47:58.33	333.79	11.06	-39.5	-40.6	21.6	0.00e+00	0	32	0	862978048	50	6888
2026-01-27 19:47:59.34	333.62	11.02	-39.6	-40.8	21.3	0.00e+00	0	32	0	865075200	50	7033
2026-01-27 19:48:00.35	333.46	10.98	-39.7	-40.9	21.2	0.00e+00	90	32	0	867172352	52	6323
2026-01-27 19:48:01.36	333.29	10.93	-39.8	-41.0	21.1	0.00e+00	73	32	0	869269504	52	6415
2026-01-27 19:48:02.37	333.13	10.89	-39.9	-41.1	21.1	0.00e+00	20	32	0	871366656	52	6472
2026-01-27 19:48:03.38	332.97	10.84	-39.9	-41.1	21.1	0.00e+00	0	32	0	872415232	52	6505
2026-01-27 19:48:04.39	332.81	10.80	-39.9	-41.0	20.9	0.00e+00	1	32	0	874512384	52	6455
2026-01-27 19:48:05.40	332.65	10.75	-39.9	-41.1	21.0	0.00e+00	0	32	0	876609536	52	6498
2026-01-27 19:48:06.41	332.49	10.71	-40.1	-41.3	20.9	0.00e+00	6	32	0	878706688	52	6626
2026-01-27 19:48:07.42	332.33	10.67	-40.1	-41.3	20.8	0.00e+00	92	32	0	880803840	52	6678
2026-01-27 19:48:08.43	332.17	10.62	-40.0	-41.2	20.9	0.00e+00	5	32	0	882900992	52	6579
2026-01-27 19:48:09.43	332.01	10.58	-40.0	-41.2	20.9	0.00e+00	92	32	0	883949568	52	6571
2026-01-27 19:48:10.44	331.85	10.53	-40.1	-41.3	20.8	0.00e+00	5	32	0	886046720	52	6668
2026-01-27 19:48:11.45	331.69	10.49	-40.3	-41.6	20.7	0.00e+00	5	32	0	888143872	52	6873
2026-01-27 19:48:12.46	331.54	10.44	-40.3	-41.6	20.6	0.00e+00	0	32	0	890241024	52	6874
2026-01-27 19:48:13.47	331.38	10.39	-40.6	-41.9	20.4	0.00e+00	6	32	0	892338176	52	7096
2026-01-27 19:48:14.48	331.22	10.35	-40.6	-41.9	20.2	0.00e+00	55	32	0	893386752	52	7169
2026-01-27 19:48:15.49	331.07	10.30	-40.8	-42.2	20.2	0.00e+00	5	32	0	895483904	54	6541
2026-01-27 19:48:16.50	330.91	10.26	-40.6	-41.9	20.2	0.00e+00	92	32	0	897581056	54	6385
2026-01-27 19:48:17.51	330.75	10.21	-40.7	-42.0	20.2	0.00e+00	6	32	0	899678208	54	6417
2026-01-27 19:48:18.52	330.60	10.16	-40.7	-42.1	20.1	0.00e+00	72	32	0	901775360	54	6498
2026-01-27 19:48:19.53	330.45	10.12	-40.7	-42.0	20.3	0.00e+00	72	32	0	902823936	54	6447
2026-01-27 19:48:20.53	330.29	10.07	-40.4	-41.7	20.3	0.00e+00	79	32	0	904921088	54	6226
2026-01-27 19:48:21.54	330.14	10.03	-40.7	-42.0	20.0	0.00e+00	0	32	0	907018240	54	6407
2026-01-27 19:48:22.55	329.99	9.98	-40.8	-42.2	19.9	0.00e+00	78	32	0	909115392	54	6572
2026-01-27 19:48:23.56	329.84	9.93	-40.8	-42.2	20.1	0.00e+00	92	32	0	911212544	54	6593
2026-01-27 19:48:24.57	329.68	9.89	-40.8	-42.2	20.0	0.00e+00	78	32	0	912261120	54	6589
2026-01-27 19:48:25.58	329.53	9.84	-41.0	-42.4	19.9	0.00e+00	92	32	0	914358272	54	6710
2026-01-27 19:48:26.59	329.38	9.79	-40.9	-42.3	19.9	0.00e+00	75	32	0	916455424	54	6678
2026-01-27 19:48:27.60	329.23	9.74	-40.9	-42.3	19.8	0.00e+00	13	32	0	918552576	54	6645
2026-01-27 19:48:28.61	329.08	9.70	-40.9	-42.3	19.8	0.00e+00	6	32	0	920649728	54	6692
2026-01-27 19:48:29.62	328.93	9.65	-41.0	-42.4	19.8	0.00e+00	6	32	0	921698304	54	6763
2026-01-27 19:48:30.63	328.78	9.60	-40.9	-42.3	19.9	0.00e+00	90	32	0	923795456	54	6647
2026-01-27 19:48:31.64	328.64	9.55	-40.9	-42.3	19.9	0.00e+00	9	32	0	925892608	54	6667
2026-01-27 19:48:32.65	328.49	9.51	-40.9	-42.3	20.0	0.00e+00	92	32	0	927989760	54	6645
2026-01-27 19:48:33.65	328.34	9.46	-40.8	-42.1	20.1	0.00e+00	0	32	0	930086912	54	6531
2026-01-27 19:48:34.66	328.20	9.41	-40.8	-42.1	20.0	0.00e+00	0	32	0	931135488	54	6531
2026-01-27 19:48:35.67	328.05	9.36	-40.8	-42.1	20.0	0.00e+00	7	32	0	933232640	54	6520
2026-01-27 19:48:36.68	327.90	9.32	-40.7	-42.1	20.1	0.00e+00	8	32	0	935329792	54	6495
2026-01-27 19:48:37.69	327.76	9.27	-40.7	-42.1	20.1	0.00e+00	39	32	0	937426944	54	6486
2026-01-27 19:48:38.70	327.61	9.22	-40.8	-42.1	20.0	0.00e+00	79	32	0	939524096	54	6534
2026-01-27 19:48:39.71	327.47	9.17	-40.8	-42.1	19.9	0.00e+00	92	32	0	940572672	54	6520
2026-01-27 19:48:40.72	327.33	9.12	-40.9	-42.3	19.9	0.00e+00	79	32	0	942669824	54	6636
2026-01-27 19:48:41.73	327.18	9.07	-40.9	-42.2	19.9	0.00e+00	32	32	0	944766976	54	6614
2026-01-27 19:48:42.74	327.04	9.03	-40.9	-42.3	19.9	0.00e+00	74	32	0	946864128	54	6616
2026-01-27 19:48:43.75	326.90	8.98	-40.8	-42.2	20.0	0.00e+00	8	32	0	948961280	54	6557
2026-01-27 19:48:44.75	326.76	8.93	-40.8	-42.1	19.9	0.00e+00	0	32	0	950009856	54	6511
2026-01-27 19:48:45.76	326.62	8.88	-40.6	-42.0	20.2	0.00e+00	1	32	0	952107008	54	6413
2026-01-27 19:48:46.77	326.48	8.83	-40.5	-41.8	20.2	0.00e+00	90	32	0	954204160	54	6316
2026-01-27 19:48:47.78	326.33	8.78	-40.5	-41.8	20.3	0.00e+00	2	32	0	956301312	54	6259
2026-01-27 19:48:48.79	326.19	8.73	-40.4	-41.7	20.4	0.00e+00	92	32	0	958398464	54	6227
2026-01-27 19:48:49.80	326.06	8.68	-40.4	-41.7	20.3	0.00e+00	2	32	0	960495616	54	6241
2026-01-27 19:48:50.80	325.92	8.64	-40.3	-41.6	20.5	0.00e+00	2	32	0	961544192	54	6157
2026-01-27 19:48:51.81	325.78	8.59	-40.3	-41.5	20.5	0.00e+00	9	32	0	963641344	54	6103
2026-01-27 19:48:52.82	325.64	8.54	-40.5	-41.8	20.3	0.00e+00	2	32	0	965738496	54	6317
2026-01-27 19:48:53.83	325.50	8.49	-40.3	-41.6	20.5	0.00e+00	92	32	0	967835648	54	6119
2026-01-27 19:48:54.84	325.37	8.44	-40.3	-41.5	20.6	0.00e+00	2	32	0	968884224	54	6086
2026-01-27 19:48:55.84	325.23	8.39	-40.2	-41.5	20.6	0.00e+00	90	32	0	970981376	54	6045
2026-01-27 19:48:56.86	325.09	8.34	-40.1	-41.4	20.7	0.00e+00	0	32	0	973078528	54	5968
2026-01-27 19:48:57.87	324.96	8.29	-40.2	-41.4	20.6	0.00e+00	2	32	0	975175680	54	6014
2026-01-27 19:48:58.87	324.82	8.24	-40.1	-41.3	20.7	0.00e+00	0	32	0	977272832	54	5944
2026-01-27 19:48:59.89	324.69	8.19	-40.0	-41.2	20.8	0.00e+00	0	32	0	979369984	54	5887
2026-01-27 19:49:00.90	324.55	8.14	-40.0	-41.3	20.8	0.00e+00	78	32	0	980418560	54	5903
2026-01-27 19:49:01.90	324.42	8.09	-40.1	-41.4	20.7	0.00e+00	0	32	0	982515712	54	5975
2026-01-27 19:49:02.91	324.29	8.04	-40.0	-41.2	20.8	0.00e+00	92	32	0	984612864	54	5854
2026-01-27 19:49:03.92	324.16	7.99	-40.0	-41.3	20.6	0.00e+00	79	32	0	986710016	54	5900
2026-01-27 19:49:04.93	324.02	7.94	-40.0	-41.2	20.7	0.00e+00	92	32	0	988807168	54	5879
2026-01-27 19:49:05.94	323.89	7.89	-39.9	-41.1	21.0	0.00e+00	73	32	0	989855744	54	5792
2026-01-27 19:49:06.95	323.76	7.84	-39.9	-41.2	20.9	0.00e+00	0	32	0	991952896	54	5832
2026-01-27 19:49:07.96	323.63	7.79	-39.6	-40.7	21.3	0.00e+00	45	32	0	994050048	52	6212
2026-01-27 19:49:08.97	323.50	7.74	-39.5	-40.6	21.4	0.00e+00	77	32	0	996147200	52	6170
2026-01-27 19:49:09.98	323.37	7.69	-39.5	-40.7	21.4	0.00e+00	92	32	0	998244352	52	6178
2026-01-27 19:49:10.99	323.24	7.64	-39.5	-40.6	21.4	0.00e+00	78	32	0	999292928	52	6171
2026-01-27 19:49:12.00	323.11	7.59	-39.5	-40.6	21.3	0.00e+00	90	32	0	1001390080	52	6148
2026-01-27 19:49:13.00	322.98	7.54	-39.6	-40.7	21.4	0.00e+00	0	32	0	1003487232	52	6245
2026-01-27 19:49:14.01	322.85	7.49	-39.5	-40.6	21.4	0.00e+00	0	32	0	1005584384	52	6156
2026-01-27 19:49:15.02	322.73	7.44	-39.2	-40.4	21.6	0.00e+00	0	32	0	1007681536	52	5965
2026-01-27 19:49:16.03	322.60	7.39	-39.2	-40.3	21.6	0.00e+00	0	32	0	1008730112	52	5912
2026-01-27 19:49:17.04	322.47	7.34	-39.3	-40.4	21.6	0.00e+00	91	32	0	1010827264	52	5989
2026-01-27 19:49:18.05	322.34	7.29	-39.2	-40.3	21.6	0.00e+00	0	32	0	1012924416	52	5913
2026-01-27 19:49:19.06	322.22	7.24	-39.0	-40.1	21.9	0.00e+00	92	32	0	1015021568	52	5808
2026-01-27 19:49:20.07	322.09	7.19	-39.1	-40.2	21.7	0.00e+00	3	32	0	1017118720	52	5887
2026-01-27 19:49:21.08	321.97	7.14	-39.1	-40.2	21.7	0.00e+00	25	32	0	1018167296	52	5864
2026-01-27 19:49:22.09	321.84	7.09	-39.1	-40.2	21.8	0.00e+00	2	32	0	1020264448	52	5836
2026-01-27 19:49:23.10	321.72	7.04	-38.8	-39.9	22.0	0.00e+00	0	32	0	1022361600	52	5648
2026-01-27 19:49:24.11	321.60	6.99	-39.0	-40.1	21.8	0.00e+00	0	32	0	1024458752	52	5765
2026-01-27 19:49:25.12	321.47	6.94	-39.0	-40.1	21.8	0.00e+00	78	32	0	1026555904	52	5790
2026-01-27 19:49:26.13	321.35	6.89	-39.0	-40.1	21.8	0.00e+00	92	32	0	1027604480	52	5801
2026-01-27 19:49:27.13	321.23	6.84	-38.6	-39.7	22.1	0.00e+00	0	32	0	1029701632	50	6180
2026-01-27 19:49:28.15	321.10	6.79	-38.7	-39.7	21.8	0.00e+00	92	32	0	1031798784	50	6236
2026-01-27 19:49:29.15	320.98	6.74	-38.6	-39.6	22.0	0.00e+00	78	32	0	1033895936	50	6139
2026-01-27 19:49:30.16	320.86	6.69	-38.7	-39.8	22.0	0.00e+00	0	32	0	1035993088	50	6255
2026-01-27 19:49:31.17	320.74	6.64	-38.7	-39.8	22.1	0.00e+00	0	32	0	1037041664	50	6259
2026-01-27 19:49:32.18	320.62	6.58	-38.6	-39.7	22.2	0.00e+00	78	32	0	1039138816	50	6174
2026-01-27 19:49:33.19	320.50	6.53	-38.5	-39.6	22.1	0.00e+00	92	32	0	1041235968	50	6128
2026-01-27 19:49:34.20	320.38	6.48	-38.6	-39.7	21.8	0.00e+00	2	32	0	1043333120	50	6192
2026-01-27 19:49:35.21	320.26	6.43	-38.4	-39.5	22.1	0.00e+00	92	32	0	1045430272	50	6044
2026-01-27 19:49:36.22	320.14	6.38	-39.0	-40.1	21.7	0.00e+00	4	32	0	1047527424	50	6480
2026-01-27 19:49:37.23	320.03	6.33	-39.0	-40.1	21.7	0.00e+00	5	32	0	1048576000	50	6479
2026-01-27 19:49:38.24	319.91	6.28	-38.9	-40.0	21.9	0.00e+00	0	32	0	1050673152	50	6397
2026-01-27 19:49:39.25	319.79	6.23	-39.1	-40.2	21.7	0.00e+00	0	32	0	1052770304	50	6561
2026-01-27 19:49:40.26	319.67	6.18	-38.8	-39.8	22.0	0.00e+00	85	32	0	1054867456	50	6310
2026-01-27 19:49:41.27	319.56	6.13	-39.0	-40.1	21.8	0.00e+00	0	32	0	1056964608	50	6474
2026-01-27 19:49:42.28	319.44	6.08	-39.0	-40.1	21.7	0.00e+00	92	32	0	1058013184	50	6517
2026-01-27 19:49:43.29	319.33	6.03	-39.1	-40.2	21.5	0.00e+00	0	32	0	1060110336	50	6584
2026-01-27 19:49:44.30	319.21	5.97	-38.9	-40.0	21.7	0.00e+00	7	32	0	1062207488	50	6459
2026-01-27 19:49:45.31	319.10	5.92	-38.9	-40.0	21.7	0.00e+00	70	32	0	1064304640	50	6443
2026-01-27 19:49:46.32	318.98	5.87	-39.0	-40.1	21.7	0.00e+00	0	32	0	1066401792	50	6493
2026-01-27 19:49:47.33	318.87	5.82	-38.9	-40.0	21.8	0.00e+00	0	32	0	1067450368	50	6422
2026-01-27 19:49:48.34	318.75	5.77	-39.0	-40.1	21.7	0.00e+00	76	32	0	1069547520	50	6470
2026-01-27 19:49:49.35	318.64	5.72	-39.3	-40.4	21.4	0.00e+00	90	32	0	1071644672	50	6730
2026-01-27 19:49:50.36	318.53	5.67	-39.1	-40.2	21.6	0.00e+00	6	32	0	1073741824	50	6590
2026-01-27 19:49:51.37	318.42	5.62	-39.0	-40.1	21.7	0.00e+00	92	32	0	1075838976	50	6528
2026-01-27 19:49:52.38	318.30	5.57	-39.2	-40.3	21.5	0.00e+00	78	32	0	1076887552	50	6655
2026-01-27 19:49:53.39	318.19	5.52	-39.3	-40.5	21.2	0.00e+00	70	32	0	1078984704	50	6776
2026-01-27 19:49:54.39	318.08	5.46	-39.4	-40.5	21.2	0.00e+00	0	32	0	1081081856	50	6832
2026-01-27 19:49:55.40	317.97	5.41	-39.4	-40.6	21.2	0.00e+00	5	32	0	1083179008	50	6854
2026-01-27 19:49:56.41	317.86	5.36	-39.5	-40.7	21.1	0.00e+00	92	32	0	1085276160	50	6949
2026-01-27 19:49:57.41	317.75	5.31	-39.6	-40.7	21.1	0.00e+00	5	32	0	1086324736	50	7000
2026-01-27 19:49:58.42	317.64	5.26	-39.6	-40.8	21.0	0.00e+00	92	32	0	1088421888	50	7042
2026-01-27 19:49:59.43	317.53	5.21	-39.3	-40.5	21.4	0.00e+00	6	32	0	1090519040	50	6792
2026-01-27 19:50:00.44	317.42	5.16	-39.3	-40.5	21.3	0.00e+00	6	32	0	1092616192	50	6796
2026-01-27 19:50:01.45	317.32	5.11	-39.6	-40.8	21.0	0.00e+00	7	32	0	1094713344	50	7029
2026-01-27 19:50:02.46	317.21	5.06	-39.8	-41.0	20.8	0.00e+00	0	32	0	1095761920	52	6417
2026-01-27 19:50:03.47	317.10	5.01	-39.4	-40.6	21.1	0.00e+00	69	32	0	1097859072	52	6139
2026-01-27 19:50:04.48	316.99	4.96	-39.4	-40.6	21.2	0.00e+00	7	32	0	1099956224	52	6116
2026-01-27 19:50:05.49	316.89	4.90	-39.5	-40.7	20.9	0.00e+00	92	32	0	1102053376	52	6242
2026-01-27 19:50:06.50	316.78	4.85	-39.4	-40.5	21.1	0.00e+00	0	32	0	1104150528	52	6088
2026-01-27 19:50:07.51	316.67	4.80	-40.0	-41.3	20.5	0.00e+00	76	32	0	1105199104	52	6659
2026-01-27 19:50:08.51	316.57	4.75	-39.2	-40.4	21.3	0.00e+00	0	32	0	1107296256	52	6005
2026-01-27 19:50:09.52	316.46	4.70	-39.4	-40.6	21.2	0.00e+00	0	32	0	1109393408	52	6111
2026-01-27 19:50:10.53	316.36	4.65	-39.6	-40.8	20.9	0.00e+00	0	32	0	1111490560	52	6288
2026-01-27 19:50:11.54	316.25	4.60	-39.4	-40.6	21.0	0.00e+00	71	32	0	1113587712	52	6168
2026-01-27 19:50:12.55	316.15	4.55	-39.4	-40.5	21.1	0.00e+00	92	32	0	1115684864	52	6094
2026-01-27 19:50:13.56	316.05	4.50	-39.8	-41.0	20.6	0.00e+00	9	32	0	1116733440	52	6464
2026-01-27 19:50:14.57	315.94	4.45	-39.7	-40.9	20.7	0.00e+00	91	32	0	1118830592	52	6371
2026-01-27 19:50:15.58	315.84	4.40	-39.7	-41.0	20.6	0.00e+00	11	32	0	1120927744	52	6411
2026-01-27 19:50:16.59	315.74	4.34	-39.9	-41.2	20.5	0.00e+00	11	32	0	1123024896	52	6581
2026-01-27 19:50:17.59	315.63	4.29	-39.6	-40.9	20.8	0.00e+00	0	32	0	1125122048	52	6323
2026-01-27 19:50:18.60	315.53	4.24	-40.0	-41.3	20.4	0.00e+00	6	32	0	1126170624	52	6628
2026-01-27 19:50:19.61	315.43	4.19	-40.5	-41.9	19.8	0.00e+00	92	32	0	1128267776	54	6329
2026-01-27 19:50:20.62	315.33	4.14	-39.6	-40.8	20.7	0.00e+00	6	32	0	1130364928	52	6317
2026-01-27 19:50:21.63	315.23	4.09	-40.2	-41.5	20.1	0.00e+00	92	32	0	1132462080	54	6091
2026-01-27 19:50:22.64	315.13	4.04	-40.4	-41.8	19.8	0.00e+00	6	32	0	1133510656	52	7053
2026-01-27 19:50:23.65	315.03	3.99	-40.1	-41.4	20.3	0.00e+00	0	32	0	1135607808	52	6707
2026-01-27 19:50:24.66	314.93	3.94	-40.2	-41.5	20.0	0.00e+00	0	32	0	1137704960	52	6826
2026-01-27 19:50:25.67	314.83	3.89	-40.0	-41.3	20.4	0.00e+00	8	32	0	1139802112	52	6667
2026-01-27 19:50:26.68	314.73	3.84	-40.5	-41.9	19.7	0.00e+00	39	32	0	1141899264	52	7129
2026-01-27 19:50:27.69	314.63	3.79	-39.9	-41.2	20.3	0.00e+00	7	32	0	1143996416	52	6599
2026-01-27 19:50:28.69	314.53	3.74	-40.6	-42.1	19.4	0.00e+00	92	32	0	1145044992	52	7300
2026-01-27 19:50:29.70	314.44	3.68	-40.2	-41.6	19.9	0.00e+00	0	32	0	1147142144	52	6861
2026-01-27 19:50:30.71	314.34	3.63	-40.2	-41.6	19.8	0.00e+00	74	32	0	1149239296	52	6866
2026-01-27 19:50:31.72	314.24	3.58	-40.8	-42.3	19.3	0.00e+00	75	32	0	1151336448	52	7424
2026-01-27 19:50:32.73	314.14	3.53	-40.4	-41.8	19.6	0.00e+00	77	32	0	1153433600	54	6289
2026-01-27 19:50:33.74	314.05	3.48	-40.3	-41.7	19.8	0.00e+00	0	32	0	1154482176	54	6238
2026-01-27 19:50:34.75	313.95	3.43	-40.1	-41.5	20.0	0.00e+00	76	32	0	1156579328	54	6061
2026-01-27 19:50:35.76	313.85	3.38	-41.0	-42.6	18.9	0.00e+00	92	32	0	1158676480	54	6891
2026-01-27 19:50:36.77	313.76	3.33	-40.6	-42.1	19.4	0.00e+00	76	32	0	1160773632	54	6472
2026-01-27 19:50:37.78	313.66	3.28	-41.1	-42.7	18.7	0.00e+00	92	32	0	1162870784	54	7003
2026-01-27 19:50:38.79	313.57	3.23	-40.4	-41.9	19.6	0.00e+00	76	32	0	1163919360	54	6325
2026-01-27 19:50:39.80	313.47	3.18	-41.0	-42.6	18.9	0.00e+00	8	32	0	1166016512	54	6884
2026-01-27 19:50:40.81	313.38	3.13	-41.6	-43.4	18.0	0.00e+00	5	32	0	1168113664	54	7549
2026-01-27 19:50:41.82	313.29	3.08	-40.8	-42.4	19.0	0.00e+00	2	32	0	1170210816	54	6712
2026-01-27 19:50:42.82	313.19	3.03	-41.5	-43.3	18.3	0.00e+00	69	32	0	1172307968	54	7425
2026-01-27 19:50:43.83	313.10	2.98	-47.7	-62.9	3.6	4.64e-02	0	32	104	1173356544	60	50284
2026-01-27 19:50:44.84	313.01	2.93	-48.1	-63.3	3.6	1.51e+00	0	32	104	1173356544	60	52624
2026-01-27 19:50:45.85	312.91	2.88	-48.3	-63.5	3.6	1.51e+00	0	32	104	1173356544	60	54239
2026-01-27 19:50:46.86	312.82	2.82	-48.5	-63.7	3.6	1.51e+00	0	32	104	1173356544	60	55077
2026-01-27 19:50:47.87	312.73	2.77	-48.6	-63.8	3.6	1.51e+00	0	32	104	1173356544	60	56191
2026-01-27 19:50:48.88	312.64	2.72	-48.7	-63.8	3.6	1.51e+00	0	32	104	1173356544	60	56154
2026-01-27 19:50:49.89	312.55	2.67	-48.7	-63.9	3.6	1.51e+00	0	32	104	1173356544	60	56569
2026-01-27 19:50:50.90	312.46	2.62	-48.8	-63.9	3.6	1.51e+00	0	32	104	1173356544	60	56898
2026-01-27 19:50:51.91	312.36	2.57	-48.8	-64.0	3.6	1.51e+00	0	32	104	1173356544	60	57142
2026-01-27 19:50:52.92	312.27	2.52	-48.8	-64.0	3.6	1.51e+00	0	32	104	1173356544	60	57275
2026-01-27 19:50:53.92	312.18	2.47	-48.8	-64.0	3.6	1.51e+00	0	32	104	1173356544	60	57507
