passes_logs/2026/01/27/R4.6S_Anadyr/R4.6S_Anadyr__20260127_180022_NOAA_20_JPSS-1_rec.log

#Pass ID: 20260127_180022_NOAA 20 (JPSS-1)
#Satellite: NOAA 20 (JPSS-1)
#Configuration: NOAA 20
#almurnet v.1.7.20251203
#Start time: 2026-01-27 18:00:24

#Version: 2.2.20231116
#Station: R4.6S_Anadyr
#Location: 177.4865 lon 64.73178 lat
#TLE: 1 43013U 17073A   26026.81907703  .00000149  00000+0  91399-4 0  9998
#TLE: 2 43013  98.7647 327.6343 0000991  22.4130 337.7089 14.19540778424411

#Time	Az	El	Level	Level2	SNR	BER	BlckErr	Temp	State	Recorded	gain1	gain2
2026-01-27 18:00:24.67	36.37	0.11	-48.5	-63.5	3.6	1.51e+00	0	30	0	0	60	54302
2026-01-27 18:00:25.68	36.30	0.16	-48.7	-63.9	3.6	1.51e+00	0	31	104	0	60	56627
2026-01-27 18:00:26.69	36.24	0.21	-48.7	-63.8	3.6	1.51e+00	0	31	104	0	60	56173
2026-01-27 18:00:27.70	36.17	0.26	-48.7	-63.9	3.6	1.51e+00	0	31	104	0	60	56336
2026-01-27 18:00:28.71	36.10	0.31	-48.7	-63.9	3.6	1.51e+00	0	31	104	0	60	56526
2026-01-27 18:00:29.72	36.03	0.37	-48.7	-63.9	3.6	1.51e+00	0	31	104	0	60	56489
2026-01-27 18:00:30.73	35.97	0.42	-48.7	-63.9	3.6	1.51e+00	0	31	104	0	60	56508
2026-01-27 18:00:31.74	35.90	0.47	-48.7	-63.9	3.6	1.51e+00	0	31	104	0	60	56665
2026-01-27 18:00:32.75	35.83	0.52	-48.7	-64.0	3.6	1.51e+00	0	31	104	0	60	57005
2026-01-27 18:00:33.76	35.76	0.57	-48.7	-64.0	3.6	1.51e+00	0	31	104	0	60	56984
2026-01-27 18:00:34.77	35.69	0.63	-48.7	-63.9	3.6	1.51e+00	0	31	104	0	60	56920
2026-01-27 18:00:35.78	35.62	0.68	-48.7	-63.9	3.6	1.51e+00	0	31	104	0	60	56615
2026-01-27 18:00:36.79	35.55	0.73	-48.7	-63.9	3.6	1.51e+00	0	31	104	0	60	56552
2026-01-27 18:00:37.80	35.48	0.78	-48.7	-63.9	3.6	1.51e+00	0	31	104	0	60	56445
2026-01-27 18:00:38.81	35.41	0.84	-48.6	-63.8	3.6	1.51e+00	0	31	104	0	60	56040
2026-01-27 18:00:39.82	35.34	0.89	-48.6	-63.8	3.6	1.51e+00	0	31	104	0	60	55705
2026-01-27 18:00:40.83	35.27	0.94	-48.5	-63.7	3.6	1.51e+00	0	31	104	0	60	55653
2026-01-27 18:00:41.84	35.20	0.99	-48.5	-63.7	3.6	1.51e+00	0	31	104	0	60	55251
2026-01-27 18:00:42.86	35.12	1.05	-48.4	-63.6	3.6	1.51e+00	0	31	104	0	60	54813
2026-01-27 18:00:43.87	35.05	1.10	-48.3	-63.6	3.6	1.51e+00	0	32	104	0	60	54516
2026-01-27 18:00:44.88	34.98	1.15	-48.3	-63.5	3.6	1.51e+00	0	31	104	0	60	53860
2026-01-27 18:00:45.89	34.91	1.20	-48.2	-63.4	3.6	1.51e+00	0	32	104	0	60	53263
2026-01-27 18:00:46.89	34.83	1.26	-48.0	-63.2	3.6	1.51e+00	0	31	104	0	60	52513
2026-01-27 18:00:47.90	34.76	1.31	-47.9	-63.0	3.6	1.51e+00	0	31	104	0	60	51219
2026-01-27 18:00:48.91	34.69	1.36	-47.5	-62.7	3.6	1.51e+00	0	32	104	0	60	49413
2026-01-27 18:00:49.92	34.62	1.42	-47.0	-62.2	3.6	1.51e+00	0	32	104	0	60	46594
2026-01-27 18:00:50.93	34.54	1.47	-47.0	-62.2	3.6	1.51e+00	0	32	104	0	60	46493
2026-01-27 18:00:51.94	34.47	1.52	-47.0	-62.2	3.6	1.51e+00	0	32	104	0	60	46518
2026-01-27 18:00:52.96	34.39	1.58	-47.0	-62.1	3.6	1.51e+00	0	32	104	0	60	46233
2026-01-27 18:00:53.97	34.32	1.63	-47.0	-62.2	3.5	1.51e+00	0	32	104	0	60	46500
2026-01-27 18:00:54.98	34.24	1.68	-47.0	-62.2	3.6	1.51e+00	0	32	104	0	60	46652
2026-01-27 18:00:55.98	34.17	1.73	-47.0	-62.2	3.6	1.51e+00	0	32	104	0	60	46303
2026-01-27 18:00:56.99	34.09	1.79	-47.0	-62.2	3.6	1.51e+00	0	32	104	0	60	46358
2026-01-27 18:00:58.00	34.02	1.84	-47.0	-62.2	3.6	1.51e+00	0	32	104	0	60	46545
2026-01-27 18:00:59.01	33.94	1.89	-47.0	-62.2	3.6	1.51e+00	0	32	104	0	60	46508
2026-01-27 18:01:00.02	33.87	1.95	-47.0	-62.2	3.6	1.51e+00	0	32	104	0	60	46318
2026-01-27 18:01:01.03	33.79	2.00	-47.0	-62.2	3.6	1.51e+00	0	32	104	0	60	46411
2026-01-27 18:01:02.04	33.71	2.06	-47.0	-62.2	3.6	1.51e+00	0	32	104	0	60	46423
2026-01-27 18:01:03.05	33.64	2.11	-47.0	-62.0	3.6	1.51e+00	0	32	104	0	60	45696
2026-01-27 18:01:04.06	33.56	2.16	-47.0	-62.1	3.6	1.51e+00	0	32	104	0	60	46058
2026-01-27 18:01:05.07	33.48	2.22	-47.0	-62.1	3.6	1.51e+00	0	32	104	0	60	45794
2026-01-27 18:01:06.08	33.40	2.27	-47.0	-62.2	3.6	1.51e+00	0	32	104	0	60	46326
2026-01-27 18:01:07.09	33.32	2.32	-47.0	-62.2	3.6	1.51e+00	0	32	104	0	60	46463
2026-01-27 18:01:08.10	33.25	2.38	-47.0	-62.1	3.6	1.51e+00	0	32	104	0	60	46265
2026-01-27 18:01:09.11	33.17	2.43	-47.0	-62.1	3.6	1.51e+00	0	32	104	0	60	46218
2026-01-27 18:01:10.12	33.09	2.49	-47.0	-62.1	3.6	1.51e+00	0	32	104	0	60	46178
2026-01-27 18:01:11.13	33.01	2.54	-47.0	-62.2	3.6	1.51e+00	0	32	104	0	60	46648
2026-01-27 18:01:12.14	32.93	2.59	-47.0	-62.2	3.6	1.51e+00	0	32	104	0	60	46370
2026-01-27 18:01:13.15	32.85	2.65	-47.0	-61.9	3.6	1.51e+00	0	32	104	0	60	44891
2026-01-27 18:01:14.16	32.77	2.70	-47.0	-61.5	3.6	1.51e+00	0	32	104	0	60	43015
2026-01-27 18:01:15.17	32.69	2.76	-47.0	-61.6	3.6	1.51e+00	0	32	104	0	60	43212
2026-01-27 18:01:16.18	32.61	2.81	-47.0	-62.0	3.6	1.51e+00	0	32	104	0	60	45535
2026-01-27 18:01:17.18	32.52	2.86	-47.0	-61.3	3.6	1.51e+00	0	32	104	0	60	41746
2026-01-27 18:01:18.20	32.44	2.92	-46.8	-57.7	4.4	1.49e+00	63	32	104	0	60	27732
2026-01-27 18:01:19.21	32.36	2.97	-46.2	-52.8	7.5	5.80e-01	92	32	0	1048576	60	15782
2026-01-27 18:01:20.22	32.28	3.03	-45.5	-50.6	10.3	1.67e-02	62	32	0	3145728	60	12184
2026-01-27 18:01:21.22	32.20	3.08	-44.9	-49.1	11.9	1.23e-03	17	32	0	4194304	60	10291
2026-01-27 18:01:22.23	32.11	3.14	-44.0	-47.2	13.5	2.17e-04	0	32	0	6291456	60	8245
2026-01-27 18:01:23.24	32.03	3.19	-47.0	-59.3	3.7	1.27e+00	0	32	104	7340032	60	33334
2026-01-27 18:01:24.25	31.95	3.25	-46.7	-56.6	6.0	1.49e+00	6	32	104	7340032	60	24393
2026-01-27 18:01:25.26	31.86	3.30	-44.4	-47.9	13.5	1.52e-05	0	32	0	7340032	60	9025
2026-01-27 18:01:26.27	31.78	3.36	-42.3	-44.5	17.1	0.00e+00	92	32	0	9437184	58	6771
2026-01-27 18:01:27.28	31.69	3.41	-47.0	-61.5	3.6	1.37e+00	0	32	104	10485760	60	42830
2026-01-27 18:01:28.29	31.61	3.47	-41.5	-43.4	17.1	1.34e+00	92	32	104	10485760	56	6705
2026-01-27 18:01:29.30	31.52	3.52	-41.9	-43.8	17.6	0.00e+00	0	32	0	11534336	56	7073
2026-01-27 18:01:30.31	31.44	3.58	-41.8	-43.7	17.8	0.00e+00	0	32	0	12582912	56	6972
2026-01-27 18:01:31.32	31.35	3.63	-41.6	-43.4	17.8	0.00e+00	0	32	0	14680064	56	6712
2026-01-27 18:01:32.33	31.27	3.69	-41.8	-43.7	17.6	0.00e+00	0	32	0	16777216	56	6957
2026-01-27 18:01:33.34	31.18	3.74	-41.5	-43.3	18.0	0.00e+00	92	32	0	18874368	56	6630
2026-01-27 18:01:34.35	31.09	3.80	-41.3	-43.0	18.3	0.00e+00	18	32	0	20971520	56	6448
2026-01-27 18:01:35.36	31.00	3.85	-41.9	-43.9	17.6	0.00e+00	90	32	0	22020096	56	7090
2026-01-27 18:01:36.37	30.92	3.91	-41.6	-43.3	18.3	0.00e+00	0	32	0	24117248	56	6685
2026-01-27 18:01:37.38	30.83	3.96	-41.1	-42.8	18.5	0.00e+00	16	32	0	26214400	56	6257
2026-01-27 18:01:38.39	30.74	4.02	-41.7	-43.5	18.0	0.00e+00	0	32	0	28311552	56	6781
2026-01-27 18:01:39.40	30.65	4.07	-41.7	-43.5	17.9	0.00e+00	0	32	0	30408704	56	6808
2026-01-27 18:01:40.41	30.56	4.13	-41.3	-43.0	18.4	0.00e+00	92	32	0	31457280	56	6459
2026-01-27 18:01:41.42	30.47	4.18	-41.7	-43.5	17.9	0.00e+00	18	32	0	33554432	56	6812
2026-01-27 18:01:42.43	30.38	4.24	-41.8	-43.6	17.9	0.00e+00	92	32	0	35651584	56	6876
2026-01-27 18:01:43.44	30.29	4.30	-41.5	-43.2	18.3	0.00e+00	63	32	0	37748736	56	6593
2026-01-27 18:01:44.45	30.20	4.35	-41.2	-42.8	18.4	0.00e+00	4	32	0	39845888	54	7053
2026-01-27 18:01:45.46	30.11	4.41	-41.1	-42.8	18.4	0.00e+00	6	32	0	40894464	54	7023
2026-01-27 18:01:46.47	30.02	4.46	-41.5	-43.2	18.0	0.00e+00	1	32	0	42991616	54	7406
2026-01-27 18:01:47.48	29.93	4.52	-41.0	-42.5	19.0	0.00e+00	5	32	0	45088768	54	6821
2026-01-27 18:01:48.49	29.84	4.57	-41.7	-43.4	18.1	0.00e+00	3	32	0	47185920	56	6746
2026-01-27 18:01:49.50	29.75	4.63	-41.3	-42.9	18.7	0.00e+00	92	32	0	49283072	56	6380
2026-01-27 18:01:50.51	29.65	4.69	-41.5	-43.1	18.5	0.00e+00	1	32	0	50331648	56	6536
2026-01-27 18:01:51.52	29.56	4.74	-41.2	-42.8	18.3	0.00e+00	70	32	0	52428800	54	7066
2026-01-27 18:01:52.52	29.47	4.80	-41.3	-42.9	18.7	0.00e+00	0	32	0	54525952	56	6366
2026-01-27 18:01:53.53	29.37	4.85	-41.7	-43.5	18.4	0.00e+00	5	32	0	56623104	56	6774
2026-01-27 18:01:54.54	29.28	4.91	-41.5	-43.1	18.6	0.00e+00	5	32	0	58720256	56	6515
2026-01-27 18:01:55.55	29.19	4.97	-41.4	-43.1	18.7	0.00e+00	16	32	0	59768832	56	6481
2026-01-27 18:01:56.56	29.09	5.02	-41.5	-43.2	18.6	0.00e+00	92	32	0	61865984	56	6540
2026-01-27 18:01:57.57	29.00	5.08	-41.2	-42.7	19.1	0.00e+00	18	32	0	63963136	56	6242
2026-01-27 18:01:58.58	28.90	5.13	-41.3	-43.0	18.8	0.00e+00	92	32	0	66060288	56	6401
2026-01-27 18:01:59.59	28.80	5.19	-41.3	-42.9	18.9	0.00e+00	69	32	0	68157440	56	6330
2026-01-27 18:02:00.60	28.71	5.25	-41.2	-42.7	19.1	0.00e+00	67	32	0	70254592	56	6234
2026-01-27 18:02:01.61	28.61	5.30	-41.0	-42.5	19.3	0.00e+00	5	32	0	71303168	56	6072
2026-01-27 18:02:02.62	28.51	5.36	-41.3	-42.8	19.0	0.00e+00	67	32	0	73400320	56	6304
2026-01-27 18:02:03.63	28.42	5.42	-41.4	-43.0	18.7	0.00e+00	30	32	0	75497472	56	6456
2026-01-27 18:02:04.64	28.32	5.47	-41.4	-43.0	18.6	0.00e+00	3	32	0	77594624	56	6427
2026-01-27 18:02:05.65	28.22	5.53	-41.5	-43.2	18.8	0.00e+00	92	32	0	79691776	56	6541
2026-01-27 18:02:06.66	28.12	5.59	-41.6	-43.2	18.9	0.00e+00	3	32	0	80740352	56	6587
2026-01-27 18:02:07.67	28.02	5.64	-41.7	-43.3	18.5	0.00e+00	88	32	0	82837504	56	6680
2026-01-27 18:02:08.68	27.92	5.70	-41.6	-43.2	18.8	0.00e+00	5	32	0	84934656	56	6587
2026-01-27 18:02:09.69	27.82	5.76	-41.4	-43.0	18.9	0.00e+00	0	32	0	87031808	56	6403
2026-01-27 18:02:10.69	27.72	5.81	-41.4	-43.0	18.9	0.00e+00	92	32	0	89128960	56	6442
2026-01-27 18:02:11.70	27.62	5.87	-41.7	-43.3	18.5	0.00e+00	3	32	0	90177536	56	6670
2026-01-27 18:02:12.71	27.52	5.93	-41.6	-43.2	18.7	0.00e+00	92	32	0	92274688	56	6567
2026-01-27 18:02:13.72	27.42	5.98	-41.7	-43.4	18.6	0.00e+00	0	32	0	94371840	56	6701
2026-01-27 18:02:14.73	27.32	6.04	-41.9	-43.7	18.3	0.00e+00	88	32	0	96468992	56	6933
2026-01-27 18:02:15.74	27.22	6.10	-41.5	-43.2	18.7	0.00e+00	19	32	0	98566144	56	6551
2026-01-27 18:02:16.75	27.11	6.15	-41.4	-43.0	18.9	0.00e+00	1	32	0	99614720	56	6459
2026-01-27 18:02:17.76	27.01	6.21	-41.6	-43.3	18.6	0.00e+00	4	32	0	101711872	56	6649
2026-01-27 18:02:18.77	26.91	6.27	-41.8	-43.5	18.5	0.00e+00	19	32	0	103809024	56	6795
2026-01-27 18:02:19.78	26.80	6.33	-41.9	-43.6	18.4	0.00e+00	91	32	0	105906176	56	6857
2026-01-27 18:02:20.79	26.70	6.38	-41.4	-43.0	19.0	0.00e+00	2	32	0	108003328	56	6432
2026-01-27 18:02:21.80	26.59	6.44	-41.3	-42.9	19.1	0.00e+00	91	32	0	109051904	56	6326
2026-01-27 18:02:22.80	26.49	6.50	-41.2	-42.7	19.3	0.00e+00	19	32	0	111149056	56	6218
2026-01-27 18:02:23.81	26.38	6.55	-41.1	-42.6	19.4	0.00e+00	20	32	0	113246208	56	6171
2026-01-27 18:02:24.82	26.28	6.61	-41.2	-42.7	19.2	0.00e+00	61	32	0	115343360	56	6181
2026-01-27 18:02:25.83	26.17	6.67	-41.3	-42.8	19.1	0.00e+00	20	32	0	117440512	56	6299
2026-01-27 18:02:26.84	26.06	6.73	-41.2	-42.8	19.2	0.00e+00	92	32	0	118489088	56	6247
2026-01-27 18:02:27.85	25.96	6.78	-41.3	-42.8	19.1	0.00e+00	61	32	0	120586240	56	6284
2026-01-27 18:02:28.86	25.85	6.84	-41.2	-42.7	19.4	0.00e+00	92	32	0	122683392	56	6185
2026-01-27 18:02:29.87	25.74	6.90	-41.2	-42.8	19.2	0.00e+00	61	32	0	124780544	56	6256
2026-01-27 18:02:30.88	25.63	6.96	-40.9	-42.3	19.7	0.00e+00	92	32	0	126877696	56	5944
2026-01-27 18:02:31.89	25.52	7.01	-40.9	-42.3	19.7	0.00e+00	0	32	0	127926272	56	5913
2026-01-27 18:02:32.90	25.41	7.07	-40.9	-42.4	19.6	0.00e+00	0	32	0	130023424	56	5970
2026-01-27 18:02:33.91	25.30	7.13	-40.9	-42.4	19.7	0.00e+00	2	32	0	132120576	56	5972
2026-01-27 18:02:34.92	25.19	7.19	-41.0	-42.4	19.6	0.00e+00	0	32	0	134217728	56	5995
2026-01-27 18:02:35.93	25.08	7.24	-40.9	-42.4	19.7	0.00e+00	90	32	0	136314880	56	5990
2026-01-27 18:02:36.94	24.97	7.30	-40.9	-42.4	19.6	0.00e+00	20	32	0	138412032	56	5966
2026-01-27 18:02:37.95	24.86	7.36	-41.1	-42.5	19.5	0.00e+00	20	32	0	139460608	56	6071
2026-01-27 18:02:38.96	24.74	7.42	-41.0	-42.5	19.5	0.00e+00	0	32	0	141557760	56	6058
2026-01-27 18:02:39.97	24.63	7.48	-41.0	-42.5	19.6	0.00e+00	0	32	0	143654912	56	6055
2026-01-27 18:02:40.97	24.52	7.53	-41.1	-42.5	19.5	0.00e+00	0	32	0	145752064	56	6084
2026-01-27 18:02:41.98	24.41	7.59	-41.3	-42.8	19.3	0.00e+00	19	32	0	146800640	56	6268
2026-01-27 18:02:42.99	24.29	7.65	-40.9	-42.4	19.7	0.00e+00	92	32	0	148897792	56	5994
2026-01-27 18:02:44.00	24.18	7.71	-41.0	-42.4	19.7	0.00e+00	19	32	0	150994944	56	5999
2026-01-27 18:02:45.01	24.06	7.76	-41.0	-42.4	19.7	0.00e+00	92	32	0	153092096	56	6008
2026-01-27 18:02:46.02	23.95	7.82	-40.9	-42.4	19.8	0.00e+00	20	32	0	155189248	56	5970
2026-01-27 18:02:47.03	23.83	7.88	-40.7	-42.1	19.9	0.00e+00	61	32	0	156237824	54	6520
2026-01-27 18:02:48.04	23.71	7.94	-40.7	-42.1	19.9	0.00e+00	61	32	0	158334976	54	6500
2026-01-27 18:02:49.05	23.60	8.00	-40.6	-41.9	20.1	0.00e+00	62	32	0	160432128	54	6374
2026-01-27 18:02:50.06	23.48	8.05	-40.5	-41.9	20.1	0.00e+00	90	32	0	162529280	54	6327
2026-01-27 18:02:51.07	23.36	8.11	-40.4	-41.7	20.3	0.00e+00	0	32	0	164626432	54	6204
2026-01-27 18:02:52.08	23.24	8.17	-40.3	-41.6	20.4	0.00e+00	92	32	0	166723584	54	6143
2026-01-27 18:02:53.09	23.12	8.23	-40.3	-41.6	20.3	0.00e+00	0	32	0	167772160	54	6143
2026-01-27 18:02:54.10	23.00	8.29	-40.2	-41.5	20.3	0.00e+00	0	32	0	169869312	54	6097
2026-01-27 18:02:55.10	22.89	8.34	-40.1	-41.4	20.1	0.00e+00	0	32	0	171966464	54	6009
2026-01-27 18:02:56.11	22.76	8.40	-40.2	-41.5	20.0	0.00e+00	0	32	0	174063616	54	6079
2026-01-27 18:02:57.12	22.64	8.46	-40.3	-41.6	20.2	0.00e+00	0	32	0	176160768	54	6147
2026-01-27 18:02:58.13	22.52	8.52	-40.2	-41.4	20.6	0.00e+00	0	32	0	177209344	54	6012
2026-01-27 18:02:59.14	22.40	8.58	-40.2	-41.4	20.6	0.00e+00	90	32	0	179306496	54	6006
2026-01-27 18:03:00.15	22.28	8.63	-39.9	-41.2	20.8	0.00e+00	0	32	0	181403648	54	5829
2026-01-27 18:03:01.16	22.15	8.69	-40.0	-41.3	20.7	0.00e+00	92	32	0	183500800	54	5919
2026-01-27 18:03:02.17	22.03	8.75	-40.0	-41.2	20.7	0.00e+00	21	32	0	185597952	54	5856
2026-01-27 18:03:03.18	21.91	8.81	-40.0	-41.3	20.7	0.00e+00	0	32	0	186646528	54	5898
2026-01-27 18:03:04.19	21.78	8.87	-39.9	-41.2	20.8	0.00e+00	0	32	0	188743680	54	5847
2026-01-27 18:03:05.20	21.66	8.92	-40.0	-41.2	20.8	0.00e+00	20	32	0	190840832	54	5861
2026-01-27 18:03:06.21	21.53	8.98	-40.0	-41.2	20.8	0.00e+00	92	32	0	192937984	54	5885
2026-01-27 18:03:07.21	21.41	9.04	-40.0	-41.2	20.8	0.00e+00	0	32	0	195035136	54	5895
2026-01-27 18:03:08.22	21.28	9.10	-39.9	-41.2	20.9	0.00e+00	92	32	0	196083712	54	5831
2026-01-27 18:03:09.23	21.15	9.16	-39.8	-41.0	21.0	0.00e+00	21	32	0	198180864	54	5739
2026-01-27 18:03:10.24	21.03	9.21	-39.7	-40.8	21.2	0.00e+00	59	32	0	200278016	52	6298
2026-01-27 18:03:11.25	20.90	9.27	-39.7	-40.8	21.3	0.00e+00	61	32	0	202375168	52	6300
2026-01-27 18:03:12.26	20.77	9.33	-39.5	-40.7	21.3	0.00e+00	59	32	0	204472320	52	6216
2026-01-27 18:03:13.27	20.64	9.39	-39.6	-40.8	21.2	0.00e+00	0	32	0	205520896	52	6267
2026-01-27 18:03:14.28	20.51	9.45	-39.7	-40.9	21.1	0.00e+00	0	32	0	207618048	52	6353
2026-01-27 18:03:15.29	20.38	9.50	-39.6	-40.8	21.2	0.00e+00	92	32	0	209715200	52	6267
2026-01-27 18:03:16.30	20.25	9.56	-39.6	-40.8	21.3	0.00e+00	2	32	0	211812352	52	6278
2026-01-27 18:03:17.31	20.12	9.62	-39.6	-40.8	21.3	0.00e+00	32	32	0	213909504	52	6253
2026-01-27 18:03:18.32	19.99	9.68	-39.6	-40.7	21.4	0.00e+00	0	32	0	214958080	52	6240
2026-01-27 18:03:19.33	19.85	9.74	-39.7	-40.8	21.3	0.00e+00	2	32	0	217055232	52	6295
2026-01-27 18:03:20.34	19.72	9.79	-39.7	-40.9	21.1	0.00e+00	0	32	0	219152384	52	6363
2026-01-27 18:03:21.35	19.59	9.85	-39.7	-40.9	21.2	0.00e+00	19	32	0	221249536	52	6363
2026-01-27 18:03:22.36	19.45	9.91	-39.8	-41.0	21.1	0.00e+00	92	32	0	223346688	52	6431
2026-01-27 18:03:23.37	19.32	9.97	-39.7	-40.9	21.2	0.00e+00	0	32	0	224395264	52	6354
2026-01-27 18:03:24.38	19.19	10.03	-39.8	-41.0	21.1	0.00e+00	91	32	0	226492416	52	6421
2026-01-27 18:03:25.39	19.05	10.08	-39.9	-41.1	20.9	0.00e+00	0	32	0	228589568	52	6523
2026-01-27 18:03:26.39	18.91	10.14	-39.7	-40.9	21.2	0.00e+00	62	32	0	230686720	52	6337
2026-01-27 18:03:27.40	18.78	10.20	-39.8	-40.9	21.2	0.00e+00	0	32	0	232783872	52	6372
2026-01-27 18:03:28.41	18.64	10.26	-39.8	-40.9	21.2	0.00e+00	65	32	0	234881024	52	6386
2026-01-27 18:03:29.42	18.50	10.32	-39.8	-41.0	21.1	0.00e+00	92	32	0	235929600	52	6412
2026-01-27 18:03:30.43	18.36	10.37	-40.0	-41.2	21.0	0.00e+00	0	32	0	238026752	52	6554
2026-01-27 18:03:31.44	18.23	10.43	-39.7	-40.9	21.2	0.00e+00	0	32	0	240123904	52	6367
2026-01-27 18:03:32.45	18.09	10.49	-39.6	-40.7	21.3	0.00e+00	0	32	0	242221056	52	6219
2026-01-27 18:03:33.46	17.95	10.55	-39.5	-40.7	21.5	0.00e+00	65	32	0	244318208	52	6201
2026-01-27 18:03:34.47	17.81	10.60	-39.6	-40.7	21.4	0.00e+00	3	32	0	245366784	52	6221
2026-01-27 18:03:35.48	17.66	10.66	-39.6	-40.8	21.3	0.00e+00	67	32	0	247463936	52	6269
2026-01-27 18:03:36.49	17.52	10.72	-39.7	-40.8	21.3	0.00e+00	91	32	0	249561088	52	6288
2026-01-27 18:03:37.50	17.38	10.78	-39.5	-40.7	21.4	0.00e+00	6	32	0	251658240	52	6180
2026-01-27 18:03:38.51	17.24	10.83	-39.6	-40.7	21.5	0.00e+00	92	32	0	253755392	52	6217
2026-01-27 18:03:39.52	17.09	10.89	-39.6	-40.7	21.4	0.00e+00	4	32	0	254803968	52	6210
2026-01-27 18:03:40.53	16.95	10.95	-39.6	-40.7	21.4	0.00e+00	90	32	0	256901120	52	6210
2026-01-27 18:03:41.54	16.81	11.01	-39.5	-40.6	21.5	0.00e+00	21	32	0	258998272	52	6148
2026-01-27 18:03:42.55	16.66	11.06	-39.6	-40.7	21.4	0.00e+00	20	32	0	261095424	52	6212
2026-01-27 18:03:43.56	16.51	11.12	-39.4	-40.6	21.5	0.00e+00	21	32	0	263192576	52	6114
2026-01-27 18:03:44.56	16.37	11.18	-39.5	-40.6	21.5	0.00e+00	5	32	0	264241152	52	6151
2026-01-27 18:03:45.57	16.22	11.24	-39.5	-40.6	21.5	0.00e+00	92	32	0	266338304	52	6161
2026-01-27 18:03:46.58	16.08	11.29	-39.5	-40.7	21.5	0.00e+00	21	32	0	268435456	52	6180
2026-01-27 18:03:47.59	15.93	11.35	-39.6	-40.7	21.4	0.00e+00	18	32	0	270532608	52	6240
2026-01-27 18:03:48.60	15.78	11.41	-39.7	-40.8	21.4	0.00e+00	66	32	0	272629760	52	6293
2026-01-27 18:03:49.61	15.63	11.46	-39.7	-40.8	21.3	0.00e+00	20	32	0	273678336	52	6301
2026-01-27 18:03:50.62	15.48	11.52	-39.6	-40.8	21.3	0.00e+00	75	32	0	275775488	52	6276
2026-01-27 18:03:51.63	15.33	11.58	-39.7	-40.9	21.3	0.00e+00	68	32	0	277872640	52	6361
2026-01-27 18:03:52.64	15.18	11.63	-39.8	-41.0	21.2	0.00e+00	92	32	0	279969792	52	6450
2026-01-27 18:03:53.65	15.03	11.69	-40.0	-41.2	21.0	0.00e+00	5	32	0	282066944	52	6550
2026-01-27 18:03:54.66	14.87	11.75	-39.9	-41.1	21.0	0.00e+00	91	32	0	283115520	52	6537
2026-01-27 18:03:55.67	14.72	11.80	-40.1	-41.3	20.9	0.00e+00	68	32	0	285212672	52	6682
2026-01-27 18:03:56.68	14.57	11.86	-40.0	-41.2	21.0	0.00e+00	6	32	0	287309824	52	6584
2026-01-27 18:03:57.69	14.41	11.92	-40.1	-41.4	20.8	0.00e+00	64	32	0	289406976	52	6710
2026-01-27 18:03:58.70	14.26	11.97	-40.0	-41.2	21.1	0.00e+00	6	32	0	291504128	52	6552
2026-01-27 18:03:59.70	14.10	12.03	-40.0	-41.2	21.0	0.00e+00	83	32	0	292552704	52	6598
2026-01-27 18:04:00.71	13.95	12.09	-39.7	-40.8	21.3	0.00e+00	3	32	0	294649856	52	6291
2026-01-27 18:04:01.72	13.79	12.14	-39.7	-40.9	21.3	0.00e+00	90	32	0	296747008	52	6349
2026-01-27 18:04:02.73	13.64	12.20	-39.7	-40.9	21.2	0.00e+00	3	32	0	298844160	52	6339
2026-01-27 18:04:03.74	13.48	12.25	-39.6	-40.8	21.4	0.00e+00	15	32	0	300941312	52	6267
2026-01-27 18:04:04.75	13.32	12.31	-39.7	-40.8	21.4	0.00e+00	14	32	0	303038464	52	6311
2026-01-27 18:04:05.76	13.16	12.37	-39.7	-40.9	21.3	0.00e+00	3	32	0	304087040	52	6345
2026-01-27 18:04:06.77	13.00	12.42	-39.8	-40.9	21.3	0.00e+00	6	32	0	306184192	52	6374
2026-01-27 18:04:07.78	12.84	12.48	-39.8	-40.9	21.3	0.00e+00	0	32	0	308281344	52	6377
2026-01-27 18:04:08.79	12.68	12.53	-39.6	-40.7	21.5	0.00e+00	92	32	0	310378496	52	6237
2026-01-27 18:04:09.79	12.52	12.59	-39.6	-40.8	21.5	0.00e+00	60	32	0	312475648	52	6247
2026-01-27 18:04:10.80	12.36	12.64	-39.5	-40.7	21.5	0.00e+00	84	32	0	313524224	52	6183
2026-01-27 18:04:11.81	12.20	12.70	-39.6	-40.7	21.5	0.00e+00	20	32	0	315621376	52	6205
2026-01-27 18:04:12.82	12.03	12.75	-39.6	-40.7	21.5	0.00e+00	21	32	0	317718528	52	6199
2026-01-27 18:04:13.83	11.87	12.81	-39.5	-40.6	21.6	0.00e+00	59	32	0	319815680	52	6148
2026-01-27 18:04:14.84	11.70	12.86	-39.3	-40.4	21.8	0.00e+00	62	32	0	321912832	52	6012
2026-01-27 18:04:15.85	11.54	12.92	-39.2	-40.3	21.9	0.00e+00	92	32	0	322961408	52	5929
2026-01-27 18:04:16.86	11.37	12.97	-39.3	-40.4	21.8	0.00e+00	58	32	0	325058560	52	5994
2026-01-27 18:04:17.87	11.21	13.03	-39.0	-40.1	22.1	0.00e+00	92	32	0	327155712	52	5800
2026-01-27 18:04:18.88	11.04	13.08	-39.1	-40.2	21.9	0.00e+00	2	32	0	329252864	52	5847
2026-01-27 18:04:19.89	10.87	13.14	-39.0	-40.1	22.0	0.00e+00	0	32	0	331350016	52	5782
2026-01-27 18:04:20.90	10.70	13.19	-39.1	-40.1	22.0	0.00e+00	0	32	0	332398592	52	5808
2026-01-27 18:04:21.90	10.54	13.24	-39.1	-40.1	22.1	0.00e+00	0	32	0	334495744	52	5812
2026-01-27 18:04:22.92	10.37	13.30	-39.1	-40.1	22.1	0.00e+00	92	32	0	336592896	52	5825
2026-01-27 18:04:23.93	10.20	13.35	-38.9	-40.0	22.2	0.00e+00	0	32	0	338690048	52	5718
2026-01-27 18:04:24.94	10.02	13.41	-38.6	-39.6	22.5	0.00e+00	92	32	0	340787200	50	6135
2026-01-27 18:04:25.94	9.85	13.46	-38.5	-39.5	22.6	0.00e+00	0	32	0	341835776	50	6043
2026-01-27 18:04:26.95	9.68	13.51	-38.6	-39.6	22.6	0.00e+00	59	32	0	343932928	50	6146
2026-01-27 18:04:27.96	9.51	13.56	-38.3	-39.3	22.8	0.00e+00	22	32	0	346030080	50	5935
2026-01-27 18:04:28.97	9.34	13.62	-38.3	-39.3	22.8	0.00e+00	15	32	0	348127232	50	5902
2026-01-27 18:04:29.98	9.16	13.67	-38.6	-39.6	22.6	0.00e+00	0	32	0	350224384	50	6133
2026-01-27 18:04:30.99	8.99	13.72	-38.6	-39.6	22.6	0.00e+00	66	32	0	351272960	50	6124
2026-01-27 18:04:32.00	8.81	13.78	-38.5	-39.5	22.7	0.00e+00	92	32	0	353370112	50	6038
2026-01-27 18:04:33.01	8.64	13.83	-38.5	-39.4	22.5	0.00e+00	66	32	0	355467264	50	6026
2026-01-27 18:04:34.02	8.46	13.88	-38.3	-39.3	22.8	0.00e+00	90	32	0	357564416	50	5905
2026-01-27 18:04:35.03	8.28	13.93	-38.1	-39.1	23.0	0.00e+00	0	32	0	359661568	50	5762
2026-01-27 18:04:36.04	8.11	13.99	-38.2	-39.2	22.8	0.00e+00	65	32	0	360710144	50	5834
2026-01-27 18:04:37.04	7.93	14.04	-38.1	-39.0	23.0	0.00e+00	64	32	0	362807296	50	5736
2026-01-27 18:04:38.05	7.75	14.09	-38.1	-39.0	23.1	0.00e+00	0	32	0	364904448	50	5750
2026-01-27 18:04:39.06	7.57	14.14	-37.9	-38.8	23.3	0.00e+00	92	32	0	367001600	50	5598
2026-01-27 18:04:40.07	7.39	14.19	-38.0	-39.0	23.1	0.00e+00	62	32	0	369098752	50	5696
2026-01-27 18:04:41.08	7.21	14.24	-37.9	-38.8	23.3	0.00e+00	92	32	0	370147328	50	5615
2026-01-27 18:04:42.09	7.03	14.29	-37.8	-38.7	23.4	0.00e+00	0	32	0	372244480	50	5553
2026-01-27 18:04:43.10	6.85	14.34	-37.8	-38.7	23.4	0.00e+00	0	32	0	374341632	50	5555
2026-01-27 18:04:44.11	6.66	14.39	-37.8	-38.7	23.3	0.00e+00	2	32	0	376438784	50	5565
2026-01-27 18:04:45.12	6.48	14.45	-37.7	-38.6	23.5	0.00e+00	0	32	0	378535936	48	6162
2026-01-27 18:04:46.13	6.30	14.50	-37.6	-38.5	23.6	0.00e+00	0	32	0	379584512	48	6067
2026-01-27 18:04:47.14	6.11	14.55	-37.5	-38.4	23.6	0.00e+00	0	32	0	381681664	48	5973
2026-01-27 18:04:48.15	5.93	14.60	-37.5	-38.3	23.7	0.00e+00	92	32	0	383778816	48	5963
2026-01-27 18:04:49.16	5.74	14.64	-37.3	-38.1	23.8	0.00e+00	23	32	0	385875968	48	5824
2026-01-27 18:04:50.17	5.55	14.69	-37.3	-38.2	23.6	0.00e+00	2	32	0	387973120	48	5877
2026-01-27 18:04:51.18	5.37	14.74	-37.3	-38.2	23.3	0.00e+00	0	32	0	389021696	48	5837
2026-01-27 18:04:52.19	5.18	14.79	-37.4	-38.3	23.5	0.00e+00	22	32	0	391118848	48	5913
2026-01-27 18:04:53.20	4.99	14.84	-37.4	-38.3	23.7	0.00e+00	0	32	0	393216000	48	5930
2026-01-27 18:04:54.21	4.80	14.89	-37.3	-38.1	23.9	0.00e+00	21	32	0	395313152	48	5826
2026-01-27 18:04:55.21	4.61	14.94	-37.2	-38.1	23.9	0.00e+00	92	32	0	397410304	48	5769
2026-01-27 18:04:56.22	4.42	14.99	-37.2	-38.1	24.0	0.00e+00	57	32	0	399507456	48	5765
2026-01-27 18:04:57.23	4.23	15.03	-37.1	-37.9	24.1	0.00e+00	91	32	0	400556032	48	5695
2026-01-27 18:04:58.24	4.04	15.08	-37.1	-38.0	24.0	0.00e+00	0	32	0	402653184	48	5696
2026-01-27 18:04:59.25	3.85	15.13	-37.1	-38.0	24.0	0.00e+00	0	32	0	404750336	48	5714
2026-01-27 18:05:00.26	3.65	15.18	-37.3	-38.2	24.0	0.00e+00	65	32	0	406847488	48	5835
2026-01-27 18:05:01.27	3.46	15.22	-37.1	-37.9	24.1	0.00e+00	0	32	0	408944640	48	5690
2026-01-27 18:05:02.28	3.27	15.27	-37.2	-38.1	23.9	0.00e+00	92	32	0	409993216	48	5803
2026-01-27 18:05:03.29	3.07	15.32	-37.2	-38.1	23.9	0.00e+00	0	32	0	412090368	48	5803
2026-01-27 18:05:04.30	2.88	15.36	-37.3	-38.2	23.8	0.00e+00	92	32	0	414187520	48	5838
2026-01-27 18:05:05.31	2.68	15.41	-37.4	-38.3	23.6	0.00e+00	0	32	0	416284672	48	5924
2026-01-27 18:05:06.32	2.48	15.45	-37.5	-38.4	23.6	0.00e+00	0	32	0	418381824	48	5997
2026-01-27 18:05:07.33	2.29	15.50	-37.7	-38.6	23.7	0.00e+00	0	32	0	419430400	48	6120
2026-01-27 18:05:08.34	2.09	15.55	-37.6	-38.5	23.7	0.00e+00	2	32	0	421527552	48	6038
2026-01-27 18:05:09.35	1.89	15.59	-37.6	-38.5	23.6	0.00e+00	0	32	0	423624704	48	6054
2026-01-27 18:05:10.36	1.69	15.63	-37.6	-38.5	23.6	0.00e+00	20	32	0	425721856	48	6056
2026-01-27 18:05:11.37	1.49	15.68	-37.6	-38.5	23.6	0.00e+00	92	32	0	427819008	48	6057
2026-01-27 18:05:12.37	1.29	15.72	-37.6	-38.6	23.6	0.00e+00	21	32	0	428867584	48	6110
2026-01-27 18:05:13.38	1.09	15.77	-37.7	-38.7	23.6	0.00e+00	90	32	0	430964736	48	6177
2026-01-27 18:05:14.39	0.89	15.81	-37.8	-38.7	23.5	0.00e+00	0	32	0	433061888	48	6215
2026-01-27 18:05:15.40	0.69	15.85	-37.4	-38.3	23.9	0.00e+00	2	32	0	435159040	48	5920
2026-01-27 18:05:16.41	0.49	15.90	-37.6	-38.5	23.6	0.00e+00	17	32	0	437256192	48	6082
2026-01-27 18:05:17.42	0.29	15.94	-37.4	-38.3	23.8	0.00e+00	22	32	0	438304768	48	5922
2026-01-27 18:05:18.43	0.08	15.98	-37.6	-38.5	23.7	0.00e+00	91	32	0	440401920	48	6045
2026-01-27 18:05:19.44	359.88	16.02	-37.5	-38.4	23.4	0.00e+00	60	32	0	442499072	48	6000
2026-01-27 18:05:20.45	359.67	16.07	-37.7	-38.6	23.6	0.00e+00	92	32	0	444596224	48	6125
2026-01-27 18:05:21.46	359.47	16.11	-37.5	-38.4	23.6	0.00e+00	60	32	0	446693376	48	6016
2026-01-27 18:05:22.47	359.26	16.15	-37.4	-38.2	23.8	0.00e+00	6	32	0	447741952	48	5887
2026-01-27 18:05:23.48	359.05	16.19	-37.3	-38.1	24.0	0.00e+00	0	32	0	449839104	48	5817
2026-01-27 18:05:24.49	358.85	16.23	-37.1	-38.0	24.1	0.00e+00	6	32	0	451936256	48	5720
2026-01-27 18:05:25.50	358.64	16.27	-37.1	-37.9	24.1	0.00e+00	92	32	0	454033408	48	5667
2026-01-27 18:05:26.51	358.43	16.31	-36.9	-37.7	24.3	0.00e+00	6	32	0	456130560	48	5565
2026-01-27 18:05:27.51	358.22	16.35	-36.9	-37.7	24.3	0.00e+00	92	32	0	457179136	48	5555
2026-01-27 18:05:28.52	358.01	16.39	-37.0	-37.9	24.2	0.00e+00	1	32	0	459276288	48	5636
2026-01-27 18:05:29.54	357.80	16.43	-36.8	-37.7	24.3	0.00e+00	0	32	0	461373440	48	5512
2026-01-27 18:05:30.55	357.59	16.47	-37.0	-37.8	24.3	0.00e+00	16	32	0	463470592	48	5602
2026-01-27 18:05:31.55	357.38	16.51	-36.9	-37.7	24.3	0.00e+00	15	32	0	465567744	48	5520
2026-01-27 18:05:32.57	357.17	16.54	-36.9	-37.8	24.3	0.00e+00	15	32	0	467664896	48	5581
2026-01-27 18:05:33.58	356.96	16.58	-37.0	-37.9	24.1	0.00e+00	17	32	0	468713472	48	5665
2026-01-27 18:05:34.59	356.74	16.62	-37.0	-37.9	24.1	0.00e+00	90	32	0	470810624	48	5651
2026-01-27 18:05:35.60	356.53	16.66	-37.1	-37.9	24.1	0.00e+00	70	32	0	472907776	48	5673
2026-01-27 18:05:36.61	356.32	16.69	-37.2	-38.1	24.1	0.00e+00	92	32	0	475004928	48	5764
2026-01-27 18:05:37.61	356.11	16.73	-37.2	-38.0	24.0	0.00e+00	5	32	0	477102080	48	5760
2026-01-27 18:05:38.62	355.89	16.76	-37.2	-38.0	24.1	0.00e+00	20	32	0	478150656	48	5751
2026-01-27 18:05:39.63	355.68	16.80	-37.0	-37.8	24.2	0.00e+00	84	32	0	480247808	48	5607
2026-01-27 18:05:40.65	355.46	16.84	-37.0	-37.8	24.3	0.00e+00	65	32	0	482344960	48	5595
2026-01-27 18:05:41.66	355.24	16.87	-37.0	-37.8	24.2	0.00e+00	92	32	0	484442112	48	5619
2026-01-27 18:05:42.67	355.02	16.90	-37.1	-38.0	24.1	0.00e+00	6	32	0	486539264	48	5738
2026-01-27 18:05:43.68	354.81	16.94	-37.1	-37.9	24.1	0.00e+00	92	32	0	487587840	48	5680
2026-01-27 18:05:44.69	354.59	16.97	-37.0	-37.8	24.2	0.00e+00	7	32	0	489684992	48	5616
2026-01-27 18:05:45.70	354.37	17.01	-36.9	-37.8	24.2	0.00e+00	0	32	0	491782144	48	5578
2026-01-27 18:05:46.71	354.15	17.04	-36.8	-37.6	24.4	0.00e+00	0	32	0	493879296	48	5484
2026-01-27 18:05:47.71	353.93	17.07	-36.9	-37.7	24.3	0.00e+00	6	32	0	495976448	46	6219
2026-01-27 18:05:48.72	353.71	17.10	-36.9	-37.8	24.3	0.00e+00	91	32	0	497025024	46	6251
2026-01-27 18:05:49.73	353.49	17.13	-36.9	-37.8	24.3	0.00e+00	6	32	0	499122176	46	6271
2026-01-27 18:05:50.74	353.27	17.17	-37.1	-37.9	24.1	0.00e+00	92	32	0	501219328	46	6389
2026-01-27 18:05:51.75	353.05	17.20	-37.0	-37.8	24.2	0.00e+00	22	32	0	503316480	46	6301
2026-01-27 18:05:52.75	352.83	17.23	-36.9	-37.8	24.3	0.00e+00	22	32	0	505413632	46	6259
2026-01-27 18:05:53.77	352.61	17.26	-37.1	-37.9	24.2	0.00e+00	22	32	0	506462208	46	6374
2026-01-27 18:05:54.78	352.39	17.29	-37.1	-37.9	24.1	0.00e+00	21	32	0	508559360	46	6385
2026-01-27 18:05:55.79	352.16	17.32	-37.1	-37.9	24.2	0.00e+00	2	32	0	510656512	46	6367
2026-01-27 18:05:56.80	351.94	17.35	-37.2	-38.1	24.0	0.00e+00	60	32	0	512753664	46	6493
2026-01-27 18:05:57.81	351.72	17.37	-37.2	-38.1	24.0	0.00e+00	90	32	0	514850816	46	6514
2026-01-27 18:05:58.82	351.49	17.40	-37.2	-38.0	24.1	0.00e+00	64	32	0	515899392	46	6450
2026-01-27 18:05:59.83	351.27	17.43	-37.1	-38.0	24.2	0.00e+00	92	32	0	517996544	46	6423
2026-01-27 18:06:00.84	351.04	17.46	-37.0	-37.9	24.3	0.00e+00	0	32	0	520093696	46	6334
2026-01-27 18:06:01.85	350.82	17.48	-37.0	-37.9	24.3	0.00e+00	0	32	0	522190848	46	6342
2026-01-27 18:06:02.86	350.59	17.51	-37.1	-37.9	24.2	0.00e+00	64	32	0	524288000	46	6384
2026-01-27 18:06:03.87	350.36	17.54	-37.0	-37.8	24.3	0.00e+00	60	32	0	525336576	46	6314
2026-01-27 18:06:04.88	350.14	17.56	-37.1	-37.9	24.2	0.00e+00	92	32	0	527433728	46	6358
2026-01-27 18:06:05.88	349.91	17.59	-37.1	-37.9	24.2	0.00e+00	59	32	0	529530880	46	6366
2026-01-27 18:06:06.89	349.68	17.61	-37.1	-37.9	24.2	0.00e+00	90	32	0	531628032	46	6354
2026-01-27 18:06:07.90	349.46	17.64	-37.1	-38.0	23.9	0.00e+00	0	32	0	533725184	46	6415
2026-01-27 18:06:08.91	349.23	17.66	-37.2	-38.1	24.1	0.00e+00	0	32	0	535822336	46	6474
2026-01-27 18:06:09.92	349.00	17.68	-37.1	-38.0	24.1	0.00e+00	0	32	0	536870912	46	6426
2026-01-27 18:06:10.93	348.77	17.71	-37.2	-38.1	24.0	0.00e+00	0	32	0	538968064	46	6491
2026-01-27 18:06:11.94	348.54	17.73	-37.4	-38.3	23.8	0.00e+00	92	32	0	541065216	46	6641
2026-01-27 18:06:12.95	348.31	17.75	-37.6	-38.5	23.6	0.00e+00	22	32	0	543162368	46	6796
2026-01-27 18:06:13.96	348.08	17.77	-37.9	-38.8	23.5	0.00e+00	92	32	0	545259520	48	6283
2026-01-27 18:06:14.97	347.85	17.79	-37.9	-38.8	23.4	0.00e+00	1	32	0	546308096	48	6295
2026-01-27 18:06:15.98	347.62	17.81	-38.0	-38.9	23.4	0.00e+00	69	32	0	548405248	48	6339
2026-01-27 18:06:16.99	347.39	17.83	-37.8	-38.7	23.5	0.00e+00	21	32	0	550502400	48	6210
2026-01-27 18:06:17.99	347.16	17.85	-37.8	-38.7	23.5	0.00e+00	21	32	0	552599552	48	6209
2026-01-27 18:06:19.00	346.93	17.87	-37.8	-38.7	23.5	0.00e+00	4	32	0	554696704	48	6223
2026-01-27 18:06:20.01	346.70	17.89	-37.9	-38.8	23.4	0.00e+00	22	32	0	555745280	48	6275
2026-01-27 18:06:21.02	346.47	17.91	-38.0	-38.9	23.4	0.00e+00	90	32	0	557842432	48	6333
2026-01-27 18:06:22.03	346.23	17.93	-37.8	-38.7	23.5	0.00e+00	22	32	0	559939584	48	6227
2026-01-27 18:06:23.04	346.00	17.94	-37.9	-38.8	23.5	0.00e+00	92	32	0	562036736	48	6275
2026-01-27 18:06:24.05	345.77	17.96	-37.9	-38.8	23.5	0.00e+00	0	32	0	564133888	48	6272
2026-01-27 18:06:25.06	345.53	17.98	-37.6	-38.5	23.7	0.00e+00	0	32	0	565182464	48	6076
2026-01-27 18:06:26.07	345.30	17.99	-37.7	-38.6	23.5	0.00e+00	0	32	0	567279616	48	6150
2026-01-27 18:06:27.08	345.07	18.01	-37.9	-38.9	23.4	0.00e+00	0	32	0	569376768	48	6324
2026-01-27 18:06:28.09	344.83	18.02	-38.1	-39.0	23.2	0.00e+00	92	32	0	571473920	48	6432
2026-01-27 18:06:29.09	344.60	18.04	-38.3	-39.3	23.0	0.00e+00	0	32	0	573571072	48	6617
2026-01-27 18:06:30.10	344.37	18.05	-38.2	-39.1	23.2	0.00e+00	90	32	0	574619648	48	6520
2026-01-27 18:06:31.11	344.13	18.07	-38.2	-39.1	23.1	0.00e+00	0	32	0	576716800	48	6535
2026-01-27 18:06:32.12	343.90	18.08	-38.1	-39.1	23.2	0.00e+00	0	32	0	578813952	48	6474
2026-01-27 18:06:33.13	343.66	18.09	-38.1	-39.0	23.2	0.00e+00	0	32	0	580911104	48	6453
2026-01-27 18:06:34.14	343.43	18.10	-38.1	-39.0	23.2	0.00e+00	0	32	0	583008256	48	6459
2026-01-27 18:06:35.15	343.19	18.12	-38.2	-39.1	23.1	0.00e+00	15	32	0	584056832	48	6528
2026-01-27 18:06:36.16	342.96	18.13	-38.2	-39.1	23.1	0.00e+00	22	32	0	586153984	48	6537
2026-01-27 18:06:37.17	342.72	18.14	-38.3	-39.2	23.1	0.00e+00	92	32	0	588251136	48	6609
2026-01-27 18:06:38.18	342.49	18.15	-38.3	-39.2	23.0	0.00e+00	0	32	0	590348288	48	6603
2026-01-27 18:06:39.19	342.25	18.16	-38.2	-39.2	23.1	0.00e+00	17	32	0	592445440	48	6558
2026-01-27 18:06:40.20	342.01	18.17	-38.1	-39.1	23.1	0.00e+00	17	32	0	593494016	48	6489
2026-01-27 18:06:41.20	341.78	18.17	-38.3	-39.3	22.9	0.00e+00	22	33	0	595591168	48	6619
2026-01-27 18:06:42.21	341.54	18.18	-38.0	-38.9	23.3	0.00e+00	0	32	0	597688320	48	6381
2026-01-27 18:06:43.23	341.30	18.19	-38.0	-38.9	23.3	0.00e+00	2	32	0	599785472	48	6351
2026-01-27 18:06:44.24	341.07	18.20	-38.1	-39.0	23.2	0.00e+00	92	32	0	601882624	48	6432
2026-01-27 18:06:45.25	340.83	18.20	-38.1	-39.1	23.1	0.00e+00	0	32	0	603979776	48	6472
2026-01-27 18:06:46.26	340.59	18.21	-38.2	-39.2	23.0	0.00e+00	92	32	0	605028352	48	6547
2026-01-27 18:06:47.27	340.36	18.21	-38.2	-39.2	23.0	0.00e+00	65	32	0	607125504	48	6574
2026-01-27 18:06:48.28	340.12	18.22	-38.2	-39.2	23.0	0.00e+00	0	32	0	609222656	48	6576
2026-01-27 18:06:49.29	339.88	18.22	-38.3	-39.3	23.0	0.00e+00	0	32	0	611319808	48	6659
2026-01-27 18:06:50.30	339.64	18.23	-38.1	-39.1	23.2	0.00e+00	0	32	0	613416960	48	6467
2026-01-27 18:06:51.31	339.41	18.23	-38.0	-38.9	23.2	0.00e+00	92	32	0	614465536	48	6344
2026-01-27 18:06:52.32	339.17	18.23	-37.9	-38.8	23.3	0.00e+00	0	32	0	616562688	48	6275
2026-01-27 18:06:53.32	338.93	18.24	-38.0	-38.9	23.3	0.00e+00	92	32	0	618659840	48	6348
2026-01-27 18:06:54.34	338.69	18.24	-38.0	-38.9	23.2	0.00e+00	0	32	0	620756992	48	6348
2026-01-27 18:06:55.34	338.46	18.24	-38.1	-39.0	23.2	0.00e+00	17	32	0	622854144	48	6419
2026-01-27 18:06:56.35	338.22	18.24	-38.3	-39.2	23.0	0.00e+00	0	32	0	623902720	48	6593
2026-01-27 18:06:57.36	337.98	18.24	-38.2	-39.2	23.0	0.00e+00	0	32	0	625999872	48	6559
2026-01-27 18:06:58.37	337.75	18.24	-38.4	-39.3	22.9	0.00e+00	57	32	0	628097024	48	6685
2026-01-27 18:06:59.38	337.51	18.24	-38.4	-39.3	22.9	0.00e+00	0	32	0	630194176	48	6684
2026-01-27 18:07:00.39	337.27	18.24	-38.3	-39.3	22.9	0.00e+00	91	32	0	632291328	48	6635
2026-01-27 18:07:01.40	337.03	18.24	-38.4	-39.4	22.8	0.00e+00	59	32	0	633339904	48	6708
2026-01-27 18:07:02.41	336.80	18.24	-38.2	-39.1	22.6	0.00e+00	14	32	0	635437056	48	6498
2026-01-27 18:07:03.42	336.56	18.23	-38.1	-39.1	22.9	0.00e+00	17	32	0	637534208	48	6480
2026-01-27 18:07:04.43	336.32	18.23	-38.0	-38.9	23.2	0.00e+00	66	32	0	639631360	48	6363
2026-01-27 18:07:05.44	336.09	18.23	-37.8	-38.7	23.4	0.00e+00	89	32	0	641728512	48	6244
2026-01-27 18:07:06.45	335.85	18.22	-37.8	-38.7	23.5	0.00e+00	0	32	0	642777088	48	6198
2026-01-27 18:07:07.46	335.61	18.22	-37.8	-38.7	23.4	0.00e+00	92	32	0	644874240	48	6191
2026-01-27 18:07:08.47	335.37	18.21	-37.8	-38.7	23.4	0.00e+00	60	32	0	646971392	48	6190
2026-01-27 18:07:09.47	335.14	18.21	-37.9	-38.8	23.3	0.00e+00	90	32	0	649068544	48	6261
2026-01-27 18:07:10.48	334.90	18.20	-37.7	-38.7	23.5	0.00e+00	67	32	0	651165696	48	6175
2026-01-27 18:07:11.49	334.67	18.19	-37.8	-38.7	23.6	0.00e+00	6	32	0	652214272	48	6190
2026-01-27 18:07:12.50	334.43	18.19	-37.7	-38.6	23.6	0.00e+00	0	32	0	654311424	48	6171
2026-01-27 18:07:13.51	334.19	18.18	-37.7	-38.6	23.5	0.00e+00	5	32	0	656408576	48	6165
2026-01-27 18:07:14.52	333.96	18.17	-37.8	-38.7	23.5	0.00e+00	92	32	0	658505728	48	6220
2026-01-27 18:07:15.53	333.72	18.16	-37.9	-38.8	23.4	0.00e+00	0	32	0	660602880	48	6269
2026-01-27 18:07:16.54	333.48	18.15	-37.8	-38.7	23.5	0.00e+00	92	32	0	661651456	48	6194
2026-01-27 18:07:17.55	333.25	18.14	-38.0	-38.9	23.4	0.00e+00	0	32	0	663748608	48	6368
2026-01-27 18:07:18.56	333.01	18.13	-37.7	-38.6	23.6	0.00e+00	7	32	0	665845760	48	6158
2026-01-27 18:07:19.57	332.77	18.12	-37.8	-38.7	23.5	0.00e+00	15	32	0	667942912	48	6226
2026-01-27 18:07:20.58	332.54	18.11	-37.8	-38.7	23.6	0.00e+00	6	32	0	670040064	48	6188
2026-01-27 18:07:21.59	332.30	18.10	-37.6	-38.5	23.7	0.00e+00	91	32	0	672137216	48	6082
2026-01-27 18:07:22.60	332.07	18.09	-37.4	-38.3	23.9	0.00e+00	62	32	0	673185792	48	5897
2026-01-27 18:07:23.61	331.83	18.07	-37.2	-38.0	24.1	0.00e+00	90	32	0	675282944	48	5757
2026-01-27 18:07:24.62	331.60	18.06	-37.2	-38.1	23.7	0.00e+00	21	32	0	677380096	48	5764
2026-01-27 18:07:25.63	331.36	18.05	-37.2	-38.1	24.2	0.00e+00	84	32	0	679477248	48	5782
2026-01-27 18:07:26.64	331.13	18.03	-37.1	-38.0	24.1	0.00e+00	71	32	0	681574400	48	5729
2026-01-27 18:07:27.65	330.90	18.02	-37.1	-38.0	24.1	0.00e+00	2	32	0	682622976	48	5727
2026-01-27 18:07:28.66	330.66	18.00	-37.1	-38.0	24.1	0.00e+00	80	32	0	684720128	48	5703
2026-01-27 18:07:29.67	330.43	17.99	-37.1	-37.9	24.3	0.00e+00	6	32	0	686817280	48	5686
2026-01-27 18:07:30.68	330.19	17.97	-37.1	-37.9	24.2	0.00e+00	92	32	0	688914432	48	5669
2026-01-27 18:07:31.69	329.96	17.96	-37.1	-37.9	24.3	0.00e+00	7	32	0	691011584	48	5691
2026-01-27 18:07:32.70	329.73	17.94	-37.1	-37.9	24.2	0.00e+00	76	32	0	692060160	48	5680
2026-01-27 18:07:33.71	329.50	17.92	-37.0	-37.9	24.3	0.00e+00	0	32	0	694157312	48	5657
2026-01-27 18:07:34.72	329.26	17.90	-37.0	-37.8	24.3	0.00e+00	5	32	0	696254464	48	5591
2026-01-27 18:07:35.73	329.03	17.88	-37.0	-37.9	24.0	0.00e+00	6	32	0	698351616	48	5648
2026-01-27 18:07:36.74	328.80	17.87	-36.8	-37.6	24.5	0.00e+00	17	32	0	700448768	46	6127
2026-01-27 18:07:37.75	328.57	17.85	-36.7	-37.5	24.5	0.00e+00	92	32	0	701497344	46	6091
2026-01-27 18:07:38.76	328.34	17.83	-36.8	-37.6	24.4	0.00e+00	0	32	0	703594496	46	6152
2026-01-27 18:07:39.77	328.11	17.81	-36.7	-37.6	24.5	0.00e+00	92	32	0	705691648	46	6114
2026-01-27 18:07:40.78	327.87	17.78	-36.6	-37.5	24.6	0.00e+00	1	32	0	707788800	46	6040
2026-01-27 18:07:41.79	327.64	17.76	-36.5	-37.3	24.8	0.00e+00	60	32	0	709885952	46	5960
2026-01-27 18:07:42.80	327.41	17.74	-36.7	-37.5	24.6	0.00e+00	66	32	0	710934528	46	6051
2026-01-27 18:07:43.81	327.18	17.72	-36.8	-37.6	24.5	0.00e+00	66	32	0	713031680	46	6144
2026-01-27 18:07:44.82	326.96	17.70	-36.9	-37.7	24.4	0.00e+00	92	32	0	715128832	46	6231
2026-01-27 18:07:45.83	326.73	17.67	-37.0	-37.8	24.2	0.00e+00	58	32	0	717225984	46	6312
2026-01-27 18:07:46.84	326.50	17.65	-37.1	-38.0	24.2	0.00e+00	92	32	0	719323136	46	6403
2026-01-27 18:07:47.85	326.27	17.63	-37.2	-38.0	24.1	0.00e+00	61	32	0	720371712	46	6439
2026-01-27 18:07:48.86	326.04	17.60	-37.1	-37.9	24.2	0.00e+00	92	32	0	722468864	46	6387
2026-01-27 18:07:49.87	325.81	17.58	-37.1	-38.0	24.1	0.00e+00	61	32	0	724566016	46	6423
2026-01-27 18:07:50.87	325.59	17.55	-37.2	-38.0	24.1	0.00e+00	0	32	0	726663168	46	6450
2026-01-27 18:07:51.88	325.36	17.53	-37.1	-38.0	24.2	0.00e+00	76	32	0	728760320	46	6431
2026-01-27 18:07:52.89	325.14	17.50	-37.3	-38.2	24.1	0.00e+00	0	32	0	729808896	46	6547
2026-01-27 18:07:53.90	324.91	17.47	-37.3	-38.2	24.0	0.00e+00	92	32	0	731906048	46	6545
2026-01-27 18:07:54.91	324.68	17.45	-37.3	-38.2	24.0	0.00e+00	0	32	0	734003200	46	6571
2026-01-27 18:07:55.91	324.46	17.42	-37.4	-38.3	24.0	0.00e+00	92	32	0	736100352	46	6616
2026-01-27 18:07:56.93	324.24	17.39	-37.4	-38.2	23.9	0.00e+00	2	32	0	738197504	46	6602
2026-01-27 18:07:57.93	324.01	17.36	-37.4	-38.3	23.9	0.00e+00	2	32	0	739246080	46	6630
2026-01-27 18:07:58.94	323.79	17.33	-37.5	-38.3	23.8	0.00e+00	0	32	0	741343232	46	6683
2026-01-27 18:07:59.95	323.57	17.31	-37.5	-38.4	23.9	0.00e+00	2	32	0	743440384	46	6707
2026-01-27 18:08:00.96	323.34	17.28	-37.5	-38.4	23.7	0.00e+00	91	32	0	745537536	46	6744
2026-01-27 18:08:01.97	323.12	17.25	-37.6	-38.4	23.7	0.00e+00	19	32	0	747634688	46	6767
2026-01-27 18:08:02.98	322.90	17.22	-37.8	-38.7	23.6	0.00e+00	92	32	0	748683264	48	6180
2026-01-27 18:08:03.99	322.68	17.18	-37.9	-38.8	23.5	0.00e+00	60	32	0	750780416	48	6264
2026-01-27 18:08:05.00	322.45	17.15	-38.0	-38.9	23.3	0.00e+00	22	32	0	752877568	48	6383
2026-01-27 18:08:06.01	322.23	17.12	-38.1	-39.0	23.3	0.00e+00	16	32	0	754974720	48	6436
2026-01-27 18:08:07.02	322.01	17.09	-38.1	-39.0	23.3	0.00e+00	67	32	0	757071872	48	6435
2026-01-27 18:08:08.03	321.79	17.06	-38.3	-39.2	23.0	0.00e+00	9	32	0	758120448	48	6594
2026-01-27 18:08:09.04	321.57	17.03	-38.1	-39.0	23.3	0.00e+00	2	32	0	760217600	48	6420
2026-01-27 18:08:10.05	321.36	16.99	-38.1	-39.0	23.2	0.00e+00	92	32	0	762314752	48	6463
2026-01-27 18:08:11.06	321.14	16.96	-38.1	-39.0	23.3	0.00e+00	0	32	0	764411904	48	6463
2026-01-27 18:08:12.07	320.92	16.92	-38.1	-39.1	23.3	0.00e+00	92	32	0	766509056	48	6476
2026-01-27 18:08:13.08	320.70	16.89	-38.3	-39.2	23.1	0.00e+00	2	32	0	768606208	48	6603
2026-01-27 18:08:14.09	320.49	16.86	-38.2	-39.1	23.2	0.00e+00	0	32	0	769654784	48	6504
2026-01-27 18:08:15.09	320.27	16.82	-38.2	-39.2	23.2	0.00e+00	0	32	0	771751936	48	6557
2026-01-27 18:08:16.10	320.06	16.79	-38.1	-39.0	23.2	0.00e+00	0	32	0	773849088	48	6445
2026-01-27 18:08:17.11	319.84	16.75	-38.2	-39.2	23.1	0.00e+00	92	32	0	775946240	48	6541
2026-01-27 18:08:18.12	319.63	16.71	-38.0	-39.0	23.3	0.00e+00	0	32	0	778043392	48	6394
2026-01-27 18:08:19.13	319.41	16.68	-38.0	-39.0	23.4	0.00e+00	91	32	0	779091968	48	6393
2026-01-27 18:08:20.14	319.20	16.64	-38.0	-38.9	23.4	0.00e+00	21	32	0	781189120	48	6332
2026-01-27 18:08:21.15	318.98	16.60	-37.7	-38.6	23.7	0.00e+00	20	32	0	783286272	48	6104
2026-01-27 18:08:22.16	318.77	16.57	-37.6	-38.5	23.5	0.00e+00	0	32	0	785383424	48	6072
2026-01-27 18:08:23.17	318.56	16.53	-37.6	-38.5	23.7	0.00e+00	1	32	0	787480576	48	6084
2026-01-27 18:08:24.18	318.35	16.49	-37.6	-38.5	23.7	0.00e+00	90	32	0	788529152	48	6087
2026-01-27 18:08:25.19	318.14	16.45	-37.8	-38.7	23.6	0.00e+00	22	32	0	790626304	48	6188
2026-01-27 18:08:26.19	317.93	16.41	-37.9	-38.8	23.5	0.00e+00	90	32	0	792723456	48	6295
2026-01-27 18:08:27.20	317.72	16.37	-38.0	-38.9	23.4	0.00e+00	0	32	0	794820608	48	6331
2026-01-27 18:08:28.21	317.51	16.33	-37.9	-38.8	23.5	0.00e+00	22	32	0	796917760	48	6256
2026-01-27 18:08:29.22	317.30	16.29	-37.9	-38.8	23.5	0.00e+00	60	32	0	797966336	48	6282
2026-01-27 18:08:30.23	317.09	16.25	-37.8	-38.7	23.5	0.00e+00	16	32	0	800063488	48	6244
2026-01-27 18:08:31.24	316.88	16.21	-37.8	-38.7	23.5	0.00e+00	79	32	0	802160640	48	6208
2026-01-27 18:08:32.25	316.68	16.17	-37.9	-38.8	23.5	0.00e+00	67	32	0	804257792	48	6302
2026-01-27 18:08:33.26	316.47	16.13	-37.9	-38.8	23.4	0.00e+00	92	32	0	806354944	48	6270
2026-01-27 18:08:34.26	316.27	16.09	-37.9	-38.8	23.4	0.00e+00	2	32	0	807403520	48	6287
2026-01-27 18:08:35.27	316.06	16.05	-38.1	-39.0	22.9	0.00e+00	71	32	0	809500672	48	6428
2026-01-27 18:08:36.28	315.85	16.01	-37.8	-38.7	23.5	0.00e+00	60	32	0	811597824	48	6235
2026-01-27 18:08:37.29	315.65	15.97	-37.9	-38.9	23.4	0.00e+00	2	32	0	813694976	48	6318
2026-01-27 18:08:38.30	315.45	15.92	-37.7	-38.6	23.4	0.00e+00	2	32	0	815792128	48	6117
2026-01-27 18:08:39.30	315.25	15.88	-37.7	-38.6	23.6	0.00e+00	0	32	0	816840704	48	6130
2026-01-27 18:08:40.31	315.04	15.84	-37.8	-38.7	23.6	0.00e+00	90	32	0	818937856	48	6210
2026-01-27 18:08:41.32	314.84	15.79	-37.8	-38.7	23.5	0.00e+00	0	32	0	821035008	48	6216
2026-01-27 18:08:42.33	314.64	15.75	-37.8	-38.7	23.5	0.00e+00	90	32	0	823132160	48	6245
2026-01-27 18:08:43.34	314.44	15.71	-38.0	-38.9	23.4	0.00e+00	2	32	0	825229312	48	6390
2026-01-27 18:08:44.35	314.24	15.66	-38.1	-39.1	23.2	0.00e+00	0	32	0	826277888	48	6471
2026-01-27 18:08:45.36	314.04	15.62	-38.1	-39.0	23.2	0.00e+00	0	32	0	828375040	48	6458
2026-01-27 18:08:46.37	313.84	15.57	-38.1	-39.1	23.1	0.00e+00	0	32	0	830472192	48	6490
2026-01-27 18:08:47.38	313.64	15.53	-38.2	-39.1	23.2	0.00e+00	13	32	0	832569344	48	6510
2026-01-27 18:08:48.39	313.44	15.48	-38.3	-39.3	23.0	0.00e+00	0	32	0	834666496	48	6622
2026-01-27 18:08:49.39	313.25	15.44	-38.0	-39.0	23.3	0.00e+00	90	32	0	836763648	48	6396
2026-01-27 18:08:50.40	313.05	15.39	-38.0	-39.0	23.3	0.00e+00	0	32	0	837812224	48	6403
2026-01-27 18:08:51.41	312.86	15.34	-38.1	-39.0	23.4	0.00e+00	0	32	0	839909376	48	6419
2026-01-27 18:08:52.42	312.66	15.30	-37.9	-38.8	23.5	0.00e+00	63	32	0	842006528	48	6257
2026-01-27 18:08:53.43	312.47	15.25	-38.0	-38.9	23.3	0.00e+00	60	32	0	844103680	48	6376
2026-01-27 18:08:54.44	312.27	15.20	-38.2	-39.1	23.2	0.00e+00	0	32	0	845152256	48	6539
2026-01-27 18:08:55.45	312.08	15.16	-38.4	-39.4	22.9	0.00e+00	4	32	0	847249408	48	6733
2026-01-27 18:08:56.45	311.89	15.11	-38.5	-39.4	22.8	0.00e+00	92	32	0	849346560	48	6765
2026-01-27 18:08:57.46	311.69	15.06	-38.5	-39.5	22.8	0.00e+00	6	32	0	851443712	48	6790
2026-01-27 18:08:58.47	311.50	15.01	-38.6	-39.6	22.7	0.00e+00	85	32	0	853540864	48	6864
2026-01-27 18:08:59.48	311.31	14.97	-38.6	-39.6	22.8	0.00e+00	0	32	0	854589440	48	6899
2026-01-27 18:09:00.49	311.12	14.92	-38.6	-39.6	22.8	0.00e+00	1	32	0	856686592	48	6864
2026-01-27 18:09:01.50	310.93	14.87	-38.7	-39.7	22.7	0.00e+00	0	32	0	858783744	50	6193
2026-01-27 18:09:02.51	310.74	14.82	-38.4	-39.4	22.8	0.00e+00	1	32	0	860880896	50	5990
2026-01-27 18:09:03.52	310.55	14.77	-38.5	-39.4	22.9	0.00e+00	92	32	0	862978048	50	6009
2026-01-27 18:09:04.53	310.37	14.72	-38.4	-39.4	22.7	0.00e+00	2	32	0	865075200	50	5989
2026-01-27 18:09:05.54	310.18	14.67	-38.6	-39.5	22.7	0.00e+00	92	32	0	866123776	50	6101
2026-01-27 18:09:06.55	309.99	14.62	-38.6	-39.6	22.7	0.00e+00	19	32	0	868220928	50	6132
2026-01-27 18:09:07.56	309.81	14.57	-38.7	-39.7	22.6	0.00e+00	19	32	0	870318080	50	6232
2026-01-27 18:09:08.57	309.62	14.52	-38.8	-39.8	22.5	0.00e+00	3	32	0	872415232	50	6313
2026-01-27 18:09:09.58	309.44	14.47	-38.9	-39.9	22.4	0.00e+00	20	32	0	874512384	50	6364
2026-01-27 18:09:10.59	309.25	14.42	-38.9	-39.9	22.4	0.00e+00	0	32	0	875560960	50	6366
2026-01-27 18:09:11.59	309.07	14.37	-39.1	-40.1	22.3	0.00e+00	68	32	0	877658112	50	6516
2026-01-27 18:09:12.60	308.89	14.32	-39.1	-40.2	22.2	0.00e+00	92	32	0	879755264	50	6553
2026-01-27 18:09:13.61	308.70	14.27	-39.2	-40.2	22.2	0.00e+00	6	32	0	881852416	50	6580
2026-01-27 18:09:14.62	308.52	14.22	-39.2	-40.2	22.2	0.00e+00	18	32	0	883949568	50	6593
2026-01-27 18:09:15.63	308.34	14.17	-39.2	-40.2	22.1	0.00e+00	16	32	0	884998144	50	6603
2026-01-27 18:09:16.64	308.16	14.12	-39.3	-40.4	22.0	0.00e+00	4	32	0	887095296	50	6745
2026-01-27 18:09:17.65	307.98	14.07	-39.4	-40.5	21.9	0.00e+00	91	32	0	889192448	50	6817
2026-01-27 18:09:18.66	307.80	14.02	-39.3	-40.4	22.0	0.00e+00	3	32	0	891289600	50	6730
2026-01-27 18:09:19.67	307.62	13.96	-39.2	-40.3	22.0	0.00e+00	92	32	0	893386752	50	6642
2026-01-27 18:09:20.67	307.45	13.91	-39.4	-40.5	21.9	0.00e+00	4	32	0	894435328	50	6770
2026-01-27 18:09:21.69	307.27	13.86	-39.2	-40.2	22.1	0.00e+00	92	32	0	896532480	50	6602
2026-01-27 18:09:22.69	307.09	13.81	-39.2	-40.2	22.1	0.00e+00	4	32	0	898629632	50	6591
2026-01-27 18:09:23.71	306.92	13.75	-39.2	-40.3	22.1	0.00e+00	5	32	0	900726784	50	6627
2026-01-27 18:09:24.71	306.74	13.70	-39.0	-40.0	22.3	0.00e+00	6	32	0	902823936	50	6456
2026-01-27 18:09:25.72	306.57	13.65	-39.0	-40.0	22.3	0.00e+00	6	32	0	903872512	50	6443
2026-01-27 18:09:26.73	306.39	13.60	-39.2	-40.2	22.1	0.00e+00	92	32	0	905969664	50	6609
2026-01-27 18:09:27.74	306.22	13.54	-39.5	-40.6	21.8	0.00e+00	7	32	0	908066816	50	6854
2026-01-27 18:09:28.75	306.05	13.49	-39.6	-40.7	21.8	0.00e+00	92	32	0	910163968	50	6937
2026-01-27 18:09:29.76	305.88	13.44	-39.8	-40.9	21.6	0.00e+00	13	32	0	912261120	52	6367
2026-01-27 18:09:30.77	305.70	13.38	-39.9	-41.0	21.4	0.00e+00	6	32	0	913309696	52	6444
2026-01-27 18:09:31.78	305.53	13.33	-40.0	-41.1	21.3	0.00e+00	12	32	0	915406848	52	6532
2026-01-27 18:09:32.79	305.36	13.27	-40.0	-41.2	21.3	0.00e+00	68	32	0	917504000	52	6591
2026-01-27 18:09:33.80	305.19	13.22	-39.9	-41.0	21.4	0.00e+00	92	32	0	919601152	52	6423
2026-01-27 18:09:34.81	305.02	13.17	-39.7	-40.9	21.6	0.00e+00	68	32	0	921698304	52	6320
2026-01-27 18:09:35.82	304.86	13.11	-39.8	-40.9	21.5	0.00e+00	92	33	0	922746880	52	6374
2026-01-27 18:09:36.83	304.69	13.06	-39.8	-40.9	21.5	0.00e+00	13	32	0	924844032	52	6334
2026-01-27 18:09:37.84	304.52	13.00	-39.9	-41.1	21.2	0.00e+00	0	32	0	926941184	52	6482
2026-01-27 18:09:38.85	304.35	12.95	-39.8	-40.9	21.4	0.00e+00	61	33	0	929038336	52	6372
2026-01-27 18:09:39.86	304.19	12.89	-39.8	-41.0	21.4	0.00e+00	63	33	0	931135488	52	6411
2026-01-27 18:09:40.87	304.02	12.84	-39.9	-41.1	21.4	0.00e+00	81	32	0	933232640	52	6495
2026-01-27 18:09:41.87	303.86	12.78	-39.8	-41.0	21.5	0.00e+00	0	32	0	934281216	52	6391
2026-01-27 18:09:42.88	303.70	12.73	-39.9	-41.0	21.4	0.00e+00	92	32	0	936378368	52	6452
2026-01-27 18:09:43.89	303.53	12.67	-39.8	-40.9	21.5	0.00e+00	0	32	0	938475520	52	6357
2026-01-27 18:09:44.90	303.37	12.62	-39.8	-41.0	21.5	0.00e+00	90	32	0	940572672	52	6403
2026-01-27 18:09:45.91	303.21	12.56	-39.9	-41.0	21.4	0.00e+00	0	32	0	942669824	52	6438
2026-01-27 18:09:46.92	303.05	12.51	-40.0	-41.2	21.3	0.00e+00	0	33	0	943718400	52	6542
2026-01-27 18:09:47.93	302.89	12.45	-40.0	-41.1	21.3	0.00e+00	0	32	0	945815552	52	6506
2026-01-27 18:09:48.94	302.73	12.40	-39.9	-41.0	21.4	0.00e+00	18	32	0	947912704	52	6458
2026-01-27 18:09:49.95	302.57	12.34	-39.9	-41.0	21.4	0.00e+00	92	32	0	950009856	52	6435
2026-01-27 18:09:50.96	302.41	12.28	-39.9	-41.1	21.3	0.00e+00	17	32	0	952107008	52	6487
2026-01-27 18:09:51.97	302.25	12.23	-40.0	-41.1	21.3	0.00e+00	92	33	0	953155584	52	6524
2026-01-27 18:09:52.98	302.09	12.17	-39.9	-41.1	21.4	0.00e+00	0	33	0	955252736	52	6474
2026-01-27 18:09:53.99	301.93	12.12	-40.0	-41.1	21.3	0.00e+00	17	32	0	957349888	52	6533
2026-01-27 18:09:55.00	301.78	12.06	-40.0	-41.2	21.2	0.00e+00	0	33	0	959447040	52	6560
2026-01-27 18:09:56.01	301.62	12.00	-39.9	-41.0	21.3	0.00e+00	63	32	0	961544192	52	6439
2026-01-27 18:09:57.02	301.47	11.95	-40.0	-41.1	21.3	0.00e+00	21	32	0	962592768	52	6512
2026-01-27 18:09:58.03	301.31	11.89	-39.8	-41.0	21.4	0.00e+00	19	32	0	964689920	52	6420
2026-01-27 18:09:59.04	301.16	11.83	-39.7	-40.8	21.6	0.00e+00	92	33	0	966787072	52	6289
2026-01-27 18:10:00.05	301.00	11.78	-39.6	-40.7	21.7	0.00e+00	0	32	0	968884224	52	6181
2026-01-27 18:10:01.06	300.85	11.72	-39.5	-40.6	21.8	0.00e+00	93	32	0	970981376	52	6169
2026-01-27 18:10:02.07	300.70	11.66	-39.4	-40.5	21.9	0.00e+00	0	32	0	972029952	52	6063
2026-01-27 18:10:03.08	300.55	11.61	-39.4	-40.5	21.9	0.00e+00	0	32	0	974127104	52	6060
2026-01-27 18:10:04.09	300.39	11.55	-39.3	-40.4	22.0	0.00e+00	79	33	0	976224256	52	5992
2026-01-27 18:10:05.09	300.25	11.49	-39.4	-40.5	21.9	0.00e+00	0	32	0	978321408	52	6038
2026-01-27 18:10:06.10	300.10	11.44	-39.2	-40.3	22.0	0.00e+00	91	32	0	980418560	52	5928
2026-01-27 18:10:07.11	299.95	11.38	-39.2	-40.2	22.1	0.00e+00	0	32	0	981467136	52	5880
2026-01-27 18:10:08.12	299.80	11.32	-39.2	-40.2	22.1	0.00e+00	78	32	0	983564288	52	5884
2026-01-27 18:10:09.13	299.65	11.27	-39.0	-40.1	22.3	0.00e+00	0	32	0	985661440	52	5775
2026-01-27 18:10:10.14	299.50	11.21	-39.1	-40.1	22.2	0.00e+00	0	33	0	987758592	52	5785
2026-01-27 18:10:11.15	299.35	11.15	-39.1	-40.2	22.1	0.00e+00	0	32	0	989855744	52	5844
2026-01-27 18:10:12.16	299.21	11.09	-39.0	-40.0	22.3	0.00e+00	0	32	0	990904320	52	5744
2026-01-27 18:10:13.17	299.06	11.04	-39.1	-40.2	22.1	0.00e+00	92	32	0	993001472	52	5843
2026-01-27 18:10:14.18	298.92	10.98	-39.1	-40.1	22.2	0.00e+00	0	32	0	995098624	52	5808
2026-01-27 18:10:15.19	298.77	10.92	-39.1	-40.2	22.0	0.00e+00	90	32	0	997195776	52	5869
2026-01-27 18:10:16.20	298.63	10.86	-39.3	-40.4	22.0	0.00e+00	18	33	0	999292928	52	5971
2026-01-27 18:10:17.21	298.48	10.81	-39.2	-40.2	22.2	0.00e+00	63	33	0	1001390080	52	5877
2026-01-27 18:10:18.22	298.34	10.75	-38.8	-39.8	22.5	0.00e+00	0	32	0	1002438656	52	5592
2026-01-27 18:10:19.23	298.20	10.69	-38.8	-39.8	22.4	0.00e+00	0	32	0	1004535808	52	5587
2026-01-27 18:10:20.24	298.06	10.63	-38.8	-39.8	22.4	0.00e+00	2	32	0	1006632960	52	5589
2026-01-27 18:10:21.25	297.91	10.57	-38.6	-39.6	22.6	0.00e+00	63	33	0	1008730112	50	6163
2026-01-27 18:10:22.26	297.77	10.52	-38.5	-39.5	22.7	0.00e+00	92	32	0	1010827264	50	6073
2026-01-27 18:10:23.27	297.63	10.46	-38.6	-39.6	22.7	0.00e+00	63	33	0	1011875840	50	6127
2026-01-27 18:10:24.28	297.49	10.40	-38.4	-39.4	22.8	0.00e+00	92	32	0	1013972992	50	6018
2026-01-27 18:10:25.29	297.36	10.34	-38.3	-39.3	23.0	0.00e+00	0	33	0	1016070144	50	5899
2026-01-27 18:10:26.30	297.22	10.29	-38.3	-39.2	22.9	0.00e+00	0	33	0	1018167296	50	5896
2026-01-27 18:10:27.31	297.08	10.23	-38.4	-39.4	22.8	0.00e+00	2	33	0	1020264448	50	5972
2026-01-27 18:10:28.32	296.94	10.17	-38.3	-39.2	22.9	0.00e+00	0	32	0	1021313024	50	5879
2026-01-27 18:10:29.33	296.80	10.11	-38.4	-39.4	22.8	0.00e+00	92	32	0	1023410176	50	5991
2026-01-27 18:10:30.34	296.67	10.05	-38.4	-39.4	22.7	0.00e+00	10	32	0	1025507328	50	5972
2026-01-27 18:10:31.35	296.53	10.00	-38.3	-39.2	22.8	0.00e+00	92	33	0	1027604480	50	5896
2026-01-27 18:10:32.36	296.40	9.94	-38.2	-39.1	23.0	0.00e+00	0	32	0	1029701632	50	5805
2026-01-27 18:10:33.37	296.26	9.88	-38.1	-39.0	23.0	0.00e+00	11	32	0	1030750208	50	5754
2026-01-27 18:10:34.38	296.13	9.82	-37.9	-38.8	23.2	0.00e+00	0	32	0	1032847360	50	5620
2026-01-27 18:10:35.39	295.99	9.76	-37.9	-38.8	23.1	0.00e+00	0	32	0	1034944512	50	5608
2026-01-27 18:10:36.40	295.86	9.71	-37.8	-38.8	23.3	0.00e+00	91	32	0	1037041664	50	5575
2026-01-27 18:10:37.41	295.73	9.65	-37.8	-38.7	23.0	0.00e+00	65	33	0	1039138816	50	5550
2026-01-27 18:10:38.42	295.60	9.59	-37.7	-38.6	23.4	0.00e+00	92	33	0	1040187392	48	6156
2026-01-27 18:10:39.43	295.47	9.53	-37.7	-38.6	23.3	0.00e+00	66	32	0	1042284544	48	6118
2026-01-27 18:10:40.43	295.34	9.47	-37.7	-38.7	23.3	0.00e+00	65	32	0	1044381696	48	6185
2026-01-27 18:10:41.45	295.20	9.42	-37.7	-38.6	23.4	0.00e+00	68	32	0	1046478848	48	6131
2026-01-27 18:10:42.45	295.08	9.36	-37.8	-38.7	23.3	0.00e+00	0	32	0	1048576000	48	6215
2026-01-27 18:10:43.46	294.95	9.30	-38.0	-38.9	23.1	0.00e+00	9	32	0	1049624576	48	6347
2026-01-27 18:10:44.47	294.82	9.24	-37.8	-38.8	23.2	0.00e+00	66	32	0	1051721728	48	6257
2026-01-27 18:10:45.48	294.69	9.18	-38.0	-38.9	23.2	0.00e+00	92	32	0	1053818880	48	6364
2026-01-27 18:10:46.49	294.56	9.12	-38.2	-39.1	22.9	0.00e+00	7	32	0	1055916032	48	6524
2026-01-27 18:10:47.50	294.43	9.07	-38.1	-39.1	23.0	0.00e+00	92	32	0	1058013184	48	6472
2026-01-27 18:10:48.51	294.31	9.01	-38.1	-39.0	23.1	0.00e+00	4	32	0	1059061760	48	6452
2026-01-27 18:10:49.52	294.18	8.95	-38.1	-39.0	23.0	0.00e+00	6	32	0	1061158912	48	6444
2026-01-27 18:10:50.53	294.06	8.89	-38.1	-39.1	23.0	0.00e+00	7	32	0	1063256064	48	6483
2026-01-27 18:10:51.54	293.93	8.83	-38.0	-38.9	23.0	0.00e+00	12	32	0	1065353216	48	6389
2026-01-27 18:10:52.55	293.81	8.78	-38.0	-38.9	23.1	0.00e+00	91	32	0	1067450368	48	6384
2026-01-27 18:10:53.56	293.68	8.72	-38.1	-39.1	23.0	0.00e+00	6	32	0	1069547520	48	6494
2026-01-27 18:10:54.57	293.56	8.66	-38.1	-39.1	23.0	0.00e+00	92	32	0	1070596096	48	6489
2026-01-27 18:10:55.58	293.44	8.60	-38.3	-39.2	22.9	0.00e+00	5	32	0	1072693248	48	6603
2026-01-27 18:10:56.59	293.31	8.54	-38.2	-39.2	22.8	0.00e+00	15	32	0	1074790400	48	6547
2026-01-27 18:10:57.59	293.19	8.49	-38.2	-39.2	22.8	0.00e+00	4	32	0	1076887552	48	6591
2026-01-27 18:10:58.60	293.07	8.43	-38.3	-39.3	22.7	0.00e+00	9	32	0	1078984704	48	6684
2026-01-27 18:10:59.61	292.95	8.37	-38.4	-39.4	22.6	0.00e+00	74	32	0	1080033280	48	6721
2026-01-27 18:11:00.62	292.83	8.31	-38.5	-39.5	22.5	0.00e+00	8	32	0	1082130432	48	6804
2026-01-27 18:11:01.63	292.71	8.25	-38.6	-39.6	22.4	0.00e+00	92	32	0	1084227584	48	6912
2026-01-27 18:11:02.64	292.59	8.20	-38.6	-39.7	22.4	0.00e+00	77	32	0	1086324736	48	6934
2026-01-27 18:11:03.64	292.47	8.14	-38.6	-39.7	22.4	0.00e+00	0	32	0	1088421888	48	6947
2026-01-27 18:11:04.65	292.35	8.08	-38.7	-39.7	22.3	0.00e+00	1	32	0	1089470464	48	6986
2026-01-27 18:11:05.66	292.23	8.02	-38.6	-39.6	22.4	0.00e+00	0	32	0	1091567616	48	6882
2026-01-27 18:11:06.68	292.11	7.96	-38.7	-39.8	22.3	0.00e+00	76	32	0	1093664768	48	7027
2026-01-27 18:11:07.68	292.00	7.91	-38.4	-39.4	22.6	0.00e+00	71	32	0	1095761920	48	6754
2026-01-27 18:11:08.70	291.88	7.85	-38.5	-39.6	22.4	0.00e+00	92	32	0	1097859072	48	6851
2026-01-27 18:11:09.71	291.76	7.79	-38.2	-39.2	22.8	0.00e+00	5	32	0	1098907648	48	6577
2026-01-27 18:11:10.72	291.65	7.73	-38.5	-39.5	22.5	0.00e+00	92	32	0	1101004800	48	6831
2026-01-27 18:11:11.73	291.53	7.67	-38.3	-39.3	22.6	0.00e+00	6	32	0	1103101952	48	6662
2026-01-27 18:11:12.74	291.42	7.62	-38.3	-39.3	22.7	0.00e+00	2	32	0	1105199104	48	6651
2026-01-27 18:11:13.75	291.30	7.56	-38.3	-39.3	22.6	0.00e+00	6	32	0	1107296256	48	6665
2026-01-27 18:11:14.76	291.19	7.50	-38.5	-39.5	22.4	0.00e+00	7	32	0	1108344832	48	6817
2026-01-27 18:11:15.77	291.08	7.44	-38.5	-39.5	22.5	0.00e+00	92	32	0	1110441984	48	6773
2026-01-27 18:11:16.78	290.96	7.38	-38.6	-39.7	22.3	0.00e+00	7	32	0	1112539136	48	6934
2026-01-27 18:11:17.79	290.85	7.33	-38.7	-39.7	22.3	0.00e+00	89	32	0	1114636288	50	6205
2026-01-27 18:11:18.80	290.74	7.27	-38.8	-39.8	22.1	0.00e+00	66	32	0	1116733440	50	6291
2026-01-27 18:11:19.81	290.63	7.21	-38.9	-40.0	22.0	0.00e+00	15	32	0	1117782016	50	6440
2026-01-27 18:11:20.82	290.52	7.15	-38.9	-40.0	22.1	0.00e+00	68	32	0	1119879168	50	6404
2026-01-27 18:11:21.83	290.40	7.10	-39.0	-40.1	21.9	0.00e+00	14	32	0	1121976320	50	6471
2026-01-27 18:11:22.83	290.30	7.04	-39.0	-40.1	21.9	0.00e+00	42	32	0	1124073472	50	6506
2026-01-27 18:11:23.85	290.18	6.98	-39.1	-40.1	21.8	0.00e+00	0	32	0	1126170624	50	6534
2026-01-27 18:11:24.85	290.08	6.92	-39.0	-40.1	21.9	0.00e+00	90	32	0	1127219200	50	6486
2026-01-27 18:11:25.87	289.97	6.86	-39.2	-40.3	21.6	0.00e+00	66	32	0	1129316352	50	6673
2026-01-27 18:11:26.88	289.86	6.81	-39.4	-40.5	21.4	0.00e+00	0	33	0	1131413504	50	6797
2026-01-27 18:11:27.89	289.75	6.75	-39.4	-40.5	21.4	0.00e+00	0	32	0	1133510656	50	6806
2026-01-27 18:11:28.90	289.64	6.69	-39.2	-40.3	21.6	0.00e+00	0	32	0	1135607808	50	6673
2026-01-27 18:11:29.91	289.53	6.64	-39.2	-40.3	21.7	0.00e+00	89	32	0	1137704960	50	6654
2026-01-27 18:11:30.92	289.43	6.58	-39.3	-40.4	21.6	0.00e+00	0	32	0	1138753536	50	6711
2026-01-27 18:11:31.93	289.32	6.52	-39.4	-40.5	21.4	0.00e+00	92	32	0	1140850688	50	6820
2026-01-27 18:11:32.93	289.22	6.46	-39.4	-40.6	21.3	0.00e+00	2	32	0	1142947840	50	6880
2026-01-27 18:11:33.94	289.11	6.41	-39.5	-40.6	21.3	0.00e+00	10	32	0	1145044992	50	6902
2026-01-27 18:11:34.95	289.01	6.35	-39.6	-40.8	21.1	0.00e+00	8	32	0	1147142144	50	7053
2026-01-27 18:11:35.96	288.90	6.29	-39.6	-40.8	21.1	0.00e+00	9	32	0	1148190720	50	7029
2026-01-27 18:11:36.97	288.80	6.23	-39.6	-40.7	21.2	0.00e+00	0	32	0	1150287872	50	6994
2026-01-27 18:11:37.98	288.69	6.18	-39.7	-40.9	21.0	0.00e+00	2	32	0	1152385024	52	6377
2026-01-27 18:11:38.99	288.59	6.12	-40.1	-41.4	20.6	0.00e+00	90	32	0	1154482176	52	6702
2026-01-27 18:11:40.00	288.49	6.06	-39.9	-41.2	21.0	0.00e+00	70	32	0	1156579328	52	6553
2026-01-27 18:11:41.01	288.38	6.01	-39.9	-41.2	20.8	0.00e+00	92	32	0	1157627904	52	6546
2026-01-27 18:11:42.02	288.28	5.95	-40.3	-41.6	20.3	0.00e+00	15	32	0	1159725056	52	6912
2026-01-27 18:11:43.03	288.18	5.89	-40.2	-41.4	20.5	0.00e+00	67	32	0	1161822208	52	6757
2026-01-27 18:11:44.04	288.08	5.84	-40.3	-41.6	20.4	0.00e+00	67	32	0	1163919360	52	6868
2026-01-27 18:11:45.04	287.98	5.78	-40.6	-41.9	20.2	0.00e+00	67	32	0	1166016512	52	7166
2026-01-27 18:11:46.05	287.88	5.72	-40.3	-41.7	20.3	0.00e+00	91	32	0	1167065088	52	6946
2026-01-27 18:11:47.06	287.78	5.67	-40.3	-41.6	20.3	0.00e+00	0	32	0	1169162240	52	6915
2026-01-27 18:11:48.07	287.68	5.61	-40.2	-41.5	20.4	0.00e+00	92	32	0	1171259392	52	6807
2026-01-27 18:11:49.08	287.58	5.55	-40.2	-41.5	20.5	0.00e+00	0	32	0	1173356544	52	6800
2026-01-27 18:11:50.09	287.48	5.50	-40.4	-41.7	20.3	0.00e+00	27	32	0	1175453696	52	6961
2026-01-27 18:11:51.10	287.38	5.44	-40.4	-41.8	20.2	0.00e+00	2	32	0	1176502272	52	7016
2026-01-27 18:11:52.11	287.28	5.38	-40.5	-41.8	20.1	0.00e+00	0	32	0	1178599424	52	7067
2026-01-27 18:11:53.11	287.19	5.33	-40.2	-41.6	20.3	0.00e+00	0	32	0	1180696576	52	6849
2026-01-27 18:11:54.12	287.09	5.27	-40.2	-41.5	20.4	0.00e+00	0	32	0	1182793728	52	6807
2026-01-27 18:11:55.13	286.99	5.21	-40.4	-41.8	20.0	0.00e+00	92	32	0	1184890880	52	7052
2026-01-27 18:11:56.14	286.90	5.16	-40.5	-41.9	20.0	0.00e+00	0	32	0	1185939456	52	7131
2026-01-27 18:11:57.14	286.80	5.10	-40.5	-41.9	20.0	0.00e+00	14	32	0	1188036608	52	7100
2026-01-27 18:11:58.15	286.70	5.04	-40.7	-42.1	19.7	0.00e+00	0	32	0	1190133760	54	6533
2026-01-27 18:11:59.16	286.61	4.99	-40.8	-42.2	19.6	0.00e+00	9	32	0	1192230912	54	6583
2026-01-27 18:12:00.17	286.51	4.93	-40.7	-42.1	19.7	0.00e+00	0	32	0	1194328064	54	6496
