passes_logs/2026/01/27/R4.6S_Anadyr/R4.6S_Anadyr__20260127_134953_NOAA_21_JPSS-2_rec.log

#Pass ID: 20260127_134953_NOAA 21 (JPSS-2)
#Satellite: NOAA 21 (JPSS-2)
#Configuration: NOAA-21
#almurnet v.1.7.20251203
#Start time: 2026-01-27 13:49:56

#Version: 2.2.20231116
#Station: R4.6S_Anadyr
#Location: 177.4865 lon 64.73178 lat
#TLE: 1 54234U 22150A   26026.78373243  .00000177  00000+0  10458-3 0  9996
#TLE: 2 54234  98.7509 327.5416 0000822 208.1870 151.9262 14.19539807166482

#Time	Az	El	Level	Level2	SNR	BER	BlckErr	Temp	State	Recorded	gain1	gain2
2026-01-27 13:49:56.03	19.18	0.16	-48.8	-60.5	3.5	8.45e-01	0	31	0	0	60	38211
2026-01-27 13:49:57.03	19.21	0.22	-48.9	-61.8	3.5	1.52e+00	0	32	104	0	60	42959
2026-01-27 13:49:58.04	19.24	0.28	-48.9	-61.7	3.5	1.51e+00	0	32	104	0	60	42770
2026-01-27 13:49:59.04	19.27	0.34	-48.9	-61.8	3.5	1.52e+00	0	32	104	0	60	43102
2026-01-27 13:50:00.05	19.30	0.39	-48.9	-61.8	3.5	1.52e+00	0	32	104	0	60	43113
2026-01-27 13:50:01.07	19.33	0.45	-49.0	-61.8	3.5	1.52e+00	0	33	104	0	60	43142
2026-01-27 13:50:02.08	19.37	0.51	-48.9	-61.8	3.5	1.52e+00	0	33	104	0	60	43046
2026-01-27 13:50:03.09	19.40	0.57	-49.0	-61.8	3.5	1.52e+00	0	33	104	0	60	43323
2026-01-27 13:50:04.10	19.43	0.63	-49.0	-61.9	3.5	1.52e+00	0	33	104	0	60	43596
2026-01-27 13:50:05.11	19.46	0.69	-49.0	-61.9	3.5	1.52e+00	0	33	104	0	60	43455
2026-01-27 13:50:06.12	19.49	0.75	-49.0	-61.8	3.5	1.52e+00	0	33	104	0	60	43241
2026-01-27 13:50:07.12	19.53	0.81	-48.9	-61.8	3.5	1.52e+00	0	33	104	0	60	43203
2026-01-27 13:50:08.14	19.56	0.87	-48.9	-61.8	3.5	1.52e+00	0	33	104	0	60	43170
2026-01-27 13:50:09.14	19.59	0.93	-48.9	-61.7	3.5	1.52e+00	0	33	104	0	60	42809
2026-01-27 13:50:10.16	19.62	0.99	-48.8	-61.7	3.5	1.52e+00	0	33	104	0	60	42875
2026-01-27 13:50:11.17	19.66	1.05	-48.8	-61.7	3.5	1.52e+00	0	33	104	0	60	42725
2026-01-27 13:50:12.18	19.69	1.11	-48.7	-61.6	3.5	1.52e+00	0	33	104	0	60	42008
2026-01-27 13:50:13.19	19.72	1.17	-48.6	-61.4	3.5	1.52e+00	0	33	104	0	60	41362
2026-01-27 13:50:14.19	19.75	1.23	-48.5	-61.3	3.5	1.52e+00	0	33	104	0	60	40691
2026-01-27 13:50:15.20	19.79	1.29	-48.4	-61.3	3.5	1.51e+00	0	33	104	0	60	40615
2026-01-27 13:50:16.21	19.82	1.35	-48.3	-61.1	3.5	1.52e+00	0	33	104	0	60	40014
2026-01-27 13:50:17.22	19.85	1.42	-48.1	-61.0	3.5	1.51e+00	0	33	104	0	60	39467
2026-01-27 13:50:18.23	19.89	1.48	-48.0	-60.8	3.5	1.52e+00	0	33	104	0	60	38269
2026-01-27 13:50:19.24	19.92	1.54	-47.7	-60.6	3.5	1.52e+00	0	33	104	0	60	37601
2026-01-27 13:50:20.25	19.95	1.60	-47.5	-60.4	3.5	1.52e+00	0	33	104	0	60	36549
2026-01-27 13:50:21.26	19.99	1.66	-47.5	-60.3	3.5	1.51e+00	0	33	104	0	60	36306
2026-01-27 13:50:22.27	20.02	1.72	-47.5	-60.3	3.5	1.52e+00	0	33	104	0	60	36496
2026-01-27 13:50:23.28	20.06	1.78	-47.5	-60.3	3.5	1.52e+00	0	33	104	0	60	36184
2026-01-27 13:50:24.29	20.09	1.85	-47.5	-60.3	3.5	1.52e+00	0	33	104	0	60	36238
2026-01-27 13:50:25.30	20.13	1.91	-47.5	-60.4	3.5	1.52e+00	0	33	104	0	60	36595
2026-01-27 13:50:26.31	20.16	1.97	-47.5	-60.4	3.5	1.52e+00	0	33	104	0	60	36645
2026-01-27 13:50:27.32	20.19	2.03	-47.5	-60.4	3.5	1.51e+00	0	33	104	0	60	36560
2026-01-27 13:50:28.32	20.23	2.09	-47.5	-60.4	3.5	1.52e+00	0	33	104	0	60	36631
2026-01-27 13:50:29.33	20.26	2.16	-47.5	-60.4	3.5	1.52e+00	0	33	104	0	60	36636
2026-01-27 13:50:30.34	20.30	2.22	-47.5	-60.4	3.5	1.51e+00	0	33	104	0	60	36755
2026-01-27 13:50:31.35	20.33	2.28	-47.5	-60.4	3.5	1.52e+00	0	33	104	0	60	36664
2026-01-27 13:50:32.36	20.37	2.35	-47.5	-60.3	3.5	1.51e+00	0	33	104	0	60	36321
2026-01-27 13:50:33.37	20.40	2.41	-47.5	-60.1	3.5	1.52e+00	0	33	104	0	60	35335
2026-01-27 13:50:34.38	20.44	2.47	-47.5	-59.6	3.5	1.51e+00	0	33	104	0	60	33345
2026-01-27 13:50:35.40	20.48	2.54	-47.4	-59.2	3.5	1.52e+00	0	34	104	0	60	32011
2026-01-27 13:50:36.41	20.51	2.60	-47.4	-58.8	3.5	1.51e+00	0	34	104	0	60	30686
2026-01-27 13:50:37.42	20.55	2.66	-47.4	-59.2	3.5	1.51e+00	0	33	104	0	60	32023
2026-01-27 13:50:38.42	20.58	2.73	-47.5	-59.8	3.5	1.51e+00	0	34	104	0	60	34429
2026-01-27 13:50:39.43	20.62	2.79	-47.4	-59.2	3.5	1.51e+00	0	33	104	0	60	32174
2026-01-27 13:50:40.44	20.66	2.85	-47.1	-56.5	4.4	1.48e+00	0	33	104	0	60	23560
2026-01-27 13:50:41.45	20.69	2.92	-46.4	-52.4	7.2	3.11e-01	123	34	0	0	60	14687
2026-01-27 13:50:42.46	20.73	2.98	-45.3	-49.1	10.1	1.33e-02	120	34	0	3145728	60	10040
2026-01-27 13:50:43.47	20.76	3.05	-43.8	-46.6	13.1	1.95e-04	122	34	0	6291456	60	7507
2026-01-27 13:50:44.48	20.80	3.11	-42.7	-44.9	14.9	1.50e-06	122	33	0	9437184	60	6177
2026-01-27 13:50:45.49	20.84	3.18	-41.2	-42.9	16.8	0.00e+00	122	34	0	12582912	56	6188
2026-01-27 13:50:46.50	20.88	3.24	-40.0	-41.5	18.0	0.00e+00	123	33	0	15728640	54	5920
2026-01-27 13:50:47.51	20.91	3.31	-39.6	-41.0	18.8	0.00e+00	123	34	0	18874368	52	6265
2026-01-27 13:50:48.52	20.95	3.37	-38.4	-39.6	19.9	0.00e+00	123	34	0	22020096	50	5981
2026-01-27 13:50:49.53	20.99	3.44	-39.1	-40.4	19.2	0.00e+00	122	34	0	25165824	50	6524
2026-01-27 13:50:50.54	21.03	3.50	-38.8	-40.2	19.1	0.00e+00	122	34	0	28311552	50	6355
2026-01-27 13:50:51.55	21.06	3.57	-38.9	-40.3	19.2	0.00e+00	123	34	0	31457280	50	6431
2026-01-27 13:50:52.56	21.10	3.63	-39.4	-40.8	18.7	0.00e+00	120	34	0	34603008	50	6815
2026-01-27 13:50:53.57	21.14	3.70	-41.3	-43.1	16.4	0.00e+00	122	34	0	37748736	54	7082
2026-01-27 13:50:54.58	21.18	3.77	-40.7	-42.3	17.9	0.00e+00	123	34	0	40894464	56	5770
2026-01-27 13:50:55.59	21.22	3.83	-41.8	-43.7	12.8	0.00e+00	123	34	0	44040192	52	8518
2026-01-27 13:50:56.60	21.26	3.90	-42.7	-44.9	13.6	2.46e-04	121	34	0	47185920	56	7812
2026-01-27 13:50:57.61	21.29	3.96	-42.7	-45.3	14.8	4.69e-01	122	34	104	48234496	60	6450
2026-01-27 13:50:58.62	21.33	4.03	-45.5	-49.9	6.3	3.00e-04	120	34	0	49283072	58	12315
2026-01-27 13:50:59.63	21.37	4.10	-43.1	-45.9	4.9	1.51e+00	0	34	104	49283072	60	6895
2026-01-27 13:51:00.64	21.41	4.17	-40.0	-41.6	18.2	0.00e+00	123	34	0	49283072	54	5944
2026-01-27 13:51:01.65	21.45	4.23	-40.2	-41.7	18.3	0.00e+00	123	34	0	52428800	54	6002
2026-01-27 13:51:02.66	21.49	4.30	-40.0	-41.5	18.2	0.00e+00	123	34	0	55574528	54	5893
2026-01-27 13:51:03.67	21.53	4.37	-39.9	-41.3	18.4	0.00e+00	123	34	0	58720256	52	6494
2026-01-27 13:51:04.68	21.57	4.43	-39.3	-40.6	19.4	0.00e+00	122	34	0	61865984	52	5954
2026-01-27 13:51:05.68	21.61	4.50	-39.2	-40.5	19.3	0.00e+00	121	34	0	65011712	52	5880
2026-01-27 13:51:06.69	21.65	4.57	-39.4	-40.7	19.0	0.00e+00	123	34	0	68157440	52	6036
2026-01-27 13:51:07.70	21.69	4.64	-38.5	-39.7	20.1	0.00e+00	120	33	0	71303168	50	6054
2026-01-27 13:51:08.71	21.73	4.71	-38.2	-39.4	20.1	0.00e+00	122	34	0	74448896	50	5807
2026-01-27 13:51:09.72	21.77	4.77	-38.2	-39.4	20.2	0.00e+00	122	34	0	77594624	50	5836
2026-01-27 13:51:10.73	21.81	4.84	-38.6	-39.9	19.7	0.00e+00	122	34	0	80740352	50	6156
2026-01-27 13:51:11.74	21.85	4.91	-38.5	-39.7	19.9	0.00e+00	121	34	0	83886080	50	6046
2026-01-27 13:51:12.75	21.89	4.98	-38.2	-39.4	20.3	0.00e+00	122	34	0	87031808	50	5812
2026-01-27 13:51:13.76	21.94	5.05	-38.1	-39.3	20.3	0.00e+00	120	34	0	90177536	50	5758
2026-01-27 13:51:14.77	21.98	5.12	-38.5	-39.7	19.9	0.00e+00	122	34	0	93323264	50	6027
2026-01-27 13:51:15.78	22.02	5.19	-38.2	-39.4	20.2	0.00e+00	123	34	0	96468992	50	5834
2026-01-27 13:51:16.79	22.06	5.26	-38.4	-39.6	20.1	0.00e+00	121	34	0	99614720	50	5946
2026-01-27 13:51:17.80	22.10	5.33	-38.6	-39.8	19.8	0.00e+00	123	34	0	102760448	50	6125
2026-01-27 13:51:18.81	22.14	5.40	-38.9	-40.1	19.6	0.00e+00	120	34	0	105906176	50	6332
2026-01-27 13:51:19.82	22.19	5.47	-38.8	-40.0	19.7	0.00e+00	123	34	0	109051904	50	6274
2026-01-27 13:51:20.83	22.23	5.54	-38.5	-39.8	20.0	0.00e+00	123	34	0	112197632	50	6081
2026-01-27 13:51:21.84	22.27	5.61	-38.9	-40.2	19.8	0.00e+00	122	34	0	115343360	50	6365
2026-01-27 13:51:22.85	22.32	5.68	-39.2	-40.5	19.3	0.00e+00	123	34	0	118489088	50	6588
2026-01-27 13:51:23.86	22.36	5.75	-39.0	-40.3	19.2	0.00e+00	123	34	0	121634816	50	6483
2026-01-27 13:51:24.86	22.40	5.82	-38.8	-40.0	19.9	0.00e+00	122	34	0	124780544	50	6262
2026-01-27 13:51:25.87	22.44	5.89	-37.9	-39.1	20.7	0.00e+00	121	34	0	127926272	50	5628
2026-01-27 13:51:26.88	22.49	5.96	-37.8	-39.0	20.7	0.00e+00	123	34	0	131072000	50	5561
2026-01-27 13:51:27.89	22.53	6.04	-37.4	-38.6	21.1	0.00e+00	122	34	0	134217728	48	5929
2026-01-27 13:51:28.90	22.58	6.11	-37.4	-38.5	21.2	0.00e+00	123	34	0	137363456	48	5905
2026-01-27 13:51:29.91	22.62	6.18	-37.2	-38.2	21.4	0.00e+00	123	34	0	140509184	48	5719
2026-01-27 13:51:30.92	22.67	6.25	-37.1	-38.2	21.5	0.00e+00	122	34	0	143654912	48	5674
2026-01-27 13:51:31.93	22.71	6.32	-37.1	-38.2	21.4	0.00e+00	120	34	0	146800640	48	5698
2026-01-27 13:51:32.94	22.75	6.40	-37.2	-38.3	21.3	0.00e+00	122	34	0	149946368	48	5791
2026-01-27 13:51:33.95	22.80	6.47	-37.1	-38.2	21.5	0.00e+00	123	34	0	153092096	48	5692
2026-01-27 13:51:34.95	22.84	6.54	-36.9	-38.0	21.7	0.00e+00	122	34	0	156237824	48	5535
2026-01-27 13:51:35.96	22.89	6.61	-37.2	-38.3	21.4	0.00e+00	122	34	0	159383552	48	5729
2026-01-27 13:51:36.97	22.94	6.69	-37.2	-38.3	21.5	0.00e+00	123	34	0	162529280	48	5728
2026-01-27 13:51:37.98	22.98	6.76	-36.8	-37.8	21.8	0.00e+00	123	34	0	165675008	48	5458
2026-01-27 13:51:38.99	23.03	6.83	-36.9	-38.0	21.7	0.00e+00	122	34	0	168820736	46	6215
2026-01-27 13:51:40.00	23.07	6.91	-37.0	-38.0	21.7	0.00e+00	122	34	0	171966464	46	6264
2026-01-27 13:51:41.01	23.12	6.98	-36.9	-38.0	21.6	0.00e+00	123	34	0	175112192	46	6232
2026-01-27 13:51:42.02	23.17	7.06	-36.8	-37.8	21.8	0.00e+00	123	34	0	178257920	46	6120
2026-01-27 13:51:43.03	23.21	7.13	-36.9	-37.9	21.8	0.00e+00	123	34	0	181403648	46	6202
2026-01-27 13:51:44.04	23.26	7.21	-36.7	-37.7	21.9	0.00e+00	122	34	0	184549376	46	6049
2026-01-27 13:51:45.05	23.31	7.28	-36.7	-37.7	22.0	0.00e+00	123	34	0	187695104	46	6047
2026-01-27 13:51:46.06	23.36	7.36	-36.7	-37.7	22.0	0.00e+00	123	34	0	190840832	46	6048
2026-01-27 13:51:47.07	23.40	7.43	-36.8	-37.8	21.9	0.00e+00	122	34	0	193986560	46	6107
2026-01-27 13:51:48.08	23.45	7.51	-36.7	-37.8	22.0	0.00e+00	122	34	0	197132288	46	6069
2026-01-27 13:51:49.09	23.50	7.58	-36.7	-37.7	21.9	0.00e+00	120	34	0	200278016	46	6055
2026-01-27 13:51:50.10	23.55	7.66	-36.7	-37.7	22.0	0.00e+00	123	34	0	203423744	46	6051
2026-01-27 13:51:51.11	23.60	7.73	-36.7	-37.7	22.0	0.00e+00	123	34	0	206569472	46	6024
2026-01-27 13:51:52.12	23.65	7.81	-36.6	-37.7	22.0	0.00e+00	122	34	0	209715200	46	6028
2026-01-27 13:51:53.13	23.70	7.89	-36.7	-37.7	22.0	0.00e+00	122	34	0	212860928	46	6024
2026-01-27 13:51:54.14	23.75	7.96	-36.5	-37.5	22.1	0.00e+00	122	34	0	216006656	46	5904
2026-01-27 13:51:55.15	23.80	8.04	-36.6	-37.7	22.1	0.00e+00	120	34	0	219152384	46	5997
2026-01-27 13:51:56.16	23.85	8.12	-36.8	-37.9	21.9	0.00e+00	123	34	0	222298112	46	6138
2026-01-27 13:51:57.17	23.90	8.20	-36.4	-37.4	22.3	0.00e+00	123	34	0	225443840	46	5831
2026-01-27 13:51:58.18	23.95	8.27	-36.2	-37.2	22.4	0.00e+00	123	34	0	228589568	46	5721
2026-01-27 13:51:59.18	24.00	8.35	-36.3	-37.3	22.4	0.00e+00	120	34	0	231735296	46	5733
2026-01-27 13:52:00.19	24.05	8.43	-36.3	-37.4	22.3	0.00e+00	122	34	0	234881024	46	5799
2026-01-27 13:52:01.20	24.10	8.51	-36.2	-37.2	22.5	0.00e+00	120	34	0	238026752	46	5722
2026-01-27 13:52:02.21	24.15	8.59	-36.3	-37.3	22.4	0.00e+00	122	34	0	241172480	46	5768
2026-01-27 13:52:03.22	24.20	8.66	-36.4	-37.5	22.2	0.00e+00	123	34	0	244318208	46	5859
2026-01-27 13:52:04.23	24.25	8.74	-36.3	-37.3	22.4	0.00e+00	123	34	0	247463936	46	5785
2026-01-27 13:52:05.24	24.31	8.82	-36.1	-37.2	22.5	0.00e+00	120	34	0	250609664	46	5661
2026-01-27 13:52:06.24	24.36	8.90	-36.3	-37.3	22.4	0.00e+00	120	34	0	253755392	46	5767
2026-01-27 13:52:07.25	24.41	8.98	-36.2	-37.2	22.5	0.00e+00	122	34	0	256901120	46	5718
2026-01-27 13:52:08.26	24.46	9.06	-36.4	-37.4	22.4	0.00e+00	121	34	0	260046848	46	5826
2026-01-27 13:52:09.27	24.52	9.14	-36.0	-37.0	22.7	0.00e+00	123	34	0	263192576	46	5569
2026-01-27 13:52:10.27	24.57	9.22	-35.8	-36.8	22.8	0.00e+00	120	34	0	266338304	46	5440
2026-01-27 13:52:11.28	24.62	9.30	-35.9	-36.8	22.8	0.00e+00	123	34	0	269484032	46	5456
2026-01-27 13:52:12.29	24.68	9.38	-35.9	-36.8	22.8	0.00e+00	123	34	0	272629760	46	5460
2026-01-27 13:52:13.30	24.73	9.46	-35.8	-36.8	22.9	0.00e+00	122	34	0	275775488	46	5449
2026-01-27 13:52:14.31	24.79	9.55	-35.8	-36.8	22.8	0.00e+00	120	34	0	278921216	44	6094
2026-01-27 13:52:15.32	24.84	9.63	-35.8	-36.8	22.8	0.00e+00	122	34	0	282066944	44	6120
2026-01-27 13:52:16.33	24.90	9.71	-35.8	-36.8	22.9	0.00e+00	116	34	0	285212672	44	6073
2026-01-27 13:52:17.34	24.95	9.79	-35.8	-36.8	22.9	0.00e+00	122	34	0	288358400	44	6100
2026-01-27 13:52:18.35	25.01	9.87	-35.7	-36.7	23.0	0.00e+00	123	34	0	291504128	44	6016
2026-01-27 13:52:19.36	25.06	9.96	-35.7	-36.7	22.9	0.00e+00	122	34	0	294649856	44	6002
2026-01-27 13:52:20.37	25.12	10.04	-35.6	-36.6	23.1	0.00e+00	123	34	0	297795584	44	5947
2026-01-27 13:52:21.38	25.18	10.12	-35.5	-36.5	23.2	0.00e+00	123	34	0	300941312	44	5869
2026-01-27 13:52:22.39	25.23	10.21	-35.3	-36.3	23.3	0.00e+00	123	34	0	304087040	44	5758
2026-01-27 13:52:23.39	25.29	10.29	-35.4	-36.4	23.3	0.00e+00	122	34	0	307232768	44	5797
2026-01-27 13:52:24.40	25.35	10.37	-35.6	-36.5	23.2	0.00e+00	122	34	0	310378496	44	5917
2026-01-27 13:52:25.41	25.40	10.46	-35.4	-36.4	23.2	0.00e+00	120	34	0	313524224	44	5800
2026-01-27 13:52:26.42	25.46	10.54	-35.5	-36.5	23.2	0.00e+00	122	34	0	316669952	44	5865
2026-01-27 13:52:27.43	25.52	10.63	-35.5	-36.4	23.3	0.00e+00	122	34	0	319815680	44	5853
2026-01-27 13:52:28.44	25.58	10.71	-35.5	-36.4	23.3	0.00e+00	123	34	0	322961408	44	5838
2026-01-27 13:52:29.45	25.64	10.80	-35.4	-36.3	23.4	0.00e+00	123	34	0	326107136	44	5776
2026-01-27 13:52:30.46	25.70	10.88	-35.3	-36.3	23.3	0.00e+00	122	34	0	329252864	44	5740
2026-01-27 13:52:31.47	25.76	10.97	-35.4	-36.3	23.3	0.00e+00	122	34	0	332398592	44	5766
2026-01-27 13:52:32.48	25.82	11.05	-35.3	-36.3	23.3	0.00e+00	122	34	0	335544320	44	5757
2026-01-27 13:52:33.49	25.88	11.14	-35.5	-36.4	23.2	0.00e+00	123	34	0	338690048	44	5853
2026-01-27 13:52:34.50	25.94	11.23	-35.5	-36.5	23.1	0.00e+00	123	34	0	341835776	44	5867
2026-01-27 13:52:35.51	26.00	11.31	-35.4	-36.4	23.4	0.00e+00	123	34	0	344981504	44	5816
2026-01-27 13:52:36.52	26.06	11.40	-35.3	-36.3	23.4	0.00e+00	123	34	0	348127232	44	5734
2026-01-27 13:52:37.53	26.12	11.49	-35.2	-36.2	23.5	0.00e+00	120	34	0	351272960	44	5668
2026-01-27 13:52:38.54	26.18	11.58	-35.2	-36.1	23.5	0.00e+00	122	34	0	355467264	44	5633
2026-01-27 13:52:39.55	26.25	11.67	-35.1	-36.0	23.7	0.00e+00	120	34	0	357564416	44	5563
2026-01-27 13:52:40.56	26.31	11.75	-35.1	-36.1	23.6	0.00e+00	123	34	0	360710144	44	5605
2026-01-27 13:52:41.57	26.37	11.84	-35.1	-36.0	23.6	0.00e+00	121	34	0	363855872	44	5580
2026-01-27 13:52:42.58	26.43	11.93	-35.0	-36.0	23.7	0.00e+00	122	34	0	367001600	44	5548
2026-01-27 13:52:43.59	26.50	12.02	-35.1	-36.0	23.6	0.00e+00	123	34	0	371195904	44	5586
2026-01-27 13:52:44.60	26.56	12.11	-35.0	-36.0	23.6	0.00e+00	120	34	0	374341632	44	5532
2026-01-27 13:52:45.61	26.63	12.20	-35.1	-36.0	23.6	0.00e+00	123	34	0	377487360	44	5571
2026-01-27 13:52:46.62	26.69	12.29	-34.9	-35.8	23.8	0.00e+00	122	34	0	379584512	44	5437
2026-01-27 13:52:47.63	26.76	12.38	-34.9	-35.9	23.8	0.00e+00	123	34	0	382730240	44	5468
2026-01-27 13:52:48.64	26.82	12.47	-34.9	-35.8	23.8	0.00e+00	122	34	0	385875968	44	5455
2026-01-27 13:52:49.65	26.89	12.56	-34.9	-35.8	23.8	0.00e+00	123	34	0	390070272	44	5449
2026-01-27 13:52:50.66	26.95	12.65	-34.9	-35.9	23.8	0.00e+00	123	34	0	393216000	44	5468
2026-01-27 13:52:51.67	27.02	12.75	-34.8	-35.7	23.8	0.00e+00	123	34	0	396361728	44	5392
2026-01-27 13:52:52.68	27.09	12.84	-34.9	-35.9	23.8	0.00e+00	120	34	0	399507456	44	5474
2026-01-27 13:52:53.69	27.16	12.93	-34.9	-35.8	23.9	0.00e+00	122	34	0	402653184	44	5431
2026-01-27 13:52:54.70	27.22	13.02	-34.8	-35.7	23.9	0.00e+00	120	34	0	405798912	44	5390
2026-01-27 13:52:55.71	27.29	13.12	-34.8	-35.8	23.9	0.00e+00	123	34	0	408944640	44	5414
2026-01-27 13:52:56.72	27.36	13.21	-34.9	-35.8	23.9	0.00e+00	120	34	0	412090368	44	5436
2026-01-27 13:52:57.73	27.43	13.30	-34.8	-35.7	23.9	0.00e+00	123	34	0	415236096	44	5393
2026-01-27 13:52:58.74	27.50	13.40	-34.8	-35.7	23.9	0.00e+00	123	34	0	418381824	44	5399
2026-01-27 13:52:59.75	27.57	13.49	-34.8	-35.7	23.9	0.00e+00	123	34	0	421527552	44	5390
2026-01-27 13:53:00.76	27.64	13.59	-34.8	-35.7	24.0	0.00e+00	120	34	0	424673280	44	5353
2026-01-27 13:53:01.77	27.71	13.68	-34.9	-35.9	23.8	0.00e+00	122	34	0	427819008	42	6150
2026-01-27 13:53:02.78	27.78	13.78	-34.8	-35.8	23.9	0.00e+00	122	34	0	430964736	42	6066
2026-01-27 13:53:03.79	27.85	13.87	-34.9	-35.8	23.9	0.00e+00	122	34	0	434110464	42	6117
2026-01-27 13:53:04.80	27.92	13.97	-34.9	-35.8	23.9	0.00e+00	123	34	0	437256192	42	6125
2026-01-27 13:53:05.81	28.00	14.06	-34.9	-35.8	23.9	0.00e+00	122	34	0	440401920	42	6133
2026-01-27 13:53:06.82	28.07	14.16	-35.0	-35.9	23.8	0.00e+00	123	34	0	443547648	42	6170
2026-01-27 13:53:07.83	28.14	14.26	-34.8	-35.7	24.0	0.00e+00	123	34	0	446693376	42	6029
2026-01-27 13:53:08.84	28.22	14.36	-34.9	-35.8	23.9	0.00e+00	123	34	0	449839104	42	6101
2026-01-27 13:53:09.85	28.29	14.45	-35.0	-35.9	23.9	0.00e+00	123	34	0	452984832	42	6194
2026-01-27 13:53:10.86	28.37	14.55	-35.0	-35.9	23.9	0.00e+00	123	34	0	456130560	42	6194
2026-01-27 13:53:11.87	28.44	14.65	-34.7	-35.6	24.1	0.00e+00	122	34	0	459276288	42	5963
2026-01-27 13:53:12.88	28.52	14.75	-34.7	-35.6	24.0	0.00e+00	120	34	0	462422016	42	5980
2026-01-27 13:53:13.89	28.59	14.85	-34.9	-35.8	24.0	0.00e+00	120	34	0	465567744	42	6087
2026-01-27 13:53:14.90	28.67	14.95	-34.8	-35.7	24.1	0.00e+00	122	34	0	468713472	42	6047
2026-01-27 13:53:15.91	28.75	15.05	-34.9	-35.8	23.9	0.00e+00	123	34	0	471859200	42	6108
2026-01-27 13:53:16.92	28.82	15.15	-34.8	-35.7	24.0	0.00e+00	123	34	0	475004928	42	6054
2026-01-27 13:53:17.93	28.90	15.25	-34.9	-35.9	23.9	0.00e+00	123	34	0	478150656	42	6136
2026-01-27 13:53:18.94	28.98	15.35	-35.0	-35.9	23.9	0.00e+00	123	34	0	481296384	42	6201
2026-01-27 13:53:19.95	29.06	15.45	-35.0	-35.9	23.9	0.00e+00	122	34	0	484442112	42	6198
2026-01-27 13:53:20.95	29.14	15.55	-34.9	-35.8	23.9	0.00e+00	124	34	0	487587840	42	6118
2026-01-27 13:53:21.96	29.22	15.65	-35.0	-35.9	24.0	0.00e+00	123	34	0	490733568	42	6159
2026-01-27 13:53:22.98	29.30	15.76	-34.9	-35.9	23.9	0.00e+00	122	34	0	493879296	42	6135
2026-01-27 13:53:23.99	29.38	15.86	-34.8	-35.7	24.1	0.00e+00	123	34	0	497025024	42	6042
2026-01-27 13:53:25.00	29.46	15.96	-34.9	-35.8	24.0	0.00e+00	122	34	0	500170752	42	6085
2026-01-27 13:53:26.01	29.54	16.07	-35.0	-36.0	23.8	0.00e+00	122	34	0	503316480	42	6222
2026-01-27 13:53:27.02	29.63	16.17	-35.0	-35.9	24.0	0.00e+00	122	34	0	506462208	42	6174
2026-01-27 13:53:28.03	29.71	16.28	-35.1	-36.0	23.8	0.00e+00	123	34	0	509607936	42	6274
2026-01-27 13:53:29.04	29.79	16.38	-35.1	-36.0	23.8	0.00e+00	123	34	0	512753664	42	6235
2026-01-27 13:53:30.05	29.88	16.49	-35.2	-36.1	23.8	0.00e+00	121	35	0	515899392	42	6290
2026-01-27 13:53:31.05	29.96	16.59	-35.1	-36.0	23.8	0.00e+00	123	35	0	519045120	42	6267
2026-01-27 13:53:32.06	30.05	16.70	-35.1	-36.0	23.8	0.00e+00	123	34	0	522190848	42	6266
2026-01-27 13:53:33.07	30.13	16.80	-35.1	-36.0	23.8	0.00e+00	123	34	0	525336576	42	6261
2026-01-27 13:53:34.09	30.22	16.91	-35.1	-36.1	23.7	0.00e+00	122	34	0	528482304	42	6291
2026-01-27 13:53:35.09	30.31	17.02	-35.2	-36.1	23.7	0.00e+00	120	35	0	531628032	42	6303
2026-01-27 13:53:36.10	30.40	17.13	-35.1	-36.1	23.8	0.00e+00	123	34	0	534773760	42	6281
2026-01-27 13:53:37.12	30.49	17.23	-35.2	-36.1	23.7	0.00e+00	122	34	0	537919488	42	6320
2026-01-27 13:53:38.13	30.57	17.34	-35.1	-36.1	23.8	0.00e+00	123	34	0	541065216	42	6278
2026-01-27 13:53:39.14	30.66	17.45	-35.2	-36.1	23.8	0.00e+00	120	35	0	544210944	42	6313
2026-01-27 13:53:40.15	30.75	17.56	-35.1	-36.0	23.8	0.00e+00	122	34	0	547356672	42	6239
2026-01-27 13:53:41.15	30.84	17.67	-35.1	-36.0	23.9	0.00e+00	123	34	0	550502400	42	6269
2026-01-27 13:53:42.16	30.94	17.78	-35.2	-36.1	23.9	0.00e+00	122	34	0	553648128	42	6317
2026-01-27 13:53:43.17	31.03	17.89	-35.1	-36.0	23.7	0.00e+00	123	34	0	556793856	42	6272
2026-01-27 13:53:44.18	31.12	18.00	-35.1	-36.1	23.9	0.00e+00	122	34	0	559939584	42	6278
2026-01-27 13:53:45.19	31.21	18.11	-35.1	-36.1	23.8	0.00e+00	123	34	0	563085312	42	6295
2026-01-27 13:53:46.21	31.31	18.23	-35.1	-36.0	23.9	0.00e+00	122	34	0	566231040	42	6254
2026-01-27 13:53:47.22	31.40	18.34	-35.0	-35.9	23.9	0.00e+00	122	34	0	569376768	42	6172
2026-01-27 13:53:48.23	31.50	18.45	-35.0	-35.9	23.9	0.00e+00	123	34	0	572522496	42	6179
2026-01-27 13:53:49.23	31.59	18.56	-35.0	-35.9	23.9	0.00e+00	123	34	0	575668224	42	6171
2026-01-27 13:53:50.25	31.69	18.68	-35.0	-35.9	23.8	0.00e+00	122	35	0	578813952	42	6193
2026-01-27 13:53:51.25	31.79	18.79	-34.9	-35.8	24.0	0.00e+00	123	35	0	581959680	42	6100
2026-01-27 13:53:52.26	31.89	18.91	-34.8	-35.7	24.0	0.00e+00	123	34	0	585105408	42	6044
2026-01-27 13:53:53.27	31.99	19.02	-34.9	-35.8	24.0	0.00e+00	123	34	0	588251136	42	6134
2026-01-27 13:53:54.28	32.09	19.14	-34.9	-35.8	23.9	0.00e+00	123	34	0	591396864	42	6132
2026-01-27 13:53:55.29	32.19	19.25	-34.7	-35.6	24.1	0.00e+00	122	34	0	594542592	42	5958
2026-01-27 13:53:56.30	32.29	19.37	-34.8	-35.7	24.0	0.00e+00	123	34	0	597688320	42	6017
2026-01-27 13:53:57.31	32.39	19.49	-34.5	-35.4	24.3	0.00e+00	122	34	0	600834048	42	5792
2026-01-27 13:53:58.32	32.49	19.60	-34.6	-35.5	24.3	0.00e+00	122	34	0	603979776	42	5868
2026-01-27 13:53:59.33	32.59	19.72	-34.4	-35.3	24.3	0.00e+00	123	34	0	607125504	42	5781
2026-01-27 13:54:00.34	32.70	19.84	-34.4	-35.3	24.4	0.00e+00	122	34	0	610271232	42	5726
2026-01-27 13:54:01.35	32.80	19.96	-34.5	-35.4	24.3	0.00e+00	123	34	0	613416960	42	5805
2026-01-27 13:54:02.36	32.91	20.08	-34.3	-35.3	24.3	0.00e+00	123	35	0	616562688	42	5728
2026-01-27 13:54:03.37	33.02	20.20	-34.4	-35.3	24.2	0.00e+00	119	34	0	619708416	42	5761
2026-01-27 13:54:04.38	33.12	20.32	-34.3	-35.2	24.3	0.00e+00	123	34	0	622854144	42	5717
2026-01-27 13:54:05.39	33.23	20.44	-34.2	-35.1	24.3	0.00e+00	123	34	0	625999872	42	5624
2026-01-27 13:54:06.40	33.34	20.56	-34.0	-34.9	24.5	0.00e+00	120	34	0	629145600	42	5491
2026-01-27 13:54:07.41	33.45	20.68	-33.9	-34.8	24.5	0.00e+00	123	35	0	632291328	42	5457
2026-01-27 13:54:08.42	33.56	20.81	-33.9	-34.8	24.6	0.00e+00	120	34	0	635437056	42	5455
2026-01-27 13:54:09.43	33.67	20.93	-34.1	-35.0	24.4	0.00e+00	120	35	0	638582784	42	5540
2026-01-27 13:54:10.44	33.78	21.05	-33.9	-34.8	24.6	0.00e+00	122	34	0	641728512	42	5441
2026-01-27 13:54:11.45	33.90	21.18	-33.9	-34.8	24.7	0.00e+00	122	34	0	644874240	42	5421
2026-01-27 13:54:12.46	34.01	21.30	-33.9	-34.8	24.7	0.00e+00	123	34	0	648019968	42	5405
2026-01-27 13:54:13.47	34.12	21.43	-33.9	-34.8	24.6	0.00e+00	120	34	0	651165696	42	5448
2026-01-27 13:54:14.48	34.24	21.55	-33.9	-34.8	24.6	0.00e+00	122	35	0	654311424	42	5455
2026-01-27 13:54:15.49	34.36	21.68	-33.9	-34.8	24.5	0.00e+00	120	35	0	657457152	42	5449
2026-01-27 13:54:16.50	34.47	21.80	-33.9	-34.8	24.6	0.00e+00	122	34	0	660602880	42	5405
2026-01-27 13:54:17.51	34.59	21.93	-33.8	-34.6	24.7	0.00e+00	122	34	0	663748608	40	5993
2026-01-27 13:54:18.52	34.71	22.06	-33.7	-34.6	24.8	0.00e+00	123	34	0	666894336	40	5934
2026-01-27 13:54:19.53	34.83	22.19	-33.7	-34.5	24.8	0.00e+00	120	35	0	670040064	40	5920
2026-01-27 13:54:20.54	34.95	22.31	-33.6	-34.5	24.8	0.00e+00	122	35	0	673185792	40	5861
2026-01-27 13:54:21.55	35.08	22.44	-33.6	-34.5	24.8	0.00e+00	123	35	0	676331520	40	5877
2026-01-27 13:54:22.57	35.20	22.57	-33.7	-34.6	24.7	0.00e+00	123	35	0	679477248	40	5970
2026-01-27 13:54:23.58	35.32	22.70	-33.6	-34.5	24.9	0.00e+00	123	35	0	682622976	40	5892
2026-01-27 13:54:24.59	35.45	22.83	-33.7	-34.6	24.8	0.00e+00	122	35	0	685768704	40	5973
2026-01-27 13:54:25.60	35.58	22.97	-33.6	-34.5	24.9	0.00e+00	120	35	0	689963008	40	5873
2026-01-27 13:54:26.61	35.70	23.10	-33.7	-34.5	24.8	0.00e+00	123	35	0	693108736	40	5916
2026-01-27 13:54:27.62	35.83	23.23	-33.6	-34.5	24.8	0.00e+00	120	35	0	696254464	40	5867
2026-01-27 13:54:28.63	35.96	23.36	-33.5	-34.3	24.9	0.00e+00	122	35	0	698351616	40	5766
2026-01-27 13:54:29.64	36.09	23.49	-33.5	-34.3	25.0	0.00e+00	122	35	0	701497344	40	5789
2026-01-27 13:54:30.65	36.22	23.63	-33.6	-34.4	24.9	0.00e+00	120	35	0	705691648	40	5850
2026-01-27 13:54:31.66	36.36	23.76	-33.5	-34.4	24.9	0.00e+00	122	35	0	708837376	40	5819
2026-01-27 13:54:32.67	36.49	23.90	-33.4	-34.3	25.1	0.00e+00	122	35	0	711983104	40	5766
2026-01-27 13:54:33.68	36.62	24.03	-33.4	-34.3	25.1	0.00e+00	123	35	0	715128832	40	5727
2026-01-27 13:54:34.69	36.76	24.17	-33.4	-34.3	25.0	0.00e+00	121	35	0	718274560	40	5767
2026-01-27 13:54:35.69	36.90	24.30	-33.5	-34.3	25.0	0.00e+00	123	35	0	721420288	40	5782
2026-01-27 13:54:36.71	37.04	24.44	-33.5	-34.3	25.1	0.00e+00	122	35	0	724566016	40	5772
2026-01-27 13:54:37.71	37.17	24.58	-33.6	-34.4	25.0	0.00e+00	123	35	0	727711744	40	5835
2026-01-27 13:54:38.72	37.31	24.72	-33.6	-34.5	25.0	0.00e+00	120	35	0	730857472	40	5893
2026-01-27 13:54:39.73	37.46	24.86	-33.5	-34.4	25.0	0.00e+00	122	35	0	734003200	40	5806
2026-01-27 13:54:40.74	37.60	25.00	-33.6	-34.5	24.9	0.00e+00	123	35	0	737148928	40	5891
2026-01-27 13:54:41.75	37.74	25.14	-33.6	-34.5	25.0	0.00e+00	123	35	0	740294656	40	5898
2026-01-27 13:54:42.76	37.89	25.28	-33.8	-34.7	24.9	0.00e+00	123	35	0	743440384	40	6012
2026-01-27 13:54:43.77	38.04	25.42	-33.8	-34.6	25.0	0.00e+00	123	35	0	746586112	40	5985
2026-01-27 13:54:44.78	38.18	25.56	-33.7	-34.6	24.9	0.00e+00	120	35	0	749731840	40	5961
2026-01-27 13:54:45.79	38.33	25.70	-33.8	-34.7	25.0	0.00e+00	120	35	0	752877568	40	5999
2026-01-27 13:54:46.80	38.48	25.84	-33.8	-34.6	24.9	0.00e+00	123	35	0	756023296	40	5982
2026-01-27 13:54:47.81	38.64	25.99	-33.9	-34.8	24.9	0.00e+00	122	35	0	759169024	40	6067
2026-01-27 13:54:48.82	38.79	26.13	-34.0	-34.9	24.7	0.00e+00	120	35	0	762314752	40	6138
2026-01-27 13:54:49.83	38.94	26.28	-34.1	-35.0	24.7	0.00e+00	122	35	0	765460480	40	6244
2026-01-27 13:54:50.84	39.10	26.42	-34.0	-34.9	24.7	0.00e+00	120	35	0	768606208	40	6172
2026-01-27 13:54:51.85	39.26	26.57	-34.0	-34.9	24.8	0.00e+00	122	35	0	771751936	40	6154
2026-01-27 13:54:52.86	39.42	26.71	-34.1	-34.9	24.8	0.00e+00	122	35	0	774897664	40	6191
2026-01-27 13:54:53.87	39.58	26.86	-34.1	-35.0	24.7	0.00e+00	123	35	0	778043392	40	6236
2026-01-27 13:54:54.88	39.74	27.01	-34.1	-35.0	24.8	0.00e+00	123	35	0	781189120	40	6241
2026-01-27 13:54:55.89	39.90	27.15	-34.2	-35.0	24.7	0.00e+00	122	35	0	784334848	40	6259
2026-01-27 13:54:56.90	40.07	27.30	-34.3	-35.2	24.5	0.00e+00	121	35	0	787480576	40	6392
2026-01-27 13:54:57.91	40.23	27.45	-34.4	-35.3	24.5	0.00e+00	123	35	0	790626304	40	6425
2026-01-27 13:54:58.92	40.40	27.60	-34.4	-35.3	24.4	0.00e+00	120	35	0	793772032	40	6458
2026-01-27 13:54:59.92	40.57	27.75	-34.5	-35.4	24.3	0.00e+00	123	35	0	796917760	40	6552
2026-01-27 13:55:00.93	40.74	27.90	-34.5	-35.4	24.2	0.00e+00	120	35	0	800063488	40	6566
2026-01-27 13:55:01.94	40.91	28.05	-34.5	-35.4	24.0	0.00e+00	123	35	0	803209216	40	6549
2026-01-27 13:55:02.95	41.08	28.20	-34.6	-35.5	24.0	0.00e+00	120	35	0	806354944	40	6641
2026-01-27 13:55:03.96	41.26	28.36	-34.5	-35.4	24.1	0.00e+00	123	35	0	809500672	40	6563
2026-01-27 13:55:04.97	41.44	28.51	-34.7	-35.6	24.1	0.00e+00	122	35	0	812646400	40	6677
2026-01-27 13:55:05.98	41.61	28.66	-34.7	-35.6	24.2	0.00e+00	120	35	0	815792128	42	5947
2026-01-27 13:55:06.99	41.79	28.82	-34.7	-35.6	24.2	0.00e+00	123	35	0	818937856	42	5979
2026-01-27 13:55:08.00	41.98	28.97	-34.7	-35.6	24.1	0.00e+00	120	35	0	822083584	42	5967
2026-01-27 13:55:09.01	42.16	29.13	-34.6	-35.5	24.1	0.00e+00	122	35	0	825229312	42	5877
2026-01-27 13:55:10.02	42.35	29.28	-34.6	-35.5	24.1	0.00e+00	123	35	0	828375040	42	5908
2026-01-27 13:55:11.03	42.53	29.44	-34.4	-35.3	24.3	0.00e+00	122	35	0	831520768	42	5767
2026-01-27 13:55:12.04	42.72	29.59	-34.4	-35.3	24.3	0.00e+00	120	35	0	834666496	42	5768
2026-01-27 13:55:13.05	42.91	29.75	-34.4	-35.3	24.3	0.00e+00	122	35	0	837812224	42	5742
2026-01-27 13:55:14.06	43.11	29.91	-34.4	-35.3	24.4	0.00e+00	122	35	0	840957952	42	5726
2026-01-27 13:55:15.07	43.30	30.07	-34.4	-35.3	24.3	0.00e+00	123	35	0	844103680	42	5767
2026-01-27 13:55:16.07	43.50	30.22	-34.4	-35.3	24.3	0.00e+00	122	35	0	847249408	42	5791
2026-01-27 13:55:17.08	43.69	30.38	-34.3	-35.2	24.3	0.00e+00	123	35	0	850395136	42	5703
2026-01-27 13:55:18.09	43.89	30.54	-34.2	-35.1	24.5	0.00e+00	123	35	0	853540864	42	5623
2026-01-27 13:55:19.10	44.10	30.70	-34.1	-34.9	24.5	0.00e+00	123	35	0	856686592	42	5524
2026-01-27 13:55:20.11	44.30	30.87	-34.0	-34.8	24.6	0.00e+00	123	35	0	859832320	42	5464
2026-01-27 13:55:21.12	44.51	31.03	-33.9	-34.8	24.8	0.00e+00	123	35	0	862978048	42	5412
2026-01-27 13:55:22.13	44.72	31.19	-33.9	-34.8	24.7	0.00e+00	120	35	0	866123776	42	5452
2026-01-27 13:55:23.14	44.93	31.35	-34.0	-34.9	24.6	0.00e+00	122	35	0	869269504	42	5493
2026-01-27 13:55:24.15	45.14	31.51	-34.1	-34.9	24.8	0.00e+00	122	35	0	872415232	42	5518
2026-01-27 13:55:25.16	45.35	31.68	-33.9	-34.7	24.8	0.00e+00	122	35	0	875560960	42	5402
2026-01-27 13:55:26.17	45.57	31.84	-33.9	-34.8	24.9	0.00e+00	123	35	0	878706688	42	5434
2026-01-27 13:55:27.18	45.79	32.01	-34.0	-34.8	24.9	0.00e+00	123	35	0	881852416	42	5461
2026-01-27 13:55:28.19	46.01	32.17	-34.0	-34.9	24.8	0.00e+00	123	35	0	884998144	42	5477
2026-01-27 13:55:29.20	46.23	32.34	-34.1	-35.0	24.7	0.00e+00	120	35	0	888143872	42	5568
2026-01-27 13:55:30.21	46.46	32.50	-34.2	-35.1	24.6	0.00e+00	123	35	0	891289600	42	5628
2026-01-27 13:55:31.22	46.69	32.67	-34.2	-35.1	24.6	0.00e+00	121	35	0	894435328	42	5629
2026-01-27 13:55:32.23	46.92	32.83	-34.1	-35.0	24.8	0.00e+00	122	35	0	897581056	42	5556
2026-01-27 13:55:33.24	47.15	33.00	-34.2	-35.0	24.7	0.00e+00	123	35	0	900726784	42	5579
2026-01-27 13:55:34.25	47.38	33.17	-34.4	-35.2	24.5	0.00e+00	123	35	0	903872512	42	5714
2026-01-27 13:55:35.26	47.62	33.34	-34.6	-35.4	24.4	0.00e+00	123	35	0	907018240	42	5854
2026-01-27 13:55:36.27	47.86	33.51	-34.8	-35.7	24.1	0.00e+00	122	35	0	910163968	42	6057
2026-01-27 13:55:37.28	48.10	33.67	-34.9	-35.9	24.0	0.00e+00	122	35	0	913309696	42	6139
2026-01-27 13:55:38.29	48.35	33.84	-35.0	-35.9	24.0	0.00e+00	123	35	0	916455424	42	6149
2026-01-27 13:55:39.30	48.59	34.01	-35.0	-35.9	24.0	0.00e+00	122	35	0	919601152	42	6187
2026-01-27 13:55:40.31	48.84	34.18	-35.1	-36.0	23.9	0.00e+00	122	35	0	922746880	42	6253
2026-01-27 13:55:41.32	49.09	34.35	-35.2	-36.1	23.8	0.00e+00	123	35	0	925892608	42	6349
2026-01-27 13:55:42.33	49.35	34.52	-35.4	-36.4	23.7	0.00e+00	123	35	0	929038336	42	6499
2026-01-27 13:55:43.34	49.61	34.69	-35.6	-36.5	23.7	0.00e+00	123	35	0	932184064	42	6613
2026-01-27 13:55:44.35	49.87	34.87	-35.5	-36.4	23.8	0.00e+00	122	35	0	935329792	42	6531
2026-01-27 13:55:45.36	50.13	35.04	-35.4	-36.3	23.8	0.00e+00	120	35	0	938475520	42	6447
2026-01-27 13:55:46.37	50.39	35.21	-35.4	-36.3	23.8	0.00e+00	122	35	0	941621248	42	6483
2026-01-27 13:55:47.38	50.66	35.38	-35.4	-36.3	23.7	0.00e+00	122	35	0	944766976	42	6463
2026-01-27 13:55:48.39	50.93	35.55	-35.6	-36.5	23.6	0.00e+00	123	35	0	947912704	42	6640
2026-01-27 13:55:49.40	51.21	35.73	-35.6	-36.6	23.5	0.00e+00	122	35	0	951058432	42	6659
2026-01-27 13:55:50.41	51.48	35.90	-35.8	-36.7	23.3	0.00e+00	120	35	0	954204160	44	6057
2026-01-27 13:55:51.42	51.76	36.07	-36.1	-37.1	23.1	0.00e+00	123	35	0	957349888	44	6278
2026-01-27 13:55:52.43	52.05	36.24	-36.1	-37.1	23.1	0.00e+00	123	35	0	960495616	44	6326
2026-01-27 13:55:53.44	52.33	36.42	-36.0	-37.0	23.3	0.00e+00	123	35	0	963641344	44	6234
2026-01-27 13:55:54.45	52.62	36.59	-36.1	-37.1	23.3	0.00e+00	120	35	0	966787072	44	6283
2026-01-27 13:55:55.46	52.91	36.76	-36.1	-37.0	23.2	0.00e+00	122	35	0	969932800	44	6249
2026-01-27 13:55:56.47	53.21	36.94	-36.0	-36.9	23.3	0.00e+00	122	35	0	973078528	44	6191
2026-01-27 13:55:57.48	53.50	37.11	-36.2	-37.1	23.2	0.00e+00	120	35	0	976224256	44	6327
2026-01-27 13:55:58.49	53.80	37.28	-36.2	-37.2	23.1	0.00e+00	122	35	0	979369984	44	6351
2026-01-27 13:55:59.49	54.10	37.46	-36.2	-37.1	23.1	0.00e+00	120	35	0	982515712	44	6332
2026-01-27 13:56:00.47	54.40	37.63	-36.2	-37.2	23.1	0.00e+00	122	34	0	985661440	44	6385
2026-01-27 13:56:01.48	54.71	37.80	-36.1	-37.0	23.2	0.00e+00	123	35	0	988807168	44	6245
2026-01-27 13:56:02.49	55.03	37.97	-36.3	-37.2	23.1	0.00e+00	120	35	0	991952896	44	6411
2026-01-27 13:56:03.49	55.34	38.15	-36.2	-37.2	23.0	0.00e+00	122	35	0	995098624	44	6383
2026-01-27 13:56:04.50	55.66	38.32	-36.4	-37.4	22.8	0.00e+00	120	35	0	998244352	44	6511
2026-01-27 13:56:05.51	55.98	38.49	-36.3	-37.3	22.8	0.00e+00	123	35	0	1001390080	44	6474
2026-01-27 13:56:06.52	56.31	38.67	-36.2	-37.2	22.9	0.00e+00	120	35	0	1004535808	44	6380
2026-01-27 13:56:07.53	56.64	38.84	-36.2	-37.2	22.9	0.00e+00	122	35	0	1007681536	44	6372
2026-01-27 13:56:08.54	56.98	39.01	-36.4	-37.4	22.8	0.00e+00	123	35	0	1010827264	44	6555
2026-01-27 13:56:09.55	57.31	39.19	-36.5	-37.5	22.8	0.00e+00	122	35	0	1013972992	44	6590
2026-01-27 13:56:10.56	57.65	39.36	-36.7	-37.7	22.7	0.00e+00	120	35	0	1017118720	46	6005
2026-01-27 13:56:11.57	58.00	39.53	-36.8	-37.8	22.5	0.00e+00	123	35	0	1020264448	46	6102
2026-01-27 13:56:12.58	58.35	39.70	-36.6	-37.7	22.7	0.00e+00	123	35	0	1023410176	46	6002
2026-01-27 13:56:13.59	58.70	39.87	-36.6	-37.6	22.5	0.00e+00	120	35	0	1026555904	46	5984
2026-01-27 13:56:14.60	59.05	40.05	-36.8	-37.8	22.4	0.00e+00	123	35	0	1029701632	46	6114
2026-01-27 13:56:15.61	59.41	40.22	-36.8	-37.8	22.4	0.00e+00	120	35	0	1032847360	46	6110
2026-01-27 13:56:16.62	59.78	40.39	-37.0	-38.0	22.3	0.00e+00	123	34	0	1035993088	46	6243
2026-01-27 13:56:17.63	60.14	40.56	-37.1	-38.2	22.3	0.00e+00	123	35	0	1039138816	46	6358
2026-01-27 13:56:18.64	60.51	40.73	-37.1	-38.1	22.4	0.00e+00	123	34	0	1042284544	46	6334
2026-01-27 13:56:19.65	60.89	40.90	-36.9	-37.9	22.5	0.00e+00	122	35	0	1045430272	46	6154
2026-01-27 13:56:20.66	61.27	41.07	-36.8	-37.8	22.7	0.00e+00	123	34	0	1048576000	46	6080
2026-01-27 13:56:21.67	61.65	41.23	-36.9	-37.9	22.6	0.00e+00	123	34	0	1051721728	46	6138
2026-01-27 13:56:22.68	62.04	41.40	-36.8	-37.8	22.6	0.00e+00	123	35	0	1054867456	46	6104
2026-01-27 13:56:23.69	62.43	41.57	-37.0	-38.0	22.5	0.00e+00	122	34	0	1059061760	46	6220
2026-01-27 13:56:24.70	62.82	41.74	-36.9	-37.9	22.5	0.00e+00	122	34	0	1061158912	46	6167
2026-01-27 13:56:25.71	63.22	41.90	-37.2	-38.2	22.3	0.00e+00	123	34	0	1064304640	46	6418
2026-01-27 13:56:26.72	63.62	42.07	-37.4	-38.5	22.1	0.00e+00	122	34	0	1067450368	46	6592
2026-01-27 13:56:27.73	64.03	42.23	-37.5	-38.6	21.9	0.00e+00	120	34	0	1070596096	46	6684
2026-01-27 13:56:28.74	64.44	42.39	-37.2	-38.2	22.3	0.00e+00	122	34	0	1074790400	46	6408
2026-01-27 13:56:29.75	64.85	42.55	-37.2	-38.3	22.1	0.00e+00	121	34	0	1077936128	46	6442
2026-01-27 13:56:30.76	65.27	42.71	-37.4	-38.5	21.8	0.00e+00	123	34	0	1081081856	46	6609
2026-01-27 13:56:31.77	65.69	42.88	-37.4	-38.5	21.9	0.00e+00	120	34	0	1084227584	46	6632
2026-01-27 13:56:32.78	66.12	43.03	-37.2	-38.2	22.2	0.00e+00	123	34	0	1086324736	46	6416
2026-01-27 13:56:33.79	66.55	43.19	-37.0	-38.0	22.3	0.00e+00	122	34	0	1089470464	46	6250
2026-01-27 13:56:34.80	66.99	43.35	-36.9	-37.9	22.5	0.00e+00	122	34	0	1093664768	46	6162
2026-01-27 13:56:35.81	67.43	43.50	-36.8	-37.8	22.6	0.00e+00	122	34	0	1096810496	46	6129
2026-01-27 13:56:36.82	67.87	43.66	-36.9	-37.9	22.4	0.00e+00	123	34	0	1099956224	46	6198
2026-01-27 13:56:37.83	68.32	43.81	-37.1	-38.1	22.3	0.00e+00	120	34	0	1103101952	46	6350
2026-01-27 13:56:38.83	68.77	43.96	-37.0	-38.1	22.3	0.00e+00	122	34	0	1106247680	46	6298
2026-01-27 13:56:39.84	69.23	44.11	-37.2	-38.2	22.1	0.00e+00	122	34	0	1109393408	46	6389
2026-01-27 13:56:40.85	69.69	44.26	-36.8	-37.8	22.6	0.00e+00	122	34	0	1112539136	46	6072
2026-01-27 13:56:41.86	70.15	44.41	-36.5	-37.4	22.9	0.00e+00	123	34	0	1115684864	46	5851
2026-01-27 13:56:42.87	70.62	44.56	-36.5	-37.5	22.7	0.00e+00	124	34	0	1118830592	46	5875
2026-01-27 13:56:43.88	71.10	44.70	-36.5	-37.5	22.5	0.00e+00	122	34	0	1121976320	46	5886
2026-01-27 13:56:44.89	71.57	44.84	-36.7	-37.7	22.4	0.00e+00	123	34	0	1125122048	46	6006
2026-01-27 13:56:45.90	72.06	44.98	-36.6	-37.6	22.5	0.00e+00	122	34	0	1128267776	46	5951
2026-01-27 13:56:46.91	72.54	45.12	-36.6	-37.6	22.7	0.00e+00	122	34	0	1131413504	46	5974
2026-01-27 13:56:47.92	73.03	45.26	-36.4	-37.4	22.8	0.00e+00	123	34	0	1134559232	46	5847
2026-01-27 13:56:48.93	73.53	45.40	-36.5	-37.4	23.0	0.00e+00	122	34	0	1137704960	46	5854
2026-01-27 13:56:49.94	74.03	45.53	-36.2	-37.2	22.9	0.00e+00	123	34	0	1140850688	46	5692
2026-01-27 13:56:50.95	74.53	45.66	-36.4	-37.4	22.5	0.00e+00	122	34	0	1143996416	46	5810
2026-01-27 13:56:51.96	75.04	45.79	-36.8	-37.9	22.5	0.00e+00	123	34	0	1147142144	46	6151
2026-01-27 13:56:52.97	75.55	45.92	-37.0	-38.0	22.4	0.00e+00	122	34	0	1150287872	46	6245
2026-01-27 13:56:53.98	76.07	46.05	-36.6	-37.6	22.9	0.00e+00	122	34	0	1153433600	46	5944
2026-01-27 13:56:54.99	76.59	46.17	-36.6	-37.6	22.8	0.00e+00	123	34	0	1156579328	46	5933
2026-01-27 13:56:56.00	77.11	46.29	-36.8	-37.8	22.6	0.00e+00	123	34	0	1159725056	46	6100
2026-01-27 13:56:57.01	77.64	46.41	-37.1	-38.2	22.4	0.00e+00	123	34	0	1162870784	46	6365
2026-01-27 13:56:58.02	78.17	46.53	-37.3	-38.4	22.2	0.00e+00	122	34	0	1166016512	46	6509
2026-01-27 13:56:59.03	78.71	46.65	-37.5	-38.5	22.0	0.00e+00	123	34	0	1169162240	46	6619
2026-01-27 13:57:00.03	79.24	46.76	-37.2	-38.2	22.3	0.00e+00	122	34	0	1172307968	46	6376
2026-01-27 13:57:01.04	79.79	46.87	-37.1	-38.1	22.3	0.00e+00	123	34	0	1175453696	46	6299
2026-01-27 13:57:02.05	80.33	46.98	-37.0	-38.1	22.5	0.00e+00	123	34	0	1178599424	46	6284
2026-01-27 13:57:03.06	80.89	47.08	-36.4	-37.3	23.1	0.00e+00	123	34	0	1181745152	46	5784
2026-01-27 13:57:04.07	81.44	47.18	-36.3	-37.2	23.1	0.00e+00	122	34	0	1184890880	46	5700
2026-01-27 13:57:05.08	82.00	47.28	-36.5	-37.4	23.0	0.00e+00	123	34	0	1188036608	46	5832
2026-01-27 13:57:06.09	82.56	47.38	-36.7	-37.7	22.6	0.00e+00	122	34	0	1191182336	46	6022
2026-01-27 13:57:07.10	83.13	47.48	-37.2	-38.2	22.3	0.00e+00	123	34	0	1194328064	46	6405
2026-01-27 13:57:08.11	83.70	47.57	-36.9	-37.8	22.5	0.00e+00	123	34	0	1197473792	46	6128
2026-01-27 13:57:09.12	84.27	47.66	-36.6	-37.6	22.8	0.00e+00	120	34	0	1200619520	46	5945
2026-01-27 13:57:10.13	84.84	47.74	-36.0	-36.9	23.3	0.00e+00	122	34	0	1203765248	46	5504
2026-01-27 13:57:11.14	85.42	47.83	-36.0	-37.0	23.1	0.00e+00	123	34	0	1206910976	46	5533
2026-01-27 13:57:12.15	86.00	47.91	-36.4	-37.4	22.8	0.00e+00	123	34	0	1210056704	46	5818
2026-01-27 13:57:13.16	86.59	47.98	-36.5	-37.4	22.8	0.00e+00	123	34	0	1213202432	46	5855
2026-01-27 13:57:14.17	87.18	48.06	-36.4	-37.3	23.0	0.00e+00	121	34	0	1216348160	46	5786
2026-01-27 13:57:15.18	87.77	48.13	-36.4	-37.4	22.9	0.00e+00	123	34	0	1219493888	46	5817
2026-01-27 13:57:16.19	88.36	48.20	-36.4	-37.4	22.5	0.00e+00	123	34	0	1222639616	46	5815
2026-01-27 13:57:17.19	88.95	48.26	-36.3	-37.4	22.6	0.00e+00	122	34	0	1225785344	46	5795
2026-01-27 13:57:18.20	89.54	48.32	-36.3	-37.3	22.9	0.00e+00	123	34	0	1228931072	46	5738
2026-01-27 13:57:19.21	90.14	48.38	-36.2	-37.2	23.1	0.00e+00	123	34	0	1232076800	46	5699
2026-01-27 13:57:20.22	90.75	48.43	-36.3	-37.3	23.0	0.00e+00	121	34	0	1235222528	46	5744
2026-01-27 13:57:21.23	91.35	48.49	-36.5	-37.5	22.8	0.00e+00	123	34	0	1238368256	46	5908
2026-01-27 13:57:22.24	91.96	48.54	-36.8	-37.8	22.5	0.00e+00	121	34	0	1241513984	46	6078
2026-01-27 13:57:23.25	92.57	48.58	-36.8	-37.8	22.6	0.00e+00	122	34	0	1244659712	46	6093
2026-01-27 13:57:24.26	93.18	48.62	-36.5	-37.4	22.7	0.00e+00	120	34	0	1247805440	46	5848
2026-01-27 13:57:25.27	93.79	48.66	-36.5	-37.5	22.8	0.00e+00	123	34	0	1250951168	46	5917
2026-01-27 13:57:26.28	94.40	48.70	-36.5	-37.5	23.0	0.00e+00	122	34	0	1254096896	46	5892
2026-01-27 13:57:27.29	95.01	48.73	-36.5	-37.4	22.8	0.00e+00	123	34	0	1257242624	46	5839
2026-01-27 13:57:28.29	95.62	48.75	-36.3	-37.3	23.1	0.00e+00	122	34	0	1260388352	46	5753
2026-01-27 13:57:29.30	96.24	48.78	-36.4	-37.4	22.9	0.00e+00	120	34	0	1263534080	46	5823
2026-01-27 13:57:30.31	96.86	48.80	-36.8	-37.8	22.4	0.00e+00	122	34	0	1266679808	46	6108
2026-01-27 13:57:31.32	97.48	48.82	-36.8	-37.7	22.8	0.00e+00	123	34	0	1269825536	46	6052
2026-01-27 13:57:32.33	98.09	48.83	-36.5	-37.4	22.9	0.00e+00	123	34	0	1272971264	46	5851
2026-01-27 13:57:33.34	98.71	48.84	-36.5	-37.4	23.0	0.00e+00	122	34	0	1276116992	46	5849
2026-01-27 13:57:34.35	99.33	48.85	-36.5	-37.4	22.9	0.00e+00	120	34	0	1279262720	46	5853
2026-01-27 13:57:35.36	99.95	48.85	-36.4	-37.3	23.0	0.00e+00	122	34	0	1282408448	46	5759
2026-01-27 13:57:36.37	100.57	48.85	-36.2	-37.2	23.2	0.00e+00	122	34	0	1285554176	46	5664
2026-01-27 13:57:37.38	101.19	48.85	-36.0	-36.9	23.3	0.00e+00	122	34	0	1288699904	46	5528
2026-01-27 13:57:38.39	101.81	48.84	-36.2	-37.2	23.1	0.00e+00	123	34	0	1291845632	46	5669
2026-01-27 13:57:39.40	102.43	48.83	-36.8	-37.8	22.6	0.00e+00	121	34	0	1294991360	46	6118
2026-01-27 13:57:40.41	103.05	48.82	-36.7	-37.8	22.4	0.00e+00	123	34	0	1298137088	46	6075
2026-01-27 13:57:41.42	103.67	48.80	-36.6	-37.6	22.6	0.00e+00	123	34	0	1301282816	46	5980
2026-01-27 13:57:42.43	104.29	48.78	-36.6	-37.5	22.9	0.00e+00	122	34	0	1304428544	46	5924
2026-01-27 13:57:43.44	104.90	48.76	-36.3	-37.3	23.1	0.00e+00	120	34	0	1307574272	46	5761
2026-01-27 13:57:44.45	105.52	48.73	-36.6	-37.5	22.8	0.00e+00	123	34	0	1310720000	46	5909
2026-01-27 13:57:45.46	106.13	48.70	-36.7	-37.7	22.6	0.00e+00	121	34	0	1313865728	46	6036
2026-01-27 13:57:46.47	106.75	48.66	-36.8	-37.8	22.5	0.00e+00	122	34	0	1317011456	46	6115
2026-01-27 13:57:47.48	107.36	48.62	-36.8	-37.8	22.4	0.00e+00	123	34	0	1320157184	46	6072
2026-01-27 13:57:48.49	107.97	48.58	-36.9	-37.9	22.6	0.00e+00	120	34	0	1323302912	46	6167
2026-01-27 13:57:49.49	108.57	48.54	-36.5	-37.5	22.9	0.00e+00	123	34	0	1326448640	46	5874
2026-01-27 13:57:50.50	109.18	48.49	-36.5	-37.5	22.9	0.00e+00	122	34	0	1329594368	46	5892
2026-01-27 13:57:51.51	109.78	48.44	-36.8	-37.8	22.7	0.00e+00	123	34	0	1332740096	46	6120
2026-01-27 13:57:52.52	110.39	48.38	-37.3	-38.4	22.1	0.00e+00	120	34	0	1335885824	46	6528
2026-01-27 13:57:53.53	110.99	48.32	-37.8	-39.0	21.7	0.00e+00	120	34	0	1339031552	46	6970
2026-01-27 13:57:54.54	111.59	48.26	-37.9	-39.0	21.6	0.00e+00	123	34	0	1342177280	48	6268
2026-01-27 13:57:55.55	112.18	48.20	-37.5	-38.6	21.9	0.00e+00	123	34	0	1345323008	48	5956
2026-01-27 13:57:56.56	112.78	48.13	-37.1	-38.1	22.2	0.00e+00	122	34	0	1348468736	48	5649
2026-01-27 13:57:57.57	113.37	48.06	-36.7	-37.7	22.8	0.00e+00	122	34	0	1351614464	46	6018
2026-01-27 13:57:58.58	113.95	47.98	-36.5	-37.5	22.8	0.00e+00	123	34	0	1354760192	46	5911
2026-01-27 13:57:59.59	114.54	47.91	-36.9	-38.0	22.5	0.00e+00	122	34	0	1357905920	46	6245
2026-01-27 13:58:00.60	115.12	47.83	-36.7	-37.7	22.7	0.00e+00	123	34	0	1361051648	46	6061
2026-01-27 13:58:01.61	115.70	47.74	-36.7	-37.8	22.3	0.00e+00	122	34	0	1364197376	46	6075
2026-01-27 13:58:02.62	116.28	47.66	-36.7	-37.7	22.5	0.00e+00	123	34	0	1367343104	46	6034
2026-01-27 13:58:03.63	116.85	47.57	-36.0	-37.0	23.3	0.00e+00	123	34	0	1370488832	46	5531
2026-01-27 13:58:04.64	117.42	47.48	-35.6	-36.5	23.4	0.00e+00	123	34	0	1373634560	44	5913
2026-01-27 13:58:05.65	117.99	47.38	-35.6	-36.6	23.3	0.00e+00	120	34	0	1376780288	44	5947
2026-01-27 13:58:06.66	118.55	47.28	-36.0	-37.0	23.0	0.00e+00	123	34	0	1379926016	44	6222
2026-01-27 13:58:07.67	119.11	47.18	-36.3	-37.2	22.8	0.00e+00	123	34	0	1383071744	44	6419
2026-01-27 13:58:08.68	119.66	47.08	-36.4	-37.4	22.9	0.00e+00	120	34	0	1386217472	44	6523
2026-01-27 13:58:09.69	120.22	46.98	-36.4	-37.4	22.7	0.00e+00	120	34	0	1389363200	44	6544
2026-01-27 13:58:10.70	120.77	46.87	-36.7	-37.7	22.6	0.00e+00	123	34	0	1392508928	44	6768
2026-01-27 13:58:11.71	121.31	46.76	-36.2	-37.1	23.2	0.00e+00	123	34	0	1395654656	44	6326
2026-01-27 13:58:12.72	121.85	46.64	-36.0	-36.9	23.2	0.00e+00	120	34	0	1398800384	44	6204
2026-01-27 13:58:13.73	122.39	46.53	-35.9	-36.9	23.3	0.00e+00	122	34	0	1401946112	44	6143
2026-01-27 13:58:14.74	122.92	46.41	-36.2	-37.1	23.2	0.00e+00	120	34	0	1405091840	44	6334
2026-01-27 13:58:15.75	123.45	46.29	-36.4	-37.4	22.9	0.00e+00	123	34	0	1408237568	44	6507
2026-01-27 13:58:16.75	123.97	46.17	-36.3	-37.3	23.0	0.00e+00	122	34	0	1411383296	44	6470
2026-01-27 13:58:17.76	124.49	46.05	-36.3	-37.2	22.9	0.00e+00	123	34	0	1414529024	44	6387
2026-01-27 13:58:18.77	125.01	45.92	-36.1	-37.1	23.1	0.00e+00	122	34	0	1417674752	44	6281
2026-01-27 13:58:19.78	125.52	45.79	-36.0	-36.9	23.3	0.00e+00	123	34	0	1420820480	44	6189
2026-01-27 13:58:20.79	126.03	45.66	-36.1	-37.1	23.3	0.00e+00	122	34	0	1425014784	44	6284
2026-01-27 13:58:21.80	126.54	45.53	-36.3	-37.2	23.1	0.00e+00	123	34	0	1427111936	44	6390
2026-01-27 13:58:22.81	127.04	45.39	-36.4	-37.3	23.1	0.00e+00	123	34	0	1430257664	44	6481
2026-01-27 13:58:23.82	127.53	45.26	-36.5	-37.4	22.9	0.00e+00	123	34	0	1433403392	44	6561
2026-01-27 13:58:24.83	128.02	45.12	-36.3	-37.2	23.0	0.00e+00	123	34	0	1436549120	44	6413
2026-01-27 13:58:25.84	128.51	44.98	-36.1	-37.0	23.0	0.00e+00	120	34	0	1440743424	44	6256
2026-01-27 13:58:26.85	129.00	44.84	-35.9	-36.8	23.3	0.00e+00	123	34	0	1443889152	44	6102
2026-01-27 13:58:27.86	129.48	44.69	-35.9	-36.8	23.4	0.00e+00	123	34	0	1447034880	44	6124
2026-01-27 13:58:28.87	129.95	44.55	-35.9	-36.9	23.4	0.00e+00	123	34	0	1449132032	44	6139
2026-01-27 13:58:29.88	130.42	44.40	-36.4	-37.4	23.0	0.00e+00	123	34	0	1452277760	44	6521
2026-01-27 13:58:30.89	130.89	44.25	-37.0	-38.0	22.4	0.00e+00	120	34	0	1456472064	46	6213
2026-01-27 13:58:31.90	131.35	44.10	-37.2	-38.3	22.1	0.00e+00	123	34	0	1459617792	46	6436
2026-01-27 13:58:32.91	131.81	43.95	-37.4	-38.5	22.0	0.00e+00	120	34	0	1462763520	46	6600
2026-01-27 13:58:33.92	132.26	43.80	-37.4	-38.5	22.1	0.00e+00	123	34	0	1465909248	46	6577
2026-01-27 13:58:34.93	132.71	43.65	-37.6	-38.6	21.9	0.00e+00	123	34	0	1469054976	46	6706
2026-01-27 13:58:35.94	133.16	43.49	-37.7	-38.8	21.9	0.00e+00	122	34	0	1472200704	48	6069
2026-01-27 13:58:36.95	133.60	43.34	-37.7	-38.7	21.9	0.00e+00	123	34	0	1475346432	48	6063
2026-01-27 13:58:37.95	134.03	43.18	-37.6	-38.7	21.9	0.00e+00	123	34	0	1478492160	48	6007
2026-01-27 13:58:38.96	134.46	43.02	-37.6	-38.7	21.7	0.00e+00	120	34	0	1481637888	48	5996
2026-01-27 13:58:39.97	134.89	42.86	-37.4	-38.5	21.9	0.00e+00	121	34	0	1484783616	48	5884
2026-01-27 13:58:40.98	135.31	42.70	-37.3	-38.3	22.2	0.00e+00	122	34	0	1487929344	48	5762
2026-01-27 13:58:41.99	135.73	42.54	-36.8	-37.8	22.7	0.00e+00	120	34	0	1491075072	48	5412
2026-01-27 13:58:43.00	136.15	42.38	-36.7	-37.7	22.7	0.00e+00	122	34	0	1494220800	46	6030
2026-01-27 13:58:44.01	136.56	42.21	-36.5	-37.5	22.8	0.00e+00	123	34	0	1497366528	46	5892
2026-01-27 13:58:45.02	136.97	42.05	-36.4	-37.4	22.9	0.00e+00	122	34	0	1500512256	46	5801
2026-01-27 13:58:46.03	137.37	41.88	-36.4	-37.3	23.0	0.00e+00	122	34	0	1503657984	46	5779
2026-01-27 13:58:47.04	137.77	41.72	-35.9	-36.9	23.2	0.00e+00	120	34	0	1506803712	46	5493
2026-01-27 13:58:48.05	138.17	41.55	-36.1	-37.1	23.0	0.00e+00	123	34	0	1509949440	46	5625
2026-01-27 13:58:49.06	138.56	41.38	-36.2	-37.1	23.0	0.00e+00	122	34	0	1513095168	46	5632
2026-01-27 13:58:50.07	138.95	41.21	-36.1	-37.0	23.2	0.00e+00	123	34	0	1516240896	46	5577
2026-01-27 13:58:51.08	139.33	41.04	-36.0	-37.0	23.2	0.00e+00	123	34	0	1519386624	46	5537
2026-01-27 13:58:52.09	139.71	40.87	-35.9	-36.8	23.2	0.00e+00	123	34	0	1522532352	46	5447
2026-01-27 13:58:53.10	140.08	40.70	-36.1	-37.0	22.9	0.00e+00	123	34	0	1525678080	46	5587
2026-01-27 13:58:54.10	140.45	40.54	-36.6	-37.6	22.5	0.00e+00	123	34	0	1528823808	46	5967
2026-01-27 13:58:55.11	140.82	40.36	-36.8	-37.7	22.5	0.00e+00	122	34	0	1531969536	46	6064
2026-01-27 13:58:56.12	141.18	40.19	-37.0	-38.0	22.3	0.00e+00	122	33	0	1535115264	46	6253
2026-01-27 13:58:57.13	141.54	40.02	-37.2	-38.2	22.2	0.00e+00	122	34	0	1538260992	46	6396
2026-01-27 13:58:58.14	141.90	39.85	-37.5	-38.6	22.0	0.00e+00	122	34	0	1541406720	46	6653
2026-01-27 13:58:59.15	142.25	39.68	-37.4	-38.4	22.1	0.00e+00	122	33	0	1544552448	46	6569
2026-01-27 13:59:00.16	142.60	39.50	-37.1	-38.1	22.2	0.00e+00	123	34	0	1547698176	46	6333
2026-01-27 13:59:01.17	142.95	39.33	-36.9	-38.0	22.5	0.00e+00	123	34	0	1550843904	46	6216
2026-01-27 13:59:02.18	143.29	39.16	-36.6	-37.6	22.6	0.00e+00	122	34	0	1553989632	46	5977
2026-01-27 13:59:03.19	143.63	38.98	-36.7	-37.7	22.6	0.00e+00	123	34	0	1557135360	46	6008
2026-01-27 13:59:04.20	143.96	38.81	-36.6	-37.6	22.7	0.00e+00	123	34	0	1560281088	46	5962
2026-01-27 13:59:05.21	144.29	38.63	-36.9	-37.9	22.5	0.00e+00	123	34	0	1563426816	46	6168
2026-01-27 13:59:06.22	144.62	38.46	-37.0	-38.0	22.5	0.00e+00	123	34	0	1566572544	46	6257
2026-01-27 13:59:07.23	144.95	38.29	-36.5	-37.4	22.9	0.00e+00	122	34	0	1569718272	46	5856
2026-01-27 13:59:08.24	145.27	38.11	-36.4	-37.3	23.1	0.00e+00	123	33	0	1572864000	46	5788
2026-01-27 13:59:09.25	145.59	37.94	-36.3	-37.2	23.1	0.00e+00	122	33	0	1576009728	46	5701
2026-01-27 13:59:10.26	145.90	37.76	-36.2	-37.2	22.9	0.00e+00	123	33	0	1579155456	46	5698
2026-01-27 13:59:11.27	146.21	37.59	-36.0	-36.9	23.2	0.00e+00	122	34	0	1582301184	46	5518
2026-01-27 13:59:12.28	146.52	37.41	-35.8	-36.7	23.5	0.00e+00	123	34	0	1585446912	46	5378
2026-01-27 13:59:13.29	146.82	37.24	-35.4	-36.3	23.8	0.00e+00	123	34	0	1588592640	44	5759
2026-01-27 13:59:14.30	147.12	37.06	-35.3	-36.2	23.9	0.00e+00	122	33	0	1591738368	44	5700
2026-01-27 13:59:15.31	147.42	36.89	-35.2	-36.1	23.8	0.00e+00	122	34	0	1594884096	44	5658
2026-01-27 13:59:16.32	147.72	36.71	-35.5	-36.4	23.6	0.00e+00	122	34	0	1598029824	44	5849
2026-01-27 13:59:17.33	148.01	36.54	-35.8	-36.7	23.4	0.00e+00	122	34	0	1601175552	44	6063
2026-01-27 13:59:18.34	148.30	36.36	-36.0	-37.0	23.2	0.00e+00	120	34	0	1604321280	44	6230
2026-01-27 13:59:19.35	148.58	36.19	-36.0	-37.0	23.2	0.00e+00	123	33	0	1607467008	44	6243
2026-01-27 13:59:20.36	148.87	36.02	-36.1	-37.1	23.1	0.00e+00	120	34	0	1610612736	44	6284
2026-01-27 13:59:21.37	149.15	35.84	-36.1	-37.1	23.1	0.00e+00	121	34	0	1613758464	44	6289
2026-01-27 13:59:22.38	149.42	35.67	-35.7	-36.6	23.4	0.00e+00	123	34	0	1616904192	44	5962
2026-01-27 13:59:23.39	149.70	35.50	-35.8	-36.7	23.3	0.00e+00	122	34	0	1620049920	44	6036
2026-01-27 13:59:24.39	149.97	35.32	-35.5	-36.5	23.4	0.00e+00	123	34	0	1623195648	44	5865
2026-01-27 13:59:25.40	150.24	35.15	-35.6	-36.5	23.2	0.00e+00	123	34	0	1626341376	44	5902
2026-01-27 13:59:26.41	150.50	34.98	-35.8	-36.8	23.2	0.00e+00	120	34	0	1629487104	44	6078
2026-01-27 13:59:27.42	150.76	34.81	-35.8	-36.8	23.4	0.00e+00	122	34	0	1632632832	44	6089
2026-01-27 13:59:28.43	151.02	34.63	-36.0	-36.9	23.3	0.00e+00	122	34	0	1635778560	44	6187
2026-01-27 13:59:29.44	151.28	34.46	-35.7	-36.7	23.5	0.00e+00	123	34	0	1638924288	44	6003
2026-01-27 13:59:30.45	151.54	34.29	-35.8	-36.7	23.5	0.00e+00	123	34	0	1642070016	44	6055
2026-01-27 13:59:31.46	151.79	34.12	-35.7	-36.6	23.5	0.00e+00	123	34	0	1645215744	44	5960
2026-01-27 13:59:32.47	152.04	33.95	-35.7	-36.7	23.6	0.00e+00	123	34	0	1648361472	44	5997
2026-01-27 13:59:33.48	152.29	33.78	-35.2	-36.2	23.9	0.00e+00	123	34	0	1651507200	44	5666
2026-01-27 13:59:34.49	152.53	33.61	-35.4	-36.3	23.8	0.00e+00	122	33	0	1654652928	44	5758
2026-01-27 13:59:35.50	152.77	33.44	-35.5	-36.5	23.5	0.00e+00	122	34	0	1657798656	44	5872
2026-01-27 13:59:36.51	153.01	33.27	-35.5	-36.5	23.7	0.00e+00	123	34	0	1660944384	44	5862
2026-01-27 13:59:37.52	153.25	33.10	-35.5	-36.4	23.7	0.00e+00	122	33	0	1664090112	44	5845
2026-01-27 13:59:38.53	153.49	32.93	-35.2	-36.1	23.7	0.00e+00	123	34	0	1667235840	44	5647
2026-01-27 13:59:39.53	153.72	32.77	-35.1	-36.1	23.9	0.00e+00	123	34	0	1670381568	44	5607
2026-01-27 13:59:40.55	153.95	32.60	-35.0	-35.9	23.9	0.00e+00	122	33	0	1673527296	44	5517
2026-01-27 13:59:41.55	154.18	32.43	-34.8	-35.7	23.9	0.00e+00	123	34	0	1676673024	44	5371
2026-01-27 13:59:42.57	154.40	32.26	-34.7	-35.7	23.8	0.00e+00	122	33	0	1679818752	42	6010
2026-01-27 13:59:43.58	154.63	32.10	-34.9	-35.9	23.7	0.00e+00	123	33	0	1682964480	42	6158
2026-01-27 13:59:44.59	154.85	31.93	-34.7	-35.6	24.0	0.00e+00	120	33	0	1686110208	42	5972
2026-01-27 13:59:45.60	155.07	31.77	-34.7	-35.6	24.2	0.00e+00	123	33	0	1689255936	42	5936
2026-01-27 13:59:46.61	155.28	31.60	-34.6	-35.5	24.3	0.00e+00	120	34	0	1692401664	42	5873
2026-01-27 13:59:47.62	155.50	31.44	-34.3	-35.2	24.5	0.00e+00	123	33	0	1695547392	42	5666
2026-01-27 13:59:48.63	155.71	31.27	-33.8	-34.7	24.7	0.00e+00	123	34	0	1698693120	42	5395
2026-01-27 13:59:49.64	155.92	31.11	-33.9	-34.8	24.7	0.00e+00	123	34	0	1701838848	42	5437
2026-01-27 13:59:50.65	156.13	30.95	-33.9	-34.7	24.7	0.00e+00	123	33	0	1704984576	42	5398
2026-01-27 13:59:51.66	156.34	30.78	-34.0	-34.9	24.7	0.00e+00	120	33	0	1708130304	42	5481
2026-01-27 13:59:52.67	156.54	30.62	-34.1	-35.0	24.6	0.00e+00	123	33	0	1711276032	42	5534
2026-01-27 13:59:53.68	156.74	30.46	-34.2	-35.0	24.6	0.00e+00	123	33	0	1714421760	42	5593
2026-01-27 13:59:54.69	156.94	30.30	-34.1	-35.0	24.7	0.00e+00	123	33	0	1717567488	42	5586
2026-01-27 13:59:55.70	157.14	30.14	-34.1	-35.0	24.7	0.00e+00	122	34	0	1720713216	42	5564
2026-01-27 13:59:56.71	157.34	29.98	-34.1	-35.0	24.6	0.00e+00	123	33	0	1723858944	42	5550
2026-01-27 13:59:57.71	157.53	29.82	-34.2	-35.1	24.7	0.00e+00	122	33	0	1727004672	42	5620
2026-01-27 13:59:58.72	157.73	29.66	-34.0	-34.8	24.8	0.00e+00	123	33	0	1730150400	42	5464
2026-01-27 13:59:59.73	157.92	29.51	-34.0	-34.9	24.8	0.00e+00	122	33	0	1733296128	42	5507
2026-01-27 14:00:00.74	158.11	29.35	-34.0	-34.8	24.8	0.00e+00	123	33	0	1736441856	42	5452
2026-01-27 14:00:01.75	158.29	29.19	-33.9	-34.7	25.0	0.00e+00	122	33	0	1739587584	42	5378
2026-01-27 14:00:02.76	158.48	29.03	-33.7	-34.6	25.0	0.00e+00	123	34	0	1742733312	40	5938
2026-01-27 14:00:03.77	158.66	28.88	-33.8	-34.7	25.0	0.00e+00	124	33	0	1745879040	40	6024
2026-01-27 14:00:04.78	158.85	28.72	-34.0	-34.9	24.8	0.00e+00	120	33	0	1749024768	40	6144
2026-01-27 14:00:05.79	159.03	28.57	-34.1	-35.0	24.7	0.00e+00	123	33	0	1752170496	40	6238
2026-01-27 14:00:06.80	159.20	28.41	-34.2	-35.1	24.6	0.00e+00	123	33	0	1755316224	40	6349
2026-01-27 14:00:07.81	159.38	28.26	-34.3	-35.2	24.5	0.00e+00	123	33	0	1758461952	40	6398
2026-01-27 14:00:08.82	159.56	28.11	-34.3	-35.2	24.6	0.00e+00	122	33	0	1761607680	40	6364
2026-01-27 14:00:09.83	159.73	27.95	-34.2	-35.1	24.6	0.00e+00	123	33	0	1764753408	40	6341
2026-01-27 14:00:10.84	159.90	27.80	-34.2	-35.1	24.7	0.00e+00	120	33	0	1767899136	40	6320
2026-01-27 14:00:11.85	160.07	27.65	-34.2	-35.1	24.7	0.00e+00	123	33	0	1771044864	40	6304
2026-01-27 14:00:12.86	160.24	27.50	-34.3	-35.2	24.6	0.00e+00	122	33	0	1774190592	40	6352
2026-01-27 14:00:13.87	160.41	27.35	-33.8	-34.6	24.9	0.00e+00	123	33	0	1777336320	40	5984
2026-01-27 14:00:14.88	160.58	27.20	-33.8	-34.7	24.8	0.00e+00	122	33	0	1780482048	40	6028
2026-01-27 14:00:15.89	160.74	27.05	-33.8	-34.7	24.9	0.00e+00	123	33	0	1783627776	40	6016
2026-01-27 14:00:16.90	160.90	26.90	-33.8	-34.7	24.8	0.00e+00	123	33	0	1787822080	40	6053
2026-01-27 14:00:17.91	161.07	26.75	-33.7	-34.6	25.0	0.00e+00	120	33	0	1789919232	40	5956
2026-01-27 14:00:18.92	161.23	26.61	-33.8	-34.7	25.0	0.00e+00	123	33	0	1793064960	40	6013
2026-01-27 14:00:19.92	161.38	26.46	-33.8	-34.6	25.0	0.00e+00	122	33	0	1796210688	40	5974
2026-01-27 14:00:20.93	161.54	26.32	-33.6	-34.4	25.1	0.00e+00	123	33	0	1799356416	40	5844
2026-01-27 14:00:21.94	161.70	26.17	-33.7	-34.5	25.1	0.00e+00	122	33	0	1803550720	40	5922
2026-01-27 14:00:22.95	161.85	26.02	-33.6	-34.5	25.0	0.00e+00	120	33	0	1806696448	40	5876
2026-01-27 14:00:23.96	162.01	25.88	-33.6	-34.4	25.1	0.00e+00	123	33	0	1809842176	40	5847
2026-01-27 14:00:24.97	162.16	25.74	-33.5	-34.3	25.1	0.00e+00	123	33	0	1811939328	40	5776
2026-01-27 14:00:25.98	162.31	25.59	-33.4	-34.3	25.1	0.00e+00	122	33	0	1815085056	40	5748
2026-01-27 14:00:26.99	162.46	25.45	-33.6	-34.4	24.9	0.00e+00	123	33	0	1819279360	40	5856
2026-01-27 14:00:28.00	162.60	25.31	-33.6	-34.4	25.0	0.00e+00	122	34	0	1822425088	40	5852
2026-01-27 14:00:29.01	162.75	25.16	-33.6	-34.5	25.0	0.00e+00	120	34	0	1825570816	40	5876
2026-01-27 14:00:30.02	162.90	25.02	-33.7	-34.6	24.9	0.00e+00	123	34	0	1828716544	40	5941
2026-01-27 14:00:31.03	163.04	24.88	-33.8	-34.7	24.8	0.00e+00	120	33	0	1831862272	40	6027
2026-01-27 14:00:32.05	163.19	24.74	-33.9	-34.8	24.8	0.00e+00	123	33	0	1835008000	40	6090
2026-01-27 14:00:33.06	163.33	24.60	-33.9	-34.7	24.9	0.00e+00	123	34	0	1838153728	40	6046
2026-01-27 14:00:34.07	163.47	24.46	-34.0	-34.9	24.8	0.00e+00	122	34	0	1841299456	40	6189
2026-01-27 14:00:35.08	163.61	24.32	-33.9	-34.8	24.9	0.00e+00	122	33	0	1844445184	40	6101
2026-01-27 14:00:36.09	163.74	24.19	-33.8	-34.7	24.9	0.00e+00	122	34	0	1847590912	40	6030
2026-01-27 14:00:37.10	163.88	24.05	-34.0	-34.9	24.7	0.00e+00	122	33	0	1850736640	40	6175
2026-01-27 14:00:38.11	164.02	23.91	-34.0	-34.8	24.7	0.00e+00	123	33	0	1853882368	40	6112
2026-01-27 14:00:39.12	164.15	23.78	-34.1	-35.0	24.6	0.00e+00	123	33	0	1857028096	40	6206
2026-01-27 14:00:40.13	164.29	23.64	-34.3	-35.2	24.4	0.00e+00	123	33	0	1860173824	40	6351
2026-01-27 14:00:41.14	164.42	23.51	-34.3	-35.2	24.3	0.00e+00	123	33	0	1863319552	40	6396
2026-01-27 14:00:42.15	164.55	23.37	-34.4	-35.4	24.2	0.00e+00	123	34	0	1866465280	40	6500
2026-01-27 14:00:43.16	164.68	23.24	-34.6	-35.5	24.1	0.00e+00	123	33	0	1869611008	40	6634
2026-01-27 14:00:44.17	164.81	23.10	-34.4	-35.3	24.2	0.00e+00	123	33	0	1872756736	40	6498
2026-01-27 14:00:45.18	164.94	22.97	-34.4	-35.3	24.2	0.00e+00	122	33	0	1875902464	40	6474
2026-01-27 14:00:46.19	165.06	22.84	-34.3	-35.2	24.3	0.00e+00	122	33	0	1879048192	40	6387
2026-01-27 14:00:47.20	165.19	22.71	-34.5	-35.4	24.2	0.00e+00	123	33	0	1882193920	40	6544
2026-01-27 14:00:48.20	165.31	22.58	-34.4	-35.3	24.3	0.00e+00	123	33	0	1885339648	40	6469
2026-01-27 14:00:49.22	165.44	22.45	-34.3	-35.2	24.4	0.00e+00	123	33	0	1888485376	40	6369
2026-01-27 14:00:50.22	165.56	22.32	-34.0	-34.9	24.5	0.00e+00	123	33	0	1891631104	40	6181
2026-01-27 14:00:51.23	165.68	22.19	-34.2	-35.0	24.4	0.00e+00	123	33	0	1894776832	40	6271
2026-01-27 14:00:52.25	165.81	22.06	-34.0	-34.9	24.6	0.00e+00	122	33	0	1897922560	40	6149
2026-01-27 14:00:53.25	165.92	21.93	-34.1	-35.0	24.4	0.00e+00	122	33	0	1901068288	40	6242
2026-01-27 14:00:54.26	166.04	21.80	-34.0	-34.9	24.5	0.00e+00	123	33	0	1904214016	40	6154
2026-01-27 14:00:55.27	166.16	21.67	-34.0	-34.8	24.5	0.00e+00	123	33	0	1907359744	40	6127
2026-01-27 14:00:56.29	166.28	21.55	-34.0	-34.9	24.5	0.00e+00	122	33	0	1910505472	40	6156
2026-01-27 14:00:57.30	166.40	21.42	-34.2	-35.0	24.4	0.00e+00	122	33	0	1913651200	40	6272
2026-01-27 14:00:58.31	166.51	21.29	-34.1	-35.0	24.6	0.00e+00	123	33	0	1916796928	40	6212
2026-01-27 14:00:59.32	166.63	21.17	-34.2	-35.1	24.5	0.00e+00	121	33	0	1919942656	40	6348
2026-01-27 14:01:00.32	166.74	21.04	-34.2	-35.1	24.6	0.00e+00	123	33	0	1923088384	40	6294
2026-01-27 14:01:01.33	166.85	20.92	-34.2	-35.1	24.6	0.00e+00	123	33	0	1926234112	40	6294
2026-01-27 14:01:02.34	166.96	20.80	-34.2	-35.1	24.6	0.00e+00	123	34	0	1929379840	40	6317
2026-01-27 14:01:03.35	167.07	20.67	-34.2	-35.1	24.5	0.00e+00	122	33	0	1932525568	40	6315
2026-01-27 14:01:04.37	167.19	20.55	-34.2	-35.0	24.6	0.00e+00	122	33	0	1935671296	40	6268
2026-01-27 14:01:05.38	167.29	20.43	-34.2	-35.1	24.5	0.00e+00	123	33	0	1938817024	40	6331
2026-01-27 14:01:06.39	167.40	20.30	-34.3	-35.2	24.4	0.00e+00	123	33	0	1941962752	40	6411
2026-01-27 14:01:07.40	167.51	20.18	-34.3	-35.2	24.5	0.00e+00	123	33	0	1945108480	40	6411
2026-01-27 14:01:08.41	167.62	20.06	-34.4	-35.3	24.3	0.00e+00	123	33	0	1948254208	40	6478
2026-01-27 14:01:09.41	167.72	19.94	-34.4	-35.3	24.3	0.00e+00	123	33	0	1951399936	40	6481
2026-01-27 14:01:10.42	167.83	19.82	-34.5	-35.5	24.2	0.00e+00	123	33	0	1954545664	40	6576
2026-01-27 14:01:11.43	167.93	19.70	-34.6	-35.5	24.1	0.00e+00	122	33	0	1957691392	40	6597
2026-01-27 14:01:12.44	168.04	19.58	-34.4	-35.3	24.3	0.00e+00	122	33	0	1960837120	40	6481
2026-01-27 14:01:13.45	168.14	19.47	-34.5	-35.4	24.2	0.00e+00	121	33	0	1963982848	40	6510
2026-01-27 14:01:14.47	168.24	19.35	-34.3	-35.2	24.3	0.00e+00	123	33	0	1967128576	40	6414
2026-01-27 14:01:15.47	168.34	19.23	-34.2	-35.1	24.3	0.00e+00	120	33	0	1970274304	40	6322
2026-01-27 14:01:16.48	168.44	19.11	-34.2	-35.1	24.3	0.00e+00	122	33	0	1973420032	40	6329
2026-01-27 14:01:17.49	168.54	19.00	-34.2	-35.1	24.3	0.00e+00	123	33	0	1976565760	40	6301
