passes_logs/2026/01/27/R4.6S_Anadyr/R4.6S_Anadyr__20260127_223537_SUOMI_NPP_rec.log

#Pass ID: 20260127_223537_SUOMI NPP
#Satellite: SUOMI NPP
#Configuration: NPP
#almurnet v.1.7.20251203
#Start time: 2026-01-27 22:35:38

#Version: 2.2.20231116
#Station: R4.6S_Anadyr
#Location: 177.4865 lon 64.73178 lat
#TLE: 1 37849U 11061A   26027.57994159  .00000179  00000+0  10588-3 0  9997
#TLE: 2 37849  98.7823 329.5210 0002100  42.0127 318.1210 14.19530762738496

#Time	Az	El	Level	Level2	SNR	BER	BlckErr	Temp	State	Recorded	gain1	gain2
2026-01-27 22:35:38.87	114.96	0.07	-48.8	-61.2	3.4	1.52e+00	0	29	0	0	60	40439
2026-01-27 22:35:39.88	114.92	0.13	-48.7	-63.9	3.6	1.51e+00	0	30	104	0	60	56855
2026-01-27 22:35:40.89	114.88	0.19	-48.8	-64.0	3.6	1.51e+00	0	30	104	0	60	57196
2026-01-27 22:35:41.89	114.84	0.24	-48.8	-64.0	3.6	1.51e+00	0	31	104	0	60	57001
2026-01-27 22:35:42.90	114.80	0.30	-48.8	-64.0	3.6	1.51e+00	0	30	104	0	60	57254
2026-01-27 22:35:43.91	114.75	0.36	-48.7	-64.0	3.6	1.51e+00	0	31	104	0	60	57468
2026-01-27 22:35:44.92	114.71	0.42	-48.8	-64.0	3.6	1.51e+00	0	31	104	0	60	57049
2026-01-27 22:35:45.93	114.67	0.48	-48.8	-64.1	3.6	1.51e+00	0	31	104	0	60	57672
2026-01-27 22:35:46.94	114.63	0.54	-48.8	-64.1	3.6	1.51e+00	0	31	104	0	60	57759
2026-01-27 22:35:47.95	114.58	0.59	-48.9	-64.0	3.6	1.51e+00	0	30	104	0	60	57385
2026-01-27 22:35:48.96	114.54	0.65	-48.8	-64.0	3.6	1.51e+00	0	31	104	0	60	57517
2026-01-27 22:35:49.97	114.50	0.71	-48.8	-64.0	3.6	1.51e+00	0	31	104	0	60	57607
2026-01-27 22:35:50.98	114.46	0.77	-48.7	-64.0	3.6	1.51e+00	0	31	104	0	60	57458
2026-01-27 22:35:51.99	114.41	0.83	-48.7	-64.0	3.6	1.51e+00	0	31	104	0	60	57220
2026-01-27 22:35:53.00	114.37	0.89	-48.8	-64.0	3.6	1.51e+00	0	31	104	0	60	57534
2026-01-27 22:35:54.00	114.33	0.95	-48.8	-64.0	3.6	1.51e+00	0	31	104	0	60	57224
2026-01-27 22:35:55.02	114.28	1.01	-48.7	-63.9	3.6	1.51e+00	0	31	104	0	60	56894
2026-01-27 22:35:56.02	114.24	1.07	-48.7	-64.0	3.6	1.51e+00	0	31	104	0	60	57015
2026-01-27 22:35:57.04	114.19	1.13	-48.7	-63.9	3.6	1.51e+00	0	31	104	0	60	56327
2026-01-27 22:35:58.05	114.15	1.18	-47.5	-63.8	3.6	1.51e+00	0	31	104	0	60	55972
2026-01-27 22:35:59.06	114.11	1.24	-48.3	-63.7	3.6	1.51e+00	0	31	104	0	60	55054
2026-01-27 22:36:00.07	114.06	1.30	-48.4	-63.6	3.6	1.51e+00	0	31	104	0	60	54927
2026-01-27 22:36:01.08	114.02	1.36	-48.1	-63.5	3.6	1.51e+00	0	31	104	0	60	53904
2026-01-27 22:36:02.09	113.97	1.42	-48.0	-63.3	3.6	1.51e+00	0	31	104	0	60	52973
2026-01-27 22:36:03.09	113.93	1.48	-47.8	-63.0	3.6	1.51e+00	0	31	104	0	60	51319
2026-01-27 22:36:04.11	113.88	1.54	-46.9	-62.3	3.6	1.51e+00	0	31	104	0	60	47021
2026-01-27 22:36:05.12	113.84	1.60	-46.9	-62.2	3.6	1.51e+00	0	31	104	0	60	46753
2026-01-27 22:36:06.13	113.79	1.66	-46.9	-62.2	3.6	1.51e+00	0	31	104	0	60	46772
2026-01-27 22:36:07.14	113.74	1.72	-46.9	-62.3	3.6	1.51e+00	0	31	104	0	60	46915
2026-01-27 22:36:08.15	113.70	1.79	-46.9	-62.2	3.6	1.51e+00	0	31	104	0	60	46805
2026-01-27 22:36:09.16	113.65	1.85	-46.9	-62.3	3.6	1.51e+00	0	31	104	0	60	46883
2026-01-27 22:36:10.17	113.60	1.91	-46.9	-62.2	3.6	1.51e+00	0	31	104	0	60	46563
2026-01-27 22:36:11.18	113.56	1.97	-46.9	-62.2	3.6	1.51e+00	0	31	104	0	60	46753
2026-01-27 22:36:12.19	113.51	2.03	-46.9	-62.2	3.6	1.51e+00	0	31	104	0	60	46533
2026-01-27 22:36:13.20	113.46	2.09	-46.9	-62.2	3.6	1.51e+00	0	31	104	0	60	46358
2026-01-27 22:36:14.21	113.42	2.15	-46.9	-62.2	3.6	1.51e+00	0	31	104	0	60	46488
2026-01-27 22:36:15.22	113.37	2.21	-46.9	-62.2	3.6	1.51e+00	0	31	104	0	60	46455
2026-01-27 22:36:16.22	113.32	2.27	-46.9	-62.2	3.6	1.51e+00	0	31	104	0	60	46416
2026-01-27 22:36:17.23	113.27	2.33	-46.9	-62.2	3.6	1.51e+00	0	31	104	0	60	46445
2026-01-27 22:36:18.24	113.22	2.40	-46.9	-62.2	3.6	1.51e+00	0	31	104	0	60	46664
2026-01-27 22:36:19.25	113.18	2.46	-46.9	-62.2	3.6	1.51e+00	0	31	104	0	60	46674
2026-01-27 22:36:20.26	113.13	2.52	-46.9	-62.3	3.5	1.51e+00	0	31	104	0	60	46845
2026-01-27 22:36:21.27	113.08	2.58	-46.9	-62.3	3.6	1.51e+00	0	31	104	0	60	46885
2026-01-27 22:36:22.28	113.03	2.64	-46.9	-62.2	3.6	1.51e+00	0	31	104	0	60	46812
2026-01-27 22:36:23.29	112.98	2.71	-46.9	-62.3	3.6	1.51e+00	0	31	104	0	60	47001
2026-01-27 22:36:24.30	112.93	2.77	-46.9	-62.2	3.6	1.51e+00	0	31	104	0	60	46660
2026-01-27 22:36:25.31	112.88	2.83	-46.9	-62.1	3.6	1.51e+00	0	31	104	0	60	46274
2026-01-27 22:36:26.32	112.83	2.89	-46.9	-61.9	3.6	1.51e+00	0	31	104	0	60	45112
2026-01-27 22:36:27.33	112.78	2.96	-46.9	-61.7	3.6	1.51e+00	0	31	104	0	60	44022
2026-01-27 22:36:28.34	112.73	3.02	-46.9	-61.7	3.6	1.51e+00	0	31	104	0	60	43872
2026-01-27 22:36:29.35	112.68	3.08	-46.9	-61.8	3.6	1.51e+00	0	31	104	0	60	44437
2026-01-27 22:36:30.36	112.63	3.15	-46.9	-62.0	3.6	1.51e+00	0	31	104	0	60	45593
2026-01-27 22:36:31.36	112.58	3.21	-46.9	-61.3	3.6	1.51e+00	0	31	104	0	60	41967
2026-01-27 22:36:32.38	112.53	3.27	-46.8	-59.7	3.6	1.51e+00	0	31	104	0	60	34777
2026-01-27 22:36:33.39	112.47	3.34	-46.4	-56.0	5.4	1.29e+00	92	31	104	0	60	22795
2026-01-27 22:36:34.40	112.42	3.40	-46.0	-52.5	7.9	1.25e-01	0	31	0	1048576	60	15289
2026-01-27 22:36:35.41	112.37	3.46	-45.2	-50.0	11.2	5.66e-03	92	31	0	3145728	60	11421
2026-01-27 22:36:36.42	112.32	3.53	-44.3	-48.0	13.1	1.74e-04	92	31	0	5242880	60	9074
2026-01-27 22:36:37.43	112.27	3.59	-44.6	-48.7	9.7	7.60e-06	0	31	0	6291456	60	9804
2026-01-27 22:36:38.43	112.21	3.65	-46.4	-55.2	4.8	1.51e+00	0	31	104	7340032	60	20752
2026-01-27 22:36:39.45	112.16	3.72	-42.1	-44.3	16.3	3.67e-01	0	31	104	7340032	60	5909
2026-01-27 22:36:40.45	112.11	3.78	-45.8	-54.9	4.8	2.72e-01	91	31	0	8388608	60	20192
2026-01-27 22:36:41.46	112.05	3.85	-43.6	-47.2	5.9	1.50e+00	0	31	104	8388608	60	8285
2026-01-27 22:36:42.48	112.00	3.91	-43.8	-47.1	13.6	1.66e-01	92	31	104	8388608	60	8194
2026-01-27 22:36:43.48	111.94	3.98	-42.9	-45.6	15.5	0.00e+00	72	31	0	9437184	60	6904
2026-01-27 22:36:44.49	111.89	4.04	-43.2	-46.3	14.8	0.00e+00	0	31	0	11534336	60	7505
2026-01-27 22:36:45.50	111.84	4.11	-42.7	-45.5	15.4	0.00e+00	50	31	0	13631488	58	7640
2026-01-27 22:36:46.51	111.78	4.17	-42.4	-45.1	16.1	0.00e+00	0	31	0	15728640	58	7312
2026-01-27 22:36:47.52	111.73	4.24	-43.0	-46.0	15.3	0.00e+00	86	31	0	16777216	58	8083
2026-01-27 22:36:48.53	111.67	4.30	-43.1	-46.2	15.3	0.00e+00	0	31	0	18874368	58	8236
2026-01-27 22:36:49.54	111.62	4.37	-42.4	-44.9	16.2	0.00e+00	92	31	0	20971520	58	7146
2026-01-27 22:36:50.54	111.56	4.43	-42.7	-45.3	16.4	0.00e+00	90	31	0	23068672	58	7445
2026-01-27 22:36:51.55	111.50	4.50	-41.4	-43.3	18.2	0.00e+00	93	31	0	25165824	56	6644
2026-01-27 22:36:52.56	111.45	4.56	-41.9	-43.9	17.3	0.00e+00	92	31	0	26214400	56	7101
2026-01-27 22:36:53.57	111.39	4.63	-41.0	-42.5	18.8	0.00e+00	0	31	0	28311552	56	6096
2026-01-27 22:36:54.58	111.33	4.70	-41.8	-43.6	18.1	0.00e+00	92	31	0	30408704	56	6883
2026-01-27 22:36:55.59	111.28	4.76	-40.6	-42.1	19.3	0.00e+00	0	31	0	32505856	56	5822
2026-01-27 22:36:56.87	111.20	4.85	-41.1	-42.8	18.4	0.00e+00	92	31	0	34603008	54	7069
2026-01-27 22:36:57.60	111.16	4.90	-41.8	-43.7	17.9	0.00e+00	0	31	0	35651584	56	6990
2026-01-27 22:36:58.90	111.09	4.98	-41.3	-43.2	18.4	0.00e+00	91	31	0	37748736	56	6565
2026-01-27 22:36:59.62	111.05	5.03	-41.2	-43.0	18.3	0.00e+00	18	31	0	39845888	56	6453
2026-01-27 22:37:00.92	110.97	5.12	-41.5	-43.4	18.2	0.00e+00	0	31	0	41943040	56	6716
2026-01-27 22:37:01.64	110.93	5.16	-41.5	-43.4	18.0	0.00e+00	90	31	0	42991616	56	6717
2026-01-27 22:37:02.94	110.85	5.25	-41.1	-42.8	18.8	0.00e+00	0	31	0	45088768	56	6292
2026-01-27 22:37:03.66	110.81	5.30	-40.9	-42.5	18.9	0.00e+00	90	31	0	47185920	54	6834
2026-01-27 22:37:04.96	110.73	5.39	-40.9	-42.5	19.0	0.00e+00	15	31	0	49283072	54	6834
2026-01-27 22:37:05.68	110.69	5.43	-41.1	-42.8	19.0	0.00e+00	90	31	0	50331648	54	7014
2026-01-27 22:37:06.98	110.61	5.52	-40.7	-42.3	19.3	0.00e+00	92	31	0	53477376	54	6648
2026-01-27 22:37:07.70	110.57	5.57	-40.3	-41.8	19.7	0.00e+00	92	31	0	54525952	54	6284
2026-01-27 22:37:09.00	110.49	5.66	-40.9	-42.5	18.8	0.00e+00	70	31	0	56623104	54	6836
2026-01-27 22:37:09.72	110.45	5.71	-40.8	-42.4	19.2	0.00e+00	0	31	0	58720256	54	6729
2026-01-27 22:37:11.02	110.37	5.79	-40.3	-41.8	19.7	0.00e+00	90	31	0	60817408	54	6273
2026-01-27 22:37:11.74	110.32	5.84	-40.5	-42.0	19.5	0.00e+00	0	31	0	61865984	54	6456
2026-01-27 22:37:13.04	110.24	5.93	-40.1	-41.6	19.9	0.00e+00	91	31	0	65011712	54	6118
2026-01-27 22:37:13.76	110.20	5.98	-39.7	-41.0	20.4	0.00e+00	0	31	0	66060288	52	6460
2026-01-27 22:37:15.05	110.12	6.07	-40.3	-41.9	19.7	0.00e+00	0	31	0	68157440	52	7125
2026-01-27 22:37:15.78	110.07	6.12	-40.4	-42.0	19.7	0.00e+00	92	31	0	69206016	52	7171
2026-01-27 22:37:17.08	109.99	6.21	-39.8	-41.4	20.2	0.00e+00	7	31	0	72351744	52	6711
2026-01-27 22:37:17.80	109.95	6.26	-40.0	-41.5	20.0	0.00e+00	77	31	0	73400320	52	6826
2026-01-27 22:37:19.09	109.86	6.35	-40.3	-42.0	19.5	0.00e+00	0	31	0	75497472	54	6435
2026-01-27 22:37:19.82	109.82	6.40	-40.5	-42.3	19.5	0.00e+00	90	31	0	77594624	54	6618
2026-01-27 22:37:21.11	109.73	6.49	-40.8	-42.6	19.2	0.00e+00	92	31	0	79691776	54	6917
2026-01-27 22:37:21.83	109.69	6.54	-41.0	-42.8	19.0	0.00e+00	92	31	0	80740352	54	7067
2026-01-27 22:37:23.13	109.60	6.63	-40.3	-41.9	19.8	0.00e+00	92	31	0	83886080	54	6375
2026-01-27 22:37:23.85	109.56	6.68	-40.1	-41.7	19.9	0.00e+00	0	31	0	84934656	54	6176
2026-01-27 22:37:25.15	109.47	6.77	-40.3	-41.8	19.9	0.00e+00	92	31	0	87031808	54	6291
2026-01-27 22:37:25.87	109.42	6.82	-40.0	-41.4	20.3	0.00e+00	0	31	0	89128960	54	5996
2026-01-27 22:37:27.17	109.34	6.91	-39.7	-40.9	20.7	0.00e+00	92	31	0	91226112	52	6362
2026-01-27 22:37:27.89	109.29	6.96	-39.3	-40.4	21.1	0.00e+00	0	31	0	92274688	52	6027
2026-01-27 22:37:29.19	109.20	7.05	-39.5	-40.7	21.1	0.00e+00	20	31	0	94371840	52	6236
2026-01-27 22:37:29.91	109.16	7.10	-39.3	-40.5	21.1	0.00e+00	16	31	0	96468992	52	6034
2026-01-27 22:37:31.21	109.07	7.20	-39.8	-41.1	20.6	0.00e+00	0	31	0	98566144	52	6503
2026-01-27 22:37:31.93	109.02	7.25	-39.8	-41.1	20.5	0.00e+00	92	31	0	99614720	52	6503
2026-01-27 22:37:33.23	108.93	7.34	-40.1	-41.4	20.3	0.00e+00	0	31	0	102760448	52	6756
2026-01-27 22:37:33.95	108.88	7.39	-40.0	-41.3	20.3	0.00e+00	92	31	0	103809024	52	6663
2026-01-27 22:37:35.25	108.79	7.48	-40.4	-41.9	19.9	0.00e+00	19	31	0	105906176	52	7114
2026-01-27 22:37:35.97	108.74	7.54	-39.8	-41.2	20.6	0.00e+00	92	31	0	108003328	52	6574
2026-01-27 22:37:37.27	108.65	7.63	-39.5	-41.0	20.7	0.00e+00	92	31	0	110100480	52	6392
2026-01-27 22:37:37.99	108.60	7.68	-39.5	-41.0	20.7	0.00e+00	92	31	0	111149056	52	6430
2026-01-27 22:37:39.29	108.51	7.77	-39.4	-40.8	21.0	0.00e+00	92	31	0	113246208	52	6274
2026-01-27 22:37:40.01	108.46	7.83	-39.2	-40.6	21.1	0.00e+00	0	31	0	115343360	52	6130
2026-01-27 22:37:41.31	108.37	7.92	-39.4	-40.7	20.9	0.00e+00	92	31	0	117440512	52	6226
2026-01-27 22:37:42.02	108.32	7.97	-39.5	-40.7	21.0	0.00e+00	0	31	0	118489088	52	6223
2026-01-27 22:37:43.32	108.22	8.07	-39.6	-40.8	20.8	0.00e+00	92	31	0	121634816	52	6303
2026-01-27 22:37:44.04	108.17	8.12	-40.0	-41.3	20.5	0.00e+00	0	31	0	122683392	52	6621
2026-01-27 22:37:45.34	108.08	8.21	-40.3	-41.6	20.0	0.00e+00	0	31	0	124780544	52	6927
2026-01-27 22:37:46.07	108.02	8.27	-40.3	-41.7	20.2	0.00e+00	90	31	0	126877696	52	6970
2026-01-27 22:37:47.36	107.93	8.36	-40.1	-41.4	20.4	0.00e+00	0	31	0	128974848	52	6722
2026-01-27 22:37:48.08	107.88	8.42	-39.9	-41.2	20.6	0.00e+00	73	31	0	130023424	52	6566
2026-01-27 22:37:49.38	107.78	8.51	-39.8	-41.0	20.7	0.00e+00	0	31	0	133169152	52	6426
2026-01-27 22:37:50.10	107.73	8.57	-39.6	-40.8	20.9	0.00e+00	92	31	0	134217728	52	6254
2026-01-27 22:37:51.40	107.63	8.66	-39.8	-41.0	20.7	0.00e+00	90	31	0	136314880	52	6435
2026-01-27 22:37:52.12	107.58	8.72	-39.4	-40.7	21.1	0.00e+00	92	31	0	137363456	52	6194
2026-01-27 22:37:53.42	107.48	8.81	-39.5	-40.8	21.0	0.00e+00	69	31	0	140509184	52	6264
2026-01-27 22:37:54.14	107.42	8.87	-39.4	-40.7	21.1	0.00e+00	0	31	0	141557760	52	6192
2026-01-27 22:37:55.44	107.32	8.96	-39.5	-40.8	20.9	0.00e+00	92	31	0	143654912	52	6317
2026-01-27 22:37:56.16	107.27	9.02	-39.6	-40.9	20.7	0.00e+00	0	31	0	145752064	52	6381
2026-01-27 22:37:57.46	107.17	9.11	-40.1	-41.5	20.3	0.00e+00	92	31	0	147849216	52	6795
2026-01-27 22:37:58.18	107.11	9.17	-39.7	-41.0	20.8	0.00e+00	0	31	0	148897792	52	6395
2026-01-27 22:37:59.48	107.01	9.27	-39.6	-40.8	20.9	0.00e+00	0	31	0	152043520	52	6263
2026-01-27 22:38:00.20	106.95	9.32	-39.7	-40.9	21.1	0.00e+00	92	32	0	153092096	52	6343
2026-01-27 22:38:01.49	106.85	9.42	-39.2	-40.4	21.4	0.00e+00	45	32	0	155189248	52	5969
2026-01-27 22:38:02.21	106.79	9.47	-39.1	-40.2	21.5	0.00e+00	92	31	0	157286400	52	5886
2026-01-27 22:38:03.51	106.69	9.57	-39.3	-40.4	21.4	0.00e+00	0	31	0	159383552	52	5994
2026-01-27 22:38:04.23	106.63	9.63	-39.2	-40.4	21.4	0.00e+00	77	31	0	160432128	52	5975
2026-01-27 22:38:05.53	106.53	9.73	-39.4	-40.6	21.1	0.00e+00	92	32	0	162529280	52	6122
2026-01-27 22:38:06.25	106.47	9.78	-39.3	-40.5	21.3	0.00e+00	91	31	0	164626432	52	6066
2026-01-27 22:38:07.55	106.36	9.88	-39.6	-40.8	20.9	0.00e+00	90	31	0	166723584	52	6297
2026-01-27 22:38:08.27	106.30	9.94	-39.4	-40.6	21.2	0.00e+00	89	31	0	167772160	52	6139
2026-01-27 22:38:09.57	106.20	10.04	-39.7	-41.0	20.9	0.00e+00	92	31	0	170917888	52	6416
2026-01-27 22:38:10.29	106.14	10.10	-39.7	-40.9	20.9	0.00e+00	0	31	0	171966464	52	6371
2026-01-27 22:38:11.59	106.03	10.20	-39.1	-40.2	21.6	0.00e+00	92	31	0	174063616	52	5879
2026-01-27 22:38:12.31	105.97	10.25	-39.1	-40.2	21.4	0.00e+00	0	31	0	176160768	52	5853
2026-01-27 22:38:13.61	105.86	10.35	-39.5	-40.7	21.2	0.00e+00	70	31	0	178257920	52	6182
2026-01-27 22:38:14.33	105.80	10.41	-39.3	-40.5	21.3	0.00e+00	0	31	0	179306496	52	6051
2026-01-27 22:38:15.63	105.69	10.51	-39.6	-40.8	21.0	0.00e+00	0	31	0	181403648	52	6250
2026-01-27 22:38:16.35	105.62	10.57	-39.7	-40.9	20.8	0.00e+00	92	31	0	183500800	52	6360
2026-01-27 22:38:17.65	105.51	10.67	-39.9	-41.2	20.7	0.00e+00	0	31	0	185597952	52	6548
2026-01-27 22:38:18.37	105.45	10.73	-39.6	-40.8	21.0	0.00e+00	73	31	0	186646528	52	6279
2026-01-27 22:38:19.67	105.34	10.83	-39.3	-40.5	21.2	0.00e+00	0	32	0	189792256	52	6084
2026-01-27 22:38:20.39	105.27	10.89	-39.1	-40.3	21.5	0.00e+00	78	31	0	190840832	52	5921
2026-01-27 22:38:21.69	105.16	10.99	-38.9	-40.0	21.7	0.00e+00	92	32	0	192937984	52	5723
2026-01-27 22:38:22.41	105.10	11.05	-39.0	-40.1	21.7	0.00e+00	91	32	0	195035136	52	5769
2026-01-27 22:38:23.71	104.98	11.15	-39.3	-40.4	21.6	0.00e+00	64	31	0	197132288	52	5978
2026-01-27 22:38:24.43	104.91	11.21	-39.1	-40.2	21.5	0.00e+00	18	32	0	198180864	52	5848
2026-01-27 22:38:25.73	104.80	11.32	-39.0	-40.1	21.8	0.00e+00	92	32	0	201326592	52	5780
2026-01-27 22:38:26.45	104.73	11.38	-39.2	-40.3	21.5	0.00e+00	0	32	0	202375168	52	5951
2026-01-27 22:38:27.75	104.61	11.48	-39.0	-40.1	21.6	0.00e+00	92	32	0	204472320	52	5808
2026-01-27 22:38:28.47	104.55	11.54	-39.0	-40.2	21.8	0.00e+00	0	32	0	205520896	52	5829
2026-01-27 22:38:29.77	104.43	11.64	-38.5	-39.6	22.2	0.00e+00	0	32	0	208666624	50	6139
2026-01-27 22:38:30.49	104.36	11.70	-38.5	-39.5	22.2	0.00e+00	92	32	0	209715200	50	6094
2026-01-27 22:38:31.79	104.24	11.81	-38.4	-39.4	22.3	0.00e+00	0	32	0	211812352	50	6016
2026-01-27 22:38:32.51	104.17	11.87	-38.4	-39.4	22.3	0.00e+00	92	31	0	213909504	50	5997
2026-01-27 22:38:33.81	104.05	11.97	-38.4	-39.4	22.3	0.00e+00	0	32	0	216006656	50	5999
2026-01-27 22:38:34.53	103.98	12.03	-38.7	-39.8	22.0	0.00e+00	92	32	0	217055232	50	6252
2026-01-27 22:38:35.83	103.86	12.14	-38.4	-39.5	22.2	0.00e+00	92	32	0	220200960	50	6073
2026-01-27 22:38:36.55	103.79	12.20	-38.4	-39.5	22.2	0.00e+00	90	32	0	221249536	50	6065
2026-01-27 22:38:37.85	103.66	12.31	-38.5	-39.6	22.1	0.00e+00	92	32	0	223346688	50	6171
2026-01-27 22:38:38.57	103.59	12.37	-38.4	-39.6	22.2	0.00e+00	0	32	0	225443840	50	6138
2026-01-27 22:38:39.87	103.46	12.48	-38.2	-39.3	22.4	0.00e+00	92	32	0	227540992	50	5925
2026-01-27 22:38:40.59	103.39	12.54	-38.0	-39.1	22.5	0.00e+00	0	32	0	228589568	50	5808
2026-01-27 22:38:41.89	103.26	12.64	-37.8	-38.9	22.6	0.00e+00	92	32	0	230686720	50	5664
2026-01-27 22:38:42.61	103.19	12.70	-38.2	-39.3	22.4	0.00e+00	0	31	0	232783872	50	5938
2026-01-27 22:38:43.91	103.06	12.81	-38.4	-39.5	22.2	0.00e+00	0	32	0	234881024	50	6082
2026-01-27 22:38:44.63	102.99	12.87	-38.5	-39.6	22.2	0.00e+00	20	32	0	235929600	50	6162
2026-01-27 22:38:45.93	102.86	12.98	-38.6	-39.7	22.1	0.00e+00	0	32	0	239075328	50	6229
2026-01-27 22:38:46.65	102.78	13.05	-38.5	-39.6	22.1	0.00e+00	89	32	0	240123904	50	6152
2026-01-27 22:38:47.95	102.65	13.16	-38.5	-39.6	22.2	0.00e+00	0	32	0	242221056	50	6127
2026-01-27 22:38:48.67	102.58	13.22	-38.2	-39.3	22.4	0.00e+00	80	32	0	244318208	50	5903
2026-01-27 22:38:49.97	102.44	13.33	-38.3	-39.3	22.4	0.00e+00	87	32	0	246415360	50	5941
2026-01-27 22:38:50.69	102.37	13.39	-38.3	-39.3	22.4	0.00e+00	92	32	0	247463936	50	5940
2026-01-27 22:38:51.99	102.23	13.50	-38.7	-39.8	22.2	0.00e+00	91	32	0	249561088	50	6269
2026-01-27 22:38:52.71	102.15	13.56	-38.8	-39.8	22.0	0.00e+00	92	32	0	251658240	50	6314
2026-01-27 22:38:54.01	102.01	13.67	-38.9	-40.0	21.8	0.00e+00	87	32	0	253755392	50	6400
2026-01-27 22:38:54.73	101.94	13.74	-39.0	-40.1	21.6	0.00e+00	0	32	0	254803968	50	6492
2026-01-27 22:38:56.02	101.80	13.85	-38.8	-39.8	21.9	0.00e+00	92	32	0	257949696	50	6312
2026-01-27 22:38:56.75	101.72	13.91	-38.7	-39.7	22.1	0.00e+00	0	32	0	258998272	50	6231
2026-01-27 22:38:58.04	101.58	14.02	-38.3	-39.3	22.4	0.00e+00	90	32	0	261095424	50	5946
2026-01-27 22:38:58.76	101.50	14.09	-38.2	-39.2	22.3	0.00e+00	15	32	0	263192576	50	5848
2026-01-27 22:39:00.06	101.36	14.20	-38.2	-39.2	22.4	0.00e+00	0	32	0	265289728	50	5871
2026-01-27 22:39:00.78	101.28	14.26	-38.2	-39.2	22.4	0.00e+00	92	32	0	266338304	50	5850
2026-01-27 22:39:02.08	101.13	14.38	-38.2	-39.2	22.4	0.00e+00	0	31	0	269484032	50	5855
2026-01-27 22:39:02.80	101.05	14.44	-38.4	-39.5	22.3	0.00e+00	91	31	0	270532608	50	6034
2026-01-27 22:39:04.10	100.90	14.55	-38.3	-39.3	22.3	0.00e+00	21	31	0	272629760	50	5933
2026-01-27 22:39:04.82	100.82	14.62	-38.5	-39.5	22.3	0.00e+00	92	32	0	273678336	50	6095
2026-01-27 22:39:06.12	100.67	14.73	-38.9	-40.0	22.0	0.00e+00	92	31	0	276824064	50	6393
2026-01-27 22:39:06.84	100.59	14.80	-38.5	-39.6	22.2	0.00e+00	92	32	0	277872640	50	6116
2026-01-27 22:39:08.14	100.44	14.91	-38.7	-39.7	22.1	0.00e+00	92	32	0	279969792	50	6215
2026-01-27 22:39:08.86	100.36	14.98	-38.7	-39.8	22.1	0.00e+00	20	32	0	282066944	50	6252
2026-01-27 22:39:10.16	100.20	15.09	-38.4	-39.4	22.4	0.00e+00	92	32	0	284164096	50	5992
2026-01-27 22:39:10.88	100.12	15.16	-38.3	-39.3	22.5	0.00e+00	0	31	0	285212672	50	5916
2026-01-27 22:39:12.18	99.96	15.27	-38.4	-39.4	22.4	0.00e+00	92	32	0	288358400	50	6020
2026-01-27 22:39:12.90	99.88	15.34	-38.8	-39.8	22.1	0.00e+00	0	32	0	289406976	50	6305
2026-01-27 22:39:14.20	99.72	15.46	-38.5	-39.5	22.3	0.00e+00	24	32	0	291504128	50	6086
2026-01-27 22:39:14.92	99.64	15.52	-38.5	-39.5	22.3	0.00e+00	92	32	0	293601280	50	6097
2026-01-27 22:39:16.22	99.48	15.64	-38.6	-39.7	22.1	0.00e+00	0	32	0	295698432	50	6207
2026-01-27 22:39:16.94	99.39	15.70	-38.6	-39.6	22.3	0.00e+00	92	32	0	296747008	50	6152
2026-01-27 22:39:18.24	99.23	15.82	-38.3	-39.3	22.5	0.00e+00	0	32	0	298844160	50	5919
2026-01-27 22:39:18.96	99.14	15.89	-38.1	-39.1	22.5	0.00e+00	91	32	0	300941312	50	5807
2026-01-27 22:39:20.26	98.98	16.01	-37.9	-38.8	22.8	0.00e+00	90	32	0	303038464	50	5623
2026-01-27 22:39:20.98	98.89	16.07	-37.8	-38.8	22.9	0.00e+00	92	32	0	304087040	50	5580
2026-01-27 22:39:22.28	98.72	16.19	-37.9	-38.9	22.8	0.00e+00	94	32	0	307232768	50	5657
2026-01-27 22:39:23.00	98.63	16.26	-37.8	-38.8	22.9	0.00e+00	88	32	0	308281344	48	6254
2026-01-27 22:39:24.30	98.46	16.38	-38.0	-38.9	22.7	0.00e+00	65	32	0	310378496	48	6383
2026-01-27 22:39:25.02	98.37	16.45	-37.9	-38.9	22.9	0.00e+00	0	32	0	312475648	48	6355
2026-01-27 22:39:26.32	98.20	16.57	-37.9	-38.8	22.8	0.00e+00	83	32	0	314572800	48	6303
2026-01-27 22:39:27.04	98.11	16.63	-38.0	-38.9	22.8	0.00e+00	0	32	0	315621376	48	6390
2026-01-27 22:39:28.34	97.94	16.75	-37.9	-38.8	22.9	0.00e+00	92	31	0	317718528	48	6303
2026-01-27 22:39:29.06	97.84	16.82	-38.2	-39.1	22.6	0.00e+00	0	32	0	319815680	48	6535
2026-01-27 22:39:30.36	97.67	16.94	-38.7	-39.7	22.2	0.00e+00	0	32	0	321912832	48	6971
2026-01-27 22:39:31.08	97.57	17.01	-38.9	-40.0	21.9	0.00e+00	90	32	0	322961408	50	6404
2026-01-27 22:39:32.38	97.40	17.13	-39.2	-40.4	21.7	0.00e+00	0	32	0	326107136	50	6705
2026-01-27 22:39:33.10	97.30	17.20	-39.1	-40.2	21.9	0.00e+00	65	32	0	327155712	50	6553
2026-01-27 22:39:34.40	97.12	17.32	-39.1	-40.2	21.7	0.00e+00	17	32	0	329252864	50	6587
2026-01-27 22:39:35.12	97.03	17.39	-39.1	-40.2	21.8	0.00e+00	82	32	0	331350016	50	6552
2026-01-27 22:39:36.42	96.85	17.51	-39.1	-40.3	21.7	0.00e+00	92	32	0	333447168	50	6640
2026-01-27 22:39:37.14	96.75	17.58	-39.3	-40.5	21.5	0.00e+00	92	32	0	334495744	50	6786
2026-01-27 22:39:38.44	96.56	17.71	-39.4	-40.6	21.5	0.00e+00	92	32	0	337641472	50	6905
2026-01-27 22:39:39.16	96.46	17.77	-39.4	-40.6	21.4	0.00e+00	0	32	0	338690048	50	6917
2026-01-27 22:39:40.46	96.28	17.90	-39.3	-40.5	21.5	0.00e+00	92	32	0	340787200	50	6796
2026-01-27 22:39:41.18	96.18	17.97	-38.9	-40.0	22.0	0.00e+00	0	32	0	341835776	50	6433
2026-01-27 22:39:42.48	95.99	18.09	-38.7	-39.8	22.1	0.00e+00	92	32	0	344981504	50	6253
2026-01-27 22:39:43.20	95.88	18.16	-38.6	-39.6	22.3	0.00e+00	0	32	0	346030080	50	6122
2026-01-27 22:39:44.50	95.70	18.29	-38.5	-39.6	21.9	0.00e+00	0	31	0	348127232	50	6107
2026-01-27 22:39:45.22	95.59	18.36	-38.8	-39.9	22.1	0.00e+00	74	32	0	350224384	50	6364
2026-01-27 22:39:46.52	95.40	18.48	-39.1	-40.2	21.8	0.00e+00	0	32	0	352321536	50	6560
2026-01-27 22:39:47.24	95.29	18.55	-38.9	-40.0	21.9	0.00e+00	90	32	0	353370112	50	6418
2026-01-27 22:39:48.54	95.10	18.68	-38.7	-39.8	22.2	0.00e+00	0	32	0	356515840	50	6266
2026-01-27 22:39:49.26	94.99	18.75	-38.5	-39.5	22.3	0.00e+00	85	32	0	357564416	50	6099
2026-01-27 22:39:50.55	94.79	18.87	-38.0	-39.0	22.8	0.00e+00	92	32	0	359661568	50	5709
2026-01-27 22:39:51.27	94.68	18.94	-38.1	-39.1	22.6	0.00e+00	92	32	0	361758720	50	5796
2026-01-27 22:39:52.57	94.49	19.07	-38.7	-39.7	22.3	0.00e+00	89	32	0	363855872	50	6233
2026-01-27 22:39:53.29	94.37	19.14	-38.8	-39.9	22.1	0.00e+00	0	32	0	364904448	50	6319
2026-01-27 22:39:54.59	94.17	19.27	-38.7	-39.8	22.2	0.00e+00	90	32	0	367001600	50	6301
2026-01-27 22:39:55.31	94.06	19.34	-38.6	-39.7	22.3	0.00e+00	0	32	0	369098752	50	6204
2026-01-27 22:39:56.61	93.86	19.46	-38.4	-39.5	22.4	0.00e+00	90	32	0	371195904	50	6042
2026-01-27 22:39:57.33	93.74	19.54	-38.3	-39.3	22.6	0.00e+00	0	32	0	372244480	50	5910
2026-01-27 22:39:58.63	93.53	19.66	-38.0	-39.0	22.8	0.00e+00	0	32	0	375390208	50	5731
2026-01-27 22:39:59.35	93.42	19.73	-38.0	-38.9	22.8	0.00e+00	1	32	0	376438784	50	5694
2026-01-27 22:40:00.65	93.21	19.86	-38.2	-39.2	22.6	0.00e+00	25	32	0	378535936	50	5877
2026-01-27 22:40:01.37	93.09	19.93	-38.2	-39.2	22.6	0.00e+00	92	32	0	380633088	50	5865
2026-01-27 22:40:02.67	92.88	20.06	-38.2	-39.2	22.7	0.00e+00	0	32	0	382730240	50	5854
2026-01-27 22:40:03.39	92.76	20.13	-38.4	-39.4	22.5	0.00e+00	92	32	0	383778816	50	5968
2026-01-27 22:40:04.69	92.54	20.26	-38.1	-39.1	22.7	0.00e+00	0	32	0	385875968	50	5785
2026-01-27 22:40:05.41	92.42	20.34	-38.3	-39.3	22.5	0.00e+00	92	32	0	387973120	50	5933
2026-01-27 22:40:06.70	92.21	20.46	-38.6	-39.7	22.3	0.00e+00	92	32	0	390070272	50	6174
2026-01-27 22:40:07.42	92.08	20.54	-38.7	-39.7	22.3	0.00e+00	91	32	0	391118848	50	6216
2026-01-27 22:40:08.72	91.86	20.67	-39.0	-40.1	21.9	0.00e+00	89	32	0	394264576	50	6538
2026-01-27 22:40:09.44	91.74	20.74	-39.0	-40.2	21.9	0.00e+00	0	32	0	395313152	50	6555
2026-01-27 22:40:10.74	91.52	20.87	-38.9	-40.1	22.0	0.00e+00	92	32	0	397410304	50	6475
2026-01-27 22:40:11.46	91.39	20.94	-39.0	-40.1	21.9	0.00e+00	0	32	0	399507456	50	6487
2026-01-27 22:40:12.76	91.16	21.07	-38.7	-39.8	22.2	0.00e+00	92	32	0	401604608	50	6272
2026-01-27 22:40:13.48	91.04	21.14	-38.7	-39.8	22.2	0.00e+00	0	32	0	402653184	50	6263
2026-01-27 22:40:14.78	90.81	21.27	-38.7	-39.7	22.3	0.00e+00	0	32	0	405798912	50	6235
2026-01-27 22:40:15.50	90.68	21.35	-38.6	-39.6	22.3	0.00e+00	92	32	0	406847488	50	6154
2026-01-27 22:40:16.80	90.44	21.48	-38.5	-39.5	22.5	0.00e+00	19	32	0	408944640	50	6051
2026-01-27 22:40:17.52	90.31	21.55	-38.4	-39.4	22.5	0.00e+00	90	32	0	409993216	50	6028
2026-01-27 22:40:18.82	90.08	21.68	-38.2	-39.1	22.7	0.00e+00	0	32	0	413138944	50	5827
2026-01-27 22:40:19.54	89.94	21.76	-38.1	-39.1	22.8	0.00e+00	90	32	0	414187520	50	5786
2026-01-27 22:40:20.84	89.70	21.89	-37.8	-38.7	23.1	0.00e+00	92	32	0	416284672	48	6214
2026-01-27 22:40:21.56	89.57	21.96	-37.6	-38.6	23.1	0.00e+00	90	32	0	418381824	48	6115
2026-01-27 22:40:22.86	89.33	22.09	-37.9	-38.9	22.9	0.00e+00	92	32	0	420478976	48	6368
2026-01-27 22:40:23.58	89.19	22.16	-38.0	-39.0	22.8	0.00e+00	0	32	0	421527552	48	6412
2026-01-27 22:40:24.88	88.95	22.30	-38.3	-39.3	22.7	0.00e+00	92	32	0	424673280	48	6643
2026-01-27 22:40:25.60	88.81	22.37	-38.2	-39.1	22.8	0.00e+00	0	32	0	425721856	48	6515
2026-01-27 22:40:26.90	88.56	22.50	-37.9	-38.8	23.0	0.00e+00	92	32	0	427819008	48	6285
2026-01-27 22:40:27.62	88.42	22.58	-38.0	-39.0	23.0	0.00e+00	0	32	0	429916160	48	6395
2026-01-27 22:40:28.92	88.17	22.71	-37.8	-38.8	23.1	0.00e+00	0	32	0	432013312	48	6248
2026-01-27 22:40:29.64	88.02	22.78	-38.0	-39.0	22.8	0.00e+00	92	32	0	433061888	48	6406
2026-01-27 22:40:30.94	87.77	22.91	-38.3	-39.3	22.8	0.00e+00	0	32	0	435159040	48	6632
2026-01-27 22:40:31.66	87.63	22.99	-38.1	-39.0	23.0	0.00e+00	90	32	0	437256192	48	6432
2026-01-27 22:40:32.96	87.37	23.12	-38.1	-39.0	22.9	0.00e+00	0	32	0	439353344	48	6429
2026-01-27 22:40:33.68	87.22	23.19	-38.0	-38.9	23.0	0.00e+00	73	32	0	440401920	48	6340
2026-01-27 22:40:34.98	86.96	23.33	-37.9	-38.8	23.0	0.00e+00	92	32	0	443547648	48	6299
2026-01-27 22:40:35.71	86.81	23.40	-37.9	-38.8	22.9	0.00e+00	92	32	0	444596224	48	6275
2026-01-27 22:40:37.00	86.54	23.53	-37.8	-38.8	23.1	0.00e+00	92	32	0	446693376	48	6253
2026-01-27 22:40:37.73	86.39	23.61	-37.9	-38.8	23.0	0.00e+00	0	32	0	448790528	48	6296
2026-01-27 22:40:39.02	86.12	23.74	-38.1	-39.0	22.8	0.00e+00	92	32	0	450887680	48	6441
2026-01-27 22:40:39.75	85.97	23.81	-38.1	-39.0	23.0	0.00e+00	0	32	0	451936256	48	6458
2026-01-27 22:40:41.04	85.70	23.94	-38.4	-39.3	22.7	0.00e+00	92	32	0	454033408	48	6688
2026-01-27 22:40:41.77	85.54	24.02	-38.2	-39.2	22.8	0.00e+00	0	32	0	456130560	48	6575
2026-01-27 22:40:43.07	85.27	24.15	-37.9	-38.9	22.9	0.00e+00	0	32	0	458227712	48	6325
2026-01-27 22:40:43.79	85.11	24.22	-38.0	-38.9	22.9	0.00e+00	0	32	0	459276288	48	6378
2026-01-27 22:40:45.08	84.83	24.36	-38.2	-39.2	22.8	0.00e+00	0	32	0	462422016	48	6568
2026-01-27 22:40:45.80	84.68	24.43	-38.3	-39.3	22.7	0.00e+00	90	32	0	463470592	48	6649
2026-01-27 22:40:47.10	84.39	24.56	-38.6	-39.6	22.3	0.00e+00	0	32	0	465567744	48	6898
2026-01-27 22:40:47.82	84.23	24.63	-38.7	-39.8	22.3	0.00e+00	92	32	0	467664896	50	6262
2026-01-27 22:40:49.12	83.94	24.77	-38.6	-39.6	22.4	0.00e+00	23	32	0	469762048	50	6140
2026-01-27 22:40:49.84	83.78	24.84	-38.9	-39.9	22.1	0.00e+00	71	32	0	470810624	50	6390
2026-01-27 22:40:51.14	83.49	24.97	-38.5	-39.6	22.4	0.00e+00	92	32	0	473956352	50	6117
2026-01-27 22:40:51.86	83.33	25.04	-38.6	-39.7	22.3	0.00e+00	92	32	0	475004928	50	6184
2026-01-27 22:40:53.16	83.03	25.18	-38.6	-39.6	22.4	0.00e+00	90	32	0	477102080	50	6119
2026-01-27 22:40:53.88	82.86	25.25	-38.4	-39.4	22.6	0.00e+00	0	32	0	478150656	50	6002
2026-01-27 22:40:55.18	82.56	25.38	-38.6	-39.6	22.4	0.00e+00	90	32	0	481296384	50	6147
2026-01-27 22:40:55.90	82.40	25.45	-38.3	-39.3	22.7	0.00e+00	0	32	0	482344960	50	5914
2026-01-27 22:40:57.20	82.09	25.58	-38.1	-39.0	22.9	0.00e+00	92	32	0	484442112	50	5732
2026-01-27 22:40:57.92	81.92	25.65	-38.0	-39.0	23.0	0.00e+00	0	32	0	486539264	50	5702
2026-01-27 22:40:59.21	81.61	25.78	-38.1	-39.0	23.0	0.00e+00	0	32	0	488636416	48	6436
2026-01-27 22:40:59.93	81.44	25.86	-37.9	-38.8	23.0	0.00e+00	92	32	0	489684992	48	6267
2026-01-27 22:41:01.23	81.13	25.99	-37.6	-38.6	23.3	0.00e+00	0	32	0	492830720	48	6104
2026-01-27 22:41:01.95	80.96	26.06	-37.7	-38.6	23.2	0.00e+00	92	32	0	493879296	48	6156
2026-01-27 22:41:03.25	80.64	26.19	-36.9	-37.7	23.4	0.00e+00	0	32	0	495976448	48	5548
2026-01-27 22:41:03.97	80.46	26.26	-37.0	-37.9	23.7	0.00e+00	92	32	0	498073600	48	5658
2026-01-27 22:41:05.27	80.14	26.39	-36.7	-37.5	24.0	0.00e+00	92	32	0	500170752	46	6084
2026-01-27 22:41:05.99	79.96	26.46	-36.6	-37.4	24.2	0.00e+00	92	32	0	501219328	46	5985
2026-01-27 22:41:07.29	79.64	26.59	-36.4	-37.2	24.2	0.00e+00	22	32	0	503316480	46	5869
2026-01-27 22:41:08.01	79.46	26.66	-36.5	-37.4	24.1	0.00e+00	0	32	0	505413632	46	5969
2026-01-27 22:41:09.31	79.13	26.79	-36.9	-37.7	23.9	0.00e+00	83	32	0	507510784	46	6240
2026-01-27 22:41:10.03	78.95	26.86	-37.3	-38.2	23.5	0.00e+00	0	32	0	508559360	46	6594
2026-01-27 22:41:11.33	78.61	26.98	-37.8	-38.7	23.1	0.00e+00	92	32	0	511705088	48	6232
2026-01-27 22:41:12.04	78.43	27.05	-37.5	-38.4	23.3	0.00e+00	0	32	0	512753664	48	6032
2026-01-27 22:41:13.34	78.10	27.18	-37.9	-38.8	23.1	0.00e+00	43	32	0	514850816	48	6277
2026-01-27 22:41:14.06	77.91	27.25	-37.8	-38.7	23.1	0.00e+00	23	32	0	516947968	48	6228
2026-01-27 22:41:15.36	77.57	27.37	-38.0	-39.0	22.8	0.00e+00	0	32	0	519045120	48	6406
2026-01-27 22:41:16.08	77.38	27.44	-38.5	-39.6	22.4	0.00e+00	92	32	0	520093696	48	6888
2026-01-27 22:41:17.38	77.03	27.57	-38.8	-39.9	22.3	0.00e+00	0	32	0	522190848	50	6357
2026-01-27 22:41:18.10	76.84	27.64	-38.9	-40.0	22.1	0.00e+00	47	32	0	524288000	50	6417
2026-01-27 22:41:19.40	76.49	27.76	-38.5	-39.5	22.2	0.00e+00	22	32	0	526385152	50	6099
2026-01-27 22:41:20.12	76.29	27.83	-38.6	-39.7	22.5	0.00e+00	92	32	0	527433728	50	6175
2026-01-27 22:41:21.42	75.94	27.95	-38.5	-39.5	22.6	0.00e+00	91	32	0	530579456	50	6070
2026-01-27 22:41:22.14	75.74	28.02	-38.3	-39.2	22.7	0.00e+00	92	32	0	531628032	50	5881
2026-01-27 22:41:23.44	75.39	28.14	-37.9	-38.9	23.0	0.00e+00	91	32	0	533725184	50	5645
2026-01-27 22:41:24.16	75.19	28.20	-38.0	-39.0	22.9	0.00e+00	0	32	0	535822336	50	5703
2026-01-27 22:41:25.46	74.82	28.33	-38.2	-39.2	22.8	0.00e+00	92	32	0	537919488	50	5857
2026-01-27 22:41:26.18	74.62	28.39	-38.2	-39.2	22.7	0.00e+00	0	32	0	538968064	50	5880
2026-01-27 22:41:27.48	74.26	28.51	-38.3	-39.3	22.7	0.00e+00	90	32	0	542113792	50	5901
2026-01-27 22:41:28.20	74.05	28.58	-38.2	-39.1	22.8	0.00e+00	0	32	0	543162368	50	5826
2026-01-27 22:41:29.50	73.68	28.69	-38.9	-40.0	22.1	0.00e+00	0	32	0	545259520	50	6400
2026-01-27 22:41:30.22	73.48	28.76	-38.9	-39.9	22.1	0.00e+00	91	32	0	546308096	50	6379
2026-01-27 22:41:31.52	73.10	28.87	-39.0	-40.1	22.2	0.00e+00	0	32	0	549453824	50	6473
2026-01-27 22:41:32.24	72.89	28.94	-39.3	-40.4	21.9	0.00e+00	65	32	0	550502400	50	6740
2026-01-27 22:41:33.53	72.52	29.05	-39.6	-40.7	21.5	0.00e+00	0	32	0	552599552	50	6970
2026-01-27 22:41:34.26	72.30	29.12	-39.7	-40.9	21.4	0.00e+00	90	32	0	554696704	50	7089
2026-01-27 22:41:35.55	71.92	29.23	-40.4	-41.7	20.7	0.00e+00	92	32	0	556793856	52	6985
2026-01-27 22:41:36.28	71.70	29.29	-40.9	-42.4	20.2	0.00e+00	92	32	0	557842432	54	6720
2026-01-27 22:41:37.58	71.32	29.40	-41.1	-42.7	19.9	0.00e+00	38	32	0	560988160	54	6929
2026-01-27 22:41:38.30	71.10	29.47	-41.2	-42.8	19.7	0.00e+00	0	32	0	562036736	54	7028
2026-01-27 22:41:39.59	70.71	29.58	-41.5	-43.1	19.4	0.00e+00	92	32	0	564133888	54	7316
2026-01-27 22:41:40.32	70.49	29.64	-41.5	-43.2	19.3	0.00e+00	0	32	0	566231040	54	7395
2026-01-27 22:41:41.61	70.10	29.74	-41.0	-42.5	19.9	0.00e+00	92	32	0	568328192	54	6839
2026-01-27 22:41:42.33	69.88	29.80	-40.4	-41.7	20.8	0.00e+00	0	32	0	569376768	54	6198
2026-01-27 22:41:43.63	69.48	29.91	-39.7	-40.8	21.5	0.00e+00	0	32	0	571473920	52	6312
2026-01-27 22:41:44.35	69.26	29.97	-39.6	-40.8	21.4	0.00e+00	0	32	0	573571072	52	6297
2026-01-27 22:41:45.65	68.85	30.07	-39.1	-40.2	22.0	0.00e+00	6	32	0	575668224	52	5843
2026-01-27 22:41:46.37	68.63	30.13	-39.1	-40.2	21.9	0.00e+00	88	32	0	576716800	52	5850
2026-01-27 22:41:47.67	68.22	30.23	-39.4	-40.5	21.8	0.00e+00	0	32	0	579862528	52	6071
2026-01-27 22:41:48.39	67.99	30.29	-39.4	-40.6	21.7	0.00e+00	92	32	0	580911104	52	6105
2026-01-27 22:41:49.69	67.58	30.39	-39.6	-40.7	21.5	0.00e+00	82	32	0	583008256	52	6210
2026-01-27 22:41:50.41	67.35	30.45	-39.6	-40.8	21.7	0.00e+00	90	32	0	585105408	52	6250
2026-01-27 22:41:51.71	66.93	30.55	-39.7	-40.9	21.5	0.00e+00	92	32	0	587202560	52	6341
2026-01-27 22:41:52.43	66.70	30.60	-39.4	-40.6	21.5	0.00e+00	84	32	0	588251136	52	6143
2026-01-27 22:41:53.73	66.28	30.70	-39.5	-40.8	21.4	0.00e+00	55	32	0	590348288	52	6255
2026-01-27 22:41:54.45	66.05	30.75	-39.3	-40.5	21.3	0.00e+00	0	32	0	592445440	52	6065
2026-01-27 22:41:55.75	65.62	30.84	-39.2	-40.3	21.9	0.00e+00	90	32	0	594542592	52	5947
2026-01-27 22:41:56.47	65.39	30.90	-39.1	-40.2	22.0	0.00e+00	0	32	0	595591168	52	5865
2026-01-27 22:41:57.77	64.96	30.99	-39.2	-40.3	21.9	0.00e+00	0	32	0	598736896	52	5940
2026-01-27 22:41:58.49	64.72	31.04	-39.5	-40.7	21.5	0.00e+00	13	32	0	599785472	52	6219
2026-01-27 22:41:59.79	64.29	31.13	-39.4	-40.6	21.5	0.00e+00	0	32	0	601882624	52	6166
2026-01-27 22:42:00.51	64.05	31.18	-39.3	-40.5	21.7	0.00e+00	92	32	0	603979776	52	6065
2026-01-27 22:42:01.81	63.61	31.26	-39.1	-40.2	21.9	0.00e+00	0	32	0	606076928	52	5835
2026-01-27 22:42:02.53	63.37	31.31	-39.1	-40.2	22.1	0.00e+00	92	32	0	607125504	52	5856
2026-01-27 22:42:03.83	62.93	31.40	-39.0	-40.1	22.1	0.00e+00	6	32	0	610271232	52	5775
2026-01-27 22:42:04.55	62.69	31.44	-39.2	-40.4	21.8	0.00e+00	92	32	0	611319808	52	5972
2026-01-27 22:42:05.85	62.25	31.53	-39.1	-40.2	22.0	0.00e+00	92	32	0	613416960	50	6560
2026-01-27 22:42:06.57	62.00	31.57	-38.7	-39.7	22.3	0.00e+00	92	32	0	614465536	50	6221
2026-01-27 22:42:07.87	61.55	31.65	-39.1	-40.2	21.9	0.00e+00	90	32	0	617611264	50	6578
2026-01-27 22:42:08.59	61.31	31.69	-39.7	-40.9	21.3	0.00e+00	0	32	0	618659840	52	6382
2026-01-27 22:42:09.89	60.86	31.77	-39.9	-41.2	21.3	0.00e+00	91	32	0	620756992	52	6546
2026-01-27 22:42:10.61	60.61	31.81	-39.6	-40.8	21.2	0.00e+00	0	32	0	622854144	52	6302
2026-01-27 22:42:11.91	60.15	31.89	-38.4	-39.4	22.7	0.00e+00	92	32	0	624951296	50	5983
2026-01-27 22:42:12.63	59.90	31.93	-37.9	-38.9	23.1	0.00e+00	0	32	0	625999872	50	5648
2026-01-27 22:42:13.93	59.45	32.00	-37.8	-38.8	23.1	0.00e+00	0	32	0	629145600	50	5569
2026-01-27 22:42:14.65	59.19	32.03	-38.4	-39.4	22.8	0.00e+00	92	32	0	630194176	50	6000
2026-01-27 22:42:15.95	58.74	32.10	-38.3	-39.3	22.8	0.00e+00	0	32	0	632291328	50	5926
2026-01-27 22:42:16.67	58.48	32.14	-38.5	-39.5	22.5	0.00e+00	24	32	0	634388480	50	6099
2026-01-27 22:42:17.97	58.02	32.20	-38.7	-39.8	22.3	0.00e+00	0	32	0	636485632	50	6263
2026-01-27 22:42:18.69	57.76	32.24	-38.9	-40.0	22.2	0.00e+00	64	32	0	637534208	50	6400
2026-01-27 22:42:19.99	57.30	32.30	-38.7	-39.7	22.4	0.00e+00	92	32	0	639631360	50	6191
2026-01-27 22:42:20.71	57.04	32.34	-38.6	-39.5	22.6	0.00e+00	90	32	0	641728512	50	6102
2026-01-27 22:42:22.01	56.57	32.39	-37.9	-38.8	23.1	0.00e+00	44	32	0	643825664	50	5589
2026-01-27 22:42:22.73	56.31	32.43	-38.0	-39.0	22.8	0.00e+00	15	32	0	644874240	50	5731
2026-01-27 22:42:24.03	55.84	32.48	-38.2	-39.1	23.0	0.00e+00	67	32	0	648019968	50	5820
2026-01-27 22:42:24.75	55.58	32.51	-37.9	-38.8	23.1	0.00e+00	0	32	0	649068544	48	6276
2026-01-27 22:42:26.05	55.11	32.56	-37.4	-38.2	23.6	0.00e+00	92	32	0	651165696	48	5878
2026-01-27 22:42:26.77	54.85	32.59	-37.4	-38.3	23.4	0.00e+00	0	32	0	653262848	48	5908
2026-01-27 22:42:28.07	54.37	32.64	-37.7	-38.6	23.2	0.00e+00	0	32	0	655360000	48	6106
2026-01-27 22:42:28.79	54.11	32.67	-38.3	-39.3	22.7	0.00e+00	16	32	0	656408576	48	6641
2026-01-27 22:42:30.09	53.63	32.71	-39.5	-40.6	21.7	0.00e+00	0	32	0	658505728	50	6870
2026-01-27 22:42:30.82	53.37	32.74	-39.9	-41.1	21.3	0.00e+00	92	32	0	660602880	52	6482
2026-01-27 22:42:32.11	52.89	32.78	-39.8	-41.0	21.4	0.00e+00	0	32	0	662700032	52	6446
2026-01-27 22:42:32.83	52.62	32.80	-39.2	-40.3	21.8	0.00e+00	92	32	0	663748608	52	5951
2026-01-27 22:42:34.13	52.14	32.84	-38.5	-39.5	22.5	0.00e+00	92	32	0	666894336	50	6044
2026-01-27 22:42:34.85	51.88	32.86	-38.6	-39.6	22.4	0.00e+00	92	32	0	667942912	50	6121
2026-01-27 22:42:36.15	51.40	32.90	-39.6	-40.7	21.6	0.00e+00	92	32	0	670040064	50	7003
2026-01-27 22:42:36.87	51.13	32.91	-39.8	-41.0	21.3	0.00e+00	0	32	0	672137216	52	6410
2026-01-27 22:42:38.17	50.64	32.95	-39.9	-41.1	21.4	0.00e+00	92	32	0	674234368	52	6481
2026-01-27 22:42:38.89	50.38	32.96	-39.2	-40.2	22.0	0.00e+00	0	32	0	675282944	52	5890
2026-01-27 22:42:40.19	49.89	32.99	-38.8	-39.8	22.4	0.00e+00	92	32	0	678428672	52	5598
2026-01-27 22:42:40.91	49.62	33.00	-38.7	-39.7	22.4	0.00e+00	0	32	0	679477248	52	5529
2026-01-27 22:42:42.21	49.14	33.03	-38.0	-38.9	23.0	0.00e+00	0	32	0	681574400	50	5646
2026-01-27 22:42:42.93	48.87	33.04	-37.9	-38.8	23.2	0.00e+00	9	32	0	682622976	50	5583
2026-01-27 22:42:44.23	48.38	33.06	-38.1	-39.1	22.8	0.00e+00	0	32	0	685768704	48	6488
2026-01-27 22:42:44.95	48.11	33.07	-38.4	-39.4	22.6	0.00e+00	92	32	0	686817280	48	6718
2026-01-27 22:42:46.25	47.62	33.09	-39.3	-40.4	21.8	0.00e+00	0	32	0	688914432	50	6743
2026-01-27 22:42:46.97	47.35	33.10	-39.5	-40.6	21.6	0.00e+00	39	32	0	691011584	50	6925
2026-01-27 22:42:48.27	46.86	33.11	-40.3	-41.5	20.9	0.00e+00	0	32	0	693108736	52	6839
2026-01-27 22:42:48.99	46.59	33.12	-40.4	-41.7	20.7	0.00e+00	90	32	0	694157312	52	6975
2026-01-27 22:42:50.29	46.10	33.13	-40.8	-42.2	20.3	0.00e+00	80	32	0	697303040	52	7352
2026-01-27 22:42:51.01	45.83	33.13	-40.3	-41.6	20.8	0.00e+00	44	32	0	698351616	54	6125
2026-01-27 22:42:52.30	45.34	33.14	-40.3	-41.6	20.8	0.00e+00	12	32	0	700448768	54	6127
2026-01-27 22:42:53.03	45.07	33.14	-40.4	-41.7	20.5	0.00e+00	0	32	0	702545920	54	6191
2026-01-27 22:42:54.32	44.58	33.15	-40.3	-41.6	20.8	0.00e+00	80	32	0	704643072	54	6127
2026-01-27 22:42:55.04	44.31	33.15	-40.1	-41.4	21.1	0.00e+00	0	32	0	705691648	54	5994
2026-01-27 22:42:56.34	43.82	33.14	-39.3	-40.4	21.9	0.00e+00	42	32	0	707788800	52	6008
2026-01-27 22:42:57.06	43.55	33.14	-38.7	-39.7	22.5	0.00e+00	0	32	0	709885952	50	6181
2026-01-27 22:42:58.36	43.06	33.14	-38.2	-39.1	23.1	0.00e+00	24	32	0	711983104	50	5811
2026-01-27 22:42:59.08	42.79	33.13	-38.0	-39.0	23.1	0.00e+00	46	32	0	713031680	50	5705
2026-01-27 22:43:00.38	42.30	33.13	-38.3	-39.2	22.6	0.00e+00	0	32	0	716177408	50	5890
2026-01-27 22:43:01.11	42.02	33.12	-38.9	-39.9	22.3	0.00e+00	25	32	0	717225984	50	6380
2026-01-27 22:43:02.40	41.54	33.11	-39.3	-40.4	21.8	0.00e+00	0	32	0	719323136	50	6747
2026-01-27 22:43:03.13	41.26	33.10	-39.5	-40.6	21.8	0.00e+00	92	32	0	721420288	50	6859
2026-01-27 22:43:04.43	40.78	33.08	-39.7	-40.9	21.3	0.00e+00	19	32	0	723517440	50	7135
2026-01-27 22:43:05.15	40.51	33.07	-39.4	-40.5	21.8	0.00e+00	91	32	0	724566016	50	6779
2026-01-27 22:43:06.44	40.02	33.06	-39.1	-40.1	21.8	0.00e+00	90	32	0	726663168	50	6499
2026-01-27 22:43:07.17	39.75	33.04	-39.1	-40.1	21.7	0.00e+00	0	32	0	728760320	50	6522
2026-01-27 22:43:08.47	39.26	33.02	-39.8	-41.0	21.3	0.00e+00	90	32	0	730857472	52	6410
2026-01-27 22:43:09.19	38.99	33.01	-39.8	-40.9	21.2	0.00e+00	0	32	0	731906048	52	6369
2026-01-27 22:43:10.49	38.51	32.98	-40.4	-41.7	20.8	0.00e+00	92	32	0	735051776	52	6975
2026-01-27 22:43:11.21	38.24	32.96	-40.6	-42.0	20.5	0.00e+00	0	32	0	736100352	52	7179
2026-01-27 22:43:12.51	37.76	32.93	-40.9	-42.3	20.2	0.00e+00	0	32	0	738197504	54	6679
2026-01-27 22:43:13.23	37.49	32.92	-40.2	-41.5	21.0	0.00e+00	59	32	0	740294656	54	6041
2026-01-27 22:43:14.53	37.01	32.88	-40.1	-41.4	21.0	0.00e+00	0	32	0	742391808	54	6008
2026-01-27 22:43:15.25	36.74	32.86	-39.6	-40.8	21.2	0.00e+00	76	32	0	743440384	52	6275
2026-01-27 22:43:16.55	36.26	32.82	-39.5	-40.6	21.6	0.00e+00	0	32	0	746586112	52	6152
2026-01-27 22:43:17.27	35.99	32.80	-39.6	-40.8	21.5	0.00e+00	92	32	0	747634688	52	6273
2026-01-27 22:43:18.56	35.52	32.76	-39.7	-40.9	21.5	0.00e+00	9	32	0	749731840	52	6332
2026-01-27 22:43:19.28	35.25	32.74	-39.4	-40.5	21.7	0.00e+00	92	32	0	750780416	52	6103
2026-01-27 22:43:20.58	34.78	32.69	-38.9	-40.0	22.4	0.00e+00	71	32	0	753926144	50	6445
2026-01-27 22:43:21.30	34.51	32.67	-38.8	-39.8	22.2	0.00e+00	0	32	0	754974720	50	6316
2026-01-27 22:43:22.60	34.04	32.62	-39.5	-40.6	21.5	0.00e+00	92	32	0	757071872	50	6912
2026-01-27 22:43:23.32	33.77	32.59	-39.5	-40.7	21.6	0.00e+00	0	32	0	759169024	50	6964
2026-01-27 22:43:24.62	33.30	32.54	-39.5	-40.7	21.6	0.00e+00	90	32	0	761266176	50	6950
2026-01-27 22:43:25.34	33.04	32.51	-39.6	-40.7	21.8	0.00e+00	0	32	0	762314752	50	6986
2026-01-27 22:43:26.64	32.57	32.46	-39.4	-40.5	21.6	0.00e+00	0	32	0	765460480	50	6836
2026-01-27 22:43:27.36	32.31	32.43	-39.5	-40.7	21.5	0.00e+00	0	32	0	766509056	50	6982
2026-01-27 22:43:28.65	31.85	32.37	-39.6	-40.8	21.3	0.00e+00	0	32	0	768606208	52	6255
2026-01-27 22:43:29.38	31.59	32.34	-39.6	-40.8	21.6	0.00e+00	92	32	0	770703360	52	6260
2026-01-27 22:43:30.67	31.12	32.28	-39.4	-40.6	21.5	0.00e+00	0	32	0	772800512	52	6159
2026-01-27 22:43:31.40	30.86	32.24	-38.9	-40.0	22.0	0.00e+00	82	32	0	773849088	52	5713
2026-01-27 22:43:32.70	30.40	32.18	-39.1	-40.2	22.0	0.00e+00	0	32	0	775946240	52	5892
2026-01-27 22:43:33.42	30.15	32.14	-39.3	-40.5	21.7	0.00e+00	92	32	0	778043392	52	6052
2026-01-27 22:43:34.71	29.69	32.08	-39.0	-40.1	22.1	0.00e+00	92	32	0	780140544	52	5824
2026-01-27 22:43:35.44	29.43	32.04	-38.8	-39.9	22.2	0.00e+00	92	32	0	781189120	52	5665
2026-01-27 22:43:36.74	28.98	31.97	-38.1	-39.0	22.8	0.00e+00	92	32	0	784334848	50	5746
2026-01-27 22:43:37.46	28.73	31.93	-38.1	-39.0	22.7	0.00e+00	0	32	0	785383424	50	5736
2026-01-27 22:43:38.75	28.28	31.86	-37.9	-38.9	23.0	0.00e+00	72	32	0	787480576	48	6335
2026-01-27 22:43:39.48	28.02	31.82	-38.6	-39.7	22.4	0.00e+00	24	32	0	789577728	48	6961
2026-01-27 22:43:40.77	27.58	31.74	-39.2	-40.3	21.9	0.00e+00	92	32	0	791674880	50	6643
2026-01-27 22:43:41.50	27.32	31.70	-39.7	-40.9	21.3	0.00e+00	0	32	0	792723456	50	7131
2026-01-27 22:43:42.80	26.88	31.62	-39.0	-40.0	22.2	0.00e+00	0	32	0	794820608	50	6448
2026-01-27 22:43:43.52	26.63	31.58	-38.5	-39.5	22.5	0.00e+00	25	32	0	796917760	50	6079
2026-01-27 22:43:44.81	26.19	31.50	-38.5	-39.5	22.5	0.00e+00	0	32	0	799014912	50	6070
2026-01-27 22:43:45.54	25.94	31.45	-38.6	-39.6	22.4	0.00e+00	79	32	0	800063488	50	6145
2026-01-27 22:43:46.84	25.50	31.37	-39.1	-40.2	22.0	0.00e+00	0	32	0	803209216	50	6594
2026-01-27 22:43:47.56	25.26	31.32	-39.5	-40.7	21.6	0.00e+00	74	32	0	804257792	50	6955
2026-01-27 22:43:48.85	24.83	31.23	-39.4	-40.5	21.7	0.00e+00	90	32	0	806354944	52	6095
2026-01-27 22:43:49.58	24.59	31.19	-39.4	-40.5	21.7	0.00e+00	83	32	0	808452096	52	6095
2026-01-27 22:43:50.88	24.15	31.10	-39.3	-40.4	21.8	0.00e+00	57	32	0	810549248	52	5979
2026-01-27 22:43:51.60	23.92	31.05	-39.7	-40.9	21.5	0.00e+00	0	32	0	811597824	52	6342
2026-01-27 22:43:52.90	23.49	30.96	-40.5	-41.8	20.7	0.00e+00	90	32	0	814743552	52	7082
2026-01-27 22:43:53.62	23.25	30.91	-40.5	-41.8	20.5	0.00e+00	0	32	0	815792128	52	7079
2026-01-27 22:43:54.92	22.83	30.81	-40.5	-41.8	20.7	0.00e+00	90	32	0	817889280	52	7008
2026-01-27 22:43:55.64	22.59	30.76	-40.5	-41.7	20.7	0.00e+00	0	32	0	818937856	52	6996
2026-01-27 22:43:56.94	22.17	30.66	-39.4	-40.5	21.8	0.00e+00	0	32	0	822083584	52	6052
2026-01-27 22:43:57.66	21.94	30.61	-39.3	-40.3	21.9	0.00e+00	0	32	0	823132160	52	5955
2026-01-27 22:43:58.96	21.52	30.51	-38.7	-39.7	22.4	0.00e+00	0	32	0	825229312	50	6231
2026-01-27 22:43:59.68	21.29	30.46	-38.9	-40.0	22.1	0.00e+00	92	32	0	827326464	50	6418
2026-01-27 22:44:00.98	20.88	30.36	-39.2	-40.3	21.9	0.00e+00	0	32	0	829423616	50	6692
2026-01-27 22:44:01.70	20.65	30.30	-38.9	-39.9	22.1	0.00e+00	92	32	0	830472192	50	6382
2026-01-27 22:44:03.00	20.24	30.20	-38.8	-39.9	22.2	0.00e+00	19	32	0	833617920	50	6343
2026-01-27 22:44:03.72	20.02	30.14	-39.3	-40.3	22.0	0.00e+00	92	32	0	834666496	50	6691
2026-01-27 22:44:05.02	19.61	30.04	-38.4	-39.3	22.5	0.00e+00	92	32	0	836763648	50	5961
2026-01-27 22:44:05.74	19.39	29.98	-38.2	-39.2	22.7	0.00e+00	0	32	0	838860800	50	5862
2026-01-27 22:44:07.04	18.99	29.88	-37.6	-38.5	23.4	0.00e+00	92	32	0	840957952	48	6099
2026-01-27 22:44:07.76	18.77	29.82	-37.1	-38.0	23.7	0.00e+00	0	32	0	842006528	48	5713
2026-01-27 22:44:09.06	18.37	29.71	-36.6	-37.4	24.1	0.00e+00	92	32	0	844103680	48	5360
2026-01-27 22:44:09.78	18.15	29.65	-36.8	-37.6	24.0	0.00e+00	0	32	0	846200832	46	6135
2026-01-27 22:44:11.08	17.76	29.54	-37.8	-38.7	23.1	0.00e+00	0	32	0	848297984	48	6236
2026-01-27 22:44:11.80	17.54	29.48	-38.2	-39.2	22.4	0.00e+00	0	32	0	849346560	48	6564
2026-01-27 22:44:13.09	17.16	29.37	-39.1	-40.2	21.9	0.00e+00	0	32	0	852492288	50	6545
2026-01-27 22:44:13.81	16.95	29.31	-39.4	-40.5	21.5	0.00e+00	92	32	0	853540864	50	6779
2026-01-27 22:44:15.11	16.56	29.19	-40.2	-41.5	21.0	0.00e+00	0	32	0	855638016	52	6778
2026-01-27 22:44:15.83	16.35	29.13	-40.0	-41.2	21.5	0.00e+00	83	32	0	857735168	52	6590
2026-01-27 22:44:17.13	15.97	29.02	-38.5	-39.4	22.6	0.00e+00	0	32	0	859832320	50	6032
2026-01-27 22:44:17.85	15.76	28.95	-38.3	-39.2	22.8	0.00e+00	63	32	0	860880896	50	5876
2026-01-27 22:44:19.15	15.39	28.84	-38.5	-39.5	22.5	0.00e+00	92	32	0	862978048	50	6076
2026-01-27 22:44:19.88	15.18	28.77	-38.5	-39.5	22.5	0.00e+00	27	32	0	865075200	50	6052
2026-01-27 22:44:21.17	14.81	28.66	-40.3	-41.6	20.5	0.00e+00	92	32	0	867172352	52	6859
2026-01-27 22:44:21.89	14.60	28.59	-41.2	-42.7	19.8	0.00e+00	0	32	0	868220928	54	6934
2026-01-27 22:44:23.19	14.24	28.47	-41.2	-42.7	19.9	0.00e+00	90	32	0	871366656	54	7006
2026-01-27 22:44:23.92	14.03	28.41	-40.5	-41.9	20.5	0.00e+00	0	32	0	872415232	54	6342
2026-01-27 22:44:25.21	13.67	28.29	-40.3	-41.6	20.8	0.00e+00	0	32	0	874512384	54	6160
2026-01-27 22:44:25.93	13.47	28.22	-40.2	-41.4	20.9	0.00e+00	0	32	0	876609536	54	6023
2026-01-27 22:44:27.23	13.11	28.10	-40.2	-41.5	20.9	0.00e+00	0	32	0	878706688	54	6074
2026-01-27 22:44:27.95	12.92	28.04	-39.6	-40.8	21.5	0.00e+00	17	32	0	879755264	52	6277
2026-01-27 22:44:29.25	12.56	27.91	-39.5	-40.7	21.4	0.00e+00	0	32	0	882900992	52	6244
2026-01-27 22:44:29.97	12.37	27.85	-39.6	-40.8	21.5	0.00e+00	92	32	0	883949568	52	6261
2026-01-27 22:44:31.27	12.02	27.72	-39.9	-41.2	21.2	0.00e+00	0	32	0	886046720	52	6540
2026-01-27 22:44:31.99	11.82	27.66	-40.1	-41.4	20.9	0.00e+00	92	32	0	887095296	52	6748
2026-01-27 22:44:33.29	11.48	27.53	-39.9	-41.1	21.3	0.00e+00	0	32	0	890241024	52	6498
2026-01-27 22:44:34.01	11.29	27.46	-39.5	-40.6	21.7	0.00e+00	92	32	0	891289600	52	6125
2026-01-27 22:44:35.31	10.95	27.34	-38.6	-39.6	22.5	0.00e+00	67	32	0	893386752	52	5489
2026-01-27 22:44:36.03	10.76	27.27	-37.9	-38.9	23.0	0.00e+00	0	32	0	895483904	50	5644
2026-01-27 22:44:37.33	10.42	27.14	-37.7	-38.7	23.3	0.00e+00	92	32	0	897581056	48	6196
2026-01-27 22:44:38.05	10.23	27.07	-37.3	-38.2	23.5	0.00e+00	0	32	0	898629632	48	5859
2026-01-27 22:44:39.35	9.90	26.95	-37.4	-38.3	23.4	0.00e+00	32	32	0	901775360	48	5941
2026-01-27 22:44:40.07	9.72	26.88	-37.5	-38.4	23.4	0.00e+00	0	32	0	902823936	48	6033
2026-01-27 22:44:41.37	9.39	26.75	-37.9	-38.9	23.0	0.00e+00	0	32	0	904921088	48	6363
2026-01-27 22:44:42.08	9.21	26.68	-38.0	-39.0	22.9	0.00e+00	9	32	0	907018240	48	6448
2026-01-27 22:44:43.38	8.88	26.55	-38.5	-39.5	22.5	0.00e+00	19	32	0	909115392	48	6839
2026-01-27 22:44:44.10	8.71	26.48	-38.6	-39.7	22.3	0.00e+00	90	32	0	910163968	48	6958
2026-01-27 22:44:45.40	8.39	26.36	-38.6	-39.6	22.7	0.00e+00	0	32	0	912261120	48	6873
2026-01-27 22:44:46.12	8.21	26.28	-38.1	-39.1	22.8	0.00e+00	92	32	0	914358272	48	6509
2026-01-27 22:44:47.42	7.89	26.16	-38.0	-39.0	23.0	0.00e+00	0	32	0	916455424	48	6436
2026-01-27 22:44:48.14	7.72	26.08	-37.9	-38.9	23.1	0.00e+00	92	32	0	917504000	48	6324
2026-01-27 22:44:49.43	7.41	25.96	-37.9	-38.9	23.1	0.00e+00	56	32	0	920649728	48	6345
2026-01-27 22:44:50.16	7.23	25.88	-37.8	-38.8	23.1	0.00e+00	66	32	0	921698304	48	6249
2026-01-27 22:44:51.45	6.93	25.75	-37.9	-38.9	23.1	0.00e+00	91	32	0	923795456	48	6331
2026-01-27 22:44:52.18	6.75	25.68	-37.8	-38.8	23.1	0.00e+00	0	32	0	925892608	48	6267
2026-01-27 22:44:53.47	6.45	25.55	-37.9	-38.9	23.1	0.00e+00	92	32	0	927989760	48	6371
2026-01-27 22:44:54.19	6.28	25.48	-37.7	-38.7	23.2	0.00e+00	0	32	0	929038336	48	6207
2026-01-27 22:44:55.49	5.98	25.35	-37.4	-38.3	23.5	0.00e+00	0	32	0	931135488	48	5959
2026-01-27 22:44:56.21	5.82	25.28	-37.1	-38.0	23.9	0.00e+00	0	32	0	933232640	48	5737
2026-01-27 22:44:57.51	5.52	25.15	-36.6	-37.4	24.1	0.00e+00	0	32	0	935329792	46	6017
2026-01-27 22:44:58.23	5.36	25.07	-36.2	-37.0	24.3	0.00e+00	91	32	0	936378368	46	5761
2026-01-27 22:44:59.53	5.06	24.94	-35.7	-36.5	24.7	0.00e+00	0	32	0	939524096	46	5439
2026-01-27 22:45:00.25	4.90	24.87	-35.8	-36.6	24.7	0.00e+00	92	32	0	940572672	44	6117
2026-01-27 22:45:01.55	4.61	24.74	-36.2	-37.0	24.2	0.00e+00	0	32	0	942669824	44	6433
2026-01-27 22:45:02.27	4.45	24.67	-36.5	-37.3	24.1	0.00e+00	0	32	0	944766976	44	6686
2026-01-27 22:45:03.57	4.17	24.53	-37.2	-38.1	23.6	0.00e+00	21	32	0	946864128	46	6530
2026-01-27 22:45:04.29	4.01	24.46	-37.2	-38.2	23.6	0.00e+00	0	32	0	947912704	46	6548
2026-01-27 22:45:05.59	3.73	24.33	-37.2	-38.2	23.6	0.00e+00	90	32	0	951058432	46	6540
2026-01-27 22:45:06.31	3.57	24.26	-37.0	-37.9	23.8	0.00e+00	0	32	0	952107008	46	6370
2026-01-27 22:45:07.60	3.30	24.13	-36.4	-37.2	24.3	0.00e+00	45	32	0	954204160	46	5871
2026-01-27 22:45:08.32	3.14	24.05	-36.2	-37.0	24.1	0.00e+00	0	32	0	955252736	46	5720
2026-01-27 22:45:09.62	2.87	23.92	-36.1	-36.9	24.3	0.00e+00	0	32	0	958398464	46	5643
2026-01-27 22:45:10.34	2.72	23.85	-36.2	-37.0	24.5	0.00e+00	0	32	0	959447040	46	5733
2026-01-27 22:45:11.64	2.45	23.71	-36.4	-37.2	24.2	0.00e+00	0	32	0	961544192	46	5896
2026-01-27 22:45:12.36	2.30	23.64	-36.8	-37.7	24.0	0.00e+00	21	32	0	963641344	46	6204
2026-01-27 22:45:13.66	2.03	23.51	-36.7	-37.5	24.0	0.00e+00	0	32	0	965738496	46	6067
2026-01-27 22:45:14.38	1.88	23.44	-36.5	-37.4	24.2	0.00e+00	86	32	0	966787072	46	5978
2026-01-27 22:45:15.67	1.62	23.31	-36.5	-37.4	24.1	0.00e+00	0	32	0	969932800	46	5991
2026-01-27 22:45:16.39	1.48	23.23	-36.7	-37.6	24.0	0.00e+00	91	32	0	970981376	46	6105
2026-01-27 22:45:17.69	1.22	23.10	-36.7	-37.6	24.0	0.00e+00	7	32	0	973078528	46	6143
2026-01-27 22:45:18.41	1.07	23.03	-36.8	-37.7	23.9	0.00e+00	0	32	0	975175680	46	6208
2026-01-27 22:45:19.71	0.82	22.89	-36.8	-37.7	24.1	0.00e+00	92	32	0	977272832	46	6175
2026-01-27 22:45:20.43	0.68	22.82	-36.4	-37.3	24.2	0.00e+00	0	32	0	978321408	46	5931
2026-01-27 22:45:21.73	0.42	22.69	-36.2	-37.1	24.3	0.00e+00	92	32	0	980418560	46	5762
2026-01-27 22:45:22.45	0.28	22.62	-36.4	-37.3	24.2	0.00e+00	19	32	0	982515712	46	5909
2026-01-27 22:45:23.75	0.03	22.49	-36.4	-37.2	24.2	0.00e+00	0	32	0	984612864	46	5859
2026-01-27 22:45:24.47	359.89	22.41	-36.4	-37.2	24.2	0.00e+00	0	32	0	985661440	46	5856
2026-01-27 22:45:25.77	359.65	22.28	-36.9	-37.8	23.8	0.00e+00	0	32	0	988807168	46	6247
2026-01-27 22:45:26.49	359.51	22.21	-36.9	-37.8	23.9	0.00e+00	0	32	0	989855744	46	6279
2026-01-27 22:45:27.79	359.27	22.08	-37.0	-37.8	23.9	0.00e+00	0	32	0	991952896	46	6310
2026-01-27 22:45:28.51	359.13	22.00	-36.8	-37.7	23.9	0.00e+00	22	32	0	993001472	46	6232
2026-01-27 22:45:29.81	358.89	21.87	-37.2	-38.1	23.5	0.00e+00	0	32	0	996147200	46	6535
2026-01-27 22:45:30.53	358.76	21.80	-37.1	-38.0	23.5	0.00e+00	48	32	0	997195776	46	6453
2026-01-27 22:45:31.83	358.53	21.67	-37.6	-38.5	23.4	0.00e+00	0	32	0	999292928	46	6815
2026-01-27 22:45:32.55	358.39	21.60	-37.7	-38.7	23.3	0.00e+00	0	32	0	1001390080	46	6960
2026-01-27 22:45:33.84	358.16	21.47	-37.6	-38.6	23.3	0.00e+00	9	32	0	1003487232	46	6877
2026-01-27 22:45:34.57	358.03	21.39	-37.3	-38.3	23.5	0.00e+00	0	32	0	1004535808	46	6630
2026-01-27 22:45:35.87	357.80	21.26	-37.6	-38.5	23.3	0.00e+00	78	32	0	1007681536	46	6833
2026-01-27 22:45:36.59	357.67	21.19	-37.5	-38.4	23.3	0.00e+00	0	32	0	1008730112	46	6749
2026-01-27 22:45:37.89	357.45	21.06	-37.3	-38.2	23.4	0.00e+00	0	32	0	1010827264	46	6578
2026-01-27 22:45:38.61	357.32	20.99	-37.6	-38.5	23.2	0.00e+00	0	32	0	1012924416	46	6819
2026-01-27 22:45:39.91	357.10	20.86	-37.4	-38.3	23.0	0.00e+00	0	32	0	1015021568	46	6678
2026-01-27 22:45:40.63	356.97	20.79	-37.6	-38.5	23.1	0.00e+00	0	32	0	1016070144	46	6846
2026-01-27 22:45:41.93	356.75	20.66	-38.0	-39.0	22.7	0.00e+00	0	32	0	1019215872	48	6457
2026-01-27 22:45:42.65	356.63	20.58	-38.4	-39.4	22.5	0.00e+00	20	32	0	1020264448	48	6752
2026-01-27 22:45:43.95	356.41	20.46	-38.2	-39.2	22.2	0.00e+00	0	32	0	1022361600	48	6548
2026-01-27 22:45:44.67	356.29	20.38	-38.5	-39.5	22.4	0.00e+00	66	32	0	1023410176	48	6842
2026-01-27 22:45:45.97	356.07	20.26	-38.4	-39.5	22.4	0.00e+00	0	32	0	1026555904	48	6779
2026-01-27 22:45:46.69	355.96	20.18	-37.8	-38.8	23.0	0.00e+00	8	32	0	1027604480	48	6297
2026-01-27 22:45:47.99	355.74	20.06	-37.4	-38.3	23.4	0.00e+00	0	32	0	1029701632	48	5941
2026-01-27 22:45:48.71	355.63	19.98	-37.2	-38.1	23.4	0.00e+00	0	32	0	1031798784	48	5828
2026-01-27 22:45:50.01	355.42	19.86	-37.1	-38.0	23.6	0.00e+00	74	32	0	1033895936	48	5723
2026-01-27 22:45:50.73	355.30	19.79	-37.0	-37.9	23.8	0.00e+00	0	32	0	1034944512	48	5639
2026-01-27 22:45:52.03	355.09	19.66	-37.1	-38.0	23.5	0.00e+00	2	32	0	1038090240	48	5736
2026-01-27 22:45:52.75	354.98	19.59	-37.3	-38.2	23.3	0.00e+00	0	32	0	1039138816	48	5895
2026-01-27 22:45:54.05	354.77	19.46	-37.7	-38.6	23.1	0.00e+00	0	32	0	1041235968	48	6160
2026-01-27 22:45:54.77	354.66	19.39	-37.6	-38.6	23.2	0.00e+00	0	32	0	1043333120	48	6120
2026-01-27 22:45:56.07	354.46	19.26	-37.6	-38.6	23.2	0.00e+00	0	32	0	1045430272	48	6127
2026-01-27 22:45:56.79	354.35	19.19	-37.8	-38.8	23.0	0.00e+00	0	32	0	1046478848	48	6266
2026-01-27 22:45:58.09	354.15	19.07	-37.6	-38.5	23.3	0.00e+00	0	32	0	1048576000	48	6092
2026-01-27 22:45:58.80	354.04	19.00	-37.4	-38.3	23.4	0.00e+00	76	32	0	1050673152	48	5945
2026-01-27 22:46:00.10	353.84	18.87	-37.2	-38.1	23.6	0.00e+00	0	32	0	1052770304	48	5780
2026-01-27 22:46:00.83	353.73	18.80	-37.1	-38.0	23.7	0.00e+00	31	32	0	1053818880	48	5725
2026-01-27 22:46:02.12	353.54	18.67	-37.2	-38.0	23.6	0.00e+00	0	32	0	1056964608	48	5761
2026-01-27 22:46:02.84	353.43	18.61	-37.4	-38.3	23.4	0.00e+00	0	32	0	1058013184	48	5958
2026-01-27 22:46:04.14	353.24	18.48	-37.1	-37.9	23.5	0.00e+00	19	32	0	1060110336	48	5695
2026-01-27 22:46:04.86	353.14	18.41	-37.1	-38.0	23.6	0.00e+00	0	32	0	1062207488	48	5719
2026-01-27 22:46:06.16	352.95	18.29	-37.0	-37.9	23.6	0.00e+00	70	32	0	1064304640	48	5655
2026-01-27 22:46:06.88	352.84	18.22	-37.1	-38.0	23.6	0.00e+00	0	32	0	1065353216	48	5704
2026-01-27 22:46:08.18	352.66	18.09	-37.1	-38.0	23.6	0.00e+00	0	32	0	1067450368	48	5758
2026-01-27 22:46:08.90	352.55	18.02	-37.2	-38.1	23.5	0.00e+00	0	32	0	1069547520	48	5778
2026-01-27 22:46:10.20	352.37	17.90	-37.2	-38.1	23.4	0.00e+00	0	32	0	1071644672	48	5792
2026-01-27 22:46:10.92	352.27	17.83	-36.9	-37.8	23.7	0.00e+00	0	32	0	1072693248	48	5612
2026-01-27 22:46:12.22	352.09	17.71	-37.3	-38.2	23.5	0.00e+00	0	32	0	1075838976	48	5871
2026-01-27 22:46:12.94	351.99	17.64	-37.0	-37.8	23.8	0.00e+00	18	32	0	1076887552	48	5618
2026-01-27 22:46:14.24	351.81	17.52	-36.9	-37.8	23.8	0.00e+00	0	32	0	1078984704	48	5583
2026-01-27 22:46:14.96	351.71	17.45	-36.8	-37.7	23.8	0.00e+00	92	32	0	1081081856	48	5533
2026-01-27 22:46:16.26	351.53	17.33	-36.9	-37.8	23.8	0.00e+00	0	32	0	1083179008	46	6246
2026-01-27 22:46:16.98	351.43	17.26	-36.9	-37.7	23.8	0.00e+00	53	32	0	1084227584	46	6240
2026-01-27 22:46:18.28	351.26	17.14	-37.1	-37.9	23.6	0.00e+00	0	32	0	1087373312	46	6387
2026-01-27 22:46:19.00	351.16	17.07	-37.5	-38.4	23.3	0.00e+00	0	32	0	1088421888	46	6732
2026-01-27 22:46:20.30	350.99	16.95	-37.9	-38.8	22.9	0.00e+00	91	32	0	1090519040	48	6301
2026-01-27 22:46:21.02	350.89	16.88	-38.1	-39.1	22.6	0.00e+00	0	32	0	1091567616	48	6492
2026-01-27 22:46:22.32	350.72	16.76	-39.1	-40.2	21.9	0.00e+00	0	32	0	1094713344	50	6570
2026-01-27 22:46:23.04	350.63	16.70	-39.5	-40.7	21.4	0.00e+00	0	32	0	1095761920	50	6966
2026-01-27 22:46:24.34	350.46	16.57	-39.7	-40.9	21.4	0.00e+00	0	32	0	1097859072	52	6320
2026-01-27 22:46:25.06	350.37	16.51	-40.0	-41.2	20.9	0.00e+00	0	32	0	1099956224	52	6562
2026-01-27 22:46:26.36	350.20	16.39	-39.9	-41.1	21.1	0.00e+00	0	32	0	1102053376	52	6515
2026-01-27 22:46:27.08	350.11	16.32	-39.4	-40.5	21.5	0.00e+00	18	32	0	1103101952	52	6079
2026-01-27 22:46:28.38	349.95	16.20	-38.5	-39.5	22.3	0.00e+00	0	32	0	1106247680	50	6092
2026-01-27 22:46:29.10	349.86	16.14	-38.3	-39.3	22.5	0.00e+00	91	32	0	1107296256	50	5907
2026-01-27 22:46:30.39	349.69	16.02	-37.9	-38.8	22.9	0.00e+00	15	32	0	1109393408	50	5628
2026-01-27 22:46:31.11	349.60	15.95	-37.8	-38.8	23.1	0.00e+00	79	32	0	1111490560	48	6257
2026-01-27 22:46:32.41	349.44	15.84	-37.6	-38.5	23.2	0.00e+00	14	32	0	1113587712	48	6092
2026-01-27 22:46:33.13	349.36	15.77	-37.3	-38.2	23.5	0.00e+00	0	32	0	1114636288	48	5844
2026-01-27 22:46:34.43	349.20	15.65	-37.5	-38.5	23.0	0.00e+00	12	32	0	1116733440	48	6049
2026-01-27 22:46:35.16	349.11	15.59	-37.8	-38.7	23.0	0.00e+00	0	32	0	1118830592	48	6245
2026-01-27 22:46:36.45	348.96	15.47	-38.2	-39.2	22.6	0.00e+00	90	32	0	1120927744	48	6568
2026-01-27 22:46:37.18	348.87	15.41	-38.5	-39.5	22.2	0.00e+00	0	32	0	1121976320	48	6847
2026-01-27 22:46:38.47	348.72	15.29	-38.9	-40.1	21.7	0.00e+00	0	32	0	1125122048	50	6470
2026-01-27 22:46:39.20	348.63	15.22	-39.2	-40.3	21.6	0.00e+00	0	32	0	1126170624	50	6684
2026-01-27 22:46:40.49	348.48	15.11	-39.3	-40.5	21.5	0.00e+00	18	32	0	1128267776	50	6808
2026-01-27 22:46:41.22	348.39	15.04	-39.6	-40.8	21.4	0.00e+00	0	32	0	1130364928	50	7008
2026-01-27 22:46:42.51	348.24	14.93	-39.4	-40.5	21.5	0.00e+00	0	32	0	1132462080	50	6844
2026-01-27 22:46:43.24	348.16	14.87	-39.5	-40.7	21.4	0.00e+00	72	32	0	1133510656	50	6982
2026-01-27 22:46:44.53	348.01	14.75	-39.2	-40.3	21.6	0.00e+00	0	32	0	1135607808	50	6675
2026-01-27 22:46:45.26	347.93	14.69	-39.4	-40.6	21.4	0.00e+00	71	32	0	1137704960	50	6874
2026-01-27 22:46:46.55	347.78	14.57	-39.3	-40.4	21.8	0.00e+00	0	32	0	1139802112	50	6730
2026-01-27 22:46:47.27	347.70	14.51	-39.2	-40.3	21.7	0.00e+00	0	32	0	1140850688	50	6679
2026-01-27 22:46:48.58	347.56	14.40	-39.1	-40.3	21.7	0.00e+00	80	32	0	1143996416	50	6618
2026-01-27 22:46:49.30	347.48	14.33	-39.4	-40.6	21.4	0.00e+00	0	32	0	1145044992	50	6922
2026-01-27 22:46:50.60	347.33	14.22	-39.1	-40.2	21.8	0.00e+00	92	32	0	1147142144	50	6607
2026-01-27 22:46:51.32	347.26	14.16	-39.2	-40.3	21.6	0.00e+00	0	32	0	1149239296	50	6647
2026-01-27 22:46:52.62	347.11	14.04	-39.2	-40.4	21.6	0.00e+00	0	32	0	1151336448	50	6725
2026-01-27 22:46:53.34	347.04	13.98	-38.9	-40.1	21.7	0.00e+00	0	32	0	1152385024	50	6466
2026-01-27 22:46:54.63	346.90	13.87	-39.2	-40.3	21.6	0.00e+00	0	32	0	1155530752	50	6644
2026-01-27 22:46:55.36	346.82	13.81	-39.0	-40.1	21.9	0.00e+00	0	32	0	1156579328	50	6511
2026-01-27 22:46:56.66	346.68	13.70	-39.0	-40.1	21.6	0.00e+00	0	32	0	1158676480	50	6468
2026-01-27 22:46:57.38	346.61	13.63	-39.1	-40.2	21.7	0.00e+00	12	32	0	1159725056	50	6555
2026-01-27 22:46:58.67	346.47	13.52	-39.0	-40.1	21.8	0.00e+00	0	32	0	1162870784	50	6473
2026-01-27 22:46:59.39	346.40	13.46	-39.0	-40.1	21.6	0.00e+00	75	32	0	1163919360	50	6537
2026-01-27 22:47:00.69	346.26	13.35	-39.1	-40.2	21.6	0.00e+00	0	32	0	1166016512	50	6611
2026-01-27 22:47:01.42	346.19	13.29	-39.1	-40.2	21.6	0.00e+00	92	32	0	1168113664	50	6575
2026-01-27 22:47:02.71	346.05	13.18	-39.1	-40.2	21.7	7.00e-07	11	32	0	1170210816	50	6612
2026-01-27 22:47:03.44	345.98	13.12	-38.9	-40.0	21.8	0.00e+00	14	32	0	1171259392	50	6438
2026-01-27 22:47:04.74	345.85	13.01	-38.8	-39.9	21.9	0.00e+00	92	32	0	1174405120	50	6326
2026-01-27 22:47:05.46	345.77	12.95	-38.7	-39.8	22.0	0.00e+00	0	32	0	1175453696	50	6305
2026-01-27 22:47:06.75	345.65	12.84	-38.6	-39.6	22.2	0.00e+00	86	32	0	1177550848	50	6164
2026-01-27 22:47:07.48	345.57	12.78	-38.3	-39.3	22.4	0.00e+00	0	32	0	1179648000	50	5913
2026-01-27 22:47:08.77	345.45	12.67	-38.2	-39.2	22.5	0.00e+00	0	32	0	1181745152	50	5857
2026-01-27 22:47:09.49	345.38	12.61	-38.1	-39.1	22.5	0.00e+00	0	32	0	1182793728	50	5802
2026-01-27 22:47:10.79	345.25	12.50	-38.0	-39.0	22.7	0.00e+00	0	32	0	1184890880	50	5710
2026-01-27 22:47:11.51	345.18	12.44	-38.0	-39.0	22.6	0.00e+00	0	32	0	1186988032	50	5739
2026-01-27 22:47:12.81	345.05	12.34	-38.0	-39.0	22.7	0.00e+00	0	32	0	1189085184	50	5748
2026-01-27 22:47:13.53	344.98	12.28	-38.2	-39.2	22.4	0.00e+00	92	32	0	1190133760	50	5856
2026-01-27 22:47:14.83	344.86	12.17	-38.4	-39.4	22.2	0.00e+00	0	32	0	1193279488	50	5993
