passes_logs/2026/01/27/R4.6S_Anadyr/R4.6S_Anadyr__20260127_201650_FENGYUN_3D_rec.log

#Pass ID: 20260127_201650_FENGYUN 3D
#Satellite: FENGYUN 3D
#Configuration: FENGYUN 3D
#almurnet v.1.7.20251203
#Start time: 2026-01-27 20:16:53

#Version: 2.2.20231116
#Station: R4.6S_Anadyr
#Location: 177.4865 lon 64.73178 lat
#TLE: 1 43010U 17072A   26026.91415486  .00000072  00000+0  55983-4 0  9991
#TLE: 2 43010  98.9962 358.9161 0002508  89.0320 271.1142 14.19700283424949

#Time	Az	El	Level	Level2	SNR	BER	BlckErr	Temp	State	Recorded	gain1	gain2
2026-01-27 20:16:53.16	38.67	0.12	-48.5	-63.6	3.5	1.51e+00	0	29	0	0	60	54476
2026-01-27 20:16:54.16	38.61	0.17	-48.5	-60.7	3.6	8.45e-01	0	30	104	0	60	39202
2026-01-27 20:16:55.17	38.54	0.22	-48.5	-60.7	3.6	8.46e-01	0	30	104	0	60	39075
2026-01-27 20:16:56.18	38.47	0.28	-48.5	-60.6	3.6	8.45e-01	0	30	104	0	60	38924
2026-01-27 20:16:57.19	38.40	0.33	-48.6	-60.7	3.6	8.45e-01	0	30	104	0	60	39164
2026-01-27 20:16:58.20	38.33	0.38	-48.6	-60.7	3.6	8.45e-01	0	30	104	0	60	39299
2026-01-27 20:16:59.21	38.26	0.43	-48.5	-60.7	3.6	8.45e-01	0	31	104	0	60	39197
2026-01-27 20:17:00.22	38.19	0.48	-48.6	-60.7	3.6	8.46e-01	0	31	104	0	60	39149
2026-01-27 20:17:01.23	38.12	0.53	-48.6	-60.8	3.6	8.45e-01	0	30	104	0	60	39450
2026-01-27 20:17:02.24	38.05	0.59	-48.6	-60.8	3.6	8.46e-01	0	30	104	0	60	39430
2026-01-27 20:17:03.25	37.98	0.64	-48.6	-60.8	3.6	8.45e-01	0	31	104	0	60	39601
2026-01-27 20:17:04.26	37.91	0.69	-48.6	-60.7	3.6	8.45e-01	0	31	104	0	60	39308
2026-01-27 20:17:05.27	37.84	0.74	-48.6	-60.7	3.6	8.45e-01	0	31	104	0	60	39084
2026-01-27 20:17:06.28	37.76	0.79	-48.4	-60.7	3.6	8.45e-01	0	31	104	0	60	39193
2026-01-27 20:17:07.29	37.69	0.85	-48.5	-60.6	3.6	8.46e-01	0	31	104	0	60	38901
2026-01-27 20:17:08.30	37.62	0.90	-48.5	-60.6	3.6	8.46e-01	0	31	104	0	60	38703
2026-01-27 20:17:09.31	37.55	0.95	-48.5	-60.5	3.6	8.45e-01	0	31	104	0	60	38335
2026-01-27 20:17:10.32	37.47	1.00	-48.5	-60.6	3.6	8.45e-01	0	31	104	0	60	38731
2026-01-27 20:17:11.33	37.40	1.05	-48.4	-60.5	3.6	8.44e-01	0	31	104	0	60	38253
2026-01-27 20:17:12.34	37.33	1.11	-48.3	-60.4	3.6	8.46e-01	0	31	104	0	60	38002
2026-01-27 20:17:13.35	37.26	1.16	-48.2	-60.3	3.6	8.46e-01	0	31	104	0	60	37593
2026-01-27 20:17:14.36	37.18	1.21	-48.1	-60.2	3.6	8.45e-01	0	31	104	0	60	36854
2026-01-27 20:17:15.37	37.11	1.26	-48.0	-60.2	3.6	8.46e-01	0	31	104	0	60	36835
2026-01-27 20:17:16.37	37.03	1.32	-47.8	-59.9	3.6	8.46e-01	0	31	104	0	60	35809
2026-01-27 20:17:17.39	36.96	1.37	-47.5	-59.5	3.6	8.45e-01	0	31	104	0	60	34086
2026-01-27 20:17:18.40	36.88	1.42	-47.1	-59.2	3.6	8.45e-01	0	31	104	0	60	32980
2026-01-27 20:17:19.41	36.81	1.47	-47.0	-59.0	3.6	8.44e-01	0	31	104	0	60	32345
2026-01-27 20:17:20.42	36.73	1.53	-47.0	-58.9	3.6	8.45e-01	0	31	104	0	60	32012
2026-01-27 20:17:21.43	36.66	1.58	-47.0	-59.0	3.6	8.46e-01	0	31	104	0	60	32341
2026-01-27 20:17:22.44	36.58	1.63	-47.0	-59.0	3.6	8.46e-01	0	31	104	0	60	32147
2026-01-27 20:17:23.45	36.50	1.69	-47.0	-58.9	3.6	8.44e-01	0	31	104	0	60	32003
2026-01-27 20:17:24.46	36.43	1.74	-47.0	-59.0	3.6	8.46e-01	0	31	104	0	60	32314
2026-01-27 20:17:25.47	36.35	1.79	-47.0	-59.0	3.6	8.45e-01	0	31	104	0	60	32255
2026-01-27 20:17:26.48	36.27	1.84	-47.0	-59.0	3.6	8.45e-01	0	31	104	0	60	32362
2026-01-27 20:17:27.49	36.20	1.90	-47.0	-59.0	3.6	8.46e-01	0	31	104	0	60	32271
2026-01-27 20:17:28.50	36.12	1.95	-47.0	-59.1	3.6	8.46e-01	0	31	104	0	60	32438
2026-01-27 20:17:29.51	36.04	2.00	-47.0	-59.0	3.6	8.45e-01	0	31	104	0	60	32238
2026-01-27 20:17:30.52	35.96	2.06	-47.0	-59.0	3.6	8.45e-01	0	31	104	0	60	32068
2026-01-27 20:17:31.52	35.89	2.11	-46.9	-58.8	3.6	8.46e-01	0	31	104	0	60	31613
2026-01-27 20:17:32.53	35.81	2.16	-46.9	-58.8	3.6	8.44e-01	0	31	104	0	60	31526
2026-01-27 20:17:33.54	35.73	2.22	-46.9	-58.7	3.6	8.45e-01	0	31	104	0	60	31175
2026-01-27 20:17:34.55	35.65	2.27	-46.9	-58.8	3.6	8.46e-01	0	31	104	0	60	31586
2026-01-27 20:17:35.56	35.57	2.32	-47.0	-59.0	3.6	8.45e-01	0	31	104	0	60	32112
2026-01-27 20:17:36.57	35.49	2.38	-47.0	-58.9	3.6	8.46e-01	0	31	104	0	60	31983
2026-01-27 20:17:37.58	35.41	2.43	-47.0	-58.8	3.6	8.46e-01	0	31	104	0	60	31584
2026-01-27 20:17:38.59	35.33	2.48	-46.9	-58.8	3.6	8.45e-01	0	31	104	0	60	31620
2026-01-27 20:17:39.60	35.25	2.54	-47.0	-59.0	3.6	8.46e-01	0	31	104	0	60	32229
2026-01-27 20:17:40.61	35.16	2.59	-47.0	-59.0	3.6	8.45e-01	0	31	104	0	60	32255
2026-01-27 20:17:41.62	35.08	2.64	-46.9	-58.5	3.6	8.44e-01	0	31	104	0	60	30493
2026-01-27 20:17:42.63	35.00	2.70	-46.9	-58.0	3.6	8.45e-01	0	31	104	0	60	28554
2026-01-27 20:17:43.64	34.92	2.75	-46.8	-57.6	3.6	8.45e-01	0	31	104	0	60	27517
2026-01-27 20:17:44.65	34.84	2.81	-46.9	-58.3	3.6	8.46e-01	0	31	104	0	60	29689
2026-01-27 20:17:45.66	34.75	2.86	-46.9	-58.5	3.6	8.44e-01	0	31	104	0	60	30562
2026-01-27 20:17:46.67	34.67	2.91	-46.3	-53.5	4.9	8.16e-01	0	31	104	0	60	17161
2026-01-27 20:17:47.68	34.59	2.97	-44.3	-47.3	10.3	1.49e-01	0	31	0	3145728	60	8382
2026-01-27 20:17:48.69	34.50	3.02	-43.2	-45.6	12.3	8.95e-04	0	31	0	8388608	60	6876
2026-01-27 20:17:49.70	34.42	3.08	-41.0	-42.5	15.7	1.10e-06	0	31	0	14680064	56	6100
2026-01-27 20:17:50.71	34.33	3.13	-40.3	-41.7	16.4	0.00e+00	0	31	0	19922944	54	6212
2026-01-27 20:17:51.72	34.25	3.18	-40.3	-41.7	16.1	0.00e+00	0	31	0	26214400	52	6995
2026-01-27 20:17:52.73	34.16	3.24	-46.1	-52.0	4.8	7.52e-02	0	31	0	31457280	60	14434
2026-01-27 20:17:53.74	34.08	3.29	-38.5	-39.7	18.0	5.60e-05	0	31	0	35651584	50	6183
2026-01-27 20:17:54.75	33.99	3.35	-37.4	-38.4	19.4	0.00e+00	0	31	0	40894464	46	6717
2026-01-27 20:17:55.75	33.91	3.40	-46.5	-55.3	3.5	9.21e-04	0	31	0	46137344	60	21042
2026-01-27 20:17:56.76	33.82	3.46	-40.7	-42.3	6.0	8.40e-01	0	31	104	46137344	58	5279
2026-01-27 20:17:57.77	33.73	3.51	-38.0	-39.1	18.6	0.00e+00	0	31	0	46137344	50	5764
2026-01-27 20:17:58.78	33.65	3.56	-37.8	-38.8	19.0	0.00e+00	0	31	0	52428800	48	6287
2026-01-27 20:17:59.79	33.56	3.62	-37.0	-38.0	20.5	0.00e+00	0	31	0	57671680	48	5704
2026-01-27 20:18:00.80	33.47	3.67	-37.1	-38.1	20.2	0.00e+00	0	31	0	62914560	46	6465
2026-01-27 20:18:01.81	33.38	3.73	-36.4	-37.2	20.7	0.00e+00	0	31	0	69206016	46	5882
2026-01-27 20:18:02.82	33.29	3.78	-36.5	-37.4	20.7	0.00e+00	0	31	0	74448896	46	6026
2026-01-27 20:18:03.83	33.21	3.84	-36.0	-36.9	21.1	0.00e+00	0	31	0	80740352	46	5658
2026-01-27 20:18:04.84	33.12	3.89	-36.5	-37.3	20.7	0.00e+00	0	31	0	85983232	46	5961
2026-01-27 20:18:05.85	33.03	3.95	-36.4	-37.3	21.0	0.00e+00	0	31	0	91226112	46	5931
2026-01-27 20:18:06.86	32.94	4.00	-36.4	-37.2	20.9	0.00e+00	0	31	0	97517568	46	5887
2026-01-27 20:18:07.87	32.85	4.06	-36.6	-37.5	20.7	0.00e+00	0	31	0	102760448	46	6041
2026-01-27 20:18:08.88	32.76	4.11	-36.1	-37.0	21.2	0.00e+00	0	31	0	109051904	46	5700
2026-01-27 20:18:09.89	32.66	4.17	-36.6	-37.4	20.7	0.00e+00	0	31	0	114294784	46	6030
2026-01-27 20:18:10.90	32.57	4.22	-35.3	-36.1	22.0	0.00e+00	0	31	0	119537664	44	5784
2026-01-27 20:18:11.91	32.48	4.28	-35.5	-36.3	21.7	0.00e+00	0	31	0	125829120	44	5909
2026-01-27 20:18:12.92	32.39	4.33	-35.8	-36.6	21.4	0.00e+00	0	31	0	131072000	44	6148
2026-01-27 20:18:13.93	32.30	4.39	-36.0	-36.8	21.4	0.00e+00	0	31	0	137363456	44	6308
2026-01-27 20:18:14.94	32.20	4.44	-35.8	-36.7	21.4	0.00e+00	0	31	0	142606336	44	6187
2026-01-27 20:18:15.95	32.11	4.50	-35.4	-36.2	21.9	0.00e+00	0	31	0	148897792	44	5854
2026-01-27 20:18:16.96	32.02	4.55	-35.7	-36.5	21.7	0.00e+00	0	31	0	154140672	44	6075
2026-01-27 20:18:17.97	31.92	4.61	-35.5	-36.4	21.7	0.00e+00	0	31	0	159383552	44	5975
2026-01-27 20:18:18.98	31.83	4.66	-35.7	-36.5	21.7	0.00e+00	0	31	0	165675008	44	6087
2026-01-27 20:18:19.99	31.74	4.72	-35.1	-35.9	22.3	0.00e+00	0	31	0	170917888	44	5691
2026-01-27 20:18:21.00	31.64	4.78	-35.5	-36.3	21.8	0.00e+00	0	31	0	177209344	44	5919
2026-01-27 20:18:22.01	31.54	4.83	-35.4	-36.3	21.9	0.00e+00	0	31	0	182452224	44	5901
2026-01-27 20:18:23.02	31.45	4.89	-35.2	-36.0	22.1	0.00e+00	0	31	0	188743680	44	5740
2026-01-27 20:18:24.03	31.35	4.94	-35.7	-36.5	21.7	0.00e+00	0	31	0	193986560	44	6039
2026-01-27 20:18:25.04	31.26	5.00	-35.5	-36.3	22.0	0.00e+00	0	31	0	199229440	44	5924
2026-01-27 20:18:26.04	31.16	5.05	-34.9	-35.6	22.6	0.00e+00	0	31	0	205520896	44	5484
2026-01-27 20:18:27.05	31.06	5.11	-35.4	-36.2	22.0	0.00e+00	0	31	0	210763776	44	5855
2026-01-27 20:18:28.06	30.97	5.16	-35.5	-36.3	21.9	0.00e+00	0	31	0	216006656	44	5955
2026-01-27 20:18:29.07	30.87	5.22	-35.1	-35.9	22.3	0.00e+00	0	31	0	222298112	44	5666
2026-01-27 20:18:30.08	30.77	5.28	-35.2	-36.0	22.2	0.00e+00	0	31	0	227540992	44	5731
2026-01-27 20:18:31.08	30.67	5.33	-35.1	-35.9	22.3	0.00e+00	0	31	0	233832448	44	5637
2026-01-27 20:18:32.09	30.57	5.39	-35.3	-36.1	22.2	0.00e+00	0	31	0	239075328	44	5783
2026-01-27 20:18:33.10	30.47	5.44	-35.2	-36.0	22.2	0.00e+00	0	31	0	245366784	44	5747
2026-01-27 20:18:34.11	30.37	5.50	-35.2	-36.0	22.2	0.00e+00	0	31	0	250609664	44	5717
2026-01-27 20:18:35.12	30.27	5.56	-35.2	-36.0	22.2	0.00e+00	0	31	0	256901120	44	5744
2026-01-27 20:18:36.12	30.17	5.61	-35.2	-36.1	22.0	0.00e+00	0	31	0	262144000	44	5771
2026-01-27 20:18:37.13	30.07	5.67	-35.2	-35.9	22.4	0.00e+00	0	31	0	267386880	44	5685
2026-01-27 20:18:38.14	29.97	5.72	-35.2	-36.0	22.2	0.00e+00	0	31	0	273678336	44	5760
2026-01-27 20:18:39.15	29.87	5.78	-35.2	-36.0	22.2	0.00e+00	0	31	0	278921216	44	5704
2026-01-27 20:18:40.16	29.77	5.84	-35.0	-35.8	22.4	0.00e+00	0	31	0	284164096	44	5616
2026-01-27 20:18:41.16	29.66	5.89	-35.0	-35.8	22.4	0.00e+00	0	31	0	290455552	44	5579
2026-01-27 20:18:42.17	29.56	5.95	-35.0	-35.8	22.4	0.00e+00	0	31	0	295698432	44	5620
2026-01-27 20:18:43.18	29.46	6.00	-35.0	-35.8	22.3	0.00e+00	0	31	0	301989888	44	5609
2026-01-27 20:18:44.19	29.35	6.06	-34.9	-35.7	22.5	0.00e+00	0	31	0	307232768	44	5547
2026-01-27 20:18:45.19	29.25	6.12	-35.1	-35.9	22.3	0.00e+00	0	31	0	312475648	44	5680
2026-01-27 20:18:46.20	29.14	6.17	-35.7	-36.5	22.0	0.00e+00	0	31	0	318767104	44	6056
2026-01-27 20:18:47.21	29.04	6.23	-35.4	-36.1	22.2	0.00e+00	0	31	0	324009984	44	5828
2026-01-27 20:18:48.22	28.93	6.28	-34.9	-35.7	22.6	0.00e+00	0	31	0	330301440	44	5548
2026-01-27 20:18:49.23	28.83	6.34	-34.9	-35.7	22.6	0.00e+00	0	31	0	335544320	44	5544
2026-01-27 20:18:50.24	28.72	6.40	-35.0	-35.8	22.6	0.00e+00	0	31	0	341835776	44	5597
2026-01-27 20:18:51.25	28.61	6.45	-34.9	-35.6	22.7	0.00e+00	0	31	0	347078656	44	5493
2026-01-27 20:18:52.26	28.51	6.51	-34.6	-35.3	23.1	0.00e+00	0	31	0	352321536	42	5958
2026-01-27 20:18:53.27	28.40	6.57	-34.7	-35.5	22.9	0.00e+00	0	31	0	358612992	42	6076
2026-01-27 20:18:54.28	28.29	6.62	-34.6	-35.3	23.1	0.00e+00	0	31	0	363855872	42	5959
2026-01-27 20:18:55.29	28.18	6.68	-34.4	-35.1	23.3	0.00e+00	0	31	0	370147328	42	5818
2026-01-27 20:18:56.29	28.07	6.74	-34.6	-35.4	23.1	0.00e+00	0	31	0	375390208	42	5986
2026-01-27 20:18:57.30	27.96	6.79	-34.4	-35.1	23.3	0.00e+00	0	31	0	380633088	42	5806
2026-01-27 20:18:58.31	27.85	6.85	-34.0	-34.7	23.6	0.00e+00	0	31	0	386924544	42	5528
2026-01-27 20:18:59.33	27.74	6.91	-34.6	-35.3	23.2	0.00e+00	0	31	0	392167424	42	5942
2026-01-27 20:19:00.33	27.63	6.96	-33.9	-34.6	23.8	0.00e+00	0	31	0	398458880	42	5478
2026-01-27 20:19:01.34	27.52	7.02	-34.0	-34.7	23.8	0.00e+00	0	31	0	403701760	42	5554
2026-01-27 20:19:02.35	27.41	7.08	-34.0	-34.7	23.7	0.00e+00	0	31	0	408944640	42	5563
2026-01-27 20:19:03.36	27.30	7.13	-34.2	-34.9	23.5	0.00e+00	0	31	0	415236096	42	5672
2026-01-27 20:19:04.37	27.18	7.19	-34.3	-35.1	23.4	0.00e+00	0	31	0	420478976	42	5783
2026-01-27 20:19:05.38	27.07	7.25	-34.1	-34.8	23.7	0.00e+00	0	31	0	426770432	42	5580
2026-01-27 20:19:06.39	26.96	7.30	-34.1	-34.8	23.7	0.00e+00	0	31	0	432013312	42	5591
2026-01-27 20:19:07.40	26.84	7.36	-34.3	-35.0	23.5	0.00e+00	0	31	0	438304768	42	5725
2026-01-27 20:19:08.41	26.73	7.42	-34.4	-35.2	23.3	0.00e+00	0	31	0	443547648	42	5851
2026-01-27 20:19:09.42	26.61	7.48	-34.3	-35.1	23.4	0.00e+00	0	31	0	449839104	42	5787
2026-01-27 20:19:10.43	26.50	7.53	-34.0	-34.8	23.8	0.00e+00	0	31	0	455081984	42	5578
2026-01-27 20:19:11.44	26.38	7.59	-34.2	-35.0	23.6	0.00e+00	0	31	0	460324864	42	5705
2026-01-27 20:19:12.45	26.27	7.65	-34.2	-35.0	23.5	0.00e+00	0	31	0	466616320	42	5714
2026-01-27 20:19:13.46	26.15	7.70	-34.2	-35.0	23.7	0.00e+00	0	31	0	471859200	42	5709
2026-01-27 20:19:14.47	26.03	7.76	-34.1	-34.8	23.8	0.00e+00	0	31	0	477102080	42	5621
2026-01-27 20:19:15.48	25.91	7.82	-34.7	-35.5	23.3	0.00e+00	0	31	0	483393536	42	6041
2026-01-27 20:19:16.48	25.80	7.87	-34.3	-35.1	23.5	0.00e+00	0	31	0	488636416	42	5771
2026-01-27 20:19:17.49	25.68	7.93	-34.3	-35.0	23.5	0.00e+00	0	31	0	494927872	42	5759
2026-01-27 20:19:18.50	25.56	7.99	-34.2	-35.0	23.7	0.00e+00	0	31	0	500170752	42	5698
2026-01-27 20:19:19.51	25.44	8.05	-34.2	-35.0	23.6	0.00e+00	0	31	0	505413632	42	5701
2026-01-27 20:19:20.52	25.32	8.10	-34.0	-34.8	23.9	0.00e+00	0	31	0	511705088	42	5572
2026-01-27 20:19:21.53	25.20	8.16	-34.2	-34.9	23.7	0.00e+00	0	31	0	516947968	42	5684
2026-01-27 20:19:22.54	25.08	8.22	-34.3	-35.1	23.5	0.00e+00	0	31	0	523239424	42	5788
2026-01-27 20:19:23.55	24.95	8.27	-34.1	-34.7	23.8	0.00e+00	0	31	0	528482304	42	5556
2026-01-27 20:19:24.56	24.83	8.33	-34.1	-34.8	23.9	0.00e+00	0	31	0	534773760	42	5598
2026-01-27 20:19:25.57	24.71	8.39	-34.4	-35.2	23.5	0.00e+00	0	31	0	540016640	42	5848
2026-01-27 20:19:26.58	24.59	8.44	-34.2	-35.0	23.8	0.00e+00	0	31	0	546308096	42	5703
2026-01-27 20:19:27.59	24.46	8.50	-34.2	-34.9	23.7	0.00e+00	0	31	0	551550976	42	5675
2026-01-27 20:19:28.60	24.34	8.56	-34.2	-34.9	23.8	0.00e+00	0	31	0	556793856	42	5657
2026-01-27 20:19:29.60	24.22	8.62	-33.8	-34.5	24.1	0.00e+00	0	31	0	563085312	40	6044
2026-01-27 20:19:30.61	24.09	8.67	-34.0	-34.7	24.0	0.00e+00	0	31	0	568328192	40	6223
2026-01-27 20:19:31.62	23.96	8.73	-33.7	-34.4	24.2	0.00e+00	0	31	0	574619648	40	5979
2026-01-27 20:19:32.63	23.84	8.79	-33.8	-34.5	24.1	0.00e+00	0	31	0	579862528	40	6101
2026-01-27 20:19:33.64	23.71	8.84	-33.6	-34.3	24.3	0.00e+00	0	31	0	585105408	40	5957
2026-01-27 20:19:34.65	23.58	8.90	-33.5	-34.2	24.5	0.00e+00	0	31	0	591396864	40	5835
2026-01-27 20:19:35.66	23.46	8.96	-33.5	-34.2	24.4	0.00e+00	0	31	0	596639744	40	5896
2026-01-27 20:19:36.67	23.33	9.02	-33.7	-34.3	24.2	0.00e+00	0	31	0	602931200	40	5960
2026-01-27 20:19:37.68	23.20	9.07	-33.4	-34.1	24.6	0.00e+00	0	31	0	608174080	40	5804
2026-01-27 20:19:38.69	23.07	9.13	-33.6	-34.3	24.3	0.00e+00	0	31	0	613416960	40	5911
2026-01-27 20:19:39.70	22.94	9.19	-33.3	-34.0	24.7	0.00e+00	0	31	0	619708416	40	5709
2026-01-27 20:19:40.71	22.81	9.24	-33.4	-34.1	24.6	0.00e+00	0	31	0	624951296	40	5791
2026-01-27 20:19:41.72	22.68	9.30	-33.2	-33.9	24.8	0.00e+00	0	31	0	631242752	40	5679
2026-01-27 20:19:42.73	22.55	9.36	-33.4	-34.1	24.5	0.00e+00	0	31	0	636485632	40	5795
2026-01-27 20:19:43.74	22.42	9.41	-33.5	-34.2	24.4	0.00e+00	0	31	0	642777088	40	5876
2026-01-27 20:19:44.75	22.28	9.47	-33.5	-34.2	24.5	0.00e+00	0	31	0	648019968	40	5872
2026-01-27 20:19:45.76	22.15	9.53	-33.2	-33.9	24.7	0.00e+00	0	31	0	653262848	40	5678
2026-01-27 20:19:46.77	22.02	9.59	-33.4	-34.1	24.5	0.00e+00	0	31	0	659554304	40	5762
2026-01-27 20:19:47.78	21.88	9.64	-33.5	-34.3	24.5	0.00e+00	0	31	0	664797184	40	5902
2026-01-27 20:19:48.79	21.75	9.70	-33.6	-34.3	24.3	0.00e+00	0	31	0	671088640	40	5930
2026-01-27 20:19:49.80	21.61	9.76	-33.6	-34.3	24.4	0.00e+00	0	31	0	676331520	40	5948
2026-01-27 20:19:50.81	21.48	9.81	-33.4	-34.1	24.6	0.00e+00	0	31	0	681574400	40	5796
2026-01-27 20:19:51.82	21.34	9.87	-33.4	-34.1	24.7	0.00e+00	0	31	0	687865856	40	5781
2026-01-27 20:19:52.83	21.21	9.93	-33.5	-34.2	24.5	0.00e+00	0	31	0	693108736	40	5854
2026-01-27 20:19:53.84	21.07	9.98	-33.4	-34.1	24.5	0.00e+00	0	31	0	699400192	40	5816
2026-01-27 20:19:54.85	20.93	10.04	-33.5	-34.2	24.4	0.00e+00	0	31	0	704643072	40	5884
2026-01-27 20:19:55.86	20.79	10.10	-33.6	-34.3	24.4	0.00e+00	0	31	0	709885952	40	5906
2026-01-27 20:19:56.87	20.65	10.15	-33.5	-34.2	24.6	0.00e+00	0	31	0	716177408	40	5834
2026-01-27 20:19:57.88	20.51	10.21	-33.6	-34.3	24.4	0.00e+00	0	31	0	721420288	40	5945
2026-01-27 20:19:58.89	20.37	10.27	-33.5	-34.1	24.6	0.00e+00	0	31	0	727711744	40	5827
2026-01-27 20:19:59.90	20.23	10.32	-33.5	-34.2	24.5	0.00e+00	0	31	0	732954624	40	5848
2026-01-27 20:20:00.91	20.09	10.38	-33.6	-34.3	24.4	0.00e+00	0	31	0	739246080	40	5906
2026-01-27 20:20:01.92	19.95	10.44	-33.6	-34.3	24.4	0.00e+00	0	31	0	744488960	40	5956
2026-01-27 20:20:02.92	19.81	10.49	-33.4	-34.1	24.5	0.00e+00	0	31	0	750780416	40	5797
2026-01-27 20:20:03.93	19.67	10.55	-33.5	-34.2	24.6	0.00e+00	0	31	0	756023296	40	5836
2026-01-27 20:20:04.94	19.52	10.60	-33.3	-34.0	24.6	0.00e+00	0	31	0	761266176	40	5759
2026-01-27 20:20:05.95	19.38	10.66	-33.3	-34.0	24.6	0.00e+00	0	31	0	767557632	40	5744
2026-01-27 20:20:06.97	19.23	10.72	-33.3	-34.0	24.7	0.00e+00	0	31	0	772800512	40	5709
2026-01-27 20:20:07.97	19.09	10.77	-33.3	-34.0	24.8	0.00e+00	0	31	0	779091968	40	5724
2026-01-27 20:20:08.98	18.94	10.83	-33.1	-33.8	24.8	0.00e+00	0	31	0	784334848	40	5614
2026-01-27 20:20:09.99	18.80	10.89	-33.3	-34.0	24.8	0.00e+00	0	31	0	789577728	40	5716
2026-01-27 20:20:11.00	18.65	10.94	-33.2	-33.9	24.8	0.00e+00	0	31	0	795869184	40	5639
2026-01-27 20:20:12.01	18.50	11.00	-33.1	-33.8	24.9	0.00e+00	0	31	0	801112064	40	5618
2026-01-27 20:20:13.02	18.36	11.05	-33.0	-33.7	25.0	0.00e+00	0	31	0	807403520	40	5554
2026-01-27 20:20:14.03	18.21	11.11	-32.9	-33.5	25.1	0.00e+00	0	31	0	812646400	40	5436
2026-01-27 20:20:15.04	18.06	11.17	-32.9	-33.6	25.1	0.00e+00	0	32	0	817889280	40	5472
2026-01-27 20:20:16.05	17.91	11.22	-33.1	-33.7	24.9	0.00e+00	0	31	0	824180736	40	5537
2026-01-27 20:20:17.06	17.76	11.28	-32.9	-33.6	25.2	0.00e+00	0	32	0	829423616	40	5462
2026-01-27 20:20:18.07	17.61	11.33	-32.9	-33.6	25.2	0.00e+00	0	31	0	835715072	38	6135
2026-01-27 20:20:19.08	17.46	11.39	-33.0	-33.7	25.1	0.00e+00	0	31	0	840957952	38	6207
2026-01-27 20:20:20.09	17.30	11.44	-33.1	-33.8	25.0	0.00e+00	0	31	0	847249408	38	6250
2026-01-27 20:20:21.10	17.15	11.50	-33.1	-33.8	25.0	0.00e+00	0	32	0	852492288	38	6282
2026-01-27 20:20:22.11	17.00	11.55	-33.2	-33.9	24.9	0.00e+00	0	31	0	857735168	38	6354
2026-01-27 20:20:23.12	16.84	11.61	-33.2	-33.8	25.0	0.00e+00	0	31	0	864026624	38	6305
2026-01-27 20:20:24.12	16.69	11.66	-33.0	-33.7	25.0	0.00e+00	0	31	0	869269504	38	6218
2026-01-27 20:20:25.13	16.54	11.72	-33.0	-33.8	25.0	0.00e+00	0	31	0	875560960	38	6255
2026-01-27 20:20:26.14	16.38	11.77	-33.0	-33.7	25.0	0.00e+00	0	31	0	880803840	38	6185
2026-01-27 20:20:27.15	16.23	11.83	-33.0	-33.7	25.2	0.00e+00	0	32	0	886046720	38	6176
2026-01-27 20:20:28.16	16.07	11.88	-33.0	-33.7	25.1	0.00e+00	0	31	0	892338176	38	6217
2026-01-27 20:20:29.17	15.91	11.94	-32.8	-33.5	25.3	0.00e+00	0	32	0	897581056	38	6081
2026-01-27 20:20:30.17	15.76	11.99	-32.9	-33.6	25.3	0.00e+00	0	32	0	903872512	38	6147
2026-01-27 20:20:31.18	15.60	12.05	-32.9	-33.5	25.2	0.00e+00	0	32	0	909115392	38	6096
2026-01-27 20:20:32.19	15.44	12.10	-32.8	-33.5	25.3	0.00e+00	0	32	0	914358272	38	6041
2026-01-27 20:20:33.20	15.28	12.16	-32.8	-33.5	25.2	0.00e+00	0	32	0	920649728	38	6034
2026-01-27 20:20:34.21	15.12	12.21	-32.7	-33.4	25.3	0.00e+00	0	32	0	925892608	38	6008
2026-01-27 20:20:35.21	14.96	12.26	-32.8	-33.4	25.3	0.00e+00	0	31	0	932184064	38	6030
2026-01-27 20:20:36.22	14.80	12.32	-32.7	-33.3	25.4	0.00e+00	0	32	0	937426944	38	5932
2026-01-27 20:20:37.23	14.63	12.37	-32.7	-33.4	25.3	0.00e+00	0	32	0	943718400	38	5995
2026-01-27 20:20:38.24	14.47	12.43	-33.1	-33.8	25.0	0.00e+00	0	32	0	948961280	38	6258
2026-01-27 20:20:39.25	14.31	12.48	-32.7	-33.4	25.3	0.00e+00	0	32	0	954204160	38	6005
2026-01-27 20:20:40.26	14.14	12.53	-33.0	-33.7	25.1	0.00e+00	0	31	0	960495616	38	6182
2026-01-27 20:20:41.27	13.98	12.59	-32.8	-33.5	25.3	0.00e+00	0	32	0	965738496	38	6039
2026-01-27 20:20:42.28	13.81	12.64	-32.9	-33.6	25.2	0.00e+00	0	32	0	972029952	38	6126
2026-01-27 20:20:43.29	13.65	12.69	-32.7	-33.4	25.4	0.00e+00	0	31	0	977272832	38	5987
2026-01-27 20:20:44.30	13.48	12.75	-32.7	-33.4	25.4	0.00e+00	0	31	0	982515712	38	5975
2026-01-27 20:20:45.31	13.32	12.80	-32.6	-33.2	25.6	0.00e+00	0	31	0	988807168	38	5886
2026-01-27 20:20:46.32	13.15	12.85	-32.6	-33.2	25.6	0.00e+00	0	31	0	994050048	38	5887
2026-01-27 20:20:47.33	12.98	12.90	-32.3	-33.0	25.8	0.00e+00	0	31	0	1000341504	38	5742
2026-01-27 20:20:48.34	12.81	12.96	-32.1	-32.8	25.9	0.00e+00	0	31	0	1005584384	38	5604
2026-01-27 20:20:49.35	12.64	13.01	-32.2	-32.9	25.8	0.00e+00	0	32	0	1010827264	38	5675
2026-01-27 20:20:50.36	12.47	13.06	-32.1	-32.8	25.9	0.00e+00	0	31	0	1017118720	38	5611
2026-01-27 20:20:51.37	12.30	13.11	-32.3	-32.9	25.7	0.00e+00	0	31	0	1022361600	38	5683
2026-01-27 20:20:52.38	12.13	13.17	-32.3	-33.0	25.7	0.00e+00	0	32	0	1028653056	38	5712
2026-01-27 20:20:53.39	11.96	13.22	-32.2	-32.9	25.8	0.00e+00	0	31	0	1033895936	38	5636
2026-01-27 20:20:54.39	11.79	13.27	-32.4	-33.0	25.8	0.00e+00	0	31	0	1040187392	38	5760
2026-01-27 20:20:55.40	11.61	13.32	-32.4	-33.0	25.7	0.00e+00	0	31	0	1045430272	38	5752
2026-01-27 20:20:56.41	11.44	13.37	-32.3	-32.9	25.8	0.00e+00	0	31	0	1050673152	38	5682
2026-01-27 20:20:57.42	11.27	13.42	-32.2	-32.9	25.9	0.00e+00	0	31	0	1056964608	38	5653
2026-01-27 20:20:58.43	11.09	13.48	-32.2	-32.9	25.8	0.00e+00	0	31	0	1062207488	38	5643
2026-01-27 20:20:59.45	10.91	13.53	-32.1	-32.7	26.0	0.00e+00	0	31	0	1068498944	38	5564
2026-01-27 20:21:00.45	10.74	13.58	-32.2	-32.9	25.8	0.00e+00	0	31	0	1073741824	38	5643
2026-01-27 20:21:01.46	10.56	13.63	-32.2	-32.9	25.8	0.00e+00	0	31	0	1078984704	38	5662
2026-01-27 20:21:02.47	10.38	13.68	-32.2	-32.8	25.8	0.00e+00	0	31	0	1085276160	38	5615
2026-01-27 20:21:03.48	10.21	13.73	-32.5	-33.2	25.5	0.00e+00	0	31	0	1090519040	38	5857
2026-01-27 20:21:04.49	10.03	13.78	-32.6	-33.2	25.5	0.00e+00	0	31	0	1096810496	38	5871
2026-01-27 20:21:05.50	9.85	13.83	-32.6	-33.3	25.6	0.00e+00	0	31	0	1102053376	38	5904
2026-01-27 20:21:06.51	9.67	13.88	-32.3	-33.0	25.6	0.00e+00	0	31	0	1107296256	38	5724
2026-01-27 20:21:07.52	9.49	13.93	-32.8	-33.4	25.5	0.00e+00	0	31	0	1113587712	38	6014
2026-01-27 20:21:08.52	9.31	13.98	-32.1	-32.7	26.0	0.00e+00	0	31	0	1118830592	38	5559
2026-01-27 20:21:09.53	9.13	14.03	-32.3	-33.0	25.7	0.00e+00	0	31	0	1125122048	38	5704
2026-01-27 20:21:10.54	8.94	14.08	-32.1	-32.8	25.8	0.00e+00	0	31	0	1130364928	38	5578
2026-01-27 20:21:11.55	8.76	14.12	-32.3	-32.9	25.7	0.00e+00	0	31	0	1136656384	38	5683
2026-01-27 20:21:12.56	8.58	14.17	-32.4	-33.0	25.6	0.00e+00	0	32	0	1141899264	38	5742
2026-01-27 20:21:13.57	8.39	14.22	-32.5	-33.1	25.4	0.00e+00	0	31	0	1148190720	38	5817
2026-01-27 20:21:14.58	8.21	14.27	-32.5	-33.1	25.6	0.00e+00	0	31	0	1153433600	38	5804
2026-01-27 20:21:15.59	8.02	14.32	-32.4	-33.1	25.7	0.00e+00	0	31	0	1158676480	38	5791
2026-01-27 20:21:16.60	7.84	14.37	-32.2	-32.9	25.9	0.00e+00	0	31	0	1164967936	38	5642
2026-01-27 20:21:17.61	7.65	14.41	-32.3	-32.9	25.7	0.00e+00	0	31	0	1170210816	38	5682
2026-01-27 20:21:18.62	7.46	14.46	-32.2	-32.9	25.9	0.00e+00	0	31	0	1176502272	38	5651
2026-01-27 20:21:19.63	7.28	14.51	-31.9	-32.5	26.2	0.00e+00	0	31	0	1181745152	38	5417
2026-01-27 20:21:20.64	7.09	14.55	-31.9	-32.5	26.2	0.00e+00	0	31	0	1186988032	38	5391
2026-01-27 20:21:21.65	6.90	14.60	-31.9	-32.6	26.1	0.00e+00	0	31	0	1193279488	38	5453
2026-01-27 20:21:22.66	6.71	14.65	-32.0	-32.6	26.1	0.00e+00	0	31	0	1198522368	38	5487
2026-01-27 20:21:23.67	6.52	14.69	-32.0	-32.7	26.1	0.00e+00	0	32	0	1204813824	38	5534
2026-01-27 20:21:24.68	6.33	14.74	-32.0	-32.7	26.0	0.00e+00	0	31	0	1210056704	38	5521
2026-01-27 20:21:25.69	6.14	14.79	-32.1	-32.8	26.0	0.00e+00	0	31	0	1215299584	38	5606
2026-01-27 20:21:26.70	5.94	14.83	-32.1	-32.7	26.0	0.00e+00	0	31	0	1221591040	38	5547
2026-01-27 20:21:27.70	5.75	14.88	-32.1	-32.8	25.9	0.00e+00	0	31	0	1226833920	38	5580
2026-01-27 20:21:28.71	5.56	14.92	-32.1	-32.8	26.0	0.00e+00	0	31	0	1233125376	38	5610
2026-01-27 20:21:29.72	5.37	14.97	-32.1	-32.7	26.0	0.00e+00	0	31	0	1238368256	38	5559
2026-01-27 20:21:30.73	5.17	15.01	-31.9	-32.6	26.1	0.00e+00	0	31	0	1244659712	38	5466
2026-01-27 20:21:31.74	4.98	15.06	-32.0	-32.6	26.1	0.00e+00	0	31	0	1249902592	38	5495
2026-01-27 20:21:32.75	4.78	15.10	-32.0	-32.6	26.2	0.00e+00	0	31	0	1255145472	38	5480
2026-01-27 20:21:33.76	4.59	15.14	-32.0	-32.6	26.1	0.00e+00	0	31	0	1261436928	38	5500
2026-01-27 20:21:34.77	4.39	15.19	-31.9	-32.5	26.2	0.00e+00	0	31	0	1266679808	38	5399
2026-01-27 20:21:35.78	4.19	15.23	-31.8	-32.5	26.3	0.00e+00	0	31	0	1272971264	38	5389
2026-01-27 20:21:36.79	3.99	15.27	-31.7	-32.3	26.4	0.00e+00	0	31	0	1278214144	36	5926
2026-01-27 20:21:37.80	3.79	15.32	-31.8	-32.4	26.3	0.00e+00	0	31	0	1283457024	36	6008
2026-01-27 20:21:38.81	3.60	15.36	-31.6	-32.3	26.4	0.00e+00	0	32	0	1289748480	36	5906
2026-01-27 20:21:39.82	3.40	15.40	-31.6	-32.2	26.5	0.00e+00	0	31	0	1294991360	36	5871
2026-01-27 20:21:40.79	3.20	15.44	-31.5	-32.1	26.5	0.00e+00	0	32	0	1300234240	36	5825
2026-01-27 20:21:41.77	3.01	15.48	-31.5	-32.1	26.5	0.00e+00	0	31	0	1306525696	36	5816
2026-01-27 20:21:42.78	2.81	15.52	-31.5	-32.1	26.6	0.00e+00	0	31	0	1311768576	36	5791
2026-01-27 20:21:43.79	2.61	15.57	-31.7	-32.3	26.4	0.00e+00	0	32	0	1318060032	36	5912
2026-01-27 20:21:44.80	2.40	15.61	-31.5	-32.1	26.4	0.00e+00	0	32	0	1323302912	36	5814
2026-01-27 20:21:45.81	2.20	15.65	-31.5	-32.2	26.6	0.00e+00	0	32	0	1328545792	36	5854
2026-01-27 20:21:46.81	2.00	15.69	-31.5	-32.1	26.6	0.00e+00	0	32	0	1334837248	36	5802
2026-01-27 20:21:47.82	1.79	15.73	-31.6	-32.3	26.4	0.00e+00	0	32	0	1340080128	36	5949
2026-01-27 20:21:48.83	1.59	15.77	-31.4	-32.0	26.7	0.00e+00	0	31	0	1346371584	36	5700
2026-01-27 20:21:49.84	1.38	15.81	-31.3	-31.9	26.7	0.00e+00	0	32	0	1351614464	36	5663
2026-01-27 20:21:50.85	1.18	15.85	-31.4	-32.1	26.6	0.00e+00	0	31	0	1356857344	36	5780
2026-01-27 20:21:51.86	0.97	15.88	-31.4	-32.0	26.7	0.00e+00	0	32	0	1363148800	36	5758
2026-01-27 20:21:52.87	0.76	15.92	-31.5	-32.1	26.7	0.00e+00	0	32	0	1368391680	36	5822
2026-01-27 20:21:53.88	0.56	15.96	-31.2	-31.9	26.8	0.00e+00	0	32	0	1374683136	36	5648
2026-01-27 20:21:54.88	0.35	16.00	-31.0	-31.7	26.9	0.00e+00	0	31	0	1379926016	36	5520
2026-01-27 20:21:55.90	0.14	16.04	-31.1	-31.7	26.9	0.00e+00	0	32	0	1385168896	36	5547
2026-01-27 20:21:56.91	359.93	16.07	-31.1	-31.7	26.9	0.00e+00	0	31	0	1391460352	36	5564
2026-01-27 20:21:57.92	359.72	16.11	-31.1	-31.7	26.8	0.00e+00	0	32	0	1396703232	36	5562
2026-01-27 20:21:58.93	359.51	16.15	-31.3	-31.9	26.8	0.00e+00	0	31	0	1402994688	36	5674
2026-01-27 20:21:59.94	359.30	16.18	-31.2	-31.8	26.9	0.00e+00	0	32	0	1408237568	36	5583
2026-01-27 20:22:00.95	359.09	16.22	-31.2	-31.8	26.8	0.00e+00	0	31	0	1414529024	36	5612
2026-01-27 20:22:01.96	358.88	16.25	-31.2	-31.8	26.8	0.00e+00	0	31	0	1419771904	36	5627
2026-01-27 20:22:02.97	358.67	16.29	-31.0	-31.7	26.9	0.00e+00	0	31	0	1426063360	36	5520
2026-01-27 20:22:03.97	358.46	16.32	-30.8	-31.4	27.2	0.00e+00	0	31	0	1431306240	36	5354
2026-01-27 20:22:04.98	358.24	16.36	-30.8	-31.4	27.1	0.00e+00	0	31	0	1436549120	36	5375
2026-01-27 20:22:05.99	358.03	16.39	-31.0	-31.6	27.0	0.00e+00	0	31	0	1442840576	36	5471
2026-01-27 20:22:07.00	357.82	16.42	-31.0	-31.6	26.9	0.00e+00	0	32	0	1448083456	36	5479
2026-01-27 20:22:08.01	357.60	16.46	-31.1	-31.7	26.9	0.00e+00	0	31	0	1453326336	36	5508
2026-01-27 20:22:09.02	357.39	16.49	-31.0	-31.6	27.0	0.00e+00	0	32	0	1459617792	36	5469
2026-01-27 20:22:10.03	357.17	16.52	-31.0	-31.6	27.0	0.00e+00	0	32	0	1464860672	36	5494
2026-01-27 20:22:11.04	356.95	16.56	-31.2	-31.8	26.8	0.00e+00	0	32	0	1471152128	36	5575
2026-01-27 20:22:12.05	356.74	16.59	-31.3	-31.9	26.8	0.00e+00	0	32	0	1476395008	36	5670
2026-01-27 20:22:13.06	356.52	16.62	-31.3	-31.9	26.8	0.00e+00	0	32	0	1481637888	36	5679
2026-01-27 20:22:14.07	356.30	16.65	-31.3	-32.0	26.7	0.00e+00	0	31	0	1487929344	36	5696
2026-01-27 20:22:15.08	356.09	16.68	-31.5	-32.1	26.6	0.00e+00	0	32	0	1493172224	36	5798
2026-01-27 20:22:16.08	355.87	16.71	-31.5	-32.1	26.6	0.00e+00	0	32	0	1499463680	36	5783
2026-01-27 20:22:17.10	355.65	16.74	-31.6	-32.2	26.5	0.00e+00	0	32	0	1504706560	36	5841
2026-01-27 20:22:18.11	355.43	16.77	-31.4	-32.0	26.7	0.00e+00	0	32	0	1510998016	36	5731
2026-01-27 20:22:19.12	355.21	16.80	-31.3	-31.9	26.7	0.00e+00	0	32	0	1516240896	36	5676
2026-01-27 20:22:20.12	354.99	16.83	-31.4	-32.0	26.6	0.00e+00	0	32	0	1522532352	36	5715
2026-01-27 20:22:21.13	354.77	16.86	-31.3	-32.0	26.7	0.00e+00	0	32	0	1527775232	36	5730
2026-01-27 20:22:22.14	354.55	16.88	-31.4	-32.0	26.7	0.00e+00	0	32	0	1533018112	36	5699
2026-01-27 20:22:23.15	354.33	16.91	-31.2	-31.8	26.9	0.00e+00	0	31	0	1539309568	36	5611
2026-01-27 20:22:24.16	354.11	16.94	-31.4	-32.0	26.7	0.00e+00	0	31	0	1544552448	36	5739
2026-01-27 20:22:25.17	353.89	16.97	-31.3	-31.9	26.8	0.00e+00	0	32	0	1550843904	36	5669
2026-01-27 20:22:26.18	353.66	16.99	-31.4	-32.0	26.7	0.00e+00	0	31	0	1556086784	36	5743
2026-01-27 20:22:27.19	353.44	17.02	-31.5	-32.2	26.6	0.00e+00	0	32	0	1561329664	36	5853
2026-01-27 20:22:28.20	353.22	17.04	-31.5	-32.1	26.5	0.00e+00	0	32	0	1567621120	36	5785
2026-01-27 20:22:29.21	352.99	17.07	-31.4	-32.1	26.7	0.00e+00	0	32	0	1572864000	36	5774
2026-01-27 20:22:30.22	352.77	17.09	-31.3	-31.9	26.8	0.00e+00	0	32	0	1578106880	36	5688
2026-01-27 20:22:31.23	352.54	17.12	-31.3	-31.9	26.7	0.00e+00	0	32	0	1584398336	36	5692
2026-01-27 20:22:32.24	352.32	17.14	-31.3	-31.9	26.7	0.00e+00	0	32	0	1589641216	36	5672
2026-01-27 20:22:33.25	352.10	17.16	-31.3	-31.9	26.8	0.00e+00	0	32	0	1595932672	36	5654
2026-01-27 20:22:34.25	351.87	17.19	-31.3	-31.9	26.8	0.00e+00	0	32	0	1601175552	36	5646
2026-01-27 20:22:35.26	351.65	17.21	-31.1	-31.7	26.9	0.00e+00	0	32	0	1607467008	36	5566
2026-01-27 20:22:36.27	351.42	17.23	-31.2	-31.7	26.9	0.00e+00	0	32	0	1612709888	36	5566
2026-01-27 20:22:37.28	351.19	17.25	-31.0	-31.6	27.0	0.00e+00	0	31	0	1619001344	36	5467
2026-01-27 20:22:38.29	350.97	17.27	-31.0	-31.7	27.0	0.00e+00	0	31	0	1624244224	36	5520
2026-01-27 20:22:39.30	350.74	17.29	-31.0	-31.6	27.0	0.00e+00	0	31	0	1629487104	36	5487
2026-01-27 20:22:40.31	350.51	17.32	-31.1	-31.7	27.0	0.00e+00	0	32	0	1635778560	36	5542
2026-01-27 20:22:41.32	350.28	17.34	-31.2	-31.8	26.9	0.00e+00	0	32	0	1641021440	36	5574
2026-01-27 20:22:42.33	350.06	17.35	-31.0	-31.6	27.0	0.00e+00	0	32	0	1647312896	36	5483
2026-01-27 20:22:43.34	349.83	17.37	-31.0	-31.6	27.0	0.00e+00	0	32	0	1652555776	36	5491
2026-01-27 20:22:44.35	349.60	17.39	-31.0	-31.6	27.0	0.00e+00	0	32	0	1657798656	36	5460
2026-01-27 20:22:45.36	349.37	17.41	-31.0	-31.6	27.0	0.00e+00	0	32	0	1664090112	36	5486
2026-01-27 20:22:46.37	349.14	17.43	-31.1	-31.7	26.9	0.00e+00	0	32	0	1669332992	36	5544
2026-01-27 20:22:47.38	348.91	17.44	-31.2	-31.8	26.8	0.00e+00	0	31	0	1675624448	36	5594
2026-01-27 20:22:48.39	348.68	17.46	-31.3	-31.9	26.7	0.00e+00	0	32	0	1680867328	36	5664
2026-01-27 20:22:49.40	348.45	17.48	-31.2	-31.9	26.8	0.00e+00	0	32	0	1686110208	36	5643
2026-01-27 20:22:50.41	348.22	17.49	-31.1	-31.7	27.0	0.00e+00	0	32	0	1692401664	36	5504
2026-01-27 20:22:51.42	347.99	17.51	-31.0	-31.7	27.0	0.00e+00	0	31	0	1697644544	36	5526
2026-01-27 20:22:52.43	347.76	17.52	-31.1	-31.8	27.0	0.00e+00	0	32	0	1703936000	36	5579
2026-01-27 20:22:53.44	347.53	17.54	-31.1	-31.7	27.0	0.00e+00	0	32	0	1709178880	36	5554
2026-01-27 20:22:54.44	347.30	17.55	-30.8	-31.5	27.1	0.00e+00	0	32	0	1715470336	36	5404
2026-01-27 20:22:55.46	347.07	17.56	-31.1	-31.8	26.9	0.00e+00	0	32	0	1720713216	36	5593
2026-01-27 20:22:56.46	346.84	17.58	-31.0	-31.7	27.0	0.00e+00	0	31	0	1725956096	36	5530
2026-01-27 20:22:57.47	346.61	17.59	-31.2	-31.8	26.8	0.00e+00	0	31	0	1732247552	36	5615
2026-01-27 20:22:58.48	346.37	17.60	-31.3	-32.0	26.8	0.00e+00	0	32	0	1737490432	36	5700
2026-01-27 20:22:59.49	346.14	17.61	-31.4	-32.0	26.6	0.00e+00	0	32	0	1743781888	36	5727
2026-01-27 20:23:00.50	345.91	17.62	-31.4	-32.1	26.7	0.00e+00	0	32	0	1749024768	36	5772
2026-01-27 20:23:01.51	345.68	17.63	-31.3	-31.9	26.8	0.00e+00	0	32	0	1754267648	36	5675
2026-01-27 20:23:02.52	345.44	17.64	-31.1	-31.7	26.9	0.00e+00	0	32	0	1760559104	36	5556
2026-01-27 20:23:03.53	345.21	17.65	-31.2	-31.8	27.0	0.00e+00	0	32	0	1765801984	36	5583
2026-01-27 20:23:04.54	344.98	17.66	-31.2	-31.8	26.9	0.00e+00	0	32	0	1772093440	36	5628
2026-01-27 20:23:05.55	344.75	17.67	-31.2	-31.9	26.8	0.00e+00	0	32	0	1777336320	36	5643
2026-01-27 20:23:06.55	344.52	17.68	-31.2	-31.8	26.9	0.00e+00	0	31	0	1782579200	36	5597
2026-01-27 20:23:07.57	344.28	17.69	-31.0	-31.6	27.0	0.00e+00	0	31	0	1788870656	36	5501
2026-01-27 20:23:08.57	344.05	17.69	-31.0	-31.6	27.1	0.00e+00	0	32	0	1794113536	36	5493
2026-01-27 20:23:09.58	343.81	17.70	-31.0	-31.6	27.0	0.00e+00	0	32	0	1800404992	36	5501
2026-01-27 20:23:10.59	343.58	17.71	-30.9	-31.4	27.2	0.00e+00	0	32	0	1805647872	36	5370
2026-01-27 20:23:11.60	343.35	17.71	-30.8	-31.4	27.1	0.00e+00	0	32	0	1811939328	36	5371
2026-01-27 20:23:12.61	343.11	17.72	-30.8	-31.5	27.2	0.00e+00	0	32	0	1817182208	36	5380
2026-01-27 20:23:13.62	342.88	17.72	-30.6	-31.3	27.3	0.00e+00	0	32	0	1823473664	34	5905
2026-01-27 20:23:14.63	342.65	17.73	-30.6	-31.3	27.3	0.00e+00	0	31	0	1828716544	34	5915
2026-01-27 20:23:15.64	342.41	17.73	-30.7	-31.3	27.2	0.00e+00	0	32	0	1833959424	34	5961
2026-01-27 20:23:16.65	342.18	17.73	-30.6	-31.2	27.4	0.00e+00	0	31	0	1840250880	34	5876
2026-01-27 20:23:17.66	341.94	17.74	-30.5	-31.0	27.4	0.00e+00	0	31	0	1845493760	34	5755
2026-01-27 20:23:18.67	341.71	17.74	-30.4	-31.0	27.4	0.00e+00	0	32	0	1851785216	34	5759
2026-01-27 20:23:19.68	341.48	17.74	-30.5	-31.1	27.3	0.00e+00	0	32	0	1857028096	34	5827
2026-01-27 20:23:20.68	341.24	17.74	-30.6	-31.2	27.3	0.00e+00	0	32	0	1862270976	34	5883
2026-01-27 20:23:21.70	341.01	17.74	-30.6	-31.2	27.2	0.00e+00	0	32	0	1868562432	34	5853
2026-01-27 20:23:22.71	340.77	17.74	-30.7	-31.3	27.2	0.00e+00	0	32	0	1873805312	34	5930
2026-01-27 20:23:23.72	340.54	17.74	-30.8	-31.4	27.2	0.00e+00	0	32	0	1879048192	34	5987
2026-01-27 20:23:24.72	340.31	17.74	-30.9	-31.5	27.0	0.00e+00	0	32	0	1885339648	34	6103
2026-01-27 20:23:25.73	340.07	17.74	-30.8	-31.5	27.0	0.00e+00	0	32	0	1890582528	34	6039
2026-01-27 20:23:26.74	339.84	17.74	-31.0	-31.6	27.0	0.00e+00	0	31	0	1896873984	34	6153
2026-01-27 20:23:27.75	339.60	17.74	-31.0	-31.6	27.0	0.00e+00	0	32	0	1902116864	34	6142
2026-01-27 20:23:28.76	339.37	17.73	-31.1	-31.7	26.9	0.00e+00	0	32	0	1908408320	34	6221
2026-01-27 20:23:29.77	339.14	17.73	-31.2	-31.8	26.8	0.00e+00	0	32	0	1913651200	34	6256
2026-01-27 20:23:30.78	338.90	17.73	-31.2	-31.8	26.7	0.00e+00	0	31	0	1919942656	34	6304
2026-01-27 20:23:31.79	338.67	17.72	-31.2	-31.8	26.6	0.00e+00	0	31	0	1925185536	34	6317
2026-01-27 20:23:32.80	338.43	17.72	-31.3	-31.9	26.7	0.00e+00	0	32	0	1930428416	34	6383
2026-01-27 20:23:33.81	338.20	17.71	-31.1	-31.7	26.9	0.00e+00	0	31	0	1936719872	34	6224
2026-01-27 20:23:34.82	337.97	17.71	-31.2	-31.8	26.6	0.00e+00	0	32	0	1941962752	34	6284
2026-01-27 20:23:35.83	337.73	17.70	-31.2	-31.9	26.6	0.00e+00	0	31	0	1948254208	34	6370
2026-01-27 20:23:36.83	337.50	17.69	-31.1	-31.7	26.8	0.00e+00	0	31	0	1953497088	34	6203
2026-01-27 20:23:37.84	337.27	17.69	-31.0	-31.6	26.7	0.00e+00	0	32	0	1958739968	34	6152
2026-01-27 20:23:38.85	337.03	17.68	-30.9	-31.6	27.0	0.00e+00	0	32	0	1965031424	34	6129
2026-01-27 20:23:39.86	336.80	17.67	-30.8	-31.4	26.9	0.00e+00	0	32	0	1970274304	34	6015
2026-01-27 20:23:40.86	336.57	17.66	-30.6	-31.2	27.1	0.00e+00	0	31	0	1975517184	34	5861
2026-01-27 20:23:41.87	336.34	17.65	-30.8	-31.5	27.1	0.00e+00	0	32	0	1981808640	34	6052
2026-01-27 20:23:42.88	336.10	17.64	-30.9	-31.6	27.1	0.00e+00	0	31	0	1987051520	34	6125
2026-01-27 20:23:43.89	335.87	17.63	-30.8	-31.5	27.0	0.00e+00	0	31	0	1993342976	34	6048
2026-01-27 20:23:44.90	335.64	17.62	-31.0	-31.6	26.9	0.00e+00	0	31	0	1998585856	34	6125
2026-01-27 20:23:45.91	335.41	17.61	-30.8	-31.5	27.1	0.00e+00	0	32	0	2004877312	34	6043
2026-01-27 20:23:46.92	335.17	17.60	-30.8	-31.5	27.2	0.00e+00	0	32	0	2010120192	34	6045
2026-01-27 20:23:47.93	334.94	17.59	-30.8	-31.5	27.2	0.00e+00	0	32	0	2016411648	34	6038
2026-01-27 20:23:48.94	334.71	17.58	-30.8	-31.4	27.2	0.00e+00	0	31	0	2021654528	34	6027
2026-01-27 20:23:49.95	334.48	17.56	-30.9	-31.5	27.1	0.00e+00	0	32	0	2026897408	34	6071
2026-01-27 20:23:50.96	334.25	17.55	-31.2	-31.7	26.8	0.00e+00	0	31	0	2033188864	34	6234
2026-01-27 20:23:51.97	334.02	17.54	-31.3	-31.9	26.8	0.00e+00	0	32	0	2038431744	34	6352
2026-01-27 20:23:52.98	333.79	17.52	-31.1	-31.7	26.9	0.00e+00	0	32	0	2044723200	34	6177
2026-01-27 20:23:53.99	333.55	17.51	-31.2	-31.8	26.8	0.00e+00	0	32	0	2049966080	34	6305
2026-01-27 20:23:55.00	333.32	17.49	-31.2	-31.8	26.8	0.00e+00	0	32	0	2055208960	34	6285
2026-01-27 20:23:56.01	333.09	17.48	-31.2	-31.8	26.8	0.00e+00	0	32	0	2061500416	34	6275
2026-01-27 20:23:57.02	332.86	17.46	-31.3	-31.8	26.8	0.00e+00	0	32	0	2066743296	34	6309
2026-01-27 20:23:58.03	332.63	17.44	-31.3	-32.0	26.7	0.00e+00	0	32	0	2073034752	34	6391
2026-01-27 20:23:59.04	332.40	17.43	-31.3	-31.8	26.8	0.00e+00	0	32	0	2078277632	34	6316
2026-01-27 20:24:00.05	332.18	17.41	-31.3	-31.9	26.8	0.00e+00	0	32	0	2083520512	34	6366
2026-01-27 20:24:01.06	331.95	17.39	-31.2	-31.8	26.8	0.00e+00	0	31	0	2089811968	34	6289
2026-01-27 20:24:02.07	331.72	17.37	-31.3	-31.9	26.7	0.00e+00	0	32	0	2095054848	34	6368
2026-01-27 20:24:03.08	331.49	17.35	-31.2	-31.9	26.9	0.00e+00	0	32	0	2101346304	34	6348
2026-01-27 20:24:04.09	331.26	17.33	-31.2	-31.8	26.8	0.00e+00	0	32	0	2106589184	34	6292
2026-01-27 20:24:05.09	331.04	17.31	-31.2	-31.8	27.0	0.00e+00	0	32	0	2112880640	34	6297
2026-01-27 20:24:06.10	330.81	17.29	-31.2	-31.8	26.9	0.00e+00	0	32	0	2118123520	34	6274
2026-01-27 20:24:07.11	330.58	17.27	-31.3	-31.9	26.8	0.00e+00	0	32	0	2123366400	34	6388
2026-01-27 20:24:08.12	330.35	17.25	-31.3	-31.9	26.7	0.00e+00	0	31	0	2129657856	34	6363
2026-01-27 20:24:09.14	330.12	17.23	-31.3	-32.0	26.8	0.00e+00	0	32	0	2134900736	34	6402
2026-01-27 20:24:10.15	329.90	17.21	-31.3	-31.8	26.8	0.00e+00	0	32	0	2141192192	34	6316
2026-01-27 20:24:11.16	329.67	17.19	-31.3	-32.0	26.8	0.00e+00	0	32	0	2146435072	34	6450
2026-01-27 20:24:12.17	329.45	17.16	-31.2	-31.8	26.9	0.00e+00	0	32	0	2152726528	34	6298
2026-01-27 20:24:13.18	329.22	17.14	-31.3	-31.9	26.8	0.00e+00	0	32	0	2157969408	34	6330
2026-01-27 20:24:14.18	329.00	17.12	-31.4	-32.1	26.7	0.00e+00	0	32	0	2163212288	34	6470
2026-01-27 20:24:15.19	328.77	17.09	-31.4	-32.0	26.8	0.00e+00	0	31	0	2169503744	34	6444
2026-01-27 20:24:16.20	328.55	17.07	-31.4	-32.0	26.7	0.00e+00	0	31	0	2174746624	34	6456
2026-01-27 20:24:17.21	328.33	17.04	-31.4	-32.0	26.7	0.00e+00	0	31	0	2179989504	34	6423
2026-01-27 20:24:18.22	328.10	17.02	-31.4	-32.0	26.8	0.00e+00	0	32	0	2186280960	34	6425
2026-01-27 20:24:19.23	327.88	16.99	-31.4	-31.9	26.8	0.00e+00	0	32	0	2191523840	34	6359
2026-01-27 20:24:20.24	327.66	16.96	-31.4	-32.0	26.7	0.00e+00	0	32	0	2197815296	34	6434
2026-01-27 20:24:21.25	327.44	16.94	-31.5	-32.1	26.5	0.00e+00	0	32	0	2203058176	34	6516
2026-01-27 20:24:22.26	327.21	16.91	-31.6	-32.3	26.5	0.00e+00	0	32	0	2209349632	34	6626
2026-01-27 20:24:23.27	326.99	16.88	-31.6	-32.2	26.6	0.00e+00	0	31	0	2214592512	34	6599
2026-01-27 20:24:24.28	326.77	16.85	-31.5	-32.2	26.7	0.00e+00	0	32	0	2220883968	34	6585
2026-01-27 20:24:25.29	326.55	16.83	-31.4	-32.1	26.6	0.00e+00	0	31	0	2226126848	34	6497
2026-01-27 20:24:26.30	326.33	16.80	-31.4	-31.9	26.6	0.00e+00	0	32	0	2231369728	34	6388
2026-01-27 20:24:27.31	326.11	16.77	-31.3	-32.0	26.7	0.00e+00	0	32	0	2237661184	34	6420
2026-01-27 20:24:28.32	325.89	16.74	-31.3	-31.9	26.8	0.00e+00	0	32	0	2242904064	34	6340
2026-01-27 20:24:29.33	325.67	16.71	-31.3	-32.0	26.8	0.00e+00	0	31	0	2249195520	34	6394
2026-01-27 20:24:30.34	325.45	16.68	-31.2	-31.9	26.7	0.00e+00	0	31	0	2254438400	34	6363
2026-01-27 20:24:31.35	325.24	16.65	-31.2	-31.9	26.8	0.00e+00	0	32	0	2259681280	34	6360
2026-01-27 20:24:32.36	325.02	16.62	-31.3	-32.0	26.8	0.00e+00	0	31	0	2265972736	34	6399
2026-01-27 20:24:33.36	324.80	16.59	-31.4	-32.1	26.6	0.00e+00	0	31	0	2271215616	34	6487
2026-01-27 20:24:34.37	324.59	16.55	-31.5	-32.1	26.5	0.00e+00	0	32	0	2277507072	34	6536
2026-01-27 20:24:35.38	324.37	16.52	-31.6	-32.3	26.5	0.00e+00	0	32	0	2282749952	34	6618
2026-01-27 20:24:36.39	324.15	16.49	-31.7	-32.3	26.3	0.00e+00	0	32	0	2287992832	34	6644
2026-01-27 20:24:37.40	323.94	16.46	-31.9	-32.6	26.5	0.00e+00	0	32	0	2294284288	36	6104
2026-01-27 20:24:38.41	323.72	16.42	-31.8	-32.4	26.3	0.00e+00	0	32	0	2299527168	36	6007
2026-01-27 20:24:39.42	323.51	16.39	-31.6	-32.3	26.6	0.00e+00	0	32	0	2305818624	36	5913
2026-01-27 20:24:40.42	323.30	16.35	-31.6	-32.2	26.5	0.00e+00	0	32	0	2311061504	36	5861
2026-01-27 20:24:41.43	323.09	16.32	-31.6	-32.2	26.6	0.00e+00	0	32	0	2317352960	36	5884
2026-01-27 20:24:42.44	322.87	16.29	-31.6	-32.1	26.5	0.00e+00	0	32	0	2322595840	36	5827
2026-01-27 20:24:43.45	322.66	16.25	-31.7	-32.4	26.5	0.00e+00	0	32	0	2327838720	36	5978
2026-01-27 20:24:44.46	322.45	16.22	-31.8	-32.3	26.4	0.00e+00	0	31	0	2334130176	36	5959
2026-01-27 20:24:45.47	322.24	16.18	-31.5	-32.2	26.6	0.00e+00	0	32	0	2339373056	36	5855
2026-01-27 20:24:46.48	322.03	16.14	-31.6	-32.3	26.6	0.00e+00	0	32	0	2345664512	36	5925
2026-01-27 20:24:47.49	321.82	16.11	-31.2	-31.8	26.9	0.00e+00	0	32	0	2350907392	36	5607
2026-01-27 20:24:48.50	321.61	16.07	-31.4	-32.0	26.7	0.00e+00	0	32	0	2356150272	36	5719
2026-01-27 20:24:49.51	321.40	16.03	-31.5	-32.1	26.7	0.00e+00	0	32	0	2362441728	36	5789
2026-01-27 20:24:50.52	321.19	16.00	-31.5	-32.2	26.5	0.00e+00	0	32	0	2367684608	36	5863
2026-01-27 20:24:51.52	320.98	15.96	-31.7	-32.4	26.5	0.00e+00	0	32	0	2373976064	36	5983
2026-01-27 20:24:52.53	320.77	15.92	-31.6	-32.3	26.5	0.00e+00	0	32	0	2379218944	36	5950
2026-01-27 20:24:53.54	320.57	15.88	-31.6	-32.2	26.5	0.00e+00	0	32	0	2384461824	36	5878
2026-01-27 20:24:54.55	320.36	15.84	-31.6	-32.2	26.5	0.00e+00	0	32	0	2390753280	36	5855
2026-01-27 20:24:55.56	320.15	15.80	-31.7	-32.3	26.5	0.00e+00	0	32	0	2395996160	36	5923
2026-01-27 20:24:56.57	319.95	15.76	-31.6	-32.2	26.5	0.00e+00	0	32	0	2402287616	36	5885
2026-01-27 20:24:57.58	319.74	15.72	-31.7	-32.4	26.4	0.00e+00	0	32	0	2407530496	36	5990
2026-01-27 20:24:58.59	319.54	15.68	-31.7	-32.4	26.5	0.00e+00	0	32	0	2413821952	36	5979
2026-01-27 20:24:59.60	319.34	15.64	-31.7	-32.4	26.4	0.00e+00	0	32	0	2419064832	36	5994
2026-01-27 20:25:00.61	319.13	15.60	-31.7	-32.4	26.4	0.00e+00	0	32	0	2424307712	36	5975
2026-01-27 20:25:01.62	318.93	15.56	-32.0	-32.7	26.2	0.00e+00	0	32	0	2430599168	36	6183
2026-01-27 20:25:02.63	318.73	15.52	-32.0	-32.6	26.3	0.00e+00	0	32	0	2435842048	36	6125
2026-01-27 20:25:03.64	318.53	15.48	-31.9	-32.5	26.3	0.00e+00	0	32	0	2442133504	36	6039
2026-01-27 20:25:04.65	318.33	15.44	-31.9	-32.5	26.3	0.00e+00	0	32	0	2447376384	36	6098
2026-01-27 20:25:05.66	318.12	15.40	-31.9	-32.6	26.3	0.00e+00	0	31	0	2452619264	36	6116
2026-01-27 20:25:06.67	317.93	15.35	-31.8	-32.4	26.4	0.00e+00	0	31	0	2458910720	36	6003
2026-01-27 20:25:07.68	317.73	15.31	-31.9	-32.5	26.4	0.00e+00	0	31	0	2464153600	36	6039
2026-01-27 20:25:08.69	317.53	15.27	-32.0	-32.7	26.1	0.00e+00	0	31	0	2470445056	36	6190
2026-01-27 20:25:09.70	317.33	15.22	-31.9	-32.5	26.3	0.00e+00	0	32	0	2475687936	36	6067
2026-01-27 20:25:10.71	317.13	15.18	-32.1	-32.7	26.2	0.00e+00	0	31	0	2480930816	36	6188
2026-01-27 20:25:11.72	316.93	15.14	-32.0	-32.6	26.2	0.00e+00	0	32	0	2487222272	36	6164
2026-01-27 20:25:12.73	316.74	15.09	-32.0	-32.7	26.2	0.00e+00	0	32	0	2492465152	36	6190
2026-01-27 20:25:13.74	316.54	15.05	-31.9	-32.6	26.4	0.00e+00	0	32	0	2498756608	36	6106
2026-01-27 20:25:14.75	316.35	15.00	-31.9	-32.6	26.4	0.00e+00	0	32	0	2503999488	36	6111
2026-01-27 20:25:15.76	316.15	14.96	-31.9	-32.4	26.3	0.00e+00	0	32	0	2510290944	36	6025
2026-01-27 20:25:16.77	315.96	14.91	-31.9	-32.6	26.3	0.00e+00	0	32	0	2515533824	36	6147
2026-01-27 20:25:17.78	315.76	14.87	-31.9	-32.4	26.3	0.00e+00	0	32	0	2521825280	36	6033
2026-01-27 20:25:18.79	315.57	14.82	-31.9	-32.5	26.3	0.00e+00	0	31	0	2527068160	36	6063
2026-01-27 20:25:19.80	315.38	14.78	-32.0	-32.6	26.3	0.00e+00	0	32	0	2532311040	36	6135
2026-01-27 20:25:20.81	315.19	14.73	-31.9	-32.6	26.2	0.00e+00	0	32	0	2538602496	36	6128
2026-01-27 20:25:21.82	315.00	14.69	-31.9	-32.5	26.3	0.00e+00	0	32	0	2543845376	36	6059
2026-01-27 20:25:22.83	314.81	14.64	-31.9	-32.6	26.2	0.00e+00	0	32	0	2550136832	36	6153
2026-01-27 20:25:23.83	314.62	14.59	-32.1	-32.7	26.1	0.00e+00	0	31	0	2555379712	36	6230
2026-01-27 20:25:24.84	314.43	14.55	-32.2	-32.9	26.1	0.00e+00	0	31	0	2560622592	36	6339
2026-01-27 20:25:25.85	314.24	14.50	-32.3	-32.9	26.0	0.00e+00	0	32	0	2566914048	36	6390
2026-01-27 20:25:26.86	314.05	14.45	-32.2	-32.8	26.0	0.00e+00	0	32	0	2572156928	36	6312
2026-01-27 20:25:27.87	313.86	14.40	-32.1	-32.8	26.1	0.00e+00	0	31	0	2578448384	36	6271
2026-01-27 20:25:28.88	313.68	14.36	-32.4	-33.1	25.9	0.00e+00	0	32	0	2583691264	36	6532
2026-01-27 20:25:29.89	313.49	14.31	-32.2	-32.8	25.7	0.00e+00	0	32	0	2588934144	36	6277
2026-01-27 20:25:30.90	313.31	14.26	-32.3	-33.0	25.9	0.00e+00	0	32	0	2595225600	36	6411
2026-01-27 20:25:31.91	313.12	14.21	-32.3	-32.9	26.0	0.00e+00	0	32	0	2600468480	36	6332
2026-01-27 20:25:32.92	312.94	14.16	-32.4	-33.0	25.8	0.00e+00	0	32	0	2606759936	36	6424
2026-01-27 20:25:33.93	312.75	14.12	-32.4	-33.0	25.9	0.00e+00	0	32	0	2612002816	36	6455
2026-01-27 20:25:34.94	312.57	14.07	-32.5	-33.1	25.8	0.00e+00	0	31	0	2618294272	36	6484
2026-01-27 20:25:35.95	312.39	14.02	-32.3	-32.9	26.0	0.00e+00	0	31	0	2623537152	36	6371
2026-01-27 20:25:36.96	312.21	13.97	-32.2	-32.9	26.0	0.00e+00	0	32	0	2628780032	36	6351
2026-01-27 20:25:37.97	312.02	13.92	-32.2	-33.0	26.0	0.00e+00	0	31	0	2635071488	36	6391
2026-01-27 20:25:38.98	311.84	13.87	-32.3	-33.0	25.9	0.00e+00	0	31	0	2640314368	36	6448
2026-01-27 20:25:39.99	311.66	13.82	-32.4	-32.9	25.9	0.00e+00	0	31	0	2646605824	36	6372
2026-01-27 20:25:41.00	311.48	13.77	-32.4	-33.1	25.8	0.00e+00	0	32	0	2651848704	36	6522
2026-01-27 20:25:42.01	311.30	13.72	-32.4	-33.0	25.8	0.00e+00	0	32	0	2657091584	36	6405
2026-01-27 20:25:43.02	311.13	13.67	-32.4	-33.1	25.8	0.00e+00	0	32	0	2663383040	36	6471
2026-01-27 20:25:44.02	310.95	13.62	-32.5	-33.2	25.7	0.00e+00	0	32	0	2668625920	36	6546
2026-01-27 20:25:45.04	310.77	13.57	-32.4	-33.1	25.8	0.00e+00	0	32	0	2674917376	36	6466
2026-01-27 20:25:46.04	310.60	13.52	-32.6	-33.2	25.7	0.00e+00	0	32	0	2680160256	36	6551
2026-01-27 20:25:47.05	310.42	13.47	-32.7	-33.4	25.5	0.00e+00	0	32	0	2685403136	36	6741
2026-01-27 20:25:48.06	310.25	13.41	-32.7	-33.4	25.5	0.00e+00	0	32	0	2691694592	36	6738
2026-01-27 20:25:49.07	310.07	13.36	-32.8	-33.5	25.4	0.00e+00	0	32	0	2696937472	38	6095
2026-01-27 20:25:50.08	309.90	13.31	-32.9	-33.6	25.5	0.00e+00	0	32	0	2703228928	38	6165
2026-01-27 20:25:51.09	309.72	13.26	-32.8	-33.5	25.4	0.00e+00	0	31	0	2708471808	38	6051
2026-01-27 20:25:52.10	309.55	13.21	-32.6	-33.3	25.7	0.00e+00	0	32	0	2714763264	38	5955
2026-01-27 20:25:53.11	309.38	13.16	-32.4	-33.2	25.8	0.00e+00	0	32	0	2720006144	38	5835
2026-01-27 20:25:54.12	309.21	13.10	-32.4	-33.1	25.9	0.00e+00	0	32	0	2726297600	38	5790
2026-01-27 20:25:55.13	309.04	13.05	-32.5	-33.1	25.6	0.00e+00	0	32	0	2731540480	38	5811
2026-01-27 20:25:56.14	308.87	13.00	-32.6	-33.3	25.6	0.00e+00	0	32	0	2736783360	38	5960
2026-01-27 20:25:57.15	308.70	12.95	-32.6	-33.3	25.6	0.00e+00	0	32	0	2743074816	38	5922
2026-01-27 20:25:58.16	308.53	12.89	-32.5	-33.2	25.7	0.00e+00	0	32	0	2748317696	38	5852
2026-01-27 20:25:59.17	308.36	12.84	-32.4	-33.0	25.8	0.00e+00	0	32	0	2754609152	38	5713
2026-01-27 20:26:00.18	308.19	12.79	-32.4	-33.2	25.8	0.00e+00	0	32	0	2759852032	38	5835
2026-01-27 20:26:01.19	308.02	12.73	-32.5	-33.1	25.8	0.00e+00	0	32	0	2765094912	38	5808
2026-01-27 20:26:02.20	307.86	12.68	-32.4	-33.0	25.8	0.00e+00	0	32	0	2771386368	38	5713
2026-01-27 20:26:03.21	307.69	12.63	-32.5	-33.1	25.7	0.00e+00	0	31	0	2776629248	38	5767
2026-01-27 20:26:04.22	307.53	12.57	-32.6	-33.3	25.6	0.00e+00	0	32	0	2782920704	38	5908
2026-01-27 20:26:05.23	307.36	12.52	-32.7	-33.4	25.5	0.00e+00	0	32	0	2788163584	38	6012
2026-01-27 20:26:06.24	307.20	12.47	-32.7	-33.3	25.5	0.00e+00	0	32	0	2793406464	38	5897
2026-01-27 20:26:07.25	307.03	12.41	-32.6	-33.4	25.5	0.00e+00	0	32	0	2799697920	38	5988
2026-01-27 20:26:08.26	306.87	12.36	-32.6	-33.2	25.6	0.00e+00	0	32	0	2804940800	38	5871
2026-01-27 20:26:09.27	306.71	12.31	-32.6	-33.2	25.5	0.00e+00	0	32	0	2811232256	38	5891
2026-01-27 20:26:10.28	306.55	12.25	-32.5	-33.2	25.6	0.00e+00	0	32	0	2816475136	38	5894
2026-01-27 20:26:11.29	306.39	12.20	-32.5	-33.0	25.5	0.00e+00	0	31	0	2822766592	38	5761
2026-01-27 20:26:12.30	306.23	12.14	-32.5	-33.1	25.4	0.00e+00	0	32	0	2828009472	38	5806
2026-01-27 20:26:13.31	306.07	12.09	-32.6	-33.2	25.4	0.00e+00	0	32	0	2833252352	38	5868
2026-01-27 20:26:14.32	305.91	12.03	-32.9	-33.4	25.1	0.00e+00	0	31	0	2839543808	38	6033
2026-01-27 20:26:15.33	305.75	11.98	-32.9	-33.6	25.2	0.00e+00	0	31	0	2844786688	38	6138
2026-01-27 20:26:16.33	305.59	11.92	-33.1	-33.8	25.0	0.00e+00	0	32	0	2851078144	38	6294
2026-01-27 20:26:17.34	305.43	11.87	-33.1	-33.8	25.1	0.00e+00	0	32	0	2856321024	38	6315
2026-01-27 20:26:18.35	305.28	11.82	-32.9	-33.6	25.1	0.00e+00	0	32	0	2861563904	38	6156
2026-01-27 20:26:19.36	305.12	11.76	-33.0	-33.7	25.0	0.00e+00	0	32	0	2867855360	38	6216
2026-01-27 20:26:20.37	304.96	11.71	-33.3	-34.0	24.9	0.00e+00	0	31	0	2873098240	38	6452
2026-01-27 20:26:21.38	304.81	11.65	-33.0	-33.8	25.2	0.00e+00	0	31	0	2879389696	38	6259
2026-01-27 20:26:22.39	304.65	11.59	-33.2	-33.9	24.9	0.00e+00	0	31	0	2884632576	38	6361
2026-01-27 20:26:23.40	304.50	11.54	-33.2	-34.0	24.9	0.00e+00	0	32	0	2889875456	38	6427
2026-01-27 20:26:24.41	304.35	11.48	-33.4	-34.0	24.8	0.00e+00	0	32	0	2896166912	38	6439
2026-01-27 20:26:25.42	304.19	11.43	-33.4	-34.0	24.9	0.00e+00	0	32	0	2901409792	38	6431
2026-01-27 20:26:26.43	304.04	11.37	-33.5	-34.3	24.8	0.00e+00	0	32	0	2907701248	38	6621
2026-01-27 20:26:27.44	303.89	11.32	-33.2	-33.8	25.0	0.00e+00	0	32	0	2912944128	38	6295
2026-01-27 20:26:28.45	303.74	11.26	-33.3	-34.0	24.9	0.00e+00	0	32	0	2918187008	38	6404
2026-01-27 20:26:29.46	303.59	11.21	-33.3	-34.0	25.0	0.00e+00	0	32	0	2924478464	38	6452
2026-01-27 20:26:30.47	303.44	11.15	-33.2	-33.8	25.0	0.00e+00	0	32	0	2930769920	38	6289
2026-01-27 20:26:31.48	303.29	11.09	-33.4	-34.0	24.9	0.00e+00	0	32	0	2936012800	38	6464
2026-01-27 20:26:32.49	303.14	11.04	-33.5	-34.3	24.7	0.00e+00	0	32	0	2941255680	38	6669
2026-01-27 20:26:33.50	302.99	10.98	-33.6	-34.3	24.7	0.00e+00	0	32	0	2947547136	38	6671
2026-01-27 20:26:34.51	302.84	10.93	-33.5	-34.2	24.7	0.00e+00	0	32	0	2952790016	38	6587
2026-01-27 20:26:35.52	302.70	10.87	-33.3	-34.1	24.9	0.00e+00	0	31	0	2959081472	38	6477
2026-01-27 20:26:36.53	302.55	10.81	-33.3	-34.0	25.0	0.00e+00	0	32	0	2964324352	38	6403
2026-01-27 20:26:37.54	302.41	10.76	-33.2	-33.9	24.9	0.00e+00	0	31	0	2969567232	38	6326
2026-01-27 20:26:38.55	302.26	10.70	-33.2	-33.9	25.0	0.00e+00	0	31	0	2975858688	38	6327
2026-01-27 20:26:39.56	302.12	10.65	-33.4	-34.2	24.9	0.00e+00	0	31	0	2981101568	38	6560
2026-01-27 20:26:40.57	301.97	10.59	-33.4	-34.1	24.7	0.00e+00	0	31	0	2987393024	38	6496
2026-01-27 20:26:41.58	301.83	10.53	-33.4	-34.0	24.8	0.00e+00	0	32	0	2992635904	38	6414
2026-01-27 20:26:42.59	301.68	10.48	-33.3	-34.0	24.8	0.00e+00	0	32	0	2997878784	38	6404
2026-01-27 20:26:43.60	301.54	10.42	-33.3	-33.9	24.8	0.00e+00	0	31	0	3004170240	38	6379
2026-01-27 20:26:44.61	301.40	10.36	-33.5	-34.1	24.7	0.00e+00	0	32	0	3009413120	38	6527
2026-01-27 20:26:45.62	301.26	10.31	-33.5	-34.3	24.6	0.00e+00	0	32	0	3015704576	38	6619
2026-01-27 20:26:46.63	301.12	10.25	-33.4	-34.2	24.7	0.00e+00	0	32	0	3020947456	38	6564
2026-01-27 20:26:47.64	300.98	10.19	-33.6	-34.3	24.6	0.00e+00	0	32	0	3027238912	38	6651
2026-01-27 20:26:48.65	300.84	10.14	-33.6	-34.2	24.6	0.00e+00	0	32	0	3032481792	38	6595
2026-01-27 20:26:49.66	300.70	10.08	-33.5	-34.1	24.6	0.00e+00	0	32	0	3037724672	38	6535
2026-01-27 20:26:50.67	300.56	10.02	-33.6	-34.2	24.4	0.00e+00	0	32	0	3044016128	38	6575
2026-01-27 20:26:51.68	300.42	9.97	-34.0	-34.7	24.0	0.00e+00	0	32	0	3049259008	40	6212
2026-01-27 20:26:52.68	300.29	9.91	-34.0	-34.7	24.1	0.00e+00	0	31	0	3055550464	40	6204
2026-01-27 20:26:53.69	300.15	9.85	-34.0	-34.6	24.0	0.00e+00	0	31	0	3060793344	40	6148
2026-01-27 20:26:54.70	300.01	9.80	-34.0	-34.6	24.0	0.00e+00	0	31	0	3066036224	40	6150
2026-01-27 20:26:55.71	299.88	9.74	-33.9	-34.6	24.3	0.00e+00	0	32	0	3072327680	40	6152
2026-01-27 20:26:56.72	299.74	9.68	-33.8	-34.5	24.4	0.00e+00	0	31	0	3077570560	40	6087
2026-01-27 20:26:57.73	299.61	9.63	-33.8	-34.4	24.4	0.00e+00	0	32	0	3083862016	40	5983
2026-01-27 20:26:58.74	299.47	9.57	-33.9	-34.5	24.2	0.00e+00	0	31	0	3089104896	40	6056
2026-01-27 20:26:59.75	299.34	9.51	-33.5	-34.3	24.5	0.00e+00	0	32	0	3094347776	40	5919
2026-01-27 20:27:00.76	299.21	9.45	-33.7	-34.3	24.5	0.00e+00	0	31	0	3100639232	40	5949
2026-01-27 20:27:01.77	299.07	9.40	-33.6	-34.3	24.4	0.00e+00	0	32	0	3105882112	40	5937
2026-01-27 20:27:02.78	298.94	9.34	-33.7	-34.4	24.3	0.00e+00	0	32	0	3112173568	40	5989
2026-01-27 20:27:03.79	298.81	9.28	-33.7	-34.4	24.3	0.00e+00	0	32	0	3117416448	40	6024
2026-01-27 20:27:04.80	298.68	9.23	-33.8	-34.5	24.4	0.00e+00	0	31	0	3123707904	40	6044
2026-01-27 20:27:05.81	298.55	9.17	-33.9	-34.6	24.3	0.00e+00	0	31	0	3128950784	40	6152
2026-01-27 20:27:06.82	298.42	9.11	-33.6	-34.2	24.4	0.00e+00	0	32	0	3135242240	40	5850
2026-01-27 20:27:07.83	298.29	9.05	-33.8	-34.5	24.3	0.00e+00	0	31	0	3140485120	40	6093
2026-01-27 20:27:08.84	298.16	9.00	-33.6	-34.4	24.3	0.00e+00	0	32	0	3145728000	40	5998
2026-01-27 20:27:09.86	298.03	8.94	-34.0	-34.7	24.3	0.00e+00	0	32	0	3152019456	40	6244
2026-01-27 20:27:10.86	297.90	8.88	-33.7	-34.4	24.3	0.00e+00	0	32	0	3157262336	40	5974
2026-01-27 20:27:11.87	297.78	8.83	-33.8	-34.4	24.3	0.00e+00	0	32	0	3163553792	40	6004
2026-01-27 20:27:12.88	297.65	8.77	-33.9	-34.7	24.2	0.00e+00	0	32	0	3168796672	40	6200
2026-01-27 20:27:13.90	297.52	8.71	-34.2	-34.8	24.0	0.00e+00	0	32	0	3174039552	40	6296
2026-01-27 20:27:14.91	297.39	8.65	-34.1	-34.7	24.0	0.00e+00	0	31	0	3180331008	40	6212
2026-01-27 20:27:15.92	297.27	8.60	-33.8	-34.5	24.2	0.00e+00	0	32	0	3185573888	40	6049
2026-01-27 20:27:16.92	297.15	8.54	-34.0	-34.6	24.1	0.00e+00	0	32	0	3191865344	40	6146
2026-01-27 20:27:17.93	297.02	8.48	-34.0	-34.8	24.1	0.00e+00	0	32	0	3197108224	40	6253
2026-01-27 20:27:18.94	296.90	8.43	-34.1	-34.9	24.0	0.00e+00	0	32	0	3202351104	40	6327
2026-01-27 20:27:19.95	296.77	8.37	-34.2	-34.8	23.9	0.00e+00	0	32	0	3208642560	40	6295
2026-01-27 20:27:20.96	296.65	8.31	-34.1	-34.9	24.0	0.00e+00	0	32	0	3213885440	40	6337
2026-01-27 20:27:21.97	296.53	8.25	-34.3	-35.1	23.8	0.00e+00	0	32	0	3220176896	40	6489
2026-01-27 20:27:22.98	296.41	8.20	-34.3	-35.1	23.8	0.00e+00	0	32	0	3225419776	40	6484
2026-01-27 20:27:23.99	296.28	8.14	-34.3	-34.9	23.7	0.00e+00	0	32	0	3231711232	40	6358
2026-01-27 20:27:25.00	296.16	8.08	-34.4	-35.1	23.7	0.00e+00	0	32	0	3236954112	40	6502
2026-01-27 20:27:26.01	296.04	8.03	-34.6	-35.3	23.5	0.00e+00	0	32	0	3242196992	40	6643
2026-01-27 20:27:27.02	295.92	7.97	-34.6	-35.4	23.6	0.00e+00	0	32	0	3248488448	40	6710
2026-01-27 20:27:28.03	295.80	7.91	-34.4	-35.1	23.7	0.00e+00	0	32	0	3253731328	40	6529
2026-01-27 20:27:29.04	295.68	7.85	-34.5	-35.2	23.5	0.00e+00	0	32	0	3260022784	40	6561
2026-01-27 20:27:30.04	295.57	7.80	-34.5	-35.3	23.5	0.00e+00	0	31	0	3265265664	40	6674
2026-01-27 20:27:31.05	295.45	7.74	-34.5	-35.3	23.5	0.00e+00	0	32	0	3270508544	40	6648
2026-01-27 20:27:32.06	295.33	7.68	-34.6	-35.3	23.4	0.00e+00	0	32	0	3276800000	40	6634
2026-01-27 20:27:33.07	295.21	7.63	-34.5	-35.2	23.6	0.00e+00	0	32	0	3282042880	40	6580
2026-01-27 20:27:34.08	295.10	7.57	-34.7	-35.5	23.3	0.00e+00	0	32	0	3288334336	42	6086
2026-01-27 20:27:35.09	294.98	7.51	-34.6	-35.3	23.4	0.00e+00	0	32	0	3293577216	42	5934
2026-01-27 20:27:36.10	294.87	7.46	-34.6	-35.3	23.4	0.00e+00	0	32	0	3298820096	42	5919
2026-01-27 20:27:37.11	294.75	7.40	-34.5	-35.1	23.6	0.00e+00	0	32	0	3305111552	42	5824
2026-01-27 20:27:38.12	294.64	7.34	-34.6	-35.3	23.4	0.00e+00	0	32	0	3310354432	42	5903
2026-01-27 20:27:39.13	294.52	7.28	-34.7	-35.5	23.3	0.00e+00	0	32	0	3316645888	42	6080
2026-01-27 20:27:40.14	294.41	7.23	-34.5	-35.3	23.6	0.00e+00	0	32	0	3321888768	42	5917
2026-01-27 20:27:41.15	294.29	7.17	-34.3	-34.9	23.8	0.00e+00	0	32	0	3328180224	42	5679
2026-01-27 20:27:42.16	294.18	7.11	-34.3	-35.1	23.6	0.00e+00	0	31	0	3333423104	42	5793
2026-01-27 20:27:43.17	294.07	7.06	-34.7	-35.4	23.4	0.00e+00	0	32	0	3339714560	42	6029
2026-01-27 20:27:44.18	293.96	7.00	-34.6	-35.3	23.4	0.00e+00	0	32	0	3344957440	42	5900
2026-01-27 20:27:45.19	293.84	6.94	-34.4	-35.0	23.6	0.00e+00	0	32	0	3350200320	42	5755
2026-01-27 20:27:46.20	293.73	6.89	-34.6	-35.2	23.5	0.00e+00	0	31	0	3356491776	42	5877
2026-01-27 20:27:47.21	293.62	6.83	-34.7	-35.4	23.4	0.00e+00	0	31	0	3361734656	42	6012
2026-01-27 20:27:48.22	293.51	6.77	-34.4	-35.1	23.5	0.00e+00	0	31	0	3368026112	42	5800
2026-01-27 20:27:49.24	293.40	6.72	-35.2	-36.0	22.8	0.00e+00	0	31	0	3373268992	42	6410
2026-01-27 20:27:50.25	293.29	6.66	-34.8	-35.7	23.2	0.00e+00	0	32	0	3378511872	42	6175
2026-01-27 20:27:51.26	293.18	6.60	-34.4	-35.2	23.5	0.00e+00	0	31	0	3384803328	42	5835
2026-01-27 20:27:52.26	293.08	6.55	-34.9	-35.5	23.2	0.00e+00	0	32	0	3390046208	42	6098
2026-01-27 20:27:53.27	292.97	6.49	-35.2	-35.9	22.8	0.00e+00	0	32	0	3396337664	42	6326
2026-01-27 20:27:54.28	292.86	6.43	-35.0	-35.7	23.1	0.00e+00	0	31	0	3401580544	42	6207
2026-01-27 20:27:55.29	292.75	6.38	-35.0	-35.7	23.0	0.00e+00	0	31	0	3406823424	42	6187
2026-01-27 20:27:56.30	292.65	6.32	-34.7	-35.4	23.2	0.00e+00	0	31	0	3413114880	42	5969
2026-01-27 20:27:57.31	292.54	6.26	-35.2	-36.0	22.8	0.00e+00	0	32	0	3418357760	42	6392
2026-01-27 20:27:58.32	292.43	6.21	-35.2	-35.9	22.8	0.00e+00	0	32	0	3424649216	42	6365
2026-01-27 20:27:59.34	292.33	6.15	-35.3	-36.0	22.7	0.00e+00	0	32	0	3429892096	42	6436
2026-01-27 20:28:00.34	292.22	6.09	-35.3	-36.0	22.6	0.00e+00	0	32	0	3436183552	42	6417
2026-01-27 20:28:01.35	292.12	6.04	-35.6	-36.5	22.3	0.00e+00	0	31	0	3441426432	42	6788
2026-01-27 20:28:02.36	292.01	5.98	-35.1	-35.9	22.9	0.00e+00	0	31	0	3446669312	42	6390
2026-01-27 20:28:03.37	291.91	5.92	-35.0	-35.9	22.8	0.00e+00	0	32	0	3452960768	42	6326
2026-01-27 20:28:04.38	291.81	5.87	-35.0	-35.7	22.9	0.00e+00	0	31	0	3458203648	42	6177
2026-01-27 20:28:05.39	291.70	5.81	-35.3	-36.0	22.6	0.00e+00	0	31	0	3464495104	42	6417
2026-01-27 20:28:06.41	291.60	5.76	-35.4	-36.2	22.5	0.00e+00	0	31	0	3469737984	42	6573
2026-01-27 20:28:07.42	291.50	5.70	-35.2	-35.9	22.7	0.00e+00	0	31	0	3474980864	42	6367
2026-01-27 20:28:08.42	291.40	5.64	-35.1	-35.8	22.9	0.00e+00	0	32	0	3481272320	42	6257
2026-01-27 20:28:09.44	291.29	5.59	-35.6	-36.3	22.2	0.00e+00	0	32	0	3486515200	42	6668
2026-01-27 20:28:10.45	291.19	5.53	-35.0	-35.7	22.7	0.00e+00	0	32	0	3492806656	42	6183
2026-01-27 20:28:11.45	291.09	5.48	-35.2	-36.1	22.6	0.00e+00	0	32	0	3498049536	42	6489
2026-01-27 20:28:12.46	290.99	5.42	-35.4	-36.1	22.5	0.00e+00	0	32	0	3503292416	42	6534
2026-01-27 20:28:13.47	290.89	5.36	-35.2	-36.0	22.7	0.00e+00	0	32	0	3509583872	42	6436
2026-01-27 20:28:14.48	290.79	5.31	-35.4	-36.1	22.4	0.00e+00	0	31	0	3514826752	42	6508
2026-01-27 20:28:15.49	290.69	5.25	-35.0	-35.8	22.8	0.00e+00	0	32	0	3521118208	42	6297
2026-01-27 20:28:16.50	290.59	5.20	-35.3	-36.1	22.5	0.00e+00	0	32	0	3526361088	42	6525
2026-01-27 20:28:17.51	290.50	5.14	-35.4	-36.3	22.4	0.00e+00	0	32	0	3532652544	42	6630
2026-01-27 20:28:18.52	290.40	5.08	-35.5	-36.2	22.4	0.00e+00	0	32	0	3537895424	42	6594
2026-01-27 20:28:19.53	290.30	5.03	-35.7	-36.5	22.0	0.00e+00	0	32	0	3544186880	44	6040
2026-01-27 20:28:20.54	290.20	4.97	-34.9	-35.7	23.0	0.00e+00	0	32	0	3549429760	42	6203
2026-01-27 20:28:21.55	290.11	4.92	-35.5	-36.3	22.3	0.00e+00	0	32	0	3554672640	42	6685
2026-01-27 20:28:22.56	290.01	4.86	-35.4	-36.2	22.4	0.00e+00	0	32	0	3560964096	42	6607
2026-01-27 20:28:23.57	289.91	4.81	-35.1	-35.8	22.8	0.00e+00	0	32	0	3566206976	42	6291
2026-01-27 20:28:24.58	289.82	4.75	-35.3	-36.0	22.4	0.00e+00	0	32	0	3572498432	42	6438
2026-01-27 20:28:25.59	289.72	4.69	-35.7	-36.5	22.0	0.00e+00	0	32	0	3577741312	42	6783
2026-01-27 20:28:26.60	289.63	4.64	-35.2	-35.9	22.5	0.00e+00	0	32	0	3582984192	44	5643
2026-01-27 20:28:27.61	289.53	4.58	-35.3	-36.0	22.6	0.00e+00	0	32	0	3589275648	44	5734
2026-01-27 20:28:28.62	289.44	4.53	-35.3	-36.2	22.4	0.00e+00	0	32	0	3594518528	44	5835
