passes_logs/2026/01/27/R4.6S_Anadyr/R4.6S_Anadyr__20260127_045405_FENGYUN_3D_rec.log

#Pass ID: 20260127_045405_FENGYUN 3D
#Satellite: FENGYUN 3D
#Configuration: FENGYUN 3D
#almurnet v.1.7.20251203
#Start time: 2026-01-27 04:54:07

#Version: 2.2.20231116
#Station: R4.6S_Anadyr
#Location: 177.4865 lon 64.73178 lat
#TLE: 1 43010U 17072A   26026.49129444  .00000151  00000+0  93391-4 0  9993
#TLE: 2 43010  98.9962 358.4866 0002525  88.1664 271.9801 14.19700337424889

#Time	Az	El	Level	Level2	SNR	BER	BlckErr	Temp	State	Recorded	gain1	gain2
2026-01-27 04:54:07.55	225.63	0.08	-49.0	-61.5	3.4	1.52e+00	0	29	0	0	60	41796
2026-01-27 04:54:08.56	225.71	0.13	-48.9	-61.1	3.6	8.45e-01	0	30	104	0	60	40869
2026-01-27 04:54:09.56	225.79	0.17	-48.8	-61.0	3.6	8.46e-01	0	30	104	0	60	40702
2026-01-27 04:54:10.58	225.87	0.22	-48.5	-61.1	3.6	8.45e-01	0	30	104	0	60	40860
2026-01-27 04:54:11.59	225.95	0.27	-48.9	-61.1	3.6	8.46e-01	0	30	104	0	60	40832
2026-01-27 04:54:12.60	226.04	0.32	-48.9	-61.0	3.6	8.45e-01	0	30	104	0	60	40678
2026-01-27 04:54:13.61	226.12	0.36	-48.9	-61.1	3.6	8.45e-01	0	30	104	0	60	41150
2026-01-27 04:54:14.62	226.20	0.41	-49.0	-61.2	3.6	8.45e-01	0	30	104	0	60	41316
2026-01-27 04:54:15.63	226.29	0.46	-48.9	-61.1	3.6	8.44e-01	0	30	104	0	60	41161
2026-01-27 04:54:16.64	226.37	0.51	-49.0	-61.2	3.6	8.45e-01	0	30	104	0	60	41338
2026-01-27 04:54:17.65	226.46	0.55	-49.1	-61.2	3.6	8.45e-01	0	30	104	0	60	41477
2026-01-27 04:54:18.65	226.54	0.60	-49.0	-61.2	3.6	8.45e-01	0	30	104	0	60	41513
2026-01-27 04:54:19.66	226.62	0.65	-48.9	-61.2	3.6	8.44e-01	0	30	104	0	60	41364
2026-01-27 04:54:20.67	226.71	0.70	-48.9	-61.2	3.6	8.45e-01	0	30	104	0	60	41473
2026-01-27 04:54:21.68	226.79	0.74	-49.0	-61.2	3.6	8.45e-01	0	30	104	0	60	41581
2026-01-27 04:54:22.69	226.88	0.79	-48.9	-61.2	3.6	8.45e-01	0	30	104	0	60	41571
2026-01-27 04:54:23.70	226.97	0.84	-48.9	-61.2	3.6	8.45e-01	0	30	104	0	60	41289
2026-01-27 04:54:24.71	227.05	0.89	-48.9	-61.2	3.6	8.45e-01	0	30	104	0	60	41712
2026-01-27 04:54:25.72	227.14	0.93	-48.9	-61.2	3.6	8.46e-01	0	30	104	0	60	41303
2026-01-27 04:54:26.73	227.22	0.98	-48.9	-61.1	3.6	8.45e-01	0	30	104	0	60	40966
2026-01-27 04:54:27.74	227.31	1.03	-48.9	-61.1	3.6	8.46e-01	0	30	104	0	60	40842
2026-01-27 04:54:28.75	227.40	1.08	-48.8	-61.0	3.5	8.45e-01	0	31	104	0	60	40614
2026-01-27 04:54:29.76	227.48	1.13	-48.7	-60.8	3.6	8.46e-01	0	31	104	0	60	39490
2026-01-27 04:54:30.77	227.57	1.17	-48.4	-60.5	3.6	8.46e-01	0	31	104	0	60	38196
2026-01-27 04:54:31.78	227.66	1.22	-47.7	-59.9	3.6	8.45e-01	0	31	104	0	60	35800
2026-01-27 04:54:32.79	227.75	1.27	-46.7	-58.9	3.6	8.45e-01	0	30	104	0	60	31705
2026-01-27 04:54:33.80	227.84	1.32	-46.4	-58.5	3.6	8.46e-01	0	31	104	0	60	30286
2026-01-27 04:54:34.81	227.93	1.37	-46.4	-58.5	3.6	8.45e-01	0	31	104	0	60	30267
2026-01-27 04:54:35.81	228.01	1.41	-46.4	-58.5	3.6	8.46e-01	0	31	104	0	60	30411
2026-01-27 04:54:36.82	228.10	1.46	-46.4	-58.5	3.6	8.44e-01	0	31	104	0	60	30249
2026-01-27 04:54:37.83	228.19	1.51	-46.4	-58.5	3.6	8.46e-01	0	31	104	0	60	30328
2026-01-27 04:54:38.84	228.28	1.56	-46.4	-58.4	3.5	8.46e-01	0	31	104	0	60	30143
2026-01-27 04:54:39.85	228.37	1.61	-46.4	-58.5	3.6	8.45e-01	0	31	104	0	60	30282
2026-01-27 04:54:40.86	228.46	1.65	-46.4	-58.5	3.6	8.45e-01	0	31	104	0	60	30286
2026-01-27 04:54:41.87	228.55	1.70	-46.4	-58.4	3.6	8.45e-01	0	31	104	0	60	30133
2026-01-27 04:54:42.88	228.64	1.75	-46.4	-58.5	3.6	8.45e-01	0	31	104	0	60	30272
2026-01-27 04:54:43.89	228.73	1.80	-46.4	-58.5	3.6	8.46e-01	0	31	104	0	60	30360
2026-01-27 04:54:44.90	228.83	1.85	-46.3	-58.4	3.6	8.45e-01	0	31	104	0	60	30175
2026-01-27 04:54:45.91	228.92	1.90	-46.4	-58.5	3.6	8.45e-01	0	31	104	0	60	30257
2026-01-27 04:54:46.92	229.01	1.94	-46.4	-58.5	3.6	8.45e-01	0	31	104	0	60	30278
2026-01-27 04:54:47.93	229.10	1.99	-46.4	-58.4	3.6	8.46e-01	0	31	104	0	60	30125
2026-01-27 04:54:48.94	229.20	2.04	-46.4	-58.4	3.6	8.47e-01	0	31	104	0	60	30100
2026-01-27 04:54:49.95	229.29	2.09	-46.4	-58.4	3.6	8.45e-01	0	31	104	0	60	29917
2026-01-27 04:54:50.96	229.38	2.14	-46.3	-58.4	3.6	8.46e-01	0	31	104	0	60	30007
2026-01-27 04:54:51.97	229.47	2.19	-46.3	-58.3	3.6	8.45e-01	0	31	104	0	60	29810
2026-01-27 04:54:52.98	229.57	2.24	-46.3	-58.2	3.6	8.44e-01	0	31	104	0	60	29427
2026-01-27 04:54:53.99	229.66	2.28	-46.3	-58.2	3.6	8.45e-01	0	31	104	0	60	29406
2026-01-27 04:54:55.00	229.76	2.33	-46.3	-58.2	3.6	8.45e-01	0	31	104	0	60	29226
2026-01-27 04:54:56.01	229.85	2.38	-46.3	-58.1	3.6	8.46e-01	0	31	104	0	60	29100
2026-01-27 04:54:57.02	229.95	2.43	-46.3	-58.0	3.6	8.45e-01	0	31	104	0	60	28840
2026-01-27 04:54:58.03	230.04	2.48	-46.3	-58.0	3.6	8.45e-01	0	31	104	0	60	28689
2026-01-27 04:54:59.04	230.14	2.53	-46.3	-57.9	3.6	8.46e-01	0	31	104	0	60	28339
2026-01-27 04:55:00.05	230.23	2.58	-46.3	-57.7	3.6	8.45e-01	0	31	104	0	60	27683
2026-01-27 04:55:01.06	230.33	2.62	-46.2	-57.2	3.6	8.45e-01	0	31	104	0	60	26093
2026-01-27 04:55:02.07	230.43	2.67	-46.2	-56.6	3.7	8.44e-01	0	31	104	0	60	24426
2026-01-27 04:55:03.08	230.52	2.72	-46.1	-55.8	3.8	8.42e-01	0	31	104	0	60	22177
2026-01-27 04:55:04.09	230.62	2.77	-46.0	-55.2	3.9	8.42e-01	0	31	104	0	60	20821
2026-01-27 04:55:05.10	230.72	2.82	-46.0	-55.1	3.7	8.42e-01	0	31	104	0	60	20472
2026-01-27 04:55:06.11	230.81	2.87	-45.9	-53.4	3.9	8.34e-01	0	31	0	0	60	16812
2026-01-27 04:55:07.12	230.91	2.92	-46.0	-55.1	3.9	8.38e-01	0	31	104	0	60	20519
2026-01-27 04:55:08.13	231.01	2.97	-46.0	-55.2	3.9	8.42e-01	0	31	104	0	60	20890
2026-01-27 04:55:09.14	231.11	3.01	-46.1	-55.9	3.6	8.41e-01	0	31	104	0	60	22504
2026-01-27 04:55:10.15	231.21	3.06	-46.0	-53.8	3.8	8.36e-01	0	31	0	0	60	17697
2026-01-27 04:55:11.16	231.31	3.11	-46.0	-55.1	4.0	8.39e-01	0	31	104	0	60	20578
2026-01-27 04:55:12.17	231.41	3.16	-46.3	-58.3	3.5	8.46e-01	0	31	104	0	60	29780
2026-01-27 04:55:13.18	231.51	3.21	-46.2	-58.0	3.6	8.46e-01	0	31	104	0	60	28718
2026-01-27 04:55:14.19	231.61	3.26	-46.1	-54.1	3.9	8.37e-01	0	31	104	0	60	18311
2026-01-27 04:55:15.20	231.71	3.31	-46.1	-53.5	4.5	7.98e-01	0	31	0	0	60	17200
2026-01-27 04:55:16.21	231.81	3.36	-46.1	-52.7	4.3	8.01e-01	0	31	0	0	60	15620
2026-01-27 04:55:17.22	231.91	3.41	-46.1	-52.7	4.4	8.06e-01	0	31	0	0	60	15642
2026-01-27 04:55:18.23	232.01	3.45	-46.1	-52.7	4.4	8.02e-01	0	31	0	0	60	15537
2026-01-27 04:55:19.24	232.11	3.50	-46.2	-52.8	4.3	8.09e-01	0	31	0	0	60	15850
2026-01-27 04:55:20.25	232.22	3.55	-46.2	-52.7	4.3	8.01e-01	0	31	0	0	60	15679
2026-01-27 04:55:21.26	232.32	3.60	-46.2	-52.8	4.4	8.00e-01	0	31	0	0	60	15741
2026-01-27 04:55:22.27	232.42	3.65	-46.3	-52.9	4.4	8.03e-01	0	31	0	0	60	15906
2026-01-27 04:55:23.28	232.52	3.70	-46.3	-52.9	4.3	8.02e-01	0	31	0	0	60	15990
2026-01-27 04:55:24.29	232.63	3.75	-46.3	-52.9	4.3	8.05e-01	0	31	0	0	60	15970
2026-01-27 04:55:25.30	232.73	3.80	-46.3	-53.0	4.4	8.09e-01	0	31	0	0	60	16116
2026-01-27 04:55:26.31	232.83	3.85	-46.4	-53.2	4.2	8.05e-01	0	31	0	0	60	16518
2026-01-27 04:55:27.32	232.94	3.90	-46.5	-53.3	4.2	8.14e-01	0	31	0	0	60	16732
2026-01-27 04:55:28.33	233.04	3.95	-46.6	-53.4	4.2	8.16e-01	0	31	0	0	60	16817
2026-01-27 04:55:29.34	233.15	3.99	-46.6	-53.3	4.2	8.15e-01	0	31	0	0	60	16790
2026-01-27 04:55:30.35	233.25	4.04	-46.6	-53.3	4.2	8.16e-01	0	31	0	0	60	16801
2026-01-27 04:55:31.36	233.36	4.09	-46.6	-53.4	4.2	8.15e-01	0	31	0	0	60	16860
2026-01-27 04:55:32.37	233.47	4.14	-46.6	-53.4	4.2	8.10e-01	0	31	0	0	60	16914
2026-01-27 04:55:33.37	233.57	4.19	-46.6	-53.3	4.4	8.11e-01	0	31	0	0	60	16686
2026-01-27 04:55:34.38	233.68	4.24	-46.6	-53.3	4.3	8.09e-01	0	31	0	0	60	16733
2026-01-27 04:55:35.39	233.79	4.29	-46.7	-53.3	4.3	8.05e-01	0	31	0	0	60	16649
2026-01-27 04:55:36.40	233.89	4.34	-46.7	-53.5	4.2	8.11e-01	0	31	0	0	60	17009
2026-01-27 04:55:37.41	234.00	4.39	-46.7	-53.3	4.3	8.09e-01	0	31	0	0	60	16631
2026-01-27 04:55:38.42	234.11	4.44	-46.6	-53.2	4.4	8.04e-01	0	31	0	0	60	16577
2026-01-27 04:55:39.43	234.22	4.49	-46.7	-53.1	4.5	7.95e-01	0	31	0	0	60	16270
2026-01-27 04:55:40.44	234.33	4.54	-46.7	-53.1	4.4	8.01e-01	0	31	0	0	60	16362
2026-01-27 04:55:41.45	234.44	4.58	-46.6	-53.0	4.5	7.87e-01	0	31	0	0	60	16104
2026-01-27 04:55:42.46	234.55	4.63	-46.7	-52.9	4.6	7.76e-01	0	31	0	0	60	15971
2026-01-27 04:55:43.47	234.66	4.68	-46.6	-52.9	4.6	7.79e-01	0	31	0	0	60	15942
2026-01-27 04:55:44.48	234.77	4.73	-46.6	-52.7	4.7	7.65e-01	0	31	0	0	60	15685
2026-01-27 04:55:45.49	234.88	4.78	-46.6	-52.8	4.8	7.76e-01	0	31	0	0	60	15720
2026-01-27 04:55:46.50	234.99	4.83	-46.6	-52.5	5.0	7.41e-01	0	31	0	0	60	15289
2026-01-27 04:55:47.51	235.10	4.88	-46.6	-52.6	5.0	7.52e-01	0	31	0	0	60	15385
2026-01-27 04:55:48.52	235.21	4.93	-46.6	-52.4	5.1	7.25e-01	0	31	0	0	60	15061
2026-01-27 04:55:49.53	235.32	4.98	-46.6	-52.4	5.1	7.23e-01	0	31	0	0	60	15106
2026-01-27 04:55:50.53	235.43	5.03	-46.5	-52.3	5.2	7.16e-01	0	31	0	0	60	14960
2026-01-27 04:55:51.55	235.55	5.08	-46.5	-52.2	5.4	6.09e-01	0	31	0	1048576	60	14704
2026-01-27 04:55:52.56	235.66	5.13	-46.5	-52.0	5.6	4.66e-01	0	31	0	6291456	60	14331
2026-01-27 04:55:53.57	235.78	5.18	-46.5	-52.1	5.6	4.66e-01	0	31	0	12582912	60	14487
2026-01-27 04:55:54.57	235.89	5.22	-46.5	-52.0	5.7	4.14e-01	0	31	0	17825792	60	14318
2026-01-27 04:55:55.58	236.00	5.27	-46.6	-52.0	5.6	3.95e-01	0	31	0	23068672	60	14463
2026-01-27 04:55:56.59	236.12	5.32	-46.5	-51.8	5.9	3.83e-01	0	31	0	29360128	60	14084
2026-01-27 04:55:57.61	236.23	5.37	-46.4	-51.7	5.9	3.51e-01	0	31	0	34603008	60	13914
2026-01-27 04:55:58.61	236.35	5.42	-46.4	-51.5	6.2	3.13e-01	0	31	0	40894464	60	13615
2026-01-27 04:55:59.62	236.46	5.47	-46.2	-51.2	6.5	2.67e-01	0	31	0	46137344	60	13199
2026-01-27 04:56:00.63	236.58	5.52	-46.1	-51.0	6.7	2.23e-01	0	31	0	52428800	60	12796
2026-01-27 04:56:01.64	236.70	5.57	-46.1	-50.7	7.1	1.68e-01	0	31	0	57671680	60	12393
2026-01-27 04:56:02.65	236.81	5.62	-46.0	-50.6	7.2	1.55e-01	0	31	0	62914560	60	12213
2026-01-27 04:56:03.65	236.93	5.67	-46.1	-50.6	7.3	1.43e-01	0	31	0	69206016	60	12203
2026-01-27 04:56:04.66	237.05	5.72	-46.1	-50.5	7.4	1.23e-01	0	31	0	74448896	60	12114
2026-01-27 04:56:05.67	237.17	5.77	-46.0	-50.2	7.8	1.20e-01	0	31	0	80740352	60	11734
2026-01-27 04:56:06.68	237.28	5.82	-45.8	-49.7	8.4	5.57e-02	0	31	0	85983232	60	11027
2026-01-27 04:56:07.69	237.40	5.86	-45.7	-49.5	8.7	4.82e-02	0	31	0	91226112	60	10830
2026-01-27 04:56:08.70	237.52	5.91	-45.7	-49.5	8.8	3.70e-02	0	31	0	97517568	60	10755
2026-01-27 04:56:09.71	237.64	5.96	-45.6	-49.2	9.0	3.24e-02	0	31	0	102760448	60	10468
2026-01-27 04:56:10.72	237.76	6.01	-45.4	-48.9	9.5	2.03e-02	0	31	0	109051904	60	10058
2026-01-27 04:56:11.73	237.88	6.06	-45.4	-48.9	9.4	1.67e-02	0	31	0	114294784	60	10083
2026-01-27 04:56:12.73	238.00	6.11	-45.4	-48.8	9.7	1.57e-02	0	31	0	119537664	60	9899
2026-01-27 04:56:13.74	238.12	6.16	-45.1	-48.4	10.2	9.39e-03	0	31	0	125829120	60	9454
2026-01-27 04:56:14.75	238.24	6.21	-45.0	-48.1	10.4	7.10e-03	0	31	0	131072000	60	9196
2026-01-27 04:56:15.77	238.37	6.26	-44.6	-47.5	11.0	3.06e-03	0	31	0	137363456	60	8579
2026-01-27 04:56:16.77	238.49	6.31	-44.4	-47.1	11.4	1.63e-03	0	31	0	142606336	60	8231
2026-01-27 04:56:17.78	238.61	6.36	-44.3	-47.0	11.6	1.09e-03	0	31	0	148897792	60	8082
2026-01-27 04:56:18.79	238.73	6.41	-44.1	-46.7	12.0	5.61e-04	0	31	0	154140672	60	7786
2026-01-27 04:56:19.80	238.86	6.45	-44.0	-46.5	12.2	5.38e-04	0	31	0	159383552	60	7651
2026-01-27 04:56:20.81	238.98	6.50	-43.7	-46.1	12.7	1.30e-04	0	31	0	165675008	60	7277
2026-01-27 04:56:21.82	239.11	6.55	-43.5	-45.7	13.0	3.43e-05	0	31	0	170917888	60	7004
2026-01-27 04:56:22.83	239.23	6.60	-43.4	-45.6	13.2	4.34e-05	0	31	0	177209344	60	6892
2026-01-27 04:56:23.84	239.36	6.65	-43.4	-45.5	13.4	4.57e-05	0	31	0	182452224	60	6792
2026-01-27 04:56:24.85	239.48	6.70	-43.3	-45.4	13.5	1.02e-05	0	31	0	187695104	60	6696
2026-01-27 04:56:25.86	239.61	6.75	-42.9	-44.8	14.1	4.50e-06	0	31	0	193986560	60	6310
2026-01-27 04:56:26.87	239.73	6.80	-42.4	-44.2	14.7	1.10e-06	0	31	0	199229440	58	6565
2026-01-27 04:56:27.88	239.86	6.85	-42.2	-44.0	14.9	1.10e-06	0	31	0	205520896	58	6398
2026-01-27 04:56:28.89	239.99	6.89	-42.3	-44.0	15.0	1.10e-06	0	31	0	210763776	58	6424
2026-01-27 04:56:29.89	240.11	6.94	-42.2	-43.9	14.9	0.00e+00	0	31	0	216006656	58	6376
2026-01-27 04:56:30.90	240.24	6.99	-42.0	-43.7	15.3	0.00e+00	0	31	0	222298112	58	6220
2026-01-27 04:56:31.92	240.37	7.04	-41.5	-43.0	16.0	0.00e+00	0	31	0	227540992	56	6399
2026-01-27 04:56:32.92	240.50	7.09	-41.3	-42.7	16.2	0.00e+00	0	31	0	233832448	56	6205
2026-01-27 04:56:33.93	240.63	7.14	-41.1	-42.5	16.5	0.00e+00	0	31	0	239075328	56	6041
2026-01-27 04:56:34.94	240.76	7.19	-40.8	-42.2	16.8	0.00e+00	0	31	0	245366784	56	5836
2026-01-27 04:56:35.95	240.89	7.24	-40.3	-41.5	17.4	0.00e+00	0	31	0	250609664	54	6064
2026-01-27 04:56:36.96	241.02	7.28	-40.1	-41.3	17.7	0.00e+00	0	31	0	255852544	54	5943
2026-01-27 04:56:37.97	241.15	7.33	-40.1	-41.3	17.7	0.00e+00	0	31	0	262144000	54	5953
2026-01-27 04:56:38.98	241.28	7.38	-40.0	-41.2	17.9	0.00e+00	0	31	0	267386880	54	5830
2026-01-27 04:56:39.99	241.41	7.43	-39.7	-40.9	18.2	0.00e+00	0	31	0	273678336	52	6349
2026-01-27 04:56:41.00	241.55	7.48	-39.6	-40.7	18.4	0.00e+00	0	31	0	278921216	52	6210
2026-01-27 04:56:42.01	241.68	7.53	-39.3	-40.4	18.7	0.00e+00	0	31	0	284164096	52	6008
2026-01-27 04:56:43.02	241.81	7.58	-39.2	-40.3	18.8	0.00e+00	0	31	0	290455552	52	5918
2026-01-27 04:56:44.03	241.95	7.62	-39.1	-40.1	19.0	0.00e+00	0	31	0	295698432	52	5827
2026-01-27 04:56:45.04	242.08	7.67	-38.8	-39.8	19.3	0.00e+00	0	31	0	301989888	52	5590
2026-01-27 04:56:46.04	242.21	7.72	-38.6	-39.6	19.4	0.00e+00	0	31	0	307232768	50	6158
2026-01-27 04:56:47.06	242.35	7.77	-38.5	-39.5	19.6	0.00e+00	0	31	0	312475648	50	6046
2026-01-27 04:56:48.06	242.48	7.82	-38.4	-39.4	19.7	0.00e+00	0	31	0	318767104	50	5980
2026-01-27 04:56:49.07	242.62	7.87	-38.2	-39.2	19.8	0.00e+00	0	31	0	324009984	50	5850
2026-01-27 04:56:50.08	242.75	7.91	-38.2	-39.2	19.8	0.00e+00	0	31	0	330301440	50	5883
2026-01-27 04:56:51.09	242.89	7.96	-38.1	-39.1	20.0	0.00e+00	0	31	0	335544320	50	5762
2026-01-27 04:56:52.11	243.03	8.01	-37.6	-38.5	20.6	0.00e+00	0	31	0	341835776	48	6052
2026-01-27 04:56:53.11	243.16	8.06	-37.2	-38.1	21.0	0.00e+00	0	31	0	347078656	48	5768
2026-01-27 04:56:54.12	243.30	8.11	-37.1	-38.0	21.1	0.00e+00	0	31	0	353370112	48	5743
2026-01-27 04:56:55.13	243.44	8.15	-37.0	-37.9	21.2	0.00e+00	0	31	0	358612992	48	5641
2026-01-27 04:56:56.14	243.58	8.20	-36.6	-37.4	21.6	0.00e+00	0	31	0	363855872	46	6030
2026-01-27 04:56:57.15	243.72	8.25	-36.5	-37.3	21.8	0.00e+00	0	31	0	370147328	46	5959
2026-01-27 04:56:58.16	243.86	8.30	-36.4	-37.2	21.8	0.00e+00	0	31	0	375390208	46	5882
2026-01-27 04:56:59.17	244.00	8.34	-36.2	-37.0	22.1	0.00e+00	0	31	0	381681664	46	5697
2026-01-27 04:57:00.18	244.14	8.39	-36.0	-36.7	22.2	0.00e+00	0	31	0	386924544	46	5560
2026-01-27 04:57:01.19	244.28	8.44	-35.9	-36.7	22.4	0.00e+00	0	31	0	392167424	46	5503
2026-01-27 04:57:02.20	244.42	8.49	-35.9	-36.7	22.3	0.00e+00	0	31	0	398458880	46	5543
2026-01-27 04:57:03.21	244.56	8.53	-35.8	-36.6	22.5	0.00e+00	0	31	0	403701760	46	5461
2026-01-27 04:57:04.22	244.70	8.58	-35.8	-36.5	22.5	0.00e+00	0	31	0	409993216	44	6098
2026-01-27 04:57:05.23	244.85	8.63	-35.5	-36.3	22.8	0.00e+00	0	31	0	415236096	44	5940
2026-01-27 04:57:06.24	244.99	8.68	-35.5	-36.3	22.8	0.00e+00	0	31	0	420478976	44	5934
2026-01-27 04:57:07.25	245.13	8.72	-35.5	-36.3	22.8	0.00e+00	0	31	0	426770432	44	5900
2026-01-27 04:57:08.26	245.28	8.77	-35.2	-35.9	23.2	0.00e+00	0	31	0	432013312	44	5665
2026-01-27 04:57:09.27	245.42	8.82	-35.3	-36.0	23.1	0.00e+00	0	31	0	438304768	44	5725
2026-01-27 04:57:10.28	245.57	8.87	-35.1	-35.8	23.3	0.00e+00	0	31	0	443547648	44	5628
2026-01-27 04:57:11.29	245.71	8.91	-34.9	-35.7	23.5	0.00e+00	0	31	0	449839104	44	5514
2026-01-27 04:57:12.30	245.86	8.96	-35.0	-35.8	23.4	0.00e+00	0	31	0	455081984	44	5568
2026-01-27 04:57:13.31	246.01	9.01	-34.8	-35.6	23.6	0.00e+00	0	31	0	460324864	44	5447
2026-01-27 04:57:14.32	246.15	9.05	-34.8	-35.5	23.6	0.00e+00	0	31	0	466616320	44	5438
2026-01-27 04:57:15.33	246.30	9.10	-34.9	-35.6	23.6	0.00e+00	0	31	0	471859200	42	6144
2026-01-27 04:57:16.34	246.45	9.15	-34.9	-35.6	23.6	0.00e+00	0	31	0	478150656	42	6131
2026-01-27 04:57:17.35	246.59	9.19	-34.7	-35.4	23.8	0.00e+00	0	31	0	483393536	42	5996
2026-01-27 04:57:18.36	246.74	9.24	-34.4	-35.1	24.1	0.00e+00	0	31	0	488636416	42	5795
2026-01-27 04:57:19.37	246.89	9.28	-34.3	-35.1	24.1	0.00e+00	0	31	0	494927872	42	5772
2026-01-27 04:57:20.37	247.04	9.33	-34.4	-35.1	24.1	0.00e+00	0	31	0	500170752	42	5771
2026-01-27 04:57:21.38	247.19	9.38	-34.5	-35.2	24.0	0.00e+00	0	31	0	506462208	42	5858
2026-01-27 04:57:22.39	247.34	9.42	-34.4	-35.1	24.1	0.00e+00	0	31	0	511705088	42	5803
2026-01-27 04:57:23.40	247.49	9.47	-34.3	-35.0	24.2	0.00e+00	0	31	0	516947968	42	5704
2026-01-27 04:57:24.41	247.64	9.51	-34.3	-34.9	24.3	0.00e+00	0	31	0	523239424	42	5693
2026-01-27 04:57:25.42	247.79	9.56	-34.2	-35.0	24.3	0.00e+00	0	31	0	528482304	42	5714
2026-01-27 04:57:26.43	247.95	9.61	-34.2	-34.9	24.4	0.00e+00	0	31	0	534773760	42	5674
2026-01-27 04:57:27.44	248.10	9.65	-34.3	-35.0	24.2	0.00e+00	0	31	0	540016640	42	5730
2026-01-27 04:57:28.44	248.25	9.70	-33.9	-34.5	24.7	0.00e+00	0	31	0	546308096	42	5430
2026-01-27 04:57:29.45	248.40	9.74	-33.8	-34.5	24.7	0.00e+00	0	31	0	551550976	42	5398
2026-01-27 04:57:30.46	248.56	9.79	-33.8	-34.5	24.7	0.00e+00	0	31	0	556793856	42	5391
2026-01-27 04:57:31.47	248.71	9.83	-33.7	-34.4	24.7	0.00e+00	0	31	0	563085312	40	5992
2026-01-27 04:57:32.48	248.87	9.88	-33.7	-34.4	24.7	0.00e+00	0	31	0	568328192	40	6028
2026-01-27 04:57:33.49	249.02	9.92	-33.8	-34.5	24.7	0.00e+00	0	31	0	574619648	40	6053
2026-01-27 04:57:34.50	249.18	9.97	-33.9	-34.5	24.6	0.00e+00	0	31	0	579862528	40	6102
2026-01-27 04:57:35.51	249.34	10.01	-33.6	-34.3	24.9	0.00e+00	0	31	0	585105408	40	5951
2026-01-27 04:57:36.52	249.49	10.06	-33.5	-34.1	25.1	0.00e+00	0	31	0	591396864	40	5821
2026-01-27 04:57:37.53	249.65	10.10	-33.5	-34.2	25.0	0.00e+00	0	31	0	596639744	40	5863
2026-01-27 04:57:38.54	249.81	10.15	-33.6	-34.3	25.0	0.00e+00	0	31	0	602931200	40	5915
2026-01-27 04:57:39.55	249.97	10.19	-33.6	-34.3	24.9	0.00e+00	0	31	0	608174080	40	5928
2026-01-27 04:57:40.56	250.12	10.24	-33.5	-34.2	24.9	0.00e+00	0	31	0	613416960	40	5875
2026-01-27 04:57:41.57	250.28	10.28	-33.5	-34.2	25.0	0.00e+00	0	31	0	619708416	40	5867
2026-01-27 04:57:42.57	250.44	10.32	-33.6	-34.3	24.9	0.00e+00	0	31	0	624951296	40	5932
2026-01-27 04:57:43.58	250.60	10.37	-33.5	-34.2	25.0	0.00e+00	0	31	0	631242752	40	5839
2026-01-27 04:57:44.59	250.76	10.41	-33.5	-34.2	25.0	0.00e+00	0	31	0	636485632	40	5849
2026-01-27 04:57:45.60	250.92	10.46	-33.6	-34.2	24.9	0.00e+00	0	31	0	642777088	40	5871
2026-01-27 04:57:46.61	251.08	10.50	-33.5	-34.1	25.0	0.00e+00	0	31	0	648019968	40	5822
2026-01-27 04:57:47.62	251.25	10.54	-33.6	-34.3	24.9	0.00e+00	0	31	0	654311424	40	5907
2026-01-27 04:57:48.63	251.41	10.59	-33.5	-34.2	25.0	0.00e+00	0	31	0	659554304	40	5862
2026-01-27 04:57:49.64	251.57	10.63	-33.5	-34.2	25.0	0.00e+00	0	31	0	664797184	40	5871
2026-01-27 04:57:50.65	251.73	10.67	-33.4	-34.1	25.1	0.00e+00	0	31	0	671088640	40	5774
2026-01-27 04:57:51.66	251.90	10.72	-33.3	-34.0	25.1	0.00e+00	0	31	0	676331520	40	5705
2026-01-27 04:57:52.67	252.06	10.76	-33.4	-34.1	25.0	0.00e+00	0	31	0	682622976	40	5798
2026-01-27 04:57:53.68	252.23	10.80	-33.3	-34.0	25.0	0.00e+00	0	31	0	687865856	40	5743
2026-01-27 04:57:54.68	252.39	10.84	-33.4	-34.1	25.0	0.00e+00	0	31	0	693108736	40	5799
2026-01-27 04:57:55.69	252.56	10.89	-33.4	-34.1	25.1	0.00e+00	0	31	0	699400192	40	5797
2026-01-27 04:57:56.70	252.72	10.93	-33.4	-34.1	24.9	0.00e+00	0	31	0	704643072	40	5811
2026-01-27 04:57:57.71	252.89	10.97	-33.5	-34.2	25.0	0.00e+00	0	31	0	709885952	40	5895
2026-01-27 04:57:58.72	253.06	11.01	-33.4	-34.1	25.1	0.00e+00	0	31	0	716177408	40	5798
2026-01-27 04:57:59.73	253.22	11.05	-33.4	-34.0	25.1	0.00e+00	0	31	0	721420288	40	5761
2026-01-27 04:58:00.74	253.39	11.10	-33.4	-34.1	25.1	0.00e+00	0	31	0	727711744	40	5780
2026-01-27 04:58:01.75	253.56	11.14	-33.5	-34.1	25.0	0.00e+00	0	31	0	732954624	40	5812
2026-01-27 04:58:02.75	253.73	11.18	-33.4	-34.0	25.3	0.00e+00	0	31	0	739246080	40	5723
2026-01-27 04:58:03.76	253.90	11.22	-33.2	-33.9	25.3	0.00e+00	0	31	0	744488960	40	5637
2026-01-27 04:58:04.77	254.07	11.26	-33.2	-33.9	25.2	0.00e+00	0	31	0	750780416	40	5643
2026-01-27 04:58:05.79	254.24	11.30	-33.3	-34.0	25.2	0.00e+00	0	31	0	756023296	40	5730
2026-01-27 04:58:06.80	254.41	11.34	-33.3	-34.0	25.2	0.00e+00	0	31	0	761266176	40	5723
2026-01-27 04:58:07.81	254.58	11.38	-33.3	-34.0	25.2	0.00e+00	0	31	0	767557632	40	5729
2026-01-27 04:58:08.82	254.75	11.42	-33.3	-34.1	25.2	0.00e+00	0	31	0	772800512	40	5762
2026-01-27 04:58:09.82	254.92	11.46	-33.1	-33.7	25.4	0.00e+00	0	31	0	779091968	40	5557
2026-01-27 04:58:10.83	255.09	11.50	-33.0	-33.6	25.5	0.00e+00	0	31	0	784334848	40	5488
2026-01-27 04:58:11.84	255.27	11.54	-33.0	-33.6	25.5	0.00e+00	0	31	0	789577728	40	5488
2026-01-27 04:58:12.85	255.44	11.58	-33.0	-33.6	25.5	0.00e+00	0	31	0	795869184	40	5485
2026-01-27 04:58:13.86	255.61	11.62	-33.0	-33.7	25.5	0.00e+00	0	31	0	801112064	40	5513
2026-01-27 04:58:14.87	255.79	11.66	-33.0	-33.7	25.5	0.00e+00	0	31	0	807403520	40	5538
2026-01-27 04:58:15.88	255.96	11.70	-33.0	-33.7	25.5	0.00e+00	0	31	0	812646400	40	5524
2026-01-27 04:58:16.89	256.14	11.74	-32.9	-33.5	25.6	0.00e+00	0	31	0	817889280	40	5425
2026-01-27 04:58:17.90	256.31	11.78	-33.1	-33.7	25.4	0.00e+00	0	31	0	824180736	40	5536
2026-01-27 04:58:18.91	256.49	11.82	-32.9	-33.6	25.6	0.00e+00	0	31	0	829423616	40	5457
2026-01-27 04:58:19.92	256.67	11.86	-33.0	-33.7	25.5	0.00e+00	0	31	0	835715072	40	5508
2026-01-27 04:58:20.93	256.84	11.90	-33.1	-33.7	25.4	0.00e+00	0	31	0	840957952	40	5547
2026-01-27 04:58:21.94	257.02	11.93	-33.2	-33.8	25.3	0.00e+00	0	31	0	847249408	40	5627
2026-01-27 04:58:22.95	257.20	11.97	-33.2	-33.8	25.4	0.00e+00	0	31	0	852492288	40	5626
2026-01-27 04:58:23.96	257.38	12.01	-33.1	-33.8	25.4	0.00e+00	0	31	0	858783744	40	5599
2026-01-27 04:58:24.97	257.56	12.05	-33.2	-33.9	25.3	0.00e+00	0	31	0	864026624	40	5651
2026-01-27 04:58:25.98	257.74	12.09	-33.0	-33.7	25.5	0.00e+00	0	31	0	869269504	40	5558
2026-01-27 04:58:27.00	257.92	12.12	-33.1	-33.8	25.4	0.00e+00	0	31	0	875560960	40	5602
2026-01-27 04:58:28.01	258.10	12.16	-33.1	-33.7	25.5	0.00e+00	0	31	0	880803840	40	5556
2026-01-27 04:58:29.01	258.28	12.20	-33.1	-33.7	25.5	0.00e+00	0	31	0	887095296	40	5555
2026-01-27 04:58:30.02	258.46	12.23	-32.9	-33.6	25.6	0.00e+00	0	31	0	892338176	40	5450
2026-01-27 04:58:31.03	258.64	12.27	-32.9	-33.6	25.6	0.00e+00	0	31	0	897581056	40	5462
2026-01-27 04:58:32.04	258.82	12.31	-32.8	-33.5	25.6	0.00e+00	0	31	0	903872512	40	5388
2026-01-27 04:58:33.05	259.00	12.34	-32.8	-33.5	25.7	0.00e+00	0	31	0	909115392	40	5408
2026-01-27 04:58:34.06	259.19	12.38	-32.9	-33.5	25.6	0.00e+00	0	31	0	915406848	40	5434
2026-01-27 04:58:35.07	259.37	12.41	-32.9	-33.5	25.6	0.00e+00	0	31	0	920649728	40	5438
2026-01-27 04:58:36.09	259.55	12.45	-33.0	-33.7	25.5	0.00e+00	0	31	0	925892608	40	5520
2026-01-27 04:58:37.10	259.74	12.48	-33.1	-33.8	25.5	0.00e+00	0	31	0	932184064	40	5604
2026-01-27 04:58:38.10	259.92	12.52	-33.2	-33.9	25.3	0.00e+00	0	31	0	937426944	40	5663
2026-01-27 04:58:39.11	260.11	12.55	-33.1	-33.8	25.4	0.00e+00	0	31	0	943718400	40	5590
2026-01-27 04:58:40.12	260.29	12.59	-33.1	-33.8	25.3	0.00e+00	0	31	0	948961280	40	5613
2026-01-27 04:58:41.13	260.48	12.62	-33.0	-33.7	25.5	0.00e+00	0	31	0	955252736	40	5509
2026-01-27 04:58:42.14	260.66	12.66	-32.8	-33.5	25.7	0.00e+00	0	31	0	960495616	40	5411
2026-01-27 04:58:43.15	260.85	12.69	-32.7	-33.4	25.7	0.00e+00	0	31	0	965738496	38	5979
2026-01-27 04:58:44.16	261.04	12.72	-32.7	-33.3	25.8	0.00e+00	0	31	0	972029952	38	5957
2026-01-27 04:58:45.16	261.22	12.76	-32.6	-33.2	26.0	0.00e+00	0	31	0	977272832	38	5856
2026-01-27 04:58:46.17	261.41	12.79	-32.6	-33.2	25.9	0.00e+00	0	31	0	983564288	38	5895
2026-01-27 04:58:47.18	261.60	12.82	-32.6	-33.2	25.9	0.00e+00	0	31	0	988807168	38	5869
2026-01-27 04:58:48.19	261.79	12.86	-32.6	-33.2	25.8	0.00e+00	0	31	0	994050048	38	5886
2026-01-27 04:58:49.20	261.98	12.89	-32.7	-33.3	25.8	0.00e+00	0	31	0	1000341504	38	5964
2026-01-27 04:58:50.21	262.16	12.92	-32.8	-33.5	25.7	0.00e+00	0	31	0	1005584384	38	6054
2026-01-27 04:58:51.22	262.35	12.95	-32.9	-33.6	25.6	0.00e+00	0	31	0	1011875840	38	6121
2026-01-27 04:58:52.22	262.54	12.98	-33.0	-33.7	25.5	0.00e+00	0	31	0	1017118720	38	6231
2026-01-27 04:58:53.23	262.73	13.02	-33.0	-33.6	25.6	0.00e+00	0	31	0	1022361600	38	6163
2026-01-27 04:58:54.24	262.92	13.05	-32.8	-33.4	25.7	0.00e+00	0	31	0	1028653056	38	6028
2026-01-27 04:58:55.25	263.12	13.08	-32.8	-33.4	25.8	0.00e+00	0	31	0	1033895936	38	6025
2026-01-27 04:58:56.27	263.31	13.11	-32.7	-33.4	25.8	0.00e+00	0	31	0	1040187392	38	5973
2026-01-27 04:58:57.28	263.50	13.14	-32.7	-33.3	25.9	0.00e+00	0	31	0	1045430272	38	5951
2026-01-27 04:58:58.28	263.69	13.17	-32.6	-33.3	25.8	0.00e+00	0	31	0	1051721728	38	5913
2026-01-27 04:58:59.29	263.89	13.20	-32.6	-33.2	25.8	0.00e+00	0	31	0	1056964608	38	5837
2026-01-27 04:59:00.30	264.08	13.23	-32.5	-33.1	26.0	0.00e+00	0	31	0	1062207488	38	5814
2026-01-27 04:59:01.31	264.27	13.26	-32.4	-33.1	26.0	0.00e+00	0	31	0	1068498944	38	5772
2026-01-27 04:59:02.32	264.47	13.29	-32.5	-33.1	25.8	0.00e+00	0	31	0	1073741824	38	5812
2026-01-27 04:59:03.33	264.66	13.32	-32.8	-33.4	25.9	0.00e+00	0	31	0	1080033280	38	5969
2026-01-27 04:59:04.34	264.86	13.35	-32.7	-33.4	25.8	0.00e+00	0	31	0	1085276160	38	6004
2026-01-27 04:59:05.35	265.05	13.37	-32.7	-33.4	25.8	0.00e+00	0	31	0	1090519040	38	5995
2026-01-27 04:59:06.36	265.25	13.40	-32.7	-33.3	25.8	0.00e+00	0	31	0	1096810496	38	5964
2026-01-27 04:59:07.37	265.44	13.43	-32.7	-33.3	25.9	0.00e+00	0	31	0	1102053376	38	5961
2026-01-27 04:59:08.38	265.64	13.46	-32.7	-33.4	25.8	0.00e+00	0	31	0	1108344832	38	5983
2026-01-27 04:59:09.39	265.83	13.49	-32.8	-33.5	25.8	0.00e+00	0	31	0	1113587712	38	6060
2026-01-27 04:59:10.40	266.03	13.51	-32.7	-33.4	25.8	0.00e+00	0	31	0	1118830592	38	5981
2026-01-27 04:59:11.40	266.23	13.54	-32.9	-33.6	25.6	0.00e+00	0	31	0	1125122048	38	6131
2026-01-27 04:59:12.41	266.42	13.57	-32.8	-33.5	25.8	0.00e+00	0	31	0	1130364928	38	6040
2026-01-27 04:59:13.42	266.62	13.59	-32.7	-33.4	25.8	0.00e+00	0	31	0	1136656384	38	6004
2026-01-27 04:59:14.43	266.82	13.62	-32.8	-33.4	25.8	0.00e+00	0	31	0	1141899264	38	6023
2026-01-27 04:59:15.44	267.02	13.64	-32.8	-33.5	25.7	0.00e+00	0	31	0	1148190720	38	6068
2026-01-27 04:59:16.45	267.22	13.67	-32.7	-33.3	25.8	0.00e+00	0	31	0	1153433600	38	5962
2026-01-27 04:59:17.46	267.42	13.69	-32.6	-33.3	25.9	0.00e+00	0	31	0	1158676480	38	5931
2026-01-27 04:59:18.46	267.61	13.72	-32.6	-33.3	25.8	0.00e+00	0	31	0	1164967936	38	5926
2026-01-27 04:59:19.48	267.82	13.74	-32.6	-33.3	25.8	0.00e+00	0	31	0	1170210816	38	5904
2026-01-27 04:59:20.49	268.02	13.77	-32.8	-33.5	25.7	0.00e+00	0	31	0	1176502272	38	6052
2026-01-27 04:59:21.50	268.22	13.79	-32.7	-33.3	25.9	0.00e+00	0	31	0	1181745152	38	5946
2026-01-27 04:59:22.51	268.42	13.82	-32.7	-33.3	25.9	0.00e+00	0	31	0	1186988032	38	5958
2026-01-27 04:59:23.52	268.62	13.84	-32.5	-33.2	25.9	0.00e+00	0	31	0	1193279488	38	5857
2026-01-27 04:59:24.53	268.82	13.86	-32.5	-33.1	26.0	0.00e+00	0	31	0	1198522368	38	5825
2026-01-27 04:59:25.54	269.02	13.88	-32.4	-33.0	26.1	0.00e+00	0	31	0	1204813824	38	5748
2026-01-27 04:59:26.55	269.22	13.91	-32.6	-33.3	25.9	0.00e+00	0	31	0	1210056704	38	5938
2026-01-27 04:59:27.56	269.43	13.93	-32.5	-33.1	26.0	0.00e+00	0	31	0	1215299584	38	5803
2026-01-27 04:59:28.57	269.63	13.95	-32.6	-33.3	25.9	0.00e+00	0	31	0	1221591040	38	5902
2026-01-27 04:59:29.57	269.83	13.97	-32.4	-33.1	26.1	0.00e+00	0	31	0	1226833920	38	5782
2026-01-27 04:59:30.58	270.03	13.99	-32.5	-33.1	26.0	0.00e+00	0	31	0	1233125376	38	5785
2026-01-27 04:59:31.59	270.24	14.01	-32.5	-33.1	26.0	0.00e+00	0	31	0	1238368256	38	5811
2026-01-27 04:59:32.60	270.44	14.03	-32.4	-33.0	26.1	0.00e+00	0	31	0	1244659712	38	5736
2026-01-27 04:59:33.61	270.64	14.05	-32.4	-33.1	26.1	0.00e+00	0	31	0	1249902592	38	5776
2026-01-27 04:59:34.62	270.85	14.07	-32.4	-33.0	26.1	0.00e+00	0	31	0	1256194048	38	5710
2026-01-27 04:59:35.63	271.05	14.09	-32.5	-33.1	26.1	0.00e+00	0	31	0	1261436928	38	5780
2026-01-27 04:59:36.64	271.26	14.11	-32.3	-32.9	26.2	0.00e+00	0	31	0	1266679808	38	5674
2026-01-27 04:59:37.65	271.46	14.13	-32.3	-32.9	26.2	0.00e+00	0	31	0	1272971264	38	5686
2026-01-27 04:59:38.66	271.67	14.15	-32.2	-32.8	26.2	0.00e+00	0	31	0	1278214144	38	5594
2026-01-27 04:59:39.67	271.87	14.17	-32.2	-32.9	26.2	0.00e+00	0	31	0	1284505600	38	5645
2026-01-27 04:59:40.68	272.08	14.19	-32.2	-32.8	26.2	0.00e+00	0	31	0	1289748480	38	5610
2026-01-27 04:59:41.69	272.28	14.20	-32.4	-33.0	26.2	0.00e+00	0	31	0	1294991360	38	5727
2026-01-27 04:59:42.70	272.49	14.22	-32.4	-33.1	26.1	0.00e+00	0	31	0	1301282816	38	5797
2026-01-27 04:59:43.71	272.70	14.24	-32.5	-33.2	26.1	0.00e+00	0	31	0	1306525696	38	5831
2026-01-27 04:59:44.72	272.90	14.26	-32.5	-33.1	26.0	0.00e+00	0	31	0	1312817152	38	5819
2026-01-27 04:59:45.72	273.11	14.27	-32.7	-33.4	25.8	0.00e+00	0	31	0	1318060032	38	6018
2026-01-27 04:59:46.74	273.32	14.29	-32.8	-33.4	25.8	0.00e+00	0	31	0	1323302912	38	6030
2026-01-27 04:59:47.74	273.52	14.30	-32.8	-33.5	25.7	0.00e+00	0	31	0	1329594368	38	6059
2026-01-27 04:59:48.75	273.73	14.32	-32.9	-33.6	25.7	0.00e+00	0	31	0	1334837248	38	6105
2026-01-27 04:59:49.76	273.94	14.33	-32.7	-33.3	25.8	0.00e+00	0	31	0	1341128704	38	5949
2026-01-27 04:59:50.77	274.15	14.35	-32.7	-33.3	25.9	0.00e+00	0	31	0	1346371584	38	5935
2026-01-27 04:59:51.78	274.35	14.36	-32.7	-33.4	25.7	0.00e+00	0	31	0	1352663040	38	5971
2026-01-27 04:59:52.79	274.56	14.38	-32.7	-33.4	25.7	0.00e+00	0	31	0	1357905920	38	5987
2026-01-27 04:59:53.80	274.77	14.39	-32.3	-33.0	26.2	0.00e+00	0	31	0	1363148800	38	5742
2026-01-27 04:59:54.81	274.98	14.40	-32.4	-33.0	26.1	0.00e+00	0	31	0	1369440256	38	5760
2026-01-27 04:59:55.82	275.19	14.42	-32.4	-33.1	26.1	0.00e+00	0	31	0	1374683136	38	5766
2026-01-27 04:59:56.83	275.40	14.43	-32.4	-33.0	26.1	0.00e+00	0	31	0	1380974592	38	5754
2026-01-27 04:59:57.84	275.61	14.44	-32.5	-33.1	26.0	0.00e+00	0	31	0	1386217472	38	5824
2026-01-27 04:59:58.85	275.82	14.45	-32.5	-33.2	26.0	0.00e+00	0	31	0	1391460352	38	5858
2026-01-27 04:59:59.86	276.02	14.46	-32.6	-33.2	25.9	0.00e+00	0	31	0	1397751808	38	5891
2026-01-27 05:00:00.87	276.23	14.47	-32.6	-33.4	25.9	0.00e+00	0	31	0	1402994688	38	5968
2026-01-27 05:00:01.88	276.44	14.49	-32.5	-33.2	26.0	0.00e+00	0	31	0	1409286144	38	5855
2026-01-27 05:00:02.89	276.65	14.50	-32.4	-33.1	26.2	0.00e+00	0	31	0	1414529024	38	5764
2026-01-27 05:00:03.90	276.86	14.51	-32.3	-33.0	26.2	0.00e+00	0	31	0	1419771904	38	5700
2026-01-27 05:00:04.91	277.07	14.52	-32.3	-33.0	26.2	0.00e+00	0	31	0	1426063360	38	5702
2026-01-27 05:00:05.92	277.28	14.53	-32.5	-33.1	26.1	0.00e+00	0	31	0	1431306240	38	5785
2026-01-27 05:00:06.93	277.49	14.53	-32.4	-33.1	26.0	0.00e+00	0	32	0	1437597696	38	5765
2026-01-27 05:00:07.93	277.70	14.54	-32.3	-32.9	26.2	0.00e+00	0	31	0	1442840576	38	5670
2026-01-27 05:00:08.94	277.91	14.55	-32.3	-32.9	26.2	0.00e+00	0	31	0	1449132032	38	5681
2026-01-27 05:00:09.95	278.12	14.56	-32.2	-32.8	26.2	0.00e+00	0	31	0	1454374912	38	5611
2026-01-27 05:00:10.96	278.34	14.57	-32.2	-32.8	26.3	0.00e+00	0	31	0	1459617792	38	5608
2026-01-27 05:00:11.97	278.55	14.57	-32.3	-32.9	26.2	0.00e+00	0	31	0	1465909248	38	5695
2026-01-27 05:00:12.98	278.76	14.58	-32.2	-32.8	26.3	0.00e+00	0	31	0	1471152128	38	5584
2026-01-27 05:00:13.99	278.97	14.59	-32.3	-33.0	26.3	0.00e+00	0	31	0	1477443584	38	5703
2026-01-27 05:00:15.00	279.18	14.59	-32.3	-32.9	26.2	0.00e+00	0	31	0	1482686464	38	5678
2026-01-27 05:00:16.00	279.39	14.60	-32.3	-32.9	26.2	0.00e+00	0	31	0	1487929344	38	5676
2026-01-27 05:00:17.01	279.60	14.61	-32.3	-32.9	26.2	0.00e+00	0	31	0	1494220800	38	5671
2026-01-27 05:00:18.02	279.81	14.61	-32.4	-33.0	26.1	0.00e+00	0	31	0	1499463680	38	5761
2026-01-27 05:00:19.03	280.02	14.62	-32.5	-33.1	26.1	0.00e+00	0	31	0	1505755136	38	5826
2026-01-27 05:00:20.05	280.24	14.62	-32.2	-32.9	26.2	0.00e+00	0	31	0	1510998016	38	5638
2026-01-27 05:00:21.05	280.45	14.62	-32.4	-33.0	26.1	0.00e+00	0	31	0	1516240896	38	5750
2026-01-27 05:00:22.06	280.66	14.63	-32.4	-33.0	26.1	0.00e+00	0	31	0	1522532352	38	5722
2026-01-27 05:00:23.07	280.87	14.63	-32.6	-33.2	26.0	0.00e+00	0	31	0	1527775232	38	5879
2026-01-27 05:00:24.08	281.08	14.63	-32.6	-33.3	25.9	0.00e+00	0	31	0	1534066688	38	5918
2026-01-27 05:00:25.09	281.29	14.64	-32.5	-33.1	26.0	0.00e+00	0	31	0	1539309568	38	5816
2026-01-27 05:00:26.10	281.51	14.64	-32.5	-33.2	26.1	0.00e+00	0	31	0	1545601024	38	5858
2026-01-27 05:00:27.11	281.72	14.64	-32.6	-33.2	26.0	0.00e+00	0	31	0	1550843904	38	5878
2026-01-27 05:00:28.12	281.93	14.64	-32.6	-33.3	25.9	0.00e+00	0	31	0	1557135360	38	5932
2026-01-27 05:00:29.13	282.14	14.64	-32.5	-33.1	25.9	0.00e+00	0	31	0	1562378240	38	5819
2026-01-27 05:00:30.14	282.35	14.64	-32.5	-33.2	26.0	0.00e+00	0	31	0	1567621120	38	5849
2026-01-27 05:00:31.15	282.56	14.64	-32.5	-33.1	26.0	0.00e+00	0	31	0	1573912576	38	5827
2026-01-27 05:00:32.16	282.78	14.64	-32.6	-33.2	26.0	0.00e+00	0	31	0	1579155456	38	5866
2026-01-27 05:00:33.17	282.99	14.64	-32.4	-33.1	26.1	0.00e+00	0	31	0	1585446912	38	5810
2026-01-27 05:00:34.18	283.20	14.64	-32.5	-33.1	26.1	0.00e+00	0	31	0	1590689792	38	5820
2026-01-27 05:00:35.19	283.41	14.64	-32.5	-33.1	26.1	0.00e+00	0	31	0	1595932672	38	5809
2026-01-27 05:00:36.20	283.62	14.64	-32.4	-33.1	26.0	0.00e+00	0	31	0	1602224128	38	5773
2026-01-27 05:00:37.21	283.84	14.64	-32.7	-33.3	26.0	0.00e+00	0	31	0	1607467008	38	5950
2026-01-27 05:00:38.22	284.05	14.64	-32.5	-33.1	26.0	0.00e+00	0	31	0	1613758464	38	5796
2026-01-27 05:00:39.23	284.26	14.63	-32.4	-33.1	26.1	0.00e+00	0	31	0	1619001344	38	5793
2026-01-27 05:00:40.24	284.47	14.63	-32.6	-33.2	26.0	0.00e+00	0	31	0	1624244224	38	5882
2026-01-27 05:00:41.25	284.68	14.63	-32.6	-33.3	25.9	0.00e+00	0	31	0	1630535680	38	5961
2026-01-27 05:00:42.26	284.89	14.62	-32.8	-33.5	25.8	0.00e+00	0	31	0	1635778560	38	6051
2026-01-27 05:00:43.27	285.11	14.62	-32.6	-33.2	25.9	0.00e+00	0	31	0	1642070016	38	5851
2026-01-27 05:00:44.28	285.32	14.62	-32.6	-33.2	25.9	0.00e+00	0	31	0	1647312896	38	5873
2026-01-27 05:00:45.28	285.53	14.61	-32.6	-33.2	25.9	0.00e+00	0	31	0	1653604352	38	5840
2026-01-27 05:00:46.29	285.74	14.61	-32.6	-33.3	25.8	0.00e+00	0	31	0	1658847232	38	5926
2026-01-27 05:00:47.30	285.95	14.60	-32.7	-33.4	25.4	0.00e+00	0	31	0	1664090112	38	5968
2026-01-27 05:00:48.32	286.16	14.60	-32.6	-33.2	25.9	0.00e+00	0	31	0	1670381568	38	5870
2026-01-27 05:00:49.33	286.37	14.59	-32.6	-33.3	25.8	0.00e+00	0	31	0	1675624448	38	5951
2026-01-27 05:00:50.33	286.58	14.58	-32.5	-33.2	26.0	0.00e+00	0	31	0	1681915904	38	5840
2026-01-27 05:00:51.34	286.79	14.58	-32.6	-33.3	25.9	0.00e+00	0	31	0	1687158784	38	5915
2026-01-27 05:00:52.35	287.00	14.57	-32.6	-33.3	25.9	0.00e+00	0	31	0	1692401664	38	5925
2026-01-27 05:00:53.36	287.22	14.56	-32.6	-33.3	25.9	0.00e+00	0	31	0	1698693120	38	5936
2026-01-27 05:00:54.37	287.43	14.55	-32.7	-33.4	25.8	0.00e+00	0	31	0	1703936000	38	6012
2026-01-27 05:00:55.38	287.64	14.55	-32.6	-33.2	25.9	0.00e+00	0	31	0	1710227456	38	5879
2026-01-27 05:00:56.39	287.85	14.54	-32.6	-33.3	25.9	0.00e+00	0	31	0	1715470336	38	5897
2026-01-27 05:00:57.40	288.06	14.53	-32.4	-33.1	26.1	0.00e+00	0	31	0	1720713216	38	5784
2026-01-27 05:00:58.41	288.27	14.52	-32.4	-33.1	26.1	0.00e+00	0	31	0	1727004672	38	5787
2026-01-27 05:00:59.42	288.48	14.51	-32.5	-33.1	26.0	0.00e+00	0	31	0	1732247552	38	5803
2026-01-27 05:01:00.43	288.69	14.50	-32.5	-33.1	26.0	0.00e+00	0	31	0	1738539008	38	5822
2026-01-27 05:01:01.44	288.90	14.49	-32.5	-33.1	26.0	0.00e+00	0	31	0	1743781888	38	5821
2026-01-27 05:01:02.45	289.11	14.48	-32.5	-33.2	26.0	0.00e+00	0	31	0	1750073344	38	5841
2026-01-27 05:01:03.46	289.32	14.47	-32.6	-33.3	25.9	0.00e+00	0	31	0	1755316224	38	5904
2026-01-27 05:01:04.46	289.52	14.46	-32.7	-33.3	25.9	0.00e+00	0	31	0	1761607680	38	5923
2026-01-27 05:01:05.47	289.73	14.44	-32.7	-33.3	25.8	0.00e+00	0	31	0	1766850560	38	5947
2026-01-27 05:01:06.48	289.94	14.43	-32.7	-33.3	25.8	0.00e+00	0	31	0	1772093440	38	5945
2026-01-27 05:01:07.49	290.15	14.42	-32.8	-33.4	25.8	0.00e+00	0	31	0	1778384896	38	6024
2026-01-27 05:01:08.50	290.36	14.41	-32.8	-33.4	25.8	0.00e+00	0	31	0	1783627776	38	6016
2026-01-27 05:01:09.51	290.57	14.39	-32.7	-33.4	25.8	0.00e+00	0	31	0	1788870656	38	5998
2026-01-27 05:01:10.52	290.77	14.38	-32.7	-33.3	25.8	0.00e+00	0	31	0	1795162112	38	5932
2026-01-27 05:01:11.53	290.98	14.37	-32.6	-33.3	25.9	0.00e+00	0	31	0	1800404992	38	5932
2026-01-27 05:01:12.54	291.19	14.35	-32.7	-33.3	25.9	0.00e+00	0	31	0	1806696448	38	5958
2026-01-27 05:01:13.55	291.40	14.34	-32.7	-33.3	25.9	0.00e+00	0	31	0	1811939328	38	5947
2026-01-27 05:01:14.56	291.61	14.32	-32.7	-33.3	25.9	0.00e+00	0	31	0	1817182208	38	5957
2026-01-27 05:01:15.57	291.81	14.31	-32.6	-33.2	25.9	0.00e+00	0	31	0	1823473664	38	5875
2026-01-27 05:01:16.58	292.02	14.29	-32.7	-33.4	25.9	0.00e+00	0	31	0	1828716544	38	5987
2026-01-27 05:01:17.59	292.23	14.28	-32.9	-33.6	25.8	0.00e+00	0	31	0	1835008000	38	6142
2026-01-27 05:01:18.60	292.43	14.26	-32.6	-33.2	25.9	0.00e+00	0	31	0	1840250880	38	5880
2026-01-27 05:01:19.61	292.64	14.24	-32.6	-33.2	25.9	0.00e+00	0	31	0	1846542336	38	5888
2026-01-27 05:01:20.62	292.85	14.23	-32.7	-33.3	25.9	0.00e+00	0	31	0	1851785216	38	5935
2026-01-27 05:01:21.63	293.05	14.21	-32.6	-33.3	25.9	0.00e+00	0	31	0	1858076672	38	5920
2026-01-27 05:01:22.64	293.26	14.19	-32.7	-33.3	25.9	0.00e+00	0	31	0	1863319552	38	5959
2026-01-27 05:01:23.65	293.46	14.18	-32.7	-33.4	25.9	0.00e+00	0	31	0	1868562432	38	5992
2026-01-27 05:01:24.66	293.67	14.16	-32.7	-33.3	25.8	0.00e+00	0	31	0	1874853888	38	5955
2026-01-27 05:01:25.67	293.87	14.14	-32.6	-33.3	25.9	0.00e+00	0	31	0	1880096768	38	5906
2026-01-27 05:01:26.68	294.08	14.12	-32.7	-33.3	26.0	0.00e+00	0	31	0	1886388224	38	5947
2026-01-27 05:01:27.69	294.28	14.10	-32.6	-33.3	25.9	0.00e+00	0	31	0	1891631104	38	5933
2026-01-27 05:01:28.70	294.49	14.08	-32.7	-33.3	25.8	0.00e+00	0	31	0	1896873984	38	5964
2026-01-27 05:01:29.71	294.69	14.06	-32.8	-33.4	25.8	0.00e+00	0	31	0	1903165440	38	5987
2026-01-27 05:01:30.72	294.89	14.04	-32.7	-33.3	25.8	0.00e+00	0	31	0	1908408320	38	5963
2026-01-27 05:01:31.73	295.10	14.02	-32.8	-33.4	25.7	0.00e+00	0	31	0	1914699776	38	6017
2026-01-27 05:01:32.74	295.30	14.00	-32.9	-33.6	25.7	0.00e+00	0	31	0	1919942656	38	6118
2026-01-27 05:01:33.75	295.50	13.98	-32.9	-33.6	25.7	0.00e+00	0	31	0	1925185536	38	6110
2026-01-27 05:01:34.76	295.71	13.96	-32.8	-33.5	25.7	0.00e+00	0	31	0	1931476992	38	6075
2026-01-27 05:01:35.77	295.91	13.94	-33.0	-33.6	25.7	0.00e+00	0	31	0	1936719872	38	6149
2026-01-27 05:01:36.77	296.11	13.92	-32.9	-33.7	25.7	0.00e+00	0	31	0	1943011328	38	6186
2026-01-27 05:01:37.78	296.31	13.89	-32.9	-33.6	25.7	0.00e+00	0	31	0	1948254208	38	6146
2026-01-27 05:01:38.79	296.51	13.87	-33.0	-33.6	25.6	0.00e+00	0	31	0	1954545664	38	6146
2026-01-27 05:01:39.80	296.71	13.85	-33.0	-33.6	25.6	0.00e+00	0	31	0	1959788544	38	6171
2026-01-27 05:01:40.81	296.91	13.83	-32.9	-33.5	25.7	0.00e+00	0	31	0	1965031424	38	6081
2026-01-27 05:01:41.82	297.11	13.80	-32.9	-33.5	25.7	0.00e+00	0	31	0	1971322880	38	6103
2026-01-27 05:01:42.83	297.31	13.78	-33.0	-33.7	25.5	0.00e+00	0	31	0	1976565760	38	6220
2026-01-27 05:01:43.84	297.51	13.75	-33.0	-33.6	25.6	0.00e+00	0	31	0	1982857216	38	6171
2026-01-27 05:01:44.84	297.71	13.73	-33.1	-33.8	25.5	0.00e+00	0	31	0	1988100096	38	6293
2026-01-27 05:01:45.85	297.91	13.71	-33.2	-33.9	25.4	0.00e+00	0	31	0	1993342976	38	6371
2026-01-27 05:01:46.86	298.11	13.68	-33.1	-33.7	25.5	0.00e+00	0	31	0	1999634432	38	6195
2026-01-27 05:01:47.87	298.31	13.66	-33.0	-33.8	25.6	0.00e+00	0	31	0	2004877312	38	6256
2026-01-27 05:01:48.88	298.50	13.63	-33.2	-33.9	25.4	0.00e+00	0	31	0	2011168768	38	6335
2026-01-27 05:01:49.88	298.70	13.60	-33.0	-33.6	25.5	0.00e+00	0	31	0	2016411648	38	6157
2026-01-27 05:01:50.90	298.90	13.58	-33.1	-33.7	25.4	0.00e+00	0	31	0	2021654528	38	6201
2026-01-27 05:01:51.90	299.09	13.55	-33.2	-33.9	25.3	0.00e+00	0	31	0	2027945984	38	6321
2026-01-27 05:01:52.91	299.29	13.53	-33.1	-33.8	25.4	0.00e+00	0	31	0	2033188864	38	6284
2026-01-27 05:01:53.93	299.49	13.50	-33.1	-33.7	25.5	0.00e+00	0	31	0	2039480320	38	6209
2026-01-27 05:01:54.93	299.68	13.47	-33.2	-33.9	25.5	0.00e+00	0	31	0	2044723200	38	6354
2026-01-27 05:01:55.94	299.88	13.44	-33.1	-33.7	25.5	0.00e+00	0	31	0	2051014656	38	6187
2026-01-27 05:01:56.95	300.08	13.42	-33.1	-33.7	25.5	0.00e+00	0	31	0	2056257536	38	6243
2026-01-27 05:01:57.96	300.27	13.39	-33.1	-33.7	25.5	0.00e+00	0	31	0	2062548992	38	6210
2026-01-27 05:01:58.97	300.46	13.36	-33.1	-33.7	25.4	0.00e+00	0	31	0	2067791872	38	6230
2026-01-27 05:01:59.98	300.66	13.33	-33.1	-33.9	25.5	0.00e+00	0	32	0	2073034752	38	6330
2026-01-27 05:02:00.99	300.85	13.30	-33.2	-33.8	25.5	0.00e+00	0	31	0	2079326208	38	6298
2026-01-27 05:02:02.00	301.05	13.27	-33.2	-33.9	25.4	0.00e+00	0	32	0	2084569088	38	6320
2026-01-27 05:02:03.01	301.24	13.25	-33.2	-33.9	25.5	0.00e+00	0	31	0	2090860544	38	6342
2026-01-27 05:02:04.02	301.43	13.22	-33.1	-33.8	25.5	0.00e+00	0	31	0	2096103424	38	6279
2026-01-27 05:02:05.03	301.63	13.19	-33.0	-33.6	25.6	0.00e+00	0	32	0	2101346304	38	6163
2026-01-27 05:02:06.04	301.82	13.16	-33.0	-33.5	25.6	0.00e+00	0	31	0	2107637760	38	6098
2026-01-27 05:02:07.05	302.01	13.13	-32.9	-33.5	25.8	0.00e+00	0	32	0	2112880640	38	6101
2026-01-27 05:02:08.07	302.20	13.10	-32.9	-33.5	25.8	0.00e+00	0	31	0	2119172096	38	6095
2026-01-27 05:02:09.07	302.39	13.06	-33.0	-33.8	25.7	0.00e+00	0	31	0	2124414976	38	6252
2026-01-27 05:02:10.08	302.58	13.03	-33.2	-33.9	25.6	0.00e+00	0	31	0	2129657856	38	6352
2026-01-27 05:02:11.09	302.77	13.00	-33.4	-34.1	25.4	0.00e+00	0	31	0	2135949312	38	6521
2026-01-27 05:02:12.10	302.96	12.97	-33.3	-34.0	25.5	0.00e+00	0	31	0	2141192192	38	6432
2026-01-27 05:02:13.11	303.15	12.94	-33.2	-33.8	25.5	0.00e+00	0	31	0	2147483648	38	6312
2026-01-27 05:02:14.12	303.34	12.91	-33.3	-34.0	25.5	0.00e+00	0	31	0	2152726528	38	6450
2026-01-27 05:02:15.13	303.53	12.88	-33.2	-33.9	25.5	0.00e+00	0	31	0	2157969408	38	6332
2026-01-27 05:02:16.14	303.72	12.84	-33.1	-33.7	25.6	0.00e+00	0	31	0	2164260864	38	6224
2026-01-27 05:02:17.15	303.90	12.81	-33.2	-33.9	25.5	0.00e+00	0	31	0	2169503744	38	6379
2026-01-27 05:02:18.16	304.09	12.78	-33.2	-33.9	25.6	0.00e+00	0	31	0	2175795200	38	6318
2026-01-27 05:02:19.17	304.28	12.74	-33.2	-33.8	25.4	0.00e+00	0	31	0	2181038080	38	6300
2026-01-27 05:02:20.18	304.46	12.71	-33.2	-33.8	25.5	0.00e+00	0	31	0	2187329536	38	6296
2026-01-27 05:02:21.19	304.65	12.68	-33.2	-33.9	25.5	0.00e+00	0	31	0	2192572416	38	6339
2026-01-27 05:02:22.20	304.84	12.64	-33.2	-33.8	25.5	0.00e+00	0	31	0	2197815296	38	6280
2026-01-27 05:02:23.21	305.02	12.61	-33.2	-33.8	25.5	0.00e+00	0	31	0	2204106752	38	6255
2026-01-27 05:02:24.22	305.21	12.57	-33.3	-34.0	25.4	0.00e+00	0	31	0	2209349632	38	6435
2026-01-27 05:02:25.22	305.39	12.54	-33.1	-33.8	25.5	0.00e+00	0	31	0	2215641088	38	6247
2026-01-27 05:02:26.24	305.57	12.51	-33.2	-33.9	25.4	0.00e+00	0	31	0	2220883968	38	6379
2026-01-27 05:02:27.25	305.76	12.47	-33.3	-33.9	25.4	0.00e+00	0	31	0	2226126848	38	6358
2026-01-27 05:02:28.26	305.94	12.44	-33.3	-34.0	25.3	0.00e+00	0	31	0	2232418304	38	6416
2026-01-27 05:02:29.27	306.12	12.40	-33.4	-34.1	25.3	0.00e+00	0	31	0	2237661184	38	6467
2026-01-27 05:02:30.28	306.31	12.36	-33.5	-34.1	25.1	0.00e+00	0	31	0	2243952640	38	6532
2026-01-27 05:02:31.29	306.49	12.33	-33.6	-34.4	25.1	0.00e+00	0	31	0	2249195520	40	5985
2026-01-27 05:02:32.30	306.67	12.29	-33.6	-34.3	25.2	0.00e+00	0	31	0	2254438400	40	5902
2026-01-27 05:02:33.30	306.85	12.26	-33.8	-34.4	24.9	0.00e+00	0	31	0	2260729856	40	6017
2026-01-27 05:02:34.31	307.03	12.22	-33.8	-34.5	24.9	0.00e+00	0	31	0	2265972736	40	6078
2026-01-27 05:02:35.32	307.21	12.18	-34.0	-34.7	24.7	0.00e+00	0	31	0	2272264192	40	6243
2026-01-27 05:02:36.33	307.39	12.15	-33.9	-34.6	24.8	0.00e+00	0	31	0	2277507072	40	6106
2026-01-27 05:02:37.34	307.57	12.11	-33.7	-34.4	25.0	0.00e+00	0	31	0	2283798528	40	6022
2026-01-27 05:02:38.35	307.75	12.07	-33.7	-34.4	25.0	0.00e+00	0	31	0	2289041408	40	5975
2026-01-27 05:02:39.36	307.92	12.04	-33.5	-34.2	25.1	0.00e+00	0	31	0	2294284288	40	5846
2026-01-27 05:02:40.37	308.10	12.00	-33.5	-34.2	25.1	0.00e+00	0	31	0	2300575744	40	5874
2026-01-27 05:02:41.38	308.28	11.96	-33.4	-34.1	25.2	0.00e+00	0	31	0	2305818624	40	5769
2026-01-27 05:02:42.39	308.46	11.92	-33.4	-34.1	25.3	0.00e+00	0	31	0	2312110080	40	5787
2026-01-27 05:02:43.40	308.63	11.88	-33.3	-33.9	25.3	0.00e+00	0	31	0	2317352960	40	5677
2026-01-27 05:02:44.41	308.81	11.85	-33.5	-34.2	25.1	0.00e+00	0	31	0	2322595840	40	5879
2026-01-27 05:02:45.41	308.98	11.81	-33.4	-34.1	25.2	0.00e+00	0	31	0	2328887296	40	5785
2026-01-27 05:02:46.42	309.16	11.77	-33.5	-34.2	25.1	0.00e+00	0	31	0	2334130176	40	5889
2026-01-27 05:02:47.43	309.33	11.73	-33.6	-34.3	25.1	0.00e+00	0	31	0	2340421632	40	5920
2026-01-27 05:02:48.44	309.51	11.69	-33.6	-34.3	25.0	0.00e+00	0	31	0	2345664512	40	5921
2026-01-27 05:02:49.46	309.68	11.65	-33.7	-34.4	25.0	0.00e+00	0	31	0	2350907392	40	6003
2026-01-27 05:02:50.47	309.86	11.61	-33.9	-34.5	24.8	0.00e+00	0	31	0	2357198848	40	6077
2026-01-27 05:02:51.48	310.03	11.57	-33.7	-34.4	24.8	0.00e+00	0	31	0	2362441728	40	5989
2026-01-27 05:02:52.49	310.20	11.53	-33.6	-34.3	25.1	0.00e+00	0	31	0	2368733184	40	5953
2026-01-27 05:02:53.50	310.37	11.49	-33.6	-34.2	25.1	0.00e+00	0	31	0	2373976064	40	5865
2026-01-27 05:02:54.50	310.54	11.45	-33.5	-34.3	25.1	0.00e+00	0	31	0	2380267520	40	5909
2026-01-27 05:02:55.52	310.72	11.41	-33.7	-34.4	25.1	0.00e+00	0	31	0	2385510400	40	6003
2026-01-27 05:02:56.52	310.89	11.37	-33.6	-34.3	25.1	0.00e+00	0	31	0	2391801856	40	5907
2026-01-27 05:02:57.53	311.06	11.33	-33.7	-34.4	24.9	0.00e+00	0	31	0	2397044736	40	5966
2026-01-27 05:02:58.54	311.23	11.29	-33.7	-34.4	25.0	0.00e+00	0	31	0	2402287616	40	6013
2026-01-27 05:02:59.55	311.40	11.25	-33.8	-34.4	25.0	0.00e+00	0	31	0	2408579072	40	6021
2026-01-27 05:03:00.56	311.56	11.21	-33.7	-34.4	25.0	0.00e+00	0	31	0	2413821952	40	5979
2026-01-27 05:03:01.57	311.73	11.17	-33.7	-34.5	24.9	0.00e+00	0	31	0	2420113408	40	6036
2026-01-27 05:03:02.58	311.90	11.13	-33.7	-34.4	25.0	0.00e+00	0	31	0	2425356288	40	6027
2026-01-27 05:03:03.59	312.07	11.09	-33.7	-34.4	25.0	0.00e+00	0	31	0	2430599168	40	5999
2026-01-27 05:03:04.60	312.24	11.05	-33.6	-34.2	25.0	0.00e+00	0	31	0	2436890624	40	5889
2026-01-27 05:03:05.61	312.40	11.00	-33.6	-34.3	25.0	0.00e+00	0	31	0	2442133504	40	5921
2026-01-27 05:03:06.62	312.57	10.96	-33.6	-34.2	25.0	0.00e+00	0	31	0	2448424960	40	5894
2026-01-27 05:03:07.63	312.73	10.92	-33.6	-34.3	25.1	0.00e+00	0	31	0	2453667840	40	5897
2026-01-27 05:03:08.64	312.90	10.88	-33.6	-34.3	25.0	0.00e+00	0	31	0	2458910720	40	5943
2026-01-27 05:03:09.65	313.06	10.84	-33.6	-34.3	25.0	0.00e+00	0	31	0	2465202176	40	5915
2026-01-27 05:03:10.66	313.23	10.79	-33.7	-34.3	24.9	0.00e+00	0	31	0	2470445056	40	5948
2026-01-27 05:03:11.67	313.39	10.75	-33.6	-34.3	25.1	0.00e+00	0	31	0	2476736512	40	5941
2026-01-27 05:03:12.68	313.55	10.71	-33.7	-34.4	25.0	0.00e+00	0	31	0	2481979392	40	5977
2026-01-27 05:03:13.69	313.72	10.67	-33.6	-34.2	25.1	0.00e+00	0	31	0	2488270848	40	5848
2026-01-27 05:03:14.69	313.88	10.62	-33.6	-34.3	25.0	0.00e+00	0	31	0	2493513728	40	5960
2026-01-27 05:03:15.70	314.04	10.58	-33.8	-34.4	25.0	0.00e+00	0	31	0	2498756608	40	5995
2026-01-27 05:03:16.72	314.20	10.54	-33.8	-34.4	24.8	0.00e+00	0	31	0	2505048064	40	6030
2026-01-27 05:03:17.72	314.36	10.50	-33.8	-34.6	24.9	0.00e+00	0	31	0	2510290944	40	6109
2026-01-27 05:03:18.73	314.52	10.45	-33.9	-34.5	24.7	0.00e+00	0	31	0	2516582400	40	6099
2026-01-27 05:03:19.75	314.68	10.41	-34.0	-34.6	24.6	0.00e+00	0	31	0	2521825280	40	6167
2026-01-27 05:03:20.76	314.84	10.36	-34.1	-34.8	24.5	0.00e+00	0	31	0	2527068160	40	6282
2026-01-27 05:03:21.76	315.00	10.32	-34.1	-34.9	24.5	0.00e+00	0	31	0	2533359616	40	6365
2026-01-27 05:03:22.77	315.16	10.28	-34.3	-35.1	24.4	0.00e+00	0	31	0	2538602496	40	6499
2026-01-27 05:03:23.78	315.32	10.23	-34.3	-35.0	24.4	0.00e+00	0	31	0	2544893952	40	6395
2026-01-27 05:03:24.80	315.48	10.19	-34.3	-35.0	24.4	0.00e+00	0	31	0	2550136832	40	6426
2026-01-27 05:03:25.81	315.64	10.14	-34.4	-35.1	24.2	0.00e+00	0	31	0	2555379712	40	6467
2026-01-27 05:03:26.82	315.79	10.10	-34.3	-34.9	24.3	0.00e+00	0	31	0	2561671168	40	6359
2026-01-27 05:03:27.83	315.95	10.06	-34.3	-34.9	24.3	0.00e+00	0	31	0	2566914048	40	6388
2026-01-27 05:03:28.84	316.10	10.01	-34.3	-35.1	24.5	0.00e+00	0	31	0	2573205504	40	6470
2026-01-27 05:03:29.85	316.26	9.97	-34.2	-34.9	24.4	0.00e+00	0	31	0	2578448384	40	6387
2026-01-27 05:03:30.86	316.42	9.92	-34.0	-34.7	24.6	0.00e+00	0	31	0	2584739840	40	6211
2026-01-27 05:03:31.87	316.57	9.88	-34.0	-34.6	24.6	0.00e+00	0	31	0	2589982720	40	6157
2026-01-27 05:03:32.88	316.72	9.83	-34.1	-34.7	24.6	0.00e+00	0	31	0	2596274176	40	6210
2026-01-27 05:03:33.89	316.88	9.79	-34.2	-34.8	24.5	0.00e+00	0	31	0	2601517056	40	6280
2026-01-27 05:03:34.90	317.03	9.74	-34.2	-34.8	24.4	0.00e+00	0	31	0	2606759936	40	6286
2026-01-27 05:03:35.91	317.18	9.70	-34.1	-34.8	24.6	0.00e+00	0	31	0	2613051392	40	6247
2026-01-27 05:03:36.92	317.34	9.65	-34.1	-34.8	24.5	0.00e+00	0	31	0	2618294272	40	6294
2026-01-27 05:03:37.93	317.49	9.61	-34.1	-34.9	24.5	0.00e+00	0	31	0	2624585728	40	6325
2026-01-27 05:03:38.94	317.64	9.56	-34.1	-34.7	24.5	0.00e+00	0	31	0	2629828608	40	6226
2026-01-27 05:03:39.95	317.79	9.52	-34.1	-34.7	24.5	0.00e+00	0	31	0	2635071488	40	6231
2026-01-27 05:03:40.96	317.94	9.47	-34.0	-34.7	24.5	0.00e+00	0	31	0	2641362944	40	6192
2026-01-27 05:03:41.97	318.09	9.43	-34.1	-34.7	24.5	0.00e+00	0	31	0	2646605824	40	6229
2026-01-27 05:03:42.98	318.24	9.38	-34.0	-34.7	24.5	0.00e+00	0	31	0	2652897280	40	6191
2026-01-27 05:03:43.99	318.39	9.33	-34.0	-34.6	24.5	0.00e+00	0	31	0	2658140160	40	6158
2026-01-27 05:03:45.00	318.54	9.29	-34.1	-34.7	24.5	0.00e+00	0	31	0	2663383040	40	6198
2026-01-27 05:03:46.00	318.68	9.24	-34.1	-34.8	24.4	0.00e+00	0	31	0	2669674496	40	6276
2026-01-27 05:03:47.01	318.83	9.20	-34.2	-34.8	24.4	0.00e+00	0	31	0	2674917376	40	6282
2026-01-27 05:03:48.02	318.98	9.15	-34.0	-34.7	24.4	0.00e+00	0	31	0	2681208832	40	6208
2026-01-27 05:03:49.03	319.13	9.10	-34.2	-34.8	24.3	0.00e+00	0	31	0	2686451712	40	6307
2026-01-27 05:03:50.04	319.27	9.06	-34.1	-34.8	24.4	0.00e+00	0	31	0	2692743168	40	6281
2026-01-27 05:03:51.05	319.42	9.01	-34.2	-34.8	24.3	0.00e+00	0	31	0	2697986048	40	6289
2026-01-27 05:03:52.06	319.56	8.96	-34.2	-35.0	24.3	0.00e+00	0	31	0	2703228928	40	6398
2026-01-27 05:03:53.07	319.71	8.92	-34.2	-34.9	24.3	0.00e+00	0	31	0	2709520384	40	6360
2026-01-27 05:03:54.08	319.85	8.87	-34.2	-34.9	24.1	0.00e+00	0	31	0	2714763264	40	6385
2026-01-27 05:03:55.09	320.00	8.83	-34.3	-35.0	24.1	0.00e+00	0	31	0	2721054720	40	6443
2026-01-27 05:03:56.10	320.14	8.78	-34.4	-35.1	24.0	0.00e+00	0	31	0	2726297600	40	6492
2026-01-27 05:03:57.11	320.28	8.73	-34.4	-35.2	24.1	0.00e+00	0	31	0	2732589056	40	6553
2026-01-27 05:03:58.12	320.43	8.68	-34.5	-35.3	23.9	0.00e+00	0	31	0	2737831936	40	6659
2026-01-27 05:03:59.13	320.57	8.64	-34.6	-35.3	23.9	0.00e+00	0	31	0	2743074816	40	6628
2026-01-27 05:04:00.14	320.71	8.59	-34.6	-35.4	23.8	0.00e+00	0	31	0	2749366272	40	6738
2026-01-27 05:04:01.15	320.85	8.54	-34.4	-35.1	24.0	0.00e+00	0	31	0	2754609152	40	6507
2026-01-27 05:04:02.16	320.99	8.50	-34.6	-35.3	23.9	0.00e+00	0	31	0	2760900608	40	6619
2026-01-27 05:04:03.17	321.14	8.45	-34.6	-35.2	23.8	0.00e+00	0	31	0	2766143488	40	6585
2026-01-27 05:04:04.19	321.28	8.40	-34.5	-35.2	23.8	0.00e+00	0	31	0	2771386368	40	6543
2026-01-27 05:04:05.20	321.42	8.35	-34.6	-35.4	23.8	0.00e+00	0	31	0	2777677824	40	6700
2026-01-27 05:04:06.20	321.55	8.31	-34.6	-35.4	23.9	0.00e+00	0	31	0	2782920704	40	6708
2026-01-27 05:04:07.21	321.69	8.26	-34.6	-35.4	23.8	0.00e+00	0	31	0	2789212160	40	6694
2026-01-27 05:04:08.22	321.83	8.21	-34.8	-35.5	23.6	0.00e+00	0	31	0	2794455040	42	6045
2026-01-27 05:04:09.23	321.97	8.17	-34.8	-35.4	23.8	0.00e+00	0	31	0	2800746496	42	6026
2026-01-27 05:04:10.24	322.11	8.12	-34.9	-35.7	23.5	0.00e+00	0	31	0	2805989376	42	6175
2026-01-27 05:04:11.26	322.25	8.07	-34.8	-35.5	23.7	0.00e+00	0	31	0	2811232256	42	6091
2026-01-27 05:04:12.27	322.38	8.02	-34.9	-35.6	23.7	0.00e+00	0	31	0	2817523712	42	6112
2026-01-27 05:04:13.27	322.52	7.98	-34.7	-35.4	23.8	0.00e+00	0	31	0	2822766592	42	5970
2026-01-27 05:04:14.28	322.65	7.93	-34.8	-35.5	23.7	0.00e+00	0	31	0	2829058048	42	6063
2026-01-27 05:04:15.29	322.79	7.88	-34.9	-35.7	23.7	0.00e+00	0	31	0	2834300928	42	6179
2026-01-27 05:04:16.30	322.92	7.83	-34.9	-35.6	23.7	0.00e+00	0	31	0	2839543808	42	6146
2026-01-27 05:04:17.31	323.06	7.78	-34.9	-35.5	23.6	0.00e+00	0	31	0	2845835264	42	6102
2026-01-27 05:04:18.32	323.19	7.74	-35.1	-35.8	23.4	0.00e+00	0	31	0	2851078144	42	6269
2026-01-27 05:04:19.33	323.33	7.69	-35.1	-35.9	23.4	0.00e+00	0	31	0	2857369600	42	6357
2026-01-27 05:04:20.34	323.46	7.64	-35.0	-35.8	23.5	0.00e+00	0	31	0	2862612480	42	6280
2026-01-27 05:04:21.35	323.59	7.59	-35.2	-36.0	23.4	0.00e+00	0	31	0	2867855360	42	6422
2026-01-27 05:04:22.36	323.72	7.54	-35.1	-35.8	23.4	0.00e+00	0	31	0	2874146816	42	6312
2026-01-27 05:04:23.37	323.86	7.50	-35.1	-35.7	23.5	0.00e+00	0	31	0	2879389696	42	6227
2026-01-27 05:04:24.38	323.99	7.45	-34.9	-35.7	23.6	0.00e+00	0	31	0	2885681152	42	6206
2026-01-27 05:04:25.39	324.12	7.40	-35.0	-35.7	23.5	0.00e+00	0	31	0	2890924032	42	6235
2026-01-27 05:04:26.40	324.25	7.35	-34.8	-35.6	23.6	0.00e+00	0	31	0	2897215488	42	6151
2026-01-27 05:04:27.41	324.38	7.30	-34.8	-35.5	23.6	0.00e+00	0	31	0	2902458368	42	6092
2026-01-27 05:04:28.42	324.51	7.26	-34.8	-35.5	23.6	0.00e+00	0	31	0	2908749824	42	6055
2026-01-27 05:04:29.43	324.64	7.21	-34.9	-35.6	23.6	0.00e+00	0	31	0	2913992704	42	6143
2026-01-27 05:04:30.44	324.77	7.16	-34.8	-35.6	23.6	0.00e+00	0	31	0	2919235584	42	6125
2026-01-27 05:04:31.45	324.90	7.11	-34.9	-35.6	23.5	0.00e+00	0	31	0	2925527040	42	6116
2026-01-27 05:04:32.46	325.03	7.06	-34.9	-35.6	23.5	0.00e+00	0	31	0	2930769920	42	6161
2026-01-27 05:04:33.47	325.15	7.01	-35.1	-35.9	23.3	0.00e+00	0	31	0	2937061376	42	6345
2026-01-27 05:04:34.48	325.28	6.97	-35.1	-35.8	23.4	0.00e+00	0	31	0	2942304256	42	6302
2026-01-27 05:04:35.49	325.41	6.92	-35.0	-35.7	23.4	0.00e+00	0	31	0	2947547136	42	6219
2026-01-27 05:04:36.50	325.53	6.87	-35.0	-35.8	23.4	0.00e+00	0	31	0	2953838592	42	6252
2026-01-27 05:04:37.51	325.66	6.82	-35.0	-35.7	23.4	0.00e+00	0	31	0	2959081472	42	6212
2026-01-27 05:04:38.52	325.79	6.77	-35.2	-35.9	23.2	0.00e+00	0	31	0	2965372928	42	6327
2026-01-27 05:04:39.53	325.91	6.72	-35.3	-36.1	23.2	0.00e+00	0	31	0	2970615808	42	6465
2026-01-27 05:04:40.54	326.04	6.68	-35.3	-36.0	23.2	0.00e+00	0	31	0	2975858688	42	6429
2026-01-27 05:04:41.55	326.16	6.63	-35.1	-35.8	23.3	0.00e+00	0	31	0	2982150144	42	6263
2026-01-27 05:04:42.56	326.29	6.58	-35.4	-36.1	23.1	0.00e+00	0	31	0	2987393024	42	6488
2026-01-27 05:04:43.57	326.41	6.53	-35.4	-36.1	23.0	0.00e+00	0	31	0	2993684480	42	6518
2026-01-27 05:04:44.58	326.53	6.48	-35.5	-36.2	23.0	0.00e+00	0	31	0	2998927360	42	6592
2026-01-27 05:04:45.59	326.66	6.43	-35.6	-36.4	22.9	0.00e+00	0	31	0	3005218816	42	6698
2026-01-27 05:04:46.60	326.78	6.38	-35.5	-36.2	22.8	0.00e+00	0	31	0	3010461696	42	6598
2026-01-27 05:04:47.61	326.90	6.34	-35.5	-36.2	22.9	0.00e+00	0	31	0	3015704576	42	6580
2026-01-27 05:04:48.62	327.02	6.29	-35.7	-36.4	22.8	0.00e+00	0	31	0	3021996032	42	6712
2026-01-27 05:04:49.63	327.14	6.24	-35.7	-36.5	22.6	0.00e+00	0	31	0	3027238912	42	6811
2026-01-27 05:04:50.64	327.27	6.19	-35.3	-36.0	23.1	0.00e+00	0	31	0	3033530368	44	5743
2026-01-27 05:04:51.65	327.39	6.14	-35.3	-36.0	23.1	0.00e+00	0	31	0	3038773248	44	5711
2026-01-27 05:04:52.65	327.51	6.09	-35.3	-36.1	23.0	0.00e+00	0	31	0	3044016128	44	5789
2026-01-27 05:04:53.66	327.63	6.04	-35.3	-36.1	23.0	0.00e+00	0	31	0	3050307584	44	5819
2026-01-27 05:04:54.67	327.75	5.99	-35.4	-36.2	22.9	0.00e+00	0	31	0	3055550464	44	5855
2026-01-27 05:04:55.68	327.86	5.95	-35.3	-36.0	23.0	0.00e+00	0	31	0	3061841920	44	5755
2026-01-27 05:04:56.69	327.98	5.90	-35.4	-36.2	22.9	0.00e+00	0	31	0	3067084800	44	5875
2026-01-27 05:04:57.70	328.10	5.85	-35.3	-36.0	22.9	0.00e+00	0	31	0	3072327680	44	5729
2026-01-27 05:04:58.71	328.22	5.80	-35.4	-36.2	22.9	0.00e+00	0	31	0	3078619136	44	5837
2026-01-27 05:04:59.72	328.34	5.75	-35.5	-36.2	22.7	0.00e+00	0	31	0	3083862016	44	5889
2026-01-27 05:05:00.72	328.45	5.70	-35.3	-36.0	22.9	0.00e+00	0	31	0	3090153472	44	5747
2026-01-27 05:05:01.73	328.57	5.65	-35.5	-36.2	22.8	0.00e+00	0	31	0	3095396352	44	5831
2026-01-27 05:05:02.74	328.69	5.61	-35.5	-36.2	22.7	0.00e+00	0	31	0	3101687808	44	5879
2026-01-27 05:05:03.75	328.80	5.56	-35.7	-36.4	22.5	0.00e+00	0	31	0	3106930688	44	5965
2026-01-27 05:05:04.76	328.92	5.51	-35.6	-36.3	22.7	0.00e+00	0	31	0	3112173568	44	5920
2026-01-27 05:05:05.77	329.03	5.46	-35.6	-36.4	22.5	0.00e+00	0	31	0	3118465024	44	5990
2026-01-27 05:05:06.78	329.15	5.41	-35.8	-36.6	22.4	0.00e+00	0	31	0	3123707904	44	6135
2026-01-27 05:05:07.78	329.26	5.36	-36.0	-36.9	22.2	0.00e+00	0	31	0	3129999360	44	6358
2026-01-27 05:05:08.80	329.38	5.31	-36.0	-36.8	22.2	0.00e+00	0	31	0	3135242240	44	6298
2026-01-27 05:05:09.81	329.49	5.26	-35.9	-36.7	22.2	0.00e+00	0	31	0	3140485120	44	6193
2026-01-27 05:05:10.81	329.61	5.22	-35.9	-36.6	22.3	0.00e+00	0	31	0	3146776576	44	6154
2026-01-27 05:05:11.82	329.72	5.17	-36.0	-36.8	22.2	0.00e+00	0	31	0	3152019456	44	6288
2026-01-27 05:05:12.83	329.83	5.12	-36.1	-37.0	22.1	0.00e+00	0	31	0	3158310912	44	6447
2026-01-27 05:05:13.84	329.94	5.07	-36.0	-36.9	22.2	0.00e+00	0	31	0	3163553792	44	6340
2026-01-27 05:05:14.85	330.06	5.02	-36.1	-36.9	22.1	0.00e+00	0	31	0	3168796672	44	6352
2026-01-27 05:05:15.86	330.17	4.97	-36.1	-36.9	22.0	0.00e+00	0	31	0	3175088128	44	6336
2026-01-27 05:05:16.87	330.28	4.92	-36.0	-36.8	22.0	0.00e+00	0	31	0	3180331008	44	6259
2026-01-27 05:05:17.87	330.39	4.87	-36.2	-37.0	21.9	0.00e+00	0	31	0	3186622464	44	6436
2026-01-27 05:05:18.88	330.50	4.83	-36.2	-37.0	22.0	0.00e+00	0	31	0	3191865344	44	6410
2026-01-27 05:05:19.90	330.61	4.78	-36.0	-36.7	22.1	0.00e+00	0	31	0	3198156800	44	6200
2026-01-27 05:05:20.90	330.72	4.73	-35.9	-36.8	22.1	0.00e+00	0	31	0	3203399680	44	6257
2026-01-27 05:05:21.91	330.83	4.68	-36.1	-36.9	22.0	0.00e+00	0	32	0	3208642560	44	6360
2026-01-27 05:05:22.92	330.94	4.63	-35.9	-36.7	22.1	0.00e+00	0	31	0	3214934016	44	6236
2026-01-27 05:05:23.93	331.05	4.58	-35.8	-36.6	22.1	0.00e+00	0	31	0	3220176896	44	6155
2026-01-27 05:05:24.94	331.16	4.53	-35.8	-36.7	22.1	0.00e+00	0	31	0	3226468352	44	6194
2026-01-27 05:05:25.94	331.26	4.48	-35.8	-36.7	21.9	0.00e+00	0	31	0	3231711232	44	6200
2026-01-27 05:05:26.95	331.37	4.44	-36.4	-37.2	21.4	0.00e+00	0	31	0	3236954112	44	6576
2026-01-27 05:05:27.96	331.48	4.39	-36.6	-37.4	21.0	0.00e+00	0	31	0	3243245568	44	6747
2026-01-27 05:05:28.98	331.59	4.34	-36.9	-37.7	20.5	0.00e+00	0	31	0	3248488448	46	6238
2026-01-27 05:05:29.99	331.70	4.29	-37.3	-38.3	19.7	0.00e+00	0	31	0	3254779904	46	6617
2026-01-27 05:05:31.00	331.80	4.24	-37.8	-38.9	18.8	0.00e+00	0	32	0	3260022784	48	6377
2026-01-27 05:05:32.01	331.91	4.19	-38.5	-39.6	18.1	0.00e+00	0	31	0	3265265664	48	6880
2026-01-27 05:05:33.02	332.01	4.14	-39.1	-40.5	16.7	0.00e+00	0	31	0	3271557120	50	6792
2026-01-27 05:05:34.03	332.12	4.09	-39.7	-41.3	15.4	0.00e+00	0	31	0	3276800000	50	7456
2026-01-27 05:05:35.03	332.22	4.05	-40.6	-42.6	13.6	3.40e-06	0	31	0	3283091456	52	7712
2026-01-27 05:05:36.05	332.33	4.00	-41.2	-43.6	12.0	2.46e-04	0	31	0	3288334336	54	7739
2026-01-27 05:05:37.05	332.43	3.95	-42.1	-45.2	10.1	4.73e-03	0	31	0	3294625792	56	8309
2026-01-27 05:05:38.06	332.54	3.90	-42.7	-46.7	7.7	6.04e-02	0	31	0	3299868672	56	9893
2026-01-27 05:05:39.08	332.64	3.85	-43.1	-48.2	6.0	2.08e-01	0	31	0	3306160128	58	10365
2026-01-27 05:05:40.09	332.75	3.80	-43.4	-49.3	4.9	7.37e-01	0	31	0	3309305856	58	11824
2026-01-27 05:05:41.10	332.85	3.75	-43.6	-50.8	3.9	8.18e-01	0	31	0	3309305856	58	14087
2026-01-27 05:05:42.11	332.95	3.71	-43.7	-53.3	3.7	8.43e-01	0	31	104	3309305856	58	18822
2026-01-27 05:05:43.12	333.05	3.66	-43.8	-54.4	3.6	8.46e-01	0	31	104	3309305856	60	19016
2026-01-27 05:05:44.12	333.16	3.61	-43.8	-55.1	3.6	8.45e-01	0	31	104	3309305856	60	20531
