passes_logs/2026/01/27/R4.6S_Anadyr/R4.6S_Anadyr__20260127_003348_SUOMI_NPP_rec.log

#Pass ID: 20260127_003348_SUOMI NPP
#Satellite: SUOMI NPP
#Configuration: NPP
#almurnet v.1.7.20251203
#Start time: 2026-01-27 00:33:49

#Version: 2.2.20231116
#Station: R4.6S_Anadyr
#Location: 177.4865 lon 64.73178 lat
#TLE: 1 37849U 11061A   26026.52266023  .00000173  00000+0  10323-3 0  9994
#TLE: 2 37849  98.7822 328.4727 0002140  43.9411 316.1934 14.19530258738341

#Time	Az	El	Level	Level2	SNR	BER	BlckErr	Temp	State	Recorded	gain1	gain2
2026-01-27 00:33:49.22	162.93	0.06	-49.1	-61.7	3.4	1.52e+00	0	25	0	0	60	42666
2026-01-27 00:33:50.22	162.95	0.12	-49.4	-64.5	3.6	1.51e+00	0	26	104	0	60	60890
2026-01-27 00:33:51.23	162.96	0.18	-49.3	-64.5	3.6	1.51e+00	0	26	104	0	60	60652
2026-01-27 00:33:52.24	162.97	0.24	-49.3	-64.5	3.6	1.51e+00	0	26	104	0	60	60854
2026-01-27 00:33:53.25	162.98	0.30	-49.3	-64.5	3.6	1.51e+00	0	26	104	0	60	60614
2026-01-27 00:33:54.26	162.99	0.36	-49.2	-64.5	3.6	1.51e+00	0	26	104	0	60	60615
2026-01-27 00:33:55.27	163.00	0.42	-49.2	-64.5	3.6	1.51e+00	0	26	104	0	60	60532
2026-01-27 00:33:56.28	163.02	0.48	-49.3	-64.5	3.6	1.51e+00	0	26	104	0	60	60867
2026-01-27 00:33:57.29	163.03	0.54	-49.3	-64.6	3.6	1.51e+00	0	26	104	0	60	61280
2026-01-27 00:33:58.30	163.04	0.61	-49.3	-64.5	3.6	1.51e+00	0	26	104	0	60	60955
2026-01-27 00:33:59.32	163.05	0.67	-49.3	-64.5	3.6	1.51e+00	0	26	104	0	60	60592
2026-01-27 00:34:00.32	163.06	0.73	-49.3	-64.5	3.6	1.51e+00	0	26	104	0	60	60561
2026-01-27 00:34:01.33	163.08	0.79	-49.2	-64.4	3.6	1.51e+00	0	26	104	0	60	60081
2026-01-27 00:34:02.34	163.09	0.85	-49.2	-64.4	3.6	1.51e+00	0	26	104	0	60	59786
2026-01-27 00:34:03.35	163.10	0.92	-49.1	-64.3	3.6	1.51e+00	0	26	104	0	60	59090
2026-01-27 00:34:04.36	163.11	0.98	-49.1	-64.3	3.6	1.51e+00	0	26	104	0	60	58963
2026-01-27 00:34:05.37	163.12	1.04	-48.8	-64.1	3.6	1.51e+00	0	26	104	0	60	58282
2026-01-27 00:34:06.38	163.14	1.10	-48.8	-64.1	3.6	1.51e+00	0	26	104	0	60	57719
2026-01-27 00:34:07.40	163.15	1.17	-48.7	-63.9	3.6	1.51e+00	0	26	104	0	60	56880
2026-01-27 00:34:08.40	163.16	1.23	-48.5	-63.7	3.6	1.51e+00	0	26	104	0	60	55313
2026-01-27 00:34:09.41	163.17	1.29	-47.4	-62.5	3.6	1.51e+00	0	26	104	0	60	48159
2026-01-27 00:34:10.42	163.18	1.35	-48.2	-63.3	3.6	1.51e+00	0	27	104	0	60	53012
2026-01-27 00:34:11.43	163.20	1.42	-48.0	-63.2	3.6	1.51e+00	0	26	104	0	60	52082
2026-01-27 00:34:12.44	163.21	1.48	-47.9	-63.0	3.6	1.51e+00	0	26	104	0	60	50854
2026-01-27 00:34:13.45	163.22	1.55	-47.9	-62.9	3.6	1.51e+00	0	26	104	0	60	50455
2026-01-27 00:34:14.46	163.23	1.61	-47.9	-62.9	3.6	1.51e+00	0	27	104	0	60	50737
2026-01-27 00:34:15.47	163.25	1.67	-47.8	-62.9	3.6	1.51e+00	0	26	104	0	60	50288
2026-01-27 00:34:16.48	163.26	1.74	-47.8	-62.9	3.6	1.51e+00	0	27	104	0	60	50580
2026-01-27 00:34:17.49	163.27	1.80	-47.8	-62.9	3.6	1.51e+00	0	26	104	0	60	50676
2026-01-27 00:34:18.50	163.28	1.87	-47.8	-62.9	3.6	1.51e+00	0	27	104	0	60	50565
2026-01-27 00:34:19.51	163.30	1.93	-47.8	-63.0	3.6	1.51e+00	0	27	104	0	60	50906
2026-01-27 00:34:20.52	163.31	1.99	-47.8	-63.0	3.6	1.51e+00	0	27	104	0	60	50836
2026-01-27 00:34:21.53	163.32	2.06	-47.8	-63.0	3.6	1.51e+00	0	27	104	0	60	51260
2026-01-27 00:34:22.54	163.34	2.12	-47.8	-63.0	3.6	1.51e+00	0	27	104	0	60	51123
2026-01-27 00:34:23.55	163.35	2.19	-47.8	-63.0	3.6	1.51e+00	0	27	104	0	60	51029
2026-01-27 00:34:24.56	163.36	2.25	-47.8	-62.9	3.6	1.51e+00	0	27	104	0	60	50716
2026-01-27 00:34:25.56	163.37	2.32	-47.8	-62.8	3.6	1.51e+00	0	27	104	0	60	49992
2026-01-27 00:34:26.57	163.39	2.38	-47.8	-62.7	3.6	1.51e+00	0	27	104	0	60	49249
2026-01-27 00:34:27.58	163.40	2.45	-47.8	-62.4	3.6	1.51e+00	0	27	104	0	60	47858
2026-01-27 00:34:28.59	163.41	2.52	-47.8	-62.1	3.6	1.51e+00	0	27	104	0	60	46173
2026-01-27 00:34:29.60	163.43	2.58	-47.8	-62.0	3.6	1.51e+00	0	27	104	0	60	45342
2026-01-27 00:34:30.61	163.44	2.65	-47.8	-61.9	3.6	1.51e+00	0	27	104	0	60	45019
2026-01-27 00:34:31.62	163.45	2.71	-47.8	-62.0	3.6	1.51e+00	0	27	104	0	60	45482
2026-01-27 00:34:32.63	163.47	2.78	-47.8	-62.3	3.6	1.51e+00	0	27	104	0	60	47342
2026-01-27 00:34:33.64	163.48	2.85	-47.8	-62.5	3.6	1.51e+00	0	27	104	0	60	48166
2026-01-27 00:34:34.65	163.49	2.91	-47.8	-61.5	3.6	1.51e+00	0	27	104	0	60	43117
2026-01-27 00:34:35.66	163.51	2.98	-47.7	-59.5	4.1	1.50e+00	0	27	104	0	60	34177
2026-01-27 00:34:36.67	163.52	3.05	-47.4	-56.2	5.2	7.30e-01	0	27	0	0	60	23371
2026-01-27 00:34:37.68	163.53	3.12	-46.9	-53.2	7.9	1.45e-01	0	27	0	2097152	60	16511
2026-01-27 00:34:38.69	163.55	3.18	-46.4	-51.8	9.6	1.18e-02	0	27	0	4194304	60	13982
2026-01-27 00:34:39.70	163.56	3.25	-45.7	-49.8	12.1	1.27e-03	0	27	0	6291456	60	11215
2026-01-27 00:34:40.71	163.57	3.32	-45.0	-48.4	13.4	1.32e-04	0	27	0	7340032	60	9533
2026-01-27 00:34:41.72	163.59	3.39	-44.5	-47.4	14.5	4.50e-06	0	27	0	9437184	60	8490
2026-01-27 00:34:42.73	163.60	3.45	-43.5	-45.8	16.3	0.00e+00	0	27	0	11534336	60	7075
2026-01-27 00:34:43.74	163.61	3.52	-43.5	-45.9	16.1	0.00e+00	0	27	0	13631488	60	7094
2026-01-27 00:34:44.74	163.63	3.59	-43.7	-46.3	15.7	0.00e+00	0	27	0	15728640	60	7424
2026-01-27 00:34:45.75	163.64	3.66	-43.2	-45.5	16.4	0.00e+00	0	27	0	16777216	60	6784
2026-01-27 00:34:46.76	163.66	3.73	-43.6	-46.1	15.8	0.00e+00	0	27	0	18874368	60	7283
2026-01-27 00:34:47.77	163.67	3.80	-44.1	-46.8	14.4	0.00e+00	0	27	0	20971520	60	7918
2026-01-27 00:34:48.78	163.68	3.87	-46.7	-52.0	9.3	7.19e-02	0	27	0	23068672	60	14399
2026-01-27 00:34:49.79	163.70	3.93	-44.7	-47.9	12.5	2.85e-03	0	27	0	25165824	60	8966
2026-01-27 00:34:50.80	163.71	4.00	-47.4	-56.8	4.5	1.51e+00	0	27	104	25165824	60	24954
2026-01-27 00:34:51.81	163.73	4.07	-45.5	-49.6	11.5	1.18e-02	0	27	104	25165824	60	10899
2026-01-27 00:34:52.82	163.74	4.14	-47.1	-54.2	8.2	1.48e+00	0	27	104	25165824	60	18619
2026-01-27 00:34:53.83	163.75	4.21	-46.4	-51.6	10.1	2.50e-03	0	27	0	25165824	60	13814
2026-01-27 00:34:54.84	163.77	4.28	-45.8	-49.7	11.7	2.57e-03	0	27	0	27262976	60	11098
2026-01-27 00:34:55.85	163.78	4.35	-45.7	-49.7	12.2	7.74e-04	0	27	0	29360128	60	10996
2026-01-27 00:34:56.86	163.80	4.42	-45.6	-49.4	12.2	2.34e-04	0	27	0	31457280	60	10653
2026-01-27 00:34:57.87	163.81	4.49	-45.5	-49.2	12.9	9.68e-05	0	27	0	33554432	60	10393
2026-01-27 00:34:58.87	163.83	4.56	-45.3	-48.8	14.1	1.60e-05	0	27	0	34603008	60	9944
2026-01-27 00:34:59.88	163.84	4.64	-45.3	-48.7	13.4	8.30e-06	0	27	0	36700160	60	9888
2026-01-27 00:35:00.89	163.86	4.71	-45.4	-49.0	13.5	1.37e-05	0	27	0	38797312	60	10186
2026-01-27 00:35:01.90	163.87	4.78	-44.9	-48.0	14.9	3.80e-06	0	27	0	40894464	60	9094
2026-01-27 00:35:02.91	163.88	4.85	-44.7	-47.6	14.4	2.20e-06	0	27	0	42991616	60	8680
2026-01-27 00:35:03.92	163.90	4.92	-44.7	-47.6	14.4	0.00e+00	0	27	0	44040192	60	8668
2026-01-27 00:35:04.93	163.91	4.99	-44.5	-47.4	14.7	7.00e-07	0	27	0	46137344	60	8503
2026-01-27 00:35:05.94	163.93	5.07	-44.4	-47.1	15.0	0.00e+00	0	27	0	48234496	60	8199
2026-01-27 00:35:06.95	163.94	5.14	-44.2	-46.9	15.6	0.00e+00	0	27	0	50331648	60	7972
2026-01-27 00:35:07.96	163.96	5.21	-44.4	-47.2	15.1	0.00e+00	0	27	0	52428800	60	8273
2026-01-27 00:35:08.97	163.97	5.28	-44.2	-46.8	15.4	0.00e+00	0	27	0	53477376	60	7893
2026-01-27 00:35:09.98	163.99	5.36	-44.0	-46.5	15.6	0.00e+00	0	27	0	55574528	60	7636
2026-01-27 00:35:10.99	164.00	5.43	-44.1	-46.7	16.0	0.00e+00	0	27	0	57671680	60	7779
2026-01-27 00:35:12.00	164.02	5.50	-43.5	-45.7	16.5	0.00e+00	0	27	0	59768832	60	6971
2026-01-27 00:35:13.01	164.04	5.58	-43.6	-45.9	16.4	0.00e+00	0	27	0	61865984	60	7129
2026-01-27 00:35:14.02	164.05	5.65	-42.8	-44.8	17.4	0.00e+00	0	27	0	62914560	60	6273
2026-01-27 00:35:15.03	164.07	5.73	-42.8	-44.8	17.5	0.00e+00	0	27	0	65011712	60	6250
2026-01-27 00:35:16.04	164.08	5.80	-43.0	-45.0	17.2	0.00e+00	0	27	0	67108864	58	7218
2026-01-27 00:35:17.05	164.10	5.87	-42.8	-44.7	17.7	0.00e+00	0	27	0	69206016	58	7002
2026-01-27 00:35:18.06	164.11	5.95	-42.8	-44.7	17.6	0.00e+00	0	27	0	71303168	58	7002
2026-01-27 00:35:19.07	164.13	6.02	-42.3	-44.1	18.1	0.00e+00	0	27	0	73400320	58	6484
2026-01-27 00:35:20.08	164.14	6.10	-42.3	-44.0	18.3	0.00e+00	0	27	0	74448896	58	6441
2026-01-27 00:35:21.09	164.16	6.17	-42.2	-43.9	18.3	0.00e+00	0	27	0	76546048	58	6331
2026-01-27 00:35:22.10	164.18	6.25	-42.5	-44.3	18.1	0.00e+00	0	27	0	78643200	58	6666
2026-01-27 00:35:23.11	164.19	6.33	-42.2	-43.9	18.3	0.00e+00	0	27	0	80740352	58	6368
2026-01-27 00:35:24.12	164.21	6.40	-42.1	-43.8	18.5	0.00e+00	0	27	0	82837504	58	6290
2026-01-27 00:35:25.13	164.22	6.48	-42.1	-43.8	18.4	0.00e+00	0	27	0	83886080	58	6293
2026-01-27 00:35:26.14	164.24	6.55	-41.9	-43.5	18.8	0.00e+00	0	27	0	85983232	58	6079
2026-01-27 00:35:27.15	164.26	6.63	-42.0	-43.6	18.5	0.00e+00	0	27	0	88080384	58	6170
2026-01-27 00:35:28.16	164.27	6.71	-41.8	-43.3	19.0	0.00e+00	0	27	0	90177536	56	6686
2026-01-27 00:35:29.17	164.29	6.78	-42.0	-43.6	18.7	0.00e+00	0	27	0	92274688	56	6908
2026-01-27 00:35:30.18	164.31	6.86	-41.9	-43.4	18.8	0.00e+00	0	27	0	93323264	56	6759
2026-01-27 00:35:31.19	164.32	6.94	-41.9	-43.5	18.9	0.00e+00	0	27	0	95420416	56	6799
2026-01-27 00:35:32.20	164.34	7.02	-41.6	-43.1	19.0	0.00e+00	0	27	0	97517568	56	6535
2026-01-27 00:35:33.20	164.36	7.09	-41.4	-42.9	19.4	0.00e+00	0	27	0	99614720	56	6373
2026-01-27 00:35:34.21	164.37	7.17	-41.5	-43.0	19.4	0.00e+00	0	27	0	101711872	56	6425
2026-01-27 00:35:35.22	164.39	7.25	-42.0	-43.6	18.8	0.00e+00	0	27	0	102760448	56	6872
2026-01-27 00:35:36.23	164.41	7.33	-41.7	-43.2	19.2	0.00e+00	0	27	0	104857600	56	6545
2026-01-27 00:35:37.24	164.42	7.41	-41.3	-42.8	19.6	0.00e+00	0	27	0	106954752	56	6255
2026-01-27 00:35:38.25	164.44	7.49	-41.1	-42.5	19.9	0.00e+00	0	27	0	109051904	56	6047
2026-01-27 00:35:39.26	164.46	7.57	-41.2	-42.6	19.8	0.00e+00	0	27	0	111149056	56	6112
2026-01-27 00:35:40.27	164.47	7.65	-41.0	-42.3	20.0	0.00e+00	0	27	0	112197632	56	5953
2026-01-27 00:35:41.28	164.49	7.73	-41.0	-42.4	19.9	0.00e+00	0	27	0	114294784	56	5965
2026-01-27 00:35:42.28	164.51	7.81	-41.1	-42.6	19.8	0.00e+00	0	27	0	116391936	56	6104
2026-01-27 00:35:43.29	164.53	7.89	-41.1	-42.5	19.9	0.00e+00	0	27	0	118489088	56	6063
2026-01-27 00:35:44.30	164.54	7.97	-41.1	-42.5	19.9	0.00e+00	0	27	0	120586240	56	6068
2026-01-27 00:35:45.31	164.56	8.05	-41.0	-42.3	20.0	0.00e+00	0	27	0	121634816	56	5963
2026-01-27 00:35:46.32	164.58	8.13	-41.2	-42.6	19.8	0.00e+00	0	27	0	123731968	56	6159
2026-01-27 00:35:47.32	164.60	8.21	-41.0	-42.4	19.9	0.00e+00	0	27	0	125829120	56	5987
2026-01-27 00:35:48.33	164.61	8.29	-41.2	-42.7	19.9	0.00e+00	0	27	0	127926272	56	6183
2026-01-27 00:35:49.34	164.63	8.37	-41.1	-42.5	19.9	0.00e+00	0	27	0	130023424	56	6069
2026-01-27 00:35:50.35	164.65	8.46	-40.9	-42.2	20.2	0.00e+00	0	27	0	131072000	56	5875
2026-01-27 00:35:51.36	164.67	8.54	-40.8	-42.2	20.2	0.00e+00	0	27	0	133169152	54	6563
2026-01-27 00:35:52.37	164.69	8.62	-40.8	-42.2	20.2	0.00e+00	0	27	0	135266304	54	6556
2026-01-27 00:35:53.38	164.70	8.71	-40.6	-41.8	20.4	0.00e+00	0	27	0	137363456	54	6312
2026-01-27 00:35:54.39	164.72	8.79	-40.4	-41.6	20.6	0.00e+00	0	27	0	139460608	54	6159
2026-01-27 00:35:55.40	164.74	8.87	-40.4	-41.6	20.5	0.00e+00	0	27	0	141557760	54	6171
2026-01-27 00:35:56.41	164.76	8.96	-40.5	-41.8	20.5	0.00e+00	0	27	0	142606336	54	6278
2026-01-27 00:35:57.42	164.78	9.04	-40.3	-41.6	20.6	0.00e+00	0	27	0	144703488	54	6109
2026-01-27 00:35:58.43	164.80	9.13	-40.4	-41.7	20.6	0.00e+00	0	27	0	146800640	54	6194
2026-01-27 00:35:59.44	164.82	9.21	-40.5	-41.8	20.5	0.00e+00	0	27	0	148897792	54	6282
2026-01-27 00:36:00.45	164.83	9.30	-40.2	-41.4	20.9	0.00e+00	0	27	0	150994944	54	5977
2026-01-27 00:36:01.46	164.85	9.38	-39.9	-41.1	21.1	0.00e+00	0	27	0	152043520	54	5808
2026-01-27 00:36:02.47	164.87	9.47	-39.8	-40.9	21.3	0.00e+00	0	27	0	154140672	52	6356
2026-01-27 00:36:03.48	164.89	9.55	-39.7	-40.8	21.4	0.00e+00	0	27	0	156237824	52	6296
2026-01-27 00:36:04.49	164.91	9.64	-39.7	-40.8	21.5	0.00e+00	0	27	0	158334976	52	6309
2026-01-27 00:36:05.50	164.93	9.73	-39.6	-40.8	21.5	0.00e+00	0	27	0	160432128	52	6247
2026-01-27 00:36:06.51	164.95	9.81	-39.7	-40.8	21.4	0.00e+00	0	27	0	161480704	52	6253
2026-01-27 00:36:07.52	164.97	9.90	-39.6	-40.7	21.5	0.00e+00	0	27	0	163577856	52	6215
2026-01-27 00:36:08.53	164.99	9.99	-39.4	-40.5	21.7	0.00e+00	0	27	0	165675008	52	6072
2026-01-27 00:36:09.54	165.01	10.07	-39.3	-40.4	21.8	0.00e+00	0	27	0	167772160	52	5972
2026-01-27 00:36:10.55	165.03	10.16	-39.4	-40.4	21.7	0.00e+00	0	27	0	169869312	52	6028
2026-01-27 00:36:11.56	165.05	10.25	-39.5	-40.5	21.7	0.00e+00	0	27	0	170917888	52	6101
2026-01-27 00:36:12.56	165.07	10.34	-39.3	-40.4	21.7	0.00e+00	0	27	0	173015040	52	5999
2026-01-27 00:36:13.57	165.09	10.43	-39.6	-40.7	21.4	0.00e+00	0	27	0	175112192	52	6222
2026-01-27 00:36:14.58	165.11	10.52	-39.3	-40.4	21.8	0.00e+00	0	27	0	177209344	52	5972
2026-01-27 00:36:15.59	165.13	10.61	-39.2	-40.3	21.9	0.00e+00	0	27	0	179306496	52	5913
2026-01-27 00:36:16.60	165.15	10.70	-39.1	-40.2	22.0	0.00e+00	0	27	0	180355072	52	5836
2026-01-27 00:36:17.61	165.17	10.79	-39.2	-40.2	22.0	0.00e+00	0	27	0	182452224	52	5881
2026-01-27 00:36:18.62	165.19	10.88	-39.2	-40.3	21.9	0.00e+00	0	27	0	184549376	52	5938
2026-01-27 00:36:19.63	165.21	10.97	-39.1	-40.2	21.9	0.00e+00	0	27	0	186646528	52	5844
2026-01-27 00:36:20.64	165.23	11.06	-39.1	-40.1	22.1	0.00e+00	0	27	0	188743680	52	5814
2026-01-27 00:36:21.65	165.25	11.15	-39.0	-40.0	22.1	0.00e+00	0	27	0	189792256	52	5746
2026-01-27 00:36:22.66	165.27	11.24	-38.8	-39.8	22.4	0.00e+00	0	27	0	191889408	52	5616
2026-01-27 00:36:23.67	165.29	11.34	-38.8	-39.7	22.4	0.00e+00	0	27	0	193986560	52	5566
2026-01-27 00:36:24.68	165.32	11.43	-38.8	-39.8	22.3	0.00e+00	0	27	0	196083712	50	6311
2026-01-27 00:36:25.69	165.34	11.52	-38.8	-39.8	22.3	0.00e+00	0	27	0	198180864	50	6296
2026-01-27 00:36:26.70	165.36	11.62	-38.8	-39.8	22.4	0.00e+00	0	27	0	199229440	50	6264
2026-01-27 00:36:27.71	165.38	11.71	-38.7	-39.7	22.4	0.00e+00	0	27	0	201326592	50	6176
2026-01-27 00:36:28.72	165.40	11.80	-38.5	-39.5	22.5	0.00e+00	0	27	0	203423744	50	6077
2026-01-27 00:36:29.73	165.42	11.90	-38.6	-39.6	22.6	0.00e+00	0	27	0	205520896	50	6132
2026-01-27 00:36:30.74	165.45	11.99	-38.5	-39.5	22.6	0.00e+00	0	27	0	207618048	50	6070
2026-01-27 00:36:31.75	165.47	12.09	-38.6	-39.6	22.5	0.00e+00	0	27	0	209715200	50	6162
2026-01-27 00:36:32.76	165.49	12.18	-38.5	-39.5	22.6	0.00e+00	0	27	0	210763776	50	6048
2026-01-27 00:36:33.77	165.51	12.28	-38.5	-39.5	22.6	0.00e+00	0	27	0	212860928	50	6070
2026-01-27 00:36:34.78	165.53	12.38	-38.4	-39.3	22.8	0.00e+00	0	27	0	214958080	50	5939
2026-01-27 00:36:35.79	165.56	12.47	-38.3	-39.2	22.8	0.00e+00	0	27	0	217055232	50	5888
2026-01-27 00:36:36.80	165.58	12.57	-38.4	-39.4	22.7	0.00e+00	0	27	0	219152384	50	5981
2026-01-27 00:36:37.81	165.60	12.67	-38.3	-39.3	22.8	0.00e+00	0	27	0	220200960	50	5914
2026-01-27 00:36:38.82	165.63	12.77	-38.4	-39.4	22.7	0.00e+00	0	27	0	222298112	50	5984
2026-01-27 00:36:39.83	165.65	12.86	-38.3	-39.2	22.7	0.00e+00	0	27	0	224395264	50	5885
2026-01-27 00:36:40.84	165.67	12.96	-38.2	-39.2	22.9	0.00e+00	0	27	0	226492416	50	5841
2026-01-27 00:36:41.85	165.70	13.06	-37.9	-38.8	23.0	0.00e+00	0	27	0	228589568	50	5628
2026-01-27 00:36:42.85	165.72	13.16	-37.9	-38.8	23.1	0.00e+00	0	27	0	229638144	50	5616
2026-01-27 00:36:43.86	165.74	13.26	-38.1	-39.1	22.9	0.00e+00	0	27	0	231735296	50	5763
2026-01-27 00:36:44.87	165.77	13.36	-37.9	-38.9	23.0	0.00e+00	0	27	0	233832448	50	5656
2026-01-27 00:36:45.88	165.79	13.46	-37.8	-38.7	23.2	0.00e+00	0	27	0	235929600	48	6241
2026-01-27 00:36:46.89	165.81	13.56	-37.7	-38.7	23.2	0.00e+00	0	27	0	238026752	48	6187
2026-01-27 00:36:47.90	165.84	13.66	-37.8	-38.7	23.2	0.00e+00	0	27	0	239075328	48	6197
2026-01-27 00:36:48.91	165.86	13.77	-37.7	-38.6	23.3	0.00e+00	0	27	0	241172480	48	6117
2026-01-27 00:36:49.92	165.89	13.87	-37.7	-38.6	23.3	0.00e+00	0	27	0	243269632	48	6140
2026-01-27 00:36:50.93	165.91	13.97	-37.5	-38.4	23.5	0.00e+00	0	27	0	245366784	48	6021
2026-01-27 00:36:51.94	165.94	14.07	-37.8	-38.7	23.2	0.00e+00	0	27	0	247463936	48	6232
2026-01-27 00:36:52.95	165.96	14.18	-37.7	-38.7	23.3	0.00e+00	0	27	0	248512512	48	6191
2026-01-27 00:36:53.75	165.98	14.26	-37.9	-38.9	23.1	0.00e+00	0	27	0	250609664	48	6322
2026-01-27 00:36:54.90	166.01	14.38	-37.8	-38.7	23.1	0.00e+00	0	27	0	252706816	48	6228
2026-01-27 00:36:55.77	166.03	14.47	-37.8	-38.7	23.3	0.00e+00	0	27	0	254803968	48	6196
2026-01-27 00:36:56.92	166.06	14.59	-37.7	-38.7	23.1	0.00e+00	0	27	0	256901120	48	6188
2026-01-27 00:36:57.79	166.08	14.68	-37.8	-38.7	23.3	0.00e+00	0	27	0	257949696	48	6215
2026-01-27 00:36:58.94	166.11	14.80	-37.6	-38.5	23.5	0.00e+00	0	27	0	261095424	48	6044
2026-01-27 00:36:59.80	166.13	14.89	-37.7	-38.6	22.9	0.00e+00	0	27	0	262144000	48	6132
2026-01-27 00:37:00.95	166.16	15.02	-37.7	-38.6	23.2	0.00e+00	0	27	0	264241152	48	6131
2026-01-27 00:37:01.82	166.19	15.11	-37.8	-38.8	22.8	0.00e+00	0	27	0	266338304	48	6251
2026-01-27 00:37:02.97	166.22	15.23	-37.8	-38.7	23.1	0.00e+00	0	27	0	268435456	48	6244
2026-01-27 00:37:03.84	166.24	15.33	-37.7	-38.6	23.1	0.00e+00	0	27	0	269484032	48	6141
2026-01-27 00:37:04.99	166.27	15.45	-37.9	-38.8	23.2	0.00e+00	0	27	0	271581184	48	6292
2026-01-27 00:37:05.86	166.29	15.54	-37.8	-38.7	23.2	0.00e+00	0	27	0	273678336	48	6203
2026-01-27 00:37:07.01	166.32	15.67	-37.9	-38.8	23.2	0.00e+00	0	27	0	275775488	48	6268
2026-01-27 00:37:07.87	166.35	15.76	-37.7	-38.6	23.4	0.00e+00	0	27	0	277872640	48	6117
2026-01-27 00:37:09.02	166.38	15.89	-37.5	-38.4	23.5	0.00e+00	0	27	0	279969792	48	5971
2026-01-27 00:37:09.89	166.40	15.99	-37.4	-38.2	23.6	0.00e+00	0	27	0	281018368	48	5884
2026-01-27 00:37:11.04	166.44	16.11	-37.4	-38.3	23.7	0.00e+00	0	27	0	283115520	48	5915
2026-01-27 00:37:11.91	166.46	16.21	-37.3	-38.2	23.7	0.00e+00	0	27	0	285212672	48	5880
2026-01-27 00:37:13.06	166.49	16.34	-37.3	-38.2	23.7	0.00e+00	0	27	0	287309824	48	5851
2026-01-27 00:37:13.93	166.52	16.44	-37.2	-38.1	23.8	0.00e+00	0	27	0	288358400	48	5778
2026-01-27 00:37:15.08	166.55	16.57	-37.3	-38.1	23.8	0.00e+00	0	27	0	290455552	48	5825
2026-01-27 00:37:15.95	166.57	16.67	-37.3	-38.2	23.7	0.00e+00	0	27	0	292552704	48	5876
2026-01-27 00:37:17.10	166.61	16.80	-37.3	-38.1	23.8	0.00e+00	0	27	0	294649856	48	5825
2026-01-27 00:37:17.96	166.63	16.90	-37.4	-38.3	23.5	0.00e+00	0	27	0	295698432	48	5937
2026-01-27 00:37:19.11	166.66	17.03	-37.5	-38.3	23.6	0.00e+00	0	27	0	298844160	48	5958
2026-01-27 00:37:19.98	166.69	17.13	-37.4	-38.3	23.6	0.00e+00	0	27	0	299892736	48	5931
2026-01-27 00:37:21.14	166.72	17.27	-37.4	-38.3	23.6	0.00e+00	0	27	0	301989888	48	5960
2026-01-27 00:37:22.00	166.75	17.37	-37.7	-38.6	23.4	0.00e+00	0	27	0	304087040	48	6111
2026-01-27 00:37:23.16	166.78	17.50	-37.7	-38.6	23.5	0.00e+00	0	27	0	306184192	48	6167
2026-01-27 00:37:24.02	166.81	17.60	-37.7	-38.6	23.5	0.00e+00	0	27	0	307232768	48	6111
2026-01-27 00:37:25.18	166.85	17.74	-37.6	-38.5	23.5	0.00e+00	0	27	0	309329920	48	6083
2026-01-27 00:37:26.04	166.87	17.84	-37.8	-38.7	23.4	0.00e+00	0	27	0	311427072	48	6200
2026-01-27 00:37:27.19	166.91	17.98	-37.7	-38.6	23.3	0.00e+00	0	27	0	313524224	48	6143
2026-01-27 00:37:28.06	166.93	18.09	-37.9	-38.8	23.2	0.00e+00	0	27	0	315621376	48	6311
2026-01-27 00:37:29.21	166.97	18.23	-37.9	-38.9	23.3	0.00e+00	0	27	0	317718528	48	6318
2026-01-27 00:37:30.07	167.00	18.33	-37.9	-38.8	23.2	0.00e+00	0	27	0	318767104	48	6290
2026-01-27 00:37:31.23	167.03	18.47	-37.9	-38.8	23.3	0.00e+00	0	27	0	320864256	48	6310
2026-01-27 00:37:32.09	167.06	18.58	-37.9	-38.8	23.3	0.00e+00	0	27	0	322961408	48	6312
2026-01-27 00:37:33.25	167.10	18.72	-37.9	-38.8	23.1	0.00e+00	0	27	0	325058560	48	6298
2026-01-27 00:37:34.11	167.13	18.83	-38.0	-39.0	23.2	0.00e+00	0	27	0	326107136	48	6414
2026-01-27 00:37:35.27	167.16	18.97	-38.1	-39.1	23.0	0.00e+00	0	27	0	328204288	48	6507
2026-01-27 00:37:36.13	167.19	19.08	-38.2	-39.2	22.9	0.00e+00	0	27	0	330301440	48	6587
2026-01-27 00:37:37.29	167.23	19.23	-38.2	-39.2	23.0	0.00e+00	0	27	0	332398592	48	6566
2026-01-27 00:37:38.15	167.26	19.33	-38.2	-39.1	23.1	0.00e+00	0	27	0	334495744	48	6534
2026-01-27 00:37:39.31	167.30	19.48	-38.2	-39.1	23.0	0.00e+00	0	27	0	336592896	48	6535
2026-01-27 00:37:40.17	167.33	19.59	-38.2	-39.2	23.0	0.00e+00	0	27	0	337641472	48	6571
2026-01-27 00:37:41.33	167.37	19.74	-38.3	-39.3	22.9	0.00e+00	0	27	0	339738624	48	6637
2026-01-27 00:37:42.19	167.40	19.85	-38.4	-39.4	22.7	0.00e+00	0	27	0	341835776	48	6695
2026-01-27 00:37:43.35	167.44	20.00	-38.6	-39.6	22.7	0.00e+00	0	27	0	343932928	48	6862
2026-01-27 00:37:44.21	167.47	20.11	-38.7	-39.7	22.6	0.00e+00	0	27	0	344981504	50	6185
2026-01-27 00:37:45.37	167.51	20.27	-38.9	-39.9	22.4	0.00e+00	0	27	0	347078656	50	6332
2026-01-27 00:37:46.24	167.54	20.38	-39.1	-40.2	22.3	0.00e+00	0	27	0	349175808	50	6582
2026-01-27 00:37:47.39	167.58	20.53	-39.0	-40.0	22.2	0.00e+00	0	27	0	351272960	50	6427
2026-01-27 00:37:48.26	167.61	20.65	-39.1	-40.1	22.3	0.00e+00	0	27	0	353370112	50	6538
2026-01-27 00:37:49.41	167.65	20.80	-39.1	-40.2	22.2	0.00e+00	0	27	0	355467264	50	6561
2026-01-27 00:37:50.28	167.68	20.92	-39.1	-40.2	22.3	0.00e+00	0	27	0	356515840	50	6542
2026-01-27 00:37:51.43	167.73	21.08	-39.2	-40.3	22.2	0.00e+00	0	27	0	358612992	50	6627
2026-01-27 00:37:52.30	167.76	21.20	-38.9	-39.9	22.4	0.00e+00	0	27	0	360710144	50	6379
2026-01-27 00:37:53.45	167.80	21.35	-39.0	-40.0	22.3	0.00e+00	0	27	0	362807296	50	6425
2026-01-27 00:37:54.32	167.83	21.47	-39.0	-40.0	22.4	0.00e+00	0	27	0	363855872	50	6451
2026-01-27 00:37:55.47	167.88	21.63	-38.8	-39.8	22.6	0.00e+00	0	27	0	367001600	50	6301
2026-01-27 00:37:56.33	167.91	21.75	-38.8	-39.8	22.4	0.00e+00	0	27	0	368050176	50	6283
2026-01-27 00:37:57.49	167.96	21.91	-39.0	-40.0	22.5	0.00e+00	0	27	0	370147328	50	6407
2026-01-27 00:37:58.35	167.99	22.03	-38.9	-40.0	22.4	0.00e+00	0	27	0	372244480	50	6395
2026-01-27 00:37:59.51	168.04	22.20	-39.2	-40.2	22.2	0.00e+00	0	27	0	374341632	50	6581
2026-01-27 00:38:00.37	168.07	22.32	-39.1	-40.1	22.4	0.00e+00	0	27	0	375390208	50	6503
2026-01-27 00:38:01.52	168.12	22.49	-39.2	-40.2	22.2	0.00e+00	0	27	0	377487360	50	6571
2026-01-27 00:38:02.39	168.15	22.61	-39.3	-40.3	22.2	0.00e+00	0	27	0	379584512	50	6685
2026-01-27 00:38:03.54	168.20	22.78	-39.4	-40.5	22.1	0.00e+00	0	27	0	381681664	50	6808
2026-01-27 00:38:04.40	168.23	22.90	-39.2	-40.2	22.3	0.00e+00	0	27	0	383778816	50	6561
2026-01-27 00:38:05.56	168.28	23.07	-39.2	-40.2	22.3	0.00e+00	0	27	0	385875968	50	6567
2026-01-27 00:38:06.42	168.32	23.20	-39.1	-40.1	22.3	0.00e+00	0	27	0	386924544	50	6500
2026-01-27 00:38:07.58	168.37	23.37	-39.0	-40.0	22.4	0.00e+00	0	27	0	389021696	50	6451
2026-01-27 00:38:08.44	168.40	23.50	-39.1	-40.1	22.3	0.00e+00	0	27	0	391118848	50	6512
2026-01-27 00:38:09.59	168.45	23.67	-39.1	-40.1	22.4	0.00e+00	0	27	0	393216000	50	6508
2026-01-27 00:38:10.46	168.49	23.80	-38.7	-39.7	22.6	0.00e+00	0	27	0	394264576	50	6209
2026-01-27 00:38:11.61	168.54	23.97	-38.9	-39.8	22.6	0.00e+00	0	27	0	396361728	50	6300
2026-01-27 00:38:12.47	168.58	24.11	-38.9	-39.9	22.5	0.00e+00	0	27	0	398458880	50	6378
2026-01-27 00:38:13.63	168.63	24.28	-38.8	-39.8	22.5	0.00e+00	0	27	0	400556032	50	6278
2026-01-27 00:38:14.50	168.67	24.42	-39.0	-40.0	22.6	0.00e+00	0	27	0	402653184	50	6421
2026-01-27 00:38:15.65	168.72	24.60	-38.8	-39.7	22.7	0.00e+00	0	27	0	404750336	50	6231
2026-01-27 00:38:16.51	168.76	24.73	-38.7	-39.7	22.6	0.00e+00	0	27	0	405798912	50	6212
2026-01-27 00:38:17.67	168.81	24.91	-39.1	-40.1	22.3	0.00e+00	0	27	0	407896064	50	6492
2026-01-27 00:38:18.53	168.85	25.05	-38.8	-39.8	22.6	0.00e+00	0	27	0	409993216	50	6291
2026-01-27 00:38:19.69	168.91	25.23	-38.9	-39.9	22.5	0.00e+00	0	27	0	412090368	50	6363
2026-01-27 00:38:20.55	168.95	25.37	-38.8	-39.8	22.6	0.00e+00	0	27	0	413138944	50	6264
2026-01-27 00:38:21.71	169.00	25.55	-38.9	-39.9	22.7	0.00e+00	0	27	0	415236096	50	6331
2026-01-27 00:38:22.57	169.04	25.69	-38.7	-39.7	22.6	0.00e+00	0	27	0	417333248	50	6226
2026-01-27 00:38:23.72	169.10	25.88	-38.4	-39.4	22.9	0.00e+00	0	27	0	419430400	50	5965
2026-01-27 00:38:24.59	169.14	26.02	-38.5	-39.5	22.7	0.00e+00	0	27	0	421527552	50	6076
2026-01-27 00:38:25.74	169.20	26.21	-38.5	-39.4	22.8	0.00e+00	0	27	0	423624704	50	6017
2026-01-27 00:38:26.60	169.24	26.35	-38.6	-39.5	22.7	0.00e+00	0	27	0	424673280	50	6090
2026-01-27 00:38:27.75	169.30	26.54	-38.7	-39.6	22.7	0.00e+00	0	27	0	426770432	50	6164
2026-01-27 00:38:28.62	169.35	26.69	-38.7	-39.7	22.6	0.00e+00	0	27	0	428867584	50	6196
2026-01-27 00:38:29.77	169.41	26.88	-38.5	-39.5	22.8	0.00e+00	0	27	0	430964736	50	6049
2026-01-27 00:38:30.64	169.45	27.03	-38.9	-39.9	22.6	0.00e+00	0	27	0	432013312	50	6340
2026-01-27 00:38:31.79	169.51	27.23	-39.1	-40.1	22.3	0.00e+00	0	27	0	435159040	50	6508
2026-01-27 00:38:32.65	169.56	27.38	-38.8	-39.8	22.6	0.00e+00	0	27	0	436207616	50	6307
2026-01-27 00:38:33.81	169.62	27.58	-38.6	-39.5	22.7	0.00e+00	0	27	0	438304768	50	6091
2026-01-27 00:38:34.67	169.67	27.73	-39.0	-40.0	22.4	0.00e+00	0	27	0	440401920	50	6454
2026-01-27 00:38:35.83	169.73	27.93	-38.6	-39.6	22.8	0.00e+00	0	27	0	442499072	50	6142
2026-01-27 00:38:36.69	169.78	28.08	-38.5	-39.5	22.6	0.00e+00	0	27	0	443547648	50	6071
2026-01-27 00:38:37.85	169.84	28.28	-38.7	-39.7	22.6	0.00e+00	0	27	0	445644800	50	6219
2026-01-27 00:38:38.71	169.89	28.44	-38.7	-39.7	22.7	0.00e+00	0	27	0	447741952	50	6176
2026-01-27 00:38:39.87	169.96	28.65	-39.1	-40.1	22.2	0.00e+00	0	27	0	449839104	50	6515
2026-01-27 00:38:40.73	170.01	28.80	-38.9	-39.9	22.5	0.00e+00	0	27	0	451936256	50	6365
2026-01-27 00:38:41.89	170.07	29.01	-39.3	-40.3	21.9	0.00e+00	0	27	0	454033408	50	6659
2026-01-27 00:38:42.75	170.13	29.17	-39.5	-40.6	21.9	0.00e+00	0	27	0	455081984	50	6862
2026-01-27 00:38:43.91	170.19	29.38	-40.1	-41.3	21.5	0.00e+00	0	27	0	457179136	52	6659
2026-01-27 00:38:44.77	170.25	29.54	-39.9	-41.0	21.8	0.00e+00	0	27	0	459276288	52	6448
2026-01-27 00:38:45.93	170.32	29.76	-40.3	-41.4	21.3	0.00e+00	0	27	0	461373440	52	6758
2026-01-27 00:38:46.79	170.37	29.92	-40.5	-41.7	21.0	0.00e+00	0	27	0	462422016	52	6969
2026-01-27 00:38:47.95	170.44	30.14	-39.6	-40.7	21.9	0.00e+00	0	27	0	464519168	54	5540
2026-01-27 00:38:48.81	170.50	30.30	-40.2	-41.3	21.3	0.00e+00	0	27	0	466616320	52	6660
2026-01-27 00:38:49.97	170.57	30.52	-40.3	-41.5	21.0	0.00e+00	0	27	0	468713472	52	6832
2026-01-27 00:38:50.83	170.63	30.69	-40.2	-41.4	21.3	0.00e+00	0	27	0	470810624	54	5975
2026-01-27 00:38:51.98	170.70	30.91	-40.6	-41.8	20.9	0.00e+00	0	27	0	472907776	54	6290
2026-01-27 00:38:52.85	170.76	31.08	-40.9	-42.2	20.4	0.00e+00	0	27	0	473956352	54	6552
2026-01-27 00:38:54.00	170.84	31.31	-41.5	-42.9	20.0	0.00e+00	0	27	0	476053504	54	7143
2026-01-27 00:38:54.87	170.89	31.48	-41.2	-42.5	20.3	0.00e+00	0	27	0	478150656	54	6804
2026-01-27 00:38:56.02	170.97	31.71	-41.6	-43.0	20.0	0.00e+00	0	27	0	480247808	54	7201
2026-01-27 00:38:56.89	171.03	31.88	-41.3	-42.6	20.2	0.00e+00	0	27	0	481296384	54	6917
2026-01-27 00:38:58.04	171.11	32.11	-41.1	-42.4	20.5	0.00e+00	0	27	0	483393536	54	6706
2026-01-27 00:38:58.91	171.17	32.29	-41.4	-42.8	20.0	0.00e+00	0	27	0	485490688	54	7051
2026-01-27 00:39:00.06	171.26	32.53	-41.2	-42.6	20.4	0.00e+00	0	27	0	487587840	54	6851
2026-01-27 00:39:00.93	171.32	32.70	-41.2	-42.5	20.3	0.00e+00	0	27	0	489684992	54	6792
2026-01-27 00:39:02.08	171.40	32.94	-41.0	-42.3	20.5	0.00e+00	0	27	0	491782144	54	6658
2026-01-27 00:39:02.95	171.47	33.12	-41.0	-42.3	20.7	0.00e+00	0	27	0	492830720	54	6629
2026-01-27 00:39:04.10	171.56	33.37	-41.3	-42.7	20.6	0.00e+00	0	27	0	494927872	54	6963
2026-01-27 00:39:04.97	171.62	33.55	-40.3	-41.5	21.2	0.00e+00	0	27	0	497025024	54	6035
2026-01-27 00:39:06.12	171.71	33.79	-39.7	-40.8	21.8	0.00e+00	0	27	0	499122176	54	5606
2026-01-27 00:39:06.99	171.78	33.98	-39.8	-40.9	21.8	0.00e+00	0	27	0	500170752	52	6374
2026-01-27 00:39:08.14	171.87	34.23	-39.4	-40.4	22.2	0.00e+00	0	27	0	503316480	52	5980
2026-01-27 00:39:09.00	171.94	34.41	-39.2	-40.2	22.2	0.00e+00	0	27	0	504365056	52	5895
2026-01-27 00:39:10.16	172.03	34.67	-39.0	-40.0	22.5	0.00e+00	0	27	0	506462208	52	5704
2026-01-27 00:39:11.02	172.10	34.86	-39.0	-40.0	22.4	0.00e+00	0	27	0	508559360	52	5737
2026-01-27 00:39:12.18	172.20	35.11	-38.7	-39.7	22.7	0.00e+00	0	27	0	510656512	50	6195
2026-01-27 00:39:13.04	172.27	35.31	-39.0	-39.9	22.6	0.00e+00	0	27	0	511705088	50	6382
2026-01-27 00:39:14.20	172.37	35.57	-38.7	-39.7	22.6	0.00e+00	0	27	0	513802240	50	6202
2026-01-27 00:39:15.06	172.45	35.76	-38.8	-39.8	22.7	0.00e+00	0	27	0	515899392	50	6248
2026-01-27 00:39:16.22	172.55	36.03	-38.8	-39.8	22.4	0.00e+00	0	27	0	517996544	50	6285
2026-01-27 00:39:17.08	172.62	36.22	-38.8	-39.8	22.7	0.00e+00	0	27	0	520093696	50	6291
2026-01-27 00:39:18.24	172.73	36.49	-39.4	-40.5	22.1	0.00e+00	0	27	0	522190848	50	6848
2026-01-27 00:39:19.10	172.81	36.69	-39.6	-40.8	21.9	0.00e+00	0	27	0	523239424	50	7014
2026-01-27 00:39:20.26	172.91	36.96	-39.4	-40.5	22.1	0.00e+00	0	27	0	525336576	52	6084
2026-01-27 00:39:21.12	173.00	37.16	-39.9	-41.1	21.7	0.00e+00	0	27	0	527433728	52	6475
2026-01-27 00:39:22.28	173.11	37.44	-40.1	-41.3	21.4	0.00e+00	0	27	0	529530880	52	6639
2026-01-27 00:39:23.14	173.19	37.64	-40.6	-41.9	21.1	0.00e+00	0	27	0	530579456	52	7145
2026-01-27 00:39:24.29	173.30	37.92	-40.1	-41.3	21.4	0.00e+00	0	27	0	532676608	52	6690
2026-01-27 00:39:25.16	173.39	38.13	-40.1	-41.3	21.5	0.00e+00	0	27	0	534773760	52	6687
2026-01-27 00:39:26.31	173.50	38.41	-39.8	-41.0	21.7	0.00e+00	0	27	0	536870912	52	6451
2026-01-27 00:39:27.18	173.59	38.63	-39.8	-41.0	21.7	0.00e+00	0	27	0	538968064	52	6457
2026-01-27 00:39:28.33	173.71	38.91	-40.2	-41.4	21.5	0.00e+00	0	27	0	541065216	52	6715
2026-01-27 00:39:29.20	173.80	39.13	-39.9	-41.1	21.5	0.00e+00	0	27	0	542113792	52	6509
2026-01-27 00:39:30.35	173.93	39.42	-39.7	-40.8	21.8	0.00e+00	0	27	0	544210944	52	6272
2026-01-27 00:39:31.22	174.02	39.63	-39.4	-40.5	21.4	0.00e+00	0	27	0	546308096	52	6083
2026-01-27 00:39:32.37	174.15	39.93	-39.2	-40.2	22.3	0.00e+00	0	27	0	548405248	52	5857
2026-01-27 00:39:33.23	174.25	40.15	-38.9	-39.9	22.4	0.00e+00	0	27	0	549453824	52	5645
2026-01-27 00:39:34.39	174.38	40.45	-38.9	-39.8	22.6	0.00e+00	0	27	0	551550976	50	6304
2026-01-27 00:39:35.25	174.48	40.67	-39.0	-40.0	22.4	0.00e+00	0	27	0	553648128	50	6436
2026-01-27 00:39:36.41	174.61	40.97	-38.6	-39.6	22.6	0.00e+00	0	27	0	555745280	50	6125
2026-01-27 00:39:37.27	174.72	41.20	-39.4	-40.5	22.0	0.00e+00	0	27	0	557842432	50	6841
2026-01-27 00:39:38.43	174.86	41.51	-40.0	-41.2	21.6	0.00e+00	0	27	0	559939584	52	6547
2026-01-27 00:39:39.29	174.96	41.73	-39.9	-41.1	21.3	0.00e+00	0	27	0	560988160	52	6480
2026-01-27 00:39:40.44	175.11	42.04	-40.6	-41.9	20.9	0.00e+00	0	27	0	563085312	52	7111
2026-01-27 00:39:41.31	175.22	42.28	-40.7	-42.1	20.5	0.00e+00	0	27	0	565182464	54	6498
2026-01-27 00:39:42.46	175.37	42.59	-40.7	-42.0	20.7	0.00e+00	0	27	0	567279616	54	6454
2026-01-27 00:39:43.33	175.48	42.83	-40.4	-41.7	21.1	0.00e+00	0	27	0	568328192	54	6189
2026-01-27 00:39:44.49	175.63	43.15	-40.4	-41.7	21.1	0.00e+00	0	27	0	571473920	54	6213
2026-01-27 00:39:45.35	175.75	43.39	-39.9	-41.1	21.6	0.00e+00	0	27	0	572522496	54	5793
2026-01-27 00:39:46.51	175.91	43.71	-39.8	-41.0	21.7	0.00e+00	0	27	0	574619648	52	6405
2026-01-27 00:39:47.37	176.03	43.96	-39.9	-41.1	21.7	0.00e+00	0	27	0	576716800	52	6475
2026-01-27 00:39:48.53	176.20	44.28	-40.6	-41.9	20.8	0.00e+00	0	27	0	578813952	52	7097
2026-01-27 00:39:49.39	176.32	44.53	-40.6	-41.8	20.7	0.00e+00	0	27	0	579862528	54	6280
2026-01-27 00:39:50.55	176.50	44.86	-40.9	-42.2	20.7	0.00e+00	0	27	0	581959680	54	6551
2026-01-27 00:39:51.41	176.63	45.11	-41.0	-42.3	20.6	0.00e+00	0	27	0	584056832	54	6631
2026-01-27 00:39:52.57	176.80	45.45	-40.1	-41.3	21.1	0.00e+00	0	27	0	586153984	54	5932
2026-01-27 00:39:53.43	176.94	45.70	-41.5	-42.9	20.2	0.00e+00	0	27	0	588251136	54	7153
2026-01-27 00:39:54.59	177.12	46.04	-41.1	-42.4	20.1	0.00e+00	0	27	0	590348288	54	6756
2026-01-27 00:39:55.45	177.26	46.30	-41.5	-43.0	20.1	0.00e+00	0	27	0	591396864	54	7203
2026-01-27 00:39:56.61	177.46	46.64	-41.3	-42.6	20.2	0.00e+00	0	27	0	593494016	54	6902
2026-01-27 00:39:57.47	177.60	46.90	-41.3	-42.7	20.0	0.00e+00	0	27	0	595591168	54	6929
2026-01-27 00:39:58.63	177.80	47.25	-41.9	-43.5	19.5	0.00e+00	0	27	0	597688320	56	6772
2026-01-27 00:39:59.49	177.95	47.52	-41.8	-43.3	19.7	0.00e+00	0	27	0	598736896	56	6625
2026-01-27 00:40:00.65	178.16	47.87	-41.7	-43.1	20.3	0.00e+00	0	27	0	600834048	56	6528
2026-01-27 00:40:01.51	178.31	48.14	-40.9	-42.2	20.6	0.00e+00	0	27	0	602931200	56	5875
2026-01-27 00:40:02.66	178.53	48.49	-41.9	-43.4	19.6	0.00e+00	0	27	0	605028352	54	7578
2026-01-27 00:40:03.53	178.69	48.76	-40.4	-41.7	21.3	0.00e+00	0	27	0	607125504	54	6186
2026-01-27 00:40:04.68	178.91	49.12	-39.2	-40.3	22.4	0.00e+00	0	27	0	609222656	52	5928
2026-01-27 00:40:05.55	179.09	49.40	-38.2	-39.2	23.2	0.00e+00	0	27	0	610271232	50	5851
2026-01-27 00:40:06.70	179.32	49.77	-37.9	-38.9	23.4	0.00e+00	0	27	0	612368384	50	5640
2026-01-27 00:40:07.57	179.50	50.04	-37.8	-38.7	23.4	0.00e+00	0	27	0	614465536	48	6231
2026-01-27 00:40:08.72	179.74	50.41	-37.3	-38.2	23.8	0.00e+00	0	27	0	616562688	48	5896
2026-01-27 00:40:09.58	179.92	50.69	-37.1	-38.0	23.9	0.00e+00	0	27	0	617611264	48	5744
2026-01-27 00:40:10.74	180.18	51.07	-36.9	-37.7	24.2	0.00e+00	0	27	0	619708416	46	6238
2026-01-27 00:40:11.60	180.37	51.35	-36.7	-37.5	24.5	0.00e+00	0	27	0	621805568	46	6075
2026-01-27 00:40:12.76	180.63	51.73	-35.7	-36.4	24.9	0.00e+00	0	27	0	623902720	44	6021
2026-01-27 00:40:13.62	180.83	52.02	-35.8	-36.6	24.9	0.00e+00	0	27	0	625999872	44	6142
2026-01-27 00:40:14.78	181.11	52.40	-36.2	-37.0	24.7	0.00e+00	0	27	0	628097024	44	6412
2026-01-27 00:40:15.64	181.32	52.69	-36.4	-37.2	24.6	0.00e+00	0	27	0	629145600	44	6574
2026-01-27 00:40:16.79	181.61	53.08	-35.9	-36.6	24.9	0.00e+00	0	27	0	631242752	44	6165
2026-01-27 00:40:17.66	181.83	53.37	-36.0	-36.8	24.9	0.00e+00	0	27	0	633339904	44	6279
2026-01-27 00:40:18.81	182.13	53.76	-35.6	-36.3	25.0	0.00e+00	0	27	0	635437056	44	5953
2026-01-27 00:40:19.68	182.37	54.06	-35.6	-36.4	25.0	0.00e+00	0	27	0	636485632	44	6020
2026-01-27 00:40:20.83	182.68	54.45	-35.4	-36.2	25.3	0.00e+00	0	27	0	639631360	44	5829
2026-01-27 00:40:21.70	182.93	54.75	-35.2	-36.0	25.3	0.00e+00	0	27	0	640679936	44	5722
2026-01-27 00:40:22.85	183.26	55.15	-34.8	-35.6	25.7	0.00e+00	0	27	0	642777088	42	6105
2026-01-27 00:40:23.72	183.51	55.45	-34.7	-35.4	25.7	0.00e+00	0	27	0	644874240	42	6031
2026-01-27 00:40:24.87	183.86	55.85	-34.8	-35.5	25.7	0.00e+00	0	27	0	646971392	42	6074
2026-01-27 00:40:25.73	184.13	56.16	-35.0	-35.8	25.4	0.00e+00	0	27	0	648019968	42	6280
2026-01-27 00:40:26.89	184.50	56.56	-35.1	-35.9	25.4	0.00e+00	0	27	0	650117120	42	6344
2026-01-27 00:40:27.75	184.78	56.87	-35.4	-36.2	25.1	0.00e+00	0	27	0	652214272	42	6572
2026-01-27 00:40:28.91	185.16	57.28	-35.5	-36.3	25.1	0.00e+00	0	27	0	654311424	42	6645
2026-01-27 00:40:29.77	185.46	57.59	-35.4	-36.1	25.1	0.00e+00	0	27	0	656408576	44	5824
2026-01-27 00:40:30.93	185.87	58.00	-35.5	-36.2	25.1	0.00e+00	0	27	0	658505728	44	5892
2026-01-27 00:40:31.79	186.18	58.31	-35.2	-35.9	25.5	0.00e+00	0	27	0	659554304	44	5690
2026-01-27 00:40:32.95	186.61	58.73	-35.1	-35.8	25.4	0.00e+00	0	27	0	661651456	44	5628
2026-01-27 00:40:33.81	186.94	59.04	-35.8	-36.6	24.9	0.00e+00	0	27	0	663748608	44	6124
2026-01-27 00:40:34.96	187.39	59.45	-36.4	-37.3	24.3	0.00e+00	0	27	0	665845760	44	6637
2026-01-27 00:40:35.83	187.74	59.77	-37.1	-38.0	24.0	0.00e+00	0	27	0	666894336	46	6431
2026-01-27 00:40:36.98	188.22	60.19	-36.1	-36.9	24.8	0.00e+00	0	27	0	668991488	46	5685
2026-01-27 00:40:37.85	188.59	60.50	-35.7	-36.4	25.1	0.00e+00	0	27	0	671088640	44	6028
2026-01-27 00:40:39.00	189.09	60.92	-34.7	-35.4	25.8	0.00e+00	0	27	0	673185792	44	5364
2026-01-27 00:40:39.87	189.49	61.24	-34.8	-35.5	25.5	0.00e+00	0	27	0	675282944	42	6093
2026-01-27 00:40:41.02	190.02	61.66	-34.6	-35.4	25.6	0.00e+00	0	27	0	677380096	42	5987
2026-01-27 00:40:41.88	190.44	61.98	-34.6	-35.4	25.7	0.00e+00	0	27	0	678428672	42	6004
2026-01-27 00:40:43.04	191.01	62.40	-34.3	-35.0	25.8	0.00e+00	0	28	0	680525824	42	5760
2026-01-27 00:40:43.90	191.45	62.72	-34.4	-35.2	25.7	0.00e+00	0	27	0	682622976	42	5856
2026-01-27 00:40:45.06	192.06	63.14	-34.4	-35.1	25.9	0.00e+00	0	28	0	684720128	42	5795
2026-01-27 00:40:45.92	192.52	63.46	-34.2	-34.9	26.0	0.00e+00	0	27	0	685768704	42	5687
2026-01-27 00:40:47.08	193.17	63.88	-34.4	-35.1	25.8	0.00e+00	0	27	0	687865856	42	5828
2026-01-27 00:40:47.94	193.67	64.20	-34.6	-35.4	25.7	0.00e+00	0	27	0	689963008	42	5984
2026-01-27 00:40:49.10	194.36	64.62	-34.4	-35.1	25.8	0.00e+00	0	27	0	692060160	42	5810
2026-01-27 00:40:49.97	194.89	64.94	-34.2	-34.9	26.0	0.00e+00	0	27	0	694157312	42	5684
2026-01-27 00:40:51.12	195.62	65.36	-34.3	-35.1	26.0	0.00e+00	0	28	0	696254464	42	5762
2026-01-27 00:40:51.99	196.19	65.67	-35.3	-36.0	25.3	0.00e+00	0	27	0	697303040	42	6452
2026-01-27 00:40:53.14	196.98	66.09	-36.2	-37.1	24.6	0.00e+00	0	27	0	699400192	44	6465
2026-01-27 00:40:54.01	197.59	66.40	-36.7	-37.6	22.8	0.00e+00	0	27	0	701497344	44	6849
2026-01-27 00:40:55.16	198.42	66.81	-37.0	-37.8	24.1	0.00e+00	0	27	0	703594496	46	6289
2026-01-27 00:40:56.02	199.06	67.12	-37.3	-38.1	23.9	0.00e+00	0	27	0	704643072	46	6523
2026-01-27 00:40:57.18	199.97	67.53	-37.4	-38.2	23.8	0.00e+00	0	27	0	707788800	46	6613
2026-01-27 00:40:58.04	200.66	67.83	-37.9	-38.8	23.4	0.00e+00	0	27	0	708837376	48	6263
2026-01-27 00:40:59.20	201.62	68.23	-38.6	-39.6	22.8	0.00e+00	0	27	0	710934528	48	6899
2026-01-27 00:41:00.06	202.36	68.53	-39.5	-40.6	22.0	0.00e+00	0	27	0	713031680	50	6852
2026-01-27 00:41:01.22	203.40	68.93	-39.2	-40.2	22.2	0.00e+00	0	27	0	715128832	50	6604
2026-01-27 00:41:02.08	204.19	69.22	-39.0	-40.0	22.5	0.00e+00	0	27	0	716177408	50	6406
2026-01-27 00:41:03.23	205.29	69.61	-39.1	-40.1	22.5	0.00e+00	0	27	0	718274560	50	6531
2026-01-27 00:41:04.10	206.15	69.89	-39.7	-40.8	21.8	0.00e+00	0	27	0	720371712	50	7009
2026-01-27 00:41:05.25	207.33	70.27	-40.0	-41.1	21.7	0.00e+00	0	27	0	722468864	52	6497
2026-01-27 00:41:06.11	208.24	70.54	-39.3	-40.3	22.4	0.00e+00	0	27	0	723517440	52	5901
2026-01-27 00:41:07.27	209.52	70.91	-39.9	-41.0	21.8	0.00e+00	0	27	0	725614592	52	6418
2026-01-27 00:41:08.13	210.50	71.17	-40.7	-41.9	21.1	0.00e+00	0	27	0	727711744	52	7161
2026-01-27 00:41:09.29	211.87	71.53	-40.7	-41.9	20.7	0.00e+00	0	27	0	729808896	54	6367
2026-01-27 00:41:10.16	212.93	71.78	-41.2	-42.6	20.6	0.00e+00	0	27	0	731906048	54	6877
2026-01-27 00:41:11.31	214.38	72.12	-40.1	-41.3	21.5	0.00e+00	0	27	0	734003200	54	5939
2026-01-27 00:41:12.18	215.52	72.36	-39.1	-40.1	22.5	0.00e+00	0	27	0	735051776	52	5767
2026-01-27 00:41:13.33	217.07	72.67	-38.2	-39.1	23.2	0.00e+00	0	27	0	737148928	50	5791
2026-01-27 00:41:14.20	218.29	72.90	-38.4	-39.3	23.2	0.00e+00	0	27	0	739246080	50	5930
2026-01-27 00:41:15.35	219.94	73.19	-37.5	-38.4	23.8	0.00e+00	0	27	0	741343232	48	6003
2026-01-27 00:41:16.22	221.24	73.41	-38.2	-39.2	23.2	0.00e+00	0	27	0	743440384	48	6567
2026-01-27 00:41:17.37	223.00	73.68	-38.2	-39.1	23.2	0.00e+00	0	27	0	745537536	48	6518
2026-01-27 00:41:18.24	224.37	73.87	-37.9	-38.8	23.4	0.00e+00	0	27	0	746586112	48	6299
2026-01-27 00:41:19.39	226.24	74.11	-37.3	-38.1	23.9	0.00e+00	0	27	0	748683264	48	5803
2026-01-27 00:41:20.26	227.69	74.29	-37.6	-38.4	23.4	0.00e+00	0	27	0	750780416	48	6013
2026-01-27 00:41:21.41	229.66	74.50	-38.4	-39.4	22.8	0.00e+00	0	27	0	752877568	48	6721
2026-01-27 00:41:22.28	231.19	74.65	-38.8	-39.7	22.8	0.00e+00	0	27	0	753926144	50	6243
2026-01-27 00:41:23.43	233.25	74.83	-38.2	-39.1	23.2	0.00e+00	0	27	0	756023296	50	5822
2026-01-27 00:41:24.30	234.85	74.96	-37.6	-38.5	23.8	0.00e+00	0	27	0	758120448	48	6049
2026-01-27 00:41:25.45	236.99	75.10	-37.4	-38.3	23.8	0.00e+00	0	27	0	760217600	48	5937
2026-01-27 00:41:26.32	238.65	75.20	-37.5	-38.4	23.8	0.00e+00	0	27	0	762314752	48	5968
2026-01-27 00:41:27.47	240.86	75.31	-39.6	-40.7	22.0	0.00e+00	0	27	0	764411904	50	6978
2026-01-27 00:41:28.34	242.56	75.39	-41.1	-42.6	20.2	0.00e+00	0	27	0	765460480	54	6876
2026-01-27 00:41:29.49	244.83	75.46	-40.6	-41.9	20.8	0.00e+00	0	27	0	767557632	54	6352
2026-01-27 00:41:30.35	246.54	75.50	-40.2	-41.5	21.4	0.00e+00	0	27	0	769654784	54	6040
2026-01-27 00:41:31.51	248.86	75.54	-39.9	-41.1	21.8	0.00e+00	0	27	0	771751936	54	5785
2026-01-27 00:41:32.37	250.58	75.55	-39.2	-40.2	22.5	0.00e+00	0	27	0	772800512	52	5884
2026-01-27 00:41:33.53	252.91	75.54	-37.1	-37.9	24.0	0.00e+00	0	27	0	775946240	48	5647
2026-01-27 00:41:34.39	254.63	75.53	-37.1	-37.9	24.2	0.00e+00	0	27	0	776994816	48	5661
2026-01-27 00:41:35.55	256.95	75.48	-37.5	-38.4	23.9	0.00e+00	0	27	0	779091968	48	5975
2026-01-27 00:41:36.41	258.65	75.43	-37.3	-38.2	23.9	0.00e+00	0	27	0	781189120	48	5831
2026-01-27 00:41:37.57	260.93	75.35	-38.2	-39.1	23.3	0.00e+00	0	27	0	783286272	48	6473
2026-01-27 00:41:38.43	262.60	75.28	-37.8	-38.7	23.5	0.00e+00	0	27	0	784334848	48	6223
2026-01-27 00:41:39.59	264.82	75.15	-38.1	-39.0	23.4	0.00e+00	0	27	0	786432000	48	6443
2026-01-27 00:41:40.46	266.46	75.05	-39.1	-40.1	22.4	0.00e+00	0	27	0	788529152	50	6466
2026-01-27 00:41:41.61	268.59	74.89	-39.9	-41.0	21.9	0.00e+00	0	27	0	790626304	52	6449
2026-01-27 00:41:42.47	270.15	74.77	-39.4	-40.4	22.4	0.00e+00	0	27	0	792723456	52	6021
2026-01-27 00:41:43.63	272.21	74.58	-38.5	-39.5	22.9	0.00e+00	0	27	0	794820608	50	6046
2026-01-27 00:41:44.49	273.71	74.42	-38.4	-39.4	23.1	0.00e+00	0	27	0	795869184	50	5968
2026-01-27 00:41:45.65	275.67	74.20	-38.0	-38.9	23.6	0.00e+00	0	27	0	797966336	50	5674
2026-01-27 00:41:46.51	277.09	74.03	-38.3	-39.3	23.2	0.00e+00	0	27	0	800063488	50	5905
2026-01-27 00:41:47.66	278.93	73.78	-40.1	-41.2	21.6	0.00e+00	0	27	0	802160640	52	6568
2026-01-27 00:41:48.52	280.27	73.58	-40.1	-41.2	21.5	0.00e+00	0	27	0	803209216	52	6550
2026-01-27 00:41:49.68	282.03	73.31	-39.1	-40.1	22.6	0.00e+00	0	27	0	805306368	52	5788
2026-01-27 00:41:50.54	283.29	73.09	-39.0	-40.0	22.7	0.00e+00	0	27	0	807403520	50	6398
2026-01-27 00:41:51.70	284.94	72.79	-39.1	-40.1	22.8	0.00e+00	0	27	0	809500672	50	6468
2026-01-27 00:41:52.56	286.12	72.56	-38.7	-39.7	22.9	0.00e+00	0	27	0	811597824	50	6174
2026-01-27 00:41:53.72	287.67	72.24	-38.9	-39.9	22.5	0.00e+00	0	27	0	813694976	50	6346
2026-01-27 00:41:54.58	288.77	72.00	-39.5	-40.6	21.9	0.00e+00	0	28	0	814743552	50	6866
2026-01-27 00:41:55.74	290.22	71.66	-39.2	-40.2	22.3	0.00e+00	0	27	0	816840704	52	5882
2026-01-27 00:41:56.61	291.26	71.40	-39.6	-40.8	21.8	0.00e+00	0	27	0	818937856	52	6259
2026-01-27 00:41:57.76	292.60	71.05	-40.6	-41.8	21.0	0.00e+00	0	27	0	821035008	54	6315
2026-01-27 00:41:58.63	293.57	70.78	-40.2	-41.3	21.4	0.00e+00	0	27	0	822083584	54	5953
2026-01-27 00:41:59.78	294.82	70.42	-39.1	-40.2	22.5	0.00e+00	0	27	0	824180736	52	5842
2026-01-27 00:42:00.65	295.73	70.14	-38.7	-39.6	23.1	0.00e+00	0	27	0	826277888	50	6163
2026-01-27 00:42:01.80	296.89	69.76	-38.5	-39.4	23.0	0.00e+00	0	27	0	828375040	50	6004
2026-01-27 00:42:02.66	297.73	69.47	-40.0	-41.1	21.8	0.00e+00	0	27	0	830472192	50	7270
2026-01-27 00:42:03.82	298.82	69.09	-40.7	-41.9	21.0	0.00e+00	0	28	0	832569344	54	6349
2026-01-27 00:42:04.68	299.60	68.79	-41.0	-42.3	20.5	0.00e+00	0	27	0	833617920	54	6653
2026-01-27 00:42:05.84	300.62	68.40	-40.3	-41.5	21.3	0.00e+00	0	27	0	835715072	54	6045
2026-01-27 00:42:06.70	301.35	68.10	-40.0	-41.1	21.5	0.00e+00	0	27	0	837812224	52	6491
2026-01-27 00:42:07.85	302.29	67.70	-39.9	-41.1	21.6	0.00e+00	0	27	0	839909376	52	6489
2026-01-27 00:42:08.72	302.98	67.39	-41.5	-43.0	19.9	0.00e+00	0	27	0	840957952	54	7221
2026-01-27 00:42:09.87	303.86	66.98	-40.5	-41.8	20.9	0.00e+00	0	27	0	844103680	54	6302
2026-01-27 00:42:10.74	304.50	66.67	-38.4	-39.4	23.1	0.00e+00	0	27	0	845152256	50	5997
2026-01-27 00:42:11.89	305.32	66.26	-37.2	-38.0	24.0	0.00e+00	0	27	0	847249408	48	5723
2026-01-27 00:42:12.75	305.92	65.95	-37.6	-38.5	23.6	0.00e+00	0	27	0	849346560	48	6077
2026-01-27 00:42:13.91	306.70	65.53	-37.6	-38.5	23.6	0.00e+00	0	27	0	851443712	48	6102
2026-01-27 00:42:14.77	307.25	65.22	-37.4	-38.3	23.7	0.00e+00	0	27	0	852492288	48	5901
2026-01-27 00:42:15.93	307.98	64.80	-36.8	-37.6	24.3	0.00e+00	0	27	0	854589440	48	5502
2026-01-27 00:42:16.80	308.51	64.49	-35.9	-36.7	24.8	0.00e+00	0	27	0	856686592	46	5538
2026-01-27 00:42:17.95	309.18	64.07	-35.3	-36.0	25.4	0.00e+00	0	27	0	858783744	44	5734
2026-01-27 00:42:18.82	309.68	63.75	-35.2	-36.0	25.4	0.00e+00	0	27	0	859832320	44	5741
2026-01-27 00:42:19.97	310.31	63.33	-34.6	-35.4	25.8	0.00e+00	0	27	0	861929472	42	5974
2026-01-27 00:42:20.84	310.78	63.01	-33.7	-34.4	26.2	0.00e+00	0	27	0	864026624	42	5354
2026-01-27 00:42:21.99	311.37	62.59	-34.4	-35.2	25.9	0.00e+00	0	27	0	866123776	40	6557
2026-01-27 00:42:22.85	311.80	62.28	-35.9	-36.7	24.9	0.00e+00	0	27	0	868220928	44	6239
2026-01-27 00:42:24.01	312.37	61.85	-37.4	-38.3	24.0	0.00e+00	0	27	0	870318080	46	6665
2026-01-27 00:42:24.87	312.78	61.54	-37.4	-38.3	23.9	0.00e+00	0	27	0	871366656	46	6675
2026-01-27 00:42:26.02	313.31	61.12	-36.1	-36.9	24.9	0.00e+00	0	27	0	873463808	46	5639
2026-01-27 00:42:26.89	313.69	60.80	-35.2	-35.9	25.5	0.00e+00	0	27	0	875560960	44	5683
2026-01-27 00:42:28.04	314.19	60.38	-35.3	-36.1	25.2	0.00e+00	0	27	0	877658112	44	5764
2026-01-27 00:42:28.91	314.56	60.07	-35.3	-36.0	25.2	0.00e+00	0	27	0	878706688	44	5740
2026-01-27 00:42:30.06	315.03	59.65	-36.1	-36.9	24.4	0.00e+00	0	27	0	881852416	44	6383
2026-01-27 00:42:30.93	315.38	59.34	-37.7	-38.6	23.6	0.00e+00	0	27	0	882900992	46	6896
2026-01-27 00:42:32.08	315.83	58.92	-37.5	-38.4	23.7	0.00e+00	0	27	0	884998144	48	6012
2026-01-27 00:42:32.95	316.15	58.61	-36.2	-37.0	24.7	0.00e+00	0	27	0	887095296	46	5755
2026-01-27 00:42:34.10	316.58	58.20	-34.9	-35.7	25.6	0.00e+00	0	27	0	889192448	42	6176
2026-01-27 00:42:34.97	316.89	57.89	-34.7	-35.4	25.7	0.00e+00	0	27	0	890241024	42	5999
2026-01-27 00:42:36.12	317.29	57.48	-35.5	-36.2	25.2	0.00e+00	0	27	0	892338176	42	6601
2026-01-27 00:42:36.98	317.58	57.17	-36.0	-36.8	24.8	0.00e+00	0	27	0	894435328	44	6300
2026-01-27 00:42:38.14	317.96	56.76	-35.7	-36.4	25.0	0.00e+00	0	27	0	896532480	44	6027
2026-01-27 00:42:39.00	318.24	56.46	-34.9	-35.6	25.5	0.00e+00	0	27	0	898629632	44	5502
2026-01-27 00:42:40.16	318.61	56.05	-34.4	-35.1	25.8	0.00e+00	0	27	0	900726784	42	5777
2026-01-27 00:42:41.02	318.87	55.75	-35.1	-35.8	25.4	0.00e+00	0	27	0	901775360	42	6299
2026-01-27 00:42:42.17	319.21	55.35	-36.0	-36.9	24.7	0.00e+00	0	27	0	903872512	44	6339
2026-01-27 00:42:43.04	319.47	55.05	-37.0	-38.0	23.8	0.00e+00	0	27	0	905969664	46	6409
2026-01-27 00:42:44.19	319.80	54.66	-36.7	-37.6	24.2	0.00e+00	0	27	0	908066816	46	6132
2026-01-27 00:42:45.06	320.04	54.36	-36.6	-37.4	24.4	0.00e+00	0	27	0	909115392	46	6021
2026-01-27 00:42:46.21	320.35	53.97	-37.0	-37.9	24.1	0.00e+00	0	27	0	911212544	46	6337
2026-01-27 00:42:47.08	320.58	53.67	-37.2	-38.1	24.0	0.00e+00	0	27	0	913309696	46	6500
2026-01-27 00:42:48.23	320.88	53.28	-36.9	-37.8	24.1	0.00e+00	0	27	0	915406848	46	6284
2026-01-27 00:42:49.10	321.10	52.99	-36.9	-37.8	24.0	0.00e+00	0	27	0	917504000	46	6315
2026-01-27 00:42:50.25	321.38	52.61	-37.4	-38.4	23.6	0.00e+00	0	27	0	919601152	46	6721
2026-01-27 00:42:51.12	321.59	52.32	-38.5	-39.6	22.8	0.00e+00	0	27	0	920649728	48	6888
2026-01-27 00:42:52.27	321.87	51.94	-37.3	-38.2	24.1	0.00e+00	0	27	0	922746880	48	5847
2026-01-27 00:42:53.14	322.07	51.65	-36.6	-37.4	24.5	0.00e+00	0	27	0	924844032	46	6024
2026-01-27 00:42:54.30	322.33	51.27	-36.6	-37.5	24.4	0.00e+00	0	27	0	926941184	46	6039
2026-01-27 00:42:55.16	322.52	50.99	-37.0	-37.9	24.1	0.00e+00	0	27	0	927989760	46	6323
2026-01-27 00:42:56.31	322.77	50.62	-38.1	-39.0	23.3	0.00e+00	0	27	0	930086912	48	6459
2026-01-27 00:42:57.18	322.96	50.34	-38.4	-39.5	23.0	0.00e+00	0	27	0	932184064	48	6775
2026-01-27 00:42:58.33	323.20	49.97	-38.9	-40.0	22.5	0.00e+00	0	27	0	934281216	50	6459
2026-01-27 00:42:59.20	323.37	49.69	-39.5	-40.7	22.0	0.00e+00	0	27	0	936378368	50	6939
2026-01-27 00:43:00.35	323.60	49.33	-39.5	-40.6	22.0	0.00e+00	0	27	0	938475520	50	6910
2026-01-27 00:43:01.22	323.77	49.06	-38.9	-39.9	22.6	0.00e+00	0	27	0	939524096	50	6381
2026-01-27 00:43:02.37	323.99	48.70	-38.2	-39.1	23.3	0.00e+00	0	27	0	941621248	50	5801
2026-01-27 00:43:03.23	324.15	48.43	-37.7	-38.7	23.7	0.00e+00	0	27	0	943718400	48	6175
2026-01-27 00:43:04.39	324.37	48.07	-37.4	-38.3	23.8	0.00e+00	0	27	0	945815552	48	5923
2026-01-27 00:43:05.25	324.52	47.81	-38.6	-39.6	22.8	0.00e+00	0	27	0	946864128	48	6893
2026-01-27 00:43:06.41	324.73	47.46	-41.2	-42.8	20.2	0.00e+00	0	27	0	950009856	52	7886
2026-01-27 00:43:07.27	324.88	47.20	-42.5	-44.4	18.8	0.00e+00	0	27	0	951058432	58	6696
2026-01-27 00:43:08.43	325.08	46.85	-42.9	-45.0	18.2	0.00e+00	0	27	0	953155584	58	7188
2026-01-27 00:43:09.29	325.22	46.59	-41.8	-43.5	19.5	0.00e+00	0	27	0	955252736	58	6040
2026-01-27 00:43:10.44	325.41	46.25	-38.9	-39.9	22.6	0.00e+00	0	27	0	957349888	52	5680
2026-01-27 00:43:11.31	325.55	45.99	-37.7	-38.6	23.7	0.00e+00	0	27	0	958398464	50	5495
2026-01-27 00:43:12.46	325.73	45.66	-37.4	-38.3	24.1	0.00e+00	0	27	0	960495616	48	5918
2026-01-27 00:43:13.33	325.87	45.40	-38.7	-39.7	22.6	0.00e+00	0	27	0	962592768	48	6992
2026-01-27 00:43:14.48	326.04	45.07	-40.3	-41.5	21.1	0.00e+00	0	27	0	964689920	52	6818
2026-01-27 00:43:15.35	326.17	44.82	-40.7	-42.0	21.0	0.00e+00	0	27	0	966787072	54	6416
2026-01-27 00:43:16.50	326.34	44.49	-40.9	-42.3	20.6	0.00e+00	0	27	0	968884224	54	6636
2026-01-27 00:43:17.37	326.47	44.25	-40.5	-41.7	21.1	0.00e+00	0	27	0	969932800	54	6222
2026-01-27 00:43:18.52	326.63	43.92	-39.8	-40.9	21.9	0.00e+00	0	27	0	972029952	52	6336
2026-01-27 00:43:19.39	326.75	43.68	-39.8	-40.9	21.5	0.00e+00	0	27	0	974127104	52	6326
2026-01-27 00:43:20.54	326.91	43.36	-39.7	-40.8	21.9	0.00e+00	0	27	0	976224256	52	6252
2026-01-27 00:43:21.41	327.03	43.12	-39.0	-40.0	22.5	0.00e+00	0	27	0	977272832	52	5727
2026-01-27 00:43:22.56	327.18	42.81	-38.6	-39.6	22.8	0.00e+00	0	28	0	979369984	50	6108
2026-01-27 00:43:23.43	327.30	42.57	-37.8	-38.7	23.1	0.00e+00	0	27	0	981467136	50	5549
2026-01-27 00:43:24.58	327.44	42.26	-37.5	-38.3	23.7	0.00e+00	0	28	0	983564288	48	5956
2026-01-27 00:43:25.44	327.55	42.03	-37.6	-38.5	23.6	0.00e+00	0	27	0	985661440	48	6058
2026-01-27 00:43:26.60	327.70	41.72	-38.9	-39.9	22.5	0.00e+00	0	28	0	987758592	48	7136
2026-01-27 00:43:27.46	327.80	41.49	-38.8	-39.8	22.8	0.00e+00	0	27	0	988807168	50	6298
2026-01-27 00:43:28.62	327.94	41.18	-39.9	-41.1	21.6	0.00e+00	0	27	0	990904320	52	6465
2026-01-27 00:43:29.48	328.05	40.96	-39.5	-40.6	22.2	0.00e+00	0	27	0	993001472	52	6150
2026-01-27 00:43:30.64	328.18	40.66	-38.5	-39.5	23.1	0.00e+00	0	27	0	995098624	50	6077
2026-01-27 00:43:31.50	328.28	40.44	-37.3	-38.2	23.9	0.00e+00	0	27	0	996147200	48	5886
2026-01-27 00:43:32.65	328.41	40.14	-37.0	-37.9	24.2	0.00e+00	0	27	0	998244352	48	5660
2026-01-27 00:43:33.52	328.51	39.92	-36.6	-37.4	24.6	0.00e+00	0	28	0	1000341504	46	6019
2026-01-27 00:43:34.68	328.63	39.63	-36.1	-36.9	24.9	0.00e+00	0	27	0	1002438656	46	5652
2026-01-27 00:43:35.54	328.73	39.41	-36.8	-37.7	24.5	0.00e+00	0	27	0	1004535808	46	6179
2026-01-27 00:43:36.69	328.85	39.13	-37.1	-37.9	24.0	0.00e+00	0	27	0	1006632960	46	6367
2026-01-27 00:43:37.56	328.94	38.91	-37.6	-38.5	23.5	0.00e+00	0	27	0	1007681536	46	6842
2026-01-27 00:43:38.71	329.06	38.63	-38.7	-39.7	22.7	0.00e+00	0	27	0	1009778688	50	6210
2026-01-27 00:43:39.58	329.15	38.42	-39.8	-40.9	21.9	0.00e+00	0	27	0	1011875840	52	6376
2026-01-27 00:43:40.73	329.27	38.14	-40.2	-41.4	21.5	0.00e+00	0	27	0	1013972992	52	6729
2026-01-27 00:43:41.60	329.35	37.93	-39.6	-40.8	22.0	0.00e+00	0	27	0	1015021568	52	6255
2026-01-27 00:43:42.75	329.46	37.65	-38.4	-39.4	23.0	0.00e+00	0	27	0	1018167296	50	6000
2026-01-27 00:43:43.62	329.55	37.45	-38.2	-39.1	23.5	0.00e+00	0	27	0	1019215872	50	5812
2026-01-27 00:43:44.77	329.66	37.17	-36.6	-37.5	24.4	0.00e+00	0	27	0	1021313024	46	6047
2026-01-27 00:43:45.64	329.74	36.97	-36.7	-37.6	24.3	0.00e+00	0	27	0	1023410176	46	6133
2026-01-27 00:43:46.79	329.84	36.70	-36.7	-37.6	24.6	0.00e+00	0	27	0	1025507328	46	6107
2026-01-27 00:43:47.66	329.92	36.50	-37.0	-37.8	24.1	0.00e+00	0	27	0	1026555904	46	6313
2026-01-27 00:43:48.81	330.03	36.24	-37.4	-38.3	23.9	0.00e+00	0	27	0	1028653056	46	6623
2026-01-27 00:43:49.68	330.10	36.04	-37.6	-38.4	23.8	0.00e+00	0	27	0	1030750208	46	6755
2026-01-27 00:43:50.84	330.21	35.78	-37.9	-38.8	23.5	0.00e+00	0	27	0	1032847360	48	6265
2026-01-27 00:43:51.70	330.28	35.59	-38.0	-38.9	23.4	0.00e+00	0	27	0	1034944512	48	6337
2026-01-27 00:43:52.85	330.38	35.33	-38.8	-39.7	22.8	0.00e+00	0	27	0	1037041664	50	6245
2026-01-27 00:43:53.72	330.45	35.14	-39.0	-40.0	22.5	0.00e+00	0	27	0	1038090240	50	6437
2026-01-27 00:43:54.87	330.55	34.88	-40.2	-41.4	21.4	0.00e+00	0	27	0	1040187392	52	6725
2026-01-27 00:43:55.74	330.62	34.69	-40.5	-41.7	21.1	0.00e+00	0	27	0	1042284544	52	7000
2026-01-27 00:43:56.89	330.71	34.44	-41.5	-42.9	19.9	0.00e+00	0	27	0	1044381696	54	7158
2026-01-27 00:43:57.76	330.78	34.26	-42.6	-44.4	19.1	0.00e+00	0	27	0	1045430272	56	7554
2026-01-27 00:43:58.91	330.87	34.01	-41.6	-43.1	20.0	0.00e+00	0	27	0	1047527424	56	6521
2026-01-27 00:43:59.78	330.94	33.82	-41.7	-43.2	19.9	0.00e+00	0	27	0	1049624576	56	6557
2026-01-27 00:44:00.93	331.03	33.58	-40.8	-42.1	20.9	0.00e+00	0	27	0	1051721728	54	6525
2026-01-27 00:44:01.80	331.09	33.40	-40.3	-41.4	21.4	0.00e+00	0	27	0	1053818880	54	6031
2026-01-27 00:44:02.95	331.18	33.16	-39.0	-40.0	22.5	0.00e+00	0	27	0	1055916032	52	5753
2026-01-27 00:44:03.82	331.25	32.98	-38.9	-39.9	22.1	0.00e+00	0	27	0	1056964608	52	5649
2026-01-27 00:44:04.97	331.33	32.74	-38.5	-39.4	22.9	0.00e+00	0	27	0	1059061760	50	6017
2026-01-27 00:44:05.84	331.39	32.56	-37.8	-38.7	23.6	0.00e+00	0	27	0	1061158912	50	5513
2026-01-27 00:44:06.99	331.48	32.33	-38.1	-39.0	23.5	0.00e+00	0	27	0	1063256064	50	5756
2026-01-27 00:44:07.85	331.54	32.16	-38.0	-38.9	23.5	0.00e+00	0	27	0	1064304640	50	5675
2026-01-27 00:44:09.01	331.62	31.92	-38.4	-39.3	23.1	0.00e+00	0	27	0	1066401792	50	5945
2026-01-27 00:44:09.87	331.68	31.75	-38.5	-39.5	22.9	0.00e+00	0	27	0	1068498944	50	6050
2026-01-27 00:44:11.02	331.76	31.53	-39.1	-40.1	22.4	0.00e+00	0	27	0	1070596096	50	6467
2026-01-27 00:44:11.89	331.81	31.35	-39.6	-40.6	21.9	0.00e+00	0	27	0	1072693248	50	6904
2026-01-27 00:44:13.05	331.89	31.13	-40.7	-41.9	20.9	0.00e+00	0	27	0	1074790400	52	7162
2026-01-27 00:44:13.91	331.95	30.96	-40.5	-41.7	21.1	0.00e+00	0	27	0	1075838976	54	6197
2026-01-27 00:44:15.06	332.02	30.74	-40.0	-41.1	21.6	0.00e+00	0	27	0	1077936128	54	5807
2026-01-27 00:44:15.93	332.08	30.57	-40.4	-41.5	21.4	0.00e+00	0	27	0	1080033280	52	6836
2026-01-27 00:44:17.08	332.15	30.35	-39.7	-40.8	21.9	0.00e+00	0	27	0	1082130432	52	6315
2026-01-27 00:44:17.94	332.21	30.19	-39.6	-40.6	22.1	0.00e+00	0	27	0	1083179008	52	6171
2026-01-27 00:44:19.10	332.28	29.97	-39.7	-40.8	21.9	0.00e+00	0	27	0	1086324736	52	6316
2026-01-27 00:44:19.96	332.33	29.81	-39.7	-40.8	22.0	0.00e+00	0	27	0	1087373312	52	6276
2026-01-27 00:44:21.12	332.40	29.60	-39.5	-40.6	22.1	0.00e+00	0	27	0	1089470464	52	6134
2026-01-27 00:44:21.98	332.46	29.44	-39.0	-40.0	22.4	0.00e+00	0	27	0	1091567616	52	5739
2026-01-27 00:44:23.13	332.52	29.23	-39.0	-40.0	22.4	0.00e+00	0	27	0	1093664768	52	5747
2026-01-27 00:44:24.00	332.58	29.07	-39.0	-40.0	22.5	0.00e+00	0	27	0	1094713344	52	5747
2026-01-27 00:44:25.15	332.64	28.87	-38.7	-39.7	22.7	0.00e+00	0	27	0	1096810496	50	6223
2026-01-27 00:44:26.02	332.69	28.71	-38.7	-39.7	22.7	0.00e+00	0	27	0	1098907648	50	6206
2026-01-27 00:44:27.17	332.76	28.50	-38.5	-39.4	23.0	0.00e+00	0	27	0	1101004800	50	6027
2026-01-27 00:44:28.03	332.81	28.35	-38.7	-39.6	22.8	0.00e+00	0	27	0	1103101952	50	6163
2026-01-27 00:44:29.18	332.87	28.15	-38.2	-39.1	23.2	0.00e+00	0	27	0	1105199104	50	5776
2026-01-27 00:44:30.05	332.92	28.00	-38.3	-39.2	23.1	0.00e+00	0	27	0	1106247680	50	5891
2026-01-27 00:44:31.20	332.98	27.80	-38.2	-39.1	23.1	0.00e+00	0	27	0	1108344832	50	5828
2026-01-27 00:44:32.07	333.03	27.65	-38.1	-39.0	23.4	0.00e+00	0	27	0	1110441984	50	5701
2026-01-27 00:44:33.23	333.09	27.45	-37.7	-38.6	23.5	0.00e+00	0	27	0	1112539136	48	6150
2026-01-27 00:44:34.09	333.14	27.30	-37.9	-38.8	23.4	0.00e+00	0	27	0	1113587712	48	6253
2026-01-27 00:44:35.25	333.20	27.10	-37.9	-38.8	23.4	0.00e+00	0	27	0	1115684864	48	6280
2026-01-27 00:44:36.11	333.25	26.96	-37.4	-38.2	23.8	0.00e+00	0	27	0	1117782016	48	5888
2026-01-27 00:44:37.26	333.31	26.77	-37.4	-38.2	23.8	0.00e+00	0	27	0	1119879168	48	5891
2026-01-27 00:44:38.13	333.35	26.62	-37.4	-38.3	23.8	0.00e+00	0	27	0	1121976320	48	5935
2026-01-27 00:44:39.28	333.41	26.43	-37.6	-38.5	23.6	0.00e+00	0	27	0	1124073472	48	6094
2026-01-27 00:44:40.15	333.45	26.29	-37.9	-38.9	23.3	0.00e+00	0	27	0	1125122048	48	6328
2026-01-27 00:44:41.30	333.51	26.10	-38.2	-39.2	23.1	0.00e+00	0	27	0	1127219200	48	6542
2026-01-27 00:44:42.17	333.55	25.96	-38.4	-39.4	22.9	0.00e+00	0	27	0	1129316352	48	6750
2026-01-27 00:44:43.32	333.61	25.77	-38.8	-39.9	22.6	0.00e+00	0	28	0	1131413504	50	6334
2026-01-27 00:44:44.19	333.65	25.63	-38.5	-39.6	22.7	0.00e+00	0	27	0	1132462080	50	6105
2026-01-27 00:44:45.34	333.71	25.45	-38.6	-39.7	22.7	0.00e+00	0	27	0	1134559232	50	6202
2026-01-27 00:44:46.21	333.75	25.31	-38.7	-39.8	22.7	0.00e+00	0	27	0	1136656384	50	6247
2026-01-27 00:44:47.37	333.80	25.13	-38.5	-39.5	22.8	0.00e+00	0	27	0	1138753536	50	6079
2026-01-27 00:44:48.23	333.84	24.99	-38.4	-39.5	22.8	0.00e+00	0	27	0	1140850688	50	6035
2026-01-27 00:44:49.39	333.90	24.81	-38.5	-39.6	22.9	0.00e+00	0	27	0	1142947840	50	6105
2026-01-27 00:44:50.25	333.94	24.68	-37.9	-38.8	23.3	0.00e+00	0	27	0	1143996416	50	5628
2026-01-27 00:44:51.40	333.99	24.50	-37.2	-38.1	24.0	0.00e+00	0	27	0	1146093568	48	5793
2026-01-27 00:44:52.27	334.03	24.37	-37.2	-38.1	23.8	0.00e+00	0	27	0	1148190720	48	5779
2026-01-27 00:44:53.43	334.08	24.19	-37.0	-37.9	24.1	0.00e+00	0	27	0	1150287872	48	5668
2026-01-27 00:44:54.29	334.12	24.06	-36.7	-37.6	24.1	0.00e+00	0	27	0	1151336448	46	6107
2026-01-27 00:44:55.44	334.17	23.89	-36.9	-37.8	24.1	0.00e+00	0	27	0	1154482176	46	6263
2026-01-27 00:44:56.31	334.21	23.76	-36.8	-37.7	24.1	0.00e+00	0	27	0	1155530752	46	6203
2026-01-27 00:44:57.47	334.26	23.59	-36.7	-37.5	24.2	0.00e+00	0	27	0	1157627904	46	6098
2026-01-27 00:44:58.33	334.29	23.46	-36.5	-37.4	24.4	0.00e+00	0	27	0	1159725056	46	5972
2026-01-27 00:44:59.49	334.34	23.29	-36.7	-37.5	24.1	0.00e+00	0	27	0	1161822208	46	6089
2026-01-27 00:45:00.35	334.38	23.16	-36.7	-37.6	24.2	0.00e+00	0	27	0	1162870784	46	6118
2026-01-27 00:45:01.50	334.43	22.99	-36.7	-37.6	24.1	0.00e+00	0	27	0	1164967936	46	6139
2026-01-27 00:45:02.37	334.46	22.87	-36.7	-37.6	24.2	0.00e+00	0	27	0	1167065088	46	6116
2026-01-27 00:45:03.52	334.51	22.70	-36.7	-37.5	24.1	0.00e+00	0	27	0	1169162240	46	6081
2026-01-27 00:45:04.39	334.55	22.58	-36.9	-37.8	24.1	0.00e+00	0	27	0	1171259392	46	6253
2026-01-27 00:45:05.54	334.59	22.42	-36.8	-37.6	24.0	0.00e+00	0	27	0	1173356544	46	6167
2026-01-27 00:45:06.41	334.63	22.29	-36.6	-37.5	24.1	0.00e+00	0	27	0	1174405120	46	6061
2026-01-27 00:45:07.56	334.67	22.13	-37.1	-38.0	23.9	0.00e+00	0	27	0	1176502272	46	6430
2026-01-27 00:45:08.42	334.71	22.01	-37.1	-38.0	23.9	0.00e+00	0	27	0	1178599424	46	6416
2026-01-27 00:45:09.58	334.75	21.85	-37.3	-38.2	23.6	0.00e+00	0	27	0	1180696576	46	6583
2026-01-27 00:45:10.45	334.79	21.73	-37.5	-38.4	23.6	0.00e+00	0	27	0	1181745152	46	6769
2026-01-27 00:45:11.60	334.83	21.57	-37.8	-38.8	23.4	0.00e+00	0	27	0	1183842304	46	7025
2026-01-27 00:45:12.47	334.86	21.45	-37.8	-38.7	23.3	0.00e+00	0	27	0	1185939456	48	6241
2026-01-27 00:45:13.62	334.91	21.29	-37.5	-38.5	23.4	0.00e+00	0	27	0	1188036608	48	6058
2026-01-27 00:45:14.49	334.94	21.18	-37.4	-38.4	23.6	0.00e+00	0	27	0	1190133760	48	5966
2026-01-27 00:45:15.64	334.98	21.02	-37.3	-38.2	23.7	0.00e+00	0	27	0	1192230912	48	5874
2026-01-27 00:45:16.50	335.01	20.91	-37.3	-38.2	23.7	0.00e+00	0	27	0	1193279488	48	5872
2026-01-27 00:45:17.65	335.06	20.75	-37.4	-38.3	23.6	0.00e+00	0	28	0	1195376640	48	5938
2026-01-27 00:45:18.52	335.09	20.64	-36.9	-37.8	24.0	0.00e+00	0	28	0	1197473792	48	5604
2026-01-27 00:45:19.67	335.13	20.49	-36.6	-37.4	24.2	0.00e+00	0	28	0	1199570944	46	6014
2026-01-27 00:45:20.53	335.16	20.37	-36.7	-37.6	24.2	0.00e+00	0	28	0	1200619520	46	6115
2026-01-27 00:45:21.69	335.20	20.22	-36.3	-37.1	24.5	0.00e+00	0	28	0	1202716672	46	5824
2026-01-27 00:45:22.55	335.23	20.11	-36.4	-37.2	24.4	0.00e+00	0	27	0	1204813824	46	5889
