passes_logs/2026/01/27/R4.6S_Anadyr/R4.6S_Anadyr__20260127_025105_KOSAR1-5_rec.log

#Pass ID: 20260127_025105_KOSAR1-5
#Satellite: KOSAR1-5
#Configuration: KOSAR1-5
#almurnet v.1.7.20251203
#Start time: 2026-01-27 02:51:09

#Version: 2.2.20231116
#Station: R4.6S_Anadyr
#Location: 177.4865 lon 64.73178 lat
#TLE: 1 67264U 25313S   26026.51088181  .00010179  00000+0  46997-3 0  9992
#TLE: 2 67264  97.4174 103.4904 0016447 142.6904 217.5477 15.20282047  4400

#Time	Az	El	Level	Level2	SNR	BER	BlckErr	Temp	State	Recorded	gain1	gain2
2026-01-27 02:51:09.25	20.18	0.15	-45.7	-59.1	3.3	1.54e+00	0	29	0	0	60	36356
2026-01-27 02:51:10.25	20.06	0.20	-45.7	-60.4	3.6	1.51e+00	0	29	104	0	60	42427
2026-01-27 02:51:11.26	19.94	0.25	-45.7	-60.4	3.6	1.51e+00	0	29	104	0	60	42513
2026-01-27 02:51:12.27	19.82	0.29	-45.7	-60.4	3.6	1.51e+00	0	29	104	0	60	42578
2026-01-27 02:51:13.28	19.70	0.34	-45.8	-60.4	3.6	1.51e+00	0	29	104	0	60	42687
2026-01-27 02:51:14.29	19.58	0.39	-45.7	-60.5	3.6	1.51e+00	0	29	104	0	60	42811
2026-01-27 02:51:15.29	19.46	0.43	-45.8	-60.5	3.6	1.51e+00	0	29	104	0	60	42926
2026-01-27 02:51:16.31	19.34	0.48	-45.7	-60.5	3.6	1.51e+00	0	29	104	0	60	42795
2026-01-27 02:51:17.32	19.22	0.53	-45.8	-60.5	3.6	1.51e+00	0	29	104	0	60	42728
2026-01-27 02:51:18.32	19.10	0.58	-45.5	-60.5	3.6	1.51e+00	0	29	104	0	60	42770
2026-01-27 02:51:19.33	18.97	0.62	-45.6	-60.4	3.6	1.51e+00	0	29	104	0	60	42325
2026-01-27 02:51:20.34	18.85	0.67	-45.7	-60.4	3.6	1.51e+00	0	29	104	0	60	42369
2026-01-27 02:51:21.36	18.73	0.72	-45.7	-60.3	3.6	1.51e+00	0	29	104	0	60	42167
2026-01-27 02:51:22.36	18.60	0.76	-45.5	-60.3	3.5	1.51e+00	0	29	104	0	60	41889
2026-01-27 02:51:23.38	18.48	0.81	-45.4	-60.2	3.6	1.51e+00	0	29	104	0	60	41569
2026-01-27 02:51:24.39	18.35	0.86	-45.1	-60.1	3.6	1.51e+00	0	29	104	0	60	40845
2026-01-27 02:51:25.40	18.23	0.90	-45.2	-59.9	3.6	1.51e+00	0	29	104	0	60	39996
2026-01-27 02:51:26.40	18.10	0.95	-45.0	-59.7	3.6	1.51e+00	0	29	104	0	60	39036
2026-01-27 02:51:27.41	17.97	1.00	-44.8	-59.5	3.6	1.51e+00	0	29	104	0	60	38229
2026-01-27 02:51:28.42	17.85	1.04	-44.5	-59.3	3.5	1.51e+00	0	29	104	0	60	37264
2026-01-27 02:51:29.43	17.72	1.09	-44.3	-59.0	3.6	1.51e+00	0	29	104	0	60	36191
2026-01-27 02:51:30.44	17.59	1.14	-44.3	-59.0	3.6	1.51e+00	0	29	104	0	60	36138
2026-01-27 02:51:31.45	17.46	1.18	-44.3	-59.0	3.6	1.51e+00	0	29	104	0	60	36080
2026-01-27 02:51:32.46	17.33	1.23	-44.3	-59.0	3.6	1.51e+00	0	29	104	0	60	36330
2026-01-27 02:51:33.47	17.20	1.28	-44.3	-59.0	3.6	1.51e+00	0	29	104	0	60	36249
2026-01-27 02:51:34.48	17.07	1.32	-44.3	-59.0	3.6	1.51e+00	0	29	104	0	60	36130
2026-01-27 02:51:35.49	16.94	1.37	-44.3	-59.0	3.6	1.51e+00	0	29	104	0	60	36059
2026-01-27 02:51:36.50	16.81	1.42	-44.3	-59.0	3.6	1.51e+00	0	29	104	0	60	35974
2026-01-27 02:51:37.51	16.67	1.46	-44.3	-59.0	3.6	1.51e+00	0	29	104	0	60	36003
2026-01-27 02:51:38.52	16.54	1.51	-44.3	-59.0	3.6	1.51e+00	0	29	104	0	60	36057
2026-01-27 02:51:39.53	16.41	1.56	-44.3	-59.0	3.6	1.51e+00	0	29	104	0	60	36043
2026-01-27 02:51:40.54	16.27	1.60	-44.3	-59.0	3.6	1.51e+00	0	29	104	0	60	36067
2026-01-27 02:51:41.55	16.14	1.65	-44.3	-59.0	3.6	1.51e+00	0	29	104	0	60	36003
2026-01-27 02:51:42.56	16.00	1.70	-44.2	-59.0	3.6	1.51e+00	0	29	104	0	60	36032
2026-01-27 02:51:43.57	15.87	1.74	-44.2	-59.0	3.6	1.51e+00	0	29	104	0	60	35963
2026-01-27 02:51:44.58	15.73	1.79	-44.3	-58.9	3.6	1.51e+00	0	29	104	0	60	35919
2026-01-27 02:51:45.59	15.59	1.84	-44.3	-59.0	3.6	1.51e+00	0	29	104	0	60	36139
2026-01-27 02:51:46.59	15.46	1.88	-44.3	-58.9	3.6	1.51e+00	0	29	104	0	60	35929
2026-01-27 02:51:47.60	15.32	1.93	-44.3	-59.0	3.6	1.51e+00	0	29	104	0	60	36023
2026-01-27 02:51:48.61	15.18	1.98	-44.2	-59.0	3.6	1.51e+00	0	29	104	0	60	35953
2026-01-27 02:51:49.62	15.04	2.02	-44.3	-59.0	3.6	1.51e+00	0	29	104	0	60	36114
2026-01-27 02:51:50.63	14.90	2.07	-44.2	-59.0	3.6	1.51e+00	0	29	104	0	60	35982
2026-01-27 02:51:51.64	14.76	2.11	-44.2	-59.0	3.6	1.51e+00	0	29	104	0	60	36046
2026-01-27 02:51:52.65	14.62	2.16	-44.2	-59.0	3.6	1.51e+00	0	29	104	0	60	36068
2026-01-27 02:51:53.66	14.48	2.21	-44.2	-58.9	3.6	1.51e+00	0	29	104	0	60	35926
2026-01-27 02:51:54.67	14.34	2.25	-44.2	-58.9	3.6	1.51e+00	0	29	104	0	60	35934
2026-01-27 02:51:55.68	14.19	2.30	-44.2	-59.0	3.6	1.51e+00	0	29	104	0	60	35993
2026-01-27 02:51:56.69	14.05	2.35	-44.2	-59.0	3.6	1.51e+00	0	29	104	0	60	36113
2026-01-27 02:51:57.70	13.91	2.39	-44.2	-58.9	3.6	1.51e+00	0	29	104	0	60	35907
2026-01-27 02:51:58.71	13.76	2.44	-44.2	-59.0	3.6	1.51e+00	0	29	104	0	60	36134
2026-01-27 02:51:59.72	13.62	2.48	-44.2	-59.0	3.6	1.51e+00	0	29	104	0	60	36150
2026-01-27 02:52:00.73	13.47	2.53	-44.2	-58.9	3.6	1.51e+00	0	29	104	0	60	35907
2026-01-27 02:52:01.74	13.33	2.58	-44.2	-59.0	3.6	1.51e+00	0	29	104	0	60	36022
2026-01-27 02:52:02.75	13.18	2.62	-44.2	-58.9	3.6	1.51e+00	0	29	104	0	60	35879
2026-01-27 02:52:03.76	13.03	2.67	-44.2	-58.9	3.6	1.51e+00	0	29	104	0	60	35825
2026-01-27 02:52:04.77	12.88	2.71	-44.2	-58.9	3.6	1.51e+00	0	29	104	0	60	35859
2026-01-27 02:52:05.77	12.74	2.76	-44.2	-59.0	3.6	1.51e+00	0	29	104	0	60	36050
2026-01-27 02:52:06.79	12.59	2.81	-44.2	-58.9	3.6	1.51e+00	0	29	104	0	60	35873
2026-01-27 02:52:07.80	12.44	2.85	-44.2	-58.9	3.6	1.51e+00	0	29	104	0	60	35788
2026-01-27 02:52:08.80	12.29	2.90	-44.2	-59.0	3.6	1.51e+00	0	29	104	0	60	36013
2026-01-27 02:52:09.81	12.14	2.94	-44.2	-59.0	3.6	1.51e+00	0	29	104	0	60	36112
2026-01-27 02:52:10.82	11.98	2.99	-44.2	-59.0	3.6	1.51e+00	0	29	104	0	60	36039
2026-01-27 02:52:11.83	11.83	3.03	-44.2	-58.9	3.6	1.51e+00	0	29	104	0	60	35879
2026-01-27 02:52:12.84	11.68	3.08	-44.4	-59.1	3.6	1.51e+00	0	29	104	0	60	36483
2026-01-27 02:52:13.85	11.52	3.12	-44.4	-59.1	3.6	1.51e+00	0	29	104	0	60	36530
2026-01-27 02:52:14.86	11.37	3.17	-44.3	-59.0	3.6	1.51e+00	0	29	104	0	60	36168
2026-01-27 02:52:15.87	11.21	3.21	-44.5	-59.2	3.6	1.51e+00	0	29	104	0	60	37062
2026-01-27 02:52:16.88	11.06	3.26	-44.2	-58.9	3.6	1.51e+00	0	29	104	0	60	35833
2026-01-27 02:52:17.89	10.90	3.30	-44.4	-59.1	3.6	1.51e+00	0	29	104	0	60	36514
2026-01-27 02:52:18.90	10.75	3.35	-44.4	-59.0	3.6	1.51e+00	0	29	104	0	60	36340
2026-01-27 02:52:19.91	10.59	3.39	-44.5	-59.3	3.6	1.51e+00	0	29	104	0	60	37221
2026-01-27 02:52:20.92	10.43	3.44	-44.4	-59.1	3.5	1.51e+00	0	29	104	0	60	36359
2026-01-27 02:52:21.93	10.27	3.48	-44.4	-59.2	3.6	1.51e+00	0	29	104	0	60	37037
2026-01-27 02:52:22.94	10.11	3.53	-44.5	-59.2	3.6	1.51e+00	0	29	104	0	60	36830
2026-01-27 02:52:23.95	9.95	3.57	-44.6	-59.3	3.6	1.51e+00	0	29	104	0	60	37551
2026-01-27 02:52:24.96	9.79	3.62	-44.4	-59.1	3.6	1.51e+00	0	29	104	0	60	36581
2026-01-27 02:52:25.97	9.63	3.66	-44.6	-59.3	3.6	1.51e+00	0	29	104	0	60	37284
2026-01-27 02:52:26.98	9.47	3.71	-44.4	-59.2	3.6	1.51e+00	0	29	104	0	60	37126
2026-01-27 02:52:27.99	9.31	3.75	-44.7	-59.4	3.6	1.51e+00	0	29	104	0	60	37713
2026-01-27 02:52:29.00	9.14	3.80	-44.5	-59.1	3.6	1.51e+00	0	29	104	0	60	36764
2026-01-27 02:52:30.01	8.98	3.84	-44.6	-59.3	3.6	1.51e+00	0	29	104	0	60	37527
2026-01-27 02:52:31.01	8.82	3.88	-44.6	-59.3	3.6	1.51e+00	0	29	104	0	60	37476
2026-01-27 02:52:32.02	8.65	3.93	-44.7	-59.4	3.6	1.51e+00	0	29	104	0	60	37987
2026-01-27 02:52:33.03	8.49	3.97	-44.5	-59.2	3.6	1.51e+00	0	29	104	0	60	37049
2026-01-27 02:52:34.04	8.32	4.02	-44.7	-59.4	3.6	1.51e+00	0	29	104	0	60	37989
2026-01-27 02:52:35.05	8.15	4.06	-44.6	-59.3	3.6	1.51e+00	0	29	104	0	60	37456
2026-01-27 02:52:36.06	7.98	4.10	-44.7	-59.4	3.6	1.51e+00	0	29	104	0	60	37989
2026-01-27 02:52:37.07	7.82	4.15	-44.5	-59.3	3.6	1.51e+00	0	29	104	0	60	37251
2026-01-27 02:52:38.08	7.65	4.19	-44.7	-59.4	3.6	1.51e+00	0	29	104	0	60	38029
2026-01-27 02:52:39.09	7.48	4.23	-44.7	-59.1	3.6	1.51e+00	0	29	104	0	60	36501
2026-01-27 02:52:40.10	7.31	4.28	-44.7	-59.5	3.5	1.51e+00	0	29	104	0	60	38255
2026-01-27 02:52:41.11	7.14	4.32	-44.6	-59.4	3.6	1.51e+00	0	29	104	0	60	37690
2026-01-27 02:52:42.12	6.96	4.36	-44.7	-59.4	3.6	1.51e+00	0	29	104	0	60	37942
2026-01-27 02:52:43.13	6.79	4.41	-44.7	-59.4	3.6	1.51e+00	0	29	104	0	60	37657
2026-01-27 02:52:44.14	6.62	4.45	-44.8	-59.5	3.6	1.51e+00	0	29	104	0	60	38404
2026-01-27 02:52:45.15	6.44	4.49	-44.6	-59.3	3.6	1.51e+00	0	29	104	0	60	37404
2026-01-27 02:52:46.16	6.27	4.54	-44.8	-59.5	3.6	1.51e+00	0	29	104	0	60	38186
2026-01-27 02:52:47.17	6.09	4.58	-44.6	-59.4	3.6	1.51e+00	0	29	104	0	60	37862
2026-01-27 02:52:48.18	5.92	4.62	-44.7	-59.5	3.6	1.51e+00	0	29	104	0	60	38378
2026-01-27 02:52:49.19	5.74	4.66	-44.6	-59.3	3.6	1.51e+00	0	29	104	0	60	37520
2026-01-27 02:52:50.20	5.57	4.71	-44.8	-59.5	3.6	1.51e+00	0	29	104	0	60	38254
2026-01-27 02:52:51.21	5.39	4.75	-44.8	-59.4	3.6	1.51e+00	0	29	104	0	60	37884
2026-01-27 02:52:52.22	5.21	4.79	-44.8	-59.5	3.6	1.51e+00	0	29	104	0	60	38491
2026-01-27 02:52:53.23	5.03	4.83	-44.7	-59.4	3.6	1.51e+00	0	29	104	0	60	37750
2026-01-27 02:52:54.24	4.85	4.87	-44.7	-59.5	3.6	1.51e+00	0	29	104	0	60	38197
2026-01-27 02:52:55.25	4.67	4.91	-44.8	-59.5	3.6	1.51e+00	0	29	104	0	60	38108
2026-01-27 02:52:56.26	4.49	4.96	-44.8	-59.5	3.6	1.51e+00	0	29	104	0	60	38496
2026-01-27 02:52:57.27	4.31	5.00	-44.7	-59.4	3.6	1.51e+00	0	29	104	0	60	37826
2026-01-27 02:52:58.28	4.12	5.04	-44.8	-59.5	3.6	1.51e+00	0	29	104	0	60	38125
2026-01-27 02:52:59.29	3.94	5.08	-44.8	-59.5	3.6	1.51e+00	0	29	104	0	60	38304
2026-01-27 02:53:00.30	3.76	5.12	-44.9	-59.6	3.6	1.51e+00	0	29	104	0	60	38840
2026-01-27 02:53:01.31	3.57	5.16	-44.7	-59.5	3.6	1.51e+00	0	29	104	0	60	38141
2026-01-27 02:53:02.31	3.39	5.20	-44.8	-59.5	3.6	1.51e+00	0	29	104	0	60	38330
2026-01-27 02:53:03.32	3.20	5.24	-44.8	-59.5	3.6	1.51e+00	0	29	104	0	60	38312
2026-01-27 02:53:04.33	3.02	5.28	-44.9	-59.6	3.6	1.51e+00	0	29	104	0	60	38609
2026-01-27 02:53:05.34	2.83	5.32	-44.8	-59.5	3.6	1.51e+00	0	29	104	0	60	38209
2026-01-27 02:53:06.35	2.64	5.36	-44.9	-59.5	3.6	1.51e+00	0	29	104	0	60	38414
2026-01-27 02:53:07.36	2.45	5.40	-44.8	-59.5	3.6	1.51e+00	0	29	104	0	60	38348
2026-01-27 02:53:08.37	2.27	5.44	-44.8	-59.6	3.6	1.51e+00	0	29	104	0	60	38645
2026-01-27 02:53:09.38	2.08	5.48	-44.8	-59.5	3.6	1.51e+00	0	29	104	0	60	38437
2026-01-27 02:53:10.39	1.89	5.52	-44.9	-59.6	3.6	1.51e+00	0	29	104	0	60	38813
2026-01-27 02:53:11.40	1.69	5.56	-44.8	-59.6	3.6	1.51e+00	0	29	104	0	60	38599
2026-01-27 02:53:12.41	1.50	5.60	-44.6	-59.6	3.6	1.51e+00	0	29	104	0	60	38932
2026-01-27 02:53:13.42	1.31	5.64	-44.9	-59.6	3.6	1.51e+00	0	29	104	0	60	38587
2026-01-27 02:53:14.43	1.12	5.68	-44.9	-59.6	3.6	1.51e+00	0	29	104	0	60	38904
2026-01-27 02:53:15.44	0.92	5.72	-44.9	-59.6	3.6	1.51e+00	0	29	104	0	60	38875
2026-01-27 02:53:16.45	0.73	5.75	-44.9	-59.6	3.6	1.51e+00	0	29	104	0	60	38757
2026-01-27 02:53:17.46	0.53	5.79	-44.8	-59.6	3.6	1.51e+00	0	29	104	0	60	38653
2026-01-27 02:53:18.47	0.34	5.83	-44.9	-59.6	3.5	1.51e+00	0	29	104	0	60	38679
2026-01-27 02:53:19.48	0.14	5.87	-44.9	-59.6	3.6	1.51e+00	0	29	104	0	60	38732
2026-01-27 02:53:20.49	359.94	5.91	-44.9	-59.6	3.6	1.51e+00	0	29	104	0	60	38777
2026-01-27 02:53:21.50	359.75	5.94	-44.9	-59.5	3.6	1.51e+00	0	29	104	0	60	38393
2026-01-27 02:53:22.51	359.55	5.98	-44.9	-59.6	3.6	1.51e+00	0	29	104	0	60	38859
2026-01-27 02:53:23.52	359.35	6.02	-44.9	-59.6	3.6	1.51e+00	0	29	104	0	60	38881
2026-01-27 02:53:24.53	359.15	6.05	-44.9	-59.6	3.5	1.51e+00	0	29	104	0	60	38696
2026-01-27 02:53:25.55	358.95	6.09	-44.8	-59.6	3.6	1.51e+00	0	29	104	0	60	38677
2026-01-27 02:53:26.56	358.75	6.13	-44.9	-59.7	3.6	1.51e+00	0	29	104	0	60	39003
2026-01-27 02:53:27.57	358.54	6.16	-44.9	-59.6	3.6	1.51e+00	0	29	104	0	60	38836
2026-01-27 02:53:28.58	358.34	6.20	-44.9	-59.6	3.6	1.51e+00	0	29	104	0	60	38908
2026-01-27 02:53:29.59	358.14	6.24	-44.9	-59.5	3.6	1.51e+00	0	29	104	0	60	38478
2026-01-27 02:53:30.60	357.94	6.27	-44.9	-59.7	3.6	1.51e+00	0	29	104	0	60	39230
2026-01-27 02:53:31.61	357.73	6.31	-45.0	-59.7	3.6	1.51e+00	0	29	104	0	60	39347
2026-01-27 02:53:32.62	357.53	6.34	-45.0	-59.7	3.6	1.51e+00	0	29	104	0	60	39075
2026-01-27 02:53:33.63	357.32	6.38	-44.9	-59.6	3.6	1.51e+00	0	29	104	0	60	38871
2026-01-27 02:53:34.64	357.11	6.41	-44.9	-59.6	3.6	1.51e+00	0	29	104	0	60	38815
2026-01-27 02:53:35.65	356.91	6.45	-44.9	-59.6	3.6	1.51e+00	0	29	104	0	60	38919
2026-01-27 02:53:36.66	356.70	6.48	-44.9	-59.6	3.6	1.51e+00	0	29	104	0	60	38625
2026-01-27 02:53:37.67	356.49	6.51	-44.9	-59.6	3.6	1.51e+00	0	29	104	0	60	38525
2026-01-27 02:53:38.68	356.28	6.55	-44.9	-59.6	3.6	1.51e+00	0	29	104	0	60	38769
2026-01-27 02:53:39.69	356.07	6.58	-44.9	-59.6	3.6	1.51e+00	0	29	104	0	60	38744
2026-01-27 02:53:40.70	355.86	6.61	-44.9	-59.6	3.6	1.51e+00	0	29	104	0	60	38749
2026-01-27 02:53:41.71	355.65	6.65	-44.9	-59.6	3.6	1.51e+00	0	29	104	0	60	38741
2026-01-27 02:53:42.72	355.44	6.68	-44.9	-59.7	3.6	1.51e+00	0	29	104	0	60	38974
2026-01-27 02:53:43.73	355.23	6.71	-45.0	-59.7	3.6	1.51e+00	0	29	104	0	60	39185
2026-01-27 02:53:44.74	355.02	6.75	-44.9	-59.7	3.6	1.51e+00	0	29	104	0	60	39094
2026-01-27 02:53:45.75	354.81	6.78	-44.9	-59.7	3.6	1.51e+00	0	29	104	0	60	38969
2026-01-27 02:53:46.76	354.59	6.81	-44.8	-59.6	3.6	1.51e+00	0	29	104	0	60	38772
2026-01-27 02:53:47.77	354.38	6.84	-45.0	-59.7	3.6	1.51e+00	0	29	104	0	60	39238
2026-01-27 02:53:48.78	354.16	6.87	-45.0	-59.7	3.6	1.51e+00	0	29	104	0	60	39055
2026-01-27 02:53:49.79	353.95	6.90	-45.0	-59.8	3.6	1.51e+00	0	29	104	0	60	39560
2026-01-27 02:53:50.80	353.73	6.93	-45.1	-59.8	3.6	1.51e+00	0	29	104	0	60	39644
2026-01-27 02:53:51.80	353.52	6.96	-45.1	-59.9	3.6	1.51e+00	0	29	104	0	60	39982
2026-01-27 02:53:52.81	353.30	6.99	-45.0	-59.7	3.6	1.51e+00	0	29	104	0	60	39248
2026-01-27 02:53:53.82	353.08	7.02	-45.1	-59.8	3.6	1.51e+00	0	29	104	0	60	39775
2026-01-27 02:53:54.83	352.86	7.05	-45.0	-59.8	3.6	1.51e+00	0	29	104	0	60	39453
2026-01-27 02:53:55.84	352.64	7.08	-45.1	-59.9	3.6	1.51e+00	0	30	104	0	60	39876
2026-01-27 02:53:56.85	352.43	7.11	-45.1	-59.8	3.6	1.51e+00	0	29	104	0	60	39550
2026-01-27 02:53:57.86	352.21	7.14	-45.1	-59.8	3.6	1.51e+00	0	29	104	0	60	39474
2026-01-27 02:53:58.87	351.98	7.17	-45.1	-59.8	3.6	1.51e+00	0	29	104	0	60	39515
2026-01-27 02:53:59.88	351.76	7.20	-45.1	-59.8	3.6	1.51e+00	0	29	104	0	60	39781
2026-01-27 02:54:00.86	351.55	7.23	-45.1	-59.8	3.6	1.51e+00	0	29	104	0	60	39414
2026-01-27 02:54:01.87	351.33	7.25	-45.1	-59.7	3.6	1.51e+00	0	29	104	0	60	39375
2026-01-27 02:54:02.88	351.10	7.28	-45.0	-59.8	3.6	1.51e+00	0	29	104	0	60	39753
2026-01-27 02:54:03.88	350.88	7.31	-45.1	-59.9	3.6	1.51e+00	0	29	104	0	60	40093
2026-01-27 02:54:04.90	350.66	7.33	-45.0	-59.8	3.6	1.51e+00	0	29	104	0	60	39539
2026-01-27 02:54:05.90	350.43	7.36	-45.0	-59.8	3.6	1.51e+00	0	29	104	0	60	39508
2026-01-27 02:54:06.91	350.21	7.39	-45.1	-59.8	3.6	1.51e+00	0	29	104	0	60	39790
2026-01-27 02:54:07.92	349.98	7.41	-45.1	-59.9	3.6	1.51e+00	0	29	104	0	60	39873
2026-01-27 02:54:08.93	349.76	7.44	-45.0	-59.8	3.6	1.51e+00	0	29	104	0	60	39563
2026-01-27 02:54:09.94	349.53	7.46	-45.0	-59.8	3.6	1.51e+00	0	29	104	0	60	39546
2026-01-27 02:54:10.95	349.31	7.49	-45.0	-59.8	3.6	1.51e+00	0	29	104	0	60	39657
2026-01-27 02:54:11.96	349.08	7.51	-45.1	-59.8	3.6	1.51e+00	0	29	104	0	60	39691
2026-01-27 02:54:12.97	348.85	7.54	-45.1	-59.8	3.6	1.51e+00	0	29	104	0	60	39619
2026-01-27 02:54:13.98	348.62	7.56	-45.0	-59.8	3.6	1.51e+00	0	29	104	0	60	39408
2026-01-27 02:54:14.99	348.39	7.58	-45.1	-59.8	3.6	1.51e+00	0	29	104	0	60	39744
2026-01-27 02:54:16.00	348.16	7.61	-45.1	-59.9	3.6	1.51e+00	0	29	104	0	60	40110
2026-01-27 02:54:17.01	347.93	7.63	-45.1	-59.7	3.6	1.51e+00	0	29	104	0	60	39404
2026-01-27 02:54:18.02	347.70	7.65	-45.0	-59.7	3.5	1.51e+00	0	29	104	0	60	39236
2026-01-27 02:54:19.03	347.47	7.68	-45.1	-59.8	3.6	1.51e+00	0	29	104	0	60	39687
2026-01-27 02:54:20.04	347.24	7.70	-45.1	-59.9	3.6	1.51e+00	0	29	104	0	60	39915
2026-01-27 02:54:21.05	347.01	7.72	-45.1	-59.8	3.6	1.51e+00	0	29	104	0	60	39524
2026-01-27 02:54:22.06	346.78	7.74	-45.1	-59.8	3.6	1.51e+00	0	29	104	0	60	39755
2026-01-27 02:54:23.07	346.55	7.76	-45.1	-59.8	3.6	1.51e+00	0	29	104	0	60	39748
2026-01-27 02:54:24.08	346.31	7.78	-45.2	-59.9	3.6	1.51e+00	0	29	104	0	60	39871
2026-01-27 02:54:25.09	346.08	7.80	-45.2	-59.9	3.6	1.51e+00	0	29	104	0	60	40270
2026-01-27 02:54:26.10	345.85	7.82	-45.1	-59.8	3.6	1.51e+00	0	29	104	0	60	39742
2026-01-27 02:54:27.11	345.61	7.84	-45.1	-59.8	3.6	1.51e+00	0	29	104	0	60	39764
2026-01-27 02:54:28.11	345.38	7.86	-45.1	-59.9	3.6	1.51e+00	0	29	104	0	60	39979
2026-01-27 02:54:29.12	345.14	7.88	-45.1	-59.8	3.6	1.51e+00	0	29	104	0	60	39537
2026-01-27 02:54:30.13	344.91	7.90	-45.0	-59.8	3.6	1.51e+00	0	29	104	0	60	39602
2026-01-27 02:54:31.14	344.67	7.92	-45.1	-59.8	3.6	1.51e+00	0	29	104	0	60	39786
2026-01-27 02:54:32.15	344.44	7.93	-45.1	-59.9	3.6	1.51e+00	0	29	104	0	60	39926
2026-01-27 02:54:33.16	344.20	7.95	-45.0	-59.8	3.6	1.51e+00	0	29	104	0	60	39480
2026-01-27 02:54:34.17	343.96	7.97	-45.0	-59.8	3.6	1.51e+00	0	29	104	0	60	39528
2026-01-27 02:54:35.18	343.73	7.98	-45.0	-59.8	3.6	1.51e+00	0	29	104	0	60	39612
2026-01-27 02:54:36.19	343.49	8.00	-45.0	-59.9	3.6	1.51e+00	0	29	104	0	60	39994
2026-01-27 02:54:37.20	343.25	8.02	-45.1	-59.8	3.6	1.51e+00	0	29	104	0	60	39448
2026-01-27 02:54:38.22	343.01	8.03	-44.9	-59.8	3.6	1.51e+00	0	29	104	0	60	39544
2026-01-27 02:54:39.23	342.77	8.05	-44.9	-59.8	3.6	1.51e+00	0	29	104	0	60	39633
2026-01-27 02:54:40.23	342.54	8.06	-44.6	-59.8	3.6	1.51e+00	0	29	104	0	60	39821
2026-01-27 02:54:41.24	342.30	8.08	-45.0	-59.8	3.6	1.51e+00	0	29	104	0	60	39410
2026-01-27 02:54:42.26	342.05	8.09	-44.9	-59.8	3.6	1.51e+00	0	29	104	0	60	39784
2026-01-27 02:54:43.27	341.81	8.10	-44.8	-59.8	3.6	1.51e+00	0	29	104	0	60	39702
2026-01-27 02:54:44.28	341.57	8.12	-44.8	-59.9	3.6	1.51e+00	0	29	104	0	60	39864
2026-01-27 02:54:45.29	341.33	8.13	-45.1	-59.8	3.6	1.51e+00	0	29	104	0	60	39529
2026-01-27 02:54:46.29	341.10	8.14	-45.0	-59.8	3.6	1.51e+00	0	29	104	0	60	39697
2026-01-27 02:54:47.30	340.86	8.15	-45.1	-59.8	3.6	1.51e+00	0	29	104	0	60	39632
2026-01-27 02:54:48.31	340.61	8.16	-45.1	-59.9	3.6	1.51e+00	0	29	104	0	60	39887
2026-01-27 02:54:49.32	340.37	8.18	-45.1	-59.7	3.6	1.51e+00	0	29	104	0	60	39403
2026-01-27 02:54:50.34	340.13	8.19	-45.1	-59.8	3.6	1.51e+00	0	29	104	0	60	39460
2026-01-27 02:54:51.35	339.89	8.20	-45.1	-59.8	3.6	1.51e+00	0	29	104	0	60	39587
2026-01-27 02:54:52.36	339.65	8.21	-45.1	-59.8	3.6	1.51e+00	0	29	104	0	60	39805
2026-01-27 02:54:53.37	339.40	8.22	-45.1	-59.7	3.6	1.51e+00	0	29	104	0	60	39305
2026-01-27 02:54:54.38	339.16	8.23	-45.1	-59.8	3.6	1.51e+00	0	29	104	0	60	39746
2026-01-27 02:54:55.39	338.92	8.23	-45.1	-59.8	3.6	1.51e+00	0	29	104	0	60	39641
2026-01-27 02:54:56.40	338.67	8.24	-45.1	-59.8	3.6	1.51e+00	0	29	104	0	60	39830
2026-01-27 02:54:57.41	338.43	8.25	-45.0	-59.8	3.6	1.51e+00	0	29	104	0	60	39667
2026-01-27 02:54:58.42	338.19	8.26	-45.1	-59.9	3.6	1.51e+00	0	29	104	0	60	39987
2026-01-27 02:54:59.43	337.95	8.27	-45.1	-59.8	3.6	1.51e+00	0	29	104	0	60	39757
2026-01-27 02:55:00.44	337.70	8.27	-45.1	-59.9	3.6	1.51e+00	0	29	104	0	60	39951
2026-01-27 02:55:01.44	337.46	8.28	-45.1	-59.8	3.6	1.51e+00	0	29	104	0	60	39543
2026-01-27 02:55:02.45	337.22	8.28	-45.1	-59.9	3.6	1.51e+00	0	29	104	0	60	39918
2026-01-27 02:55:03.46	336.97	8.29	-45.1	-59.8	3.6	1.51e+00	0	29	104	0	60	39781
2026-01-27 02:55:04.48	336.73	8.30	-45.1	-59.8	3.6	1.51e+00	0	29	104	0	60	39714
2026-01-27 02:55:05.49	336.48	8.30	-45.0	-59.8	3.6	1.51e+00	0	29	104	0	60	39509
2026-01-27 02:55:06.50	336.24	8.30	-45.1	-59.8	3.6	1.51e+00	0	29	104	0	60	39800
2026-01-27 02:55:07.50	336.00	8.31	-45.1	-59.8	3.6	1.51e+00	0	29	104	0	60	39756
2026-01-27 02:55:08.51	335.75	8.31	-45.1	-59.8	3.6	1.51e+00	0	29	104	0	60	39760
2026-01-27 02:55:09.52	335.51	8.31	-45.1	-59.8	3.6	1.51e+00	0	29	104	0	60	39837
2026-01-27 02:55:10.53	335.26	8.32	-45.1	-59.8	3.6	1.51e+00	0	29	104	0	60	39832
2026-01-27 02:55:11.54	335.02	8.32	-45.1	-59.8	3.6	1.51e+00	0	29	104	0	60	39800
2026-01-27 02:55:12.55	334.77	8.32	-45.1	-59.8	3.6	1.51e+00	0	29	104	0	60	39820
2026-01-27 02:55:13.56	334.53	8.32	-45.1	-59.8	3.6	1.51e+00	0	29	104	0	60	39800
2026-01-27 02:55:14.57	334.28	8.32	-45.1	-59.8	3.6	1.51e+00	0	29	104	0	60	39733
2026-01-27 02:55:15.58	334.04	8.32	-45.1	-59.9	3.6	1.51e+00	0	29	104	0	60	39892
2026-01-27 02:55:16.59	333.79	8.32	-45.1	-59.8	3.6	1.51e+00	0	30	104	0	60	39823
2026-01-27 02:55:17.60	333.55	8.32	-45.1	-59.8	3.6	1.51e+00	0	30	104	0	60	39473
2026-01-27 02:55:18.61	333.30	8.32	-45.1	-59.9	3.6	1.51e+00	0	29	104	0	60	39923
2026-01-27 02:55:19.62	333.06	8.32	-45.1	-59.9	3.6	1.51e+00	0	29	104	0	60	40084
2026-01-27 02:55:20.62	332.82	8.32	-45.1	-59.9	3.6	1.51e+00	0	29	104	0	60	39875
2026-01-27 02:55:21.63	332.57	8.32	-45.1	-59.9	3.6	1.51e+00	0	29	104	0	60	39901
2026-01-27 02:55:22.64	332.33	8.32	-45.1	-59.9	3.6	1.51e+00	0	30	104	0	60	39866
2026-01-27 02:55:23.65	332.08	8.31	-45.2	-59.9	3.6	1.51e+00	0	30	104	0	60	39958
2026-01-27 02:55:24.66	331.84	8.31	-45.1	-59.8	3.6	1.51e+00	0	29	104	0	60	39815
2026-01-27 02:55:25.68	331.59	8.31	-45.1	-59.9	3.6	1.51e+00	0	29	104	0	60	39877
2026-01-27 02:55:26.69	331.35	8.30	-45.0	-59.8	3.6	1.51e+00	0	30	104	0	60	39747
2026-01-27 02:55:27.69	331.10	8.30	-45.0	-59.9	3.6	1.51e+00	0	30	104	0	60	40016
2026-01-27 02:55:28.70	330.86	8.29	-45.1	-59.8	3.6	1.51e+00	0	30	104	0	60	39798
2026-01-27 02:55:29.72	330.61	8.29	-45.1	-59.8	3.6	1.51e+00	0	30	104	0	60	39773
2026-01-27 02:55:30.72	330.37	8.28	-45.1	-59.8	3.6	1.51e+00	0	30	104	0	60	39788
2026-01-27 02:55:31.73	330.13	8.28	-45.0	-59.8	3.6	1.51e+00	0	29	104	0	60	39853
2026-01-27 02:55:32.74	329.88	8.27	-45.1	-59.8	3.6	1.51e+00	0	29	104	0	60	39693
2026-01-27 02:55:33.75	329.64	8.26	-45.0	-59.8	3.6	1.51e+00	0	30	104	0	60	39844
2026-01-27 02:55:34.76	329.40	8.26	-45.0	-59.8	3.6	1.51e+00	0	29	104	0	60	39660
2026-01-27 02:55:35.77	329.15	8.25	-45.2	-59.9	3.6	1.51e+00	0	29	104	0	60	40109
2026-01-27 02:55:36.78	328.91	8.24	-44.7	-59.8	3.6	1.51e+00	0	29	104	0	60	39773
2026-01-27 02:55:37.79	328.67	8.23	-44.9	-59.9	3.6	1.51e+00	0	30	104	0	60	39897
2026-01-27 02:55:38.80	328.42	8.22	-45.0	-59.8	3.6	1.51e+00	0	30	104	0	60	39757
2026-01-27 02:55:39.81	328.18	8.22	-45.2	-59.9	3.6	1.51e+00	0	30	104	0	60	39957
2026-01-27 02:55:40.82	327.94	8.21	-44.9	-59.8	3.6	1.51e+00	0	30	104	0	60	39767
2026-01-27 02:55:41.83	327.70	8.20	-45.2	-59.9	3.6	1.51e+00	0	30	104	0	60	40026
2026-01-27 02:55:42.84	327.45	8.19	-45.1	-59.8	3.6	1.51e+00	0	30	104	0	60	39759
2026-01-27 02:55:43.85	327.21	8.17	-45.1	-59.9	3.6	1.51e+00	0	30	104	0	60	40012
2026-01-27 02:55:44.86	326.97	8.16	-45.1	-59.7	3.6	1.51e+00	0	29	104	0	60	39351
2026-01-27 02:55:45.87	326.73	8.15	-45.1	-59.9	3.6	1.51e+00	0	30	104	0	60	39933
2026-01-27 02:55:46.88	326.49	8.14	-45.1	-59.8	3.6	1.51e+00	0	30	104	0	60	39810
2026-01-27 02:55:47.89	326.25	8.13	-45.1	-59.9	3.6	1.51e+00	0	30	104	0	60	39974
2026-01-27 02:55:48.90	326.01	8.11	-45.0	-59.8	3.6	1.51e+00	0	30	104	0	60	39766
2026-01-27 02:55:49.91	325.76	8.10	-45.1	-59.8	3.6	1.51e+00	0	29	104	0	60	39804
2026-01-27 02:55:50.92	325.52	8.09	-45.1	-59.8	3.6	1.51e+00	0	29	104	0	60	39557
2026-01-27 02:55:51.93	325.28	8.07	-45.2	-59.9	3.6	1.51e+00	0	29	104	0	60	39960
2026-01-27 02:55:52.94	325.04	8.06	-45.1	-59.8	3.5	1.51e+00	0	30	104	0	60	39591
2026-01-27 02:55:53.95	324.81	8.04	-45.1	-59.8	3.5	1.51e+00	0	30	104	0	60	39733
2026-01-27 02:55:54.96	324.57	8.03	-45.2	-59.8	3.6	1.51e+00	0	30	104	0	60	39844
2026-01-27 02:55:55.97	324.33	8.01	-45.2	-59.9	3.6	1.51e+00	0	30	104	0	60	40006
2026-01-27 02:55:56.97	324.09	8.00	-45.1	-59.8	3.6	1.51e+00	0	30	104	0	60	39534
2026-01-27 02:55:57.98	323.85	7.98	-45.1	-59.9	3.6	1.51e+00	0	29	104	0	60	39929
2026-01-27 02:55:58.99	323.61	7.96	-45.1	-59.8	3.6	1.51e+00	0	29	104	0	60	39741
2026-01-27 02:56:00.00	323.38	7.95	-45.2	-59.9	3.6	1.51e+00	0	30	104	0	60	40162
2026-01-27 02:56:01.01	323.14	7.93	-45.1	-59.8	3.6	1.51e+00	0	29	104	0	60	39526
2026-01-27 02:56:02.02	322.90	7.91	-45.1	-59.8	3.6	1.51e+00	0	29	104	0	60	39610
2026-01-27 02:56:03.03	322.67	7.89	-45.1	-59.8	3.6	1.51e+00	0	30	104	0	60	39584
2026-01-27 02:56:04.04	322.43	7.88	-45.2	-59.9	3.6	1.51e+00	0	29	104	0	60	40132
2026-01-27 02:56:05.05	322.20	7.86	-45.1	-59.8	3.6	1.51e+00	0	29	104	0	60	39604
2026-01-27 02:56:06.06	321.96	7.84	-45.1	-59.8	3.6	1.51e+00	0	29	104	0	60	39803
2026-01-27 02:56:07.07	321.72	7.82	-45.1	-59.8	3.6	1.51e+00	0	29	104	0	60	39803
2026-01-27 02:56:08.08	321.49	7.80	-45.1	-59.9	3.6	1.51e+00	0	30	104	0	60	39994
2026-01-27 02:56:09.10	321.25	7.78	-44.9	-59.8	3.6	1.51e+00	0	29	104	0	60	39457
2026-01-27 02:56:10.11	321.02	7.76	-45.2	-59.9	3.6	1.51e+00	0	30	104	0	60	39942
2026-01-27 02:56:11.12	320.79	7.74	-45.2	-59.8	3.6	1.51e+00	0	30	104	0	60	39697
2026-01-27 02:56:12.12	320.56	7.72	-45.2	-59.9	3.6	1.51e+00	0	29	104	0	60	40024
2026-01-27 02:56:13.13	320.32	7.69	-44.9	-59.8	3.6	1.51e+00	0	29	104	0	60	39515
2026-01-27 02:56:14.15	320.09	7.67	-45.1	-59.9	3.6	1.51e+00	0	30	104	0	60	39886
2026-01-27 02:56:15.16	319.86	7.65	-45.1	-59.8	3.6	1.51e+00	0	29	104	0	60	39703
2026-01-27 02:56:16.17	319.63	7.63	-45.1	-59.9	3.6	1.51e+00	0	29	104	0	60	40130
2026-01-27 02:56:17.18	319.40	7.60	-45.1	-59.8	3.6	1.51e+00	0	29	104	0	60	39732
2026-01-27 02:56:18.19	319.17	7.58	-45.0	-59.9	3.6	1.51e+00	0	29	104	0	60	39896
2026-01-27 02:56:19.20	318.94	7.56	-45.1	-59.8	3.6	1.51e+00	0	30	104	0	60	39494
2026-01-27 02:56:20.21	318.71	7.53	-45.0	-59.9	3.5	1.51e+00	0	29	104	0	60	39950
2026-01-27 02:56:21.22	318.48	7.51	-45.0	-59.7	3.6	1.51e+00	0	29	104	0	60	39387
2026-01-27 02:56:22.23	318.25	7.48	-45.0	-59.8	3.6	1.51e+00	0	30	104	0	60	39765
2026-01-27 02:56:23.24	318.02	7.46	-44.9	-59.8	3.6	1.51e+00	0	29	104	0	60	39792
2026-01-27 02:56:24.25	317.79	7.43	-45.1	-59.9	3.6	1.51e+00	0	30	104	0	60	39991
2026-01-27 02:56:25.26	317.57	7.41	-45.0	-59.7	3.6	1.51e+00	0	30	104	0	60	39358
2026-01-27 02:56:26.27	317.34	7.38	-45.1	-59.8	3.6	1.51e+00	0	30	104	0	60	39735
2026-01-27 02:56:27.28	317.11	7.35	-45.1	-59.8	3.6	1.51e+00	0	30	104	0	60	39635
2026-01-27 02:56:28.29	316.89	7.33	-45.1	-59.8	3.6	1.51e+00	0	30	104	0	60	39701
2026-01-27 02:56:29.30	316.66	7.30	-45.0	-59.8	3.6	1.51e+00	0	29	104	0	60	39470
2026-01-27 02:56:30.31	316.44	7.27	-45.0	-59.8	3.6	1.51e+00	0	30	104	0	60	39664
2026-01-27 02:56:31.32	316.22	7.25	-45.0	-59.8	3.6	1.51e+00	0	30	104	0	60	39546
2026-01-27 02:56:32.33	315.99	7.22	-44.9	-59.8	3.6	1.51e+00	0	30	104	0	60	39686
2026-01-27 02:56:33.34	315.77	7.19	-44.9	-59.7	3.6	1.51e+00	0	29	104	0	60	39312
2026-01-27 02:56:34.35	315.55	7.16	-44.8	-59.7	3.6	1.51e+00	0	30	104	0	60	39269
2026-01-27 02:56:35.36	315.33	7.13	-44.8	-59.8	3.6	1.51e+00	0	30	104	0	60	39419
2026-01-27 02:56:36.37	315.11	7.10	-44.8	-59.8	3.6	1.51e+00	0	30	104	0	60	39628
2026-01-27 02:56:37.38	314.88	7.07	-44.8	-59.7	3.6	1.51e+00	0	30	104	0	60	39040
2026-01-27 02:56:38.39	314.66	7.05	-44.8	-59.8	3.6	1.51e+00	0	30	104	0	60	39503
2026-01-27 02:56:39.40	314.45	7.02	-44.7	-59.7	3.6	1.51e+00	0	30	104	0	60	39399
2026-01-27 02:56:40.41	314.23	6.99	-45.0	-59.8	3.6	1.51e+00	0	30	104	0	60	39472
2026-01-27 02:56:41.42	314.01	6.95	-44.9	-59.7	3.6	1.51e+00	0	30	104	0	60	39240
2026-01-27 02:56:42.43	313.79	6.92	-45.0	-59.8	3.6	1.51e+00	0	30	104	0	60	39590
2026-01-27 02:56:43.44	313.57	6.89	-44.9	-59.8	3.6	1.51e+00	0	30	104	0	60	39547
2026-01-27 02:56:44.44	313.36	6.86	-45.0	-59.8	3.6	1.51e+00	0	30	104	0	60	39548
2026-01-27 02:56:45.45	313.14	6.83	-45.0	-59.7	3.6	1.51e+00	0	30	104	0	60	39111
2026-01-27 02:56:46.46	312.93	6.80	-44.9	-59.8	3.6	1.51e+00	0	30	104	0	60	39462
2026-01-27 02:56:47.47	312.71	6.77	-44.9	-59.7	3.6	1.51e+00	0	30	104	0	60	39354
2026-01-27 02:56:48.48	312.50	6.73	-45.0	-59.7	3.6	1.51e+00	0	30	104	0	60	39232
2026-01-27 02:56:49.50	312.28	6.70	-44.9	-59.7	3.6	1.51e+00	0	29	104	0	60	39121
2026-01-27 02:56:50.51	312.07	6.67	-45.0	-59.7	3.6	1.51e+00	0	30	104	0	60	39315
2026-01-27 02:56:51.52	311.86	6.64	-44.9	-59.7	3.6	1.51e+00	0	29	104	0	60	39207
2026-01-27 02:56:52.53	311.65	6.60	-45.0	-59.7	3.6	1.51e+00	0	30	104	0	60	39173
2026-01-27 02:56:53.54	311.43	6.57	-44.7	-59.6	3.6	1.51e+00	0	30	104	0	60	38820
2026-01-27 02:56:54.55	311.22	6.54	-44.9	-59.7	3.6	1.51e+00	0	29	104	0	60	39092
2026-01-27 02:56:55.56	311.01	6.50	-44.9	-59.7	3.6	1.51e+00	0	29	104	0	60	39198
2026-01-27 02:56:56.57	310.80	6.47	-44.8	-59.7	3.6	1.51e+00	0	29	104	0	60	38988
2026-01-27 02:56:57.58	310.60	6.43	-44.8	-59.7	3.6	1.51e+00	0	30	104	0	60	38989
2026-01-27 02:56:58.59	310.39	6.40	-44.9	-59.7	3.6	1.51e+00	0	30	104	0	60	39161
2026-01-27 02:56:59.60	310.18	6.36	-44.8	-59.7	3.6	1.51e+00	0	30	104	0	60	39135
2026-01-27 02:57:00.61	309.97	6.33	-44.9	-59.7	3.6	1.51e+00	0	30	104	0	60	39026
2026-01-27 02:57:01.62	309.77	6.29	-44.7	-59.6	3.6	1.51e+00	0	30	104	0	60	38670
2026-01-27 02:57:02.63	309.56	6.26	-44.8	-59.7	3.6	1.51e+00	0	30	104	0	60	38960
2026-01-27 02:57:03.64	309.36	6.22	-44.8	-59.7	3.6	1.51e+00	0	30	104	0	60	39015
2026-01-27 02:57:04.65	309.15	6.18	-44.7	-59.6	3.6	1.51e+00	0	30	104	0	60	38669
2026-01-27 02:57:05.66	308.95	6.15	-44.5	-59.6	3.6	1.51e+00	0	30	104	0	60	38842
2026-01-27 02:57:06.67	308.75	6.11	-44.7	-59.6	3.6	1.51e+00	0	30	104	0	60	38859
2026-01-27 02:57:07.68	308.54	6.08	-44.7	-59.7	3.6	1.51e+00	0	30	104	0	60	39167
2026-01-27 02:57:08.69	308.34	6.04	-44.5	-59.6	3.6	1.51e+00	0	30	104	0	60	38822
2026-01-27 02:57:09.70	308.14	6.00	-44.5	-59.6	3.6	1.51e+00	0	30	104	0	60	38733
2026-01-27 02:57:10.71	307.94	5.96	-44.6	-59.6	3.6	1.51e+00	0	30	104	0	60	38855
2026-01-27 02:57:11.72	307.74	5.93	-44.5	-59.7	3.6	1.51e+00	0	29	104	0	60	39051
2026-01-27 02:57:12.73	307.54	5.89	-44.5	-59.6	3.6	1.51e+00	0	29	104	0	60	38702
2026-01-27 02:57:13.74	307.34	5.85	-44.7	-59.6	3.6	1.51e+00	0	30	104	0	60	38582
2026-01-27 02:57:14.75	307.15	5.81	-44.6	-59.6	3.6	1.51e+00	0	30	104	0	60	38761
2026-01-27 02:57:15.76	306.95	5.77	-44.6	-59.6	3.6	1.51e+00	0	30	104	0	60	38884
2026-01-27 02:57:16.76	306.75	5.74	-44.6	-59.5	3.6	1.51e+00	0	30	104	0	60	38507
2026-01-27 02:57:17.77	306.56	5.70	-44.6	-59.5	3.6	1.51e+00	0	30	104	0	60	38391
2026-01-27 02:57:18.78	306.36	5.66	-44.7	-59.5	3.6	1.51e+00	0	30	104	0	60	38494
2026-01-27 02:57:19.79	306.17	5.62	-44.6	-59.7	3.6	1.51e+00	0	30	104	0	60	39051
2026-01-27 02:57:20.80	305.98	5.58	-44.5	-59.5	3.6	1.51e+00	0	30	104	0	60	38167
2026-01-27 02:57:21.81	305.78	5.54	-44.5	-59.6	3.6	1.51e+00	0	30	104	0	60	38535
2026-01-27 02:57:22.82	305.59	5.50	-44.6	-59.5	3.6	1.51e+00	0	30	104	0	60	38393
2026-01-27 02:57:23.83	305.40	5.46	-44.7	-59.6	3.6	1.51e+00	0	30	104	0	60	38524
2026-01-27 02:57:24.84	305.21	5.42	-44.5	-59.5	3.6	1.51e+00	0	30	104	0	60	38124
2026-01-27 02:57:25.85	305.02	5.38	-44.6	-59.5	3.6	1.51e+00	0	30	104	0	60	38423
2026-01-27 02:57:26.86	304.83	5.34	-44.5	-59.5	3.6	1.51e+00	0	30	104	0	60	38382
2026-01-27 02:57:27.87	304.64	5.30	-44.7	-59.6	3.6	1.51e+00	0	30	104	0	60	38808
2026-01-27 02:57:28.88	304.45	5.26	-44.5	-59.4	3.6	1.51e+00	0	30	104	0	60	37948
2026-01-27 02:57:29.89	304.26	5.22	-44.6	-59.5	3.6	1.51e+00	0	30	104	0	60	38297
2026-01-27 02:57:30.90	304.07	5.18	-44.5	-59.5	3.6	1.51e+00	0	30	104	0	60	38298
2026-01-27 02:57:31.91	303.89	5.14	-44.5	-59.5	3.6	1.51e+00	0	30	104	0	60	38397
2026-01-27 02:57:32.92	303.70	5.10	-44.6	-59.3	3.6	1.51e+00	0	30	104	0	60	37592
2026-01-27 02:57:33.93	303.52	5.06	-44.6	-59.4	3.6	1.51e+00	0	30	104	0	60	37947
2026-01-27 02:57:34.94	303.33	5.02	-44.7	-59.5	3.6	1.51e+00	0	30	104	0	60	38122
2026-01-27 02:57:35.95	303.15	4.97	-44.8	-59.6	3.6	1.51e+00	0	30	104	0	60	38553
2026-01-27 02:57:36.96	302.97	4.93	-44.5	-59.4	3.6	1.51e+00	0	30	104	0	60	37712
2026-01-27 02:57:37.97	302.78	4.89	-44.7	-59.4	3.6	1.51e+00	0	30	104	0	60	37874
2026-01-27 02:57:38.98	302.60	4.85	-44.5	-59.4	3.6	1.51e+00	0	30	104	0	60	37874
2026-01-27 02:57:39.99	302.42	4.81	-44.7	-59.5	3.6	1.51e+00	0	30	104	0	60	38354
2026-01-27 02:57:41.00	302.24	4.76	-44.5	-59.3	3.6	1.51e+00	0	30	104	0	60	37374
2026-01-27 02:57:42.01	302.06	4.72	-44.7	-59.4	3.6	1.51e+00	0	30	104	0	60	37816
2026-01-27 02:57:43.02	301.88	4.68	-44.6	-59.4	3.5	1.51e+00	0	30	104	0	60	37856
2026-01-27 02:57:44.03	301.70	4.64	-44.6	-59.5	3.6	1.51e+00	0	30	104	0	60	38228
2026-01-27 02:57:45.04	301.52	4.59	-44.5	-59.3	3.6	1.51e+00	0	30	104	0	60	37231
2026-01-27 02:57:46.05	301.35	4.55	-44.6	-59.3	3.6	1.51e+00	0	30	104	0	60	37556
2026-01-27 02:57:47.06	301.17	4.51	-44.7	-59.4	3.6	1.51e+00	0	30	104	0	60	37754
2026-01-27 02:57:48.07	301.00	4.47	-44.7	-59.5	3.6	1.51e+00	0	30	104	0	60	38122
2026-01-27 02:57:49.08	300.82	4.42	-44.4	-59.2	3.6	1.51e+00	0	30	104	0	60	36874
2026-01-27 02:57:50.09	300.65	4.38	-44.5	-59.3	3.6	1.51e+00	0	30	104	0	60	37449
2026-01-27 02:57:51.10	300.47	4.34	-44.6	-59.3	3.6	1.51e+00	0	30	104	0	60	37475
2026-01-27 02:57:52.11	300.30	4.29	-44.6	-59.5	3.6	1.51e+00	0	30	104	0	60	38088
2026-01-27 02:57:53.12	300.13	4.25	-44.4	-59.1	3.6	1.51e+00	0	30	104	0	60	36717
2026-01-27 02:57:54.13	299.95	4.21	-44.5	-59.3	3.6	1.51e+00	0	30	104	0	60	37224
2026-01-27 02:57:55.14	299.78	4.16	-44.5	-59.3	3.6	1.51e+00	0	30	104	0	60	37293
2026-01-27 02:57:56.15	299.61	4.12	-44.7	-59.3	3.6	1.51e+00	0	30	104	0	60	37571
2026-01-27 02:57:57.15	299.44	4.07	-44.4	-59.1	3.6	1.51e+00	0	30	104	0	60	36679
2026-01-27 02:57:58.16	299.28	4.03	-44.5	-59.2	3.6	1.51e+00	0	30	104	0	60	37056
2026-01-27 02:57:59.17	299.11	3.99	-44.5	-59.2	3.6	1.51e+00	0	30	104	0	60	37111
2026-01-27 02:58:00.18	298.94	3.94	-44.6	-59.3	3.6	1.51e+00	0	30	104	0	60	37628
2026-01-27 02:58:01.19	298.77	3.90	-44.4	-59.0	3.6	1.51e+00	0	30	104	0	60	36319
2026-01-27 02:58:02.20	298.61	3.85	-44.5	-59.2	3.5	1.51e+00	0	30	104	0	60	36936
2026-01-27 02:58:03.21	298.44	3.81	-44.5	-59.2	3.6	1.51e+00	0	30	104	0	60	36938
2026-01-27 02:58:04.21	298.28	3.76	-44.6	-59.3	3.6	1.51e+00	0	30	104	0	60	37281
2026-01-27 02:58:05.23	298.11	3.72	-44.3	-59.0	3.6	1.51e+00	0	30	104	0	60	36160
2026-01-27 02:58:06.23	297.95	3.68	-44.5	-59.2	3.6	1.51e+00	0	30	104	0	60	36866
2026-01-27 02:58:07.24	297.78	3.63	-44.5	-59.2	3.6	1.51e+00	0	30	104	0	60	36984
2026-01-27 02:58:08.25	297.62	3.59	-44.5	-59.2	3.6	1.51e+00	0	30	104	0	60	36966
2026-01-27 02:58:09.27	297.46	3.54	-44.3	-59.0	3.6	1.51e+00	0	30	104	0	60	36062
2026-01-27 02:58:10.28	297.30	3.49	-44.4	-59.1	3.6	1.51e+00	0	30	104	0	60	36561
2026-01-27 02:58:11.29	297.14	3.45	-44.5	-59.1	3.6	1.51e+00	0	30	104	0	60	36722
2026-01-27 02:58:12.29	296.98	3.41	-44.5	-59.2	3.6	1.51e+00	0	30	104	0	60	37000
2026-01-27 02:58:13.31	296.82	3.36	-44.2	-58.9	3.6	1.51e+00	0	30	104	0	60	35751
2026-01-27 02:58:14.31	296.66	3.31	-44.3	-59.0	3.6	1.51e+00	0	30	104	0	60	36323
2026-01-27 02:58:15.32	296.50	3.27	-44.4	-59.1	3.6	1.51e+00	0	30	104	0	60	36633
2026-01-27 02:58:16.33	296.34	3.22	-44.4	-59.1	3.6	1.51e+00	0	30	104	0	60	36659
2026-01-27 02:58:17.35	296.18	3.18	-44.2	-58.9	3.6	1.51e+00	0	30	104	0	60	35604
2026-01-27 02:58:18.35	296.03	3.13	-44.3	-59.0	3.6	1.51e+00	0	30	104	0	60	36188
2026-01-27 02:58:19.36	295.87	3.09	-44.4	-59.1	3.6	1.51e+00	0	30	104	0	60	36393
2026-01-27 02:58:20.37	295.72	3.04	-44.4	-59.1	3.6	1.51e+00	0	30	104	0	60	36411
2026-01-27 02:58:21.38	295.57	3.00	-44.1	-58.8	3.6	1.51e+00	0	30	104	0	60	35279
2026-01-27 02:58:22.39	295.41	2.95	-44.9	-59.6	3.6	1.51e+00	0	30	104	0	60	38723
2026-01-27 02:58:23.41	295.26	2.90	-45.2	-59.9	3.6	1.51e+00	0	30	104	0	60	40079
2026-01-27 02:58:24.41	295.11	2.86	-45.4	-60.1	3.6	1.51e+00	0	30	104	0	60	41244
2026-01-27 02:58:25.42	294.95	2.81	-45.6	-60.2	3.6	1.51e+00	0	30	104	0	60	41526
2026-01-27 02:58:26.43	294.80	2.77	-45.7	-60.3	3.6	1.51e+00	0	30	104	0	60	42120
2026-01-27 02:58:27.44	294.65	2.72	-45.7	-60.4	3.6	1.51e+00	0	30	104	0	60	42270
2026-01-27 02:58:28.45	294.50	2.67	-45.8	-60.5	3.6	1.51e+00	0	30	104	0	60	42888
2026-01-27 02:58:29.46	294.35	2.63	-45.8	-60.4	3.6	1.51e+00	0	30	104	0	60	42700
2026-01-27 02:58:30.47	294.20	2.58	-45.8	-60.5	3.6	1.51e+00	0	30	104	0	60	43061
2026-01-27 02:58:31.48	294.06	2.53	-45.8	-60.5	3.6	1.51e+00	0	30	104	0	60	43001
2026-01-27 02:58:32.49	293.91	2.49	-45.9	-60.5	3.5	1.51e+00	0	30	104	0	60	43024
2026-01-27 02:58:33.50	293.76	2.44	-45.8	-60.6	3.6	1.51e+00	0	30	104	0	60	43249
2026-01-27 02:58:34.51	293.61	2.40	-45.8	-60.6	3.6	1.51e+00	0	30	104	0	60	43283
2026-01-27 02:58:35.52	293.47	2.35	-45.8	-60.6	3.6	1.51e+00	0	29	104	0	60	43478
2026-01-27 02:58:36.53	293.32	2.30	-45.7	-60.6	3.6	1.51e+00	0	30	104	0	60	43248
2026-01-27 02:58:37.54	293.18	2.26	-45.6	-60.5	3.6	1.51e+00	0	30	104	0	60	43191
2026-01-27 02:58:38.55	293.03	2.21	-45.6	-60.6	3.6	1.51e+00	0	30	104	0	60	43360
2026-01-27 02:58:39.56	292.89	2.16	-45.8	-60.5	3.6	1.51e+00	0	30	104	0	60	42780
2026-01-27 02:58:40.57	292.75	2.12	-45.4	-60.4	3.6	1.51e+00	0	29	104	0	60	42590
2026-01-27 02:58:41.58	292.61	2.07	-45.6	-60.4	3.6	1.51e+00	0	30	104	0	60	42607
2026-01-27 02:58:42.59	292.46	2.02	-45.4	-60.5	3.6	1.51e+00	0	30	104	0	60	42903
2026-01-27 02:58:43.60	292.32	1.98	-45.7	-60.4	3.6	1.51e+00	0	30	104	0	60	42458
2026-01-27 02:58:44.62	292.18	1.93	-45.6	-60.4	3.6	1.51e+00	0	30	104	0	60	42297
2026-01-27 02:58:45.63	292.04	1.88	-45.4	-60.3	3.6	1.51e+00	0	30	104	0	60	42094
2026-01-27 02:58:46.63	291.90	1.84	-45.6	-60.3	3.6	1.51e+00	0	30	104	0	60	41843
2026-01-27 02:58:47.65	291.76	1.79	-45.6	-60.3	3.6	1.51e+00	0	30	104	0	60	42136
2026-01-27 02:58:48.65	291.63	1.74	-45.7	-60.4	3.6	1.51e+00	0	30	104	0	60	42266
2026-01-27 02:58:49.67	291.49	1.70	-45.6	-60.4	3.6	1.51e+00	0	30	104	0	60	42238
2026-01-27 02:58:50.68	291.35	1.65	-45.6	-60.3	3.6	1.51e+00	0	30	104	0	60	42139
2026-01-27 02:58:51.68	291.22	1.60	-45.7	-60.3	3.6	1.51e+00	0	30	104	0	60	42176
2026-01-27 02:58:52.70	291.08	1.55	-45.6	-60.3	3.6	1.51e+00	0	30	104	0	60	42064
2026-01-27 02:58:53.71	290.94	1.51	-45.6	-60.4	3.6	1.51e+00	0	30	104	0	60	42243
2026-01-27 02:58:54.72	290.81	1.46	-45.6	-60.3	3.6	1.51e+00	0	30	104	0	60	42164
2026-01-27 02:58:55.73	290.67	1.41	-45.6	-60.3	3.6	1.51e+00	0	30	104	0	60	42136
2026-01-27 02:58:56.74	290.54	1.37	-45.6	-60.3	3.6	1.51e+00	0	30	104	0	60	42170
2026-01-27 02:58:57.75	290.41	1.32	-45.6	-60.3	3.6	1.51e+00	0	30	104	0	60	41984
2026-01-27 02:58:58.76	290.27	1.27	-45.7	-60.4	3.6	1.51e+00	0	30	104	0	60	42300
2026-01-27 02:58:59.77	290.14	1.23	-45.6	-60.3	3.6	1.51e+00	0	30	104	0	60	42098
2026-01-27 02:59:00.78	290.01	1.18	-45.6	-60.3	3.6	1.51e+00	0	30	104	0	60	41991
2026-01-27 02:59:01.79	289.88	1.13	-45.6	-60.4	3.5	1.51e+00	0	30	104	0	60	42283
2026-01-27 02:59:02.80	289.75	1.08	-45.6	-60.3	3.6	1.51e+00	0	30	104	0	60	41877
2026-01-27 02:59:03.81	289.62	1.04	-45.6	-60.3	3.6	1.51e+00	0	30	104	0	60	42072
2026-01-27 02:59:04.82	289.49	0.99	-45.6	-60.3	3.6	1.51e+00	0	30	104	0	60	42001
2026-01-27 02:59:05.83	289.36	0.94	-45.7	-60.4	3.6	1.51e+00	0	30	104	0	60	42253
2026-01-27 02:59:06.84	289.23	0.90	-45.7	-60.4	3.6	1.51e+00	0	30	104	0	60	42684
2026-01-27 02:59:07.85	289.11	0.85	-45.7	-60.4	3.6	1.51e+00	0	30	104	0	60	42439
2026-01-27 02:59:08.86	288.98	0.80	-45.7	-60.4	3.6	1.51e+00	0	30	104	0	60	42406
2026-01-27 02:59:09.87	288.85	0.75	-45.7	-60.4	3.6	1.51e+00	0	30	104	0	60	42227
2026-01-27 02:59:10.88	288.73	0.71	-45.6	-60.4	3.6	1.51e+00	0	30	104	0	60	42405
2026-01-27 02:59:11.89	288.60	0.66	-45.7	-60.4	3.6	1.51e+00	0	30	104	0	60	42614
2026-01-27 02:59:12.90	288.48	0.61	-45.7	-60.4	3.6	1.51e+00	0	30	104	0	60	42603
2026-01-27 02:59:13.91	288.35	0.57	-45.8	-60.5	3.6	1.51e+00	0	30	104	0	60	42963
2026-01-27 02:59:14.92	288.23	0.52	-45.7	-60.4	3.6	1.51e+00	0	30	104	0	60	42361
2026-01-27 02:59:15.93	288.10	0.47	-45.7	-60.4	3.6	1.51e+00	0	30	104	0	60	42240
2026-01-27 02:59:16.94	287.98	0.42	-45.8	-60.4	3.6	1.51e+00	0	30	104	0	60	42662
2026-01-27 02:59:17.94	287.86	0.38	-45.8	-60.5	3.6	1.51e+00	0	30	104	0	60	43159
2026-01-27 02:59:18.95	287.74	0.33	-45.7	-60.4	3.6	1.51e+00	0	30	104	0	60	42403
2026-01-27 02:59:19.97	287.61	0.28	-45.8	-60.5	3.6	1.51e+00	0	30	104	0	60	42764
2026-01-27 02:59:20.97	287.49	0.24	-45.8	-60.5	3.6	1.51e+00	0	30	104	0	60	42727
2026-01-27 02:59:21.98	287.37	0.19	-45.7	-60.4	3.6	1.51e+00	0	30	104	0	60	42358
2026-01-27 02:59:22.99	287.25	0.14	-45.7	-60.4	3.6	1.51e+00	0	30	104	0	60	42536
2026-01-27 02:59:24.01	287.13	0.09	-45.8	-60.4	3.6	1.51e+00	0	30	104	0	60	42609
2026-01-27 02:59:25.01	287.02	0.05	-45.7	-60.4	3.6	1.51e+00	0	30	104	0	60	42685
2026-01-27 02:59:26.02	286.90	0.00	-45.8	-60.4	3.6	1.51e+00	0	30	104	0	60	42501
2026-01-27 02:59:27.03	286.78	-0.05	-45.7	-60.4	3.6	1.51e+00	0	30	104	0	60	42458

#Closed at: 2026-01-27 02:59:27
#Recorded file [0 MB]: D:/lorett/data/35029_260127_145109.dat