passes_logs/2026/01/27/R4.6S_Anadyr/R4.6S_Anadyr__20260127_181402_AQUA_rec.log

#Pass ID: 20260127_181402_AQUA
#Satellite: AQUA
#Configuration: AQUA
#almurnet v.1.7.20251203
#Start time: 2026-01-27 18:14:03

#Version: 2.2.20231116
#Station: R4.6S_Anadyr
#Location: 177.4865 lon 64.73178 lat
#TLE: 1 27424U 02022A   26026.85810808  .00001813  00000+0  37258-3 0  9999
#TLE: 2 27424  98.4101 353.4861 0001866  64.3332 317.5249 14.61864179262622

#Time	Az	El	Level	Level2	SNR	BER	BlckErr	Temp	State	Recorded	gain1	gain2
2026-01-27 18:14:03.91	23.74	0.07	-48.6	-63.6	3.5	1.51e+00	0	31	0	0	60	54822
2026-01-27 18:14:04.92	23.69	0.13	-49.0	-66.8	3.5	3.02e+01	0	32	104	0	60	84109
2026-01-27 18:14:05.93	23.63	0.18	-49.0	-66.8	3.5	3.02e+01	0	32	104	0	60	84185
2026-01-27 18:14:06.93	23.58	0.24	-49.0	-66.8	3.5	3.02e+01	0	32	104	0	60	84653
2026-01-27 18:14:07.94	23.53	0.30	-48.9	-66.8	3.5	3.02e+01	0	32	104	0	60	84039
2026-01-27 18:14:08.95	23.47	0.36	-49.0	-66.8	3.5	3.02e+01	0	32	104	0	60	84358
2026-01-27 18:14:09.96	23.42	0.42	-49.0	-66.9	3.5	3.02e+01	0	32	104	0	60	85081
2026-01-27 18:14:10.97	23.37	0.48	-49.0	-66.9	3.5	3.02e+01	0	32	104	0	60	84777
2026-01-27 18:14:11.99	23.31	0.53	-49.1	-66.8	3.5	3.02e+01	0	32	104	0	60	84396
2026-01-27 18:14:13.00	23.26	0.59	-49.1	-66.9	3.5	3.02e+01	0	32	104	0	60	84860
2026-01-27 18:14:14.01	23.20	0.65	-49.0	-66.9	3.5	3.02e+01	0	32	104	0	60	84951
2026-01-27 18:14:15.02	23.15	0.71	-49.0	-66.9	3.5	3.02e+01	0	32	104	0	60	84723
2026-01-27 18:14:16.03	23.09	0.77	-49.0	-66.8	3.5	3.02e+01	0	32	104	0	60	84063
2026-01-27 18:14:17.04	23.04	0.83	-48.7	-66.8	3.5	3.02e+01	0	32	104	0	60	84269
2026-01-27 18:14:18.05	22.98	0.89	-48.9	-66.8	3.5	3.02e+01	0	32	104	0	60	83942
2026-01-27 18:14:19.06	22.93	0.95	-48.8	-66.7	3.5	3.02e+01	0	32	104	0	60	83320
2026-01-27 18:14:20.07	22.87	1.01	-48.6	-66.6	3.5	3.02e+01	0	32	104	0	60	82364
2026-01-27 18:14:21.07	22.82	1.07	-48.6	-66.6	3.5	3.02e+01	0	32	104	0	60	81839
2026-01-27 18:14:22.08	22.76	1.13	-48.4	-66.4	3.5	3.02e+01	0	32	104	0	60	80676
2026-01-27 18:14:23.09	22.70	1.19	-48.4	-66.3	3.5	3.02e+01	0	32	104	0	60	79311
2026-01-27 18:14:24.10	22.65	1.25	-48.3	-66.2	3.5	3.02e+01	0	32	104	0	60	78652
2026-01-27 18:14:25.11	22.59	1.31	-48.2	-66.1	3.5	3.02e+01	0	32	104	0	60	77333
2026-01-27 18:14:26.12	22.53	1.37	-48.0	-66.0	3.5	3.02e+01	0	32	104	0	60	76522
2026-01-27 18:14:27.13	22.47	1.43	-47.7	-65.6	3.5	3.02e+01	0	32	104	0	60	73371
2026-01-27 18:14:28.14	22.41	1.49	-47.5	-65.5	3.5	3.02e+01	0	32	104	0	60	72188
2026-01-27 18:14:29.15	22.36	1.55	-47.5	-65.4	3.5	3.02e+01	0	32	104	0	60	71931
2026-01-27 18:14:30.16	22.30	1.61	-47.5	-65.4	3.5	3.02e+01	0	32	104	0	60	72056
2026-01-27 18:14:31.17	22.24	1.67	-47.5	-65.4	3.5	3.02e+01	0	32	104	0	60	71801
2026-01-27 18:14:32.18	22.18	1.73	-47.5	-65.4	3.5	3.02e+01	0	32	104	0	60	71684
2026-01-27 18:14:33.19	22.12	1.79	-47.5	-65.4	3.5	3.02e+01	0	32	104	0	60	71383
2026-01-27 18:14:34.20	22.06	1.85	-47.5	-65.4	3.5	3.02e+01	0	32	104	0	60	71842
2026-01-27 18:14:35.21	22.00	1.91	-47.5	-65.4	3.5	3.02e+01	0	32	104	0	60	71670
2026-01-27 18:14:36.22	21.94	1.97	-47.5	-65.4	3.5	3.02e+01	0	32	104	0	60	71563
2026-01-27 18:14:37.23	21.88	2.03	-47.5	-65.4	3.5	3.02e+01	0	32	104	0	60	71897
2026-01-27 18:14:38.24	21.82	2.10	-47.5	-65.4	3.5	3.02e+01	0	32	104	0	60	71713
2026-01-27 18:14:39.25	21.76	2.16	-47.5	-65.4	3.5	3.02e+01	0	32	104	0	60	72016
2026-01-27 18:14:40.26	21.69	2.22	-47.5	-65.5	3.5	3.02e+01	0	32	104	0	60	72213
2026-01-27 18:14:41.27	21.63	2.28	-47.5	-65.4	3.5	3.02e+01	0	32	104	0	60	71833
2026-01-27 18:14:42.28	21.57	2.34	-47.5	-65.4	3.5	3.02e+01	0	32	104	0	60	71385
2026-01-27 18:14:43.29	21.51	2.41	-47.5	-65.3	3.5	3.02e+01	0	32	104	0	60	70989
2026-01-27 18:14:44.30	21.44	2.47	-47.5	-65.3	3.5	3.02e+01	0	32	104	0	60	71036
2026-01-27 18:14:45.31	21.38	2.53	-47.5	-65.4	3.5	3.02e+01	0	32	104	0	60	71821
2026-01-27 18:14:46.32	21.32	2.59	-47.5	-65.4	3.5	3.02e+01	0	32	104	0	60	71509
2026-01-27 18:14:47.33	21.25	2.65	-47.5	-65.4	3.5	3.02e+01	0	32	104	0	60	71383
2026-01-27 18:14:48.34	21.19	2.72	-47.5	-65.3	3.5	3.02e+01	0	32	104	0	60	71055
2026-01-27 18:14:49.35	21.12	2.78	-47.4	-65.4	3.5	3.02e+01	0	32	104	0	60	71552
2026-01-27 18:14:50.36	21.06	2.84	-47.5	-65.4	3.5	3.02e+01	0	32	104	0	60	71970
2026-01-27 18:14:51.38	20.99	2.91	-47.4	-65.3	3.5	3.02e+01	0	32	104	0	60	70780
2026-01-27 18:14:52.39	20.93	2.97	-47.4	-65.0	3.5	3.02e+01	0	32	104	0	60	68721
2026-01-27 18:14:53.39	20.86	3.03	-47.4	-64.8	3.5	3.02e+01	0	32	104	0	60	66763
2026-01-27 18:14:54.40	20.80	3.10	-47.3	-64.6	3.5	3.02e+01	0	32	104	0	60	65332
2026-01-27 18:14:55.41	20.73	3.16	-47.4	-65.1	3.5	3.02e+01	0	32	104	0	60	69410
2026-01-27 18:14:56.42	20.66	3.22	-47.4	-65.2	3.5	3.02e+01	0	32	104	0	60	70386
2026-01-27 18:14:57.43	20.60	3.29	-47.0	-63.3	3.5	3.02e+01	0	32	104	0	60	56089
2026-01-27 18:14:58.44	20.53	3.35	-45.9	-59.8	3.5	3.02e+01	0	32	104	0	60	37594
2026-01-27 18:14:59.45	20.46	3.42	-44.3	-56.6	3.5	3.02e+01	0	32	104	0	60	25895
2026-01-27 18:15:00.46	20.39	3.48	-43.0	-54.6	3.5	3.02e+01	0	32	104	0	60	20598
2026-01-27 18:15:01.47	20.33	3.54	-42.3	-53.5	3.5	3.02e+01	0	32	104	0	60	18190
2026-01-27 18:15:02.48	20.26	3.61	-41.8	-52.9	3.5	3.02e+01	0	32	104	0	58	18999
2026-01-27 18:15:03.49	20.19	3.67	-43.2	-54.7	3.5	3.02e+01	0	32	104	0	60	20803
2026-01-27 18:15:04.50	20.12	3.74	-39.3	-49.8	3.5	3.02e+01	0	32	104	0	52	18957
2026-01-27 18:15:05.51	20.05	3.80	-47.2	-63.7	3.5	3.02e+01	0	33	104	0	60	59013
2026-01-27 18:15:06.52	19.98	3.87	-41.5	-52.5	3.5	3.02e+01	0	32	104	0	60	16162
2026-01-27 18:15:07.53	19.91	3.93	-40.3	-51.1	3.5	3.02e+01	0	32	104	0	56	17369
2026-01-27 18:15:08.54	19.84	4.00	-38.4	-48.9	3.5	3.02e+01	0	32	104	0	52	16947
2026-01-27 18:15:09.55	19.77	4.06	-37.6	-48.0	3.5	3.02e+01	0	32	104	0	50	17240
2026-01-27 18:15:10.56	19.69	4.13	-37.9	-48.4	3.5	3.02e+01	0	32	104	0	50	17986
2026-01-27 18:15:11.56	19.62	4.19	-39.0	-49.6	3.6	3.02e+01	0	32	104	0	50	20605
2026-01-27 18:15:12.57	19.55	4.26	-39.0	-49.7	3.5	3.02e+01	0	32	104	0	52	18542
2026-01-27 18:15:13.58	19.48	4.32	-46.2	-60.1	3.5	3.02e+01	0	32	104	0	60	38900
2026-01-27 18:15:14.59	19.40	4.39	-39.8	-50.5	3.7	3.02e+01	0	32	104	0	60	12951
2026-01-27 18:15:15.60	19.33	4.46	-39.9	-50.6	3.5	3.02e+01	0	32	104	0	54	18396
2026-01-27 18:15:16.61	19.26	4.52	-38.7	-49.1	3.5	3.02e+01	0	32	104	0	52	17483
2026-01-27 18:15:17.62	19.18	4.59	-37.6	-48.1	3.5	3.02e+01	0	32	104	0	50	17321
2026-01-27 18:15:18.64	19.11	4.66	-37.1	-47.4	3.5	3.02e+01	0	32	104	0	50	16102
2026-01-27 18:15:19.64	19.03	4.72	-40.3	-51.1	3.5	3.02e+01	0	32	104	0	52	21888
2026-01-27 18:15:20.65	18.96	4.79	-41.8	-52.8	3.5	3.02e+01	0	32	104	0	56	21240
2026-01-27 18:15:21.66	18.88	4.86	-44.2	-56.2	3.5	3.02e+01	0	32	104	0	60	24948
2026-01-27 18:15:22.67	18.80	4.92	-45.0	-57.3	3.5	3.02e+01	0	33	104	0	56	35467
2026-01-27 18:15:23.68	18.73	4.99	-45.9	-59.2	3.6	3.02e+01	0	32	104	0	60	35284
2026-01-27 18:15:24.69	18.65	5.06	-41.5	-52.4	3.5	3.02e+01	0	32	104	0	58	17899
2026-01-27 18:15:25.70	18.57	5.13	-41.0	-51.9	3.5	3.02e+01	0	32	104	0	58	16899
2026-01-27 18:15:26.71	18.49	5.19	-46.7	-61.0	3.5	3.02e+01	0	32	104	0	60	43220
2026-01-27 18:15:27.72	18.42	5.26	-47.8	-64.9	3.5	3.02e+01	0	32	104	0	60	67759
2026-01-27 18:15:28.73	18.34	5.33	-40.8	-51.6	3.5	3.02e+01	0	32	104	0	56	18354
2026-01-27 18:15:29.74	18.26	5.40	-37.2	-47.5	3.5	3.02e+01	0	32	104	0	50	16315
2026-01-27 18:15:30.75	18.18	5.47	-45.9	-59.1	3.5	3.02e+01	0	32	104	0	56	43643
2026-01-27 18:15:31.76	18.10	5.54	-42.0	-53.0	3.5	3.02e+01	0	32	104	0	60	17194
2026-01-27 18:15:32.76	18.02	5.60	-36.9	-47.3	3.5	3.02e+01	0	32	104	0	50	15774
2026-01-27 18:15:33.78	17.94	5.67	-37.3	-47.6	3.5	3.02e+01	0	32	104	0	48	18486
2026-01-27 18:15:34.78	17.86	5.74	-43.5	-55.1	3.5	3.02e+01	0	32	104	0	58	24645
2026-01-27 18:15:35.79	17.77	5.81	-39.8	-50.4	3.5	3.02e+01	0	32	104	0	50	22755
2026-01-27 18:15:36.80	17.69	5.88	-46.0	-59.2	3.5	3.02e+01	0	32	104	0	60	35272
2026-01-27 18:15:37.81	17.61	5.95	-40.9	-51.8	3.5	3.02e+01	0	33	104	0	58	16782
2026-01-27 18:15:38.83	17.53	6.02	-47.7	-64.9	3.5	3.02e+01	0	32	104	0	60	67836
2026-01-27 18:15:39.84	17.44	6.09	-39.2	-49.7	3.5	3.02e+01	0	32	104	0	56	14878
2026-01-27 18:15:40.85	17.36	6.16	-37.9	-48.3	3.5	3.02e+01	0	32	104	0	50	17744
2026-01-27 18:15:41.86	17.27	6.23	-37.9	-48.3	3.6	3.02e+01	0	32	104	0	50	17845
2026-01-27 18:15:42.87	17.19	6.30	-47.0	-61.6	3.5	3.02e+01	0	32	104	0	60	46443
2026-01-27 18:15:43.87	17.10	6.37	-38.9	-49.4	3.5	3.02e+01	0	32	104	0	50	20191
2026-01-27 18:15:44.89	17.02	6.44	-47.8	-65.3	3.5	3.02e+01	0	32	104	0	60	70808
2026-01-27 18:15:45.90	16.93	6.51	-47.8	-64.6	3.5	3.02e+01	0	32	104	0	60	65184
2026-01-27 18:15:46.90	16.84	6.58	-40.3	-51.0	3.5	3.02e+01	0	32	104	0	52	21559
2026-01-27 18:15:47.91	16.76	6.65	-40.3	-51.1	3.5	3.02e+01	0	32	104	0	56	17318
2026-01-27 18:15:48.92	16.67	6.72	-40.5	-51.2	3.5	3.02e+01	0	32	104	0	56	17569
2026-01-27 18:15:49.93	16.58	6.79	-40.3	-50.9	3.5	3.02e+01	0	32	104	0	54	19013
2026-01-27 18:15:50.94	16.49	6.86	-38.0	-48.4	3.5	3.02e+01	0	32	104	0	52	16126
2026-01-27 18:15:51.95	16.40	6.94	-42.3	-53.4	3.5	3.02e+01	0	32	104	0	58	20284
2026-01-27 18:15:52.96	16.31	7.01	-47.8	-64.2	3.5	3.02e+01	0	32	104	0	60	62426
2026-01-27 18:15:53.97	16.22	7.08	-40.6	-51.3	3.5	3.02e+01	0	33	104	0	56	17864
2026-01-27 18:15:54.98	16.13	7.15	-47.9	-65.2	3.5	3.02e+01	0	32	104	0	60	69838
2026-01-27 18:15:55.99	16.04	7.22	-40.1	-50.7	3.5	3.02e+01	0	32	104	0	56	16590
2026-01-27 18:15:57.00	15.95	7.30	-38.4	-48.9	3.5	3.02e+01	0	32	104	0	52	16933
2026-01-27 18:15:58.01	15.86	7.37	-37.7	-48.0	3.6	3.02e+01	0	32	104	0	50	17190
2026-01-27 18:15:59.02	15.76	7.44	-47.5	-62.8	3.5	3.02e+01	0	32	104	0	60	53187
2026-01-27 18:16:00.03	15.67	7.51	-41.2	-52.1	3.5	3.02e+01	0	32	104	0	58	17331
2026-01-27 18:16:01.04	15.58	7.59	-47.9	-65.1	3.5	3.02e+01	0	32	104	0	60	69447
2026-01-27 18:16:02.05	15.48	7.66	-47.9	-64.7	3.5	3.02e+01	0	32	104	0	60	66079
2026-01-27 18:16:03.06	15.39	7.73	-38.1	-48.5	3.5	3.02e+01	0	33	104	0	48	20336
2026-01-27 18:16:04.07	15.29	7.81	-36.5	-46.7	3.5	3.02e+01	0	33	104	0	48	16648
2026-01-27 18:16:05.07	15.20	7.88	-36.1	-46.3	3.6	3.02e+01	0	32	104	0	48	15874
2026-01-27 18:16:06.08	15.10	7.95	-36.0	-46.2	3.5	3.02e+01	0	32	104	0	46	17619
2026-01-27 18:16:07.09	15.00	8.03	-36.3	-46.6	3.6	3.02e+01	0	33	104	0	46	18457
2026-01-27 18:16:08.10	14.90	8.10	-42.7	-53.9	3.5	3.02e+01	0	33	104	0	58	21304
2026-01-27 18:16:09.11	14.81	8.18	-48.2	-65.3	3.5	3.02e+01	0	33	104	0	60	70975
2026-01-27 18:16:10.12	14.71	8.25	-40.4	-51.1	3.5	3.02e+01	0	33	104	0	56	17403
2026-01-27 18:16:11.13	14.61	8.32	-48.0	-64.8	3.5	3.02e+01	0	33	104	0	60	66919
2026-01-27 18:16:12.14	14.51	8.40	-39.3	-49.8	3.5	3.02e+01	0	32	104	0	54	16736
2026-01-27 18:16:13.14	14.41	8.47	-38.7	-49.2	3.5	3.02e+01	0	32	104	0	52	17566
2026-01-27 18:16:14.15	14.31	8.55	-38.1	-48.5	3.6	3.02e+01	0	32	104	0	52	16201
2026-01-27 18:16:15.16	14.20	8.62	-47.5	-62.7	3.6	3.02e+01	0	33	104	0	60	52755
2026-01-27 18:16:16.17	14.10	8.70	-40.5	-51.2	3.5	3.02e+01	0	32	104	0	56	17645
2026-01-27 18:16:17.18	14.00	8.78	-48.0	-64.7	3.5	3.02e+01	0	32	104	0	60	66052
2026-01-27 18:16:18.19	13.90	8.85	-48.0	-64.6	3.5	3.02e+01	0	32	104	0	60	65133
2026-01-27 18:16:19.20	13.79	8.93	-41.6	-52.4	3.5	3.02e+01	0	32	104	0	56	20313
2026-01-27 18:16:20.21	13.69	9.00	-38.6	-49.0	3.5	3.02e+01	0	33	104	0	52	17156
2026-01-27 18:16:21.22	13.58	9.08	-38.3	-48.8	3.6	3.02e+01	0	32	104	0	52	16708
2026-01-27 18:16:22.22	13.48	9.15	-36.7	-47.0	3.6	3.02e+01	0	32	104	0	48	17191
2026-01-27 18:16:23.23	13.37	9.23	-36.3	-46.5	3.5	3.02e+01	0	32	104	0	46	18204
2026-01-27 18:16:24.24	13.26	9.31	-41.5	-52.3	3.6	3.02e+01	0	32	104	0	58	17871
2026-01-27 18:16:25.25	13.15	9.39	-48.1	-65.1	3.5	3.02e+01	0	32	104	0	60	69187
2026-01-27 18:16:26.26	13.05	9.46	-39.4	-49.9	3.5	3.02e+01	0	32	104	0	56	15188
2026-01-27 18:16:27.27	12.94	9.54	-48.0	-64.6	3.5	3.02e+01	0	32	104	0	60	65146
2026-01-27 18:16:28.28	12.83	9.62	-36.9	-47.2	3.5	3.02e+01	0	32	104	0	48	17561
2026-01-27 18:16:29.28	12.72	9.69	-36.1	-46.3	3.6	3.02e+01	0	32	104	0	48	15881
2026-01-27 18:16:30.29	12.61	9.77	-36.4	-46.6	3.5	3.02e+01	0	32	104	0	46	18498
2026-01-27 18:16:31.30	12.49	9.85	-47.9	-64.1	3.5	3.02e+01	0	33	104	0	60	61358
2026-01-27 18:16:32.31	12.38	9.93	-37.9	-48.3	3.5	3.02e+01	0	32	104	0	54	14130
2026-01-27 18:16:33.32	12.27	10.01	-48.1	-65.0	3.5	3.02e+01	0	33	104	0	60	68067
2026-01-27 18:16:34.33	12.15	10.08	-45.8	-58.6	3.6	3.02e+01	0	33	104	0	60	32636
2026-01-27 18:16:35.34	12.04	10.16	-37.6	-48.0	3.6	3.02e+01	0	32	104	0	48	19288
2026-01-27 18:16:36.34	11.93	10.24	-35.7	-45.9	3.5	3.02e+01	0	32	104	0	46	16979
2026-01-27 18:16:37.35	11.81	10.32	-35.3	-45.5	3.5	3.02e+01	0	33	104	0	46	16159
2026-01-27 18:16:38.36	11.69	10.40	-35.3	-45.5	3.6	3.02e+01	0	32	104	0	46	16163
2026-01-27 18:16:39.37	11.58	10.48	-35.3	-45.5	3.5	3.02e+01	0	32	104	0	46	16271
2026-01-27 18:16:40.38	11.46	10.56	-39.8	-50.4	3.6	3.02e+01	0	32	104	0	56	16116
2026-01-27 18:16:41.39	11.34	10.64	-47.6	-62.6	3.5	3.02e+01	0	32	104	0	60	51997
2026-01-27 18:16:42.40	11.22	10.72	-40.4	-51.1	3.5	3.02e+01	0	32	104	0	58	15541
2026-01-27 18:16:43.40	11.10	10.80	-48.0	-64.4	3.5	3.02e+01	0	33	104	0	60	63863
2026-01-27 18:16:44.41	10.98	10.88	-41.6	-52.4	3.5	3.02e+01	0	32	104	0	58	18068
2026-01-27 18:16:45.43	10.86	10.96	-40.7	-51.4	3.5	3.02e+01	0	32	104	0	56	17954
2026-01-27 18:16:46.43	10.74	11.04	-40.3	-50.8	3.5	3.02e+01	0	33	104	0	56	16896
2026-01-27 18:16:47.44	10.61	11.12	-43.9	-55.4	3.5	3.02e+01	0	33	104	0	60	22662
2026-01-27 18:16:48.45	10.49	11.20	-42.4	-53.4	3.6	3.02e+01	0	32	104	0	60	18024
2026-01-27 18:16:49.47	10.36	11.28	-37.2	-47.5	3.6	3.02e+01	0	32	104	0	52	14510
2026-01-27 18:16:50.47	10.24	11.36	-35.3	-45.5	3.5	3.02e+01	0	32	104	0	46	16189
2026-01-27 18:16:51.48	10.11	11.44	-48.0	-63.9	3.6	3.02e+01	0	33	104	0	60	60035
2026-01-27 18:16:52.49	9.99	11.53	-35.4	-45.6	3.5	3.02e+01	0	32	104	0	46	16365
2026-01-27 18:16:53.51	9.86	11.61	-35.3	-45.5	3.5	3.02e+01	0	32	104	0	46	16314
2026-01-27 18:16:54.51	9.73	11.69	-35.8	-46.1	3.5	3.02e+01	0	32	104	0	46	17331
2026-01-27 18:16:55.52	9.60	11.77	-37.2	-47.5	3.5	3.02e+01	0	32	104	0	54	12884
2026-01-27 18:16:56.53	9.47	11.85	-38.5	-48.8	3.5	3.02e+01	0	33	104	0	52	16777
2026-01-27 18:16:57.54	9.34	11.94	-43.8	-55.2	3.6	3.02e+01	0	33	104	0	60	22241
2026-01-27 18:16:58.55	9.21	12.02	-36.7	-46.9	3.5	3.02e+01	0	32	104	0	46	19177
2026-01-27 18:16:59.56	9.07	12.10	-47.1	-60.8	3.5	3.02e+01	0	33	104	0	60	42398
2026-01-27 18:17:00.57	8.94	12.18	-36.2	-46.4	3.5	3.02e+01	0	33	104	0	48	16058
2026-01-27 18:17:01.58	8.81	12.27	-35.5	-45.7	3.5	3.02e+01	0	33	104	0	46	16702
2026-01-27 18:17:02.59	8.67	12.35	-40.4	-51.0	3.6	3.02e+01	0	32	104	0	50	24220
2026-01-27 18:17:03.60	8.54	12.43	-40.3	-50.9	3.5	3.02e+01	0	33	104	0	56	17081
2026-01-27 18:17:04.61	8.40	12.52	-37.5	-47.8	3.4	3.02e+01	0	33	104	0	46	21084
2026-01-27 18:17:05.62	8.26	12.60	-48.3	-64.8	3.5	3.02e+01	0	33	104	0	60	66607
2026-01-27 18:17:06.63	8.12	12.69	-38.0	-48.4	3.5	3.02e+01	0	33	104	0	54	14236
2026-01-27 18:17:07.64	7.98	12.77	-39.5	-49.9	3.6	3.02e+01	0	33	104	0	56	15228
2026-01-27 18:17:08.64	7.84	12.85	-38.7	-49.2	3.5	3.02e+01	0	32	104	0	52	17564
2026-01-27 18:17:09.65	7.70	12.94	-38.2	-48.6	3.5	3.02e+01	0	32	104	0	52	16490
2026-01-27 18:17:10.66	7.56	13.02	-35.1	-45.4	3.6	3.02e+01	0	33	104	0	46	15987
2026-01-27 18:17:11.67	7.42	13.11	-37.6	-47.9	3.5	3.02e+01	0	32	104	0	46	21405
2026-01-27 18:17:12.68	7.27	13.19	-41.3	-52.0	3.5	3.02e+01	0	33	104	0	50	27236
2026-01-27 18:17:13.69	7.13	13.28	-40.3	-51.0	3.5	3.02e+01	0	33	104	0	60	13588
2026-01-27 18:17:14.70	6.98	13.36	-43.6	-54.8	3.5	3.02e+01	0	33	104	0	52	33354
2026-01-27 18:17:15.71	6.84	13.45	-44.5	-56.2	3.5	3.02e+01	0	32	104	0	60	24732
2026-01-27 18:17:16.72	6.69	13.53	-37.6	-47.9	3.5	3.02e+01	0	33	104	0	50	16985
2026-01-27 18:17:17.73	6.54	13.62	-36.4	-46.7	3.5	3.02e+01	0	32	104	0	48	16544
2026-01-27 18:17:18.74	6.39	13.70	-40.4	-51.0	3.5	3.02e+01	0	33	104	0	50	24397
2026-01-27 18:17:19.75	6.24	13.79	-41.6	-52.4	3.5	3.02e+01	0	33	104	0	60	16015
2026-01-27 18:17:20.75	6.09	13.88	-45.1	-57.1	3.4	3.02e+01	0	32	104	0	54	38899
2026-01-27 18:17:21.77	5.94	13.96	-46.7	-60.1	3.5	3.02e+01	0	32	104	0	60	38709
2026-01-27 18:17:22.77	5.79	14.05	-35.1	-45.3	3.5	3.02e+01	0	32	104	0	46	15849
2026-01-27 18:17:23.78	5.63	14.13	-35.4	-45.6	3.5	3.02e+01	0	33	104	0	46	16468
2026-01-27 18:17:24.79	5.48	14.22	-35.0	-45.1	3.5	3.02e+01	0	32	104	0	46	15582
2026-01-27 18:17:25.80	5.32	14.31	-34.6	-44.8	3.5	3.02e+01	0	32	104	0	44	16869
2026-01-27 18:17:26.81	5.16	14.40	-37.2	-47.5	3.6	3.02e+01	0	32	104	0	46	20347
2026-01-27 18:17:27.82	5.00	14.48	-38.8	-49.3	3.5	3.02e+01	0	32	104	0	50	19886
2026-01-27 18:17:28.83	4.85	14.57	-48.4	-65.4	3.5	3.02e+01	0	32	104	0	60	71799
2026-01-27 18:17:29.84	4.69	14.66	-47.0	-60.9	3.5	3.02e+01	0	32	104	0	60	42805
2026-01-27 18:17:30.85	4.52	14.74	-35.6	-45.8	3.5	3.02e+01	0	32	104	0	46	16716
2026-01-27 18:17:31.86	4.36	14.83	-36.0	-46.2	3.5	3.02e+01	0	32	104	0	48	15732
2026-01-27 18:17:32.87	4.20	14.92	-36.5	-46.8	3.5	3.02e+01	0	32	104	0	48	16783
2026-01-27 18:17:33.88	4.03	15.01	-36.0	-46.3	3.5	3.02e+01	0	32	104	0	48	15809
2026-01-27 18:17:34.89	3.87	15.10	-34.5	-44.6	3.5	3.02e+01	0	32	104	0	44	16434
2026-01-27 18:17:35.90	3.70	15.18	-39.7	-50.3	3.5	3.02e+01	0	33	104	0	50	22351
2026-01-27 18:17:36.91	3.53	15.27	-46.8	-60.2	3.5	3.02e+01	0	32	104	0	60	39488
2026-01-27 18:17:37.92	3.37	15.36	-41.9	-52.8	3.5	3.02e+01	0	33	104	0	60	16769
2026-01-27 18:17:38.93	3.20	15.45	-48.3	-64.6	3.5	3.02e+01	0	33	104	0	60	65703
2026-01-27 18:17:39.94	3.02	15.54	-41.2	-51.9	3.5	3.02e+01	0	32	104	0	60	15200
2026-01-27 18:17:40.95	2.85	15.63	-39.1	-49.6	3.5	3.02e+01	0	32	104	0	54	16412
2026-01-27 18:17:41.96	2.68	15.71	-38.7	-49.2	3.5	3.02e+01	0	32	104	0	52	17535
2026-01-27 18:17:42.97	2.51	15.80	-45.7	-58.2	3.5	3.02e+01	0	33	104	0	60	31405
2026-01-27 18:17:43.97	2.33	15.89	-39.3	-49.7	3.5	3.02e+01	0	33	104	0	54	16669
2026-01-27 18:17:44.98	2.16	15.98	-48.3	-64.2	3.5	3.02e+01	0	33	104	0	60	62135
2026-01-27 18:17:45.99	1.98	16.07	-46.8	-60.9	3.5	3.02e+01	0	32	104	0	60	42825
2026-01-27 18:17:47.00	1.80	16.16	-37.3	-47.7	3.5	3.02e+01	0	32	104	0	46	20835
2026-01-27 18:17:48.01	1.62	16.25	-35.2	-45.4	3.6	3.02e+01	0	32	104	0	46	16050
2026-01-27 18:17:49.02	1.44	16.34	-34.9	-45.0	3.5	3.02e+01	0	33	104	0	44	17237
2026-01-27 18:17:50.03	1.26	16.43	-34.9	-45.1	3.5	3.02e+01	0	32	104	0	44	17327
2026-01-27 18:17:51.04	1.07	16.52	-36.9	-47.2	3.5	3.02e+01	0	32	104	0	46	19728
2026-01-27 18:17:52.05	0.89	16.61	-38.8	-49.3	3.5	3.02e+01	0	32	104	0	50	19894
2026-01-27 18:17:53.06	0.70	16.70	-48.3	-64.6	3.5	3.02e+01	0	33	104	0	60	65116
2026-01-27 18:17:54.07	0.51	16.79	-47.2	-61.2	3.5	3.02e+01	0	33	104	0	60	44004
2026-01-27 18:17:55.07	0.33	16.88	-37.9	-48.2	3.6	3.02e+01	0	33	104	0	48	19833
2026-01-27 18:17:56.08	0.14	16.97	-35.5	-45.6	3.5	3.02e+01	0	32	104	0	46	16452
2026-01-27 18:17:57.09	359.95	17.06	-35.0	-45.2	3.5	3.02e+01	0	32	104	0	46	15589
2026-01-27 18:17:58.10	359.76	17.15	-34.9	-45.2	3.5	3.02e+01	0	32	104	0	44	17492
2026-01-27 18:17:59.11	359.56	17.24	-40.2	-50.7	3.5	3.02e+01	0	33	104	0	52	21010
2026-01-27 18:18:00.12	359.37	17.33	-38.4	-48.8	3.6	3.02e+01	0	32	104	0	50	18802
2026-01-27 18:18:01.13	359.17	17.42	-48.4	-64.7	3.5	3.02e+01	0	33	104	0	60	66474
2026-01-27 18:18:02.14	358.98	17.51	-47.3	-61.5	3.5	3.02e+01	0	33	104	0	60	45500
2026-01-27 18:18:03.15	358.78	17.60	-43.2	-54.4	3.5	3.02e+01	0	33	104	0	58	22632
2026-01-27 18:18:04.16	358.58	17.69	-38.7	-49.1	3.5	3.02e+01	0	33	104	0	52	17436
2026-01-27 18:18:05.17	358.38	17.78	-37.3	-47.6	3.6	3.02e+01	0	32	104	0	50	16388
2026-01-27 18:18:06.18	358.18	17.87	-36.0	-46.2	3.5	3.02e+01	0	32	104	0	48	15765
2026-01-27 18:18:07.19	357.97	17.96	-35.8	-46.0	3.5	3.02e+01	0	33	104	0	46	17226
2026-01-27 18:18:08.19	357.77	18.05	-43.8	-55.2	3.6	3.02e+01	0	32	104	0	60	22198
2026-01-27 18:18:09.20	357.56	18.14	-47.1	-61.1	3.6	3.02e+01	0	32	104	0	60	43448
2026-01-27 18:18:10.21	357.36	18.23	-39.9	-50.4	3.5	3.02e+01	0	32	104	0	56	16123
2026-01-27 18:18:11.22	357.15	18.32	-48.3	-65.2	3.5	3.02e+01	0	32	104	0	60	70313
2026-01-27 18:18:12.22	356.94	18.41	-37.3	-47.7	3.5	3.02e+01	0	32	104	0	50	16543
2026-01-27 18:18:13.23	356.73	18.50	-36.4	-46.7	3.5	3.02e+01	0	32	104	0	48	16623
2026-01-27 18:18:14.24	356.52	18.59	-35.5	-45.7	3.5	3.02e+01	0	32	104	0	46	16528
2026-01-27 18:18:15.25	356.30	18.68	-44.9	-56.9	3.6	3.02e+01	0	32	104	0	60	26844
2026-01-27 18:18:16.26	356.09	18.77	-37.1	-47.4	3.5	3.02e+01	0	33	104	0	52	14230
2026-01-27 18:18:17.27	355.87	18.86	-48.5	-65.4	3.5	3.02e+01	0	32	104	0	60	72014
2026-01-27 18:18:18.28	355.65	18.95	-43.1	-54.4	3.6	3.02e+01	0	32	104	0	60	20128
2026-01-27 18:18:19.29	355.43	19.04	-39.7	-50.3	3.5	3.02e+01	0	33	104	0	54	17723
2026-01-27 18:18:20.30	355.21	19.13	-36.0	-46.2	3.5	3.02e+01	0	32	104	0	46	17585
2026-01-27 18:18:21.31	354.99	19.22	-35.5	-45.6	3.5	3.02e+01	0	32	104	0	46	16457
2026-01-27 18:18:22.32	354.76	19.31	-35.5	-45.7	3.5	3.02e+01	0	32	104	0	46	16659
2026-01-27 18:18:23.33	354.54	19.40	-38.7	-49.0	3.5	3.02e+01	0	32	104	0	50	19290
2026-01-27 18:18:24.34	354.31	19.49	-41.9	-52.7	3.5	3.02e+01	0	32	104	0	60	16579
2026-01-27 18:18:25.34	354.09	19.57	-45.5	-57.8	3.6	3.02e+01	0	32	104	0	60	29830
2026-01-27 18:18:26.35	353.86	19.66	-37.5	-47.8	3.5	3.02e+01	0	32	104	0	52	14986
2026-01-27 18:18:27.36	353.63	19.75	-48.6	-65.8	3.5	3.02e+01	0	33	104	0	60	74852
2026-01-27 18:18:28.37	353.40	19.84	-39.7	-50.1	3.5	3.02e+01	0	32	104	0	54	17453
2026-01-27 18:18:29.38	353.16	19.93	-39.1	-49.5	3.5	3.02e+01	0	32	104	0	54	16231
2026-01-27 18:18:30.38	352.93	20.02	-38.5	-48.9	3.5	3.02e+01	0	32	104	0	52	17030
2026-01-27 18:18:31.39	352.69	20.11	-38.7	-49.1	3.5	3.02e+01	0	32	104	0	50	19517
2026-01-27 18:18:32.41	352.45	20.20	-43.3	-54.4	3.5	3.02e+01	0	32	104	0	60	20296
2026-01-27 18:18:33.42	352.21	20.29	-42.2	-53.2	3.5	3.02e+01	0	33	104	0	60	17521
2026-01-27 18:18:34.43	351.97	20.37	-36.3	-46.5	3.5	3.02e+01	0	32	104	0	46	18190
2026-01-27 18:18:35.44	351.73	20.46	-48.6	-65.8	3.5	3.02e+01	0	32	104	0	60	75231
2026-01-27 18:18:36.45	351.48	20.55	-36.3	-46.5	3.5	3.02e+01	0	32	104	0	48	16148
2026-01-27 18:18:37.45	351.24	20.64	-36.2	-46.4	3.5	3.02e+01	0	32	104	0	46	18069
2026-01-27 18:18:38.46	350.99	20.72	-35.5	-45.7	3.5	3.02e+01	0	33	104	0	46	16662
2026-01-27 18:18:39.47	350.75	20.81	-40.6	-51.2	3.6	3.02e+01	0	33	104	0	60	13971
2026-01-27 18:18:40.48	350.50	20.90	-38.9	-49.3	3.6	3.02e+01	0	33	104	0	56	14102
2026-01-27 18:18:41.49	350.24	20.98	-42.4	-53.3	3.5	3.02e+01	0	32	104	0	60	17770
2026-01-27 18:18:42.50	349.99	21.07	-37.3	-47.6	3.5	3.02e+01	0	32	104	0	48	18439
2026-01-27 18:18:43.51	349.74	21.16	-47.9	-62.7	3.6	3.02e+01	0	33	104	0	60	52455
2026-01-27 18:18:44.52	349.48	21.24	-37.4	-47.7	3.6	3.02e+01	0	32	104	0	50	16617
2026-01-27 18:18:45.52	349.23	21.33	-37.1	-47.4	3.5	3.02e+01	0	33	104	0	48	18072
2026-01-27 18:18:46.53	348.97	21.41	-38.5	-48.9	3.5	3.02e+01	0	32	104	0	48	21305
2026-01-27 18:18:47.54	348.71	21.50	-43.5	-54.8	3.6	3.02e+01	0	32	104	0	60	21227
2026-01-27 18:18:48.55	348.44	21.58	-36.1	-46.3	3.5	3.02e+01	0	32	104	0	46	17734
2026-01-27 18:18:49.56	348.18	21.67	-47.2	-60.8	3.6	3.02e+01	0	33	104	0	60	42409
2026-01-27 18:18:50.57	347.92	21.75	-36.5	-46.8	3.5	3.02e+01	0	32	104	0	52	13271
2026-01-27 18:18:51.58	347.65	21.84	-37.9	-48.2	3.6	3.02e+01	0	32	104	0	52	15731
2026-01-27 18:18:52.59	347.38	21.92	-35.5	-45.8	3.5	3.02e+01	0	32	104	0	46	16741
2026-01-27 18:18:53.60	347.11	22.00	-35.2	-45.4	3.5	3.02e+01	0	32	104	0	46	16086
2026-01-27 18:18:54.61	346.84	22.09	-36.6	-46.8	3.5	3.02e+01	0	32	104	0	46	18812
2026-01-27 18:18:55.62	346.57	22.17	-37.9	-48.2	3.5	3.02e+01	0	32	104	0	52	15667
2026-01-27 18:18:56.63	346.29	22.25	-41.8	-52.5	3.5	3.02e+01	0	32	104	0	46	36307
2026-01-27 18:18:57.64	346.02	22.33	-47.1	-60.7	3.5	3.02e+01	0	32	104	0	60	41804
2026-01-27 18:18:58.65	345.74	22.41	-37.5	-47.7	3.5	3.02e+01	0	33	104	0	50	16685
2026-01-27 18:18:59.66	345.46	22.50	-40.7	-51.4	3.5	3.02e+01	0	32	104	0	58	15971
2026-01-27 18:19:00.67	345.18	22.58	-39.6	-50.1	3.5	3.02e+01	0	32	104	0	54	17476
2026-01-27 18:19:01.68	344.90	22.66	-37.8	-48.1	3.5	3.02e+01	0	32	104	0	50	17390
2026-01-27 18:19:02.69	344.61	22.74	-35.3	-45.5	3.5	3.02e+01	0	32	104	0	46	16188
2026-01-27 18:19:03.70	344.33	22.81	-38.2	-48.5	3.5	3.02e+01	0	32	104	0	46	22814
2026-01-27 18:19:04.71	344.04	22.89	-39.9	-50.4	3.5	3.02e+01	0	32	104	0	52	20244
2026-01-27 18:19:05.71	343.76	22.97	-40.4	-51.0	3.5	3.02e+01	0	32	104	0	56	17199
2026-01-27 18:19:06.72	343.47	23.05	-45.0	-56.9	3.5	3.02e+01	0	32	104	0	54	38104
2026-01-27 18:19:07.73	343.18	23.13	-40.9	-51.6	3.5	3.02e+01	0	32	104	0	60	14669
2026-01-27 18:19:08.74	342.88	23.20	-36.8	-47.1	3.5	3.02e+01	0	33	104	0	48	17429
2026-01-27 18:19:09.74	342.59	23.28	-36.8	-47.0	3.5	3.02e+01	0	32	104	0	48	17185
2026-01-27 18:19:10.75	342.30	23.35	-45.4	-57.5	3.5	3.02e+01	0	32	104	0	58	32306
2026-01-27 18:19:11.76	342.00	23.43	-41.1	-51.7	3.5	3.02e+01	0	33	104	0	60	14885
2026-01-27 18:19:12.77	341.70	23.50	-45.0	-56.8	3.5	3.02e+01	0	32	104	0	52	42300
2026-01-27 18:19:13.78	341.40	23.58	-45.3	-57.3	3.5	3.02e+01	0	33	104	0	60	28341
2026-01-27 18:19:14.79	341.10	23.65	-36.8	-47.1	3.6	3.02e+01	0	32	104	0	44	21961
2026-01-27 18:19:15.80	340.80	23.72	-35.5	-45.7	3.5	3.02e+01	0	32	104	0	46	16646
2026-01-27 18:19:16.81	340.49	23.79	-35.6	-45.8	3.5	3.02e+01	0	32	104	0	46	16784
2026-01-27 18:19:17.82	340.18	23.87	-35.3	-45.5	3.5	3.02e+01	0	33	104	0	46	16244
2026-01-27 18:19:18.83	339.88	23.94	-43.0	-54.2	3.5	3.02e+01	0	32	104	0	56	24770
2026-01-27 18:19:19.84	339.57	24.01	-38.6	-48.9	3.5	3.02e+01	0	33	104	0	52	16959
2026-01-27 18:19:20.85	339.26	24.08	-48.5	-65.0	3.5	3.02e+01	0	32	104	0	60	68139
2026-01-27 18:19:21.86	338.95	24.15	-47.1	-60.9	3.5	3.02e+01	0	33	104	0	60	42590
2026-01-27 18:19:22.87	338.63	24.21	-40.0	-50.4	3.5	3.02e+01	0	33	104	0	50	22767
2026-01-27 18:19:23.87	338.32	24.28	-39.1	-49.5	3.5	3.02e+01	0	33	104	0	54	16269
2026-01-27 18:19:24.88	338.00	24.35	-38.3	-48.6	3.5	3.02e+01	0	32	104	0	52	16356
2026-01-27 18:19:25.90	337.68	24.41	-37.5	-47.7	3.5	3.02e+01	0	32	104	0	50	16553
2026-01-27 18:19:26.90	337.37	24.48	-41.3	-52.0	3.5	3.02e+01	0	32	104	0	54	21664
2026-01-27 18:19:27.91	337.05	24.54	-41.3	-52.0	3.5	3.02e+01	0	33	104	0	54	21708
2026-01-27 18:19:28.92	336.72	24.61	-45.4	-57.6	3.5	3.02e+01	0	32	104	0	58	32711
2026-01-27 18:19:29.93	336.40	24.67	-40.5	-51.1	3.5	3.02e+01	0	33	104	0	56	17470
2026-01-27 18:19:30.94	336.08	24.73	-48.2	-63.5	3.5	3.02e+01	0	32	104	0	60	57447
2026-01-27 18:19:31.95	335.75	24.79	-39.5	-49.9	3.5	3.02e+01	0	32	104	0	54	16953
2026-01-27 18:19:32.96	335.42	24.85	-38.3	-48.7	3.5	3.02e+01	0	32	104	0	50	18620
2026-01-27 18:19:33.97	335.09	24.91	-37.2	-47.6	3.5	3.02e+01	0	33	104	0	50	16356
2026-01-27 18:19:34.98	334.76	24.97	-47.7	-62.0	3.5	3.02e+01	0	32	104	0	60	48518
2026-01-27 18:19:35.99	334.43	25.03	-38.9	-49.3	3.5	3.02e+01	0	32	104	0	54	15889
2026-01-27 18:19:37.00	334.10	25.08	-48.3	-64.0	3.5	3.02e+01	0	32	104	0	60	61058
2026-01-27 18:19:38.00	333.77	25.14	-46.3	-59.1	3.5	3.02e+01	0	33	104	0	60	34556
2026-01-27 18:19:39.02	333.43	25.20	-40.2	-50.8	3.5	3.02e+01	0	33	104	0	50	23745
2026-01-27 18:19:40.03	333.10	25.25	-35.2	-45.4	3.5	3.02e+01	0	32	104	0	46	15964
2026-01-27 18:19:41.03	332.76	25.30	-35.2	-45.3	3.5	3.02e+01	0	33	104	0	46	15925
2026-01-27 18:19:42.04	332.42	25.36	-35.2	-45.4	3.5	3.02e+01	0	32	104	0	46	16009
2026-01-27 18:19:43.05	332.08	25.41	-44.4	-56.0	3.5	3.02e+01	0	32	104	0	60	24256
2026-01-27 18:19:44.06	331.74	25.46	-38.7	-49.1	3.5	3.02e+01	0	32	104	0	52	17316
2026-01-27 18:19:45.07	331.40	25.51	-48.2	-63.8	3.6	3.02e+01	0	32	104	0	60	59565
2026-01-27 18:19:46.08	331.06	25.55	-46.4	-59.4	3.5	3.02e+01	0	32	104	0	60	35826
2026-01-27 18:19:47.09	330.71	25.60	-40.8	-51.5	3.4	3.02e+01	0	32	104	0	52	22879
2026-01-27 18:19:48.10	330.37	25.65	-36.4	-46.7	3.5	3.02e+01	0	32	104	0	48	16640
2026-01-27 18:19:49.11	330.02	25.69	-36.6	-46.9	3.5	3.02e+01	0	33	104	0	48	16994
2026-01-27 18:19:50.12	329.67	25.74	-35.6	-45.7	3.6	3.02e+01	0	32	104	0	46	16585
2026-01-27 18:19:51.13	329.33	25.78	-38.8	-49.3	3.5	3.02e+01	0	32	104	0	50	19878
2026-01-27 18:19:52.14	328.98	25.82	-38.4	-48.8	3.5	3.02e+01	0	32	104	0	50	18841
2026-01-27 18:19:53.15	328.63	25.87	-48.3	-63.9	3.5	3.02e+01	0	33	104	0	60	59978
2026-01-27 18:19:54.16	328.27	25.91	-46.5	-59.4	3.5	3.02e+01	0	32	104	0	60	35978
2026-01-27 18:19:55.16	327.93	25.94	-44.2	-55.7	3.5	3.02e+01	0	32	104	0	60	23537
2026-01-27 18:19:56.17	327.57	25.98	-38.8	-49.2	3.5	3.02e+01	0	32	104	0	52	17544
2026-01-27 18:19:57.18	327.22	26.02	-37.6	-47.9	3.5	3.02e+01	0	32	104	0	50	16979
2026-01-27 18:19:58.19	326.86	26.06	-36.6	-46.8	3.5	3.02e+01	0	32	104	0	48	16833
2026-01-27 18:19:59.20	326.51	26.09	-35.9	-46.1	3.5	3.02e+01	0	32	104	0	46	17377
2026-01-27 18:20:00.21	326.15	26.12	-44.6	-56.2	3.6	3.02e+01	0	33	104	0	60	24949
2026-01-27 18:20:01.22	325.79	26.16	-46.9	-60.4	3.5	3.02e+01	0	33	104	0	60	40274
2026-01-27 18:20:02.22	325.44	26.19	-39.1	-49.5	3.6	3.02e+01	0	32	104	0	54	16146
2026-01-27 18:20:03.23	325.08	26.22	-48.2	-63.4	3.5	3.02e+01	0	33	104	0	60	56736
2026-01-27 18:20:04.24	324.72	26.25	-36.7	-46.9	3.6	3.02e+01	0	33	104	0	48	16940
2026-01-27 18:20:05.25	324.36	26.27	-36.4	-46.5	3.6	3.02e+01	0	33	104	0	48	16316
2026-01-27 18:20:06.26	324.00	26.30	-35.3	-36.8	5.2	3.02e+01	0	32	104	0	44	6680
2026-01-27 18:20:07.26	323.64	26.33	-47.8	-55.3	14.0	3.02e+01	54	32	0	0	60	22336
2026-01-27 18:20:08.27	323.28	26.35	-35.6	-36.8	29.2	3.02e+01	59	33	0	2097152	48	5314
2026-01-27 18:20:09.28	322.92	26.37	-48.0	-56.5	9.3	3.02e+01	46	33	0	3670016	60	25778
2026-01-27 18:20:10.29	322.55	26.39	-40.9	-42.6	21.2	3.02e+01	58	33	0	5767168	60	5198
2026-01-27 18:20:11.30	322.19	26.42	-40.9	-42.7	23.8	3.02e+01	61	33	0	7340032	56	6593
2026-01-27 18:20:12.31	321.83	26.43	-34.9	-36.1	29.5	3.02e+01	58	32	0	9437184	44	6148
2026-01-27 18:20:13.32	321.46	26.45	-34.8	-36.0	29.6	3.02e+01	57	33	0	11010048	44	6124
2026-01-27 18:20:14.33	321.10	26.47	-34.9	-36.0	29.5	3.02e+01	59	33	0	13107200	44	6133
2026-01-27 18:20:15.34	320.73	26.49	-34.8	-36.0	29.6	3.02e+01	61	33	0	15204352	44	6074
2026-01-27 18:20:16.35	320.37	26.50	-34.9	-36.1	29.5	3.02e+01	58	33	0	16777216	44	6141
2026-01-27 18:20:17.37	320.00	26.51	-34.7	-35.9	29.7	3.02e+01	55	33	0	18874368	44	6030
2026-01-27 18:20:18.37	319.63	26.53	-34.7	-35.9	29.7	3.02e+01	56	33	0	20447232	44	6054
2026-01-27 18:20:19.38	319.27	26.54	-35.0	-36.2	29.4	3.02e+01	62	33	0	22544384	44	6228
2026-01-27 18:20:20.39	318.90	26.55	-34.7	-35.9	29.6	3.02e+01	61	33	0	24641536	44	6022
2026-01-27 18:20:21.40	318.53	26.55	-34.6	-35.8	29.8	3.02e+01	59	33	0	26214400	44	5934
2026-01-27 18:20:22.41	318.16	26.56	-34.7	-35.9	29.7	3.02e+01	47	32	0	28311552	44	6031
2026-01-27 18:20:23.41	317.80	26.57	-34.8	-36.0	29.5	3.02e+01	62	32	0	30408704	44	6104
2026-01-27 18:20:24.42	317.43	26.57	-35.0	-36.2	29.4	3.02e+01	57	33	0	31981568	44	6232
2026-01-27 18:20:25.43	317.06	26.57	-34.8	-35.9	29.6	3.02e+01	44	32	0	34078720	44	6059
2026-01-27 18:20:26.44	316.70	26.58	-34.7	-35.9	29.6	3.02e+01	58	33	0	35651584	44	6049
2026-01-27 18:20:27.45	316.33	26.58	-34.9	-36.1	29.5	3.02e+01	58	32	0	37748736	44	6151
2026-01-27 18:20:28.46	315.96	26.58	-34.8	-36.0	29.5	3.02e+01	58	32	0	39845888	44	6077
2026-01-27 18:20:29.46	315.60	26.58	-34.8	-36.0	29.6	3.02e+01	52	32	0	41418752	44	6088
2026-01-27 18:20:30.47	315.23	26.57	-34.9	-36.1	29.5	3.02e+01	54	32	0	43515904	44	6150
2026-01-27 18:20:31.48	314.86	26.57	-34.9	-36.1	29.5	3.02e+01	60	33	0	45613056	44	6186
2026-01-27 18:20:32.49	314.49	26.56	-34.8	-35.9	29.6	3.02e+01	61	32	0	47185920	44	6064
2026-01-27 18:20:33.50	314.13	26.56	-34.8	-36.1	29.5	3.02e+01	46	32	0	49283072	44	6137
2026-01-27 18:20:34.51	313.76	26.55	-35.1	-36.4	29.3	3.02e+01	63	32	0	50855936	44	6352
2026-01-27 18:20:35.52	313.39	26.54	-35.3	-36.5	29.2	3.02e+01	60	33	0	52953088	44	6464
2026-01-27 18:20:36.53	313.02	26.53	-35.3	-36.5	29.2	3.02e+01	55	32	0	55050240	44	6484
2026-01-27 18:20:37.54	312.66	26.52	-35.1	-36.3	29.4	3.02e+01	59	32	0	56623104	44	6310
2026-01-27 18:20:38.55	312.29	26.50	-35.0	-36.2	29.4	3.02e+01	54	32	0	58720256	44	6266
2026-01-27 18:20:39.56	311.92	26.49	-34.9	-36.1	29.5	3.02e+01	54	32	0	60293120	44	6154
2026-01-27 18:20:40.57	311.56	26.47	-34.7	-35.8	29.8	3.02e+01	58	32	0	62390272	44	5989
2026-01-27 18:20:41.57	311.20	26.46	-35.0	-36.3	29.4	3.02e+01	59	32	0	64487424	44	6285
2026-01-27 18:20:42.58	310.83	26.44	-35.1	-36.3	29.3	3.02e+01	60	32	0	66060288	44	6343
2026-01-27 18:20:43.59	310.47	26.42	-35.1	-36.3	29.3	3.02e+01	47	32	0	68157440	44	6298
2026-01-27 18:20:44.60	310.10	26.40	-34.8	-36.0	29.6	3.02e+01	61	32	0	69730304	44	6108
2026-01-27 18:20:45.61	309.74	26.38	-34.9	-36.1	29.5	3.02e+01	57	32	0	71827456	44	6192
2026-01-27 18:20:46.62	309.38	26.35	-35.2	-36.5	29.3	3.02e+01	50	32	0	73924608	44	6427
2026-01-27 18:20:47.63	309.02	26.33	-35.5	-36.8	29.0	3.02e+01	60	32	0	75497472	44	6667
2026-01-27 18:20:48.64	308.65	26.31	-35.1	-36.4	29.3	3.02e+01	49	32	0	77594624	44	6366
2026-01-27 18:20:49.65	308.29	26.28	-34.9	-36.1	29.5	3.02e+01	55	32	0	79167488	44	6168
2026-01-27 18:20:50.66	307.93	26.25	-34.8	-36.0	29.6	3.02e+01	59	32	0	81264640	44	6095
2026-01-27 18:20:51.67	307.57	26.22	-35.2	-36.4	29.1	3.02e+01	47	32	0	83361792	44	6403
2026-01-27 18:20:52.68	307.21	26.19	-35.8	-37.1	28.7	3.02e+01	57	32	0	84934656	44	6931
2026-01-27 18:20:53.69	306.85	26.16	-35.2	-36.5	29.1	3.02e+01	59	32	0	87031808	44	6424
2026-01-27 18:20:54.70	306.50	26.13	-35.0	-36.2	29.4	3.02e+01	50	32	0	88604672	44	6222
2026-01-27 18:20:55.70	306.14	26.10	-34.9	-36.1	29.4	3.02e+01	59	32	0	90701824	44	6203
2026-01-27 18:20:56.71	305.79	26.06	-35.5	-36.8	28.8	3.02e+01	59	32	0	92798976	44	6652
2026-01-27 18:20:57.72	305.43	26.03	-35.7	-37.0	28.6	3.02e+01	59	32	0	94371840	44	6845
2026-01-27 18:20:58.73	305.08	25.99	-34.7	-35.9	29.2	3.02e+01	60	32	0	96468992	44	5997
2026-01-27 18:20:59.74	304.72	25.95	-34.4	-35.6	29.9	3.02e+01	56	32	0	98566144	44	5822
2026-01-27 18:21:00.75	304.37	25.91	-35.9	-37.2	28.0	3.02e+01	58	32	0	100139008	46	6243
2026-01-27 18:21:01.76	304.02	25.87	-36.5	-37.9	27.6	3.02e+01	59	32	0	102236160	46	6793
2026-01-27 18:21:02.77	303.67	25.83	-34.8	-36.0	28.9	3.02e+01	45	33	0	103809024	44	6101
2026-01-27 18:21:03.77	303.32	25.79	-34.9	-36.1	29.4	3.02e+01	61	32	0	105906176	46	5473
2026-01-27 18:21:04.78	302.97	25.75	-35.4	-36.6	29.0	3.02e+01	60	32	0	108003328	46	5841
2026-01-27 18:21:05.79	302.62	25.70	-35.5	-36.8	28.9	3.02e+01	59	32	0	109576192	44	6675
2026-01-27 18:21:06.80	302.28	25.66	-35.4	-36.7	28.9	3.02e+01	61	32	0	111673344	44	6582
2026-01-27 18:21:07.81	301.93	25.61	-36.1	-37.4	28.3	3.02e+01	51	32	0	113246208	46	6390
2026-01-27 18:21:08.82	301.58	25.56	-36.9	-38.3	26.7	3.02e+01	59	32	0	115343360	46	7081
2026-01-27 18:21:09.83	301.24	25.51	-35.9	-37.2	28.0	3.02e+01	58	32	0	117440512	44	7023
2026-01-27 18:21:10.83	300.90	25.47	-34.9	-36.1	29.2	3.02e+01	58	32	0	119013376	44	6147
2026-01-27 18:21:11.84	300.56	25.42	-35.5	-36.7	28.9	3.02e+01	58	32	0	121110528	46	5886
2026-01-27 18:21:12.85	300.22	25.36	-36.1	-37.4	28.4	3.02e+01	54	32	0	122683392	46	6402
2026-01-27 18:21:13.86	299.88	25.31	-35.9	-37.1	28.6	3.02e+01	61	33	0	124780544	46	6198
2026-01-27 18:21:14.87	299.54	25.26	-36.4	-37.7	27.9	3.02e+01	61	32	0	126877696	48	5872
2026-01-27 18:21:15.88	299.20	25.20	-36.7	-38.1	27.7	3.02e+01	43	32	0	128450560	46	6914
2026-01-27 18:21:16.89	298.87	25.15	-36.0	-37.3	28.5	3.02e+01	60	32	0	130547712	46	6328
2026-01-27 18:21:17.90	298.53	25.09	-36.4	-37.7	28.2	3.02e+01	57	32	0	132120576	46	6589
2026-01-27 18:21:18.90	298.20	25.04	-35.7	-36.9	28.4	3.02e+01	57	32	0	134217728	46	6046
2026-01-27 18:21:19.91	297.87	24.98	-34.8	-35.9	29.5	3.02e+01	59	32	0	136314880	44	6061
2026-01-27 18:21:20.92	297.54	24.92	-35.3	-36.6	29.2	3.02e+01	43	32	0	137887744	46	5800
2026-01-27 18:21:21.93	297.21	24.86	-35.8	-37.1	28.7	3.02e+01	60	32	0	139984896	44	6920
2026-01-27 18:21:22.94	296.88	24.80	-35.6	-36.8	28.9	3.02e+01	58	32	0	142082048	44	6681
2026-01-27 18:21:23.95	296.56	24.74	-36.0	-37.3	28.5	3.02e+01	44	32	0	143654912	46	6319
2026-01-27 18:21:24.96	296.23	24.68	-35.4	-36.6	29.1	3.02e+01	56	32	0	145752064	46	5831
2026-01-27 18:21:25.97	295.91	24.62	-35.3	-36.5	29.2	3.02e+01	57	32	0	147324928	46	5749
2026-01-27 18:21:26.98	295.58	24.55	-35.9	-37.1	28.7	3.02e+01	52	32	0	149422080	46	6191
2026-01-27 18:21:27.99	295.26	24.49	-35.1	-36.3	29.3	3.02e+01	58	32	0	151519232	46	5653
2026-01-27 18:21:29.00	294.94	24.42	-35.2	-36.4	29.1	3.02e+01	56	32	0	153092096	46	5715
2026-01-27 18:21:30.01	294.62	24.36	-36.0	-37.3	28.5	3.02e+01	60	32	0	155189248	44	7083
2026-01-27 18:21:31.02	294.31	24.29	-35.3	-36.5	29.1	3.02e+01	58	32	0	156762112	46	5732
2026-01-27 18:21:32.03	293.99	24.22	-35.7	-36.9	28.6	3.02e+01	52	32	0	158859264	46	6044
2026-01-27 18:21:33.04	293.68	24.15	-36.1	-37.4	28.3	3.02e+01	59	32	0	160956416	46	6363
2026-01-27 18:21:34.05	293.36	24.09	-35.5	-36.7	29.0	3.02e+01	57	32	0	162529280	46	5863
2026-01-27 18:21:35.06	293.05	24.02	-36.0	-37.3	28.4	3.02e+01	60	32	0	164626432	46	6288
2026-01-27 18:21:36.07	292.74	23.95	-36.4	-37.7	27.9	3.02e+01	63	32	0	166199296	46	6606
2026-01-27 18:21:37.08	292.43	23.88	-36.5	-37.7	28.0	3.02e+01	50	32	0	168296448	46	6632
2026-01-27 18:21:38.09	292.13	23.80	-36.4	-37.6	28.1	3.02e+01	61	32	0	170393600	48	5856
2026-01-27 18:21:39.10	291.82	23.73	-37.5	-38.9	26.8	3.02e+01	57	32	0	171966464	48	6760
2026-01-27 18:21:40.10	291.52	23.66	-36.7	-37.9	27.2	3.02e+01	48	32	0	174063616	48	6046
2026-01-27 18:21:41.11	291.22	23.59	-37.2	-38.5	27.2	3.02e+01	58	32	0	175636480	50	5779
2026-01-27 18:21:42.12	290.91	23.51	-37.0	-38.3	27.2	3.02e+01	60	32	0	177733632	46	7111
2026-01-27 18:21:43.13	290.61	23.44	-35.4	-36.5	29.0	3.02e+01	59	32	0	179830784	46	5769
2026-01-27 18:21:44.14	290.32	23.36	-36.5	-37.8	27.2	3.02e+01	56	32	0	181403648	48	5983
2026-01-27 18:21:45.15	290.02	23.29	-36.2	-37.5	28.0	3.02e+01	54	32	0	183500800	46	6494
2026-01-27 18:21:46.15	289.73	23.21	-34.9	-36.0	27.4	3.02e+01	55	32	0	185073664	46	5446
2026-01-27 18:21:47.16	289.43	23.14	-36.1	-37.4	28.2	3.02e+01	60	32	0	187170816	46	6388
2026-01-27 18:21:48.17	289.14	23.06	-35.1	-36.3	29.0	3.02e+01	48	32	0	189267968	44	6298
2026-01-27 18:21:49.18	288.85	22.98	-35.8	-37.0	28.3	3.02e+01	59	32	0	190840832	46	6097
2026-01-27 18:21:50.19	288.56	22.90	-36.1	-37.4	28.2	3.02e+01	45	32	0	192937984	46	6366
2026-01-27 18:21:51.20	288.27	22.82	-35.1	-36.2	29.3	3.02e+01	59	32	0	195035136	46	5593
2026-01-27 18:21:52.21	287.99	22.74	-36.0	-37.3	28.4	3.02e+01	58	32	0	196608000	46	6286
2026-01-27 18:21:53.22	287.70	22.66	-35.0	-36.2	29.2	3.02e+01	52	32	0	198705152	44	6244
2026-01-27 18:21:54.22	287.42	22.58	-35.9	-37.2	28.0	3.02e+01	60	32	0	200278016	46	6255
2026-01-27 18:21:55.23	287.14	22.50	-35.6	-36.8	28.5	3.02e+01	58	32	0	202375168	46	5960
2026-01-27 18:21:56.25	286.86	22.42	-35.7	-36.9	28.6	3.02e+01	59	32	0	204472320	46	6053
2026-01-27 18:21:57.25	286.58	22.34	-35.1	-36.3	29.3	3.02e+01	61	33	0	206045184	44	6279
2026-01-27 18:21:58.26	286.31	22.26	-35.4	-36.6	29.0	3.02e+01	48	32	0	208142336	44	6528
2026-01-27 18:21:59.27	286.03	22.18	-35.6	-36.8	28.9	3.02e+01	61	32	0	209715200	44	6678
2026-01-27 18:22:00.28	285.76	22.09	-35.4	-36.6	29.0	3.02e+01	59	32	0	211812352	44	6519
2026-01-27 18:22:01.29	285.48	22.01	-35.3	-36.5	29.0	3.02e+01	47	32	0	213909504	44	6482
2026-01-27 18:22:02.30	285.21	21.93	-35.4	-36.6	29.0	3.02e+01	56	33	0	215482368	44	6509
2026-01-27 18:22:03.30	284.95	21.85	-35.5	-36.8	28.9	3.02e+01	60	32	0	217579520	44	6658
2026-01-27 18:22:04.31	284.68	21.76	-35.5	-36.7	28.9	3.02e+01	59	32	0	219152384	44	6608
2026-01-27 18:22:05.32	284.41	21.68	-35.5	-36.7	28.9	3.02e+01	57	33	0	221249536	44	6592
2026-01-27 18:22:06.33	284.15	21.59	-35.5	-36.8	28.8	3.02e+01	54	32	0	223346688	44	6678
2026-01-27 18:22:07.34	283.88	21.51	-35.6	-36.8	28.6	3.02e+01	56	32	0	224919552	44	6704
2026-01-27 18:22:08.35	283.62	21.42	-35.4	-36.6	28.9	3.02e+01	54	32	0	227016704	44	6540
2026-01-27 18:22:09.36	283.36	21.34	-36.0	-37.4	28.2	3.02e+01	53	32	0	228589568	46	6352
2026-01-27 18:22:10.37	283.10	21.25	-35.2	-36.3	29.2	3.02e+01	60	32	0	230686720	46	5648
2026-01-27 18:22:11.37	282.85	21.16	-35.8	-37.1	28.5	3.02e+01	60	32	0	232783872	46	6157
2026-01-27 18:22:12.38	282.59	21.08	-35.4	-36.7	28.7	3.02e+01	58	32	0	234356736	46	5868
2026-01-27 18:22:13.39	282.34	20.99	-35.2	-36.4	29.1	3.02e+01	62	32	0	236453888	44	6352
2026-01-27 18:22:14.40	282.09	20.90	-35.4	-36.6	28.9	3.02e+01	46	32	0	238551040	44	6535
2026-01-27 18:22:15.41	281.84	20.82	-35.3	-36.5	29.2	3.02e+01	63	32	0	240123904	44	6462
2026-01-27 18:22:16.42	281.59	20.73	-35.2	-36.4	29.2	3.02e+01	58	33	0	242221056	44	6371
2026-01-27 18:22:17.43	281.34	20.64	-35.3	-36.5	29.2	3.02e+01	46	32	0	243793920	44	6433
2026-01-27 18:22:18.44	281.09	20.55	-35.4	-36.7	29.0	3.02e+01	61	32	0	245891072	44	6578
2026-01-27 18:22:19.45	280.85	20.47	-35.5	-36.7	28.8	3.02e+01	60	33	0	247988224	44	6601
2026-01-27 18:22:20.46	280.60	20.38	-35.3	-36.5	29.1	3.02e+01	57	32	0	249561088	44	6461
2026-01-27 18:22:21.46	280.36	20.29	-35.8	-37.1	28.5	3.02e+01	56	32	0	251658240	44	6924
2026-01-27 18:22:22.48	280.12	20.20	-35.8	-37.1	28.4	3.02e+01	53	32	0	253231104	46	6145
2026-01-27 18:22:23.49	279.88	20.11	-35.7	-36.9	28.7	3.02e+01	57	32	0	255328256	46	5995
2026-01-27 18:22:24.50	279.64	20.02	-36.2	-37.4	28.2	3.02e+01	62	32	0	257425408	46	6417
2026-01-27 18:22:25.51	279.41	19.93	-35.6	-36.8	28.7	3.02e+01	45	32	0	258998272	46	5972
2026-01-27 18:22:26.52	279.17	19.84	-35.2	-36.4	29.1	3.02e+01	59	32	0	261095424	46	5705
2026-01-27 18:22:27.52	278.94	19.76	-35.5	-36.7	28.9	3.02e+01	37	32	0	263192576	46	5900
2026-01-27 18:22:28.54	278.71	19.67	-35.6	-36.8	28.7	3.02e+01	56	32	0	264765440	46	5989
2026-01-27 18:22:29.54	278.48	19.58	-35.2	-36.3	29.3	3.02e+01	54	32	0	266862592	46	5645
2026-01-27 18:22:30.55	278.25	19.49	-35.6	-36.9	28.8	3.02e+01	47	32	0	268435456	46	5995
2026-01-27 18:22:31.56	278.02	19.40	-35.3	-36.6	28.9	3.02e+01	58	32	0	270532608	46	5792
2026-01-27 18:22:32.57	277.80	19.31	-35.1	-36.3	29.2	3.02e+01	58	32	0	272105472	46	5649
2026-01-27 18:22:33.58	277.57	19.22	-35.2	-36.4	29.1	3.02e+01	58	32	0	274202624	46	5711
2026-01-27 18:22:34.59	277.35	19.13	-35.3	-36.5	29.1	3.02e+01	60	32	0	276299776	46	5782
2026-01-27 18:22:35.60	277.13	19.04	-35.0	-36.1	29.3	3.02e+01	47	32	0	277872640	44	6196
2026-01-27 18:22:36.61	276.91	18.95	-35.2	-36.4	29.2	3.02e+01	59	32	0	279969792	44	6405
2026-01-27 18:22:37.62	276.69	18.86	-35.4	-36.7	28.9	3.02e+01	60	32	0	281542656	44	6605
2026-01-27 18:22:38.63	276.47	18.77	-35.2	-36.4	28.9	3.02e+01	44	32	0	283639808	44	6362
2026-01-27 18:22:39.64	276.25	18.68	-35.1	-36.3	29.2	3.02e+01	58	32	0	285736960	44	6293
2026-01-27 18:22:40.65	276.04	18.59	-35.1	-36.3	29.2	3.02e+01	61	32	0	287309824	44	6350
2026-01-27 18:22:41.66	275.82	18.49	-35.3	-36.5	28.9	3.02e+01	56	32	0	289406976	44	6479
2026-01-27 18:22:42.67	275.61	18.40	-35.0	-36.2	29.2	3.02e+01	62	32	0	291504128	44	6249
2026-01-27 18:22:43.68	275.40	18.31	-34.9	-36.1	29.3	3.02e+01	56	32	0	293076992	44	6188
2026-01-27 18:22:44.69	275.19	18.22	-35.3	-36.5	29.0	3.02e+01	58	32	0	295174144	44	6459
2026-01-27 18:22:45.70	274.98	18.13	-35.2	-36.4	29.0	3.02e+01	59	32	0	296747008	44	6409
2026-01-27 18:22:46.70	274.78	18.04	-35.3	-36.5	29.0	3.02e+01	44	32	0	298844160	44	6490
2026-01-27 18:22:47.71	274.57	17.95	-35.6	-36.8	28.7	3.02e+01	59	32	0	300941312	44	6725
2026-01-27 18:22:48.72	274.37	17.86	-35.7	-36.9	28.5	3.02e+01	59	32	0	302514176	44	6798
2026-01-27 18:22:49.73	274.16	17.77	-35.0	-36.2	29.1	3.02e+01	59	33	0	304611328	44	6217
2026-01-27 18:22:50.74	273.96	17.68	-34.8	-35.9	29.4	3.02e+01	57	32	0	306184192	44	6055
2026-01-27 18:22:51.75	273.76	17.59	-34.9	-36.1	29.1	3.02e+01	44	32	0	308281344	44	6183
2026-01-27 18:22:52.76	273.56	17.50	-35.5	-36.8	28.8	3.02e+01	53	32	0	310378496	44	6685
2026-01-27 18:22:53.77	273.36	17.41	-35.4	-36.7	28.7	3.02e+01	59	32	0	311951360	44	6598
2026-01-27 18:22:54.78	273.17	17.32	-35.5	-36.7	28.6	3.02e+01	47	32	0	314048512	44	6619
2026-01-27 18:22:55.79	272.97	17.23	-35.4	-36.6	28.9	3.02e+01	62	33	0	316145664	44	6523
2026-01-27 18:22:56.80	272.78	17.14	-35.6	-36.9	28.5	3.02e+01	61	32	0	317718528	44	6729
2026-01-27 18:22:57.81	272.59	17.05	-36.4	-37.7	27.8	3.02e+01	60	33	0	319815680	46	6585
2026-01-27 18:22:58.82	272.39	16.96	-36.2	-37.5	27.9	3.02e+01	58	32	0	321388544	46	6486
2026-01-27 18:22:59.82	272.21	16.87	-35.2	-36.4	29.0	3.02e+01	44	32	0	323485696	46	5684
2026-01-27 18:23:00.83	272.02	16.78	-34.8	-36.0	29.4	3.02e+01	59	32	0	325582848	44	6079
2026-01-27 18:23:01.84	271.83	16.69	-35.1	-36.3	29.1	3.02e+01	62	32	0	327155712	44	6326
2026-01-27 18:23:02.85	271.64	16.60	-35.3	-36.5	29.0	3.02e+01	47	32	0	329252864	44	6472
2026-01-27 18:23:03.86	271.46	16.51	-35.2	-36.4	28.9	3.02e+01	59	32	0	330825728	44	6378
2026-01-27 18:23:04.87	271.27	16.42	-34.9	-36.1	29.2	3.02e+01	59	32	0	332922880	44	6143
2026-01-27 18:23:05.88	271.09	16.33	-34.9	-36.1	29.2	3.02e+01	57	32	0	335020032	44	6176
2026-01-27 18:23:06.89	270.91	16.24	-35.1	-36.2	29.2	3.02e+01	60	33	0	336592896	44	6274
2026-01-27 18:23:07.90	270.73	16.15	-35.3	-36.5	28.9	3.02e+01	44	33	0	338690048	44	6493
2026-01-27 18:23:08.91	270.55	16.06	-35.6	-36.9	28.6	3.02e+01	58	32	0	340262912	44	6738
2026-01-27 18:23:09.92	270.37	15.97	-35.4	-36.7	28.6	3.02e+01	56	32	0	342360064	44	6595
2026-01-27 18:23:10.92	270.19	15.88	-35.5	-36.7	28.5	3.02e+01	59	32	0	344457216	44	6638
2026-01-27 18:23:11.93	270.01	15.79	-34.9	-36.1	29.3	3.02e+01	52	32	0	346030080	44	6137
2026-01-27 18:23:12.94	269.84	15.70	-34.9	-36.1	29.3	3.02e+01	45	32	0	348127232	44	6155
2026-01-27 18:23:13.95	269.67	15.61	-35.1	-36.3	29.2	3.02e+01	58	32	0	349700096	44	6340
2026-01-27 18:23:14.96	269.49	15.52	-35.3	-36.6	28.8	3.02e+01	60	32	0	351797248	44	6517
2026-01-27 18:23:15.97	269.32	15.44	-35.4	-36.7	28.8	3.02e+01	44	32	0	353894400	44	6590
2026-01-27 18:23:16.98	269.15	15.35	-35.4	-36.6	28.8	3.02e+01	58	32	0	355467264	44	6543
2026-01-27 18:23:17.99	268.98	15.26	-35.3	-36.5	28.8	3.02e+01	56	32	0	357564416	44	6444
2026-01-27 18:23:19.00	268.81	15.17	-35.1	-36.3	29.0	3.02e+01	59	32	0	359661568	44	6330
2026-01-27 18:23:20.01	268.64	15.08	-35.0	-36.2	29.2	3.02e+01	57	32	0	361234432	44	6209
2026-01-27 18:23:21.02	268.48	14.99	-35.0	-36.2	29.2	3.02e+01	61	32	0	363331584	44	6227
2026-01-27 18:23:22.03	268.31	14.91	-35.1	-36.3	29.1	3.02e+01	58	32	0	364904448	44	6306
2026-01-27 18:23:23.04	268.15	14.82	-35.4	-36.6	28.8	3.02e+01	58	32	0	367001600	44	6547
2026-01-27 18:23:24.05	267.98	14.73	-35.4	-36.7	28.8	3.02e+01	47	32	0	369098752	44	6601
2026-01-27 18:23:25.06	267.82	14.64	-35.4	-36.6	28.8	3.02e+01	59	32	0	370671616	44	6556
2026-01-27 18:23:26.06	267.66	14.55	-35.4	-36.7	28.7	3.02e+01	58	32	0	372768768	44	6597
2026-01-27 18:23:27.07	267.50	14.47	-35.1	-36.3	29.1	3.02e+01	57	32	0	374341632	44	6294
2026-01-27 18:23:28.08	267.34	14.38	-35.3	-36.5	29.0	3.02e+01	58	32	0	376438784	44	6440
2026-01-27 18:23:29.09	267.19	14.29	-35.3	-36.5	29.0	3.02e+01	52	32	0	378535936	44	6442
2026-01-27 18:23:30.10	267.03	14.21	-35.3	-36.5	28.9	3.02e+01	57	32	0	380108800	44	6477
2026-01-27 18:23:31.11	266.87	14.12	-35.4	-36.6	28.7	3.02e+01	63	32	0	382205952	44	6553
2026-01-27 18:23:32.12	266.72	14.03	-35.3	-36.5	28.9	3.02e+01	48	32	0	383778816	44	6496
2026-01-27 18:23:33.13	266.56	13.94	-35.4	-36.6	28.9	3.02e+01	59	32	0	385875968	44	6542
2026-01-27 18:23:34.14	266.41	13.86	-35.3	-36.6	28.8	3.02e+01	61	32	0	387973120	44	6499
2026-01-27 18:23:35.15	266.26	13.77	-35.4	-36.6	28.7	3.02e+01	58	32	0	389545984	44	6542
2026-01-27 18:23:36.16	266.11	13.69	-35.4	-36.7	28.8	3.02e+01	59	32	0	391643136	44	6588
2026-01-27 18:23:37.17	265.96	13.60	-35.4	-36.6	28.8	3.02e+01	54	32	0	393216000	44	6558
2026-01-27 18:23:38.18	265.81	13.51	-35.4	-36.6	28.7	3.02e+01	61	32	0	395313152	44	6546
2026-01-27 18:23:39.19	265.66	13.43	-35.4	-36.6	28.8	3.02e+01	59	32	0	397410304	44	6573
2026-01-27 18:23:40.20	265.51	13.34	-35.4	-36.7	28.7	3.02e+01	48	32	0	398983168	44	6581
2026-01-27 18:23:41.21	265.36	13.26	-35.4	-36.6	28.8	3.02e+01	58	32	0	401080320	44	6552
2026-01-27 18:23:42.22	265.22	13.17	-35.4	-36.7	28.7	3.02e+01	48	32	0	402653184	44	6581
2026-01-27 18:23:43.22	265.07	13.09	-35.4	-36.6	28.8	3.02e+01	61	32	0	404750336	44	6551
2026-01-27 18:23:44.23	264.93	13.00	-35.4	-36.7	28.7	3.02e+01	59	32	0	406847488	44	6589
2026-01-27 18:23:45.24	264.79	12.92	-35.3	-36.5	28.8	3.02e+01	55	32	0	408420352	44	6488
2026-01-27 18:23:46.25	264.65	12.83	-35.3	-36.6	28.8	3.02e+01	58	32	0	410517504	44	6501
2026-01-27 18:23:47.26	264.50	12.75	-35.8	-37.1	28.7	3.02e+01	59	32	0	412614656	44	6913
2026-01-27 18:23:48.27	264.36	12.66	-35.4	-36.7	28.7	3.02e+01	57	32	0	414187520	44	6593
2026-01-27 18:23:49.28	264.23	12.58	-35.6	-36.9	28.5	3.02e+01	58	32	0	416284672	44	6739
2026-01-27 18:23:50.29	264.09	12.50	-35.6	-36.9	28.6	3.02e+01	44	32	0	417857536	44	6741
2026-01-27 18:23:51.30	263.95	12.41	-35.7	-37.0	28.5	3.02e+01	58	32	0	419954688	44	6826
2026-01-27 18:23:52.31	263.81	12.33	-35.8	-37.0	28.3	3.02e+01	58	32	0	422051840	44	6869
2026-01-27 18:23:53.32	263.68	12.24	-35.9	-37.1	28.3	3.02e+01	39	32	0	423624704	46	6184
2026-01-27 18:23:54.33	263.54	12.16	-35.6	-36.8	28.5	3.02e+01	58	33	0	425721856	46	5987
2026-01-27 18:23:55.34	263.41	12.08	-35.4	-36.6	28.8	3.02e+01	61	32	0	427819008	46	5828
2026-01-27 18:23:56.35	263.27	11.99	-35.4	-36.6	28.8	3.02e+01	60	32	0	429391872	46	5826
2026-01-27 18:23:57.35	263.14	11.91	-35.4	-36.6	28.7	3.02e+01	60	32	0	431489024	46	5847
2026-01-27 18:23:58.36	263.01	11.83	-35.5	-36.8	28.6	3.02e+01	61	32	0	433061888	46	5938
2026-01-27 18:23:59.37	262.88	11.75	-35.5	-36.7	28.7	3.02e+01	59	32	0	435159040	46	5914
2026-01-27 18:24:00.38	262.75	11.66	-35.6	-36.9	28.5	3.02e+01	59	32	0	437256192	46	6017
2026-01-27 18:24:01.38	262.62	11.58	-35.8	-37.0	28.5	3.02e+01	55	32	0	438829056	46	6110
2026-01-27 18:24:02.39	262.49	11.50	-35.8	-37.1	28.4	3.02e+01	60	32	0	440926208	46	6141
2026-01-27 18:24:03.40	262.36	11.42	-35.7	-37.0	28.4	3.02e+01	61	32	0	442499072	46	6078
2026-01-27 18:24:04.41	262.24	11.34	-35.8	-37.1	28.3	3.02e+01	62	32	0	444596224	46	6136
2026-01-27 18:24:05.41	262.11	11.26	-35.6	-36.9	28.5	3.02e+01	60	32	0	446169088	46	6025
2026-01-27 18:24:06.42	261.99	11.18	-35.7	-37.0	28.4	3.02e+01	61	32	0	448266240	46	6079
2026-01-27 18:24:07.43	261.86	11.09	-35.7	-36.9	28.5	3.02e+01	57	32	0	450363392	46	6057
2026-01-27 18:24:08.44	261.74	11.01	-35.8	-37.0	28.4	3.02e+01	57	32	0	451936256	46	6105
2026-01-27 18:24:09.45	261.61	10.93	-35.6	-36.9	28.6	3.02e+01	45	32	0	454033408	46	6017
2026-01-27 18:24:10.46	261.49	10.85	-35.7	-37.0	28.4	3.02e+01	59	32	0	456130560	46	6081
2026-01-27 18:24:11.47	261.37	10.77	-35.9	-37.1	28.3	3.02e+01	59	32	0	457703424	46	6177
2026-01-27 18:24:12.48	261.25	10.69	-35.8	-37.1	28.3	3.02e+01	57	32	0	459800576	46	6174
2026-01-27 18:24:13.49	261.13	10.61	-35.8	-37.1	28.3	3.02e+01	59	32	0	461373440	46	6159
2026-01-27 18:24:14.50	261.01	10.53	-35.9	-37.1	28.3	3.02e+01	50	32	0	463470592	46	6199
2026-01-27 18:24:15.50	260.89	10.45	-35.9	-37.2	28.2	3.02e+01	59	32	0	465567744	46	6226
2026-01-27 18:24:16.52	260.77	10.37	-36.0	-37.2	28.2	3.02e+01	59	32	0	467140608	46	6272
2026-01-27 18:24:17.52	260.66	10.29	-36.1	-37.3	28.0	3.02e+01	48	32	0	469237760	46	6334
2026-01-27 18:24:18.53	260.54	10.21	-36.2	-37.5	28.0	3.02e+01	60	32	0	470810624	46	6463
2026-01-27 18:24:19.54	260.42	10.13	-36.2	-37.5	27.9	3.02e+01	45	32	0	472907776	46	6437
2026-01-27 18:24:20.55	260.31	10.06	-36.1	-37.3	28.0	3.02e+01	59	32	0	475004928	46	6340
2026-01-27 18:24:21.56	260.19	9.98	-36.1	-37.3	28.0	3.02e+01	60	32	0	476577792	46	6330
2026-01-27 18:24:22.57	260.08	9.90	-35.9	-37.1	28.2	3.02e+01	49	32	0	478674944	46	6194
2026-01-27 18:24:23.58	259.97	9.82	-36.0	-37.3	28.0	3.02e+01	58	32	0	480772096	46	6295
2026-01-27 18:24:24.58	259.85	9.74	-35.9	-37.2	28.2	3.02e+01	61	32	0	482344960	46	6216
2026-01-27 18:24:25.59	259.74	9.66	-36.0	-37.3	28.1	3.02e+01	57	32	0	484442112	46	6292
2026-01-27 18:24:26.60	259.63	9.59	-36.2	-37.5	27.9	3.02e+01	60	32	0	486014976	46	6437
2026-01-27 18:24:27.61	259.52	9.51	-36.2	-37.5	28.0	3.02e+01	47	32	0	488112128	46	6439
2026-01-27 18:24:28.62	259.41	9.43	-36.3	-37.5	27.8	3.02e+01	59	32	0	489684992	46	6496
2026-01-27 18:24:29.62	259.30	9.35	-36.3	-37.6	27.8	3.02e+01	57	32	0	491782144	46	6539
2026-01-27 18:24:30.63	259.19	9.28	-36.3	-37.6	27.7	3.02e+01	46	32	0	493879296	46	6536
2026-01-27 18:24:31.64	259.08	9.20	-36.3	-37.6	27.8	3.02e+01	55	32	0	495452160	46	6503
2026-01-27 18:24:32.65	258.98	9.12	-36.2	-37.5	27.9	3.02e+01	57	32	0	497549312	46	6437
2026-01-27 18:24:33.66	258.87	9.05	-36.1	-37.4	27.9	3.02e+01	61	32	0	499122176	46	6397
2026-01-27 18:24:34.67	258.76	8.97	-36.2	-37.5	27.8	3.02e+01	58	32	0	501219328	46	6448
2026-01-27 18:24:35.68	258.66	8.89	-36.2	-37.5	27.8	3.02e+01	56	32	0	503316480	46	6461
2026-01-27 18:24:36.69	258.55	8.82	-36.3	-37.6	27.7	3.02e+01	56	32	0	504889344	46	6560
2026-01-27 18:24:37.70	258.45	8.74	-36.3	-37.6	27.8	3.02e+01	58	32	0	506986496	46	6506
2026-01-27 18:24:38.71	258.35	8.67	-36.3	-37.6	27.7	3.02e+01	44	32	0	509083648	46	6528
2026-01-27 18:24:39.72	258.24	8.59	-36.4	-37.7	27.7	3.02e+01	58	32	0	510656512	46	6589
2026-01-27 18:24:40.73	258.14	8.51	-36.4	-37.7	27.6	3.02e+01	58	32	0	512753664	46	6634
2026-01-27 18:24:41.74	258.04	8.44	-36.6	-37.9	27.5	3.02e+01	60	32	0	514326528	46	6775
2026-01-27 18:24:42.75	257.94	8.36	-36.5	-37.9	27.5	3.02e+01	57	32	0	516423680	46	6730
2026-01-27 18:24:43.76	257.84	8.29	-36.5	-37.8	27.6	3.02e+01	46	32	0	518520832	46	6677
2026-01-27 18:24:44.77	257.73	8.21	-36.4	-37.7	27.6	3.02e+01	57	32	0	520093696	46	6598
2026-01-27 18:24:45.78	257.64	8.14	-36.3	-37.5	27.7	3.02e+01	58	32	0	522190848	46	6482
2026-01-27 18:24:46.79	257.54	8.06	-36.3	-37.5	27.7	3.02e+01	46	32	0	524288000	46	6498
2026-01-27 18:24:47.80	257.44	7.99	-36.4	-37.7	27.5	3.02e+01	59	32	0	525860864	46	6630
2026-01-27 18:24:48.80	257.34	7.92	-36.6	-37.9	27.4	3.02e+01	61	32	0	527958016	46	6771
2026-01-27 18:24:49.81	257.24	7.84	-36.6	-37.9	27.4	3.02e+01	59	32	0	529530880	46	6772
2026-01-27 18:24:50.82	257.15	7.77	-36.7	-38.0	27.3	3.02e+01	57	32	0	531628032	46	6836
2026-01-27 18:24:51.83	257.05	7.70	-36.8	-38.1	27.2	3.02e+01	59	32	0	533725184	46	6951
2026-01-27 18:24:52.84	256.95	7.62	-36.8	-38.1	27.2	3.02e+01	62	32	0	535298048	46	6934
2026-01-27 18:24:53.85	256.86	7.55	-36.7	-38.1	27.2	3.02e+01	62	32	0	537395200	46	6902
2026-01-27 18:24:54.86	256.76	7.48	-36.9	-38.2	27.1	3.02e+01	47	32	0	538968064	46	7005
2026-01-27 18:24:55.87	256.67	7.40	-36.8	-38.2	27.1	3.02e+01	59	32	0	541065216	46	6966
2026-01-27 18:24:56.88	256.58	7.33	-36.9	-38.2	27.0	3.02e+01	56	32	0	543162368	48	6256
2026-01-27 18:24:57.89	256.48	7.26	-36.9	-38.2	27.0	3.02e+01	59	32	0	544735232	48	6239
2026-01-27 18:24:58.90	256.39	7.18	-36.6	-37.9	27.4	3.02e+01	62	32	0	546832384	48	6015
2026-01-27 18:24:59.90	256.30	7.11	-36.6	-38.0	27.3	3.02e+01	52	32	0	548405248	48	6079
2026-01-27 18:25:00.91	256.21	7.04	-36.5	-37.8	27.4	3.02e+01	57	32	0	550502400	48	5958
2026-01-27 18:25:01.92	256.12	6.97	-36.7	-38.0	27.2	3.02e+01	61	32	0	552599552	48	6088
2026-01-27 18:25:02.93	256.03	6.90	-36.6	-38.0	27.2	3.02e+01	56	32	0	554172416	48	6067
2026-01-27 18:25:03.94	255.94	6.83	-36.7	-38.0	27.2	3.02e+01	60	32	0	556269568	48	6082
2026-01-27 18:25:04.95	255.85	6.75	-36.9	-38.2	27.0	3.02e+01	44	32	0	557842432	48	6258
2026-01-27 18:25:05.96	255.76	6.68	-36.9	-38.2	27.0	3.02e+01	59	32	0	559939584	48	6263
2026-01-27 18:25:06.97	255.67	6.61	-37.0	-38.4	26.8	3.02e+01	60	32	0	562036736	48	6360
2026-01-27 18:25:07.98	255.58	6.54	-37.1	-38.4	26.7	3.02e+01	51	32	0	563609600	48	6418
2026-01-27 18:25:08.99	255.49	6.47	-37.1	-38.5	26.7	3.02e+01	59	32	0	565706752	48	6473
2026-01-27 18:25:10.00	255.40	6.40	-37.0	-38.4	26.8	3.02e+01	61	32	0	567279616	48	6368
2026-01-27 18:25:11.01	255.32	6.33	-37.1	-38.5	26.7	3.02e+01	61	32	0	569376768	48	6439
2026-01-27 18:25:12.02	255.23	6.26	-36.9	-38.3	26.8	3.02e+01	54	32	0	571473920	48	6305
2026-01-27 18:25:13.02	255.15	6.19	-37.0	-38.3	26.8	3.02e+01	52	32	0	573046784	48	6346
2026-01-27 18:25:14.03	255.06	6.12	-37.0	-38.3	26.9	3.02e+01	61	32	0	575143936	48	6314
2026-01-27 18:25:15.04	254.98	6.05	-37.0	-38.3	26.7	3.02e+01	61	32	0	577241088	48	6331
2026-01-27 18:25:16.05	254.89	5.98	-37.0	-38.3	26.8	3.02e+01	50	32	0	578813952	48	6324
2026-01-27 18:25:17.06	254.81	5.91	-37.1	-38.5	26.6	3.02e+01	59	32	0	580911104	48	6445
2026-01-27 18:25:18.07	254.72	5.84	-37.3	-38.7	26.4	3.02e+01	62	32	0	582483968	48	6615
2026-01-27 18:25:19.08	254.64	5.77	-37.3	-38.7	26.5	3.02e+01	61	32	0	584581120	48	6615
2026-01-27 18:25:20.09	254.56	5.70	-37.5	-39.0	26.3	3.02e+01	62	32	0	586678272	48	6820
2026-01-27 18:25:21.10	254.48	5.63	-37.2	-38.6	26.5	3.02e+01	52	32	0	588251136	48	6535
2026-01-27 18:25:22.11	254.40	5.56	-37.2	-38.6	26.4	3.02e+01	59	32	0	590348288	48	6544
2026-01-27 18:25:23.12	254.31	5.49	-37.3	-38.7	26.4	3.02e+01	60	32	0	591921152	48	6628
2026-01-27 18:25:24.13	254.23	5.42	-37.3	-38.7	26.4	3.02e+01	45	32	0	594018304	48	6644
2026-01-27 18:25:25.14	254.15	5.36	-37.2	-38.6	26.4	3.02e+01	59	32	0	596115456	48	6516
2026-01-27 18:25:26.15	254.07	5.29	-37.4	-38.9	26.3	3.02e+01	60	32	0	597688320	48	6729
2026-01-27 18:25:27.16	253.99	5.22	-37.1	-38.5	26.6	3.02e+01	57	32	0	599785472	48	6424
2026-01-27 18:25:28.17	253.91	5.15	-37.4	-38.8	26.3	3.02e+01	59	32	0	601358336	48	6675
2026-01-27 18:25:29.18	253.83	5.08	-37.2	-38.6	26.4	3.02e+01	55	32	0	603455488	48	6527
2026-01-27 18:25:30.19	253.76	5.02	-37.5	-38.9	26.2	3.02e+01	56	32	0	605552640	48	6782
2026-01-27 18:25:31.20	253.68	4.95	-37.5	-38.9	26.1	3.02e+01	59	32	0	607125504	48	6796
2026-01-27 18:25:32.21	253.60	4.88	-37.8	-39.2	25.9	3.02e+01	54	32	0	609222656	48	7004
2026-01-27 18:25:33.22	253.52	4.81	-38.2	-39.7	25.4	3.02e+01	60	32	0	610795520	50	6591
2026-01-27 18:25:34.23	253.45	4.75	-37.6	-39.0	26.0	3.02e+01	46	32	0	612892672	50	6102
2026-01-27 18:25:35.24	253.37	4.68	-37.7	-39.2	25.9	3.02e+01	60	32	0	614989824	50	6209
2026-01-27 18:25:36.25	253.29	4.61	-37.6	-39.1	25.9	3.02e+01	57	32	0	616562688	50	6153
2026-01-27 18:25:37.25	253.22	4.55	-37.9	-39.4	25.7	3.02e+01	54	32	0	618659840	50	6366
2026-01-27 18:25:38.26	253.15	4.48	-37.5	-38.9	26.1	3.02e+01	58	32	0	620756992	50	6017
2026-01-27 18:25:39.27	253.07	4.41	-37.7	-39.2	25.8	3.02e+01	58	32	0	622329856	50	6229
2026-01-27 18:25:40.28	253.00	4.35	-37.7	-39.1	25.8	3.02e+01	59	32	0	624427008	50	6192
2026-01-27 18:25:41.29	252.92	4.28	-37.6	-39.0	25.9	3.02e+01	60	32	0	625999872	50	6114
2026-01-27 18:25:42.30	252.85	4.21	-37.5	-39.0	26.0	3.02e+01	52	32	0	628097024	50	6076
2026-01-27 18:25:43.31	252.78	4.15	-37.6	-39.0	25.9	3.02e+01	60	32	0	630194176	50	6120
2026-01-27 18:25:44.32	252.70	4.08	-37.7	-39.1	25.8	3.02e+01	61	32	0	631767040	50	6172
2026-01-27 18:25:45.33	252.63	4.02	-37.8	-39.3	25.7	3.02e+01	54	32	0	633864192	50	6298
2026-01-27 18:25:46.34	252.56	3.95	-38.1	-39.6	25.3	3.02e+01	60	32	0	635437056	50	6516
2026-01-27 18:25:47.35	252.49	3.89	-38.0	-39.5	25.4	3.02e+01	60	32	0	637534208	50	6470
2026-01-27 18:25:48.36	252.41	3.82	-37.9	-39.4	25.5	3.02e+01	60	32	0	639631360	50	6396
2026-01-27 18:25:49.36	252.34	3.76	-38.6	-40.2	24.7	3.02e+01	60	32	0	641204224	50	7012
2026-01-27 18:25:50.37	252.27	3.69	-37.4	-38.9	25.9	3.02e+01	51	32	0	643301376	50	6020
2026-01-27 18:25:51.38	252.20	3.63	-38.1	-39.6	25.3	3.02e+01	53	32	0	645398528	50	6555
2026-01-27 18:25:52.39	252.13	3.56	-37.8	-39.2	25.6	3.02e+01	59	32	0	646971392	50	6263
2026-01-27 18:25:53.40	252.06	3.50	-38.1	-39.6	25.1	3.02e+01	58	32	0	649068544	50	6571
2026-01-27 18:25:54.40	251.99	3.43	-38.2	-39.7	25.1	3.02e+01	58	32	0	650641408	50	6647
2026-01-27 18:25:55.41	251.93	3.37	-38.0	-39.5	25.3	3.02e+01	61	32	0	652738560	50	6439
2026-01-27 18:25:56.42	251.86	3.30	-37.9	-39.3	25.3	3.02e+01	59	32	0	654835712	50	6350
2026-01-27 18:25:57.43	251.79	3.24	-38.0	-39.5	25.1	3.02e+01	58	32	0	656408576	50	6457
2026-01-27 18:25:58.44	251.72	3.18	-37.9	-39.4	25.3	3.02e+01	50	32	0	658505728	50	6382
2026-01-27 18:25:59.45	251.65	3.11	-38.1	-39.6	25.3	3.02e+01	60	32	0	660078592	50	6536
2026-01-27 18:26:00.46	251.59	3.05	-37.6	-39.1	25.5	3.02e+01	58	32	0	662175744	50	6181
2026-01-27 18:26:01.47	251.52	2.98	-39.2	-40.9	17.4	3.02e+01	44	32	0	663748608	50	7633
