passes_logs/2026/01/27/R4.6S_Anadyr/R4.6S_Anadyr__20260127_210944_TY-39_rec.log

#Pass ID: 20260127_210944_TY-39
#Satellite: TY-39
#Configuration: TY-39
#almurnet v.1.7.20251203
#Start time: 2026-01-27 21:09:48

#Version: 2.2.20231116
#Station: R4.6S_Anadyr
#Location: 177.4865 lon 64.73178 lat
#TLE: 1 51832U 22019J   26026.87657933  .00002312  00000-0  11128-3 0  9991
#TLE: 2 51832  97.3624  93.2762 0008991  14.8578 345.2919 15.19726420216336

#Time	Az	El	Level	Level2	SNR	BER	BlckErr	Temp	State	Recorded	gain1	gain2
2026-01-27 21:09:48.03	22.95	0.18	-48.6	-60.3	3.5	8.45e-01	0	29	0	0	60	37231
2026-01-27 21:09:49.04	23.04	0.24	-48.8	-51.3	3.6	0.00e+00	0	30	104	0	60	44811
2026-01-27 21:09:50.04	23.13	0.29	-48.9	-51.3	3.6	0.00e+00	0	30	104	0	60	45115
2026-01-27 21:09:51.05	23.22	0.34	-48.9	-51.3	3.6	0.00e+00	0	31	104	0	60	45204
2026-01-27 21:09:52.06	23.32	0.40	-48.9	-51.3	3.6	0.00e+00	0	31	104	0	60	45092
2026-01-27 21:09:53.07	23.41	0.45	-48.9	-51.4	3.6	0.00e+00	0	31	104	0	60	45656
2026-01-27 21:09:54.08	23.50	0.51	-48.9	-51.4	3.6	0.00e+00	0	31	104	0	60	45397
2026-01-27 21:09:55.09	23.60	0.56	-48.9	-51.4	3.6	0.00e+00	0	31	104	0	60	45283
2026-01-27 21:09:56.10	23.69	0.62	-48.9	-51.4	3.6	0.00e+00	0	31	104	0	60	45465
2026-01-27 21:09:57.11	23.79	0.68	-48.8	-51.3	3.6	0.00e+00	0	31	104	0	60	44871
2026-01-27 21:09:58.12	23.88	0.73	-48.8	-51.3	3.6	0.00e+00	0	31	104	0	60	45008
2026-01-27 21:09:59.13	23.98	0.79	-48.8	-51.3	3.6	0.00e+00	0	31	104	0	60	44805
2026-01-27 21:10:00.14	24.07	0.84	-48.7	-51.1	3.6	0.00e+00	0	31	104	0	60	44193
2026-01-27 21:10:01.15	24.17	0.90	-48.2	-50.8	3.6	0.00e+00	0	31	104	0	60	42389
2026-01-27 21:10:02.16	24.27	0.95	-48.5	-50.9	3.6	0.00e+00	0	31	104	0	60	43074
2026-01-27 21:10:03.17	24.36	1.01	-48.3	-50.8	3.6	0.00e+00	0	31	104	0	60	42282
2026-01-27 21:10:04.18	24.46	1.07	-48.4	-50.9	3.6	0.00e+00	0	31	104	0	60	43103
2026-01-27 21:10:05.19	24.56	1.12	-48.1	-50.6	3.6	0.00e+00	0	31	104	0	60	41732
2026-01-27 21:10:06.20	24.66	1.18	-48.1	-50.5	3.6	0.00e+00	0	31	104	0	60	41250
2026-01-27 21:10:07.21	24.76	1.23	-48.0	-50.5	3.6	0.00e+00	0	31	104	0	60	40791
2026-01-27 21:10:08.22	24.86	1.29	-47.8	-50.2	3.6	0.00e+00	0	31	104	0	60	39766
2026-01-27 21:10:09.23	24.96	1.35	-47.5	-50.0	3.6	0.00e+00	0	31	104	0	60	38599
2026-01-27 21:10:10.24	25.06	1.40	-47.3	-49.8	3.5	0.00e+00	0	31	104	0	60	37701
2026-01-27 21:10:11.25	25.16	1.46	-47.3	-49.7	3.6	0.00e+00	0	31	104	0	60	37628
2026-01-27 21:10:12.26	25.26	1.52	-47.3	-49.8	3.6	0.00e+00	0	31	104	0	60	37690
2026-01-27 21:10:13.27	25.36	1.57	-47.2	-49.8	3.6	0.00e+00	0	31	104	0	60	37820
2026-01-27 21:10:14.28	25.47	1.63	-47.2	-49.7	3.6	0.00e+00	0	31	104	0	60	37380
2026-01-27 21:10:15.29	25.57	1.69	-47.3	-49.8	3.6	0.00e+00	0	31	104	0	60	37655
2026-01-27 21:10:16.30	25.67	1.74	-47.2	-49.8	3.6	0.00e+00	0	31	104	0	60	37932
2026-01-27 21:10:17.31	25.78	1.80	-47.3	-49.7	3.6	0.00e+00	0	31	104	0	60	37575
2026-01-27 21:10:18.32	25.88	1.86	-47.2	-49.7	3.6	0.00e+00	0	31	104	0	60	37631
2026-01-27 21:10:19.33	25.98	1.92	-47.2	-49.7	3.6	0.00e+00	0	31	104	0	60	37512
2026-01-27 21:10:20.34	26.09	1.97	-47.2	-49.8	3.6	0.00e+00	0	31	104	0	60	37727
2026-01-27 21:10:21.35	26.20	2.03	-47.2	-49.7	3.6	0.00e+00	0	31	104	0	60	37545
2026-01-27 21:10:22.36	26.30	2.09	-47.2	-49.7	3.6	0.00e+00	0	31	104	0	60	37379
2026-01-27 21:10:23.37	26.41	2.15	-47.2	-49.8	3.6	0.00e+00	0	31	104	0	60	37662
2026-01-27 21:10:24.38	26.52	2.20	-47.2	-49.8	3.6	0.00e+00	0	31	104	0	60	37694
2026-01-27 21:10:25.39	26.62	2.26	-47.2	-49.7	3.6	0.00e+00	0	31	104	0	60	37526
2026-01-27 21:10:26.40	26.73	2.32	-47.2	-49.8	3.6	0.00e+00	0	31	104	0	60	37650
2026-01-27 21:10:27.41	26.84	2.38	-47.2	-49.8	3.6	0.00e+00	0	32	104	0	60	37804
2026-01-27 21:10:28.42	26.95	2.44	-47.2	-49.7	3.5	0.00e+00	0	31	104	0	60	37623
2026-01-27 21:10:29.43	27.06	2.49	-47.3	-49.8	3.6	0.00e+00	0	31	104	0	60	37721
2026-01-27 21:10:30.44	27.17	2.55	-47.2	-49.7	3.6	0.00e+00	0	31	104	0	60	37618
2026-01-27 21:10:31.45	27.28	2.61	-47.3	-49.7	3.6	0.00e+00	0	31	104	0	60	37514
2026-01-27 21:10:32.46	27.39	2.67	-47.2	-49.8	3.6	0.00e+00	0	32	104	0	60	37696
2026-01-27 21:10:33.47	27.51	2.73	-47.2	-49.8	3.6	0.00e+00	0	32	104	0	60	37653
2026-01-27 21:10:34.48	27.62	2.79	-47.2	-49.7	3.6	0.00e+00	0	32	104	0	60	37496
2026-01-27 21:10:35.49	27.73	2.84	-47.2	-49.7	3.6	0.00e+00	0	32	104	0	60	37378
2026-01-27 21:10:36.50	27.85	2.90	-47.3	-49.8	3.5	0.00e+00	0	32	104	0	60	37646
2026-01-27 21:10:37.51	27.96	2.96	-47.3	-49.8	3.6	0.00e+00	0	32	104	0	60	37749
2026-01-27 21:10:38.52	28.07	3.02	-47.2	-49.7	3.6	0.00e+00	0	32	104	0	60	37615
2026-01-27 21:10:39.53	28.19	3.08	-47.2	-49.7	3.6	0.00e+00	0	32	104	0	60	37556
2026-01-27 21:10:40.54	28.31	3.14	-47.2	-49.8	3.5	0.00e+00	0	32	104	0	60	37706
2026-01-27 21:10:41.55	28.42	3.20	-47.2	-49.8	3.6	0.00e+00	0	32	104	0	60	37661
2026-01-27 21:10:42.56	28.54	3.26	-47.4	-49.8	3.6	0.00e+00	0	32	104	0	60	38067
2026-01-27 21:10:43.57	28.66	3.32	-47.3	-49.8	3.6	0.00e+00	0	32	104	0	60	37918
2026-01-27 21:10:44.58	28.78	3.38	-47.4	-49.8	3.6	0.00e+00	0	32	104	0	60	38051
2026-01-27 21:10:45.59	28.89	3.44	-47.0	-49.5	3.6	0.00e+00	0	32	104	0	60	36669
2026-01-27 21:10:46.60	29.01	3.50	-47.4	-49.9	3.6	0.00e+00	0	32	104	0	60	38268
2026-01-27 21:10:47.61	29.13	3.56	-47.4	-49.9	3.6	0.00e+00	0	32	104	0	60	38410
2026-01-27 21:10:48.62	29.25	3.62	-47.2	-49.6	3.6	0.00e+00	0	32	104	0	60	37070
2026-01-27 21:10:49.63	29.38	3.68	-47.4	-49.8	3.6	0.00e+00	0	32	104	0	60	38039
2026-01-27 21:10:50.64	29.50	3.74	-47.4	-49.9	3.6	0.00e+00	0	32	104	0	60	38139
2026-01-27 21:10:51.65	29.62	3.80	-47.5	-50.0	3.6	0.00e+00	0	32	104	0	60	38627
2026-01-27 21:10:52.66	29.74	3.86	-47.4	-49.8	3.6	0.00e+00	0	32	104	0	60	38003
2026-01-27 21:10:53.67	29.87	3.92	-47.5	-49.9	3.6	0.00e+00	0	32	104	0	60	38388
2026-01-27 21:10:54.68	29.99	3.98	-47.5	-50.0	3.6	0.00e+00	0	32	104	0	60	38673
2026-01-27 21:10:55.69	30.12	4.04	-47.6	-50.0	3.6	0.00e+00	0	32	104	0	60	38888
2026-01-27 21:10:56.70	30.24	4.10	-47.6	-50.1	3.6	0.00e+00	0	32	104	0	60	38972
2026-01-27 21:10:57.71	30.37	4.16	-47.5	-50.0	3.6	0.00e+00	0	32	104	0	60	38630
2026-01-27 21:10:58.72	30.49	4.22	-47.6	-50.0	3.6	0.00e+00	0	32	104	0	60	38802
2026-01-27 21:10:59.73	30.62	4.28	-47.5	-50.0	3.6	0.00e+00	0	32	104	0	60	38601
2026-01-27 21:11:00.74	30.75	4.34	-47.5	-50.0	3.6	0.00e+00	0	32	104	0	60	38759
2026-01-27 21:11:01.74	30.88	4.40	-47.2	-49.7	3.6	0.00e+00	0	32	104	0	60	37378
2026-01-27 21:11:02.75	31.01	4.46	-47.6	-50.0	3.6	0.00e+00	0	32	104	0	60	38870
2026-01-27 21:11:03.76	31.14	4.52	-47.5	-50.0	3.6	0.00e+00	0	32	104	0	60	38768
2026-01-27 21:11:04.77	31.27	4.58	-46.1	-48.1	3.6	0.00e+00	0	32	104	0	60	31227
2026-01-27 21:11:05.78	31.40	4.64	-46.7	-48.9	3.6	0.00e+00	0	32	104	0	60	33979
2026-01-27 21:11:06.79	31.53	4.71	-39.2	-39.8	5.4	7.56e-03	1164	32	104	0	46	26725
2026-01-27 21:11:07.80	31.66	4.77	-36.9	-37.2	10.6	0.00e+00	0	32	0	25165824	52	13989
2026-01-27 21:11:08.81	31.80	4.83	-36.7	-37.0	10.6	2.00e-03	0	32	0	100663296	48	17223
2026-01-27 21:11:09.82	31.93	4.89	-35.4	-35.8	11.9	2.61e-03	0	32	0	176160768	46	16836
2026-01-27 21:11:10.83	32.06	4.95	-35.0	-35.3	11.9	3.05e-04	0	32	0	251658240	44	17865
2026-01-27 21:11:11.84	32.20	5.01	-34.2	-34.6	12.6	2.08e-04	0	32	0	335544320	44	16482
2026-01-27 21:11:12.85	32.34	5.08	-32.9	-33.3	13.2	1.38e-05	0	32	0	402653184	42	15937
2026-01-27 21:11:13.86	32.47	5.14	-32.8	-33.2	13.4	0.00e+00	0	32	0	478150656	40	17719
2026-01-27 21:11:14.87	32.61	5.20	-33.3	-33.7	13.4	0.00e+00	0	32	0	553648128	40	18770
2026-01-27 21:11:15.88	32.75	5.26	-33.4	-33.8	12.9	6.90e-06	0	33	0	629145600	42	16853
2026-01-27 21:11:16.89	32.89	5.32	-32.9	-33.3	13.5	2.08e-05	0	33	0	713031680	42	15912
2026-01-27 21:11:17.90	33.03	5.39	-33.1	-33.5	13.3	0.00e+00	0	33	0	788529152	40	18400
2026-01-27 21:11:18.91	33.17	5.45	-32.0	-32.4	14.1	0.00e+00	0	33	0	864026624	40	16229
2026-01-27 21:11:19.92	33.31	5.51	-31.6	-32.1	14.2	0.00e+00	0	33	0	939524096	38	17404
2026-01-27 21:11:20.93	33.45	5.57	-32.0	-32.4	14.0	6.90e-06	0	33	0	1006632960	38	18049
2026-01-27 21:11:21.94	33.59	5.64	-31.6	-32.1	14.2	0.00e+00	0	33	0	1090519040	38	17434
2026-01-27 21:11:22.95	33.74	5.70	-31.0	-31.4	14.5	0.00e+00	0	33	0	1166016512	36	18131
2026-01-27 21:11:23.96	33.88	5.76	-30.6	-31.0	14.8	0.00e+00	0	33	0	1241513984	36	17365
2026-01-27 21:11:24.97	34.03	5.82	-30.1	-30.5	14.9	0.00e+00	0	33	0	1317011456	36	16421
2026-01-27 21:11:25.98	34.17	5.89	-29.8	-30.2	15.1	0.00e+00	0	33	0	1392508928	34	17702
2026-01-27 21:11:26.99	34.32	5.95	-28.8	-29.2	15.5	0.00e+00	0	33	0	1468006400	32	17783
2026-01-27 21:11:28.00	34.46	6.01	-29.3	-29.7	15.3	0.00e+00	0	33	0	1543503872	32	18855
2026-01-27 21:11:29.01	34.61	6.08	-28.7	-29.1	15.6	0.00e+00	0	33	0	1619001344	34	15674
2026-01-27 21:11:30.02	34.76	6.14	-29.1	-29.5	15.4	0.00e+00	0	33	0	1694498816	32	18343
2026-01-27 21:11:31.03	34.91	6.20	-29.0	-29.4	15.5	0.00e+00	0	33	0	1769996288	32	18206
2026-01-27 21:11:32.04	35.06	6.26	-29.1	-29.5	15.5	0.00e+00	0	33	0	1845493760	32	18324
2026-01-27 21:11:33.05	35.21	6.33	-29.0	-29.5	15.5	0.00e+00	0	33	0	1920991232	32	18286
2026-01-27 21:11:34.06	35.36	6.39	-28.9	-29.3	15.5	0.00e+00	0	33	0	1996488704	32	18004
2026-01-27 21:11:35.07	35.52	6.45	-28.8	-29.3	15.5	0.00e+00	0	33	0	2071986176	32	17843
2026-01-27 21:11:36.08	35.67	6.52	-28.9	-29.3	15.5	0.00e+00	0	33	0	2147483648	32	17975
2026-01-27 21:11:37.09	35.82	6.58	-28.9	-29.4	15.5	0.00e+00	0	33	0	2222981120	32	18052
2026-01-27 21:11:38.10	35.98	6.64	-28.8	-29.3	15.6	0.00e+00	0	33	0	2298478592	32	17849
2026-01-27 21:11:39.11	36.13	6.71	-28.7	-29.1	15.5	0.00e+00	0	33	0	2373976064	32	17562
2026-01-27 21:11:40.12	36.29	6.77	-28.9	-29.3	15.4	0.00e+00	0	33	0	2449473536	32	17974
2026-01-27 21:11:41.13	36.45	6.84	-28.9	-29.3	15.4	0.00e+00	0	33	0	2524971008	32	17934
2026-01-27 21:11:42.14	36.61	6.90	-29.1	-29.5	15.4	0.00e+00	0	33	0	2600468480	32	18387
2026-01-27 21:11:43.15	36.77	6.96	-28.5	-28.9	15.6	0.00e+00	0	33	0	2675965952	32	17109
2026-01-27 21:11:44.16	36.93	7.03	-28.4	-28.8	15.7	0.00e+00	0	33	0	2751463424	32	16889
2026-01-27 21:11:45.17	37.09	7.09	-28.5	-29.0	15.6	0.00e+00	0	33	0	2826960896	32	17275
2026-01-27 21:11:46.18	37.25	7.16	-28.5	-28.9	15.7	0.00e+00	0	33	0	2902458368	32	17177
2026-01-27 21:11:47.19	37.41	7.22	-28.6	-29.0	15.7	0.00e+00	0	33	0	2977955840	32	17324
2026-01-27 21:11:48.20	37.57	7.28	-28.4	-28.8	15.7	0.00e+00	0	33	0	3061841920	32	16950
2026-01-27 21:11:49.21	37.74	7.35	-28.3	-28.8	15.7	0.00e+00	0	33	0	3128950784	32	16869
2026-01-27 21:11:50.22	37.90	7.41	-28.3	-28.7	15.7	0.00e+00	0	33	0	3204448256	32	16739
2026-01-27 21:11:51.23	38.07	7.48	-28.3	-28.7	15.8	0.00e+00	0	33	0	3279945728	32	16700
2026-01-27 21:11:52.23	38.23	7.54	-28.6	-29.1	15.6	0.00e+00	0	33	0	3355443200	32	17420
2026-01-27 21:11:53.25	38.40	7.60	-28.2	-28.6	15.8	0.00e+00	0	33	0	3439329280	32	16540
2026-01-27 21:11:54.26	38.57	7.67	-28.7	-29.1	15.6	0.00e+00	0	33	0	3514826752	32	17579
2026-01-27 21:11:55.26	38.74	7.73	-28.6	-29.0	15.5	0.00e+00	0	33	0	3590324224	32	17264
2026-01-27 21:11:56.27	38.91	7.80	-28.4	-28.9	15.5	0.00e+00	0	33	0	3665821696	32	17005
2026-01-27 21:11:57.28	39.08	7.86	-28.2	-28.6	15.5	0.00e+00	0	33	0	3732930560	32	16579
2026-01-27 21:11:58.29	39.26	7.93	-28.0	-28.5	15.5	0.00e+00	0	33	0	3816816640	32	16291
2026-01-27 21:11:59.30	39.43	7.99	-28.3	-28.8	15.4	0.00e+00	0	33	0	3892314112	32	16884
2026-01-27 21:12:00.31	39.60	8.05	-28.2	-28.7	15.5	0.00e+00	0	33	0	3967811584	32	16678
2026-01-27 21:12:01.32	39.78	8.12	-28.0	-28.4	15.7	0.00e+00	0	33	0	4043309056	32	16168
2026-01-27 21:12:02.33	39.95	8.18	-28.0	-28.5	15.7	0.00e+00	0	33	0	4118806528	32	16269
2026-01-27 21:12:03.34	40.13	8.25	-28.1	-28.5	15.7	0.00e+00	0	33	0	4194304000	32	16390
2026-01-27 21:12:04.35	40.31	8.31	-28.0	-28.5	15.7	0.00e+00	0	33	0	4269801472	32	16262
2026-01-27 21:12:05.36	40.49	8.38	-27.9	-28.3	15.8	0.00e+00	0	33	0	4345298944	32	16032
2026-01-27 21:12:06.37	40.67	8.44	-28.0	-28.4	15.8	0.00e+00	0	33	0	4420796416	32	16236
2026-01-27 21:12:07.38	40.85	8.51	-27.9	-28.4	15.9	0.00e+00	0	33	0	4496293888	32	16097
2026-01-27 21:12:08.39	41.03	8.57	-28.0	-28.5	15.8	0.00e+00	0	33	0	4571791360	32	16300
2026-01-27 21:12:09.40	41.21	8.64	-28.0	-28.4	15.7	0.00e+00	0	33	0	4647288832	32	16214
2026-01-27 21:12:10.41	41.40	8.70	-28.0	-28.5	15.7	0.00e+00	0	33	0	4722786304	32	16270
2026-01-27 21:12:11.42	41.58	8.77	-27.9	-28.4	15.8	0.00e+00	0	33	0	4798283776	32	16112
2026-01-27 21:12:12.43	41.77	8.83	-27.8	-28.3	15.9	0.00e+00	0	33	0	4873781248	32	15949
2026-01-27 21:12:13.44	41.95	8.89	-27.7	-28.2	16.0	0.00e+00	0	33	0	4949278720	30	17692
2026-01-27 21:12:14.45	42.14	8.96	-27.8	-28.3	15.9	0.00e+00	0	33	0	5024776192	30	17806
2026-01-27 21:12:15.46	42.33	9.02	-27.8	-28.2	15.9	0.00e+00	0	33	0	5100273664	30	17663
2026-01-27 21:12:16.47	42.52	9.09	-27.8	-28.2	15.9	0.00e+00	0	33	0	5175771136	30	17774
2026-01-27 21:12:17.48	42.71	9.15	-27.7	-28.1	16.0	0.00e+00	0	33	0	5251268608	30	17536
2026-01-27 21:12:18.50	42.90	9.22	-27.7	-28.1	15.9	0.00e+00	0	33	0	5326766080	30	17592
2026-01-27 21:12:19.51	43.10	9.28	-27.7	-28.1	16.0	0.00e+00	0	33	0	5402263552	30	17548
2026-01-27 21:12:20.52	43.29	9.35	-27.6	-28.1	15.9	0.00e+00	0	33	0	5477761024	30	17469
2026-01-27 21:12:21.53	43.48	9.41	-27.5	-27.9	15.9	0.00e+00	0	33	0	5553258496	30	17139
2026-01-27 21:12:22.54	43.68	9.48	-27.5	-28.0	15.9	0.00e+00	0	33	0	5628755968	30	17223
2026-01-27 21:12:23.55	43.88	9.54	-27.7	-28.1	15.9	0.00e+00	0	33	0	5712642048	30	17499
2026-01-27 21:12:24.56	44.08	9.61	-27.9	-28.3	15.8	0.00e+00	0	33	0	5788139520	30	17946
2026-01-27 21:12:25.57	44.27	9.67	-27.5	-28.0	15.9	0.00e+00	0	33	0	5855248384	30	17234
2026-01-27 21:12:26.58	44.47	9.73	-27.7	-28.1	16.0	0.00e+00	0	33	0	5930745856	30	17574
2026-01-27 21:12:27.59	44.68	9.80	-27.8	-28.2	16.0	0.00e+00	0	33	0	6006243328	30	17755
2026-01-27 21:12:28.59	44.88	9.86	-27.4	-27.9	16.1	0.00e+00	0	33	0	6090129408	30	17056
2026-01-27 21:12:29.60	45.08	9.93	-27.5	-27.9	16.0	0.00e+00	0	33	0	6165626880	30	17162
2026-01-27 21:12:30.61	45.28	9.99	-27.3	-27.8	16.0	0.00e+00	0	33	0	6241124352	30	16912
2026-01-27 21:12:31.62	45.49	10.05	-27.5	-28.0	16.0	0.00e+00	0	34	0	6316621824	30	17244
2026-01-27 21:12:32.63	45.69	10.12	-27.5	-27.9	16.0	0.00e+00	0	34	0	6392119296	30	17139
2026-01-27 21:12:33.64	45.90	10.18	-27.4	-27.8	15.9	0.00e+00	0	33	0	6467616768	30	16933
2026-01-27 21:12:34.65	46.11	10.25	-27.4	-27.8	15.9	0.00e+00	0	34	0	6543114240	30	16930
2026-01-27 21:12:35.66	46.32	10.31	-27.2	-27.6	16.0	0.00e+00	0	33	0	6618611712	30	16571
2026-01-27 21:12:36.66	46.53	10.37	-27.2	-27.7	16.0	0.00e+00	0	33	0	6694109184	30	16676
2026-01-27 21:12:37.67	46.74	10.44	-27.4	-27.8	16.0	0.00e+00	0	33	0	6769606656	30	16931
2026-01-27 21:12:38.68	46.95	10.50	-27.2	-27.6	15.9	0.00e+00	0	33	0	6845104128	30	16511
2026-01-27 21:12:39.69	47.17	10.56	-27.3	-27.8	15.8	0.00e+00	0	34	0	6920601600	30	16826
2026-01-27 21:12:40.70	47.38	10.63	-27.1	-27.5	16.0	0.00e+00	0	34	0	6996099072	30	16401
2026-01-27 21:12:41.71	47.60	10.69	-27.2	-27.6	16.1	0.00e+00	0	33	0	7071596544	30	16571
2026-01-27 21:12:42.72	47.81	10.75	-27.1	-27.6	16.1	0.00e+00	0	33	0	7147094016	30	16452
2026-01-27 21:12:43.73	48.03	10.82	-27.1	-27.6	16.1	0.00e+00	0	34	0	7222591488	30	16479
2026-01-27 21:12:44.74	48.25	10.88	-27.2	-27.6	16.0	0.00e+00	0	33	0	7298088960	30	16530
2026-01-27 21:12:45.75	48.47	10.94	-27.1	-27.5	16.1	0.00e+00	0	33	0	7373586432	30	16363
2026-01-27 21:12:46.77	48.70	11.01	-27.1	-27.5	16.1	0.00e+00	0	33	0	7449083904	30	16415
2026-01-27 21:12:47.77	48.92	11.07	-27.1	-27.5	16.2	0.00e+00	0	33	0	7524581376	30	16399
2026-01-27 21:12:48.78	49.14	11.13	-27.1	-27.6	16.2	0.00e+00	0	34	0	7600078848	30	16468
2026-01-27 21:12:49.80	49.37	11.19	-26.9	-27.4	16.2	0.00e+00	0	34	0	7675576320	30	16086
2026-01-27 21:12:50.80	49.59	11.26	-26.9	-27.4	16.2	0.00e+00	0	33	0	7751073792	30	16126
2026-01-27 21:12:51.81	49.82	11.32	-27.1	-27.5	16.2	0.00e+00	0	33	0	7826571264	30	16343
2026-01-27 21:12:52.82	50.05	11.38	-26.9	-27.3	16.1	0.00e+00	0	33	0	7902068736	30	16022
2026-01-27 21:12:53.84	50.28	11.44	-26.9	-27.4	15.9	0.00e+00	0	34	0	7977566208	30	16097
2026-01-27 21:12:54.84	50.51	11.50	-26.9	-27.4	16.0	0.00e+00	0	34	0	8053063680	30	16106
2026-01-27 21:12:55.85	50.74	11.56	-26.8	-27.3	16.1	0.00e+00	0	34	0	8128561152	30	15899
2026-01-27 21:12:56.86	50.98	11.63	-26.9	-27.3	16.1	0.00e+00	0	34	0	8204058624	30	16004
2026-01-27 21:12:57.87	51.21	11.69	-26.7	-27.2	16.0	0.00e+00	0	34	0	8279556096	30	15809
2026-01-27 21:12:58.88	51.44	11.75	-26.9	-27.4	15.9	0.00e+00	0	34	0	8355053568	28	18025
2026-01-27 21:12:59.89	51.68	11.81	-26.7	-27.2	16.1	0.00e+00	0	34	0	8438939648	28	17606
2026-01-27 21:13:00.90	51.92	11.87	-26.8	-27.3	16.2	0.00e+00	0	33	0	8514437120	28	17863
2026-01-27 21:13:01.91	52.16	11.93	-26.7	-27.2	16.2	0.00e+00	0	34	0	8581545984	28	17700
2026-01-27 21:13:02.92	52.40	11.99	-26.8	-27.2	16.2	0.00e+00	0	34	0	8657043456	28	17730
2026-01-27 21:13:03.94	52.64	12.05	-26.8	-27.3	16.2	0.00e+00	0	34	0	8732540928	28	17844
2026-01-27 21:13:04.95	52.88	12.11	-26.8	-27.2	16.1	0.00e+00	0	34	0	8816427008	28	17749
2026-01-27 21:13:05.96	53.13	12.17	-26.9	-27.3	15.9	0.00e+00	0	34	0	8891924480	28	17893
2026-01-27 21:13:06.97	53.37	12.23	-26.8	-27.3	16.0	0.00e+00	0	34	0	8967421952	28	17841
2026-01-27 21:13:07.98	53.62	12.29	-26.6	-27.0	16.3	0.00e+00	0	34	0	9042919424	28	17391
2026-01-27 21:13:08.98	53.86	12.35	-26.6	-27.1	16.3	0.00e+00	0	34	0	9118416896	28	17406
2026-01-27 21:13:09.99	54.11	12.41	-26.6	-27.0	16.2	0.00e+00	0	34	0	9193914368	28	17396
2026-01-27 21:13:11.00	54.36	12.46	-26.5	-27.0	16.2	0.00e+00	0	34	0	9269411840	28	17204
2026-01-27 21:13:12.01	54.61	12.52	-26.5	-27.0	16.0	0.00e+00	0	34	0	9344909312	28	17239
2026-01-27 21:13:13.02	54.86	12.58	-26.5	-27.0	16.1	0.00e+00	0	34	0	9420406784	28	17232
2026-01-27 21:13:14.04	55.12	12.64	-26.5	-27.0	16.2	0.00e+00	0	34	0	9495904256	28	17212
2026-01-27 21:13:15.05	55.37	12.70	-26.4	-26.9	16.3	0.00e+00	0	34	0	9571401728	28	17052
2026-01-27 21:13:16.06	55.63	12.75	-26.5	-26.9	16.3	0.00e+00	0	34	0	9646899200	28	17185
2026-01-27 21:13:17.07	55.88	12.81	-26.4	-26.8	16.0	0.00e+00	0	34	0	9722396672	28	16935
2026-01-27 21:13:18.08	56.14	12.87	-26.5	-26.9	16.0	0.00e+00	0	34	0	9797894144	28	17085
2026-01-27 21:13:19.09	56.40	12.92	-26.5	-27.0	16.1	0.00e+00	0	34	0	9873391616	28	17284
2026-01-27 21:13:20.10	56.66	12.98	-26.3	-26.8	16.4	0.00e+00	0	34	0	9948889088	28	16892
2026-01-27 21:13:21.11	56.92	13.04	-26.5	-27.0	16.3	0.00e+00	0	34	0	10024386560	28	17222
2026-01-27 21:13:22.12	57.18	13.09	-26.3	-26.8	16.0	0.00e+00	0	34	0	10099884032	28	16839
2026-01-27 21:13:23.13	57.45	13.15	-26.4	-26.9	16.0	0.00e+00	0	34	0	10175381504	28	17030
2026-01-27 21:13:24.14	57.71	13.20	-26.3	-26.8	16.1	0.00e+00	0	34	0	10250878976	28	16874
2026-01-27 21:13:25.15	57.98	13.25	-26.6	-27.1	16.2	0.00e+00	0	34	0	10326376448	28	17421
2026-01-27 21:13:26.16	58.24	13.31	-26.4	-26.8	16.3	0.00e+00	0	34	0	10401873920	28	16967
2026-01-27 21:13:27.17	58.51	13.36	-26.6	-27.0	16.3	0.00e+00	0	34	0	10477371392	28	17325
2026-01-27 21:13:28.18	58.78	13.42	-26.3	-26.8	16.3	0.00e+00	0	34	0	10552868864	28	16872
2026-01-27 21:13:29.19	59.05	13.47	-26.1	-26.6	16.3	0.00e+00	0	34	0	10628366336	28	16517
2026-01-27 21:13:30.20	59.32	13.52	-26.1	-26.6	16.1	0.00e+00	0	34	0	10703863808	28	16445
2026-01-27 21:13:31.21	59.60	13.57	-26.1	-26.5	16.0	0.00e+00	0	34	0	10779361280	28	16363
2026-01-27 21:13:32.22	59.87	13.63	-26.1	-26.5	16.3	0.00e+00	0	34	0	10854858752	28	16423
2026-01-27 21:13:33.23	60.14	13.68	-26.1	-26.5	16.0	0.00e+00	0	34	0	10930356224	28	16365
2026-01-27 21:13:34.23	60.42	13.73	-26.2	-26.7	15.2	0.00e+00	0	34	0	11005853696	28	16684
2026-01-27 21:13:35.24	60.69	13.78	-26.0	-26.4	15.2	0.00e+00	0	34	0	11081351168	28	16148
2026-01-27 21:13:36.25	60.97	13.83	-26.1	-26.6	15.9	0.00e+00	0	34	0	11165237248	28	16455
2026-01-27 21:13:37.26	61.25	13.88	-26.1	-26.5	16.1	0.00e+00	0	34	0	11240734720	28	16385
2026-01-27 21:13:38.26	61.53	13.93	-25.9	-26.4	16.2	0.00e+00	0	34	0	11307843584	28	16144
2026-01-27 21:13:39.27	61.81	13.98	-26.1	-26.5	15.7	0.00e+00	0	34	0	11383341056	28	16369
2026-01-27 21:13:40.28	62.09	14.03	-26.0	-26.4	15.5	0.00e+00	0	34	0	11458838528	28	16188
2026-01-27 21:13:41.29	62.38	14.07	-26.1	-26.5	15.8	0.00e+00	0	34	0	11542724608	28	16342
2026-01-27 21:13:42.30	62.66	14.12	-26.2	-26.6	15.9	0.00e+00	0	34	0	11618222080	28	16534
2026-01-27 21:13:43.31	62.95	14.17	-26.3	-26.8	16.2	0.00e+00	0	34	0	11693719552	28	16926
2026-01-27 21:13:44.32	63.23	14.22	-25.9	-26.4	16.3	0.00e+00	0	34	0	11769217024	28	16077
2026-01-27 21:13:45.33	63.52	14.26	-26.0	-26.5	16.4	0.00e+00	0	34	0	11836325888	28	16255
2026-01-27 21:13:46.35	63.81	14.31	-25.8	-26.3	16.4	0.00e+00	0	34	0	11920211968	28	15961
2026-01-27 21:13:47.36	64.10	14.35	-25.9	-26.3	16.4	0.00e+00	0	34	0	11995709440	28	15991
2026-01-27 21:13:48.37	64.39	14.40	-25.9	-26.4	16.3	0.00e+00	0	34	0	12071206912	28	16077
2026-01-27 21:13:49.37	64.68	14.44	-26.0	-26.4	16.4	0.00e+00	0	34	0	12146704384	28	16199
2026-01-27 21:13:50.38	64.97	14.49	-25.9	-26.3	16.5	0.00e+00	0	34	0	12222201856	28	15994
2026-01-27 21:13:51.39	65.27	14.53	-25.9	-26.3	16.5	0.00e+00	0	34	0	12297699328	28	16041
2026-01-27 21:13:52.40	65.56	14.57	-26.0	-26.4	16.4	0.00e+00	0	34	0	12373196800	28	16201
2026-01-27 21:13:53.41	65.86	14.61	-25.8	-26.3	16.4	0.00e+00	0	34	0	12448694272	28	15900
2026-01-27 21:13:54.42	66.16	14.66	-25.8	-26.2	16.4	0.00e+00	0	34	0	12524191744	26	17745
2026-01-27 21:13:55.43	66.45	14.70	-25.8	-26.3	16.2	0.00e+00	0	34	0	12599689216	26	17905
2026-01-27 21:13:56.43	66.75	14.74	-25.8	-26.2	16.0	0.00e+00	0	34	0	12675186688	26	17704
2026-01-27 21:13:57.45	67.05	14.78	-25.9	-26.3	15.9	0.00e+00	0	34	0	12750684160	26	17918
2026-01-27 21:13:58.46	67.35	14.82	-25.9	-26.3	16.2	0.00e+00	0	34	0	12826181632	26	17904
2026-01-27 21:13:59.47	67.65	14.86	-25.9	-26.3	16.5	0.00e+00	0	34	0	12901679104	26	17984
2026-01-27 21:14:00.47	67.95	14.89	-26.1	-26.5	16.4	0.00e+00	0	34	0	12977176576	26	18381
2026-01-27 21:14:01.48	68.26	14.93	-25.8	-26.3	16.5	0.00e+00	0	34	0	13052674048	26	17853
2026-01-27 21:14:02.50	68.56	14.97	-25.8	-26.3	16.3	0.00e+00	0	34	0	13128171520	26	17817
2026-01-27 21:14:03.50	68.87	15.01	-25.8	-26.2	16.3	0.00e+00	0	34	0	13203668992	26	17695
2026-01-27 21:14:04.52	69.17	15.04	-25.8	-26.3	16.4	0.00e+00	0	34	0	13279166464	26	17839
2026-01-27 21:14:05.53	69.48	15.08	-25.8	-26.2	16.4	0.00e+00	0	34	0	13354663936	26	17788
2026-01-27 21:14:06.53	69.79	15.11	-25.8	-26.3	16.2	0.00e+00	0	34	0	13430161408	26	17853
2026-01-27 21:14:07.54	70.09	15.15	-25.7	-26.1	16.0	0.00e+00	0	34	0	13505658880	26	17522
2026-01-27 21:14:08.55	70.40	15.18	-25.7	-26.2	16.2	0.00e+00	0	34	0	13581156352	26	17608
2026-01-27 21:14:09.56	70.71	15.21	-25.7	-26.2	16.1	0.00e+00	0	34	0	13656653824	26	17710
2026-01-27 21:14:10.57	71.03	15.24	-25.6	-26.1	16.3	0.00e+00	0	34	0	13732151296	26	17477
2026-01-27 21:14:11.58	71.34	15.28	-25.7	-26.1	16.3	0.00e+00	0	34	0	13807648768	26	17513
2026-01-27 21:14:12.59	71.65	15.31	-25.6	-26.1	16.5	0.00e+00	0	34	0	13891534848	26	17506
2026-01-27 21:14:13.60	71.96	15.34	-25.7	-26.2	16.5	0.00e+00	0	34	0	13967032320	26	17636
2026-01-27 21:14:14.61	72.28	15.37	-25.8	-26.3	16.5	0.00e+00	0	34	0	14034141184	26	17816
2026-01-27 21:14:15.62	72.59	15.40	-25.5	-26.0	16.5	0.00e+00	0	34	0	14109638656	26	17306
2026-01-27 21:14:16.63	72.91	15.42	-25.6	-26.1	16.5	0.00e+00	0	34	0	14185136128	26	17525
2026-01-27 21:14:17.64	73.22	15.45	-25.7	-26.2	16.5	0.00e+00	0	34	0	14269022208	26	17672
2026-01-27 21:14:18.65	73.54	15.48	-25.6	-26.1	16.5	0.00e+00	0	34	0	14344519680	26	17410
2026-01-27 21:14:19.66	73.86	15.50	-25.7	-26.1	16.5	0.00e+00	0	34	0	14420017152	26	17557
2026-01-27 21:14:20.66	74.17	15.53	-25.6	-26.0	16.5	0.00e+00	0	34	0	14495514624	26	17356
2026-01-27 21:14:21.67	74.49	15.55	-25.5	-26.0	16.5	0.00e+00	0	34	0	14562623488	26	17291
2026-01-27 21:14:22.69	74.81	15.58	-25.6	-26.1	16.6	0.00e+00	0	34	0	14638120960	26	17527
2026-01-27 21:14:23.70	75.13	15.60	-25.7	-26.2	16.5	0.00e+00	0	34	0	14722007040	26	17605
2026-01-27 21:14:24.71	75.45	15.62	-25.6	-26.1	16.5	0.00e+00	0	34	0	14797504512	26	17502
2026-01-27 21:14:25.72	75.77	15.65	-25.6	-26.0	16.5	0.00e+00	0	34	0	14873001984	26	17362
2026-01-27 21:14:26.73	76.09	15.67	-25.6	-26.0	16.5	0.00e+00	0	34	0	14948499456	26	17387
2026-01-27 21:14:27.74	76.42	15.69	-25.5	-25.9	16.1	0.00e+00	0	34	0	15023996928	26	17161
2026-01-27 21:14:28.75	76.74	15.71	-25.5	-26.0	16.1	0.00e+00	0	34	0	15099494400	26	17233
2026-01-27 21:14:29.76	77.06	15.73	-25.5	-25.9	16.2	0.00e+00	0	34	0	15174991872	26	17143
2026-01-27 21:14:30.77	77.39	15.75	-25.5	-26.0	16.3	0.00e+00	0	34	0	15250489344	26	17241
2026-01-27 21:14:31.78	77.71	15.76	-25.5	-26.0	16.4	0.00e+00	0	34	0	15325986816	26	17240
2026-01-27 21:14:32.79	78.03	15.78	-25.6	-26.0	16.5	0.00e+00	0	34	0	15401484288	26	17373
2026-01-27 21:14:33.80	78.36	15.80	-25.6	-26.1	16.5	0.00e+00	0	34	0	15476981760	26	17424
2026-01-27 21:14:34.81	78.68	15.81	-25.4	-25.9	16.5	0.00e+00	0	34	0	15552479232	26	17035
2026-01-27 21:14:35.82	79.01	15.82	-25.6	-26.1	16.6	0.00e+00	0	34	0	15627976704	26	17442
2026-01-27 21:14:36.83	79.34	15.84	-25.5	-26.0	16.5	0.00e+00	0	34	0	15703474176	26	17243
2026-01-27 21:14:37.84	79.66	15.85	-25.5	-26.0	16.4	0.00e+00	0	34	0	15778971648	26	17305
2026-01-27 21:14:38.85	79.99	15.86	-25.6	-26.0	16.3	0.00e+00	0	34	0	15854469120	26	17393
2026-01-27 21:14:39.86	80.31	15.87	-25.8	-26.2	16.1	0.00e+00	0	34	0	15929966592	26	17788
2026-01-27 21:14:40.87	80.64	15.89	-25.6	-26.1	16.1	0.00e+00	0	34	0	16005464064	26	17479
2026-01-27 21:14:41.88	80.97	15.89	-25.6	-26.0	16.3	0.00e+00	0	34	0	16080961536	26	17388
2026-01-27 21:14:42.89	81.30	15.90	-25.8	-26.2	16.5	0.00e+00	0	34	0	16156459008	26	17778
2026-01-27 21:14:43.90	81.62	15.91	-25.6	-26.0	16.5	0.00e+00	0	34	0	16231956480	26	17400
2026-01-27 21:14:44.91	81.95	15.92	-25.4	-25.9	16.5	0.00e+00	0	34	0	16307453952	26	17032
2026-01-27 21:14:45.92	82.28	15.93	-25.5	-25.9	16.5	0.00e+00	0	34	0	16382951424	26	17183
2026-01-27 21:14:46.93	82.61	15.93	-25.5	-26.0	16.5	0.00e+00	0	34	0	16458448896	26	17306
2026-01-27 21:14:47.94	82.94	15.94	-25.5	-26.0	16.5	0.00e+00	0	34	0	16542334976	26	17211
2026-01-27 21:14:48.95	83.27	15.94	-25.5	-25.9	16.6	0.00e+00	0	34	0	16617832448	26	17191
2026-01-27 21:14:49.96	83.60	15.94	-25.4	-25.9	16.6	0.00e+00	0	34	0	16693329920	26	17095
2026-01-27 21:14:50.97	83.92	15.95	-25.6	-26.0	16.5	0.00e+00	0	34	0	16760438784	26	17351
2026-01-27 21:14:51.98	84.25	15.95	-25.5	-25.9	16.6	0.00e+00	0	34	0	16835936256	26	17198
2026-01-27 21:14:53.00	84.58	15.95	-25.5	-26.0	16.5	0.00e+00	0	34	0	16919822336	26	17309
2026-01-27 21:14:54.01	84.91	15.95	-25.4	-25.9	16.5	0.00e+00	0	34	0	16995319808	26	17096
2026-01-27 21:14:55.02	85.24	15.95	-25.5	-25.9	16.5	0.00e+00	0	34	0	17070817280	26	17166
2026-01-27 21:14:56.03	85.57	15.95	-25.4	-25.9	16.6	0.00e+00	0	34	0	17146314752	26	17090
2026-01-27 21:14:57.04	85.90	15.95	-25.6	-26.1	16.4	0.00e+00	0	34	0	17221812224	26	17517
2026-01-27 21:14:58.05	86.23	15.94	-25.5	-26.0	16.6	0.00e+00	0	34	0	17297309696	26	17243
2026-01-27 21:14:59.06	86.56	15.94	-25.4	-25.9	16.6	0.00e+00	0	34	0	17372807168	26	17115
2026-01-27 21:15:00.07	86.89	15.93	-25.4	-25.9	16.5	0.00e+00	0	34	0	17448304640	26	17092
2026-01-27 21:15:01.08	87.22	15.93	-25.5	-25.9	16.6	0.00e+00	0	34	0	17523802112	26	17193
2026-01-27 21:15:02.09	87.54	15.92	-25.5	-25.9	16.5	0.00e+00	0	34	0	17599299584	26	17165
2026-01-27 21:15:03.10	87.87	15.92	-25.6	-26.0	16.5	0.00e+00	0	34	0	17674797056	26	17348
2026-01-27 21:15:04.11	88.20	15.91	-25.6	-26.0	16.5	0.00e+00	0	34	0	17750294528	26	17383
2026-01-27 21:15:05.12	88.53	15.90	-25.5	-26.0	16.6	0.00e+00	0	34	0	17825792000	26	17278
2026-01-27 21:15:06.13	88.86	15.89	-25.4	-25.9	16.6	0.00e+00	0	34	0	17901289472	26	17103
2026-01-27 21:15:07.14	89.18	15.88	-25.5	-25.9	16.6	0.00e+00	0	34	0	17976786944	26	17180
2026-01-27 21:15:08.15	89.51	15.87	-25.6	-26.0	16.5	0.00e+00	0	34	0	18052284416	26	17400
2026-01-27 21:15:09.16	89.84	15.86	-25.5	-25.9	16.6	0.00e+00	0	34	0	18127781888	26	17173
2026-01-27 21:15:10.17	90.16	15.85	-25.5	-26.0	16.6	0.00e+00	0	34	0	18203279360	26	17291
2026-01-27 21:15:11.18	90.49	15.83	-25.7	-26.1	16.5	0.00e+00	0	34	0	18278776832	26	17526
2026-01-27 21:15:12.19	90.82	15.82	-25.6	-26.0	16.5	0.00e+00	0	34	0	18354274304	26	17347
2026-01-27 21:15:13.20	91.14	15.80	-25.6	-26.1	16.5	0.00e+00	0	34	0	18429771776	26	17486
2026-01-27 21:15:14.21	91.47	15.79	-25.6	-26.1	16.5	0.00e+00	0	34	0	18505269248	26	17524
2026-01-27 21:15:15.22	91.79	15.77	-25.6	-26.0	16.5	0.00e+00	0	34	0	18580766720	26	17344
2026-01-27 21:15:16.23	92.12	15.76	-25.7	-26.1	16.6	0.00e+00	0	34	0	18656264192	26	17578
2026-01-27 21:15:17.24	92.44	15.74	-25.6	-26.1	16.4	0.00e+00	0	34	0	18731761664	26	17463
2026-01-27 21:15:18.25	92.76	15.72	-25.7	-26.1	16.5	0.00e+00	0	34	0	18815647744	26	17549
2026-01-27 21:15:19.26	93.09	15.70	-25.5	-26.0	16.5	0.00e+00	0	34	0	18882756608	26	17287
2026-01-27 21:15:20.27	93.41	15.68	-25.6	-26.1	16.4	0.00e+00	0	34	0	18958254080	26	17494
2026-01-27 21:15:21.28	93.73	15.66	-25.6	-26.0	16.4	0.00e+00	0	34	0	19033751552	26	17327
2026-01-27 21:15:22.29	94.05	15.64	-25.6	-26.1	16.5	0.00e+00	0	34	0	19109249024	26	17415
2026-01-27 21:15:23.30	94.37	15.62	-25.6	-26.1	16.5	0.00e+00	0	34	0	19193135104	26	17430
2026-01-27 21:15:24.31	94.69	15.59	-25.6	-26.0	16.6	0.00e+00	0	34	0	19268632576	26	17389
2026-01-27 21:15:25.31	95.01	15.57	-25.6	-26.1	16.5	0.00e+00	0	34	0	19344130048	26	17410
2026-01-27 21:15:26.32	95.33	15.54	-25.6	-26.0	16.5	0.00e+00	0	34	0	19419627520	26	17354
2026-01-27 21:15:27.33	95.65	15.52	-25.7	-26.1	16.5	0.00e+00	0	34	0	19486736384	26	17571
2026-01-27 21:15:28.34	95.97	15.49	-25.6	-26.1	16.5	0.00e+00	0	34	0	19570622464	26	17512
2026-01-27 21:15:29.35	96.28	15.47	-25.6	-26.1	16.6	0.00e+00	0	34	0	19646119936	26	17463
2026-01-27 21:15:30.36	96.60	15.44	-25.6	-26.1	16.5	0.00e+00	0	34	0	19721617408	26	17474
2026-01-27 21:15:31.37	96.92	15.41	-25.8	-26.2	16.6	0.00e+00	0	34	0	19797114880	26	17767
2026-01-27 21:15:32.38	97.23	15.38	-25.7	-26.2	16.5	0.00e+00	0	34	0	19872612352	26	17650
2026-01-27 21:15:33.39	97.55	15.35	-25.9	-26.3	16.5	0.00e+00	0	34	0	19948109824	26	17977
2026-01-27 21:15:34.40	97.86	15.32	-25.9	-26.3	16.5	0.00e+00	0	34	0	20023607296	26	17985
2026-01-27 21:15:35.41	98.17	15.29	-25.8	-26.3	16.4	0.00e+00	0	34	0	20099104768	26	17817
2026-01-27 21:15:36.42	98.49	15.26	-25.7	-26.2	16.4	0.00e+00	0	34	0	20174602240	26	17614
2026-01-27 21:15:37.43	98.80	15.23	-25.7	-26.2	16.4	0.00e+00	0	34	0	20250099712	26	17699
2026-01-27 21:15:38.44	99.11	15.20	-25.7	-26.2	16.4	0.00e+00	0	34	0	20325597184	26	17705
2026-01-27 21:15:39.45	99.42	15.16	-25.8	-26.2	16.5	0.00e+00	0	34	0	20401094656	26	17802
2026-01-27 21:15:40.46	99.73	15.13	-25.7	-26.2	16.5	0.00e+00	0	34	0	20476592128	26	17679
2026-01-27 21:15:41.47	100.04	15.10	-25.8	-26.3	16.4	0.00e+00	0	34	0	20552089600	26	17882
2026-01-27 21:15:42.48	100.35	15.06	-25.8	-26.3	16.5	0.00e+00	0	34	0	20627587072	26	17883
2026-01-27 21:15:43.48	100.65	15.03	-25.7	-26.2	16.5	0.00e+00	0	34	0	20703084544	26	17691
2026-01-27 21:15:44.49	100.96	14.99	-25.8	-26.3	16.5	0.00e+00	0	34	0	20778582016	26	17841
2026-01-27 21:15:45.50	101.26	14.95	-25.8	-26.3	16.5	0.00e+00	0	34	0	20854079488	26	17849
2026-01-27 21:15:46.50	101.56	14.92	-25.8	-26.2	16.5	0.00e+00	0	34	0	20929576960	26	17787
2026-01-27 21:15:47.51	101.87	14.88	-25.8	-26.2	16.4	0.00e+00	0	34	0	21005074432	26	17799
2026-01-27 21:15:48.52	102.17	14.84	-25.7	-26.2	16.5	0.00e+00	0	34	0	21080571904	26	17688
2026-01-27 21:15:49.53	102.47	14.80	-25.9	-26.4	16.5	0.00e+00	0	34	0	21156069376	26	18068
2026-01-27 21:15:50.54	102.77	14.76	-25.9	-26.3	16.4	0.00e+00	0	34	0	21231566848	26	17969
2026-01-27 21:15:51.55	103.07	14.72	-25.8	-26.3	16.4	0.00e+00	0	34	0	21307064320	26	17886
2026-01-27 21:15:52.56	103.37	14.68	-25.9	-26.4	16.4	0.00e+00	0	34	0	21382561792	26	18063
2026-01-27 21:15:53.57	103.67	14.64	-26.1	-26.6	16.5	0.00e+00	0	34	0	21458059264	26	18466
2026-01-27 21:15:54.58	103.96	14.59	-25.9	-26.4	16.5	0.00e+00	0	34	0	21533556736	26	18118
2026-01-27 21:15:55.59	104.26	14.55	-25.9	-26.3	16.4	0.00e+00	0	34	0	21609054208	26	17933
2026-01-27 21:15:56.60	104.56	14.51	-25.9	-26.4	16.5	0.00e+00	0	34	0	21684551680	26	18088
2026-01-27 21:15:57.61	104.85	14.47	-26.0	-26.4	16.4	0.00e+00	0	34	0	21760049152	26	18162
2026-01-27 21:15:58.62	105.14	14.42	-26.0	-26.4	16.5	0.00e+00	0	34	0	21835546624	26	18200
2026-01-27 21:15:59.63	105.43	14.38	-26.1	-26.6	16.4	0.00e+00	0	34	0	21911044096	26	18523
2026-01-27 21:16:00.64	105.73	14.33	-26.0	-26.4	16.5	0.00e+00	0	34	0	21994930176	26	18215
2026-01-27 21:16:01.65	106.02	14.29	-26.1	-26.5	16.4	0.00e+00	0	34	0	22062039040	26	18414
2026-01-27 21:16:02.66	106.30	14.24	-26.1	-26.6	16.4	0.00e+00	0	34	0	22137536512	26	18528
2026-01-27 21:16:03.67	106.59	14.19	-26.2	-26.6	16.4	0.00e+00	0	34	0	22213033984	26	18619
2026-01-27 21:16:04.68	106.88	14.15	-26.2	-26.7	16.4	0.00e+00	0	34	0	22288531456	26	18736
2026-01-27 21:16:05.69	107.16	14.10	-26.4	-26.8	16.4	0.00e+00	0	34	0	22364028928	26	19049
2026-01-27 21:16:06.70	107.45	14.05	-26.2	-26.7	16.4	0.00e+00	0	34	0	22447915008	26	18659
2026-01-27 21:16:07.71	107.73	14.00	-26.2	-26.6	16.3	0.00e+00	0	34	0	22523412480	26	18637
2026-01-27 21:16:08.72	108.02	13.95	-26.1	-26.6	16.4	0.00e+00	0	34	0	22598909952	26	18502
2026-01-27 21:16:09.73	108.30	13.90	-26.2	-26.7	16.4	0.00e+00	0	34	0	22674407424	26	18656
2026-01-27 21:16:10.74	108.58	13.85	-26.2	-26.6	16.4	0.00e+00	0	34	0	22741516288	26	18579
2026-01-27 21:16:11.75	108.86	13.80	-26.2	-26.6	16.4	0.00e+00	0	34	0	22825402368	26	18587
2026-01-27 21:16:12.76	109.13	13.75	-26.1	-26.5	16.4	0.00e+00	0	34	0	22900899840	26	18412
2026-01-27 21:16:13.77	109.41	13.70	-26.2	-26.6	16.4	0.00e+00	0	34	0	22976397312	26	18623
2026-01-27 21:16:14.78	109.69	13.65	-26.2	-26.6	16.5	0.00e+00	0	34	0	23051894784	26	18578
2026-01-27 21:16:15.79	109.96	13.60	-26.2	-26.7	16.4	0.00e+00	0	34	0	23127392256	26	18707
2026-01-27 21:16:16.80	110.24	13.55	-26.2	-26.6	16.4	0.00e+00	0	34	0	23202889728	26	18608
2026-01-27 21:16:17.81	110.51	13.49	-26.1	-26.6	16.4	0.00e+00	0	34	0	23278387200	26	18552
2026-01-27 21:16:18.82	110.78	13.44	-26.3	-26.8	16.4	0.00e+00	0	34	0	23353884672	26	18932
2026-01-27 21:16:19.83	111.05	13.39	-26.3	-26.8	16.4	0.00e+00	0	34	0	23429382144	26	18894
2026-01-27 21:16:20.83	111.32	13.33	-26.3	-26.7	16.4	0.00e+00	0	34	0	23504879616	26	18787
2026-01-27 21:16:21.84	111.59	13.28	-26.3	-26.8	16.3	0.00e+00	0	34	0	23580377088	26	18959
2026-01-27 21:16:22.85	111.85	13.22	-26.5	-27.0	16.3	0.00e+00	0	34	0	23655874560	26	19326
2026-01-27 21:16:23.86	112.12	13.17	-26.6	-27.0	16.3	0.00e+00	0	34	0	23731372032	26	19519
2026-01-27 21:16:24.87	112.38	13.12	-26.3	-26.8	16.4	0.00e+00	0	34	0	23806869504	26	18960
2026-01-27 21:16:25.88	112.65	13.06	-26.4	-26.9	16.4	0.00e+00	0	34	0	23882366976	26	19140
2026-01-27 21:16:26.89	112.91	13.00	-26.5	-26.9	16.3	0.00e+00	0	34	0	23957864448	26	19233
2026-01-27 21:16:27.89	113.17	12.95	-26.4	-26.9	16.4	0.00e+00	0	34	0	24033361920	26	19205
2026-01-27 21:16:28.90	113.43	12.89	-26.6	-27.0	16.4	0.00e+00	0	34	0	24108859392	26	19431
2026-01-27 21:16:29.91	113.69	12.84	-26.6	-27.1	16.4	0.00e+00	0	34	0	24184356864	26	19585
2026-01-27 21:16:30.92	113.94	12.78	-26.4	-26.9	16.4	0.00e+00	0	34	0	24259854336	26	19166
2026-01-27 21:16:31.93	114.20	12.72	-26.5	-27.0	16.3	0.00e+00	0	34	0	24335351808	26	19363
2026-01-27 21:16:32.94	114.46	12.66	-26.5	-27.0	16.3	0.00e+00	0	34	0	24410849280	26	19380
2026-01-27 21:16:33.95	114.71	12.61	-26.5	-26.9	16.4	0.00e+00	0	34	0	24486346752	26	19257
2026-01-27 21:16:34.96	114.96	12.55	-26.6	-27.1	16.3	0.00e+00	0	34	0	24561844224	26	19656
2026-01-27 21:16:35.97	115.21	12.49	-26.6	-27.1	16.3	0.00e+00	0	34	0	24637341696	26	19553
2026-01-27 21:16:36.98	115.46	12.43	-26.6	-27.0	16.3	0.00e+00	0	34	0	24712839168	28	17398
2026-01-27 21:16:37.99	115.71	12.37	-26.4	-26.9	16.3	0.00e+00	0	34	0	24788336640	28	17111
2026-01-27 21:16:39.00	115.96	12.31	-26.5	-27.0	16.4	0.00e+00	0	34	0	24863834112	28	17267
2026-01-27 21:16:40.01	116.21	12.25	-26.6	-27.1	16.3	0.00e+00	0	34	0	24939331584	28	17403
2026-01-27 21:16:41.01	116.45	12.19	-26.6	-27.0	16.3	0.00e+00	0	34	0	25014829056	28	17365
2026-01-27 21:16:42.02	116.70	12.14	-26.6	-27.1	16.3	0.00e+00	0	34	0	25090326528	28	17507
2026-01-27 21:16:43.03	116.94	12.08	-26.7	-27.1	16.3	0.00e+00	0	34	0	25165824000	28	17602
2026-01-27 21:16:44.04	117.18	12.01	-26.6	-27.1	16.3	0.00e+00	0	34	0	25249710080	28	17402
2026-01-27 21:16:45.05	117.43	11.95	-26.6	-27.1	16.3	0.00e+00	0	34	0	25325207552	28	17449
2026-01-27 21:16:46.06	117.67	11.89	-26.7	-27.1	16.3	0.00e+00	0	34	0	25400705024	28	17538
2026-01-27 21:16:47.07	117.90	11.83	-26.6	-27.1	16.3	0.00e+00	0	34	0	25467813888	28	17457
2026-01-27 21:16:48.08	118.14	11.77	-26.6	-27.1	16.3	0.00e+00	0	34	0	25543311360	28	17475
2026-01-27 21:16:49.09	118.38	11.71	-26.7	-27.1	16.2	0.00e+00	0	34	0	25618808832	28	17539
2026-01-27 21:16:50.10	118.61	11.65	-26.8	-27.3	16.2	0.00e+00	0	34	0	25702694912	28	17899
2026-01-27 21:16:51.10	118.85	11.59	-27.0	-27.5	16.2	0.00e+00	0	34	0	25778192384	28	18324
2026-01-27 21:16:52.11	119.08	11.53	-26.8	-27.2	16.3	0.00e+00	0	34	0	25853689856	28	17723
2026-01-27 21:16:53.12	119.31	11.47	-26.8	-27.3	16.3	0.00e+00	0	34	0	25929187328	28	17878
2026-01-27 21:16:54.13	119.54	11.40	-26.8	-27.3	16.3	0.00e+00	0	34	0	25996296192	28	17871
2026-01-27 21:16:55.14	119.77	11.34	-26.9	-27.3	16.2	0.00e+00	0	34	0	26071793664	28	17965
2026-01-27 21:16:56.15	120.00	11.28	-26.9	-27.4	16.3	0.00e+00	0	34	0	26155679744	28	18026
2026-01-27 21:16:57.16	120.23	11.22	-26.9	-27.4	16.2	0.00e+00	0	34	0	26231177216	28	18050
2026-01-27 21:16:58.16	120.45	11.15	-27.0	-27.5	16.2	0.00e+00	0	34	0	26306674688	28	18255
2026-01-27 21:16:59.18	120.68	11.09	-26.9	-27.4	16.3	0.00e+00	0	34	0	26382172160	28	18118
2026-01-27 21:17:00.19	120.90	11.03	-27.0	-27.5	16.2	0.00e+00	0	34	0	26457669632	28	18288
2026-01-27 21:17:01.19	121.13	10.97	-27.3	-27.7	16.1	0.00e+00	0	34	0	26533167104	28	18779
2026-01-27 21:17:02.20	121.35	10.90	-27.2	-27.6	16.2	0.00e+00	0	34	0	26608664576	28	18559
2026-01-27 21:17:03.21	121.57	10.84	-27.1	-27.6	16.2	0.00e+00	0	34	0	26684162048	28	18467
2026-01-27 21:17:04.22	121.79	10.78	-27.2	-27.6	16.2	0.00e+00	0	34	0	26759659520	28	18624
2026-01-27 21:17:05.23	122.01	10.71	-27.1	-27.6	16.2	0.00e+00	0	34	0	26835156992	28	18552
2026-01-27 21:17:06.24	122.22	10.65	-27.2	-27.7	16.2	0.00e+00	0	34	0	26910654464	28	18674
2026-01-27 21:17:07.25	122.44	10.59	-27.1	-27.6	16.1	0.00e+00	0	34	0	26986151936	28	18544
2026-01-27 21:17:08.26	122.65	10.52	-27.2	-27.6	16.2	0.00e+00	0	34	0	27061649408	28	18611
2026-01-27 21:17:09.27	122.87	10.46	-27.3	-27.8	16.1	0.00e+00	0	34	0	27137146880	28	18991
2026-01-27 21:17:10.28	123.08	10.39	-27.1	-27.5	16.2	0.00e+00	0	34	0	27212644352	28	18395
2026-01-27 21:17:11.29	123.29	10.33	-27.2	-27.7	16.2	0.00e+00	0	34	0	27288141824	28	18678
2026-01-27 21:17:12.30	123.50	10.27	-27.2	-27.7	16.2	0.00e+00	0	34	0	27363639296	28	18729
2026-01-27 21:17:13.31	123.71	10.20	-27.4	-27.9	16.1	0.00e+00	0	34	0	27439136768	28	19139
2026-01-27 21:17:14.32	123.92	10.14	-27.4	-27.9	16.1	0.00e+00	0	34	0	27514634240	28	19098
2026-01-27 21:17:15.33	124.13	10.07	-27.3	-27.7	16.2	0.00e+00	0	34	0	27590131712	28	18795
2026-01-27 21:17:16.34	124.34	10.01	-27.3	-27.7	16.1	0.00e+00	0	34	0	27665629184	28	18796
2026-01-27 21:17:17.35	124.54	9.94	-27.4	-27.8	16.1	0.00e+00	0	34	0	27741126656	28	19061
2026-01-27 21:17:18.36	124.74	9.88	-27.4	-27.8	16.1	0.00e+00	0	34	0	27816624128	28	19054
2026-01-27 21:17:19.37	124.95	9.81	-27.5	-27.9	16.1	0.00e+00	0	34	0	27892121600	28	19206
2026-01-27 21:17:20.38	125.15	9.75	-27.6	-28.1	15.9	0.00e+00	0	34	0	27967619072	28	19633
2026-01-27 21:17:21.39	125.35	9.69	-27.5	-27.9	16.0	0.00e+00	0	34	0	28043116544	28	19265
2026-01-27 21:17:22.40	125.55	9.62	-27.5	-27.9	16.0	0.00e+00	0	34	0	28127002624	28	19269
2026-01-27 21:17:23.41	125.75	9.56	-27.6	-28.1	16.1	0.00e+00	0	34	0	28194111488	28	19557
2026-01-27 21:17:24.42	125.95	9.49	-27.6	-28.1	16.0	0.00e+00	0	34	0	28269608960	28	19674
2026-01-27 21:17:25.43	126.14	9.43	-27.7	-28.1	15.9	0.00e+00	0	34	0	28345106432	28	19674
2026-01-27 21:17:26.43	126.34	9.36	-27.5	-28.0	15.9	0.00e+00	0	34	0	28420603904	28	19396
2026-01-27 21:17:27.44	126.53	9.30	-27.5	-27.9	15.9	0.00e+00	0	34	0	28504489984	28	19201
2026-01-27 21:17:28.45	126.73	9.23	-27.8	-28.2	15.9	0.00e+00	0	34	0	28579987456	30	17725
2026-01-27 21:17:29.46	126.92	9.17	-27.5	-28.0	15.9	0.00e+00	0	34	0	28655484928	30	17227
2026-01-27 21:17:30.47	127.11	9.10	-27.6	-28.1	15.8	0.00e+00	0	34	0	28722593792	30	17468
2026-01-27 21:17:31.48	127.30	9.04	-27.8	-28.2	15.9	0.00e+00	0	34	0	28798091264	30	17790
2026-01-27 21:17:32.49	127.49	8.97	-27.7	-28.2	16.0	0.00e+00	0	34	0	28881977344	30	17687
2026-01-27 21:17:33.50	127.68	8.91	-27.9	-28.3	16.0	0.00e+00	0	34	0	28957474816	30	17942
2026-01-27 21:17:34.51	127.87	8.84	-27.9	-28.3	16.0	0.00e+00	0	34	0	29032972288	30	17946
2026-01-27 21:17:35.52	128.05	8.78	-28.0	-28.4	16.0	0.00e+00	0	34	0	29108469760	30	18159
2026-01-27 21:17:36.53	128.24	8.71	-27.9	-28.4	16.0	0.00e+00	0	34	0	29183967232	30	18021
2026-01-27 21:17:37.54	128.42	8.65	-27.7	-28.2	16.1	0.00e+00	0	34	0	29259464704	30	17686
2026-01-27 21:17:38.55	128.61	8.58	-27.8	-28.2	16.0	0.00e+00	0	34	0	29334962176	30	17740
2026-01-27 21:17:39.56	128.79	8.52	-27.9	-28.3	16.0	0.00e+00	0	34	0	29410459648	30	17923
2026-01-27 21:17:40.58	128.97	8.45	-28.0	-28.5	15.9	0.00e+00	0	34	0	29485957120	30	18227
2026-01-27 21:17:41.59	129.15	8.39	-28.0	-28.4	16.0	0.00e+00	0	34	0	29561454592	30	18174
2026-01-27 21:17:42.60	129.33	8.32	-27.8	-28.3	15.9	0.00e+00	0	34	0	29636952064	30	17876
2026-01-27 21:17:43.61	129.51	8.26	-27.9	-28.4	15.9	0.00e+00	0	34	0	29712449536	30	18046
2026-01-27 21:17:44.62	129.69	8.19	-28.1	-28.6	15.9	0.00e+00	0	34	0	29787947008	30	18537
2026-01-27 21:17:45.63	129.87	8.13	-28.1	-28.5	15.9	0.00e+00	0	34	0	29863444480	30	18378
2026-01-27 21:17:46.64	130.04	8.06	-28.3	-28.7	15.8	0.00e+00	0	34	0	29938941952	30	18847
2026-01-27 21:17:47.65	130.22	8.00	-28.2	-28.6	15.8	0.00e+00	0	34	0	30014439424	30	18594
2026-01-27 21:17:48.66	130.39	7.93	-27.9	-28.4	15.9	0.00e+00	0	34	0	30089936896	30	18102
2026-01-27 21:17:49.67	130.56	7.87	-28.2	-28.7	15.8	0.00e+00	0	34	0	30165434368	30	18675
2026-01-27 21:17:50.68	130.74	7.80	-28.2	-28.6	15.9	0.00e+00	0	34	0	30240931840	30	18570
2026-01-27 21:17:51.68	130.91	7.74	-28.3	-28.8	15.8	0.00e+00	0	34	0	30316429312	30	18908
2026-01-27 21:17:52.69	131.08	7.68	-28.6	-29.1	15.7	0.00e+00	0	34	0	30391926784	30	19659
2026-01-27 21:17:53.70	131.25	7.61	-28.2	-28.7	15.9	0.00e+00	0	34	0	30467424256	30	18646
2026-01-27 21:17:54.71	131.41	7.55	-28.2	-28.7	15.9	0.00e+00	0	34	0	30542921728	30	18765
2026-01-27 21:17:55.72	131.58	7.48	-28.3	-28.8	15.8	0.00e+00	0	34	0	30618419200	30	18899
2026-01-27 21:17:56.73	131.75	7.42	-28.3	-28.7	15.8	0.00e+00	0	34	0	30693916672	30	18814
2026-01-27 21:17:57.74	131.91	7.35	-28.7	-29.2	15.7	0.00e+00	0	34	0	30769414144	30	19799
2026-01-27 21:17:58.75	132.08	7.29	-28.6	-29.1	15.6	0.00e+00	0	34	0	30844911616	30	19533
2026-01-27 21:17:59.76	132.24	7.22	-28.7	-29.1	15.7	0.00e+00	0	34	0	30920409088	32	17600
2026-01-27 21:18:00.77	132.41	7.16	-28.7	-29.1	15.6	0.00e+00	0	34	0	30995906560	32	17566
2026-01-27 21:18:01.78	132.57	7.09	-28.3	-28.8	15.8	0.00e+00	0	34	0	31071404032	32	16851
2026-01-27 21:18:02.79	132.73	7.03	-28.1	-28.5	15.8	0.00e+00	0	34	0	31146901504	32	16393
2026-01-27 21:18:03.79	132.89	6.97	-28.5	-29.0	15.7	0.00e+00	0	34	0	31230787584	32	17252
2026-01-27 21:18:04.80	133.05	6.90	-28.3	-28.8	15.8	0.00e+00	0	34	0	31306285056	32	16905
2026-01-27 21:18:05.81	133.21	6.84	-28.4	-28.9	15.7	0.00e+00	0	34	0	31373393920	32	17010
2026-01-27 21:18:06.82	133.37	6.77	-28.5	-29.0	15.6	0.00e+00	0	34	0	31448891392	32	17263
2026-01-27 21:18:07.83	133.52	6.71	-28.8	-29.3	15.6	0.00e+00	0	34	0	31524388864	32	17904
2026-01-27 21:18:08.84	133.68	6.65	-28.7	-29.2	15.7	0.00e+00	0	34	0	31599886336	32	17609
2026-01-27 21:18:09.85	133.84	6.58	-28.6	-29.1	15.6	0.00e+00	0	34	0	31683772416	32	17437
2026-01-27 21:18:10.86	133.99	6.52	-28.8	-29.3	15.6	0.00e+00	0	34	0	31759269888	32	17912
2026-01-27 21:18:11.86	134.14	6.46	-28.4	-28.8	15.8	0.00e+00	0	34	0	31834767360	32	16979
2026-01-27 21:18:12.87	134.30	6.39	-28.8	-29.3	15.6	0.00e+00	0	34	0	31910264832	32	17907
2026-01-27 21:18:13.88	134.45	6.33	-28.8	-29.3	15.6	0.00e+00	0	34	0	31977373696	32	17905
2026-01-27 21:18:14.89	134.60	6.26	-29.0	-29.5	15.5	0.00e+00	0	34	0	32052871168	32	18271
2026-01-27 21:18:15.90	134.75	6.20	-29.1	-29.6	15.5	0.00e+00	0	34	0	32136757248	32	18468
2026-01-27 21:18:16.91	134.90	6.14	-28.7	-29.1	15.6	0.00e+00	0	34	0	32212254720	32	17503
2026-01-27 21:18:17.92	135.05	6.07	-47.8	-50.3	3.6	0.00e+00	0	34	104	32229031936	60	40068
2026-01-27 21:18:18.93	135.20	6.01	-47.9	-50.4	3.6	0.00e+00	0	34	104	32229031936	60	40529
2026-01-27 21:18:19.93	135.34	5.95	-47.9	-50.4	3.6	0.00e+00	0	34	104	32229031936	60	40442
2026-01-27 21:18:20.94	135.49	5.88	-47.9	-50.4	3.6	0.00e+00	0	34	104	32229031936	60	40458
2026-01-27 21:18:21.95	135.64	5.82	-47.8	-50.3	3.6	0.00e+00	0	34	104	32229031936	60	40212
2026-01-27 21:18:22.96	135.78	5.76	-47.8	-50.2	3.6	0.00e+00	0	34	104	32229031936	60	39807
2026-01-27 21:18:23.97	135.93	5.70	-47.9	-50.4	3.6	0.00e+00	0	34	104	32229031936	60	40381
2026-01-27 21:18:24.98	136.07	5.63	-47.9	-50.3	3.6	0.00e+00	0	34	104	32229031936	60	40222
2026-01-27 21:18:25.99	136.21	5.57	-47.9	-50.4	3.6	0.00e+00	0	34	104	32229031936	60	40521
2026-01-27 21:18:27.00	136.36	5.51	-47.7	-50.2	3.6	0.00e+00	0	34	104	32229031936	60	39437
2026-01-27 21:18:28.01	136.50	5.44	-47.9	-50.4	3.6	0.00e+00	0	34	104	32229031936	60	40432
2026-01-27 21:18:29.02	136.64	5.38	-47.9	-50.3	3.6	0.00e+00	0	34	104	32229031936	60	40226
2026-01-27 21:18:30.03	136.78	5.32	-47.9	-50.4	3.6	0.00e+00	0	34	104	32229031936	60	40553
2026-01-27 21:18:31.04	136.92	5.26	-47.7	-50.2	3.6	0.00e+00	0	34	104	32229031936	60	39433
2026-01-27 21:18:32.05	137.06	5.19	-47.9	-50.4	3.6	0.00e+00	0	34	104	32229031936	60	40399
2026-01-27 21:18:33.06	137.19	5.13	-47.8	-50.3	3.6	0.00e+00	0	34	104	32229031936	60	39874
2026-01-27 21:18:34.07	137.33	5.07	-47.9	-50.3	3.6	0.00e+00	0	34	104	32229031936	60	40307
2026-01-27 21:18:35.08	137.47	5.01	-47.7	-50.2	3.6	0.00e+00	0	34	104	32229031936	60	39502
2026-01-27 21:18:36.08	137.60	4.95	-47.7	-50.2	3.6	0.00e+00	0	34	104	32229031936	60	39651
2026-01-27 21:18:37.09	137.74	4.88	-47.7	-50.2	3.6	0.00e+00	0	34	104	32229031936	60	39769
2026-01-27 21:18:38.11	137.87	4.82	-47.8	-50.3	3.6	0.00e+00	0	34	104	32229031936	60	40123
2026-01-27 21:18:39.11	138.01	4.76	-47.6	-50.1	3.6	0.00e+00	0	34	104	32229031936	60	39057
2026-01-27 21:18:40.12	138.14	4.70	-47.7	-50.2	3.6	0.00e+00	0	34	104	32229031936	60	39513
2026-01-27 21:18:41.13	138.27	4.64	-47.5	-50.0	3.6	0.00e+00	0	34	104	32229031936	60	38788
2026-01-27 21:18:42.14	138.40	4.58	-47.7	-50.2	3.6	0.00e+00	0	34	104	32229031936	60	39748
2026-01-27 21:18:43.15	138.53	4.51	-47.5	-50.0	3.6	0.00e+00	0	34	104	32229031936	60	38634
2026-01-27 21:18:44.16	138.66	4.45	-47.4	-49.9	3.6	0.00e+00	0	34	104	32229031936	60	38491
2026-01-27 21:18:45.17	138.79	4.39	-47.1	-49.6	3.6	0.00e+00	0	34	104	32229031936	60	36952
2026-01-27 21:18:46.18	138.92	4.33	-47.6	-50.0	3.6	0.00e+00	0	34	104	32229031936	60	38744
2026-01-27 21:18:47.19	139.05	4.27	-47.3	-49.8	3.6	0.00e+00	0	34	104	32229031936	60	37637
2026-01-27 21:18:48.20	139.18	4.21	-46.9	-49.4	3.6	0.00e+00	0	34	104	32229031936	60	36143
2026-01-27 21:18:49.21	139.31	4.15	-46.6	-49.1	3.6	0.00e+00	0	34	104	32229031936	60	34807
2026-01-27 21:18:50.22	139.43	4.09	-47.1	-49.6	3.6	0.00e+00	0	34	104	32229031936	60	37072
2026-01-27 21:18:51.23	139.56	4.02	-46.5	-49.0	3.6	0.00e+00	0	34	104	32229031936	60	34430
2026-01-27 21:18:52.24	139.68	3.96	-45.8	-48.4	3.6	0.00e+00	0	34	104	32229031936	60	32062
2026-01-27 21:18:53.25	139.81	3.90	-45.8	-48.3	3.6	0.00e+00	0	34	104	32229031936	60	31877
2026-01-27 21:18:54.27	139.93	3.84	-45.7	-48.2	3.6	0.00e+00	0	34	104	32229031936	60	31567
2026-01-27 21:18:55.27	140.05	3.78	-45.6	-48.1	3.6	0.00e+00	0	34	104	32229031936	60	31261
2026-01-27 21:18:56.28	140.18	3.72	-45.5	-48.1	3.6	0.00e+00	0	34	104	32229031936	60	31224
2026-01-27 21:18:57.29	140.30	3.66	-45.6	-48.2	3.6	0.00e+00	0	34	104	32229031936	60	31468
2026-01-27 21:18:58.30	140.42	3.60	-45.9	-48.4	3.6	0.00e+00	0	34	104	32229031936	60	32208
2026-01-27 21:18:59.31	140.54	3.54	-45.7	-48.2	3.6	0.00e+00	0	34	104	32229031936	60	31373
2026-01-27 21:19:00.32	140.66	3.48	-45.8	-48.3	3.6	0.00e+00	0	34	104	32229031936	60	31850
2026-01-27 21:19:01.33	140.78	3.42	-45.7	-48.1	3.6	0.00e+00	0	34	104	32229031936	60	31268
2026-01-27 21:19:02.34	140.90	3.36	-45.6	-48.2	3.6	0.00e+00	0	34	104	32229031936	60	31337
2026-01-27 21:19:03.35	141.02	3.30	-45.7	-48.1	3.6	0.00e+00	0	34	104	32229031936	60	31296
2026-01-27 21:19:04.36	141.14	3.24	-45.7	-48.1	3.6	0.00e+00	0	34	104	32229031936	60	31275
2026-01-27 21:19:05.37	141.25	3.18	-45.3	-47.8	3.6	0.00e+00	0	34	104	32229031936	60	30235
2026-01-27 21:19:06.38	141.37	3.12	-45.8	-48.3	3.6	0.00e+00	0	34	104	32229031936	60	31713
2026-01-27 21:19:07.39	141.48	3.06	-45.7	-48.2	3.6	0.00e+00	0	34	104	32229031936	60	31394
2026-01-27 21:19:08.40	141.60	3.00	-45.2	-48.0	3.6	0.00e+00	0	34	104	32229031936	60	30817
2026-01-27 21:19:09.41	141.72	2.94	-47.7	-50.2	3.6	0.00e+00	0	34	104	32229031936	60	39637
2026-01-27 21:19:10.42	141.83	2.88	-48.1	-50.6	3.5	0.00e+00	0	34	104	32229031936	60	41531
2026-01-27 21:19:11.43	141.94	2.83	-48.1	-50.7	3.6	0.00e+00	0	34	104	32229031936	60	41845
2026-01-27 21:19:12.44	142.06	2.77	-48.5	-50.9	3.6	0.00e+00	0	34	104	32229031936	60	43037
2026-01-27 21:19:13.45	142.17	2.71	-48.6	-51.1	3.6	0.00e+00	0	34	104	32229031936	60	43787
2026-01-27 21:19:14.46	142.28	2.65	-48.6	-51.1	3.6	0.00e+00	0	34	104	32229031936	60	43897
2026-01-27 21:19:15.47	142.39	2.59	-48.7	-51.2	3.5	0.00e+00	0	34	104	32229031936	60	44360
2026-01-27 21:19:16.48	142.50	2.53	-48.8	-51.3	3.6	0.00e+00	0	34	104	32229031936	60	44880
2026-01-27 21:19:17.49	142.61	2.47	-48.9	-51.4	3.6	0.00e+00	0	34	104	32229031936	60	45272
2026-01-27 21:19:18.50	142.72	2.41	-48.9	-51.4	3.6	0.00e+00	0	34	104	32229031936	60	45517
2026-01-27 21:19:19.51	142.83	2.36	-48.9	-51.4	3.6	0.00e+00	0	34	104	32229031936	60	45293
2026-01-27 21:19:20.52	142.94	2.30	-48.9	-51.4	3.6	0.00e+00	0	34	104	32229031936	60	45569
2026-01-27 21:19:21.53	143.05	2.24	-48.9	-51.4	3.6	0.00e+00	0	34	104	32229031936	60	45605
2026-01-27 21:19:22.54	143.16	2.18	-49.0	-51.5	3.6	0.00e+00	0	34	104	32229031936	60	45955
2026-01-27 21:19:23.55	143.27	2.12	-49.0	-51.4	3.6	0.00e+00	0	34	104	32229031936	60	45675
2026-01-27 21:19:24.56	143.37	2.06	-48.9	-51.4	3.6	0.00e+00	0	34	104	32229031936	60	45385
2026-01-27 21:19:25.57	143.48	2.01	-49.0	-51.5	3.6	0.00e+00	0	34	104	32229031936	60	45805
2026-01-27 21:19:26.58	143.59	1.95	-49.0	-51.4	3.6	0.00e+00	0	34	104	32229031936	60	45665
2026-01-27 21:19:27.59	143.69	1.89	-48.9	-51.4	3.6	0.00e+00	0	34	104	32229031936	60	45506
2026-01-27 21:19:28.60	143.80	1.83	-49.0	-51.5	3.6	0.00e+00	0	34	104	32229031936	60	45861
2026-01-27 21:19:29.61	143.90	1.78	-48.9	-51.4	3.6	0.00e+00	0	34	104	32229031936	60	45666
2026-01-27 21:19:30.62	144.00	1.72	-49.0	-51.4	3.6	0.00e+00	0	34	104	32229031936	60	45514
2026-01-27 21:19:31.63	144.11	1.66	-48.9	-51.4	3.6	0.00e+00	0	34	104	32229031936	60	45386
2026-01-27 21:19:32.64	144.21	1.60	-48.8	-51.3	3.6	0.00e+00	0	34	104	32229031936	60	44914
2026-01-27 21:19:33.64	144.31	1.55	-48.9	-51.3	3.6	0.00e+00	0	34	104	32229031936	60	45167
2026-01-27 21:19:34.65	144.41	1.49	-48.9	-51.4	3.6	0.00e+00	0	34	104	32229031936	60	45363
2026-01-27 21:19:35.66	144.51	1.43	-48.9	-51.3	3.6	0.00e+00	0	34	104	32229031936	60	45182
2026-01-27 21:19:36.67	144.61	1.38	-48.9	-51.4	3.6	0.00e+00	0	34	104	32229031936	60	45544
2026-01-27 21:19:37.68	144.71	1.32	-48.9	-51.3	3.6	0.00e+00	0	34	104	32229031936	60	45240
2026-01-27 21:19:38.69	144.81	1.26	-48.9	-51.3	3.6	0.00e+00	0	34	104	32229031936	60	45219
2026-01-27 21:19:39.70	144.91	1.21	-48.9	-51.3	3.6	0.00e+00	0	34	104	32229031936	60	45064
2026-01-27 21:19:40.71	145.01	1.15	-48.9	-51.4	3.6	0.00e+00	0	34	104	32229031936	60	45359
2026-01-27 21:19:41.72	145.11	1.09	-48.9	-51.3	3.6	0.00e+00	0	34	104	32229031936	60	45191
2026-01-27 21:19:42.73	145.21	1.04	-48.9	-51.3	3.6	0.00e+00	0	34	104	32229031936	60	45238
2026-01-27 21:19:43.73	145.31	0.98	-48.9	-51.4	3.6	0.00e+00	0	34	104	32229031936	60	45505
2026-01-27 21:19:44.74	145.40	0.92	-48.9	-51.4	3.6	0.00e+00	0	34	104	32229031936	60	45337
2026-01-27 21:19:45.75	145.50	0.87	-48.9	-51.3	3.6	0.00e+00	0	34	104	32229031936	60	45134
2026-01-27 21:19:46.76	145.60	0.81	-48.9	-51.4	3.6	0.00e+00	0	34	104	32229031936	60	45450
2026-01-27 21:19:47.77	145.69	0.76	-48.9	-51.3	3.5	0.00e+00	0	34	104	32229031936	60	44929
2026-01-27 21:19:48.78	145.79	0.70	-48.9	-51.3	3.6	0.00e+00	0	34	104	32229031936	60	45061
2026-01-27 21:19:49.79	145.88	0.64	-48.9	-51.4	3.6	0.00e+00	0	34	104	32229031936	60	45261
2026-01-27 21:19:50.80	145.98	0.59	-48.9	-51.4	3.6	0.00e+00	0	34	104	32229031936	60	45431
2026-01-27 21:19:51.81	146.07	0.53	-48.9	-51.3	3.6	0.00e+00	0	34	104	32229031936	60	45170
2026-01-27 21:19:52.82	146.17	0.48	-48.9	-51.3	3.6	0.00e+00	0	34	104	32229031936	60	45131
2026-01-27 21:19:53.83	146.26	0.42	-48.9	-51.3	3.6	0.00e+00	0	34	104	32229031936	60	45140
2026-01-27 21:19:54.84	146.35	0.37	-48.9	-51.4	3.6	0.00e+00	0	34	104	32229031936	60	45275
2026-01-27 21:19:55.85	146.44	0.31	-48.9	-51.4	3.6	0.00e+00	0	34	104	32229031936	60	45336
2026-01-27 21:19:56.86	146.54	0.26	-48.9	-51.4	3.6	0.00e+00	0	34	104	32229031936	60	45390
2026-01-27 21:19:57.87	146.63	0.20	-48.9	-51.4	3.5	0.00e+00	0	34	104	32229031936	60	45284
2026-01-27 21:19:58.88	146.72	0.15	-48.9	-51.3	3.6	0.00e+00	0	34	104	32229031936	60	45215
2026-01-27 21:19:59.89	146.81	0.09	-48.9	-51.4	3.6	0.00e+00	0	34	104	32229031936	60	45340
2026-01-27 21:20:00.90	146.90	0.04	-48.9	-51.3	3.6	0.00e+00	0	34	104	32229031936	60	44958
2026-01-27 21:20:01.91	146.99	-0.02	-48.9	-51.3	3.6	0.00e+00	0	34	104	32229031936	60	45213
2026-01-27 21:20:02.92	147.08	-0.07	-48.9	-51.3	3.6	0.00e+00	0	34	104	32229031936	60	45129

#Closed at: 2026-01-27 21:20:03
#Recorded file [32229 MB]: D:/lorett/data/35029_260128_090948.dat