passes_logs/2026/01/27/R4.6S_Anadyr/R4.6S_Anadyr__20260127_191910_SUOMI_NPP_rec.log

#Pass ID: 20260127_191910_SUOMI NPP
#Satellite: SUOMI NPP
#Configuration: NPP
#almurnet v.1.7.20251203
#Start time: 2026-01-27 19:19:13

#Version: 2.2.20231116
#Station: R4.6S_Anadyr
#Location: 177.4865 lon 64.73178 lat
#TLE: 1 37849U 11061A   26026.87508736  .00000176  00000+0  10464-3 0  9991
#TLE: 2 37849  98.7822 328.8221 0002127  43.3055 316.8288 14.19530452738397

#Time	Az	El	Level	Level2	SNR	BER	BlckErr	Temp	State	Recorded	gain1	gain2
2026-01-27 19:19:13.74	50.28	0.16	-48.4	-62.3	3.3	1.54e+00	0	31	0	0	60	47034
2026-01-27 19:19:14.75	50.21	0.21	-48.5	-63.8	3.6	1.51e+00	0	31	104	0	60	55751
2026-01-27 19:19:15.76	50.13	0.26	-48.5	-63.7	3.6	1.51e+00	0	31	104	0	60	55609
2026-01-27 19:19:16.77	50.05	0.31	-48.5	-63.7	3.6	1.51e+00	0	31	104	0	60	55561
2026-01-27 19:19:17.78	49.98	0.36	-48.6	-63.7	3.6	1.51e+00	0	31	104	0	60	55568
2026-01-27 19:19:18.79	49.90	0.41	-48.6	-63.8	3.6	1.51e+00	0	31	104	0	60	56116
2026-01-27 19:19:19.80	49.82	0.46	-48.6	-63.8	3.6	1.51e+00	0	31	104	0	60	55910
2026-01-27 19:19:20.81	49.74	0.51	-48.6	-63.8	3.6	1.51e+00	0	31	104	0	60	56099
2026-01-27 19:19:21.82	49.67	0.56	-48.6	-63.8	3.6	1.51e+00	0	31	104	0	60	56178
2026-01-27 19:19:22.83	49.59	0.61	-48.6	-63.8	3.6	1.51e+00	0	31	104	0	60	55677
2026-01-27 19:19:23.84	49.51	0.66	-48.6	-63.8	3.6	1.51e+00	0	31	104	0	60	55722
2026-01-27 19:19:24.85	49.43	0.71	-48.5	-63.8	3.6	1.51e+00	0	31	104	0	60	55688
2026-01-27 19:19:25.86	49.35	0.76	-48.5	-63.7	3.6	1.51e+00	0	31	104	0	60	55225
2026-01-27 19:19:26.87	49.27	0.81	-48.5	-63.7	3.6	1.51e+00	0	31	104	0	60	55205
2026-01-27 19:19:27.88	49.19	0.85	-48.5	-63.7	3.6	1.51e+00	0	31	104	0	60	55309
2026-01-27 19:19:28.89	49.11	0.90	-48.4	-63.6	3.6	1.51e+00	0	31	104	0	60	54846
2026-01-27 19:19:29.90	49.03	0.95	-48.3	-63.6	3.6	1.51e+00	0	31	104	0	60	54558
2026-01-27 19:19:30.91	48.95	1.00	-48.3	-63.5	3.6	1.51e+00	0	31	104	0	60	53950
2026-01-27 19:19:31.92	48.87	1.05	-48.2	-63.4	3.6	1.51e+00	0	31	104	0	60	53536
2026-01-27 19:19:32.93	48.79	1.10	-48.1	-63.3	3.6	1.51e+00	0	31	104	0	60	52565
2026-01-27 19:19:33.94	48.70	1.15	-47.9	-63.1	3.6	1.51e+00	0	31	104	0	60	51501
2026-01-27 19:19:34.95	48.62	1.20	-47.6	-62.8	3.6	1.51e+00	0	31	104	0	60	50150
2026-01-27 19:19:35.96	48.54	1.25	-46.9	-62.1	3.6	1.51e+00	0	31	104	0	60	45786
2026-01-27 19:19:36.97	48.46	1.30	-46.9	-62.0	3.6	1.51e+00	0	31	104	0	60	45486
2026-01-27 19:19:37.98	48.37	1.35	-46.9	-62.0	3.6	1.51e+00	0	31	104	0	60	45615
2026-01-27 19:19:38.99	48.29	1.40	-46.8	-62.1	3.6	1.51e+00	0	31	104	0	60	45822
2026-01-27 19:19:40.00	48.21	1.45	-46.9	-62.0	3.5	1.51e+00	0	31	104	0	60	45596
2026-01-27 19:19:41.01	48.12	1.50	-46.8	-62.0	3.6	1.51e+00	0	31	104	0	60	45763
2026-01-27 19:19:42.02	48.04	1.55	-46.8	-62.1	3.6	1.51e+00	0	31	104	0	60	45843
2026-01-27 19:19:43.03	47.96	1.60	-46.8	-62.1	3.6	1.51e+00	0	31	104	0	60	45845
2026-01-27 19:19:44.04	47.87	1.65	-46.9	-62.0	3.6	1.51e+00	0	31	104	0	60	45685
2026-01-27 19:19:45.05	47.79	1.70	-46.8	-62.0	3.6	1.51e+00	0	31	104	0	60	45689
2026-01-27 19:19:46.06	47.70	1.75	-46.9	-62.0	3.6	1.51e+00	0	31	104	0	60	45717
2026-01-27 19:19:47.07	47.62	1.80	-46.8	-62.0	3.6	1.51e+00	0	31	104	0	60	45588
2026-01-27 19:19:48.08	47.53	1.85	-46.9	-62.1	3.6	1.51e+00	0	31	104	0	60	45838
2026-01-27 19:19:49.09	47.44	1.90	-46.8	-62.1	3.6	1.51e+00	0	31	104	0	60	45902
2026-01-27 19:19:50.10	47.36	1.95	-46.8	-62.0	3.6	1.51e+00	0	31	104	0	60	45540
2026-01-27 19:19:51.11	47.27	2.00	-46.9	-62.0	3.6	1.51e+00	0	31	104	0	60	45547
2026-01-27 19:19:52.12	47.18	2.05	-46.8	-62.0	3.6	1.51e+00	0	31	104	0	60	45387
2026-01-27 19:19:53.13	47.10	2.10	-46.8	-61.9	3.6	1.51e+00	0	31	104	0	60	45229
2026-01-27 19:19:54.13	47.01	2.15	-46.8	-61.9	3.6	1.51e+00	0	31	104	0	60	45027
2026-01-27 19:19:55.15	46.92	2.20	-46.8	-61.9	3.6	1.51e+00	0	31	104	0	60	44953
2026-01-27 19:19:56.16	46.83	2.25	-46.8	-61.9	3.6	1.51e+00	0	31	104	0	60	45128
2026-01-27 19:19:57.16	46.75	2.30	-46.8	-61.9	3.6	1.51e+00	0	32	104	0	60	45146
2026-01-27 19:19:58.17	46.66	2.35	-46.8	-62.0	3.6	1.51e+00	0	31	104	0	60	45568
2026-01-27 19:19:59.18	46.57	2.40	-46.8	-62.0	3.6	1.51e+00	0	31	104	0	60	45304
2026-01-27 19:20:00.19	46.48	2.45	-46.8	-61.9	3.6	1.51e+00	0	31	104	0	60	44904
2026-01-27 19:20:01.20	46.39	2.50	-46.8	-61.9	3.6	1.51e+00	0	32	104	0	60	45232
2026-01-27 19:20:02.21	46.30	2.55	-46.8	-62.0	3.6	1.51e+00	0	32	104	0	60	45637
2026-01-27 19:20:03.22	46.21	2.60	-46.8	-61.9	3.6	1.51e+00	0	31	104	0	60	44962
2026-01-27 19:20:04.23	46.12	2.65	-46.8	-61.6	3.6	1.51e+00	0	32	104	0	60	43232
2026-01-27 19:20:05.24	46.03	2.71	-46.8	-61.2	3.6	1.51e+00	0	31	104	0	60	41518
2026-01-27 19:20:06.25	45.93	2.76	-46.8	-61.6	3.6	1.51e+00	0	32	104	0	60	43420
2026-01-27 19:20:07.26	45.84	2.81	-46.8	-61.6	3.6	1.51e+00	0	32	104	0	60	43493
2026-01-27 19:20:08.27	45.75	2.86	-46.7	-58.7	3.7	1.51e+00	0	32	104	0	60	30968
2026-01-27 19:20:09.28	45.66	2.91	-46.1	-53.7	7.0	9.23e-01	90	32	104	0	60	17483
2026-01-27 19:20:10.29	45.57	2.96	-45.2	-50.2	10.3	1.06e-02	0	32	0	1048576	60	11741
2026-01-27 19:20:11.30	45.47	3.01	-44.4	-48.2	12.8	1.12e-03	0	32	0	3145728	60	9320
2026-01-27 19:20:12.31	45.38	3.06	-43.9	-47.2	13.7	1.14e-05	92	31	0	5242880	60	8296
2026-01-27 19:20:13.31	45.29	3.11	-45.1	-49.6	11.6	1.21e-02	0	32	0	7340032	60	10866
2026-01-27 19:20:14.32	45.19	3.16	-43.5	-46.2	15.4	1.04e-02	92	32	0	8388608	60	7381
2026-01-27 19:20:15.33	45.10	3.21	-46.8	-61.6	3.5	1.09e+00	0	32	104	9437184	60	43308
2026-01-27 19:20:16.34	45.00	3.26	-45.8	-52.2	5.3	1.48e+00	0	32	104	9437184	60	14767
2026-01-27 19:20:17.35	44.91	3.31	-43.9	-47.3	13.4	2.62e-01	0	32	104	9437184	60	8339
2026-01-27 19:20:18.36	44.81	3.36	-42.9	-45.4	15.7	0.00e+00	0	32	0	10485760	60	6756
2026-01-27 19:20:19.37	44.72	3.41	-43.3	-46.2	15.0	0.00e+00	92	32	0	12582912	58	8267
2026-01-27 19:20:20.38	44.62	3.46	-43.2	-45.9	15.2	7.00e-07	0	32	0	14680064	58	8006
2026-01-27 19:20:21.39	44.52	3.52	-42.8	-45.4	15.5	0.00e+00	44	32	0	15728640	58	7529
2026-01-27 19:20:22.40	44.43	3.57	-42.3	-44.6	16.5	0.00e+00	0	32	0	17825792	58	6856
2026-01-27 19:20:23.41	44.33	3.62	-42.3	-44.5	16.5	0.00e+00	80	32	0	19922944	58	6829
2026-01-27 19:20:24.42	44.23	3.67	-42.1	-44.3	16.4	0.00e+00	0	32	0	22020096	58	6684
2026-01-27 19:20:25.43	44.14	3.72	-42.1	-44.3	16.6	0.00e+00	11	32	0	24117248	58	6672
2026-01-27 19:20:26.44	44.04	3.77	-42.5	-44.9	16.1	0.00e+00	69	32	0	25165824	58	7094
2026-01-27 19:20:27.44	43.94	3.82	-42.2	-44.4	17.1	0.00e+00	0	32	0	27262976	58	6700
2026-01-27 19:20:28.45	43.84	3.87	-42.2	-44.4	17.1	0.00e+00	35	32	0	29360128	58	6712
2026-01-27 19:20:29.46	43.74	3.92	-41.8	-43.8	17.4	0.00e+00	0	32	0	31457280	56	7036
2026-01-27 19:20:30.47	43.64	3.97	-41.4	-43.3	17.8	0.00e+00	92	32	0	33554432	56	6624
2026-01-27 19:20:31.48	43.54	4.02	-41.6	-43.4	17.7	0.00e+00	0	32	0	34603008	56	6728
2026-01-27 19:20:32.49	43.44	4.08	-41.9	-43.9	17.4	0.00e+00	69	32	0	36700160	56	7101
2026-01-27 19:20:33.50	43.34	4.13	-41.5	-43.4	17.9	0.00e+00	90	31	0	38797312	56	6726
2026-01-27 19:20:34.50	43.24	4.18	-41.7	-43.6	17.6	0.00e+00	0	32	0	40894464	56	6890
2026-01-27 19:20:35.51	43.14	4.23	-42.0	-44.1	17.1	0.00e+00	42	32	0	42991616	56	7290
2026-01-27 19:20:36.53	43.04	4.28	-42.0	-44.0	17.2	0.00e+00	0	32	0	44040192	56	7227
2026-01-27 19:20:37.54	42.93	4.33	-41.6	-43.5	17.7	0.00e+00	70	32	0	46137344	56	6785
2026-01-27 19:20:38.54	42.83	4.38	-41.4	-43.2	18.2	0.00e+00	0	32	0	48234496	56	6557
2026-01-27 19:20:39.55	42.73	4.43	-41.5	-43.3	18.3	0.00e+00	63	32	0	50331648	56	6626
2026-01-27 19:20:40.56	42.63	4.48	-41.7	-43.5	18.0	0.00e+00	57	32	0	52428800	56	6847
2026-01-27 19:20:41.57	42.52	4.53	-41.5	-43.3	18.1	0.00e+00	0	32	0	53477376	56	6666
2026-01-27 19:20:42.58	42.42	4.59	-41.6	-43.4	18.1	0.00e+00	92	32	0	55574528	56	6757
2026-01-27 19:20:43.59	42.32	4.64	-41.5	-43.3	18.2	0.00e+00	0	32	0	57671680	56	6643
2026-01-27 19:20:44.60	42.21	4.69	-41.6	-43.4	18.0	0.00e+00	91	32	0	59768832	56	6764
2026-01-27 19:20:45.61	42.11	4.74	-41.3	-43.0	18.4	0.00e+00	0	32	0	61865984	56	6429
2026-01-27 19:20:46.62	42.00	4.79	-41.8	-43.6	17.8	0.00e+00	92	32	0	62914560	56	6921
2026-01-27 19:20:47.62	41.90	4.84	-42.1	-44.1	17.3	0.00e+00	0	32	0	65011712	56	7336
2026-01-27 19:20:48.63	41.79	4.89	-42.0	-43.9	17.6	0.00e+00	0	32	0	67108864	56	7145
2026-01-27 19:20:49.64	41.68	4.94	-41.9	-43.8	17.7	0.00e+00	67	32	0	69206016	56	7024
2026-01-27 19:20:50.65	41.58	4.99	-41.8	-43.7	17.8	0.00e+00	0	32	0	71303168	56	6950
2026-01-27 19:20:51.66	41.47	5.05	-41.5	-43.3	18.2	0.00e+00	42	32	0	73400320	56	6626
2026-01-27 19:20:52.67	41.36	5.10	-41.2	-42.8	18.5	0.00e+00	0	32	0	74448896	56	6308
2026-01-27 19:20:53.68	41.25	5.15	-41.5	-43.4	18.0	0.00e+00	90	32	0	76546048	56	6702
2026-01-27 19:20:54.69	41.14	5.20	-41.1	-42.8	18.7	0.00e+00	0	32	0	78643200	56	6273
2026-01-27 19:20:55.70	41.03	5.25	-41.6	-43.5	18.1	0.00e+00	0	32	0	80740352	56	6791
2026-01-27 19:20:56.71	40.92	5.30	-41.4	-43.1	18.2	0.00e+00	66	32	0	82837504	56	6489
2026-01-27 19:20:57.71	40.82	5.35	-41.6	-43.4	18.4	0.00e+00	0	32	0	83886080	56	6732
2026-01-27 19:20:58.72	40.71	5.40	-41.9	-43.9	17.6	0.00e+00	43	32	0	85983232	56	7090
2026-01-27 19:20:59.73	40.60	5.45	-41.3	-43.0	18.6	0.00e+00	0	32	0	88080384	56	6434
2026-01-27 19:21:00.74	40.48	5.51	-41.2	-42.8	18.8	0.00e+00	92	32	0	90177536	56	6311
2026-01-27 19:21:01.74	40.37	5.56	-41.0	-42.7	18.9	0.00e+00	0	32	0	91226112	56	6181
2026-01-27 19:21:02.75	40.26	5.61	-41.0	-42.7	18.7	0.00e+00	70	32	0	93323264	54	6942
2026-01-27 19:21:03.76	40.15	5.66	-40.8	-42.4	19.0	0.00e+00	92	32	0	95420416	54	6748
2026-01-27 19:21:04.77	40.04	5.71	-40.7	-42.2	19.1	0.00e+00	0	32	0	97517568	54	6578
2026-01-27 19:21:05.77	39.93	5.76	-40.7	-42.3	19.0	0.00e+00	90	32	0	99614720	54	6632
2026-01-27 19:21:06.79	39.81	5.81	-41.0	-42.7	19.1	0.00e+00	0	32	0	101711872	54	6938
2026-01-27 19:21:07.79	39.70	5.86	-40.1	-41.5	19.9	0.00e+00	71	32	0	102760448	54	6067
2026-01-27 19:21:08.80	39.58	5.91	-40.1	-41.5	19.9	0.00e+00	0	32	0	104857600	54	6039
2026-01-27 19:21:09.80	39.47	5.96	-40.3	-41.7	19.8	0.00e+00	0	32	0	106954752	54	6216
2026-01-27 19:21:10.81	39.36	6.02	-40.1	-41.5	19.8	0.00e+00	0	32	0	109051904	54	6070
2026-01-27 19:21:11.82	39.24	6.07	-40.0	-41.4	20.0	0.00e+00	0	32	0	111149056	54	5999
2026-01-27 19:21:12.83	39.13	6.12	-40.5	-41.9	19.6	0.00e+00	69	32	0	112197632	54	6365
2026-01-27 19:21:13.84	39.01	6.17	-40.2	-41.6	19.9	0.00e+00	0	32	0	114294784	54	6135
2026-01-27 19:21:14.85	38.89	6.22	-40.1	-41.4	20.0	0.00e+00	72	32	0	116391936	54	6008
2026-01-27 19:21:15.86	38.78	6.27	-40.3	-41.7	19.8	0.00e+00	0	32	0	118489088	54	6211
2026-01-27 19:21:16.86	38.66	6.32	-40.1	-41.5	19.9	0.00e+00	92	32	0	120586240	54	6054
2026-01-27 19:21:17.87	38.54	6.37	-40.0	-41.3	20.1	0.00e+00	17	32	0	121634816	54	5928
2026-01-27 19:21:18.88	38.42	6.42	-40.1	-41.4	19.9	0.00e+00	0	32	0	123731968	54	6020
2026-01-27 19:21:19.89	38.30	6.48	-40.2	-41.5	19.8	0.00e+00	92	32	0	125829120	54	6094
2026-01-27 19:21:20.90	38.18	6.53	-40.2	-41.6	19.8	0.00e+00	0	32	0	127926272	54	6149
2026-01-27 19:21:21.90	38.07	6.58	-40.4	-41.8	19.8	0.00e+00	92	32	0	130023424	54	6287
2026-01-27 19:21:22.91	37.95	6.63	-40.4	-41.8	19.5	0.00e+00	0	32	0	131072000	54	6288
2026-01-27 19:21:23.92	37.83	6.68	-40.5	-42.0	19.5	0.00e+00	92	32	0	133169152	54	6417
2026-01-27 19:21:24.93	37.70	6.73	-40.7	-42.2	19.3	0.00e+00	0	32	0	135266304	54	6565
2026-01-27 19:21:25.93	37.58	6.78	-40.4	-41.8	19.8	0.00e+00	0	32	0	137363456	54	6251
2026-01-27 19:21:26.94	37.46	6.83	-40.4	-41.8	19.9	0.00e+00	92	32	0	139460608	54	6278
2026-01-27 19:21:27.95	37.34	6.88	-40.4	-41.8	19.7	0.00e+00	0	32	0	140509184	54	6256
2026-01-27 19:21:28.96	37.22	6.93	-40.3	-41.7	19.8	0.00e+00	44	32	0	142606336	54	6198
2026-01-27 19:21:29.97	37.09	6.98	-40.6	-42.1	19.5	0.00e+00	0	32	0	144703488	54	6512
2026-01-27 19:21:30.97	36.97	7.03	-40.8	-42.3	19.5	0.00e+00	80	32	0	146800640	54	6679
2026-01-27 19:21:31.98	36.85	7.08	-40.4	-41.8	19.7	0.00e+00	0	32	0	148897792	54	6298
2026-01-27 19:21:32.99	36.72	7.14	-40.7	-42.2	19.5	0.00e+00	0	32	0	149946368	54	6598
2026-01-27 19:21:34.00	36.60	7.19	-40.5	-41.9	19.8	0.00e+00	48	32	0	152043520	54	6335
2026-01-27 19:21:35.01	36.47	7.24	-40.4	-41.8	19.7	0.00e+00	0	32	0	154140672	54	6279
2026-01-27 19:21:36.02	36.35	7.29	-40.5	-41.9	19.8	0.00e+00	10	32	0	156237824	54	6339
2026-01-27 19:21:37.02	36.22	7.34	-40.4	-41.9	19.8	0.00e+00	0	32	0	158334976	54	6336
2026-01-27 19:21:38.04	36.09	7.39	-40.7	-42.2	19.5	0.00e+00	92	32	0	159383552	54	6562
2026-01-27 19:21:39.04	35.97	7.44	-40.8	-42.4	19.2	0.00e+00	0	32	0	161480704	54	6708
2026-01-27 19:21:40.05	35.84	7.49	-40.5	-42.0	19.6	0.00e+00	18	32	0	163577856	54	6435
2026-01-27 19:21:41.06	35.71	7.54	-40.5	-41.9	19.7	0.00e+00	92	32	0	165675008	54	6365
2026-01-27 19:21:42.07	35.58	7.59	-40.6	-42.0	19.7	0.00e+00	0	32	0	167772160	54	6461
2026-01-27 19:21:43.08	35.46	7.64	-40.4	-41.8	19.7	0.00e+00	40	32	0	168820736	54	6293
2026-01-27 19:21:44.09	35.33	7.69	-40.1	-41.5	20.2	0.00e+00	0	32	0	170917888	54	6076
2026-01-27 19:21:45.10	35.20	7.74	-40.3	-41.7	19.9	0.00e+00	40	32	0	173015040	54	6223
2026-01-27 19:21:46.11	35.07	7.79	-40.4	-41.7	19.9	0.00e+00	0	32	0	175112192	54	6237
2026-01-27 19:21:47.12	34.94	7.84	-40.1	-41.5	20.1	0.00e+00	84	32	0	177209344	54	6041
2026-01-27 19:21:48.13	34.80	7.89	-40.2	-41.6	20.1	0.00e+00	0	32	0	178257920	54	6141
2026-01-27 19:21:49.14	34.67	7.94	-40.1	-41.5	20.2	0.00e+00	0	32	0	180355072	54	6060
2026-01-27 19:21:50.15	34.54	7.99	-39.9	-41.2	20.4	0.00e+00	92	32	0	182452224	54	5832
2026-01-27 19:21:51.16	34.41	8.04	-40.0	-41.3	20.3	0.00e+00	0	32	0	184549376	54	5939
2026-01-27 19:21:52.17	34.27	8.09	-40.1	-41.4	20.2	0.00e+00	92	32	0	186646528	54	5970
2026-01-27 19:21:53.17	34.14	8.14	-40.2	-41.5	20.1	0.00e+00	0	32	0	188743680	54	6080
2026-01-27 19:21:54.18	34.01	8.19	-40.2	-41.6	20.0	0.00e+00	92	32	0	189792256	54	6134
2026-01-27 19:21:55.19	33.87	8.24	-40.0	-41.3	20.4	0.00e+00	0	32	0	191889408	54	5919
2026-01-27 19:21:56.20	33.74	8.29	-39.8	-41.1	20.5	0.00e+00	0	32	0	193986560	54	5783
2026-01-27 19:21:57.21	33.60	8.34	-39.7	-41.0	20.6	0.00e+00	92	32	0	196083712	52	6410
2026-01-27 19:21:58.22	33.47	8.39	-39.9	-41.2	20.5	0.00e+00	0	32	0	198180864	52	6555
2026-01-27 19:21:59.23	33.33	8.44	-40.1	-41.4	20.3	0.00e+00	48	32	0	199229440	52	6717
2026-01-27 19:22:00.24	33.19	8.49	-40.3	-41.7	20.0	0.00e+00	0	32	0	201326592	52	6951
2026-01-27 19:22:01.25	33.06	8.54	-40.3	-41.7	19.9	0.00e+00	92	32	0	203423744	52	6941
2026-01-27 19:22:02.26	32.92	8.59	-40.6	-42.1	19.7	0.00e+00	0	32	0	205520896	52	7273
2026-01-27 19:22:03.27	32.78	8.64	-40.6	-42.1	19.7	0.00e+00	0	32	0	207618048	52	7258
2026-01-27 19:22:04.28	32.64	8.69	-40.7	-42.1	19.6	0.00e+00	48	32	0	208666624	52	7317
2026-01-27 19:22:05.29	32.50	8.74	-40.4	-41.8	19.9	0.00e+00	0	32	0	210763776	54	6307
2026-01-27 19:22:06.30	32.36	8.79	-40.5	-42.0	19.7	0.00e+00	92	32	0	212860928	54	6424
2026-01-27 19:22:07.31	32.22	8.84	-40.4	-41.8	19.8	0.00e+00	0	32	0	214958080	54	6317
2026-01-27 19:22:08.32	32.08	8.88	-40.4	-41.8	19.9	0.00e+00	0	32	0	217055232	54	6289
2026-01-27 19:22:09.33	31.94	8.93	-40.3	-41.7	20.0	0.00e+00	0	32	0	218103808	54	6181
2026-01-27 19:22:10.34	31.80	8.98	-40.7	-42.2	19.5	0.00e+00	0	32	0	220200960	54	6586
2026-01-27 19:22:11.34	31.66	9.03	-40.2	-41.5	20.1	0.00e+00	24	32	0	222298112	54	6095
2026-01-27 19:22:12.35	31.52	9.08	-40.1	-41.5	20.3	0.00e+00	0	32	0	224395264	54	6063
2026-01-27 19:22:13.36	31.37	9.13	-40.3	-41.7	20.0	0.00e+00	92	32	0	226492416	54	6176
2026-01-27 19:22:14.37	31.23	9.18	-40.3	-41.7	20.2	0.00e+00	0	32	0	227540992	54	6187
2026-01-27 19:22:15.38	31.09	9.23	-40.4	-41.8	20.1	0.00e+00	0	32	0	229638144	54	6247
2026-01-27 19:22:16.39	30.94	9.27	-40.1	-41.4	20.3	0.00e+00	0	32	0	231735296	54	6008
2026-01-27 19:22:17.40	30.80	9.32	-39.8	-41.1	20.6	0.00e+00	0	32	0	233832448	54	5780
2026-01-27 19:22:18.40	30.65	9.37	-39.6	-40.9	20.8	0.00e+00	26	32	0	235929600	52	6323
2026-01-27 19:22:19.41	30.51	9.42	-39.5	-40.7	20.9	0.00e+00	0	32	0	236978176	52	6236
2026-01-27 19:22:20.42	30.36	9.47	-39.5	-40.7	21.0	0.00e+00	73	32	0	239075328	52	6204
2026-01-27 19:22:21.43	30.21	9.51	-39.1	-40.3	21.3	0.00e+00	0	32	0	241172480	52	5914
2026-01-27 19:22:22.44	30.06	9.56	-39.2	-40.4	21.1	0.00e+00	0	32	0	243269632	52	5994
2026-01-27 19:22:23.45	29.92	9.61	-39.3	-40.5	21.2	0.00e+00	0	32	0	245366784	52	6053
2026-01-27 19:22:24.46	29.77	9.66	-39.1	-40.3	21.3	0.00e+00	0	32	0	246415360	52	5928
2026-01-27 19:22:25.46	29.62	9.71	-39.0	-40.1	21.4	0.00e+00	24	32	0	248512512	52	5811
2026-01-27 19:22:26.47	29.47	9.75	-39.0	-40.2	21.3	0.00e+00	0	32	0	250609664	52	5848
2026-01-27 19:22:27.48	29.32	9.80	-39.0	-40.2	21.4	0.00e+00	92	32	0	252706816	52	5833
2026-01-27 19:22:28.49	29.17	9.85	-38.7	-39.8	21.6	0.00e+00	0	32	0	254803968	50	6303
2026-01-27 19:22:29.50	29.02	9.90	-38.6	-39.7	21.9	0.00e+00	92	32	0	255852544	50	6217
2026-01-27 19:22:30.51	28.87	9.94	-38.5	-39.6	21.8	0.00e+00	0	32	0	257949696	50	6152
2026-01-27 19:22:31.52	28.72	9.99	-38.4	-39.4	22.2	0.00e+00	0	32	0	260046848	50	6027
2026-01-27 19:22:32.53	28.56	10.04	-38.1	-39.2	22.3	0.00e+00	0	32	0	262144000	50	5840
2026-01-27 19:22:33.54	28.41	10.08	-38.2	-39.3	22.2	0.00e+00	0	32	0	264241152	50	5916
2026-01-27 19:22:34.54	28.26	10.13	-38.1	-39.2	22.3	0.00e+00	40	32	0	265289728	50	5829
2026-01-27 19:22:35.55	28.10	10.18	-38.1	-39.1	22.4	0.00e+00	0	32	0	267386880	50	5776
2026-01-27 19:22:36.56	27.95	10.22	-38.2	-39.3	22.1	0.00e+00	43	32	0	269484032	50	5913
2026-01-27 19:22:37.57	27.79	10.27	-38.4	-39.5	22.1	0.00e+00	0	32	0	271581184	50	6041
2026-01-27 19:22:38.58	27.64	10.32	-38.5	-39.6	22.0	0.00e+00	0	32	0	273678336	50	6107
2026-01-27 19:22:39.59	27.48	10.36	-38.6	-39.8	21.8	0.00e+00	0	32	0	274726912	50	6258
2026-01-27 19:22:40.60	27.33	10.41	-38.7	-39.8	21.7	0.00e+00	0	32	0	276824064	50	6314
2026-01-27 19:22:41.61	27.17	10.45	-38.8	-40.0	21.6	0.00e+00	44	32	0	278921216	50	6411
2026-01-27 19:22:42.62	27.01	10.50	-38.7	-39.9	21.7	0.00e+00	0	32	0	281018368	50	6326
2026-01-27 19:22:43.62	26.86	10.54	-38.5	-39.7	22.0	0.00e+00	43	32	0	283115520	50	6174
2026-01-27 19:22:44.64	26.70	10.59	-38.4	-39.5	22.1	0.00e+00	0	32	0	284164096	50	6036
2026-01-27 19:22:45.64	26.54	10.64	-38.4	-39.5	22.0	0.00e+00	0	32	0	286261248	50	6048
2026-01-27 19:22:46.65	26.38	10.68	-38.5	-39.5	22.0	0.00e+00	0	32	0	288358400	50	6089
2026-01-27 19:22:47.66	26.22	10.73	-38.0	-39.0	22.2	0.00e+00	0	32	0	290455552	50	5748
2026-01-27 19:22:48.67	26.06	10.77	-38.1	-39.1	22.4	0.00e+00	48	32	0	292552704	50	5804
2026-01-27 19:22:49.68	25.90	10.82	-38.0	-39.0	22.4	0.00e+00	0	32	0	294649856	50	5736
2026-01-27 19:22:50.69	25.74	10.86	-37.7	-38.7	22.7	0.00e+00	67	32	0	295698432	50	5505
2026-01-27 19:22:51.70	25.57	10.91	-37.5	-38.4	22.8	0.00e+00	0	32	0	297795584	48	6004
2026-01-27 19:22:52.71	25.41	10.95	-37.4	-38.3	23.0	0.00e+00	0	32	0	299892736	48	5948
2026-01-27 19:22:53.72	25.25	10.99	-37.2	-38.1	23.1	0.00e+00	0	32	0	301989888	48	5812
2026-01-27 19:22:54.73	25.08	11.04	-37.4	-38.3	22.9	0.00e+00	0	32	0	304087040	48	5935
2026-01-27 19:22:55.74	24.92	11.08	-37.6	-38.5	22.9	0.00e+00	45	32	0	305135616	48	6073
2026-01-27 19:22:56.75	24.76	11.13	-37.5	-38.5	22.9	0.00e+00	0	32	0	307232768	48	6034
2026-01-27 19:22:57.76	24.59	11.17	-37.8	-38.8	22.6	0.00e+00	44	32	0	309329920	48	6248
2026-01-27 19:22:58.77	24.43	11.21	-37.8	-38.8	22.7	0.00e+00	0	32	0	311427072	48	6256
2026-01-27 19:22:59.78	24.26	11.26	-37.6	-38.6	22.7	0.00e+00	3	32	0	313524224	48	6139
2026-01-27 19:23:00.79	24.09	11.30	-37.8	-38.8	22.7	0.00e+00	0	32	0	314572800	48	6246
2026-01-27 19:23:01.80	23.93	11.34	-37.6	-38.6	22.8	0.00e+00	0	32	0	316669952	48	6140
2026-01-27 19:23:02.81	23.76	11.39	-37.6	-38.6	22.7	0.00e+00	0	32	0	318767104	48	6148
2026-01-27 19:23:03.82	23.59	11.43	-37.6	-38.6	22.6	0.00e+00	0	32	0	320864256	48	6135
2026-01-27 19:23:04.82	23.42	11.47	-37.5	-38.5	22.8	0.00e+00	74	32	0	322961408	48	6066
2026-01-27 19:23:05.83	23.25	11.51	-37.4	-38.3	23.0	0.00e+00	0	32	0	324009984	48	5953
2026-01-27 19:23:06.84	23.08	11.56	-37.2	-38.1	23.1	0.00e+00	73	32	0	326107136	48	5773
2026-01-27 19:23:07.85	22.91	11.60	-37.0	-37.9	23.3	0.00e+00	0	32	0	328204288	48	5661
2026-01-27 19:23:08.87	22.74	11.64	-37.0	-37.9	23.2	0.00e+00	0	32	0	330301440	48	5648
2026-01-27 19:23:09.88	22.57	11.68	-37.1	-38.0	23.3	0.00e+00	0	32	0	332398592	48	5712
2026-01-27 19:23:10.88	22.40	11.72	-37.1	-38.0	23.3	0.00e+00	0	32	0	333447168	48	5751
2026-01-27 19:23:11.90	22.23	11.76	-37.3	-38.2	23.1	0.00e+00	47	32	0	335544320	48	5853
2026-01-27 19:23:12.90	22.06	11.81	-37.5	-38.4	23.0	0.00e+00	0	32	0	337641472	48	6026
2026-01-27 19:23:13.91	21.88	11.85	-37.5	-38.5	22.9	0.00e+00	88	32	0	339738624	48	6058
2026-01-27 19:23:14.92	21.71	11.89	-37.6	-38.5	22.8	0.00e+00	0	32	0	341835776	48	6096
2026-01-27 19:23:15.93	21.54	11.93	-37.8	-38.9	22.6	0.00e+00	0	32	0	342884352	48	6325
2026-01-27 19:23:16.94	21.36	11.97	-37.9	-38.9	22.5	0.00e+00	0	32	0	344981504	48	6361
2026-01-27 19:23:17.95	21.19	12.01	-37.9	-38.9	22.5	0.00e+00	0	32	0	347078656	48	6369
2026-01-27 19:23:18.96	21.01	12.05	-37.9	-39.0	22.5	0.00e+00	47	32	0	349175808	48	6411
2026-01-27 19:23:19.97	20.84	12.09	-37.9	-38.9	22.0	0.00e+00	0	32	0	351272960	48	6353
2026-01-27 19:23:20.98	20.66	12.13	-37.8	-38.8	22.6	0.00e+00	90	32	0	352321536	48	6280
2026-01-27 19:23:21.99	20.48	12.17	-37.8	-38.8	22.5	0.00e+00	0	32	0	354418688	48	6276
2026-01-27 19:23:23.00	20.31	12.21	-38.0	-39.0	22.5	0.00e+00	0	32	0	356515840	48	6423
2026-01-27 19:23:24.01	20.13	12.25	-38.0	-39.0	22.5	0.00e+00	0	32	0	358612992	48	6405
2026-01-27 19:23:25.02	19.95	12.28	-37.9	-38.9	22.5	0.00e+00	0	32	0	360710144	48	6341
2026-01-27 19:23:26.02	19.77	12.32	-38.0	-39.0	22.5	0.00e+00	16	32	0	362807296	48	6412
2026-01-27 19:23:27.03	19.59	12.36	-37.9	-38.8	22.6	0.00e+00	0	32	0	363855872	48	6316
2026-01-27 19:23:28.04	19.41	12.40	-38.1	-39.2	22.4	0.00e+00	40	32	0	365953024	48	6562
2026-01-27 19:23:29.05	19.23	12.44	-38.3	-39.3	22.3	0.00e+00	0	32	0	368050176	48	6669
2026-01-27 19:23:30.06	19.05	12.47	-38.3	-39.3	22.3	0.00e+00	0	32	0	370147328	48	6680
2026-01-27 19:23:31.07	18.87	12.51	-38.4	-39.5	22.1	0.00e+00	0	32	0	372244480	48	6790
2026-01-27 19:23:32.08	18.69	12.55	-38.3	-39.4	22.1	0.00e+00	0	32	0	373293056	48	6717
2026-01-27 19:23:33.09	18.51	12.59	-37.9	-38.9	22.6	0.00e+00	2	32	0	375390208	48	6382
2026-01-27 19:23:34.10	18.33	12.62	-37.8	-38.8	22.7	0.00e+00	0	32	0	377487360	48	6258
2026-01-27 19:23:35.11	18.14	12.66	-37.8	-38.8	22.7	0.00e+00	92	32	0	379584512	48	6248
2026-01-27 19:23:36.12	17.96	12.70	-37.5	-38.5	22.9	0.00e+00	0	32	0	381681664	48	6069
2026-01-27 19:23:37.12	17.78	12.73	-37.4	-38.3	23.1	0.00e+00	46	32	0	382730240	48	5942
2026-01-27 19:23:38.13	17.59	12.77	-37.4	-38.3	23.1	0.00e+00	0	32	0	384827392	48	5937
2026-01-27 19:23:39.14	17.41	12.80	-37.4	-38.4	23.0	0.00e+00	0	32	0	386924544	48	5970
2026-01-27 19:23:40.15	17.22	12.84	-37.7	-38.7	22.7	0.00e+00	0	32	0	389021696	48	6177
2026-01-27 19:23:41.16	17.04	12.87	-37.7	-38.7	22.8	0.00e+00	0	32	0	391118848	48	6197
2026-01-27 19:23:42.17	16.85	12.91	-37.8	-38.8	22.7	0.00e+00	92	32	0	392167424	48	6255
2026-01-27 19:23:43.18	16.66	12.94	-37.7	-38.7	22.8	0.00e+00	0	32	0	394264576	48	6223
2026-01-27 19:23:44.19	16.48	12.98	-37.7	-38.6	22.7	0.00e+00	92	32	0	396361728	48	6169
2026-01-27 19:23:45.20	16.29	13.01	-37.7	-38.7	22.8	0.00e+00	0	32	0	398458880	48	6223
2026-01-27 19:23:46.21	16.10	13.05	-37.6	-38.6	22.9	0.00e+00	0	32	0	400556032	48	6127
2026-01-27 19:23:47.22	15.91	13.08	-37.3	-38.2	23.1	0.00e+00	0	32	0	401604608	48	5881
2026-01-27 19:23:48.23	15.73	13.11	-37.4	-38.3	23.1	0.00e+00	0	32	0	403701760	48	5932
2026-01-27 19:23:49.23	15.54	13.15	-37.3	-38.3	23.1	0.00e+00	43	32	0	405798912	48	5898
2026-01-27 19:23:50.25	15.35	13.18	-37.2	-38.2	23.1	0.00e+00	0	32	0	407896064	48	5847
2026-01-27 19:23:51.26	15.16	13.21	-37.6	-38.5	22.9	0.00e+00	92	32	0	409993216	48	6086
2026-01-27 19:23:52.26	14.97	13.24	-37.9	-39.0	22.5	0.00e+00	0	32	0	411041792	48	6403
2026-01-27 19:23:53.27	14.78	13.28	-38.0	-39.1	22.4	0.00e+00	0	32	0	413138944	48	6474
2026-01-27 19:23:54.28	14.59	13.31	-38.1	-39.1	22.4	0.00e+00	0	32	0	415236096	48	6500
2026-01-27 19:23:55.29	14.39	13.34	-38.4	-39.4	22.1	0.00e+00	0	32	0	417333248	48	6760
2026-01-27 19:23:56.30	14.20	13.37	-38.4	-39.5	22.2	0.00e+00	47	32	0	419430400	48	6843
2026-01-27 19:23:57.31	14.01	13.40	-38.2	-39.2	22.3	0.00e+00	0	32	0	420478976	48	6603
2026-01-27 19:23:58.32	13.82	13.43	-38.0	-39.0	22.4	0.00e+00	92	32	0	422576128	48	6455
2026-01-27 19:23:59.33	13.62	13.46	-37.7	-38.7	22.8	0.00e+00	0	32	0	424673280	48	6179
2026-01-27 19:24:00.34	13.43	13.49	-37.4	-38.4	23.0	0.00e+00	0	32	0	426770432	48	5978
2026-01-27 19:24:01.35	13.24	13.52	-37.1	-38.0	23.3	0.00e+00	0	32	0	428867584	48	5711
2026-01-27 19:24:02.36	13.04	13.55	-37.4	-38.3	22.6	0.00e+00	0	32	0	430964736	48	5909
2026-01-27 19:24:03.37	12.85	13.58	-36.9	-37.7	23.3	0.00e+00	24	32	0	432013312	48	5564
2026-01-27 19:24:04.38	12.65	13.61	-37.0	-37.9	23.4	0.00e+00	0	32	0	434110464	48	5675
2026-01-27 19:24:05.38	12.46	13.64	-37.0	-37.9	23.4	0.00e+00	45	32	0	436207616	48	5639
2026-01-27 19:24:06.39	12.26	13.67	-37.0	-37.8	23.4	0.00e+00	0	32	0	438304768	48	5619
2026-01-27 19:24:07.40	12.06	13.69	-36.8	-37.7	23.6	0.00e+00	32	32	0	439353344	48	5512
2026-01-27 19:24:08.41	11.87	13.72	-36.9	-37.8	23.5	0.00e+00	0	32	0	441450496	46	6302
2026-01-27 19:24:09.42	11.67	13.75	-37.0	-37.9	23.3	0.00e+00	0	32	0	443547648	46	6370
2026-01-27 19:24:10.43	11.47	13.78	-36.9	-37.7	23.5	0.00e+00	0	32	0	445644800	46	6243
2026-01-27 19:24:11.44	11.27	13.80	-37.0	-37.9	23.3	0.00e+00	0	32	0	447741952	46	6338
2026-01-27 19:24:12.45	11.08	13.83	-37.0	-37.9	23.4	0.00e+00	74	32	0	448790528	46	6337
2026-01-27 19:24:13.46	10.88	13.86	-36.8	-37.6	23.6	0.00e+00	0	32	0	450887680	46	6169
2026-01-27 19:24:14.47	10.68	13.88	-36.7	-37.6	23.6	0.00e+00	30	32	0	452984832	46	6147
2026-01-27 19:24:15.48	10.48	13.91	-36.8	-37.6	23.4	0.00e+00	0	32	0	455081984	46	6155
2026-01-27 19:24:16.49	10.28	13.93	-36.7	-37.5	23.5	0.00e+00	0	32	0	457179136	46	6088
2026-01-27 19:24:17.50	10.08	13.96	-36.9	-37.8	23.4	0.00e+00	0	32	0	459276288	46	6289
2026-01-27 19:24:18.51	9.88	13.98	-37.4	-38.3	23.2	0.00e+00	0	32	0	460324864	46	6691
2026-01-27 19:24:19.52	9.68	14.01	-37.5	-38.4	23.0	0.00e+00	42	32	0	462422016	46	6750
2026-01-27 19:24:20.53	9.48	14.03	-37.8	-38.7	22.8	0.00e+00	0	32	0	464519168	48	6233
2026-01-27 19:24:21.54	9.28	14.05	-37.8	-38.8	22.6	0.00e+00	76	32	0	466616320	48	6305
2026-01-27 19:24:22.55	9.07	14.08	-37.7	-38.7	22.8	0.00e+00	0	32	0	468713472	48	6206
2026-01-27 19:24:23.56	8.87	14.10	-37.8	-38.7	22.7	0.00e+00	0	32	0	469762048	48	6236
2026-01-27 19:24:24.57	8.67	14.12	-37.7	-38.6	22.9	0.00e+00	0	32	0	471859200	48	6167
2026-01-27 19:24:25.58	8.47	14.14	-37.8	-38.8	22.7	0.00e+00	0	32	0	473956352	48	6249
2026-01-27 19:24:26.59	8.26	14.17	-37.9	-38.9	22.6	0.00e+00	38	32	0	476053504	48	6323
2026-01-27 19:24:27.60	8.06	14.19	-38.1	-39.2	22.4	0.00e+00	0	32	0	478150656	48	6545
2026-01-27 19:24:28.61	7.86	14.21	-38.3	-39.3	22.3	0.00e+00	58	32	0	479199232	48	6648
2026-01-27 19:24:29.62	7.65	14.23	-38.1	-39.1	22.4	0.00e+00	0	32	0	481296384	48	6530
2026-01-27 19:24:30.63	7.45	14.25	-38.2	-39.2	22.5	0.00e+00	0	32	0	483393536	48	6583
2026-01-27 19:24:31.63	7.25	14.27	-38.1	-39.1	22.3	0.00e+00	0	32	0	485490688	48	6535
2026-01-27 19:24:32.64	7.04	14.29	-38.3	-39.4	22.4	0.00e+00	0	32	0	487587840	48	6716
2026-01-27 19:24:33.65	6.84	14.31	-38.2	-39.3	22.2	0.00e+00	0	32	0	488636416	48	6618
2026-01-27 19:24:34.66	6.63	14.33	-38.4	-39.5	22.3	0.00e+00	0	32	0	490733568	48	6807
2026-01-27 19:24:35.67	6.43	14.35	-38.4	-39.5	22.2	2.20e-06	80	32	0	492830720	48	6792
2026-01-27 19:24:36.67	6.22	14.37	-38.2	-39.3	22.4	7.00e-07	0	32	0	494927872	48	6616
2026-01-27 19:24:37.68	6.02	14.38	-37.8	-38.8	22.7	0.00e+00	34	32	0	497025024	48	6296
2026-01-27 19:24:38.69	5.81	14.40	-37.6	-38.5	23.0	0.00e+00	0	32	0	498073600	48	6090
2026-01-27 19:24:39.70	5.60	14.42	-37.4	-38.3	23.1	0.00e+00	0	32	0	500170752	48	5913
2026-01-27 19:24:40.71	5.40	14.44	-37.2	-38.1	23.3	0.00e+00	48	32	0	502267904	48	5783
2026-01-27 19:24:41.72	5.19	14.45	-37.1	-38.0	23.3	0.00e+00	0	32	0	504365056	48	5751
2026-01-27 19:24:42.73	4.98	14.47	-37.2	-38.1	23.3	0.00e+00	90	32	0	506462208	48	5817
2026-01-27 19:24:43.74	4.78	14.48	-37.4	-38.3	23.1	0.00e+00	0	32	0	507510784	48	5956
2026-01-27 19:24:44.75	4.57	14.50	-37.2	-38.1	23.3	0.00e+00	57	32	0	509607936	48	5791
2026-01-27 19:24:45.76	4.36	14.51	-37.3	-38.2	23.2	0.00e+00	0	32	0	511705088	48	5861
2026-01-27 19:24:46.77	4.15	14.53	-37.5	-38.4	23.0	0.00e+00	0	32	0	513802240	48	6015
2026-01-27 19:24:47.77	3.95	14.54	-37.5	-38.5	23.0	0.00e+00	0	32	0	515899392	48	6038
2026-01-27 19:24:48.78	3.74	14.56	-37.7	-38.6	23.0	0.00e+00	0	32	0	516947968	48	6147
2026-01-27 19:24:49.79	3.53	14.57	-37.8	-38.7	22.7	0.00e+00	92	32	0	519045120	48	6245
2026-01-27 19:24:50.80	3.32	14.58	-37.7	-38.6	22.9	0.00e+00	0	32	0	521142272	48	6160
2026-01-27 19:24:51.81	3.11	14.60	-37.5	-38.5	22.9	0.00e+00	92	32	0	523239424	48	6075
2026-01-27 19:24:52.82	2.90	14.61	-37.4	-38.3	23.0	0.00e+00	0	32	0	525336576	48	5963
2026-01-27 19:24:53.83	2.69	14.62	-37.2	-38.1	23.1	0.00e+00	0	32	0	527433728	48	5818
2026-01-27 19:24:54.84	2.48	14.63	-37.3	-38.2	23.2	0.00e+00	0	32	0	528482304	48	5874
2026-01-27 19:24:55.85	2.27	14.65	-37.4	-38.3	23.2	0.00e+00	0	32	0	530579456	48	5951
2026-01-27 19:24:56.85	2.07	14.66	-37.5	-38.4	23.1	0.00e+00	48	32	0	532676608	48	6000
2026-01-27 19:24:57.86	1.86	14.67	-37.5	-38.5	23.0	0.00e+00	0	32	0	534773760	48	6061
2026-01-27 19:24:58.87	1.65	14.68	-37.8	-38.8	22.7	0.00e+00	76	32	0	536870912	48	6249
2026-01-27 19:24:59.88	1.44	14.69	-37.9	-38.9	22.6	0.00e+00	0	32	0	537919488	48	6345
2026-01-27 19:25:00.89	1.22	14.70	-38.1	-39.1	22.7	0.00e+00	0	32	0	540016640	48	6531
2026-01-27 19:25:01.90	1.01	14.71	-38.2	-39.2	22.6	0.00e+00	0	32	0	542113792	48	6569
2026-01-27 19:25:02.91	0.80	14.72	-38.0	-39.0	22.4	0.00e+00	0	32	0	544210944	48	6463
2026-01-27 19:25:03.92	0.59	14.72	-38.2	-39.2	22.5	0.00e+00	47	32	0	546308096	48	6569
2026-01-27 19:25:04.93	0.38	14.73	-37.9	-38.9	22.6	0.00e+00	0	32	0	547356672	48	6333
2026-01-27 19:25:05.94	0.17	14.74	-37.9	-38.9	22.8	0.00e+00	74	32	0	549453824	48	6341
2026-01-27 19:25:06.95	359.96	14.75	-37.9	-38.8	22.8	0.00e+00	0	32	0	551550976	48	6302
2026-01-27 19:25:07.96	359.75	14.75	-37.8	-38.8	22.8	0.00e+00	0	32	0	553648128	48	6291
2026-01-27 19:25:08.97	359.54	14.76	-38.1	-39.1	22.5	0.00e+00	0	32	0	555745280	48	6522
2026-01-27 19:25:09.98	359.33	14.77	-38.0	-39.0	22.6	0.00e+00	0	32	0	556793856	48	6413
2026-01-27 19:25:10.98	359.12	14.77	-37.9	-38.9	22.6	0.00e+00	17	32	0	558891008	48	6318
2026-01-27 19:25:11.99	358.90	14.78	-37.6	-38.6	22.8	0.00e+00	0	32	0	560988160	48	6141
2026-01-27 19:25:13.00	358.69	14.78	-37.5	-38.4	23.0	0.00e+00	92	32	0	563085312	48	6022
2026-01-27 19:25:14.01	358.48	14.79	-37.6	-38.5	23.0	0.00e+00	0	32	0	565182464	48	6103
2026-01-27 19:25:15.02	358.27	14.79	-37.5	-38.4	23.1	0.00e+00	0	32	0	566231040	48	6022
2026-01-27 19:25:16.03	358.06	14.79	-37.5	-38.5	23.0	0.00e+00	0	32	0	568328192	48	6062
2026-01-27 19:25:17.04	357.84	14.80	-37.6	-38.5	23.0	0.00e+00	0	32	0	570425344	48	6090
2026-01-27 19:25:18.04	357.63	14.80	-37.7	-38.7	22.8	0.00e+00	0	32	0	572522496	48	6228
2026-01-27 19:25:19.05	357.42	14.80	-37.8	-38.8	22.7	0.00e+00	0	32	0	574619648	48	6255
2026-01-27 19:25:20.06	357.21	14.80	-38.0	-39.0	22.7	0.00e+00	90	32	0	575668224	48	6393
2026-01-27 19:25:21.07	357.00	14.81	-38.1	-39.1	22.6	0.00e+00	0	32	0	577765376	48	6486
2026-01-27 19:25:22.08	356.79	14.81	-37.9	-38.9	22.6	0.00e+00	48	32	0	579862528	48	6373
2026-01-27 19:25:23.09	356.57	14.81	-37.8	-38.8	22.7	0.00e+00	0	32	0	581959680	48	6262
2026-01-27 19:25:24.10	356.36	14.81	-37.8	-38.8	22.7	0.00e+00	0	32	0	584056832	48	6252
2026-01-27 19:25:25.11	356.15	14.81	-37.6	-38.6	22.9	0.00e+00	44	32	0	585105408	48	6104
2026-01-27 19:25:26.12	355.94	14.81	-37.5	-38.4	23.2	0.00e+00	0	32	0	587202560	48	6026
2026-01-27 19:25:27.13	355.73	14.81	-37.5	-38.4	23.0	0.00e+00	46	32	0	589299712	48	6009
2026-01-27 19:25:28.14	355.51	14.81	-37.2	-38.1	23.3	0.00e+00	0	32	0	591396864	48	5824
2026-01-27 19:25:29.15	355.30	14.81	-37.1	-38.0	23.4	0.00e+00	92	32	0	593494016	48	5715
2026-01-27 19:25:30.16	355.09	14.80	-37.1	-38.0	23.3	0.00e+00	0	32	0	595591168	48	5760
2026-01-27 19:25:31.17	354.88	14.80	-37.3	-38.2	23.2	0.00e+00	0	32	0	596639744	48	5868
2026-01-27 19:25:32.18	354.67	14.80	-37.1	-38.0	23.3	0.00e+00	33	32	0	598736896	48	5752
2026-01-27 19:25:33.18	354.46	14.80	-37.4	-38.3	23.1	0.00e+00	0	32	0	600834048	48	5958
2026-01-27 19:25:34.19	354.24	14.79	-37.5	-38.5	23.0	0.00e+00	49	32	0	602931200	48	6059
2026-01-27 19:25:35.20	354.03	14.79	-37.6	-38.6	22.9	0.00e+00	33	32	0	603979776	48	6104
2026-01-27 19:25:36.21	353.82	14.78	-37.7	-38.7	22.8	0.00e+00	92	32	0	606076928	48	6182
2026-01-27 19:25:37.22	353.61	14.78	-37.8	-38.8	22.7	0.00e+00	0	32	0	608174080	48	6316
2026-01-27 19:25:38.22	353.40	14.78	-38.2	-39.3	22.5	0.00e+00	0	32	0	610271232	48	6644
2026-01-27 19:25:39.23	353.19	14.77	-38.1	-39.2	22.4	0.00e+00	0	32	0	612368384	48	6547
2026-01-27 19:25:40.24	352.98	14.76	-38.3	-39.3	22.2	0.00e+00	0	32	0	613416960	48	6670
2026-01-27 19:25:41.25	352.76	14.76	-38.2	-39.2	22.5	0.00e+00	43	32	0	615514112	48	6553
2026-01-27 19:25:42.26	352.55	14.75	-38.5	-39.5	22.0	0.00e+00	0	32	0	617611264	48	6819
2026-01-27 19:25:43.27	352.34	14.74	-38.6	-39.7	22.1	0.00e+00	92	32	0	619708416	48	6944
2026-01-27 19:25:44.28	352.13	14.74	-38.6	-39.6	22.0	0.00e+00	0	32	0	621805568	48	6917
2026-01-27 19:25:45.28	351.92	14.73	-38.4	-39.5	22.2	0.00e+00	48	32	0	623902720	48	6803
2026-01-27 19:25:46.29	351.71	14.72	-38.3	-39.4	22.2	0.00e+00	0	32	0	624951296	48	6718
2026-01-27 19:25:47.30	351.50	14.71	-38.1	-39.1	22.5	0.00e+00	0	32	0	627048448	48	6528
2026-01-27 19:25:48.31	351.29	14.70	-37.8	-38.8	22.8	0.00e+00	0	32	0	629145600	48	6265
2026-01-27 19:25:49.32	351.08	14.69	-38.0	-39.0	22.7	0.00e+00	0	32	0	631242752	48	6398
2026-01-27 19:25:50.33	350.87	14.69	-38.0	-39.0	22.6	0.00e+00	92	32	0	633339904	48	6410
2026-01-27 19:25:51.34	350.66	14.68	-37.7	-38.7	22.9	0.00e+00	0	32	0	634388480	48	6245
2026-01-27 19:25:52.35	350.45	14.66	-37.5	-38.5	23.0	0.00e+00	92	32	0	636485632	48	6062
2026-01-27 19:25:53.36	350.24	14.65	-37.3	-38.3	23.1	0.00e+00	0	32	0	638582784	48	5916
2026-01-27 19:25:54.37	350.03	14.64	-37.3	-38.2	23.3	0.00e+00	0	32	0	640679936	48	5859
2026-01-27 19:25:55.38	349.82	14.63	-37.3	-38.2	23.2	0.00e+00	0	32	0	642777088	48	5875
2026-01-27 19:25:56.39	349.61	14.62	-37.4	-38.4	23.1	0.00e+00	0	32	0	643825664	48	5968
2026-01-27 19:25:57.40	349.40	14.61	-37.6	-38.6	23.0	0.00e+00	47	32	0	645922816	48	6153
2026-01-27 19:25:58.41	349.19	14.59	-37.7	-38.7	22.8	0.00e+00	0	32	0	648019968	48	6179
2026-01-27 19:25:59.42	348.98	14.58	-37.8	-38.8	22.7	0.00e+00	79	32	0	650117120	48	6271
2026-01-27 19:26:00.43	348.77	14.57	-37.6	-38.6	22.9	0.00e+00	0	32	0	652214272	48	6141
2026-01-27 19:26:01.44	348.56	14.55	-37.4	-38.3	23.1	0.00e+00	0	32	0	653262848	48	5962
2026-01-27 19:26:02.45	348.35	14.54	-37.4	-38.3	23.2	0.00e+00	0	32	0	655360000	48	5927
2026-01-27 19:26:03.46	348.15	14.53	-36.9	-37.8	23.5	0.00e+00	0	32	0	657457152	48	5610
2026-01-27 19:26:04.47	347.94	14.51	-36.9	-37.8	23.6	0.00e+00	71	32	0	659554304	48	5568
2026-01-27 19:26:05.48	347.73	14.50	-36.9	-37.8	23.3	0.00e+00	0	32	0	661651456	48	5604
2026-01-27 19:26:06.49	347.52	14.48	-37.0	-37.9	23.5	0.00e+00	92	32	0	662700032	48	5648
2026-01-27 19:26:07.50	347.32	14.46	-37.1	-38.0	23.3	0.00e+00	0	32	0	664797184	48	5728
2026-01-27 19:26:08.50	347.11	14.45	-37.2	-38.2	23.1	0.00e+00	0	32	0	666894336	48	5830
2026-01-27 19:26:09.51	346.90	14.43	-37.3	-38.2	23.2	0.00e+00	0	32	0	668991488	48	5896
2026-01-27 19:26:10.52	346.70	14.41	-37.6	-38.5	23.0	0.00e+00	0	32	0	671088640	48	6093
2026-01-27 19:26:11.53	346.49	14.40	-37.5	-38.4	23.0	0.00e+00	24	32	0	672137216	48	6006
2026-01-27 19:26:12.54	346.28	14.38	-37.6	-38.6	22.9	0.00e+00	0	32	0	674234368	48	6119
2026-01-27 19:26:13.55	346.08	14.36	-37.7	-38.7	22.8	0.00e+00	92	32	0	676331520	48	6218
2026-01-27 19:26:14.56	345.87	14.34	-38.0	-39.1	22.5	0.00e+00	0	32	0	678428672	48	6487
2026-01-27 19:26:15.56	345.67	14.32	-38.0	-39.0	22.6	0.00e+00	0	32	0	680525824	48	6432
2026-01-27 19:26:16.58	345.46	14.30	-37.9	-38.9	22.6	0.00e+00	0	32	0	681574400	48	6331
2026-01-27 19:26:17.59	345.26	14.28	-37.9	-38.9	22.6	0.00e+00	0	32	0	683671552	48	6383
2026-01-27 19:26:18.60	345.05	14.26	-38.0	-39.0	22.5	0.00e+00	43	32	0	685768704	48	6409
2026-01-27 19:26:19.60	344.85	14.24	-37.9	-38.9	22.6	0.00e+00	0	32	0	687865856	48	6335
2026-01-27 19:26:20.61	344.65	14.22	-37.9	-38.9	22.7	0.00e+00	89	32	0	689963008	48	6360
2026-01-27 19:26:21.62	344.44	14.20	-37.9	-39.0	22.6	0.00e+00	0	32	0	692060160	48	6411
2026-01-27 19:26:22.63	344.24	14.18	-38.0	-39.0	22.4	0.00e+00	46	32	0	693108736	48	6435
2026-01-27 19:26:23.64	344.04	14.16	-37.7	-38.7	22.9	0.00e+00	0	32	0	695205888	48	6195
2026-01-27 19:26:24.65	343.83	14.14	-37.7	-38.7	22.8	0.00e+00	0	32	0	697303040	48	6190
2026-01-27 19:26:25.65	343.63	14.12	-37.4	-38.4	23.0	0.00e+00	0	32	0	699400192	48	6012
2026-01-27 19:26:26.66	343.43	14.09	-37.1	-38.0	23.3	0.00e+00	0	32	0	701497344	48	5747
2026-01-27 19:26:27.67	343.23	14.07	-37.1	-38.0	23.3	0.00e+00	44	32	0	702545920	48	5759
2026-01-27 19:26:28.68	343.03	14.05	-37.2	-38.1	23.2	0.00e+00	0	32	0	704643072	48	5800
2026-01-27 19:26:29.69	342.83	14.02	-37.3	-38.2	23.3	0.00e+00	84	32	0	706740224	48	5865
2026-01-27 19:26:30.70	342.62	14.00	-37.2	-38.2	22.9	0.00e+00	0	32	0	708837376	48	5852
2026-01-27 19:26:31.71	342.42	13.98	-37.5	-38.5	22.8	0.00e+00	0	32	0	710934528	48	6066
2026-01-27 19:26:32.72	342.22	13.95	-37.2	-38.1	23.2	0.00e+00	17	32	0	711983104	48	5806
2026-01-27 19:26:33.73	342.02	13.93	-37.3	-38.2	23.1	0.00e+00	0	32	0	714080256	48	5896
2026-01-27 19:26:34.73	341.83	13.90	-37.2	-38.2	23.2	0.00e+00	27	32	0	716177408	48	5832
2026-01-27 19:26:35.74	341.63	13.88	-37.2	-38.2	23.2	0.00e+00	0	32	0	718274560	48	5852
2026-01-27 19:26:36.75	341.43	13.85	-37.3	-38.3	23.2	0.00e+00	92	32	0	720371712	48	5921
2026-01-27 19:26:37.76	341.23	13.82	-37.3	-38.3	23.2	0.00e+00	0	32	0	721420288	48	5907
2026-01-27 19:26:38.77	341.03	13.80	-37.5	-38.5	22.9	0.00e+00	0	32	0	723517440	48	6045
2026-01-27 19:26:39.78	340.83	13.77	-37.7	-38.6	22.9	0.00e+00	0	32	0	725614592	48	6164
2026-01-27 19:26:40.79	340.64	13.74	-37.9	-38.9	22.7	0.00e+00	0	32	0	727711744	48	6383
2026-01-27 19:26:41.80	340.44	13.72	-38.0	-39.0	22.6	0.00e+00	44	32	0	729808896	48	6424
2026-01-27 19:26:42.81	340.24	13.69	-37.8	-38.8	22.7	0.00e+00	0	32	0	730857472	48	6284
2026-01-27 19:26:43.82	340.05	13.66	-37.9	-38.9	22.6	0.00e+00	62	32	0	732954624	48	6320
2026-01-27 19:26:44.82	339.85	13.63	-37.9	-38.9	22.5	0.00e+00	0	32	0	735051776	48	6380
2026-01-27 19:26:45.83	339.66	13.60	-37.7	-38.7	22.8	0.00e+00	0	32	0	737148928	48	6191
2026-01-27 19:26:46.84	339.46	13.57	-37.8	-38.8	22.8	0.00e+00	0	32	0	739246080	48	6249
2026-01-27 19:26:47.85	339.27	13.54	-37.8	-38.8	22.6	0.00e+00	0	32	0	740294656	48	6260
2026-01-27 19:26:48.86	339.07	13.51	-37.8	-38.8	22.7	0.00e+00	35	32	0	742391808	48	6284
2026-01-27 19:26:49.87	338.88	13.49	-38.0	-39.0	22.6	0.00e+00	0	32	0	744488960	48	6436
2026-01-27 19:26:50.88	338.68	13.46	-38.2	-39.3	22.4	0.00e+00	90	32	0	746586112	48	6628
2026-01-27 19:26:51.88	338.49	13.42	-38.4	-39.4	22.1	0.00e+00	0	32	0	748683264	48	6756
2026-01-27 19:26:52.89	338.30	13.39	-38.0	-39.0	22.5	0.00e+00	0	32	0	749731840	48	6404
2026-01-27 19:26:53.90	338.11	13.36	-38.1	-39.2	22.4	0.00e+00	0	32	0	751828992	48	6557
2026-01-27 19:26:54.91	337.92	13.33	-38.0	-39.0	22.6	0.00e+00	0	32	0	753926144	48	6440
2026-01-27 19:26:55.92	337.72	13.30	-37.8	-38.7	22.8	0.00e+00	0	32	0	756023296	48	6226
2026-01-27 19:26:56.92	337.53	13.27	-37.6	-38.5	22.9	0.00e+00	0	32	0	758120448	48	6099
2026-01-27 19:26:57.93	337.34	13.24	-37.5	-38.5	23.0	0.00e+00	90	32	0	759169024	48	6034
2026-01-27 19:26:58.94	337.15	13.20	-37.4	-38.3	23.1	0.00e+00	0	32	0	761266176	48	5944
2026-01-27 19:26:59.95	336.96	13.17	-37.4	-38.3	23.1	0.00e+00	92	32	0	763363328	48	5923
2026-01-27 19:27:00.96	336.77	13.14	-37.3	-38.3	23.2	0.00e+00	0	32	0	765460480	48	5909
2026-01-27 19:27:01.97	336.59	13.11	-37.2	-38.1	23.3	0.00e+00	0	32	0	767557632	48	5827
2026-01-27 19:27:02.98	336.40	13.07	-37.3	-38.2	23.2	0.00e+00	0	32	0	768606208	48	5857
2026-01-27 19:27:03.99	336.21	13.04	-37.3	-38.2	23.1	0.00e+00	0	32	0	770703360	48	5880
2026-01-27 19:27:05.00	336.02	13.00	-37.3	-38.2	23.2	0.00e+00	45	32	0	772800512	48	5883
2026-01-27 19:27:06.01	335.83	12.97	-37.0	-37.9	23.5	0.00e+00	0	32	0	774897664	48	5662
2026-01-27 19:27:07.02	335.65	12.94	-36.8	-37.7	23.6	0.00e+00	61	32	0	776994816	48	5514
2026-01-27 19:27:08.03	335.46	12.90	-36.8	-37.6	23.6	0.00e+00	0	32	0	778043392	46	6163
2026-01-27 19:27:09.04	335.27	12.87	-36.8	-37.7	23.6	0.00e+00	0	32	0	780140544	46	6187
2026-01-27 19:27:10.04	335.09	12.83	-36.7	-37.6	23.6	0.00e+00	0	32	0	782237696	46	6141
2026-01-27 19:27:11.06	334.90	12.80	-36.8	-37.7	23.3	0.00e+00	0	32	0	784334848	46	6210
2026-01-27 19:27:12.06	334.72	12.76	-36.7	-37.6	23.4	0.00e+00	10	32	0	786432000	46	6107
2026-01-27 19:27:13.07	334.54	12.72	-37.3	-38.2	23.2	0.00e+00	0	32	0	788529152	46	6549
2026-01-27 19:27:14.08	334.35	12.69	-37.5	-38.4	22.8	0.00e+00	92	32	0	789577728	46	6716
2026-01-27 19:27:15.09	334.17	12.65	-37.6	-38.5	22.5	0.00e+00	0	32	0	791674880	46	6846
2026-01-27 19:27:16.10	333.99	12.62	-37.7	-38.6	22.8	0.00e+00	0	32	0	793772032	48	6168
2026-01-27 19:27:17.11	333.80	12.58	-37.7	-38.7	22.6	0.00e+00	0	32	0	795869184	48	6228
2026-01-27 19:27:18.12	333.62	12.54	-37.8	-38.8	22.6	0.00e+00	0	32	0	797966336	48	6310
2026-01-27 19:27:19.12	333.44	12.50	-38.1	-39.1	22.4	0.00e+00	44	32	0	799014912	48	6509
2026-01-27 19:27:20.12	333.26	12.47	-38.1	-39.1	22.4	0.00e+00	0	32	0	801112064	48	6539
2026-01-27 19:27:21.13	333.08	12.43	-38.2	-39.2	22.3	0.00e+00	92	32	0	803209216	48	6592
2026-01-27 19:27:22.14	332.90	12.39	-38.4	-39.4	22.1	0.00e+00	33	32	0	805306368	48	6766
2026-01-27 19:27:23.15	332.72	12.35	-38.5	-39.6	22.1	0.00e+00	0	32	0	806354944	48	6864
2026-01-27 19:27:24.16	332.54	12.32	-38.4	-39.5	22.1	0.00e+00	0	32	0	808452096	48	6816
2026-01-27 19:27:25.17	332.37	12.28	-38.4	-39.4	22.0	0.00e+00	33	32	0	810549248	48	6754
2026-01-27 19:27:26.17	332.19	12.24	-38.3	-39.4	22.0	0.00e+00	1	32	0	812646400	48	6709
2026-01-27 19:27:27.18	332.01	12.20	-38.2	-39.2	22.2	0.00e+00	0	32	0	814743552	48	6604
2026-01-27 19:27:28.19	331.83	12.16	-38.2	-39.2	22.4	0.00e+00	45	32	0	816840704	48	6586
2026-01-27 19:27:29.20	331.66	12.12	-38.4	-39.4	22.1	0.00e+00	0	32	0	817889280	48	6753
2026-01-27 19:27:30.21	331.48	12.08	-38.3	-39.4	22.0	0.00e+00	0	32	0	819986432	48	6700
2026-01-27 19:27:31.22	331.31	12.04	-38.7	-39.8	21.9	0.00e+00	0	32	0	822083584	48	7022
2026-01-27 19:27:32.23	331.13	12.00	-38.3	-39.3	22.3	0.00e+00	0	32	0	824180736	48	6675
2026-01-27 19:27:33.24	330.96	11.96	-38.5	-39.5	22.0	0.00e+00	33	32	0	826277888	48	6823
2026-01-27 19:27:34.25	330.78	11.92	-38.6	-39.6	22.0	0.00e+00	0	32	0	827326464	48	6922
2026-01-27 19:27:35.26	330.61	11.88	-38.5	-39.5	22.1	0.00e+00	92	32	0	829423616	48	6824
2026-01-27 19:27:36.26	330.44	11.84	-38.6	-39.7	22.0	0.00e+00	0	32	0	831520768	50	6186
2026-01-27 19:27:37.28	330.26	11.80	-38.5	-39.6	22.1	0.00e+00	88	32	0	833617920	50	6108
2026-01-27 19:27:38.29	330.09	11.76	-38.6	-39.6	22.1	0.00e+00	0	32	0	835715072	50	6124
2026-01-27 19:27:39.30	329.92	11.72	-38.6	-39.6	22.0	0.00e+00	0	32	0	836763648	50	6144
2026-01-27 19:27:40.30	329.75	11.67	-38.7	-39.7	21.9	0.00e+00	0	32	0	838860800	50	6222
2026-01-27 19:27:41.31	329.58	11.63	-38.5	-39.5	22.2	0.00e+00	0	32	0	840957952	50	6056
2026-01-27 19:27:42.32	329.41	11.59	-38.7	-39.7	22.0	0.00e+00	48	32	0	843055104	50	6202
2026-01-27 19:27:43.33	329.24	11.55	-38.8	-39.9	21.8	0.00e+00	0	32	0	845152256	50	6325
2026-01-27 19:27:44.34	329.07	11.51	-38.8	-39.8	22.0	0.00e+00	92	32	0	846200832	50	6279
2026-01-27 19:27:45.35	328.90	11.46	-38.8	-39.8	21.9	0.00e+00	0	32	0	848297984	50	6293
2026-01-27 19:27:46.36	328.73	11.42	-38.5	-39.5	22.1	0.00e+00	0	32	0	850395136	50	6052
2026-01-27 19:27:47.37	328.56	11.38	-38.1	-39.1	22.5	0.00e+00	0	32	0	852492288	50	5772
2026-01-27 19:27:48.38	328.39	11.34	-38.0	-39.0	22.6	0.00e+00	0	32	0	854589440	50	5704
2026-01-27 19:27:49.39	328.23	11.29	-38.1	-39.0	22.6	0.00e+00	43	32	0	855638016	50	5752
2026-01-27 19:27:50.40	328.06	11.25	-37.9	-38.8	22.7	0.00e+00	0	32	0	857735168	50	5597
2026-01-27 19:27:51.41	327.89	11.21	-37.9	-38.8	22.6	0.00e+00	54	32	0	859832320	50	5624
2026-01-27 19:27:52.42	327.73	11.16	-38.0	-39.0	22.6	0.00e+00	0	32	0	861929472	50	5712
2026-01-27 19:27:53.42	327.57	11.12	-38.3	-39.2	22.3	0.00e+00	0	32	0	864026624	50	5893
2026-01-27 19:27:54.43	327.40	11.07	-38.7	-39.8	21.9	0.00e+00	0	32	0	865075200	50	6247
2026-01-27 19:27:55.44	327.24	11.03	-39.1	-40.2	21.5	0.00e+00	0	32	0	867172352	50	6576
2026-01-27 19:27:56.45	327.07	10.99	-39.5	-40.6	21.1	0.00e+00	38	32	0	869269504	50	6911
2026-01-27 19:27:57.46	326.91	10.94	-39.5	-40.7	21.0	0.00e+00	0	32	0	871366656	50	6966
2026-01-27 19:27:58.47	326.75	10.90	-40.0	-41.2	20.7	0.00e+00	92	32	0	873463808	52	6591
2026-01-27 19:27:59.48	326.59	10.85	-40.0	-41.2	20.8	0.00e+00	0	32	0	874512384	52	6570
2026-01-27 19:28:00.49	326.43	10.81	-39.8	-41.0	20.9	0.00e+00	92	32	0	876609536	52	6411
2026-01-27 19:28:01.50	326.27	10.76	-39.5	-40.6	21.2	0.00e+00	0	32	0	878706688	52	6146
2026-01-27 19:28:02.51	326.10	10.72	-39.5	-40.7	21.1	0.00e+00	0	32	0	880803840	52	6188
2026-01-27 19:28:03.52	325.94	10.67	-39.2	-40.3	21.5	0.00e+00	42	32	0	882900992	52	5963
2026-01-27 19:28:04.53	325.79	10.63	-39.0	-40.1	21.8	0.00e+00	9	32	0	884998144	52	5785
2026-01-27 19:28:05.54	325.63	10.58	-39.2	-40.3	21.5	0.00e+00	58	32	0	886046720	52	5963
2026-01-27 19:28:06.54	325.47	10.54	-39.3	-40.4	21.3	0.00e+00	0	32	0	888143872	52	6010
2026-01-27 19:28:07.55	325.31	10.49	-39.7	-40.9	20.9	0.00e+00	72	32	0	890241024	52	6329
2026-01-27 19:28:08.57	325.15	10.45	-40.2	-41.5	20.4	0.00e+00	0	32	0	892338176	52	6809
2026-01-27 19:28:09.58	325.00	10.40	-40.6	-42.0	20.1	0.00e+00	0	32	0	894435328	52	7195
2026-01-27 19:28:10.59	324.84	10.35	-41.1	-42.6	19.4	0.00e+00	0	32	0	895483904	54	6889
2026-01-27 19:28:11.59	324.69	10.31	-41.6	-43.2	18.9	0.00e+00	0	32	0	897581056	54	7405
2026-01-27 19:28:12.60	324.53	10.26	-41.9	-43.6	18.4	0.00e+00	67	32	0	899678208	56	6924
2026-01-27 19:28:13.60	324.38	10.22	-41.9	-43.6	18.5	0.00e+00	0	32	0	901775360	56	6887
2026-01-27 19:28:14.61	324.22	10.17	-42.0	-43.8	18.3	0.00e+00	92	32	0	903872512	56	7044
2026-01-27 19:28:15.62	324.07	10.12	-42.0	-43.7	18.6	0.00e+00	0	32	0	904921088	56	6996
2026-01-27 19:28:16.63	323.91	10.08	-41.5	-43.0	19.0	0.00e+00	0	32	0	907018240	56	6453
2026-01-27 19:28:17.63	323.76	10.03	-41.4	-42.9	19.1	0.00e+00	0	32	0	909115392	56	6359
2026-01-27 19:28:18.64	323.61	9.98	-41.4	-42.9	19.2	0.00e+00	0	32	0	911212544	56	6343
2026-01-27 19:28:19.65	323.46	9.93	-41.1	-42.5	19.4	0.00e+00	41	32	0	913309696	56	6088
2026-01-27 19:28:20.66	323.31	9.89	-41.1	-42.6	19.5	0.00e+00	0	32	0	914358272	56	6129
2026-01-27 19:28:21.67	323.16	9.84	-41.1	-42.5	19.6	0.00e+00	92	32	0	916455424	56	6067
2026-01-27 19:28:22.68	323.01	9.79	-41.0	-42.4	19.7	0.00e+00	0	32	0	918552576	56	6008
2026-01-27 19:28:23.69	322.86	9.75	-40.7	-42.1	19.7	0.00e+00	0	32	0	920649728	54	6508
2026-01-27 19:28:24.70	322.71	9.70	-40.8	-42.2	19.9	0.00e+00	0	32	0	922746880	54	6544
2026-01-27 19:28:25.71	322.56	9.65	-40.6	-42.0	19.9	0.00e+00	0	32	0	923795456	54	6391
2026-01-27 19:28:26.72	322.41	9.60	-40.5	-41.9	20.0	0.00e+00	41	32	0	925892608	54	6324
2026-01-27 19:28:27.73	322.26	9.55	-40.6	-41.9	20.0	0.00e+00	0	32	0	927989760	54	6382
2026-01-27 19:28:28.74	322.11	9.51	-40.2	-41.5	20.3	0.00e+00	82	32	0	930086912	54	6100
2026-01-27 19:28:29.74	321.97	9.46	-40.4	-41.7	20.2	0.00e+00	0	32	0	932184064	54	6222
2026-01-27 19:28:30.75	321.82	9.41	-40.3	-41.6	20.2	0.00e+00	0	32	0	933232640	54	6152
2026-01-27 19:28:31.76	321.68	9.36	-40.4	-41.7	20.1	0.00e+00	0	32	0	935329792	54	6212
2026-01-27 19:28:32.77	321.53	9.31	-40.4	-41.8	20.0	0.00e+00	0	32	0	937426944	54	6256
2026-01-27 19:28:33.78	321.39	9.27	-40.3	-41.6	20.2	0.00e+00	41	32	0	939524096	54	6131
2026-01-27 19:28:34.79	321.24	9.22	-40.4	-41.7	20.3	0.00e+00	0	32	0	941621248	54	6226
2026-01-27 19:28:35.80	321.10	9.17	-40.1	-41.3	20.5	0.00e+00	38	32	0	942669824	54	5935
2026-01-27 19:28:36.80	320.96	9.12	-39.8	-41.0	20.7	0.00e+00	0	32	0	944766976	54	5758
2026-01-27 19:28:37.81	320.81	9.07	-39.7	-40.9	20.9	0.00e+00	92	32	0	946864128	52	6351
2026-01-27 19:28:38.82	320.67	9.02	-39.7	-40.9	20.9	0.00e+00	0	32	0	948961280	52	6379
2026-01-27 19:28:39.83	320.53	8.97	-39.4	-40.5	21.3	0.00e+00	0	32	0	951058432	52	6054
2026-01-27 19:28:40.84	320.39	8.93	-39.4	-40.5	21.2	0.00e+00	17	32	0	952107008	52	6086
2026-01-27 19:28:41.85	320.25	8.88	-39.4	-40.5	21.1	0.00e+00	0	32	0	954204160	52	6075
2026-01-27 19:28:42.86	320.10	8.83	-39.6	-40.8	21.0	0.00e+00	92	32	0	956301312	52	6254
2026-01-27 19:28:43.86	319.97	8.78	-39.3	-40.4	21.4	0.00e+00	0	32	0	958398464	52	6011
2026-01-27 19:28:44.87	319.83	8.73	-39.2	-40.3	21.3	0.00e+00	75	32	0	960495616	52	5928
2026-01-27 19:28:45.88	319.69	8.68	-39.2	-40.3	21.4	0.00e+00	0	32	0	961544192	52	5963
2026-01-27 19:28:46.89	319.55	8.63	-39.4	-40.6	21.2	0.00e+00	0	32	0	963641344	52	6152
2026-01-27 19:28:47.90	319.41	8.58	-39.6	-40.8	20.9	0.00e+00	0	32	0	965738496	52	6280
2026-01-27 19:28:48.90	319.27	8.53	-39.6	-40.8	21.0	0.00e+00	0	32	0	967835648	52	6273
2026-01-27 19:28:49.92	319.14	8.48	-39.9	-41.1	20.6	0.00e+00	46	32	0	969932800	52	6524
2026-01-27 19:28:50.93	319.00	8.43	-39.8	-41.1	20.7	0.00e+00	0	32	0	970981376	52	6479
2026-01-27 19:28:51.94	318.86	8.38	-40.1	-41.3	20.4	0.00e+00	54	32	0	973078528	52	6687
2026-01-27 19:28:52.94	318.73	8.33	-40.0	-41.3	20.5	0.00e+00	0	32	0	975175680	52	6639
2026-01-27 19:28:53.95	318.59	8.28	-39.9	-41.2	20.6	0.00e+00	0	32	0	977272832	52	6561
2026-01-27 19:28:54.96	318.46	8.23	-40.0	-41.2	20.6	0.00e+00	0	32	0	979369984	52	6612
2026-01-27 19:28:55.97	318.32	8.19	-40.1	-41.4	20.3	0.00e+00	0	32	0	981467136	52	6719
2026-01-27 19:28:56.98	318.19	8.14	-39.8	-41.0	20.5	0.00e+00	39	32	0	982515712	52	6462
2026-01-27 19:28:57.98	318.06	8.09	-39.8	-41.0	20.7	0.00e+00	0	32	0	984612864	52	6432
2026-01-27 19:28:58.99	317.92	8.04	-39.9	-41.1	20.6	0.00e+00	92	32	0	986710016	52	6514
2026-01-27 19:29:00.00	317.79	7.99	-39.7	-41.0	20.8	0.00e+00	0	32	0	988807168	52	6392
2026-01-27 19:29:01.01	317.66	7.94	-39.7	-40.9	20.9	0.00e+00	0	32	0	990904320	52	6390
2026-01-27 19:29:02.01	317.53	7.89	-39.8	-41.1	20.6	0.00e+00	0	32	0	991952896	52	6499
2026-01-27 19:29:03.02	317.40	7.84	-39.6	-40.9	20.7	0.00e+00	0	32	0	994050048	52	6321
2026-01-27 19:29:04.03	317.27	7.79	-39.5	-40.6	20.9	0.00e+00	17	32	0	996147200	52	6159
2026-01-27 19:29:05.04	317.14	7.74	-39.5	-40.7	21.0	0.00e+00	0	32	0	998244352	52	6195
2026-01-27 19:29:06.05	317.01	7.68	-39.6	-40.8	21.0	0.00e+00	78	32	0	999292928	52	6255
2026-01-27 19:29:07.06	316.88	7.63	-39.4	-40.6	21.1	0.00e+00	0	32	0	1001390080	52	6143
2026-01-27 19:29:08.07	316.75	7.58	-39.4	-40.6	21.1	0.00e+00	59	32	0	1003487232	52	6143
2026-01-27 19:29:09.08	316.62	7.53	-39.3	-40.4	21.2	0.00e+00	0	32	0	1005584384	52	6010
2026-01-27 19:29:10.09	316.49	7.48	-39.0	-40.1	21.4	0.00e+00	0	32	0	1007681536	52	5827
2026-01-27 19:29:11.10	316.37	7.43	-38.5	-39.6	22.0	0.00e+00	0	32	0	1009778688	50	6131
2026-01-27 19:29:12.11	316.24	7.38	-38.4	-39.4	22.1	0.00e+00	33	32	0	1010827264	50	6019
2026-01-27 19:29:13.12	316.11	7.33	-38.4	-39.4	22.2	0.00e+00	38	32	0	1012924416	50	6019
2026-01-27 19:29:14.13	315.99	7.28	-38.3	-39.3	22.1	0.00e+00	0	32	0	1015021568	50	5939
2026-01-27 19:29:15.14	315.86	7.23	-38.4	-39.5	22.0	0.00e+00	92	32	0	1017118720	50	6054
2026-01-27 19:29:16.14	315.74	7.18	-38.3	-39.3	22.0	0.00e+00	0	32	0	1019215872	50	5959
2026-01-27 19:29:17.16	315.61	7.13	-38.6	-39.7	21.7	0.00e+00	0	32	0	1020264448	50	6221
2026-01-27 19:29:18.16	315.49	7.08	-38.7	-39.7	21.9	0.00e+00	0	32	0	1022361600	50	6238
2026-01-27 19:29:19.17	315.36	7.03	-38.8	-39.9	21.6	0.00e+00	33	32	0	1024458752	50	6356
2026-01-27 19:29:20.18	315.24	6.98	-38.8	-39.9	21.5	0.00e+00	43	32	0	1026555904	50	6370
2026-01-27 19:29:21.19	315.12	6.93	-38.7	-39.8	21.7	0.00e+00	0	32	0	1028653056	50	6274
2026-01-27 19:29:22.20	314.99	6.88	-38.8	-39.9	21.5	0.00e+00	92	32	0	1029701632	50	6356
2026-01-27 19:29:23.21	314.87	6.82	-38.5	-39.6	21.9	0.00e+00	0	32	0	1031798784	50	6145
2026-01-27 19:29:24.22	314.75	6.77	-38.4	-39.5	21.9	0.00e+00	0	32	0	1033895936	50	6047
2026-01-27 19:29:25.23	314.63	6.72	-38.5	-39.6	21.9	0.00e+00	0	32	0	1035993088	50	6128
2026-01-27 19:29:26.24	314.51	6.67	-38.5	-39.6	22.0	0.00e+00	0	32	0	1038090240	50	6104
2026-01-27 19:29:27.25	314.39	6.62	-38.6	-39.7	21.8	0.00e+00	25	32	0	1039138816	50	6194
2026-01-27 19:29:28.26	314.27	6.57	-38.0	-39.0	22.2	0.00e+00	0	32	0	1041235968	50	5761
2026-01-27 19:29:29.27	314.15	6.52	-38.2	-39.2	22.2	0.00e+00	92	32	0	1043333120	50	5880
2026-01-27 19:29:30.28	314.03	6.47	-38.5	-39.6	21.9	0.00e+00	0	32	0	1045430272	50	6109
2026-01-27 19:29:31.29	313.91	6.42	-38.6	-39.6	21.7	0.00e+00	0	32	0	1047527424	50	6168
2026-01-27 19:29:32.30	313.79	6.37	-38.6	-39.8	21.7	0.00e+00	0	32	0	1048576000	50	6247
2026-01-27 19:29:33.31	313.67	6.32	-39.1	-40.2	21.2	0.00e+00	0	32	0	1050673152	50	6590
2026-01-27 19:29:34.32	313.56	6.26	-39.0	-40.2	21.3	0.00e+00	36	32	0	1052770304	50	6540
2026-01-27 19:29:35.32	313.44	6.21	-39.1	-40.2	21.3	0.00e+00	0	32	0	1054867456	50	6596
2026-01-27 19:29:36.33	313.32	6.16	-39.3	-40.5	21.1	0.00e+00	74	32	0	1056964608	50	6791
2026-01-27 19:29:37.34	313.21	6.11	-39.1	-40.3	21.2	0.00e+00	0	32	0	1058013184	50	6617
2026-01-27 19:29:38.35	313.09	6.06	-39.4	-40.6	21.0	0.00e+00	16	32	0	1060110336	50	6852
2026-01-27 19:29:39.36	312.98	6.01	-39.4	-40.6	20.9	0.00e+00	0	32	0	1062207488	50	6861
2026-01-27 19:29:40.37	312.86	5.96	-39.3	-40.5	21.1	0.00e+00	0	32	0	1064304640	50	6845
2026-01-27 19:29:41.38	312.75	5.91	-39.3	-40.5	20.9	0.00e+00	9	32	0	1066401792	50	6775
2026-01-27 19:29:42.39	312.63	5.86	-39.2	-40.4	21.2	0.00e+00	0	32	0	1067450368	50	6730
2026-01-27 19:29:43.40	312.52	5.80	-39.2	-40.4	21.0	0.00e+00	38	32	0	1069547520	50	6734
2026-01-27 19:29:44.41	312.41	5.75	-39.4	-40.6	20.9	0.00e+00	0	32	0	1071644672	50	6855
2026-01-27 19:29:45.42	312.29	5.70	-39.2	-40.4	21.0	0.00e+00	92	32	0	1073741824	50	6732
2026-01-27 19:29:46.42	312.18	5.65	-39.1	-40.3	21.0	0.00e+00	0	32	0	1075838976	50	6640
2026-01-27 19:29:47.43	312.07	5.60	-39.5	-40.7	20.6	0.00e+00	0	32	0	1077936128	50	6988
2026-01-27 19:29:48.44	311.96	5.55	-39.3	-40.5	20.6	0.00e+00	0	32	0	1078984704	50	6845
2026-01-27 19:29:49.45	311.85	5.50	-39.2	-40.4	20.9	0.00e+00	0	32	0	1081081856	50	6714
2026-01-27 19:29:50.46	311.74	5.45	-39.2	-40.4	21.0	0.00e+00	92	32	0	1083179008	50	6755
2026-01-27 19:29:51.47	311.63	5.40	-39.1	-40.3	21.1	0.00e+00	0	32	0	1085276160	50	6636
2026-01-27 19:29:52.48	311.52	5.34	-39.2	-40.4	21.1	0.00e+00	83	32	0	1087373312	50	6719
2026-01-27 19:29:53.49	311.41	5.29	-39.1	-40.3	21.0	0.00e+00	0	32	0	1088421888	50	6663
2026-01-27 19:29:54.50	311.30	5.24	-39.1	-40.3	20.9	0.00e+00	0	32	0	1090519040	50	6618
2026-01-27 19:29:55.50	311.19	5.19	-39.3	-40.5	20.5	0.00e+00	0	32	0	1092616192	50	6797
2026-01-27 19:29:56.51	311.08	5.14	-38.8	-39.9	21.2	0.00e+00	0	32	0	1094713344	50	6381
2026-01-27 19:29:57.52	310.97	5.09	-38.8	-39.9	21.5	0.00e+00	51	32	0	1096810496	50	6370
2026-01-27 19:29:58.53	310.86	5.04	-38.5	-39.5	21.6	0.00e+00	0	32	0	1097859072	50	6099
2026-01-27 19:29:59.54	310.76	4.99	-38.7	-39.8	21.5	0.00e+00	92	32	0	1099956224	50	6264
2026-01-27 19:30:00.55	310.65	4.94	-38.5	-39.6	21.7	0.00e+00	0	32	0	1102053376	50	6144
2026-01-27 19:30:01.56	310.54	4.88	-38.9	-40.0	21.3	0.00e+00	0	32	0	1104150528	50	6452
2026-01-27 19:30:02.57	310.44	4.83	-38.6	-39.8	21.5	0.00e+00	0	32	0	1106247680	50	6252
2026-01-27 19:30:03.58	310.33	4.78	-39.0	-40.2	21.1	0.00e+00	0	32	0	1107296256	50	6595
2026-01-27 19:30:04.59	310.23	4.73	-39.1	-40.2	21.1	0.00e+00	29	32	0	1109393408	50	6595
2026-01-27 19:30:05.60	310.12	4.68	-38.9	-40.0	21.3	0.00e+00	0	32	0	1111490560	50	6440
2026-01-27 19:30:06.61	310.02	4.63	-39.0	-40.2	21.1	0.00e+00	92	32	0	1113587712	50	6553
2026-01-27 19:30:07.62	309.91	4.58	-39.3	-40.5	20.9	0.00e+00	0	32	0	1115684864	50	6811
2026-01-27 19:30:08.63	309.81	4.53	-39.4	-40.7	20.7	0.00e+00	0	32	0	1116733440	50	6936
2026-01-27 19:30:09.63	309.71	4.48	-40.0	-41.3	20.1	0.00e+00	0	32	0	1118830592	52	6673
2026-01-27 19:30:10.64	309.60	4.43	-40.2	-41.5	19.9	0.00e+00	0	32	0	1120927744	52	6815
2026-01-27 19:30:11.65	309.50	4.37	-39.9	-41.3	20.2	0.00e+00	36	32	0	1123024896	52	6616
2026-01-27 19:30:12.66	309.40	4.32	-40.4	-41.8	19.6	0.00e+00	0	32	0	1125122048	52	7086
2026-01-27 19:30:13.67	309.30	4.27	-40.1	-41.5	20.0	0.00e+00	37	32	0	1126170624	52	6790
2026-01-27 19:30:14.69	309.19	4.22	-39.7	-41.0	20.3	0.00e+00	0	32	0	1128267776	52	6442
2026-01-27 19:30:15.69	309.09	4.17	-39.5	-40.8	20.6	0.00e+00	92	32	0	1130364928	52	6260
2026-01-27 19:30:16.70	308.99	4.12	-39.6	-40.9	20.4	0.00e+00	0	32	0	1132462080	52	6325
2026-01-27 19:30:17.71	308.89	4.07	-40.0	-41.3	20.0	0.00e+00	0	32	0	1134559232	52	6663
2026-01-27 19:30:18.72	308.79	4.02	-39.4	-40.6	20.6	0.00e+00	0	32	0	1135607808	52	6121
2026-01-27 19:30:19.73	308.69	3.97	-39.3	-40.5	20.7	0.00e+00	0	32	0	1137704960	52	6096
2026-01-27 19:30:20.74	308.59	3.92	-39.4	-40.6	20.6	0.00e+00	35	32	0	1139802112	52	6137
2026-01-27 19:30:21.75	308.49	3.86	-39.0	-40.2	21.0	0.00e+00	0	32	0	1141899264	52	5868
2026-01-27 19:30:22.76	308.39	3.81	-38.6	-39.7	21.3	0.00e+00	78	32	0	1143996416	50	6243
2026-01-27 19:30:23.76	308.30	3.76	-38.8	-39.9	21.1	0.00e+00	0	32	0	1146093568	50	6367
2026-01-27 19:30:24.77	308.20	3.71	-39.1	-40.3	20.8	0.00e+00	0	32	0	1147142144	50	6664
2026-01-27 19:30:25.78	308.10	3.66	-39.2	-40.4	20.7	0.00e+00	0	32	0	1149239296	50	6762
2026-01-27 19:30:26.79	308.00	3.61	-38.8	-39.9	21.0	0.00e+00	0	32	0	1151336448	50	6384
2026-01-27 19:30:27.80	307.91	3.56	-39.5	-40.7	20.3	0.00e+00	37	32	0	1153433600	50	6999
2026-01-27 19:30:28.81	307.81	3.51	-39.0	-40.1	21.1	0.00e+00	0	32	0	1155530752	50	6539
2026-01-27 19:30:29.82	307.71	3.46	-38.9	-40.0	21.2	0.00e+00	71	32	0	1156579328	50	6455
2026-01-27 19:30:30.83	307.62	3.41	-39.3	-40.5	20.5	0.00e+00	0	32	0	1158676480	50	6801
2026-01-27 19:30:31.84	307.52	3.36	-38.6	-39.7	21.2	0.00e+00	0	32	0	1160773632	50	6181
2026-01-27 19:30:32.85	307.43	3.31	-39.6	-40.9	20.2	0.00e+00	0	32	0	1162870784	50	7151
2026-01-27 19:30:33.86	307.33	3.25	-39.8	-41.2	19.9	0.00e+00	0	32	0	1164967936	52	6562
2026-01-27 19:30:34.87	307.24	3.20	-39.8	-41.1	20.0	0.00e+00	38	32	0	1166016512	52	6492
2026-01-27 19:30:35.88	307.14	3.15	-40.7	-42.2	19.1	0.00e+00	0	32	0	1168113664	52	7363
2026-01-27 19:30:36.89	307.05	3.10	-40.2	-41.6	19.6	0.00e+00	90	32	0	1170210816	52	6909
2026-01-27 19:30:37.90	306.95	3.05	-41.1	-42.7	18.5	0.00e+00	0	32	0	1172307968	54	6993
2026-01-27 19:30:38.91	306.86	3.00	-47.7	-62.8	3.6	1.25e+00	0	32	104	1173356544	60	49965
2026-01-27 19:30:39.92	306.77	2.95	-48.1	-63.3	3.6	1.51e+00	0	32	104	1173356544	60	52862
2026-01-27 19:30:40.93	306.67	2.90	-48.3	-63.5	3.6	1.51e+00	0	32	104	1173356544	60	54180
2026-01-27 19:30:41.93	306.58	2.85	-48.5	-63.6	3.6	1.51e+00	0	32	104	1173356544	60	54813
2026-01-27 19:30:42.95	306.49	2.80	-48.6	-63.7	3.6	1.51e+00	0	32	104	1173356544	60	55417
2026-01-27 19:30:43.96	306.40	2.75	-48.6	-63.8	3.6	1.51e+00	0	32	104	1173356544	60	56268
2026-01-27 19:30:44.97	306.31	2.70	-48.7	-63.9	3.6	1.51e+00	0	32	104	1173356544	60	56375
2026-01-27 19:30:45.97	306.22	2.65	-48.7	-63.9	3.6	1.51e+00	0	32	104	1173356544	60	56603
2026-01-27 19:30:46.98	306.13	2.60	-48.8	-64.0	3.6	1.51e+00	0	32	104	1173356544	60	57021
2026-01-27 19:30:47.99	306.04	2.55	-48.8	-64.0	3.6	1.51e+00	0	32	104	1173356544	60	56996
2026-01-27 19:30:49.00	305.95	2.50	-48.8	-64.0	3.6	1.51e+00	0	32	104	1173356544	60	57044
2026-01-27 19:30:50.01	305.86	2.45	-48.8	-64.0	3.6	1.51e+00	0	32	104	1173356544	60	57096
2026-01-27 19:30:51.02	305.77	2.40	-48.8	-64.0	3.6	1.51e+00	0	32	104	1173356544	60	57104
2026-01-27 19:30:52.03	305.68	2.35	-48.8	-64.0	3.6	1.51e+00	0	32	104	1173356544	60	57096
