passes_logs/2026/01/27/R4.6S_Anadyr/R4.6S_Anadyr__20260127_103353_KOSAR1-5_rec.log

#Pass ID: 20260127_103353_KOSAR1-5
#Satellite: KOSAR1-5
#Configuration: KOSAR1-5
#almurnet v.1.7.20251203
#Start time: 2026-01-27 10:33:59

#Version: 2.2.20231116
#Station: R4.6S_Anadyr
#Location: 177.4865 lon 64.73178 lat
#TLE: 1 67264U 25313S   26026.77415896  .00010358  00000+0  47807-3 0  9997
#TLE: 2 67264  97.4174 103.7494 0016448 141.8368 218.4035 15.20288013  4446

#Time	Az	El	Level	Level2	SNR	BER	BlckErr	Temp	State	Recorded	gain1	gain2
2026-01-27 10:33:59.76	190.36	0.38	-49.0	-50.6	5.7	0.00e+00	0	30	0	0	60	41490
2026-01-27 10:34:00.74	190.41	0.44	-45.7	-60.5	3.6	1.51e+00	0	31	104	0	60	43169
2026-01-27 10:34:01.71	190.47	0.50	-45.4	-60.5	3.6	1.51e+00	0	31	104	0	60	42865
2026-01-27 10:34:02.69	190.52	0.56	-45.5	-60.5	3.6	1.51e+00	0	31	104	0	60	42730
2026-01-27 10:34:03.67	190.58	0.62	-45.5	-60.5	3.6	1.51e+00	0	31	104	0	60	42864
2026-01-27 10:34:04.65	190.63	0.68	-45.7	-60.4	3.6	1.51e+00	0	31	104	0	60	42631
2026-01-27 10:34:05.63	190.69	0.74	-45.7	-60.4	3.6	1.51e+00	0	31	104	0	60	42675
2026-01-27 10:34:06.61	190.74	0.80	-45.7	-60.5	3.6	1.51e+00	0	31	104	0	60	42787
2026-01-27 10:34:07.58	190.80	0.86	-45.7	-60.4	3.6	1.51e+00	0	31	104	0	60	42623
2026-01-27 10:34:08.55	190.86	0.92	-45.6	-60.3	3.6	1.51e+00	0	31	104	0	60	42167
2026-01-27 10:34:09.53	190.91	0.98	-45.6	-60.3	3.6	1.51e+00	0	31	104	0	60	42208
2026-01-27 10:34:10.51	190.97	1.05	-45.8	-60.5	3.6	1.51e+00	0	31	104	0	60	42929
2026-01-27 10:34:11.49	191.03	1.11	-45.6	-60.3	3.6	1.51e+00	0	31	104	0	60	42209
2026-01-27 10:34:12.46	191.09	1.17	-45.4	-60.1	3.6	1.51e+00	0	31	104	0	60	41183
2026-01-27 10:34:13.44	191.14	1.23	-45.4	-60.0	3.6	1.51e+00	0	32	104	0	60	40694
2026-01-27 10:34:14.42	191.20	1.29	-45.2	-59.9	3.6	1.51e+00	0	32	104	0	60	40260
2026-01-27 10:34:15.39	191.26	1.36	-44.9	-59.7	3.6	1.51e+00	0	32	104	0	60	39101
2026-01-27 10:34:16.37	191.32	1.42	-44.7	-59.5	3.6	1.51e+00	0	32	104	0	60	38299
2026-01-27 10:34:17.34	191.38	1.48	-44.7	-59.3	3.6	1.51e+00	0	32	104	0	60	37630
2026-01-27 10:34:18.32	191.44	1.54	-44.5	-59.1	3.6	1.51e+00	0	32	104	0	60	36768
2026-01-27 10:34:19.29	191.50	1.61	-44.3	-59.0	3.6	1.51e+00	0	32	104	0	60	36198
2026-01-27 10:34:20.27	191.56	1.67	-44.3	-59.0	3.6	1.51e+00	0	32	104	0	60	36224
2026-01-27 10:34:21.25	191.62	1.73	-44.3	-59.1	3.6	1.51e+00	0	32	104	0	60	36392
2026-01-27 10:34:22.22	191.68	1.80	-44.3	-59.0	3.6	1.51e+00	0	32	104	0	60	36234
2026-01-27 10:34:23.20	191.74	1.86	-44.3	-59.0	3.6	1.51e+00	0	32	104	0	60	36205
2026-01-27 10:34:24.18	191.80	1.92	-44.3	-59.0	3.6	1.51e+00	0	32	104	0	60	36243
2026-01-27 10:34:25.16	191.86	1.99	-44.3	-59.0	3.6	1.51e+00	0	32	104	0	60	36248
2026-01-27 10:34:26.13	191.92	2.05	-44.3	-59.0	3.6	1.51e+00	0	32	104	0	60	36123
2026-01-27 10:34:27.11	191.99	2.12	-44.3	-59.0	3.6	1.51e+00	0	32	104	0	60	36238
2026-01-27 10:34:28.08	192.05	2.18	-44.3	-59.0	3.6	1.51e+00	0	32	104	0	60	36089
2026-01-27 10:34:29.06	192.11	2.25	-44.3	-59.0	3.6	1.51e+00	0	32	104	0	60	35945
2026-01-27 10:34:30.03	192.18	2.31	-44.3	-59.0	3.6	1.51e+00	0	32	104	0	60	36112
2026-01-27 10:34:31.01	192.24	2.37	-44.3	-59.0	3.6	1.51e+00	0	32	104	0	60	36278
2026-01-27 10:34:31.99	192.30	2.44	-44.3	-59.0	3.6	1.51e+00	0	32	104	0	60	36067
2026-01-27 10:34:32.96	192.37	2.50	-44.3	-59.0	3.6	1.51e+00	0	32	104	0	60	36242
2026-01-27 10:34:33.94	192.43	2.57	-44.3	-59.0	3.6	1.51e+00	0	32	104	0	60	36223
2026-01-27 10:34:34.92	192.50	2.64	-44.3	-59.0	3.6	1.51e+00	0	32	104	0	60	36161
2026-01-27 10:34:35.90	192.56	2.70	-44.3	-59.0	3.6	1.51e+00	0	32	104	0	60	36078
2026-01-27 10:34:36.88	192.63	2.77	-44.3	-59.0	3.6	1.51e+00	0	32	104	0	60	36327
2026-01-27 10:34:37.85	192.69	2.83	-44.3	-59.0	3.6	1.51e+00	0	32	104	0	60	36051
2026-01-27 10:34:38.84	192.76	2.90	-44.3	-59.0	3.6	1.51e+00	0	32	104	0	60	36206
2026-01-27 10:34:39.81	192.83	2.97	-44.3	-59.0	3.5	1.51e+00	0	32	104	0	60	35973
2026-01-27 10:34:40.79	192.90	3.04	-44.3	-59.0	3.5	1.51e+00	0	32	104	0	60	36233
2026-01-27 10:34:41.77	192.96	3.10	-44.3	-59.0	3.6	1.51e+00	0	32	104	0	60	36202
2026-01-27 10:34:42.75	193.03	3.17	-44.3	-59.0	3.6	1.51e+00	0	32	104	0	60	36036
2026-01-27 10:34:43.72	193.10	3.24	-44.3	-59.0	3.5	1.51e+00	0	32	104	0	60	36300
2026-01-27 10:34:44.70	193.17	3.30	-44.3	-59.0	3.5	1.51e+00	0	32	104	0	60	36152
2026-01-27 10:34:45.68	193.24	3.37	-44.3	-59.0	3.6	1.51e+00	0	32	104	0	60	36158
2026-01-27 10:34:46.66	193.31	3.44	-44.3	-59.0	3.6	1.51e+00	0	32	104	0	60	36226
2026-01-27 10:34:47.64	193.38	3.51	-44.3	-59.0	3.6	1.51e+00	0	32	104	0	60	36162
2026-01-27 10:34:48.62	193.45	3.58	-44.3	-59.0	3.6	1.51e+00	0	32	104	0	60	36127
2026-01-27 10:34:49.59	193.52	3.65	-44.3	-59.1	3.6	1.51e+00	0	32	104	0	60	36400
2026-01-27 10:34:50.57	193.59	3.71	-44.3	-59.0	3.6	1.51e+00	0	32	104	0	60	36257
2026-01-27 10:34:51.55	193.66	3.78	-44.3	-59.0	3.6	1.51e+00	0	32	104	0	60	36211
2026-01-27 10:34:52.53	193.73	3.85	-44.3	-59.0	3.6	1.51e+00	0	32	104	0	60	35988
2026-01-27 10:34:53.51	193.81	3.92	-44.3	-59.0	3.6	1.51e+00	0	32	104	0	60	36199
2026-01-27 10:34:54.49	193.88	3.99	-44.4	-59.1	3.6	1.51e+00	0	32	104	0	60	36554
2026-01-27 10:34:55.46	193.95	4.06	-44.5	-59.2	3.6	1.51e+00	0	32	104	0	60	37021
2026-01-27 10:34:56.44	194.02	4.13	-44.4	-59.1	3.6	1.51e+00	0	32	104	0	60	36585
2026-01-27 10:34:57.42	194.10	4.20	-44.3	-59.0	3.6	1.51e+00	0	32	104	0	60	36285
2026-01-27 10:34:58.39	194.17	4.27	-44.4	-59.1	3.6	1.51e+00	0	32	104	0	60	36365
2026-01-27 10:34:59.38	194.25	4.34	-44.6	-59.3	3.6	1.51e+00	0	32	104	0	60	37277
2026-01-27 10:35:00.35	194.32	4.41	-44.6	-59.3	3.6	1.51e+00	0	32	104	0	60	37294
2026-01-27 10:35:01.32	194.40	4.48	-44.4	-59.1	3.6	1.51e+00	0	32	104	0	60	36667
2026-01-27 10:35:02.30	194.48	4.56	-44.4	-59.1	3.5	1.51e+00	0	32	104	0	60	36633
2026-01-27 10:35:03.28	194.55	4.63	-44.7	-59.4	3.6	1.51e+00	0	32	104	0	60	37820
2026-01-27 10:35:04.26	194.63	4.70	-44.6	-59.3	3.6	1.51e+00	0	32	104	0	60	37237
2026-01-27 10:35:05.24	194.71	4.77	-44.5	-59.1	3.5	1.51e+00	0	32	104	0	60	36736
2026-01-27 10:35:06.22	194.79	4.84	-44.5	-59.2	3.6	1.51e+00	0	32	104	0	60	36926
2026-01-27 10:35:07.20	194.86	4.92	-44.7	-59.4	3.6	1.51e+00	0	32	104	0	60	37751
2026-01-27 10:35:08.19	194.94	4.99	-44.6	-59.3	3.6	1.51e+00	0	32	104	0	60	37564
2026-01-27 10:35:09.17	195.02	5.06	-44.6	-59.3	3.6	1.51e+00	0	32	104	0	60	37349
2026-01-27 10:35:10.14	195.10	5.14	-44.5	-59.2	3.6	1.51e+00	0	32	104	0	60	37193
2026-01-27 10:35:11.12	195.18	5.21	-44.7	-59.4	3.6	1.51e+00	0	32	104	0	60	38046
2026-01-27 10:35:12.11	195.27	5.28	-44.7	-59.4	3.6	1.51e+00	0	32	104	0	60	37927
2026-01-27 10:35:13.09	195.35	5.36	-44.6	-59.3	3.6	1.51e+00	0	32	104	0	60	37509
2026-01-27 10:35:14.07	195.43	5.43	-44.6	-59.3	3.6	1.51e+00	0	32	104	0	60	37593
2026-01-27 10:35:15.05	195.51	5.51	-44.8	-59.5	3.6	1.51e+00	0	32	104	0	60	38268
2026-01-27 10:35:16.02	195.59	5.58	-44.7	-59.4	3.6	1.51e+00	0	32	104	0	60	37895
2026-01-27 10:35:17.00	195.68	5.65	-44.7	-59.3	3.6	1.51e+00	0	32	104	0	60	37449
2026-01-27 10:35:17.98	195.76	5.73	-44.6	-59.3	3.6	1.51e+00	0	32	104	0	60	37503
2026-01-27 10:35:18.96	195.85	5.81	-44.8	-59.5	3.6	1.51e+00	0	32	104	0	60	38399
2026-01-27 10:35:19.94	195.93	5.88	-44.8	-59.5	3.6	1.51e+00	0	32	104	0	60	38383
2026-01-27 10:35:20.92	196.02	5.96	-44.7	-59.4	3.6	1.51e+00	0	32	104	0	60	37769
2026-01-27 10:35:21.90	196.10	6.03	-44.7	-59.4	3.6	1.51e+00	0	32	104	0	60	37833
2026-01-27 10:35:22.88	196.19	6.11	-44.8	-59.5	3.6	1.51e+00	0	32	104	0	60	38487
2026-01-27 10:35:23.86	196.28	6.19	-44.9	-59.5	3.6	1.51e+00	0	32	104	0	60	38382
2026-01-27 10:35:24.84	196.37	6.26	-44.8	-59.5	3.6	1.51e+00	0	32	104	0	60	38099
2026-01-27 10:35:25.82	196.45	6.34	-44.7	-59.5	3.6	1.51e+00	0	32	104	0	60	38172
2026-01-27 10:35:26.80	196.54	6.42	-44.8	-59.6	3.6	1.51e+00	0	32	104	0	60	38580
2026-01-27 10:35:27.78	196.63	6.50	-44.9	-59.6	3.6	1.51e+00	0	32	104	0	60	38737
2026-01-27 10:35:28.76	196.72	6.57	-44.8	-59.5	3.6	1.51e+00	0	32	104	0	60	38367
2026-01-27 10:35:29.74	196.81	6.65	-44.8	-59.5	3.6	1.51e+00	0	32	104	0	60	38331
2026-01-27 10:35:30.72	196.91	6.73	-44.9	-59.6	3.6	1.51e+00	0	32	104	0	60	38639
2026-01-27 10:35:31.70	197.00	6.81	-44.8	-59.6	3.6	1.51e+00	0	32	104	0	60	38860
2026-01-27 10:35:32.68	197.09	6.89	-44.8	-59.6	3.6	1.51e+00	0	32	104	0	60	38550
2026-01-27 10:35:33.65	197.18	6.97	-44.8	-59.5	3.6	1.51e+00	0	32	104	0	60	38413
2026-01-27 10:35:34.64	197.28	7.05	-44.9	-59.6	3.6	1.51e+00	0	32	104	0	60	38863
2026-01-27 10:35:35.62	197.37	7.13	-44.9	-59.7	3.6	1.51e+00	0	32	104	0	60	38981
2026-01-27 10:35:36.60	197.47	7.21	-44.9	-59.6	3.6	1.51e+00	0	32	104	0	60	38550
2026-01-27 10:35:37.58	197.56	7.29	-44.8	-59.5	3.6	1.51e+00	0	32	104	0	60	38485
2026-01-27 10:35:38.55	197.66	7.37	-44.9	-59.6	3.6	1.51e+00	0	32	104	0	60	38927
2026-01-27 10:35:39.53	197.76	7.45	-45.0	-59.7	3.6	1.51e+00	0	32	104	0	60	39394
2026-01-27 10:35:40.51	197.85	7.53	-44.9	-59.7	3.6	1.51e+00	0	32	104	0	60	38963
2026-01-27 10:35:41.50	197.95	7.61	-44.9	-59.6	3.6	1.51e+00	0	32	104	0	60	38675
2026-01-27 10:35:42.48	198.05	7.69	-44.9	-59.7	3.6	1.51e+00	0	32	104	0	60	39013
2026-01-27 10:35:43.46	198.15	7.78	-45.0	-59.7	3.5	1.51e+00	0	32	104	0	60	39316
2026-01-27 10:35:44.44	198.25	7.86	-44.9	-59.6	3.6	1.51e+00	0	32	104	0	60	38925
2026-01-27 10:35:45.42	198.35	7.94	-44.9	-59.6	3.6	1.51e+00	0	32	104	0	60	38764
2026-01-27 10:35:46.39	198.45	8.02	-44.9	-59.6	3.6	1.51e+00	0	32	104	0	60	38791
2026-01-27 10:35:47.38	198.56	8.11	-45.0	-59.7	3.6	1.51e+00	0	32	104	0	60	39292
2026-01-27 10:35:48.36	198.66	8.19	-45.0	-59.8	3.6	1.51e+00	0	32	104	0	60	39473
2026-01-27 10:35:49.34	198.76	8.28	-44.9	-59.7	3.6	1.51e+00	0	32	104	0	60	39054
2026-01-27 10:35:50.32	198.87	8.36	-44.9	-59.7	3.6	1.51e+00	0	32	104	0	60	39015
2026-01-27 10:35:51.30	198.97	8.44	-45.0	-59.8	3.6	1.51e+00	0	32	104	0	60	39444
2026-01-27 10:35:52.28	199.08	8.53	-45.0	-59.7	3.6	1.51e+00	0	32	104	0	60	39263
2026-01-27 10:35:53.26	199.19	8.61	-45.0	-59.7	3.6	1.51e+00	0	32	104	0	60	39129
2026-01-27 10:35:54.24	199.29	8.70	-45.0	-59.7	3.6	1.51e+00	0	32	104	0	60	39004
2026-01-27 10:35:55.22	199.40	8.79	-45.1	-59.8	3.6	1.51e+00	0	32	104	0	60	39550
2026-01-27 10:35:56.20	199.51	8.87	-45.1	-59.8	3.6	1.51e+00	0	32	104	0	60	39578
2026-01-27 10:35:57.18	199.62	8.96	-45.0	-59.7	3.6	1.51e+00	0	32	104	0	60	39003
2026-01-27 10:35:58.16	199.73	9.04	-45.0	-59.7	3.6	1.51e+00	0	32	104	0	60	39044
2026-01-27 10:35:59.14	199.84	9.13	-45.1	-59.8	3.6	1.51e+00	0	32	104	0	60	39534
2026-01-27 10:36:00.12	199.95	9.22	-45.0	-59.7	3.6	1.51e+00	0	32	104	0	60	39340
2026-01-27 10:36:01.10	200.07	9.31	-45.0	-59.7	3.6	1.51e+00	0	32	104	0	60	39315
2026-01-27 10:36:02.08	200.18	9.40	-45.0	-59.7	3.5	1.51e+00	0	32	104	0	60	39004
2026-01-27 10:36:03.06	200.30	9.48	-45.1	-59.8	3.6	1.51e+00	0	32	104	0	60	39539
2026-01-27 10:36:04.03	200.41	9.57	-45.0	-59.8	3.6	1.51e+00	0	32	104	0	60	39468
2026-01-27 10:36:05.01	200.53	9.66	-45.0	-59.8	3.6	1.51e+00	0	32	104	0	60	39409
2026-01-27 10:36:05.99	200.64	9.75	-45.0	-59.7	3.6	1.51e+00	0	32	104	0	60	39342
2026-01-27 10:36:06.96	200.76	9.84	-45.1	-59.8	3.6	1.51e+00	0	32	104	0	60	39838
2026-01-27 10:36:07.94	200.88	9.93	-45.1	-59.8	3.6	1.51e+00	0	32	104	0	60	39650
2026-01-27 10:36:08.92	201.00	10.02	-45.0	-59.8	3.6	1.51e+00	0	32	104	0	60	39642
2026-01-27 10:36:09.90	201.12	10.11	-45.0	-59.7	3.6	1.51e+00	0	32	104	0	60	39363
2026-01-27 10:36:10.88	201.24	10.20	-45.1	-59.8	3.6	1.51e+00	0	32	104	0	60	39839
2026-01-27 10:36:11.86	201.36	10.29	-45.1	-59.8	3.6	1.51e+00	0	32	104	0	60	39853
2026-01-27 10:36:12.84	201.49	10.39	-45.1	-59.8	3.6	1.51e+00	0	32	104	0	60	39651
2026-01-27 10:36:13.82	201.61	10.48	-45.1	-59.8	3.6	1.51e+00	0	32	104	0	60	39460
2026-01-27 10:36:14.80	201.74	10.57	-45.2	-59.8	3.6	1.51e+00	0	32	104	0	60	39665
2026-01-27 10:36:15.77	201.86	10.66	-45.2	-59.9	3.6	1.51e+00	0	32	104	0	60	39988
2026-01-27 10:36:16.75	201.99	10.76	-45.1	-59.8	3.6	1.51e+00	0	32	104	0	60	39565
2026-01-27 10:36:17.73	202.12	10.85	-45.0	-59.8	3.6	1.51e+00	0	32	104	0	60	39685
2026-01-27 10:36:18.71	202.24	10.94	-45.2	-59.9	3.6	1.51e+00	0	32	104	0	60	40063
2026-01-27 10:36:19.68	202.37	11.04	-45.2	-59.9	3.6	1.51e+00	0	32	104	0	60	39988
2026-01-27 10:36:20.66	202.50	11.13	-45.1	-59.8	3.6	1.51e+00	0	32	104	0	60	39594
2026-01-27 10:36:21.63	202.63	11.23	-45.1	-59.8	3.6	1.51e+00	0	32	104	0	60	39527
2026-01-27 10:36:22.61	202.77	11.32	-45.2	-59.9	3.5	1.51e+00	0	32	104	0	60	40033
2026-01-27 10:36:23.59	202.90	11.42	-45.2	-59.9	3.6	1.51e+00	0	32	104	0	60	40118
2026-01-27 10:36:24.57	203.04	11.51	-45.1	-59.9	3.6	1.51e+00	0	32	104	0	60	39879
2026-01-27 10:36:25.55	203.17	11.61	-45.1	-59.8	3.6	1.51e+00	0	32	104	0	60	39685
2026-01-27 10:36:26.53	203.31	11.71	-45.2	-59.8	3.6	1.51e+00	0	32	104	0	60	39834
2026-01-27 10:36:27.51	203.45	11.80	-45.2	-60.0	3.6	1.51e+00	0	32	104	0	60	40399
2026-01-27 10:36:28.48	203.59	11.90	-45.2	-59.9	3.6	1.51e+00	0	32	104	0	60	40133
2026-01-27 10:36:29.46	203.73	12.00	-45.2	-59.9	3.6	1.51e+00	0	32	104	0	60	40100
2026-01-27 10:36:30.44	203.87	12.10	-45.3	-59.9	3.6	1.51e+00	0	32	104	0	60	40287
2026-01-27 10:36:31.42	204.01	12.20	-45.2	-60.0	3.6	1.51e+00	0	32	104	0	60	40692
2026-01-27 10:36:32.40	204.15	12.30	-45.2	-59.9	3.6	1.51e+00	0	32	104	0	60	40182
2026-01-27 10:36:33.38	204.30	12.40	-45.2	-59.9	3.6	1.51e+00	0	32	104	0	60	40031
2026-01-27 10:36:34.36	204.44	12.50	-45.2	-59.9	3.6	1.51e+00	0	32	104	0	60	40106
2026-01-27 10:36:35.34	204.59	12.60	-45.2	-59.9	3.6	1.51e+00	0	32	104	0	60	40113
2026-01-27 10:36:36.31	204.74	12.70	-45.3	-60.0	3.6	1.51e+00	0	32	104	0	60	40492
2026-01-27 10:36:37.29	204.89	12.80	-45.2	-59.9	3.6	1.51e+00	0	32	104	0	60	40039
2026-01-27 10:36:38.28	205.04	12.90	-45.3	-59.9	3.6	1.51e+00	0	32	104	0	60	40109
2026-01-27 10:36:39.27	205.19	13.00	-45.3	-60.0	3.6	1.51e+00	0	33	104	0	60	40473
2026-01-27 10:36:40.24	205.35	13.11	-45.3	-59.9	3.6	1.51e+00	0	33	104	0	60	40313
2026-01-27 10:36:41.22	205.50	13.21	-45.2	-59.9	3.6	1.51e+00	0	32	104	0	60	40229
2026-01-27 10:36:42.20	205.66	13.31	-45.2	-59.9	3.6	1.51e+00	0	32	104	0	60	40263
2026-01-27 10:36:43.18	205.81	13.42	-45.3	-60.0	3.6	1.51e+00	0	33	104	0	60	40582
2026-01-27 10:36:44.16	205.97	13.52	-45.3	-60.0	3.6	1.51e+00	0	33	104	0	60	40460
2026-01-27 10:36:45.14	206.13	13.63	-45.3	-60.0	3.6	1.51e+00	0	32	104	0	60	40425
2026-01-27 10:36:46.12	206.29	13.73	-45.2	-59.9	3.6	1.51e+00	0	32	104	0	60	40103
2026-01-27 10:36:47.10	206.45	13.84	-45.3	-60.0	3.6	1.51e+00	0	33	104	0	60	40707
2026-01-27 10:36:48.09	206.62	13.94	-45.3	-60.0	3.6	1.51e+00	0	32	104	0	60	40607
2026-01-27 10:36:49.06	206.78	14.05	-45.3	-60.0	3.6	1.51e+00	0	32	104	0	60	40548
2026-01-27 10:36:50.05	206.95	14.16	-45.3	-60.0	3.6	1.51e+00	0	32	104	0	60	40470
2026-01-27 10:36:51.03	207.12	14.26	-45.4	-60.0	3.6	1.51e+00	0	33	104	0	60	40743
2026-01-27 10:36:52.02	207.29	14.37	-45.4	-60.1	3.6	1.51e+00	0	32	104	0	60	40810
2026-01-27 10:36:53.00	207.46	14.48	-45.3	-60.0	3.6	1.51e+00	0	33	104	0	60	40642
2026-01-27 10:36:53.98	207.63	14.59	-45.4	-60.1	3.6	1.51e+00	0	32	104	0	60	40933
2026-01-27 10:36:54.91	207.80	14.69	-45.4	-60.1	3.6	1.51e+00	0	33	104	0	60	41062
2026-01-27 10:36:55.89	207.97	14.80	-45.4	-60.1	3.5	1.51e+00	0	32	104	0	60	40941
2026-01-27 10:36:56.87	208.15	14.91	-45.4	-60.1	3.6	1.51e+00	0	32	104	0	60	41057
2026-01-27 10:36:57.85	208.33	15.02	-45.4	-60.1	3.6	1.51e+00	0	33	104	0	60	40805
2026-01-27 10:36:58.83	208.51	15.13	-45.4	-60.1	3.6	1.51e+00	0	32	104	0	60	41058
2026-01-27 10:36:59.81	208.69	15.24	-45.3	-60.0	3.6	1.51e+00	0	33	104	0	60	40598
2026-01-27 10:37:00.80	208.87	15.35	-45.4	-60.0	3.6	1.51e+00	0	32	104	0	60	40739
2026-01-27 10:37:01.78	209.05	15.47	-45.3	-60.0	3.6	1.51e+00	0	33	104	0	60	40700
2026-01-27 10:37:02.75	209.24	15.58	-45.4	-60.1	3.6	1.51e+00	0	33	104	0	60	40933
2026-01-27 10:37:03.73	209.43	15.69	-45.3	-60.1	3.6	1.51e+00	0	33	104	0	60	40952
2026-01-27 10:37:04.72	209.62	15.80	-45.3	-60.1	3.6	1.51e+00	0	33	104	0	60	40833
2026-01-27 10:37:05.70	209.81	15.92	-45.3	-60.1	3.6	1.51e+00	0	32	104	0	60	40861
2026-01-27 10:37:06.68	210.00	16.03	-45.4	-60.0	3.6	1.51e+00	0	33	104	0	60	40575
2026-01-27 10:37:07.66	210.19	16.15	-45.3	-60.0	3.6	1.51e+00	0	33	104	0	60	40668
2026-01-27 10:37:08.64	210.39	16.26	-45.3	-60.0	3.6	1.51e+00	0	33	104	0	60	40534
2026-01-27 10:37:09.62	210.59	16.38	-45.3	-60.0	3.6	1.51e+00	0	33	104	0	60	40656
2026-01-27 10:37:10.59	210.78	16.49	-45.3	-60.1	3.6	1.51e+00	0	32	104	0	60	40928
2026-01-27 10:37:11.57	210.99	16.61	-45.4	-60.1	3.6	1.51e+00	0	32	104	0	60	41086
2026-01-27 10:37:12.54	211.19	16.72	-45.3	-60.0	3.6	1.51e+00	0	33	104	0	60	40741
2026-01-27 10:37:13.52	211.39	16.84	-45.3	-60.0	3.6	1.51e+00	0	32	104	0	60	40769
2026-01-27 10:37:14.50	211.60	16.95	-45.3	-60.0	3.6	1.51e+00	0	32	104	0	60	40751
2026-01-27 10:37:15.48	211.80	17.07	-45.3	-60.1	3.6	1.51e+00	0	32	104	0	60	40964
2026-01-27 10:37:16.46	212.02	17.19	-45.3	-60.1	3.6	1.51e+00	0	33	104	0	60	40817
2026-01-27 10:37:17.44	212.23	17.31	-45.3	-60.1	3.6	1.51e+00	0	33	104	0	60	40941
2026-01-27 10:37:18.42	212.44	17.43	-45.3	-60.1	3.6	1.51e+00	0	33	104	0	60	40819
2026-01-27 10:37:19.40	212.66	17.55	-45.4	-60.1	3.6	1.51e+00	0	33	104	0	60	41135
2026-01-27 10:37:20.37	212.87	17.67	-45.3	-60.0	3.6	1.51e+00	0	32	104	0	60	40753
2026-01-27 10:37:21.35	213.09	17.79	-45.3	-60.1	3.6	1.51e+00	0	33	104	0	60	40893
2026-01-27 10:37:22.33	213.31	17.91	-45.3	-60.1	3.6	1.51e+00	0	32	104	0	60	40901
2026-01-27 10:37:23.30	213.53	18.02	-45.4	-60.1	3.6	1.51e+00	0	32	104	0	60	40945
2026-01-27 10:37:24.28	213.76	18.15	-45.3	-60.1	3.6	1.51e+00	0	33	104	0	60	40901
2026-01-27 10:37:25.26	213.99	18.27	-45.3	-60.1	3.6	1.51e+00	0	33	104	0	60	40860
2026-01-27 10:37:26.24	214.22	18.39	-45.2	-60.1	3.6	1.51e+00	0	33	104	0	60	40910
2026-01-27 10:37:27.22	214.45	18.51	-45.3	-60.1	3.6	1.51e+00	0	33	104	0	60	40970
2026-01-27 10:37:28.20	214.68	18.63	-45.3	-60.1	3.6	1.51e+00	0	33	104	0	60	41036
2026-01-27 10:37:29.18	214.92	18.76	-45.4	-60.1	3.6	1.51e+00	0	32	104	0	60	40799
2026-01-27 10:37:30.16	215.16	18.88	-45.3	-60.1	3.6	1.51e+00	0	33	104	0	60	41022
2026-01-27 10:37:31.14	215.40	19.00	-45.4	-60.1	3.6	1.51e+00	0	33	104	0	60	41183
2026-01-27 10:37:32.11	215.64	19.13	-45.4	-60.2	3.6	1.51e+00	0	32	104	0	60	41304
2026-01-27 10:37:33.09	215.88	19.25	-45.3	-60.1	3.6	1.51e+00	0	32	104	0	60	41040
2026-01-27 10:37:34.07	216.13	19.38	-45.4	-60.2	3.6	1.51e+00	0	33	104	0	60	41275
2026-01-27 10:37:35.05	216.38	19.50	-45.4	-60.1	3.6	1.51e+00	0	33	104	0	60	41051
2026-01-27 10:37:36.03	216.63	19.63	-45.4	-60.1	3.6	1.51e+00	0	32	104	0	60	41019
2026-01-27 10:37:37.00	216.88	19.75	-45.3	-60.1	3.6	1.51e+00	0	33	104	0	60	41020
2026-01-27 10:37:37.98	217.14	19.88	-45.3	-60.1	3.6	1.51e+00	0	33	104	0	60	41260
2026-01-27 10:37:38.96	217.40	20.00	-45.3	-60.1	3.6	1.51e+00	0	32	104	0	60	41001
2026-01-27 10:37:39.94	217.66	20.13	-45.3	-60.1	3.6	1.51e+00	0	32	104	0	60	41219
2026-01-27 10:37:40.91	217.92	20.25	-45.3	-60.1	3.6	1.51e+00	0	33	104	0	60	40912
2026-01-27 10:37:41.90	218.19	20.38	-45.4	-60.2	3.6	1.51e+00	0	32	104	0	60	41491
2026-01-27 10:37:42.87	218.46	20.51	-45.4	-60.1	3.6	1.51e+00	0	33	104	0	60	41160
2026-01-27 10:37:43.86	218.73	20.64	-45.4	-60.1	3.6	1.51e+00	0	33	104	0	60	41213
2026-01-27 10:37:44.83	219.00	20.76	-45.3	-60.1	3.6	1.51e+00	0	33	104	0	60	41233
2026-01-27 10:37:45.81	219.28	20.89	-45.3	-60.1	3.6	1.51e+00	0	33	104	0	60	41087
2026-01-27 10:37:46.79	219.56	21.02	-45.4	-60.1	3.6	1.51e+00	0	33	104	0	60	41101
2026-01-27 10:37:47.77	219.84	21.15	-45.4	-60.2	3.6	1.51e+00	0	33	104	0	60	41332
2026-01-27 10:37:48.74	220.12	21.27	-45.4	-60.1	3.6	1.51e+00	0	33	104	0	60	41068
2026-01-27 10:37:49.73	220.41	21.40	-45.4	-60.1	3.6	1.51e+00	0	33	104	0	60	41201
2026-01-27 10:37:50.71	220.70	21.53	-45.4	-60.2	3.6	1.51e+00	0	33	104	0	60	41445
2026-01-27 10:37:51.68	220.99	21.66	-45.4	-60.2	3.6	1.51e+00	0	33	104	0	60	41459
2026-01-27 10:37:52.66	221.28	21.79	-45.4	-60.2	3.6	1.51e+00	0	33	104	0	60	41343
2026-01-27 10:37:53.64	221.58	21.92	-45.4	-60.2	3.6	1.51e+00	0	33	104	0	60	41269
2026-01-27 10:37:54.62	221.88	22.05	-45.4	-60.2	3.6	1.51e+00	0	33	104	0	60	41403
2026-01-27 10:37:55.59	222.18	22.18	-45.4	-60.1	3.6	1.51e+00	0	33	104	0	60	41116
2026-01-27 10:37:56.57	222.48	22.31	-45.4	-60.2	3.6	1.51e+00	0	33	104	0	60	41475
2026-01-27 10:37:57.56	222.80	22.44	-45.5	-60.2	3.6	1.51e+00	0	33	104	0	60	41386
2026-01-27 10:37:58.54	223.11	22.57	-45.5	-60.2	3.6	1.51e+00	0	33	104	0	60	41465
2026-01-27 10:37:59.53	223.43	22.70	-45.5	-60.3	3.6	1.51e+00	0	33	104	0	60	41857
2026-01-27 10:38:00.50	223.74	22.83	-45.4	-60.2	3.6	1.51e+00	0	33	104	0	60	41279
2026-01-27 10:38:01.48	224.06	22.95	-45.4	-60.2	3.6	1.51e+00	0	33	104	0	60	41454
2026-01-27 10:38:02.46	224.38	23.08	-45.4	-60.2	3.6	1.51e+00	0	33	104	0	60	41343
2026-01-27 10:38:03.43	224.71	23.21	-45.4	-60.2	3.6	1.51e+00	0	33	104	0	60	41489
2026-01-27 10:38:04.41	225.04	23.34	-45.5	-60.1	3.6	1.51e+00	0	33	104	0	60	41068
2026-01-27 10:38:05.39	225.37	23.47	-45.4	-60.1	3.6	1.51e+00	0	33	104	0	60	41098
2026-01-27 10:38:06.37	225.70	23.60	-45.4	-60.2	3.6	1.51e+00	0	33	104	0	60	41293
2026-01-27 10:38:07.35	226.04	23.73	-45.5	-60.2	3.6	1.51e+00	0	33	104	0	60	41296
2026-01-27 10:38:08.33	226.38	23.86	-45.5	-60.2	3.6	1.51e+00	0	33	104	0	60	41290
2026-01-27 10:38:09.31	226.73	23.99	-45.5	-60.1	3.6	1.51e+00	0	33	104	0	60	41200
2026-01-27 10:38:10.29	227.07	24.12	-45.4	-60.1	3.6	1.51e+00	0	33	104	0	60	41192
2026-01-27 10:38:11.27	227.42	24.24	-45.4	-60.2	3.6	1.51e+00	0	33	104	0	60	41350
2026-01-27 10:38:12.25	227.78	24.37	-45.4	-60.1	3.6	1.51e+00	0	33	104	0	60	40984
2026-01-27 10:38:13.23	228.14	24.50	-45.4	-60.2	3.6	1.51e+00	0	33	104	0	60	41320
2026-01-27 10:38:14.20	228.49	24.63	-45.4	-60.1	3.6	1.51e+00	0	33	104	0	60	41093
2026-01-27 10:38:15.18	228.86	24.75	-45.5	-60.2	3.6	1.51e+00	0	33	104	0	60	41360
2026-01-27 10:38:16.17	229.23	24.88	-45.5	-60.1	3.6	1.51e+00	0	33	104	0	60	41189
2026-01-27 10:38:17.14	229.59	25.01	-45.4	-60.1	3.6	1.51e+00	0	33	104	0	60	41200
2026-01-27 10:38:18.11	229.96	25.13	-45.4	-60.1	3.6	1.51e+00	0	33	104	0	60	41134
2026-01-27 10:38:19.09	230.34	25.26	-45.4	-60.2	3.6	1.51e+00	0	33	104	0	60	41409
2026-01-27 10:38:20.07	230.72	25.38	-45.4	-60.2	3.6	1.51e+00	0	33	104	0	60	41271
2026-01-27 10:38:21.05	231.10	25.50	-45.5	-60.2	3.6	1.51e+00	0	33	104	0	60	41386
2026-01-27 10:38:22.03	231.49	25.63	-45.5	-60.2	3.6	1.51e+00	0	33	104	0	60	41354
2026-01-27 10:38:23.00	231.87	25.75	-45.5	-60.2	3.6	1.51e+00	0	33	104	0	60	41470
2026-01-27 10:38:23.98	232.26	25.87	-45.5	-60.2	3.6	1.51e+00	0	33	104	0	60	41488
2026-01-27 10:38:24.96	232.66	26.00	-45.5	-60.2	3.6	1.51e+00	0	33	104	0	60	41369
2026-01-27 10:38:25.93	233.06	26.12	-45.5	-60.2	3.6	1.51e+00	0	33	104	0	60	41728
2026-01-27 10:38:26.91	233.46	26.24	-45.5	-60.2	3.6	1.51e+00	0	33	104	0	60	41668
2026-01-27 10:38:27.89	233.86	26.36	-45.5	-60.2	3.6	1.51e+00	0	33	104	0	60	41493
2026-01-27 10:38:28.87	234.27	26.48	-45.5	-60.2	3.6	1.51e+00	0	33	104	0	60	41413
2026-01-27 10:38:29.85	234.69	26.59	-45.5	-60.2	3.6	1.51e+00	0	33	104	0	60	41353
2026-01-27 10:38:30.83	235.10	26.71	-45.5	-60.2	3.6	1.51e+00	0	33	104	0	60	41648
2026-01-27 10:38:31.81	235.52	26.83	-45.5	-60.2	3.6	1.51e+00	0	33	104	0	60	41359
2026-01-27 10:38:32.78	235.94	26.94	-45.5	-60.2	3.6	1.51e+00	0	33	104	0	60	41361
2026-01-27 10:38:33.76	236.37	27.06	-45.5	-60.2	3.6	1.51e+00	0	33	104	0	60	41451
2026-01-27 10:38:34.74	236.80	27.17	-45.5	-60.2	3.6	1.51e+00	0	33	104	0	60	41457
2026-01-27 10:38:35.72	237.23	27.28	-45.5	-60.2	3.6	1.51e+00	0	33	104	0	60	41515
2026-01-27 10:38:36.69	237.66	27.40	-45.5	-60.2	3.6	1.51e+00	0	33	104	0	60	41310
2026-01-27 10:38:37.67	238.10	27.51	-45.5	-60.2	3.6	1.51e+00	0	33	104	0	60	41520
2026-01-27 10:38:38.65	238.54	27.62	-45.5	-60.2	3.6	1.51e+00	0	33	104	0	60	41424
2026-01-27 10:38:39.63	238.99	27.72	-45.5	-60.2	3.6	1.51e+00	0	33	104	0	60	41488
2026-01-27 10:38:40.61	239.44	27.83	-45.5	-60.1	3.6	1.51e+00	0	33	104	0	60	41262
2026-01-27 10:38:41.59	239.89	27.94	-45.5	-60.2	3.6	1.51e+00	0	33	104	0	60	41636
2026-01-27 10:38:42.57	240.34	28.04	-45.5	-60.2	3.6	1.51e+00	0	33	104	0	60	41506
2026-01-27 10:38:43.55	240.80	28.14	-45.6	-60.2	3.6	1.51e+00	0	33	104	0	60	41730
2026-01-27 10:38:44.53	241.27	28.25	-45.6	-60.3	3.6	1.51e+00	0	33	104	0	60	41784
2026-01-27 10:38:45.51	241.73	28.35	-45.5	-60.2	3.6	1.51e+00	0	33	104	0	60	41597
2026-01-27 10:38:46.49	242.20	28.45	-45.6	-60.2	3.6	1.51e+00	0	33	104	0	60	41741
2026-01-27 10:38:47.47	242.67	28.54	-45.6	-60.2	3.6	1.51e+00	0	33	104	0	60	41541
2026-01-27 10:38:48.45	243.14	28.64	-45.6	-60.3	3.6	1.51e+00	0	33	104	0	60	41774
2026-01-27 10:38:49.43	243.62	28.73	-45.5	-60.2	3.6	1.51e+00	0	33	104	0	60	41646
2026-01-27 10:38:50.41	244.10	28.83	-45.6	-60.2	3.6	1.51e+00	0	33	104	0	60	41505
2026-01-27 10:38:51.39	244.59	28.92	-45.6	-60.3	3.6	1.51e+00	0	33	104	0	60	41747
2026-01-27 10:38:52.36	245.07	29.00	-45.6	-60.2	3.6	1.51e+00	0	33	104	0	60	41631
2026-01-27 10:38:53.34	245.56	29.09	-45.6	-60.3	3.6	1.51e+00	0	33	104	0	60	41893
2026-01-27 10:38:54.32	246.05	29.18	-45.6	-60.3	3.6	1.51e+00	0	33	104	0	60	41754
2026-01-27 10:38:55.30	246.54	29.26	-45.6	-60.3	3.6	1.51e+00	0	33	104	0	60	41839
2026-01-27 10:38:56.27	247.04	29.34	-45.6	-60.3	3.6	1.51e+00	0	33	104	0	60	41869
2026-01-27 10:38:57.25	247.54	29.42	-45.6	-60.3	3.6	1.51e+00	0	33	104	0	60	41864
2026-01-27 10:38:58.23	248.04	29.50	-45.6	-60.2	3.6	1.51e+00	0	33	104	0	60	41513
2026-01-27 10:38:59.21	248.54	29.58	-45.5	-60.2	3.6	1.51e+00	0	33	104	0	60	41592
2026-01-27 10:39:00.19	249.05	29.65	-45.6	-60.2	3.6	1.51e+00	0	33	104	0	60	41720
2026-01-27 10:39:01.16	249.56	29.72	-45.5	-60.3	3.6	1.51e+00	0	33	104	0	60	41775
2026-01-27 10:39:02.14	250.07	29.79	-45.5	-60.2	3.6	1.51e+00	0	33	104	0	60	41664
2026-01-27 10:39:03.11	250.58	29.86	-45.6	-60.2	3.6	1.51e+00	0	33	104	0	60	41653
2026-01-27 10:39:04.09	251.10	29.93	-45.6	-60.2	3.6	1.51e+00	0	33	104	0	60	41687
2026-01-27 10:39:05.06	251.61	29.99	-45.6	-60.3	3.6	1.51e+00	0	33	104	0	60	41769
2026-01-27 10:39:06.04	252.13	30.05	-45.6	-60.2	3.6	1.51e+00	0	33	104	0	60	41682
2026-01-27 10:39:07.02	252.66	30.11	-45.6	-60.2	3.6	1.51e+00	0	33	104	0	60	41528
2026-01-27 10:39:08.00	253.18	30.17	-45.5	-60.2	3.6	1.51e+00	0	33	104	0	60	41640
2026-01-27 10:39:08.98	253.71	30.22	-45.5	-60.2	3.6	1.51e+00	0	33	104	0	60	41592
2026-01-27 10:39:09.96	254.24	30.27	-45.6	-60.2	3.6	1.51e+00	0	33	104	0	60	41580
2026-01-27 10:39:10.93	254.77	30.32	-45.6	-60.2	3.6	1.51e+00	0	33	104	0	60	41703
2026-01-27 10:39:11.91	255.30	30.37	-45.6	-60.3	3.6	1.51e+00	0	33	104	0	60	41752
2026-01-27 10:39:12.89	255.84	30.41	-45.5	-60.2	3.6	1.51e+00	0	33	104	0	60	41487
2026-01-27 10:39:13.87	256.37	30.46	-45.6	-60.3	3.6	1.51e+00	0	33	104	0	60	41812
2026-01-27 10:39:14.85	256.91	30.50	-45.6	-60.2	3.6	1.51e+00	0	33	104	0	60	41555
2026-01-27 10:39:15.83	257.45	30.53	-45.6	-60.3	3.6	1.51e+00	0	33	104	0	60	41920
2026-01-27 10:39:16.81	257.99	30.57	-45.6	-60.2	3.6	1.51e+00	0	33	104	0	60	41524
2026-01-27 10:39:17.78	258.53	30.60	-45.6	-60.2	3.6	1.51e+00	0	33	104	0	60	41655
2026-01-27 10:39:18.76	259.07	30.63	-45.6	-60.2	3.6	1.51e+00	0	33	104	0	60	41655
2026-01-27 10:39:19.74	259.61	30.66	-45.6	-60.2	3.6	1.51e+00	0	33	104	0	60	41499
2026-01-27 10:39:20.71	260.15	30.68	-45.6	-60.2	3.6	1.51e+00	0	33	104	0	60	41482
2026-01-27 10:39:21.69	260.70	30.70	-45.6	-60.2	3.6	1.51e+00	0	33	104	0	60	41660
2026-01-27 10:39:22.67	261.25	30.72	-45.6	-60.2	3.6	1.51e+00	0	33	104	0	60	41478
2026-01-27 10:39:23.65	261.79	30.74	-45.6	-60.3	3.6	1.51e+00	0	33	104	0	60	41744
2026-01-27 10:39:24.63	262.34	30.75	-45.5	-60.3	3.6	1.51e+00	0	33	104	0	60	41751
2026-01-27 10:39:25.60	262.88	30.76	-45.5	-60.2	3.6	1.51e+00	0	33	104	0	60	41450
2026-01-27 10:39:26.58	263.43	30.77	-45.6	-60.2	3.6	1.51e+00	0	33	104	0	60	41741
2026-01-27 10:39:27.56	263.98	30.78	-45.5	-60.2	3.6	1.51e+00	0	33	104	0	60	41681
2026-01-27 10:39:28.54	264.53	30.78	-45.5	-60.2	3.6	1.51e+00	0	33	104	0	60	41429
2026-01-27 10:39:29.52	265.08	30.78	-45.5	-60.2	3.6	1.51e+00	0	33	104	0	60	41405
2026-01-27 10:39:30.49	265.62	30.78	-45.5	-60.2	3.6	1.51e+00	0	33	104	0	60	41506
2026-01-27 10:39:31.47	266.17	30.77	-45.5	-60.2	3.6	1.51e+00	0	33	104	0	60	41529
2026-01-27 10:39:32.45	266.72	30.77	-45.5	-60.2	3.6	1.51e+00	0	33	104	0	60	41732
2026-01-27 10:39:33.42	267.26	30.76	-45.5	-60.2	3.6	1.51e+00	0	33	104	0	60	41486
2026-01-27 10:39:34.40	267.81	30.74	-45.5	-60.2	3.6	1.51e+00	0	33	104	0	60	41296
2026-01-27 10:39:35.38	268.36	30.73	-45.5	-60.2	3.5	1.51e+00	0	33	104	0	60	41477
2026-01-27 10:39:36.36	268.90	30.71	-45.5	-60.2	3.6	1.51e+00	0	33	104	0	60	41437
2026-01-27 10:39:37.34	269.45	30.69	-45.5	-60.2	3.6	1.51e+00	0	33	104	0	60	41401
2026-01-27 10:39:38.32	269.99	30.67	-45.5	-60.2	3.6	1.51e+00	0	33	104	0	60	41413
2026-01-27 10:39:39.29	270.53	30.64	-45.5	-60.2	3.6	1.51e+00	0	33	104	0	60	41378
2026-01-27 10:39:40.27	271.08	30.61	-45.5	-60.2	3.6	1.51e+00	0	33	104	0	60	41537
2026-01-27 10:39:41.25	271.62	30.58	-45.5	-60.2	3.6	1.51e+00	0	33	104	0	60	41488
2026-01-27 10:39:42.23	272.16	30.55	-45.5	-60.2	3.6	1.51e+00	0	33	104	0	60	41604
2026-01-27 10:39:43.21	272.70	30.51	-45.5	-60.2	3.6	1.51e+00	0	33	104	0	60	41570
2026-01-27 10:39:44.19	273.24	30.47	-45.5	-60.2	3.6	1.51e+00	0	33	104	0	60	41476
2026-01-27 10:39:45.16	273.77	30.43	-45.5	-60.2	3.6	1.51e+00	0	33	104	0	60	41437
2026-01-27 10:39:46.15	274.31	30.39	-45.5	-60.2	3.6	1.51e+00	0	33	104	0	60	41589
2026-01-27 10:39:47.13	274.84	30.34	-45.5	-60.2	3.6	1.51e+00	0	33	104	0	60	41576
2026-01-27 10:39:48.10	275.37	30.29	-45.5	-60.2	3.6	1.51e+00	0	33	104	0	60	41294
2026-01-27 10:39:49.08	275.90	30.24	-45.5	-60.2	3.6	1.51e+00	0	33	104	0	60	41407
2026-01-27 10:39:50.06	276.43	30.19	-45.5	-60.2	3.6	1.51e+00	0	33	104	0	60	41451
2026-01-27 10:39:51.04	276.96	30.13	-45.6	-60.2	3.6	1.51e+00	0	33	104	0	60	41611
2026-01-27 10:39:52.02	277.48	30.07	-45.5	-60.2	3.6	1.51e+00	0	33	104	0	60	41444
2026-01-27 10:39:53.00	278.00	30.01	-45.5	-60.2	3.6	1.51e+00	0	33	104	0	60	41397
2026-01-27 10:39:53.98	278.53	29.95	-45.5	-60.2	3.6	1.51e+00	0	33	104	0	60	41526
2026-01-27 10:39:54.96	279.04	29.88	-45.6	-60.2	3.6	1.51e+00	0	33	104	0	60	41475
2026-01-27 10:39:55.94	279.56	29.82	-45.5	-60.2	3.6	1.51e+00	0	33	104	0	60	41530
2026-01-27 10:39:56.92	280.07	29.75	-45.5	-60.3	3.6	1.51e+00	0	33	104	0	60	41750
2026-01-27 10:39:57.90	280.59	29.68	-45.5	-60.2	3.6	1.51e+00	0	33	104	0	60	41644
2026-01-27 10:39:58.88	281.09	29.60	-45.6	-60.3	3.6	1.51e+00	0	33	104	0	60	41842
2026-01-27 10:39:59.86	281.60	29.53	-45.5	-60.2	3.6	1.51e+00	0	33	104	0	60	41518
2026-01-27 10:40:00.84	282.10	29.45	-45.5	-60.2	3.6	1.51e+00	0	33	104	0	60	41649
2026-01-27 10:40:01.83	282.61	29.37	-45.5	-60.3	3.6	1.51e+00	0	33	104	0	60	41748
2026-01-27 10:40:02.80	283.10	29.29	-45.6	-60.2	3.6	1.51e+00	0	33	104	0	60	41672
2026-01-27 10:40:03.79	283.60	29.21	-45.5	-60.2	3.6	1.51e+00	0	33	104	0	60	41669
2026-01-27 10:40:04.77	284.10	29.12	-45.5	-60.2	3.6	1.51e+00	0	33	104	0	60	41387
2026-01-27 10:40:05.75	284.59	29.03	-45.5	-60.2	3.6	1.51e+00	0	33	104	0	60	41540
2026-01-27 10:40:06.73	285.08	28.95	-45.5	-60.2	3.6	1.51e+00	0	33	104	0	60	41675
2026-01-27 10:40:07.71	285.56	28.85	-45.5	-60.2	3.6	1.51e+00	0	33	104	0	60	41486
2026-01-27 10:40:08.69	286.04	28.76	-45.5	-60.2	3.6	1.51e+00	0	33	104	0	60	41273
2026-01-27 10:40:09.67	286.52	28.67	-45.5	-60.2	3.6	1.51e+00	0	33	104	0	60	41301
2026-01-27 10:40:10.65	286.99	28.57	-45.5	-60.2	3.6	1.51e+00	0	33	104	0	60	41560
2026-01-27 10:40:11.63	287.47	28.48	-45.5	-60.2	3.6	1.51e+00	0	33	104	0	60	41532
2026-01-27 10:40:12.61	287.94	28.38	-45.5	-60.2	3.6	1.51e+00	0	33	104	0	60	41493
2026-01-27 10:40:13.58	288.40	28.28	-45.4	-60.1	3.6	1.51e+00	0	33	104	0	60	41263
2026-01-27 10:40:14.56	288.86	28.18	-45.5	-60.2	3.5	1.51e+00	0	33	104	0	60	41396
2026-01-27 10:40:15.54	289.32	28.08	-45.5	-60.2	3.6	1.51e+00	0	33	104	0	60	41346
2026-01-27 10:40:16.51	289.77	27.97	-45.5	-60.2	3.5	1.51e+00	0	33	104	0	60	41513
2026-01-27 10:40:17.49	290.23	27.87	-45.4	-60.2	3.6	1.51e+00	0	33	104	0	60	41361
2026-01-27 10:40:18.46	290.67	27.76	-45.4	-60.2	3.6	1.51e+00	0	33	104	0	60	41364
2026-01-27 10:40:19.44	291.12	27.65	-45.4	-60.2	3.6	1.51e+00	0	33	104	0	60	41327
2026-01-27 10:40:20.42	291.56	27.54	-45.4	-60.2	3.6	1.51e+00	0	33	104	0	60	41354
2026-01-27 10:40:21.40	292.00	27.43	-45.5	-60.2	3.6	1.51e+00	0	33	104	0	60	41271
2026-01-27 10:40:22.38	292.44	27.32	-45.4	-60.2	3.6	1.51e+00	0	33	104	0	60	41371
2026-01-27 10:40:23.35	292.87	27.21	-45.4	-60.2	3.7	1.51e+00	0	33	104	0	60	41403
2026-01-27 10:40:24.34	293.30	27.10	-45.4	-60.2	3.6	1.51e+00	0	33	104	0	60	41383
2026-01-27 10:40:25.31	293.73	26.98	-45.4	-60.2	3.6	1.51e+00	0	33	104	0	60	41283
2026-01-27 10:40:26.29	294.15	26.87	-45.3	-60.1	3.6	1.51e+00	0	33	104	0	60	41239
2026-01-27 10:40:27.27	294.57	26.75	-45.4	-60.2	3.6	1.51e+00	0	33	104	0	60	41375
2026-01-27 10:40:28.25	294.99	26.63	-45.4	-60.1	3.6	1.51e+00	0	33	104	0	60	41226
2026-01-27 10:40:29.23	295.40	26.52	-45.3	-60.1	3.6	1.51e+00	0	33	104	0	60	41104
2026-01-27 10:40:30.21	295.81	26.40	-45.3	-60.2	3.6	1.51e+00	0	33	104	0	60	41300
2026-01-27 10:40:31.19	296.22	26.28	-45.3	-60.2	3.6	1.51e+00	0	33	104	0	60	41604
2026-01-27 10:40:32.16	296.62	26.16	-45.3	-60.2	3.6	1.51e+00	0	33	104	0	60	41305
2026-01-27 10:40:33.15	297.02	26.04	-45.3	-60.1	3.6	1.51e+00	0	33	104	0	60	40992
2026-01-27 10:40:34.12	297.42	25.92	-45.3	-60.2	3.6	1.51e+00	0	33	104	0	60	41356
2026-01-27 10:40:35.10	297.81	25.79	-45.3	-60.2	3.6	1.51e+00	0	33	104	0	60	41399
2026-01-27 10:40:36.09	298.21	25.67	-45.3	-60.2	3.6	1.51e+00	0	33	104	0	60	41401
2026-01-27 10:40:37.07	298.59	25.55	-45.3	-60.2	3.6	1.51e+00	0	33	104	0	60	41335
2026-01-27 10:40:38.04	298.97	25.42	-45.2	-60.1	3.6	1.51e+00	0	33	104	0	60	41253
2026-01-27 10:40:39.02	299.35	25.30	-45.1	-60.2	3.6	1.51e+00	0	33	104	0	60	41471
2026-01-27 10:40:40.00	299.73	25.17	-45.1	-60.2	3.6	1.51e+00	0	33	104	0	60	41465
2026-01-27 10:40:40.98	300.11	25.05	-45.1	-60.2	3.6	1.51e+00	0	33	104	0	60	41264
2026-01-27 10:40:41.96	300.48	24.92	-45.1	-60.2	3.6	1.51e+00	0	33	104	0	60	41519
2026-01-27 10:40:42.94	300.84	24.79	-45.1	-60.1	3.6	1.51e+00	0	33	104	0	60	41227
2026-01-27 10:40:43.91	301.21	24.67	-45.1	-60.2	3.6	1.51e+00	0	33	104	0	60	41412
2026-01-27 10:40:44.89	301.57	24.54	-45.1	-60.1	3.5	1.51e+00	0	33	104	0	60	41187
2026-01-27 10:40:45.87	301.92	24.41	-45.1	-60.2	3.6	1.51e+00	0	33	104	0	60	41281
2026-01-27 10:40:46.85	302.28	24.29	-44.9	-60.2	3.6	1.51e+00	0	33	104	0	60	41314
2026-01-27 10:40:47.83	302.63	24.16	-44.9	-60.1	3.6	1.51e+00	0	33	104	0	60	41109
2026-01-27 10:40:48.81	302.98	24.03	-45.0	-60.2	3.6	1.51e+00	0	33	104	0	60	41307
2026-01-27 10:40:49.79	303.33	23.90	-45.0	-60.2	3.6	1.51e+00	0	33	104	0	60	41276
2026-01-27 10:40:50.76	303.66	23.77	-45.0	-60.1	3.6	1.51e+00	0	33	104	0	60	41138
2026-01-27 10:40:51.74	304.00	23.64	-45.1	-60.2	3.6	1.51e+00	0	33	104	0	60	41468
2026-01-27 10:40:52.72	304.34	23.52	-44.9	-60.2	3.5	1.51e+00	0	33	104	0	60	41536
2026-01-27 10:40:53.69	304.67	23.39	-44.9	-60.2	3.6	1.51e+00	0	33	104	0	60	41538
2026-01-27 10:40:54.67	305.00	23.26	-45.0	-60.2	3.6	1.51e+00	0	33	104	0	60	41555
2026-01-27 10:40:55.65	305.33	23.13	-45.0	-60.2	3.6	1.51e+00	0	33	104	0	60	41330
2026-01-27 10:40:56.62	305.65	23.00	-45.1	-60.2	3.6	1.51e+00	0	33	104	0	60	41574
2026-01-27 10:40:57.61	305.97	22.87	-45.0	-60.2	3.6	1.51e+00	0	33	104	0	60	41535
2026-01-27 10:40:58.58	306.29	22.74	-45.2	-60.2	3.6	1.51e+00	0	33	104	0	60	41486
2026-01-27 10:40:59.57	306.61	22.61	-45.2	-60.2	3.6	1.51e+00	0	33	104	0	60	41299
2026-01-27 10:41:00.54	306.92	22.48	-45.2	-60.2	3.6	1.51e+00	0	33	104	0	60	41457
2026-01-27 10:41:01.52	307.23	22.35	-45.2	-60.2	3.6	1.51e+00	0	33	104	0	60	41429
2026-01-27 10:41:02.50	307.53	22.22	-45.2	-60.2	3.6	1.51e+00	0	33	104	0	60	41482
2026-01-27 10:41:03.48	307.84	22.09	-45.2	-60.2	3.6	1.51e+00	0	33	104	0	60	41336
2026-01-27 10:41:04.46	308.14	21.97	-45.2	-60.2	3.6	1.51e+00	0	33	104	0	60	41331
2026-01-27 10:41:05.43	308.43	21.84	-45.2	-60.2	3.6	1.51e+00	0	33	104	0	60	41548
2026-01-27 10:41:06.41	308.73	21.71	-45.2	-60.2	3.6	1.51e+00	0	33	104	0	60	41327
2026-01-27 10:41:07.38	309.02	21.58	-45.0	-60.2	3.6	1.51e+00	0	33	104	0	60	41575
2026-01-27 10:41:08.36	309.31	21.45	-45.1	-60.2	3.6	1.51e+00	0	33	104	0	60	41417
2026-01-27 10:41:09.34	309.60	21.32	-45.0	-60.2	3.6	1.51e+00	0	33	104	0	60	41361
2026-01-27 10:41:10.31	309.88	21.20	-45.1	-60.2	3.6	1.51e+00	0	33	104	0	60	41486
2026-01-27 10:41:11.29	310.16	21.07	-45.0	-60.2	3.6	1.51e+00	0	33	104	0	60	41637
2026-01-27 10:41:12.27	310.44	20.94	-45.1	-60.2	3.6	1.51e+00	0	33	104	0	60	41575
2026-01-27 10:41:13.25	310.72	20.81	-45.0	-60.1	3.6	1.51e+00	0	33	104	0	60	41242
2026-01-27 10:41:14.23	310.99	20.68	-45.0	-60.1	3.6	1.51e+00	0	33	104	0	60	41162
2026-01-27 10:41:15.21	311.27	20.56	-45.2	-60.2	3.6	1.51e+00	0	33	104	0	60	41522
2026-01-27 10:41:16.20	311.54	20.43	-45.2	-60.1	3.6	1.51e+00	0	33	104	0	60	41078
2026-01-27 10:41:17.17	311.80	20.30	-45.1	-60.2	3.6	1.51e+00	0	33	104	0	60	41321
2026-01-27 10:41:18.15	312.07	20.18	-45.2	-60.1	3.6	1.51e+00	0	33	104	0	60	41156
2026-01-27 10:41:19.12	312.33	20.05	-45.5	-60.1	3.6	1.51e+00	0	33	104	0	60	41221
2026-01-27 10:41:20.10	312.59	19.92	-45.4	-60.2	3.6	1.51e+00	0	33	104	0	60	41504
2026-01-27 10:41:21.07	312.84	19.80	-45.2	-60.1	3.6	1.51e+00	0	33	104	0	60	41112
2026-01-27 10:41:22.05	313.10	19.67	-45.3	-60.1	3.6	1.51e+00	0	33	104	0	60	41147
2026-01-27 10:41:23.03	313.35	19.55	-45.3	-60.1	3.6	1.51e+00	0	33	104	0	60	41261
2026-01-27 10:41:24.01	313.60	19.42	-45.1	-60.1	3.5	1.51e+00	0	33	104	0	60	41059
2026-01-27 10:41:24.98	313.85	19.30	-45.3	-60.1	3.6	1.51e+00	0	33	104	0	60	41248
2026-01-27 10:41:25.95	314.09	19.18	-45.3	-60.2	3.6	1.51e+00	0	33	104	0	60	41272
2026-01-27 10:41:26.93	314.33	19.05	-44.9	-60.2	3.6	1.51e+00	0	33	104	0	60	41429
2026-01-27 10:41:27.91	314.58	18.93	-45.0	-60.1	3.6	1.51e+00	0	33	104	0	60	41261
2026-01-27 10:41:28.89	314.82	18.81	-45.0	-60.1	3.6	1.51e+00	0	33	104	0	60	41163
2026-01-27 10:41:29.87	315.05	18.68	-45.1	-60.1	3.6	1.51e+00	0	33	104	0	60	41093
2026-01-27 10:41:30.85	315.29	18.56	-45.0	-60.2	3.6	1.51e+00	0	33	104	0	60	41339
2026-01-27 10:41:31.83	315.52	18.44	-45.3	-60.2	3.6	1.51e+00	0	33	104	0	60	41473
2026-01-27 10:41:32.80	315.75	18.32	-45.1	-60.1	3.6	1.51e+00	0	33	104	0	60	41252
2026-01-27 10:41:33.78	315.98	18.20	-45.2	-60.2	3.6	1.51e+00	0	33	104	0	60	41311
2026-01-27 10:41:34.75	316.20	18.08	-45.3	-60.2	3.6	1.51e+00	0	33	104	0	60	41468
2026-01-27 10:41:35.73	316.43	17.96	-45.4	-60.2	3.6	1.51e+00	0	33	104	0	60	41359
2026-01-27 10:41:36.71	316.65	17.84	-45.3	-60.1	3.6	1.51e+00	0	33	104	0	60	41221
2026-01-27 10:41:37.69	316.87	17.72	-45.3	-60.1	3.6	1.51e+00	0	33	104	0	60	41132
2026-01-27 10:41:38.67	317.09	17.60	-45.4	-60.1	3.6	1.51e+00	0	33	104	0	60	41061
2026-01-27 10:41:39.65	317.31	17.48	-45.3	-60.2	3.6	1.51e+00	0	33	104	0	60	41281
2026-01-27 10:41:40.62	317.52	17.36	-45.3	-60.1	3.6	1.51e+00	0	33	104	0	60	41031
2026-01-27 10:41:41.60	317.73	17.24	-45.3	-60.1	3.6	1.51e+00	0	33	104	0	60	40852
2026-01-27 10:41:42.57	317.94	17.12	-45.3	-60.1	3.6	1.51e+00	0	33	104	0	60	41087
2026-01-27 10:41:43.55	318.15	17.01	-45.3	-60.2	3.6	1.51e+00	0	33	104	0	60	41411
2026-01-27 10:41:44.52	318.36	16.89	-45.2	-60.1	3.6	1.51e+00	0	33	104	0	60	41116
2026-01-27 10:41:45.50	318.56	16.77	-45.2	-60.1	3.6	1.51e+00	0	33	104	0	60	41188
2026-01-27 10:41:46.48	318.76	16.66	-45.2	-60.2	3.6	1.51e+00	0	33	104	0	60	41264
2026-01-27 10:41:47.46	318.97	16.54	-45.4	-60.2	3.6	1.51e+00	0	33	104	0	60	41283
2026-01-27 10:41:48.44	319.17	16.43	-45.3	-60.1	3.6	1.51e+00	0	33	104	0	60	41238
2026-01-27 10:41:49.41	319.36	16.31	-45.1	-60.1	3.6	1.51e+00	0	33	104	0	60	41102
2026-01-27 10:41:50.39	319.56	16.20	-45.2	-60.0	3.6	1.51e+00	0	33	104	0	60	40789
2026-01-27 10:41:51.37	319.75	16.08	-45.4	-60.1	3.6	1.51e+00	0	33	104	0	60	41121
2026-01-27 10:41:52.35	319.95	15.97	-45.4	-60.1	3.6	1.51e+00	0	33	104	0	60	40908
2026-01-27 10:41:53.33	320.14	15.85	-45.3	-60.1	3.6	1.51e+00	0	33	104	0	60	40867
2026-01-27 10:41:54.31	320.33	15.74	-45.3	-60.0	3.6	1.51e+00	0	33	104	0	60	40557
2026-01-27 10:41:55.29	320.52	15.63	-45.3	-60.1	3.6	1.51e+00	0	33	104	0	60	40878
2026-01-27 10:41:56.27	320.70	15.52	-45.3	-60.1	3.6	1.51e+00	0	33	104	0	60	41107
2026-01-27 10:41:57.24	320.89	15.41	-45.3	-60.1	3.6	1.51e+00	0	33	104	0	60	40899
2026-01-27 10:41:58.22	321.07	15.29	-45.3	-60.0	3.6	1.51e+00	0	33	104	0	60	40602
2026-01-27 10:41:59.19	321.25	15.18	-45.3	-60.1	3.6	1.51e+00	0	33	104	0	60	41083
2026-01-27 10:42:00.17	321.43	15.07	-45.4	-60.0	3.6	1.51e+00	0	33	104	0	60	40660
2026-01-27 10:42:01.15	321.61	14.96	-45.3	-60.0	3.6	1.51e+00	0	33	104	0	60	40541
2026-01-27 10:42:02.12	321.79	14.85	-45.2	-60.0	3.6	1.51e+00	0	33	104	0	60	40685
2026-01-27 10:42:03.10	321.96	14.75	-45.3	-60.0	3.6	1.51e+00	0	33	104	0	60	40744
2026-01-27 10:42:04.07	322.13	14.64	-45.3	-60.0	3.6	1.51e+00	0	33	104	0	60	40522
2026-01-27 10:42:05.05	322.31	14.53	-45.3	-60.0	3.6	1.51e+00	0	33	104	0	60	40657
2026-01-27 10:42:06.02	322.48	14.42	-45.3	-60.0	3.6	1.51e+00	0	33	104	0	60	40495
2026-01-27 10:42:07.00	322.65	14.31	-45.3	-60.1	3.6	1.51e+00	0	33	104	0	60	40890
2026-01-27 10:42:07.98	322.82	14.21	-45.3	-60.0	3.6	1.51e+00	0	33	104	0	60	40350
2026-01-27 10:42:08.96	322.98	14.10	-45.3	-60.0	3.6	1.51e+00	0	33	104	0	60	40362
2026-01-27 10:42:09.93	323.15	14.00	-45.2	-59.9	3.6	1.51e+00	0	33	104	0	60	40050
2026-01-27 10:42:10.91	323.31	13.89	-45.3	-60.1	3.6	1.51e+00	0	33	104	0	60	40792
2026-01-27 10:42:11.89	323.48	13.78	-45.2	-60.0	3.6	1.51e+00	0	33	104	0	60	40490
2026-01-27 10:42:12.88	323.64	13.68	-45.3	-59.9	3.6	1.51e+00	0	33	104	0	60	40318
2026-01-27 10:42:13.86	323.80	13.57	-45.1	-60.0	3.6	1.51e+00	0	33	104	0	60	40353
2026-01-27 10:42:14.84	323.96	13.47	-45.2	-60.1	3.6	1.51e+00	0	33	104	0	60	40857
2026-01-27 10:42:15.81	324.12	13.37	-45.2	-60.0	3.6	1.51e+00	0	33	104	0	60	40358
2026-01-27 10:42:16.79	324.27	13.26	-45.2	-60.0	3.6	1.51e+00	0	33	104	0	60	40484
2026-01-27 10:42:17.77	324.43	13.16	-45.2	-60.0	3.6	1.51e+00	0	33	104	0	60	40660
2026-01-27 10:42:18.75	324.58	13.06	-45.3	-60.1	3.6	1.51e+00	0	33	104	0	60	40843
2026-01-27 10:42:19.73	324.73	12.95	-45.3	-60.0	3.6	1.51e+00	0	33	104	0	60	40578
2026-01-27 10:42:20.71	324.89	12.85	-45.2	-60.0	3.6	1.51e+00	0	33	104	0	60	40449
2026-01-27 10:42:21.69	325.04	12.75	-45.3	-60.0	3.6	1.51e+00	0	33	104	0	60	40416
2026-01-27 10:42:22.66	325.18	12.65	-45.3	-60.0	3.6	1.51e+00	0	33	104	0	60	40428
2026-01-27 10:42:23.64	325.33	12.55	-45.3	-60.0	3.6	1.51e+00	0	33	104	0	60	40471
2026-01-27 10:42:24.62	325.48	12.45	-45.3	-59.9	3.6	1.51e+00	0	33	104	0	60	40123
2026-01-27 10:42:25.60	325.63	12.35	-45.2	-59.9	3.6	1.51e+00	0	33	104	0	60	40207
2026-01-27 10:42:26.57	325.77	12.25	-45.2	-59.9	3.6	1.51e+00	0	33	104	0	60	40123
2026-01-27 10:42:27.55	325.91	12.15	-45.2	-60.0	3.6	1.51e+00	0	33	104	0	60	40438
2026-01-27 10:42:28.53	326.05	12.05	-45.1	-59.9	3.6	1.51e+00	0	33	104	0	60	40037
2026-01-27 10:42:29.51	326.20	11.95	-45.2	-59.8	3.6	1.51e+00	0	33	104	0	60	39776
2026-01-27 10:42:30.49	326.34	11.86	-45.1	-59.9	3.6	1.51e+00	0	33	104	0	60	40168
2026-01-27 10:42:31.47	326.47	11.76	-45.0	-59.9	3.6	1.51e+00	0	33	104	0	60	40300
2026-01-27 10:42:32.45	326.61	11.66	-45.1	-59.9	3.6	1.51e+00	0	33	104	0	60	39929
2026-01-27 10:42:33.42	326.75	11.57	-45.1	-59.9	3.6	1.51e+00	0	33	104	0	60	40013
2026-01-27 10:42:34.40	326.88	11.47	-45.1	-59.9	3.6	1.51e+00	0	33	104	0	60	39982
2026-01-27 10:42:35.38	327.02	11.37	-45.2	-60.0	3.6	1.51e+00	0	33	104	0	60	40379
2026-01-27 10:42:36.37	327.15	11.28	-45.1	-59.9	3.6	1.51e+00	0	33	104	0	60	40060
2026-01-27 10:42:37.34	327.29	11.18	-45.2	-60.0	3.6	1.51e+00	0	33	104	0	60	40360
2026-01-27 10:42:38.32	327.42	11.09	-45.1	-59.9	3.6	1.51e+00	0	33	104	0	60	39874
2026-01-27 10:42:39.30	327.55	10.99	-45.2	-60.0	3.6	1.51e+00	0	33	104	0	60	40443
2026-01-27 10:42:40.27	327.68	10.90	-45.2	-59.9	3.6	1.51e+00	0	33	104	0	60	39984
2026-01-27 10:42:41.25	327.81	10.81	-45.1	-59.8	3.6	1.51e+00	0	33	104	0	60	39732
2026-01-27 10:42:42.23	327.93	10.71	-45.1	-59.8	3.6	1.51e+00	0	33	104	0	60	39540
2026-01-27 10:42:43.21	328.06	10.62	-45.3	-59.9	3.6	1.51e+00	0	33	104	0	60	40293
2026-01-27 10:42:44.19	328.19	10.53	-45.1	-59.8	3.6	1.51e+00	0	33	104	0	60	39671
2026-01-27 10:42:45.16	328.31	10.44	-45.1	-59.8	3.6	1.51e+00	0	33	104	0	60	39717
2026-01-27 10:42:46.15	328.44	10.34	-45.1	-59.8	3.6	1.51e+00	0	33	104	0	60	39582
2026-01-27 10:42:47.12	328.56	10.25	-45.2	-59.9	3.6	1.51e+00	0	33	104	0	60	40125
2026-01-27 10:42:48.11	328.68	10.16	-45.1	-59.9	3.6	1.51e+00	0	33	104	0	60	39913
2026-01-27 10:42:49.08	328.80	10.07	-45.1	-59.8	3.6	1.51e+00	0	33	104	0	60	39648
2026-01-27 10:42:50.06	328.92	9.98	-45.0	-59.7	3.6	1.51e+00	0	33	104	0	60	39389
2026-01-27 10:42:51.03	329.04	9.89	-45.2	-59.9	3.6	1.51e+00	0	33	104	0	60	39873
2026-01-27 10:42:52.01	329.16	9.80	-45.0	-59.8	3.6	1.51e+00	0	33	104	0	60	39678
2026-01-27 10:42:52.98	329.28	9.71	-45.0	-59.7	3.6	1.51e+00	0	33	104	0	60	39367
2026-01-27 10:42:53.96	329.39	9.62	-44.9	-59.7	3.6	1.51e+00	0	33	104	0	60	39148
2026-01-27 10:42:54.94	329.51	9.53	-45.1	-59.8	3.6	1.51e+00	0	33	104	0	60	39695
2026-01-27 10:42:55.91	329.62	9.45	-45.0	-59.8	3.6	1.51e+00	0	33	104	0	60	39499
2026-01-27 10:42:56.89	329.74	9.36	-45.0	-59.8	3.6	1.51e+00	0	33	104	0	60	39509
2026-01-27 10:42:57.87	329.85	9.27	-45.0	-59.7	3.6	1.51e+00	0	33	104	0	60	39248
2026-01-27 10:42:58.84	329.96	9.18	-45.0	-59.8	3.6	1.51e+00	0	33	104	0	60	39730
2026-01-27 10:42:59.82	330.08	9.10	-45.0	-59.8	3.6	1.51e+00	0	33	104	0	60	39597
2026-01-27 10:43:00.79	330.19	9.01	-45.0	-59.7	3.6	1.51e+00	0	33	104	0	60	39330
2026-01-27 10:43:01.77	330.30	8.92	-45.0	-59.7	3.6	1.51e+00	0	33	104	0	60	39067
2026-01-27 10:43:02.75	330.41	8.84	-45.0	-59.8	3.6	1.51e+00	0	33	104	0	60	39573
2026-01-27 10:43:03.73	330.52	8.75	-44.8	-59.7	3.6	1.51e+00	0	33	104	0	60	39092
2026-01-27 10:43:04.71	330.62	8.67	-44.9	-59.7	3.6	1.51e+00	0	33	104	0	60	39233
2026-01-27 10:43:05.68	330.73	8.58	-44.9	-59.6	3.6	1.51e+00	0	33	104	0	60	38873
2026-01-27 10:43:06.66	330.84	8.50	-44.9	-59.7	3.6	1.51e+00	0	33	104	0	60	39218
2026-01-27 10:43:07.63	330.94	8.41	-44.8	-59.7	3.6	1.51e+00	0	33	104	0	60	39024
2026-01-27 10:43:08.61	331.05	8.33	-44.9	-59.7	3.6	1.51e+00	0	33	104	0	60	39014
2026-01-27 10:43:09.59	331.15	8.24	-44.9	-59.6	3.6	1.51e+00	0	33	104	0	60	38854
2026-01-27 10:43:10.57	331.26	8.16	-44.8	-59.7	3.6	1.51e+00	0	33	104	0	60	39049
2026-01-27 10:43:11.54	331.36	8.08	-44.8	-59.7	3.6	1.51e+00	0	33	104	0	60	39107
2026-01-27 10:43:12.52	331.46	7.99	-44.9	-59.6	3.6	1.51e+00	0	33	104	0	60	38779
2026-01-27 10:43:13.49	331.56	7.91	-44.8	-59.6	3.6	1.51e+00	0	33	104	0	60	38707
2026-01-27 10:43:14.47	331.66	7.83	-44.8	-59.6	3.6	1.51e+00	0	33	104	0	60	38705
2026-01-27 10:43:15.44	331.76	7.75	-45.0	-59.7	3.6	1.51e+00	0	33	104	0	60	38965
2026-01-27 10:43:16.42	331.86	7.67	-44.8	-59.6	3.6	1.51e+00	0	33	104	0	60	38646
2026-01-27 10:43:17.40	331.96	7.59	-44.8	-59.6	3.6	1.51e+00	0	33	104	0	60	38650
2026-01-27 10:43:18.38	332.06	7.50	-44.8	-59.5	3.6	1.51e+00	0	33	104	0	60	38372
2026-01-27 10:43:19.36	332.16	7.42	-44.9	-59.7	3.6	1.51e+00	0	33	104	0	60	39139
2026-01-27 10:43:20.34	332.26	7.34	-44.8	-59.6	3.6	1.51e+00	0	33	104	0	60	38553
2026-01-27 10:43:21.31	332.35	7.26	-44.8	-59.6	3.6	1.51e+00	0	33	104	0	60	38591
2026-01-27 10:43:22.29	332.45	7.18	-44.7	-59.5	3.6	1.51e+00	0	33	104	0	60	38186
2026-01-27 10:43:23.26	332.54	7.10	-44.9	-59.6	3.6	1.51e+00	0	33	104	0	60	38775
2026-01-27 10:43:24.24	332.64	7.02	-44.7	-59.5	3.6	1.51e+00	0	33	104	0	60	38179
2026-01-27 10:43:25.22	332.73	6.94	-44.8	-59.5	3.6	1.51e+00	0	33	104	0	60	38233
2026-01-27 10:43:26.19	332.82	6.87	-44.5	-59.3	3.6	1.51e+00	0	33	104	0	60	37631
2026-01-27 10:43:27.17	332.92	6.79	-44.8	-59.5	3.6	1.51e+00	0	33	104	0	60	38447
2026-01-27 10:43:28.14	333.01	6.71	-44.5	-59.3	3.6	1.51e+00	0	33	104	0	60	37351
2026-01-27 10:43:29.12	333.10	6.63	-44.7	-59.5	3.6	1.51e+00	0	33	104	0	60	38136
2026-01-27 10:43:30.09	333.19	6.55	-44.3	-59.1	3.6	1.51e+00	0	33	104	0	60	36509
2026-01-27 10:43:31.07	333.28	6.48	-44.7	-59.5	3.6	1.51e+00	0	33	104	0	60	38124
2026-01-27 10:43:32.04	333.37	6.40	-44.1	-58.8	3.6	1.51e+00	0	33	104	0	60	35488
2026-01-27 10:43:33.02	333.46	6.32	-44.6	-59.4	3.6	1.51e+00	0	33	104	0	60	37774
2026-01-27 10:43:34.00	333.55	6.24	-42.7	-57.4	3.6	1.51e+00	0	33	104	0	60	30078
2026-01-27 10:43:34.98	333.64	6.17	-44.4	-59.2	3.6	1.51e+00	0	33	104	0	60	36867
2026-01-27 10:43:35.95	333.72	6.09	-42.3	-57.0	3.6	1.51e+00	0	33	104	0	60	28744
2026-01-27 10:43:36.93	333.81	6.02	-41.6	-56.2	3.6	1.51e+00	0	33	104	0	58	29428
2026-01-27 10:43:37.90	333.90	5.94	-41.1	-55.8	3.6	1.51e+00	0	33	104	0	58	27989
2026-01-27 10:43:38.88	333.98	5.86	-40.7	-55.4	3.6	1.51e+00	0	33	104	0	56	30211
2026-01-27 10:43:39.86	334.07	5.79	-41.5	-56.2	3.6	1.51e+00	0	33	104	0	56	32844
2026-01-27 10:43:40.83	334.15	5.71	-43.8	-58.6	3.6	1.51e+00	0	33	104	0	60	34587
2026-01-27 10:43:41.80	334.24	5.64	-41.3	-56.1	3.6	1.51e+00	0	33	104	0	58	28966
2026-01-27 10:43:42.78	334.32	5.57	-41.8	-56.6	3.6	1.51e+00	0	33	104	0	58	30604
2026-01-27 10:43:43.76	334.41	5.49	-41.0	-55.7	3.6	1.51e+00	0	33	104	0	58	27634
2026-01-27 10:43:44.74	334.49	5.42	-40.8	-55.5	3.6	1.51e+00	0	33	104	0	58	27038
2026-01-27 10:43:45.71	334.57	5.34	-40.7	-55.4	3.6	1.51e+00	0	33	104	0	56	30103
2026-01-27 10:43:46.69	334.65	5.27	-40.7	-55.5	3.6	1.51e+00	0	33	104	0	56	30274
2026-01-27 10:43:47.67	334.73	5.20	-40.7	-55.4	3.6	1.51e+00	0	33	104	0	56	30040
2026-01-27 10:43:48.64	334.81	5.12	-41.5	-56.2	3.6	1.51e+00	0	33	104	0	56	33086
2026-01-27 10:43:49.62	334.89	5.05	-41.0	-55.8	3.6	1.51e+00	0	33	104	0	58	27928
2026-01-27 10:43:50.60	334.97	4.98	-40.8	-55.5	3.6	1.51e+00	0	33	104	0	58	27131
2026-01-27 10:43:51.58	335.05	4.91	-40.8	-55.4	3.6	1.51e+00	0	33	104	0	58	26942
2026-01-27 10:43:52.56	335.13	4.83	-40.8	-55.5	3.6	1.51e+00	0	33	104	0	56	30405
2026-01-27 10:43:53.54	335.21	4.76	-40.7	-55.5	3.6	1.51e+00	0	33	104	0	56	30318
2026-01-27 10:43:54.52	335.29	4.69	-40.8	-55.5	3.6	1.51e+00	0	33	104	0	56	30266
2026-01-27 10:43:55.49	335.37	4.62	-40.8	-55.5	3.6	1.51e+00	0	33	104	0	56	30552
2026-01-27 10:43:56.47	335.45	4.55	-40.8	-55.6	3.6	1.51e+00	0	33	104	0	56	30606
2026-01-27 10:43:57.45	335.52	4.47	-41.2	-55.8	3.6	1.51e+00	0	33	104	0	56	31599
2026-01-27 10:43:58.43	335.60	4.40	-40.9	-55.7	3.6	1.51e+00	0	33	104	0	56	31061
2026-01-27 10:43:59.40	335.67	4.33	-40.9	-55.6	3.6	1.51e+00	0	33	104	0	56	30629
2026-01-27 10:44:00.38	335.75	4.26	-40.9	-55.6	3.6	1.51e+00	0	33	104	0	56	30697
2026-01-27 10:44:01.36	335.82	4.19	-40.9	-55.6	3.6	1.51e+00	0	33	104	0	56	30718
2026-01-27 10:44:02.33	335.90	4.12	-40.9	-55.6	3.6	1.51e+00	0	33	104	0	56	30661
2026-01-27 10:44:03.31	335.97	4.05	-40.8	-55.5	3.6	1.51e+00	0	33	104	0	56	30389
2026-01-27 10:44:04.29	336.05	3.98	-40.8	-55.5	3.6	1.51e+00	0	33	104	0	56	30397
2026-01-27 10:44:05.27	336.12	3.91	-41.0	-55.8	3.6	1.51e+00	0	33	104	0	56	31461
2026-01-27 10:44:06.25	336.19	3.84	-40.9	-55.6	3.6	1.51e+00	0	33	104	0	56	30769
2026-01-27 10:44:07.22	336.27	3.78	-41.0	-55.7	3.6	1.51e+00	0	33	104	0	56	31138
2026-01-27 10:44:08.20	336.34	3.71	-40.8	-55.5	3.6	1.51e+00	0	33	104	0	56	30489
2026-01-27 10:44:09.18	336.41	3.64	-41.0	-55.7	3.6	1.51e+00	0	33	104	0	56	31169
2026-01-27 10:44:10.15	336.48	3.57	-40.8	-55.6	3.6	1.51e+00	0	33	104	0	56	30877
2026-01-27 10:44:11.13	336.55	3.50	-40.9	-55.6	3.6	1.51e+00	0	33	104	0	56	30737
2026-01-27 10:44:12.11	336.62	3.43	-40.8	-55.5	3.6	1.51e+00	0	33	104	0	56	30473
2026-01-27 10:44:13.08	336.69	3.37	-40.9	-55.7	3.6	1.51e+00	0	33	104	0	56	30991
2026-01-27 10:44:14.06	336.76	3.30	-40.9	-55.6	3.6	1.51e+00	0	33	104	0	56	30733
2026-01-27 10:44:15.04	336.83	3.23	-40.8	-55.6	3.6	1.51e+00	0	33	104	0	56	30760
2026-01-27 10:44:16.02	336.90	3.16	-40.8	-55.6	3.6	1.51e+00	0	33	104	0	56	30618
2026-01-27 10:44:16.99	336.97	3.10	-40.9	-55.6	3.6	1.51e+00	0	33	104	0	56	30807
2026-01-27 10:44:17.97	337.04	3.03	-40.9	-55.7	3.6	1.51e+00	0	33	104	0	56	30982
2026-01-27 10:44:18.96	337.11	2.96	-40.9	-55.7	3.6	1.51e+00	0	33	104	0	56	30978
2026-01-27 10:44:19.93	337.17	2.90	-43.8	-58.6	3.6	1.51e+00	0	33	104	0	60	34508
2026-01-27 10:44:20.91	337.24	2.83	-44.9	-59.7	3.5	1.51e+00	0	33	104	0	60	39150
2026-01-27 10:44:21.89	337.31	2.76	-45.2	-59.9	3.6	1.51e+00	0	33	104	0	60	40001
2026-01-27 10:44:22.86	337.37	2.70	-45.3	-60.0	3.6	1.51e+00	0	33	104	0	60	40723
2026-01-27 10:44:23.84	337.44	2.63	-45.5	-60.2	3.6	1.51e+00	0	33	104	0	60	41687
2026-01-27 10:44:24.81	337.50	2.57	-45.5	-60.3	3.6	1.51e+00	0	33	104	0	60	41791
2026-01-27 10:44:25.79	337.57	2.50	-45.3	-60.3	3.6	1.51e+00	0	33	104	0	60	42038
2026-01-27 10:44:26.77	337.63	2.44	-45.5	-60.4	3.6	1.51e+00	0	33	104	0	60	42238
2026-01-27 10:44:27.75	337.70	2.37	-45.4	-60.4	3.6	1.51e+00	0	33	104	0	60	42332
2026-01-27 10:44:28.72	337.76	2.31	-45.7	-60.4	3.6	1.51e+00	0	33	104	0	60	42640
2026-01-27 10:44:29.70	337.83	2.24	-45.5	-60.5	3.6	1.51e+00	0	33	104	0	60	42913
2026-01-27 10:44:30.68	337.89	2.18	-45.5	-60.5	3.6	1.51e+00	0	33	104	0	60	43051
2026-01-27 10:44:31.65	337.95	2.11	-45.5	-60.5	3.6	1.51e+00	0	33	104	0	60	42875
2026-01-27 10:44:32.63	338.02	2.05	-45.7	-60.6	3.6	1.51e+00	0	33	104	0	60	43515
2026-01-27 10:44:33.61	338.08	1.98	-45.6	-60.4	3.6	1.51e+00	0	33	104	0	60	42655
2026-01-27 10:44:34.59	338.14	1.92	-45.4	-60.4	3.6	1.51e+00	0	33	104	0	60	42475
2026-01-27 10:44:35.56	338.20	1.86	-45.2	-60.3	3.6	1.51e+00	0	33	104	0	60	42078
2026-01-27 10:44:36.54	338.27	1.79	-45.4	-60.3	3.6	1.51e+00	0	33	104	0	60	42098
2026-01-27 10:44:37.51	338.33	1.73	-45.4	-60.3	3.6	1.51e+00	0	33	104	0	60	42000
2026-01-27 10:44:38.49	338.39	1.67	-45.4	-60.2	3.6	1.51e+00	0	33	104	0	60	41417
2026-01-27 10:44:39.47	338.45	1.60	-45.5	-60.2	3.6	1.51e+00	0	33	104	0	60	41689
2026-01-27 10:44:40.45	338.51	1.54	-45.3	-60.2	3.6	1.51e+00	0	33	104	0	60	41374
2026-01-27 10:44:41.42	338.57	1.48	-45.4	-60.2	3.6	1.51e+00	0	33	104	0	60	41553
2026-01-27 10:44:42.40	338.63	1.42	-45.5	-60.1	3.6	1.51e+00	0	33	104	0	60	41208
2026-01-27 10:44:43.38	338.69	1.35	-45.5	-60.2	3.6	1.51e+00	0	33	104	0	60	41683
2026-01-27 10:44:44.35	338.75	1.29	-45.5	-60.2	3.6	1.51e+00	0	33	104	0	60	41723
2026-01-27 10:44:45.33	338.81	1.23	-45.5	-60.2	3.6	1.51e+00	0	33	104	0	60	41505
2026-01-27 10:44:46.30	338.87	1.17	-45.4	-60.1	3.6	1.51e+00	0	33	104	0	60	41258
2026-01-27 10:44:47.28	338.92	1.11	-45.4	-60.2	3.6	1.51e+00	0	33	104	0	60	41276
2026-01-27 10:44:48.26	338.98	1.04	-45.4	-60.1	3.5	1.51e+00	0	33	104	0	60	41066
2026-01-27 10:44:49.24	339.04	0.98	-45.4	-60.2	3.6	1.51e+00	0	33	104	0	60	41468
2026-01-27 10:44:50.22	339.10	0.92	-45.4	-60.1	3.6	1.51e+00	0	33	104	0	60	41222
2026-01-27 10:44:51.19	339.16	0.86	-45.4	-60.2	3.6	1.51e+00	0	33	104	0	60	41466
2026-01-27 10:44:52.16	339.21	0.80	-45.5	-60.2	3.6	1.51e+00	0	33	104	0	60	41633
2026-01-27 10:44:53.14	339.27	0.74	-45.4	-60.2	3.6	1.51e+00	0	33	104	0	60	41285
2026-01-27 10:44:54.12	339.33	0.68	-45.4	-60.1	3.6	1.51e+00	0	33	104	0	60	41238
2026-01-27 10:44:55.10	339.38	0.62	-45.5	-60.2	3.6	1.51e+00	0	33	104	0	60	41720
2026-01-27 10:44:56.07	339.44	0.56	-45.5	-60.2	3.5	1.51e+00	0	33	104	0	60	41387
2026-01-27 10:44:57.05	339.49	0.50	-45.5	-60.2	3.6	1.51e+00	0	33	104	0	60	41302
2026-01-27 10:44:58.03	339.55	0.44	-45.5	-60.2	3.6	1.51e+00	0	33	104	0	60	41599
2026-01-27 10:44:59.01	339.60	0.38	-45.4	-60.1	3.6	1.51e+00	0	33	104	0	60	41130
2026-01-27 10:44:59.99	339.66	0.32	-45.5	-60.2	3.6	1.51e+00	0	33	104	0	60	41343
2026-01-27 10:45:00.96	339.71	0.26	-45.5	-60.2	3.6	1.51e+00	0	33	104	0	60	41452
2026-01-27 10:45:01.94	339.77	0.20	-45.4	-60.1	3.6	1.51e+00	0	33	104	0	60	41207
2026-01-27 10:45:02.92	339.82	0.14	-45.4	-60.1	3.6	1.51e+00	0	33	104	0	60	41072
2026-01-27 10:45:03.90	339.88	0.08	-45.4	-60.1	3.6	1.51e+00	0	33	104	0	60	41150
2026-01-27 10:45:04.87	339.93	0.02	-45.4	-60.2	3.5	1.51e+00	0	33	104	0	60	41423
2026-01-27 10:45:05.85	339.98	-0.04	-45.5	-60.2	3.6	1.51e+00	0	33	104	0	60	41545
2026-01-27 10:45:06.83	340.04	-0.10	-45.5	-60.2	3.6	1.51e+00	0	33	104	0	60	41702
2026-01-27 10:45:07.80	340.09	-0.16	-45.5	-60.1	3.6	1.51e+00	0	33	104	0	60	41220

#Closed at: 2026-01-27 10:45:08
#Recorded file [0 MB]: D:/lorett/data/35029_260127_223359.dat