passes_logs/2026/01/27/R4.6S_Anadyr/R4.6S_Anadyr__20260127_215123_KOSAR1-5_rec.log

#Pass ID: 20260127_215123_KOSAR1-5
#Satellite: KOSAR1-5
#Configuration: KOSAR1-5
#almurnet v.1.7.20251203
#Start time: 2026-01-27 21:51:26

#Version: 2.2.20231116
#Station: R4.6S_Anadyr
#Location: 177.4865 lon 64.73178 lat
#TLE: 1 67264U 25313S   26027.43234714  .00011684  00000+0  53854-3 0  9991
#TLE: 2 67264  97.4175 104.3970 0016458 139.6900 220.5558 15.20303503  4548

#Time	Az	El	Level	Level2	SNR	BER	BlckErr	Temp	State	Recorded	gain1	gain2
2026-01-27 21:51:26.63	23.53	0.18	-48.9	-50.5	5.7	0.00e+00	0	29	0	0	60	40971
2026-01-27 21:51:27.61	23.62	0.24	-45.5	-60.3	3.6	1.51e+00	0	31	104	0	60	41837
2026-01-27 21:51:28.59	23.71	0.29	-45.5	-60.2	3.6	1.51e+00	0	31	104	0	60	41722
2026-01-27 21:51:29.58	23.81	0.34	-45.6	-60.3	3.6	1.51e+00	0	31	104	0	60	42156
2026-01-27 21:51:30.56	23.90	0.39	-45.7	-60.4	3.6	1.51e+00	0	31	104	0	60	42499
2026-01-27 21:51:31.54	23.99	0.45	-45.7	-60.3	3.6	1.51e+00	0	31	104	0	60	42171
2026-01-27 21:51:32.52	24.09	0.50	-45.7	-60.4	3.6	1.51e+00	0	31	104	0	60	42341
2026-01-27 21:51:33.51	24.18	0.55	-45.4	-60.4	3.6	1.51e+00	0	31	104	0	60	42302
2026-01-27 21:51:34.49	24.28	0.61	-45.6	-60.4	3.6	1.51e+00	0	31	104	0	60	42348
2026-01-27 21:51:35.47	24.37	0.66	-45.6	-60.3	3.6	1.51e+00	0	31	104	0	60	42080
2026-01-27 21:51:36.45	24.47	0.71	-45.5	-60.3	3.6	1.51e+00	0	31	104	0	60	41835
2026-01-27 21:51:37.43	24.56	0.77	-45.5	-60.2	3.5	1.51e+00	0	31	104	0	60	41693
2026-01-27 21:51:38.41	24.66	0.82	-45.5	-60.2	3.6	1.51e+00	0	31	104	0	60	41502
2026-01-27 21:51:39.38	24.75	0.87	-45.3	-60.1	3.6	1.51e+00	0	31	104	0	60	40963
2026-01-27 21:51:40.36	24.85	0.93	-45.3	-60.1	3.6	1.51e+00	0	31	104	0	60	40806
2026-01-27 21:51:41.35	24.95	0.98	-45.3	-60.0	3.6	1.51e+00	0	31	104	0	60	40648
2026-01-27 21:51:42.33	25.04	1.03	-45.2	-59.9	3.6	1.51e+00	0	31	104	0	60	40169
2026-01-27 21:51:43.31	25.14	1.09	-45.0	-59.8	3.6	1.51e+00	0	31	104	0	60	39731
2026-01-27 21:51:44.29	25.24	1.14	-44.9	-59.7	3.6	1.51e+00	0	31	104	0	60	39186
2026-01-27 21:51:45.27	25.34	1.20	-44.9	-59.6	3.6	1.51e+00	0	31	104	0	60	38614
2026-01-27 21:51:46.25	25.44	1.25	-44.7	-59.4	3.6	1.51e+00	0	31	104	0	60	37741
2026-01-27 21:51:47.22	25.54	1.30	-44.4	-59.1	3.6	1.51e+00	0	31	104	0	60	36558
2026-01-27 21:51:48.20	25.64	1.36	-44.1	-58.9	3.5	1.51e+00	0	31	104	0	60	35699
2026-01-27 21:51:49.18	25.74	1.41	-44.1	-58.9	3.6	1.51e+00	0	31	104	0	60	35719
2026-01-27 21:51:50.15	25.84	1.46	-44.1	-58.8	3.6	1.51e+00	0	31	104	0	60	35410
2026-01-27 21:51:51.13	25.94	1.52	-44.1	-58.9	3.6	1.51e+00	0	31	104	0	60	35591
2026-01-27 21:51:52.11	26.04	1.57	-44.1	-58.9	3.6	1.51e+00	0	31	104	0	60	35590
2026-01-27 21:51:53.09	26.15	1.63	-44.1	-58.9	3.6	1.51e+00	0	31	104	0	60	35530
2026-01-27 21:51:54.07	26.25	1.68	-44.1	-58.8	3.6	1.51e+00	0	31	104	0	60	35518
2026-01-27 21:51:55.05	26.35	1.74	-44.1	-58.9	3.6	1.51e+00	0	31	104	0	60	35842
2026-01-27 21:51:56.03	26.46	1.79	-44.1	-58.9	3.6	1.51e+00	0	31	104	0	60	35661
2026-01-27 21:51:57.02	26.56	1.85	-44.1	-58.8	3.6	1.51e+00	0	31	104	0	60	35439
2026-01-27 21:51:58.00	26.67	1.90	-44.1	-58.9	3.6	1.51e+00	0	31	104	0	60	35649
2026-01-27 21:51:58.98	26.77	1.96	-44.1	-58.9	3.6	1.51e+00	0	31	104	0	60	35675
2026-01-27 21:51:59.96	26.88	2.01	-44.1	-58.8	3.6	1.51e+00	0	31	104	0	60	35441
2026-01-27 21:52:00.94	26.98	2.07	-44.1	-58.9	3.6	1.51e+00	0	31	104	0	60	35550
2026-01-27 21:52:01.92	27.09	2.12	-44.1	-58.8	3.6	1.51e+00	0	31	104	0	60	35468
2026-01-27 21:52:02.90	27.20	2.18	-44.0	-58.8	3.6	1.51e+00	0	31	104	0	60	35240
2026-01-27 21:52:03.88	27.31	2.23	-44.1	-58.8	3.6	1.51e+00	0	31	104	0	60	35418
2026-01-27 21:52:04.87	27.42	2.29	-44.1	-58.8	3.6	1.51e+00	0	31	104	0	60	35451
2026-01-27 21:52:05.85	27.53	2.35	-44.1	-58.8	3.6	1.51e+00	0	31	104	0	60	35508
2026-01-27 21:52:06.83	27.63	2.40	-44.1	-58.8	3.6	1.51e+00	0	31	104	0	60	35354
2026-01-27 21:52:07.82	27.75	2.46	-44.1	-58.8	3.6	1.51e+00	0	31	104	0	60	35413
2026-01-27 21:52:08.80	27.86	2.51	-44.0	-58.8	3.6	1.51e+00	0	31	104	0	60	35394
2026-01-27 21:52:09.78	27.97	2.57	-44.0	-58.8	3.6	1.51e+00	0	31	104	0	60	35513
2026-01-27 21:52:10.77	28.08	2.63	-44.0	-58.8	3.6	1.51e+00	0	31	104	0	60	35410
2026-01-27 21:52:11.74	28.19	2.68	-44.0	-58.8	3.6	1.51e+00	0	31	104	0	60	35374
2026-01-27 21:52:12.72	28.30	2.74	-44.0	-58.8	3.6	1.51e+00	0	31	104	0	60	35269
2026-01-27 21:52:13.69	28.42	2.79	-44.0	-58.8	3.6	1.51e+00	0	31	104	0	60	35471
2026-01-27 21:52:14.68	28.53	2.85	-44.1	-58.8	3.6	1.51e+00	0	31	104	0	60	35419
2026-01-27 21:52:15.66	28.64	2.91	-44.0	-58.8	3.6	1.51e+00	0	31	104	0	60	35286
2026-01-27 21:52:16.64	28.76	2.96	-44.0	-58.8	3.6	1.51e+00	0	31	104	0	60	35279
2026-01-27 21:52:17.62	28.87	3.02	-44.0	-58.8	3.6	1.51e+00	0	31	104	0	60	35373
2026-01-27 21:52:18.60	28.99	3.07	-44.0	-58.8	3.6	1.51e+00	0	31	104	0	60	35349
2026-01-27 21:52:19.58	29.11	3.13	-44.0	-58.8	3.6	1.51e+00	0	31	104	0	60	35396
2026-01-27 21:52:20.56	29.22	3.19	-44.0	-58.8	3.6	1.51e+00	0	31	104	0	60	35315
2026-01-27 21:52:21.54	29.34	3.24	-43.8	-58.9	3.6	1.51e+00	0	31	104	0	60	35661
2026-01-27 21:52:22.52	29.46	3.30	-44.1	-58.9	3.6	1.51e+00	0	31	104	0	60	35632
2026-01-27 21:52:23.50	29.58	3.36	-44.1	-58.9	3.6	1.51e+00	0	31	104	0	60	35712
2026-01-27 21:52:24.48	29.70	3.42	-44.1	-59.0	3.6	1.51e+00	0	31	104	0	60	36339
2026-01-27 21:52:25.46	29.82	3.47	-44.1	-58.9	3.6	1.51e+00	0	31	104	0	60	35812
2026-01-27 21:52:26.44	29.94	3.53	-44.1	-58.8	3.6	1.51e+00	0	31	104	0	60	35493
2026-01-27 21:52:27.42	30.06	3.59	-44.1	-58.9	3.6	1.51e+00	0	31	104	0	60	35736
2026-01-27 21:52:28.39	30.18	3.64	-44.3	-59.1	3.6	1.51e+00	0	31	104	0	60	36384
2026-01-27 21:52:29.37	30.30	3.70	-44.1	-59.0	3.6	1.51e+00	0	31	104	0	60	36126
2026-01-27 21:52:30.35	30.42	3.76	-44.1	-58.9	3.6	1.51e+00	0	31	104	0	60	35838
2026-01-27 21:52:31.33	30.55	3.82	-44.0	-58.9	3.6	1.51e+00	0	31	104	0	60	35793
2026-01-27 21:52:32.31	30.67	3.87	-44.3	-59.1	3.6	1.51e+00	0	31	104	0	60	36635
2026-01-27 21:52:33.29	30.79	3.93	-43.9	-59.0	3.6	1.51e+00	0	32	104	0	60	36285
2026-01-27 21:52:34.27	30.92	3.99	-44.1	-59.0	3.6	1.51e+00	0	31	104	0	60	35994
2026-01-27 21:52:35.24	31.04	4.05	-44.1	-58.9	3.6	1.51e+00	0	31	104	0	60	35929
2026-01-27 21:52:36.23	31.17	4.10	-44.2	-59.1	3.6	1.51e+00	0	31	104	0	60	36758
2026-01-27 21:52:37.21	31.30	4.16	-44.2	-59.1	3.6	1.51e+00	0	31	104	0	60	36520
2026-01-27 21:52:38.19	31.42	4.22	-43.9	-59.0	3.6	1.51e+00	0	32	104	0	60	36135
2026-01-27 21:52:39.16	31.55	4.28	-44.1	-58.9	3.6	1.51e+00	0	32	104	0	60	35610
2026-01-27 21:52:40.14	31.68	4.34	-44.4	-59.2	3.6	1.51e+00	0	31	104	0	60	36872
2026-01-27 21:52:41.12	31.81	4.39	-44.2	-59.1	3.6	1.51e+00	0	32	104	0	60	36652
2026-01-27 21:52:42.10	31.94	4.45	-44.2	-59.0	3.6	1.51e+00	0	32	104	0	60	36327
2026-01-27 21:52:43.07	32.07	4.51	-44.0	-58.8	3.6	1.51e+00	0	32	104	0	60	35421
2026-01-27 21:52:44.05	32.20	4.57	-44.5	-59.2	3.6	1.51e+00	0	31	104	0	60	36876
2026-01-27 21:52:45.03	32.33	4.63	-44.4	-59.2	3.6	1.51e+00	0	32	104	0	60	36941
2026-01-27 21:52:46.01	32.47	4.69	-44.2	-59.1	3.6	1.51e+00	0	32	104	0	60	36671
2026-01-27 21:52:46.99	32.60	4.74	-44.3	-59.0	3.6	1.51e+00	0	31	104	0	60	36294
2026-01-27 21:52:47.97	32.73	4.80	-44.6	-59.2	3.6	1.51e+00	0	32	104	0	60	37169
2026-01-27 21:52:48.95	32.87	4.86	-44.2	-59.3	3.6	1.51e+00	0	32	104	0	60	37222
2026-01-27 21:52:49.93	33.00	4.92	-44.4	-59.1	3.6	1.51e+00	0	32	104	0	60	36774
2026-01-27 21:52:50.91	33.14	4.98	-44.3	-59.1	3.6	1.51e+00	0	32	104	0	60	36662
2026-01-27 21:52:51.89	33.27	5.04	-44.6	-59.3	3.6	1.51e+00	0	32	104	0	60	37331
2026-01-27 21:52:52.87	33.41	5.10	-44.3	-59.3	3.6	1.51e+00	0	31	104	0	60	37320
2026-01-27 21:52:53.84	33.55	5.16	-44.2	-59.2	3.6	1.51e+00	0	32	104	0	60	37061
2026-01-27 21:52:54.82	33.69	5.21	-44.2	-59.2	3.6	1.51e+00	0	32	104	0	60	36810
2026-01-27 21:52:55.80	33.83	5.27	-44.5	-59.3	3.6	1.51e+00	0	31	104	0	60	37330
2026-01-27 21:52:56.78	33.97	5.33	-44.4	-59.3	3.6	1.51e+00	0	32	104	0	60	37465
2026-01-27 21:52:57.75	34.11	5.39	-44.3	-59.2	3.6	1.51e+00	0	32	104	0	60	37097
2026-01-27 21:52:58.73	34.25	5.45	-44.3	-59.2	3.6	1.51e+00	0	31	104	0	60	36886
2026-01-27 21:52:59.71	34.39	5.51	-44.4	-59.3	3.6	1.51e+00	0	32	104	0	60	37516
2026-01-27 21:53:00.69	34.53	5.57	-44.6	-59.3	3.6	1.51e+00	0	31	104	0	60	37498
2026-01-27 21:53:01.67	34.68	5.63	-44.5	-59.3	3.6	1.51e+00	0	32	104	0	60	37264
2026-01-27 21:53:02.66	34.82	5.69	-44.5	-59.2	3.6	1.51e+00	0	32	104	0	60	37107
2026-01-27 21:53:03.64	34.97	5.75	-44.6	-59.3	3.6	1.51e+00	0	32	104	0	60	37466
2026-01-27 21:53:04.62	35.11	5.81	-44.6	-59.4	3.6	1.51e+00	0	32	104	0	60	37740
2026-01-27 21:53:05.60	35.26	5.87	-44.6	-59.3	3.6	1.51e+00	0	32	104	0	60	37412
2026-01-27 21:53:06.58	35.41	5.93	-44.6	-59.3	3.6	1.51e+00	0	32	104	0	60	37345
2026-01-27 21:53:07.56	35.56	5.99	-44.5	-59.3	3.6	1.51e+00	0	32	104	0	60	37475
2026-01-27 21:53:08.54	35.70	6.05	-44.3	-59.3	3.6	1.51e+00	0	32	104	0	60	37566
2026-01-27 21:53:09.52	35.85	6.11	-44.6	-59.3	3.6	1.51e+00	0	32	104	0	60	37461
2026-01-27 21:53:10.50	36.00	6.17	-44.4	-59.3	3.6	1.51e+00	0	32	104	0	60	37449
2026-01-27 21:53:11.48	36.15	6.23	-44.7	-59.4	3.6	1.51e+00	0	32	104	0	60	37780
2026-01-27 21:53:12.46	36.31	6.29	-44.7	-59.4	3.6	1.51e+00	0	31	104	0	60	37867
2026-01-27 21:53:13.44	36.46	6.35	-44.7	-59.4	3.6	1.51e+00	0	32	104	0	60	37860
2026-01-27 21:53:14.42	36.61	6.41	-44.6	-59.3	3.6	1.51e+00	0	32	104	0	60	37613
2026-01-27 21:53:15.40	36.77	6.47	-44.6	-59.3	3.6	1.51e+00	0	32	104	0	60	37620
2026-01-27 21:53:16.38	36.92	6.53	-44.6	-59.4	3.6	1.51e+00	0	32	104	0	60	37737
2026-01-27 21:53:17.35	37.08	6.59	-44.7	-59.4	3.6	1.51e+00	0	32	104	0	60	37804
2026-01-27 21:53:18.34	37.23	6.65	-44.6	-59.4	3.6	1.51e+00	0	32	104	0	60	37795
2026-01-27 21:53:19.31	37.39	6.71	-44.3	-59.4	3.6	1.51e+00	0	32	104	0	60	37817
2026-01-27 21:53:20.29	37.55	6.77	-44.7	-59.5	3.6	1.51e+00	0	32	104	0	60	38172
2026-01-27 21:53:21.27	37.71	6.83	-44.6	-59.5	3.6	1.51e+00	0	32	104	0	60	38114
2026-01-27 21:53:22.25	37.87	6.89	-44.6	-59.4	3.6	1.51e+00	0	32	104	0	60	37913
2026-01-27 21:53:23.23	38.03	6.95	-44.7	-59.4	3.6	1.51e+00	0	32	104	0	60	37740
2026-01-27 21:53:24.21	38.19	7.01	-44.7	-59.4	3.6	1.51e+00	0	32	104	0	60	37977
2026-01-27 21:53:25.19	38.35	7.07	-44.7	-59.4	3.6	1.51e+00	0	32	104	0	60	37974
2026-01-27 21:53:26.17	38.51	7.13	-44.6	-59.4	3.6	1.51e+00	0	32	104	0	60	37787
2026-01-27 21:53:27.16	38.68	7.19	-44.7	-59.4	3.6	1.51e+00	0	32	104	0	60	37701
2026-01-27 21:53:28.14	38.84	7.26	-44.4	-59.5	3.6	1.51e+00	0	32	104	0	60	38251
2026-01-27 21:53:29.12	39.01	7.32	-44.7	-59.4	3.6	1.51e+00	0	32	104	0	60	37962
2026-01-27 21:53:30.10	39.18	7.38	-44.7	-59.4	3.6	1.51e+00	0	32	104	0	60	38048
2026-01-27 21:53:31.08	39.34	7.44	-44.5	-59.4	3.6	1.51e+00	0	32	104	0	60	37892
2026-01-27 21:53:32.07	39.51	7.50	-44.3	-59.5	3.6	1.51e+00	0	32	104	0	60	38397
2026-01-27 21:53:33.05	39.68	7.56	-44.2	-59.4	3.6	1.51e+00	0	32	104	0	60	38055
2026-01-27 21:53:34.03	39.85	7.62	-44.6	-59.5	3.6	1.51e+00	0	32	104	0	60	38160
2026-01-27 21:53:35.01	40.02	7.68	-44.7	-59.4	3.6	1.51e+00	0	32	104	0	60	37955
2026-01-27 21:53:35.99	40.20	7.74	-44.6	-59.5	3.6	1.51e+00	0	32	104	0	60	38221
2026-01-27 21:53:36.97	40.37	7.80	-43.7	-59.5	3.6	1.51e+00	0	32	104	0	60	38096
2026-01-27 21:53:37.95	40.54	7.86	-44.1	-59.4	3.6	1.51e+00	0	32	104	0	60	37975
2026-01-27 21:53:38.94	40.72	7.93	-44.3	-59.4	3.6	1.51e+00	0	32	104	0	60	37992
2026-01-27 21:53:39.92	40.89	7.99	-44.8	-59.5	3.6	1.51e+00	0	32	104	0	60	38469
2026-01-27 21:53:40.90	41.07	8.05	-44.6	-59.5	3.6	1.51e+00	0	32	104	0	60	38505
2026-01-27 21:53:41.88	41.25	8.11	-43.9	-59.4	3.6	1.51e+00	0	32	104	0	60	38031
2026-01-27 21:53:42.86	41.42	8.17	-43.8	-59.5	3.6	1.51e+00	0	32	104	0	60	38252
2026-01-27 21:53:43.83	41.60	8.23	-44.7	-59.6	3.6	1.51e+00	0	32	104	0	60	38607
2026-01-27 21:53:44.82	41.78	8.29	-44.8	-59.6	3.6	1.51e+00	0	32	104	0	60	38602
2026-01-27 21:53:45.80	41.96	8.35	-44.6	-59.5	3.6	1.51e+00	0	32	104	0	60	38483
2026-01-27 21:53:46.78	42.14	8.41	-44.6	-59.5	3.6	1.51e+00	0	32	104	0	60	38199
2026-01-27 21:53:47.76	42.33	8.47	-44.9	-59.5	3.6	1.51e+00	0	32	104	0	60	38347
2026-01-27 21:53:48.74	42.51	8.53	-44.8	-59.6	3.6	1.51e+00	0	32	104	0	60	38530
2026-01-27 21:53:49.72	42.69	8.59	-44.8	-59.5	3.6	1.51e+00	0	32	104	0	60	38490
2026-01-27 21:53:50.71	42.88	8.66	-44.8	-59.5	3.6	1.51e+00	0	32	104	0	60	38256
2026-01-27 21:53:51.69	43.07	8.72	-44.8	-59.6	3.6	1.51e+00	0	32	104	0	60	38740
2026-01-27 21:53:52.68	43.26	8.78	-44.8	-59.6	3.6	1.51e+00	0	32	104	0	60	38539
2026-01-27 21:53:53.66	43.45	8.84	-44.8	-59.5	3.6	1.51e+00	0	32	104	0	60	38458
2026-01-27 21:53:54.64	43.63	8.90	-44.8	-59.5	3.6	1.51e+00	0	32	104	0	60	38349
2026-01-27 21:53:55.62	43.82	8.96	-44.8	-59.6	3.6	1.51e+00	0	32	104	0	60	38794
2026-01-27 21:53:56.60	44.02	9.02	-44.8	-59.6	3.6	1.51e+00	0	32	104	0	60	38560
2026-01-27 21:53:57.58	44.21	9.08	-44.9	-59.6	3.6	1.51e+00	0	32	104	0	60	38856
2026-01-27 21:53:58.55	44.40	9.14	-44.8	-59.5	3.6	1.51e+00	0	32	104	0	60	38432
2026-01-27 21:53:59.53	44.59	9.20	-44.9	-59.6	3.6	1.51e+00	0	32	104	0	60	38706
2026-01-27 21:54:00.50	44.79	9.26	-44.9	-59.6	3.6	1.51e+00	0	32	104	0	60	38950
2026-01-27 21:54:01.48	44.98	9.32	-44.9	-59.6	3.6	1.51e+00	0	32	104	0	60	38740
2026-01-27 21:54:02.46	45.18	9.38	-44.9	-59.6	3.6	1.51e+00	0	32	104	0	60	38834
2026-01-27 21:54:03.45	45.38	9.44	-44.8	-59.6	3.6	1.51e+00	0	32	104	0	60	38714
2026-01-27 21:54:04.43	45.58	9.50	-44.5	-59.7	3.6	1.51e+00	0	32	104	0	60	39044
2026-01-27 21:54:05.41	45.78	9.56	-44.7	-59.6	3.6	1.51e+00	0	32	104	0	60	38929
2026-01-27 21:54:06.38	45.98	9.62	-44.7	-59.6	3.6	1.51e+00	0	32	104	0	60	38677
2026-01-27 21:54:07.36	46.18	9.68	-44.7	-59.6	3.6	1.51e+00	0	32	104	0	60	38898
2026-01-27 21:54:08.34	46.38	9.74	-44.9	-59.7	3.6	1.51e+00	0	32	104	0	60	39209
2026-01-27 21:54:09.32	46.59	9.80	-45.0	-59.6	3.6	1.51e+00	0	32	104	0	60	38733
2026-01-27 21:54:10.30	46.79	9.86	-44.7	-59.6	3.6	1.51e+00	0	32	104	0	60	38855
2026-01-27 21:54:11.28	47.00	9.92	-44.4	-59.6	3.6	1.51e+00	0	32	104	0	60	38588
2026-01-27 21:54:12.26	47.20	9.98	-44.2	-59.7	3.6	1.51e+00	0	32	104	0	60	39146
2026-01-27 21:54:13.23	47.41	10.04	-43.5	-59.6	3.6	1.51e+00	0	32	104	0	60	38833
2026-01-27 21:54:14.22	47.62	10.10	-44.7	-59.6	3.6	1.51e+00	0	32	104	0	60	38872
2026-01-27 21:54:15.20	47.83	10.16	-44.9	-59.6	3.6	1.51e+00	0	32	104	0	60	38868
2026-01-27 21:54:16.18	48.04	10.22	-44.8	-59.7	3.6	1.51e+00	0	32	104	0	60	39260
2026-01-27 21:54:17.16	48.25	10.28	-43.8	-59.7	3.6	1.51e+00	0	32	104	0	60	39047
2026-01-27 21:54:18.13	48.47	10.34	-43.3	-59.7	3.6	1.51e+00	0	32	104	0	60	39081
2026-01-27 21:54:19.11	48.68	10.40	-44.1	-59.6	3.6	1.51e+00	0	32	104	0	60	38906
2026-01-27 21:54:20.09	48.89	10.46	-45.0	-59.7	3.6	1.51e+00	0	32	104	0	60	39110
2026-01-27 21:54:21.07	49.11	10.51	-44.8	-59.7	3.6	1.51e+00	0	32	104	0	60	39391
2026-01-27 21:54:22.05	49.33	10.57	-44.6	-59.6	3.6	1.51e+00	0	32	104	0	60	38932
2026-01-27 21:54:23.03	49.55	10.63	-44.2	-59.6	3.6	1.51e+00	0	32	104	0	60	38755
2026-01-27 21:54:24.01	49.77	10.69	-45.0	-59.7	3.6	1.51e+00	0	32	104	0	60	39285
2026-01-27 21:54:24.98	49.99	10.75	-44.9	-59.7	3.6	1.51e+00	0	32	104	0	60	39332
2026-01-27 21:54:25.96	50.21	10.80	-44.6	-59.7	3.6	1.51e+00	0	32	104	0	60	39129
2026-01-27 21:54:26.93	50.43	10.86	-44.4	-59.6	3.6	1.51e+00	0	32	104	0	60	38824
2026-01-27 21:54:27.92	50.65	10.92	-43.4	-59.7	3.6	1.51e+00	0	32	104	0	60	39358
2026-01-27 21:54:28.89	50.88	10.98	-44.4	-59.7	3.6	1.51e+00	0	32	104	0	60	39321
2026-01-27 21:54:29.87	51.10	11.03	-44.9	-59.7	3.6	1.51e+00	0	32	104	0	60	39183
2026-01-27 21:54:30.85	51.33	11.09	-44.9	-59.7	3.6	1.51e+00	0	32	104	0	60	38973
2026-01-27 21:54:31.83	51.56	11.15	-44.9	-59.8	3.6	1.51e+00	0	32	104	0	60	39427
2026-01-27 21:54:32.81	51.79	11.21	-45.0	-59.8	3.6	1.51e+00	0	32	104	0	60	39513
2026-01-27 21:54:33.80	52.02	11.26	-44.9	-59.7	3.6	1.51e+00	0	32	104	0	60	39227
2026-01-27 21:54:34.78	52.25	11.32	-43.7	-59.7	3.6	1.51e+00	0	32	104	0	60	39104
2026-01-27 21:54:35.76	52.48	11.38	-44.8	-59.7	3.6	1.51e+00	0	32	104	0	60	39353
2026-01-27 21:54:36.74	52.72	11.43	-44.8	-59.8	3.6	1.51e+00	0	32	104	0	60	39472
2026-01-27 21:54:37.72	52.95	11.49	-45.0	-59.8	3.6	1.51e+00	0	32	104	0	60	39437
2026-01-27 21:54:38.69	53.18	11.54	-44.6	-59.7	3.6	1.51e+00	0	32	104	0	60	39183
2026-01-27 21:54:39.67	53.42	11.60	-44.9	-59.8	3.6	1.51e+00	0	32	104	0	60	39605
2026-01-27 21:54:40.65	53.66	11.65	-45.1	-59.8	3.6	1.51e+00	0	32	104	0	60	39572
2026-01-27 21:54:41.63	53.90	11.71	-44.9	-59.7	3.6	1.51e+00	0	32	104	0	60	39256
2026-01-27 21:54:42.61	54.14	11.76	-44.7	-59.7	3.6	1.51e+00	0	32	104	0	60	39176
2026-01-27 21:54:43.58	54.37	11.82	-45.0	-59.7	3.6	1.51e+00	0	32	104	0	60	39380
2026-01-27 21:54:44.57	54.62	11.87	-45.0	-59.8	3.6	1.51e+00	0	32	104	0	60	39450
2026-01-27 21:54:45.55	54.86	11.93	-45.0	-59.7	3.6	1.51e+00	0	32	104	0	60	39367
2026-01-27 21:54:46.52	55.10	11.98	-45.0	-59.7	3.6	1.51e+00	0	32	104	0	60	39155
2026-01-27 21:54:47.51	55.35	12.04	-43.8	-59.7	3.6	1.51e+00	0	32	104	0	60	39357
2026-01-27 21:54:48.49	55.60	12.09	-44.3	-59.8	3.6	1.51e+00	0	32	104	0	60	39695
2026-01-27 21:54:49.46	55.84	12.14	-44.2	-59.7	3.6	1.51e+00	0	32	104	0	60	39402
2026-01-27 21:54:50.44	56.09	12.20	-43.7	-59.8	3.6	1.51e+00	0	32	104	0	60	39439
2026-01-27 21:54:51.42	56.34	12.25	-45.0	-59.7	3.6	1.51e+00	0	32	104	0	60	39259
2026-01-27 21:54:52.40	56.59	12.30	-44.4	-59.8	3.6	1.51e+00	0	32	104	0	60	39593
2026-01-27 21:54:53.37	56.84	12.35	-43.4	-59.7	3.6	1.51e+00	0	32	104	0	60	39293
2026-01-27 21:54:54.34	57.09	12.40	-43.8	-59.8	3.6	1.51e+00	0	32	104	0	60	39495
2026-01-27 21:54:55.32	57.34	12.45	-44.0	-59.8	3.6	1.51e+00	0	32	104	0	60	39434
2026-01-27 21:54:56.30	57.60	12.51	-45.0	-59.8	3.6	1.51e+00	0	32	104	0	60	39613
2026-01-27 21:54:57.27	57.85	12.56	-44.4	-59.8	3.6	1.51e+00	0	32	104	0	60	39445
2026-01-27 21:54:58.25	58.11	12.61	-45.1	-59.8	3.6	1.51e+00	0	32	104	0	60	39476
2026-01-27 21:54:59.23	58.37	12.66	-44.9	-59.7	3.6	1.51e+00	0	32	104	0	60	39372
2026-01-27 21:55:00.21	58.63	12.71	-45.0	-59.8	3.6	1.51e+00	0	32	104	0	60	39452
2026-01-27 21:55:01.18	58.88	12.76	-45.0	-59.8	3.6	1.51e+00	0	32	104	0	60	39534
2026-01-27 21:55:02.16	59.15	12.81	-44.4	-59.7	3.6	1.51e+00	0	32	104	0	60	39402
2026-01-27 21:55:03.14	59.41	12.86	-44.8	-59.8	3.6	1.51e+00	0	32	104	0	60	39550
2026-01-27 21:55:04.12	59.67	12.90	-44.3	-59.8	3.6	1.51e+00	0	32	104	0	60	39669
2026-01-27 21:55:05.10	59.94	12.95	-43.9	-59.8	3.6	1.51e+00	0	32	104	0	60	39615
2026-01-27 21:55:06.07	60.20	13.00	-44.4	-59.8	3.6	1.51e+00	0	32	104	0	60	39572
2026-01-27 21:55:07.05	60.47	13.05	-44.3	-59.8	3.6	1.51e+00	0	32	104	0	60	39488
2026-01-27 21:55:08.04	60.74	13.09	-42.3	-59.8	3.6	1.51e+00	0	32	104	0	60	39600
2026-01-27 21:55:09.02	61.00	13.14	-42.7	-59.7	3.6	1.51e+00	0	32	104	0	58	44160
2026-01-27 21:55:10.00	61.27	13.19	-44.4	-59.7	3.6	1.51e+00	0	32	104	0	60	39391
2026-01-27 21:55:10.97	61.54	13.23	-41.7	-59.8	3.6	1.51e+00	0	32	104	0	60	39460
2026-01-27 21:55:11.96	61.82	13.28	-43.4	-59.8	3.6	1.51e+00	0	32	104	0	60	39648
2026-01-27 21:55:12.93	62.09	13.32	-44.1	-59.8	3.6	1.51e+00	0	32	104	0	60	39725
2026-01-27 21:55:13.91	62.36	13.37	-45.1	-59.8	3.6	1.51e+00	0	32	104	0	60	39535
2026-01-27 21:55:14.89	62.63	13.41	-42.2	-59.8	3.6	1.51e+00	0	32	104	0	60	39486
2026-01-27 21:55:15.87	62.91	13.46	-43.5	-59.9	3.6	1.51e+00	0	32	104	0	60	39893
2026-01-27 21:55:16.85	63.18	13.50	-44.8	-59.9	3.6	1.51e+00	0	32	104	0	60	39906
2026-01-27 21:55:17.82	63.46	13.54	-44.7	-59.8	3.6	1.51e+00	0	32	104	0	60	39523
2026-01-27 21:55:18.80	63.74	13.59	-44.6	-59.8	3.6	1.51e+00	0	32	104	0	60	39478
2026-01-27 21:55:19.78	64.02	13.63	-44.9	-59.8	3.6	1.51e+00	0	32	104	0	60	39568
2026-01-27 21:55:20.76	64.30	13.67	-45.0	-59.8	3.6	1.51e+00	0	32	104	0	60	39842
2026-01-27 21:55:21.74	64.58	13.71	-45.0	-59.8	3.6	1.51e+00	0	32	104	0	60	39534
2026-01-27 21:55:22.71	64.86	13.75	-44.6	-59.8	3.6	1.51e+00	0	32	104	0	60	39518
2026-01-27 21:55:23.69	65.14	13.79	-45.1	-59.8	3.6	1.51e+00	0	32	104	0	60	39509
2026-01-27 21:55:24.66	65.42	13.83	-45.1	-59.8	3.6	1.51e+00	0	32	104	0	60	39681
2026-01-27 21:55:25.64	65.71	13.87	-45.1	-59.8	3.6	1.51e+00	0	32	104	0	60	39647
2026-01-27 21:55:26.62	65.99	13.91	-45.0	-59.8	3.6	1.51e+00	0	32	104	0	60	39630
2026-01-27 21:55:27.60	66.28	13.95	-44.9	-59.8	3.6	1.51e+00	0	32	104	0	60	39716
2026-01-27 21:55:28.58	66.57	13.99	-43.8	-59.8	3.6	1.51e+00	0	32	104	0	60	39605
2026-01-27 21:55:29.56	66.86	14.03	-44.5	-59.8	3.6	1.51e+00	0	32	104	0	60	39748
2026-01-27 21:55:30.54	67.14	14.06	-44.5	-59.7	3.6	1.51e+00	0	32	104	0	60	39381
2026-01-27 21:55:31.52	67.44	14.10	-42.7	-59.8	3.6	1.51e+00	0	32	104	0	60	39409
2026-01-27 21:55:32.50	67.73	14.14	-44.1	-59.8	3.6	1.51e+00	0	32	104	0	60	39660
2026-01-27 21:55:33.48	68.02	14.17	-43.9	-59.8	3.6	1.51e+00	0	32	104	0	60	39518
2026-01-27 21:55:34.46	68.31	14.21	-43.4	-59.8	3.6	1.51e+00	0	32	104	0	60	39468
2026-01-27 21:55:35.44	68.60	14.24	-44.4	-59.8	3.6	1.51e+00	0	32	104	0	60	39450
2026-01-27 21:55:36.41	68.90	14.27	-44.8	-59.8	3.6	1.51e+00	0	32	104	0	60	39685
2026-01-27 21:55:37.40	69.19	14.31	-45.0	-59.8	3.6	1.51e+00	0	32	104	0	60	39790
2026-01-27 21:55:38.38	69.49	14.34	-44.6	-59.8	3.6	1.51e+00	0	32	104	0	60	39671
2026-01-27 21:55:39.36	69.79	14.37	-44.8	-59.8	3.6	1.51e+00	0	32	104	0	60	39852
2026-01-27 21:55:40.34	70.08	14.40	-43.6	-59.8	3.6	1.51e+00	0	32	104	0	60	39741
2026-01-27 21:55:41.32	70.38	14.43	-44.0	-59.8	3.6	1.51e+00	0	32	104	0	60	39601
2026-01-27 21:55:42.30	70.68	14.46	-42.9	-59.8	3.6	1.51e+00	0	32	104	0	60	39456
2026-01-27 21:55:43.28	70.98	14.49	-44.3	-59.7	3.6	1.51e+00	0	32	104	0	60	39379
2026-01-27 21:55:44.26	71.28	14.52	-44.6	-59.8	3.6	1.51e+00	0	32	104	0	60	39737
2026-01-27 21:55:45.24	71.58	14.55	-45.0	-59.8	3.6	1.51e+00	0	32	104	0	60	39628
2026-01-27 21:55:46.22	71.88	14.58	-44.8	-59.8	3.6	1.51e+00	0	32	104	0	60	39577
2026-01-27 21:55:47.20	72.19	14.61	-45.1	-59.8	3.6	1.51e+00	0	32	104	0	60	39751
2026-01-27 21:55:48.18	72.49	14.63	-45.0	-59.9	3.6	1.51e+00	0	32	104	0	60	39881
2026-01-27 21:55:49.16	72.79	14.66	-44.8	-59.8	3.6	1.51e+00	0	32	104	0	60	39855
2026-01-27 21:55:50.15	73.10	14.69	-44.6	-59.8	3.6	1.51e+00	0	32	104	0	60	39639
2026-01-27 21:55:51.13	73.41	14.71	-44.5	-59.8	3.6	1.51e+00	0	32	104	0	60	39732
2026-01-27 21:55:52.11	73.71	14.73	-45.0	-59.8	3.6	1.51e+00	0	32	104	0	60	39861
2026-01-27 21:55:53.09	74.02	14.76	-45.0	-59.8	3.6	1.51e+00	0	32	104	0	60	39846
2026-01-27 21:55:54.07	74.32	14.78	-44.7	-59.9	3.6	1.51e+00	0	32	104	0	60	39887
2026-01-27 21:55:55.05	74.63	14.80	-44.2	-59.8	3.6	1.51e+00	0	32	104	0	60	39771
2026-01-27 21:55:56.03	74.94	14.83	-45.1	-59.9	3.6	1.51e+00	0	32	104	0	60	40042
2026-01-27 21:55:57.01	75.25	14.85	-44.7	-59.9	3.6	1.51e+00	0	32	104	0	60	39998
2026-01-27 21:55:57.99	75.56	14.87	-45.0	-59.9	3.6	1.51e+00	0	32	104	0	60	39930
2026-01-27 21:55:58.97	75.87	14.89	-44.7	-59.8	3.6	1.51e+00	0	32	104	0	60	39671
2026-01-27 21:55:59.94	76.17	14.91	-45.0	-59.9	3.6	1.51e+00	0	32	104	0	60	39935
2026-01-27 21:56:00.92	76.48	14.92	-44.2	-59.9	3.5	1.51e+00	0	32	104	0	60	39973
2026-01-27 21:56:01.91	76.80	14.94	-44.2	-59.8	3.6	1.51e+00	0	32	104	0	60	39722
2026-01-27 21:56:02.89	77.11	14.96	-44.7	-59.9	3.6	1.51e+00	0	32	104	0	60	39866
2026-01-27 21:56:03.86	77.42	14.97	-43.7	-59.9	3.6	1.51e+00	0	32	104	0	60	40067
2026-01-27 21:56:04.84	77.73	14.99	-45.1	-59.8	3.6	1.51e+00	0	32	104	0	60	39852
2026-01-27 21:56:05.82	78.04	15.01	-44.8	-59.8	3.6	1.51e+00	0	32	104	0	60	39713
2026-01-27 21:56:06.80	78.35	15.02	-44.9	-59.8	3.6	1.51e+00	0	32	104	0	60	39624
2026-01-27 21:56:07.78	78.67	15.03	-45.0	-59.8	3.6	1.51e+00	0	32	104	0	60	39705
2026-01-27 21:56:08.76	78.98	15.05	-45.0	-59.9	3.6	1.51e+00	0	32	104	0	60	39960
2026-01-27 21:56:09.74	79.29	15.06	-44.8	-59.9	3.6	1.51e+00	0	32	104	0	60	39935
2026-01-27 21:56:10.72	79.61	15.07	-43.3	-59.8	3.6	1.51e+00	0	32	104	0	60	39733
2026-01-27 21:56:11.70	79.92	15.08	-44.4	-59.9	3.6	1.51e+00	0	32	104	0	60	40190
2026-01-27 21:56:12.68	80.24	15.09	-42.5	-59.8	3.6	1.51e+00	0	32	104	0	60	39775
2026-01-27 21:56:13.66	80.55	15.10	-43.0	-59.8	3.6	1.51e+00	0	32	104	0	60	39605
2026-01-27 21:56:14.64	80.87	15.11	-44.8	-59.8	3.6	1.51e+00	0	32	104	0	60	39840
2026-01-27 21:56:15.63	81.19	15.12	-44.2	-59.9	3.6	1.51e+00	0	32	104	0	60	39910
2026-01-27 21:56:16.61	81.50	15.12	-44.9	-59.8	3.6	1.51e+00	0	32	104	0	60	39721
2026-01-27 21:56:17.59	81.82	15.13	-44.7	-59.8	3.6	1.51e+00	0	32	104	0	60	39827
2026-01-27 21:56:18.57	82.13	15.14	-44.9	-59.8	3.6	1.51e+00	0	32	104	0	60	39703
2026-01-27 21:56:19.55	82.45	15.14	-45.0	-59.8	3.6	1.51e+00	0	32	104	0	60	39734
2026-01-27 21:56:20.52	82.76	15.15	-45.1	-59.9	3.6	1.51e+00	0	32	104	0	60	39931
2026-01-27 21:56:21.50	83.08	15.15	-45.0	-59.9	3.6	1.51e+00	0	32	104	0	60	39919
2026-01-27 21:56:22.48	83.40	15.15	-44.9	-59.8	3.6	1.51e+00	0	32	104	0	60	39827
2026-01-27 21:56:23.46	83.71	15.15	-45.0	-59.8	3.6	1.51e+00	0	32	104	0	60	39819
2026-01-27 21:56:24.44	84.03	15.16	-45.1	-59.8	3.6	1.51e+00	0	32	104	0	60	39850
2026-01-27 21:56:25.42	84.35	15.16	-44.7	-59.8	3.6	1.51e+00	0	32	104	0	60	39841
2026-01-27 21:56:26.40	84.66	15.16	-44.8	-59.9	3.6	1.51e+00	0	32	104	0	60	39878
2026-01-27 21:56:27.38	84.98	15.16	-44.7	-59.8	3.6	1.51e+00	0	32	104	0	60	39737
2026-01-27 21:56:28.36	85.30	15.15	-45.0	-59.8	3.6	1.51e+00	0	32	104	0	60	39722
2026-01-27 21:56:29.35	85.62	15.15	-44.9	-59.8	3.6	1.51e+00	0	32	104	0	60	39740
2026-01-27 21:56:30.33	85.93	15.15	-44.8	-59.8	3.6	1.51e+00	0	32	104	0	60	39772
2026-01-27 21:56:31.31	86.25	15.15	-45.1	-59.8	3.6	1.51e+00	0	32	104	0	60	39783
2026-01-27 21:56:32.29	86.57	15.14	-44.5	-59.9	3.6	1.51e+00	0	32	104	0	60	39977
2026-01-27 21:56:33.26	86.88	15.14	-45.0	-59.8	3.6	1.51e+00	0	32	104	0	60	39805
2026-01-27 21:56:34.24	87.20	15.13	-45.1	-59.8	3.6	1.51e+00	0	32	104	0	60	39581
2026-01-27 21:56:35.21	87.51	15.12	-45.0	-59.8	3.6	1.51e+00	0	32	104	0	60	39677
2026-01-27 21:56:36.19	87.82	15.12	-44.3	-59.9	3.6	1.51e+00	0	32	104	0	60	39903
2026-01-27 21:56:37.17	88.14	15.11	-45.1	-59.9	3.6	1.51e+00	0	32	104	0	60	39950
2026-01-27 21:56:38.15	88.46	15.10	-45.1	-59.8	3.6	1.51e+00	0	32	104	0	60	39703
2026-01-27 21:56:39.13	88.77	15.09	-44.9	-59.8	3.6	1.51e+00	0	32	104	0	60	39670
2026-01-27 21:56:40.11	89.09	15.08	-45.1	-59.9	3.6	1.51e+00	0	32	104	0	60	40071
2026-01-27 21:56:41.09	89.40	15.07	-45.1	-59.8	3.6	1.51e+00	0	32	104	0	60	39701
2026-01-27 21:56:42.07	89.72	15.06	-45.0	-59.8	3.6	1.51e+00	0	32	104	0	60	39621
2026-01-27 21:56:43.05	90.03	15.05	-45.0	-59.8	3.6	1.51e+00	0	32	104	0	60	39508
2026-01-27 21:56:44.03	90.35	15.03	-45.0	-59.8	3.6	1.51e+00	0	32	104	0	60	39824
2026-01-27 21:56:45.01	90.66	15.02	-44.5	-59.8	3.6	1.51e+00	0	32	104	0	60	39715
2026-01-27 21:56:45.99	90.97	15.00	-45.1	-59.8	3.6	1.51e+00	0	32	104	0	60	39759
2026-01-27 21:56:46.97	91.29	14.99	-44.8	-59.8	3.6	1.51e+00	0	32	104	0	60	39513
2026-01-27 21:56:47.95	91.60	14.97	-44.6	-59.8	3.6	1.51e+00	0	32	104	0	60	39701
2026-01-27 21:56:48.93	91.91	14.96	-45.1	-59.8	3.6	1.51e+00	0	32	104	0	60	39826
2026-01-27 21:56:49.91	92.22	14.94	-44.5	-59.8	3.6	1.51e+00	0	32	104	0	60	39711
2026-01-27 21:56:50.90	92.54	14.92	-44.9	-59.8	3.6	1.51e+00	0	32	104	0	60	39678
2026-01-27 21:56:51.88	92.85	14.90	-45.0	-59.9	3.6	1.51e+00	0	32	104	0	60	40045
2026-01-27 21:56:52.85	93.16	14.89	-44.4	-59.8	3.6	1.51e+00	0	32	104	0	60	39631
2026-01-27 21:56:53.83	93.47	14.87	-44.9	-59.8	3.6	1.51e+00	0	32	104	0	60	39721
2026-01-27 21:56:54.81	93.78	14.85	-44.9	-59.8	3.6	1.51e+00	0	32	104	0	60	39736
2026-01-27 21:56:55.79	94.09	14.82	-45.0	-59.8	3.6	1.51e+00	0	32	104	0	60	39812
2026-01-27 21:56:56.78	94.40	14.80	-44.8	-59.8	3.6	1.51e+00	0	32	104	0	60	39682
2026-01-27 21:56:57.75	94.70	14.78	-45.1	-59.8	3.6	1.51e+00	0	32	104	0	60	39567
2026-01-27 21:56:58.74	95.01	14.76	-44.9	-59.8	3.6	1.51e+00	0	32	104	0	60	39481
2026-01-27 21:56:59.72	95.32	14.73	-45.1	-59.8	3.6	1.51e+00	0	32	104	0	60	39672
2026-01-27 21:57:00.68	95.62	14.71	-45.0	-59.8	3.6	1.51e+00	0	32	104	0	60	39717
2026-01-27 21:57:01.66	95.93	14.68	-45.0	-59.8	3.6	1.51e+00	0	32	104	0	60	39540
2026-01-27 21:57:02.64	96.23	14.66	-44.9	-59.8	3.6	1.51e+00	0	32	104	0	60	39606
2026-01-27 21:57:03.62	96.54	14.63	-44.9	-59.8	3.6	1.51e+00	0	32	104	0	60	39703
2026-01-27 21:57:04.60	96.84	14.61	-45.0	-59.8	3.6	1.51e+00	0	32	104	0	60	39825
2026-01-27 21:57:05.58	97.15	14.58	-45.0	-59.8	3.6	1.51e+00	0	32	104	0	60	39458
2026-01-27 21:57:06.56	97.45	14.55	-44.9	-59.8	3.6	1.51e+00	0	32	104	0	60	39499
2026-01-27 21:57:07.54	97.75	14.52	-44.9	-59.8	3.6	1.51e+00	0	32	104	0	60	39530
2026-01-27 21:57:08.52	98.05	14.49	-44.8	-59.8	3.6	1.51e+00	0	32	104	0	60	39840
2026-01-27 21:57:09.50	98.35	14.46	-44.8	-59.8	3.6	1.51e+00	0	32	104	0	60	39529
2026-01-27 21:57:10.47	98.65	14.43	-44.9	-59.8	3.6	1.51e+00	0	32	104	0	60	39517
2026-01-27 21:57:11.45	98.95	14.40	-44.9	-59.8	3.6	1.51e+00	0	32	104	0	60	39411
2026-01-27 21:57:12.43	99.25	14.37	-44.7	-59.7	3.6	1.51e+00	0	32	104	0	60	39319
2026-01-27 21:57:13.40	99.54	14.34	-44.7	-59.8	3.6	1.51e+00	0	32	104	0	60	39564
2026-01-27 21:57:14.37	99.84	14.30	-44.5	-59.7	3.6	1.51e+00	0	32	104	0	60	39347
2026-01-27 21:57:15.35	100.14	14.27	-44.8	-59.7	3.6	1.51e+00	0	32	104	0	60	39371
2026-01-27 21:57:16.33	100.43	14.24	-44.9	-59.8	3.6	1.51e+00	0	32	104	0	60	39658
2026-01-27 21:57:17.31	100.73	14.20	-44.9	-59.7	3.6	1.51e+00	0	32	104	0	60	39313
2026-01-27 21:57:18.29	101.02	14.17	-44.9	-59.7	3.6	1.51e+00	0	32	104	0	60	39232
2026-01-27 21:57:19.27	101.31	14.13	-44.9	-59.7	3.6	1.51e+00	0	32	104	0	60	39203
2026-01-27 21:57:20.26	101.61	14.09	-45.0	-59.7	3.6	1.51e+00	0	32	104	0	60	39405
2026-01-27 21:57:21.24	101.90	14.06	-44.6	-59.7	3.6	1.51e+00	0	32	104	0	60	39391
2026-01-27 21:57:22.22	102.19	14.02	-44.9	-59.7	3.6	1.51e+00	0	32	104	0	60	39329
2026-01-27 21:57:23.20	102.48	13.98	-44.9	-59.7	3.6	1.51e+00	0	32	104	0	60	39176
2026-01-27 21:57:24.18	102.77	13.94	-44.7	-59.7	3.6	1.51e+00	0	32	104	0	60	39383
2026-01-27 21:57:25.16	103.06	13.91	-44.9	-59.7	3.6	1.51e+00	0	32	104	0	60	39356
2026-01-27 21:57:26.14	103.35	13.87	-44.9	-59.7	3.6	1.51e+00	0	32	104	0	60	39133
2026-01-27 21:57:27.12	103.63	13.83	-44.8	-59.7	3.6	1.51e+00	0	32	104	0	60	39018
2026-01-27 21:57:28.10	103.92	13.79	-44.9	-59.8	3.6	1.51e+00	0	32	104	0	60	39533
2026-01-27 21:57:29.08	104.20	13.75	-44.9	-59.7	3.6	1.51e+00	0	32	104	0	60	39182
2026-01-27 21:57:30.07	104.49	13.70	-44.8	-59.8	3.6	1.51e+00	0	32	104	0	60	39418
2026-01-27 21:57:31.05	104.77	13.66	-44.9	-59.7	3.6	1.51e+00	0	32	104	0	60	39200
2026-01-27 21:57:32.02	105.05	13.62	-44.9	-59.7	3.6	1.51e+00	0	32	104	0	60	39314
2026-01-27 21:57:33.00	105.33	13.58	-44.8	-59.7	3.6	1.51e+00	0	32	104	0	60	39142
2026-01-27 21:57:33.98	105.61	13.53	-44.8	-59.7	3.6	1.51e+00	0	32	104	0	60	39259
2026-01-27 21:57:34.96	105.89	13.49	-44.6	-59.6	3.6	1.51e+00	0	32	104	0	60	38926
2026-01-27 21:57:35.94	106.17	13.45	-44.7	-59.7	3.6	1.51e+00	0	32	104	0	60	39083
2026-01-27 21:57:36.92	106.45	13.40	-44.5	-59.7	3.6	1.51e+00	0	32	104	0	60	38984
2026-01-27 21:57:37.90	106.72	13.36	-44.9	-59.7	3.6	1.51e+00	0	32	104	0	60	39210
2026-01-27 21:57:38.88	107.00	13.31	-44.8	-59.6	3.6	1.51e+00	0	32	104	0	60	38817
2026-01-27 21:57:39.87	107.28	13.27	-44.7	-59.6	3.6	1.51e+00	0	32	104	0	60	38912
2026-01-27 21:57:40.85	107.55	13.22	-44.8	-59.7	3.6	1.51e+00	0	32	104	0	60	39135
2026-01-27 21:57:41.83	107.82	13.17	-44.8	-59.7	3.6	1.51e+00	0	32	104	0	60	39094
2026-01-27 21:57:42.81	108.09	13.13	-44.7	-59.7	3.6	1.51e+00	0	32	104	0	60	39033
2026-01-27 21:57:43.79	108.36	13.08	-44.7	-59.7	3.6	1.51e+00	0	32	104	0	60	39114
2026-01-27 21:57:44.76	108.63	13.03	-44.8	-59.6	3.6	1.51e+00	0	32	104	0	60	38821
2026-01-27 21:57:45.74	108.90	12.98	-44.7	-59.7	3.6	1.51e+00	0	32	104	0	60	39074
2026-01-27 21:57:46.73	109.17	12.94	-44.7	-59.7	3.6	1.51e+00	0	32	104	0	60	39003
2026-01-27 21:57:47.71	109.43	12.89	-44.8	-59.7	3.6	1.51e+00	0	32	104	0	60	38970
2026-01-27 21:57:48.69	109.70	12.84	-44.9	-59.7	3.6	1.51e+00	0	32	104	0	60	39035
2026-01-27 21:57:49.68	109.97	12.79	-44.9	-59.6	3.6	1.51e+00	0	32	104	0	60	38823
2026-01-27 21:57:50.66	110.23	12.74	-44.7	-59.6	3.6	1.51e+00	0	32	104	0	60	38746
2026-01-27 21:57:51.65	110.49	12.69	-44.9	-59.6	3.5	1.51e+00	0	32	104	0	60	38779
2026-01-27 21:57:52.63	110.75	12.64	-44.7	-59.6	3.6	1.51e+00	0	32	104	0	60	38691
2026-01-27 21:57:53.62	111.02	12.59	-44.7	-59.6	3.6	1.51e+00	0	32	104	0	60	38666
2026-01-27 21:57:54.60	111.28	12.53	-44.6	-59.6	3.6	1.51e+00	0	32	104	0	60	38713
2026-01-27 21:57:55.58	111.53	12.48	-44.7	-59.6	3.6	1.51e+00	0	32	104	0	60	38775
2026-01-27 21:57:56.56	111.79	12.43	-44.8	-59.6	3.6	1.51e+00	0	32	104	0	60	38679
2026-01-27 21:57:57.55	112.05	12.38	-44.8	-59.6	3.6	1.51e+00	0	32	104	0	60	38751
2026-01-27 21:57:58.53	112.30	12.33	-44.7	-59.6	3.6	1.51e+00	0	32	104	0	60	38908
2026-01-27 21:57:59.51	112.56	12.27	-44.8	-59.6	3.6	1.51e+00	0	32	104	0	60	38837
2026-01-27 21:58:00.49	112.81	12.22	-44.9	-59.6	3.6	1.51e+00	0	32	104	0	60	38897
2026-01-27 21:58:01.47	113.06	12.17	-44.7	-59.6	3.6	1.51e+00	0	32	104	0	60	38679
2026-01-27 21:58:02.45	113.31	12.11	-44.7	-59.6	3.6	1.51e+00	0	32	104	0	60	38587
2026-01-27 21:58:03.43	113.56	12.06	-44.8	-59.6	3.6	1.51e+00	0	32	104	0	60	38701
2026-01-27 21:58:04.41	113.81	12.01	-44.9	-59.6	3.6	1.51e+00	0	32	104	0	60	38746
2026-01-27 21:58:05.40	114.06	11.95	-44.8	-59.6	3.6	1.51e+00	0	32	104	0	60	38665
2026-01-27 21:58:06.37	114.30	11.90	-44.8	-59.5	3.6	1.51e+00	0	32	104	0	60	38500
2026-01-27 21:58:07.35	114.55	11.84	-44.9	-59.6	3.6	1.51e+00	0	32	104	0	60	38554
2026-01-27 21:58:08.34	114.79	11.79	-44.8	-59.6	3.6	1.51e+00	0	32	104	0	60	38727
2026-01-27 21:58:09.31	115.03	11.73	-44.9	-59.6	3.6	1.51e+00	0	32	104	0	60	38789
2026-01-27 21:58:10.29	115.27	11.68	-44.8	-59.5	3.6	1.51e+00	0	32	104	0	60	38502
2026-01-27 21:58:11.27	115.51	11.62	-44.8	-59.6	3.6	1.51e+00	0	32	104	0	60	38799
2026-01-27 21:58:12.25	115.75	11.56	-44.8	-59.6	3.6	1.51e+00	0	32	104	0	60	38829
2026-01-27 21:58:13.23	115.99	11.51	-44.8	-59.6	3.6	1.51e+00	0	32	104	0	60	38681
2026-01-27 21:58:14.21	116.23	11.45	-44.8	-59.5	3.6	1.51e+00	0	32	104	0	60	38395
2026-01-27 21:58:15.19	116.47	11.39	-44.8	-59.6	3.6	1.51e+00	0	32	104	0	60	38520
2026-01-27 21:58:16.17	116.70	11.34	-44.9	-59.6	3.6	1.51e+00	0	32	104	0	60	38707
2026-01-27 21:58:17.15	116.94	11.28	-44.8	-59.5	3.6	1.51e+00	0	32	104	0	60	38495
2026-01-27 21:58:18.13	117.17	11.22	-44.8	-59.6	3.6	1.51e+00	0	32	104	0	60	38558
2026-01-27 21:58:19.11	117.40	11.17	-44.8	-59.6	3.6	1.51e+00	0	32	104	0	60	38539
2026-01-27 21:58:20.09	117.63	11.11	-44.8	-59.6	3.6	1.51e+00	0	32	104	0	60	38580
2026-01-27 21:58:21.08	117.86	11.05	-44.8	-59.5	3.6	1.51e+00	0	32	104	0	60	38405
2026-01-27 21:58:22.05	118.09	10.99	-44.8	-59.5	3.6	1.51e+00	0	32	104	0	60	38460
2026-01-27 21:58:23.04	118.32	10.93	-44.8	-59.5	3.6	1.51e+00	0	32	104	0	60	38211
2026-01-27 21:58:24.02	118.55	10.88	-44.8	-59.6	3.6	1.51e+00	0	32	104	0	60	38621
2026-01-27 21:58:25.00	118.77	10.82	-44.8	-59.5	3.6	1.51e+00	0	32	104	0	60	38468
2026-01-27 21:58:25.98	119.00	10.76	-44.8	-59.5	3.6	1.51e+00	0	32	104	0	60	38426
2026-01-27 21:58:26.96	119.22	10.70	-44.8	-59.5	3.6	1.51e+00	0	32	104	0	60	38233
2026-01-27 21:58:27.94	119.44	10.64	-44.9	-59.5	3.6	1.51e+00	0	32	104	0	60	38424
2026-01-27 21:58:28.92	119.66	10.58	-44.8	-59.5	3.6	1.51e+00	0	32	104	0	60	38456
2026-01-27 21:58:29.90	119.88	10.52	-44.8	-59.6	3.5	1.51e+00	0	32	104	0	60	38528
2026-01-27 21:58:30.88	120.10	10.46	-44.7	-59.4	3.6	1.51e+00	0	32	104	0	60	38063
2026-01-27 21:58:31.87	120.32	10.40	-44.8	-59.6	3.6	1.51e+00	0	32	104	0	60	38603
2026-01-27 21:58:32.85	120.54	10.34	-44.8	-59.5	3.6	1.51e+00	0	32	104	0	60	38409
2026-01-27 21:58:33.83	120.75	10.28	-44.8	-59.5	3.6	1.51e+00	0	32	104	0	60	38443
2026-01-27 21:58:34.82	120.97	10.22	-44.8	-59.5	3.6	1.51e+00	0	32	104	0	60	38186
2026-01-27 21:58:35.79	121.18	10.16	-44.8	-59.5	3.6	1.51e+00	0	32	104	0	60	38285
2026-01-27 21:58:36.78	121.40	10.10	-44.7	-59.5	3.6	1.51e+00	0	32	104	0	60	38313
2026-01-27 21:58:37.76	121.61	10.04	-44.8	-59.5	3.6	1.51e+00	0	32	104	0	60	38314
2026-01-27 21:58:38.73	121.82	9.98	-44.8	-59.5	3.6	1.51e+00	0	32	104	0	60	38242
2026-01-27 21:58:39.71	122.03	9.92	-44.8	-59.5	3.6	1.51e+00	0	32	104	0	60	38415
2026-01-27 21:58:40.69	122.24	9.86	-44.7	-59.5	3.6	1.51e+00	0	32	104	0	60	38363
2026-01-27 21:58:41.68	122.45	9.80	-44.8	-59.5	3.6	1.51e+00	0	32	104	0	60	38133
2026-01-27 21:58:42.65	122.65	9.74	-44.7	-59.5	3.6	1.51e+00	0	32	104	0	60	38186
2026-01-27 21:58:43.63	122.86	9.68	-44.7	-59.5	3.5	1.51e+00	0	32	104	0	60	38304
2026-01-27 21:58:44.60	123.06	9.62	-44.8	-59.5	3.5	1.51e+00	0	32	104	0	60	38210
2026-01-27 21:58:45.58	123.26	9.56	-44.7	-59.5	3.5	1.51e+00	0	32	104	0	60	38208
2026-01-27 21:58:46.56	123.46	9.50	-44.7	-59.5	3.6	1.51e+00	0	32	104	0	60	38109
2026-01-27 21:58:47.55	123.67	9.44	-44.7	-59.5	3.6	1.51e+00	0	32	104	0	60	38094
2026-01-27 21:58:48.53	123.87	9.38	-44.7	-59.5	3.6	1.51e+00	0	32	104	0	60	38207
2026-01-27 21:58:49.51	124.07	9.32	-44.7	-59.5	3.6	1.51e+00	0	32	104	0	60	38078
2026-01-27 21:58:50.49	124.27	9.26	-44.7	-59.4	3.6	1.51e+00	0	32	104	0	60	37997
2026-01-27 21:58:51.47	124.46	9.19	-44.7	-59.5	3.6	1.51e+00	0	32	104	0	60	38144
2026-01-27 21:58:52.46	124.66	9.13	-44.7	-59.5	3.6	1.51e+00	0	32	104	0	60	38344
2026-01-27 21:58:53.44	124.86	9.07	-44.6	-59.4	3.6	1.51e+00	0	32	104	0	60	37972
2026-01-27 21:58:54.42	125.05	9.01	-44.6	-59.4	3.6	1.51e+00	0	32	104	0	60	37893
2026-01-27 21:58:55.39	125.24	8.95	-44.5	-59.4	3.5	1.51e+00	0	32	104	0	60	38042
2026-01-27 21:58:56.37	125.44	8.89	-44.7	-59.5	3.6	1.51e+00	0	32	104	0	60	38170
2026-01-27 21:58:57.35	125.63	8.83	-44.5	-59.4	3.6	1.51e+00	0	32	104	0	60	37974
2026-01-27 21:58:58.34	125.82	8.76	-44.6	-59.4	3.6	1.51e+00	0	32	104	0	60	37950
2026-01-27 21:58:59.32	126.01	8.70	-44.5	-59.4	3.6	1.51e+00	0	32	104	0	60	37860
2026-01-27 21:59:00.29	126.20	8.64	-44.6	-59.4	3.6	1.51e+00	0	32	104	0	60	38038
2026-01-27 21:59:01.27	126.38	8.58	-44.4	-59.4	3.6	1.51e+00	0	32	104	0	60	37749
2026-01-27 21:59:02.25	126.57	8.52	-44.4	-59.4	3.6	1.51e+00	0	32	104	0	60	37806
2026-01-27 21:59:03.23	126.76	8.46	-44.6	-59.4	3.6	1.51e+00	0	32	104	0	60	37757
2026-01-27 21:59:04.21	126.94	8.40	-44.5	-59.4	3.6	1.51e+00	0	32	104	0	60	38049
2026-01-27 21:59:05.19	127.12	8.33	-44.7	-59.4	3.6	1.51e+00	0	32	104	0	60	37881
2026-01-27 21:59:06.17	127.31	8.27	-44.5	-59.4	3.6	1.51e+00	0	32	104	0	60	37805
2026-01-27 21:59:07.14	127.49	8.21	-44.5	-59.3	3.6	1.51e+00	0	32	104	0	60	37456
2026-01-27 21:59:08.12	127.67	8.15	-44.6	-59.4	3.6	1.51e+00	0	32	104	0	60	37867
2026-01-27 21:59:09.10	127.85	8.09	-44.5	-59.4	3.6	1.51e+00	0	32	104	0	60	37786
2026-01-27 21:59:10.08	128.03	8.03	-44.7	-59.4	3.6	1.51e+00	0	32	104	0	60	37836
2026-01-27 21:59:11.05	128.20	7.97	-44.5	-59.3	3.6	1.51e+00	0	32	104	0	60	37442
2026-01-27 21:59:12.03	128.38	7.90	-44.7	-59.4	3.6	1.51e+00	0	32	104	0	60	37877
2026-01-27 21:59:13.01	128.56	7.84	-44.5	-59.4	3.6	1.51e+00	0	32	104	0	60	37683
2026-01-27 21:59:13.99	128.73	7.78	-44.5	-59.3	3.6	1.51e+00	0	32	104	0	60	37604
2026-01-27 21:59:14.97	128.91	7.72	-44.5	-59.3	3.6	1.51e+00	0	32	104	0	60	37206
2026-01-27 21:59:15.95	129.08	7.66	-44.6	-59.4	3.6	1.51e+00	0	32	104	0	60	37673
2026-01-27 21:59:16.93	129.25	7.60	-44.6	-59.3	3.6	1.51e+00	0	32	104	0	60	37571
2026-01-27 21:59:17.91	129.43	7.53	-44.5	-59.3	3.6	1.51e+00	0	32	104	0	60	37575
2026-01-27 21:59:18.89	129.60	7.47	-44.5	-59.3	3.6	1.51e+00	0	32	104	0	60	37284
2026-01-27 21:59:19.87	129.77	7.41	-44.7	-59.3	3.6	1.51e+00	0	32	104	0	60	37565
2026-01-27 21:59:20.86	129.94	7.35	-44.6	-59.3	3.6	1.51e+00	0	32	104	0	60	37562
2026-01-27 21:59:21.84	130.11	7.29	-44.5	-59.3	3.6	1.51e+00	0	32	104	0	60	37283
2026-01-27 21:59:22.82	130.27	7.23	-44.5	-59.2	3.6	1.51e+00	0	32	104	0	60	37111
2026-01-27 21:59:23.80	130.44	7.16	-44.6	-59.3	3.6	1.51e+00	0	32	104	0	60	37534
2026-01-27 21:59:24.78	130.61	7.10	-44.6	-59.3	3.6	1.51e+00	0	32	104	0	60	37409
2026-01-27 21:59:25.76	130.77	7.04	-44.6	-59.3	3.6	1.51e+00	0	32	104	0	60	37349
2026-01-27 21:59:26.74	130.94	6.98	-44.5	-59.2	3.6	1.51e+00	0	32	104	0	60	37187
2026-01-27 21:59:27.73	131.10	6.92	-44.6	-59.3	3.6	1.51e+00	0	32	104	0	60	37470
2026-01-27 21:59:28.71	131.26	6.86	-44.5	-59.2	3.6	1.51e+00	0	32	104	0	60	37190
2026-01-27 21:59:29.69	131.42	6.80	-44.5	-59.2	3.6	1.51e+00	0	32	104	0	60	37080
2026-01-27 21:59:30.67	131.59	6.73	-44.4	-59.2	3.6	1.51e+00	0	32	104	0	60	36856
2026-01-27 21:59:31.65	131.75	6.67	-44.5	-59.2	3.6	1.51e+00	0	32	104	0	60	37169
2026-01-27 21:59:32.62	131.90	6.61	-44.5	-59.3	3.6	1.51e+00	0	32	104	0	60	37280
2026-01-27 21:59:33.60	132.06	6.55	-44.5	-59.2	3.6	1.51e+00	0	32	104	0	60	37185
2026-01-27 21:59:34.59	132.22	6.49	-44.5	-59.2	3.6	1.51e+00	0	32	104	0	60	36904
2026-01-27 21:59:35.57	132.38	6.43	-44.5	-59.2	3.6	1.51e+00	0	32	104	0	60	37139
2026-01-27 21:59:36.54	132.53	6.37	-44.5	-59.2	3.6	1.51e+00	0	32	104	0	60	37025
2026-01-27 21:59:37.52	132.69	6.31	-44.5	-59.2	3.6	1.51e+00	0	32	104	0	60	36979
2026-01-27 21:59:38.50	132.84	6.25	-44.5	-59.2	3.6	1.51e+00	0	32	104	0	60	36934
2026-01-27 21:59:39.47	132.99	6.19	-44.5	-59.2	3.6	1.51e+00	0	32	104	0	60	37053
2026-01-27 21:59:40.44	133.14	6.13	-44.5	-59.3	3.6	1.51e+00	0	32	104	0	60	37231
2026-01-27 21:59:41.42	133.30	6.07	-44.5	-59.3	3.6	1.51e+00	0	32	104	0	60	37234
2026-01-27 21:59:42.40	133.45	6.00	-44.5	-59.2	3.6	1.51e+00	0	32	104	0	60	36899
2026-01-27 21:59:43.38	133.60	5.94	-44.5	-59.1	3.6	1.51e+00	0	32	104	0	60	36718
2026-01-27 21:59:44.36	133.75	5.88	-44.5	-59.3	3.6	1.51e+00	0	32	104	0	60	37211
2026-01-27 21:59:45.34	133.90	5.82	-44.5	-59.2	3.6	1.51e+00	0	32	104	0	60	37092
2026-01-27 21:59:46.32	134.05	5.76	-44.5	-59.2	3.6	1.51e+00	0	32	104	0	60	36904
2026-01-27 21:59:47.30	134.19	5.70	-44.4	-59.1	3.6	1.51e+00	0	32	104	0	60	36680
2026-01-27 21:59:48.28	134.34	5.64	-44.5	-59.2	3.6	1.51e+00	0	32	104	0	60	36903
2026-01-27 21:59:49.26	134.49	5.58	-44.5	-59.1	3.6	1.51e+00	0	32	104	0	60	36643
2026-01-27 21:59:50.24	134.63	5.52	-44.4	-59.1	3.6	1.51e+00	0	32	104	0	60	36729
2026-01-27 21:59:51.22	134.77	5.46	-44.3	-59.1	3.6	1.51e+00	0	32	104	0	60	36471
2026-01-27 21:59:52.20	134.92	5.40	-44.5	-59.2	3.6	1.51e+00	0	32	104	0	60	36988
2026-01-27 21:59:53.18	135.06	5.34	-44.4	-59.1	3.6	1.51e+00	0	32	104	0	60	36677
2026-01-27 21:59:54.16	135.20	5.28	-44.4	-59.1	3.6	1.51e+00	0	32	104	0	60	36620
2026-01-27 21:59:55.14	135.35	5.22	-44.3	-59.0	3.6	1.51e+00	0	32	104	0	60	36317
2026-01-27 21:59:56.12	135.49	5.16	-44.5	-59.2	3.6	1.51e+00	0	32	104	0	60	36887
2026-01-27 21:59:57.09	135.62	5.10	-44.4	-59.0	3.6	1.51e+00	0	32	104	0	60	36202
2026-01-27 21:59:58.07	135.76	5.04	-44.4	-59.1	3.6	1.51e+00	0	32	104	0	60	36647
2026-01-27 21:59:59.05	135.90	4.98	-44.2	-59.0	3.6	1.51e+00	0	32	104	0	60	36260
2026-01-27 22:00:00.04	136.04	4.92	-44.4	-59.1	3.6	1.51e+00	0	32	104	0	60	36582
2026-01-27 22:00:01.02	136.18	4.86	-44.3	-59.0	3.6	1.51e+00	0	32	104	0	60	36236
2026-01-27 22:00:01.99	136.32	4.80	-44.4	-59.1	3.6	1.51e+00	0	32	104	0	60	36381
2026-01-27 22:00:02.97	136.45	4.74	-44.2	-58.9	3.6	1.51e+00	0	32	104	0	60	35822
2026-01-27 22:00:03.95	136.59	4.68	-44.4	-59.1	3.6	1.51e+00	0	32	104	0	60	36711
2026-01-27 22:00:04.93	136.72	4.62	-44.2	-59.0	3.6	1.51e+00	0	32	104	0	60	36066
2026-01-27 22:00:05.90	136.85	4.56	-44.3	-59.0	3.6	1.51e+00	0	32	104	0	60	36148
2026-01-27 22:00:06.88	136.99	4.51	-44.2	-58.9	3.6	1.51e+00	0	32	104	0	60	35544
2026-01-27 22:00:07.86	137.12	4.45	-44.4	-59.1	3.6	1.51e+00	0	32	104	0	60	36563
2026-01-27 22:00:08.84	137.25	4.39	-44.2	-58.9	3.6	1.51e+00	0	32	104	0	60	35883
2026-01-27 22:00:09.82	137.38	4.33	-44.2	-58.9	3.6	1.51e+00	0	32	104	0	60	35793
2026-01-27 22:00:10.79	137.51	4.27	-44.2	-58.9	3.6	1.51e+00	0	32	104	0	60	35679
2026-01-27 22:00:11.77	137.64	4.21	-44.2	-59.0	3.6	1.51e+00	0	32	104	0	60	35993
2026-01-27 22:00:12.75	137.77	4.15	-44.2	-58.9	3.6	1.51e+00	0	32	104	0	60	35849
2026-01-27 22:00:13.73	137.90	4.09	-44.2	-58.9	3.6	1.51e+00	0	32	104	0	60	35812
2026-01-27 22:00:14.71	138.03	4.04	-44.1	-58.8	3.6	1.51e+00	0	32	104	0	60	35277
2026-01-27 22:00:15.69	138.16	3.98	-44.2	-58.9	3.6	1.51e+00	0	32	104	0	60	35817
2026-01-27 22:00:16.67	138.28	3.92	-44.1	-58.8	3.6	1.51e+00	0	32	104	0	60	35216
2026-01-27 22:00:17.65	138.41	3.86	-44.1	-58.8	3.6	1.51e+00	0	32	104	0	60	35351
2026-01-27 22:00:18.63	138.53	3.80	-44.0	-58.7	3.6	1.51e+00	0	32	104	0	60	34936
2026-01-27 22:00:19.62	138.66	3.74	-44.0	-58.7	3.6	1.51e+00	0	32	104	0	60	35000
2026-01-27 22:00:20.60	138.78	3.68	-43.8	-58.6	3.6	1.51e+00	0	32	104	0	60	34441
2026-01-27 22:00:21.58	138.91	3.63	-43.9	-58.6	3.6	1.51e+00	0	32	104	0	60	34492
2026-01-27 22:00:22.56	139.03	3.57	-43.9	-58.6	3.6	1.51e+00	0	32	104	0	60	34578
2026-01-27 22:00:23.53	139.15	3.51	-43.7	-58.4	3.6	1.51e+00	0	32	104	0	60	33881
2026-01-27 22:00:24.51	139.27	3.45	-43.3	-58.1	3.6	1.51e+00	0	32	104	0	60	32590
2026-01-27 22:00:25.48	139.40	3.40	-43.4	-58.1	3.6	1.51e+00	0	32	104	0	60	32740
2026-01-27 22:00:26.46	139.52	3.34	-43.6	-58.3	3.6	1.51e+00	0	32	104	0	60	33479
2026-01-27 22:00:27.44	139.64	3.28	-43.3	-58.0	3.5	1.51e+00	0	32	104	0	60	32317
2026-01-27 22:00:28.42	139.76	3.22	-42.9	-57.7	3.6	1.51e+00	0	32	104	0	60	31277
2026-01-27 22:00:29.40	139.87	3.16	-42.8	-57.7	3.6	1.51e+00	0	32	104	0	60	31167
2026-01-27 22:00:30.38	139.99	3.11	-43.1	-57.9	3.6	1.51e+00	0	32	104	0	60	31926
2026-01-27 22:00:31.37	140.11	3.05	-42.8	-57.6	3.6	1.51e+00	0	32	104	0	60	30726
2026-01-27 22:00:32.35	140.23	2.99	-42.5	-57.4	3.6	1.51e+00	0	32	104	0	60	30184
2026-01-27 22:00:33.33	140.35	2.93	-44.5	-59.2	3.6	1.51e+00	0	32	104	0	60	37015
2026-01-27 22:00:34.32	140.46	2.88	-44.7	-59.4	3.6	1.51e+00	0	32	104	0	60	37840
2026-01-27 22:00:35.30	140.58	2.82	-44.8	-59.6	3.6	1.51e+00	0	32	104	0	60	38613
2026-01-27 22:00:36.27	140.69	2.76	-44.9	-59.6	3.6	1.51e+00	0	32	104	0	60	38812
2026-01-27 22:00:37.25	140.81	2.71	-45.0	-59.8	3.6	1.51e+00	0	32	104	0	60	39786
2026-01-27 22:00:38.23	140.92	2.65	-45.2	-59.9	3.6	1.51e+00	0	32	104	0	60	40162
2026-01-27 22:00:39.21	141.03	2.59	-45.3	-60.0	3.6	1.51e+00	0	32	104	0	60	40774
2026-01-27 22:00:40.19	141.15	2.54	-45.3	-60.1	3.6	1.51e+00	0	32	104	0	60	40808
2026-01-27 22:00:41.17	141.26	2.48	-45.4	-60.1	3.6	1.51e+00	0	32	104	0	60	41170
2026-01-27 22:00:42.15	141.37	2.42	-45.5	-60.2	3.6	1.51e+00	0	32	104	0	60	41296
2026-01-27 22:00:43.13	141.48	2.37	-45.5	-60.3	3.6	1.51e+00	0	32	104	0	60	41751
2026-01-27 22:00:44.11	141.59	2.31	-45.4	-60.2	3.6	1.51e+00	0	32	104	0	60	41397
2026-01-27 22:00:45.09	141.70	2.25	-45.5	-60.3	3.6	1.51e+00	0	32	104	0	60	41934
2026-01-27 22:00:46.07	141.81	2.20	-45.4	-60.2	3.6	1.51e+00	0	32	104	0	60	41708
2026-01-27 22:00:47.05	141.92	2.14	-45.5	-60.2	3.6	1.51e+00	0	32	104	0	60	41630
2026-01-27 22:00:48.03	142.03	2.09	-45.5	-60.2	3.6	1.51e+00	0	32	104	0	60	41740
2026-01-27 22:00:49.01	142.14	2.03	-45.6	-60.3	3.6	1.51e+00	0	32	104	0	60	42147
2026-01-27 22:00:49.99	142.25	1.97	-45.6	-60.4	3.6	1.51e+00	0	32	104	0	60	42292
2026-01-27 22:00:50.97	142.35	1.92	-45.7	-60.3	3.6	1.51e+00	0	32	104	0	60	42158
2026-01-27 22:00:51.95	142.46	1.86	-45.7	-60.5	3.6	1.51e+00	0	32	104	0	60	42825
2026-01-27 22:00:52.92	142.57	1.81	-45.6	-60.3	3.6	1.51e+00	0	32	104	0	60	41778
2026-01-27 22:00:53.90	142.67	1.75	-45.6	-60.3	3.6	1.51e+00	0	32	104	0	60	41894
2026-01-27 22:00:54.88	142.78	1.70	-45.5	-60.3	3.6	1.51e+00	0	32	104	0	60	41980
2026-01-27 22:00:55.86	142.88	1.64	-45.5	-60.2	3.6	1.51e+00	0	32	104	0	60	41588
2026-01-27 22:00:56.84	142.99	1.59	-45.5	-60.2	3.5	1.51e+00	0	32	104	0	60	41556
2026-01-27 22:00:57.82	143.09	1.53	-45.5	-60.3	3.6	1.51e+00	0	32	104	0	60	41832
2026-01-27 22:00:58.80	143.19	1.47	-45.5	-60.2	3.6	1.51e+00	0	32	104	0	60	41426
2026-01-27 22:00:59.79	143.30	1.42	-45.5	-60.1	3.6	1.51e+00	0	32	104	0	60	41210
2026-01-27 22:01:00.77	143.40	1.36	-45.4	-60.2	3.6	1.51e+00	0	32	104	0	60	41429
2026-01-27 22:01:01.75	143.50	1.31	-45.4	-60.2	3.6	1.51e+00	0	32	104	0	60	41272
2026-01-27 22:01:02.73	143.60	1.25	-45.5	-60.2	3.6	1.51e+00	0	32	104	0	60	41316
2026-01-27 22:01:03.71	143.70	1.20	-45.5	-60.2	3.6	1.51e+00	0	32	104	0	60	41407
2026-01-27 22:01:04.69	143.80	1.14	-45.5	-60.2	3.6	1.51e+00	0	32	104	0	60	41399
2026-01-27 22:01:05.67	143.90	1.09	-45.4	-60.2	3.6	1.51e+00	0	32	104	0	60	41328
2026-01-27 22:01:06.65	144.00	1.04	-45.5	-60.2	3.6	1.51e+00	0	32	104	0	60	41435
2026-01-27 22:01:07.63	144.10	0.98	-45.4	-60.2	3.6	1.51e+00	0	32	104	0	60	41296
2026-01-27 22:01:08.61	144.20	0.93	-45.4	-60.2	3.6	1.51e+00	0	32	104	0	60	41417
2026-01-27 22:01:09.59	144.30	0.87	-45.5	-60.1	3.6	1.51e+00	0	32	104	0	60	41169
2026-01-27 22:01:10.58	144.40	0.82	-45.4	-60.1	3.6	1.51e+00	0	32	104	0	60	41065
2026-01-27 22:01:11.55	144.49	0.76	-45.4	-60.1	3.6	1.51e+00	0	32	104	0	60	41112
2026-01-27 22:01:12.53	144.59	0.71	-45.4	-60.1	3.6	1.51e+00	0	32	104	0	60	40919
2026-01-27 22:01:13.51	144.69	0.66	-45.4	-60.1	3.6	1.51e+00	0	32	104	0	60	40944
2026-01-27 22:01:14.49	144.78	0.60	-45.4	-60.1	3.6	1.51e+00	0	32	104	0	60	40948
2026-01-27 22:01:15.47	144.88	0.55	-45.4	-60.1	3.6	1.51e+00	0	32	104	0	60	41128
2026-01-27 22:01:16.45	144.97	0.49	-45.4	-60.1	3.6	1.51e+00	0	32	104	0	60	40981
2026-01-27 22:01:17.43	145.07	0.44	-45.4	-60.1	3.6	1.51e+00	0	32	104	0	60	40973
2026-01-27 22:01:18.40	145.16	0.39	-45.4	-60.1	3.6	1.51e+00	0	32	104	0	60	40961
2026-01-27 22:01:19.38	145.26	0.33	-45.4	-60.2	3.6	1.51e+00	0	32	104	0	60	41269
2026-01-27 22:01:20.37	145.35	0.28	-45.4	-60.2	3.6	1.51e+00	0	32	104	0	60	41381
2026-01-27 22:01:21.34	145.44	0.23	-45.4	-60.1	3.6	1.51e+00	0	32	104	0	60	41224
2026-01-27 22:01:22.32	145.53	0.17	-45.4	-60.1	3.6	1.51e+00	0	32	104	0	60	41103
2026-01-27 22:01:23.30	145.63	0.12	-45.4	-60.1	3.6	1.51e+00	0	32	104	0	60	41241
2026-01-27 22:01:24.28	145.72	0.07	-45.4	-60.1	3.6	1.51e+00	0	32	104	0	60	41243
2026-01-27 22:01:25.26	145.81	0.01	-45.4	-60.1	3.6	1.51e+00	0	32	104	0	60	41170
2026-01-27 22:01:26.24	145.90	-0.04	-45.4	-60.1	3.6	1.51e+00	0	32	104	0	60	40919

#Closed at: 2026-01-27 22:01:26
#Recorded file [0 MB]: D:/lorett/data/35029_260128_095126.dat