passes_logs/2026/01/27/R4.6S_Anadyr/R4.6S_Anadyr__20260127_225546_NOAA_20_JPSS-1_rec.log

#Pass ID: 20260127_225546_NOAA 20 (JPSS-1)
#Satellite: NOAA 20 (JPSS-1)
#Configuration: NOAA 20
#almurnet v.1.7.20251203
#Start time: 2026-01-27 22:55:48

#Version: 2.2.20231116
#Station: R4.6S_Anadyr
#Location: 177.4865 lon 64.73178 lat
#TLE: 1 43013U 17073A   26027.59441131  .00000157  00000+0  95517-4 0  9997
#TLE: 2 43013  98.7647 328.4016 0000956  21.7206 338.4011 14.19541123424524

#Time	Az	El	Level	Level2	SNR	BER	BlckErr	Temp	State	Recorded	gain1	gain2
2026-01-27 22:55:48.84	124.68	0.12	-48.8	-63.7	3.5	1.51e+00	0	29	0	0	60	55101
2026-01-27 22:55:49.84	124.65	0.17	-48.7	-64.0	3.6	1.51e+00	0	30	104	0	60	57024
2026-01-27 22:55:50.85	124.62	0.23	-48.8	-63.9	3.6	1.51e+00	0	30	104	0	60	56567
2026-01-27 22:55:51.86	124.59	0.29	-48.8	-64.0	3.6	1.51e+00	0	31	104	0	60	57122
2026-01-27 22:55:52.87	124.56	0.35	-48.7	-64.0	3.6	1.51e+00	0	31	104	0	60	57091
2026-01-27 22:55:53.88	124.52	0.41	-48.7	-64.0	3.6	1.51e+00	0	31	104	0	60	56971
2026-01-27 22:55:54.89	124.49	0.47	-48.8	-64.0	3.6	1.51e+00	0	31	104	0	60	57040
2026-01-27 22:55:55.90	124.46	0.53	-48.8	-64.0	3.6	1.51e+00	0	31	104	0	60	57389
2026-01-27 22:55:56.91	124.43	0.59	-48.8	-64.1	3.6	1.51e+00	0	31	104	0	60	57814
2026-01-27 22:55:57.92	124.39	0.65	-48.9	-64.1	3.6	1.51e+00	0	31	104	0	60	57846
2026-01-27 22:55:58.93	124.36	0.71	-48.9	-64.1	3.5	1.51e+00	0	31	104	0	60	57712
2026-01-27 22:55:59.94	124.33	0.77	-48.8	-64.1	3.6	1.51e+00	0	31	104	0	60	57943
2026-01-27 22:56:00.95	124.29	0.83	-48.9	-64.0	3.6	1.51e+00	0	31	104	0	60	57479
2026-01-27 22:56:01.96	124.26	0.89	-48.8	-64.0	3.6	1.51e+00	0	31	104	0	60	57435
2026-01-27 22:56:02.97	124.23	0.95	-48.8	-64.0	3.6	1.51e+00	0	31	104	0	60	57259
2026-01-27 22:56:03.98	124.19	1.01	-48.8	-64.0	3.6	1.51e+00	0	31	104	0	60	57171
2026-01-27 22:56:04.99	124.16	1.07	-48.5	-63.9	3.6	1.51e+00	0	31	104	0	60	56764
2026-01-27 22:56:06.00	124.13	1.13	-48.7	-63.9	3.6	1.51e+00	0	31	104	0	60	56743
2026-01-27 22:56:07.01	124.09	1.20	-48.3	-63.8	3.6	1.51e+00	0	31	104	0	60	56093
2026-01-27 22:56:08.02	124.06	1.26	-48.6	-63.8	3.6	1.51e+00	0	31	104	0	60	56217
2026-01-27 22:56:09.03	124.02	1.32	-48.3	-63.7	3.6	1.51e+00	0	31	104	0	60	55219
2026-01-27 22:56:10.04	123.99	1.38	-48.0	-63.6	3.6	1.51e+00	0	31	104	0	60	54586
2026-01-27 22:56:11.05	123.96	1.44	-48.3	-63.5	3.6	1.51e+00	0	31	104	0	60	54112
2026-01-27 22:56:12.06	123.92	1.50	-48.1	-63.3	3.6	1.51e+00	0	31	104	0	60	53129
2026-01-27 22:56:13.07	123.89	1.56	-47.7	-63.0	3.6	1.51e+00	0	31	104	0	60	51019
2026-01-27 22:56:14.08	123.85	1.63	-46.9	-62.6	3.5	1.51e+00	0	31	104	0	60	48694
2026-01-27 22:56:15.09	123.82	1.69	-46.9	-62.6	3.6	1.51e+00	0	31	104	0	60	48603
2026-01-27 22:56:16.10	123.78	1.75	-46.9	-62.6	3.6	1.51e+00	0	31	104	0	60	48799
2026-01-27 22:56:17.11	123.74	1.81	-46.9	-62.6	3.6	1.51e+00	0	31	104	0	60	48504
2026-01-27 22:56:18.12	123.71	1.87	-46.8	-62.6	3.6	1.51e+00	0	31	104	0	60	48810
2026-01-27 22:56:19.13	123.67	1.94	-46.8	-62.6	3.6	1.51e+00	0	31	104	0	60	48657
2026-01-27 22:56:20.14	123.64	2.00	-46.8	-62.6	3.6	1.51e+00	0	31	104	0	60	48624
2026-01-27 22:56:21.15	123.60	2.06	-46.8	-62.6	3.6	1.51e+00	0	31	104	0	60	48630
2026-01-27 22:56:22.16	123.56	2.12	-46.8	-62.6	3.6	1.51e+00	0	31	104	0	60	48556
2026-01-27 22:56:23.17	123.53	2.19	-46.8	-62.5	3.6	1.51e+00	0	31	104	0	60	48126
2026-01-27 22:56:24.18	123.49	2.25	-46.9	-62.5	3.6	1.51e+00	0	31	104	0	60	48150
2026-01-27 22:56:25.19	123.45	2.31	-46.8	-62.4	3.6	1.51e+00	0	31	104	0	60	47833
2026-01-27 22:56:26.20	123.42	2.38	-46.9	-62.5	3.6	1.51e+00	0	31	104	0	60	48112
2026-01-27 22:56:27.21	123.38	2.44	-46.9	-62.5	3.6	1.51e+00	0	31	104	0	60	48219
2026-01-27 22:56:28.22	123.34	2.50	-46.9	-62.5	3.6	1.51e+00	0	31	104	0	60	47980
2026-01-27 22:56:29.23	123.31	2.57	-46.9	-62.5	3.6	1.51e+00	0	31	104	0	60	48203
2026-01-27 22:56:30.23	123.27	2.63	-46.9	-62.5	3.6	1.51e+00	0	31	104	0	60	48250
2026-01-27 22:56:31.25	123.23	2.70	-46.9	-62.5	3.6	1.51e+00	0	31	104	0	60	48396
2026-01-27 22:56:32.25	123.19	2.76	-46.9	-62.5	3.6	1.51e+00	0	31	104	0	60	48233
2026-01-27 22:56:33.26	123.15	2.82	-46.8	-62.5	3.6	1.51e+00	0	31	104	0	60	48443
2026-01-27 22:56:34.27	123.12	2.89	-46.8	-62.5	3.6	1.51e+00	0	31	104	0	60	48104
2026-01-27 22:56:35.28	123.08	2.95	-46.8	-62.1	3.6	1.51e+00	0	31	104	0	60	46228
2026-01-27 22:56:36.29	123.04	3.02	-46.8	-61.8	3.6	1.51e+00	0	31	104	0	60	44515
2026-01-27 22:56:37.30	123.00	3.08	-46.8	-61.6	3.6	1.51e+00	0	31	104	0	60	43539
2026-01-27 22:56:38.31	122.96	3.15	-46.8	-61.9	3.6	1.51e+00	0	31	104	0	60	44788
2026-01-27 22:56:39.32	122.92	3.21	-46.8	-62.3	3.6	1.51e+00	0	31	104	0	60	47136
2026-01-27 22:56:40.34	122.88	3.28	-46.8	-62.5	3.6	1.51e+00	0	31	104	0	60	48126
2026-01-27 22:56:41.35	122.84	3.34	-46.7	-60.8	3.6	1.51e+00	0	31	104	0	60	39665
2026-01-27 22:56:42.35	122.80	3.41	-46.5	-56.6	4.6	1.29e+00	92	31	0	0	60	24298
2026-01-27 22:56:43.36	122.76	3.47	-45.8	-52.1	8.7	2.03e-01	26	31	0	2097152	60	14623
2026-01-27 22:56:44.38	122.72	3.54	-45.0	-49.6	11.8	3.60e-03	92	31	0	4194304	60	10891
2026-01-27 22:56:45.38	122.68	3.61	-44.3	-48.0	13.8	1.83e-05	7	31	0	5242880	60	9052
2026-01-27 22:56:46.40	122.64	3.67	-43.2	-46.0	15.9	0.00e+00	92	31	0	7340032	60	7179
2026-01-27 22:56:47.40	122.60	3.74	-42.9	-45.5	15.6	0.00e+00	0	31	0	8388608	58	7626
2026-01-27 22:56:48.41	122.56	3.80	-47.6	-62.8	3.6	1.51e+00	0	31	104	9437184	60	50176
2026-01-27 22:56:49.42	122.52	3.87	-47.3	-61.8	3.6	1.51e+00	0	31	104	9437184	60	44579
2026-01-27 22:56:50.43	122.47	3.94	-43.7	-47.0	14.6	6.01e-01	92	31	104	9437184	60	8078
2026-01-27 22:56:51.44	122.43	4.00	-42.4	-44.4	17.6	0.00e+00	92	31	0	10485760	58	6720
2026-01-27 22:56:52.46	122.39	4.07	-46.8	-61.9	3.6	6.17e-01	0	31	104	11534336	60	44774
2026-01-27 22:56:53.46	122.35	4.14	-42.1	-44.3	16.7	1.48e+00	92	31	104	11534336	58	6689
2026-01-27 22:56:54.48	122.31	4.21	-40.5	-42.1	19.6	0.00e+00	72	31	0	11534336	56	5765
2026-01-27 22:56:55.48	122.26	4.27	-41.5	-43.3	18.0	0.00e+00	92	31	0	13631488	54	7507
2026-01-27 22:56:56.50	122.22	4.34	-41.5	-43.3	18.6	0.00e+00	92	31	0	15728640	56	6642
2026-01-27 22:56:57.51	122.18	4.41	-41.2	-42.9	18.9	0.00e+00	92	31	0	17825792	56	6327
2026-01-27 22:56:58.52	122.13	4.48	-40.7	-42.3	19.4	0.00e+00	92	31	0	19922944	56	5910
2026-01-27 22:56:59.52	122.09	4.54	-41.6	-43.4	18.3	0.00e+00	0	31	0	20971520	54	7541
2026-01-27 22:57:00.54	122.05	4.61	-41.1	-42.8	19.1	0.00e+00	91	31	0	23068672	56	6246
2026-01-27 22:57:01.55	122.00	4.68	-41.4	-43.1	18.7	0.00e+00	0	31	0	25165824	56	6497
2026-01-27 22:57:02.56	121.96	4.75	-41.1	-42.7	19.1	0.00e+00	91	31	0	27262976	56	6226
2026-01-27 22:57:03.56	121.92	4.82	-41.5	-43.2	18.6	0.00e+00	88	31	0	29360128	56	6605
2026-01-27 22:57:04.58	121.87	4.89	-41.3	-43.1	18.8	0.00e+00	92	31	0	30408704	56	6467
2026-01-27 22:57:05.59	121.83	4.96	-41.8	-43.6	18.2	0.00e+00	92	31	0	32505856	56	6865
2026-01-27 22:57:06.60	121.78	5.03	-41.6	-43.3	18.4	0.00e+00	92	31	0	34603008	56	6666
2026-01-27 22:57:07.61	121.74	5.09	-41.9	-43.7	18.0	0.00e+00	92	31	0	36700160	56	6983
2026-01-27 22:57:08.62	121.69	5.16	-42.3	-44.3	17.7	0.00e+00	8	31	0	38797312	56	7482
2026-01-27 22:57:09.63	121.65	5.23	-41.3	-42.9	19.1	0.00e+00	92	31	0	39845888	56	6383
2026-01-27 22:57:10.64	121.60	5.30	-41.6	-43.4	18.5	0.00e+00	1	31	0	41943040	56	6712
2026-01-27 22:57:11.65	121.55	5.37	-41.6	-43.3	18.5	0.00e+00	92	31	0	44040192	56	6686
2026-01-27 22:57:12.66	121.51	5.44	-41.3	-42.9	19.1	0.00e+00	92	31	0	46137344	56	6373
2026-01-27 22:57:13.66	121.46	5.51	-40.8	-42.4	19.5	0.00e+00	91	31	0	48234496	56	5998
2026-01-27 22:57:14.67	121.41	5.58	-40.8	-42.4	19.5	0.00e+00	91	31	0	49283072	56	5994
2026-01-27 22:57:15.69	121.37	5.66	-40.7	-42.2	19.9	0.00e+00	6	31	0	51380224	56	5856
2026-01-27 22:57:16.69	121.32	5.73	-40.5	-42.0	19.7	0.00e+00	92	31	0	53477376	54	6418
2026-01-27 22:57:17.70	121.27	5.80	-40.9	-42.5	19.4	0.00e+00	0	31	0	55574528	54	6817
2026-01-27 22:57:18.71	121.22	5.87	-40.4	-41.8	20.0	0.00e+00	91	31	0	57671680	54	6267
2026-01-27 22:57:19.73	121.18	5.94	-40.5	-41.9	19.9	0.00e+00	91	31	0	59768832	54	6389
2026-01-27 22:57:20.74	121.13	6.01	-40.0	-41.3	20.4	0.00e+00	92	31	0	60817408	54	5946
2026-01-27 22:57:21.75	121.08	6.08	-40.2	-41.5	20.2	0.00e+00	92	31	0	62914560	52	6831
2026-01-27 22:57:22.76	121.03	6.15	-40.2	-41.6	20.3	0.00e+00	2	31	0	65011712	54	6135
2026-01-27 22:57:23.77	120.98	6.23	-40.5	-41.8	20.1	0.00e+00	92	31	0	67108864	54	6312
2026-01-27 22:57:24.78	120.93	6.30	-40.0	-41.3	20.5	0.00e+00	0	31	0	69206016	54	5932
2026-01-27 22:57:25.79	120.88	6.37	-40.0	-41.3	20.5	0.00e+00	91	31	0	70254592	54	5911
2026-01-27 22:57:26.80	120.83	6.44	-40.3	-41.7	20.2	0.00e+00	0	31	0	72351744	54	6187
2026-01-27 22:57:27.80	120.78	6.52	-40.3	-41.7	20.0	0.00e+00	90	31	0	74448896	54	6191
2026-01-27 22:57:28.81	120.73	6.59	-40.6	-42.0	19.8	0.00e+00	92	31	0	76546048	54	6432
2026-01-27 22:57:29.82	120.68	6.66	-40.1	-41.4	20.5	0.00e+00	92	31	0	78643200	54	5999
2026-01-27 22:57:30.83	120.63	6.74	-39.7	-40.9	21.0	0.00e+00	90	31	0	79691776	54	5643
2026-01-27 22:57:31.84	120.58	6.81	-40.0	-41.2	20.6	0.00e+00	80	31	0	81788928	52	6584
2026-01-27 22:57:32.85	120.53	6.88	-39.9	-41.2	20.7	0.00e+00	92	31	0	83886080	52	6556
2026-01-27 22:57:33.86	120.48	6.96	-39.6	-40.8	21.1	0.00e+00	85	31	0	85983232	52	6255
2026-01-27 22:57:34.87	120.42	7.03	-39.8	-41.1	20.8	0.00e+00	92	31	0	88080384	52	6470
2026-01-27 22:57:35.88	120.37	7.10	-39.7	-40.9	21.0	0.00e+00	92	31	0	89128960	52	6336
2026-01-27 22:57:36.89	120.32	7.18	-40.0	-41.2	20.8	0.00e+00	92	31	0	91226112	52	6587
2026-01-27 22:57:37.90	120.27	7.25	-40.3	-41.6	20.3	0.00e+00	92	31	0	93323264	52	6895
2026-01-27 22:57:38.91	120.21	7.33	-39.7	-40.9	21.0	0.00e+00	6	31	0	95420416	52	6378
2026-01-27 22:57:39.92	120.16	7.40	-39.8	-41.1	20.8	0.00e+00	92	31	0	97517568	52	6469
2026-01-27 22:57:40.93	120.11	7.48	-39.7	-40.9	21.1	0.00e+00	12	31	0	98566144	52	6328
2026-01-27 22:57:41.94	120.05	7.55	-39.4	-40.5	21.4	0.00e+00	92	31	0	100663296	52	6096
2026-01-27 22:57:42.95	120.00	7.63	-39.5	-40.7	21.2	0.00e+00	90	31	0	102760448	52	6181
2026-01-27 22:57:43.96	119.94	7.71	-39.7	-40.9	21.2	0.00e+00	92	31	0	104857600	52	6345
2026-01-27 22:57:44.97	119.89	7.78	-39.3	-40.5	21.5	0.00e+00	92	31	0	106954752	52	6061
2026-01-27 22:57:45.98	119.83	7.86	-39.6	-40.8	21.2	0.00e+00	92	31	0	108003328	52	6247
2026-01-27 22:57:46.99	119.78	7.93	-39.6	-40.8	21.2	0.00e+00	92	31	0	110100480	52	6304
2026-01-27 22:57:48.00	119.72	8.01	-39.7	-40.9	21.2	0.00e+00	85	31	0	112197632	52	6335
2026-01-27 22:57:49.01	119.67	8.09	-39.6	-40.8	21.2	0.00e+00	90	31	0	114294784	52	6287
2026-01-27 22:57:50.02	119.61	8.17	-39.9	-41.2	20.8	0.00e+00	91	31	0	116391936	52	6576
2026-01-27 22:57:51.03	119.55	8.24	-39.2	-40.4	21.6	0.00e+00	92	32	0	117440512	52	5983
2026-01-27 22:57:52.04	119.50	8.32	-39.4	-40.5	21.5	0.00e+00	92	31	0	119537664	52	6085
2026-01-27 22:57:53.05	119.44	8.40	-39.5	-40.6	21.3	0.00e+00	92	31	0	121634816	52	6168
2026-01-27 22:57:54.05	119.38	8.47	-39.4	-40.6	21.4	0.00e+00	92	31	0	123731968	52	6132
2026-01-27 22:57:55.07	119.32	8.55	-39.5	-40.7	21.5	0.00e+00	82	32	0	125829120	52	6178
2026-01-27 22:57:56.07	119.27	8.63	-39.3	-40.5	21.6	0.00e+00	92	31	0	127926272	52	6035
2026-01-27 22:57:57.09	119.21	8.71	-39.3	-40.4	21.6	0.00e+00	75	31	0	128974848	52	6032
2026-01-27 22:57:58.10	119.15	8.79	-39.4	-40.5	21.6	0.00e+00	92	31	0	131072000	52	6092
2026-01-27 22:57:59.11	119.09	8.87	-39.4	-40.6	21.5	0.00e+00	90	31	0	133169152	52	6134
2026-01-27 22:58:00.11	119.03	8.95	-39.5	-40.6	21.5	0.00e+00	92	31	0	135266304	52	6150
2026-01-27 22:58:01.10	118.97	9.02	-39.3	-40.4	21.6	0.00e+00	92	31	0	137363456	52	6027
2026-01-27 22:58:02.11	118.91	9.10	-39.4	-40.6	21.6	0.00e+00	38	31	0	138412032	52	6136
2026-01-27 22:58:03.12	118.85	9.18	-39.4	-40.6	21.4	0.00e+00	90	31	0	140509184	52	6145
2026-01-27 22:58:04.13	118.79	9.26	-39.4	-40.6	21.5	0.00e+00	2	31	0	142606336	52	6130
2026-01-27 22:58:05.14	118.73	9.34	-39.4	-40.5	21.6	0.00e+00	92	32	0	144703488	52	6079
2026-01-27 22:58:06.15	118.66	9.43	-38.9	-39.9	22.2	0.00e+00	90	31	0	146800640	50	6383
2026-01-27 22:58:07.16	118.60	9.51	-38.6	-39.7	22.3	0.00e+00	92	31	0	147849216	50	6196
2026-01-27 22:58:08.17	118.54	9.59	-38.9	-39.9	22.2	0.00e+00	92	31	0	149946368	50	6389
2026-01-27 22:58:09.18	118.48	9.67	-38.6	-39.6	22.4	0.00e+00	90	31	0	152043520	50	6170
2026-01-27 22:58:10.19	118.41	9.75	-38.8	-39.8	22.1	0.00e+00	92	32	0	154140672	50	6303
2026-01-27 22:58:11.20	118.35	9.83	-38.9	-40.0	22.1	0.00e+00	2	32	0	156237824	50	6406
2026-01-27 22:58:12.21	118.29	9.91	-38.8	-39.9	22.2	0.00e+00	90	32	0	157286400	50	6352
2026-01-27 22:58:13.21	118.22	9.99	-38.9	-40.0	22.1	0.00e+00	92	31	0	159383552	50	6447
2026-01-27 22:58:14.22	118.16	10.08	-38.7	-39.8	22.2	0.00e+00	91	31	0	161480704	50	6299
2026-01-27 22:58:15.23	118.09	10.16	-38.7	-39.8	22.3	0.00e+00	91	31	0	163577856	50	6283
2026-01-27 22:58:16.24	118.03	10.24	-38.5	-39.5	22.5	0.00e+00	91	31	0	165675008	50	6097
2026-01-27 22:58:17.25	117.96	10.33	-38.6	-39.7	22.4	0.00e+00	91	31	0	166723584	50	6185
2026-01-27 22:58:18.27	117.90	10.41	-38.6	-39.6	22.5	0.00e+00	84	31	0	168820736	50	6120
2026-01-27 22:58:19.27	117.83	10.49	-38.7	-39.7	22.4	0.00e+00	92	31	0	170917888	50	6240
2026-01-27 22:58:20.28	117.76	10.58	-38.5	-39.6	22.6	0.00e+00	9	31	0	173015040	50	6108
2026-01-27 22:58:21.29	117.69	10.66	-38.5	-39.5	22.6	0.00e+00	92	31	0	175112192	50	6103
2026-01-27 22:58:22.30	117.63	10.74	-38.6	-39.7	22.5	0.00e+00	92	31	0	176160768	50	6176
2026-01-27 22:58:23.31	117.56	10.83	-38.6	-39.7	22.3	0.00e+00	92	31	0	178257920	50	6221
2026-01-27 22:58:24.32	117.49	10.91	-38.7	-39.7	22.4	0.00e+00	92	32	0	180355072	50	6242
2026-01-27 22:58:25.33	117.42	11.00	-38.6	-39.6	22.4	0.00e+00	92	32	0	182452224	50	6170
2026-01-27 22:58:26.34	117.35	11.08	-38.6	-39.7	22.5	0.00e+00	92	31	0	184549376	50	6187
2026-01-27 22:58:27.35	117.28	11.17	-38.3	-39.4	22.7	0.00e+00	2	31	0	185597952	50	5976
2026-01-27 22:58:28.36	117.21	11.26	-38.4	-39.5	22.6	0.00e+00	92	31	0	187695104	50	6054
2026-01-27 22:58:29.37	117.14	11.34	-38.4	-39.5	22.6	0.00e+00	92	31	0	189792256	50	6045
2026-01-27 22:58:30.38	117.07	11.43	-38.6	-39.6	22.5	0.00e+00	92	31	0	191889408	50	6165
2026-01-27 22:58:31.39	117.00	11.51	-38.7	-39.8	22.4	0.00e+00	92	32	0	193986560	50	6249
2026-01-27 22:58:32.40	116.93	11.60	-38.4	-39.5	22.6	0.00e+00	92	31	0	196083712	50	6047
2026-01-27 22:58:33.41	116.85	11.69	-38.6	-39.7	22.4	0.00e+00	92	31	0	197132288	50	6194
2026-01-27 22:58:34.42	116.78	11.78	-38.7	-39.9	22.4	0.00e+00	0	31	0	199229440	50	6321
2026-01-27 22:58:35.43	116.71	11.86	-38.5	-39.7	22.5	0.00e+00	90	32	0	201326592	50	6187
2026-01-27 22:58:36.44	116.63	11.95	-38.4	-39.6	22.5	0.00e+00	0	31	0	203423744	50	6125
2026-01-27 22:58:37.45	116.56	12.04	-38.5	-39.7	22.5	0.00e+00	92	31	0	204472320	50	6185
2026-01-27 22:58:38.46	116.48	12.13	-38.6	-39.8	22.4	0.00e+00	92	31	0	206569472	50	6292
2026-01-27 22:58:39.47	116.41	12.22	-38.3	-39.4	22.7	0.00e+00	92	32	0	208666624	50	5987
2026-01-27 22:58:40.48	116.33	12.31	-38.3	-39.4	22.7	0.00e+00	92	32	0	210763776	50	6029
2026-01-27 22:58:41.48	116.26	12.39	-38.5	-39.7	22.5	0.00e+00	20	31	0	212860928	50	6190
2026-01-27 22:58:42.49	116.18	12.48	-38.5	-39.6	22.5	0.00e+00	92	31	0	213909504	50	6136
2026-01-27 22:58:43.50	116.10	12.57	-38.6	-39.7	22.5	0.00e+00	0	31	0	216006656	50	6206
2026-01-27 22:58:44.51	116.02	12.66	-38.6	-39.7	22.4	0.00e+00	92	32	0	218103808	50	6218
2026-01-27 22:58:45.52	115.95	12.75	-38.7	-39.8	22.4	0.00e+00	92	31	0	220200960	50	6256
2026-01-27 22:58:46.53	115.87	12.85	-38.6	-39.7	22.5	0.00e+00	92	31	0	222298112	50	6206
2026-01-27 22:58:47.54	115.79	12.94	-38.6	-39.7	22.4	0.00e+00	92	32	0	224395264	50	6180
2026-01-27 22:58:48.55	115.71	13.03	-38.6	-39.7	22.5	0.00e+00	9	32	0	225443840	50	6210
2026-01-27 22:58:49.56	115.63	13.12	-38.8	-39.9	22.4	0.00e+00	92	32	0	227540992	50	6322
2026-01-27 22:58:50.57	115.55	13.21	-38.3	-39.4	22.8	0.00e+00	0	31	0	229638144	50	5976
2026-01-27 22:58:51.58	115.47	13.30	-38.5	-39.5	22.7	0.00e+00	92	31	0	231735296	50	6071
2026-01-27 22:58:52.59	115.39	13.40	-38.4	-39.5	22.8	0.00e+00	92	31	0	233832448	50	6038
2026-01-27 22:58:53.60	115.30	13.49	-38.4	-39.4	22.7	0.00e+00	92	32	0	234881024	50	6032
2026-01-27 22:58:54.61	115.22	13.58	-38.4	-39.3	22.9	0.00e+00	92	32	0	236978176	50	5964
2026-01-27 22:58:55.62	115.14	13.67	-38.3	-39.3	22.8	0.00e+00	92	32	0	239075328	50	5945
2026-01-27 22:58:56.63	115.05	13.77	-38.3	-39.3	22.7	0.00e+00	92	32	0	241172480	50	5958
2026-01-27 22:58:57.64	114.97	13.86	-38.2	-39.2	23.0	0.00e+00	82	31	0	243269632	50	5880
2026-01-27 22:58:58.65	114.88	13.96	-38.4	-39.5	22.7	0.00e+00	92	32	0	244318208	50	6036
2026-01-27 22:58:59.66	114.80	14.05	-38.4	-39.4	22.7	0.00e+00	82	32	0	246415360	50	6011
2026-01-27 22:59:00.68	114.71	14.15	-38.5	-39.5	22.7	0.00e+00	92	32	0	248512512	50	6103
2026-01-27 22:59:01.68	114.62	14.24	-38.4	-39.5	22.7	0.00e+00	91	32	0	250609664	50	6043
2026-01-27 22:59:02.69	114.54	14.34	-38.4	-39.5	22.7	0.00e+00	90	32	0	252706816	50	6048
2026-01-27 22:59:03.70	114.45	14.43	-38.6	-39.7	22.6	0.00e+00	92	32	0	253755392	50	6190
2026-01-27 22:59:04.71	114.36	14.53	-38.6	-39.7	22.5	0.00e+00	0	32	0	255852544	50	6211
2026-01-27 22:59:05.72	114.27	14.62	-38.6	-39.6	22.5	0.00e+00	91	32	0	257949696	50	6170
2026-01-27 22:59:06.73	114.18	14.72	-38.4	-39.5	22.7	0.00e+00	0	32	0	260046848	50	6046
2026-01-27 22:59:07.74	114.09	14.82	-38.6	-39.7	22.5	0.00e+00	91	32	0	262144000	50	6189
2026-01-27 22:59:08.75	114.00	14.91	-38.4	-39.4	22.8	0.00e+00	92	32	0	264241152	50	6000
2026-01-27 22:59:09.76	113.91	15.01	-38.4	-39.5	22.7	0.00e+00	92	32	0	265289728	50	6058
2026-01-27 22:59:10.77	113.82	15.11	-38.4	-39.4	22.8	0.00e+00	90	32	0	267386880	50	5987
2026-01-27 22:59:11.78	113.72	15.21	-38.4	-39.4	22.7	0.00e+00	10	32	0	269484032	50	5989
2026-01-27 22:59:12.79	113.63	15.31	-38.4	-39.4	22.8	0.00e+00	91	32	0	271581184	50	6006
2026-01-27 22:59:13.80	113.54	15.41	-38.4	-39.4	22.8	0.00e+00	6	31	0	273678336	50	5981
2026-01-27 22:59:14.81	113.44	15.50	-38.5	-39.5	22.7	0.00e+00	92	31	0	274726912	50	6070
2026-01-27 22:59:15.82	113.35	15.60	-38.6	-39.6	22.6	0.00e+00	92	32	0	276824064	50	6149
2026-01-27 22:59:16.83	113.25	15.70	-38.2	-39.2	23.1	0.00e+00	92	31	0	278921216	50	5843
2026-01-27 22:59:17.84	113.16	15.80	-38.2	-39.1	23.1	0.00e+00	92	32	0	281018368	50	5813
2026-01-27 22:59:18.85	113.06	15.90	-38.2	-39.1	23.2	0.00e+00	0	32	0	283115520	50	5809
2026-01-27 22:59:19.86	112.96	16.01	-38.1	-39.0	23.2	0.00e+00	92	32	0	284164096	50	5753
2026-01-27 22:59:20.87	112.86	16.11	-38.2	-39.1	23.1	0.00e+00	0	31	0	286261248	50	5824
2026-01-27 22:59:21.88	112.76	16.21	-38.1	-39.1	23.2	0.00e+00	92	32	0	288358400	50	5770
2026-01-27 22:59:22.89	112.66	16.31	-38.1	-39.1	23.2	0.00e+00	0	32	0	290455552	50	5773
2026-01-27 22:59:23.90	112.56	16.41	-38.2	-39.1	23.2	0.00e+00	92	32	0	292552704	50	5796
2026-01-27 22:59:24.91	112.46	16.51	-38.2	-39.1	23.1	0.00e+00	90	32	0	293601280	50	5812
2026-01-27 22:59:25.92	112.36	16.62	-38.2	-39.1	23.1	0.00e+00	92	32	0	295698432	50	5823
2026-01-27 22:59:26.93	112.25	16.72	-38.0	-39.0	23.3	0.00e+00	92	32	0	297795584	50	5714
2026-01-27 22:59:27.94	112.15	16.82	-38.3	-39.2	23.1	0.00e+00	24	31	0	299892736	50	5874
2026-01-27 22:59:28.95	112.05	16.93	-38.0	-38.9	23.2	0.00e+00	92	32	0	301989888	50	5665
2026-01-27 22:59:29.96	111.94	17.03	-38.1	-39.1	23.1	0.00e+00	17	32	0	303038464	50	5780
2026-01-27 22:59:30.97	111.84	17.14	-37.9	-38.9	23.3	0.00e+00	92	32	0	305135616	50	5647
2026-01-27 22:59:31.98	111.73	17.24	-38.0	-38.9	23.3	0.00e+00	92	32	0	307232768	50	5691
2026-01-27 22:59:32.99	111.62	17.35	-37.9	-38.8	23.3	0.00e+00	92	32	0	309329920	50	5625
2026-01-27 22:59:34.00	111.51	17.45	-38.0	-39.0	23.3	0.00e+00	92	32	0	311427072	50	5710
2026-01-27 22:59:35.01	111.41	17.56	-38.0	-38.9	23.3	0.00e+00	82	32	0	312475648	50	5684
2026-01-27 22:59:36.02	111.30	17.66	-37.8	-38.8	23.4	0.00e+00	92	32	0	314572800	50	5586
2026-01-27 22:59:37.03	111.19	17.77	-38.0	-38.9	23.4	0.00e+00	83	32	0	316669952	50	5662
2026-01-27 22:59:38.04	111.07	17.88	-37.9	-38.9	23.4	0.00e+00	92	32	0	318767104	50	5638
2026-01-27 22:59:39.05	110.96	17.98	-38.0	-39.0	23.3	0.00e+00	92	32	0	320864256	50	5699
2026-01-27 22:59:40.06	110.85	18.09	-38.0	-38.9	23.3	0.00e+00	90	32	0	321912832	50	5660
2026-01-27 22:59:41.07	110.74	18.20	-38.1	-39.0	23.2	0.00e+00	92	32	0	324009984	50	5758
2026-01-27 22:59:42.08	110.62	18.31	-37.9	-38.8	23.4	0.00e+00	92	32	0	326107136	50	5623
2026-01-27 22:59:43.09	110.51	18.42	-38.0	-39.0	23.3	0.00e+00	92	32	0	328204288	50	5705
2026-01-27 22:59:44.09	110.39	18.52	-38.2	-39.1	23.1	0.00e+00	0	32	0	330301440	50	5797
2026-01-27 22:59:45.11	110.27	18.64	-38.1	-39.0	23.3	0.00e+00	90	32	0	332398592	50	5741
2026-01-27 22:59:46.12	110.15	18.74	-38.0	-38.9	23.3	0.00e+00	77	32	0	333447168	50	5683
2026-01-27 22:59:47.13	110.04	18.86	-37.9	-38.9	23.4	0.00e+00	90	32	0	335544320	50	5647
2026-01-27 22:59:48.13	109.92	18.96	-37.9	-38.9	23.3	0.00e+00	92	32	0	337641472	50	5671
2026-01-27 22:59:49.14	109.80	19.08	-38.0	-39.0	23.3	0.00e+00	91	32	0	339738624	50	5733
2026-01-27 22:59:50.15	109.68	19.19	-38.1	-39.1	23.2	0.00e+00	92	32	0	341835776	50	5792
2026-01-27 22:59:51.16	109.55	19.30	-38.1	-39.0	23.2	0.00e+00	13	32	0	342884352	50	5740
2026-01-27 22:59:52.17	109.43	19.41	-38.2	-39.2	23.1	0.00e+00	92	32	0	344981504	50	5869
2026-01-27 22:59:53.18	109.31	19.52	-38.2	-39.1	23.2	0.00e+00	7	32	0	347078656	50	5809
2026-01-27 22:59:54.19	109.18	19.63	-38.2	-39.2	23.1	0.00e+00	92	32	0	349175808	50	5859
2026-01-27 22:59:55.20	109.05	19.75	-38.1	-39.0	23.3	0.00e+00	91	32	0	351272960	50	5751
2026-01-27 22:59:56.21	108.93	19.86	-38.0	-39.0	23.4	0.00e+00	91	32	0	352321536	50	5712
2026-01-27 22:59:57.22	108.80	19.97	-38.1	-39.1	23.2	0.00e+00	90	32	0	354418688	50	5770
2026-01-27 22:59:58.23	108.67	20.09	-38.0	-39.0	23.3	0.00e+00	90	32	0	356515840	50	5709
2026-01-27 22:59:59.24	108.54	20.20	-38.0	-39.0	23.4	0.00e+00	92	32	0	358612992	50	5718
2026-01-27 23:00:00.25	108.41	20.32	-38.1	-39.0	23.4	0.00e+00	79	32	0	360710144	50	5731
2026-01-27 23:00:01.26	108.28	20.43	-38.0	-38.9	23.4	0.00e+00	92	32	0	361758720	50	5685
2026-01-27 23:00:02.27	108.14	20.55	-37.9	-38.9	23.3	0.00e+00	90	32	0	363855872	50	5636
2026-01-27 23:00:03.28	108.01	20.66	-38.0	-39.0	23.3	0.00e+00	92	32	0	365953024	50	5701
2026-01-27 23:00:04.29	107.88	20.78	-38.1	-39.0	23.2	0.00e+00	90	32	0	368050176	50	5725
2026-01-27 23:00:05.29	107.74	20.90	-38.2	-39.1	23.2	0.00e+00	92	32	0	370147328	50	5792
2026-01-27 23:00:06.30	107.60	21.01	-38.3	-39.3	23.0	0.00e+00	92	32	0	371195904	50	5923
2026-01-27 23:00:07.31	107.47	21.13	-38.3	-39.2	23.1	0.00e+00	8	32	0	373293056	50	5891
2026-01-27 23:00:08.32	107.33	21.25	-38.3	-39.2	23.1	0.00e+00	92	32	0	375390208	50	5877
2026-01-27 23:00:09.33	107.19	21.37	-38.3	-39.2	23.1	0.00e+00	92	32	0	377487360	50	5879
2026-01-27 23:00:10.34	107.04	21.49	-38.3	-39.3	23.1	0.00e+00	92	32	0	379584512	50	5918
2026-01-27 23:00:11.35	106.90	21.60	-38.3	-39.2	23.2	0.00e+00	92	32	0	380633088	50	5867
2026-01-27 23:00:12.36	106.76	21.72	-38.4	-39.4	23.0	0.00e+00	9	32	0	382730240	50	5998
2026-01-27 23:00:13.37	106.61	21.84	-38.5	-39.5	22.9	0.00e+00	92	32	0	384827392	50	6044
2026-01-27 23:00:14.38	106.47	21.96	-38.7	-39.7	22.8	0.00e+00	9	32	0	386924544	50	6194
2026-01-27 23:00:15.39	106.32	22.08	-38.5	-39.5	22.9	0.00e+00	90	32	0	389021696	50	6059
2026-01-27 23:00:16.40	106.17	22.20	-38.5	-39.5	22.9	0.00e+00	0	32	0	390070272	50	6035
2026-01-27 23:00:17.41	106.02	22.32	-38.6	-39.6	23.0	0.00e+00	92	32	0	392167424	50	6122
2026-01-27 23:00:18.42	105.87	22.45	-38.6	-39.6	22.8	0.00e+00	92	32	0	394264576	50	6145
2026-01-27 23:00:19.43	105.72	22.57	-38.6	-39.6	22.8	0.00e+00	92	32	0	396361728	50	6156
2026-01-27 23:00:20.44	105.57	22.69	-38.8	-39.8	22.7	0.00e+00	90	32	0	398458880	50	6310
2026-01-27 23:00:21.45	105.41	22.81	-38.7	-39.8	22.7	0.00e+00	57	32	0	400556032	50	6281
2026-01-27 23:00:22.46	105.26	22.94	-38.5	-39.5	22.9	0.00e+00	92	32	0	401604608	50	6061
2026-01-27 23:00:23.47	105.10	23.06	-38.5	-39.5	22.9	0.00e+00	67	32	0	403701760	50	6069
2026-01-27 23:00:24.48	104.94	23.18	-38.5	-39.6	23.0	0.00e+00	92	32	0	405798912	50	6122
2026-01-27 23:00:25.49	104.78	23.31	-38.6	-39.7	22.9	0.00e+00	92	32	0	407896064	50	6176
2026-01-27 23:00:26.50	104.62	23.43	-38.6	-39.7	22.7	0.00e+00	91	32	0	408944640	50	6190
2026-01-27 23:00:27.51	104.46	23.55	-38.9	-39.9	22.6	0.00e+00	91	32	0	411041792	50	6358
2026-01-27 23:00:28.51	104.30	23.68	-38.8	-39.8	22.7	0.00e+00	92	32	0	413138944	50	6294
2026-01-27 23:00:29.52	104.14	23.80	-38.7	-39.7	22.7	0.00e+00	92	32	0	415236096	50	6219
2026-01-27 23:00:30.53	103.97	23.93	-38.5	-39.5	22.7	0.00e+00	6	32	0	417333248	50	6066
2026-01-27 23:00:31.54	103.80	24.05	-38.6	-39.6	22.9	0.00e+00	92	32	0	418381824	50	6132
2026-01-27 23:00:32.55	103.63	24.18	-38.5	-39.4	23.1	0.00e+00	79	32	0	420478976	50	6013
2026-01-27 23:00:33.56	103.46	24.31	-38.5	-39.5	23.0	0.00e+00	91	32	0	422576128	50	6068
2026-01-27 23:00:34.57	103.29	24.43	-38.7	-39.7	22.8	0.00e+00	92	32	0	424673280	50	6212
2026-01-27 23:00:35.58	103.12	24.56	-38.3	-39.3	23.1	0.00e+00	92	32	0	426770432	50	5939
2026-01-27 23:00:36.60	102.94	24.69	-38.6	-39.5	22.9	0.00e+00	92	32	0	428867584	50	6091
2026-01-27 23:00:37.60	102.77	24.82	-38.4	-39.4	23.2	0.00e+00	79	32	0	429916160	50	5967
2026-01-27 23:00:38.61	102.59	24.95	-38.4	-39.3	23.1	0.00e+00	92	32	0	432013312	50	5962
2026-01-27 23:00:39.62	102.42	25.07	-38.3	-39.2	23.2	0.00e+00	0	32	0	434110464	50	5872
2026-01-27 23:00:40.63	102.24	25.20	-38.4	-39.4	23.1	0.00e+00	92	32	0	436207616	50	5984
2026-01-27 23:00:41.64	102.05	25.33	-38.5	-39.5	23.0	0.00e+00	90	32	0	438304768	50	6034
2026-01-27 23:00:42.65	101.87	25.46	-38.5	-39.4	22.9	0.00e+00	92	32	0	439353344	50	6021
2026-01-27 23:00:43.66	101.69	25.59	-38.6	-39.6	22.9	0.00e+00	92	32	0	441450496	50	6137
2026-01-27 23:00:44.67	101.50	25.72	-38.7	-39.7	22.7	0.00e+00	8	32	0	443547648	50	6204
2026-01-27 23:00:45.68	101.31	25.85	-38.7	-39.7	22.7	0.00e+00	92	32	0	445644800	50	6238
2026-01-27 23:00:46.69	101.12	25.98	-39.0	-40.0	22.3	0.00e+00	68	32	0	447741952	50	6431
2026-01-27 23:00:47.70	100.93	26.11	-38.9	-39.9	22.7	0.00e+00	92	32	0	448790528	50	6379
2026-01-27 23:00:48.71	100.74	26.25	-38.8	-39.8	22.6	0.00e+00	85	32	0	450887680	50	6263
2026-01-27 23:00:49.72	100.55	26.38	-39.0	-40.0	22.5	0.00e+00	92	32	0	452984832	50	6419
2026-01-27 23:00:50.73	100.35	26.51	-38.9	-39.9	22.7	0.00e+00	92	32	0	455081984	50	6344
2026-01-27 23:00:51.74	100.15	26.64	-39.0	-40.0	22.5	0.00e+00	0	32	0	457179136	50	6425
2026-01-27 23:00:52.75	99.96	26.77	-39.2	-40.2	22.3	0.00e+00	92	32	0	458227712	50	6584
2026-01-27 23:00:53.76	99.76	26.91	-39.2	-40.2	22.1	0.00e+00	5	32	0	460324864	50	6604
2026-01-27 23:00:54.77	99.55	27.04	-39.4	-40.5	22.1	0.00e+00	92	32	0	462422016	50	6775
2026-01-27 23:00:55.78	99.35	27.17	-39.6	-40.6	21.8	0.00e+00	5	32	0	464519168	50	6914
2026-01-27 23:00:56.79	99.14	27.31	-39.7	-40.7	21.9	0.00e+00	92	32	0	466616320	52	6236
2026-01-27 23:00:57.80	98.94	27.44	-39.9	-41.1	21.6	0.00e+00	90	32	0	467664896	52	6468
2026-01-27 23:00:58.81	98.73	27.57	-39.9	-41.1	21.5	0.00e+00	92	32	0	469762048	52	6494
2026-01-27 23:00:59.82	98.52	27.71	-40.1	-41.2	21.5	0.00e+00	90	32	0	471859200	52	6596
2026-01-27 23:01:00.83	98.30	27.84	-40.2	-41.4	21.3	0.00e+00	73	32	0	473956352	52	6743
2026-01-27 23:01:01.84	98.09	27.98	-40.5	-41.8	21.0	0.00e+00	92	32	0	476053504	52	7041
2026-01-27 23:01:02.84	97.87	28.11	-40.7	-42.0	20.6	0.00e+00	67	32	0	477102080	54	6463
2026-01-27 23:01:03.85	97.66	28.24	-40.9	-42.2	20.5	0.00e+00	92	32	0	479199232	54	6593
2026-01-27 23:01:04.87	97.43	28.38	-40.8	-42.1	20.6	0.00e+00	92	32	0	481296384	54	6486
2026-01-27 23:01:05.88	97.21	28.52	-40.7	-41.9	20.7	0.00e+00	92	32	0	483393536	54	6383
2026-01-27 23:01:06.89	96.99	28.65	-40.8	-42.0	20.7	0.00e+00	92	32	0	485490688	54	6426
2026-01-27 23:01:07.90	96.76	28.79	-40.8	-42.0	20.7	0.00e+00	0	32	0	487587840	54	6445
2026-01-27 23:01:08.91	96.53	28.92	-40.8	-42.0	20.7	0.00e+00	92	32	0	488636416	54	6443
2026-01-27 23:01:09.92	96.30	29.06	-40.8	-42.1	20.6	0.00e+00	0	32	0	490733568	54	6472
2026-01-27 23:01:10.93	96.07	29.19	-40.8	-42.0	20.7	0.00e+00	90	32	0	492830720	54	6457
2026-01-27 23:01:11.94	95.84	29.33	-40.8	-42.1	20.6	0.00e+00	92	32	0	494927872	54	6496
2026-01-27 23:01:12.95	95.60	29.47	-40.8	-42.1	20.6	0.00e+00	92	32	0	497025024	54	6518
2026-01-27 23:01:13.96	95.37	29.60	-40.8	-42.1	20.5	0.00e+00	92	32	0	498073600	54	6528
2026-01-27 23:01:14.97	95.13	29.74	-40.8	-42.1	20.6	0.00e+00	18	32	0	500170752	54	6517
2026-01-27 23:01:15.98	94.88	29.88	-40.7	-42.0	20.7	0.00e+00	92	32	0	502267904	54	6418
2026-01-27 23:01:16.99	94.64	30.01	-40.6	-41.9	20.8	0.00e+00	13	32	0	504365056	54	6345
2026-01-27 23:01:18.00	94.39	30.15	-40.6	-41.8	20.9	0.00e+00	92	32	0	506462208	54	6279
2026-01-27 23:01:19.01	94.15	30.28	-40.6	-41.8	20.9	0.00e+00	21	32	0	507510784	54	6294
2026-01-27 23:01:20.02	93.90	30.42	-40.4	-41.6	21.1	0.00e+00	92	32	0	509607936	54	6151
2026-01-27 23:01:21.03	93.64	30.56	-40.5	-41.7	21.1	0.00e+00	92	32	0	511705088	54	6194
2026-01-27 23:01:22.04	93.39	30.70	-40.7	-42.0	20.7	0.00e+00	90	32	0	513802240	54	6422
2026-01-27 23:01:23.05	93.13	30.83	-41.0	-42.3	20.4	0.00e+00	91	32	0	515899392	54	6674
2026-01-27 23:01:24.06	92.87	30.97	-41.4	-42.8	20.0	0.00e+00	0	32	0	516947968	54	7048
2026-01-27 23:01:25.07	92.61	31.11	-41.4	-43.0	19.7	0.00e+00	92	32	0	519045120	54	7234
2026-01-27 23:01:26.08	92.35	31.24	-41.6	-43.4	19.2	0.00e+00	81	32	0	521142272	54	7591
2026-01-27 23:01:27.09	92.08	31.38	-41.8	-43.5	19.4	0.00e+00	90	32	0	523239424	56	6813
2026-01-27 23:01:28.10	91.82	31.51	-41.9	-43.5	19.4	0.00e+00	92	32	0	525336576	56	6773
2026-01-27 23:01:29.11	91.55	31.65	-41.6	-43.1	19.8	0.00e+00	92	32	0	526385152	56	6535
2026-01-27 23:01:30.12	91.27	31.79	-41.2	-42.6	20.3	0.00e+00	91	32	0	528482304	56	6135
2026-01-27 23:01:31.13	91.00	31.92	-41.0	-42.3	20.7	0.00e+00	0	32	0	530579456	56	5947
2026-01-27 23:01:32.14	90.72	32.06	-40.9	-42.2	20.4	0.00e+00	91	32	0	532676608	56	5881
2026-01-27 23:01:33.15	90.44	32.20	-40.8	-42.0	20.7	0.00e+00	0	32	0	534773760	56	5751
2026-01-27 23:01:34.16	90.16	32.33	-40.5	-41.8	21.0	0.00e+00	90	32	0	536870912	54	6275
2026-01-27 23:01:35.17	89.88	32.47	-40.2	-41.3	21.4	0.00e+00	92	32	0	537919488	54	5938
2026-01-27 23:01:36.18	89.59	32.60	-39.8	-40.9	21.7	0.00e+00	90	32	0	540016640	54	5681
2026-01-27 23:01:37.19	89.30	32.74	-39.8	-41.0	21.7	0.00e+00	91	32	0	542113792	54	5725
2026-01-27 23:01:38.20	89.01	32.87	-40.0	-41.1	21.5	0.00e+00	67	32	0	544210944	54	5816
2026-01-27 23:01:39.21	88.72	33.01	-40.4	-41.6	21.3	0.00e+00	92	32	0	546308096	54	6123
2026-01-27 23:01:40.22	88.42	33.14	-40.1	-41.3	21.4	0.00e+00	79	32	0	547356672	54	5900
2026-01-27 23:01:41.23	88.12	33.28	-40.0	-41.1	21.6	0.00e+00	92	32	0	549453824	54	5787
2026-01-27 23:01:42.24	87.82	33.41	-39.9	-41.0	21.6	0.00e+00	6	32	0	551550976	54	5731
2026-01-27 23:01:43.25	87.52	33.54	-40.1	-41.3	21.4	0.00e+00	92	32	0	553648128	54	5909
2026-01-27 23:01:44.26	87.21	33.68	-40.3	-41.5	21.2	0.00e+00	92	32	0	555745280	54	6075
2026-01-27 23:01:45.27	86.90	33.81	-40.4	-41.6	21.0	0.00e+00	92	32	0	556793856	54	6155
2026-01-27 23:01:46.28	86.59	33.94	-40.5	-41.7	21.1	0.00e+00	91	32	0	558891008	54	6220
2026-01-27 23:01:47.29	86.28	34.07	-40.2	-41.4	21.4	0.00e+00	8	32	0	560988160	54	5976
2026-01-27 23:01:48.30	85.96	34.20	-40.0	-41.1	21.7	0.00e+00	92	32	0	563085312	54	5765
2026-01-27 23:01:49.31	85.64	34.34	-40.1	-41.3	21.5	0.00e+00	0	32	0	565182464	54	5901
2026-01-27 23:01:50.32	85.32	34.47	-40.4	-41.6	21.2	0.00e+00	90	32	0	566231040	54	6105
2026-01-27 23:01:51.33	85.00	34.60	-40.5	-41.7	21.0	0.00e+00	92	32	0	568328192	54	6196
2026-01-27 23:01:52.34	84.67	34.73	-40.7	-41.9	20.8	0.00e+00	92	32	0	570425344	54	6372
2026-01-27 23:01:53.35	84.34	34.86	-40.7	-41.9	20.9	0.00e+00	90	32	0	572522496	54	6347
2026-01-27 23:01:54.36	84.01	34.98	-40.5	-41.7	21.1	0.00e+00	0	32	0	574619648	54	6186
2026-01-27 23:01:55.37	83.67	35.11	-40.8	-42.1	20.8	0.00e+00	92	32	0	575668224	54	6511
2026-01-27 23:01:56.38	83.34	35.24	-40.8	-42.1	20.6	0.00e+00	0	32	0	577765376	54	6472
2026-01-27 23:01:57.39	83.00	35.37	-40.9	-42.1	20.6	0.00e+00	92	32	0	579862528	54	6535
2026-01-27 23:01:58.40	82.66	35.49	-41.1	-42.4	20.4	0.00e+00	92	32	0	581959680	54	6732
2026-01-27 23:01:59.41	82.31	35.62	-41.4	-42.8	20.0	0.00e+00	92	32	0	584056832	54	7009
2026-01-27 23:02:00.42	81.96	35.74	-41.6	-43.1	19.8	0.00e+00	92	32	0	585105408	54	7269
2026-01-27 23:02:01.43	81.61	35.87	-41.7	-43.1	19.7	0.00e+00	70	32	0	587202560	54	7307
2026-01-27 23:02:02.44	81.26	35.99	-41.7	-43.1	19.9	0.00e+00	92	32	0	589299712	56	6476
2026-01-27 23:02:03.45	80.90	36.11	-41.3	-42.6	20.2	0.00e+00	0	32	0	591396864	56	6124
2026-01-27 23:02:04.46	80.54	36.23	-41.5	-42.8	20.0	0.00e+00	92	32	0	593494016	56	6315
2026-01-27 23:02:05.47	80.18	36.35	-41.3	-42.6	20.3	0.00e+00	0	32	0	594542592	56	6117
2026-01-27 23:02:06.48	79.82	36.47	-41.4	-42.7	20.1	0.00e+00	92	32	0	596639744	56	6233
2026-01-27 23:02:07.49	79.45	36.59	-41.1	-42.4	20.5	0.00e+00	92	32	0	598736896	56	5993
2026-01-27 23:02:08.50	79.08	36.71	-41.0	-42.3	20.6	0.00e+00	92	32	0	600834048	56	5897
2026-01-27 23:02:09.51	78.71	36.83	-40.8	-42.0	20.8	0.00e+00	90	32	0	602931200	56	5755
2026-01-27 23:02:10.52	78.34	36.94	-40.3	-41.4	21.4	0.00e+00	7	32	0	605028352	54	6022
2026-01-27 23:02:11.53	77.96	37.06	-40.3	-41.4	21.3	0.00e+00	90	32	0	606076928	54	6011
2026-01-27 23:02:12.53	77.58	37.17	-40.4	-41.6	21.1	0.00e+00	7	32	0	608174080	54	6158
2026-01-27 23:02:13.54	77.20	37.28	-40.7	-42.0	20.8	0.00e+00	92	32	0	610271232	54	6397
2026-01-27 23:02:14.55	76.82	37.40	-40.6	-41.9	20.9	0.00e+00	92	32	0	612368384	54	6332
2026-01-27 23:02:15.56	76.43	37.51	-40.6	-41.8	21.1	0.00e+00	90	32	0	614465536	54	6280
2026-01-27 23:02:16.57	76.04	37.62	-40.4	-41.6	21.3	0.00e+00	92	32	0	615514112	54	6132
2026-01-27 23:02:17.58	75.64	37.72	-40.1	-41.3	21.4	0.00e+00	12	32	0	617611264	54	5938
2026-01-27 23:02:18.59	75.25	37.83	-40.2	-41.4	21.4	0.00e+00	90	32	0	619708416	54	5974
2026-01-27 23:02:19.60	74.85	37.94	-39.9	-41.0	21.8	0.00e+00	0	32	0	621805568	54	5711
2026-01-27 23:02:20.61	74.45	38.04	-39.3	-40.3	22.4	0.00e+00	92	32	0	623902720	52	5947
2026-01-27 23:02:21.62	74.05	38.15	-39.2	-40.2	22.5	0.00e+00	82	32	0	624951296	52	5873
2026-01-27 23:02:22.63	73.64	38.25	-39.0	-40.0	22.7	0.00e+00	92	32	0	627048448	52	5732
2026-01-27 23:02:23.64	73.23	38.35	-38.9	-39.8	22.8	0.00e+00	92	32	0	629145600	52	5628
2026-01-27 23:02:24.65	72.82	38.45	-38.9	-39.9	22.8	0.00e+00	33	32	0	631242752	52	5641
2026-01-27 23:02:25.66	72.41	38.55	-39.1	-40.1	22.7	0.00e+00	92	32	0	633339904	52	5790
2026-01-27 23:02:26.67	71.99	38.64	-38.8	-39.7	22.9	0.00e+00	0	32	0	634388480	52	5556
2026-01-27 23:02:27.68	71.57	38.74	-38.7	-39.7	23.0	0.00e+00	92	32	0	636485632	50	6217
2026-01-27 23:02:28.69	71.15	38.83	-38.7	-39.7	22.9	0.00e+00	86	32	0	638582784	50	6220
2026-01-27 23:02:29.70	70.73	38.92	-38.5	-39.5	23.0	0.00e+00	92	32	0	640679936	50	6064
2026-01-27 23:02:30.71	70.30	39.01	-38.4	-39.3	23.3	0.00e+00	91	32	0	642777088	50	5946
2026-01-27 23:02:31.72	69.87	39.10	-38.2	-39.1	23.5	0.00e+00	91	32	0	643825664	50	5793
2026-01-27 23:02:32.73	69.44	39.19	-38.0	-38.9	23.5	0.00e+00	90	32	0	645922816	50	5688
2026-01-27 23:02:33.74	69.01	39.28	-38.1	-39.0	23.7	0.00e+00	7	32	0	648019968	50	5705
2026-01-27 23:02:34.75	68.57	39.36	-37.9	-38.8	23.8	0.00e+00	91	32	0	650117120	50	5582
2026-01-27 23:02:35.76	68.14	39.44	-37.8	-38.6	23.8	0.00e+00	5	32	0	652214272	48	6173
2026-01-27 23:02:36.77	67.70	39.52	-37.6	-38.5	23.9	0.00e+00	91	32	0	653262848	48	6058
2026-01-27 23:02:37.78	67.25	39.60	-37.7	-38.5	24.0	0.00e+00	91	32	0	655360000	48	6096
2026-01-27 23:02:38.79	66.81	39.68	-37.7	-38.5	23.9	0.00e+00	92	32	0	657457152	48	6087
2026-01-27 23:02:39.80	66.37	39.75	-37.8	-38.7	23.9	0.00e+00	90	32	0	659554304	48	6178
2026-01-27 23:02:40.81	65.92	39.83	-37.8	-38.7	23.9	0.00e+00	69	32	0	661651456	48	6191
2026-01-27 23:02:41.82	65.47	39.90	-37.7	-38.6	24.0	0.00e+00	90	32	0	662700032	48	6134
2026-01-27 23:02:42.83	65.02	39.97	-37.6	-38.5	23.9	0.00e+00	9	32	0	664797184	48	6068
2026-01-27 23:02:43.84	64.56	40.04	-37.6	-38.5	24.0	0.00e+00	92	32	0	666894336	48	6054
2026-01-27 23:02:44.85	64.11	40.10	-37.7	-38.6	23.9	0.00e+00	53	32	0	668991488	48	6111
2026-01-27 23:02:45.86	63.65	40.17	-37.6	-38.5	24.0	0.00e+00	90	32	0	671088640	48	6051
2026-01-27 23:02:46.87	63.19	40.23	-37.4	-38.3	24.1	0.00e+00	92	32	0	673185792	48	5939
2026-01-27 23:02:47.88	62.73	40.29	-37.1	-38.0	24.5	0.00e+00	82	32	0	674234368	48	5710
2026-01-27 23:02:48.89	62.26	40.35	-36.9	-37.8	24.6	0.00e+00	92	32	0	676331520	48	5568
2026-01-27 23:02:49.90	61.80	40.40	-36.9	-37.7	24.6	0.00e+00	3	32	0	678428672	48	5542
2026-01-27 23:02:50.91	61.33	40.46	-37.2	-38.0	24.4	0.00e+00	92	32	0	680525824	48	5722
2026-01-27 23:02:51.92	60.87	40.51	-37.4	-38.2	24.2	0.00e+00	87	32	0	682622976	48	5866
2026-01-27 23:02:52.93	60.40	40.56	-37.4	-38.3	24.1	0.00e+00	92	32	0	683671552	48	5915
2026-01-27 23:02:53.93	59.93	40.61	-37.4	-38.3	24.2	0.00e+00	92	32	0	685768704	48	5914
2026-01-27 23:02:54.94	59.46	40.65	-37.5	-38.3	24.1	0.00e+00	52	32	0	687865856	48	5959
2026-01-27 23:02:55.95	58.99	40.69	-37.3	-38.1	24.3	0.00e+00	92	32	0	689963008	48	5815
2026-01-27 23:02:56.96	58.51	40.74	-37.1	-38.0	24.4	0.00e+00	10	32	0	692060160	48	5699
2026-01-27 23:02:57.97	58.04	40.77	-37.0	-37.8	24.5	0.00e+00	92	32	0	693108736	48	5627
2026-01-27 23:02:58.98	57.56	40.81	-37.3	-38.1	24.4	0.00e+00	0	32	0	695205888	48	5791
2026-01-27 23:02:59.99	57.08	40.85	-37.4	-38.2	24.2	0.00e+00	92	32	0	697303040	48	5868
2026-01-27 23:03:01.00	56.61	40.88	-37.2	-38.1	24.4	0.00e+00	92	32	0	699400192	48	5763
2026-01-27 23:03:02.01	56.13	40.91	-37.4	-38.2	24.2	0.00e+00	32	32	0	701497344	48	5859
2026-01-27 23:03:03.02	55.65	40.94	-37.4	-38.3	24.1	0.00e+00	92	32	0	702545920	48	5912
2026-01-27 23:03:04.03	55.17	40.96	-37.6	-38.5	23.8	0.00e+00	78	32	0	704643072	48	6043
2026-01-27 23:03:05.03	54.69	40.98	-37.4	-38.3	24.1	0.00e+00	90	32	0	706740224	48	5928
2026-01-27 23:03:06.04	54.21	41.00	-37.5	-38.3	24.1	0.00e+00	16	32	0	708837376	48	5940
2026-01-27 23:03:07.05	53.72	41.02	-37.6	-38.5	24.0	0.00e+00	92	32	0	710934528	48	6067
2026-01-27 23:03:08.06	53.24	41.04	-38.0	-39.0	23.5	0.00e+00	91	32	0	711983104	48	6391
2026-01-27 23:03:09.07	52.76	41.05	-38.5	-39.5	23.1	0.00e+00	92	32	0	714080256	48	6789
2026-01-27 23:03:10.08	52.27	41.07	-38.8	-39.8	23.0	0.00e+00	91	32	0	716177408	50	6246
2026-01-27 23:03:11.09	51.79	41.07	-38.8	-39.7	23.0	0.00e+00	0	32	0	718274560	50	6245
2026-01-27 23:03:12.10	51.30	41.08	-38.7	-39.7	22.8	0.00e+00	92	32	0	720371712	50	6209
2026-01-27 23:03:13.11	50.82	41.09	-38.9	-39.8	22.8	0.00e+00	0	32	0	721420288	50	6305
2026-01-27 23:03:14.12	50.33	41.09	-39.0	-40.0	22.6	0.00e+00	90	32	0	723517440	50	6429
2026-01-27 23:03:15.13	49.85	41.09	-39.1	-40.1	22.5	0.00e+00	89	32	0	725614592	50	6527
2026-01-27 23:03:16.14	49.36	41.09	-39.4	-40.4	22.2	0.00e+00	0	32	0	727711744	50	6757
2026-01-27 23:03:17.15	48.88	41.08	-39.4	-40.4	22.3	0.00e+00	92	32	0	729808896	50	6752
2026-01-27 23:03:18.15	48.40	41.08	-39.5	-40.5	22.2	0.00e+00	16	32	0	730857472	50	6834
2026-01-27 23:03:19.17	47.91	41.07	-39.6	-40.7	21.8	0.00e+00	92	32	0	732954624	50	6973
2026-01-27 23:03:20.18	47.42	41.05	-40.1	-41.3	21.5	0.00e+00	14	32	0	735051776	52	6625
2026-01-27 23:03:21.19	46.94	41.04	-40.6	-41.9	21.0	0.00e+00	90	32	0	737148928	52	7091
2026-01-27 23:03:22.19	46.46	41.02	-40.5	-41.7	21.1	0.00e+00	7	32	0	739246080	52	6976
2026-01-27 23:03:23.20	45.98	41.01	-40.4	-41.5	21.4	0.00e+00	40	32	0	741343232	52	6815
2026-01-27 23:03:24.22	45.49	40.99	-40.1	-41.3	21.5	0.00e+00	92	32	0	742391808	52	6632
2026-01-27 23:03:25.22	45.01	40.96	-40.1	-41.3	21.4	0.00e+00	12	32	0	744488960	52	6629
2026-01-27 23:03:26.23	44.53	40.94	-40.6	-41.8	20.9	0.00e+00	92	32	0	746586112	52	7067
2026-01-27 23:03:27.24	44.05	40.91	-41.3	-42.7	20.0	0.00e+00	80	32	0	748683264	54	6960
2026-01-27 23:03:28.25	43.57	40.88	-41.8	-43.3	19.6	0.00e+00	92	32	0	750780416	54	7446
2026-01-27 23:03:29.26	43.09	40.85	-42.4	-44.0	19.0	0.00e+00	0	32	0	751828992	56	7228
2026-01-27 23:03:30.27	42.62	40.81	-42.3	-43.9	19.0	0.00e+00	92	32	0	753926144	56	7142
2026-01-27 23:03:31.28	42.14	40.78	-42.0	-43.5	19.4	0.00e+00	92	32	0	756023296	56	6826
2026-01-27 23:03:32.29	41.67	40.74	-42.1	-43.6	19.3	0.00e+00	78	32	0	758120448	56	6902
2026-01-27 23:03:33.30	41.19	40.70	-42.1	-43.7	19.3	0.00e+00	92	32	0	759169024	56	6943
2026-01-27 23:03:34.31	40.72	40.65	-42.2	-43.8	19.1	0.00e+00	0	32	0	761266176	56	7015
2026-01-27 23:03:35.32	40.25	40.61	-42.1	-43.6	19.3	0.00e+00	92	32	0	763363328	56	6884
2026-01-27 23:03:36.33	39.78	40.56	-42.0	-43.5	19.5	0.00e+00	0	32	0	765460480	56	6780
2026-01-27 23:03:37.33	39.31	40.51	-41.9	-43.3	19.5	0.00e+00	92	32	0	767557632	56	6687
2026-01-27 23:03:38.35	38.84	40.46	-41.9	-43.4	19.5	0.00e+00	1	32	0	769654784	56	6748
2026-01-27 23:03:39.36	38.38	40.41	-42.3	-43.8	19.2	0.00e+00	0	32	0	770703360	56	7070
2026-01-27 23:03:40.37	37.91	40.35	-42.1	-43.6	19.3	0.00e+00	88	32	0	772800512	56	6889
2026-01-27 23:03:41.38	37.45	40.29	-41.4	-42.8	20.1	0.00e+00	17	32	0	774897664	56	6282
2026-01-27 23:03:42.39	36.99	40.23	-40.6	-41.8	21.0	0.00e+00	92	32	0	776994816	54	6268
2026-01-27 23:03:43.40	36.53	40.17	-40.1	-41.2	21.4	0.00e+00	0	32	0	779091968	54	5892
2026-01-27 23:03:44.40	36.08	40.11	-39.3	-40.4	22.2	0.00e+00	92	32	0	780140544	52	5981
2026-01-27 23:03:45.41	35.62	40.04	-39.1	-40.1	22.5	0.00e+00	0	32	0	782237696	52	5801
2026-01-27 23:03:46.42	35.17	39.98	-38.8	-39.8	22.8	0.00e+00	92	32	0	784334848	52	5603
2026-01-27 23:03:47.43	34.72	39.91	-39.1	-40.1	22.8	0.00e+00	92	32	0	786432000	50	6489
2026-01-27 23:03:48.44	34.27	39.84	-38.9	-39.9	23.0	0.00e+00	67	32	0	788529152	50	6330
2026-01-27 23:03:49.45	33.82	39.76	-38.4	-39.4	23.2	0.00e+00	92	32	0	789577728	50	5975
2026-01-27 23:03:50.46	33.38	39.69	-38.1	-39.0	23.6	0.00e+00	67	32	0	791674880	50	5747
2026-01-27 23:03:51.47	32.93	39.61	-37.8	-38.7	23.9	0.00e+00	92	32	0	793772032	48	6175
2026-01-27 23:03:52.48	32.49	39.53	-37.1	-37.9	24.3	0.00e+00	0	32	0	795869184	48	5687
2026-01-27 23:03:53.49	32.05	39.45	-36.9	-37.7	24.6	0.00e+00	90	32	0	797966336	48	5535
2026-01-27 23:03:54.50	31.61	39.37	-37.0	-37.8	24.5	0.00e+00	92	32	0	799014912	48	5615
2026-01-27 23:03:55.51	31.18	39.29	-37.0	-37.8	24.4	0.00e+00	0	32	0	801112064	48	5630
2026-01-27 23:03:56.52	30.75	39.20	-37.1	-37.9	24.5	0.00e+00	92	32	0	803209216	48	5656
2026-01-27 23:03:57.53	30.32	39.11	-36.9	-37.7	24.6	0.00e+00	0	32	0	805306368	48	5538
2026-01-27 23:03:58.54	29.89	39.02	-36.8	-37.6	24.7	0.00e+00	92	32	0	807403520	48	5452
2026-01-27 23:03:59.55	29.47	38.93	-36.5	-37.3	24.9	0.00e+00	13	32	0	809500672	46	5932
2026-01-27 23:04:00.56	29.04	38.84	-36.3	-37.1	25.0	0.00e+00	92	32	0	810549248	46	5799
2026-01-27 23:04:01.57	28.62	38.75	-36.2	-36.9	25.2	0.00e+00	26	32	0	812646400	46	5687
2026-01-27 23:04:02.58	28.20	38.65	-36.2	-36.9	25.2	0.00e+00	0	32	0	814743552	46	5688
2026-01-27 23:04:03.59	27.79	38.56	-36.2	-37.0	24.9	0.00e+00	91	32	0	816840704	46	5747
2026-01-27 23:04:04.60	27.37	38.46	-36.5	-37.3	24.9	0.00e+00	68	32	0	818937856	46	5912
2026-01-27 23:04:05.61	26.96	38.36	-36.4	-37.2	25.0	0.00e+00	91	32	0	819986432	46	5887
2026-01-27 23:04:06.62	26.56	38.26	-36.2	-37.0	25.1	0.00e+00	13	32	0	822083584	46	5716
2026-01-27 23:04:07.63	26.15	38.16	-36.4	-37.2	25.0	0.00e+00	92	32	0	824180736	46	5860
2026-01-27 23:04:08.64	25.75	38.06	-36.3	-37.0	25.2	0.00e+00	13	32	0	826277888	46	5752
2026-01-27 23:04:09.65	25.35	37.95	-36.3	-37.1	25.1	0.00e+00	91	32	0	828375040	46	5766
2026-01-27 23:04:10.66	24.95	37.85	-36.4	-37.2	25.0	0.00e+00	91	32	0	829423616	46	5856
2026-01-27 23:04:11.67	24.55	37.74	-36.7	-37.5	24.8	0.00e+00	0	32	0	831520768	46	6044
2026-01-27 23:04:12.68	24.16	37.63	-36.7	-37.5	24.6	0.00e+00	92	32	0	833617920	46	6097
2026-01-27 23:04:13.69	23.77	37.52	-36.8	-37.6	24.5	0.00e+00	67	32	0	835715072	46	6157
2026-01-27 23:04:14.70	23.38	37.41	-36.9	-37.7	24.5	0.00e+00	92	32	0	837812224	46	6208
2026-01-27 23:04:15.71	23.00	37.30	-36.9	-37.7	24.4	0.00e+00	0	32	0	838860800	46	6208
2026-01-27 23:04:16.72	22.62	37.19	-36.9	-37.7	24.6	0.00e+00	92	32	0	840957952	46	6192
2026-01-27 23:04:17.73	22.24	37.07	-37.0	-37.8	24.4	0.00e+00	74	32	0	843055104	46	6277
2026-01-27 23:04:18.74	21.86	36.96	-37.1	-38.0	24.4	0.00e+00	0	32	0	845152256	46	6424
2026-01-27 23:04:19.75	21.49	36.84	-37.3	-38.1	24.2	0.00e+00	92	32	0	847249408	46	6529
2026-01-27 23:04:20.76	21.12	36.73	-37.5	-38.3	24.0	0.00e+00	7	32	0	848297984	46	6674
2026-01-27 23:04:21.77	20.75	36.61	-37.2	-38.1	24.3	0.00e+00	92	32	0	850395136	46	6473
2026-01-27 23:04:22.78	20.38	36.49	-36.8	-37.6	24.6	0.00e+00	13	32	0	852492288	46	6153
2026-01-27 23:04:23.79	20.02	36.37	-37.0	-37.8	24.5	0.00e+00	90	32	0	854589440	46	6311
2026-01-27 23:04:24.80	19.66	36.25	-37.1	-37.9	24.2	0.00e+00	92	32	0	856686592	46	6387
2026-01-27 23:04:25.81	19.30	36.13	-37.4	-38.2	24.1	0.00e+00	0	32	0	857735168	46	6605
2026-01-27 23:04:26.82	18.95	36.01	-37.5	-38.4	23.9	0.00e+00	91	32	0	859832320	46	6699
2026-01-27 23:04:27.83	18.59	35.89	-37.4	-38.2	24.2	0.00e+00	11	32	0	861929472	46	6576
2026-01-27 23:04:28.84	18.24	35.76	-37.4	-38.3	23.9	0.00e+00	92	32	0	864026624	46	6660
2026-01-27 23:04:29.85	17.90	35.64	-37.4	-38.2	24.3	0.00e+00	73	32	0	866123776	46	6585
2026-01-27 23:04:30.86	17.55	35.51	-37.4	-38.3	24.1	0.00e+00	92	32	0	867172352	46	6624
2026-01-27 23:04:31.87	17.21	35.39	-37.6	-38.5	23.9	0.00e+00	5	32	0	869269504	46	6795
2026-01-27 23:04:32.88	16.87	35.26	-37.8	-38.7	23.7	0.00e+00	90	32	0	871366656	48	6209
2026-01-27 23:04:33.88	16.54	35.14	-38.0	-38.9	23.4	0.00e+00	92	32	0	873463808	48	6333
2026-01-27 23:04:34.89	16.20	35.01	-38.1	-39.0	23.4	0.00e+00	71	32	0	875560960	48	6421
2026-01-27 23:04:35.90	15.87	34.88	-38.3	-39.2	23.2	0.00e+00	92	32	0	877658112	48	6573
2026-01-27 23:04:36.91	15.54	34.75	-38.5	-39.5	23.1	0.00e+00	0	32	0	878706688	48	6770
2026-01-27 23:04:37.92	15.22	34.62	-38.6	-39.6	22.9	0.00e+00	91	32	0	880803840	50	6135
2026-01-27 23:04:38.93	14.89	34.49	-38.9	-39.8	22.8	0.00e+00	5	32	0	882900992	50	6308
2026-01-27 23:04:39.94	14.57	34.36	-39.1	-40.1	22.5	0.00e+00	92	32	0	884998144	50	6531
2026-01-27 23:04:40.95	14.26	34.23	-39.0	-40.0	22.6	0.00e+00	91	32	0	886046720	50	6417
2026-01-27 23:04:41.96	13.94	34.10	-39.2	-40.2	22.5	0.00e+00	14	32	0	888143872	50	6595
2026-01-27 23:04:42.97	13.63	33.97	-39.2	-40.2	22.3	0.00e+00	92	32	0	890241024	50	6591
2026-01-27 23:04:43.98	13.32	33.84	-39.0	-40.0	22.5	0.00e+00	14	32	0	892338176	50	6446
2026-01-27 23:04:44.99	13.01	33.71	-39.1	-40.2	22.4	0.00e+00	92	32	0	894435328	50	6550
2026-01-27 23:04:46.00	12.70	33.57	-39.5	-40.6	22.2	0.00e+00	13	32	0	896532480	50	6867
2026-01-27 23:04:47.01	12.40	33.44	-39.7	-40.8	21.8	0.00e+00	95	32	0	897581056	50	7055
2026-01-27 23:04:48.02	12.10	33.31	-40.0	-41.2	21.5	0.00e+00	20	32	0	899678208	52	6556
2026-01-27 23:04:49.03	11.80	33.17	-40.1	-41.2	21.1	0.00e+00	68	32	0	901775360	52	6604
2026-01-27 23:04:50.04	11.51	33.04	-40.2	-41.4	21.3	0.00e+00	92	32	0	903872512	52	6699
2026-01-27 23:04:51.05	11.21	32.91	-40.1	-41.2	21.5	0.00e+00	0	32	0	905969664	52	6550
2026-01-27 23:04:52.06	10.92	32.77	-40.2	-41.3	21.3	0.00e+00	92	32	0	907018240	52	6652
2026-01-27 23:04:53.07	10.63	32.64	-40.4	-41.5	21.2	0.00e+00	69	32	0	909115392	52	6843
2026-01-27 23:04:54.08	10.35	32.50	-40.4	-41.6	21.1	0.00e+00	92	32	0	911212544	52	6864
2026-01-27 23:04:55.09	10.06	32.37	-40.6	-41.8	20.8	0.00e+00	0	32	0	913309696	52	7075
2026-01-27 23:04:56.10	9.78	32.23	-40.7	-42.0	20.8	0.00e+00	2	32	0	915406848	54	6395
2026-01-27 23:04:57.11	9.51	32.10	-40.7	-41.9	21.0	0.00e+00	90	32	0	916455424	54	6328
2026-01-27 23:04:58.12	9.23	31.96	-40.4	-41.6	21.2	0.00e+00	2	32	0	918552576	54	6156
2026-01-27 23:04:59.13	8.95	31.82	-40.7	-41.9	20.9	0.00e+00	92	32	0	920649728	54	6334
2026-01-27 23:05:00.14	8.68	31.69	-40.9	-42.2	20.5	0.00e+00	0	32	0	922746880	54	6583
2026-01-27 23:05:01.15	8.41	31.55	-41.1	-42.4	20.3	0.00e+00	92	32	0	924844032	54	6753
2026-01-27 23:05:02.16	8.15	31.42	-41.0	-42.3	20.4	0.00e+00	0	32	0	925892608	54	6667
2026-01-27 23:05:03.17	7.88	31.28	-41.0	-42.2	20.5	0.00e+00	82	32	0	927989760	54	6614
2026-01-27 23:05:04.18	7.62	31.14	-40.6	-41.8	21.0	0.00e+00	90	32	0	930086912	54	6281
2026-01-27 23:05:05.19	7.36	31.01	-40.6	-41.8	21.0	0.00e+00	12	32	0	932184064	54	6304
2026-01-27 23:05:06.20	7.10	30.87	-40.6	-41.8	20.9	0.00e+00	92	32	0	934281216	54	6265
2026-01-27 23:05:07.21	6.84	30.74	-40.7	-41.9	20.8	0.00e+00	0	32	0	935329792	54	6363
2026-01-27 23:05:08.22	6.59	30.60	-40.4	-41.7	21.1	0.00e+00	92	32	0	937426944	54	6191
2026-01-27 23:05:09.23	6.34	30.46	-40.3	-41.5	21.3	0.00e+00	12	32	0	939524096	54	6093
2026-01-27 23:05:10.24	6.09	30.33	-40.3	-41.4	21.4	0.00e+00	92	32	0	941621248	54	6021
2026-01-27 23:05:11.25	5.84	30.19	-40.2	-41.4	21.4	0.00e+00	0	32	0	943718400	54	6001
2026-01-27 23:05:12.26	5.60	30.05	-40.0	-41.1	21.7	0.00e+00	71	32	0	945815552	54	5781
2026-01-27 23:05:13.27	5.35	29.92	-40.0	-41.1	21.7	0.00e+00	91	32	0	946864128	54	5800
2026-01-27 23:05:14.28	5.11	29.78	-39.8	-40.8	21.9	0.00e+00	69	32	0	948961280	52	6303
2026-01-27 23:05:15.29	4.87	29.65	-40.0	-41.1	21.7	0.00e+00	90	32	0	951058432	52	6467
2026-01-27 23:05:16.30	4.64	29.51	-39.8	-40.8	22.0	0.00e+00	0	32	0	953155584	52	6305
2026-01-27 23:05:17.31	4.40	29.38	-39.5	-40.6	22.2	0.00e+00	90	32	0	955252736	52	6147
2026-01-27 23:05:18.32	4.17	29.24	-39.3	-40.3	22.4	0.00e+00	0	32	0	956301312	52	5943
2026-01-27 23:05:19.33	3.94	29.10	-39.3	-40.4	22.3	0.00e+00	0	32	0	958398464	52	5996
2026-01-27 23:05:20.34	3.71	28.97	-39.2	-40.3	22.4	0.00e+00	92	32	0	960495616	52	5911
2026-01-27 23:05:21.35	3.48	28.83	-39.1	-40.1	22.5	0.00e+00	12	32	0	962592768	52	5819
2026-01-27 23:05:22.36	3.26	28.70	-39.0	-40.0	22.6	0.00e+00	92	32	0	964689920	52	5714
2026-01-27 23:05:23.37	3.03	28.56	-39.2	-40.2	22.4	0.00e+00	0	32	0	965738496	52	5891
2026-01-27 23:05:24.38	2.81	28.43	-39.0	-40.0	22.6	0.00e+00	92	32	0	967835648	52	5721
2026-01-27 23:05:25.39	2.59	28.29	-38.8	-39.8	22.8	0.00e+00	2	32	0	969932800	52	5577
2026-01-27 23:05:26.40	2.37	28.16	-38.7	-39.7	22.9	0.00e+00	87	32	0	972029952	50	6213
2026-01-27 23:05:27.41	2.16	28.03	-38.6	-39.6	23.0	0.00e+00	90	32	0	974127104	50	6115
2026-01-27 23:05:28.42	1.94	27.89	-38.7	-39.6	22.7	0.00e+00	68	32	0	975175680	50	6168
2026-01-27 23:05:29.43	1.73	27.76	-38.4	-39.4	23.1	0.00e+00	92	32	0	977272832	50	5978
2026-01-27 23:05:30.44	1.52	27.63	-38.6	-39.5	23.0	0.00e+00	4	32	0	979369984	50	6078
2026-01-27 23:05:31.45	1.31	27.49	-38.5	-39.5	23.1	0.00e+00	92	32	0	981467136	50	6050
2026-01-27 23:05:32.46	1.11	27.36	-38.6	-39.6	23.0	0.00e+00	69	32	0	983564288	50	6117
2026-01-27 23:05:33.47	0.90	27.23	-38.5	-39.5	23.0	0.00e+00	92	32	0	984612864	50	6068
2026-01-27 23:05:34.48	0.70	27.09	-38.4	-39.3	23.1	0.00e+00	68	32	0	986710016	50	5963
2026-01-27 23:05:35.49	0.50	26.96	-38.4	-39.4	23.1	0.00e+00	0	32	0	988807168	50	5979
2026-01-27 23:05:36.50	0.30	26.83	-38.3	-39.3	23.1	0.00e+00	91	32	0	990904320	50	5907
2026-01-27 23:05:37.51	0.10	26.70	-38.4	-39.4	23.1	0.00e+00	0	32	0	993001472	50	5998
2026-01-27 23:05:38.52	359.90	26.57	-38.5	-39.5	22.9	0.00e+00	91	32	0	994050048	50	6046
2026-01-27 23:05:39.53	359.71	26.43	-38.7	-39.7	22.9	0.00e+00	0	32	0	996147200	50	6206
2026-01-27 23:05:40.54	359.51	26.30	-38.9	-40.0	22.5	0.00e+00	92	32	0	998244352	50	6406
2026-01-27 23:05:41.55	359.32	26.17	-39.1	-40.2	22.3	0.00e+00	11	32	0	1000341504	50	6561
2026-01-27 23:05:42.56	359.13	26.04	-38.8	-39.8	22.7	0.00e+00	11	32	0	1002438656	50	6288
2026-01-27 23:05:43.57	358.94	25.91	-38.8	-39.8	22.7	0.00e+00	90	32	0	1003487232	50	6306
2026-01-27 23:05:44.58	358.76	25.78	-38.7	-39.7	22.8	0.00e+00	0	32	0	1005584384	50	6223
2026-01-27 23:05:45.59	358.57	25.65	-38.8	-39.8	22.8	0.00e+00	92	32	0	1007681536	50	6255
2026-01-27 23:05:46.60	358.39	25.52	-38.5	-39.5	23.0	0.00e+00	0	32	0	1009778688	50	6068
2026-01-27 23:05:47.60	358.21	25.39	-38.5	-39.5	23.1	0.00e+00	0	32	0	1011875840	50	6045
2026-01-27 23:05:48.62	358.02	25.26	-38.4	-39.4	23.1	0.00e+00	0	32	0	1013972992	50	5995
2026-01-27 23:05:49.62	357.85	25.14	-38.4	-39.3	23.2	0.00e+00	70	32	0	1015021568	50	5954
2026-01-27 23:05:50.63	357.67	25.01	-38.4	-39.3	23.1	0.00e+00	92	32	0	1017118720	50	5947
2026-01-27 23:05:51.64	357.49	24.88	-38.5	-39.4	23.1	0.00e+00	70	32	0	1019215872	50	6020
2026-01-27 23:05:52.65	357.32	24.75	-38.6	-39.7	22.9	0.00e+00	92	32	0	1021313024	50	6178
2026-01-27 23:05:53.67	357.14	24.63	-38.6	-39.6	22.8	0.00e+00	6	32	0	1023410176	50	6155
2026-01-27 23:05:54.67	356.97	24.50	-38.8	-39.8	22.7	0.00e+00	0	32	0	1024458752	50	6313
2026-01-27 23:05:55.68	356.80	24.37	-38.9	-39.9	22.6	0.00e+00	0	32	0	1026555904	50	6354
2026-01-27 23:05:56.69	356.63	24.25	-39.0	-40.0	22.5	0.00e+00	70	32	0	1028653056	50	6419
2026-01-27 23:05:57.70	356.46	24.12	-38.9	-39.9	22.5	0.00e+00	91	32	0	1030750208	50	6371
2026-01-27 23:05:58.71	356.30	24.00	-39.0	-40.0	22.6	0.00e+00	7	32	0	1032847360	50	6398
2026-01-27 23:05:59.72	356.13	23.87	-38.8	-39.9	22.7	0.00e+00	92	32	0	1033895936	50	6319
2026-01-27 23:06:00.73	355.97	23.75	-38.9	-39.9	22.6	0.00e+00	6	32	0	1035993088	50	6384
2026-01-27 23:06:01.74	355.81	23.62	-38.7	-39.7	22.8	0.00e+00	92	32	0	1038090240	50	6207
2026-01-27 23:06:02.75	355.64	23.50	-38.7	-39.6	22.9	0.00e+00	5	32	0	1040187392	50	6173
2026-01-27 23:06:03.76	355.48	23.37	-38.6	-39.6	22.8	0.00e+00	7	32	0	1042284544	50	6128
2026-01-27 23:06:04.77	355.33	23.25	-38.7	-39.7	22.8	0.00e+00	0	32	0	1043333120	50	6216
2026-01-27 23:06:05.78	355.17	23.13	-38.6	-39.6	22.9	0.00e+00	5	32	0	1045430272	50	6170
2026-01-27 23:06:06.79	355.01	23.00	-38.6	-39.7	22.8	0.00e+00	92	32	0	1047527424	50	6175
2026-01-27 23:06:07.80	354.86	22.88	-38.5	-39.5	22.9	0.00e+00	6	32	0	1049624576	50	6088
2026-01-27 23:06:08.80	354.70	22.76	-38.5	-39.5	22.9	0.00e+00	93	32	0	1051721728	50	6087
2026-01-27 23:06:09.81	354.55	22.64	-38.5	-39.5	23.0	0.00e+00	5	32	0	1052770304	50	6058
2026-01-27 23:06:10.82	354.40	22.52	-38.5	-39.5	23.0	0.00e+00	77	32	0	1054867456	50	6042
2026-01-27 23:06:11.83	354.25	22.40	-38.6	-39.6	23.0	0.00e+00	6	32	0	1056964608	50	6136
2026-01-27 23:06:12.84	354.10	22.28	-38.7	-39.7	22.8	0.00e+00	10	32	0	1059061760	50	6230
2026-01-27 23:06:13.85	353.95	22.16	-38.7	-39.7	22.8	0.00e+00	91	32	0	1061158912	50	6198
2026-01-27 23:06:14.86	353.81	22.04	-38.9	-39.9	22.6	0.00e+00	0	32	0	1062207488	50	6352
2026-01-27 23:06:15.87	353.66	21.92	-38.9	-39.9	22.5	0.00e+00	90	32	0	1064304640	50	6345
2026-01-27 23:06:16.88	353.52	21.80	-38.8	-39.8	22.7	0.00e+00	76	32	0	1066401792	50	6308
2026-01-27 23:06:17.89	353.38	21.68	-38.9	-39.9	22.6	0.00e+00	0	32	0	1068498944	50	6362
2026-01-27 23:06:18.90	353.23	21.56	-38.9	-39.9	22.5	0.00e+00	0	32	0	1070596096	50	6368
2026-01-27 23:06:19.91	353.09	21.44	-38.8	-39.8	22.6	0.00e+00	6	32	0	1071644672	50	6296
2026-01-27 23:06:20.92	352.95	21.32	-39.0	-40.0	22.5	0.00e+00	81	32	0	1073741824	50	6415
2026-01-27 23:06:21.93	352.81	21.21	-38.8	-39.8	22.6	0.00e+00	0	32	0	1075838976	50	6299
2026-01-27 23:06:22.94	352.68	21.09	-39.0	-40.0	22.5	0.00e+00	92	32	0	1077936128	50	6444
2026-01-27 23:06:23.95	352.54	20.97	-38.8	-39.8	22.6	0.00e+00	6	32	0	1080033280	50	6312
2026-01-27 23:06:24.95	352.41	20.86	-38.8	-39.9	22.6	0.00e+00	10	32	0	1082130432	50	6330
2026-01-27 23:06:25.96	352.27	20.74	-38.9	-39.9	22.6	0.00e+00	8	32	0	1083179008	50	6359
2026-01-27 23:06:26.97	352.14	20.63	-38.9	-39.9	22.6	0.00e+00	6	32	0	1085276160	50	6365
2026-01-27 23:06:27.98	352.01	20.51	-38.7	-39.7	22.7	0.00e+00	0	32	0	1087373312	50	6233
2026-01-27 23:06:28.99	351.87	20.40	-38.8	-39.9	22.5	0.00e+00	10	32	0	1089470464	50	6334
2026-01-27 23:06:30.00	351.74	20.28	-38.7	-39.7	22.7	0.00e+00	90	32	0	1091567616	50	6235
2026-01-27 23:06:31.01	351.61	20.17	-38.6	-39.6	22.9	0.00e+00	73	32	0	1092616192	50	6135
2026-01-27 23:06:32.02	351.49	20.05	-38.6	-39.6	22.8	0.00e+00	92	32	0	1094713344	50	6113
2026-01-27 23:06:33.03	351.36	19.94	-38.8	-39.8	22.7	0.00e+00	11	32	0	1096810496	50	6267
2026-01-27 23:06:34.04	351.23	19.83	-38.7	-39.7	22.7	0.00e+00	8	32	0	1098907648	50	6228
2026-01-27 23:06:35.05	351.11	19.72	-38.8	-39.8	22.7	0.00e+00	0	32	0	1101004800	50	6261
2026-01-27 23:06:36.06	350.98	19.60	-38.7	-39.7	22.7	0.00e+00	0	32	0	1102053376	50	6228
2026-01-27 23:06:37.07	350.86	19.49	-38.9	-39.9	22.6	0.00e+00	92	32	0	1104150528	50	6346
2026-01-27 23:06:38.08	350.74	19.38	-38.9	-39.9	22.5	0.00e+00	0	32	0	1106247680	50	6344
2026-01-27 23:06:39.09	350.61	19.27	-38.8	-39.8	22.6	0.00e+00	91	32	0	1108344832	50	6297
2026-01-27 23:06:40.10	350.49	19.16	-38.8	-39.8	22.6	0.00e+00	0	32	0	1110441984	50	6282
2026-01-27 23:06:41.11	350.37	19.05	-38.8	-39.8	22.7	0.00e+00	23	32	0	1111490560	50	6253
2026-01-27 23:06:42.12	350.25	18.94	-38.8	-39.8	22.8	0.00e+00	0	32	0	1113587712	50	6279
2026-01-27 23:06:43.13	350.14	18.83	-38.8	-39.9	22.7	0.00e+00	0	32	0	1115684864	50	6319
2026-01-27 23:06:44.14	350.02	18.72	-38.6	-39.6	22.9	0.00e+00	0	32	0	1117782016	50	6136
2026-01-27 23:06:45.15	349.90	18.61	-38.6	-39.6	22.8	0.00e+00	8	32	0	1119879168	50	6159
2026-01-27 23:06:46.16	349.79	18.50	-38.6	-39.6	22.8	0.00e+00	92	32	0	1120927744	50	6132
2026-01-27 23:06:47.17	349.67	18.39	-38.5	-39.5	22.9	0.00e+00	8	32	0	1123024896	50	6043
2026-01-27 23:06:48.18	349.56	18.28	-38.5	-39.5	22.9	0.00e+00	90	32	0	1125122048	50	6057
2026-01-27 23:06:49.19	349.44	18.18	-38.6	-39.6	22.8	0.00e+00	9	32	0	1127219200	50	6117
2026-01-27 23:06:50.20	349.33	18.07	-38.6	-39.6	22.8	0.00e+00	75	32	0	1129316352	50	6172
2026-01-27 23:06:51.21	349.22	17.96	-38.7	-39.7	22.8	0.00e+00	0	32	0	1130364928	50	6175
2026-01-27 23:06:52.22	349.11	17.86	-38.6	-39.6	22.8	0.00e+00	72	32	0	1132462080	50	6139
2026-01-27 23:06:53.23	349.00	17.75	-38.7	-39.7	22.6	0.00e+00	92	32	0	1134559232	50	6239
2026-01-27 23:06:54.24	348.89	17.64	-39.0	-40.0	22.5	0.00e+00	8	32	0	1136656384	50	6447
2026-01-27 23:06:55.25	348.78	17.54	-39.0	-40.0	22.4	0.00e+00	92	32	0	1138753536	50	6454
2026-01-27 23:06:56.26	348.68	17.43	-39.1	-40.2	22.2	0.00e+00	0	32	0	1139802112	50	6592
2026-01-27 23:06:57.27	348.57	17.33	-39.1	-40.2	22.3	0.00e+00	0	32	0	1141899264	50	6544
2026-01-27 23:06:58.28	348.46	17.22	-39.2	-40.3	22.2	0.00e+00	72	32	0	1143996416	50	6630
2026-01-27 23:06:59.28	348.36	17.12	-39.1	-40.2	22.2	0.00e+00	0	32	0	1146093568	50	6578
2026-01-27 23:07:00.29	348.25	17.02	-39.2	-40.3	22.1	0.00e+00	90	32	0	1148190720	50	6644
2026-01-27 23:07:01.31	348.15	16.91	-39.3	-40.4	22.1	0.00e+00	2	32	0	1150287872	50	6711
2026-01-27 23:07:02.31	348.05	16.81	-39.3	-40.4	22.0	0.00e+00	92	32	0	1151336448	50	6721
2026-01-27 23:07:03.32	347.95	16.71	-39.3	-40.4	22.1	0.00e+00	0	32	0	1153433600	50	6704
2026-01-27 23:07:04.33	347.84	16.60	-39.2	-40.3	22.1	0.00e+00	85	32	0	1155530752	50	6621
2026-01-27 23:07:05.34	347.74	16.50	-39.3	-40.4	22.0	0.00e+00	0	32	0	1157627904	50	6715
2026-01-27 23:07:06.35	347.64	16.40	-39.2	-40.2	22.2	0.00e+00	0	32	0	1159725056	50	6601
2026-01-27 23:07:07.36	347.54	16.30	-39.2	-40.2	22.2	0.00e+00	44	32	0	1160773632	50	6585
2026-01-27 23:07:08.37	347.44	16.20	-39.1	-40.2	22.2	0.00e+00	0	32	0	1162870784	50	6570
2026-01-27 23:07:09.38	347.35	16.10	-39.1	-40.1	22.3	0.00e+00	92	32	0	1164967936	50	6506
2026-01-27 23:07:10.39	347.25	16.00	-39.1	-40.2	22.2	0.00e+00	0	32	0	1167065088	50	6558
2026-01-27 23:07:11.40	347.15	15.90	-39.2	-40.3	22.1	0.00e+00	90	32	0	1168113664	50	6650
2026-01-27 23:07:12.41	347.06	15.80	-39.2	-40.2	22.2	0.00e+00	8	32	0	1170210816	50	6595
2026-01-27 23:07:13.42	346.96	15.70	-39.1	-40.2	22.2	0.00e+00	8	32	0	1172307968	50	6583
2026-01-27 23:07:14.43	346.87	15.60	-39.2	-40.3	22.1	0.00e+00	0	32	0	1174405120	50	6652
2026-01-27 23:07:15.44	346.77	15.50	-39.3	-40.4	22.1	0.00e+00	0	32	0	1176502272	50	6708
2026-01-27 23:07:16.45	346.68	15.40	-39.4	-40.5	21.9	0.00e+00	92	32	0	1178599424	50	6791
2026-01-27 23:07:17.46	346.59	15.30	-39.4	-40.5	21.9	0.00e+00	73	32	0	1179648000	50	6835
2026-01-27 23:07:18.47	346.49	15.20	-39.4	-40.6	21.9	0.00e+00	92	32	0	1181745152	50	6850
2026-01-27 23:07:19.47	346.40	15.11	-39.5	-40.6	21.7	0.00e+00	0	32	0	1183842304	50	6868
2026-01-27 23:07:20.48	346.31	15.01	-39.5	-40.6	21.8	0.00e+00	0	32	0	1185939456	50	6869
2026-01-27 23:07:21.49	346.22	14.91	-39.5	-40.6	21.7	0.00e+00	0	32	0	1188036608	50	6902
