passes_logs/2026/01/27/R4.6S_Anadyr/R4.6S_Anadyr__20260127_123914_SUOMI_NPP_rec.log

#Pass ID: 20260127_123914_SUOMI NPP
#Satellite: SUOMI NPP
#Configuration: NPP
#almurnet v.1.7.20251203
#Start time: 2026-01-27 12:39:17

#Version: 2.2.20231116
#Station: R4.6S_Anadyr
#Location: 177.4865 lon 64.73178 lat
#TLE: 1 37849U 11061A   26026.87508736  .00000176  00000+0  10464-3 0  9991
#TLE: 2 37849  98.7822 328.8221 0002127  43.3055 316.8288 14.19530452738397

#Time	Az	El	Level	Level2	SNR	BER	BlckErr	Temp	State	Recorded	gain1	gain2
2026-01-27 12:39:17.00	19.05	0.12	-48.8	-61.4	3.4	1.52e+00	0	29	0	0	60	41044
2026-01-27 12:39:18.01	19.12	0.17	-49.0	-64.2	3.6	1.51e+00	0	30	104	0	60	58573
2026-01-27 12:39:19.02	19.19	0.22	-49.0	-64.1	3.6	1.51e+00	0	30	104	0	60	58065
2026-01-27 12:39:20.03	19.26	0.27	-48.9	-64.2	3.6	1.51e+00	0	30	104	0	60	58426
2026-01-27 12:39:21.04	19.32	0.32	-49.0	-64.2	3.6	1.51e+00	0	30	104	0	60	58315
2026-01-27 12:39:22.05	19.39	0.37	-49.0	-64.2	3.6	1.51e+00	0	30	104	0	60	58501
2026-01-27 12:39:23.06	19.47	0.42	-49.0	-64.2	3.6	1.51e+00	0	30	104	0	60	58508
2026-01-27 12:39:24.07	19.54	0.48	-49.0	-64.2	3.6	1.51e+00	0	31	104	0	60	58743
2026-01-27 12:39:25.08	19.61	0.53	-49.0	-64.3	3.6	1.51e+00	0	31	104	0	60	58994
2026-01-27 12:39:26.09	19.68	0.58	-49.0	-64.2	3.6	1.51e+00	0	31	104	0	60	58937
2026-01-27 12:39:27.10	19.75	0.63	-49.0	-64.2	3.6	1.51e+00	0	31	104	0	60	58761
2026-01-27 12:39:28.10	19.82	0.68	-49.0	-64.2	3.6	1.51e+00	0	31	104	0	60	58846
2026-01-27 12:39:29.11	19.89	0.73	-49.0	-64.2	3.6	1.51e+00	0	31	104	0	60	58402
2026-01-27 12:39:30.13	19.96	0.79	-49.0	-64.2	3.6	1.51e+00	0	31	104	0	60	58301
2026-01-27 12:39:31.14	20.03	0.84	-48.9	-64.2	3.6	1.51e+00	0	31	104	0	60	58288
2026-01-27 12:39:32.15	20.11	0.89	-48.8	-64.1	3.6	1.51e+00	0	31	104	0	60	57978
2026-01-27 12:39:33.16	20.18	0.94	-48.8	-63.9	3.6	1.51e+00	0	31	104	0	60	56926
2026-01-27 12:39:34.17	20.25	0.99	-48.7	-63.9	3.6	1.51e+00	0	31	104	0	60	56429
2026-01-27 12:39:35.18	20.32	1.05	-48.6	-63.8	3.6	1.51e+00	0	31	104	0	60	55869
2026-01-27 12:39:36.19	20.40	1.10	-48.5	-63.7	3.6	1.51e+00	0	31	104	0	60	55250
2026-01-27 12:39:37.20	20.47	1.15	-48.4	-63.6	3.6	1.51e+00	0	31	104	0	60	54614
2026-01-27 12:39:38.21	20.54	1.20	-48.3	-63.5	3.6	1.51e+00	0	31	104	0	60	54202
2026-01-27 12:39:39.22	20.62	1.25	-48.1	-63.3	3.5	1.51e+00	0	31	104	0	60	52779
2026-01-27 12:39:40.23	20.69	1.31	-47.8	-63.0	3.6	1.51e+00	0	31	104	0	60	50997
2026-01-27 12:39:41.24	20.77	1.36	-47.5	-62.6	3.6	1.51e+00	0	31	104	0	60	48937
2026-01-27 12:39:42.25	20.84	1.41	-47.5	-62.7	3.6	1.51e+00	0	31	104	0	60	49158
2026-01-27 12:39:43.26	20.92	1.46	-47.4	-62.7	3.6	1.51e+00	0	31	104	0	60	49221
2026-01-27 12:39:44.27	20.99	1.52	-47.4	-62.7	3.6	1.51e+00	0	31	104	0	60	49141
2026-01-27 12:39:45.28	21.07	1.57	-47.4	-62.6	3.6	1.51e+00	0	31	104	0	60	48977
2026-01-27 12:39:46.28	21.14	1.62	-47.5	-62.7	3.6	1.51e+00	0	31	104	0	60	49166
2026-01-27 12:39:47.29	21.22	1.67	-47.4	-62.6	3.6	1.51e+00	0	31	104	0	60	48725
2026-01-27 12:39:48.30	21.29	1.73	-47.4	-62.6	3.6	1.51e+00	0	31	104	0	60	48877
2026-01-27 12:39:49.31	21.37	1.78	-47.5	-62.6	3.6	1.51e+00	0	31	104	0	60	48733
2026-01-27 12:39:50.32	21.45	1.83	-47.4	-62.5	3.6	1.51e+00	0	31	104	0	60	48472
2026-01-27 12:39:51.33	21.52	1.89	-47.4	-62.5	3.6	1.51e+00	0	31	104	0	60	47940
2026-01-27 12:39:52.34	21.60	1.94	-47.4	-62.5	3.6	1.51e+00	0	31	104	0	60	48184
2026-01-27 12:39:53.35	21.68	1.99	-47.4	-62.5	3.6	1.51e+00	0	31	104	0	60	48326
2026-01-27 12:39:54.36	21.76	2.05	-47.4	-62.5	3.6	1.51e+00	0	31	104	0	60	48302
2026-01-27 12:39:55.37	21.83	2.10	-47.4	-62.6	3.6	1.51e+00	0	31	104	0	60	48738
2026-01-27 12:39:56.38	21.91	2.15	-47.4	-62.6	3.6	1.51e+00	0	31	104	0	60	48609
2026-01-27 12:39:57.39	21.99	2.21	-47.4	-62.6	3.6	1.51e+00	0	31	104	0	60	48835
2026-01-27 12:39:58.40	22.07	2.26	-47.4	-62.5	3.6	1.51e+00	0	31	104	0	60	48168
2026-01-27 12:39:59.41	22.15	2.31	-47.4	-62.3	3.6	1.51e+00	0	31	104	0	60	47136
2026-01-27 12:40:00.42	22.23	2.37	-47.4	-61.8	3.6	1.51e+00	0	31	104	0	60	44400
2026-01-27 12:40:01.43	22.31	2.42	-47.4	-61.4	3.6	1.51e+00	0	31	104	0	60	42339
2026-01-27 12:40:02.44	22.39	2.47	-47.4	-61.7	3.6	1.51e+00	0	31	104	0	60	43723
2026-01-27 12:40:03.45	22.47	2.53	-47.4	-62.1	3.6	1.51e+00	0	31	104	0	60	45939
2026-01-27 12:40:04.46	22.55	2.58	-47.3	-59.4	3.9	1.51e+00	0	31	104	0	60	33879
2026-01-27 12:40:05.47	22.63	2.63	-46.8	-54.1	7.2	3.36e-01	0	31	0	1048576	60	18300
2026-01-27 12:40:06.48	22.71	2.69	-45.6	-50.2	11.2	7.95e-03	0	31	0	2097152	60	11680
2026-01-27 12:40:07.49	22.79	2.74	-43.9	-46.7	14.9	7.01e-05	0	31	0	4194304	60	7788
2026-01-27 12:40:08.50	22.87	2.80	-42.8	-45.0	16.7	0.00e+00	0	31	0	6291456	60	6419
2026-01-27 12:40:09.51	22.95	2.85	-41.8	-43.6	17.8	0.00e+00	0	31	0	8388608	56	6917
2026-01-27 12:40:10.52	23.03	2.90	-41.6	-43.4	18.1	0.00e+00	0	31	0	10485760	56	6714
2026-01-27 12:40:11.53	23.12	2.96	-41.2	-42.8	18.6	0.00e+00	0	31	0	11534336	56	6302
2026-01-27 12:40:12.54	23.20	3.01	-41.0	-42.6	18.6	0.00e+00	0	31	0	13631488	56	6163
2026-01-27 12:40:13.55	23.28	3.07	-42.3	-44.3	17.1	0.00e+00	0	31	0	15728640	56	7479
2026-01-27 12:40:14.56	23.37	3.12	-43.4	-46.0	15.7	0.00e+00	0	31	0	17825792	58	8073
2026-01-27 12:40:15.57	23.45	3.18	-42.6	-44.6	17.3	7.00e-07	0	31	0	19922944	60	6167
2026-01-27 12:40:16.58	23.53	3.23	-46.2	-52.4	6.8	0.00e+00	0	31	0	20971520	60	15111
2026-01-27 12:40:17.59	23.62	3.29	-44.1	-47.0	5.9	1.50e+00	0	31	104	22020096	60	8119
2026-01-27 12:40:18.60	23.70	3.34	-44.0	-46.9	14.5	9.74e-03	0	31	104	22020096	60	8011
2026-01-27 12:40:19.61	23.78	3.39	-46.1	-51.7	8.6	0.00e+00	0	31	0	23068672	60	13912
2026-01-27 12:40:20.62	23.87	3.45	-44.9	-48.6	5.9	1.51e+00	0	31	104	23068672	60	9677
2026-01-27 12:40:21.63	23.96	3.50	-43.6	-46.2	15.3	0.00e+00	0	31	104	23068672	60	7362
2026-01-27 12:40:22.64	24.04	3.56	-43.2	-45.5	16.3	0.00e+00	0	31	0	24117248	60	6803
2026-01-27 12:40:23.65	24.13	3.61	-42.0	-43.8	18.0	0.00e+00	0	31	0	26214400	58	6295
2026-01-27 12:40:24.66	24.21	3.67	-41.1	-42.7	19.0	0.00e+00	0	31	0	28311552	56	6180
2026-01-27 12:40:25.67	24.30	3.72	-41.6	-43.3	18.4	0.00e+00	0	31	0	30408704	56	6629
2026-01-27 12:40:26.68	24.39	3.78	-41.7	-43.5	17.8	0.00e+00	0	31	0	31457280	56	6786
2026-01-27 12:40:27.68	24.47	3.83	-41.6	-43.2	18.4	0.00e+00	0	31	0	33554432	56	6615
2026-01-27 12:40:28.69	24.56	3.89	-41.5	-43.2	18.5	0.00e+00	0	31	0	35651584	56	6599
2026-01-27 12:40:29.70	24.65	3.94	-41.8	-43.5	18.2	0.00e+00	0	31	0	37748736	56	6845
2026-01-27 12:40:30.71	24.73	4.00	-41.5	-43.2	18.3	0.00e+00	0	31	0	39845888	56	6568
2026-01-27 12:40:31.72	24.82	4.06	-41.7	-43.4	18.3	0.00e+00	0	31	0	40894464	56	6744
2026-01-27 12:40:32.73	24.91	4.11	-42.3	-44.2	17.5	0.00e+00	0	31	0	42991616	56	7384
2026-01-27 12:40:33.74	25.00	4.17	-42.0	-43.8	18.0	0.00e+00	0	31	0	45088768	56	7048
2026-01-27 12:40:34.75	25.09	4.22	-41.8	-43.6	18.1	0.00e+00	0	31	0	47185920	56	6881
2026-01-27 12:40:35.76	25.18	4.28	-41.8	-43.5	18.2	0.00e+00	0	31	0	49283072	56	6826
2026-01-27 12:40:36.77	25.27	4.33	-41.8	-43.5	18.3	0.00e+00	0	31	0	50331648	56	6828
2026-01-27 12:40:37.78	25.36	4.39	-41.9	-43.7	18.0	0.00e+00	0	31	0	52428800	56	6951
2026-01-27 12:40:38.79	25.45	4.45	-42.0	-43.7	18.1	0.00e+00	0	31	0	54525952	56	6993
2026-01-27 12:40:39.80	25.54	4.50	-42.0	-43.8	17.9	0.00e+00	0	31	0	56623104	56	7056
2026-01-27 12:40:40.81	25.63	4.56	-42.1	-43.9	17.9	0.00e+00	0	31	0	58720256	56	7121
2026-01-27 12:40:41.82	25.72	4.61	-42.1	-43.9	17.9	0.00e+00	0	31	0	59768832	56	7159
2026-01-27 12:40:42.83	25.81	4.67	-42.2	-44.1	17.9	0.00e+00	0	31	0	61865984	56	7304
2026-01-27 12:40:43.84	25.91	4.73	-42.2	-44.1	17.9	0.00e+00	0	31	0	63963136	56	7282
2026-01-27 12:40:44.85	26.00	4.78	-42.2	-44.1	17.9	0.00e+00	0	31	0	66060288	56	7286
2026-01-27 12:40:45.85	26.09	4.84	-41.9	-43.7	18.2	0.00e+00	0	31	0	68157440	56	6942
2026-01-27 12:40:46.87	26.18	4.89	-41.6	-43.3	18.6	0.00e+00	0	31	0	70254592	56	6658
2026-01-27 12:40:47.87	26.28	4.95	-41.5	-43.1	18.8	0.00e+00	0	31	0	71303168	56	6477
2026-01-27 12:40:48.88	26.37	5.01	-41.5	-43.2	18.8	0.00e+00	0	31	0	73400320	56	6562
2026-01-27 12:40:49.89	26.47	5.06	-41.4	-42.9	18.9	0.00e+00	0	31	0	75497472	56	6381
2026-01-27 12:40:50.90	26.56	5.12	-41.1	-42.6	19.2	0.00e+00	0	31	0	77594624	56	6171
2026-01-27 12:40:51.92	26.66	5.18	-41.1	-42.6	19.2	0.00e+00	0	31	0	78643200	56	6171
2026-01-27 12:40:52.93	26.75	5.23	-41.1	-42.6	19.2	0.00e+00	0	31	0	80740352	56	6138
2026-01-27 12:40:53.94	26.85	5.29	-40.9	-42.3	19.6	0.00e+00	0	31	0	82837504	56	5930
2026-01-27 12:40:54.95	26.94	5.35	-41.2	-42.7	19.3	0.00e+00	0	31	0	84934656	56	6181
2026-01-27 12:40:55.96	27.04	5.40	-41.2	-42.7	19.1	0.00e+00	0	31	0	87031808	56	6242
2026-01-27 12:40:56.97	27.14	5.46	-41.3	-42.8	19.3	0.00e+00	0	31	0	89128960	56	6272
2026-01-27 12:40:57.98	27.23	5.52	-41.0	-42.4	19.4	0.00e+00	0	31	0	90177536	56	6002
2026-01-27 12:40:58.99	27.33	5.58	-41.2	-42.8	19.1	0.00e+00	0	31	0	92274688	56	6259
2026-01-27 12:41:00.00	27.43	5.63	-41.1	-42.6	19.4	0.00e+00	0	31	0	94371840	56	6106
2026-01-27 12:41:01.01	27.53	5.69	-41.2	-42.7	19.5	0.00e+00	0	31	0	96468992	56	6233
2026-01-27 12:41:02.02	27.62	5.75	-40.8	-42.3	19.6	0.00e+00	0	31	0	98566144	54	6632
2026-01-27 12:41:03.03	27.72	5.80	-40.7	-42.1	19.7	0.00e+00	0	31	0	99614720	54	6531
2026-01-27 12:41:04.04	27.82	5.86	-40.3	-41.6	20.2	0.00e+00	0	31	0	101711872	54	6154
2026-01-27 12:41:05.05	27.92	5.92	-40.3	-41.7	20.1	0.00e+00	0	31	0	103809024	54	6203
2026-01-27 12:41:06.06	28.02	5.98	-40.5	-41.9	19.9	0.00e+00	0	31	0	105906176	54	6369
2026-01-27 12:41:07.07	28.12	6.03	-40.3	-41.6	20.3	0.00e+00	0	31	0	108003328	54	6129
2026-01-27 12:41:08.08	28.22	6.09	-40.1	-41.4	20.4	0.00e+00	0	31	0	109051904	54	5965
2026-01-27 12:41:09.09	28.32	6.15	-40.4	-41.7	20.1	0.00e+00	0	31	0	111149056	54	6194
2026-01-27 12:41:10.10	28.42	6.21	-40.2	-41.5	20.3	0.00e+00	0	31	0	113246208	54	6067
2026-01-27 12:41:11.11	28.53	6.26	-40.2	-41.5	20.4	0.00e+00	0	31	0	115343360	54	6046
2026-01-27 12:41:12.12	28.63	6.32	-40.1	-41.3	20.5	0.00e+00	0	31	0	117440512	54	5961
2026-01-27 12:41:13.13	28.73	6.38	-40.1	-41.4	20.3	0.00e+00	0	31	0	118489088	54	5986
2026-01-27 12:41:14.14	28.83	6.44	-40.1	-41.4	20.5	0.00e+00	0	31	0	120586240	54	6007
2026-01-27 12:41:15.15	28.94	6.50	-39.9	-41.2	20.7	0.00e+00	0	31	0	122683392	54	5840
2026-01-27 12:41:16.16	29.04	6.55	-39.8	-41.1	20.8	0.00e+00	0	31	0	124780544	52	6479
2026-01-27 12:41:17.17	29.15	6.61	-40.2	-41.5	20.4	0.00e+00	0	31	0	126877696	52	6804
2026-01-27 12:41:18.18	29.25	6.67	-40.2	-41.5	20.4	0.00e+00	0	31	0	127926272	52	6776
2026-01-27 12:41:19.19	29.35	6.73	-40.3	-41.6	20.3	0.00e+00	0	31	0	130023424	52	6912
2026-01-27 12:41:20.20	29.46	6.79	-40.2	-41.5	20.2	0.00e+00	0	31	0	132120576	52	6809
2026-01-27 12:41:21.21	29.57	6.85	-40.1	-41.4	20.5	0.00e+00	0	31	0	134217728	52	6725
2026-01-27 12:41:22.22	29.67	6.90	-40.3	-41.6	20.3	0.00e+00	0	31	0	136314880	52	6888
2026-01-27 12:41:23.22	29.78	6.96	-40.1	-41.4	20.3	0.00e+00	0	31	0	138412032	52	6743
2026-01-27 12:41:24.23	29.88	7.02	-40.5	-41.8	19.9	0.00e+00	0	31	0	139460608	52	7088
2026-01-27 12:41:25.24	29.99	7.08	-40.4	-41.7	19.8	0.00e+00	0	31	0	141557760	52	6993
2026-01-27 12:41:26.25	30.10	7.14	-40.3	-41.6	20.2	0.00e+00	0	31	0	143654912	52	6884
2026-01-27 12:41:27.26	30.21	7.20	-40.1	-41.3	20.4	0.00e+00	0	32	0	145752064	52	6675
2026-01-27 12:41:28.27	30.32	7.25	-40.3	-41.7	20.4	0.00e+00	0	31	0	147849216	52	6936
2026-01-27 12:41:29.28	30.43	7.31	-40.2	-41.4	20.5	0.00e+00	0	31	0	148897792	52	6760
2026-01-27 12:41:30.29	30.53	7.37	-40.2	-41.4	20.5	0.00e+00	0	31	0	150994944	52	6757
2026-01-27 12:41:31.30	30.64	7.43	-40.1	-41.4	20.5	0.00e+00	0	31	0	153092096	52	6714
2026-01-27 12:41:32.31	30.75	7.49	-40.1	-41.3	20.6	0.00e+00	0	31	0	155189248	52	6674
2026-01-27 12:41:33.32	30.87	7.55	-39.9	-41.2	20.7	0.00e+00	0	31	0	157286400	52	6541
2026-01-27 12:41:34.33	30.98	7.61	-40.0	-41.2	21.0	0.00e+00	0	31	0	158334976	52	6569
2026-01-27 12:41:35.34	31.09	7.67	-39.8	-41.0	20.9	0.00e+00	0	32	0	160432128	52	6424
2026-01-27 12:41:36.35	31.20	7.73	-39.4	-40.6	21.2	0.00e+00	0	31	0	162529280	52	6118
2026-01-27 12:41:37.36	31.31	7.78	-39.7	-40.8	21.1	0.00e+00	0	31	0	164626432	52	6294
2026-01-27 12:41:38.37	31.43	7.84	-39.4	-40.5	21.4	0.00e+00	0	31	0	166723584	52	6058
2026-01-27 12:41:39.38	31.54	7.90	-39.1	-40.3	21.5	0.00e+00	0	31	0	167772160	52	5898
2026-01-27 12:41:40.39	31.65	7.96	-38.9	-40.0	21.7	0.00e+00	0	31	0	169869312	52	5725
2026-01-27 12:41:41.40	31.77	8.02	-39.1	-40.2	21.7	0.00e+00	0	31	0	171966464	52	5844
2026-01-27 12:41:42.41	31.88	8.08	-38.8	-39.8	21.9	0.00e+00	0	31	0	174063616	50	6297
2026-01-27 12:41:43.42	32.00	8.14	-38.7	-39.8	22.0	0.00e+00	0	32	0	176160768	50	6283
2026-01-27 12:41:44.43	32.11	8.20	-38.8	-39.8	21.9	0.00e+00	0	32	0	177209344	50	6317
2026-01-27 12:41:45.44	32.23	8.26	-38.7	-39.7	22.0	0.00e+00	0	31	0	179306496	50	6240
2026-01-27 12:41:46.45	32.34	8.32	-39.1	-40.2	21.6	0.00e+00	0	31	0	181403648	50	6562
2026-01-27 12:41:47.46	32.46	8.38	-38.9	-39.9	21.8	0.00e+00	0	31	0	183500800	50	6364
2026-01-27 12:41:48.47	32.58	8.44	-39.0	-40.1	21.8	0.00e+00	0	31	0	185597952	50	6513
2026-01-27 12:41:49.48	32.70	8.50	-39.4	-40.5	21.1	0.00e+00	0	31	0	186646528	50	6797
2026-01-27 12:41:50.49	32.81	8.56	-39.6	-40.8	21.2	0.00e+00	0	32	0	188743680	52	6277
2026-01-27 12:41:51.50	32.93	8.62	-39.6	-40.8	21.3	0.00e+00	0	31	0	190840832	52	6249
2026-01-27 12:41:52.51	33.05	8.68	-39.6	-40.8	21.3	0.00e+00	0	32	0	192937984	52	6283
2026-01-27 12:41:53.52	33.17	8.74	-39.2	-40.3	21.6	0.00e+00	0	32	0	195035136	52	5955
2026-01-27 12:41:54.53	33.29	8.80	-39.0	-40.1	21.8	0.00e+00	0	32	0	196083712	52	5779
2026-01-27 12:41:55.54	33.41	8.86	-39.0	-40.1	21.8	0.00e+00	0	31	0	198180864	52	5764
2026-01-27 12:41:56.55	33.53	8.92	-39.0	-40.1	21.8	0.00e+00	0	31	0	200278016	52	5816
2026-01-27 12:41:57.56	33.66	8.98	-38.9	-39.9	21.9	0.00e+00	0	31	0	202375168	52	5674
2026-01-27 12:41:58.57	33.78	9.04	-39.2	-40.3	21.6	0.00e+00	0	31	0	204472320	52	5947
2026-01-27 12:41:59.58	33.90	9.10	-39.1	-40.2	21.6	0.00e+00	0	31	0	206569472	52	5847
2026-01-27 12:42:00.59	34.02	9.16	-38.9	-40.0	21.9	0.00e+00	0	31	0	207618048	52	5704
2026-01-27 12:42:01.60	34.15	9.22	-39.1	-40.2	21.6	0.00e+00	0	31	0	209715200	52	5880
2026-01-27 12:42:02.61	34.27	9.28	-39.1	-40.2	21.7	0.00e+00	0	32	0	211812352	52	5866
2026-01-27 12:42:03.62	34.40	9.34	-39.1	-40.2	21.7	0.00e+00	0	32	0	213909504	52	5861
2026-01-27 12:42:04.63	34.52	9.40	-39.0	-40.1	21.8	0.00e+00	0	31	0	216006656	52	5775
2026-01-27 12:42:05.64	34.65	9.46	-39.0	-40.1	21.8	0.00e+00	0	32	0	217055232	52	5792
2026-01-27 12:42:06.65	34.77	9.52	-38.9	-40.0	22.0	0.00e+00	0	32	0	219152384	52	5709
2026-01-27 12:42:07.66	34.90	9.58	-38.9	-40.0	21.9	0.00e+00	0	31	0	221249536	52	5729
2026-01-27 12:42:08.67	35.02	9.64	-39.2	-40.3	21.6	0.00e+00	0	32	0	223346688	52	5937
2026-01-27 12:42:09.68	35.15	9.70	-39.0	-40.1	21.8	0.00e+00	0	32	0	225443840	52	5811
2026-01-27 12:42:10.69	35.28	9.76	-39.1	-40.1	21.7	0.00e+00	0	32	0	226492416	52	5824
2026-01-27 12:42:11.70	35.41	9.82	-39.2	-40.3	21.7	0.00e+00	0	32	0	228589568	52	5941
2026-01-27 12:42:12.71	35.54	9.88	-39.1	-40.2	21.7	0.00e+00	0	32	0	230686720	52	5844
2026-01-27 12:42:13.72	35.67	9.94	-39.1	-40.2	21.7	0.00e+00	0	31	0	232783872	52	5892
2026-01-27 12:42:14.73	35.80	10.00	-39.2	-40.4	21.7	0.00e+00	0	31	0	234881024	52	5968
2026-01-27 12:42:15.74	35.93	10.06	-39.3	-40.4	21.6	0.00e+00	0	32	0	235929600	52	5977
2026-01-27 12:42:16.75	36.06	10.12	-39.1	-40.2	21.8	0.00e+00	0	31	0	238026752	52	5860
2026-01-27 12:42:17.76	36.19	10.18	-39.1	-40.1	21.8	0.00e+00	0	31	0	240123904	52	5826
2026-01-27 12:42:18.76	36.32	10.24	-38.9	-40.0	22.0	0.00e+00	0	31	0	242221056	52	5707
2026-01-27 12:42:19.77	36.45	10.30	-38.9	-39.9	22.0	0.00e+00	0	32	0	244318208	52	5685
2026-01-27 12:42:20.78	36.59	10.36	-38.8	-39.9	22.0	0.00e+00	0	31	0	245366784	50	6342
2026-01-27 12:42:21.79	36.72	10.42	-38.7	-39.8	22.0	0.00e+00	0	31	0	247463936	50	6261
2026-01-27 12:42:22.80	36.86	10.48	-38.8	-39.8	22.0	0.00e+00	0	32	0	249561088	50	6317
2026-01-27 12:42:23.81	36.99	10.54	-38.6	-39.6	22.1	0.00e+00	0	32	0	251658240	50	6145
2026-01-27 12:42:24.82	37.13	10.60	-38.6	-39.6	22.1	0.00e+00	0	32	0	253755392	50	6147
2026-01-27 12:42:25.83	37.26	10.66	-38.7	-39.7	21.7	0.00e+00	0	32	0	254803968	50	6241
2026-01-27 12:42:26.84	37.40	10.73	-38.7	-39.7	22.2	0.00e+00	0	31	0	256901120	50	6186
2026-01-27 12:42:27.85	37.53	10.79	-38.7	-39.8	21.8	0.00e+00	0	31	0	258998272	50	6270
2026-01-27 12:42:28.86	37.67	10.85	-38.7	-39.8	22.1	0.00e+00	0	32	0	261095424	50	6259
2026-01-27 12:42:29.87	37.81	10.91	-38.7	-39.7	22.1	0.00e+00	0	31	0	263192576	50	6222
2026-01-27 12:42:30.88	37.95	10.97	-38.5	-39.5	22.3	0.00e+00	0	31	0	264241152	50	6072
2026-01-27 12:42:31.89	38.09	11.03	-38.7	-39.7	22.1	0.00e+00	0	31	0	266338304	50	6243
2026-01-27 12:42:32.90	38.23	11.09	-38.7	-39.8	22.1	0.00e+00	0	32	0	268435456	50	6254
2026-01-27 12:42:33.91	38.37	11.15	-38.5	-39.5	22.4	0.00e+00	0	31	0	270532608	50	6034
2026-01-27 12:42:34.92	38.51	11.21	-38.3	-39.3	22.6	0.00e+00	0	31	0	272629760	50	5923
2026-01-27 12:42:35.93	38.65	11.27	-38.4	-39.4	22.5	0.00e+00	0	32	0	274726912	50	5985
2026-01-27 12:42:36.94	38.79	11.33	-38.5	-39.5	22.5	0.00e+00	0	32	0	275775488	50	6048
2026-01-27 12:42:37.95	38.93	11.39	-38.2	-39.2	22.7	0.00e+00	0	32	0	277872640	50	5868
2026-01-27 12:42:38.96	39.08	11.45	-38.3	-39.3	22.6	0.00e+00	0	31	0	279969792	50	5901
2026-01-27 12:42:39.97	39.22	11.51	-38.3	-39.2	22.6	0.00e+00	0	32	0	282066944	50	5896
2026-01-27 12:42:40.98	39.36	11.57	-38.2	-39.2	22.5	0.00e+00	0	31	0	284164096	50	5886
2026-01-27 12:42:41.99	39.51	11.63	-38.3	-39.3	22.5	0.00e+00	0	32	0	285212672	50	5942
2026-01-27 12:42:43.00	39.66	11.70	-38.4	-39.5	22.4	0.00e+00	0	32	0	287309824	50	6034
2026-01-27 12:42:44.01	39.80	11.76	-38.4	-39.4	22.4	0.00e+00	0	32	0	289406976	50	5979
2026-01-27 12:42:45.02	39.95	11.82	-38.4	-39.4	22.5	0.00e+00	0	31	0	291504128	50	5975
2026-01-27 12:42:46.03	40.09	11.88	-38.6	-39.6	22.2	0.00e+00	0	32	0	293601280	50	6152
2026-01-27 12:42:47.04	40.24	11.94	-38.5	-39.5	22.4	0.00e+00	0	32	0	294649856	50	6091
2026-01-27 12:42:48.05	40.39	12.00	-38.5	-39.5	22.4	0.00e+00	0	31	0	296747008	50	6084
2026-01-27 12:42:49.06	40.54	12.06	-38.4	-39.4	22.5	0.00e+00	0	31	0	298844160	50	5999
2026-01-27 12:42:50.07	40.69	12.12	-38.5	-39.5	22.4	0.00e+00	0	32	0	300941312	50	6045
2026-01-27 12:42:51.08	40.84	12.18	-38.4	-39.4	22.5	0.00e+00	0	32	0	303038464	50	6011
2026-01-27 12:42:52.09	40.99	12.24	-38.3	-39.3	22.5	0.00e+00	0	32	0	304087040	50	5932
2026-01-27 12:42:53.10	41.14	12.30	-38.4	-39.4	22.5	0.00e+00	0	32	0	306184192	50	5991
2026-01-27 12:42:54.11	41.29	12.36	-38.2	-39.2	22.7	0.00e+00	0	32	0	308281344	50	5855
2026-01-27 12:42:55.12	41.45	12.42	-38.1	-39.1	22.8	0.00e+00	0	32	0	310378496	50	5811
2026-01-27 12:42:56.13	41.60	12.48	-38.2	-39.1	22.6	0.00e+00	0	32	0	312475648	50	5820
2026-01-27 12:42:57.14	41.75	12.54	-38.3	-39.3	22.7	0.00e+00	0	32	0	313524224	50	5933
2026-01-27 12:42:58.14	41.91	12.60	-38.2	-39.2	22.6	0.00e+00	0	32	0	315621376	50	5850
2026-01-27 12:42:59.15	42.06	12.66	-38.4	-39.4	22.5	0.00e+00	0	31	0	317718528	50	5979
2026-01-27 12:43:00.16	42.22	12.72	-38.2	-39.2	22.6	0.00e+00	0	32	0	319815680	50	5834
2026-01-27 12:43:01.17	42.37	12.78	-38.4	-39.4	22.5	0.00e+00	0	32	0	321912832	50	5974
2026-01-27 12:43:02.18	42.53	12.84	-38.6	-39.6	22.3	0.00e+00	0	32	0	322961408	50	6123
2026-01-27 12:43:03.19	42.69	12.90	-38.3	-39.3	22.6	0.00e+00	0	32	0	325058560	50	5960
2026-01-27 12:43:04.20	42.84	12.96	-38.3	-39.3	22.6	0.00e+00	0	32	0	327155712	50	5932
2026-01-27 12:43:05.21	43.00	13.02	-38.1	-39.1	22.7	0.00e+00	0	32	0	329252864	50	5770
2026-01-27 12:43:06.22	43.16	13.08	-38.1	-39.0	22.8	0.00e+00	0	32	0	331350016	50	5760
2026-01-27 12:43:07.22	43.32	13.14	-37.7	-38.6	23.2	0.00e+00	0	32	0	332398592	50	5488
2026-01-27 12:43:08.23	43.48	13.20	-37.7	-38.6	23.2	0.00e+00	0	32	0	334495744	48	6160
2026-01-27 12:43:09.24	43.64	13.26	-37.7	-38.7	23.1	0.00e+00	0	32	0	336592896	48	6182
2026-01-27 12:43:10.25	43.80	13.32	-37.8	-38.7	23.1	0.00e+00	0	32	0	338690048	48	6215
2026-01-27 12:43:11.26	43.97	13.38	-38.1	-39.0	22.7	0.00e+00	0	32	0	340787200	48	6451
2026-01-27 12:43:12.27	44.13	13.44	-37.8	-38.8	23.0	0.00e+00	0	32	0	342884352	48	6287
2026-01-27 12:43:13.28	44.29	13.50	-38.1	-39.1	22.8	0.00e+00	0	32	0	343932928	48	6509
2026-01-27 12:43:14.29	44.46	13.56	-38.2	-39.2	22.7	0.00e+00	0	32	0	346030080	48	6544
2026-01-27 12:43:15.30	44.62	13.62	-38.3	-39.3	22.6	0.00e+00	0	32	0	348127232	48	6687
2026-01-27 12:43:16.31	44.79	13.68	-38.4	-39.4	22.5	0.00e+00	0	32	0	350224384	48	6732
2026-01-27 12:43:17.32	44.95	13.74	-38.3	-39.3	22.6	0.00e+00	0	32	0	352321536	48	6647
2026-01-27 12:43:18.33	45.12	13.80	-38.2	-39.2	22.7	0.00e+00	0	31	0	353370112	48	6583
2026-01-27 12:43:19.34	45.29	13.86	-38.0	-39.0	22.9	0.00e+00	0	32	0	355467264	48	6396
2026-01-27 12:43:20.35	45.46	13.91	-38.0	-39.0	22.9	0.00e+00	0	32	0	357564416	48	6398
2026-01-27 12:43:21.36	45.62	13.97	-37.9	-38.8	23.0	0.00e+00	0	32	0	359661568	48	6299
2026-01-27 12:43:22.37	45.79	14.03	-37.7	-38.6	23.2	0.00e+00	0	32	0	361758720	48	6139
2026-01-27 12:43:23.38	45.96	14.09	-37.7	-38.6	23.1	0.00e+00	0	32	0	362807296	48	6159
2026-01-27 12:43:24.39	46.14	14.15	-37.7	-38.6	23.2	0.00e+00	0	32	0	364904448	48	6135
2026-01-27 12:43:25.40	46.31	14.21	-37.9	-38.9	23.0	0.00e+00	0	32	0	367001600	48	6334
2026-01-27 12:43:26.41	46.48	14.27	-37.6	-38.5	23.2	0.00e+00	0	32	0	369098752	48	6080
2026-01-27 12:43:27.42	46.65	14.33	-37.7	-38.6	23.2	0.00e+00	0	32	0	371195904	48	6163
2026-01-27 12:43:28.43	46.82	14.38	-37.7	-38.7	23.1	0.00e+00	0	32	0	372244480	48	6201
2026-01-27 12:43:29.44	47.00	14.44	-37.8	-38.7	22.9	0.00e+00	0	32	0	374341632	48	6230
2026-01-27 12:43:30.45	47.17	14.50	-38.2	-39.2	22.4	0.00e+00	0	32	0	376438784	48	6551
2026-01-27 12:43:31.46	47.35	14.56	-38.2	-39.2	22.5	0.00e+00	0	32	0	378535936	48	6610
2026-01-27 12:43:32.47	47.53	14.62	-37.9	-38.9	22.9	0.00e+00	0	32	0	380633088	48	6367
2026-01-27 12:43:33.48	47.70	14.67	-38.0	-39.0	22.9	0.00e+00	0	32	0	381681664	48	6436
2026-01-27 12:43:34.49	47.88	14.73	-38.0	-39.0	22.9	0.00e+00	0	32	0	383778816	48	6435
2026-01-27 12:43:35.50	48.06	14.79	-38.0	-39.0	22.8	0.00e+00	0	32	0	385875968	48	6462
2026-01-27 12:43:36.51	48.24	14.85	-38.2	-39.2	22.7	0.00e+00	0	32	0	387973120	48	6584
2026-01-27 12:43:37.52	48.42	14.90	-38.2	-39.3	22.7	0.00e+00	0	32	0	390070272	48	6620
2026-01-27 12:43:38.53	48.60	14.96	-38.0	-39.0	22.9	0.00e+00	0	32	0	391118848	48	6411
2026-01-27 12:43:39.54	48.78	15.02	-38.1	-39.1	22.8	0.00e+00	0	32	0	393216000	48	6496
2026-01-27 12:43:40.54	48.96	15.07	-37.9	-38.9	23.0	0.00e+00	0	32	0	395313152	48	6340
2026-01-27 12:43:41.55	49.14	15.13	-37.8	-38.8	23.0	0.00e+00	0	32	0	397410304	48	6257
2026-01-27 12:43:42.56	49.32	15.19	-37.7	-38.7	23.1	0.00e+00	0	32	0	399507456	48	6212
2026-01-27 12:43:43.57	49.50	15.24	-37.9	-38.9	22.9	0.00e+00	0	32	0	400556032	48	6322
2026-01-27 12:43:44.58	49.69	15.30	-38.1	-39.1	22.8	0.00e+00	0	32	0	402653184	48	6515
2026-01-27 12:43:45.59	49.87	15.36	-38.2	-39.3	22.7	0.00e+00	0	32	0	404750336	48	6619
2026-01-27 12:43:46.60	50.06	15.41	-38.4	-39.4	22.5	0.00e+00	0	32	0	406847488	48	6758
2026-01-27 12:43:47.61	50.25	15.47	-38.6	-39.6	22.1	0.00e+00	0	32	0	408944640	48	6902
2026-01-27 12:43:48.62	50.43	15.52	-38.6	-39.6	22.4	0.00e+00	0	32	0	411041792	48	6912
2026-01-27 12:43:49.63	50.62	15.58	-38.4	-39.4	22.6	0.00e+00	0	32	0	412090368	48	6754
2026-01-27 12:43:50.64	50.81	15.64	-38.3	-39.3	22.6	0.00e+00	0	31	0	414187520	48	6659
2026-01-27 12:43:51.65	51.00	15.69	-38.4	-39.4	22.5	0.00e+00	0	32	0	416284672	48	6746
2026-01-27 12:43:52.66	51.19	15.75	-38.3	-39.3	22.6	0.00e+00	0	32	0	418381824	48	6649
2026-01-27 12:43:53.67	51.38	15.80	-38.6	-39.7	22.4	0.00e+00	0	32	0	420478976	48	6945
2026-01-27 12:43:54.68	51.57	15.86	-38.8	-39.8	22.2	0.00e+00	0	32	0	421527552	48	7063
2026-01-27 12:43:55.69	51.76	15.91	-38.8	-39.9	22.2	0.00e+00	0	32	0	423624704	50	6344
2026-01-27 12:43:56.70	51.95	15.96	-39.0	-40.1	22.0	0.00e+00	0	32	0	425721856	50	6534
2026-01-27 12:43:57.71	52.14	16.02	-39.0	-40.1	22.0	0.00e+00	0	32	0	427819008	50	6468
2026-01-27 12:43:58.72	52.34	16.07	-39.0	-40.1	22.1	0.00e+00	0	32	0	428867584	50	6481
2026-01-27 12:43:59.72	52.53	16.13	-38.9	-40.0	22.1	0.00e+00	0	32	0	430964736	50	6443
2026-01-27 12:44:00.74	52.73	16.18	-39.0	-40.1	22.0	0.00e+00	0	32	0	433061888	50	6486
2026-01-27 12:44:01.75	52.92	16.23	-38.8	-39.9	22.1	0.00e+00	0	32	0	435159040	50	6339
2026-01-27 12:44:02.76	53.12	16.29	-38.7	-39.8	22.3	0.00e+00	0	32	0	437256192	50	6266
2026-01-27 12:44:03.77	53.32	16.34	-38.8	-39.9	22.2	0.00e+00	0	32	0	439353344	50	6329
2026-01-27 12:44:04.77	53.51	16.39	-38.8	-39.8	22.3	0.00e+00	0	31	0	440401920	50	6300
2026-01-27 12:44:05.78	53.71	16.45	-38.7	-39.8	22.4	0.00e+00	0	32	0	442499072	50	6246
2026-01-27 12:44:06.79	53.91	16.50	-38.7	-39.7	22.4	0.00e+00	0	32	0	444596224	50	6244
2026-01-27 12:44:07.80	54.11	16.55	-38.8	-39.8	22.3	0.00e+00	0	32	0	446693376	50	6286
2026-01-27 12:44:08.81	54.31	16.60	-38.8	-39.9	22.2	0.00e+00	0	32	0	448790528	50	6323
2026-01-27 12:44:09.82	54.51	16.65	-38.8	-39.8	22.3	0.00e+00	0	32	0	449839104	50	6296
2026-01-27 12:44:10.83	54.71	16.71	-39.0	-40.0	22.1	0.00e+00	0	32	0	451936256	50	6454
2026-01-27 12:44:11.84	54.92	16.76	-39.3	-40.4	21.7	0.00e+00	0	32	0	454033408	50	6752
2026-01-27 12:44:12.85	55.12	16.81	-39.2	-40.3	21.9	0.00e+00	0	32	0	456130560	50	6633
2026-01-27 12:44:13.86	55.32	16.86	-39.1	-40.2	21.9	0.00e+00	0	32	0	458227712	50	6587
2026-01-27 12:44:14.87	55.53	16.91	-39.1	-40.1	22.0	0.00e+00	0	32	0	459276288	50	6535
2026-01-27 12:44:15.88	55.73	16.96	-39.1	-40.2	21.9	0.00e+00	0	32	0	461373440	50	6571
2026-01-27 12:44:16.89	55.94	17.01	-39.2	-40.3	21.8	0.00e+00	0	32	0	463470592	50	6652
2026-01-27 12:44:17.89	56.14	17.06	-39.0	-40.1	21.7	0.00e+00	0	32	0	465567744	50	6502
2026-01-27 12:44:18.90	56.35	17.11	-39.3	-40.5	21.7	0.00e+00	0	32	0	467664896	50	6784
2026-01-27 12:44:19.91	56.56	17.16	-39.4	-40.5	21.6	0.00e+00	0	32	0	468713472	50	6830
2026-01-27 12:44:20.92	56.77	17.21	-39.6	-40.8	21.4	0.00e+00	0	32	0	470810624	52	6269
2026-01-27 12:44:21.93	56.98	17.26	-39.7	-40.9	21.4	0.00e+00	0	32	0	472907776	52	6335
2026-01-27 12:44:22.94	57.19	17.31	-39.8	-40.9	21.3	0.00e+00	0	32	0	475004928	52	6373
2026-01-27 12:44:23.95	57.40	17.35	-39.8	-40.9	21.3	0.00e+00	0	32	0	477102080	52	6386
2026-01-27 12:44:24.96	57.61	17.40	-39.5	-40.7	21.7	0.00e+00	0	32	0	478150656	52	6179
2026-01-27 12:44:25.97	57.82	17.45	-38.9	-40.0	22.1	0.00e+00	0	32	0	480247808	52	5704
2026-01-27 12:44:26.98	58.03	17.50	-38.9	-40.0	22.1	0.00e+00	0	32	0	482344960	52	5715
2026-01-27 12:44:27.99	58.24	17.55	-38.8	-39.9	22.2	0.00e+00	0	32	0	484442112	52	5635
2026-01-27 12:44:29.00	58.46	17.59	-38.7	-39.7	22.4	0.00e+00	0	32	0	486539264	50	6218
2026-01-27 12:44:30.01	58.67	17.64	-38.7	-39.7	22.3	0.00e+00	0	32	0	487587840	50	6243
2026-01-27 12:44:31.02	58.89	17.69	-39.0	-40.0	22.1	0.00e+00	0	32	0	489684992	50	6452
2026-01-27 12:44:32.03	59.10	17.73	-38.8	-39.9	22.1	0.00e+00	0	32	0	491782144	50	6336
2026-01-27 12:44:33.04	59.32	17.78	-38.7	-39.8	22.3	0.00e+00	0	32	0	493879296	50	6246
2026-01-27 12:44:34.05	59.54	17.82	-38.6	-39.6	22.4	0.00e+00	0	32	0	495976448	50	6144
2026-01-27 12:44:35.06	59.76	17.87	-38.4	-39.4	22.6	0.00e+00	0	32	0	497025024	50	5976
2026-01-27 12:44:36.07	59.97	17.91	-38.5	-39.5	22.5	0.00e+00	0	32	0	499122176	50	6089
2026-01-27 12:44:37.08	60.19	17.96	-38.8	-39.8	22.3	0.00e+00	0	32	0	501219328	50	6291
2026-01-27 12:44:38.09	60.41	18.00	-38.8	-39.8	22.3	0.00e+00	0	32	0	503316480	50	6284
2026-01-27 12:44:39.10	60.63	18.05	-39.3	-40.4	21.8	0.00e+00	0	32	0	505413632	50	6733
2026-01-27 12:44:40.11	60.85	18.09	-39.0	-40.1	21.8	0.00e+00	0	32	0	507510784	50	6496
2026-01-27 12:44:41.12	61.07	18.13	-38.7	-39.7	22.3	0.00e+00	0	32	0	508559360	50	6240
2026-01-27 12:44:42.12	61.29	18.18	-38.4	-39.4	22.6	0.00e+00	0	32	0	510656512	50	6009
2026-01-27 12:44:43.13	61.52	18.22	-38.0	-38.9	23.1	0.00e+00	0	32	0	512753664	50	5695
2026-01-27 12:44:44.14	61.74	18.26	-37.9	-38.8	23.0	0.00e+00	0	32	0	514850816	50	5607
2026-01-27 12:44:45.15	61.96	18.30	-37.9	-38.8	22.8	0.00e+00	0	32	0	516947968	50	5623
2026-01-27 12:44:46.16	62.19	18.34	-37.7	-38.7	23.0	0.00e+00	0	32	0	517996544	48	6192
2026-01-27 12:44:47.17	62.41	18.38	-38.0	-39.0	22.8	0.00e+00	0	32	0	520093696	48	6423
2026-01-27 12:44:48.18	62.64	18.43	-38.2	-39.2	22.7	0.00e+00	0	32	0	522190848	48	6558
2026-01-27 12:44:49.19	62.87	18.47	-38.3	-39.3	22.5	0.00e+00	0	32	0	524288000	48	6686
2026-01-27 12:44:50.20	63.09	18.51	-38.2	-39.3	22.7	0.00e+00	0	32	0	526385152	48	6635
2026-01-27 12:44:51.21	63.32	18.55	-38.2	-39.2	22.8	0.00e+00	0	32	0	527433728	48	6562
2026-01-27 12:44:52.22	63.55	18.58	-38.1	-39.1	22.9	0.00e+00	0	32	0	529530880	48	6490
2026-01-27 12:44:53.23	63.78	18.62	-37.9	-38.8	23.0	0.00e+00	0	32	0	531628032	48	6305
2026-01-27 12:44:54.24	64.01	18.66	-37.7	-38.6	23.2	0.00e+00	0	32	0	533725184	48	6172
2026-01-27 12:44:55.24	64.23	18.70	-37.7	-38.6	23.2	0.00e+00	0	32	0	535822336	48	6157
2026-01-27 12:44:56.25	64.46	18.74	-37.7	-38.7	23.1	0.00e+00	0	32	0	536870912	48	6177
2026-01-27 12:44:57.26	64.69	18.78	-37.3	-38.3	22.9	0.00e+00	0	32	0	538968064	48	5918
2026-01-27 12:44:58.27	64.93	18.81	-37.2	-38.1	23.4	0.00e+00	0	32	0	541065216	48	5827
2026-01-27 12:44:59.28	65.16	18.85	-37.1	-38.0	23.6	0.00e+00	0	32	0	543162368	48	5710
2026-01-27 12:45:00.29	65.39	18.89	-37.0	-37.8	23.7	0.00e+00	0	32	0	545259520	48	5617
2026-01-27 12:45:01.30	65.62	18.92	-36.8	-37.7	23.9	0.00e+00	0	32	0	546308096	46	6184
2026-01-27 12:45:02.31	65.86	18.96	-36.8	-37.6	23.9	0.00e+00	0	32	0	548405248	46	6148
2026-01-27 12:45:03.32	66.09	18.99	-37.1	-38.0	23.7	0.00e+00	0	32	0	550502400	46	6426
2026-01-27 12:45:04.33	66.33	19.03	-37.6	-38.5	23.3	0.00e+00	0	32	0	552599552	46	6793
2026-01-27 12:45:05.34	66.56	19.06	-37.7	-38.6	23.1	0.00e+00	0	32	0	554696704	46	6896
2026-01-27 12:45:06.35	66.80	19.09	-37.3	-38.2	23.5	0.00e+00	0	32	0	555745280	48	5893
2026-01-27 12:45:07.36	67.03	19.13	-37.4	-38.3	23.5	0.00e+00	0	32	0	557842432	48	5907
2026-01-27 12:45:08.37	67.27	19.16	-37.2	-38.1	23.5	0.00e+00	0	32	0	559939584	48	5767
2026-01-27 12:45:09.37	67.50	19.19	-37.3	-38.2	23.3	0.00e+00	0	32	0	562036736	48	5870
2026-01-27 12:45:10.38	67.74	19.22	-37.4	-38.3	23.5	0.00e+00	0	32	0	564133888	48	5906
2026-01-27 12:45:11.39	67.98	19.26	-37.5	-38.5	23.3	0.00e+00	0	32	0	565182464	48	6034
2026-01-27 12:45:12.40	68.22	19.29	-37.6	-38.6	23.2	0.00e+00	0	32	0	567279616	48	6127
2026-01-27 12:45:13.41	68.46	19.32	-37.6	-38.5	23.4	0.00e+00	0	32	0	569376768	48	6067
2026-01-27 12:45:14.42	68.70	19.35	-37.4	-38.3	23.6	0.00e+00	0	32	0	571473920	48	5915
2026-01-27 12:45:15.43	68.94	19.38	-37.3	-38.1	23.6	0.00e+00	0	32	0	573571072	48	5819
2026-01-27 12:45:16.44	69.18	19.41	-37.2	-38.0	23.6	0.00e+00	0	32	0	575668224	48	5750
2026-01-27 12:45:17.45	69.42	19.44	-37.4	-38.3	23.5	0.00e+00	0	32	0	576716800	48	5931
2026-01-27 12:45:18.46	69.66	19.46	-37.4	-38.4	23.4	0.00e+00	0	32	0	578813952	48	5968
2026-01-27 12:45:19.47	69.90	19.49	-37.6	-38.5	23.3	0.00e+00	0	32	0	580911104	48	6072
2026-01-27 12:45:20.48	70.15	19.52	-37.4	-38.3	23.4	0.00e+00	0	32	0	583008256	48	5924
2026-01-27 12:45:21.49	70.39	19.55	-37.1	-38.0	23.3	0.00e+00	0	32	0	585105408	48	5713
2026-01-27 12:45:22.50	70.63	19.57	-37.0	-37.9	23.8	0.00e+00	0	32	0	586153984	48	5642
2026-01-27 12:45:23.51	70.87	19.60	-36.9	-37.7	23.8	0.00e+00	0	32	0	588251136	48	5541
2026-01-27 12:45:24.52	71.12	19.62	-37.3	-38.2	23.6	0.00e+00	0	32	0	590348288	48	5844
2026-01-27 12:45:25.53	71.36	19.65	-37.8	-38.7	23.1	0.00e+00	0	32	0	592445440	48	6198
2026-01-27 12:45:26.54	71.61	19.67	-38.1	-39.1	22.9	0.00e+00	0	32	0	594542592	48	6488
2026-01-27 12:45:27.55	71.85	19.70	-38.2	-39.2	22.7	0.00e+00	0	32	0	595591168	48	6584
2026-01-27 12:45:28.56	72.10	19.72	-38.2	-39.2	22.7	0.00e+00	0	32	0	597688320	48	6581
2026-01-27 12:45:29.57	72.34	19.74	-38.1	-39.1	22.9	0.00e+00	0	32	0	599785472	48	6472
2026-01-27 12:45:30.58	72.59	19.77	-38.1	-39.0	23.0	0.00e+00	0	32	0	601882624	48	6436
2026-01-27 12:45:31.59	72.84	19.79	-38.3	-39.3	22.8	0.00e+00	0	32	0	603979776	48	6678
2026-01-27 12:45:32.60	73.08	19.81	-38.5	-39.6	22.3	0.00e+00	0	32	0	605028352	48	6852
2026-01-27 12:45:33.61	73.33	19.83	-38.5	-39.5	22.5	0.00e+00	0	32	0	607125504	48	6843
2026-01-27 12:45:34.62	73.58	19.85	-38.7	-39.7	22.4	0.00e+00	0	32	0	609222656	48	6955
2026-01-27 12:45:35.63	73.83	19.87	-38.6	-39.6	22.5	0.00e+00	0	32	0	611319808	48	6871
2026-01-27 12:45:36.64	74.08	19.89	-38.4	-39.3	22.7	0.00e+00	0	32	0	613416960	48	6674
2026-01-27 12:45:37.65	74.32	19.91	-38.2	-39.2	22.8	0.00e+00	0	32	0	614465536	48	6554
2026-01-27 12:45:38.66	74.57	19.93	-37.9	-38.8	23.1	0.00e+00	0	32	0	616562688	48	6284
2026-01-27 12:45:39.67	74.82	19.95	-37.7	-38.6	23.2	0.00e+00	0	32	0	618659840	48	6160
2026-01-27 12:45:40.68	75.07	19.97	-37.7	-38.7	23.2	0.00e+00	0	32	0	620756992	48	6180
2026-01-27 12:45:41.69	75.32	19.98	-37.8	-38.7	23.3	0.00e+00	0	32	0	622854144	48	6215
2026-01-27 12:45:42.70	75.57	20.00	-37.8	-38.7	23.2	0.00e+00	0	32	0	623902720	48	6221
2026-01-27 12:45:43.71	75.82	20.01	-37.7	-38.7	23.0	0.00e+00	0	32	0	625999872	48	6174
2026-01-27 12:45:44.72	76.07	20.03	-37.6	-38.5	23.2	0.00e+00	0	32	0	628097024	48	6085
2026-01-27 12:45:45.73	76.32	20.05	-37.4	-38.3	23.4	0.00e+00	0	32	0	630194176	48	5924
2026-01-27 12:45:46.74	76.57	20.06	-37.5	-38.4	23.4	0.00e+00	0	32	0	632291328	48	5992
2026-01-27 12:45:47.75	76.83	20.07	-37.7	-38.6	23.3	0.00e+00	0	32	0	633339904	48	6149
2026-01-27 12:45:48.76	77.08	20.09	-37.9	-38.8	23.1	0.00e+00	0	32	0	635437056	48	6289
2026-01-27 12:45:49.77	77.33	20.10	-38.3	-39.3	22.7	0.00e+00	0	32	0	637534208	48	6648
2026-01-27 12:45:50.78	77.58	20.11	-38.6	-39.6	22.5	0.00e+00	0	32	0	639631360	48	6865
2026-01-27 12:45:51.79	77.83	20.12	-38.6	-39.6	22.5	0.00e+00	0	32	0	641728512	48	6911
2026-01-27 12:45:52.80	78.08	20.13	-38.6	-39.6	22.4	0.00e+00	0	32	0	643825664	48	6925
2026-01-27 12:45:53.81	78.34	20.14	-38.6	-39.6	22.4	0.00e+00	0	32	0	644874240	48	6864
2026-01-27 12:45:54.82	78.59	20.15	-38.5	-39.5	22.4	0.00e+00	0	32	0	646971392	48	6823
2026-01-27 12:45:55.84	78.85	20.16	-38.9	-39.9	22.2	0.00e+00	0	32	0	649068544	48	7134
2026-01-27 12:45:56.85	79.10	20.17	-38.8	-39.8	22.2	0.00e+00	0	32	0	651165696	50	6277
2026-01-27 12:45:57.86	79.35	20.18	-38.6	-39.6	22.4	0.00e+00	0	32	0	653262848	50	6149
2026-01-27 12:45:58.87	79.60	20.19	-38.7	-39.7	22.4	0.00e+00	0	32	0	654311424	50	6188
2026-01-27 12:45:59.88	79.86	20.20	-38.5	-39.5	22.7	0.00e+00	0	32	0	656408576	50	6064
2026-01-27 12:46:00.89	80.11	20.20	-38.3	-39.3	22.7	0.00e+00	0	32	0	658505728	50	5899
2026-01-27 12:46:01.90	80.37	20.21	-38.4	-39.4	22.6	0.00e+00	0	32	0	660602880	50	5993
2026-01-27 12:46:02.91	80.62	20.21	-38.6	-39.7	22.5	0.00e+00	0	32	0	662700032	50	6178
2026-01-27 12:46:03.92	80.87	20.22	-38.6	-39.6	22.4	0.00e+00	0	32	0	663748608	50	6142
2026-01-27 12:46:04.92	81.12	20.22	-38.5	-39.5	22.4	0.00e+00	0	32	0	665845760	50	6100
2026-01-27 12:46:05.93	81.38	20.23	-38.8	-39.9	22.3	0.00e+00	0	32	0	667942912	50	6338
2026-01-27 12:46:06.94	81.63	20.23	-38.7	-39.7	22.4	0.00e+00	0	32	0	670040064	50	6197
2026-01-27 12:46:07.95	81.89	20.23	-38.5	-39.6	22.5	0.00e+00	0	32	0	672137216	50	6128
2026-01-27 12:46:08.96	82.14	20.24	-38.3	-39.3	22.7	0.00e+00	0	32	0	673185792	50	5918
2026-01-27 12:46:09.97	82.39	20.24	-38.5	-39.5	22.5	0.00e+00	0	32	0	675282944	50	6063
2026-01-27 12:46:10.98	82.65	20.24	-38.8	-39.9	22.3	0.00e+00	0	32	0	677380096	50	6355
2026-01-27 12:46:11.99	82.90	20.24	-38.9	-40.0	22.1	0.00e+00	0	32	0	679477248	50	6425
2026-01-27 12:46:13.00	83.16	20.24	-38.9	-40.0	22.2	0.00e+00	0	32	0	681574400	50	6415
2026-01-27 12:46:14.01	83.41	20.24	-39.0	-40.1	22.1	0.00e+00	0	32	0	682622976	50	6467
2026-01-27 12:46:15.02	83.67	20.24	-38.7	-39.7	22.3	0.00e+00	0	32	0	684720128	50	6209
2026-01-27 12:46:16.03	83.92	20.24	-38.7	-39.7	22.3	0.00e+00	0	32	0	686817280	50	6245
2026-01-27 12:46:17.04	84.17	20.24	-38.8	-39.8	22.2	0.00e+00	0	32	0	688914432	50	6314
2026-01-27 12:46:18.05	84.43	20.23	-39.4	-40.5	21.9	0.00e+00	0	32	0	691011584	52	6086
2026-01-27 12:46:19.06	84.68	20.23	-39.7	-40.8	21.9	0.00e+00	0	32	0	692060160	52	6308
2026-01-27 12:46:20.07	84.94	20.23	-39.2	-40.2	21.8	0.00e+00	0	32	0	694157312	52	5895
2026-01-27 12:46:21.08	85.19	20.22	-38.9	-40.0	22.2	0.00e+00	0	32	0	696254464	52	5699
2026-01-27 12:46:22.09	85.44	20.22	-39.1	-40.2	22.2	0.00e+00	0	32	0	698351616	52	5832
2026-01-27 12:46:23.10	85.70	20.21	-38.5	-39.5	22.5	0.00e+00	0	32	0	700448768	50	6070
2026-01-27 12:46:24.11	85.95	20.20	-38.4	-39.4	22.7	0.00e+00	0	32	0	701497344	50	6015
2026-01-27 12:46:25.12	86.20	20.20	-38.3	-39.3	22.9	0.00e+00	0	32	0	703594496	50	5930
2026-01-27 12:46:26.13	86.46	20.19	-38.5	-39.4	22.6	0.00e+00	0	32	0	705691648	50	6031
2026-01-27 12:46:27.14	86.71	20.18	-37.9	-38.8	23.0	0.00e+00	0	32	0	707788800	50	5629
2026-01-27 12:46:28.15	86.96	20.17	-37.8	-38.7	22.7	0.00e+00	0	32	0	709885952	48	6208
2026-01-27 12:46:29.16	87.22	20.17	-37.8	-38.8	23.1	0.00e+00	0	32	0	711983104	48	6253
2026-01-27 12:46:30.17	87.47	20.16	-38.1	-39.1	22.7	0.00e+00	0	32	0	713031680	48	6480
2026-01-27 12:46:31.18	87.72	20.15	-38.3	-39.3	22.6	0.00e+00	0	32	0	715128832	48	6631
2026-01-27 12:46:32.19	87.98	20.14	-38.3	-39.3	22.7	0.00e+00	0	32	0	717225984	48	6648
2026-01-27 12:46:33.19	88.23	20.12	-38.3	-39.3	22.6	0.00e+00	0	32	0	719323136	48	6676
2026-01-27 12:46:34.20	88.48	20.11	-38.2	-39.2	22.7	0.00e+00	0	32	0	721420288	48	6590
2026-01-27 12:46:35.22	88.73	20.10	-38.3	-39.3	22.6	0.00e+00	0	32	0	722468864	48	6652
2026-01-27 12:46:36.22	88.98	20.09	-38.1	-39.1	22.8	0.00e+00	0	32	0	724566016	48	6508
2026-01-27 12:46:37.23	89.23	20.08	-38.3	-39.2	22.7	0.00e+00	0	32	0	726663168	48	6608
2026-01-27 12:46:38.24	89.49	20.06	-38.5	-39.4	22.6	0.00e+00	0	32	0	728760320	48	6768
2026-01-27 12:46:39.25	89.74	20.05	-38.5	-39.5	22.6	0.00e+00	0	32	0	730857472	48	6814
2026-01-27 12:46:40.26	89.99	20.03	-38.3	-39.3	22.6	0.00e+00	0	32	0	731906048	48	6685
2026-01-27 12:46:41.27	90.24	20.02	-38.3	-39.3	22.7	0.00e+00	0	32	0	734003200	48	6619
2026-01-27 12:46:42.28	90.49	20.00	-38.3	-39.3	22.7	0.00e+00	0	32	0	736100352	48	6619
2026-01-27 12:46:43.29	90.74	19.99	-38.2	-39.2	22.7	0.00e+00	0	32	0	738197504	48	6542
2026-01-27 12:46:44.30	90.99	19.97	-38.2	-39.2	22.7	0.00e+00	0	32	0	740294656	48	6562
2026-01-27 12:46:45.31	91.24	19.95	-38.0	-39.0	23.0	0.00e+00	0	32	0	741343232	48	6442
2026-01-27 12:46:46.32	91.49	19.93	-37.9	-38.9	23.1	0.00e+00	0	32	0	743440384	48	6321
2026-01-27 12:46:47.33	91.74	19.91	-37.9	-38.8	23.1	0.00e+00	0	32	0	745537536	48	6315
2026-01-27 12:46:48.33	91.99	19.90	-37.7	-38.7	23.2	0.00e+00	0	32	0	747634688	48	6198
2026-01-27 12:46:49.34	92.23	19.88	-37.8	-38.8	23.0	0.00e+00	0	32	0	749731840	48	6278
2026-01-27 12:46:50.36	92.49	19.86	-37.9	-38.8	23.0	0.00e+00	0	32	0	750780416	48	6307
2026-01-27 12:46:51.37	92.73	19.84	-38.1	-39.1	22.8	0.00e+00	0	32	0	752877568	48	6496
2026-01-27 12:46:52.38	92.98	19.81	-38.2	-39.2	22.8	0.00e+00	0	32	0	754974720	48	6582
2026-01-27 12:46:53.39	93.23	19.79	-38.1	-39.0	22.8	0.00e+00	0	32	0	757071872	48	6460
2026-01-27 12:46:54.40	93.48	19.77	-38.2	-39.2	22.8	0.00e+00	0	32	0	759169024	48	6551
2026-01-27 12:46:55.41	93.72	19.75	-38.2	-39.2	22.7	0.00e+00	0	32	0	760217600	48	6601
2026-01-27 12:46:56.42	93.97	19.72	-38.6	-39.7	22.3	0.00e+00	0	32	0	762314752	48	6940
2026-01-27 12:46:57.43	94.21	19.70	-38.6	-39.7	22.5	0.00e+00	0	32	0	764411904	50	6192
2026-01-27 12:46:58.44	94.46	19.68	-38.7	-39.7	22.2	0.00e+00	0	32	0	766509056	50	6217
2026-01-27 12:46:59.44	94.70	19.65	-38.7	-39.8	22.3	0.00e+00	0	32	0	768606208	50	6275
2026-01-27 12:47:00.46	94.95	19.63	-38.6	-39.6	22.3	0.00e+00	0	32	0	769654784	50	6132
2026-01-27 12:47:01.47	95.20	19.60	-38.3	-39.3	22.5	0.00e+00	0	32	0	771751936	50	5904
2026-01-27 12:47:02.48	95.44	19.58	-38.0	-38.9	22.9	0.00e+00	0	32	0	773849088	50	5676
2026-01-27 12:47:03.48	95.68	19.55	-37.7	-38.6	23.2	0.00e+00	0	32	0	775946240	48	6158
2026-01-27 12:47:04.49	95.92	19.52	-37.5	-38.4	23.4	0.00e+00	0	32	0	778043392	48	5982
2026-01-27 12:47:05.50	96.17	19.50	-37.5	-38.4	23.4	0.00e+00	0	32	0	780140544	48	5994
2026-01-27 12:47:06.51	96.41	19.47	-37.6	-38.5	23.3	0.00e+00	0	32	0	781189120	48	6084
2026-01-27 12:47:07.52	96.65	19.44	-37.7	-38.6	23.2	0.00e+00	0	32	0	783286272	48	6167
2026-01-27 12:47:08.53	96.89	19.41	-37.7	-38.6	23.3	0.00e+00	0	32	0	785383424	48	6135
2026-01-27 12:47:09.54	97.13	19.38	-37.5	-38.4	23.3	0.00e+00	0	32	0	787480576	48	6032
2026-01-27 12:47:10.55	97.37	19.35	-37.4	-38.3	23.4	0.00e+00	0	32	0	789577728	48	5934
2026-01-27 12:47:11.56	97.61	19.32	-37.2	-38.1	23.5	0.00e+00	0	32	0	790626304	48	5787
2026-01-27 12:47:12.57	97.85	19.29	-37.3	-38.2	23.2	0.00e+00	0	32	0	792723456	48	5890
2026-01-27 12:47:13.58	98.09	19.26	-37.7	-38.6	23.2	0.00e+00	0	32	0	794820608	48	6140
2026-01-27 12:47:14.59	98.33	19.23	-37.9	-38.9	22.9	0.00e+00	0	32	0	796917760	48	6356
2026-01-27 12:47:15.60	98.57	19.20	-38.4	-39.4	22.5	0.00e+00	0	32	0	799014912	48	6721
2026-01-27 12:47:16.61	98.81	19.16	-38.4	-39.4	22.6	0.00e+00	0	32	0	800063488	48	6728
2026-01-27 12:47:17.62	99.05	19.13	-37.6	-38.5	23.2	0.00e+00	0	32	0	802160640	48	6084
2026-01-27 12:47:18.63	99.28	19.10	-37.4	-38.3	23.4	0.00e+00	0	32	0	804257792	48	5922
2026-01-27 12:47:19.64	99.52	19.06	-37.3	-38.2	23.5	0.00e+00	0	32	0	806354944	48	5887
2026-01-27 12:47:20.65	99.75	19.03	-37.2	-38.1	23.6	0.00e+00	0	32	0	808452096	48	5785
2026-01-27 12:47:21.66	99.99	18.99	-37.1	-38.0	23.8	0.00e+00	0	32	0	809500672	48	5731
2026-01-27 12:47:22.67	100.22	18.96	-36.9	-37.7	23.8	0.00e+00	0	32	0	811597824	48	5555
2026-01-27 12:47:23.68	100.46	18.92	-37.0	-37.9	23.7	0.00e+00	0	32	0	813694976	48	5664
2026-01-27 12:47:24.69	100.69	18.89	-37.3	-38.2	23.3	0.00e+00	0	32	0	815792128	48	5840
2026-01-27 12:47:25.70	100.93	18.85	-37.3	-38.2	23.5	0.00e+00	0	32	0	817889280	48	5892
2026-01-27 12:47:26.71	101.16	18.81	-37.5	-38.4	23.4	0.00e+00	0	32	0	818937856	48	5997
2026-01-27 12:47:27.72	101.39	18.78	-37.7	-38.7	23.1	0.00e+00	0	32	0	821035008	48	6192
2026-01-27 12:47:28.73	101.62	18.74	-37.4	-38.3	23.5	0.00e+00	0	32	0	823132160	48	5927
2026-01-27 12:47:29.74	101.85	18.70	-37.3	-38.2	23.5	0.00e+00	0	32	0	825229312	48	5852
2026-01-27 12:47:30.75	102.08	18.66	-37.0	-37.9	23.7	0.00e+00	0	32	0	827326464	48	5661
2026-01-27 12:47:31.76	102.31	18.62	-37.2	-38.2	23.5	0.00e+00	0	32	0	828375040	48	5831
2026-01-27 12:47:32.77	102.54	18.59	-37.5	-38.4	23.4	0.00e+00	0	32	0	830472192	48	5985
2026-01-27 12:47:33.78	102.77	18.55	-37.8	-38.8	23.1	0.00e+00	0	32	0	832569344	48	6256
2026-01-27 12:47:34.79	103.00	18.51	-37.9	-38.9	23.0	0.00e+00	0	32	0	834666496	48	6346
2026-01-27 12:47:35.80	103.23	18.47	-37.9	-38.8	23.0	0.00e+00	0	32	0	836763648	48	6315
2026-01-27 12:47:36.81	103.45	18.43	-37.7	-38.7	23.2	0.00e+00	0	32	0	837812224	48	6187
2026-01-27 12:47:37.82	103.68	18.38	-37.7	-38.7	23.1	0.00e+00	0	32	0	839909376	48	6212
2026-01-27 12:47:38.83	103.91	18.34	-37.7	-38.7	23.2	0.00e+00	0	32	0	842006528	48	6182
2026-01-27 12:47:39.84	104.13	18.30	-37.7	-38.7	23.1	0.00e+00	0	32	0	844103680	48	6233
2026-01-27 12:47:40.85	104.36	18.26	-37.6	-38.6	23.3	0.00e+00	0	32	0	846200832	48	6166
2026-01-27 12:47:41.86	104.58	18.22	-37.4	-38.4	23.2	0.00e+00	0	32	0	848297984	48	6032
2026-01-27 12:47:42.87	104.80	18.17	-37.4	-38.4	23.2	0.00e+00	0	32	0	849346560	48	6023
2026-01-27 12:47:43.88	105.03	18.13	-37.6	-38.7	23.2	0.00e+00	0	32	0	851443712	48	6189
2026-01-27 12:47:44.89	105.25	18.09	-37.9	-38.9	22.9	0.00e+00	0	32	0	853540864	48	6363
2026-01-27 12:47:45.90	105.47	18.04	-38.1	-39.1	22.8	0.00e+00	0	32	0	855638016	48	6500
2026-01-27 12:47:46.91	105.69	18.00	-38.4	-39.5	22.5	0.00e+00	0	32	0	857735168	48	6782
2026-01-27 12:47:47.92	105.91	17.96	-38.4	-39.5	22.5	0.00e+00	0	32	0	858783744	48	6770
2026-01-27 12:47:48.93	106.13	17.91	-38.4	-39.5	22.3	0.00e+00	0	32	0	860880896	48	6841
2026-01-27 12:47:49.93	106.35	17.87	-38.5	-39.6	22.0	0.00e+00	0	32	0	862978048	48	6887
2026-01-27 12:47:50.94	106.57	17.82	-38.5	-39.5	22.6	0.00e+00	0	32	0	865075200	48	6833
2026-01-27 12:47:51.95	106.78	17.78	-38.2	-39.2	22.5	0.00e+00	0	32	0	867172352	48	6590
2026-01-27 12:47:52.96	107.00	17.73	-38.3	-39.3	22.4	0.00e+00	0	32	0	868220928	48	6656
2026-01-27 12:47:53.97	107.22	17.68	-38.6	-39.7	22.2	0.00e+00	0	32	0	870318080	48	6969
2026-01-27 12:47:54.98	107.43	17.64	-38.6	-39.7	22.3	0.00e+00	0	32	0	872415232	50	6177
2026-01-27 12:47:55.99	107.65	17.59	-38.4	-39.5	22.5	0.00e+00	0	32	0	874512384	50	6060
2026-01-27 12:47:57.00	107.86	17.54	-38.4	-39.4	22.5	0.00e+00	0	32	0	876609536	50	5990
2026-01-27 12:47:58.01	108.08	17.49	-38.0	-39.0	22.8	0.00e+00	0	32	0	877658112	50	5744
2026-01-27 12:47:59.01	108.29	17.45	-38.2	-39.2	22.7	0.00e+00	0	32	0	879755264	50	5867
2026-01-27 12:48:00.02	108.50	17.40	-37.9	-38.9	22.9	0.00e+00	0	32	0	881852416	50	5678
2026-01-27 12:48:01.03	108.71	17.35	-38.1	-39.1	22.7	0.00e+00	0	32	0	883949568	50	5815
2026-01-27 12:48:02.04	108.92	17.30	-38.3	-39.3	22.5	0.00e+00	0	32	0	886046720	50	5956
2026-01-27 12:48:03.05	109.14	17.25	-38.6	-39.7	22.1	0.00e+00	0	32	0	887095296	50	6192
2026-01-27 12:48:04.06	109.35	17.20	-38.8	-40.0	22.0	0.00e+00	0	32	0	889192448	50	6395
2026-01-27 12:48:05.07	109.55	17.15	-38.9	-40.1	21.9	0.00e+00	0	32	0	891289600	50	6492
2026-01-27 12:48:06.08	109.76	17.10	-38.9	-40.0	22.0	0.00e+00	0	32	0	893386752	50	6418
2026-01-27 12:48:07.09	109.97	17.05	-38.7	-39.8	22.3	0.00e+00	0	32	0	895483904	50	6274
2026-01-27 12:48:08.10	110.18	17.00	-38.5	-39.6	22.3	0.00e+00	0	32	0	896532480	50	6124
2026-01-27 12:48:09.11	110.39	16.95	-38.6	-39.7	22.3	0.00e+00	0	32	0	898629632	50	6181
2026-01-27 12:48:10.12	110.59	16.90	-38.6	-39.7	22.3	0.00e+00	0	32	0	900726784	50	6179
2026-01-27 12:48:11.12	110.79	16.85	-38.7	-39.7	22.2	0.00e+00	0	32	0	902823936	50	6238
2026-01-27 12:48:12.13	111.00	16.80	-39.0	-40.1	22.0	0.00e+00	0	32	0	904921088	50	6470
2026-01-27 12:48:13.14	111.20	16.75	-38.7	-39.7	22.2	0.00e+00	0	32	0	905969664	50	6244
2026-01-27 12:48:14.15	111.41	16.70	-38.7	-39.8	22.1	0.00e+00	0	32	0	908066816	50	6292
2026-01-27 12:48:15.17	111.61	16.65	-38.8	-39.8	22.2	0.00e+00	0	32	0	910163968	50	6315
2026-01-27 12:48:16.17	111.81	16.59	-38.5	-39.6	22.4	0.00e+00	0	32	0	912261120	50	6114
2026-01-27 12:48:17.19	112.01	16.54	-38.4	-39.4	22.6	0.00e+00	0	32	0	914358272	50	6007
2026-01-27 12:48:18.20	112.21	16.49	-38.3	-39.3	22.6	0.00e+00	0	32	0	916455424	50	5912
2026-01-27 12:48:19.21	112.41	16.44	-38.7	-39.7	22.2	0.00e+00	0	32	0	917504000	50	6228
2026-01-27 12:48:20.22	112.61	16.38	-38.8	-39.8	22.1	0.00e+00	0	32	0	919601152	50	6302
2026-01-27 12:48:21.23	112.81	16.33	-39.1	-40.2	21.8	0.00e+00	0	32	0	921698304	50	6597
2026-01-27 12:48:22.24	113.01	16.28	-39.4	-40.6	21.5	0.00e+00	0	32	0	923795456	50	6894
2026-01-27 12:48:23.25	113.21	16.22	-39.7	-40.9	21.2	0.00e+00	0	32	0	925892608	50	7100
2026-01-27 12:48:24.26	113.40	16.17	-39.7	-41.0	21.3	0.00e+00	0	32	0	926941184	52	6400
2026-01-27 12:48:25.27	113.60	16.11	-39.6	-40.8	21.4	0.00e+00	0	32	0	929038336	52	6285
2026-01-27 12:48:26.28	113.79	16.06	-39.2	-40.4	21.7	0.00e+00	0	32	0	931135488	52	5967
2026-01-27 12:48:27.29	113.99	16.01	-39.3	-40.4	21.7	0.00e+00	0	32	0	933232640	52	5980
2026-01-27 12:48:28.30	114.18	15.95	-39.0	-40.1	22.0	0.00e+00	0	32	0	935329792	52	5778
2026-01-27 12:48:29.31	114.38	15.90	-38.9	-39.9	22.1	0.00e+00	0	32	0	936378368	52	5695
2026-01-27 12:48:30.32	114.57	15.84	-38.8	-39.9	22.1	0.00e+00	0	32	0	938475520	50	6333
2026-01-27 12:48:31.33	114.76	15.79	-38.8	-40.0	22.1	0.00e+00	0	32	0	940572672	50	6405
2026-01-27 12:48:32.34	114.95	15.73	-38.7	-39.8	22.2	0.00e+00	0	32	0	942669824	50	6297
2026-01-27 12:48:33.34	115.14	15.68	-38.6	-39.6	22.3	0.00e+00	0	32	0	944766976	50	6172
2026-01-27 12:48:34.35	115.33	15.62	-38.5	-39.5	22.4	0.00e+00	0	32	0	945815552	50	6072
2026-01-27 12:48:35.36	115.52	15.56	-38.6	-39.6	22.2	0.00e+00	0	32	0	947912704	50	6161
2026-01-27 12:48:36.37	115.71	15.51	-38.3	-39.3	22.4	0.00e+00	0	32	0	950009856	50	5948
2026-01-27 12:48:37.38	115.89	15.45	-38.4	-39.4	22.3	0.00e+00	0	32	0	952107008	50	6022
2026-01-27 12:48:38.39	116.08	15.40	-38.5	-39.5	22.2	0.00e+00	0	32	0	954204160	50	6091
2026-01-27 12:48:39.40	116.27	15.34	-38.5	-39.6	22.3	0.00e+00	0	32	0	955252736	50	6119
2026-01-27 12:48:40.41	116.45	15.28	-38.6	-39.7	22.2	0.00e+00	0	32	0	957349888	50	6196
2026-01-27 12:48:41.42	116.64	15.23	-38.7	-39.8	22.2	0.00e+00	0	32	0	959447040	50	6255
2026-01-27 12:48:42.43	116.82	15.17	-38.8	-39.9	22.1	0.00e+00	0	32	0	961544192	50	6327
2026-01-27 12:48:43.44	117.00	15.11	-38.5	-39.6	22.4	0.00e+00	0	32	0	963641344	50	6126
2026-01-27 12:48:44.45	117.19	15.06	-38.7	-39.8	22.3	0.00e+00	0	32	0	964689920	50	6260
2026-01-27 12:48:45.46	117.37	15.00	-38.7	-39.8	22.2	0.00e+00	0	32	0	966787072	50	6267
2026-01-27 12:48:46.47	117.55	14.94	-38.6	-39.6	22.3	0.00e+00	0	32	0	968884224	50	6154
2026-01-27 12:48:47.48	117.73	14.88	-39.0	-40.1	22.0	0.00e+00	0	32	0	970981376	50	6494
2026-01-27 12:48:48.49	117.91	14.83	-38.9	-40.0	21.9	0.00e+00	0	32	0	973078528	50	6452
2026-01-27 12:48:49.50	118.09	14.77	-38.9	-40.1	21.9	0.00e+00	0	32	0	974127104	50	6482
2026-01-27 12:48:50.51	118.27	14.71	-38.8	-40.0	21.9	0.00e+00	0	32	0	976224256	50	6421
2026-01-27 12:48:51.52	118.45	14.65	-38.5	-39.7	22.2	0.00e+00	0	32	0	978321408	50	6175
2026-01-27 12:48:52.52	118.62	14.59	-38.7	-39.8	22.1	0.00e+00	0	32	0	980418560	50	6259
2026-01-27 12:48:53.53	118.80	14.54	-38.4	-39.5	22.3	0.00e+00	0	32	0	982515712	50	6036
2026-01-27 12:48:54.54	118.98	14.48	-38.6	-39.7	22.2	0.00e+00	0	32	0	984612864	50	6205
2026-01-27 12:48:55.55	119.15	14.42	-38.7	-39.8	22.3	0.00e+00	0	32	0	985661440	50	6252
2026-01-27 12:48:56.56	119.33	14.36	-38.3	-39.3	22.5	0.00e+00	0	32	0	987758592	50	5927
2026-01-27 12:48:57.57	119.50	14.30	-38.5	-39.6	22.2	0.00e+00	0	32	0	989855744	50	6148
2026-01-27 12:48:58.58	119.67	14.24	-38.7	-39.9	22.0	0.00e+00	0	32	0	991952896	50	6318
2026-01-27 12:48:59.59	119.85	14.18	-38.9	-40.0	22.0	0.00e+00	0	32	0	994050048	50	6427
2026-01-27 12:49:00.60	120.02	14.12	-38.6	-39.7	22.2	0.00e+00	0	32	0	995098624	50	6215
2026-01-27 12:49:01.61	120.19	14.07	-38.6	-39.7	22.3	0.00e+00	0	32	0	997195776	50	6179
2026-01-27 12:49:02.62	120.36	14.01	-38.3	-39.3	22.6	0.00e+00	0	32	0	999292928	50	5954
2026-01-27 12:49:03.63	120.53	13.95	-38.0	-39.0	22.8	0.00e+00	0	32	0	1001390080	50	5705
2026-01-27 12:49:04.64	120.70	13.89	-37.8	-38.8	22.9	0.00e+00	0	32	0	1003487232	50	5587
2026-01-27 12:49:05.65	120.87	13.83	-37.7	-38.6	23.1	0.00e+00	0	32	0	1004535808	48	6158
2026-01-27 12:49:06.66	121.04	13.77	-37.9	-38.9	22.9	0.00e+00	0	32	0	1006632960	48	6322
2026-01-27 12:49:07.67	121.20	13.71	-37.9	-38.9	22.8	0.00e+00	0	32	0	1008730112	48	6337
2026-01-27 12:49:08.68	121.37	13.65	-38.3	-39.3	22.4	0.00e+00	0	32	0	1010827264	48	6675
2026-01-27 12:49:09.69	121.54	13.59	-38.7	-39.8	22.0	0.00e+00	0	32	0	1012924416	48	7077
2026-01-27 12:49:10.70	121.70	13.53	-39.0	-40.1	21.9	0.00e+00	0	32	0	1013972992	50	6502
2026-01-27 12:49:11.71	121.87	13.47	-39.2	-40.4	21.6	0.00e+00	0	32	0	1016070144	50	6719
2026-01-27 12:49:12.72	122.03	13.41	-39.1	-40.3	21.7	0.00e+00	0	32	0	1018167296	50	6616
2026-01-27 12:49:13.73	122.20	13.35	-38.9	-40.0	21.9	0.00e+00	0	32	0	1020264448	50	6450
2026-01-27 12:49:14.74	122.36	13.29	-38.6	-39.7	22.2	0.00e+00	0	32	0	1022361600	50	6223
2026-01-27 12:49:15.75	122.52	13.23	-38.3	-39.3	22.6	0.00e+00	0	32	0	1023410176	50	5931
2026-01-27 12:49:16.76	122.68	13.17	-37.9	-38.9	22.8	0.00e+00	0	32	0	1025507328	50	5672
2026-01-27 12:49:17.77	122.84	13.11	-37.7	-38.7	23.0	0.00e+00	0	32	0	1027604480	50	5521
2026-01-27 12:49:18.78	123.00	13.05	-37.4	-38.3	23.3	0.00e+00	0	32	0	1029701632	48	5934
2026-01-27 12:49:19.79	123.16	12.99	-37.6	-38.5	23.2	0.00e+00	0	32	0	1031798784	48	6058
2026-01-27 12:49:20.80	123.32	12.93	-37.5	-38.4	23.2	0.00e+00	0	32	0	1032847360	48	5978
2026-01-27 12:49:21.81	123.48	12.87	-37.6	-38.5	23.2	0.00e+00	0	32	0	1034944512	48	6080
2026-01-27 12:49:22.82	123.64	12.81	-37.7	-38.7	23.0	0.00e+00	0	32	0	1037041664	48	6192
2026-01-27 12:49:23.83	123.80	12.75	-37.7	-38.7	23.0	0.00e+00	0	32	0	1039138816	48	6196
2026-01-27 12:49:24.84	123.95	12.69	-37.4	-38.4	23.2	0.00e+00	0	32	0	1041235968	48	5971
2026-01-27 12:49:25.85	124.11	12.62	-37.6	-38.6	23.0	0.00e+00	0	32	0	1042284544	48	6114
2026-01-27 12:49:26.86	124.26	12.56	-37.8	-38.7	23.0	0.00e+00	0	32	0	1044381696	48	6210
2026-01-27 12:49:27.87	124.42	12.50	-37.4	-38.3	23.1	0.00e+00	0	32	0	1046478848	48	5936
2026-01-27 12:49:28.87	124.57	12.44	-37.5	-38.4	23.1	0.00e+00	0	32	0	1048576000	48	6027
2026-01-27 12:49:29.88	124.72	12.38	-37.6	-38.6	23.0	0.00e+00	0	32	0	1050673152	48	6116
2026-01-27 12:49:30.89	124.88	12.32	-37.9	-38.9	22.8	0.00e+00	0	32	0	1052770304	48	6340
2026-01-27 12:49:31.90	125.03	12.26	-38.0	-39.0	22.5	0.00e+00	0	32	0	1053818880	48	6419
2026-01-27 12:49:32.91	125.18	12.20	-38.3	-39.3	22.4	0.00e+00	0	32	0	1055916032	48	6672
2026-01-27 12:49:33.92	125.33	12.14	-38.6	-39.6	22.2	0.00e+00	0	32	0	1058013184	48	6924
2026-01-27 12:49:34.93	125.48	12.08	-38.6	-39.7	22.2	0.00e+00	0	32	0	1060110336	48	6952
2026-01-27 12:49:35.94	125.63	12.02	-38.7	-39.7	22.1	0.00e+00	0	32	0	1062207488	50	6224
2026-01-27 12:49:36.95	125.78	11.96	-38.9	-40.0	21.8	0.00e+00	0	32	0	1063256064	50	6441
2026-01-27 12:49:37.96	125.93	11.89	-38.8	-39.8	22.1	0.00e+00	0	32	0	1065353216	50	6313
2026-01-27 12:49:38.97	126.08	11.83	-38.6	-39.6	22.1	0.00e+00	0	32	0	1067450368	50	6155
2026-01-27 12:49:39.98	126.23	11.77	-38.5	-39.5	22.3	0.00e+00	0	32	0	1069547520	50	6076
2026-01-27 12:49:40.99	126.37	11.71	-38.5	-39.5	22.3	0.00e+00	0	32	0	1071644672	50	6091
2026-01-27 12:49:42.00	126.52	11.65	-38.5	-39.6	22.3	0.00e+00	0	32	0	1072693248	50	6111
2026-01-27 12:49:43.01	126.67	11.59	-38.6	-39.7	22.2	0.00e+00	0	32	0	1074790400	50	6188
2026-01-27 12:49:44.02	126.81	11.53	-38.7	-39.8	22.2	0.00e+00	0	32	0	1076887552	50	6255
2026-01-27 12:49:45.03	126.96	11.47	-38.9	-40.0	21.9	0.00e+00	0	32	0	1078984704	50	6433
2026-01-27 12:49:46.04	127.10	11.41	-39.1	-40.2	21.7	0.00e+00	0	32	0	1081081856	50	6592
2026-01-27 12:49:47.05	127.24	11.34	-39.0	-40.1	21.9	0.00e+00	0	32	0	1082130432	50	6488
2026-01-27 12:49:48.06	127.39	11.28	-38.8	-39.8	22.1	0.00e+00	0	32	0	1084227584	50	6300
2026-01-27 12:49:49.07	127.53	11.22	-38.2	-39.2	22.5	0.00e+00	0	32	0	1086324736	50	5865
2026-01-27 12:49:50.08	127.67	11.16	-38.0	-39.0	22.7	0.00e+00	0	32	0	1088421888	50	5738
2026-01-27 12:49:51.09	127.81	11.10	-37.7	-38.7	22.9	0.00e+00	0	32	0	1090519040	50	5516
2026-01-27 12:49:52.10	127.95	11.04	-37.6	-38.5	23.1	0.00e+00	0	32	0	1091567616	48	6067
2026-01-27 12:49:53.11	128.09	10.98	-37.6	-38.5	23.2	0.00e+00	0	32	0	1093664768	48	6088
2026-01-27 12:49:54.12	128.23	10.92	-37.6	-38.5	23.1	0.00e+00	0	32	0	1095761920	48	6093
2026-01-27 12:49:55.12	128.37	10.86	-37.8	-38.8	22.9	0.00e+00	0	32	0	1097859072	48	6283
2026-01-27 12:49:56.13	128.51	10.80	-37.8	-38.7	22.8	0.00e+00	0	32	0	1099956224	48	6237
2026-01-27 12:49:57.14	128.64	10.73	-37.9	-38.9	22.7	0.00e+00	0	32	0	1101004800	48	6336
2026-01-27 12:49:58.15	128.78	10.67	-38.0	-39.0	22.7	0.00e+00	0	32	0	1103101952	48	6404
2026-01-27 12:49:59.16	128.92	10.61	-38.1	-39.1	22.6	0.00e+00	0	32	0	1105199104	48	6485
2026-01-27 12:50:00.17	129.05	10.55	-38.4	-39.4	22.3	0.00e+00	0	32	0	1107296256	48	6759
2026-01-27 12:50:01.17	129.19	10.49	-38.3	-39.3	22.4	0.00e+00	0	32	0	1109393408	48	6628
2026-01-27 12:50:02.18	129.32	10.43	-38.5	-39.6	22.2	0.00e+00	0	32	0	1110441984	48	6877
2026-01-27 12:50:03.19	129.46	10.37	-38.7	-39.7	22.1	0.00e+00	0	32	0	1112539136	48	6990
2026-01-27 12:50:04.20	129.59	10.31	-38.8	-39.8	22.0	0.00e+00	0	32	0	1114636288	50	6302
2026-01-27 12:50:05.21	129.73	10.25	-38.8	-39.9	22.0	0.00e+00	0	32	0	1116733440	50	6355
2026-01-27 12:50:06.22	129.86	10.18	-38.6	-39.7	22.0	0.00e+00	0	32	0	1118830592	50	6181
2026-01-27 12:50:07.23	129.99	10.12	-38.8	-39.9	21.9	0.00e+00	0	32	0	1120927744	50	6352
2026-01-27 12:50:08.24	130.12	10.06	-39.0	-40.1	21.8	0.00e+00	0	32	0	1121976320	50	6510
2026-01-27 12:50:09.25	130.25	10.00	-39.2	-40.3	21.6	0.00e+00	0	32	0	1124073472	50	6656
2026-01-27 12:50:10.25	130.38	9.94	-39.4	-40.5	21.4	0.00e+00	0	32	0	1126170624	50	6826
2026-01-27 12:50:11.27	130.51	9.88	-39.2	-40.3	21.6	0.00e+00	0	32	0	1128267776	50	6686
2026-01-27 12:50:12.27	130.64	9.82	-39.0	-40.1	21.8	0.00e+00	0	32	0	1130364928	50	6492
2026-01-27 12:50:13.28	130.77	9.76	-39.0	-40.1	21.7	0.00e+00	0	32	0	1131413504	50	6478
2026-01-27 12:50:14.29	130.90	9.70	-38.8	-39.9	21.8	0.00e+00	0	32	0	1133510656	50	6335
2026-01-27 12:50:15.30	131.03	9.64	-38.6	-39.7	21.7	0.00e+00	0	32	0	1135607808	50	6182
2026-01-27 12:50:16.31	131.16	9.58	-38.4	-39.4	22.0	0.00e+00	0	32	0	1137704960	50	6017
2026-01-27 12:50:17.32	131.28	9.52	-38.1	-39.0	22.5	0.00e+00	0	32	0	1139802112	50	5756
2026-01-27 12:50:18.33	131.41	9.45	-38.1	-39.1	22.6	0.00e+00	0	32	0	1140850688	50	5772
2026-01-27 12:50:19.34	131.54	9.39	-38.0	-38.9	22.6	0.00e+00	0	32	0	1142947840	50	5690
2026-01-27 12:50:20.35	131.66	9.33	-37.9	-38.8	22.7	0.00e+00	0	32	0	1145044992	50	5603
2026-01-27 12:50:21.36	131.79	9.27	-37.7	-38.6	22.7	0.00e+00	0	32	0	1147142144	48	6157
2026-01-27 12:50:22.37	131.91	9.21	-37.9	-38.9	22.1	0.00e+00	0	32	0	1149239296	48	6337
2026-01-27 12:50:23.38	132.04	9.15	-38.1	-39.0	22.1	0.00e+00	0	32	0	1150287872	48	6449
2026-01-27 12:50:24.39	132.16	9.09	-38.4	-39.4	22.1	0.00e+00	0	32	0	1152385024	48	6740
2026-01-27 12:50:25.40	132.28	9.03	-38.5	-39.6	22.1	0.00e+00	0	32	0	1154482176	48	6855
2026-01-27 12:50:26.41	132.41	8.97	-38.8	-39.8	21.8	0.00e+00	0	32	0	1156579328	48	7073
2026-01-27 12:50:27.42	132.53	8.91	-39.2	-40.3	21.6	0.00e+00	0	32	0	1158676480	50	6641
2026-01-27 12:50:28.43	132.65	8.85	-39.1	-40.2	21.6	0.00e+00	0	32	0	1159725056	50	6570
2026-01-27 12:50:29.44	132.77	8.79	-39.5	-40.7	21.1	0.00e+00	0	32	0	1161822208	50	6994
2026-01-27 12:50:30.45	132.89	8.73	-39.6	-40.7	21.0	0.00e+00	0	32	0	1163919360	50	6999
2026-01-27 12:50:31.46	133.01	8.67	-39.4	-40.5	21.2	0.00e+00	0	32	0	1166016512	50	6833
2026-01-27 12:50:32.47	133.13	8.61	-39.6	-40.8	20.9	0.00e+00	0	32	0	1168113664	50	7072
2026-01-27 12:50:33.47	133.25	8.55	-39.5	-40.7	21.2	0.00e+00	0	32	0	1169162240	52	6187
2026-01-27 12:50:34.48	133.37	8.49	-39.9	-41.1	20.7	0.00e+00	0	32	0	1171259392	52	6487
2026-01-27 12:50:35.49	133.49	8.43	-40.2	-41.5	20.4	0.00e+00	0	32	0	1173356544	52	6826
2026-01-27 12:50:36.50	133.60	8.37	-40.3	-41.7	20.4	0.00e+00	0	32	0	1175453696	52	6931
2026-01-27 12:50:37.51	133.72	8.31	-40.3	-41.6	20.3	0.00e+00	0	32	0	1177550848	52	6911
2026-01-27 12:50:38.52	133.84	8.25	-40.6	-42.0	20.0	0.00e+00	0	32	0	1178599424	52	7212
2026-01-27 12:50:39.53	133.96	8.19	-40.4	-41.7	20.1	0.00e+00	0	32	0	1180696576	52	6980
2026-01-27 12:50:40.54	134.07	8.13	-40.6	-42.0	19.9	0.00e+00	0	32	0	1182793728	52	7237
2026-01-27 12:50:41.55	134.19	8.07	-40.4	-41.8	20.1	0.00e+00	0	32	0	1184890880	54	6259
2026-01-27 12:50:42.56	134.30	8.01	-40.6	-42.0	19.9	0.00e+00	0	32	0	1186988032	54	6428
2026-01-27 12:50:43.57	134.42	7.95	-40.5	-41.9	20.0	0.00e+00	0	32	0	1188036608	54	6361
2026-01-27 12:50:44.58	134.53	7.89	-40.6	-42.1	19.9	0.00e+00	0	32	0	1190133760	54	6466
2026-01-27 12:50:45.59	134.64	7.83	-40.1	-41.6	20.2	0.00e+00	0	32	0	1192230912	54	6148
2026-01-27 12:50:46.60	134.76	7.77	-40.0	-41.4	20.4	0.00e+00	0	32	0	1194328064	54	6031
2026-01-27 12:50:47.61	134.87	7.71	-39.4	-40.7	21.0	0.00e+00	0	32	0	1196425216	52	6235
2026-01-27 12:50:48.62	134.98	7.65	-39.8	-41.1	20.8	0.00e+00	0	32	0	1198522368	52	6482
2026-01-27 12:50:49.63	135.10	7.59	-39.8	-41.1	20.7	0.00e+00	0	32	0	1199570944	52	6474
2026-01-27 12:50:50.64	135.21	7.53	-39.7	-40.9	20.8	0.00e+00	0	32	0	1201668096	52	6375
2026-01-27 12:50:51.65	135.32	7.47	-39.6	-40.8	21.0	0.00e+00	0	32	0	1203765248	52	6296
2026-01-27 12:50:52.66	135.43	7.41	-39.4	-40.6	21.2	0.00e+00	0	32	0	1205862400	52	6150
2026-01-27 12:50:53.67	135.54	7.35	-39.7	-41.0	20.8	0.00e+00	0	32	0	1207959552	52	6415
2026-01-27 12:50:54.68	135.65	7.29	-39.7	-40.9	20.7	0.00e+00	0	32	0	1209008128	52	6358
2026-01-27 12:50:55.69	135.76	7.23	-39.8	-41.0	20.8	0.00e+00	0	32	0	1211105280	52	6435
2026-01-27 12:50:56.70	135.87	7.17	-39.8	-41.0	20.7	0.00e+00	0	32	0	1213202432	52	6433
2026-01-27 12:50:57.71	135.98	7.12	-39.6	-40.8	21.0	0.00e+00	0	32	0	1215299584	52	6256
