passes_logs/2026/01/27/R4.6S_Anadyr/R4.6S_Anadyr__20260127_160003_SUOMI_NPP_rec.log

#Pass ID: 20260127_160003_SUOMI NPP
#Satellite: SUOMI NPP
#Configuration: NPP
#almurnet v.1.7.20251203
#Start time: 2026-01-27 16:00:06

#Version: 2.2.20231116
#Station: R4.6S_Anadyr
#Location: 177.4865 lon 64.73178 lat
#TLE: 1 37849U 11061A   26026.87508736  .00000176  00000+0  10464-3 0  9991
#TLE: 2 37849  98.7822 328.8221 0002127  43.3055 316.8288 14.19530452738397

#Time	Az	El	Level	Level2	SNR	BER	BlckErr	Temp	State	Recorded	gain1	gain2
2026-01-27 16:00:06.77	23.91	0.16	-48.9	-61.5	3.4	1.52e+00	0	29	0	0	60	41510
2026-01-27 16:00:07.77	23.89	0.22	-49.0	-64.1	3.6	1.51e+00	0	31	104	0	60	58146
2026-01-27 16:00:08.78	23.86	0.28	-49.0	-64.1	3.6	1.51e+00	0	31	104	0	60	58092
2026-01-27 16:00:09.79	23.83	0.34	-48.9	-64.1	3.6	1.51e+00	0	31	104	0	60	58098
2026-01-27 16:00:10.80	23.80	0.40	-48.9	-64.2	3.6	1.51e+00	0	31	104	0	60	58528
2026-01-27 16:00:11.81	23.77	0.46	-49.0	-64.2	3.6	1.51e+00	0	31	104	0	60	58364
2026-01-27 16:00:12.82	23.74	0.52	-49.0	-64.2	3.6	1.51e+00	0	31	104	0	60	58414
2026-01-27 16:00:13.83	23.72	0.58	-49.0	-64.3	3.6	1.51e+00	0	31	104	0	60	58999
2026-01-27 16:00:14.84	23.69	0.64	-49.0	-64.3	3.6	1.51e+00	0	31	104	0	60	59105
2026-01-27 16:00:15.85	23.66	0.70	-49.1	-64.3	3.6	1.51e+00	0	31	104	0	60	59164
2026-01-27 16:00:16.86	23.63	0.76	-49.1	-64.3	3.6	1.51e+00	0	31	104	0	60	59063
2026-01-27 16:00:17.87	23.60	0.82	-49.0	-64.3	3.6	1.51e+00	0	31	104	0	60	59094
2026-01-27 16:00:18.88	23.57	0.88	-49.0	-64.2	3.6	1.51e+00	0	31	104	0	60	58835
2026-01-27 16:00:19.89	23.54	0.94	-49.0	-64.2	3.6	1.51e+00	0	31	104	0	60	58451
2026-01-27 16:00:20.90	23.51	1.00	-49.0	-64.2	3.6	1.51e+00	0	31	104	0	60	58818
2026-01-27 16:00:21.91	23.48	1.06	-48.9	-64.1	3.6	1.51e+00	0	31	104	0	60	57796
2026-01-27 16:00:22.92	23.45	1.12	-48.9	-64.1	3.5	1.51e+00	0	31	104	0	60	57861
2026-01-27 16:00:23.93	23.42	1.18	-48.8	-64.0	3.6	1.51e+00	0	31	104	0	60	57568
2026-01-27 16:00:24.94	23.39	1.25	-48.7	-63.9	3.5	1.51e+00	0	31	104	0	60	56570
2026-01-27 16:00:25.95	23.36	1.31	-48.6	-63.8	3.6	1.51e+00	0	31	104	0	60	55921
2026-01-27 16:00:26.96	23.33	1.37	-48.5	-63.7	3.6	1.51e+00	0	31	104	0	60	55465
2026-01-27 16:00:27.97	23.30	1.43	-48.4	-63.6	3.6	1.51e+00	0	31	104	0	60	54658
2026-01-27 16:00:28.98	23.27	1.49	-48.3	-63.5	3.6	1.51e+00	0	31	104	0	60	53885
2026-01-27 16:00:29.99	23.24	1.55	-48.1	-63.3	3.6	1.51e+00	0	31	104	0	60	52831
2026-01-27 16:00:31.00	23.21	1.62	-47.9	-63.1	3.6	1.51e+00	0	31	104	0	60	51587
2026-01-27 16:00:32.01	23.17	1.68	-47.6	-62.8	3.6	1.51e+00	0	31	104	0	60	50090
2026-01-27 16:00:33.02	23.14	1.74	-47.6	-62.7	3.6	1.51e+00	0	31	104	0	60	49533
2026-01-27 16:00:34.03	23.11	1.80	-47.6	-62.7	3.6	1.51e+00	0	31	104	0	60	49439
2026-01-27 16:00:35.04	23.08	1.86	-47.6	-62.7	3.6	1.51e+00	0	31	104	0	60	49261
2026-01-27 16:00:36.05	23.05	1.93	-47.6	-62.6	3.6	1.51e+00	0	31	104	0	60	48982
2026-01-27 16:00:37.06	23.02	1.99	-47.6	-62.5	3.6	1.51e+00	0	31	104	0	60	48254
2026-01-27 16:00:38.07	22.98	2.05	-47.6	-62.6	3.6	1.51e+00	0	31	104	0	60	48818
2026-01-27 16:00:39.08	22.95	2.11	-47.6	-62.6	3.6	1.51e+00	0	31	104	0	60	48896
2026-01-27 16:00:40.09	22.92	2.18	-47.6	-62.6	3.6	1.51e+00	0	31	104	0	60	48990
2026-01-27 16:00:41.10	22.89	2.24	-47.6	-62.8	3.6	1.51e+00	0	31	104	0	60	49800
2026-01-27 16:00:42.11	22.85	2.30	-47.6	-62.7	3.5	1.51e+00	0	31	104	0	60	49409
2026-01-27 16:00:43.12	22.82	2.37	-47.6	-62.8	3.6	1.51e+00	0	31	104	0	60	49666
2026-01-27 16:00:44.13	22.79	2.43	-47.6	-62.7	3.6	1.51e+00	0	31	104	0	60	49273
2026-01-27 16:00:45.14	22.76	2.49	-47.6	-62.7	3.6	1.51e+00	0	31	104	0	60	49064
2026-01-27 16:00:46.15	22.72	2.56	-47.6	-62.7	3.6	1.51e+00	0	31	104	0	60	49229
2026-01-27 16:00:47.16	22.69	2.62	-47.6	-62.5	3.6	1.51e+00	0	31	104	0	60	48066
2026-01-27 16:00:48.17	22.65	2.69	-47.6	-62.2	3.6	1.51e+00	0	31	104	0	60	46723
2026-01-27 16:00:49.18	22.62	2.75	-47.5	-61.7	3.6	1.51e+00	0	31	104	0	60	44051
2026-01-27 16:00:50.19	22.59	2.81	-47.5	-61.1	3.6	1.51e+00	0	31	104	0	60	40828
2026-01-27 16:00:51.20	22.55	2.88	-47.5	-60.9	3.6	1.50e+00	0	31	104	0	60	40166
2026-01-27 16:00:52.21	22.52	2.94	-47.5	-61.3	3.6	1.50e+00	0	31	104	0	60	42102
2026-01-27 16:00:53.22	22.48	3.01	-47.5	-62.0	3.6	1.51e+00	0	31	104	0	60	45531
2026-01-27 16:00:54.23	22.45	3.07	-47.6	-62.6	3.6	1.51e+00	0	32	104	0	60	48801
2026-01-27 16:00:55.24	22.41	3.14	-47.5	-61.6	3.6	1.51e+00	0	31	104	0	60	43390
2026-01-27 16:00:56.25	22.38	3.20	-47.3	-57.8	4.6	1.25e+00	0	31	104	0	60	28126
2026-01-27 16:00:57.27	22.34	3.27	-47.0	-54.6	6.3	3.04e-01	1	32	0	1048576	60	19372
2026-01-27 16:00:58.27	22.31	3.33	-46.4	-52.1	9.1	7.62e-02	0	32	0	3145728	60	14550
2026-01-27 16:00:59.28	22.27	3.40	-45.2	-49.0	12.6	8.67e-04	92	32	0	5242880	60	10213
2026-01-27 16:01:00.29	22.24	3.47	-44.7	-48.1	13.6	4.50e-05	0	32	0	7340032	60	9178
2026-01-27 16:01:01.30	22.20	3.53	-43.8	-46.6	15.1	1.75e-05	0	32	0	8388608	60	7691
2026-01-27 16:01:02.31	22.16	3.60	-43.9	-46.6	15.2	0.00e+00	0	31	0	10485760	60	7714
2026-01-27 16:01:03.32	22.13	3.66	-43.0	-45.3	15.9	0.00e+00	0	32	0	12582912	60	6650
2026-01-27 16:01:04.33	22.09	3.73	-44.0	-46.8	13.6	0.00e+00	73	32	0	14680064	60	7926
2026-01-27 16:01:05.34	22.05	3.80	-47.7	-62.6	3.6	1.51e+00	0	32	104	14680064	60	48686
2026-01-27 16:01:06.35	22.02	3.86	-39.7	-41.0	18.8	1.57e-01	63	32	104	14680064	54	5714
2026-01-27 16:01:07.36	21.98	3.93	-47.5	-62.0	3.7	1.26e+00	0	32	104	14680064	60	45448
2026-01-27 16:01:08.37	21.94	4.00	-44.7	-48.0	14.9	1.45e+00	0	32	104	14680064	60	9038
2026-01-27 16:01:09.38	21.91	4.06	-45.2	-49.1	13.0	5.10e-04	0	32	0	15728640	60	10291
2026-01-27 16:01:10.38	21.87	4.13	-42.5	-44.6	17.2	0.00e+00	0	32	0	17825792	58	6849
2026-01-27 16:01:11.39	21.83	4.20	-42.1	-44.0	17.5	0.00e+00	73	32	0	18874368	58	6405
2026-01-27 16:01:12.41	21.79	4.27	-42.0	-43.8	17.7	0.00e+00	0	32	0	20971520	56	7073
2026-01-27 16:01:13.41	21.75	4.33	-41.3	-42.9	18.6	0.00e+00	82	31	0	23068672	56	6370
2026-01-27 16:01:14.42	21.72	4.40	-42.2	-44.1	18.0	0.00e+00	0	32	0	25165824	56	7258
2026-01-27 16:01:15.43	21.68	4.47	-41.8	-43.6	18.2	0.00e+00	12	31	0	27262976	56	6885
2026-01-27 16:01:16.44	21.64	4.54	-41.6	-43.2	18.4	0.00e+00	0	32	0	28311552	56	6586
2026-01-27 16:01:17.45	21.60	4.60	-41.5	-43.2	18.3	0.00e+00	0	31	0	30408704	56	6566
2026-01-27 16:01:18.45	21.56	4.67	-41.4	-43.1	18.4	0.00e+00	0	32	0	32505856	56	6470
2026-01-27 16:01:19.46	21.52	4.74	-41.6	-43.3	18.7	0.00e+00	0	32	0	34603008	56	6632
2026-01-27 16:01:20.47	21.48	4.81	-40.5	-41.9	19.6	0.00e+00	84	32	0	35651584	56	5681
2026-01-27 16:01:21.48	21.44	4.88	-40.3	-41.7	19.8	0.00e+00	0	32	0	37748736	54	6212
2026-01-27 16:01:22.49	21.40	4.95	-39.9	-41.2	20.3	0.00e+00	75	32	0	39845888	54	5842
2026-01-27 16:01:23.50	21.36	5.02	-39.8	-41.1	20.4	0.00e+00	0	31	0	41943040	54	5800
2026-01-27 16:01:24.51	21.32	5.09	-39.8	-41.1	20.4	0.00e+00	0	32	0	44040192	52	6488
2026-01-27 16:01:25.52	21.28	5.16	-39.9	-41.2	20.2	0.00e+00	0	32	0	46137344	52	6570
2026-01-27 16:01:26.53	21.24	5.23	-39.9	-41.2	20.2	0.00e+00	0	32	0	47185920	52	6550
2026-01-27 16:01:27.54	21.20	5.30	-40.2	-41.6	20.1	0.00e+00	79	32	0	49283072	52	6862
2026-01-27 16:01:28.55	21.16	5.37	-40.0	-41.3	20.3	0.00e+00	0	32	0	51380224	52	6631
2026-01-27 16:01:29.56	21.12	5.44	-39.7	-40.9	20.6	0.00e+00	79	32	0	53477376	52	6362
2026-01-27 16:01:30.57	21.07	5.51	-39.9	-41.2	20.4	0.00e+00	0	32	0	55574528	52	6567
2026-01-27 16:01:31.58	21.03	5.58	-40.1	-41.3	20.2	0.00e+00	0	31	0	56623104	52	6685
2026-01-27 16:01:32.59	20.99	5.65	-40.3	-41.7	20.1	0.00e+00	0	32	0	58720256	52	6959
2026-01-27 16:01:33.59	20.95	5.72	-40.1	-41.4	20.4	0.00e+00	0	32	0	60817408	52	6722
2026-01-27 16:01:34.60	20.90	5.79	-39.7	-40.9	20.7	0.00e+00	0	32	0	62914560	52	6384
2026-01-27 16:01:35.61	20.86	5.86	-39.2	-40.3	21.2	0.00e+00	0	32	0	65011712	52	5940
2026-01-27 16:01:36.62	20.82	5.93	-39.3	-40.4	21.2	0.00e+00	78	32	0	66060288	52	6016
2026-01-27 16:01:37.63	20.78	6.00	-39.4	-40.5	21.1	0.00e+00	0	32	0	68157440	52	6083
2026-01-27 16:01:38.64	20.73	6.08	-39.8	-41.0	20.7	0.00e+00	0	32	0	70254592	52	6448
2026-01-27 16:01:39.65	20.69	6.15	-39.3	-40.4	21.3	0.00e+00	0	32	0	72351744	52	6031
2026-01-27 16:01:40.66	20.64	6.22	-39.3	-40.5	21.2	0.00e+00	0	32	0	74448896	52	6082
2026-01-27 16:01:41.67	20.60	6.29	-39.0	-40.1	21.5	0.00e+00	0	32	0	75497472	52	5814
2026-01-27 16:01:42.68	20.56	6.36	-39.1	-40.2	21.4	0.00e+00	0	32	0	77594624	52	5887
2026-01-27 16:01:43.69	20.51	6.44	-38.9	-40.0	21.6	0.00e+00	85	32	0	79691776	52	5747
2026-01-27 16:01:44.70	20.47	6.51	-39.3	-40.5	21.2	0.00e+00	0	32	0	81788928	52	6074
2026-01-27 16:01:45.71	20.42	6.58	-39.5	-40.7	21.0	0.00e+00	82	32	0	83886080	52	6237
2026-01-27 16:01:46.72	20.37	6.66	-39.7	-41.0	20.9	0.00e+00	0	32	0	84934656	52	6400
2026-01-27 16:01:47.73	20.33	6.73	-39.5	-40.7	21.2	0.00e+00	0	32	0	87031808	52	6219
2026-01-27 16:01:48.74	20.28	6.80	-39.2	-40.4	21.4	0.00e+00	9	32	0	89128960	52	5974
2026-01-27 16:01:49.75	20.24	6.88	-39.2	-40.3	21.4	0.00e+00	0	32	0	91226112	52	5944
2026-01-27 16:01:50.76	20.19	6.95	-39.1	-40.2	21.6	0.00e+00	88	32	0	93323264	52	5879
2026-01-27 16:01:51.77	20.14	7.03	-39.2	-40.4	21.4	0.00e+00	0	31	0	94371840	52	5976
2026-01-27 16:01:52.78	20.10	7.10	-38.8	-39.9	21.7	0.00e+00	81	32	0	96468992	52	5670
2026-01-27 16:01:53.78	20.05	7.18	-39.0	-40.1	21.6	0.00e+00	0	32	0	98566144	52	5828
2026-01-27 16:01:54.79	20.00	7.25	-39.0	-40.1	21.7	0.00e+00	0	32	0	100663296	52	5800
2026-01-27 16:01:55.80	19.95	7.33	-38.9	-39.9	21.8	0.00e+00	0	32	0	102760448	52	5695
2026-01-27 16:01:56.81	19.91	7.40	-38.8	-39.9	21.8	0.00e+00	0	32	0	103809024	52	5658
2026-01-27 16:01:57.82	19.86	7.48	-38.9	-40.0	21.7	0.00e+00	12	32	0	105906176	52	5755
2026-01-27 16:01:58.83	19.81	7.55	-38.9	-40.0	21.7	0.00e+00	0	32	0	108003328	52	5748
2026-01-27 16:01:59.84	19.76	7.63	-39.0	-40.1	21.8	0.00e+00	85	32	0	110100480	52	5803
2026-01-27 16:02:00.85	19.71	7.70	-38.9	-40.0	21.8	0.00e+00	0	32	0	112197632	50	6408
2026-01-27 16:02:01.86	19.66	7.78	-38.7	-39.8	22.0	0.00e+00	0	32	0	114294784	50	6247
2026-01-27 16:02:02.87	19.61	7.86	-38.8	-39.8	21.9	0.00e+00	0	32	0	115343360	50	6312
2026-01-27 16:02:03.88	19.56	7.93	-38.7	-39.7	22.0	0.00e+00	0	32	0	117440512	50	6244
2026-01-27 16:02:04.89	19.51	8.01	-38.9	-40.0	21.7	0.00e+00	85	32	0	119537664	50	6426
2026-01-27 16:02:05.90	19.46	8.09	-38.8	-39.9	22.0	0.00e+00	0	32	0	121634816	50	6322
2026-01-27 16:02:06.91	19.41	8.16	-38.7	-39.8	21.8	0.00e+00	85	32	0	123731968	50	6278
2026-01-27 16:02:07.92	19.36	8.24	-39.0	-40.1	21.7	0.00e+00	0	32	0	124780544	50	6519
2026-01-27 16:02:08.92	19.31	8.32	-39.0	-40.1	21.7	0.00e+00	0	32	0	126877696	50	6479
2026-01-27 16:02:09.93	19.25	8.40	-38.8	-39.9	22.0	0.00e+00	0	32	0	128974848	50	6328
2026-01-27 16:02:10.94	19.20	8.48	-38.8	-39.9	21.9	0.00e+00	0	32	0	131072000	50	6341
2026-01-27 16:02:11.95	19.15	8.55	-38.8	-39.9	21.8	0.00e+00	21	32	0	133169152	50	6348
2026-01-27 16:02:12.96	19.10	8.63	-38.8	-39.9	21.8	0.00e+00	0	32	0	134217728	50	6373
2026-01-27 16:02:13.97	19.04	8.71	-38.9	-39.9	21.9	0.00e+00	84	32	0	136314880	50	6384
2026-01-27 16:02:14.98	18.99	8.79	-38.8	-39.8	22.1	0.00e+00	0	32	0	138412032	50	6294
2026-01-27 16:02:15.99	18.94	8.87	-38.8	-39.9	21.9	0.00e+00	0	32	0	140509184	50	6359
2026-01-27 16:02:17.00	18.88	8.95	-38.7	-39.8	22.0	0.00e+00	0	32	0	142606336	50	6275
2026-01-27 16:02:18.01	18.83	9.03	-38.7	-39.7	21.9	0.00e+00	0	32	0	143654912	50	6238
2026-01-27 16:02:19.02	18.77	9.11	-38.5	-39.6	22.2	0.00e+00	0	32	0	145752064	50	6121
2026-01-27 16:02:20.03	18.72	9.19	-38.6	-39.6	22.1	0.00e+00	0	32	0	147849216	50	6165
2026-01-27 16:02:21.04	18.66	9.27	-38.5	-39.6	22.2	0.00e+00	84	32	0	149946368	50	6132
2026-01-27 16:02:22.05	18.61	9.35	-38.7	-39.7	22.0	0.00e+00	0	32	0	152043520	50	6218
2026-01-27 16:02:23.06	18.55	9.43	-38.7	-39.8	22.0	0.00e+00	86	32	0	153092096	50	6250
2026-01-27 16:02:24.07	18.50	9.51	-38.6	-39.6	22.2	0.00e+00	0	32	0	155189248	50	6159
2026-01-27 16:02:25.08	18.44	9.59	-38.6	-39.6	22.1	0.00e+00	0	32	0	157286400	50	6155
2026-01-27 16:02:26.09	18.38	9.68	-38.8	-39.8	22.0	0.00e+00	33	32	0	159383552	50	6303
2026-01-27 16:02:27.10	18.33	9.76	-38.8	-39.9	21.9	0.00e+00	0	32	0	161480704	50	6370
2026-01-27 16:02:28.11	18.27	9.84	-38.5	-39.5	22.2	0.00e+00	3	32	0	162529280	50	6094
2026-01-27 16:02:29.12	18.21	9.92	-38.4	-39.4	22.4	0.00e+00	0	32	0	164626432	50	6028
2026-01-27 16:02:30.13	18.15	10.00	-38.4	-39.5	22.3	0.00e+00	79	32	0	166723584	50	6050
2026-01-27 16:02:31.14	18.09	10.09	-38.5	-39.5	22.2	0.00e+00	0	32	0	168820736	50	6089
2026-01-27 16:02:32.15	18.03	10.17	-38.5	-39.6	22.2	0.00e+00	0	32	0	170917888	50	6119
2026-01-27 16:02:33.16	17.97	10.25	-38.5	-39.5	22.2	0.00e+00	0	32	0	171966464	50	6077
2026-01-27 16:02:34.17	17.92	10.34	-38.5	-39.5	22.4	0.00e+00	0	32	0	174063616	50	6066
2026-01-27 16:02:35.18	17.86	10.42	-38.5	-39.5	22.3	0.00e+00	57	32	0	176160768	50	6059
2026-01-27 16:02:36.19	17.79	10.51	-38.4	-39.5	22.3	0.00e+00	33	32	0	178257920	50	6055
2026-01-27 16:02:37.20	17.73	10.59	-38.2	-39.2	22.5	0.00e+00	88	32	0	180355072	50	5835
2026-01-27 16:02:38.21	17.67	10.67	-38.2	-39.2	22.5	0.00e+00	0	32	0	182452224	50	5883
2026-01-27 16:02:39.22	17.61	10.76	-38.3	-39.3	22.4	0.00e+00	33	32	0	183500800	50	5931
2026-01-27 16:02:40.22	17.55	10.84	-38.3	-39.2	22.5	0.00e+00	0	32	0	185597952	50	5896
2026-01-27 16:02:41.23	17.49	10.93	-38.4	-39.4	22.5	0.00e+00	0	32	0	187695104	50	5966
2026-01-27 16:02:42.24	17.42	11.01	-38.2	-39.2	22.6	0.00e+00	84	32	0	189792256	50	5887
2026-01-27 16:02:43.25	17.36	11.10	-38.2	-39.2	22.6	0.00e+00	0	32	0	191889408	50	5843
2026-01-27 16:02:44.26	17.30	11.19	-38.3	-39.2	22.6	0.00e+00	28	32	0	192937984	50	5883
2026-01-27 16:02:45.27	17.23	11.27	-38.0	-38.9	22.7	0.00e+00	0	32	0	195035136	50	5668
2026-01-27 16:02:46.28	17.17	11.36	-38.2	-39.2	22.6	0.00e+00	0	32	0	197132288	50	5833
2026-01-27 16:02:47.29	17.10	11.45	-38.0	-39.0	22.7	0.00e+00	0	32	0	199229440	50	5721
2026-01-27 16:02:48.30	17.04	11.53	-38.1	-39.1	22.7	0.00e+00	0	32	0	201326592	50	5804
2026-01-27 16:02:49.31	16.97	11.62	-38.1	-39.1	22.7	0.00e+00	86	32	0	202375168	50	5801
2026-01-27 16:02:50.32	16.91	11.71	-38.2	-39.2	22.8	0.00e+00	0	32	0	204472320	50	5850
2026-01-27 16:02:51.33	16.84	11.80	-38.0	-38.9	22.8	0.00e+00	59	32	0	206569472	50	5681
2026-01-27 16:02:52.34	16.77	11.89	-38.1	-39.1	22.7	0.00e+00	0	32	0	208666624	50	5785
2026-01-27 16:02:53.35	16.71	11.97	-38.0	-39.0	22.7	0.00e+00	9	32	0	210763776	50	5727
2026-01-27 16:02:54.36	16.64	12.06	-38.0	-39.0	22.8	0.00e+00	0	32	0	211812352	50	5742
2026-01-27 16:02:55.37	16.57	12.15	-38.1	-39.1	22.7	0.00e+00	0	32	0	213909504	50	5782
2026-01-27 16:02:56.38	16.50	12.24	-38.2	-39.1	22.7	0.00e+00	0	32	0	216006656	50	5822
2026-01-27 16:02:57.39	16.43	12.33	-38.2	-39.2	22.7	0.00e+00	0	32	0	218103808	50	5847
2026-01-27 16:02:58.40	16.36	12.42	-37.8	-38.7	23.0	0.00e+00	79	32	0	220200960	50	5523
2026-01-27 16:02:59.41	16.30	12.51	-38.1	-39.1	22.8	0.00e+00	0	32	0	221249536	50	5782
2026-01-27 16:03:00.42	16.22	12.60	-38.0	-39.0	22.8	0.00e+00	47	32	0	223346688	50	5711
2026-01-27 16:03:01.42	16.15	12.69	-38.0	-38.9	22.8	0.00e+00	0	32	0	225443840	50	5693
2026-01-27 16:03:02.44	16.08	12.79	-38.3	-39.3	22.6	0.00e+00	0	32	0	227540992	50	5898
2026-01-27 16:03:03.45	16.01	12.88	-38.2	-39.2	22.7	0.00e+00	0	32	0	229638144	50	5872
2026-01-27 16:03:04.46	15.94	12.97	-38.2	-39.1	22.8	0.00e+00	0	32	0	230686720	50	5828
2026-01-27 16:03:05.47	15.87	13.06	-38.3	-39.4	22.6	0.00e+00	86	32	0	232783872	50	5967
2026-01-27 16:03:06.47	15.79	13.15	-38.3	-39.3	22.6	0.00e+00	0	32	0	234881024	50	5951
2026-01-27 16:03:07.48	15.72	13.24	-38.3	-39.3	22.5	0.00e+00	81	32	0	236978176	50	5944
2026-01-27 16:03:08.49	15.65	13.34	-38.6	-39.6	22.3	0.00e+00	0	32	0	239075328	50	6135
2026-01-27 16:03:09.51	15.57	13.43	-38.5	-39.5	22.5	0.00e+00	0	32	0	240123904	50	6064
2026-01-27 16:03:10.52	15.50	13.53	-38.4	-39.4	22.5	0.00e+00	0	32	0	242221056	50	6022
2026-01-27 16:03:11.53	15.42	13.62	-38.4	-39.4	22.5	0.00e+00	0	32	0	244318208	50	6003
2026-01-27 16:03:12.54	15.34	13.71	-38.6	-39.6	22.3	0.00e+00	83	32	0	246415360	50	6165
2026-01-27 16:03:13.54	15.27	13.81	-38.3	-39.3	22.6	0.00e+00	0	32	0	248512512	50	5927
2026-01-27 16:03:14.55	15.19	13.90	-38.2	-39.2	22.7	0.00e+00	92	32	0	250609664	50	5831
2026-01-27 16:03:15.56	15.11	14.00	-38.3	-39.3	22.6	0.00e+00	0	32	0	251658240	50	5908
2026-01-27 16:03:16.56	15.04	14.09	-38.2	-39.2	22.7	0.00e+00	0	32	0	253755392	50	5859
2026-01-27 16:03:17.57	14.96	14.19	-38.2	-39.2	22.7	0.00e+00	0	32	0	255852544	50	5858
2026-01-27 16:03:18.58	14.88	14.28	-38.1	-39.1	22.8	0.00e+00	0	32	0	257949696	50	5793
2026-01-27 16:03:19.59	14.80	14.38	-38.2	-39.2	22.7	0.00e+00	0	32	0	260046848	50	5851
2026-01-27 16:03:20.60	14.72	14.48	-38.1	-39.1	22.8	0.00e+00	0	32	0	261095424	50	5817
2026-01-27 16:03:21.60	14.64	14.57	-37.9	-38.9	22.9	0.00e+00	91	32	0	263192576	50	5665
2026-01-27 16:03:22.61	14.56	14.67	-38.0	-38.9	23.0	0.00e+00	0	32	0	265289728	50	5669
2026-01-27 16:03:23.62	14.47	14.77	-38.0	-39.0	23.0	0.00e+00	0	32	0	267386880	50	5701
2026-01-27 16:03:24.63	14.39	14.87	-37.9	-38.9	23.0	0.00e+00	0	32	0	269484032	50	5642
2026-01-27 16:03:25.64	14.31	14.97	-38.0	-39.0	22.9	0.00e+00	0	32	0	270532608	50	5698
2026-01-27 16:03:26.65	14.22	15.06	-38.1	-39.0	22.8	0.00e+00	41	32	0	272629760	50	5756
2026-01-27 16:03:27.65	14.14	15.16	-38.3	-39.3	22.6	0.00e+00	0	32	0	274726912	50	5956
2026-01-27 16:03:28.66	14.06	15.26	-38.2	-39.2	22.7	0.00e+00	92	32	0	276824064	50	5889
2026-01-27 16:03:29.67	13.97	15.36	-38.2	-39.2	22.7	0.00e+00	0	32	0	278921216	50	5881
2026-01-27 16:03:30.68	13.88	15.46	-38.5	-39.5	22.4	0.00e+00	44	32	0	279969792	50	6087
2026-01-27 16:03:31.69	13.80	15.56	-38.3	-39.4	22.6	0.00e+00	0	32	0	282066944	50	5967
2026-01-27 16:03:32.70	13.71	15.66	-38.0	-39.0	22.8	0.00e+00	0	32	0	284164096	50	5743
2026-01-27 16:03:33.70	13.62	15.76	-38.0	-39.0	22.9	0.00e+00	0	32	0	286261248	50	5740
2026-01-27 16:03:34.71	13.54	15.87	-38.0	-39.0	22.9	0.00e+00	0	32	0	288358400	50	5696
2026-01-27 16:03:35.72	13.45	15.97	-38.1	-39.1	22.8	0.00e+00	0	32	0	289406976	50	5811
2026-01-27 16:03:36.73	13.36	16.07	-38.1	-39.1	22.8	0.00e+00	0	32	0	291504128	50	5790
2026-01-27 16:03:37.74	13.27	16.17	-38.3	-39.3	22.7	0.00e+00	77	32	0	293601280	50	5904
2026-01-27 16:03:38.75	13.17	16.27	-37.9	-38.8	23.0	0.00e+00	0	32	0	295698432	50	5630
2026-01-27 16:03:39.76	13.08	16.38	-37.6	-38.6	23.2	0.00e+00	0	32	0	297795584	48	6112
2026-01-27 16:03:40.77	12.99	16.48	-37.9	-38.8	23.1	0.00e+00	0	32	0	298844160	48	6298
2026-01-27 16:03:41.78	12.90	16.59	-37.7	-38.6	23.2	0.00e+00	0	32	0	300941312	48	6136
2026-01-27 16:03:42.78	12.80	16.69	-37.5	-38.4	23.4	0.00e+00	0	32	0	303038464	48	6016
2026-01-27 16:03:43.80	12.71	16.79	-38.0	-38.9	23.0	0.00e+00	0	32	0	305135616	48	6370
2026-01-27 16:03:44.81	12.61	16.90	-37.6	-38.5	23.3	0.00e+00	45	32	0	307232768	48	6087
2026-01-27 16:03:45.82	12.52	17.01	-37.4	-38.3	23.5	0.00e+00	0	32	0	308281344	48	5932
2026-01-27 16:03:46.83	12.42	17.11	-37.6	-38.5	23.4	0.00e+00	0	32	0	310378496	48	6094
2026-01-27 16:03:47.84	12.33	17.22	-37.6	-38.5	23.3	0.00e+00	0	32	0	312475648	48	6061
2026-01-27 16:03:48.85	12.23	17.32	-37.6	-38.6	23.2	0.00e+00	0	32	0	314572800	48	6116
2026-01-27 16:03:49.86	12.13	17.43	-37.6	-38.6	23.3	0.00e+00	2	32	0	316669952	48	6109
2026-01-27 16:03:50.87	12.03	17.54	-37.8	-38.8	23.1	0.00e+00	0	32	0	317718528	48	6248
2026-01-27 16:03:51.88	11.93	17.65	-38.0	-38.9	23.0	0.00e+00	42	32	0	319815680	48	6370
2026-01-27 16:03:52.89	11.83	17.75	-37.9	-38.8	23.0	0.00e+00	0	32	0	321912832	48	6306
2026-01-27 16:03:53.90	11.73	17.86	-38.0	-38.9	23.0	0.00e+00	0	32	0	324009984	48	6388
2026-01-27 16:03:54.91	11.62	17.97	-37.7	-38.7	23.2	0.00e+00	0	32	0	326107136	48	6189
2026-01-27 16:03:55.92	11.52	18.08	-38.1	-39.0	22.9	0.00e+00	0	32	0	327155712	48	6453
2026-01-27 16:03:56.93	11.42	18.19	-38.3	-39.3	22.7	0.00e+00	0	32	0	329252864	48	6678
2026-01-27 16:03:57.93	11.31	18.30	-38.1	-39.1	22.9	0.00e+00	0	32	0	331350016	48	6496
2026-01-27 16:03:58.94	11.21	18.41	-38.1	-39.1	22.8	0.00e+00	68	32	0	333447168	48	6491
2026-01-27 16:03:59.95	11.10	18.52	-38.6	-39.6	22.6	0.00e+00	0	32	0	335544320	48	6879
2026-01-27 16:04:00.96	11.00	18.63	-38.5	-39.5	22.5	0.00e+00	64	32	0	336592896	48	6818
2026-01-27 16:04:01.97	10.89	18.74	-38.6	-39.7	22.3	0.00e+00	0	32	0	338690048	48	6932
2026-01-27 16:04:02.98	10.78	18.86	-38.5	-39.5	22.5	0.00e+00	0	32	0	340787200	50	6076
2026-01-27 16:04:03.99	10.67	18.97	-38.9	-39.9	22.2	0.00e+00	73	32	0	342884352	50	6372
2026-01-27 16:04:05.00	10.56	19.08	-38.8	-39.9	22.3	0.00e+00	0	32	0	344981504	50	6320
2026-01-27 16:04:06.00	10.45	19.19	-38.3	-39.2	22.7	0.00e+00	34	32	0	347078656	50	5896
2026-01-27 16:04:07.01	10.34	19.31	-38.3	-39.3	22.7	0.00e+00	0	32	0	348127232	50	5922
2026-01-27 16:04:08.02	10.22	19.42	-38.6	-39.5	22.6	0.00e+00	81	32	0	350224384	50	6103
2026-01-27 16:04:09.03	10.11	19.54	-38.5	-39.5	22.6	0.00e+00	0	32	0	352321536	50	6091
2026-01-27 16:04:10.04	10.00	19.65	-38.7	-39.8	22.5	0.00e+00	0	32	0	354418688	50	6256
2026-01-27 16:04:11.05	9.88	19.77	-38.4	-39.4	22.5	0.00e+00	0	32	0	356515840	50	5992
2026-01-27 16:04:12.06	9.76	19.88	-38.7	-39.7	22.2	0.00e+00	0	32	0	357564416	50	6238
2026-01-27 16:04:13.07	9.65	20.00	-39.0	-40.1	22.0	0.00e+00	87	32	0	359661568	50	6492
2026-01-27 16:04:14.07	9.53	20.11	-38.9	-40.0	22.1	0.00e+00	0	32	0	361758720	50	6423
2026-01-27 16:04:15.08	9.41	20.23	-38.9	-40.0	22.2	0.00e+00	68	32	0	363855872	50	6433
2026-01-27 16:04:16.09	9.29	20.35	-38.8	-39.8	22.6	0.00e+00	0	32	0	365953024	50	6312
2026-01-27 16:04:17.10	9.17	20.46	-38.6	-39.6	22.7	0.00e+00	0	32	0	367001600	50	6127
2026-01-27 16:04:18.11	9.05	20.58	-38.5	-39.5	22.7	0.00e+00	0	32	0	369098752	50	6036
2026-01-27 16:04:19.12	8.92	20.70	-38.5	-39.5	22.5	0.00e+00	0	32	0	371195904	50	6062
2026-01-27 16:04:20.13	8.80	20.82	-37.9	-38.9	23.1	0.00e+00	37	32	0	373293056	50	5631
2026-01-27 16:04:21.14	8.67	20.94	-38.1	-39.1	23.0	0.00e+00	0	32	0	375390208	50	5783
2026-01-27 16:04:22.15	8.55	21.06	-37.7	-38.6	23.3	0.00e+00	92	32	0	376438784	48	6144
2026-01-27 16:04:23.16	8.42	21.18	-37.8	-38.7	23.4	0.00e+00	0	32	0	378535936	48	6185
2026-01-27 16:04:24.17	8.29	21.30	-37.7	-38.6	23.3	0.00e+00	0	32	0	380633088	48	6128
2026-01-27 16:04:25.18	8.16	21.42	-37.7	-38.6	23.3	0.00e+00	0	32	0	382730240	48	6127
2026-01-27 16:04:26.19	8.03	21.54	-37.9	-38.8	23.0	0.00e+00	1	32	0	384827392	48	6306
2026-01-27 16:04:27.20	7.90	21.66	-38.3	-39.2	22.9	0.00e+00	81	32	0	385875968	48	6587
2026-01-27 16:04:28.21	7.77	21.79	-38.2	-39.2	22.9	0.00e+00	0	32	0	387973120	48	6564
2026-01-27 16:04:29.22	7.64	21.91	-38.6	-39.7	22.5	0.00e+00	92	32	0	390070272	48	6929
2026-01-27 16:04:30.23	7.50	22.03	-38.6	-39.6	22.6	0.00e+00	33	32	0	392167424	48	6871
2026-01-27 16:04:31.24	7.37	22.16	-38.4	-39.4	22.6	0.00e+00	0	32	0	394264576	48	6708
2026-01-27 16:04:32.25	7.23	22.28	-38.5	-39.5	22.6	0.00e+00	0	32	0	395313152	48	6827
2026-01-27 16:04:33.26	7.09	22.41	-38.6	-39.6	22.5	0.00e+00	0	32	0	397410304	48	6927
2026-01-27 16:04:34.26	6.96	22.53	-38.7	-39.7	22.4	0.00e+00	33	32	0	399507456	50	6209
2026-01-27 16:04:35.27	6.82	22.65	-38.9	-39.9	22.3	0.00e+00	0	32	0	401604608	50	6374
2026-01-27 16:04:36.28	6.67	22.78	-39.0	-40.0	22.1	0.00e+00	92	32	0	403701760	50	6450
2026-01-27 16:04:37.29	6.53	22.91	-38.5	-39.5	22.6	0.00e+00	0	32	0	404750336	50	6101
2026-01-27 16:04:38.30	6.39	23.03	-38.3	-39.3	22.9	0.00e+00	70	32	0	406847488	50	5948
2026-01-27 16:04:39.31	6.24	23.16	-38.5	-39.5	22.8	0.00e+00	0	32	0	408944640	50	6046
2026-01-27 16:04:40.32	6.10	23.29	-38.3	-39.3	22.7	0.00e+00	0	32	0	411041792	50	5923
2026-01-27 16:04:41.33	5.95	23.41	-38.6	-39.7	22.5	0.00e+00	9	32	0	413138944	50	6196
2026-01-27 16:04:42.34	5.80	23.54	-38.9	-40.0	22.3	0.00e+00	0	32	0	415236096	50	6391
2026-01-27 16:04:43.35	5.65	23.67	-39.1	-40.2	22.1	0.00e+00	90	32	0	416284672	50	6565
2026-01-27 16:04:44.35	5.50	23.80	-39.4	-40.5	21.9	0.00e+00	0	32	0	418381824	50	6791
2026-01-27 16:04:45.36	5.35	23.93	-39.6	-40.8	21.6	0.00e+00	92	32	0	420478976	52	6281
2026-01-27 16:04:46.37	5.20	24.06	-39.5	-40.7	21.9	0.00e+00	0	32	0	422576128	52	6180
2026-01-27 16:04:47.38	5.04	24.19	-39.8	-40.9	21.7	0.00e+00	0	32	0	424673280	52	6387
2026-01-27 16:04:48.39	4.89	24.32	-39.6	-40.7	21.8	0.00e+00	0	32	0	425721856	52	6228
2026-01-27 16:04:49.40	4.73	24.45	-39.3	-40.4	22.1	0.00e+00	0	32	0	427819008	52	6004
2026-01-27 16:04:50.40	4.57	24.58	-39.1	-40.2	22.0	0.00e+00	0	32	0	429916160	52	5852
2026-01-27 16:04:51.41	4.41	24.71	-39.0	-40.0	22.4	0.00e+00	0	32	0	432013312	52	5743
2026-01-27 16:04:52.42	4.25	24.85	-38.7	-39.7	22.6	0.00e+00	61	32	0	433061888	50	6202
2026-01-27 16:04:53.43	4.09	24.98	-38.6	-39.6	22.6	0.00e+00	0	32	0	435159040	50	6156
2026-01-27 16:04:54.44	3.92	25.11	-38.8	-39.8	22.4	0.00e+00	0	32	0	437256192	50	6262
2026-01-27 16:04:55.44	3.76	25.25	-38.3	-39.3	22.9	0.00e+00	0	32	0	439353344	50	5955
2026-01-27 16:04:56.45	3.59	25.38	-38.5	-39.5	22.4	0.00e+00	0	32	0	441450496	50	6088
2026-01-27 16:04:57.46	3.42	25.51	-38.6	-39.6	22.6	0.00e+00	0	32	0	443547648	50	6128
2026-01-27 16:04:58.47	3.25	25.65	-39.0	-40.1	22.0	0.00e+00	0	32	0	444596224	50	6494
2026-01-27 16:04:59.48	3.08	25.78	-38.8	-39.9	22.4	0.00e+00	63	32	0	446693376	50	6335
2026-01-27 16:05:00.49	2.91	25.92	-38.4	-39.4	22.8	0.00e+00	0	32	0	448790528	50	6019
2026-01-27 16:05:01.50	2.73	26.06	-38.5	-39.5	22.7	0.00e+00	0	32	0	450887680	50	6058
2026-01-27 16:05:02.51	2.56	26.19	-38.3	-39.3	22.8	0.00e+00	0	32	0	452984832	50	5928
2026-01-27 16:05:03.52	2.38	26.33	-38.3	-39.2	22.8	0.00e+00	0	32	0	454033408	50	5896
2026-01-27 16:05:04.53	2.20	26.47	-38.3	-39.2	23.0	0.00e+00	0	32	0	456130560	50	5887
2026-01-27 16:05:05.54	2.02	26.60	-37.9	-38.8	23.2	0.00e+00	0	32	0	458227712	50	5609
2026-01-27 16:05:06.55	1.84	26.74	-38.6	-39.6	22.7	0.00e+00	92	32	0	460324864	50	6170
2026-01-27 16:05:07.56	1.65	26.88	-38.2	-39.2	23.0	0.00e+00	0	32	0	462422016	50	5867
2026-01-27 16:05:08.57	1.47	27.02	-38.3	-39.3	23.0	0.00e+00	0	32	0	463470592	50	5898
2026-01-27 16:05:09.58	1.28	27.16	-38.7	-39.7	22.6	0.00e+00	0	32	0	465567744	50	6194
2026-01-27 16:05:10.59	1.09	27.30	-38.5	-39.5	22.5	0.00e+00	0	32	0	467664896	50	6078
2026-01-27 16:05:11.59	0.90	27.44	-38.7	-39.7	22.5	0.00e+00	0	32	0	469762048	50	6220
2026-01-27 16:05:12.60	0.71	27.58	-38.4	-39.4	22.8	0.00e+00	0	32	0	471859200	50	5984
2026-01-27 16:05:13.61	0.52	27.72	-38.6	-39.7	22.5	0.00e+00	30	32	0	472907776	50	6179
2026-01-27 16:05:14.62	0.32	27.86	-39.2	-40.3	22.3	0.00e+00	0	32	0	475004928	50	6649
2026-01-27 16:05:15.63	0.12	28.00	-39.0	-40.0	22.3	0.00e+00	92	32	0	477102080	50	6429
2026-01-27 16:05:16.64	359.92	28.14	-39.4	-40.5	21.8	0.00e+00	0	32	0	479199232	50	6811
2026-01-27 16:05:17.65	359.72	28.28	-39.6	-40.8	21.6	0.00e+00	0	32	0	481296384	52	6257
2026-01-27 16:05:18.66	359.52	28.43	-40.2	-41.4	21.2	0.00e+00	0	32	0	482344960	52	6714
2026-01-27 16:05:19.67	359.32	28.57	-40.2	-41.4	20.9	0.00e+00	0	32	0	484442112	52	6752
2026-01-27 16:05:20.68	359.11	28.71	-40.5	-41.7	20.9	0.00e+00	83	32	0	486539264	52	6974
2026-01-27 16:05:21.68	358.90	28.85	-40.4	-41.6	21.0	0.00e+00	0	32	0	488636416	52	6907
2026-01-27 16:05:22.69	358.69	29.00	-40.3	-41.6	21.0	0.00e+00	92	32	0	490733568	54	6106
2026-01-27 16:05:23.71	358.48	29.14	-40.2	-41.4	21.2	0.00e+00	0	32	0	491782144	54	6021
2026-01-27 16:05:24.71	358.26	29.28	-39.6	-40.7	21.8	0.00e+00	0	32	0	493879296	52	6200
2026-01-27 16:05:25.72	358.05	29.43	-39.7	-40.8	21.6	0.00e+00	0	32	0	495976448	52	6303
2026-01-27 16:05:26.73	357.83	29.57	-39.9	-41.1	21.6	0.00e+00	0	32	0	498073600	52	6495
2026-01-27 16:05:27.74	357.61	29.72	-40.1	-41.3	21.0	0.00e+00	0	32	0	500170752	52	6639
2026-01-27 16:05:28.75	357.39	29.86	-40.5	-41.8	20.6	0.00e+00	0	32	0	501219328	52	7015
2026-01-27 16:05:29.76	357.16	30.01	-40.4	-41.6	20.8	0.00e+00	84	32	0	503316480	52	6918
2026-01-27 16:05:30.77	356.94	30.15	-40.6	-41.9	20.7	0.00e+00	0	32	0	505413632	54	6354
2026-01-27 16:05:31.78	356.71	30.30	-40.5	-41.7	20.9	0.00e+00	0	32	0	507510784	54	6219
2026-01-27 16:05:32.79	356.48	30.45	-41.1	-42.5	20.3	0.00e+00	0	32	0	509607936	54	6778
2026-01-27 16:05:33.80	356.24	30.59	-40.7	-42.0	20.6	0.00e+00	0	32	0	511705088	54	6449
2026-01-27 16:05:34.81	356.01	30.74	-40.6	-41.9	20.8	0.00e+00	65	32	0	512753664	54	6344
2026-01-27 16:05:35.82	355.77	30.89	-41.1	-42.4	20.1	0.00e+00	0	32	0	514850816	54	6767
2026-01-27 16:05:36.83	355.53	31.03	-40.7	-42.0	20.6	0.00e+00	76	32	0	516947968	54	6403
2026-01-27 16:05:37.83	355.29	31.18	-40.8	-42.2	20.6	0.00e+00	0	32	0	519045120	54	6566
2026-01-27 16:05:38.84	355.05	31.33	-41.0	-42.3	20.3	0.00e+00	0	32	0	521142272	56	5960
2026-01-27 16:05:39.85	354.80	31.47	-41.2	-42.6	20.2	0.00e+00	0	32	0	522190848	56	6165
2026-01-27 16:05:40.86	354.56	31.62	-41.6	-43.0	19.7	0.00e+00	0	32	0	524288000	56	6455
2026-01-27 16:05:41.87	354.31	31.77	-41.5	-42.9	19.9	0.00e+00	9	32	0	526385152	56	6363
2026-01-27 16:05:42.88	354.05	31.92	-41.6	-43.1	19.6	0.00e+00	0	32	0	528482304	56	6522
2026-01-27 16:05:43.89	353.80	32.06	-41.4	-42.8	20.1	0.00e+00	73	32	0	530579456	56	6314
2026-01-27 16:05:44.90	353.54	32.21	-41.3	-42.7	20.1	0.00e+00	0	32	0	531628032	56	6209
2026-01-27 16:05:45.91	353.28	32.36	-40.5	-41.8	20.9	0.00e+00	18	32	0	533725184	54	6246
2026-01-27 16:05:46.92	353.02	32.51	-40.1	-41.2	21.3	0.00e+00	0	32	0	535822336	54	5862
2026-01-27 16:05:47.93	352.75	32.66	-40.6	-41.8	20.8	0.00e+00	0	32	0	537919488	54	6315
2026-01-27 16:05:48.94	352.49	32.80	-40.8	-42.0	20.4	0.00e+00	0	32	0	540016640	54	6435
2026-01-27 16:05:49.94	352.22	32.95	-41.0	-42.3	20.0	0.00e+00	0	32	0	541065216	54	6642
2026-01-27 16:05:50.95	351.95	33.10	-41.3	-42.7	19.9	0.00e+00	71	32	0	543162368	54	6956
2026-01-27 16:05:51.96	351.67	33.25	-41.2	-42.6	19.7	0.00e+00	0	32	0	545259520	54	6858
2026-01-27 16:05:52.97	351.40	33.40	-41.7	-43.2	19.6	0.00e+00	91	32	0	547356672	56	6601
2026-01-27 16:05:53.98	351.12	33.54	-41.5	-43.0	19.7	0.00e+00	0	32	0	549453824	56	6450
2026-01-27 16:05:54.98	350.84	33.69	-41.5	-43.0	19.8	0.00e+00	0	32	0	550502400	56	6448
2026-01-27 16:05:55.99	350.55	33.84	-41.4	-42.8	20.0	0.00e+00	0	32	0	552599552	56	6286
2026-01-27 16:05:57.00	350.26	33.99	-40.8	-42.1	20.6	0.00e+00	0	32	0	554696704	54	6499
2026-01-27 16:05:58.01	349.97	34.13	-40.1	-41.3	21.3	0.00e+00	0	32	0	556793856	54	5917
2026-01-27 16:05:59.01	349.68	34.28	-39.7	-40.8	21.7	0.00e+00	0	32	0	558891008	52	6262
2026-01-27 16:06:00.02	349.39	34.43	-39.8	-40.9	21.6	0.00e+00	92	32	0	559939584	52	6347
2026-01-27 16:06:01.03	349.09	34.57	-39.0	-40.0	22.3	0.00e+00	0	32	0	562036736	52	5749
2026-01-27 16:06:02.04	348.79	34.72	-38.5	-39.5	22.6	0.00e+00	0	32	0	564133888	50	6046
2026-01-27 16:06:03.05	348.48	34.87	-38.2	-39.2	22.9	0.00e+00	0	32	0	566231040	50	5836
2026-01-27 16:06:04.06	348.18	35.01	-38.1	-39.1	23.2	0.00e+00	0	32	0	568328192	50	5766
2026-01-27 16:06:05.07	347.87	35.16	-38.6	-39.6	22.8	0.00e+00	0	32	0	569376768	50	6112
2026-01-27 16:06:06.08	347.56	35.31	-39.2	-40.3	22.1	0.00e+00	0	32	0	571473920	50	6671
2026-01-27 16:06:07.09	347.24	35.45	-40.0	-41.2	21.4	0.00e+00	64	32	0	573571072	52	6588
2026-01-27 16:06:08.10	346.92	35.60	-40.3	-41.5	21.2	0.00e+00	0	32	0	575668224	52	6797
2026-01-27 16:06:09.10	346.61	35.74	-40.4	-41.6	21.2	0.00e+00	0	32	0	577765376	52	6850
2026-01-27 16:06:10.11	346.28	35.88	-39.9	-41.0	21.6	0.00e+00	0	32	0	578813952	52	6408
2026-01-27 16:06:11.12	345.96	36.03	-39.8	-40.9	21.7	0.00e+00	0	32	0	580911104	52	6347
2026-01-27 16:06:12.13	345.63	36.17	-40.2	-41.4	21.1	0.00e+00	0	32	0	583008256	52	6735
2026-01-27 16:06:13.14	345.29	36.32	-40.8	-42.1	20.6	0.00e+00	0	32	0	585105408	52	7311
2026-01-27 16:06:14.15	344.96	36.46	-40.7	-42.1	20.6	0.00e+00	92	32	0	587202560	54	6487
2026-01-27 16:06:15.16	344.62	36.60	-41.0	-42.4	20.4	0.00e+00	0	32	0	588251136	54	6752
2026-01-27 16:06:16.17	344.28	36.74	-40.6	-41.9	20.6	0.00e+00	22	32	0	590348288	54	6325
2026-01-27 16:06:17.18	343.94	36.88	-40.4	-41.7	21.0	0.00e+00	0	32	0	592445440	54	6200
2026-01-27 16:06:18.19	343.59	37.02	-40.0	-41.1	21.5	0.00e+00	0	32	0	594542592	54	5816
2026-01-27 16:06:19.20	343.24	37.16	-40.5	-41.7	20.8	0.00e+00	1	32	0	596639744	54	6227
2026-01-27 16:06:20.20	342.89	37.30	-41.1	-42.5	20.3	0.00e+00	2	32	0	597688320	54	6771
2026-01-27 16:06:21.21	342.53	37.44	-42.0	-43.6	19.2	0.00e+00	29	32	0	599785472	56	6896
2026-01-27 16:06:22.22	342.17	37.58	-42.3	-44.0	19.0	0.00e+00	0	32	0	601882624	56	7200
2026-01-27 16:06:23.23	341.81	37.72	-42.3	-44.0	18.9	0.00e+00	89	32	0	603979776	56	7221
2026-01-27 16:06:24.24	341.44	37.85	-42.2	-43.9	19.0	0.00e+00	0	32	0	606076928	56	7120
2026-01-27 16:06:25.25	341.08	37.99	-42.0	-43.7	19.4	0.00e+00	0	32	0	608174080	56	6945
2026-01-27 16:06:26.26	340.70	38.12	-41.2	-42.6	20.3	0.00e+00	1	32	0	609222656	56	6135
2026-01-27 16:06:27.27	340.33	38.26	-40.9	-42.2	20.6	0.00e+00	0	32	0	611319808	56	5882
2026-01-27 16:06:28.28	339.95	38.39	-40.7	-42.1	20.5	0.00e+00	92	32	0	613416960	54	6475
2026-01-27 16:06:29.29	339.57	38.52	-40.2	-41.4	20.5	0.00e+00	0	32	0	615514112	54	6032
2026-01-27 16:06:30.29	339.19	38.65	-40.5	-41.8	20.8	0.00e+00	92	32	0	617611264	54	6284
2026-01-27 16:06:31.30	338.80	38.78	-40.2	-41.4	21.4	0.00e+00	0	32	0	618659840	54	6007
2026-01-27 16:06:32.31	338.41	38.91	-39.5	-40.6	21.9	0.00e+00	0	32	0	620756992	52	6144
2026-01-27 16:06:33.32	338.02	39.04	-38.5	-39.5	22.7	0.00e+00	0	32	0	622854144	50	6046
2026-01-27 16:06:34.33	337.62	39.17	-38.7	-39.6	22.6	0.00e+00	0	32	0	624951296	50	6165
2026-01-27 16:06:35.34	337.22	39.29	-38.1	-39.0	23.1	0.00e+00	0	32	0	627048448	50	5760
2026-01-27 16:06:36.35	336.82	39.42	-38.3	-39.2	22.9	0.00e+00	0	32	0	628097024	50	5891
2026-01-27 16:06:37.35	336.42	39.54	-39.0	-40.0	22.3	0.00e+00	92	32	0	630194176	50	6433
2026-01-27 16:06:38.36	336.01	39.66	-39.2	-40.3	22.1	0.00e+00	0	32	0	632291328	50	6652
2026-01-27 16:06:39.37	335.59	39.78	-39.4	-40.5	22.0	0.00e+00	7	32	0	634388480	50	6808
2026-01-27 16:06:40.38	335.18	39.90	-39.3	-40.5	22.1	0.00e+00	0	32	0	636485632	50	6770
2026-01-27 16:06:41.39	334.76	40.02	-39.1	-40.1	22.2	0.00e+00	0	32	0	637534208	50	6523
2026-01-27 16:06:42.40	334.34	40.14	-38.1	-39.1	23.2	0.00e+00	0	32	0	639631360	50	5767
2026-01-27 16:06:43.41	333.92	40.25	-38.3	-39.3	22.9	0.00e+00	0	32	0	641728512	50	5907
2026-01-27 16:06:44.41	333.49	40.37	-38.4	-39.4	22.8	0.00e+00	91	32	0	643825664	50	6022
2026-01-27 16:06:45.42	333.06	40.48	-39.1	-40.2	22.3	0.00e+00	0	32	0	645922816	50	6604
2026-01-27 16:06:46.43	332.63	40.59	-38.6	-39.6	22.6	0.00e+00	0	32	0	646971392	50	6172
2026-01-27 16:06:47.44	332.19	40.70	-38.2	-39.2	22.9	0.00e+00	0	32	0	649068544	50	5868
2026-01-27 16:06:48.45	331.75	40.81	-37.7	-38.7	23.4	0.00e+00	0	32	0	651165696	50	5503
2026-01-27 16:06:49.46	331.31	40.92	-37.3	-38.2	23.9	0.00e+00	9	32	0	653262848	48	5862
2026-01-27 16:06:50.47	330.86	41.02	-37.1	-38.0	23.8	0.00e+00	0	32	0	655360000	48	5732
2026-01-27 16:06:51.48	330.41	41.12	-37.9	-38.9	23.1	0.00e+00	89	32	0	656408576	48	6373
2026-01-27 16:06:52.49	329.96	41.23	-39.2	-40.4	22.0	0.00e+00	0	32	0	658505728	50	6715
2026-01-27 16:06:53.50	329.51	41.33	-40.1	-41.5	21.2	0.00e+00	92	32	0	660602880	52	6783
2026-01-27 16:06:54.50	329.06	41.42	-39.9	-41.1	21.6	0.00e+00	0	32	0	662700032	52	6528
2026-01-27 16:06:55.51	328.60	41.52	-38.6	-39.6	22.6	0.00e+00	0	32	0	664797184	52	5490
2026-01-27 16:06:56.52	328.13	41.61	-37.8	-38.8	23.3	0.00e+00	0	32	0	665845760	50	5597
2026-01-27 16:06:57.53	327.67	41.71	-37.4	-38.4	23.6	0.00e+00	0	32	0	667942912	48	5995
2026-01-27 16:06:58.54	327.20	41.80	-37.5	-38.4	23.6	0.00e+00	66	32	0	670040064	48	6015
2026-01-27 16:06:59.55	326.73	41.89	-37.6	-38.5	23.4	0.00e+00	0	32	0	672137216	48	6095
2026-01-27 16:07:00.56	326.26	41.97	-37.1	-37.9	23.9	0.00e+00	78	32	0	674234368	48	5686
2026-01-27 16:07:01.57	325.78	42.06	-36.8	-37.6	24.2	0.00e+00	0	32	0	675282944	48	5468
2026-01-27 16:07:02.58	325.30	42.14	-36.8	-37.6	24.2	0.00e+00	0	32	0	677380096	46	6148
2026-01-27 16:07:03.59	324.82	42.22	-37.3	-38.2	24.0	0.00e+00	0	32	0	679477248	46	6557
2026-01-27 16:07:04.60	324.34	42.30	-37.5	-38.4	23.7	0.00e+00	0	32	0	681574400	46	6740
2026-01-27 16:07:05.61	323.86	42.38	-38.0	-39.0	23.1	0.00e+00	0	32	0	683671552	48	6439
2026-01-27 16:07:06.62	323.37	42.45	-38.4	-39.4	22.7	0.00e+00	0	32	0	684720128	48	6768
2026-01-27 16:07:07.62	322.88	42.52	-39.3	-40.5	21.8	0.00e+00	71	32	0	686817280	50	6780
2026-01-27 16:07:08.63	322.39	42.59	-39.2	-40.4	22.2	0.00e+00	0	32	0	688914432	50	6696
2026-01-27 16:07:09.64	321.90	42.66	-38.8	-39.8	22.8	0.00e+00	0	32	0	691011584	50	6294
2026-01-27 16:07:10.65	321.40	42.72	-37.9	-38.8	23.3	0.00e+00	0	32	0	693108736	50	5615
2026-01-27 16:07:11.66	320.90	42.79	-37.8	-38.8	23.0	0.00e+00	0	32	0	694157312	50	5575
2026-01-27 16:07:12.67	320.40	42.85	-39.0	-40.1	22.2	0.00e+00	0	32	0	696254464	50	6523
2026-01-27 16:07:13.68	319.90	42.91	-39.4	-40.5	21.9	0.00e+00	0	32	0	698351616	50	6819
2026-01-27 16:07:14.69	319.40	42.96	-38.5	-39.4	23.0	0.00e+00	77	32	0	700448768	50	6017
2026-01-27 16:07:15.70	318.89	43.01	-38.1	-39.0	23.1	0.00e+00	0	32	0	702545920	50	5727
2026-01-27 16:07:16.71	318.38	43.07	-37.9	-38.8	23.3	0.00e+00	0	32	0	704643072	50	5622
2026-01-27 16:07:17.72	317.88	43.11	-38.7	-39.7	22.6	0.00e+00	0	32	0	705691648	50	6235
2026-01-27 16:07:18.73	317.37	43.16	-39.1	-40.1	22.3	0.00e+00	0	32	0	707788800	50	6509
2026-01-27 16:07:19.74	316.85	43.20	-39.6	-40.7	21.8	0.00e+00	0	32	0	709885952	50	6944
2026-01-27 16:07:20.74	316.35	43.24	-40.1	-41.4	21.3	0.00e+00	0	32	0	711983104	52	6695
2026-01-27 16:07:21.75	315.83	43.28	-40.6	-41.9	20.9	0.00e+00	87	32	0	714080256	52	7097
2026-01-27 16:07:22.76	315.32	43.32	-39.5	-40.7	22.1	0.00e+00	0	32	0	715128832	52	6176
2026-01-27 16:07:23.77	314.80	43.35	-38.4	-39.3	23.0	0.00e+00	92	32	0	717225984	50	5934
2026-01-27 16:07:24.77	314.29	43.38	-37.9	-38.8	23.4	0.00e+00	0	32	0	719323136	48	6290
2026-01-27 16:07:25.78	313.77	43.41	-38.9	-40.0	22.3	0.00e+00	0	32	0	721420288	50	6399
2026-01-27 16:07:26.79	313.25	43.43	-39.7	-40.8	21.9	0.00e+00	0	32	0	723517440	50	7056
2026-01-27 16:07:27.80	312.73	43.46	-39.5	-40.6	21.9	0.00e+00	0	32	0	724566016	52	6163
2026-01-27 16:07:28.81	312.21	43.48	-39.5	-40.6	22.1	0.00e+00	88	32	0	726663168	52	6145
2026-01-27 16:07:29.81	311.69	43.49	-39.3	-40.4	22.2	0.00e+00	0	32	0	728760320	52	6008
2026-01-27 16:07:30.82	311.17	43.51	-39.1	-40.2	22.1	0.00e+00	88	32	0	730857472	52	5877
2026-01-27 16:07:31.83	310.65	43.52	-39.3	-40.5	21.7	0.00e+00	0	32	0	732954624	52	6034
2026-01-27 16:07:32.84	310.12	43.53	-40.0	-41.3	21.5	0.00e+00	0	32	0	734003200	52	6621
2026-01-27 16:07:33.84	309.61	43.54	-40.1	-41.3	21.3	0.00e+00	0	32	0	736100352	52	6634
2026-01-27 16:07:34.85	309.08	43.54	-39.8	-41.0	21.7	0.00e+00	0	32	0	738197504	52	6398
2026-01-27 16:07:35.86	308.56	43.54	-39.8	-41.0	21.6	0.00e+00	89	32	0	740294656	52	6413
2026-01-27 16:07:36.87	308.03	43.54	-39.7	-40.9	21.8	0.00e+00	0	32	0	742391808	52	6372
2026-01-27 16:07:37.88	307.51	43.54	-39.7	-40.9	21.7	0.00e+00	72	32	0	743440384	52	6320
2026-01-27 16:07:38.89	306.99	43.53	-40.6	-42.0	20.8	0.00e+00	1	32	0	745537536	52	7210
2026-01-27 16:07:39.90	306.46	43.52	-40.3	-41.6	21.1	0.00e+00	0	32	0	747634688	52	6889
2026-01-27 16:07:40.90	305.95	43.51	-39.6	-40.8	21.8	0.00e+00	0	32	0	749731840	52	6267
2026-01-27 16:07:41.91	305.42	43.50	-39.7	-40.8	21.9	0.00e+00	0	32	0	751828992	52	6260
2026-01-27 16:07:42.92	304.90	43.48	-39.6	-40.6	21.9	0.00e+00	73	32	0	752877568	52	6171
2026-01-27 16:07:43.93	304.38	43.46	-39.8	-40.9	21.6	0.00e+00	0	32	0	754974720	52	6381
2026-01-27 16:07:44.94	303.86	43.44	-40.2	-41.4	21.2	0.00e+00	63	32	0	757071872	52	6748
2026-01-27 16:07:45.95	303.34	43.41	-40.8	-42.1	20.6	0.00e+00	0	32	0	759169024	54	6522
2026-01-27 16:07:46.96	302.82	43.38	-41.4	-42.8	20.0	0.00e+00	16	32	0	761266176	54	7049
2026-01-27 16:07:47.97	302.30	43.35	-42.0	-43.6	19.3	0.00e+00	0	32	0	762314752	56	6881
2026-01-27 16:07:48.98	301.79	43.32	-41.9	-43.4	19.3	0.00e+00	0	32	0	764411904	56	6747
2026-01-27 16:07:49.98	301.28	43.28	-41.8	-43.4	19.8	0.00e+00	0	32	0	766509056	56	6744
2026-01-27 16:07:50.99	300.76	43.25	-41.6	-43.2	19.7	0.00e+00	0	32	0	768606208	56	6556
2026-01-27 16:07:52.00	300.25	43.21	-41.0	-42.4	20.4	0.00e+00	92	32	0	770703360	56	5994
2026-01-27 16:07:53.01	299.74	43.16	-41.0	-42.3	20.4	0.00e+00	0	32	0	771751936	56	5962
2026-01-27 16:07:54.02	299.23	43.12	-41.4	-42.8	20.3	0.00e+00	51	32	0	773849088	56	6251
2026-01-27 16:07:55.03	298.72	43.07	-41.1	-42.4	20.4	0.00e+00	0	32	0	775946240	56	6006
2026-01-27 16:07:56.04	298.21	43.02	-41.4	-42.9	19.9	0.00e+00	0	32	0	778043392	56	6336
2026-01-27 16:07:57.05	297.70	42.96	-41.6	-43.1	19.6	0.00e+00	0	32	0	780140544	56	6524
2026-01-27 16:07:58.06	297.20	42.91	-42.5	-44.3	18.8	0.00e+00	0	32	0	781189120	56	7444
2026-01-27 16:07:59.07	296.70	42.85	-42.1	-43.8	19.1	0.00e+00	92	32	0	783286272	58	6315
2026-01-27 16:08:00.08	296.20	42.79	-41.9	-43.5	19.6	0.00e+00	0	32	0	785383424	56	6801
2026-01-27 16:08:01.09	295.70	42.73	-41.5	-42.9	20.0	0.00e+00	84	32	0	787480576	56	6354
2026-01-27 16:08:02.10	295.20	42.66	-41.3	-42.7	20.3	0.00e+00	0	32	0	789577728	56	6185
2026-01-27 16:08:03.11	294.71	42.60	-41.5	-42.9	19.8	0.00e+00	0	32	0	790626304	56	6374
2026-01-27 16:08:04.12	294.21	42.53	-41.3	-42.7	20.1	0.00e+00	0	32	0	792723456	56	6211
2026-01-27 16:08:05.13	293.72	42.45	-41.7	-43.3	19.7	0.00e+00	0	32	0	794820608	56	6626
2026-01-27 16:08:06.14	293.23	42.38	-42.3	-44.1	19.2	0.00e+00	48	32	0	796917760	56	7300
2026-01-27 16:08:07.15	292.75	42.30	-41.0	-42.5	20.4	0.00e+00	2	32	0	799014912	56	6068
2026-01-27 16:08:08.16	292.27	42.23	-39.4	-40.5	22.0	0.00e+00	92	32	0	801112064	52	6086
2026-01-27 16:08:09.17	291.78	42.14	-38.4	-39.4	22.9	0.00e+00	0	32	0	802160640	50	6011
2026-01-27 16:08:10.17	291.31	42.06	-38.2	-39.2	23.1	0.00e+00	0	32	0	804257792	50	5852
2026-01-27 16:08:11.18	290.83	41.98	-38.0	-39.0	23.2	0.00e+00	0	32	0	806354944	50	5703
2026-01-27 16:08:12.19	290.36	41.89	-38.3	-39.3	23.0	0.00e+00	31	32	0	808452096	50	5901
2026-01-27 16:08:13.20	289.89	41.80	-38.1	-39.0	23.2	0.00e+00	92	32	0	810549248	50	5718
2026-01-27 16:08:14.21	289.42	41.71	-37.9	-38.8	23.4	0.00e+00	0	32	0	811597824	50	5621
2026-01-27 16:08:15.22	288.95	41.62	-37.3	-38.1	23.8	0.00e+00	93	32	0	813694976	48	5814
2026-01-27 16:08:16.23	288.49	41.52	-36.6	-37.4	24.5	0.00e+00	0	32	0	815792128	46	5984
2026-01-27 16:08:17.24	288.03	41.43	-36.6	-37.5	24.4	0.00e+00	0	32	0	817889280	46	6054
2026-01-27 16:08:18.25	287.57	41.33	-37.2	-38.1	23.8	0.00e+00	0	32	0	819986432	46	6482
2026-01-27 16:08:19.26	287.12	41.23	-37.1	-38.0	24.0	0.00e+00	0	32	0	821035008	46	6435
2026-01-27 16:08:20.26	286.67	41.13	-36.9	-37.8	24.2	0.00e+00	6	32	0	823132160	46	6269
2026-01-27 16:08:21.27	286.22	41.03	-36.4	-37.2	24.6	0.00e+00	0	32	0	825229312	46	5847
2026-01-27 16:08:22.28	285.77	40.92	-36.6	-37.4	24.4	0.00e+00	92	32	0	827326464	46	5984
2026-01-27 16:08:23.29	285.33	40.81	-37.0	-37.9	24.0	0.00e+00	0	32	0	829423616	46	6331
2026-01-27 16:08:24.30	284.89	40.71	-37.3	-38.1	23.8	0.00e+00	0	32	0	830472192	46	6527
2026-01-27 16:08:25.30	284.46	40.60	-37.7	-38.6	23.5	0.00e+00	0	32	0	832569344	46	6920
2026-01-27 16:08:26.31	284.02	40.49	-37.6	-38.5	23.8	0.00e+00	0	32	0	834666496	48	6087
2026-01-27 16:08:27.32	283.59	40.37	-37.0	-37.8	24.1	0.00e+00	1	32	0	836763648	48	5612
2026-01-27 16:08:28.33	283.16	40.26	-36.6	-37.4	24.4	0.00e+00	0	32	0	838860800	46	6000
2026-01-27 16:08:29.34	282.74	40.14	-36.4	-37.2	24.8	0.00e+00	92	32	0	839909376	46	5872
2026-01-27 16:08:30.35	282.32	40.02	-35.6	-36.3	25.2	0.00e+00	0	32	0	842006528	44	5947
2026-01-27 16:08:31.36	281.90	39.91	-35.7	-36.4	25.1	0.00e+00	92	32	0	844103680	44	6027
2026-01-27 16:08:32.37	281.48	39.79	-36.0	-36.8	24.4	0.00e+00	0	32	0	846200832	44	6274
2026-01-27 16:08:33.38	281.07	39.66	-37.0	-37.9	24.1	0.00e+00	0	32	0	848297984	46	6340
2026-01-27 16:08:34.39	280.66	39.54	-37.4	-38.3	23.6	0.00e+00	24	32	0	849346560	46	6617
2026-01-27 16:08:35.40	280.25	39.42	-37.3	-38.2	23.7	0.00e+00	0	32	0	851443712	46	6572
2026-01-27 16:08:36.41	279.85	39.29	-37.2	-38.0	24.0	0.00e+00	0	32	0	853540864	46	6440
2026-01-27 16:08:37.42	279.45	39.17	-37.1	-38.0	23.9	0.00e+00	0	32	0	855638016	46	6420
2026-01-27 16:08:38.43	279.05	39.04	-37.1	-38.0	24.1	0.00e+00	86	32	0	857735168	46	6420
2026-01-27 16:08:39.44	278.65	38.91	-36.4	-37.2	24.5	0.00e+00	0	32	0	858783744	46	5883
2026-01-27 16:08:40.45	278.26	38.78	-36.1	-36.9	24.3	0.00e+00	0	32	0	860880896	46	5641
2026-01-27 16:08:41.46	277.87	38.65	-36.8	-37.6	24.3	0.00e+00	0	32	0	862978048	46	6129
2026-01-27 16:08:42.46	277.49	38.52	-37.4	-38.3	23.4	0.00e+00	0	32	0	865075200	46	6656
2026-01-27 16:08:43.47	277.11	38.39	-37.3	-38.2	24.0	0.00e+00	4	32	0	867172352	48	5873
2026-01-27 16:08:44.48	276.73	38.26	-36.5	-37.3	24.4	0.00e+00	0	32	0	869269504	46	5931
2026-01-27 16:08:45.49	276.36	38.12	-36.2	-37.0	24.8	0.00e+00	90	32	0	870318080	46	5709
2026-01-27 16:08:46.50	275.98	37.99	-35.3	-36.0	25.2	0.00e+00	0	32	0	872415232	44	5736
2026-01-27 16:08:47.51	275.61	37.85	-35.4	-36.1	25.2	0.00e+00	0	32	0	874512384	44	5792
2026-01-27 16:08:48.52	275.25	37.71	-35.5	-36.3	25.2	0.00e+00	0	32	0	876609536	44	5906
2026-01-27 16:08:49.53	274.88	37.58	-36.1	-36.9	24.7	0.00e+00	0	32	0	877658112	44	6360
2026-01-27 16:08:50.54	274.52	37.44	-37.2	-38.1	23.9	0.00e+00	0	32	0	879755264	46	6500
2026-01-27 16:08:51.55	274.17	37.30	-38.2	-39.2	23.0	0.00e+00	0	32	0	881852416	48	6579
2026-01-27 16:08:52.56	273.81	37.16	-38.0	-39.0	23.2	0.00e+00	60	32	0	883949568	48	6432
2026-01-27 16:08:53.56	273.46	37.02	-37.1	-38.0	24.0	0.00e+00	0	32	0	886046720	48	5703
2026-01-27 16:08:54.57	273.12	36.88	-36.7	-37.6	24.3	0.00e+00	66	32	0	887095296	46	6115
2026-01-27 16:08:55.58	272.77	36.74	-37.1	-37.9	24.1	0.00e+00	0	32	0	889192448	46	6368
2026-01-27 16:08:56.59	272.43	36.60	-37.7	-38.6	23.5	0.00e+00	0	32	0	891289600	46	6925
2026-01-27 16:08:57.60	272.09	36.45	-38.3	-39.2	23.3	0.00e+00	81	32	0	893386752	48	6562
2026-01-27 16:08:58.61	271.75	36.31	-38.1	-39.0	23.2	0.00e+00	0	32	0	895483904	48	6452
2026-01-27 16:08:59.62	271.42	36.17	-37.7	-38.6	23.5	0.00e+00	84	32	0	897581056	48	6133
2026-01-27 16:09:00.63	271.09	36.02	-38.5	-39.5	22.9	0.00e+00	0	32	0	898629632	48	6816
2026-01-27 16:09:01.64	270.76	35.88	-38.9	-39.9	22.7	0.00e+00	84	32	0	900726784	50	6320
2026-01-27 16:09:02.65	270.44	35.73	-38.2	-39.2	23.2	0.00e+00	0	32	0	902823936	50	5845
2026-01-27 16:09:03.65	270.12	35.59	-38.2	-39.2	23.1	0.00e+00	0	32	0	904921088	50	5846
2026-01-27 16:09:04.66	269.80	35.44	-38.7	-39.7	22.6	0.00e+00	0	32	0	907018240	50	6189
2026-01-27 16:09:05.67	269.48	35.30	-39.3	-40.5	21.9	0.00e+00	0	32	0	908066816	50	6780
2026-01-27 16:09:06.68	269.17	35.15	-39.2	-40.2	22.2	0.00e+00	87	32	0	910163968	50	6599
2026-01-27 16:09:07.69	268.86	35.01	-38.8	-39.8	22.6	0.00e+00	0	32	0	912261120	50	6317
2026-01-27 16:09:08.70	268.55	34.86	-38.4	-39.4	22.9	0.00e+00	92	32	0	914358272	50	5993
2026-01-27 16:09:09.71	268.25	34.71	-38.5	-39.4	22.9	0.00e+00	0	32	0	916455424	50	6011
2026-01-27 16:09:10.72	267.95	34.56	-38.0	-38.9	23.3	0.00e+00	0	32	0	917504000	50	5671
2026-01-27 16:09:11.73	267.65	34.42	-37.2	-38.0	24.0	0.00e+00	0	32	0	919601152	48	5729
2026-01-27 16:09:12.74	267.35	34.27	-36.6	-37.4	24.5	0.00e+00	0	32	0	921698304	46	6002
2026-01-27 16:09:13.75	267.06	34.12	-37.0	-37.8	24.2	0.00e+00	31	32	0	923795456	46	6285
2026-01-27 16:09:14.76	266.77	33.97	-37.7	-38.5	23.6	0.00e+00	0	32	0	925892608	48	6083
2026-01-27 16:09:15.77	266.48	33.82	-39.0	-40.0	22.2	0.00e+00	90	32	0	926941184	50	6459
2026-01-27 16:09:16.78	266.19	33.68	-40.0	-41.1	21.5	0.00e+00	0	32	0	929038336	52	6532
2026-01-27 16:09:17.79	265.91	33.53	-39.7	-40.8	21.8	0.00e+00	0	32	0	931135488	52	6294
2026-01-27 16:09:18.80	265.63	33.38	-39.0	-40.0	22.4	0.00e+00	0	32	0	933232640	52	5743
2026-01-27 16:09:19.81	265.35	33.23	-38.7	-39.7	22.6	0.00e+00	0	32	0	935329792	52	5512
2026-01-27 16:09:20.82	265.08	33.08	-39.4	-40.5	22.1	0.00e+00	0	32	0	936378368	50	6776
2026-01-27 16:09:21.83	264.80	32.93	-40.3	-41.5	21.1	0.00e+00	0	32	0	938475520	52	6812
2026-01-27 16:09:22.84	264.53	32.79	-40.5	-41.8	20.9	0.00e+00	74	32	0	940572672	54	6264
2026-01-27 16:09:23.85	264.26	32.64	-41.6	-43.0	20.0	0.00e+00	0	32	0	942669824	56	6433
2026-01-27 16:09:24.85	264.00	32.49	-42.5	-44.2	18.7	0.00e+00	0	32	0	944766976	56	7368
2026-01-27 16:09:25.86	263.74	32.34	-43.8	-46.1	16.7	0.00e+00	0	32	0	945815552	58	8141
2026-01-27 16:09:26.87	263.48	32.19	-44.5	-47.1	16.2	0.00e+00	0	32	0	947912704	60	8209
2026-01-27 16:09:27.88	263.22	32.04	-43.1	-45.0	18.0	0.00e+00	57	32	0	950009856	60	6423
2026-01-27 16:09:28.89	262.96	31.90	-41.0	-42.3	20.5	0.00e+00	0	32	0	952107008	56	5923
2026-01-27 16:09:29.90	262.71	31.75	-40.0	-41.1	21.5	0.00e+00	77	32	0	954204160	54	5779
2026-01-27 16:09:30.91	262.46	31.60	-40.0	-41.1	21.4	0.00e+00	0	32	0	955252736	54	5802
2026-01-27 16:09:31.92	262.21	31.45	-40.2	-41.4	21.2	0.00e+00	0	32	0	957349888	54	5991
2026-01-27 16:09:32.93	261.96	31.30	-40.6	-41.9	20.6	0.00e+00	0	32	0	959447040	54	6357
2026-01-27 16:09:33.94	261.72	31.16	-41.1	-42.5	20.3	0.00e+00	0	32	0	961544192	54	6784
2026-01-27 16:09:34.94	261.48	31.01	-41.0	-42.3	20.5	0.00e+00	0	32	0	963641344	54	6684
2026-01-27 16:09:35.95	261.24	30.86	-40.2	-41.3	21.5	0.00e+00	0	32	0	964689920	54	5953
2026-01-27 16:09:36.96	261.00	30.72	-40.1	-41.2	21.4	0.00e+00	84	32	0	966787072	54	5856
2026-01-27 16:09:37.97	260.77	30.57	-39.9	-41.0	21.6	0.00e+00	0	32	0	968884224	54	5740
2026-01-27 16:09:38.98	260.53	30.42	-40.4	-41.6	21.3	0.00e+00	71	32	0	970981376	54	6119
2026-01-27 16:09:39.98	260.30	30.28	-40.5	-41.7	20.9	0.00e+00	0	32	0	973078528	54	6204
2026-01-27 16:09:40.99	260.07	30.13	-40.8	-42.1	20.7	0.00e+00	0	32	0	975175680	54	6499
2026-01-27 16:09:42.00	259.85	29.98	-40.6	-41.8	21.0	0.00e+00	0	32	0	976224256	54	6304
2026-01-27 16:09:43.01	259.62	29.84	-40.9	-42.1	20.8	0.00e+00	0	32	0	978321408	54	6528
2026-01-27 16:09:44.02	259.40	29.69	-40.8	-42.0	20.9	0.00e+00	86	32	0	980418560	54	6418
2026-01-27 16:09:45.03	259.18	29.55	-40.7	-41.9	20.9	0.00e+00	0	32	0	982515712	54	6319
2026-01-27 16:09:46.04	258.96	29.40	-40.6	-41.8	21.0	0.00e+00	79	32	0	984612864	54	6250
2026-01-27 16:09:47.05	258.74	29.26	-39.9	-41.0	21.6	0.00e+00	0	32	0	985661440	54	5716
2026-01-27 16:09:48.06	258.53	29.11	-39.4	-40.5	22.1	0.00e+00	0	32	0	987758592	52	6034
2026-01-27 16:09:49.07	258.31	28.97	-39.7	-40.8	21.8	0.00e+00	0	32	0	989855744	52	6271
2026-01-27 16:09:50.08	258.10	28.82	-39.3	-40.4	22.1	0.00e+00	0	32	0	991952896	52	5994
2026-01-27 16:09:51.08	257.89	28.68	-39.1	-40.2	22.3	0.00e+00	1	32	0	994050048	52	5829
2026-01-27 16:09:52.10	257.68	28.54	-39.4	-40.4	22.1	0.00e+00	0	32	0	995098624	52	6012
2026-01-27 16:09:53.11	257.48	28.39	-39.3	-40.3	22.2	0.00e+00	66	32	0	997195776	52	5938
2026-01-27 16:09:54.12	257.28	28.25	-38.9	-39.9	22.2	0.00e+00	0	32	0	999292928	52	5663
2026-01-27 16:09:55.13	257.07	28.11	-38.4	-39.3	22.8	0.00e+00	0	32	0	1001390080	50	5948
2026-01-27 16:09:56.14	256.87	27.97	-38.4	-39.3	22.8	0.00e+00	0	32	0	1003487232	50	5963
2026-01-27 16:09:57.15	256.68	27.83	-38.4	-39.3	22.9	0.00e+00	0	32	0	1004535808	50	5899
2026-01-27 16:09:58.16	256.48	27.68	-38.6	-39.6	22.8	0.00e+00	65	32	0	1006632960	50	6107
2026-01-27 16:09:59.17	256.28	27.54	-38.5	-39.4	22.7	0.00e+00	0	32	0	1008730112	50	6026
2026-01-27 16:10:00.18	256.09	27.40	-39.4	-40.4	22.0	0.00e+00	55	32	0	1010827264	50	6715
2026-01-27 16:10:01.19	255.90	27.26	-38.9	-39.9	22.4	0.00e+00	33	32	0	1012924416	50	6339
2026-01-27 16:10:02.20	255.71	27.12	-39.1	-40.1	22.2	0.00e+00	0	32	0	1013972992	50	6502
2026-01-27 16:10:03.20	255.52	26.98	-39.2	-40.3	22.2	0.00e+00	0	32	0	1016070144	50	6616
2026-01-27 16:10:04.21	255.34	26.85	-39.5	-40.6	21.9	0.00e+00	0	32	0	1018167296	50	6876
2026-01-27 16:10:05.22	255.15	26.71	-39.8	-40.9	21.8	0.00e+00	0	32	0	1020264448	52	6361
2026-01-27 16:10:06.23	254.97	26.57	-39.8	-40.9	21.8	0.00e+00	0	32	0	1022361600	52	6347
2026-01-27 16:10:07.23	254.79	26.43	-39.7	-40.8	21.7	0.00e+00	92	32	0	1023410176	52	6274
2026-01-27 16:10:08.24	254.61	26.29	-39.6	-40.7	21.9	0.00e+00	0	32	0	1025507328	52	6178
2026-01-27 16:10:09.25	254.43	26.16	-39.5	-40.6	21.9	0.00e+00	0	32	0	1027604480	52	6110
2026-01-27 16:10:10.26	254.25	26.02	-39.7	-40.8	21.9	0.00e+00	0	32	0	1029701632	52	6286
2026-01-27 16:10:11.27	254.08	25.88	-39.1	-40.1	22.4	0.00e+00	0	32	0	1031798784	52	5800
2026-01-27 16:10:12.28	253.91	25.75	-38.6	-39.6	22.7	0.00e+00	0	32	0	1032847360	50	6116
2026-01-27 16:10:13.29	253.73	25.61	-38.9	-39.9	22.5	0.00e+00	0	32	0	1034944512	50	6328
2026-01-27 16:10:14.30	253.56	25.48	-38.4	-39.4	22.8	0.00e+00	29	32	0	1037041664	50	5991
2026-01-27 16:10:15.31	253.39	25.34	-38.5	-39.5	22.7	0.00e+00	0	32	0	1039138816	50	6070
2026-01-27 16:10:16.31	253.23	25.21	-38.3	-39.3	22.9	0.00e+00	88	32	0	1041235968	50	5903
2026-01-27 16:10:17.32	253.06	25.07	-38.5	-39.5	22.8	0.00e+00	0	32	0	1042284544	50	6040
2026-01-27 16:10:18.33	252.90	24.94	-38.3	-39.2	23.0	0.00e+00	0	32	0	1044381696	50	5887
2026-01-27 16:10:19.34	252.73	24.81	-38.8	-39.8	22.4	0.00e+00	0	32	0	1046478848	50	6267
2026-01-27 16:10:20.35	252.57	24.67	-39.1	-40.0	22.4	0.00e+00	0	32	0	1048576000	50	6457
2026-01-27 16:10:21.36	252.41	24.54	-38.9	-39.8	22.5	0.00e+00	20	32	0	1050673152	50	6315
2026-01-27 16:10:22.37	252.25	24.41	-39.2	-40.2	22.5	0.00e+00	0	32	0	1051721728	50	6540
2026-01-27 16:10:23.37	252.09	24.28	-39.1	-40.1	22.5	0.00e+00	92	32	0	1053818880	50	6529
2026-01-27 16:10:24.38	251.94	24.15	-39.0	-40.0	22.6	0.00e+00	0	32	0	1055916032	50	6416
2026-01-27 16:10:25.39	251.78	24.02	-38.7	-39.7	22.7	0.00e+00	0	32	0	1058013184	50	6215
2026-01-27 16:10:26.40	251.63	23.89	-38.0	-39.0	23.2	0.00e+00	0	32	0	1060110336	50	5701
2026-01-27 16:10:27.41	251.47	23.76	-38.1	-39.0	23.1	0.00e+00	0	32	0	1061158912	50	5759
2026-01-27 16:10:28.42	251.32	23.63	-38.0	-38.9	23.3	0.00e+00	80	32	0	1063256064	50	5656
2026-01-27 16:10:29.43	251.17	23.50	-37.9	-38.9	23.2	0.00e+00	0	32	0	1065353216	48	6324
2026-01-27 16:10:30.44	251.02	23.37	-38.6	-39.5	22.7	0.00e+00	83	32	0	1067450368	48	6848
2026-01-27 16:10:31.45	250.88	23.24	-39.2	-40.2	22.1	0.00e+00	0	32	0	1069547520	50	6594
2026-01-27 16:10:32.45	250.73	23.11	-39.6	-40.7	21.8	0.00e+00	0	32	0	1071644672	50	6972
2026-01-27 16:10:33.46	250.59	22.99	-40.5	-41.8	20.9	0.00e+00	0	32	0	1072693248	52	7009
2026-01-27 16:10:34.47	250.44	22.86	-41.1	-42.4	20.2	0.00e+00	0	32	0	1074790400	54	6759
2026-01-27 16:10:35.48	250.30	22.73	-41.2	-42.6	20.0	0.00e+00	0	32	0	1076887552	54	6876
2026-01-27 16:10:36.49	250.16	22.61	-41.0	-42.3	20.4	0.00e+00	0	32	0	1078984704	54	6691
2026-01-27 16:10:37.50	250.02	22.48	-40.9	-42.2	20.3	0.00e+00	79	32	0	1081081856	54	6551
2026-01-27 16:10:38.51	249.88	22.36	-40.5	-41.7	21.1	0.00e+00	0	32	0	1082130432	54	6194
2026-01-27 16:10:39.52	249.74	22.23	-40.4	-41.6	21.2	0.00e+00	0	32	0	1084227584	54	6144
2026-01-27 16:10:40.53	249.60	22.11	-40.1	-41.2	21.4	0.00e+00	0	32	0	1086324736	54	5863
2026-01-27 16:10:41.54	249.47	21.98	-40.0	-41.1	21.4	0.00e+00	0	32	0	1088421888	54	5812
2026-01-27 16:10:42.55	249.33	21.86	-40.0	-41.1	21.4	0.00e+00	25	32	0	1090519040	54	5788
2026-01-27 16:10:43.55	249.20	21.74	-40.0	-41.1	21.4	0.00e+00	0	32	0	1091567616	54	5793
2026-01-27 16:10:44.56	249.06	21.61	-39.9	-41.0	21.3	0.00e+00	87	32	0	1093664768	54	5748
2026-01-27 16:10:45.57	248.93	21.49	-39.7	-40.8	21.7	0.00e+00	0	32	0	1095761920	54	5582
2026-01-27 16:10:46.58	248.80	21.37	-40.1	-41.2	21.4	0.00e+00	90	32	0	1097859072	52	6589
2026-01-27 16:10:47.58	248.67	21.25	-39.4	-40.4	22.0	0.00e+00	0	32	0	1099956224	52	5976
2026-01-27 16:10:48.59	248.55	21.13	-39.6	-40.6	21.9	0.00e+00	0	32	0	1101004800	52	6158
2026-01-27 16:10:49.60	248.42	21.01	-39.6	-40.6	21.9	0.00e+00	0	32	0	1103101952	52	6149
2026-01-27 16:10:50.61	248.29	20.89	-39.4	-40.5	22.0	0.00e+00	0	32	0	1105199104	52	6037
2026-01-27 16:10:51.62	248.17	20.77	-39.3	-40.3	22.1	0.00e+00	79	32	0	1107296256	52	5912
2026-01-27 16:10:52.63	248.04	20.65	-39.0	-40.0	22.4	0.00e+00	0	32	0	1109393408	52	5729
2026-01-27 16:10:53.64	247.92	20.53	-38.8	-39.8	22.6	0.00e+00	79	32	0	1110441984	52	5567
2026-01-27 16:10:54.65	247.79	20.41	-38.5	-39.4	22.7	0.00e+00	0	32	0	1112539136	50	6003
2026-01-27 16:10:55.66	247.67	20.29	-38.4	-39.3	22.9	0.00e+00	0	32	0	1114636288	50	5919
2026-01-27 16:10:56.67	247.55	20.18	-38.1	-39.1	23.1	0.00e+00	0	32	0	1116733440	50	5765
2026-01-27 16:10:57.68	247.43	20.06	-38.0	-38.9	23.1	0.00e+00	0	32	0	1118830592	50	5689
2026-01-27 16:10:58.69	247.31	19.94	-37.8	-38.7	23.3	0.00e+00	78	32	0	1119879168	48	6204
2026-01-27 16:10:59.70	247.20	19.83	-37.7	-38.6	23.3	0.00e+00	0	32	0	1121976320	48	6147
2026-01-27 16:11:00.71	247.08	19.71	-38.1	-39.0	23.0	0.00e+00	83	32	0	1124073472	48	6464
2026-01-27 16:11:01.72	246.96	19.59	-38.3	-39.3	22.9	0.00e+00	0	32	0	1126170624	48	6647
2026-01-27 16:11:02.73	246.85	19.48	-38.6	-39.5	22.7	0.00e+00	0	32	0	1128267776	48	6845
2026-01-27 16:11:03.74	246.73	19.37	-39.0	-40.0	22.4	0.00e+00	0	32	0	1129316352	50	6410
2026-01-27 16:11:04.75	246.62	19.25	-39.4	-40.5	21.9	0.00e+00	0	32	0	1131413504	50	6803
2026-01-27 16:11:05.76	246.51	19.14	-39.2	-40.3	22.1	0.00e+00	0	32	0	1133510656	50	6624
2026-01-27 16:11:06.77	246.39	19.02	-39.3	-40.4	22.0	0.00e+00	0	32	0	1135607808	50	6719
2026-01-27 16:11:07.77	246.28	18.91	-39.4	-40.5	21.9	0.00e+00	82	32	0	1137704960	50	6795
2026-01-27 16:11:08.78	246.17	18.80	-39.1	-40.1	22.3	0.00e+00	0	32	0	1139802112	50	6499
2026-01-27 16:11:09.79	246.07	18.69	-38.9	-39.8	22.4	0.00e+00	6	32	0	1140850688	50	6307
2026-01-27 16:11:10.80	245.96	18.57	-38.6	-39.6	22.6	0.00e+00	0	32	0	1142947840	50	6120
2026-01-27 16:11:11.81	245.85	18.46	-38.7	-39.7	22.6	0.00e+00	0	32	0	1145044992	50	6211
2026-01-27 16:11:12.82	245.74	18.35	-38.6	-39.6	22.6	0.00e+00	0	32	0	1147142144	50	6106
2026-01-27 16:11:13.83	245.64	18.24	-38.5	-39.4	22.8	0.00e+00	0	32	0	1148190720	50	6029
2026-01-27 16:11:14.84	245.53	18.13	-38.6	-39.5	22.7	0.00e+00	84	32	0	1150287872	50	6068
2026-01-27 16:11:15.85	245.43	18.02	-38.8	-39.7	22.6	0.00e+00	0	32	0	1152385024	50	6224
2026-01-27 16:11:16.85	245.32	17.91	-38.8	-39.8	22.5	0.00e+00	83	32	0	1154482176	50	6254
2026-01-27 16:11:17.86	245.22	17.80	-38.8	-39.8	22.4	0.00e+00	0	32	0	1156579328	50	6269
2026-01-27 16:11:18.87	245.12	17.69	-39.1	-40.2	22.1	0.00e+00	0	32	0	1157627904	50	6544
2026-01-27 16:11:19.88	245.02	17.59	-39.2	-40.2	22.0	0.00e+00	0	32	0	1159725056	50	6595
2026-01-27 16:11:20.89	244.92	17.48	-39.3	-40.4	21.9	0.00e+00	0	32	0	1161822208	50	6720
2026-01-27 16:11:21.90	244.82	17.37	-39.4	-40.5	21.8	0.00e+00	15	32	0	1163919360	50	6790
2026-01-27 16:11:22.91	244.72	17.26	-39.7	-40.7	21.6	0.00e+00	0	32	0	1166016512	50	7002
2026-01-27 16:11:23.92	244.62	17.16	-39.8	-41.0	21.5	0.00e+00	92	32	0	1168113664	52	6407
2026-01-27 16:11:24.93	244.52	17.05	-40.1	-41.2	21.3	0.00e+00	0	32	0	1169162240	52	6602
2026-01-27 16:11:25.94	244.42	16.94	-40.2	-41.4	21.0	0.00e+00	0	32	0	1171259392	52	6723
2026-01-27 16:11:26.94	244.33	16.84	-40.4	-41.6	20.9	0.00e+00	0	32	0	1173356544	52	6850
2026-01-27 16:11:27.95	244.23	16.73	-40.1	-41.3	21.2	0.00e+00	0	32	0	1175453696	52	6619
2026-01-27 16:11:28.96	244.14	16.63	-40.1	-41.3	21.1	0.00e+00	14	32	0	1177550848	52	6633
2026-01-27 16:11:29.97	244.04	16.52	-40.0	-41.1	21.3	0.00e+00	0	32	0	1178599424	52	6536
2026-01-27 16:11:30.98	243.95	16.42	-39.7	-40.8	21.6	0.00e+00	70	32	0	1180696576	52	6308
2026-01-27 16:11:31.98	243.86	16.32	-39.5	-40.6	21.8	0.00e+00	0	32	0	1182793728	52	6127
2026-01-27 16:11:32.99	243.77	16.21	-39.5	-40.5	21.9	0.00e+00	0	32	0	1184890880	52	6083
2026-01-27 16:11:34.00	243.67	16.11	-39.2	-40.2	22.3	0.00e+00	0	32	0	1186988032	52	5848
2026-01-27 16:11:35.01	243.58	16.01	-39.1	-40.1	22.1	0.00e+00	0	32	0	1188036608	52	5796
2026-01-27 16:11:36.02	243.49	15.90	-38.6	-39.5	22.6	0.00e+00	0	32	0	1190133760	50	6091
2026-01-27 16:11:37.03	243.40	15.80	-38.3	-39.2	22.9	0.00e+00	0	32	0	1192230912	50	5887
2026-01-27 16:11:38.04	243.31	15.70	-38.1	-39.0	23.1	0.00e+00	38	32	0	1194328064	50	5705
2026-01-27 16:11:39.05	243.22	15.60	-38.1	-39.1	23.0	0.00e+00	0	32	0	1196425216	50	5765
2026-01-27 16:11:40.06	243.14	15.50	-38.0	-38.8	23.2	0.00e+00	0	32	0	1197473792	50	5625
2026-01-27 16:11:41.07	243.05	15.40	-38.1	-39.0	23.1	0.00e+00	0	32	0	1199570944	50	5759
2026-01-27 16:11:42.08	242.96	15.30	-38.3	-39.3	22.8	0.00e+00	0	32	0	1201668096	50	5900
2026-01-27 16:11:43.09	242.88	15.20	-38.3	-39.2	22.8	0.00e+00	64	32	0	1203765248	50	5892
