passes_logs/2026/01/27/R4.6S_Anadyr/R4.6S_Anadyr__20260127_162034_NOAA_20_JPSS-1_rec.log

#Pass ID: 20260127_162034_NOAA 20 (JPSS-1)
#Satellite: NOAA 20 (JPSS-1)
#Configuration: NOAA 20
#almurnet v.1.7.20251203
#Start time: 2026-01-27 16:20:38

#Version: 2.2.20231116
#Station: R4.6S_Anadyr
#Location: 177.4865 lon 64.73178 lat
#TLE: 1 43013U 17073A   26026.81907703  .00000149  00000+0  91399-4 0  9998
#TLE: 2 43013  98.7647 327.6343 0000991  22.4130 337.7089 14.19540778424411

#Time	Az	El	Level	Level2	SNR	BER	BlckErr	Temp	State	Recorded	gain1	gain2
2026-01-27 16:20:38.02	25.56	0.20	-48.9	-62.7	3.3	1.54e+00	0	31	0	0	60	49494
2026-01-27 16:20:39.03	25.52	0.26	-48.9	-64.1	3.6	1.51e+00	0	31	104	0	60	58146
2026-01-27 16:20:40.04	25.48	0.31	-48.9	-64.1	3.6	1.51e+00	0	31	104	0	60	58271
2026-01-27 16:20:41.05	25.44	0.37	-49.0	-64.2	3.6	1.51e+00	0	31	104	0	60	58428
2026-01-27 16:20:42.06	25.40	0.43	-49.0	-64.3	3.6	1.51e+00	0	31	104	0	60	58997
2026-01-27 16:20:43.07	25.36	0.49	-49.0	-64.2	3.6	1.51e+00	0	31	104	0	60	58656
2026-01-27 16:20:44.08	25.32	0.55	-49.0	-64.2	3.6	1.51e+00	0	31	104	0	60	58721
2026-01-27 16:20:45.09	25.29	0.61	-49.0	-64.1	3.6	1.51e+00	0	31	104	0	60	58279
2026-01-27 16:20:46.10	25.25	0.66	-48.9	-64.2	3.6	1.51e+00	0	31	104	0	60	58753
2026-01-27 16:20:47.11	25.21	0.72	-48.9	-64.1	3.6	1.51e+00	0	31	104	0	60	58037
2026-01-27 16:20:48.11	25.17	0.78	-48.9	-64.2	3.6	1.51e+00	0	31	104	0	60	58310
2026-01-27 16:20:49.12	25.13	0.84	-48.9	-64.1	3.6	1.51e+00	0	31	104	0	60	57714
2026-01-27 16:20:50.13	25.09	0.90	-48.8	-64.1	3.6	1.51e+00	0	31	104	0	60	57660
2026-01-27 16:20:51.14	25.05	0.96	-48.7	-63.9	3.6	1.51e+00	0	31	104	0	60	56896
2026-01-27 16:20:52.15	25.01	1.02	-48.6	-63.9	3.6	1.51e+00	0	31	104	0	60	56327
2026-01-27 16:20:53.16	24.97	1.08	-48.5	-63.7	3.6	1.51e+00	0	31	104	0	60	55407
2026-01-27 16:20:54.17	24.93	1.14	-48.5	-63.6	3.6	1.51e+00	0	31	104	0	60	54973
2026-01-27 16:20:55.18	24.89	1.20	-48.4	-63.6	3.6	1.51e+00	0	31	104	0	60	54631
2026-01-27 16:20:56.19	24.84	1.26	-48.3	-63.4	3.6	1.51e+00	0	31	104	0	60	53606
2026-01-27 16:20:57.20	24.80	1.32	-48.1	-63.3	3.6	1.51e+00	0	31	104	0	60	52746
2026-01-27 16:20:58.21	24.76	1.38	-47.8	-63.0	3.6	1.51e+00	0	31	104	0	60	51127
2026-01-27 16:20:59.22	24.72	1.44	-47.6	-62.7	3.6	1.51e+00	0	31	104	0	60	49590
2026-01-27 16:21:00.23	24.68	1.50	-47.6	-62.7	3.6	1.51e+00	0	31	104	0	60	49586
2026-01-27 16:21:01.24	24.64	1.56	-47.5	-62.7	3.6	1.51e+00	0	31	104	0	60	49399
2026-01-27 16:21:02.25	24.60	1.62	-47.5	-62.7	3.6	1.51e+00	0	31	104	0	60	49464
2026-01-27 16:21:03.26	24.55	1.68	-47.5	-62.7	3.6	1.51e+00	0	31	104	0	60	49544
2026-01-27 16:21:04.26	24.51	1.74	-47.5	-62.7	3.6	1.51e+00	0	31	104	0	60	49271
2026-01-27 16:21:05.28	24.47	1.80	-47.5	-62.7	3.6	1.51e+00	0	31	104	0	60	49379
2026-01-27 16:21:06.29	24.43	1.86	-47.5	-62.6	3.6	1.51e+00	0	31	104	0	60	48869
2026-01-27 16:21:07.30	24.38	1.92	-47.5	-62.7	3.6	1.51e+00	0	31	104	0	60	49113
2026-01-27 16:21:08.30	24.34	1.98	-47.5	-62.6	3.6	1.51e+00	0	31	104	0	60	48838
2026-01-27 16:21:09.31	24.30	2.04	-47.5	-62.7	3.6	1.51e+00	0	31	104	0	60	49046
2026-01-27 16:21:10.32	24.25	2.10	-47.5	-62.6	3.6	1.51e+00	0	31	104	0	60	48889
2026-01-27 16:21:11.33	24.21	2.16	-47.5	-62.7	3.6	1.51e+00	0	31	104	0	60	49249
2026-01-27 16:21:12.34	24.16	2.23	-47.5	-62.7	3.6	1.51e+00	0	31	104	0	60	49206
2026-01-27 16:21:13.35	24.12	2.29	-47.5	-62.7	3.6	1.51e+00	0	31	104	0	60	49219
2026-01-27 16:21:14.36	24.08	2.35	-47.5	-62.7	3.6	1.51e+00	0	32	104	0	60	49329
2026-01-27 16:21:15.37	24.03	2.41	-47.5	-62.6	3.6	1.51e+00	0	32	104	0	60	48970
2026-01-27 16:21:16.38	23.99	2.47	-47.5	-62.7	3.6	1.51e+00	0	32	104	0	60	49061
2026-01-27 16:21:17.39	23.94	2.54	-47.5	-62.6	3.6	1.51e+00	0	32	104	0	60	49017
2026-01-27 16:21:18.40	23.90	2.60	-47.5	-62.6	3.6	1.51e+00	0	31	104	0	60	48605
2026-01-27 16:21:19.41	23.85	2.66	-47.5	-62.4	3.6	1.51e+00	0	31	104	0	60	47779
2026-01-27 16:21:20.41	23.81	2.72	-47.5	-62.1	3.6	1.51e+00	0	31	104	0	60	45820
2026-01-27 16:21:21.43	23.76	2.79	-47.5	-61.7	3.6	1.51e+00	0	31	104	0	60	44154
2026-01-27 16:21:22.44	23.71	2.85	-47.5	-62.0	3.6	1.51e+00	0	32	104	0	60	45251
2026-01-27 16:21:23.45	23.67	2.91	-47.5	-62.2	3.6	1.51e+00	0	32	104	0	60	46621
2026-01-27 16:21:24.46	23.62	2.97	-47.5	-62.6	3.6	1.51e+00	0	31	104	0	60	48620
2026-01-27 16:21:25.47	23.57	3.04	-47.5	-62.2	3.6	1.51e+00	0	31	104	0	60	46642
2026-01-27 16:21:26.48	23.53	3.10	-47.4	-60.0	3.6	1.51e+00	0	32	104	0	60	36180
2026-01-27 16:21:27.49	23.48	3.16	-47.1	-56.9	5.1	1.29e+00	5	31	104	0	60	25368
2026-01-27 16:21:28.50	23.43	3.23	-46.6	-53.0	7.9	1.63e-01	78	32	0	1048576	60	16188
2026-01-27 16:21:29.51	23.38	3.29	-46.1	-51.3	10.0	3.61e-02	1	32	0	3145728	60	13204
2026-01-27 16:21:30.52	23.34	3.35	-45.2	-49.2	12.5	1.24e-03	92	32	0	5242880	60	10391
2026-01-27 16:21:31.53	23.29	3.42	-44.8	-48.2	13.4	1.03e-04	5	32	0	6291456	60	9336
2026-01-27 16:21:32.54	23.24	3.48	-44.3	-47.3	14.3	6.10e-06	7	32	0	8388608	60	8406
2026-01-27 16:21:33.55	23.19	3.55	-47.0	-55.2	5.6	1.06e-05	7	32	0	10485760	60	20898
2026-01-27 16:21:34.56	23.14	3.61	-45.9	-50.8	5.5	1.46e+00	0	32	104	10485760	60	12581
2026-01-27 16:21:35.56	23.09	3.67	-42.6	-44.7	13.5	0.00e+00	12	32	104	10485760	58	6990
2026-01-27 16:21:36.57	23.04	3.74	-47.5	-61.0	3.9	1.51e+00	0	32	104	10485760	60	40695
2026-01-27 16:21:37.58	23.00	3.80	-44.6	-48.0	14.7	1.37e+00	92	32	104	10485760	60	9086
2026-01-27 16:21:38.59	22.95	3.87	-45.8	-50.4	11.3	9.83e-02	8	32	0	11534336	60	11915
2026-01-27 16:21:39.60	22.90	3.93	-44.3	-47.3	14.4	3.50e-05	0	32	0	13631488	60	8415
2026-01-27 16:21:40.61	22.85	4.00	-44.4	-47.5	14.4	3.00e-06	7	32	0	15728640	60	8541
2026-01-27 16:21:41.62	22.80	4.06	-44.0	-46.7	15.2	7.00e-07	6	32	0	17825792	60	7826
2026-01-27 16:21:42.62	22.75	4.13	-42.1	-44.0	17.9	0.00e+00	0	32	0	18874368	58	6412
2026-01-27 16:21:43.63	22.69	4.19	-42.6	-44.6	17.3	0.00e+00	82	32	0	20971520	58	6868
2026-01-27 16:21:44.64	22.64	4.26	-42.7	-44.7	17.2	0.00e+00	92	32	0	23068672	58	6995
2026-01-27 16:21:45.65	22.59	4.32	-42.3	-44.2	17.8	0.00e+00	0	32	0	25165824	58	6591
2026-01-27 16:21:46.66	22.54	4.39	-41.7	-43.4	18.1	0.00e+00	91	32	0	27262976	56	6762
2026-01-27 16:21:47.67	22.49	4.46	-41.2	-42.8	19.3	0.00e+00	80	32	0	28311552	56	6247
2026-01-27 16:21:48.68	22.44	4.52	-41.2	-42.7	19.2	0.00e+00	80	32	0	30408704	56	6227
2026-01-27 16:21:49.69	22.38	4.59	-41.5	-43.1	18.9	0.00e+00	5	32	0	32505856	56	6522
2026-01-27 16:21:50.70	22.33	4.65	-41.3	-42.8	19.2	0.00e+00	0	32	0	34603008	56	6312
2026-01-27 16:21:51.71	22.28	4.72	-41.2	-42.7	19.5	0.00e+00	72	32	0	36700160	56	6183
2026-01-27 16:21:52.72	22.22	4.79	-41.0	-42.5	19.5	0.00e+00	6	32	0	37748736	56	6075
2026-01-27 16:21:53.73	22.17	4.85	-40.8	-42.2	19.7	0.00e+00	90	32	0	39845888	56	5879
2026-01-27 16:21:54.74	22.12	4.92	-40.8	-42.2	19.9	0.00e+00	6	32	0	41943040	56	5884
2026-01-27 16:21:55.75	22.06	4.99	-40.9	-42.3	19.6	0.00e+00	6	32	0	44040192	54	6677
2026-01-27 16:21:56.75	22.01	5.05	-41.0	-42.5	19.4	0.00e+00	7	32	0	46137344	54	6809
2026-01-27 16:21:57.76	21.96	5.12	-41.0	-42.4	19.5	0.00e+00	8	32	0	47185920	54	6768
2026-01-27 16:21:58.77	21.90	5.19	-40.9	-42.4	19.6	0.00e+00	6	32	0	49283072	54	6709
2026-01-27 16:21:59.78	21.85	5.26	-40.6	-41.9	20.1	0.00e+00	7	32	0	51380224	54	6368
2026-01-27 16:22:00.79	21.79	5.32	-40.6	-41.9	20.1	0.00e+00	92	32	0	53477376	54	6379
2026-01-27 16:22:01.81	21.73	5.39	-40.5	-41.8	20.2	0.00e+00	78	32	0	55574528	54	6296
2026-01-27 16:22:02.82	21.68	5.46	-40.7	-42.1	19.9	0.00e+00	79	32	0	56623104	54	6528
2026-01-27 16:22:03.83	21.62	5.53	-40.7	-42.0	20.0	0.00e+00	2	32	0	58720256	54	6440
2026-01-27 16:22:04.84	21.57	5.60	-40.5	-41.9	20.1	0.00e+00	0	32	0	60817408	54	6337
2026-01-27 16:22:05.84	21.51	5.67	-40.6	-41.9	20.0	0.00e+00	0	32	0	62914560	54	6360
2026-01-27 16:22:06.85	21.45	5.73	-40.7	-42.1	19.9	0.00e+00	78	32	0	65011712	54	6494
2026-01-27 16:22:07.86	21.40	5.80	-40.7	-42.1	20.0	0.00e+00	92	32	0	66060288	54	6494
2026-01-27 16:22:08.86	21.34	5.87	-40.7	-42.0	20.1	0.00e+00	0	32	0	68157440	54	6456
2026-01-27 16:22:09.87	21.28	5.94	-40.6	-42.0	20.0	0.00e+00	92	32	0	70254592	54	6428
2026-01-27 16:22:10.88	21.22	6.01	-40.3	-41.6	20.6	0.00e+00	0	32	0	72351744	54	6110
2026-01-27 16:22:11.89	21.16	6.08	-40.7	-42.0	20.1	0.00e+00	0	32	0	74448896	54	6438
2026-01-27 16:22:12.90	21.11	6.15	-40.4	-41.7	20.4	0.00e+00	2	32	0	75497472	54	6232
2026-01-27 16:22:13.91	21.05	6.22	-40.3	-41.6	20.5	0.00e+00	0	32	0	77594624	54	6118
2026-01-27 16:22:14.92	20.99	6.29	-40.1	-41.3	20.7	0.00e+00	87	32	0	79691776	54	5962
2026-01-27 16:22:15.93	20.93	6.36	-40.2	-41.4	20.7	0.00e+00	0	32	0	81788928	54	6033
2026-01-27 16:22:16.94	20.87	6.43	-40.2	-41.5	20.6	0.00e+00	90	32	0	83886080	54	6063
2026-01-27 16:22:17.95	20.81	6.50	-40.3	-41.6	20.5	0.00e+00	8	32	0	85983232	54	6133
2026-01-27 16:22:18.96	20.75	6.57	-40.1	-41.4	20.7	0.00e+00	75	32	0	87031808	54	5968
2026-01-27 16:22:19.97	20.69	6.64	-40.1	-41.4	20.8	0.00e+00	7	32	0	89128960	54	5980
2026-01-27 16:22:20.98	20.62	6.71	-40.2	-41.4	20.7	0.00e+00	8	32	0	91226112	54	6009
2026-01-27 16:22:21.99	20.56	6.78	-40.0	-41.2	20.9	0.00e+00	0	32	0	93323264	54	5875
2026-01-27 16:22:23.00	20.50	6.85	-40.1	-41.4	20.7	0.00e+00	9	32	0	95420416	54	5981
2026-01-27 16:22:24.01	20.44	6.92	-40.0	-41.3	20.9	0.00e+00	92	32	0	96468992	54	5897
2026-01-27 16:22:25.02	20.38	7.00	-40.0	-41.2	21.0	0.00e+00	8	32	0	98566144	54	5878
2026-01-27 16:22:26.03	20.31	7.07	-39.9	-41.2	21.0	0.00e+00	90	32	0	100663296	54	5833
2026-01-27 16:22:27.04	20.25	7.14	-39.9	-41.1	20.9	0.00e+00	0	32	0	102760448	54	5823
2026-01-27 16:22:28.05	20.19	7.21	-39.8	-41.0	21.1	0.00e+00	72	32	0	104857600	54	5749
2026-01-27 16:22:29.06	20.12	7.28	-39.9	-41.1	21.0	0.00e+00	79	32	0	105906176	54	5795
2026-01-27 16:22:30.06	20.06	7.36	-40.0	-41.2	21.1	0.00e+00	0	32	0	108003328	54	5836
2026-01-27 16:22:31.07	19.99	7.43	-39.8	-41.0	21.1	0.00e+00	91	32	0	110100480	54	5735
2026-01-27 16:22:32.08	19.93	7.50	-39.9	-41.1	21.1	0.00e+00	0	32	0	112197632	54	5814
2026-01-27 16:22:33.09	19.86	7.57	-40.0	-41.2	21.0	0.00e+00	92	32	0	114294784	54	5850
2026-01-27 16:22:34.10	19.80	7.65	-39.8	-40.9	21.3	0.00e+00	0	32	0	115343360	52	6387
2026-01-27 16:22:35.11	19.73	7.72	-39.8	-40.9	21.3	0.00e+00	0	32	0	117440512	52	6354
2026-01-27 16:22:36.12	19.67	7.79	-39.8	-41.0	21.2	0.00e+00	0	32	0	119537664	52	6394
2026-01-27 16:22:37.13	19.60	7.87	-39.8	-40.9	21.4	0.00e+00	0	32	0	121634816	52	6364
2026-01-27 16:22:38.14	19.53	7.94	-39.8	-41.0	21.1	0.00e+00	0	32	0	123731968	52	6437
2026-01-27 16:22:39.15	19.47	8.01	-39.8	-41.0	21.3	0.00e+00	8	32	0	124780544	52	6438
2026-01-27 16:22:40.16	19.40	8.09	-39.8	-40.9	21.3	0.00e+00	92	32	0	126877696	52	6373
2026-01-27 16:22:41.16	19.33	8.16	-39.8	-40.9	21.3	0.00e+00	2	32	0	128974848	52	6371
2026-01-27 16:22:42.17	19.26	8.24	-39.7	-40.9	21.3	0.00e+00	0	32	0	131072000	52	6355
2026-01-27 16:22:43.18	19.19	8.31	-39.7	-40.9	21.4	0.00e+00	0	32	0	133169152	52	6350
2026-01-27 16:22:44.19	19.13	8.39	-39.8	-41.0	21.3	0.00e+00	72	32	0	134217728	52	6417
2026-01-27 16:22:45.20	19.06	8.46	-39.8	-41.0	21.3	0.00e+00	0	32	0	136314880	52	6392
2026-01-27 16:22:46.21	18.99	8.54	-39.8	-41.0	21.3	0.00e+00	9	32	0	138412032	52	6398
2026-01-27 16:22:47.22	18.92	8.61	-39.7	-40.9	21.4	0.00e+00	92	32	0	140509184	52	6346
2026-01-27 16:22:48.23	18.84	8.69	-39.8	-40.9	21.4	0.00e+00	70	32	0	142606336	52	6377
2026-01-27 16:22:49.24	18.77	8.76	-39.7	-40.8	21.4	0.00e+00	92	32	0	143654912	52	6313
2026-01-27 16:22:50.25	18.70	8.84	-39.9	-41.1	21.2	0.00e+00	0	32	0	145752064	52	6507
2026-01-27 16:22:51.26	18.63	8.91	-39.8	-41.0	21.4	0.00e+00	0	32	0	147849216	52	6395
2026-01-27 16:22:52.27	18.56	8.99	-39.7	-40.9	21.5	0.00e+00	0	32	0	149946368	52	6348
2026-01-27 16:22:53.27	18.49	9.07	-39.7	-40.9	21.5	0.00e+00	72	32	0	152043520	52	6319
2026-01-27 16:22:54.28	18.41	9.14	-39.7	-40.8	21.5	0.00e+00	8	32	0	153092096	52	6266
2026-01-27 16:22:55.29	18.34	9.22	-39.6	-40.7	21.6	0.00e+00	0	32	0	155189248	52	6219
2026-01-27 16:22:56.30	18.27	9.30	-39.7	-40.8	21.6	0.00e+00	90	32	0	157286400	52	6287
2026-01-27 16:22:57.31	18.19	9.37	-39.7	-40.8	21.6	0.00e+00	0	32	0	159383552	52	6274
2026-01-27 16:22:58.32	18.12	9.45	-39.6	-40.7	21.5	0.00e+00	0	32	0	161480704	52	6236
2026-01-27 16:22:59.33	18.04	9.53	-39.7	-40.8	21.5	0.00e+00	0	32	0	162529280	52	6317
2026-01-27 16:23:00.34	17.97	9.61	-39.9	-41.1	21.2	0.00e+00	3	32	0	164626432	52	6467
2026-01-27 16:23:01.35	17.89	9.68	-39.5	-40.6	21.7	0.00e+00	0	32	0	166723584	52	6164
2026-01-27 16:23:02.36	17.81	9.76	-39.6	-40.7	21.6	0.00e+00	0	32	0	168820736	52	6192
2026-01-27 16:23:03.36	17.74	9.84	-39.5	-40.6	21.7	0.00e+00	91	32	0	170917888	52	6155
2026-01-27 16:23:04.37	17.66	9.92	-39.5	-40.6	21.8	0.00e+00	3	32	0	171966464	52	6106
2026-01-27 16:23:05.38	17.58	10.00	-39.5	-40.7	21.7	0.00e+00	79	32	0	174063616	52	6181
2026-01-27 16:23:06.39	17.51	10.08	-39.6	-40.7	21.7	0.00e+00	0	32	0	176160768	52	6197
2026-01-27 16:23:07.40	17.43	10.15	-39.4	-40.5	21.8	0.00e+00	0	32	0	178257920	52	6091
2026-01-27 16:23:08.41	17.35	10.23	-39.5	-40.5	21.8	0.00e+00	3	32	0	180355072	52	6103
2026-01-27 16:23:09.42	17.27	10.31	-39.4	-40.4	21.8	0.00e+00	10	32	0	182452224	52	6028
2026-01-27 16:23:10.43	17.19	10.39	-39.4	-40.5	21.9	0.00e+00	92	32	0	183500800	52	6052
2026-01-27 16:23:11.44	17.11	10.47	-39.5	-40.6	21.8	0.00e+00	72	32	0	185597952	52	6159
2026-01-27 16:23:12.45	17.03	10.55	-39.4	-40.5	22.0	0.00e+00	90	32	0	187695104	52	6071
2026-01-27 16:23:13.45	16.95	10.63	-39.4	-40.5	21.9	0.00e+00	6	32	0	189792256	52	6052
2026-01-27 16:23:14.46	16.87	10.71	-39.3	-40.4	22.0	0.00e+00	0	32	0	191889408	52	5990
2026-01-27 16:23:15.47	16.78	10.79	-39.4	-40.4	21.9	0.00e+00	0	32	0	192937984	52	6029
2026-01-27 16:23:16.48	16.70	10.88	-39.3	-40.4	22.0	0.00e+00	0	32	0	195035136	52	6001
2026-01-27 16:23:17.49	16.62	10.96	-39.4	-40.4	22.0	0.00e+00	87	32	0	197132288	52	6023
2026-01-27 16:23:18.50	16.53	11.04	-39.2	-40.3	22.1	0.00e+00	0	32	0	199229440	52	5927
2026-01-27 16:23:19.51	16.45	11.12	-39.3	-40.3	22.1	0.00e+00	90	32	0	201326592	52	5946
2026-01-27 16:23:20.52	16.36	11.20	-39.3	-40.3	22.1	0.00e+00	5	32	0	202375168	52	5927
2026-01-27 16:23:21.53	16.28	11.28	-39.3	-40.4	22.0	0.00e+00	90	32	0	204472320	52	5991
2026-01-27 16:23:22.54	16.19	11.37	-39.2	-40.2	22.1	0.00e+00	10	32	0	206569472	52	5894
2026-01-27 16:23:23.55	16.11	11.45	-39.4	-40.5	22.0	0.00e+00	6	32	0	208666624	52	6036
2026-01-27 16:23:24.56	16.02	11.53	-39.4	-40.5	22.0	0.00e+00	16	32	0	210763776	52	6073
2026-01-27 16:23:25.57	15.93	11.61	-39.4	-40.4	21.9	0.00e+00	10	32	0	211812352	52	6014
2026-01-27 16:23:26.58	15.85	11.70	-39.4	-40.5	21.9	0.00e+00	92	32	0	213909504	52	6085
2026-01-27 16:23:27.59	15.76	11.78	-39.4	-40.4	22.0	0.00e+00	8	32	0	216006656	52	6011
2026-01-27 16:23:28.60	15.67	11.86	-39.0	-40.0	22.3	0.00e+00	92	32	0	218103808	52	5761
2026-01-27 16:23:29.60	15.58	11.95	-39.1	-40.1	22.4	0.00e+00	2	32	0	220200960	52	5808
2026-01-27 16:23:30.61	15.49	12.03	-39.0	-40.0	22.4	0.00e+00	80	32	0	221249536	52	5754
2026-01-27 16:23:31.61	15.40	12.11	-39.0	-40.0	22.5	0.00e+00	0	32	0	223346688	52	5725
2026-01-27 16:23:32.63	15.31	12.20	-39.1	-40.1	22.4	0.00e+00	4	32	0	225443840	52	5785
2026-01-27 16:23:33.64	15.22	12.28	-39.0	-40.0	22.4	0.00e+00	92	32	0	227540992	52	5730
2026-01-27 16:23:34.64	15.13	12.37	-39.0	-40.1	22.4	0.00e+00	0	32	0	229638144	52	5768
2026-01-27 16:23:35.65	15.04	12.45	-39.0	-40.1	22.4	0.00e+00	92	32	0	230686720	52	5775
2026-01-27 16:23:36.66	14.94	12.54	-38.9	-40.0	22.5	0.00e+00	79	32	0	232783872	52	5699
2026-01-27 16:23:37.67	14.85	12.62	-39.0	-40.0	22.4	0.00e+00	0	32	0	234881024	52	5758
2026-01-27 16:23:38.68	14.76	12.71	-39.2	-40.2	22.3	0.00e+00	0	32	0	236978176	52	5858
2026-01-27 16:23:39.69	14.66	12.79	-39.1	-40.1	22.3	0.00e+00	6	32	0	239075328	52	5788
2026-01-27 16:23:40.70	14.57	12.88	-39.3	-40.3	22.3	0.00e+00	92	32	0	240123904	52	5952
2026-01-27 16:23:41.71	14.47	12.97	-39.1	-40.2	22.2	0.00e+00	0	32	0	242221056	52	5852
2026-01-27 16:23:42.72	14.37	13.05	-39.1	-40.2	22.2	0.00e+00	92	32	0	244318208	52	5840
2026-01-27 16:23:43.73	14.28	13.14	-38.7	-39.7	22.7	0.00e+00	0	32	0	246415360	52	5554
2026-01-27 16:23:44.74	14.18	13.23	-38.7	-39.7	22.7	0.00e+00	10	32	0	248512512	50	6232
2026-01-27 16:23:45.75	14.08	13.31	-38.7	-39.7	22.7	0.00e+00	7	32	0	250609664	50	6208
2026-01-27 16:23:46.76	13.98	13.40	-38.8	-39.8	22.6	0.00e+00	6	32	0	251658240	50	6272
2026-01-27 16:23:47.77	13.88	13.49	-38.6	-39.6	22.8	0.00e+00	15	32	0	253755392	50	6156
2026-01-27 16:23:48.77	13.78	13.58	-38.6	-39.6	22.8	0.00e+00	9	32	0	255852544	50	6106
2026-01-27 16:23:49.79	13.68	13.66	-38.7	-39.7	22.7	0.00e+00	92	32	0	257949696	50	6187
2026-01-27 16:23:50.80	13.58	13.75	-38.6	-39.6	22.8	0.00e+00	11	32	0	260046848	50	6131
2026-01-27 16:23:51.80	13.48	13.84	-38.6	-39.6	22.8	0.00e+00	92	32	0	261095424	50	6137
2026-01-27 16:23:52.81	13.38	13.93	-38.6	-39.5	22.8	0.00e+00	69	32	0	263192576	50	6098
2026-01-27 16:23:53.82	13.27	14.02	-38.6	-39.6	22.9	0.00e+00	10	32	0	265289728	50	6129
2026-01-27 16:23:54.83	13.17	14.11	-38.5	-39.5	22.9	0.00e+00	73	32	0	267386880	50	6059
2026-01-27 16:23:55.84	13.06	14.20	-38.5	-39.5	22.9	0.00e+00	0	32	0	269484032	50	6061
2026-01-27 16:23:56.85	12.96	14.29	-38.6	-39.6	22.7	0.00e+00	92	32	0	270532608	50	6140
2026-01-27 16:23:57.86	12.85	14.38	-38.5	-39.5	23.0	0.00e+00	70	32	0	272629760	50	6034
2026-01-27 16:23:58.87	12.75	14.47	-38.6	-39.6	22.9	0.00e+00	91	32	0	274726912	50	6114
2026-01-27 16:23:59.88	12.64	14.56	-38.5	-39.5	23.0	0.00e+00	75	32	0	276824064	50	6037
2026-01-27 16:24:00.88	12.53	14.65	-38.7	-39.7	22.7	0.00e+00	0	32	0	278921216	50	6177
2026-01-27 16:24:01.89	12.43	14.74	-38.6	-39.5	22.8	0.00e+00	0	32	0	279969792	50	6076
2026-01-27 16:24:02.90	12.32	14.83	-38.5	-39.5	22.7	0.00e+00	0	32	0	282066944	50	6045
2026-01-27 16:24:03.91	12.21	14.92	-38.5	-39.5	23.1	0.00e+00	77	32	0	284164096	50	6036
2026-01-27 16:24:04.92	12.10	15.01	-38.4	-39.4	23.0	0.00e+00	0	32	0	286261248	50	5975
2026-01-27 16:24:05.93	11.98	15.10	-38.5	-39.4	22.9	0.00e+00	91	32	0	288358400	50	6015
2026-01-27 16:24:06.94	11.87	15.20	-38.4	-39.4	22.9	0.00e+00	0	32	0	289406976	50	5991
2026-01-27 16:24:07.95	11.76	15.29	-38.5	-39.5	23.0	0.00e+00	12	32	0	291504128	50	6047
2026-01-27 16:24:08.95	11.65	15.38	-38.5	-39.4	23.0	0.00e+00	10	32	0	293601280	50	6032
2026-01-27 16:24:09.96	11.53	15.47	-38.5	-39.4	23.0	0.00e+00	3	32	0	295698432	50	6001
2026-01-27 16:24:10.97	11.42	15.56	-38.6	-39.6	22.9	0.00e+00	0	32	0	297795584	50	6145
2026-01-27 16:24:11.99	11.30	15.66	-38.7	-39.7	22.8	0.00e+00	71	32	0	298844160	50	6192
2026-01-27 16:24:12.99	11.19	15.75	-38.6	-39.6	22.9	0.00e+00	92	32	0	300941312	50	6105
2026-01-27 16:24:14.00	11.07	15.85	-38.5	-39.4	23.2	0.00e+00	12	32	0	303038464	50	6007
2026-01-27 16:24:15.01	10.95	15.94	-38.4	-39.4	23.2	0.00e+00	90	32	0	305135616	50	5976
2026-01-27 16:24:16.02	10.83	16.03	-38.3	-39.2	23.2	0.00e+00	12	32	0	307232768	50	5888
2026-01-27 16:24:17.03	10.71	16.13	-38.2	-39.2	23.2	0.00e+00	70	32	0	308281344	50	5832
2026-01-27 16:24:18.04	10.59	16.22	-38.4	-39.3	23.1	0.00e+00	75	32	0	310378496	50	5950
2026-01-27 16:24:19.05	10.47	16.32	-38.3	-39.3	23.1	0.00e+00	0	32	0	312475648	50	5897
2026-01-27 16:24:20.06	10.35	16.41	-38.4	-39.3	23.1	0.00e+00	92	32	0	314572800	50	5932
2026-01-27 16:24:21.07	10.23	16.51	-38.4	-39.4	23.2	0.00e+00	0	32	0	316669952	50	5976
2026-01-27 16:24:22.08	10.10	16.60	-38.4	-39.4	23.1	0.00e+00	90	32	0	317718528	50	5971
2026-01-27 16:24:23.09	9.98	16.70	-38.4	-39.4	23.2	0.00e+00	0	32	0	319815680	50	5972
2026-01-27 16:24:24.10	9.86	16.80	-38.3	-39.2	23.2	0.00e+00	0	32	0	321912832	50	5887
2026-01-27 16:24:25.11	9.73	16.89	-38.3	-39.3	23.2	0.00e+00	0	32	0	324009984	50	5914
2026-01-27 16:24:26.12	9.60	16.99	-38.4	-39.4	23.2	0.00e+00	0	32	0	326107136	50	5975
2026-01-27 16:24:27.13	9.48	17.08	-38.6	-39.5	22.9	0.00e+00	90	32	0	327155712	50	6084
2026-01-27 16:24:28.14	9.35	17.18	-38.4	-39.4	23.1	0.00e+00	0	32	0	329252864	50	5988
2026-01-27 16:24:29.14	9.22	17.28	-38.5	-39.5	23.0	0.00e+00	90	32	0	331350016	50	6073
2026-01-27 16:24:30.16	9.09	17.38	-38.6	-39.5	23.0	0.00e+00	0	32	0	333447168	50	6093
2026-01-27 16:24:31.17	8.96	17.47	-38.7	-39.6	22.8	0.00e+00	5	32	0	335544320	50	6164
2026-01-27 16:24:32.18	8.83	17.57	-38.8	-39.8	22.8	0.00e+00	13	32	0	337641472	50	6305
2026-01-27 16:24:33.19	8.69	17.67	-39.0	-40.0	22.6	0.00e+00	68	32	0	338690048	50	6429
2026-01-27 16:24:34.20	8.56	17.77	-38.6	-39.5	22.9	0.00e+00	0	32	0	340787200	50	6095
2026-01-27 16:24:35.21	8.43	17.87	-38.8	-39.8	22.8	0.00e+00	0	32	0	342884352	50	6263
2026-01-27 16:24:36.22	8.29	17.97	-38.7	-39.7	22.8	0.00e+00	92	32	0	344981504	50	6233
2026-01-27 16:24:37.23	8.15	18.06	-38.8	-39.8	22.8	0.00e+00	74	32	0	347078656	50	6266
2026-01-27 16:24:38.24	8.02	18.16	-38.5	-39.5	23.0	0.00e+00	92	32	0	348127232	50	6055
2026-01-27 16:24:39.24	7.88	18.26	-38.5	-39.5	23.1	0.00e+00	0	32	0	350224384	50	6055
2026-01-27 16:24:40.25	7.74	18.36	-38.6	-39.5	23.0	0.00e+00	67	32	0	352321536	50	6080
2026-01-27 16:24:41.26	7.60	18.46	-38.6	-39.5	23.0	0.00e+00	70	32	0	354418688	50	6088
2026-01-27 16:24:42.27	7.46	18.56	-38.7	-39.7	22.9	0.00e+00	0	32	0	356515840	50	6208
2026-01-27 16:24:43.28	7.32	18.66	-38.8	-39.8	22.8	0.00e+00	92	32	0	357564416	50	6290
2026-01-27 16:24:44.29	7.18	18.76	-38.8	-39.8	22.8	0.00e+00	2	32	0	359661568	50	6311
2026-01-27 16:24:45.30	7.03	18.86	-38.8	-39.8	22.8	0.00e+00	92	32	0	361758720	50	6301
2026-01-27 16:24:46.31	6.89	18.97	-38.9	-39.9	22.7	0.00e+00	0	32	0	363855872	50	6347
2026-01-27 16:24:47.32	6.74	19.07	-38.9	-39.9	22.8	0.00e+00	2	32	0	365953024	50	6356
2026-01-27 16:24:48.33	6.60	19.17	-38.9	-39.9	22.7	0.00e+00	0	32	0	367001600	50	6370
2026-01-27 16:24:49.34	6.45	19.27	-39.0	-40.0	22.5	0.00e+00	0	32	0	369098752	50	6455
2026-01-27 16:24:50.35	6.30	19.37	-38.9	-39.9	22.6	0.00e+00	66	32	0	371195904	50	6382
2026-01-27 16:24:51.36	6.15	19.47	-39.1	-40.1	22.6	0.00e+00	0	32	0	373293056	50	6493
2026-01-27 16:24:52.37	6.00	19.58	-39.1	-40.1	22.5	0.00e+00	91	32	0	375390208	50	6504
2026-01-27 16:24:53.38	5.85	19.68	-39.0	-40.0	22.6	0.00e+00	0	32	0	376438784	50	6432
2026-01-27 16:24:54.39	5.69	19.78	-38.9	-39.8	22.6	0.00e+00	68	32	0	378535936	50	6311
2026-01-27 16:24:55.40	5.54	19.88	-38.8	-39.8	22.8	0.00e+00	70	32	0	380633088	50	6286
2026-01-27 16:24:56.40	5.39	19.99	-38.8	-39.8	22.8	0.00e+00	70	32	0	382730240	50	6269
2026-01-27 16:24:57.41	5.23	20.09	-38.9	-39.8	22.8	0.00e+00	0	32	0	384827392	50	6314
2026-01-27 16:24:58.42	5.07	20.19	-38.7	-39.6	23.0	0.00e+00	0	32	0	385875968	50	6170
2026-01-27 16:24:59.43	4.92	20.30	-38.7	-39.7	23.0	0.00e+00	91	32	0	387973120	50	6202
2026-01-27 16:25:00.44	4.76	20.40	-38.7	-39.6	23.0	0.00e+00	76	32	0	390070272	50	6155
2026-01-27 16:25:01.45	4.60	20.51	-38.6	-39.5	23.0	0.00e+00	91	32	0	392167424	50	6099
2026-01-27 16:25:02.46	4.43	20.61	-38.5	-39.4	23.2	0.00e+00	0	32	0	394264576	50	6001
2026-01-27 16:25:03.47	4.27	20.71	-38.7	-39.6	23.0	0.00e+00	69	32	0	395313152	50	6148
2026-01-27 16:25:04.48	4.11	20.82	-38.5	-39.5	23.1	0.00e+00	0	32	0	397410304	50	6063
2026-01-27 16:25:05.49	3.94	20.92	-38.6	-39.5	23.1	0.00e+00	5	32	0	399507456	50	6088
2026-01-27 16:25:06.50	3.78	21.03	-38.4	-39.3	23.3	0.00e+00	67	32	0	401604608	50	5925
2026-01-27 16:25:07.51	3.61	21.13	-38.5	-39.4	23.3	0.00e+00	0	32	0	403701760	50	6023
2026-01-27 16:25:08.52	3.44	21.24	-38.5	-39.4	23.2	0.00e+00	92	32	0	405798912	50	6022
2026-01-27 16:25:09.53	3.27	21.35	-38.4	-39.4	23.3	0.00e+00	0	32	0	406847488	50	5966
2026-01-27 16:25:10.54	3.10	21.45	-38.4	-39.4	23.2	0.00e+00	6	32	0	408944640	50	5974
2026-01-27 16:25:11.55	2.93	21.56	-38.5	-39.5	23.1	0.00e+00	12	32	0	411041792	50	6061
2026-01-27 16:25:12.56	2.76	21.66	-38.5	-39.4	23.2	0.00e+00	6	32	0	413138944	50	6003
2026-01-27 16:25:13.57	2.58	21.77	-38.5	-39.4	23.3	0.00e+00	5	32	0	415236096	50	5974
2026-01-27 16:25:14.58	2.41	21.88	-38.4	-39.3	23.3	0.00e+00	6	32	0	416284672	50	5920
2026-01-27 16:25:15.59	2.23	21.98	-38.3	-39.3	23.4	0.00e+00	92	32	0	418381824	50	5912
2026-01-27 16:25:16.60	2.05	22.09	-38.4	-39.3	23.3	0.00e+00	7	32	0	420478976	50	5932
2026-01-27 16:25:17.61	1.87	22.20	-38.3	-39.3	23.3	0.00e+00	92	32	0	422576128	50	5904
2026-01-27 16:25:18.62	1.69	22.30	-38.3	-39.2	23.4	0.00e+00	78	32	0	424673280	50	5890
2026-01-27 16:25:19.63	1.51	22.41	-38.3	-39.2	23.4	0.00e+00	74	32	0	425721856	50	5883
2026-01-27 16:25:20.64	1.33	22.52	-38.2	-39.1	23.5	0.00e+00	71	32	0	427819008	50	5827
2026-01-27 16:25:21.64	1.14	22.62	-38.2	-39.1	23.4	0.00e+00	0	32	0	429916160	50	5795
2026-01-27 16:25:22.66	0.96	22.73	-38.3	-39.2	23.4	0.00e+00	92	32	0	432013312	50	5863
2026-01-27 16:25:23.66	0.77	22.84	-38.1	-39.1	23.5	0.00e+00	78	32	0	434110464	50	5765
2026-01-27 16:25:24.67	0.58	22.95	-38.3	-39.2	23.3	0.00e+00	92	32	0	435159040	50	5885
2026-01-27 16:25:25.68	0.39	23.06	-38.3	-39.3	23.2	0.00e+00	0	32	0	437256192	50	5898
2026-01-27 16:25:26.69	0.20	23.16	-38.4	-39.4	23.2	0.00e+00	6	32	0	439353344	50	5968
2026-01-27 16:25:27.70	0.01	23.27	-38.4	-39.3	23.3	0.00e+00	6	32	0	441450496	50	5946
2026-01-27 16:25:28.71	359.82	23.38	-38.5	-39.4	23.4	0.00e+00	0	32	0	443547648	50	6002
2026-01-27 16:25:29.72	359.62	23.49	-38.5	-39.4	23.1	0.00e+00	28	32	0	444596224	50	6014
2026-01-27 16:25:30.73	359.43	23.60	-38.7	-39.6	23.1	0.00e+00	0	32	0	446693376	50	6147
2026-01-27 16:25:31.74	359.23	23.71	-38.8	-39.8	22.9	0.00e+00	92	32	0	448790528	50	6262
2026-01-27 16:25:32.75	359.03	23.81	-38.8	-39.8	22.9	0.00e+00	7	32	0	450887680	50	6263
2026-01-27 16:25:33.75	358.83	23.92	-39.0	-40.0	22.6	0.00e+00	70	32	0	452984832	50	6401
2026-01-27 16:25:34.76	358.63	24.03	-39.0	-40.0	22.6	0.00e+00	7	32	0	454033408	50	6441
2026-01-27 16:25:35.77	358.42	24.14	-39.1	-40.1	22.6	0.00e+00	12	32	0	456130560	50	6497
2026-01-27 16:25:36.78	358.22	24.25	-39.2	-40.2	22.4	0.00e+00	18	32	0	458227712	50	6598
2026-01-27 16:25:37.79	358.01	24.36	-39.3	-40.3	22.4	0.00e+00	68	32	0	460324864	50	6669
2026-01-27 16:25:38.80	357.81	24.47	-39.2	-40.3	22.6	0.00e+00	92	32	0	462422016	50	6617
2026-01-27 16:25:39.80	357.60	24.57	-39.1	-40.0	22.7	0.00e+00	70	32	0	463470592	50	6453
2026-01-27 16:25:40.81	357.39	24.68	-39.2	-40.2	22.5	0.00e+00	92	32	0	465567744	50	6550
2026-01-27 16:25:41.82	357.18	24.79	-39.2	-40.2	22.5	0.00e+00	8	32	0	467664896	50	6581
2026-01-27 16:25:42.83	356.96	24.90	-39.3	-40.3	22.4	0.00e+00	8	32	0	469762048	50	6672
2026-01-27 16:25:43.84	356.75	25.01	-39.4	-40.4	22.3	0.00e+00	0	32	0	471859200	50	6743
2026-01-27 16:25:44.85	356.53	25.12	-39.5	-40.5	22.2	0.00e+00	0	32	0	473956352	50	6844
2026-01-27 16:25:45.86	356.31	25.23	-39.5	-40.5	22.3	0.00e+00	91	32	0	475004928	50	6816
2026-01-27 16:25:46.87	356.09	25.34	-39.4	-40.4	22.4	0.00e+00	2	32	0	477102080	50	6751
2026-01-27 16:25:47.88	355.87	25.45	-39.4	-40.5	22.3	0.00e+00	92	32	0	479199232	50	6810
2026-01-27 16:25:48.89	355.65	25.55	-39.3	-40.4	22.4	0.00e+00	0	32	0	481296384	50	6702
2026-01-27 16:25:49.90	355.42	25.66	-39.3	-40.3	22.4	0.00e+00	2	32	0	483393536	50	6686
2026-01-27 16:25:50.91	355.20	25.77	-39.4	-40.4	22.4	0.00e+00	0	32	0	484442112	50	6732
2026-01-27 16:25:51.92	354.97	25.88	-39.3	-40.4	22.4	0.00e+00	2	32	0	486539264	50	6709
2026-01-27 16:25:52.92	354.74	25.99	-39.5	-40.5	22.2	0.00e+00	90	32	0	488636416	50	6802
2026-01-27 16:25:53.93	354.51	26.10	-39.5	-40.5	22.2	0.00e+00	14	32	0	490733568	50	6836
2026-01-27 16:25:54.94	354.28	26.21	-39.4	-40.4	22.3	0.00e+00	92	32	0	492830720	50	6764
2026-01-27 16:25:55.95	354.05	26.31	-39.4	-40.4	22.3	0.00e+00	2	32	0	493879296	50	6708
2026-01-27 16:25:56.96	353.81	26.42	-39.4	-40.4	22.4	0.00e+00	84	32	0	495976448	50	6728
2026-01-27 16:25:57.97	353.57	26.53	-39.2	-40.2	22.6	0.00e+00	0	32	0	498073600	50	6591
2026-01-27 16:25:58.98	353.33	26.64	-39.1	-40.1	22.7	0.00e+00	14	32	0	500170752	50	6495
2026-01-27 16:25:59.99	353.09	26.75	-39.1	-40.1	22.6	0.00e+00	0	32	0	502267904	50	6530
2026-01-27 16:26:01.00	352.85	26.86	-39.2	-40.2	22.6	0.00e+00	13	32	0	503316480	50	6599
2026-01-27 16:26:02.01	352.61	26.96	-39.1	-40.1	22.7	0.00e+00	90	32	0	505413632	50	6474
2026-01-27 16:26:03.02	352.36	27.07	-39.1	-40.1	22.7	0.00e+00	4	32	0	507510784	50	6490
2026-01-27 16:26:04.03	352.12	27.18	-39.2	-40.3	22.5	0.00e+00	90	32	0	509607936	50	6636
2026-01-27 16:26:05.04	351.87	27.29	-39.2	-40.2	22.6	0.00e+00	73	32	0	511705088	50	6599
2026-01-27 16:26:06.05	351.62	27.39	-39.3	-40.4	22.4	0.00e+00	0	32	0	512753664	50	6720
2026-01-27 16:26:07.06	351.36	27.50	-39.4	-40.4	22.4	0.00e+00	76	32	0	514850816	50	6751
2026-01-27 16:26:08.07	351.11	27.61	-39.3	-40.3	22.5	0.00e+00	69	32	0	516947968	50	6649
2026-01-27 16:26:09.08	350.85	27.71	-39.2	-40.3	22.5	0.00e+00	92	32	0	519045120	50	6630
2026-01-27 16:26:10.09	350.60	27.82	-39.3	-40.3	22.5	0.00e+00	0	32	0	521142272	50	6633
2026-01-27 16:26:11.10	350.34	27.93	-39.2	-40.2	22.6	0.00e+00	90	32	0	522190848	50	6587
2026-01-27 16:26:12.10	350.08	28.03	-39.0	-40.0	22.7	0.00e+00	0	32	0	524288000	50	6408
2026-01-27 16:26:13.11	349.82	28.14	-39.0	-40.0	22.8	0.00e+00	0	32	0	526385152	50	6447
2026-01-27 16:26:14.12	349.55	28.24	-39.1	-40.1	22.7	0.00e+00	0	32	0	528482304	50	6536
2026-01-27 16:26:15.13	349.29	28.35	-39.2	-40.2	22.6	0.00e+00	0	32	0	530579456	50	6572
2026-01-27 16:26:16.14	349.02	28.45	-39.2	-40.2	22.6	0.00e+00	92	32	0	531628032	50	6568
2026-01-27 16:26:17.15	348.75	28.56	-39.1	-40.1	22.6	0.00e+00	0	32	0	533725184	50	6485
2026-01-27 16:26:18.16	348.48	28.66	-39.3	-40.3	22.5	0.00e+00	92	32	0	535822336	50	6656
2026-01-27 16:26:19.17	348.20	28.76	-39.3	-40.4	22.4	0.00e+00	0	32	0	537919488	50	6701
2026-01-27 16:26:20.18	347.93	28.87	-39.5	-40.6	22.3	0.00e+00	73	32	0	540016640	50	6869
2026-01-27 16:26:21.19	347.65	28.97	-39.6	-40.6	22.2	0.00e+00	8	32	0	542113792	50	6921
2026-01-27 16:26:22.20	347.37	29.07	-39.7	-40.8	22.0	0.00e+00	8	32	0	543162368	50	7053
2026-01-27 16:26:23.20	347.09	29.17	-39.4	-40.5	22.4	0.00e+00	0	32	0	545259520	50	6777
2026-01-27 16:26:24.21	346.81	29.28	-39.6	-40.6	22.3	0.00e+00	67	32	0	547356672	50	6896
2026-01-27 16:26:25.22	346.53	29.38	-39.8	-40.9	22.0	0.00e+00	92	32	0	549453824	52	6324
2026-01-27 16:26:26.23	346.24	29.48	-40.2	-41.3	21.6	0.00e+00	2	32	0	550502400	52	6660
2026-01-27 16:26:27.24	345.96	29.58	-40.7	-41.9	21.0	0.00e+00	83	32	0	552599552	54	6341
2026-01-27 16:26:28.25	345.67	29.68	-40.9	-42.2	20.8	0.00e+00	67	32	0	554696704	54	6575
2026-01-27 16:26:29.25	345.38	29.78	-41.0	-42.3	20.6	0.00e+00	72	32	0	556793856	54	6667
2026-01-27 16:26:30.27	345.08	29.88	-41.3	-42.6	20.2	0.00e+00	0	32	0	558891008	54	6882
2026-01-27 16:26:31.28	344.79	29.98	-41.6	-43.0	19.9	0.00e+00	0	32	0	559939584	54	7188
2026-01-27 16:26:32.28	344.49	30.07	-41.7	-43.1	19.8	0.00e+00	92	32	0	562036736	54	7302
2026-01-27 16:26:33.29	344.19	30.17	-42.0	-43.5	19.6	0.00e+00	2	32	0	564133888	56	6802
2026-01-27 16:26:34.30	343.89	30.27	-42.1	-43.7	19.4	0.00e+00	92	32	0	566231040	56	6937
2026-01-27 16:26:35.31	343.59	30.36	-42.1	-43.6	19.5	0.00e+00	0	32	0	568328192	56	6891
2026-01-27 16:26:36.32	343.29	30.46	-42.1	-43.5	19.5	0.00e+00	19	32	0	570425344	56	6832
2026-01-27 16:26:37.33	342.98	30.55	-42.1	-43.6	19.3	0.00e+00	2	32	0	571473920	56	6926
2026-01-27 16:26:38.34	342.67	30.65	-42.3	-43.8	19.3	0.00e+00	6	32	0	573571072	56	7042
2026-01-27 16:26:39.35	342.36	30.74	-42.1	-43.6	19.5	0.00e+00	6	32	0	575668224	56	6867
2026-01-27 16:26:40.36	342.05	30.84	-42.2	-43.7	19.5	0.00e+00	0	32	0	577765376	56	6968
2026-01-27 16:26:41.37	341.74	30.93	-42.4	-44.0	19.1	0.00e+00	92	32	0	579862528	56	7191
2026-01-27 16:26:42.38	341.42	31.02	-42.3	-43.9	19.2	0.00e+00	0	32	0	580911104	56	7115
2026-01-27 16:26:43.39	341.11	31.11	-43.0	-44.8	18.2	0.00e+00	0	32	0	583008256	58	7061
2026-01-27 16:26:44.40	340.79	31.20	-42.9	-44.6	18.5	0.00e+00	73	32	0	585105408	58	6899
2026-01-27 16:26:45.40	340.47	31.29	-43.0	-44.8	18.3	0.00e+00	74	32	0	587202560	58	7065
2026-01-27 16:26:46.42	340.15	31.38	-43.0	-44.8	18.2	0.00e+00	0	32	0	589299712	58	7053
2026-01-27 16:26:47.42	339.83	31.47	-43.1	-44.9	18.1	0.00e+00	14	32	0	590348288	58	7125
2026-01-27 16:26:48.43	339.50	31.56	-43.0	-44.8	18.3	0.00e+00	92	32	0	592445440	58	7019
2026-01-27 16:26:49.44	339.17	31.64	-42.7	-44.5	18.5	0.00e+00	5	32	0	594542592	58	6780
2026-01-27 16:26:50.45	338.84	31.73	-42.4	-44.0	19.1	0.00e+00	31	32	0	596639744	58	6433
2026-01-27 16:26:51.46	338.51	31.81	-41.8	-43.3	19.6	0.00e+00	0	32	0	598736896	58	5924
2026-01-27 16:26:52.47	338.18	31.90	-41.9	-43.4	19.7	0.00e+00	0	32	0	599785472	58	6000
2026-01-27 16:26:53.48	337.85	31.98	-41.8	-43.3	19.8	0.00e+00	72	32	0	601882624	58	5918
2026-01-27 16:26:54.49	337.51	32.06	-41.9	-43.4	19.7	0.00e+00	0	32	0	603979776	56	6740
2026-01-27 16:26:55.50	337.17	32.15	-41.7	-43.1	19.9	0.00e+00	92	32	0	606076928	56	6511
2026-01-27 16:26:56.51	336.83	32.23	-41.7	-43.2	19.9	0.00e+00	0	32	0	608174080	56	6552
2026-01-27 16:26:57.52	336.49	32.31	-41.8	-43.3	19.9	0.00e+00	92	32	0	609222656	56	6624
2026-01-27 16:26:58.53	336.15	32.39	-41.4	-42.8	20.1	0.00e+00	0	32	0	611319808	56	6302
2026-01-27 16:26:59.54	335.80	32.46	-41.3	-42.7	20.4	0.00e+00	5	32	0	613416960	56	6193
2026-01-27 16:27:00.54	335.46	32.54	-41.3	-42.7	20.3	0.00e+00	6	32	0	615514112	56	6210
2026-01-27 16:27:01.55	335.11	32.62	-41.4	-42.7	20.2	0.00e+00	7	32	0	617611264	56	6235
2026-01-27 16:27:02.56	334.76	32.69	-41.4	-42.8	20.4	0.00e+00	0	32	0	618659840	56	6246
2026-01-27 16:27:03.57	334.41	32.76	-41.2	-42.6	20.5	0.00e+00	6	32	0	620756992	56	6131
2026-01-27 16:27:04.58	334.06	32.84	-40.8	-42.1	20.8	0.00e+00	90	32	0	622854144	56	5814
2026-01-27 16:27:05.59	333.70	32.91	-40.6	-41.8	21.1	0.00e+00	6	32	0	624951296	54	6293
2026-01-27 16:27:06.60	333.35	32.98	-40.5	-41.7	21.1	0.00e+00	72	32	0	627048448	54	6205
2026-01-27 16:27:07.61	332.99	33.05	-40.6	-41.8	21.1	0.00e+00	76	32	0	628097024	54	6289
2026-01-27 16:27:08.62	332.63	33.12	-40.1	-41.2	21.6	0.00e+00	8	32	0	630194176	54	5885
2026-01-27 16:27:09.63	332.27	33.18	-39.7	-40.8	22.0	0.00e+00	0	32	0	632291328	54	5623
2026-01-27 16:27:10.63	331.91	33.25	-39.9	-41.0	21.8	0.00e+00	0	32	0	634388480	52	6444
2026-01-27 16:27:11.64	331.55	33.32	-39.6	-40.6	22.2	0.00e+00	92	32	0	636485632	52	6159
2026-01-27 16:27:12.66	331.18	33.38	-39.5	-40.6	22.3	0.00e+00	72	32	0	638582784	52	6126
2026-01-27 16:27:13.67	330.81	33.44	-39.5	-40.5	22.3	0.00e+00	92	32	0	639631360	52	6062
2026-01-27 16:27:14.67	330.45	33.50	-39.6	-40.6	22.0	0.00e+00	0	32	0	641728512	52	6155
2026-01-27 16:27:15.69	330.07	33.56	-39.6	-40.6	22.3	0.00e+00	5	32	0	643825664	52	6146
2026-01-27 16:27:16.69	329.71	33.62	-39.7	-40.7	22.1	0.00e+00	0	32	0	645922816	52	6219
2026-01-27 16:27:17.70	329.34	33.68	-39.5	-40.5	22.3	0.00e+00	1	32	0	648019968	52	6090
2026-01-27 16:27:18.71	328.96	33.74	-39.2	-40.2	22.6	0.00e+00	92	32	0	649068544	52	5842
2026-01-27 16:27:19.72	328.59	33.79	-39.0	-40.0	22.9	0.00e+00	5	32	0	651165696	52	5720
2026-01-27 16:27:20.73	328.21	33.85	-38.8	-39.8	22.9	0.00e+00	92	32	0	653262848	52	5601
2026-01-27 16:27:21.74	327.83	33.90	-38.7	-39.6	23.1	0.00e+00	9	32	0	655360000	50	6164
2026-01-27 16:27:22.75	327.46	33.95	-38.8	-39.8	22.9	0.00e+00	6	32	0	657457152	50	6277
2026-01-27 16:27:23.76	327.08	34.00	-38.9	-39.9	22.8	0.00e+00	13	32	0	658505728	50	6371
2026-01-27 16:27:24.77	326.70	34.05	-39.2	-40.2	22.6	0.00e+00	12	32	0	660602880	50	6604
2026-01-27 16:27:25.78	326.31	34.09	-39.1	-40.1	22.7	0.00e+00	0	32	0	662700032	50	6508
2026-01-27 16:27:26.79	325.93	34.14	-39.2	-40.2	22.7	0.00e+00	68	32	0	664797184	50	6583
2026-01-27 16:27:27.79	325.55	34.18	-39.2	-40.2	22.6	0.00e+00	92	32	0	666894336	50	6561
2026-01-27 16:27:28.80	325.17	34.23	-39.0	-40.0	22.9	0.00e+00	67	32	0	667942912	50	6410
2026-01-27 16:27:29.81	324.78	34.27	-38.6	-39.5	23.2	0.00e+00	73	32	0	670040064	50	6075
2026-01-27 16:27:30.82	324.39	34.31	-38.7	-39.6	23.2	0.00e+00	15	32	0	672137216	50	6158
2026-01-27 16:27:31.83	324.01	34.35	-38.5	-39.4	23.4	0.00e+00	66	32	0	674234368	50	5974
2026-01-27 16:27:32.84	323.62	34.38	-38.1	-39.0	23.6	0.00e+00	2	32	0	676331520	50	5757
2026-01-27 16:27:33.85	323.23	34.42	-38.3	-39.2	23.5	0.00e+00	67	32	0	677380096	50	5892
2026-01-27 16:27:34.85	322.84	34.45	-38.0	-38.9	23.8	0.00e+00	92	32	0	679477248	50	5652
2026-01-27 16:27:35.86	322.45	34.49	-38.2	-39.1	23.7	0.00e+00	68	32	0	681574400	50	5805
2026-01-27 16:27:36.87	322.06	34.52	-37.8	-38.7	23.9	0.00e+00	92	32	0	683671552	50	5535
2026-01-27 16:27:37.88	321.66	34.55	-38.1	-39.0	23.5	0.00e+00	66	32	0	685768704	50	5743
2026-01-27 16:27:38.89	321.27	34.58	-38.1	-39.0	23.6	0.00e+00	0	32	0	686817280	50	5756
2026-01-27 16:27:39.90	320.87	34.60	-38.2	-39.1	23.6	0.00e+00	0	32	0	688914432	50	5797
2026-01-27 16:27:40.91	320.48	34.63	-38.1	-39.1	23.8	0.00e+00	0	32	0	691011584	50	5766
2026-01-27 16:27:41.92	320.08	34.65	-38.0	-38.9	23.9	0.00e+00	75	32	0	693108736	50	5647
2026-01-27 16:27:42.93	319.69	34.67	-37.9	-38.7	23.9	0.00e+00	0	32	0	695205888	50	5563
2026-01-27 16:27:43.94	319.29	34.69	-38.1	-38.9	23.7	0.00e+00	92	32	0	696254464	50	5693
2026-01-27 16:27:44.95	318.89	34.71	-38.4	-39.3	23.4	0.00e+00	13	32	0	698351616	50	5943
2026-01-27 16:27:45.96	318.50	34.73	-38.7	-39.7	23.2	0.00e+00	14	32	0	700448768	50	6178
2026-01-27 16:27:46.97	318.10	34.75	-38.8	-39.7	23.1	0.00e+00	0	32	0	702545920	50	6227
2026-01-27 16:27:47.98	317.70	34.76	-38.6	-39.6	23.2	0.00e+00	14	32	0	704643072	50	6122
2026-01-27 16:27:48.99	317.30	34.77	-38.5	-39.4	23.3	0.00e+00	16	32	0	706740224	50	6001
2026-01-27 16:27:49.99	316.91	34.78	-38.5	-39.4	23.4	0.00e+00	14	32	0	707788800	50	6028
2026-01-27 16:27:51.00	316.51	34.79	-38.7	-39.6	23.1	0.00e+00	90	32	0	709885952	50	6172
2026-01-27 16:27:52.02	316.10	34.80	-38.9	-39.8	23.0	0.00e+00	13	32	0	711983104	50	6306
2026-01-27 16:27:53.02	315.71	34.81	-38.8	-39.7	23.1	0.00e+00	91	32	0	714080256	50	6208
2026-01-27 16:27:54.03	315.31	34.81	-38.7	-39.6	23.2	0.00e+00	68	32	0	716177408	50	6125
2026-01-27 16:27:55.04	314.91	34.82	-38.7	-39.6	23.2	0.00e+00	0	32	0	717225984	50	6134
2026-01-27 16:27:56.05	314.51	34.82	-38.5	-39.4	23.4	0.00e+00	0	32	0	719323136	50	5968
2026-01-27 16:27:57.06	314.11	34.82	-38.5	-39.5	23.3	0.00e+00	0	32	0	721420288	50	6044
2026-01-27 16:27:58.07	313.71	34.82	-38.7	-39.7	23.1	0.00e+00	92	32	0	723517440	50	6200
2026-01-27 16:27:59.08	313.31	34.81	-38.8	-39.7	23.0	0.00e+00	0	32	0	725614592	50	6223
2026-01-27 16:28:00.09	312.91	34.81	-38.9	-39.8	23.0	0.00e+00	92	32	0	726663168	50	6285
2026-01-27 16:28:01.10	312.51	34.80	-38.9	-39.9	23.0	0.00e+00	0	32	0	728760320	50	6319
2026-01-27 16:28:02.11	312.11	34.80	-38.9	-39.9	22.8	0.00e+00	0	32	0	730857472	50	6360
2026-01-27 16:28:03.12	311.71	34.79	-38.8	-39.8	23.0	0.00e+00	2	32	0	732954624	50	6250
2026-01-27 16:28:04.13	311.31	34.78	-38.6	-39.6	23.2	0.00e+00	0	32	0	735051776	50	6115
2026-01-27 16:28:05.14	310.91	34.76	-38.5	-39.4	23.4	0.00e+00	90	32	0	736100352	50	6019
2026-01-27 16:28:06.15	310.51	34.75	-38.6	-39.5	23.3	0.00e+00	0	32	0	738197504	50	6055
2026-01-27 16:28:07.16	310.11	34.73	-38.9	-39.9	22.9	0.00e+00	90	32	0	740294656	50	6331
2026-01-27 16:28:08.17	309.72	34.72	-39.3	-40.3	22.5	0.00e+00	15	32	0	742391808	50	6649
2026-01-27 16:28:09.18	309.32	34.70	-39.4	-40.4	22.4	0.00e+00	34	32	0	744488960	50	6762
2026-01-27 16:28:10.19	308.92	34.68	-39.8	-40.9	22.2	0.00e+00	0	32	0	745537536	52	6324
2026-01-27 16:28:11.20	308.53	34.65	-39.5	-40.6	22.2	0.00e+00	0	32	0	747634688	52	6107
2026-01-27 16:28:12.21	308.13	34.63	-39.5	-40.5	22.4	0.00e+00	0	32	0	749731840	52	6097
2026-01-27 16:28:13.22	307.73	34.61	-39.5	-40.5	22.3	0.00e+00	65	32	0	751828992	52	6103
2026-01-27 16:28:14.22	307.34	34.58	-39.7	-40.8	22.3	0.00e+00	91	32	0	753926144	52	6252
2026-01-27 16:28:15.23	306.95	34.55	-40.0	-41.0	21.7	0.00e+00	66	32	0	754974720	52	6455
2026-01-27 16:28:16.24	306.56	34.52	-40.0	-41.1	21.9	0.00e+00	72	32	0	757071872	52	6485
2026-01-27 16:28:17.25	306.16	34.49	-40.2	-41.4	21.6	0.00e+00	0	32	0	759169024	52	6711
2026-01-27 16:28:18.26	305.77	34.46	-40.2	-41.3	21.7	0.00e+00	0	32	0	761266176	52	6688
2026-01-27 16:28:19.27	305.38	34.42	-40.4	-41.6	21.4	0.00e+00	0	32	0	763363328	52	6895
2026-01-27 16:28:20.28	304.99	34.39	-40.4	-41.6	21.5	0.00e+00	66	32	0	764411904	52	6873
2026-01-27 16:28:21.29	304.60	34.35	-40.3	-41.4	21.6	0.00e+00	92	32	0	766509056	52	6730
2026-01-27 16:28:22.30	304.21	34.31	-40.4	-41.6	21.3	0.00e+00	0	32	0	768606208	52	6857
2026-01-27 16:28:23.31	303.83	34.27	-40.2	-41.3	21.6	0.00e+00	92	32	0	770703360	52	6641
2026-01-27 16:28:24.32	303.44	34.23	-40.0	-41.1	21.9	0.00e+00	0	32	0	772800512	52	6501
2026-01-27 16:28:25.33	303.05	34.19	-40.1	-41.2	21.8	0.00e+00	38	32	0	773849088	52	6571
2026-01-27 16:28:26.34	302.67	34.14	-40.2	-41.3	21.6	0.00e+00	0	33	0	775946240	52	6638
2026-01-27 16:28:27.35	302.29	34.10	-40.4	-41.5	21.5	0.00e+00	0	32	0	778043392	52	6842
2026-01-27 16:28:28.36	301.90	34.05	-40.4	-41.6	21.4	0.00e+00	92	32	0	780140544	52	6872
2026-01-27 16:28:29.37	301.52	34.00	-40.5	-41.7	21.3	0.00e+00	0	32	0	782237696	52	6954
2026-01-27 16:28:30.38	301.14	33.95	-40.6	-41.8	21.2	0.00e+00	92	32	0	783286272	52	7011
2026-01-27 16:28:31.39	300.76	33.90	-40.6	-41.8	21.2	0.00e+00	8	32	0	785383424	52	7072
2026-01-27 16:28:32.40	300.38	33.85	-40.3	-41.4	21.6	0.00e+00	73	32	0	787480576	52	6741
2026-01-27 16:28:33.41	300.01	33.80	-40.3	-41.4	21.5	0.00e+00	7	32	0	789577728	52	6768
2026-01-27 16:28:34.41	299.64	33.74	-40.4	-41.5	21.4	0.00e+00	0	32	0	791674880	52	6841
2026-01-27 16:28:35.42	299.26	33.68	-40.5	-41.7	21.3	0.00e+00	0	32	0	792723456	52	6979
2026-01-27 16:28:36.44	298.89	33.63	-40.5	-41.7	21.4	0.00e+00	75	32	0	794820608	52	6944
2026-01-27 16:28:37.45	298.52	33.57	-40.3	-41.4	21.6	0.00e+00	92	32	0	796917760	52	6724
2026-01-27 16:28:38.45	298.15	33.51	-40.4	-41.6	21.4	0.00e+00	69	32	0	799014912	52	6850
2026-01-27 16:28:39.46	297.78	33.45	-40.3	-41.4	21.6	0.00e+00	92	32	0	801112064	52	6752
2026-01-27 16:28:40.47	297.41	33.38	-40.3	-41.4	21.6	0.00e+00	68	32	0	803209216	52	6721
2026-01-27 16:28:41.48	297.05	33.32	-40.3	-41.5	21.5	0.00e+00	71	32	0	804257792	52	6792
2026-01-27 16:28:42.49	296.68	33.26	-40.1	-41.3	21.7	0.00e+00	0	32	0	806354944	52	6617
2026-01-27 16:28:43.50	296.32	33.19	-40.3	-41.4	21.5	0.00e+00	5	32	0	808452096	52	6727
2026-01-27 16:28:44.51	295.96	33.12	-40.1	-41.3	21.7	0.00e+00	92	32	0	810549248	52	6616
2026-01-27 16:28:45.52	295.60	33.05	-39.9	-41.0	21.9	0.00e+00	0	32	0	812646400	52	6400
2026-01-27 16:28:46.53	295.24	32.98	-40.0	-41.1	22.0	0.00e+00	92	32	0	813694976	52	6484
2026-01-27 16:28:47.54	294.88	32.91	-39.8	-40.8	22.0	0.00e+00	13	32	0	815792128	52	6300
2026-01-27 16:28:48.55	294.53	32.84	-39.8	-40.8	22.1	0.00e+00	6	32	0	817889280	52	6308
2026-01-27 16:28:49.56	294.18	32.77	-39.9	-41.0	22.1	0.00e+00	0	32	0	819986432	52	6398
2026-01-27 16:28:50.57	293.82	32.69	-40.0	-41.0	22.0	0.00e+00	7	32	0	822083584	52	6444
2026-01-27 16:28:51.58	293.47	32.62	-39.8	-40.9	22.0	0.00e+00	0	32	0	823132160	52	6319
2026-01-27 16:28:52.59	293.12	32.54	-39.7	-40.8	22.1	0.00e+00	74	32	0	825229312	52	6248
2026-01-27 16:28:53.60	292.78	32.47	-39.7	-40.8	22.1	0.00e+00	92	32	0	827326464	52	6269
2026-01-27 16:28:54.61	292.43	32.39	-40.1	-41.2	21.6	0.00e+00	12	32	0	829423616	52	6560
2026-01-27 16:28:55.62	292.09	32.31	-40.3	-41.4	21.6	0.00e+00	74	32	0	831520768	52	6724
2026-01-27 16:28:56.62	291.75	32.23	-40.2	-41.3	21.4	0.00e+00	73	32	0	832569344	52	6641
2026-01-27 16:28:57.63	291.41	32.15	-40.4	-41.5	21.4	0.00e+00	5	32	0	834666496	52	6827
2026-01-27 16:28:58.64	291.07	32.07	-40.6	-41.8	21.2	0.00e+00	84	32	0	836763648	52	7072
2026-01-27 16:28:59.65	290.73	31.99	-40.8	-42.0	21.0	0.00e+00	0	32	0	838860800	54	6404
2026-01-27 16:29:00.66	290.40	31.90	-40.8	-42.1	21.0	0.00e+00	92	32	0	840957952	54	6471
2026-01-27 16:29:01.67	290.06	31.82	-40.6	-41.8	21.2	0.00e+00	77	32	0	842006528	54	6263
2026-01-27 16:29:02.68	289.73	31.73	-40.7	-41.9	21.2	0.00e+00	92	32	0	844103680	54	6323
2026-01-27 16:29:03.69	289.40	31.65	-40.4	-41.5	21.4	0.00e+00	0	32	0	846200832	54	6067
2026-01-27 16:29:04.70	289.07	31.56	-40.3	-41.5	21.5	0.00e+00	7	32	0	848297984	54	6057
2026-01-27 16:29:05.71	288.75	31.47	-40.4	-41.5	21.4	0.00e+00	7	32	0	850395136	54	6094
2026-01-27 16:29:06.71	288.43	31.38	-40.3	-41.4	21.5	0.00e+00	7	32	0	851443712	54	6030
2026-01-27 16:29:07.72	288.10	31.30	-40.5	-41.7	21.3	0.00e+00	92	32	0	853540864	54	6184
2026-01-27 16:29:08.73	287.78	31.21	-40.8	-42.0	21.1	0.00e+00	13	32	0	855638016	54	6400
2026-01-27 16:29:09.74	287.46	31.11	-40.6	-41.8	21.2	0.00e+00	92	32	0	857735168	54	6259
2026-01-27 16:29:10.75	287.14	31.02	-40.9	-42.1	20.8	0.00e+00	7	32	0	859832320	54	6512
2026-01-27 16:29:11.76	286.83	30.93	-41.0	-42.2	20.8	0.00e+00	7	32	0	860880896	54	6583
2026-01-27 16:29:12.77	286.51	30.84	-40.7	-41.8	21.1	0.00e+00	14	32	0	862978048	54	6315
2026-01-27 16:29:13.78	286.20	30.74	-40.5	-41.7	21.3	0.00e+00	7	32	0	865075200	54	6203
2026-01-27 16:29:14.79	285.89	30.65	-40.6	-41.8	21.2	0.00e+00	91	32	0	867172352	54	6255
2026-01-27 16:29:15.80	285.58	30.56	-40.7	-41.9	20.9	0.00e+00	12	32	0	869269504	54	6369
2026-01-27 16:29:16.81	285.28	30.46	-40.8	-42.0	21.0	0.00e+00	92	32	0	871366656	54	6422
2026-01-27 16:29:17.82	284.97	30.36	-40.5	-41.7	21.4	0.00e+00	68	32	0	872415232	54	6178
2026-01-27 16:29:18.83	284.67	30.27	-40.6	-41.8	21.2	0.00e+00	92	32	0	874512384	54	6252
2026-01-27 16:29:19.83	284.37	30.17	-40.3	-41.4	21.4	0.00e+00	0	32	0	876609536	54	6020
2026-01-27 16:29:20.84	284.07	30.07	-40.4	-41.5	21.4	0.00e+00	69	32	0	878706688	54	6084
2026-01-27 16:29:21.85	283.77	29.98	-40.2	-41.3	21.6	0.00e+00	6	32	0	880803840	54	5954
2026-01-27 16:29:22.86	283.48	29.88	-40.0	-41.1	21.7	0.00e+00	69	32	0	881852416	54	5818
2026-01-27 16:29:23.87	283.18	29.78	-40.1	-41.2	21.6	0.00e+00	92	32	0	883949568	54	5874
2026-01-27 16:29:24.88	282.89	29.68	-40.2	-41.3	21.8	0.00e+00	0	32	0	886046720	54	5905
2026-01-27 16:29:25.89	282.60	29.58	-40.1	-41.2	21.5	0.00e+00	92	32	0	888143872	54	5892
2026-01-27 16:29:26.90	282.31	29.48	-40.2	-41.4	21.6	0.00e+00	0	32	0	890241024	54	5976
2026-01-27 16:29:27.91	282.03	29.38	-39.8	-40.9	21.9	0.00e+00	0	32	0	891289600	54	5669
2026-01-27 16:29:28.92	281.74	29.27	-39.9	-41.0	21.9	0.00e+00	0	32	0	893386752	52	6428
2026-01-27 16:29:29.93	281.46	29.17	-40.0	-41.1	21.8	0.00e+00	0	32	0	895483904	52	6528
2026-01-27 16:29:30.94	281.18	29.07	-40.2	-41.4	21.6	0.00e+00	92	32	0	897581056	52	6705
2026-01-27 16:29:31.95	280.90	28.97	-40.3	-41.4	21.6	0.00e+00	2	32	0	899678208	52	6758
2026-01-27 16:29:32.96	280.62	28.86	-40.2	-41.3	21.6	0.00e+00	92	32	0	900726784	52	6688
2026-01-27 16:29:33.97	280.34	28.76	-40.1	-41.2	21.6	0.00e+00	0	32	0	902823936	52	6576
2026-01-27 16:29:34.98	280.07	28.66	-39.9	-41.0	21.9	0.00e+00	92	32	0	904921088	52	6448
2026-01-27 16:29:35.99	279.80	28.55	-39.9	-41.0	22.0	0.00e+00	74	32	0	907018240	52	6432
2026-01-27 16:29:37.00	279.53	28.45	-39.7	-40.8	22.0	0.00e+00	71	32	0	909115392	52	6262
2026-01-27 16:29:38.01	279.26	28.34	-39.5	-40.5	22.3	0.00e+00	92	32	0	910163968	52	6082
2026-01-27 16:29:39.02	278.99	28.24	-39.5	-40.5	22.4	0.00e+00	4	32	0	912261120	52	6102
2026-01-27 16:29:40.02	278.73	28.13	-39.2	-40.2	22.6	0.00e+00	92	32	0	914358272	52	5883
2026-01-27 16:29:41.03	278.46	28.03	-39.2	-40.2	22.6	0.00e+00	69	32	0	916455424	52	5882
2026-01-27 16:29:42.04	278.20	27.92	-39.0	-40.0	22.8	0.00e+00	92	32	0	918552576	52	5741
2026-01-27 16:29:43.05	277.94	27.81	-38.8	-39.8	23.0	0.00e+00	70	32	0	919601152	52	5578
2026-01-27 16:29:44.06	277.68	27.71	-38.8	-39.7	23.1	0.00e+00	70	32	0	921698304	52	5560
2026-01-27 16:29:45.07	277.43	27.60	-38.7	-39.6	23.0	0.00e+00	0	32	0	923795456	50	6146
2026-01-27 16:29:46.08	277.17	27.49	-38.7	-39.6	23.0	0.00e+00	70	32	0	925892608	50	6131
2026-01-27 16:29:47.09	276.92	27.39	-38.6	-39.6	23.2	0.00e+00	92	32	0	927989760	50	6105
2026-01-27 16:29:48.09	276.67	27.28	-38.4	-39.3	23.4	0.00e+00	0	32	0	929038336	50	5907
2026-01-27 16:29:49.10	276.42	27.17	-38.1	-39.0	23.6	0.00e+00	92	32	0	931135488	50	5748
2026-01-27 16:29:50.11	276.17	27.06	-38.1	-38.9	23.7	0.00e+00	0	32	0	933232640	50	5691
2026-01-27 16:29:51.12	275.93	26.96	-37.9	-38.7	23.9	0.00e+00	0	32	0	935329792	50	5561
2026-01-27 16:29:52.13	275.68	26.85	-37.7	-38.6	24.0	0.00e+00	0	32	0	937426944	48	6141
2026-01-27 16:29:53.14	275.44	26.74	-37.9	-38.7	23.9	0.00e+00	2	32	0	939524096	48	6234
2026-01-27 16:29:54.15	275.20	26.63	-37.5	-38.4	24.1	0.00e+00	90	32	0	940572672	48	5992
2026-01-27 16:29:55.16	274.96	26.52	-37.5	-38.4	24.2	0.00e+00	0	32	0	942669824	48	5970
2026-01-27 16:29:56.17	274.72	26.41	-37.4	-38.2	24.3	0.00e+00	92	32	0	944766976	48	5893
2026-01-27 16:29:57.17	274.49	26.31	-37.4	-38.3	24.2	0.00e+00	0	32	0	946864128	48	5909
2026-01-27 16:29:58.18	274.25	26.20	-37.2	-38.0	24.4	0.00e+00	92	32	0	947912704	48	5743
2026-01-27 16:29:59.19	274.02	26.09	-37.2	-38.0	24.5	0.00e+00	75	32	0	950009856	48	5753
2026-01-27 16:30:00.20	273.79	25.98	-36.9	-37.7	24.8	0.00e+00	74	32	0	952107008	48	5542
2026-01-27 16:30:01.21	273.56	25.87	-36.8	-37.6	24.8	0.00e+00	0	32	0	954204160	46	6136
2026-01-27 16:30:02.22	273.33	25.76	-36.9	-37.7	24.8	0.00e+00	0	32	0	956301312	46	6214
2026-01-27 16:30:03.23	273.10	25.65	-36.6	-37.4	25.0	0.00e+00	92	32	0	957349888	46	6006
2026-01-27 16:30:04.24	272.88	25.54	-36.7	-37.5	25.0	0.00e+00	0	32	0	959447040	46	6049
2026-01-27 16:30:05.25	272.65	25.43	-36.6	-37.4	25.0	0.00e+00	92	32	0	961544192	46	6033
2026-01-27 16:30:06.26	272.43	25.32	-36.5	-37.3	25.0	0.00e+00	74	32	0	963641344	46	5940
2026-01-27 16:30:07.27	272.21	25.21	-36.5	-37.3	25.1	0.00e+00	0	32	0	965738496	46	5928
2026-01-27 16:30:08.28	271.99	25.10	-36.6	-37.4	25.0	0.00e+00	0	32	0	967835648	46	5989
2026-01-27 16:30:09.29	271.77	25.00	-36.4	-37.2	25.2	0.00e+00	0	32	0	968884224	46	5831
2026-01-27 16:30:10.30	271.56	24.89	-36.3	-37.1	25.2	0.00e+00	90	32	0	970981376	46	5810
2026-01-27 16:30:11.30	271.34	24.78	-36.2	-36.9	25.3	0.00e+00	0	32	0	973078528	46	5681
2026-01-27 16:30:12.31	271.13	24.67	-36.3	-37.0	25.3	0.00e+00	90	32	0	975175680	46	5746
2026-01-27 16:30:13.32	270.92	24.56	-36.2	-36.9	25.4	0.00e+00	0	32	0	977272832	46	5685
2026-01-27 16:30:14.33	270.71	24.45	-36.1	-36.8	25.4	0.00e+00	0	32	0	978321408	46	5619
2026-01-27 16:30:15.34	270.50	24.34	-36.2	-36.9	25.3	0.00e+00	0	32	0	980418560	46	5687
2026-01-27 16:30:16.34	270.30	24.23	-36.2	-37.0	25.2	0.00e+00	10	32	0	982515712	46	5746
2026-01-27 16:30:17.35	270.09	24.12	-36.4	-37.2	25.2	0.00e+00	92	32	0	984612864	46	5880
2026-01-27 16:30:18.36	269.89	24.01	-36.3	-37.1	25.3	0.00e+00	0	32	0	986710016	46	5814
2026-01-27 16:30:19.37	269.68	23.91	-36.5	-37.3	25.1	0.00e+00	92	32	0	987758592	46	5923
2026-01-27 16:30:20.37	269.48	23.80	-36.3	-37.1	25.2	0.00e+00	0	32	0	989855744	46	5787
2026-01-27 16:30:21.38	269.28	23.69	-36.4	-37.1	25.2	0.00e+00	76	32	0	991952896	46	5827
2026-01-27 16:30:22.39	269.09	23.58	-36.3	-37.0	24.9	0.00e+00	10	32	0	994050048	46	5747
2026-01-27 16:30:23.39	268.89	23.47	-36.5	-37.2	25.0	0.00e+00	71	32	0	996147200	46	5888
2026-01-27 16:30:24.40	268.69	23.36	-36.4	-37.2	25.1	0.00e+00	0	32	0	997195776	46	5850
2026-01-27 16:30:25.41	268.50	23.25	-36.5	-37.3	24.3	0.00e+00	8	32	0	999292928	46	5908
2026-01-27 16:30:26.42	268.31	23.15	-36.6	-37.4	24.9	0.00e+00	92	32	0	1001390080	46	6000
2026-01-27 16:30:27.42	268.12	23.04	-36.5	-37.3	24.9	0.00e+00	0	32	0	1003487232	46	5948
2026-01-27 16:30:28.44	267.92	22.93	-36.6	-37.4	24.9	0.00e+00	92	32	0	1005584384	46	5991
2026-01-27 16:30:29.44	267.74	22.82	-36.7	-37.5	24.9	0.00e+00	0	32	0	1006632960	46	6080
2026-01-27 16:30:30.45	267.55	22.71	-36.9	-37.7	24.7	0.00e+00	0	32	0	1008730112	46	6187
2026-01-27 16:30:31.46	267.36	22.61	-36.9	-37.7	24.7	0.00e+00	77	32	0	1010827264	46	6215
2026-01-27 16:30:32.47	267.18	22.50	-37.0	-37.8	24.6	0.00e+00	78	32	0	1012924416	46	6284
2026-01-27 16:30:33.48	266.99	22.39	-37.0	-37.9	24.6	0.00e+00	92	32	0	1015021568	46	6321
2026-01-27 16:30:34.50	266.81	22.28	-37.1	-37.9	24.6	0.00e+00	6	32	0	1016070144	46	6334
2026-01-27 16:30:35.51	266.63	22.17	-37.1	-37.9	24.6	0.00e+00	86	32	0	1018167296	46	6387
2026-01-27 16:30:36.52	266.45	22.07	-37.2	-38.0	24.4	0.00e+00	6	32	0	1020264448	46	6429
2026-01-27 16:30:37.53	266.27	21.96	-37.3	-38.2	24.3	0.00e+00	5	32	0	1022361600	46	6543
2026-01-27 16:30:38.54	266.09	21.85	-37.3	-38.1	24.3	0.00e+00	0	32	0	1024458752	46	6515
2026-01-27 16:30:39.54	265.92	21.75	-37.2	-38.1	24.4	0.00e+00	8	32	0	1025507328	46	6467
2026-01-27 16:30:40.55	265.74	21.64	-37.3	-38.1	24.3	0.00e+00	90	32	0	1027604480	46	6535
2026-01-27 16:30:41.56	265.57	21.53	-37.3	-38.1	24.3	0.00e+00	0	32	0	1029701632	46	6514
2026-01-27 16:30:42.57	265.40	21.43	-37.2	-38.0	24.4	0.00e+00	92	32	0	1031798784	46	6435
2026-01-27 16:30:43.58	265.22	21.32	-37.3	-38.1	24.4	0.00e+00	9	32	0	1033895936	46	6499
2026-01-27 16:30:44.59	265.05	21.22	-37.4	-38.2	24.3	0.00e+00	76	32	0	1034944512	46	6572
2026-01-27 16:30:45.60	264.88	21.11	-37.4	-38.2	24.3	0.00e+00	9	32	0	1037041664	46	6611
2026-01-27 16:30:46.61	264.72	21.00	-37.3	-38.2	24.3	0.00e+00	9	32	0	1039138816	46	6547
2026-01-27 16:30:47.62	264.55	20.90	-37.6	-38.5	24.1	0.00e+00	0	32	0	1041235968	46	6775
2026-01-27 16:30:48.63	264.38	20.79	-37.4	-38.2	24.4	0.00e+00	10	32	0	1043333120	48	5854
2026-01-27 16:30:49.64	264.22	20.69	-37.7	-38.6	24.0	0.00e+00	92	32	0	1045430272	48	6120
2026-01-27 16:30:50.65	264.06	20.58	-37.4	-38.3	24.2	0.00e+00	0	32	0	1046478848	48	5911
2026-01-27 16:30:51.66	263.89	20.48	-37.6	-38.4	24.1	0.00e+00	92	32	0	1048576000	48	6012
2026-01-27 16:30:52.67	263.73	20.37	-37.5	-38.3	24.2	0.00e+00	0	32	0	1050673152	48	5935
2026-01-27 16:30:53.68	263.57	20.27	-37.6	-38.5	24.0	0.00e+00	0	32	0	1052770304	48	6039
2026-01-27 16:30:54.69	263.41	20.17	-37.5	-38.4	24.1	0.00e+00	0	32	0	1054867456	48	5976
2026-01-27 16:30:55.70	263.26	20.06	-37.5	-38.4	24.1	0.00e+00	7	32	0	1055916032	48	5965
2026-01-27 16:30:56.70	263.10	19.96	-37.7	-38.6	23.9	0.00e+00	88	32	0	1058013184	48	6125
2026-01-27 16:30:57.71	262.94	19.86	-37.8	-38.7	23.8	0.00e+00	0	32	0	1060110336	48	6193
2026-01-27 16:30:58.72	262.79	19.75	-37.9	-38.8	23.6	0.00e+00	92	32	0	1062207488	48	6291
2026-01-27 16:30:59.73	262.64	19.65	-38.0	-38.9	23.7	0.00e+00	6	32	0	1064304640	48	6343
2026-01-27 16:31:00.74	262.48	19.55	-38.1	-39.0	23.5	0.00e+00	3	32	0	1065353216	48	6442
2026-01-27 16:31:01.76	262.33	19.44	-38.1	-39.0	23.5	0.00e+00	0	32	0	1067450368	48	6455
2026-01-27 16:31:02.77	262.18	19.34	-38.2	-39.1	23.4	0.00e+00	3	32	0	1069547520	48	6486
2026-01-27 16:31:03.77	262.03	19.24	-38.3	-39.2	23.3	0.00e+00	68	32	0	1071644672	48	6579
2026-01-27 16:31:04.78	261.88	19.14	-38.3	-39.2	23.4	0.00e+00	7	32	0	1073741824	48	6588
2026-01-27 16:31:05.79	261.74	19.04	-38.3	-39.2	23.3	0.00e+00	95	32	0	1074790400	48	6563
2026-01-27 16:31:06.80	261.59	18.93	-38.4	-39.3	23.3	0.00e+00	78	32	0	1076887552	48	6641
2026-01-27 16:31:07.81	261.44	18.83	-38.5	-39.5	23.1	0.00e+00	9	32	0	1078984704	48	6787
2026-01-27 16:31:08.82	261.30	18.73	-38.7	-39.6	23.0	0.00e+00	74	32	0	1081081856	48	6890
2026-01-27 16:31:09.83	261.16	18.63	-38.6	-39.5	23.1	0.00e+00	8	32	0	1083179008	48	6814
2026-01-27 16:31:10.84	261.01	18.53	-38.6	-39.6	23.0	0.00e+00	80	32	0	1084227584	48	6876
2026-01-27 16:31:11.85	260.87	18.43	-38.8	-39.8	23.0	0.00e+00	0	32	0	1086324736	50	6246
2026-01-27 16:31:12.86	260.73	18.33	-38.7	-39.7	22.9	0.00e+00	90	32	0	1088421888	50	6210
2026-01-27 16:31:13.87	260.59	18.23	-38.9	-39.9	22.8	0.00e+00	79	32	0	1090519040	50	6320
2026-01-27 16:31:14.87	260.46	18.13	-38.8	-39.7	22.9	0.00e+00	92	32	0	1092616192	50	6241
2026-01-27 16:31:15.88	260.32	18.03	-38.9	-39.8	22.8	0.00e+00	74	32	0	1093664768	50	6309
2026-01-27 16:31:16.89	260.18	17.93	-38.9	-39.8	22.8	0.00e+00	0	32	0	1095761920	50	6306
2026-01-27 16:31:17.90	260.04	17.83	-38.9	-39.8	22.8	0.00e+00	0	32	0	1097859072	50	6296
2026-01-27 16:31:18.91	259.91	17.73	-38.7	-39.6	22.9	0.00e+00	0	32	0	1099956224	50	6151
2026-01-27 16:31:19.92	259.77	17.63	-38.6	-39.6	23.0	0.00e+00	92	32	0	1102053376	50	6124
2026-01-27 16:31:20.93	259.64	17.54	-38.7	-39.7	22.9	0.00e+00	0	32	0	1103101952	50	6182
2026-01-27 16:31:21.94	259.51	17.44	-38.7	-39.7	22.9	0.00e+00	90	32	0	1105199104	50	6179
2026-01-27 16:31:22.95	259.38	17.34	-38.7	-39.6	23.0	0.00e+00	0	32	0	1107296256	50	6167
2026-01-27 16:31:23.96	259.25	17.24	-38.8	-39.7	22.8	0.00e+00	7	32	0	1109393408	50	6227
2026-01-27 16:31:24.97	259.12	17.14	-38.8	-39.8	22.8	0.00e+00	2	32	0	1111490560	50	6269
2026-01-27 16:31:25.98	258.99	17.05	-38.8	-39.8	22.7	0.00e+00	2	32	0	1112539136	50	6293
2026-01-27 16:31:26.99	258.86	16.95	-39.0	-40.0	22.7	0.00e+00	90	32	0	1114636288	50	6394
2026-01-27 16:31:28.00	258.73	16.85	-39.0	-40.0	22.6	0.00e+00	74	32	0	1116733440	50	6407
2026-01-27 16:31:29.01	258.61	16.76	-39.1	-40.1	22.5	0.00e+00	92	32	0	1118830592	50	6492
2026-01-27 16:31:30.01	258.48	16.66	-39.1	-40.1	22.5	0.00e+00	79	32	0	1120927744	50	6529
2026-01-27 16:31:31.02	258.36	16.57	-39.2	-40.2	22.5	0.00e+00	92	32	0	1121976320	50	6571
2026-01-27 16:31:32.03	258.23	16.47	-39.2	-40.2	22.4	0.00e+00	82	32	0	1124073472	50	6594
2026-01-27 16:31:33.04	258.11	16.37	-39.2	-40.2	22.5	0.00e+00	0	32	0	1126170624	50	6571
2026-01-27 16:31:34.05	257.99	16.28	-39.1	-40.1	22.5	0.00e+00	61	32	0	1128267776	50	6515
2026-01-27 16:31:35.06	257.87	16.18	-39.2	-40.2	22.4	0.00e+00	0	32	0	1130364928	50	6570
2026-01-27 16:31:36.07	257.74	16.09	-39.2	-40.2	22.3	0.00e+00	92	32	0	1131413504	50	6584
2026-01-27 16:31:37.08	257.62	15.99	-39.2	-40.2	22.5	0.00e+00	0	32	0	1133510656	50	6584
2026-01-27 16:31:38.09	257.50	15.90	-39.3	-40.3	22.3	0.00e+00	92	32	0	1135607808	50	6638
2026-01-27 16:31:39.10	257.39	15.81	-39.4	-40.5	22.1	0.00e+00	0	32	0	1137704960	50	6796
2026-01-27 16:31:40.11	257.27	15.71	-39.1	-40.1	22.5	0.00e+00	0	32	0	1139802112	50	6467
2026-01-27 16:31:41.12	257.15	15.62	-39.2	-40.3	22.3	0.00e+00	2	32	0	1141899264	50	6638
2026-01-27 16:31:42.12	257.04	15.52	-39.1	-40.1	22.5	0.00e+00	0	32	0	1142947840	50	6511
2026-01-27 16:31:43.13	256.92	15.43	-39.2	-40.2	22.3	0.00e+00	91	32	0	1145044992	50	6607
2026-01-27 16:31:44.14	256.81	15.34	-39.1	-40.1	22.5	0.00e+00	0	32	0	1147142144	50	6516
2026-01-27 16:31:45.15	256.69	15.25	-39.0	-40.0	22.5	0.00e+00	92	32	0	1149239296	50	6419
2026-01-27 16:31:46.16	256.58	15.15	-39.1	-40.1	22.3	0.00e+00	0	32	0	1151336448	50	6536
2026-01-27 16:31:47.17	256.47	15.06	-39.4	-40.4	22.1	0.00e+00	0	32	0	1152385024	50	6732
2026-01-27 16:31:48.17	256.35	14.97	-39.0	-40.0	22.5	0.00e+00	7	32	0	1154482176	50	6431
2026-01-27 16:31:49.18	256.24	14.88	-39.0	-40.0	22.5	0.00e+00	9	32	0	1156579328	50	6447
2026-01-27 16:31:50.19	256.13	14.79	-38.9	-39.9	22.6	0.00e+00	7	32	0	1158676480	50	6347
2026-01-27 16:31:51.20	256.02	14.69	-39.0	-40.0	22.5	0.00e+00	8	32	0	1160773632	50	6446
2026-01-27 16:31:52.21	255.91	14.60	-39.0	-40.0	22.5	0.00e+00	90	32	0	1161822208	50	6457
2026-01-27 16:31:53.22	255.81	14.51	-39.0	-40.0	22.5	0.00e+00	7	32	0	1163919360	50	6426
2026-01-27 16:31:54.23	255.70	14.42	-39.0	-40.0	22.5	0.00e+00	78	32	0	1166016512	50	6460
2026-01-27 16:31:55.24	255.59	14.33	-39.2	-40.2	22.4	0.00e+00	0	32	0	1168113664	50	6558
2026-01-27 16:31:56.25	255.48	14.24	-39.2	-40.2	22.4	0.00e+00	74	32	0	1170210816	50	6565
2026-01-27 16:31:57.26	255.38	14.15	-39.3	-40.3	22.2	0.00e+00	82	32	0	1171259392	50	6655
2026-01-27 16:31:58.26	255.27	14.06	-39.4	-40.5	22.1	0.00e+00	0	32	0	1173356544	50	6777
2026-01-27 16:31:59.27	255.17	13.97	-39.4	-40.4	22.1	0.00e+00	92	32	0	1175453696	50	6759
2026-01-27 16:32:00.28	255.07	13.88	-39.4	-40.4	22.2	0.00e+00	80	32	0	1177550848	50	6739
2026-01-27 16:32:01.29	254.96	13.79	-39.4	-40.4	22.1	0.00e+00	92	32	0	1179648000	50	6755
2026-01-27 16:32:02.30	254.86	13.71	-39.5	-40.6	22.0	0.00e+00	0	32	0	1180696576	50	6865
2026-01-27 16:32:03.31	254.76	13.62	-39.4	-40.5	22.1	0.00e+00	0	32	0	1182793728	50	6814
2026-01-27 16:32:04.32	254.66	13.53	-39.4	-40.5	22.1	0.00e+00	0	32	0	1184890880	50	6785
2026-01-27 16:32:05.33	254.56	13.44	-39.5	-40.6	22.0	0.00e+00	2	32	0	1186988032	50	6868
2026-01-27 16:32:06.34	254.46	13.35	-39.5	-40.5	22.0	0.00e+00	84	32	0	1189085184	50	6836
2026-01-27 16:32:07.35	254.36	13.27	-39.5	-40.6	22.1	0.00e+00	2	32	0	1190133760	50	6897
2026-01-27 16:32:08.36	254.26	13.18	-39.5	-40.5	22.0	0.00e+00	92	32	0	1192230912	50	6825
2026-01-27 16:32:09.37	254.16	13.09	-39.5	-40.6	21.9	0.00e+00	0	32	0	1194328064	50	6869
2026-01-27 16:32:10.37	254.06	13.00	-39.5	-40.6	22.0	0.00e+00	22	32	0	1196425216	50	6866
2026-01-27 16:32:11.38	253.96	12.92	-39.6	-40.6	21.9	0.00e+00	0	32	0	1198522368	50	6913
2026-01-27 16:32:12.39	253.87	12.83	-39.3	-40.4	22.1	0.00e+00	76	32	0	1199570944	50	6731
