passes_logs/2026/01/27/R4.6S_Anadyr/R4.6S_Anadyr__20260127_141941_SUOMI_NPP_rec.log

#Pass ID: 20260127_141941_SUOMI NPP
#Satellite: SUOMI NPP
#Configuration: NPP
#almurnet v.1.7.20251203
#Start time: 2026-01-27 14:19:43

#Version: 2.2.20231116
#Station: R4.6S_Anadyr
#Location: 177.4865 lon 64.73178 lat
#TLE: 1 37849U 11061A   26026.87508736  .00000176  00000+0  10464-3 0  9991
#TLE: 2 37849  98.7822 328.8221 0002127  43.3055 316.8288 14.19530452738397

#Time	Az	El	Level	Level2	SNR	BER	BlckErr	Temp	State	Recorded	gain1	gain2
2026-01-27 14:19:43.50	19.74	0.14	-48.8	-61.4	3.4	1.51e+00	0	30	0	0	60	41226
2026-01-27 14:19:44.51	19.76	0.20	-49.0	-64.2	3.6	1.51e+00	0	31	104	0	60	58478
2026-01-27 14:19:45.52	19.78	0.26	-49.0	-64.1	3.6	1.51e+00	0	31	104	0	60	58220
2026-01-27 14:19:46.53	19.80	0.32	-49.0	-64.2	3.6	1.51e+00	0	31	104	0	60	58582
2026-01-27 14:19:47.54	19.82	0.38	-49.0	-64.1	3.6	1.51e+00	0	31	104	0	60	58182
2026-01-27 14:19:48.55	19.84	0.44	-49.0	-64.2	3.6	1.51e+00	0	31	104	0	60	58682
2026-01-27 14:19:49.56	19.86	0.50	-48.9	-64.2	3.6	1.51e+00	0	31	104	0	60	58372
2026-01-27 14:19:50.57	19.87	0.56	-49.0	-64.2	3.6	1.51e+00	0	31	104	0	60	58404
2026-01-27 14:19:51.58	19.89	0.62	-49.0	-64.2	3.6	1.51e+00	0	31	104	0	60	58400
2026-01-27 14:19:52.59	19.91	0.68	-49.0	-64.3	3.6	1.51e+00	0	32	104	0	60	59039
2026-01-27 14:19:53.60	19.93	0.74	-49.0	-64.2	3.6	1.51e+00	0	31	104	0	60	58723
2026-01-27 14:19:54.61	19.95	0.81	-49.0	-64.2	3.6	1.51e+00	0	32	104	0	60	58604
2026-01-27 14:19:55.62	19.97	0.87	-49.0	-64.2	3.6	1.51e+00	0	32	104	0	60	58345
2026-01-27 14:19:56.63	19.99	0.93	-48.9	-64.1	3.6	1.51e+00	0	32	104	0	60	57992
2026-01-27 14:19:57.64	20.01	0.99	-48.9	-64.1	3.6	1.51e+00	0	32	104	0	60	57908
2026-01-27 14:19:58.65	20.03	1.05	-48.9	-64.1	3.6	1.51e+00	0	32	104	0	60	57718
2026-01-27 14:19:59.66	20.05	1.11	-48.8	-64.0	3.6	1.51e+00	0	32	104	0	60	57076
2026-01-27 14:20:00.67	20.07	1.17	-48.7	-63.9	3.6	1.51e+00	0	32	104	0	60	56559
2026-01-27 14:20:01.68	20.09	1.24	-48.6	-63.8	3.6	1.51e+00	0	32	104	0	60	55783
2026-01-27 14:20:02.69	20.11	1.30	-48.4	-63.7	3.6	1.51e+00	0	32	104	0	60	55119
2026-01-27 14:20:03.70	20.13	1.36	-48.3	-63.5	3.6	1.51e+00	0	32	104	0	60	54096
2026-01-27 14:20:04.71	20.15	1.42	-48.2	-63.5	3.6	1.51e+00	0	32	104	0	60	53800
2026-01-27 14:20:05.72	20.17	1.49	-48.1	-63.2	3.6	1.51e+00	0	32	104	0	60	52049
2026-01-27 14:20:06.73	20.19	1.55	-47.9	-63.1	3.6	1.51e+00	0	32	104	0	60	51558
2026-01-27 14:20:07.74	20.21	1.61	-47.6	-62.5	3.6	1.51e+00	0	32	104	0	60	48204
2026-01-27 14:20:08.75	20.23	1.67	-47.6	-62.7	3.6	1.51e+00	0	32	104	0	60	49140
2026-01-27 14:20:09.76	20.25	1.74	-47.6	-62.7	3.6	1.51e+00	0	32	104	0	60	49145
2026-01-27 14:20:10.77	20.27	1.80	-47.6	-62.6	3.6	1.51e+00	0	32	104	0	60	48920
2026-01-27 14:20:11.78	20.29	1.86	-47.6	-62.7	3.6	1.51e+00	0	32	104	0	60	49326
2026-01-27 14:20:12.79	20.31	1.93	-47.6	-62.7	3.6	1.51e+00	0	32	104	0	60	49542
2026-01-27 14:20:13.80	20.33	1.99	-47.6	-62.8	3.6	1.51e+00	0	32	104	0	60	49674
2026-01-27 14:20:14.81	20.35	2.05	-47.6	-62.8	3.6	1.51e+00	0	32	104	0	60	49813
2026-01-27 14:20:15.82	20.37	2.12	-47.6	-62.7	3.6	1.51e+00	0	32	104	0	60	49592
2026-01-27 14:20:16.83	20.39	2.18	-47.6	-62.8	3.6	1.51e+00	0	32	104	0	60	49727
2026-01-27 14:20:17.84	20.41	2.25	-47.6	-62.7	3.6	1.51e+00	0	32	104	0	60	49467
2026-01-27 14:20:18.85	20.43	2.31	-47.6	-62.5	3.6	1.51e+00	0	32	104	0	60	48191
2026-01-27 14:20:19.86	20.46	2.38	-47.5	-62.0	3.6	1.51e+00	0	32	104	0	60	45359
2026-01-27 14:20:20.87	20.48	2.44	-47.5	-61.4	3.6	1.51e+00	0	32	104	0	60	42482
2026-01-27 14:20:21.88	20.50	2.50	-47.5	-61.0	3.6	1.51e+00	0	32	104	0	60	40661
2026-01-27 14:20:22.89	20.52	2.57	-47.5	-60.5	3.6	1.51e+00	0	32	104	0	60	38286
2026-01-27 14:20:23.90	20.54	2.63	-47.5	-60.7	3.6	1.50e+00	0	32	104	0	60	39349
2026-01-27 14:20:24.91	20.56	2.70	-47.5	-61.0	3.6	1.51e+00	0	32	104	0	60	40440
2026-01-27 14:20:25.92	20.58	2.77	-47.5	-60.8	3.6	1.51e+00	0	32	104	0	60	39722
2026-01-27 14:20:26.93	20.60	2.83	-47.4	-59.2	4.1	1.49e+00	0	32	104	0	60	32891
2026-01-27 14:20:27.94	20.63	2.90	-47.1	-55.5	5.3	8.91e-01	0	32	0	1048576	60	21431
2026-01-27 14:20:28.95	20.65	2.96	-46.6	-53.0	7.9	7.22e-02	0	32	0	3145728	60	16207
2026-01-27 14:20:29.96	20.67	3.03	-46.0	-51.0	10.3	9.34e-03	0	32	0	4194304	60	12843
2026-01-27 14:20:30.97	20.69	3.09	-45.2	-49.0	12.9	1.65e-04	85	32	0	6291456	60	10168
2026-01-27 14:20:31.98	20.71	3.16	-44.0	-46.9	15.0	1.67e-05	0	32	0	8388608	60	7995
2026-01-27 14:20:32.99	20.73	3.23	-43.3	-45.7	15.9	0.00e+00	65	32	0	10485760	60	6948
2026-01-27 14:20:34.00	20.76	3.29	-43.0	-45.3	16.5	0.00e+00	0	32	0	12582912	60	6674
2026-01-27 14:20:35.01	20.78	3.36	-42.1	-44.0	17.6	0.00e+00	0	32	0	13631488	58	6433
2026-01-27 14:20:36.02	20.80	3.43	-41.5	-43.2	18.4	0.00e+00	0	32	0	15728640	56	6571
2026-01-27 14:20:37.03	20.82	3.49	-42.1	-44.0	17.6	0.00e+00	0	32	0	17825792	56	7178
2026-01-27 14:20:38.04	20.84	3.56	-41.8	-43.6	17.9	0.00e+00	19	32	0	19922944	56	6921
2026-01-27 14:20:39.04	20.87	3.63	-42.4	-44.3	17.3	0.00e+00	0	32	0	22020096	56	7508
2026-01-27 14:20:40.05	20.89	3.70	-42.9	-45.1	16.5	0.00e+00	56	32	0	24117248	58	7314
2026-01-27 14:20:41.06	20.91	3.76	-43.5	-46.1	15.5	0.00e+00	0	32	0	25165824	58	8194
2026-01-27 14:20:42.07	20.93	3.83	-41.8	-43.5	18.2	0.00e+00	0	32	0	27262976	56	6845
2026-01-27 14:20:43.08	20.96	3.90	-43.0	-45.2	17.1	0.00e+00	0	32	0	29360128	58	7383
2026-01-27 14:20:44.09	20.98	3.97	-47.4	-61.7	3.6	4.89e-01	0	32	104	30408704	60	44106
2026-01-27 14:20:45.10	21.00	4.04	-44.9	-48.5	13.2	1.49e+00	28	32	104	30408704	60	9644
2026-01-27 14:20:46.11	21.03	4.10	-47.5	-58.2	4.1	3.13e-01	0	32	0	30408704	60	29364
2026-01-27 14:20:47.12	21.05	4.17	-43.0	-45.2	16.7	5.01e-04	89	32	0	32505856	60	6542
2026-01-27 14:20:48.13	21.07	4.24	-43.2	-45.6	16.2	0.00e+00	0	32	0	34603008	58	7689
2026-01-27 14:20:49.14	21.10	4.31	-42.5	-44.6	17.1	0.00e+00	33	32	0	36700160	58	6849
2026-01-27 14:20:50.15	21.12	4.38	-42.2	-44.1	17.5	0.00e+00	0	32	0	37748736	58	6496
2026-01-27 14:20:51.16	21.14	4.45	-41.4	-43.0	18.6	0.00e+00	0	32	0	39845888	56	6459
2026-01-27 14:20:52.17	21.17	4.52	-41.0	-42.5	19.2	0.00e+00	0	32	0	41943040	56	6087
2026-01-27 14:20:53.18	21.19	4.59	-40.8	-42.3	19.1	0.00e+00	0	32	0	44040192	54	6622
2026-01-27 14:20:54.18	21.21	4.66	-41.0	-42.5	19.3	0.00e+00	84	32	0	46137344	54	6840
2026-01-27 14:20:55.19	21.24	4.73	-41.2	-42.8	19.0	0.00e+00	0	32	0	47185920	54	7031
2026-01-27 14:20:56.20	21.26	4.80	-40.9	-42.4	19.2	0.00e+00	0	32	0	49283072	54	6720
2026-01-27 14:20:57.21	21.28	4.87	-40.3	-41.7	19.9	0.00e+00	0	32	0	51380224	54	6191
2026-01-27 14:20:58.22	21.31	4.94	-40.3	-41.6	19.8	0.00e+00	0	32	0	53477376	54	6151
2026-01-27 14:20:59.22	21.33	5.01	-40.4	-41.8	19.8	0.00e+00	0	32	0	55574528	54	6264
2026-01-27 14:21:00.24	21.36	5.08	-40.6	-42.0	19.7	0.00e+00	0	32	0	56623104	54	6425
2026-01-27 14:21:01.24	21.38	5.15	-40.8	-42.3	19.5	0.00e+00	64	32	0	58720256	54	6625
2026-01-27 14:21:02.25	21.40	5.22	-40.8	-42.3	19.5	0.00e+00	0	32	0	60817408	54	6631
2026-01-27 14:21:03.26	21.43	5.30	-40.3	-41.7	20.0	0.00e+00	0	32	0	62914560	54	6191
2026-01-27 14:21:04.27	21.45	5.37	-40.5	-41.9	19.8	0.00e+00	0	32	0	65011712	54	6381
2026-01-27 14:21:05.28	21.48	5.44	-40.0	-41.3	20.4	0.00e+00	0	32	0	66060288	54	5925
2026-01-27 14:21:06.29	21.50	5.51	-40.1	-41.4	20.3	0.00e+00	9	32	0	68157440	54	5999
2026-01-27 14:21:07.30	21.53	5.58	-40.0	-41.2	20.5	0.00e+00	0	32	0	70254592	54	5894
2026-01-27 14:21:08.31	21.55	5.66	-40.0	-41.3	20.4	0.00e+00	82	32	0	72351744	52	6642
2026-01-27 14:21:09.32	21.58	5.73	-40.1	-41.4	20.4	0.00e+00	0	32	0	74448896	52	6746
2026-01-27 14:21:10.32	21.60	5.80	-39.9	-41.2	20.6	0.00e+00	91	32	0	76546048	52	6543
2026-01-27 14:21:11.34	21.63	5.88	-39.8	-41.1	20.7	0.00e+00	0	32	0	77594624	52	6482
2026-01-27 14:21:12.35	21.65	5.95	-39.6	-40.8	20.9	0.00e+00	0	32	0	79691776	52	6307
2026-01-27 14:21:13.36	21.68	6.02	-39.7	-40.9	20.9	0.00e+00	0	32	0	81788928	52	6322
2026-01-27 14:21:14.36	21.71	6.10	-39.8	-41.0	20.8	0.00e+00	0	32	0	83886080	52	6438
2026-01-27 14:21:15.37	21.73	6.17	-39.5	-40.7	21.0	0.00e+00	59	32	0	85983232	52	6233
2026-01-27 14:21:16.38	21.76	6.24	-39.8	-41.1	20.8	0.00e+00	0	32	0	87031808	52	6484
2026-01-27 14:21:17.39	21.78	6.32	-39.6	-40.8	20.9	0.00e+00	81	32	0	89128960	52	6277
2026-01-27 14:21:18.40	21.81	6.39	-39.7	-40.9	20.9	0.00e+00	0	32	0	91226112	52	6341
2026-01-27 14:21:19.41	21.84	6.47	-39.6	-40.7	21.0	0.00e+00	0	32	0	93323264	52	6244
2026-01-27 14:21:20.42	21.86	6.54	-39.6	-40.8	21.0	0.00e+00	0	32	0	95420416	52	6292
2026-01-27 14:21:21.43	21.89	6.62	-39.8	-41.0	20.7	0.00e+00	0	32	0	96468992	52	6422
2026-01-27 14:21:22.44	21.91	6.69	-39.4	-40.6	21.1	0.00e+00	80	32	0	98566144	52	6148
2026-01-27 14:21:23.45	21.94	6.77	-39.5	-40.7	21.1	0.00e+00	0	32	0	100663296	52	6196
2026-01-27 14:21:24.46	21.97	6.85	-39.5	-40.7	21.1	0.00e+00	83	32	0	102760448	52	6186
2026-01-27 14:21:25.47	21.99	6.92	-39.5	-40.7	21.1	0.00e+00	0	32	0	104857600	52	6218
2026-01-27 14:21:26.48	22.02	7.00	-39.5	-40.6	21.1	0.00e+00	0	32	0	105906176	52	6172
2026-01-27 14:21:27.48	22.05	7.07	-39.4	-40.6	21.2	0.00e+00	0	32	0	108003328	52	6142
2026-01-27 14:21:28.49	22.08	7.15	-40.0	-41.2	20.5	0.00e+00	0	32	0	110100480	52	6608
2026-01-27 14:21:29.50	22.10	7.23	-39.5	-40.6	21.1	0.00e+00	65	32	0	112197632	52	6169
2026-01-27 14:21:30.51	22.13	7.30	-39.3	-40.5	21.4	0.00e+00	0	32	0	114294784	52	6050
2026-01-27 14:21:31.52	22.16	7.38	-39.5	-40.7	21.1	0.00e+00	83	32	0	115343360	52	6195
2026-01-27 14:21:32.53	22.19	7.46	-39.4	-40.5	21.3	0.00e+00	0	32	0	117440512	52	6074
2026-01-27 14:21:33.54	22.21	7.54	-39.4	-40.5	21.3	0.00e+00	0	32	0	119537664	52	6100
2026-01-27 14:21:34.55	22.24	7.62	-39.3	-40.4	21.4	0.00e+00	0	32	0	121634816	52	6006
2026-01-27 14:21:35.56	22.27	7.69	-39.3	-40.5	21.4	0.00e+00	0	32	0	123731968	52	6048
2026-01-27 14:21:36.56	22.30	7.77	-39.4	-40.6	21.3	0.00e+00	0	32	0	124780544	52	6139
2026-01-27 14:21:37.57	22.33	7.85	-39.2	-40.3	21.6	0.00e+00	0	32	0	126877696	52	5951
2026-01-27 14:21:38.58	22.35	7.93	-39.0	-40.1	21.7	0.00e+00	82	32	0	128974848	52	5810
2026-01-27 14:21:39.59	22.38	8.01	-39.2	-40.3	21.5	0.00e+00	0	32	0	131072000	52	5941
2026-01-27 14:21:40.60	22.41	8.09	-39.2	-40.4	21.4	0.00e+00	84	32	0	133169152	52	5975
2026-01-27 14:21:41.61	22.44	8.17	-39.1	-40.2	21.6	0.00e+00	0	32	0	134217728	52	5843
2026-01-27 14:21:42.62	22.47	8.25	-39.3	-40.4	21.4	0.00e+00	0	32	0	136314880	52	6014
2026-01-27 14:21:43.63	22.50	8.33	-39.0	-40.1	21.7	0.00e+00	57	32	0	138412032	52	5804
2026-01-27 14:21:44.64	22.53	8.41	-39.0	-40.1	21.7	0.00e+00	0	32	0	140509184	52	5815
2026-01-27 14:21:45.65	22.56	8.49	-39.2	-40.3	21.7	0.00e+00	6	32	0	142606336	52	5930
2026-01-27 14:21:46.66	22.59	8.57	-38.8	-39.8	21.9	0.00e+00	0	32	0	143654912	50	6309
2026-01-27 14:21:47.67	22.62	8.65	-38.8	-39.9	21.8	0.00e+00	69	32	0	145752064	50	6355
2026-01-27 14:21:48.67	22.65	8.74	-38.9	-40.0	21.8	0.00e+00	0	32	0	147849216	50	6448
2026-01-27 14:21:49.68	22.68	8.82	-38.8	-39.8	21.9	0.00e+00	0	32	0	149946368	50	6303
2026-01-27 14:21:50.69	22.71	8.90	-38.9	-40.0	21.7	0.00e+00	0	32	0	152043520	50	6394
2026-01-27 14:21:51.70	22.74	8.98	-38.7	-39.7	22.0	0.00e+00	0	32	0	153092096	50	6236
2026-01-27 14:21:52.71	22.77	9.06	-38.8	-39.9	21.9	0.00e+00	0	32	0	155189248	50	6334
2026-01-27 14:21:53.72	22.80	9.15	-38.8	-39.8	21.9	0.00e+00	0	32	0	157286400	50	6304
2026-01-27 14:21:54.73	22.83	9.23	-38.6	-39.6	22.2	0.00e+00	86	32	0	159383552	50	6161
2026-01-27 14:21:55.74	22.86	9.31	-38.8	-39.9	21.9	0.00e+00	0	32	0	161480704	50	6340
2026-01-27 14:21:56.75	22.89	9.40	-38.8	-39.9	21.9	0.00e+00	0	32	0	162529280	50	6344
2026-01-27 14:21:57.76	22.92	9.48	-38.5	-39.5	22.2	0.00e+00	0	32	0	164626432	50	6098
2026-01-27 14:21:58.77	22.95	9.57	-38.7	-39.7	22.1	0.00e+00	0	32	0	166723584	50	6239
2026-01-27 14:21:59.78	22.98	9.65	-38.5	-39.6	22.2	0.00e+00	0	32	0	168820736	50	6114
2026-01-27 14:22:00.79	23.01	9.74	-38.4	-39.4	22.4	0.00e+00	0	32	0	170917888	50	5981
2026-01-27 14:22:01.80	23.05	9.82	-38.7	-39.8	22.1	0.00e+00	40	32	0	173015040	50	6251
2026-01-27 14:22:02.81	23.08	9.91	-38.5	-39.6	22.2	0.00e+00	0	32	0	174063616	50	6126
2026-01-27 14:22:03.82	23.11	9.99	-38.7	-39.7	22.1	0.00e+00	0	32	0	176160768	50	6208
2026-01-27 14:22:04.83	23.14	10.08	-38.6	-39.6	22.2	0.00e+00	0	32	0	178257920	50	6148
2026-01-27 14:22:05.83	23.17	10.17	-38.4	-39.4	22.3	0.00e+00	0	32	0	180355072	50	5980
2026-01-27 14:22:06.84	23.21	10.25	-38.4	-39.4	22.4	0.00e+00	0	32	0	182452224	50	5984
2026-01-27 14:22:07.85	23.24	10.34	-38.4	-39.4	22.5	0.00e+00	0	32	0	183500800	50	5976
2026-01-27 14:22:08.86	23.27	10.43	-38.5	-39.5	22.3	0.00e+00	83	32	0	185597952	50	6051
2026-01-27 14:22:09.87	23.31	10.51	-38.5	-39.5	22.3	0.00e+00	0	32	0	187695104	50	6059
2026-01-27 14:22:10.88	23.34	10.60	-38.3	-39.3	22.5	0.00e+00	0	32	0	189792256	50	5940
2026-01-27 14:22:11.89	23.37	10.69	-38.4	-39.4	22.3	0.00e+00	0	32	0	191889408	50	5998
2026-01-27 14:22:12.90	23.41	10.78	-38.3	-39.3	22.5	0.00e+00	0	32	0	192937984	50	5930
2026-01-27 14:22:13.91	23.44	10.87	-38.3	-39.4	22.4	0.00e+00	0	32	0	195035136	50	5965
2026-01-27 14:22:14.92	23.47	10.96	-38.2	-39.2	22.5	0.00e+00	0	32	0	197132288	50	5891
2026-01-27 14:22:15.93	23.51	11.05	-38.3	-39.3	22.5	0.00e+00	55	32	0	199229440	50	5908
2026-01-27 14:22:16.94	23.54	11.14	-38.2	-39.2	22.6	0.00e+00	0	32	0	201326592	50	5842
2026-01-27 14:22:17.95	23.58	11.23	-38.2	-39.2	22.6	0.00e+00	92	32	0	202375168	50	5872
2026-01-27 14:22:18.96	23.61	11.32	-38.2	-39.2	22.7	0.00e+00	0	32	0	204472320	50	5837
2026-01-27 14:22:19.96	23.65	11.41	-38.1	-39.1	22.6	0.00e+00	0	32	0	206569472	50	5791
2026-01-27 14:22:20.97	23.68	11.50	-38.1	-39.0	22.8	0.00e+00	0	32	0	208666624	50	5757
2026-01-27 14:22:21.98	23.72	11.59	-38.1	-39.1	22.6	0.00e+00	0	32	0	210763776	50	5783
2026-01-27 14:22:22.99	23.75	11.68	-38.1	-39.0	22.8	0.00e+00	89	32	0	211812352	50	5754
2026-01-27 14:22:24.00	23.79	11.77	-38.2	-39.2	22.7	0.00e+00	33	32	0	213909504	50	5832
2026-01-27 14:22:25.01	23.82	11.87	-38.0	-38.9	22.8	0.00e+00	90	32	0	216006656	50	5687
2026-01-27 14:22:26.02	23.86	11.96	-37.9	-38.9	22.8	0.00e+00	0	32	0	218103808	50	5664
2026-01-27 14:22:27.03	23.89	12.05	-37.9	-38.9	22.7	0.00e+00	0	32	0	220200960	50	5664
2026-01-27 14:22:28.04	23.93	12.14	-38.0	-39.0	22.7	0.00e+00	0	32	0	221249536	50	5731
2026-01-27 14:22:29.05	23.97	12.24	-37.9	-38.9	22.7	0.00e+00	0	32	0	223346688	50	5664
2026-01-27 14:22:30.06	24.00	12.33	-38.0	-39.0	22.9	0.00e+00	0	32	0	225443840	50	5711
2026-01-27 14:22:31.07	24.04	12.43	-37.8	-38.7	22.7	0.00e+00	0	32	0	227540992	50	5549
2026-01-27 14:22:32.08	24.08	12.52	-38.0	-39.0	22.8	0.00e+00	58	32	0	229638144	50	5711
2026-01-27 14:22:33.08	24.12	12.62	-37.8	-38.8	22.8	0.00e+00	0	32	0	230686720	50	5616
2026-01-27 14:22:34.09	24.15	12.71	-37.8	-38.8	22.6	0.00e+00	0	32	0	232783872	50	5570
2026-01-27 14:22:35.10	24.19	12.81	-37.9	-38.9	22.8	0.00e+00	0	32	0	234881024	50	5669
2026-01-27 14:22:36.11	24.23	12.91	-37.8	-38.8	23.0	0.00e+00	0	32	0	236978176	50	5576
2026-01-27 14:22:37.12	24.27	13.00	-38.0	-39.0	22.7	0.00e+00	87	32	0	239075328	50	5712
2026-01-27 14:22:38.13	24.31	13.10	-37.9	-38.9	22.8	0.00e+00	0	32	0	241172480	50	5666
2026-01-27 14:22:39.14	24.34	13.20	-38.0	-39.0	22.9	0.00e+00	92	32	0	242221056	50	5714
2026-01-27 14:22:40.15	24.38	13.29	-37.9	-38.9	22.8	0.00e+00	0	32	0	244318208	50	5673
2026-01-27 14:22:41.16	24.42	13.39	-37.9	-38.9	22.9	0.00e+00	32	32	0	246415360	50	5633
2026-01-27 14:22:42.16	24.46	13.49	-37.8	-38.7	23.0	0.00e+00	33	32	0	248512512	50	5553
2026-01-27 14:22:43.17	24.50	13.59	-38.0	-39.0	22.8	0.00e+00	0	32	0	250609664	50	5725
2026-01-27 14:22:44.18	24.54	13.69	-37.9	-38.9	22.9	0.00e+00	0	32	0	251658240	50	5641
2026-01-27 14:22:45.19	24.58	13.79	-38.0	-39.0	22.8	0.00e+00	0	32	0	253755392	50	5696
2026-01-27 14:22:46.20	24.62	13.89	-37.9	-38.8	22.9	0.00e+00	90	32	0	255852544	50	5617
2026-01-27 14:22:47.21	24.66	13.99	-38.2	-39.2	22.8	0.00e+00	0	32	0	257949696	50	5835
2026-01-27 14:22:48.21	24.70	14.09	-37.9	-38.9	22.9	0.00e+00	41	32	0	258998272	50	5640
2026-01-27 14:22:49.22	24.74	14.19	-37.9	-38.8	23.0	0.00e+00	0	32	0	261095424	50	5619
2026-01-27 14:22:50.23	24.79	14.29	-38.0	-38.9	22.9	0.00e+00	0	32	0	263192576	50	5682
2026-01-27 14:22:51.24	24.83	14.40	-37.9	-38.9	22.9	0.00e+00	9	32	0	265289728	50	5656
2026-01-27 14:22:52.25	24.87	14.50	-37.9	-38.9	23.0	0.00e+00	0	32	0	267386880	50	5632
2026-01-27 14:22:53.26	24.91	14.60	-37.9	-38.8	23.0	0.00e+00	88	32	0	269484032	48	6286
2026-01-27 14:22:54.27	24.95	14.71	-37.9	-38.9	23.0	0.00e+00	0	32	0	270532608	48	6338
2026-01-27 14:22:55.28	25.00	14.81	-37.7	-38.6	23.2	0.00e+00	92	32	0	272629760	48	6124
2026-01-27 14:22:56.29	25.04	14.91	-37.8	-38.8	23.0	0.00e+00	0	32	0	274726912	48	6283
2026-01-27 14:22:57.30	25.08	15.02	-37.7	-38.6	23.1	0.00e+00	0	32	0	276824064	48	6144
2026-01-27 14:22:58.30	25.13	15.12	-37.7	-38.7	23.1	0.00e+00	0	32	0	278921216	48	6202
2026-01-27 14:22:59.31	25.17	15.23	-37.7	-38.6	23.3	0.00e+00	0	32	0	279969792	48	6152
2026-01-27 14:23:00.32	25.21	15.34	-37.7	-38.7	23.2	0.00e+00	0	32	0	282066944	48	6199
2026-01-27 14:23:01.33	25.26	15.44	-37.5	-38.4	23.3	0.00e+00	0	32	0	284164096	48	6022
2026-01-27 14:23:02.34	25.30	15.55	-37.7	-38.6	23.1	0.00e+00	91	32	0	286261248	48	6144
2026-01-27 14:23:03.35	25.35	15.66	-37.7	-38.6	23.1	0.00e+00	0	33	0	288358400	48	6122
2026-01-27 14:23:04.36	25.39	15.76	-37.7	-38.7	23.1	0.00e+00	0	32	0	289406976	48	6194
2026-01-27 14:23:05.37	25.44	15.87	-37.8	-38.8	23.1	0.00e+00	0	32	0	291504128	48	6255
2026-01-27 14:23:06.38	25.48	15.98	-37.8	-38.8	23.2	0.00e+00	0	32	0	293601280	48	6273
2026-01-27 14:23:07.39	25.53	16.09	-37.9	-38.9	23.0	0.00e+00	0	32	0	295698432	48	6350
2026-01-27 14:23:08.40	25.58	16.20	-37.8	-38.7	23.2	0.00e+00	32	33	0	297795584	48	6207
2026-01-27 14:23:09.40	25.62	16.31	-37.7	-38.7	23.2	0.00e+00	82	32	0	298844160	48	6177
2026-01-27 14:23:10.41	25.67	16.42	-37.9	-38.8	23.1	0.00e+00	0	32	0	300941312	48	6279
2026-01-27 14:23:11.42	25.72	16.53	-38.0	-39.0	22.9	0.00e+00	0	32	0	303038464	48	6410
2026-01-27 14:23:12.43	25.76	16.65	-37.9	-38.9	23.0	0.00e+00	0	32	0	305135616	48	6356
2026-01-27 14:23:13.44	25.81	16.76	-37.9	-38.9	23.0	0.00e+00	0	32	0	307232768	48	6350
2026-01-27 14:23:14.45	25.86	16.87	-38.1	-39.0	22.9	0.00e+00	0	32	0	308281344	48	6452
2026-01-27 14:23:15.46	25.91	16.98	-38.2	-39.1	22.8	0.00e+00	0	32	0	310378496	48	6529
2026-01-27 14:23:16.47	25.96	17.10	-38.3	-39.3	22.7	0.00e+00	85	32	0	312475648	48	6657
2026-01-27 14:23:17.48	26.01	17.21	-38.2	-39.1	22.9	0.00e+00	0	32	0	314572800	48	6533
2026-01-27 14:23:18.49	26.06	17.33	-37.8	-38.8	23.1	0.00e+00	48	32	0	316669952	48	6255
2026-01-27 14:23:19.50	26.11	17.44	-38.0	-39.0	23.1	0.00e+00	0	32	0	317718528	48	6394
2026-01-27 14:23:20.51	26.16	17.56	-38.1	-39.0	23.0	0.00e+00	0	32	0	319815680	48	6445
2026-01-27 14:23:21.52	26.21	17.68	-37.7	-38.7	23.2	0.00e+00	0	32	0	321912832	48	6190
2026-01-27 14:23:22.52	26.26	17.79	-37.8	-38.7	23.2	0.00e+00	0	32	0	324009984	48	6222
2026-01-27 14:23:23.53	26.31	17.91	-38.0	-38.9	23.0	0.00e+00	61	32	0	326107136	48	6355
2026-01-27 14:23:24.54	26.36	18.03	-37.9	-38.9	23.0	0.00e+00	0	32	0	327155712	48	6343
2026-01-27 14:23:25.55	26.41	18.15	-38.1	-39.1	23.0	0.00e+00	92	32	0	329252864	48	6490
2026-01-27 14:23:26.56	26.47	18.27	-37.9	-38.8	23.2	0.00e+00	0	32	0	331350016	48	6291
2026-01-27 14:23:27.57	26.52	18.39	-38.0	-39.0	23.0	0.00e+00	0	32	0	333447168	48	6397
2026-01-27 14:23:28.58	26.57	18.51	-37.9	-38.9	23.0	0.00e+00	0	32	0	335544320	48	6336
2026-01-27 14:23:29.58	26.63	18.63	-38.1	-39.0	23.0	0.00e+00	0	32	0	337641472	48	6433
2026-01-27 14:23:30.59	26.68	18.75	-38.0	-38.9	23.0	0.00e+00	26	32	0	338690048	48	6345
2026-01-27 14:23:31.60	26.73	18.87	-38.1	-39.1	23.0	0.00e+00	0	32	0	340787200	48	6469
2026-01-27 14:23:32.61	26.79	18.99	-37.9	-38.8	23.1	0.00e+00	89	32	0	342884352	48	6275
2026-01-27 14:23:33.62	26.84	19.12	-38.2	-39.2	23.0	0.00e+00	0	32	0	344981504	48	6560
2026-01-27 14:23:34.63	26.90	19.24	-38.0	-39.0	22.9	0.00e+00	0	32	0	347078656	48	6411
2026-01-27 14:23:35.64	26.96	19.36	-38.1	-39.0	23.0	0.00e+00	0	32	0	348127232	48	6437
2026-01-27 14:23:36.65	27.01	19.49	-38.0	-38.9	23.0	0.00e+00	0	32	0	350224384	48	6375
2026-01-27 14:23:37.66	27.07	19.62	-38.1	-39.0	23.0	0.00e+00	0	32	0	352321536	48	6463
2026-01-27 14:23:38.67	27.13	19.74	-38.1	-39.1	22.9	0.00e+00	0	32	0	354418688	48	6505
2026-01-27 14:23:39.68	27.18	19.87	-38.0	-38.9	23.1	0.00e+00	80	32	0	356515840	48	6377
2026-01-27 14:23:40.69	27.24	20.00	-38.1	-39.1	22.9	0.00e+00	0	32	0	357564416	48	6511
2026-01-27 14:23:41.70	27.30	20.13	-38.2	-39.2	22.8	0.00e+00	0	32	0	359661568	48	6579
2026-01-27 14:23:42.71	27.36	20.25	-37.9	-38.9	23.0	0.00e+00	0	33	0	361758720	48	6342
2026-01-27 14:23:43.72	27.42	20.38	-38.2	-39.1	22.9	0.00e+00	0	32	0	363855872	48	6528
2026-01-27 14:23:44.73	27.48	20.51	-38.2	-39.1	22.9	0.00e+00	0	32	0	365953024	48	6539
2026-01-27 14:23:45.74	27.54	20.64	-38.2	-39.2	22.8	0.00e+00	0	32	0	367001600	48	6579
2026-01-27 14:23:46.75	27.60	20.78	-38.4	-39.4	22.6	0.00e+00	91	32	0	369098752	48	6725
2026-01-27 14:23:47.75	27.66	20.91	-38.7	-39.8	22.4	0.00e+00	0	32	0	371195904	48	7051
2026-01-27 14:23:48.76	27.73	21.04	-38.7	-39.8	22.4	0.00e+00	22	32	0	373293056	50	6277
2026-01-27 14:23:49.77	27.79	21.17	-38.7	-39.8	22.4	0.00e+00	0	33	0	375390208	50	6267
2026-01-27 14:23:50.78	27.85	21.31	-38.6	-39.7	22.5	0.00e+00	0	32	0	376438784	50	6206
2026-01-27 14:23:51.79	27.91	21.44	-38.6	-39.6	22.5	0.00e+00	1	32	0	378535936	50	6162
2026-01-27 14:23:52.80	27.98	21.58	-38.6	-39.7	22.6	0.00e+00	0	32	0	380633088	50	6180
2026-01-27 14:23:53.81	28.04	21.71	-38.4	-39.4	22.7	0.00e+00	68	32	0	382730240	50	6000
2026-01-27 14:23:54.82	28.11	21.85	-38.1	-39.1	23.0	0.00e+00	0	32	0	384827392	50	5786
2026-01-27 14:23:55.83	28.17	21.99	-38.1	-39.1	23.1	0.00e+00	69	32	0	385875968	50	5765
2026-01-27 14:23:56.84	28.24	22.13	-38.1	-39.1	23.1	0.00e+00	0	32	0	387973120	50	5770
2026-01-27 14:23:57.85	28.31	22.27	-37.8	-38.7	23.2	0.00e+00	0	32	0	390070272	48	6221
2026-01-27 14:23:58.85	28.37	22.41	-37.6	-38.6	23.4	0.00e+00	1	32	0	392167424	48	6108
2026-01-27 14:23:59.87	28.44	22.55	-37.5	-38.5	23.6	0.00e+00	0	32	0	394264576	48	6042
2026-01-27 14:24:00.88	28.51	22.69	-37.3	-38.3	23.6	0.00e+00	90	32	0	395313152	48	5897
2026-01-27 14:24:01.88	28.58	22.83	-37.3	-38.2	23.7	0.00e+00	0	32	0	397410304	48	5835
2026-01-27 14:24:02.89	28.65	22.97	-37.3	-38.2	23.7	0.00e+00	91	32	0	399507456	48	5852
2026-01-27 14:24:03.90	28.72	23.12	-36.9	-37.8	24.0	0.00e+00	0	32	0	401604608	48	5571
2026-01-27 14:24:04.91	28.79	23.26	-36.8	-37.7	24.0	0.00e+00	3	32	0	403701760	48	5527
2026-01-27 14:24:05.92	28.86	23.41	-36.8	-37.7	24.0	0.00e+00	0	32	0	404750336	46	6188
2026-01-27 14:24:06.93	28.93	23.55	-36.7	-37.5	24.2	0.00e+00	0	32	0	406847488	46	6101
2026-01-27 14:24:07.94	29.01	23.70	-36.3	-37.1	24.4	0.00e+00	91	32	0	408944640	46	5827
2026-01-27 14:24:08.95	29.08	23.85	-36.4	-37.2	24.3	0.00e+00	0	32	0	411041792	46	5891
2026-01-27 14:24:09.96	29.15	23.99	-36.1	-36.9	24.6	0.00e+00	91	32	0	413138944	46	5654
2026-01-27 14:24:10.97	29.23	24.14	-36.2	-37.0	24.6	0.00e+00	0	32	0	415236096	46	5728
2026-01-27 14:24:11.98	29.30	24.29	-35.9	-36.7	24.8	0.00e+00	0	32	0	416284672	46	5540
2026-01-27 14:24:12.99	29.38	24.44	-35.9	-36.6	24.7	0.00e+00	0	32	0	418381824	46	5501
2026-01-27 14:24:14.00	29.46	24.60	-36.0	-36.8	24.7	0.00e+00	0	32	0	420478976	46	5588
2026-01-27 14:24:15.01	29.53	24.75	-36.2	-37.0	24.5	0.00e+00	79	32	0	422576128	46	5706
2026-01-27 14:24:16.02	29.61	24.90	-36.3	-37.1	24.4	0.00e+00	0	32	0	424673280	46	5820
2026-01-27 14:24:17.03	29.69	25.06	-36.3	-37.1	24.4	0.00e+00	71	33	0	425721856	46	5800
2026-01-27 14:24:18.04	29.77	25.21	-36.1	-36.9	24.5	0.00e+00	0	33	0	427819008	46	5663
2026-01-27 14:24:19.05	29.85	25.37	-36.2	-37.1	24.6	0.00e+00	0	33	0	429916160	46	5771
2026-01-27 14:24:20.06	29.93	25.52	-36.4	-37.2	24.4	0.00e+00	0	32	0	432013312	46	5868
2026-01-27 14:24:21.06	30.01	25.68	-36.1	-36.9	24.6	0.00e+00	0	32	0	434110464	46	5657
2026-01-27 14:24:22.07	30.10	25.84	-36.2	-37.0	24.4	0.00e+00	65	33	0	435159040	46	5712
2026-01-27 14:24:23.08	30.18	26.00	-36.0	-36.9	24.5	0.00e+00	0	32	0	437256192	46	5638
2026-01-27 14:24:24.09	30.26	26.16	-36.1	-36.9	24.5	0.00e+00	92	32	0	439353344	46	5687
2026-01-27 14:24:25.10	30.35	26.32	-36.2	-37.0	24.5	0.00e+00	0	32	0	441450496	46	5724
2026-01-27 14:24:26.11	30.43	26.48	-36.4	-37.3	24.4	0.00e+00	49	33	0	443547648	46	5918
2026-01-27 14:24:27.12	30.52	26.64	-36.4	-37.3	24.3	0.00e+00	0	32	0	444596224	46	5913
2026-01-27 14:24:28.13	30.61	26.81	-36.6	-37.5	24.2	0.00e+00	0	33	0	446693376	46	6036
2026-01-27 14:24:29.14	30.70	26.97	-36.4	-37.3	24.6	0.00e+00	0	32	0	448790528	46	5923
2026-01-27 14:24:30.15	30.79	27.14	-36.5	-37.4	24.3	0.00e+00	0	32	0	450887680	46	5972
2026-01-27 14:24:31.16	30.88	27.30	-36.7	-37.5	24.3	0.00e+00	48	32	0	452984832	46	6077
2026-01-27 14:24:32.17	30.97	27.47	-36.1	-36.9	24.4	0.00e+00	0	32	0	454033408	46	5668
2026-01-27 14:24:33.18	31.06	27.64	-36.5	-37.3	24.2	0.00e+00	24	32	0	456130560	46	5944
2026-01-27 14:24:34.19	31.15	27.81	-36.7	-37.6	24.2	0.00e+00	0	33	0	458227712	46	6120
2026-01-27 14:24:35.20	31.25	27.98	-36.3	-37.2	24.5	0.00e+00	0	32	0	460324864	46	5832
2026-01-27 14:24:36.21	31.34	28.15	-36.5	-37.3	24.3	0.00e+00	31	32	0	462422016	46	5963
2026-01-27 14:24:37.22	31.44	28.32	-36.4	-37.2	24.4	0.00e+00	0	32	0	463470592	46	5855
2026-01-27 14:24:38.23	31.53	28.50	-36.6	-37.4	24.3	0.00e+00	91	33	0	465567744	46	6007
2026-01-27 14:24:39.24	31.63	28.67	-36.6	-37.4	24.3	0.00e+00	0	32	0	467664896	46	6020
2026-01-27 14:24:40.25	31.73	28.85	-36.8	-37.6	24.2	0.00e+00	92	32	0	469762048	46	6130
2026-01-27 14:24:41.26	31.83	29.02	-36.7	-37.6	24.1	0.00e+00	0	33	0	471859200	46	6112
2026-01-27 14:24:42.26	31.93	29.20	-37.1	-38.0	23.8	0.00e+00	0	32	0	472907776	46	6399
2026-01-27 14:24:43.27	32.03	29.38	-37.3	-38.1	23.7	0.00e+00	2	33	0	475004928	46	6535
2026-01-27 14:24:44.28	32.13	29.56	-37.1	-37.9	23.8	0.00e+00	0	32	0	477102080	46	6350
2026-01-27 14:24:45.29	32.24	29.74	-37.8	-38.7	23.3	0.00e+00	0	33	0	479199232	46	6976
2026-01-27 14:24:46.30	32.34	29.92	-37.4	-38.3	23.6	0.00e+00	0	33	0	481296384	48	5940
2026-01-27 14:24:47.31	32.45	30.10	-37.5	-38.4	23.6	0.00e+00	91	32	0	482344960	48	5982
2026-01-27 14:24:48.32	32.56	30.29	-37.9	-38.8	23.3	0.00e+00	0	33	0	484442112	48	6264
2026-01-27 14:24:49.33	32.67	30.47	-38.0	-38.9	23.3	0.00e+00	0	33	0	486539264	48	6353
2026-01-27 14:24:50.34	32.78	30.66	-38.3	-39.3	22.9	0.00e+00	0	33	0	488636416	48	6632
2026-01-27 14:24:51.35	32.89	30.85	-38.5	-39.4	22.8	0.00e+00	0	33	0	490733568	48	6741
2026-01-27 14:24:52.36	33.00	31.03	-38.9	-40.0	22.3	0.00e+00	88	33	0	491782144	50	6407
2026-01-27 14:24:53.37	33.11	31.22	-38.8	-39.8	22.6	0.00e+00	0	33	0	493879296	50	6276
2026-01-27 14:24:54.38	33.23	31.41	-39.0	-40.0	22.3	0.00e+00	75	32	0	495976448	50	6460
2026-01-27 14:24:55.39	33.35	31.61	-38.9	-39.9	22.4	0.00e+00	0	32	0	498073600	50	6371
2026-01-27 14:24:56.40	33.46	31.80	-38.9	-39.9	22.4	0.00e+00	0	32	0	500170752	50	6371
2026-01-27 14:24:57.40	33.58	31.99	-39.3	-40.3	22.0	0.00e+00	0	33	0	502267904	50	6654
2026-01-27 14:24:58.41	33.70	32.19	-39.5	-40.6	21.9	0.00e+00	0	32	0	503316480	50	6850
2026-01-27 14:24:59.42	33.82	32.38	-39.9	-41.0	21.5	0.00e+00	86	33	0	505413632	52	6426
2026-01-27 14:25:00.43	33.95	32.58	-40.0	-41.2	21.4	0.00e+00	0	33	0	507510784	52	6573
2026-01-27 14:25:01.43	34.07	32.78	-40.3	-41.5	21.2	0.00e+00	78	32	0	509607936	52	6827
2026-01-27 14:25:02.44	34.20	32.98	-40.4	-41.6	20.9	0.00e+00	0	32	0	511705088	52	6896
2026-01-27 14:25:03.45	34.32	33.18	-40.6	-41.8	20.7	0.00e+00	14	32	0	512753664	52	7072
2026-01-27 14:25:04.46	34.45	33.38	-40.8	-42.1	20.5	0.00e+00	0	32	0	514850816	54	6514
2026-01-27 14:25:05.47	34.58	33.58	-40.8	-42.1	20.7	0.00e+00	0	32	0	516947968	54	6482
2026-01-27 14:25:06.48	34.72	33.79	-41.1	-42.5	20.3	0.00e+00	0	32	0	519045120	54	6772
2026-01-27 14:25:07.48	34.85	33.99	-41.0	-42.3	20.4	0.00e+00	0	32	0	521142272	54	6692
2026-01-27 14:25:08.49	34.98	34.20	-40.3	-41.5	20.8	0.00e+00	72	33	0	522190848	54	6076
2026-01-27 14:25:09.50	35.12	34.41	-40.5	-41.7	21.0	0.00e+00	0	32	0	524288000	54	6219
2026-01-27 14:25:10.51	35.26	34.62	-39.8	-40.8	21.6	0.00e+00	92	32	0	526385152	52	6313
2026-01-27 14:25:11.51	35.40	34.82	-39.6	-40.7	22.1	0.00e+00	0	32	0	528482304	52	6212
2026-01-27 14:25:12.52	35.54	35.04	-39.2	-40.2	22.2	0.00e+00	0	32	0	530579456	52	5868
2026-01-27 14:25:13.53	35.69	35.25	-39.3	-40.3	22.2	0.00e+00	0	32	0	531628032	52	5946
2026-01-27 14:25:14.54	35.83	35.46	-39.0	-40.0	22.5	0.00e+00	0	32	0	533725184	52	5699
2026-01-27 14:25:15.55	35.98	35.68	-39.1	-40.1	22.3	0.00e+00	89	32	0	535822336	52	5821
2026-01-27 14:25:16.56	36.13	35.90	-39.0	-40.1	22.3	0.00e+00	0	32	0	537919488	52	5774
2026-01-27 14:25:17.57	36.28	36.11	-38.8	-39.8	22.4	0.00e+00	88	33	0	540016640	50	6290
2026-01-27 14:25:18.58	36.44	36.33	-39.2	-40.2	22.0	0.00e+00	0	33	0	541065216	50	6603
2026-01-27 14:25:19.59	36.59	36.56	-39.3	-40.4	21.4	0.00e+00	0	33	0	543162368	50	6730
2026-01-27 14:25:20.60	36.75	36.78	-39.8	-40.9	21.4	0.00e+00	0	32	0	545259520	50	7149
2026-01-27 14:25:21.60	36.91	37.00	-40.7	-42.0	20.8	0.00e+00	0	32	0	547356672	52	7196
2026-01-27 14:25:22.61	37.07	37.22	-40.6	-41.9	20.6	0.00e+00	73	33	0	549453824	54	6321
2026-01-27 14:25:23.62	37.24	37.45	-40.9	-42.2	20.4	0.00e+00	0	33	0	550502400	54	6612
2026-01-27 14:25:24.63	37.40	37.68	-40.8	-42.1	20.4	0.00e+00	92	32	0	552599552	54	6506
2026-01-27 14:25:25.64	37.57	37.90	-41.3	-42.6	19.8	0.00e+00	0	33	0	554696704	54	6925
2026-01-27 14:25:26.65	37.74	38.13	-41.1	-42.4	20.5	0.00e+00	0	33	0	556793856	54	6743
2026-01-27 14:25:27.66	37.92	38.37	-41.2	-42.5	20.2	0.00e+00	0	32	0	558891008	54	6835
2026-01-27 14:25:28.67	38.09	38.60	-40.8	-42.1	20.6	0.00e+00	0	33	0	559939584	54	6482
2026-01-27 14:25:29.68	38.27	38.83	-41.5	-43.0	19.5	0.00e+00	1	32	0	562036736	54	7241
2026-01-27 14:25:30.68	38.45	39.06	-42.0	-43.6	19.7	0.00e+00	0	33	0	564133888	56	6903
2026-01-27 14:25:31.70	38.64	39.30	-42.1	-43.9	18.8	0.00e+00	82	33	0	566231040	56	7094
2026-01-27 14:25:32.70	38.82	39.54	-42.3	-44.0	18.8	0.00e+00	0	33	0	568328192	56	7229
2026-01-27 14:25:33.71	39.01	39.78	-41.6	-43.1	19.6	0.00e+00	84	33	0	569376768	56	6504
2026-01-27 14:25:34.72	39.20	40.02	-41.4	-42.9	20.1	0.00e+00	0	33	0	571473920	56	6350
2026-01-27 14:25:35.73	39.40	40.26	-41.1	-42.5	20.3	0.00e+00	0	33	0	573571072	56	6054
2026-01-27 14:25:36.74	39.60	40.50	-40.5	-41.7	20.9	0.00e+00	65	33	0	575668224	54	6239
2026-01-27 14:25:37.75	39.80	40.75	-39.9	-41.0	21.5	0.00e+00	0	33	0	577765376	54	5755
2026-01-27 14:25:38.76	40.00	40.99	-40.1	-41.3	21.2	0.00e+00	21	33	0	578813952	52	6679
2026-01-27 14:25:39.76	40.20	41.24	-39.5	-40.6	21.9	0.00e+00	0	32	0	580911104	52	6125
2026-01-27 14:25:40.77	40.41	41.48	-39.3	-40.4	22.1	0.00e+00	20	32	0	583008256	52	6029
2026-01-27 14:25:41.78	40.63	41.73	-39.6	-40.8	21.6	0.00e+00	0	32	0	585105408	52	6283
2026-01-27 14:25:42.79	40.84	41.98	-39.6	-40.8	21.7	0.00e+00	0	32	0	587202560	52	6273
2026-01-27 14:25:43.80	41.06	42.23	-39.7	-40.9	21.6	0.00e+00	4	33	0	588251136	52	6331
2026-01-27 14:25:44.81	41.28	42.49	-39.5	-40.7	21.2	0.00e+00	0	32	0	590348288	52	6193
2026-01-27 14:25:45.82	41.51	42.74	-39.8	-41.1	21.5	0.00e+00	92	33	0	592445440	52	6479
2026-01-27 14:25:46.83	41.74	43.00	-39.7	-40.9	21.4	0.00e+00	0	33	0	594542592	52	6321
2026-01-27 14:25:47.84	41.97	43.25	-39.4	-40.5	21.9	0.00e+00	65	33	0	596639744	52	6067
2026-01-27 14:25:48.85	42.21	43.51	-39.6	-40.8	21.8	0.00e+00	0	33	0	598736896	52	6257
2026-01-27 14:25:49.86	42.45	43.77	-39.6	-40.8	21.9	0.00e+00	0	33	0	599785472	52	6258
2026-01-27 14:25:50.86	42.69	44.03	-39.8	-41.0	21.4	0.00e+00	0	33	0	601882624	52	6438
2026-01-27 14:25:51.88	42.94	44.29	-39.9	-41.1	21.5	0.00e+00	0	33	0	603979776	52	6522
2026-01-27 14:25:52.89	43.20	44.56	-39.8	-41.0	21.4	0.00e+00	1	33	0	606076928	52	6449
2026-01-27 14:25:53.90	43.45	44.82	-40.1	-41.4	21.1	0.00e+00	0	33	0	608174080	52	6708
2026-01-27 14:25:54.91	43.71	45.09	-40.4	-41.7	20.8	0.00e+00	70	32	0	609222656	52	6972
2026-01-27 14:25:55.92	43.98	45.35	-40.7	-42.0	21.0	0.00e+00	0	32	0	611319808	52	7205
2026-01-27 14:25:56.92	44.25	45.62	-39.8	-41.0	21.4	0.00e+00	0	33	0	613416960	52	6400
2026-01-27 14:25:57.93	44.52	45.89	-40.3	-41.5	21.1	0.00e+00	0	32	0	615514112	52	6840
2026-01-27 14:25:58.94	44.80	46.16	-40.5	-41.7	21.0	0.00e+00	0	33	0	617611264	52	6970
2026-01-27 14:25:59.95	45.08	46.43	-40.3	-41.5	21.5	0.00e+00	77	33	0	618659840	54	6075
2026-01-27 14:26:00.96	45.37	46.70	-39.5	-40.5	22.0	0.00e+00	0	33	0	620756992	52	6093
2026-01-27 14:26:01.97	45.67	46.97	-38.8	-39.9	22.6	0.00e+00	91	33	0	622854144	50	6333
2026-01-27 14:26:02.98	45.96	47.24	-38.3	-39.3	23.1	0.00e+00	0	33	0	624951296	50	5902
2026-01-27 14:26:03.99	46.27	47.52	-37.9	-38.8	23.4	0.00e+00	18	33	0	627048448	48	6271
2026-01-27 14:26:05.00	46.58	47.80	-37.0	-37.8	23.9	0.00e+00	0	32	0	628097024	48	5593
2026-01-27 14:26:06.01	46.89	48.07	-37.6	-38.5	23.5	0.00e+00	0	33	0	630194176	48	6055
2026-01-27 14:26:07.02	47.21	48.35	-37.1	-38.0	23.7	0.00e+00	77	33	0	632291328	48	5731
2026-01-27 14:26:08.03	47.54	48.63	-38.3	-39.3	23.1	0.00e+00	0	33	0	634388480	48	6661
2026-01-27 14:26:09.04	47.87	48.91	-38.3	-39.3	22.9	0.00e+00	66	33	0	636485632	48	6623
2026-01-27 14:26:10.05	48.21	49.19	-38.2	-39.3	22.9	0.00e+00	0	33	0	637534208	48	6623
2026-01-27 14:26:11.06	48.55	49.47	-37.9	-38.9	23.1	0.00e+00	49	33	0	639631360	48	6323
2026-01-27 14:26:12.07	48.90	49.75	-37.5	-38.5	23.5	0.00e+00	0	33	0	641728512	48	6048
2026-01-27 14:26:13.08	49.26	50.03	-37.0	-37.9	23.8	0.00e+00	1	33	0	643825664	48	5679
2026-01-27 14:26:14.09	49.62	50.31	-36.7	-37.5	24.2	0.00e+00	2	32	0	645922816	46	6096
2026-01-27 14:26:15.10	49.99	50.59	-36.7	-37.5	24.2	0.00e+00	0	33	0	646971392	46	6096
2026-01-27 14:26:16.11	50.37	50.88	-37.0	-38.0	23.8	0.00e+00	60	33	0	649068544	46	6396
2026-01-27 14:26:17.11	50.75	51.16	-37.1	-38.0	23.8	0.00e+00	0	33	0	651165696	46	6437
2026-01-27 14:26:18.12	51.14	51.44	-36.6	-37.5	24.2	0.00e+00	89	32	0	653262848	46	6080
2026-01-27 14:26:19.13	51.54	51.73	-35.7	-36.6	24.8	0.00e+00	0	33	0	655360000	44	6120
2026-01-27 14:26:20.14	51.95	52.01	-35.4	-36.1	25.1	0.00e+00	6	32	0	656408576	44	5828
2026-01-27 14:26:21.15	52.36	52.30	-35.8	-36.6	24.7	0.00e+00	0	33	0	658505728	44	6126
2026-01-27 14:26:22.16	52.79	52.58	-35.9	-36.7	24.8	0.00e+00	0	32	0	660602880	44	6220
2026-01-27 14:26:23.17	53.22	52.87	-36.1	-37.0	24.5	0.00e+00	92	33	0	662700032	44	6401
2026-01-27 14:26:24.18	53.65	53.15	-36.0	-36.8	24.6	0.00e+00	0	32	0	664797184	44	6314
2026-01-27 14:26:25.19	54.10	53.44	-35.6	-36.4	24.9	0.00e+00	82	33	0	666894336	44	6018
2026-01-27 14:26:26.20	54.56	53.72	-35.0	-35.7	25.3	0.00e+00	27	33	0	667942912	44	5559
2026-01-27 14:26:27.21	55.02	54.01	-34.9	-35.7	25.5	0.00e+00	0	33	0	670040064	42	6198
2026-01-27 14:26:28.22	55.50	54.29	-35.2	-35.9	25.2	0.00e+00	0	33	0	672137216	42	6371
2026-01-27 14:26:29.23	55.98	54.58	-35.8	-36.6	24.9	0.00e+00	0	32	0	674234368	44	6142
2026-01-27 14:26:30.23	56.47	54.86	-36.4	-37.3	24.3	0.00e+00	6	33	0	676331520	44	6673
2026-01-27 14:26:31.24	56.97	55.14	-37.2	-38.1	23.8	0.00e+00	0	33	0	677380096	46	6526
2026-01-27 14:26:32.25	57.49	55.42	-37.2	-38.1	23.7	0.00e+00	80	33	0	679477248	46	6519
2026-01-27 14:26:33.26	58.01	55.70	-36.5	-37.3	24.4	0.00e+00	0	33	0	681574400	46	5922
2026-01-27 14:26:34.27	58.54	55.98	-35.8	-36.6	24.7	0.00e+00	0	33	0	683671552	46	5462
2026-01-27 14:26:35.28	59.09	56.26	-35.4	-36.2	25.1	0.00e+00	0	33	0	685768704	44	5830
2026-01-27 14:26:36.28	59.64	56.54	-35.4	-36.2	25.1	0.00e+00	0	33	0	686817280	44	5889
2026-01-27 14:26:37.29	60.21	56.82	-35.2	-36.0	25.1	0.00e+00	2	33	0	688914432	44	5738
2026-01-27 14:26:38.30	60.79	57.09	-35.6	-36.4	25.0	0.00e+00	0	33	0	691011584	44	6019
2026-01-27 14:26:39.31	61.38	57.37	-35.5	-36.3	25.0	0.00e+00	91	33	0	693108736	44	5937
2026-01-27 14:26:40.32	61.98	57.64	-35.8	-36.6	24.7	0.00e+00	0	33	0	695205888	44	6171
2026-01-27 14:26:41.33	62.59	57.91	-36.6	-37.5	24.0	0.00e+00	32	33	0	696254464	44	6809
2026-01-27 14:26:42.34	63.22	58.18	-37.8	-38.7	23.4	0.00e+00	0	33	0	698351616	46	7007
2026-01-27 14:26:43.35	63.86	58.45	-38.8	-39.9	22.4	0.00e+00	0	32	0	700448768	50	6364
2026-01-27 14:26:44.36	64.51	58.71	-38.9	-40.0	22.3	0.00e+00	0	32	0	702545920	50	6431
2026-01-27 14:26:45.36	65.17	58.97	-38.8	-39.8	22.5	0.00e+00	0	33	0	704643072	50	6286
2026-01-27 14:26:46.37	65.85	59.23	-37.9	-38.9	23.1	0.00e+00	72	33	0	705691648	50	5671
2026-01-27 14:26:47.38	66.54	59.49	-37.0	-37.9	23.8	0.00e+00	0	33	0	707788800	48	5689
2026-01-27 14:26:48.39	67.24	59.75	-37.3	-38.2	23.8	0.00e+00	79	32	0	709885952	48	5852
2026-01-27 14:26:49.40	67.96	60.00	-37.6	-38.5	23.6	0.00e+00	0	33	0	711983104	48	6074
2026-01-27 14:26:50.41	68.70	60.25	-37.5	-38.4	23.2	0.00e+00	0	33	0	714080256	48	6027
2026-01-27 14:26:51.42	69.44	60.50	-38.8	-39.8	22.4	0.00e+00	0	32	0	715128832	48	7068
2026-01-27 14:26:52.43	70.21	60.74	-38.5	-39.5	22.6	0.00e+00	0	33	0	717225984	50	6068
2026-01-27 14:26:53.43	70.97	60.97	-37.9	-38.9	23.2	0.00e+00	0	33	0	719323136	50	5640
2026-01-27 14:26:54.45	71.77	61.21	-37.5	-38.4	23.6	0.00e+00	0	32	0	721420288	48	5969
2026-01-27 14:26:55.46	72.58	61.44	-37.4	-38.3	23.5	0.00e+00	92	32	0	723517440	48	5933
2026-01-27 14:26:56.46	73.39	61.67	-37.7	-38.6	23.4	0.00e+00	0	32	0	724566016	48	6124
2026-01-27 14:26:57.47	74.23	61.89	-37.5	-38.4	23.4	0.00e+00	0	33	0	726663168	48	6020
2026-01-27 14:26:58.48	75.08	62.11	-36.6	-37.5	23.8	0.00e+00	0	33	0	728760320	46	6065
2026-01-27 14:26:59.49	75.95	62.32	-36.5	-37.4	24.4	0.00e+00	0	32	0	730857472	46	5969
2026-01-27 14:27:00.50	76.83	62.53	-36.2	-37.0	24.7	0.00e+00	81	32	0	732954624	46	5738
2026-01-27 14:27:01.51	77.72	62.74	-35.6	-36.4	25.0	0.00e+00	0	33	0	734003200	44	5970
2026-01-27 14:27:02.52	78.64	62.93	-35.6	-36.4	25.0	0.00e+00	83	33	0	736100352	44	5996
2026-01-27 14:27:03.53	79.56	63.13	-35.3	-36.1	25.3	0.00e+00	0	33	0	738197504	44	5791
2026-01-27 14:27:04.54	80.50	63.31	-34.9	-35.7	25.3	0.00e+00	0	33	0	740294656	44	5507
2026-01-27 14:27:05.55	81.46	63.49	-35.9	-36.7	24.6	0.00e+00	0	33	0	742391808	44	6209
2026-01-27 14:27:06.56	82.43	63.67	-36.7	-37.5	24.1	0.00e+00	0	32	0	743440384	44	6822
2026-01-27 14:27:07.57	83.42	63.84	-35.8	-36.5	24.9	0.00e+00	4	33	0	745537536	46	5437
2026-01-27 14:27:08.58	84.41	64.00	-35.3	-36.0	25.2	0.00e+00	0	32	0	747634688	44	5729
2026-01-27 14:27:09.59	85.43	64.16	-36.1	-36.9	24.6	0.00e+00	92	33	0	749731840	44	6369
2026-01-27 14:27:10.60	86.45	64.30	-37.4	-38.3	23.7	0.00e+00	0	33	0	751828992	46	6686
2026-01-27 14:27:11.60	87.48	64.44	-38.1	-39.2	23.1	0.00e+00	51	33	0	752877568	48	6544
2026-01-27 14:27:12.61	88.53	64.58	-38.2	-39.2	23.0	0.00e+00	0	32	0	754974720	48	6563
2026-01-27 14:27:13.62	89.60	64.70	-37.7	-38.7	23.5	0.00e+00	0	33	0	757071872	48	6186
2026-01-27 14:27:14.63	90.67	64.82	-38.0	-38.9	22.8	0.00e+00	62	32	0	759169024	48	6373
2026-01-27 14:27:15.64	91.76	64.93	-38.3	-39.2	23.0	0.00e+00	0	32	0	761266176	48	6600
2026-01-27 14:27:16.65	92.86	65.04	-38.8	-39.7	22.5	0.00e+00	91	32	0	763363328	48	7007
2026-01-27 14:27:17.66	93.96	65.13	-39.4	-40.5	22.1	0.00e+00	0	33	0	764411904	50	6832
2026-01-27 14:27:18.67	95.08	65.22	-40.5	-41.8	21.1	0.00e+00	90	33	0	766509056	52	7054
2026-01-27 14:27:19.68	96.20	65.30	-39.9	-41.1	21.7	0.00e+00	0	33	0	768606208	54	5765
2026-01-27 14:27:20.69	97.33	65.37	-39.2	-40.2	22.2	0.00e+00	0	33	0	770703360	52	5858
2026-01-27 14:27:21.69	98.46	65.43	-38.9	-39.9	22.4	0.00e+00	0	33	0	772800512	52	5668
2026-01-27 14:27:22.71	99.62	65.48	-38.7	-39.6	22.8	0.00e+00	0	33	0	773849088	50	6169
2026-01-27 14:27:23.72	100.76	65.53	-38.6	-39.6	22.5	0.00e+00	91	33	0	775946240	50	6143
2026-01-27 14:27:24.72	101.91	65.56	-37.8	-38.7	23.4	0.00e+00	0	33	0	778043392	48	6225
2026-01-27 14:27:25.73	103.06	65.59	-37.5	-38.4	23.6	0.00e+00	92	33	0	780140544	48	5980
2026-01-27 14:27:26.74	104.22	65.61	-38.4	-39.3	22.9	0.00e+00	0	33	0	782237696	48	6687
2026-01-27 14:27:27.75	105.38	65.62	-38.3	-39.3	22.9	0.00e+00	0	33	0	783286272	50	5899
2026-01-27 14:27:28.76	106.54	65.61	-36.2	-37.0	24.9	0.00e+00	0	33	0	785383424	46	5730
2026-01-27 14:27:29.76	107.69	65.61	-35.9	-36.7	24.9	0.00e+00	0	33	0	787480576	44	6221
2026-01-27 14:27:30.77	108.85	65.59	-37.6	-38.6	23.5	0.00e+00	92	33	0	789577728	46	6895
2026-01-27 14:27:31.78	110.00	65.56	-37.8	-38.8	23.3	0.00e+00	0	32	0	791674880	48	6302
2026-01-27 14:27:32.79	111.16	65.52	-37.0	-37.9	23.9	0.00e+00	82	33	0	792723456	48	5654
2026-01-27 14:27:33.80	112.31	65.48	-36.7	-37.6	24.2	0.00e+00	0	33	0	794820608	46	6151
2026-01-27 14:27:34.81	113.45	65.43	-36.4	-37.3	24.2	0.00e+00	0	33	0	796917760	46	5919
2026-01-27 14:27:35.82	114.59	65.36	-35.8	-36.6	24.7	0.00e+00	0	32	0	799014912	46	5476
2026-01-27 14:27:36.83	115.72	65.29	-35.5	-36.2	25.1	0.00e+00	0	32	0	801112064	44	5874
2026-01-27 14:27:37.84	116.84	65.21	-35.1	-35.9	25.4	0.00e+00	91	32	0	802160640	42	6318
2026-01-27 14:27:38.85	117.96	65.13	-35.8	-36.5	25.0	0.00e+00	0	33	0	804257792	42	6827
2026-01-27 14:27:39.86	119.06	65.03	-36.3	-37.1	24.6	0.00e+00	90	33	0	806354944	44	6526
2026-01-27 14:27:40.87	120.16	64.93	-36.5	-37.4	24.4	0.00e+00	0	32	0	808452096	44	6719
2026-01-27 14:27:41.88	121.25	64.81	-36.3	-37.1	24.5	0.00e+00	0	33	0	810549248	44	6511
2026-01-27 14:27:42.89	122.32	64.69	-36.8	-37.6	24.0	0.00e+00	0	33	0	811597824	46	6164
2026-01-27 14:27:43.90	123.38	64.57	-37.2	-38.1	24.1	0.00e+00	0	33	0	813694976	46	6468
2026-01-27 14:27:44.91	124.44	64.43	-36.7	-37.5	24.4	0.00e+00	52	32	0	815792128	46	6088
2026-01-27 14:27:45.92	125.47	64.29	-36.1	-36.9	24.5	0.00e+00	0	33	0	817889280	46	5673
2026-01-27 14:27:46.93	126.50	64.14	-35.5	-36.2	25.1	0.00e+00	89	33	0	819986432	44	5875
2026-01-27 14:27:47.94	127.51	63.99	-34.9	-35.6	25.6	0.00e+00	0	33	0	821035008	44	5466
2026-01-27 14:27:48.95	128.51	63.82	-35.3	-36.1	25.1	0.00e+00	0	32	0	823132160	44	5782
2026-01-27 14:27:49.96	129.50	63.65	-36.3	-37.1	24.5	0.00e+00	0	33	0	825229312	44	6500
2026-01-27 14:27:50.96	130.46	63.48	-37.2	-38.1	23.6	0.00e+00	0	32	0	827326464	46	6513
2026-01-27 14:27:51.98	131.42	63.30	-37.2	-38.1	23.7	0.00e+00	10	33	0	829423616	46	6497
2026-01-27 14:27:52.98	132.35	63.11	-37.4	-38.3	23.6	0.00e+00	0	33	0	831520768	46	6671
2026-01-27 14:27:53.99	133.28	62.92	-36.6	-37.5	24.3	0.00e+00	74	33	0	832569344	46	6047
2026-01-27 14:27:55.00	134.19	62.72	-36.2	-37.0	24.6	0.00e+00	0	33	0	834666496	46	5728
2026-01-27 14:27:56.01	135.09	62.51	-35.4	-36.2	25.2	0.00e+00	92	33	0	836763648	44	5840
2026-01-27 14:27:57.02	135.97	62.30	-35.3	-36.1	25.2	0.00e+00	0	32	0	838860800	44	5771
2026-01-27 14:27:58.03	136.84	62.09	-35.3	-36.1	25.2	0.00e+00	0	33	0	840957952	44	5787
2026-01-27 14:27:59.04	137.69	61.87	-34.7	-35.4	25.7	0.00e+00	0	32	0	842006528	42	6016
2026-01-27 14:28:00.05	138.52	61.65	-33.6	-34.2	26.4	0.00e+00	0	32	0	844103680	40	5894
2026-01-27 14:28:01.06	139.34	61.42	-33.7	-34.4	26.0	0.00e+00	72	33	0	846200832	40	5972
2026-01-27 14:28:02.07	140.15	61.19	-35.7	-36.5	24.9	0.00e+00	0	33	0	848297984	42	6774
2026-01-27 14:28:03.08	140.94	60.95	-36.2	-37.0	24.7	0.00e+00	75	33	0	850395136	44	6436
2026-01-27 14:28:04.09	141.72	60.71	-34.3	-35.0	25.9	0.00e+00	0	33	0	851443712	42	5713
2026-01-27 14:28:05.10	142.48	60.47	-33.9	-34.7	26.2	0.00e+00	0	32	0	853540864	42	5505
2026-01-27 14:28:06.11	143.22	60.22	-34.1	-34.8	26.0	0.00e+00	0	32	0	855638016	40	6275
2026-01-27 14:28:07.12	143.96	59.97	-34.5	-35.2	25.8	0.00e+00	3	33	0	857735168	40	6595
2026-01-27 14:28:08.13	144.68	59.72	-34.5	-35.2	25.7	0.00e+00	21	33	0	859832320	40	6569
2026-01-27 14:28:09.14	145.38	59.46	-34.6	-35.3	25.7	0.00e+00	0	33	0	860880896	42	5939
2026-01-27 14:28:10.15	146.07	59.20	-35.3	-36.1	25.2	0.00e+00	88	33	0	862978048	42	6479
2026-01-27 14:28:11.16	146.75	58.94	-35.2	-36.0	25.4	0.00e+00	0	33	0	865075200	42	6396
2026-01-27 14:28:12.17	147.42	58.68	-34.7	-35.4	25.7	0.00e+00	0	32	0	867172352	42	6016
2026-01-27 14:28:13.18	148.07	58.41	-35.3	-36.1	25.2	0.00e+00	0	33	0	869269504	42	6494
2026-01-27 14:28:14.18	148.70	58.14	-35.5	-36.3	24.8	0.00e+00	0	33	0	870318080	42	6651
2026-01-27 14:28:15.19	149.33	57.87	-34.9	-35.7	25.3	0.00e+00	68	32	0	872415232	42	6238
2026-01-27 14:28:16.20	149.94	57.60	-34.0	-34.8	25.9	0.00e+00	0	32	0	874512384	42	5571
2026-01-27 14:28:17.22	150.55	57.33	-34.5	-35.3	25.6	0.00e+00	89	32	0	876609536	42	5898
2026-01-27 14:28:18.22	151.13	57.05	-34.8	-35.6	25.6	0.00e+00	0	32	0	878706688	42	6117
2026-01-27 14:28:19.23	151.71	56.78	-34.4	-35.1	25.8	0.00e+00	0	32	0	879755264	42	5820
2026-01-27 14:28:20.24	152.27	56.50	-33.8	-34.5	25.4	0.00e+00	0	32	0	881852416	42	5427
2026-01-27 14:28:21.25	152.83	56.22	-34.2	-34.9	25.9	0.00e+00	0	32	0	883949568	42	5679
2026-01-27 14:28:22.26	153.37	55.94	-34.5	-35.2	25.5	0.00e+00	3	33	0	886046720	42	5894
2026-01-27 14:28:23.27	153.91	55.66	-34.7	-35.5	25.4	0.00e+00	0	33	0	888143872	42	6064
2026-01-27 14:28:24.28	154.43	55.37	-34.8	-35.6	25.5	0.00e+00	92	32	0	889192448	42	6159
2026-01-27 14:28:25.29	154.94	55.09	-34.7	-35.5	25.5	0.00e+00	0	32	0	891289600	42	6096
2026-01-27 14:28:26.30	155.45	54.81	-34.6	-35.3	25.7	0.00e+00	92	33	0	893386752	42	5945
2026-01-27 14:28:27.31	155.94	54.52	-35.0	-35.8	25.5	0.00e+00	0	32	0	895483904	42	6276
2026-01-27 14:28:28.32	156.42	54.24	-35.8	-36.6	24.9	0.00e+00	0	33	0	897581056	44	6153
2026-01-27 14:28:29.33	156.90	53.95	-35.6	-36.4	25.0	0.00e+00	0	32	0	898629632	44	6018
2026-01-27 14:28:30.34	157.36	53.67	-36.2	-37.1	24.4	0.00e+00	0	32	0	900726784	44	6475
2026-01-27 14:28:31.35	157.82	53.38	-37.6	-38.6	23.3	0.00e+00	80	33	0	902823936	46	6849
2026-01-27 14:28:32.36	158.26	53.10	-38.1	-39.0	23.3	0.00e+00	0	32	0	904921088	48	6460
2026-01-27 14:28:33.37	158.70	52.81	-36.6	-37.4	24.2	0.00e+00	90	32	0	907018240	48	5372
2026-01-27 14:28:34.37	159.13	52.53	-36.4	-37.2	24.5	0.00e+00	0	32	0	909115392	46	5885
2026-01-27 14:28:35.38	159.55	52.24	-37.3	-38.3	23.6	0.00e+00	0	32	0	910163968	46	6621
2026-01-27 14:28:36.39	159.96	51.95	-38.4	-39.5	22.7	0.00e+00	0	32	0	912261120	48	6776
2026-01-27 14:28:37.40	160.37	51.67	-38.5	-39.5	22.6	0.00e+00	0	33	0	914358272	48	6832
2026-01-27 14:28:38.41	160.77	51.38	-37.2	-38.1	23.9	0.00e+00	92	32	0	916455424	48	5783
2026-01-27 14:28:39.42	161.16	51.10	-37.4	-38.3	23.6	0.00e+00	0	32	0	918552576	48	5911
2026-01-27 14:28:40.43	161.54	50.81	-38.3	-39.4	22.7	0.00e+00	80	33	0	919601152	48	6711
2026-01-27 14:28:41.44	161.92	50.53	-39.2	-40.3	21.9	0.00e+00	0	32	0	921698304	50	6664
2026-01-27 14:28:42.45	162.29	50.25	-39.5	-40.7	21.8	0.00e+00	0	33	0	923795456	50	6981
2026-01-27 14:28:43.46	162.65	49.96	-39.4	-40.6	21.8	0.00e+00	0	32	0	925892608	50	6856
2026-01-27 14:28:44.47	163.01	49.68	-38.7	-39.7	22.7	0.00e+00	0	32	0	927989760	50	6235
2026-01-27 14:28:45.48	163.36	49.40	-38.1	-39.1	23.1	0.00e+00	65	33	0	929038336	50	5799
2026-01-27 14:28:46.48	163.70	49.12	-37.3	-38.2	23.7	0.00e+00	0	32	0	931135488	48	5894
2026-01-27 14:28:47.50	164.04	48.84	-37.6	-38.6	23.2	0.00e+00	75	32	0	933232640	48	6131
2026-01-27 14:28:48.51	164.37	48.56	-38.7	-39.8	22.4	0.00e+00	0	33	0	935329792	48	7011
2026-01-27 14:28:49.52	164.70	48.28	-38.7	-39.8	22.6	0.00e+00	0	33	0	937426944	50	6280
2026-01-27 14:28:50.52	165.01	48.00	-37.7	-38.6	23.7	0.00e+00	0	33	0	938475520	50	5475
2026-01-27 14:28:51.53	165.33	47.72	-36.3	-37.1	24.7	0.00e+00	0	32	0	940572672	46	5816
2026-01-27 14:28:52.54	165.64	47.45	-35.4	-36.2	25.1	0.00e+00	0	32	0	942669824	44	5843
2026-01-27 14:28:53.55	165.94	47.17	-36.0	-36.8	24.6	0.00e+00	0	32	0	944766976	44	6274
2026-01-27 14:28:54.55	166.24	46.90	-37.4	-38.4	23.5	0.00e+00	92	33	0	946864128	46	6721
2026-01-27 14:28:55.56	166.53	46.63	-38.6	-39.7	22.4	0.00e+00	0	32	0	947912704	48	6970
2026-01-27 14:28:56.57	166.82	46.35	-38.6	-39.7	22.6	0.00e+00	0	33	0	950009856	50	6228
2026-01-27 14:28:57.58	167.10	46.08	-37.4	-38.4	23.6	0.00e+00	0	32	0	952107008	48	5968
2026-01-27 14:28:58.59	167.38	45.81	-36.1	-36.9	24.3	0.00e+00	0	32	0	954204160	46	5637
2026-01-27 14:28:59.60	167.65	45.54	-35.0	-35.7	25.4	0.00e+00	17	33	0	956301312	44	5540
2026-01-27 14:29:00.61	167.92	45.28	-35.2	-35.9	25.2	0.00e+00	0	33	0	957349888	44	5680
2026-01-27 14:29:01.62	168.19	45.01	-36.5	-37.4	24.2	0.00e+00	88	33	0	959447040	44	6699
2026-01-27 14:29:02.63	168.45	44.74	-38.4	-39.5	22.7	0.00e+00	0	33	0	961544192	48	6794
2026-01-27 14:29:03.63	168.70	44.48	-40.8	-42.3	20.2	0.00e+00	92	33	0	963641344	52	7440
2026-01-27 14:29:04.64	168.96	44.22	-41.6	-43.3	19.6	0.00e+00	0	33	0	965738496	56	6657
2026-01-27 14:29:05.65	169.20	43.95	-39.6	-40.8	21.6	0.00e+00	0	33	0	966787072	52	6291
2026-01-27 14:29:06.66	169.45	43.69	-37.8	-38.7	23.3	0.00e+00	0	32	0	968884224	50	5524
2026-01-27 14:29:07.67	169.69	43.43	-36.4	-37.2	24.5	0.00e+00	0	33	0	970981376	46	5875
2026-01-27 14:29:08.68	169.92	43.17	-36.4	-37.2	24.3	0.00e+00	89	33	0	973078528	46	5871
2026-01-27 14:29:09.69	170.16	42.92	-37.3	-38.2	23.7	0.00e+00	0	32	0	975175680	46	6555
2026-01-27 14:29:10.70	170.39	42.66	-38.6	-39.6	22.6	0.00e+00	90	33	0	976224256	48	6861
2026-01-27 14:29:11.71	170.61	42.40	-39.5	-40.6	21.6	0.00e+00	0	33	0	978321408	50	6914
2026-01-27 14:29:12.72	170.84	42.15	-38.5	-39.5	22.7	0.00e+00	0	33	0	980418560	50	6091
2026-01-27 14:29:13.73	171.05	41.90	-37.2	-38.1	23.8	0.00e+00	0	33	0	982515712	48	5816
2026-01-27 14:29:14.74	171.27	41.65	-36.1	-36.9	24.8	0.00e+00	0	33	0	984612864	46	5637
2026-01-27 14:29:15.75	171.48	41.40	-35.6	-36.4	25.1	0.00e+00	0	33	0	985661440	44	5974
2026-01-27 14:29:16.75	171.69	41.15	-35.8	-36.6	24.8	0.00e+00	0	33	0	987758592	44	6117
2026-01-27 14:29:17.76	171.90	40.90	-37.0	-37.9	23.9	0.00e+00	90	33	0	989855744	46	6342
2026-01-27 14:29:18.77	172.10	40.66	-38.1	-39.0	22.9	0.00e+00	0	33	0	991952896	48	6464
2026-01-27 14:29:19.78	172.30	40.41	-40.0	-41.2	20.9	0.00e+00	0	33	0	994050048	52	6611
2026-01-27 14:29:20.79	172.50	40.17	-42.0	-43.7	19.2	0.00e+00	0	32	0	995098624	56	6983
2026-01-27 14:29:21.80	172.69	39.93	-41.7	-43.5	19.4	0.00e+00	0	33	0	997195776	56	6804
2026-01-27 14:29:22.81	172.88	39.69	-41.2	-42.8	19.8	0.00e+00	2	33	0	999292928	56	6314
2026-01-27 14:29:23.82	173.07	39.45	-39.2	-40.4	22.1	0.00e+00	0	33	0	1001390080	52	6012
2026-01-27 14:29:24.83	173.26	39.21	-37.8	-38.8	23.3	0.00e+00	92	32	0	1003487232	50	5579
2026-01-27 14:29:25.84	173.44	38.97	-37.1	-38.0	23.9	0.00e+00	0	33	0	1005584384	48	5753
2026-01-27 14:29:26.85	173.62	38.73	-36.5	-37.3	24.4	0.00e+00	0	33	0	1006632960	46	5939
2026-01-27 14:29:27.86	173.80	38.50	-36.1	-36.9	24.8	0.00e+00	0	33	0	1008730112	46	5673
2026-01-27 14:29:28.87	173.97	38.27	-36.9	-37.7	24.1	0.00e+00	0	33	0	1010827264	46	6203
2026-01-27 14:29:29.87	174.15	38.04	-37.6	-38.5	23.5	0.00e+00	2	33	0	1012924416	46	6803
2026-01-27 14:29:30.88	174.32	37.81	-38.5	-39.6	22.7	0.00e+00	0	33	0	1015021568	48	6860
2026-01-27 14:29:31.89	174.49	37.58	-39.9	-41.1	21.4	0.00e+00	90	33	0	1016070144	52	6490
2026-01-27 14:29:32.90	174.65	37.35	-40.3	-41.6	21.3	0.00e+00	1	33	0	1018167296	52	6881
2026-01-27 14:29:33.91	174.82	37.12	-39.5	-40.6	21.8	0.00e+00	92	33	0	1020264448	52	6173
2026-01-27 14:29:34.92	174.98	36.90	-38.4	-39.4	22.9	0.00e+00	0	33	0	1022361600	50	6030
2026-01-27 14:29:35.93	175.14	36.67	-37.0	-37.9	23.9	0.00e+00	0	33	0	1024458752	48	5652
2026-01-27 14:29:36.94	175.30	36.45	-36.7	-37.5	24.2	0.00e+00	1	33	0	1025507328	46	6061
2026-01-27 14:29:37.95	175.45	36.23	-36.3	-37.1	24.6	0.00e+00	0	33	0	1027604480	46	5805
2026-01-27 14:29:38.96	175.60	36.01	-36.0	-36.8	24.7	0.00e+00	22	33	0	1029701632	46	5607
2026-01-27 14:29:39.97	175.76	35.79	-35.7	-36.4	25.0	0.00e+00	0	33	0	1031798784	44	6022
2026-01-27 14:29:40.98	175.91	35.57	-35.8	-36.5	25.0	0.00e+00	92	32	0	1033895936	44	6096
2026-01-27 14:29:41.99	176.05	35.36	-35.9	-36.7	24.9	0.00e+00	0	33	0	1034944512	44	6191
2026-01-27 14:29:43.00	176.20	35.14	-35.8	-36.6	24.9	0.00e+00	0	33	0	1037041664	44	6111
2026-01-27 14:29:44.01	176.34	34.93	-36.4	-37.2	24.5	0.00e+00	0	33	0	1039138816	44	6576
2026-01-27 14:29:45.02	176.49	34.72	-36.8	-37.7	24.2	0.00e+00	0	33	0	1041235968	46	6184
2026-01-27 14:29:46.03	176.63	34.51	-37.4	-38.3	23.7	0.00e+00	0	33	0	1043333120	46	6632
2026-01-27 14:29:47.04	176.76	34.30	-38.3	-39.3	22.9	0.00e+00	0	33	0	1044381696	48	6634
2026-01-27 14:29:48.05	176.90	34.09	-38.6	-39.7	22.7	0.00e+00	71	33	0	1046478848	48	6948
2026-01-27 14:29:49.06	177.04	33.88	-39.2	-40.2	21.9	0.00e+00	0	33	0	1048576000	50	6609
2026-01-27 14:29:50.07	177.17	33.67	-40.1	-41.2	21.3	0.00e+00	0	33	0	1050673152	52	6611
2026-01-27 14:29:51.08	177.30	33.47	-40.8	-42.1	20.6	0.00e+00	0	33	0	1052770304	52	7325
2026-01-27 14:29:52.09	177.43	33.26	-40.9	-42.2	20.5	0.00e+00	0	33	0	1053818880	54	6603
2026-01-27 14:29:53.10	177.56	33.06	-40.9	-42.3	20.4	0.00e+00	9	33	0	1055916032	54	6649
2026-01-27 14:29:54.11	177.69	32.86	-40.8	-42.1	20.6	0.00e+00	0	33	0	1058013184	54	6520
2026-01-27 14:29:55.12	177.81	32.66	-39.6	-40.7	21.8	0.00e+00	70	33	0	1060110336	52	6227
2026-01-27 14:29:56.12	177.94	32.46	-39.5	-40.6	22.1	0.00e+00	0	33	0	1062207488	52	6140
2026-01-27 14:29:57.13	178.06	32.26	-38.6	-39.6	22.8	0.00e+00	33	33	0	1063256064	50	6113
2026-01-27 14:29:58.14	178.18	32.07	-37.7	-38.6	23.5	0.00e+00	0	33	0	1065353216	50	5479
2026-01-27 14:29:59.15	178.30	31.87	-37.6	-38.5	23.5	0.00e+00	0	33	0	1067450368	48	6053
2026-01-27 14:30:00.16	178.42	31.68	-37.6	-38.4	23.6	0.00e+00	87	33	0	1069547520	48	6033
2026-01-27 14:30:01.17	178.54	31.48	-38.1	-39.0	23.2	0.00e+00	0	33	0	1071644672	48	6424
2026-01-27 14:30:02.18	178.65	31.29	-38.4	-39.4	22.8	0.00e+00	92	33	0	1073741824	48	6713
2026-01-27 14:30:03.19	178.77	31.10	-38.5	-39.5	22.7	0.00e+00	0	33	0	1074790400	48	6814
2026-01-27 14:30:04.20	178.88	30.91	-38.9	-39.9	22.4	0.00e+00	62	33	0	1076887552	50	6368
2026-01-27 14:30:05.21	178.99	30.72	-39.6	-40.8	21.7	0.00e+00	0	33	0	1078984704	50	7024
2026-01-27 14:30:06.22	179.10	30.53	-39.6	-40.7	21.7	0.00e+00	0	33	0	1081081856	52	6224
2026-01-27 14:30:07.23	179.21	30.35	-39.4	-40.5	22.0	0.00e+00	0	33	0	1083179008	52	6060
2026-01-27 14:30:08.24	179.32	30.16	-40.0	-41.1	21.4	0.00e+00	0	33	0	1084227584	52	6538
2026-01-27 14:30:09.25	179.43	29.98	-39.3	-40.4	22.1	0.00e+00	88	33	0	1086324736	52	5987
2026-01-27 14:30:10.26	179.54	29.79	-39.3	-40.4	22.1	0.00e+00	0	33	0	1088421888	52	5984
2026-01-27 14:30:11.27	179.64	29.61	-39.2	-40.3	22.0	0.00e+00	49	33	0	1090519040	52	5927
2026-01-27 14:30:12.28	179.74	29.43	-38.9	-39.9	22.4	0.00e+00	0	33	0	1092616192	52	5663
2026-01-27 14:30:13.28	179.85	29.25	-38.8	-39.8	22.4	0.00e+00	0	33	0	1093664768	52	5602
2026-01-27 14:30:14.29	179.95	29.07	-38.9	-39.9	22.5	0.00e+00	0	33	0	1095761920	52	5642
2026-01-27 14:30:15.30	180.05	28.90	-38.9	-39.9	22.4	0.00e+00	0	33	0	1097859072	52	5634
2026-01-27 14:30:16.31	180.15	28.72	-39.1	-40.1	22.2	0.00e+00	62	33	0	1099956224	50	6506
2026-01-27 14:30:17.32	180.25	28.54	-38.8	-39.8	22.4	0.00e+00	0	33	0	1102053376	50	6288
2026-01-27 14:30:18.33	180.34	28.37	-38.0	-38.9	23.4	0.00e+00	92	33	0	1103101952	50	5646
2026-01-27 14:30:19.34	180.44	28.19	-37.6	-38.5	23.5	0.00e+00	0	33	0	1105199104	48	6043
2026-01-27 14:30:20.35	180.53	28.02	-37.4	-38.3	23.8	0.00e+00	0	33	0	1107296256	48	5913
2026-01-27 14:30:21.35	180.63	27.85	-36.8	-37.6	24.0	0.00e+00	0	33	0	1109393408	48	5482
2026-01-27 14:30:22.36	180.72	27.68	-37.0	-37.8	24.2	0.00e+00	0	33	0	1111490560	48	5596
2026-01-27 14:30:23.37	180.81	27.51	-36.9	-37.7	24.1	0.00e+00	35	33	0	1112539136	46	6227
2026-01-27 14:30:24.38	180.90	27.34	-37.0	-37.8	24.0	0.00e+00	0	33	0	1114636288	46	6277
2026-01-27 14:30:25.39	181.00	27.17	-36.8	-37.6	24.0	0.00e+00	92	33	0	1116733440	46	6155
2026-01-27 14:30:26.40	181.08	27.01	-36.4	-37.3	24.4	0.00e+00	0	33	0	1118830592	46	5908
2026-01-27 14:30:27.41	181.17	26.84	-36.5	-37.3	24.3	0.00e+00	0	33	0	1120927744	46	5952
2026-01-27 14:30:28.42	181.26	26.67	-36.5	-37.3	24.3	0.00e+00	0	33	0	1121976320	46	5950
2026-01-27 14:30:29.43	181.35	26.51	-36.3	-37.1	24.4	0.00e+00	0	33	0	1124073472	46	5791
2026-01-27 14:30:30.44	181.43	26.35	-36.4	-37.3	24.3	0.00e+00	0	33	0	1126170624	46	5919
2026-01-27 14:30:31.45	181.52	26.18	-36.3	-37.2	24.4	0.00e+00	0	33	0	1128267776	46	5836
2026-01-27 14:30:32.46	181.60	26.02	-36.2	-37.0	24.5	0.00e+00	83	33	0	1130364928	46	5720
2026-01-27 14:30:33.47	181.69	25.86	-36.3	-37.1	24.6	0.00e+00	0	33	0	1131413504	46	5819
2026-01-27 14:30:34.48	181.77	25.70	-36.3	-37.2	24.4	0.00e+00	0	33	0	1133510656	46	5833
2026-01-27 14:30:35.49	181.85	25.54	-36.6	-37.4	24.3	0.00e+00	0	33	0	1135607808	46	6029
2026-01-27 14:30:36.50	181.94	25.39	-36.8	-37.6	24.0	0.00e+00	0	33	0	1137704960	46	6154
2026-01-27 14:30:37.51	182.02	25.23	-37.1	-37.9	23.9	0.00e+00	65	33	0	1139802112	46	6383
2026-01-27 14:30:38.52	182.10	25.07	-37.4	-38.2	23.6	0.00e+00	0	33	0	1141899264	46	6606
2026-01-27 14:30:39.53	182.17	24.92	-37.4	-38.3	23.7	0.00e+00	92	33	0	1142947840	46	6652
2026-01-27 14:30:40.53	182.25	24.76	-37.5	-38.5	23.5	0.00e+00	0	33	0	1145044992	46	6780
2026-01-27 14:30:41.54	182.33	24.61	-37.5	-38.4	23.6	0.00e+00	38	33	0	1147142144	46	6756
2026-01-27 14:30:42.55	182.41	24.46	-37.3	-38.2	23.6	0.00e+00	0	33	0	1149239296	46	6563
2026-01-27 14:30:43.56	182.48	24.31	-36.9	-37.7	24.1	0.00e+00	0	33	0	1150287872	46	6238
2026-01-27 14:30:44.57	182.56	24.15	-36.9	-37.8	24.1	0.00e+00	0	33	0	1152385024	46	6246
2026-01-27 14:30:45.58	182.63	24.00	-36.9	-37.7	24.1	0.00e+00	0	32	0	1154482176	46	6241
2026-01-27 14:30:46.59	182.71	23.85	-36.6	-37.5	24.1	0.00e+00	82	33	0	1156579328	46	6071
2026-01-27 14:30:47.60	182.78	23.71	-36.6	-37.5	24.2	0.00e+00	0	33	0	1158676480	46	6070
2026-01-27 14:30:48.61	182.85	23.56	-36.3	-37.1	24.5	0.00e+00	68	33	0	1159725056	46	5821
2026-01-27 14:30:49.62	182.93	23.41	-36.2	-37.0	24.5	0.00e+00	0	33	0	1161822208	46	5759
2026-01-27 14:30:50.63	183.00	23.27	-36.2	-37.1	24.6	0.00e+00	0	33	0	1163919360	46	5768
2026-01-27 14:30:51.64	183.07	23.12	-36.1	-36.9	24.6	0.00e+00	0	33	0	1166016512	46	5686
2026-01-27 14:30:52.65	183.14	22.97	-36.1	-36.9	24.6	0.00e+00	0	32	0	1168113664	46	5659
2026-01-27 14:30:53.66	183.21	22.83	-36.0	-36.8	24.6	0.00e+00	0	33	0	1170210816	46	5624
2026-01-27 14:30:54.67	183.28	22.69	-36.1	-36.9	24.6	0.00e+00	0	33	0	1171259392	46	5647
2026-01-27 14:30:55.68	183.35	22.55	-36.0	-36.7	24.7	0.00e+00	90	33	0	1173356544	46	5565
2026-01-27 14:30:56.68	183.41	22.41	-35.9	-36.7	24.8	0.00e+00	0	33	0	1175453696	46	5554
2026-01-27 14:30:57.69	183.48	22.26	-35.7	-36.5	24.9	0.00e+00	0	33	0	1177550848	44	6069
2026-01-27 14:30:58.70	183.55	22.12	-35.7	-36.5	24.9	0.00e+00	0	33	0	1179648000	44	6069
2026-01-27 14:30:59.71	183.61	21.98	-35.7	-36.5	24.9	0.00e+00	0	33	0	1180696576	44	6044
2026-01-27 14:31:00.72	183.68	21.85	-36.0	-36.8	24.7	0.00e+00	83	33	0	1182793728	44	6284
2026-01-27 14:31:01.73	183.74	21.71	-35.9	-36.7	24.7	0.00e+00	0	33	0	1184890880	44	6230
2026-01-27 14:31:02.74	183.81	21.57	-36.3	-37.1	24.5	0.00e+00	86	32	0	1186988032	44	6509
2026-01-27 14:31:03.75	183.87	21.43	-36.5	-37.4	24.2	0.00e+00	0	33	0	1189085184	44	6708
2026-01-27 14:31:04.76	183.94	21.30	-36.6	-37.4	24.3	0.00e+00	0	33	0	1190133760	44	6766
2026-01-27 14:31:05.77	184.00	21.16	-36.7	-37.6	24.0	0.00e+00	0	32	0	1192230912	46	6133
2026-01-27 14:31:06.78	184.06	21.03	-37.1	-38.0	23.9	0.00e+00	0	32	0	1194328064	46	6392
2026-01-27 14:31:07.79	184.12	20.89	-37.2	-38.1	23.7	0.00e+00	0	33	0	1196425216	46	6520
2026-01-27 14:31:08.79	184.19	20.76	-37.1	-38.1	23.7	0.00e+00	0	33	0	1198522368	46	6475
2026-01-27 14:31:09.80	184.25	20.63	-37.1	-38.0	23.8	0.00e+00	51	33	0	1199570944	46	6429
2026-01-27 14:31:10.82	184.31	20.50	-37.0	-37.9	23.9	0.00e+00	0	33	0	1201668096	46	6374
2026-01-27 14:31:11.82	184.37	20.37	-36.9	-37.8	23.9	0.00e+00	0	33	0	1203765248	46	6304
2026-01-27 14:31:12.83	184.43	20.24	-36.9	-37.8	23.9	0.00e+00	0	33	0	1205862400	46	6315
2026-01-27 14:31:13.84	184.49	20.11	-36.7	-37.6	24.0	0.00e+00	0	33	0	1207959552	46	6144
2026-01-27 14:31:14.85	184.54	19.98	-36.4	-37.3	24.2	0.00e+00	73	33	0	1209008128	46	5961
2026-01-27 14:31:15.86	184.60	19.85	-36.4	-37.3	24.3	0.00e+00	0	33	0	1211105280	46	5908
2026-01-27 14:31:16.87	184.66	19.72	-36.2	-37.1	24.3	0.00e+00	90	33	0	1213202432	46	5808
2026-01-27 14:31:17.88	184.72	19.59	-35.9	-36.7	24.7	0.00e+00	0	33	0	1215299584	46	5559
2026-01-27 14:31:18.89	184.77	19.47	-35.8	-36.7	24.7	0.00e+00	0	33	0	1217396736	46	5509
2026-01-27 14:31:19.90	184.83	19.34	-35.7	-36.5	24.8	0.00e+00	0	33	0	1218445312	44	6099
