passes_logs/2026/01/27/R4.6S_Anadyr/R4.6S_Anadyr__20260127_174002_SUOMI_NPP_rec.log

#Pass ID: 20260127_174002_SUOMI NPP
#Satellite: SUOMI NPP
#Configuration: NPP
#almurnet v.1.7.20251203
#Start time: 2026-01-27 17:40:04

#Version: 2.2.20231116
#Station: R4.6S_Anadyr
#Location: 177.4865 lon 64.73178 lat
#TLE: 1 37849U 11061A   26026.87508736  .00000176  00000+0  10464-3 0  9991
#TLE: 2 37849  98.7822 328.8221 0002127  43.3055 316.8288 14.19530452738397

#Time	Az	El	Level	Level2	SNR	BER	BlckErr	Temp	State	Recorded	gain1	gain2
2026-01-27 17:40:04.66	32.96	0.14	-48.5	-60.1	3.5	8.45e-01	0	30	0	0	60	36735
2026-01-27 17:40:05.66	32.90	0.19	-48.6	-63.9	3.6	1.51e+00	0	31	104	0	60	56359
2026-01-27 17:40:06.67	32.84	0.24	-48.7	-63.9	3.6	1.51e+00	0	31	104	0	60	56647
2026-01-27 17:40:07.68	32.78	0.30	-48.7	-63.8	3.6	1.51e+00	0	31	104	0	60	56234
2026-01-27 17:40:08.69	32.72	0.35	-48.7	-63.9	3.6	1.51e+00	0	31	104	0	60	56567
2026-01-27 17:40:09.70	32.65	0.40	-48.7	-63.8	3.5	1.51e+00	0	31	104	0	60	56234
2026-01-27 17:40:10.71	32.59	0.46	-48.7	-63.9	3.6	1.51e+00	0	31	104	0	60	56622
2026-01-27 17:40:11.72	32.53	0.51	-48.7	-63.9	3.6	1.51e+00	0	31	104	0	60	56652
2026-01-27 17:40:12.73	32.46	0.56	-48.7	-63.9	3.6	1.51e+00	0	31	104	0	60	56699
2026-01-27 17:40:13.74	32.40	0.62	-48.8	-63.9	3.6	1.51e+00	0	31	104	0	60	56674
2026-01-27 17:40:14.75	32.34	0.67	-48.7	-64.0	3.5	1.51e+00	0	31	104	0	60	57022
2026-01-27 17:40:15.76	32.27	0.73	-48.7	-63.9	3.6	1.51e+00	0	31	104	0	60	56549
2026-01-27 17:40:16.77	32.21	0.78	-48.7	-63.9	3.6	1.51e+00	0	31	104	0	60	56498
2026-01-27 17:40:17.78	32.14	0.83	-48.7	-63.8	3.6	1.51e+00	0	31	104	0	60	56146
2026-01-27 17:40:18.79	32.08	0.89	-48.6	-63.8	3.6	1.51e+00	0	31	104	0	60	55929
2026-01-27 17:40:19.80	32.01	0.94	-48.5	-63.8	3.6	1.51e+00	0	31	104	0	60	55737
2026-01-27 17:40:20.80	31.95	1.00	-48.5	-63.7	3.6	1.51e+00	0	32	104	0	60	55456
2026-01-27 17:40:21.81	31.88	1.05	-48.4	-63.6	3.6	1.51e+00	0	31	104	0	60	54975
2026-01-27 17:40:22.82	31.82	1.10	-48.4	-63.6	3.6	1.51e+00	0	31	104	0	60	54730
2026-01-27 17:40:23.83	31.75	1.16	-48.3	-63.5	3.6	1.51e+00	0	32	104	0	60	54018
2026-01-27 17:40:24.84	31.68	1.21	-48.2	-63.4	3.6	1.51e+00	0	32	104	0	60	53749
2026-01-27 17:40:25.85	31.62	1.27	-48.1	-63.3	3.6	1.51e+00	0	31	104	0	60	52933
2026-01-27 17:40:26.86	31.55	1.32	-48.0	-63.2	3.6	1.51e+00	0	31	104	0	60	52301
2026-01-27 17:40:27.87	31.48	1.38	-47.8	-63.0	3.6	1.51e+00	0	32	104	0	60	50933
2026-01-27 17:40:28.88	31.42	1.43	-47.5	-62.6	3.6	1.51e+00	0	32	104	0	60	48957
2026-01-27 17:40:29.89	31.35	1.49	-47.2	-62.3	3.6	1.51e+00	0	32	104	0	60	47012
2026-01-27 17:40:30.90	31.28	1.54	-47.2	-62.3	3.6	1.51e+00	0	32	104	0	60	47023
2026-01-27 17:40:31.91	31.21	1.60	-47.2	-62.2	3.6	1.51e+00	0	32	104	0	60	46537
2026-01-27 17:40:32.92	31.14	1.65	-47.1	-62.2	3.6	1.51e+00	0	32	104	0	60	46497
2026-01-27 17:40:33.93	31.08	1.71	-47.1	-62.2	3.6	1.51e+00	0	32	104	0	60	46822
2026-01-27 17:40:34.94	31.01	1.76	-47.1	-62.3	3.6	1.51e+00	0	32	104	0	60	46894
2026-01-27 17:40:35.95	30.94	1.82	-47.1	-62.3	3.6	1.51e+00	0	32	104	0	60	47241
2026-01-27 17:40:36.96	30.87	1.87	-47.2	-62.3	3.6	1.51e+00	0	32	104	0	60	47313
2026-01-27 17:40:37.97	30.80	1.93	-47.1	-62.3	3.6	1.51e+00	0	32	104	0	60	47177
2026-01-27 17:40:38.98	30.73	1.98	-47.1	-62.3	3.6	1.51e+00	0	32	104	0	60	46940
2026-01-27 17:40:39.99	30.66	2.04	-47.1	-62.3	3.6	1.51e+00	0	32	104	0	60	47072
2026-01-27 17:40:41.00	30.59	2.09	-47.1	-62.2	3.6	1.51e+00	0	32	104	0	60	46794
2026-01-27 17:40:42.01	30.52	2.15	-47.2	-62.3	3.6	1.51e+00	0	32	104	0	60	46894
2026-01-27 17:40:43.02	30.45	2.20	-47.1	-62.2	3.6	1.51e+00	0	32	104	0	60	46695
2026-01-27 17:40:44.03	30.37	2.26	-47.1	-62.2	3.6	1.51e+00	0	32	104	0	60	46656
2026-01-27 17:40:45.04	30.30	2.32	-47.1	-62.2	3.6	1.51e+00	0	32	104	0	60	46784
2026-01-27 17:40:46.04	30.23	2.37	-47.1	-62.3	3.6	1.51e+00	0	32	104	0	60	47121
2026-01-27 17:40:47.05	30.16	2.43	-47.1	-62.3	3.6	1.51e+00	0	32	104	0	60	46886
2026-01-27 17:40:48.06	30.09	2.48	-47.1	-62.2	3.6	1.51e+00	0	32	104	0	60	46752
2026-01-27 17:40:49.07	30.01	2.54	-47.1	-62.2	3.6	1.51e+00	0	32	104	0	60	46638
2026-01-27 17:40:50.07	29.94	2.60	-47.1	-62.3	3.6	1.51e+00	0	32	104	0	60	47054
2026-01-27 17:40:51.08	29.87	2.65	-47.1	-62.3	3.6	1.51e+00	0	32	104	0	60	47202
2026-01-27 17:40:52.10	29.79	2.71	-47.1	-62.2	3.6	1.51e+00	0	32	104	0	60	46401
2026-01-27 17:40:53.11	29.72	2.76	-47.1	-61.7	3.6	1.51e+00	0	32	104	0	60	43722
2026-01-27 17:40:54.11	29.64	2.82	-47.1	-61.7	3.6	1.51e+00	0	32	104	0	60	44036
2026-01-27 17:40:55.13	29.57	2.88	-47.1	-61.9	3.6	1.51e+00	0	32	104	0	60	44964
2026-01-27 17:40:56.14	29.49	2.93	-47.1	-62.2	3.6	1.51e+00	0	32	104	0	60	46771
2026-01-27 17:40:57.15	29.42	2.99	-47.1	-60.6	3.6	1.51e+00	0	32	104	0	60	38822
2026-01-27 17:40:58.16	29.34	3.05	-46.8	-57.1	4.8	1.50e+00	0	32	104	0	60	25751
2026-01-27 17:40:59.16	29.27	3.10	-46.1	-52.4	8.0	6.99e-02	7	32	0	1048576	60	15102
2026-01-27 17:41:00.17	29.19	3.16	-45.4	-50.0	10.9	3.65e-03	0	32	0	3145728	60	11469
2026-01-27 17:41:01.19	29.11	3.22	-44.0	-47.1	14.0	2.27e-04	0	32	0	4194304	60	8198
2026-01-27 17:41:02.20	29.04	3.27	-43.8	-46.8	14.5	1.50e-06	65	32	0	6291456	60	7876
2026-01-27 17:41:03.20	28.96	3.33	-46.9	-55.7	5.4	2.35e-01	0	32	0	8388608	60	22098
2026-01-27 17:41:04.22	28.88	3.39	-47.0	-58.8	4.1	8.16e-01	0	32	104	9437184	60	31556
2026-01-27 17:41:05.22	28.81	3.45	-44.6	-48.2	13.5	3.97e-02	0	32	0	9437184	60	9291
2026-01-27 17:41:06.24	28.73	3.50	-41.9	-43.8	17.8	0.00e+00	92	32	0	11534336	58	6279
2026-01-27 17:41:07.24	28.65	3.56	-47.0	-61.1	3.6	8.63e-01	0	32	104	12582912	60	40901
2026-01-27 17:41:08.25	28.57	3.62	-41.9	-43.9	16.7	1.47e+00	0	32	104	12582912	56	7127
2026-01-27 17:41:09.26	28.49	3.67	-40.5	-42.1	19.0	0.00e+00	0	32	0	12582912	54	6487
2026-01-27 17:41:10.27	28.41	3.73	-41.0	-42.7	18.4	0.00e+00	0	32	0	14680064	54	6958
2026-01-27 17:41:11.29	28.33	3.79	-40.9	-42.6	18.7	0.00e+00	66	32	0	16777216	54	6858
2026-01-27 17:41:12.30	28.25	3.85	-40.6	-42.2	19.2	0.00e+00	0	32	0	18874368	54	6542
2026-01-27 17:41:13.31	28.17	3.91	-41.0	-42.6	18.5	0.00e+00	91	32	0	20971520	54	6914
2026-01-27 17:41:14.31	28.09	3.96	-40.7	-42.3	19.1	0.00e+00	0	32	0	22020096	54	6643
2026-01-27 17:41:15.33	28.01	4.02	-40.5	-42.0	19.2	0.00e+00	0	32	0	24117248	54	6444
2026-01-27 17:41:16.33	27.93	4.08	-40.6	-42.1	19.0	0.00e+00	0	32	0	26214400	54	6538
2026-01-27 17:41:17.34	27.85	4.14	-41.3	-43.0	18.2	0.00e+00	0	32	0	28311552	54	7190
2026-01-27 17:41:18.35	27.76	4.19	-41.3	-43.0	18.4	0.00e+00	11	32	0	30408704	54	7177
2026-01-27 17:41:19.36	27.68	4.25	-41.2	-42.9	18.5	0.00e+00	0	32	0	32505856	54	7111
2026-01-27 17:41:20.37	27.60	4.31	-40.7	-42.2	19.0	0.00e+00	91	32	0	33554432	54	6593
2026-01-27 17:41:21.38	27.52	4.37	-41.0	-42.7	18.6	0.00e+00	0	32	0	35651584	54	6928
2026-01-27 17:41:22.39	27.43	4.43	-41.1	-42.7	18.6	0.00e+00	0	32	0	37748736	54	6996
2026-01-27 17:41:23.40	27.35	4.49	-41.1	-42.8	18.6	0.00e+00	0	32	0	39845888	54	7026
2026-01-27 17:41:24.41	27.27	4.54	-41.3	-43.0	18.4	0.00e+00	0	32	0	41943040	54	7217
2026-01-27 17:41:25.41	27.18	4.60	-41.2	-42.9	18.5	0.00e+00	70	32	0	42991616	54	7104
2026-01-27 17:41:26.42	27.10	4.66	-41.3	-43.0	18.4	0.00e+00	0	32	0	45088768	54	7208
2026-01-27 17:41:27.42	27.01	4.72	-41.4	-43.1	18.2	0.00e+00	92	32	0	47185920	54	7336
2026-01-27 17:41:28.43	26.93	4.78	-41.6	-43.4	18.1	0.00e+00	0	32	0	49283072	54	7563
2026-01-27 17:41:29.44	26.84	4.84	-41.4	-43.1	18.4	0.00e+00	0	32	0	51380224	54	7324
2026-01-27 17:41:30.45	26.75	4.89	-41.5	-43.3	18.2	0.00e+00	0	32	0	52428800	56	6660
2026-01-27 17:41:31.46	26.67	4.95	-41.5	-43.3	18.3	0.00e+00	0	32	0	54525952	56	6621
2026-01-27 17:41:32.47	26.58	5.01	-41.6	-43.3	18.1	0.00e+00	63	32	0	56623104	56	6684
2026-01-27 17:41:33.48	26.49	5.07	-41.4	-43.1	18.5	0.00e+00	0	32	0	58720256	56	6490
2026-01-27 17:41:34.49	26.41	5.13	-41.2	-42.9	18.6	0.00e+00	90	32	0	60817408	56	6324
2026-01-27 17:41:35.50	26.32	5.19	-41.0	-42.6	18.9	0.00e+00	0	32	0	61865984	56	6150
2026-01-27 17:41:36.51	26.23	5.25	-41.3	-43.0	18.5	0.00e+00	16	32	0	63963136	56	6392
2026-01-27 17:41:37.52	26.14	5.31	-41.0	-42.6	18.9	0.00e+00	0	32	0	66060288	56	6162
2026-01-27 17:41:38.53	26.05	5.37	-41.3	-42.9	18.8	0.00e+00	0	32	0	68157440	56	6364
2026-01-27 17:41:39.54	25.96	5.43	-41.0	-42.5	19.1	0.00e+00	0	32	0	70254592	56	6090
2026-01-27 17:41:40.54	25.87	5.49	-41.0	-42.6	19.1	0.00e+00	0	32	0	71303168	56	6155
2026-01-27 17:41:41.55	25.78	5.55	-40.9	-42.4	19.3	0.00e+00	92	32	0	73400320	56	5994
2026-01-27 17:41:42.57	25.69	5.61	-40.8	-42.3	19.3	0.00e+00	0	32	0	75497472	54	6631
2026-01-27 17:41:43.58	25.60	5.67	-40.4	-41.8	19.5	0.00e+00	92	32	0	77594624	54	6302
2026-01-27 17:41:44.59	25.51	5.73	-40.4	-41.8	19.6	0.00e+00	0	32	0	79691776	54	6307
2026-01-27 17:41:45.59	25.42	5.78	-40.6	-42.0	19.5	0.00e+00	0	32	0	80740352	54	6439
2026-01-27 17:41:46.60	25.32	5.84	-40.7	-42.1	19.5	0.00e+00	0	32	0	82837504	54	6523
2026-01-27 17:41:47.61	25.23	5.90	-40.5	-41.9	19.7	0.00e+00	0	32	0	84934656	54	6379
2026-01-27 17:41:48.62	25.14	5.96	-40.4	-41.8	19.8	0.00e+00	27	32	0	87031808	54	6260
2026-01-27 17:41:49.63	25.05	6.03	-40.3	-41.7	19.7	0.00e+00	0	32	0	89128960	54	6239
2026-01-27 17:41:50.64	24.95	6.09	-40.4	-41.8	19.7	0.00e+00	92	32	0	90177536	54	6282
2026-01-27 17:41:51.65	24.86	6.15	-40.3	-41.7	19.6	0.00e+00	0	32	0	92274688	54	6235
2026-01-27 17:41:52.66	24.76	6.21	-40.2	-41.6	19.9	0.00e+00	0	32	0	94371840	54	6133
2026-01-27 17:41:53.67	24.67	6.27	-40.2	-41.6	19.9	0.00e+00	0	32	0	96468992	54	6127
2026-01-27 17:41:54.68	24.57	6.33	-40.1	-41.4	20.1	0.00e+00	0	32	0	98566144	54	6005
2026-01-27 17:41:55.69	24.48	6.39	-39.9	-41.2	20.2	0.00e+00	69	32	0	100663296	54	5882
2026-01-27 17:41:56.70	24.38	6.45	-39.9	-41.2	20.5	0.00e+00	0	32	0	101711872	54	5872
2026-01-27 17:41:57.70	24.28	6.51	-39.9	-41.1	20.4	0.00e+00	70	32	0	103809024	54	5814
2026-01-27 17:41:58.71	24.19	6.57	-39.8	-41.0	20.5	0.00e+00	0	32	0	105906176	52	6439
2026-01-27 17:41:59.72	24.09	6.63	-39.9	-41.2	20.4	0.00e+00	0	32	0	108003328	52	6586
2026-01-27 17:42:00.73	23.99	6.69	-39.9	-41.2	20.4	0.00e+00	0	32	0	110100480	52	6576
2026-01-27 17:42:01.74	23.89	6.75	-40.0	-41.3	20.4	0.00e+00	0	32	0	111149056	52	6631
2026-01-27 17:42:02.75	23.79	6.81	-39.7	-41.0	20.6	0.00e+00	60	32	0	113246208	52	6392
2026-01-27 17:42:03.76	23.69	6.87	-39.6	-40.8	20.7	0.00e+00	0	32	0	115343360	52	6313
2026-01-27 17:42:04.77	23.59	6.93	-39.6	-40.9	20.7	0.00e+00	63	32	0	117440512	52	6322
2026-01-27 17:42:05.78	23.49	6.99	-39.6	-40.8	20.7	0.00e+00	0	32	0	119537664	52	6291
2026-01-27 17:42:06.79	23.39	7.06	-39.8	-41.1	20.6	0.00e+00	30	32	0	120586240	52	6482
2026-01-27 17:42:07.80	23.29	7.12	-39.9	-41.2	20.5	0.00e+00	0	32	0	122683392	52	6574
2026-01-27 17:42:08.81	23.19	7.18	-39.8	-41.0	20.6	0.00e+00	0	32	0	124780544	52	6422
2026-01-27 17:42:09.82	23.09	7.24	-39.9	-41.2	20.4	0.00e+00	65	32	0	126877696	52	6578
2026-01-27 17:42:10.83	22.99	7.30	-40.1	-41.3	20.2	0.00e+00	0	32	0	128974848	52	6683
2026-01-27 17:42:11.84	22.88	7.36	-40.0	-41.3	20.4	0.00e+00	68	32	0	130023424	52	6667
2026-01-27 17:42:12.85	22.78	7.42	-40.0	-41.3	20.4	0.00e+00	0	32	0	132120576	52	6666
2026-01-27 17:42:13.86	22.68	7.49	-40.1	-41.4	20.3	0.00e+00	92	32	0	134217728	52	6701
2026-01-27 17:42:14.87	22.57	7.55	-39.9	-41.2	20.4	0.00e+00	0	32	0	136314880	52	6577
2026-01-27 17:42:15.87	22.47	7.61	-40.4	-41.8	19.9	0.00e+00	0	32	0	138412032	52	7046
2026-01-27 17:42:16.88	22.36	7.67	-40.4	-41.7	20.0	0.00e+00	49	32	0	139460608	52	6982
2026-01-27 17:42:17.89	22.26	7.73	-40.7	-42.1	19.8	0.00e+00	0	32	0	141557760	52	7287
2026-01-27 17:42:18.90	22.15	7.79	-40.7	-42.1	19.6	0.00e+00	67	32	0	143654912	54	6536
2026-01-27 17:42:19.91	22.05	7.86	-40.4	-41.7	20.0	0.00e+00	0	32	0	145752064	54	6218
2026-01-27 17:42:20.92	21.94	7.92	-40.5	-41.9	19.7	0.00e+00	82	32	0	147849216	54	6330
2026-01-27 17:42:21.93	21.83	7.98	-40.6	-42.0	19.8	0.00e+00	0	32	0	148897792	54	6404
2026-01-27 17:42:22.94	21.72	8.04	-40.5	-41.9	19.8	0.00e+00	0	32	0	150994944	54	6347
2026-01-27 17:42:23.95	21.62	8.10	-40.5	-41.9	20.0	0.00e+00	0	32	0	153092096	54	6376
2026-01-27 17:42:24.96	21.51	8.17	-40.3	-41.6	20.1	0.00e+00	0	32	0	155189248	54	6130
2026-01-27 17:42:25.97	21.40	8.23	-40.2	-41.5	20.2	0.00e+00	70	32	0	157286400	54	6088
2026-01-27 17:42:26.98	21.29	8.29	-40.2	-41.5	20.2	0.00e+00	0	32	0	158334976	54	6084
2026-01-27 17:42:27.99	21.18	8.35	-40.1	-41.4	20.4	0.00e+00	72	32	0	160432128	54	5972
2026-01-27 17:42:29.00	21.07	8.42	-40.2	-41.5	20.2	0.00e+00	0	32	0	162529280	54	6058
2026-01-27 17:42:30.01	20.96	8.48	-39.9	-41.2	20.6	0.00e+00	0	32	0	164626432	54	5851
2026-01-27 17:42:31.02	20.84	8.54	-39.9	-41.1	20.6	0.00e+00	0	32	0	166723584	54	5800
2026-01-27 17:42:32.02	20.73	8.60	-40.0	-41.2	20.4	0.00e+00	0	32	0	168820736	54	5881
2026-01-27 17:42:33.03	20.62	8.67	-39.8	-41.1	20.3	0.00e+00	17	32	0	169869312	54	5781
2026-01-27 17:42:34.04	20.51	8.73	-39.8	-41.0	20.3	0.00e+00	0	32	0	171966464	54	5739
2026-01-27 17:42:35.05	20.39	8.79	-39.8	-41.0	20.5	0.00e+00	50	32	0	174063616	54	5759
2026-01-27 17:42:36.06	20.28	8.85	-39.8	-41.1	20.7	0.00e+00	0	32	0	176160768	52	6465
2026-01-27 17:42:37.07	20.16	8.92	-39.8	-41.0	20.7	0.00e+00	0	32	0	178257920	52	6449
2026-01-27 17:42:38.08	20.05	8.98	-39.7	-40.9	20.9	0.00e+00	0	32	0	179306496	52	6353
2026-01-27 17:42:39.09	19.93	9.04	-39.7	-40.9	20.8	0.00e+00	0	32	0	181403648	52	6375
2026-01-27 17:42:40.10	19.82	9.11	-40.0	-41.2	20.5	0.00e+00	31	32	0	183500800	52	6593
2026-01-27 17:42:41.11	19.70	9.17	-39.9	-41.2	20.5	0.00e+00	0	32	0	185597952	52	6588
2026-01-27 17:42:42.12	19.58	9.23	-40.1	-41.4	20.4	0.00e+00	91	32	0	186646528	52	6696
2026-01-27 17:42:43.13	19.46	9.29	-40.1	-41.3	20.4	0.00e+00	0	32	0	188743680	52	6692
2026-01-27 17:42:44.14	19.35	9.36	-39.9	-41.2	20.6	0.00e+00	63	32	0	190840832	52	6580
2026-01-27 17:42:45.14	19.23	9.42	-40.3	-41.7	20.4	0.00e+00	0	32	0	192937984	52	6960
2026-01-27 17:42:46.16	19.11	9.48	-40.2	-41.5	20.3	0.00e+00	0	32	0	195035136	52	6837
2026-01-27 17:42:47.17	18.99	9.55	-40.0	-41.3	20.5	0.00e+00	0	32	0	197132288	52	6668
2026-01-27 17:42:48.18	18.87	9.61	-40.2	-41.5	20.4	0.00e+00	0	32	0	198180864	52	6783
2026-01-27 17:42:49.19	18.75	9.67	-40.0	-41.3	20.4	0.00e+00	71	32	0	200278016	52	6674
2026-01-27 17:42:50.20	18.62	9.74	-39.9	-41.1	20.6	0.00e+00	0	32	0	202375168	52	6507
2026-01-27 17:42:51.21	18.50	9.80	-40.0	-41.3	20.5	0.00e+00	92	32	0	204472320	52	6664
2026-01-27 17:42:52.22	18.38	9.86	-39.9	-41.2	20.7	0.00e+00	0	32	0	206569472	52	6586
2026-01-27 17:42:53.23	18.26	9.93	-39.9	-41.1	20.8	0.00e+00	0	32	0	207618048	52	6511
2026-01-27 17:42:54.24	18.13	9.99	-39.7	-40.9	20.8	0.00e+00	0	32	0	209715200	52	6390
2026-01-27 17:42:55.25	18.01	10.05	-39.6	-40.8	21.0	0.00e+00	0	32	0	211812352	52	6252
2026-01-27 17:42:56.26	17.88	10.12	-39.6	-40.8	21.0	0.00e+00	62	32	0	213909504	52	6289
2026-01-27 17:42:57.27	17.76	10.18	-39.5	-40.7	21.1	0.00e+00	0	32	0	216006656	52	6181
2026-01-27 17:42:58.27	17.63	10.24	-39.3	-40.5	21.1	0.00e+00	82	32	0	217055232	52	6072
2026-01-27 17:42:59.28	17.51	10.31	-39.3	-40.5	21.3	0.00e+00	0	32	0	219152384	52	6052
2026-01-27 17:43:00.29	17.38	10.37	-39.2	-40.4	21.3	0.00e+00	0	32	0	221249536	52	5999
2026-01-27 17:43:01.30	17.25	10.43	-39.2	-40.3	21.2	0.00e+00	0	32	0	223346688	52	5951
2026-01-27 17:43:02.31	17.12	10.50	-39.1	-40.2	21.5	0.00e+00	0	32	0	225443840	52	5859
2026-01-27 17:43:03.32	16.99	10.56	-39.4	-40.5	21.3	0.00e+00	70	32	0	226492416	52	6083
2026-01-27 17:43:04.33	16.86	10.63	-39.0	-40.1	21.5	0.00e+00	0	32	0	228589568	52	5818
2026-01-27 17:43:05.34	16.73	10.69	-38.9	-40.0	21.7	0.00e+00	91	32	0	230686720	52	5721
2026-01-27 17:43:06.34	16.60	10.75	-38.9	-40.0	21.5	0.00e+00	0	32	0	232783872	52	5742
2026-01-27 17:43:07.35	16.47	10.82	-38.9	-40.0	21.7	0.00e+00	0	32	0	234881024	52	5725
2026-01-27 17:43:08.36	16.34	10.88	-38.8	-39.9	21.8	0.00e+00	0	32	0	235929600	52	5684
2026-01-27 17:43:09.37	16.21	10.94	-38.9	-40.0	21.6	0.00e+00	0	32	0	238026752	52	5725
2026-01-27 17:43:10.38	16.08	11.01	-39.0	-40.1	21.6	0.00e+00	62	32	0	240123904	52	5804
2026-01-27 17:43:11.39	15.94	11.07	-39.0	-40.2	21.6	0.00e+00	0	32	0	242221056	52	5847
2026-01-27 17:43:12.40	15.81	11.14	-39.1	-40.3	21.5	0.00e+00	90	32	0	244318208	52	5928
2026-01-27 17:43:13.41	15.67	11.20	-39.3	-40.5	21.3	0.00e+00	0	32	0	245366784	52	6076
2026-01-27 17:43:14.42	15.54	11.26	-39.5	-40.8	21.1	0.00e+00	0	32	0	247463936	52	6265
2026-01-27 17:43:15.43	15.40	11.33	-39.5	-40.8	21.0	0.00e+00	0	32	0	249561088	52	6247
2026-01-27 17:43:16.43	15.27	11.39	-39.3	-40.5	21.3	0.00e+00	0	32	0	251658240	52	6085
2026-01-27 17:43:17.44	15.13	11.45	-39.2	-40.4	21.4	0.00e+00	0	32	0	253755392	52	6013
2026-01-27 17:43:18.45	14.99	11.52	-39.3	-40.5	21.2	0.00e+00	0	32	0	254803968	52	6068
2026-01-27 17:43:19.46	14.85	11.58	-39.5	-40.7	21.1	0.00e+00	92	32	0	256901120	52	6199
2026-01-27 17:43:20.47	14.72	11.65	-39.5	-40.7	21.0	0.00e+00	0	32	0	258998272	52	6211
2026-01-27 17:43:21.48	14.58	11.71	-39.6	-40.8	21.1	0.00e+00	0	32	0	261095424	52	6269
2026-01-27 17:43:22.49	14.44	11.77	-39.7	-40.9	21.0	0.00e+00	0	32	0	263192576	52	6377
2026-01-27 17:43:23.50	14.29	11.84	-39.2	-40.3	21.3	0.00e+00	0	32	0	265289728	52	5937
2026-01-27 17:43:24.51	14.15	11.90	-39.2	-40.4	20.9	0.00e+00	17	32	0	266338304	52	5979
2026-01-27 17:43:25.51	14.01	11.97	-38.9	-40.0	21.5	0.00e+00	0	32	0	268435456	52	5735
2026-01-27 17:43:26.52	13.87	12.03	-39.0	-40.1	21.6	0.00e+00	91	32	0	270532608	52	5766
2026-01-27 17:43:27.53	13.73	12.09	-38.8	-39.9	21.7	0.00e+00	0	32	0	272629760	52	5674
2026-01-27 17:43:28.54	13.58	12.16	-38.9	-40.0	21.8	0.00e+00	62	32	0	274726912	50	6403
2026-01-27 17:43:29.55	13.44	12.22	-38.9	-40.0	21.7	0.00e+00	0	32	0	275775488	50	6448
2026-01-27 17:43:30.56	13.29	12.28	-38.9	-40.0	21.7	0.00e+00	0	32	0	277872640	50	6403
2026-01-27 17:43:31.57	13.15	12.35	-38.9	-40.0	21.8	0.00e+00	0	32	0	279969792	50	6428
2026-01-27 17:43:32.58	13.00	12.41	-38.9	-40.0	21.8	0.00e+00	0	32	0	282066944	50	6431
2026-01-27 17:43:33.59	12.85	12.48	-38.8	-39.9	21.8	0.00e+00	64	32	0	284164096	50	6355
2026-01-27 17:43:34.60	12.70	12.54	-38.9	-40.0	21.7	0.00e+00	0	32	0	285212672	50	6464
2026-01-27 17:43:35.61	12.56	12.60	-39.0	-40.1	21.5	0.00e+00	67	32	0	287309824	50	6485
2026-01-27 17:43:36.62	12.41	12.67	-39.1	-40.3	21.5	0.00e+00	0	32	0	289406976	50	6630
2026-01-27 17:43:37.62	12.26	12.73	-39.0	-40.1	21.7	0.00e+00	0	32	0	291504128	50	6512
2026-01-27 17:43:38.63	12.11	12.79	-38.9	-40.1	21.6	0.00e+00	0	32	0	293601280	50	6470
2026-01-27 17:43:39.64	11.96	12.86	-39.1	-40.2	21.6	0.00e+00	0	32	0	294649856	50	6580
2026-01-27 17:43:40.65	11.80	12.92	-39.4	-40.5	21.3	0.00e+00	15	32	0	296747008	50	6826
2026-01-27 17:43:41.66	11.65	12.98	-39.6	-40.8	21.0	0.00e+00	0	32	0	298844160	50	7086
2026-01-27 17:43:42.67	11.50	13.05	-40.0	-41.3	20.7	0.00e+00	81	32	0	300941312	52	6630
2026-01-27 17:43:43.68	11.34	13.11	-39.7	-40.9	21.0	0.00e+00	0	32	0	303038464	52	6383
2026-01-27 17:43:44.69	11.19	13.17	-39.7	-40.9	21.0	0.00e+00	0	32	0	304087040	52	6320
2026-01-27 17:43:45.70	11.03	13.24	-39.5	-40.7	21.1	0.00e+00	0	32	0	306184192	52	6178
2026-01-27 17:43:46.71	10.88	13.30	-39.3	-40.4	21.4	0.00e+00	0	32	0	308281344	52	6030
2026-01-27 17:43:47.72	10.72	13.36	-39.2	-40.4	21.4	0.00e+00	1	32	0	310378496	52	5968
2026-01-27 17:43:48.73	10.56	13.43	-39.3	-40.4	21.5	0.00e+00	0	32	0	312475648	52	6033
2026-01-27 17:43:49.74	10.41	13.49	-39.0	-40.0	21.7	0.00e+00	89	32	0	313524224	52	5756
2026-01-27 17:43:50.75	10.25	13.55	-39.0	-40.1	21.7	0.00e+00	0	32	0	315621376	52	5779
2026-01-27 17:43:51.76	10.09	13.62	-39.2	-40.3	21.6	0.00e+00	0	32	0	317718528	52	5963
2026-01-27 17:43:52.77	9.93	13.68	-39.1	-40.2	21.7	0.00e+00	0	32	0	319815680	52	5833
2026-01-27 17:43:53.77	9.77	13.74	-39.1	-40.2	21.6	0.00e+00	0	32	0	321912832	52	5862
2026-01-27 17:43:54.78	9.61	13.81	-39.2	-40.4	21.5	0.00e+00	0	32	0	322961408	52	5967
2026-01-27 17:43:55.79	9.45	13.87	-39.3	-40.4	21.5	0.00e+00	0	32	0	325058560	52	5987
2026-01-27 17:43:56.80	9.28	13.93	-39.2	-40.3	21.5	0.00e+00	67	32	0	327155712	52	5960
2026-01-27 17:43:57.80	9.12	13.99	-39.3	-40.5	21.4	0.00e+00	0	32	0	329252864	52	6054
2026-01-27 17:43:58.81	8.96	14.06	-39.6	-40.8	21.2	0.00e+00	92	32	0	331350016	52	6248
2026-01-27 17:43:59.82	8.79	14.12	-39.3	-40.4	21.5	0.00e+00	0	32	0	333447168	52	6008
2026-01-27 17:44:00.83	8.63	14.18	-39.4	-40.5	21.5	0.00e+00	0	32	0	334495744	52	6103
2026-01-27 17:44:01.84	8.46	14.24	-39.1	-40.2	21.4	0.00e+00	0	32	0	336592896	52	5871
2026-01-27 17:44:02.85	8.29	14.31	-38.9	-40.0	21.7	0.00e+00	0	32	0	338690048	52	5708
2026-01-27 17:44:03.86	8.12	14.37	-39.0	-40.1	21.6	0.00e+00	48	32	0	340787200	52	5819
2026-01-27 17:44:04.87	7.96	14.43	-39.1	-40.2	21.7	0.00e+00	0	32	0	342884352	52	5892
2026-01-27 17:44:05.88	7.79	14.49	-39.2	-40.3	21.5	0.00e+00	88	32	0	343932928	52	5931
2026-01-27 17:44:06.89	7.62	14.55	-39.3	-40.4	21.4	0.00e+00	0	32	0	346030080	52	6032
2026-01-27 17:44:07.90	7.45	14.62	-39.2	-40.3	21.5	0.00e+00	0	33	0	348127232	52	5963
2026-01-27 17:44:08.91	7.28	14.68	-39.3	-40.5	21.5	0.00e+00	0	32	0	350224384	52	6035
2026-01-27 17:44:09.92	7.10	14.74	-39.4	-40.6	21.4	0.00e+00	0	32	0	351272960	52	6108
2026-01-27 17:44:10.93	6.93	14.80	-39.6	-40.8	21.2	0.00e+00	73	32	0	353370112	52	6255
2026-01-27 17:44:11.94	6.76	14.86	-39.6	-40.8	21.1	0.00e+00	0	32	0	355467264	52	6249
2026-01-27 17:44:12.94	6.58	14.92	-39.8	-41.1	21.0	0.00e+00	86	32	0	357564416	52	6494
2026-01-27 17:44:13.95	6.41	14.98	-39.9	-41.2	20.8	0.00e+00	0	33	0	359661568	52	6544
2026-01-27 17:44:14.96	6.23	15.04	-40.1	-41.5	20.6	0.00e+00	0	32	0	361758720	52	6782
2026-01-27 17:44:15.97	6.06	15.11	-40.0	-41.3	20.7	0.00e+00	0	32	0	362807296	52	6684
2026-01-27 17:44:16.98	5.88	15.17	-39.6	-40.9	21.1	0.00e+00	0	32	0	364904448	52	6325
2026-01-27 17:44:17.99	5.70	15.23	-39.6	-40.9	21.1	0.00e+00	65	32	0	367001600	52	6319
2026-01-27 17:44:19.00	5.52	15.29	-39.5	-40.8	21.2	0.00e+00	0	32	0	369098752	52	6261
2026-01-27 17:44:20.01	5.34	15.35	-39.4	-40.6	21.4	0.00e+00	92	32	0	371195904	52	6121
2026-01-27 17:44:21.02	5.16	15.41	-39.4	-40.6	21.4	0.00e+00	0	32	0	372244480	52	6130
2026-01-27 17:44:22.02	4.98	15.47	-39.1	-40.3	21.6	0.00e+00	0	32	0	374341632	52	5916
2026-01-27 17:44:23.04	4.80	15.53	-38.6	-39.7	22.1	0.00e+00	0	32	0	376438784	50	6205
2026-01-27 17:44:24.05	4.62	15.59	-38.4	-39.5	22.3	0.00e+00	0	32	0	378535936	50	6038
2026-01-27 17:44:25.06	4.44	15.65	-38.0	-39.0	22.7	0.00e+00	0	32	0	380633088	50	5715
2026-01-27 17:44:26.06	4.25	15.71	-37.8	-38.8	22.9	0.00e+00	0	32	0	381681664	50	5576
2026-01-27 17:44:27.07	4.07	15.77	-37.9	-38.9	22.7	0.00e+00	48	32	0	383778816	48	6374
2026-01-27 17:44:28.08	3.88	15.82	-37.9	-38.9	22.7	0.00e+00	0	32	0	385875968	48	6324
2026-01-27 17:44:29.09	3.70	15.88	-38.2	-39.2	22.5	0.00e+00	79	32	0	387973120	48	6601
2026-01-27 17:44:30.10	3.51	15.94	-38.1	-39.1	22.6	0.00e+00	0	32	0	390070272	48	6518
2026-01-27 17:44:31.11	3.32	16.00	-37.9	-38.8	22.7	0.00e+00	0	32	0	391118848	48	6310
2026-01-27 17:44:32.12	3.13	16.06	-37.6	-38.6	23.1	0.00e+00	0	32	0	393216000	48	6115
2026-01-27 17:44:33.13	2.94	16.12	-37.5	-38.5	23.1	0.00e+00	0	32	0	395313152	48	6045
2026-01-27 17:44:34.14	2.76	16.18	-37.6	-38.6	23.0	0.00e+00	44	32	0	397410304	48	6110
2026-01-27 17:44:35.15	2.56	16.23	-37.8	-38.8	22.8	0.00e+00	0	32	0	399507456	48	6281
2026-01-27 17:44:36.16	2.37	16.29	-38.0	-39.0	22.7	0.00e+00	91	32	0	400556032	48	6408
2026-01-27 17:44:37.17	2.18	16.35	-37.8	-38.8	23.0	0.00e+00	0	32	0	402653184	48	6275
2026-01-27 17:44:38.17	1.99	16.41	-37.6	-38.6	23.0	0.00e+00	0	32	0	404750336	48	6127
2026-01-27 17:44:39.18	1.80	16.46	-37.5	-38.5	23.2	0.00e+00	0	32	0	406847488	48	6037
2026-01-27 17:44:40.19	1.60	16.52	-37.3	-38.2	23.4	0.00e+00	0	32	0	408944640	48	5885
2026-01-27 17:44:41.20	1.41	16.58	-37.2	-38.1	23.4	0.00e+00	75	32	0	409993216	48	5795
2026-01-27 17:44:42.22	1.21	16.64	-37.3	-38.2	23.4	0.00e+00	0	32	0	412090368	48	5881
2026-01-27 17:44:43.22	1.01	16.69	-37.4	-38.3	23.3	0.00e+00	92	32	0	414187520	48	5925
2026-01-27 17:44:44.23	0.82	16.75	-37.4	-38.4	23.3	0.00e+00	0	32	0	416284672	48	5969
2026-01-27 17:44:45.24	0.62	16.80	-37.4	-38.3	23.2	0.00e+00	0	33	0	418381824	48	5930
2026-01-27 17:44:46.25	0.42	16.86	-37.5	-38.4	23.2	0.00e+00	0	32	0	419430400	48	6008
2026-01-27 17:44:47.26	0.22	16.91	-37.2	-38.2	23.4	0.00e+00	0	32	0	421527552	48	5844
2026-01-27 17:44:48.27	0.02	16.97	-37.3	-38.2	23.5	0.00e+00	11	32	0	423624704	48	5853
2026-01-27 17:44:49.28	359.82	17.02	-36.8	-37.7	23.6	0.00e+00	0	32	0	425721856	48	5560
2026-01-27 17:44:50.29	359.62	17.08	-37.1	-38.1	23.5	0.00e+00	68	32	0	427819008	48	5766
2026-01-27 17:44:51.30	359.42	17.13	-36.9	-37.8	23.7	0.00e+00	0	32	0	429916160	48	5591
2026-01-27 17:44:52.31	359.21	17.19	-36.9	-37.9	23.7	0.00e+00	11	32	0	430964736	48	5632
2026-01-27 17:44:53.32	359.01	17.24	-36.7	-37.6	23.8	0.00e+00	0	32	0	433061888	48	5469
2026-01-27 17:44:54.33	358.80	17.30	-36.8	-37.7	23.7	0.00e+00	0	32	0	435159040	46	6225
2026-01-27 17:44:55.34	358.60	17.35	-36.8	-37.7	23.7	0.00e+00	73	32	0	437256192	46	6186
2026-01-27 17:44:56.34	358.39	17.40	-36.9	-37.8	23.6	0.00e+00	0	32	0	439353344	46	6266
2026-01-27 17:44:57.35	358.19	17.46	-36.5	-37.4	24.0	0.00e+00	82	32	0	440401920	46	6000
2026-01-27 17:44:58.36	357.98	17.51	-36.7	-37.5	23.8	0.00e+00	0	32	0	442499072	46	6103
2026-01-27 17:44:59.37	357.77	17.56	-37.1	-38.0	23.5	0.00e+00	26	32	0	444596224	46	6445
2026-01-27 17:45:00.37	357.56	17.61	-37.3	-38.3	23.2	0.00e+00	0	32	0	446693376	46	6660
2026-01-27 17:45:01.38	357.35	17.66	-37.3	-38.3	23.2	0.00e+00	0	32	0	448790528	46	6638
2026-01-27 17:45:02.38	357.14	17.71	-37.3	-38.3	23.0	0.00e+00	0	33	0	449839104	46	6632
2026-01-27 17:45:03.40	356.93	17.77	-37.1	-38.1	23.3	0.00e+00	0	32	0	451936256	46	6476
2026-01-27 17:45:04.41	356.72	17.82	-37.0	-38.0	23.4	0.00e+00	65	32	0	454033408	46	6402
2026-01-27 17:45:05.41	356.51	17.87	-37.0	-37.9	23.6	0.00e+00	0	33	0	456130560	46	6379
2026-01-27 17:45:06.42	356.29	17.92	-36.9	-37.9	23.5	0.00e+00	15	33	0	458227712	46	6321
2026-01-27 17:45:07.43	356.08	17.97	-37.0	-38.0	23.6	0.00e+00	0	33	0	459276288	46	6395
2026-01-27 17:45:08.44	355.87	18.02	-37.1	-38.0	23.6	0.00e+00	0	32	0	461373440	46	6423
2026-01-27 17:45:09.45	355.65	18.07	-37.1	-38.0	23.5	0.00e+00	0	32	0	463470592	46	6463
2026-01-27 17:45:10.46	355.43	18.12	-36.9	-37.8	23.7	0.00e+00	0	32	0	465567744	46	6287
2026-01-27 17:45:11.47	355.22	18.17	-36.8	-37.7	23.8	0.00e+00	72	32	0	467664896	46	6183
2026-01-27 17:45:12.48	355.00	18.21	-36.6	-37.4	23.9	0.00e+00	0	32	0	468713472	46	6011
2026-01-27 17:45:13.49	354.78	18.26	-36.6	-37.5	23.8	0.00e+00	92	32	0	470810624	46	6068
2026-01-27 17:45:14.50	354.56	18.31	-36.5	-37.4	24.0	0.00e+00	0	32	0	472907776	46	5993
2026-01-27 17:45:15.50	354.34	18.36	-36.3	-37.2	23.8	0.00e+00	0	32	0	475004928	46	5846
2026-01-27 17:45:16.51	354.12	18.40	-36.0	-36.8	24.3	0.00e+00	0	32	0	477102080	46	5621
2026-01-27 17:45:17.52	353.90	18.45	-35.5	-36.3	24.8	0.00e+00	0	33	0	478150656	44	5916
2026-01-27 17:45:18.53	353.68	18.50	-35.5	-36.3	24.8	0.00e+00	6	32	0	480247808	44	5914
2026-01-27 17:45:19.54	353.46	18.54	-35.7	-36.5	24.7	0.00e+00	0	33	0	482344960	44	6076
2026-01-27 17:45:20.55	353.23	18.59	-35.9	-36.7	24.4	0.00e+00	69	33	0	484442112	44	6228
2026-01-27 17:45:21.56	353.01	18.63	-36.2	-37.0	24.3	0.00e+00	0	33	0	486539264	44	6426
2026-01-27 17:45:22.57	352.78	18.68	-36.4	-37.2	24.2	0.00e+00	0	33	0	487587840	44	6580
2026-01-27 17:45:23.58	352.56	18.72	-36.3	-37.2	24.2	0.00e+00	0	33	0	489684992	44	6563
2026-01-27 17:45:24.59	352.33	18.77	-36.4	-37.3	24.1	0.00e+00	0	33	0	491782144	44	6656
2026-01-27 17:45:25.60	352.11	18.81	-36.8	-37.6	23.9	0.00e+00	67	33	0	493879296	46	6170
2026-01-27 17:45:26.61	351.88	18.85	-37.0	-37.9	23.6	0.00e+00	0	32	0	495976448	46	6343
2026-01-27 17:45:27.62	351.65	18.90	-37.3	-38.2	23.4	0.00e+00	92	33	0	497025024	46	6591
2026-01-27 17:45:28.63	351.42	18.94	-37.1	-38.0	23.5	0.00e+00	0	32	0	499122176	46	6444
2026-01-27 17:45:29.63	351.19	18.98	-37.0	-37.9	23.8	0.00e+00	0	32	0	501219328	46	6331
2026-01-27 17:45:30.64	350.96	19.02	-36.9	-37.8	23.8	0.00e+00	0	32	0	503316480	46	6283
2026-01-27 17:45:31.65	350.73	19.07	-36.8	-37.7	23.9	0.00e+00	0	32	0	505413632	46	6174
2026-01-27 17:45:32.66	350.50	19.11	-36.9	-37.8	23.7	0.00e+00	0	33	0	506462208	46	6257
2026-01-27 17:45:33.67	350.27	19.15	-36.9	-37.9	23.7	0.00e+00	0	33	0	508559360	46	6322
2026-01-27 17:45:34.68	350.04	19.19	-36.9	-37.8	23.7	0.00e+00	68	33	0	510656512	46	6251
2026-01-27 17:45:35.69	349.81	19.23	-37.2	-38.2	23.5	0.00e+00	0	33	0	512753664	46	6547
2026-01-27 17:45:36.70	349.57	19.27	-36.8	-37.7	23.7	0.00e+00	17	33	0	514850816	46	6182
2026-01-27 17:45:37.70	349.34	19.30	-36.9	-37.8	23.8	0.00e+00	0	32	0	515899392	46	6287
2026-01-27 17:45:38.71	349.11	19.34	-36.5	-37.4	23.3	0.00e+00	0	33	0	517996544	46	6004
2026-01-27 17:45:39.72	348.87	19.38	-36.3	-37.1	24.1	0.00e+00	0	33	0	520093696	46	5823
2026-01-27 17:45:40.73	348.63	19.42	-35.9	-36.7	24.5	0.00e+00	0	32	0	522190848	46	5528
2026-01-27 17:45:41.74	348.40	19.45	-35.9	-36.8	24.5	0.00e+00	68	32	0	524288000	46	5568
2026-01-27 17:45:42.75	348.16	19.49	-36.1	-36.9	24.4	0.00e+00	0	32	0	526385152	46	5687
2026-01-27 17:45:43.76	347.92	19.53	-35.9	-36.7	24.5	0.00e+00	70	32	0	527433728	46	5548
2026-01-27 17:45:44.77	347.68	19.56	-36.1	-36.9	24.4	0.00e+00	0	33	0	529530880	46	5650
2026-01-27 17:45:45.78	347.44	19.60	-35.9	-36.7	24.5	0.00e+00	0	33	0	531628032	46	5530
2026-01-27 17:45:46.79	347.21	19.63	-35.9	-36.7	24.6	0.00e+00	0	32	0	533725184	44	6194
2026-01-27 17:45:47.80	346.97	19.67	-35.9	-36.7	24.5	0.00e+00	0	32	0	535822336	44	6219
2026-01-27 17:45:48.81	346.72	19.70	-35.9	-36.8	24.4	0.00e+00	1	33	0	536870912	44	6253
2026-01-27 17:45:49.82	346.48	19.73	-36.2	-37.1	24.0	0.00e+00	0	32	0	538968064	44	6474
2026-01-27 17:45:50.83	346.24	19.77	-36.3	-37.1	24.0	0.00e+00	68	32	0	541065216	44	6525
2026-01-27 17:45:51.84	346.00	19.80	-36.6	-37.4	23.9	0.00e+00	0	33	0	543162368	44	6752
2026-01-27 17:45:52.84	345.76	19.83	-36.6	-37.5	24.0	0.00e+00	0	32	0	545259520	46	6052
2026-01-27 17:45:53.85	345.52	19.86	-36.6	-37.5	23.9	0.00e+00	0	33	0	546308096	46	6040
2026-01-27 17:45:54.86	345.27	19.89	-36.9	-37.8	23.7	0.00e+00	0	33	0	548405248	46	6273
2026-01-27 17:45:55.87	345.03	19.92	-36.9	-37.7	23.9	0.00e+00	2	33	0	550502400	46	6238
2026-01-27 17:45:56.88	344.78	19.95	-37.2	-38.2	23.5	0.00e+00	0	33	0	552599552	46	6559
2026-01-27 17:45:57.89	344.54	19.98	-37.5	-38.4	23.2	0.00e+00	74	32	0	554696704	46	6762
2026-01-27 17:45:58.90	344.29	20.01	-37.5	-38.5	23.3	0.00e+00	0	32	0	555745280	46	6773
2026-01-27 17:45:59.91	344.05	20.04	-37.4	-38.4	23.2	0.00e+00	0	32	0	557842432	48	5968
2026-01-27 17:46:00.92	343.80	20.07	-37.3	-38.2	23.0	0.00e+00	0	32	0	559939584	48	5892
2026-01-27 17:46:01.93	343.55	20.09	-37.3	-38.2	23.4	0.00e+00	0	32	0	562036736	48	5842
2026-01-27 17:46:02.94	343.31	20.12	-37.5	-38.5	23.2	0.00e+00	65	32	0	564133888	48	6058
2026-01-27 17:46:03.95	343.06	20.14	-37.9	-38.8	23.0	0.00e+00	0	32	0	565182464	48	6305
2026-01-27 17:46:04.96	342.81	20.17	-38.1	-39.1	22.8	0.00e+00	82	32	0	567279616	48	6490
2026-01-27 17:46:05.97	342.56	20.20	-38.6	-39.7	22.3	0.00e+00	0	32	0	569376768	48	6937
2026-01-27 17:46:06.98	342.31	20.22	-38.2	-39.2	22.7	0.00e+00	2	32	0	571473920	48	6568
2026-01-27 17:46:07.99	342.06	20.24	-37.9	-38.9	22.9	0.00e+00	0	32	0	573571072	48	6337
2026-01-27 17:46:09.00	341.81	20.27	-37.8	-38.7	23.0	0.00e+00	0	32	0	574619648	48	6243
2026-01-27 17:46:10.00	341.57	20.29	-37.5	-38.4	23.3	0.00e+00	0	32	0	576716800	48	6010
2026-01-27 17:46:11.02	341.31	20.31	-37.1	-38.0	23.5	0.00e+00	0	32	0	578813952	48	5738
2026-01-27 17:46:12.03	341.06	20.33	-37.4	-38.3	23.3	0.00e+00	72	33	0	580911104	48	5952
2026-01-27 17:46:13.04	340.81	20.35	-37.8	-38.7	23.1	0.00e+00	0	32	0	583008256	48	6206
2026-01-27 17:46:14.04	340.56	20.37	-38.2	-39.3	22.6	0.00e+00	80	33	0	584056832	48	6626
2026-01-27 17:46:15.06	340.31	20.39	-38.5	-39.6	22.3	0.00e+00	0	33	0	586153984	48	6889
2026-01-27 17:46:16.07	340.05	20.41	-38.7	-39.8	22.1	0.00e+00	0	32	0	588251136	50	6298
2026-01-27 17:46:17.08	339.80	20.43	-38.6	-39.7	22.3	0.00e+00	0	33	0	590348288	50	6208
2026-01-27 17:46:18.09	339.55	20.45	-38.5	-39.6	22.2	0.00e+00	0	32	0	592445440	50	6131
2026-01-27 17:46:19.10	339.30	20.47	-38.3	-39.4	22.5	0.00e+00	16	32	0	594542592	50	5986
2026-01-27 17:46:20.11	339.04	20.49	-38.2	-39.2	22.6	0.00e+00	0	32	0	595591168	50	5856
2026-01-27 17:46:21.12	338.79	20.50	-38.3	-39.4	22.4	0.00e+00	53	33	0	597688320	50	5986
2026-01-27 17:46:22.13	338.53	20.52	-38.5	-39.6	22.2	0.00e+00	0	33	0	599785472	50	6136
2026-01-27 17:46:23.14	338.28	20.53	-38.8	-39.9	22.0	0.00e+00	0	32	0	601882624	50	6329
2026-01-27 17:46:24.15	338.03	20.55	-38.9	-40.1	21.9	0.00e+00	0	32	0	603979776	50	6475
2026-01-27 17:46:25.16	337.77	20.56	-38.9	-40.0	22.0	0.00e+00	0	32	0	605028352	50	6450
2026-01-27 17:46:26.17	337.52	20.58	-38.5	-39.6	22.3	0.00e+00	12	32	0	607125504	50	6150
2026-01-27 17:46:27.18	337.26	20.59	-38.2	-39.2	22.6	0.00e+00	33	32	0	609222656	50	5887
2026-01-27 17:46:28.18	337.01	20.60	-38.1	-39.1	22.7	0.00e+00	76	32	0	611319808	50	5776
2026-01-27 17:46:29.20	336.75	20.61	-37.7	-38.7	23.1	0.00e+00	0	32	0	613416960	50	5510
2026-01-27 17:46:30.21	336.49	20.62	-37.7	-38.6	23.2	0.00e+00	33	32	0	614465536	48	6157
2026-01-27 17:46:31.21	336.24	20.63	-37.6	-38.6	23.1	0.00e+00	33	32	0	616562688	48	6117
2026-01-27 17:46:32.22	335.98	20.64	-37.7	-38.7	23.0	0.00e+00	0	32	0	618659840	48	6190
2026-01-27 17:46:33.23	335.73	20.65	-37.7	-38.7	23.0	0.00e+00	44	32	0	620756992	48	6208
2026-01-27 17:46:34.24	335.47	20.66	-37.9	-38.9	22.8	0.00e+00	0	33	0	622854144	48	6367
2026-01-27 17:46:35.24	335.22	20.67	-38.1	-39.1	22.7	0.00e+00	92	32	0	623902720	48	6499
2026-01-27 17:46:36.25	334.96	20.68	-38.3	-39.3	22.6	0.00e+00	33	32	0	625999872	48	6691
2026-01-27 17:46:37.26	334.70	20.69	-38.3	-39.3	22.5	0.00e+00	0	32	0	628097024	48	6681
2026-01-27 17:46:38.27	334.44	20.69	-38.4	-39.5	22.4	0.00e+00	0	32	0	630194176	48	6774
2026-01-27 17:46:39.28	334.19	20.70	-38.4	-39.5	22.4	0.00e+00	0	32	0	632291328	48	6801
2026-01-27 17:46:40.28	333.93	20.70	-38.4	-39.4	22.5	0.00e+00	0	32	0	633339904	48	6739
2026-01-27 17:46:41.29	333.68	20.71	-38.2	-39.2	22.6	0.00e+00	0	32	0	635437056	48	6604
2026-01-27 17:46:42.30	333.42	20.71	-38.0	-39.0	22.6	0.00e+00	92	32	0	637534208	48	6442
2026-01-27 17:46:43.31	333.16	20.71	-38.2	-39.1	22.7	0.00e+00	0	32	0	639631360	48	6537
2026-01-27 17:46:44.31	332.91	20.72	-38.1	-39.1	22.7	0.00e+00	51	32	0	641728512	48	6529
2026-01-27 17:46:45.32	332.65	20.72	-37.9	-38.9	22.8	0.00e+00	0	32	0	642777088	48	6336
2026-01-27 17:46:46.34	332.39	20.72	-37.8	-38.7	23.0	0.00e+00	0	32	0	644874240	48	6242
2026-01-27 17:46:47.34	332.13	20.72	-38.0	-39.0	23.0	0.00e+00	0	33	0	646971392	48	6414
2026-01-27 17:46:48.35	331.87	20.72	-37.7	-38.6	23.1	0.00e+00	0	32	0	649068544	48	6153
2026-01-27 17:46:49.36	331.62	20.72	-37.6	-38.6	23.2	0.00e+00	73	32	0	651165696	48	6107
2026-01-27 17:46:50.37	331.36	20.72	-37.5	-38.4	23.3	0.00e+00	0	32	0	652214272	48	6029
2026-01-27 17:46:51.38	331.10	20.72	-37.3	-38.2	23.5	0.00e+00	92	32	0	654311424	48	5840
2026-01-27 17:46:52.39	330.84	20.72	-37.1	-38.0	23.5	0.00e+00	0	32	0	656408576	48	5728
2026-01-27 17:46:53.40	330.59	20.71	-37.0	-37.9	23.7	0.00e+00	0	33	0	658505728	48	5638
2026-01-27 17:46:54.41	330.33	20.71	-37.0	-37.9	23.7	0.00e+00	0	32	0	660602880	48	5631
2026-01-27 17:46:55.42	330.07	20.71	-37.1	-38.0	23.6	0.00e+00	0	33	0	662700032	48	5696
2026-01-27 17:46:56.43	329.81	20.70	-37.6	-38.5	23.2	0.00e+00	63	33	0	663748608	48	6103
2026-01-27 17:46:57.44	329.56	20.70	-37.9	-38.9	22.9	0.00e+00	0	33	0	665845760	48	6339
2026-01-27 17:46:58.45	329.30	20.69	-38.3	-39.3	22.6	0.00e+00	75	32	0	667942912	48	6650
2026-01-27 17:46:59.46	329.04	20.68	-38.4	-39.5	22.4	0.00e+00	0	32	0	670040064	48	6797
2026-01-27 17:47:00.47	328.79	20.68	-38.6	-39.7	22.3	0.00e+00	0	33	0	672137216	48	6930
2026-01-27 17:47:01.48	328.53	20.67	-38.5	-39.5	22.3	0.00e+00	0	33	0	673185792	48	6836
2026-01-27 17:47:02.49	328.27	20.66	-38.4	-39.5	21.7	0.00e+00	0	32	0	675282944	48	6774
2026-01-27 17:47:03.50	328.02	20.65	-38.3	-39.3	22.4	0.00e+00	67	32	0	677380096	48	6668
2026-01-27 17:47:04.51	327.76	20.64	-38.1	-39.1	22.6	0.00e+00	0	33	0	679477248	48	6498
2026-01-27 17:47:05.52	327.50	20.63	-37.9	-38.9	22.9	0.00e+00	92	32	0	680525824	48	6355
2026-01-27 17:47:06.53	327.25	20.62	-37.2	-38.1	23.5	0.00e+00	0	33	0	682622976	48	5809
2026-01-27 17:47:07.54	326.99	20.61	-36.7	-37.6	23.9	0.00e+00	0	32	0	684720128	46	6141
2026-01-27 17:47:08.55	326.73	20.60	-36.8	-37.6	23.9	0.00e+00	0	33	0	686817280	46	6168
2026-01-27 17:47:09.56	326.48	20.59	-36.7	-37.5	23.9	0.00e+00	0	33	0	688914432	46	6097
2026-01-27 17:47:10.56	326.23	20.57	-36.7	-37.6	24.0	0.00e+00	0	32	0	691011584	46	6110
2026-01-27 17:47:11.58	325.97	20.56	-36.7	-37.6	23.8	0.00e+00	0	32	0	692060160	46	6112
2026-01-27 17:47:12.58	325.72	20.54	-36.7	-37.5	24.0	0.00e+00	74	33	0	694157312	46	6067
2026-01-27 17:47:13.59	325.46	20.53	-36.7	-37.5	24.2	0.00e+00	0	32	0	696254464	46	6085
2026-01-27 17:47:14.60	325.21	20.51	-36.2	-37.0	24.2	0.00e+00	37	33	0	698351616	46	5743
2026-01-27 17:47:15.61	324.95	20.50	-36.3	-37.1	24.3	0.00e+00	0	33	0	700448768	46	5798
2026-01-27 17:47:16.62	324.70	20.48	-36.1	-36.8	24.4	0.00e+00	0	32	0	701497344	46	5623
2026-01-27 17:47:17.63	324.45	20.46	-36.1	-36.9	24.5	0.00e+00	41	33	0	703594496	46	5646
2026-01-27 17:47:18.64	324.19	20.45	-36.0	-36.8	24.5	0.00e+00	0	33	0	705691648	46	5569
2026-01-27 17:47:19.65	323.94	20.43	-36.3	-37.1	24.3	0.00e+00	92	33	0	707788800	46	5809
2026-01-27 17:47:20.66	323.69	20.41	-36.2	-37.1	24.3	0.00e+00	0	33	0	709885952	46	5781
2026-01-27 17:47:21.67	323.43	20.39	-36.3	-37.2	24.3	0.00e+00	92	33	0	710934528	46	5845
2026-01-27 17:47:22.68	323.18	20.37	-36.3	-37.2	24.1	0.00e+00	0	33	0	713031680	46	5831
2026-01-27 17:47:23.69	322.93	20.35	-36.2	-37.1	24.3	0.00e+00	0	33	0	715128832	46	5763
2026-01-27 17:47:24.70	322.68	20.33	-36.3	-37.1	24.2	0.00e+00	25	32	0	717225984	46	5816
2026-01-27 17:47:25.71	322.43	20.31	-36.1	-36.9	24.1	0.00e+00	0	32	0	719323136	46	5681
2026-01-27 17:47:26.72	322.18	20.28	-36.2	-37.1	24.3	0.00e+00	22	33	0	720371712	46	5776
2026-01-27 17:47:27.73	321.93	20.26	-35.9	-36.7	24.6	0.00e+00	0	32	0	722468864	46	5527
2026-01-27 17:47:28.74	321.68	20.24	-35.9	-36.7	24.5	0.00e+00	71	32	0	724566016	46	5554
2026-01-27 17:47:29.75	321.43	20.21	-35.9	-36.7	24.5	0.00e+00	0	33	0	726663168	46	5556
2026-01-27 17:47:30.75	321.18	20.19	-36.0	-36.8	24.4	0.00e+00	0	32	0	728760320	46	5612
2026-01-27 17:47:31.76	320.93	20.16	-36.3	-37.2	24.2	0.00e+00	0	33	0	729808896	46	5836
2026-01-27 17:47:32.77	320.68	20.14	-36.3	-37.1	24.2	0.00e+00	0	32	0	731906048	46	5818
2026-01-27 17:47:33.78	320.44	20.11	-36.4	-37.3	24.2	0.00e+00	14	32	0	734003200	46	5925
2026-01-27 17:47:34.79	320.19	20.09	-36.3	-37.1	24.2	0.00e+00	0	33	0	736100352	46	5824
2026-01-27 17:47:35.80	319.94	20.06	-36.4	-37.2	24.2	0.00e+00	55	32	0	738197504	46	5856
2026-01-27 17:47:36.81	319.70	20.03	-36.5	-37.4	24.1	0.00e+00	0	33	0	739246080	46	5983
2026-01-27 17:47:37.82	319.45	20.00	-36.7	-37.5	24.0	0.00e+00	0	32	0	741343232	46	6069
2026-01-27 17:47:38.83	319.20	19.97	-36.6	-37.4	24.0	0.00e+00	0	32	0	743440384	46	6005
2026-01-27 17:47:39.83	318.96	19.94	-36.8	-37.6	23.9	0.00e+00	0	33	0	745537536	46	6152
2026-01-27 17:47:40.85	318.71	19.91	-36.7	-37.6	24.1	0.00e+00	11	32	0	747634688	46	6117
2026-01-27 17:47:41.86	318.47	19.88	-36.6	-37.5	24.0	0.00e+00	0	32	0	748683264	46	6036
2026-01-27 17:47:42.87	318.23	19.85	-36.6	-37.5	24.0	0.00e+00	76	33	0	750780416	46	6069
2026-01-27 17:47:43.88	317.98	19.82	-37.1	-38.0	23.5	0.00e+00	0	32	0	752877568	46	6435
2026-01-27 17:47:44.89	317.74	19.79	-37.5	-38.4	23.3	0.00e+00	0	32	0	754974720	46	6765
2026-01-27 17:47:45.90	317.50	19.76	-37.7	-38.7	23.1	0.00e+00	0	32	0	757071872	48	6212
2026-01-27 17:47:46.91	317.26	19.72	-38.0	-39.0	22.8	0.00e+00	0	32	0	759169024	48	6448
2026-01-27 17:47:47.92	317.01	19.69	-38.2	-39.2	22.7	0.00e+00	0	32	0	760217600	48	6584
2026-01-27 17:47:48.92	316.78	19.66	-38.0	-38.9	22.9	0.00e+00	0	33	0	762314752	48	6384
2026-01-27 17:47:49.93	316.54	19.62	-38.1	-39.1	22.8	0.00e+00	73	33	0	764411904	48	6520
2026-01-27 17:47:50.94	316.30	19.59	-38.2	-39.2	22.9	0.00e+00	0	32	0	766509056	48	6588
2026-01-27 17:47:51.95	316.06	19.55	-38.3	-39.3	22.8	0.00e+00	54	33	0	768606208	48	6622
2026-01-27 17:47:52.96	315.82	19.52	-38.3	-39.3	22.6	0.00e+00	0	33	0	769654784	48	6662
2026-01-27 17:47:53.97	315.58	19.48	-38.6	-39.6	22.4	0.00e+00	0	33	0	771751936	48	6904
2026-01-27 17:47:54.97	315.35	19.44	-38.6	-39.7	22.2	0.00e+00	65	33	0	773849088	48	6932
2026-01-27 17:47:55.98	315.11	19.41	-38.8	-39.8	22.4	0.00e+00	0	33	0	775946240	50	6311
2026-01-27 17:47:56.99	314.87	19.37	-39.1	-40.2	21.9	0.00e+00	40	32	0	778043392	50	6599
2026-01-27 17:47:58.00	314.64	19.33	-39.0	-40.1	22.0	0.00e+00	0	33	0	779091968	50	6465
2026-01-27 17:47:59.01	314.40	19.29	-39.2	-40.3	21.9	0.00e+00	90	32	0	781189120	50	6633
2026-01-27 17:48:00.02	314.17	19.25	-39.2	-40.3	21.9	0.00e+00	0	32	0	783286272	50	6622
2026-01-27 17:48:01.03	313.93	19.22	-39.2	-40.3	21.8	0.00e+00	0	32	0	785383424	50	6674
2026-01-27 17:48:02.04	313.70	19.18	-39.1	-40.2	22.0	0.00e+00	0	33	0	787480576	50	6558
2026-01-27 17:48:03.05	313.47	19.14	-39.0	-40.1	22.0	0.00e+00	0	33	0	788529152	50	6497
2026-01-27 17:48:04.06	313.24	19.09	-38.7	-39.8	22.3	0.00e+00	71	32	0	790626304	50	6265
2026-01-27 17:48:05.07	313.01	19.05	-38.5	-39.5	22.3	0.00e+00	0	32	0	792723456	50	6100
2026-01-27 17:48:06.08	312.77	19.01	-38.0	-39.0	22.9	0.00e+00	89	33	0	794820608	50	5723
2026-01-27 17:48:07.09	312.54	18.97	-37.9	-38.8	23.0	0.00e+00	0	32	0	796917760	50	5612
2026-01-27 17:48:08.09	312.32	18.93	-37.8	-38.7	23.1	0.00e+00	0	32	0	797966336	48	6202
2026-01-27 17:48:09.10	312.09	18.89	-37.6	-38.5	23.3	0.00e+00	0	33	0	800063488	48	6084
2026-01-27 17:48:10.12	311.86	18.84	-37.6	-38.6	23.3	0.00e+00	0	33	0	802160640	48	6109
2026-01-27 17:48:11.13	311.63	18.80	-37.9	-38.8	23.0	0.00e+00	22	32	0	804257792	48	6316
2026-01-27 17:48:12.13	311.41	18.75	-38.1	-39.0	22.9	0.00e+00	0	32	0	806354944	48	6458
2026-01-27 17:48:13.14	311.18	18.71	-38.2	-39.2	22.7	0.00e+00	92	32	0	807403520	48	6570
2026-01-27 17:48:14.15	310.95	18.67	-38.0	-38.9	23.0	0.00e+00	0	33	0	809500672	48	6377
2026-01-27 17:48:15.16	310.73	18.62	-38.1	-39.1	22.8	0.00e+00	0	33	0	811597824	48	6480
2026-01-27 17:48:16.17	310.51	18.58	-37.7	-38.7	23.2	0.00e+00	0	33	0	813694976	48	6178
2026-01-27 17:48:17.18	310.28	18.53	-37.6	-38.5	23.1	0.00e+00	0	33	0	815792128	48	6080
2026-01-27 17:48:18.19	310.06	18.48	-37.5	-38.4	23.1	0.00e+00	0	33	0	816840704	48	5990
2026-01-27 17:48:19.20	309.84	18.44	-37.1	-37.9	23.6	0.00e+00	0	32	0	818937856	48	5671
2026-01-27 17:48:20.21	309.62	18.39	-37.0	-37.9	23.7	0.00e+00	92	32	0	821035008	48	5639
2026-01-27 17:48:21.22	309.40	18.34	-36.7	-37.6	23.5	0.00e+00	0	33	0	823132160	48	5442
2026-01-27 17:48:22.23	309.17	18.30	-36.7	-37.5	23.9	0.00e+00	0	32	0	825229312	46	6075
2026-01-27 17:48:23.24	308.96	18.25	-36.9	-37.7	23.9	0.00e+00	0	32	0	827326464	46	6198
2026-01-27 17:48:24.24	308.74	18.20	-36.9	-37.7	23.8	0.00e+00	0	33	0	828375040	46	6206
2026-01-27 17:48:25.25	308.52	18.15	-36.8	-37.6	23.9	0.00e+00	0	32	0	830472192	46	6153
2026-01-27 17:48:26.26	308.30	18.10	-37.2	-38.0	23.6	0.00e+00	0	32	0	832569344	46	6449
2026-01-27 17:48:27.27	308.09	18.05	-37.4	-38.3	23.3	0.00e+00	91	32	0	834666496	46	6637
2026-01-27 17:48:28.28	307.87	18.00	-37.6	-38.5	23.3	0.00e+00	0	32	0	836763648	46	6788
2026-01-27 17:48:29.29	307.66	17.95	-37.9	-38.9	23.0	0.00e+00	12	33	0	837812224	48	6338
2026-01-27 17:48:30.30	307.44	17.90	-38.4	-39.4	22.4	0.00e+00	0	33	0	839909376	48	6727
2026-01-27 17:48:31.32	307.23	17.85	-38.7	-39.7	22.2	0.00e+00	0	33	0	842006528	50	6224
2026-01-27 17:48:32.32	307.02	17.80	-38.9	-40.0	22.1	0.00e+00	0	33	0	844103680	50	6398
2026-01-27 17:48:33.34	306.80	17.75	-38.9	-39.9	22.1	0.00e+00	0	33	0	846200832	50	6376
2026-01-27 17:48:34.34	306.59	17.70	-38.5	-39.5	22.3	0.00e+00	92	33	0	847249408	50	6062
2026-01-27 17:48:35.35	306.38	17.65	-38.5	-39.5	22.5	0.00e+00	0	33	0	849346560	50	6054
2026-01-27 17:48:36.36	306.17	17.60	-38.4	-39.4	22.5	0.00e+00	92	32	0	851443712	50	6028
2026-01-27 17:48:37.37	305.96	17.54	-38.8	-39.8	22.1	0.00e+00	0	32	0	853540864	50	6301
2026-01-27 17:48:38.38	305.75	17.49	-38.7	-39.7	22.2	0.00e+00	0	32	0	855638016	50	6235
2026-01-27 17:48:39.39	305.54	17.44	-38.9	-40.0	22.1	0.00e+00	0	32	0	856686592	50	6409
2026-01-27 17:48:40.40	305.34	17.38	-39.2	-40.3	21.8	0.00e+00	0	32	0	858783744	50	6669
2026-01-27 17:48:41.41	305.13	17.33	-39.4	-40.5	21.7	0.00e+00	71	32	0	860880896	50	6773
2026-01-27 17:48:42.42	304.93	17.28	-39.2	-40.3	21.7	0.00e+00	0	32	0	862978048	50	6663
2026-01-27 17:48:43.43	304.72	17.22	-39.5	-40.6	21.6	0.00e+00	91	32	0	865075200	50	6872
2026-01-27 17:48:44.44	304.52	17.17	-39.1	-40.2	22.0	0.00e+00	0	32	0	866123776	50	6571
2026-01-27 17:48:45.45	304.31	17.12	-38.6	-39.5	22.4	0.00e+00	0	33	0	868220928	50	6096
2026-01-27 17:48:46.46	304.11	17.06	-38.3	-39.3	22.7	0.00e+00	0	33	0	870318080	50	5936
2026-01-27 17:48:47.47	303.91	17.01	-37.8	-38.7	23.3	0.00e+00	0	33	0	872415232	50	5515
2026-01-27 17:48:48.48	303.71	16.95	-37.3	-38.2	23.6	0.00e+00	17	32	0	874512384	48	5838
2026-01-27 17:48:49.49	303.51	16.89	-37.2	-38.1	23.6	0.00e+00	0	32	0	875560960	48	5790
2026-01-27 17:48:50.50	303.31	16.84	-37.1	-38.0	23.7	0.00e+00	92	32	0	877658112	48	5713
2026-01-27 17:48:51.51	303.11	16.78	-37.0	-37.8	23.9	0.00e+00	0	33	0	879755264	48	5615
2026-01-27 17:48:52.52	302.91	16.73	-37.1	-37.9	23.7	0.00e+00	0	33	0	881852416	48	5671
2026-01-27 17:48:53.53	302.71	16.67	-37.1	-38.0	23.6	0.00e+00	0	32	0	883949568	48	5723
2026-01-27 17:48:54.53	302.52	16.62	-37.5	-38.4	23.3	0.00e+00	0	33	0	884998144	48	5980
2026-01-27 17:48:55.54	302.32	16.56	-37.7	-38.6	23.1	0.00e+00	0	33	0	887095296	48	6126
2026-01-27 17:48:56.55	302.13	16.50	-38.0	-39.0	22.9	0.00e+00	0	33	0	889192448	48	6403
2026-01-27 17:48:57.56	301.93	16.44	-38.5	-39.5	22.4	0.00e+00	68	33	0	891289600	48	6814
2026-01-27 17:48:58.57	301.74	16.39	-38.5	-39.5	22.6	0.00e+00	0	32	0	893386752	48	6815
2026-01-27 17:48:59.58	301.54	16.33	-38.5	-39.5	22.5	0.00e+00	8	32	0	894435328	48	6821
2026-01-27 17:49:00.58	301.35	16.27	-38.4	-39.4	22.6	0.00e+00	0	33	0	896532480	48	6711
2026-01-27 17:49:01.59	301.16	16.21	-38.0	-38.9	22.8	0.00e+00	0	33	0	898629632	48	6363
2026-01-27 17:49:02.60	300.97	16.16	-37.5	-38.4	23.3	0.00e+00	0	32	0	900726784	48	6025
2026-01-27 17:49:03.61	300.78	16.10	-37.6	-38.5	23.1	0.00e+00	0	32	0	902823936	48	6086
2026-01-27 17:49:04.62	300.59	16.04	-37.6	-38.5	23.2	0.00e+00	92	32	0	904921088	48	6051
2026-01-27 17:49:05.63	300.40	15.98	-37.7	-38.6	23.1	0.00e+00	0	33	0	905969664	48	6172
2026-01-27 17:49:06.64	300.22	15.92	-38.2	-39.2	22.8	0.00e+00	45	33	0	908066816	48	6557
2026-01-27 17:49:07.64	300.03	15.86	-38.5	-39.5	22.5	0.00e+00	0	33	0	910163968	48	6823
2026-01-27 17:49:08.65	299.85	15.80	-38.9	-40.0	22.0	0.00e+00	0	33	0	912261120	50	6400
2026-01-27 17:49:09.66	299.66	15.74	-39.4	-40.5	21.5	0.00e+00	0	32	0	913309696	50	6805
2026-01-27 17:49:10.66	299.48	15.69	-39.8	-41.0	21.2	0.00e+00	0	33	0	915406848	50	7199
2026-01-27 17:49:11.67	299.29	15.63	-39.8	-40.9	21.3	0.00e+00	64	32	0	917504000	52	6362
2026-01-27 17:49:12.68	299.11	15.57	-39.7	-40.8	21.3	0.00e+00	0	32	0	919601152	52	6283
2026-01-27 17:49:13.69	298.93	15.51	-39.7	-40.9	21.2	0.00e+00	72	33	0	921698304	52	6351
2026-01-27 17:49:14.70	298.74	15.45	-39.6	-40.7	21.5	0.00e+00	0	32	0	922746880	52	6244
2026-01-27 17:49:15.71	298.56	15.39	-39.2	-40.3	21.9	0.00e+00	0	32	0	924844032	52	5928
2026-01-27 17:49:16.72	298.38	15.33	-39.0	-40.0	21.8	0.00e+00	0	32	0	926941184	52	5735
2026-01-27 17:49:17.73	298.20	15.27	-39.1	-40.1	22.0	0.00e+00	0	32	0	929038336	52	5809
2026-01-27 17:49:18.74	298.02	15.20	-38.8	-39.8	22.2	0.00e+00	25	33	0	931135488	52	5603
2026-01-27 17:49:19.74	297.85	15.14	-38.7	-39.8	22.2	0.00e+00	0	32	0	933232640	50	6249
2026-01-27 17:49:20.75	297.67	15.08	-38.7	-39.7	22.2	0.00e+00	72	33	0	934281216	50	6212
2026-01-27 17:49:21.76	297.49	15.02	-38.8	-39.8	22.3	0.00e+00	0	33	0	936378368	50	6275
2026-01-27 17:49:22.77	297.32	14.96	-38.5	-39.4	22.5	0.00e+00	0	33	0	938475520	50	6033
2026-01-27 17:49:23.78	297.14	14.90	-38.5	-39.5	22.5	0.00e+00	0	32	0	940572672	50	6038
2026-01-27 17:49:24.79	296.97	14.84	-38.4	-39.4	22.5	0.00e+00	0	32	0	942669824	50	5988
2026-01-27 17:49:25.80	296.79	14.78	-38.5	-39.5	22.5	0.00e+00	0	33	0	943718400	50	6056
2026-01-27 17:49:26.81	296.62	14.72	-38.6	-39.5	22.4	0.00e+00	0	33	0	945815552	50	6103
2026-01-27 17:49:27.82	296.45	14.65	-38.7	-39.7	22.2	0.00e+00	92	32	0	947912704	50	6239
2026-01-27 17:49:28.83	296.28	14.59	-38.7	-39.8	22.0	0.00e+00	0	32	0	950009856	50	6263
2026-01-27 17:49:29.84	296.11	14.53	-39.2	-40.3	21.8	0.00e+00	7	33	0	952107008	50	6657
2026-01-27 17:49:30.85	295.94	14.47	-39.3	-40.5	21.6	0.00e+00	0	32	0	953155584	50	6796
2026-01-27 17:49:31.86	295.77	14.41	-39.3	-40.5	21.6	0.00e+00	0	32	0	955252736	50	6788
2026-01-27 17:49:32.87	295.60	14.34	-39.3	-40.4	21.6	0.00e+00	9	32	0	957349888	50	6721
2026-01-27 17:49:33.87	295.43	14.28	-39.0	-40.1	21.9	0.00e+00	0	32	0	959447040	50	6484
2026-01-27 17:49:34.88	295.26	14.22	-38.6	-39.6	22.3	0.00e+00	71	32	0	961544192	50	6128
2026-01-27 17:49:35.89	295.10	14.16	-38.4	-39.4	22.5	0.00e+00	0	32	0	962592768	50	5974
2026-01-27 17:49:36.90	294.93	14.09	-38.3	-39.3	22.6	0.00e+00	41	32	0	964689920	50	5901
2026-01-27 17:49:37.91	294.77	14.03	-38.2	-39.1	22.7	0.00e+00	0	32	0	966787072	50	5819
2026-01-27 17:49:38.92	294.60	13.97	-38.0	-39.0	22.8	0.00e+00	0	33	0	968884224	50	5715
2026-01-27 17:49:39.93	294.44	13.91	-38.3	-39.3	22.6	0.00e+00	0	32	0	970981376	50	5929
2026-01-27 17:49:40.93	294.28	13.84	-38.4	-39.5	22.4	0.00e+00	0	32	0	972029952	50	6035
2026-01-27 17:49:41.94	294.11	13.78	-38.7	-39.7	22.1	0.00e+00	90	32	0	974127104	50	6223
2026-01-27 17:49:42.95	293.95	13.72	-38.9	-40.0	22.1	0.00e+00	0	32	0	976224256	50	6396
2026-01-27 17:49:43.96	293.79	13.66	-39.0	-40.1	21.8	0.00e+00	92	32	0	978321408	50	6497
2026-01-27 17:49:44.97	293.63	13.59	-38.9	-39.9	22.0	0.00e+00	0	32	0	980418560	50	6365
2026-01-27 17:49:45.98	293.47	13.53	-38.8	-39.9	22.0	0.00e+00	0	32	0	981467136	50	6352
2026-01-27 17:49:46.99	293.31	13.47	-38.9	-40.0	21.8	0.00e+00	0	32	0	983564288	50	6409
2026-01-27 17:49:48.00	293.16	13.40	-38.7	-39.7	22.2	0.00e+00	0	32	0	985661440	50	6204
2026-01-27 17:49:49.01	293.00	13.34	-38.6	-39.6	22.2	0.00e+00	69	32	0	987758592	50	6138
2026-01-27 17:49:50.02	292.84	13.28	-38.4	-39.4	22.5	0.00e+00	0	33	0	989855744	50	5971
2026-01-27 17:49:51.03	292.68	13.21	-38.2	-39.2	22.6	0.00e+00	90	32	0	990904320	50	5857
2026-01-27 17:49:52.03	292.53	13.15	-38.1	-39.1	22.6	0.00e+00	0	32	0	993001472	50	5769
2026-01-27 17:49:53.04	292.38	13.09	-38.1	-39.0	22.7	0.00e+00	0	32	0	995098624	50	5756
2026-01-27 17:49:54.05	292.22	13.02	-38.0	-39.0	22.7	0.00e+00	0	33	0	997195776	50	5730
2026-01-27 17:49:55.06	292.07	12.96	-37.7	-38.7	23.1	0.00e+00	0	33	0	999292928	48	6183
2026-01-27 17:49:56.08	291.91	12.89	-37.8	-38.7	23.0	0.00e+00	3	33	0	1001390080	48	6215
2026-01-27 17:49:57.08	291.76	12.83	-37.5	-38.4	23.2	0.00e+00	0	32	0	1002438656	48	6027
2026-01-27 17:49:58.10	291.61	12.77	-37.4	-38.2	23.3	0.00e+00	54	32	0	1004535808	48	5895
2026-01-27 17:49:59.10	291.46	12.70	-37.3	-38.2	23.4	0.00e+00	0	32	0	1006632960	48	5836
2026-01-27 17:50:00.11	291.31	12.64	-36.9	-37.7	23.8	0.00e+00	0	32	0	1008730112	48	5551
2026-01-27 17:50:01.12	291.16	12.58	-36.8	-37.7	23.8	0.00e+00	0	32	0	1010827264	46	6183
2026-01-27 17:50:02.13	291.01	12.51	-36.8	-37.6	24.0	0.00e+00	0	33	0	1011875840	46	6160
2026-01-27 17:50:03.14	290.86	12.45	-36.9	-37.8	23.7	0.00e+00	50	32	0	1013972992	46	6275
2026-01-27 17:50:04.15	290.72	12.39	-36.6	-37.5	23.9	0.00e+00	0	32	0	1016070144	46	6046
2026-01-27 17:50:05.16	290.57	12.32	-36.7	-37.6	23.9	0.00e+00	39	32	0	1018167296	46	6131
2026-01-27 17:50:06.17	290.42	12.26	-36.9	-37.7	23.7	0.00e+00	0	32	0	1019215872	46	6228
2026-01-27 17:50:07.18	290.28	12.19	-37.1	-38.0	23.4	0.00e+00	31	32	0	1021313024	46	6416
2026-01-27 17:50:08.19	290.13	12.13	-37.3	-38.2	23.3	0.00e+00	0	32	0	1023410176	46	6584
2026-01-27 17:50:09.20	289.99	12.07	-37.7	-38.7	23.0	0.00e+00	0	32	0	1025507328	46	6955
2026-01-27 17:50:10.21	289.85	12.00	-37.8	-38.7	22.9	0.00e+00	0	32	0	1027604480	48	6238
2026-01-27 17:50:11.21	289.70	11.94	-38.0	-39.0	22.7	0.00e+00	0	32	0	1029701632	48	6391
2026-01-27 17:50:12.22	289.56	11.87	-37.9	-38.9	22.8	0.00e+00	65	32	0	1030750208	48	6322
2026-01-27 17:50:13.23	289.42	11.81	-37.7	-38.7	23.0	0.00e+00	0	32	0	1032847360	48	6208
2026-01-27 17:50:14.24	289.28	11.75	-37.9	-38.8	22.9	0.00e+00	90	32	0	1034944512	48	6303
2026-01-27 17:50:15.26	289.14	11.68	-37.7	-38.7	23.0	0.00e+00	0	32	0	1037041664	48	6188
2026-01-27 17:50:16.26	289.00	11.62	-37.5	-38.4	23.1	0.00e+00	0	32	0	1039138816	48	6015
2026-01-27 17:50:17.27	288.86	11.55	-37.4	-38.3	23.2	0.00e+00	25	32	0	1040187392	48	5932
2026-01-27 17:50:18.28	288.72	11.49	-37.3	-38.2	23.3	0.00e+00	0	32	0	1042284544	48	5831
2026-01-27 17:50:19.29	288.58	11.43	-37.2	-38.1	23.4	0.00e+00	3	32	0	1044381696	48	5820
2026-01-27 17:50:20.30	288.44	11.36	-37.0	-37.9	23.6	0.00e+00	0	32	0	1046478848	48	5655
2026-01-27 17:50:21.31	288.31	11.30	-37.0	-37.9	23.5	0.00e+00	65	32	0	1048576000	48	5631
2026-01-27 17:50:22.32	288.17	11.23	-37.0	-37.9	23.5	0.00e+00	0	32	0	1049624576	48	5675
2026-01-27 17:50:23.33	288.04	11.17	-36.9	-37.8	23.6	0.00e+00	0	32	0	1051721728	48	5599
2026-01-27 17:50:24.34	287.90	11.11	-37.1	-38.0	23.4	0.00e+00	0	32	0	1053818880	48	5727
2026-01-27 17:50:25.35	287.77	11.04	-37.7	-38.6	23.1	0.00e+00	0	32	0	1055916032	48	6128
2026-01-27 17:50:26.36	287.63	10.98	-37.5	-38.4	23.0	0.00e+00	27	32	0	1058013184	48	6012
2026-01-27 17:50:27.37	287.50	10.91	-37.6	-38.6	22.9	0.00e+00	0	32	0	1059061760	48	6119
2026-01-27 17:50:28.38	287.37	10.85	-37.8	-38.8	22.7	0.00e+00	91	32	0	1061158912	48	6246
2026-01-27 17:50:29.39	287.23	10.79	-37.7	-38.7	22.5	0.00e+00	0	32	0	1063256064	48	6216
2026-01-27 17:50:30.39	287.10	10.72	-38.1	-39.1	22.3	0.00e+00	0	32	0	1065353216	48	6527
2026-01-27 17:50:31.40	286.97	10.66	-38.3	-39.3	22.3	0.00e+00	0	32	0	1067450368	48	6670
2026-01-27 17:50:32.41	286.84	10.60	-38.4	-39.4	22.3	0.00e+00	0	33	0	1068498944	48	6722
2026-01-27 17:50:33.42	286.71	10.53	-38.4	-39.4	22.2	0.00e+00	18	32	0	1070596096	48	6767
2026-01-27 17:50:34.43	286.58	10.47	-38.4	-39.4	22.2	0.00e+00	0	32	0	1072693248	48	6757
2026-01-27 17:50:35.44	286.46	10.40	-38.4	-39.4	21.8	0.00e+00	78	32	0	1074790400	48	6744
2026-01-27 17:50:36.45	286.33	10.34	-38.5	-39.5	21.9	0.00e+00	0	32	0	1076887552	48	6809
2026-01-27 17:50:37.46	286.20	10.28	-38.5	-39.6	22.1	0.00e+00	0	32	0	1077936128	48	6879
2026-01-27 17:50:38.47	286.07	10.21	-38.0	-39.0	22.6	0.00e+00	0	32	0	1080033280	48	6426
2026-01-27 17:50:39.48	285.95	10.15	-37.9	-38.9	22.7	0.00e+00	0	32	0	1082130432	48	6340
2026-01-27 17:50:40.48	285.82	10.09	-37.8	-38.7	22.9	0.00e+00	0	32	0	1084227584	48	6235
2026-01-27 17:50:41.49	285.70	10.02	-37.7	-38.6	22.9	0.00e+00	0	32	0	1086324736	48	6168
2026-01-27 17:50:42.50	285.57	9.96	-37.4	-38.3	23.1	0.00e+00	60	32	0	1087373312	48	5943
2026-01-27 17:50:43.50	285.45	9.90	-37.0	-37.8	23.5	0.00e+00	0	32	0	1089470464	48	5630
2026-01-27 17:50:44.51	285.33	9.83	-37.0	-37.8	23.5	0.00e+00	54	32	0	1091567616	48	5625
2026-01-27 17:50:45.52	285.20	9.77	-36.8	-37.7	23.6	0.00e+00	0	33	0	1093664768	48	5527
2026-01-27 17:50:46.53	285.08	9.71	-37.3	-38.2	23.2	0.00e+00	0	32	0	1095761920	48	5844
2026-01-27 17:50:47.54	284.96	9.64	-37.5	-38.5	23.1	0.00e+00	0	32	0	1097859072	48	6047
2026-01-27 17:50:48.55	284.84	9.58	-37.7	-38.7	22.9	0.00e+00	0	32	0	1098907648	48	6182
2026-01-27 17:50:49.56	284.72	9.52	-38.0	-39.0	22.5	0.00e+00	63	32	0	1101004800	48	6415
2026-01-27 17:50:50.57	284.60	9.45	-38.3	-39.3	22.3	0.00e+00	33	32	0	1103101952	48	6625
2026-01-27 17:50:51.58	284.48	9.39	-38.7	-39.8	21.9	0.00e+00	92	33	0	1105199104	48	7035
2026-01-27 17:50:52.59	284.36	9.33	-38.8	-39.8	21.9	0.00e+00	0	33	0	1107296256	48	7064
2026-01-27 17:50:53.60	284.24	9.26	-38.7	-39.8	21.9	0.00e+00	0	33	0	1108344832	50	6283
2026-01-27 17:50:54.61	284.12	9.20	-38.6	-39.7	22.1	0.00e+00	0	33	0	1110441984	50	6175
2026-01-27 17:50:55.62	284.00	9.14	-38.8	-39.9	21.9	0.00e+00	0	33	0	1112539136	50	6342
2026-01-27 17:50:56.63	283.89	9.07	-38.4	-39.4	22.3	0.00e+00	62	33	0	1114636288	50	5993
2026-01-27 17:50:57.64	283.77	9.01	-38.3	-39.3	22.4	0.00e+00	0	33	0	1116733440	50	5909
2026-01-27 17:50:58.64	283.65	8.95	-38.4	-39.5	22.3	0.00e+00	65	33	0	1117782016	50	6044
2026-01-27 17:50:59.65	283.54	8.89	-38.2	-39.2	22.4	0.00e+00	0	32	0	1119879168	50	5891
2026-01-27 17:51:00.66	283.42	8.82	-38.1	-39.1	22.4	0.00e+00	0	32	0	1121976320	50	5813
2026-01-27 17:51:01.67	283.31	8.76	-38.0	-39.0	22.6	0.00e+00	0	32	0	1124073472	50	5732
2026-01-27 17:51:02.68	283.19	8.70	-38.2	-39.2	22.3	0.00e+00	0	33	0	1126170624	50	5868
2026-01-27 17:51:03.70	283.08	8.63	-38.2	-39.2	22.4	0.00e+00	62	33	0	1127219200	50	5868
2026-01-27 17:51:04.71	282.97	8.57	-38.3	-39.3	22.2	0.00e+00	0	33	0	1129316352	50	5944
2026-01-27 17:51:05.71	282.86	8.51	-38.4	-39.5	22.1	0.00e+00	92	33	0	1131413504	50	6052
2026-01-27 17:51:06.72	282.74	8.45	-38.2	-39.2	22.4	0.00e+00	0	32	0	1133510656	50	5871
2026-01-27 17:51:07.73	282.63	8.38	-38.6	-39.6	22.0	0.00e+00	0	32	0	1135607808	50	6170
2026-01-27 17:51:08.74	282.52	8.32	-38.6	-39.6	22.0	0.00e+00	0	33	0	1136656384	50	6161
2026-01-27 17:51:09.75	282.41	8.26	-38.7	-39.8	21.9	0.00e+00	0	32	0	1138753536	50	6292
2026-01-27 17:51:10.76	282.30	8.20	-38.7	-39.8	21.9	0.00e+00	61	33	0	1140850688	50	6247
2026-01-27 17:51:11.77	282.19	8.13	-38.7	-39.8	21.9	0.00e+00	0	33	0	1142947840	50	6280
2026-01-27 17:51:12.78	282.08	8.07	-38.8	-39.8	21.9	0.00e+00	92	32	0	1145044992	50	6306
2026-01-27 17:51:13.79	281.97	8.01	-39.0	-40.1	21.7	0.00e+00	0	32	0	1146093568	50	6466
2026-01-27 17:51:14.80	281.86	7.95	-39.4	-40.5	21.2	0.00e+00	58	33	0	1148190720	50	6848
2026-01-27 17:51:15.81	281.76	7.89	-39.1	-40.2	21.5	0.00e+00	0	32	0	1150287872	50	6599
2026-01-27 17:51:16.82	281.65	7.82	-39.2	-40.3	21.3	0.00e+00	0	32	0	1152385024	50	6678
2026-01-27 17:51:17.83	281.54	7.76	-39.2	-40.4	21.3	0.00e+00	49	33	0	1154482176	50	6720
2026-01-27 17:51:18.84	281.44	7.70	-39.4	-40.5	21.2	0.00e+00	0	32	0	1155530752	50	6835
2026-01-27 17:51:19.85	281.33	7.64	-39.5	-40.6	21.1	0.00e+00	62	33	0	1157627904	50	6911
2026-01-27 17:51:20.86	281.22	7.58	-39.4	-40.5	21.2	0.00e+00	0	32	0	1159725056	50	6824
2026-01-27 17:51:21.87	281.12	7.51	-39.1	-40.3	21.4	0.00e+00	85	33	0	1161822208	50	6616
2026-01-27 17:51:22.88	281.01	7.45	-39.1	-40.2	21.4	0.00e+00	0	33	0	1163919360	50	6567
2026-01-27 17:51:23.88	280.91	7.39	-39.2	-40.3	21.4	0.00e+00	0	33	0	1166016512	50	6670
2026-01-27 17:51:24.89	280.81	7.33	-39.0	-40.1	21.5	0.00e+00	0	32	0	1167065088	50	6495
2026-01-27 17:51:25.90	280.70	7.27	-39.2	-40.3	21.4	0.00e+00	0	33	0	1169162240	50	6681
2026-01-27 17:51:26.91	280.60	7.21	-39.4	-40.5	21.1	0.00e+00	62	33	0	1171259392	50	6823
2026-01-27 17:51:27.92	280.50	7.15	-39.5	-40.7	21.0	0.00e+00	0	33	0	1173356544	50	6995
2026-01-27 17:51:28.93	280.40	7.08	-39.8	-41.1	20.7	0.00e+00	92	32	0	1175453696	50	7268
2026-01-27 17:51:29.94	280.30	7.02	-39.9	-41.2	20.5	0.00e+00	0	32	0	1176502272	52	6567
2026-01-27 17:51:30.95	280.20	6.96	-40.3	-41.7	20.0	0.00e+00	0	33	0	1178599424	52	6975
2026-01-27 17:51:31.96	280.09	6.90	-40.4	-41.8	20.0	0.00e+00	0	32	0	1180696576	52	7046
2026-01-27 17:51:32.97	279.99	6.84	-40.4	-41.8	19.9	0.00e+00	0	33	0	1182793728	52	7069
2026-01-27 17:51:33.98	279.90	6.78	-40.7	-42.1	19.6	0.00e+00	10	32	0	1184890880	54	6501
2026-01-27 17:51:34.99	279.80	6.72	-40.7	-42.2	19.6	0.00e+00	0	33	0	1185939456	54	6579
2026-01-27 17:51:36.00	279.70	6.66	-40.9	-42.4	19.3	0.00e+00	71	33	0	1188036608	54	6701
2026-01-27 17:51:37.01	279.60	6.60	-40.5	-41.9	19.8	0.00e+00	0	33	0	1190133760	54	6355
2026-01-27 17:51:38.02	279.50	6.54	-40.6	-42.0	19.7	0.00e+00	0	32	0	1192230912	54	6462
2026-01-27 17:51:39.03	279.40	6.47	-40.6	-42.0	19.8	0.00e+00	0	33	0	1194328064	54	6405
2026-01-27 17:51:40.04	279.31	6.41	-40.2	-41.5	20.2	0.00e+00	0	32	0	1195376640	54	6080
2026-01-27 17:51:41.05	279.21	6.35	-40.0	-41.3	20.3	0.00e+00	7	33	0	1197473792	54	5964
2026-01-27 17:51:42.06	279.11	6.29	-39.9	-41.2	20.4	0.00e+00	0	32	0	1199570944	54	5872
