passes_logs/2026/01/27/R4.6S_Anadyr/R4.6S_Anadyr__20260127_232511_KOSAR1-5_rec.log

#Pass ID: 20260127_232511_KOSAR1-5
#Satellite: KOSAR1-5
#Configuration: KOSAR1-5
#almurnet v.1.7.20251203
#Start time: 2026-01-27 23:25:12

#Version: 2.2.20231116
#Station: R4.6S_Anadyr
#Location: 177.4865 lon 64.73178 lat
#TLE: 1 67264U 25313S   26027.43234714  .00011684  00000+0  53854-3 0  9991
#TLE: 2 67264  97.4175 104.3970 0016458 139.6900 220.5558 15.20303503  4548

#Time	Az	El	Level	Level2	SNR	BER	BlckErr	Temp	State	Recorded	gain1	gain2
2026-01-27 23:25:12.71	18.07	0.11	-48.8	-63.7	3.5	1.51e+00	0	29	0	0	60	55215
2026-01-27 23:25:13.71	18.09	0.17	-45.4	-60.2	3.6	1.51e+00	0	31	104	0	60	41435
2026-01-27 23:25:14.72	18.10	0.24	-45.5	-60.2	3.6	1.51e+00	0	31	104	0	60	41612
2026-01-27 23:25:15.73	18.12	0.30	-45.5	-60.2	3.6	1.51e+00	0	31	104	0	60	41591
2026-01-27 23:25:16.74	18.13	0.37	-45.5	-60.3	3.6	1.51e+00	0	31	104	0	60	41912
2026-01-27 23:25:17.75	18.15	0.43	-45.5	-60.2	3.6	1.51e+00	0	31	104	0	60	41664
2026-01-27 23:25:18.76	18.16	0.50	-45.6	-60.3	3.5	1.51e+00	0	31	104	0	60	42000
2026-01-27 23:25:19.77	18.18	0.56	-45.7	-60.3	3.5	1.51e+00	0	31	104	0	60	42003
2026-01-27 23:25:20.78	18.19	0.63	-45.7	-60.4	3.6	1.51e+00	0	31	104	0	60	42245
2026-01-27 23:25:21.79	18.21	0.69	-45.7	-60.5	3.6	1.51e+00	0	31	104	0	60	42715
2026-01-27 23:25:22.80	18.23	0.76	-45.7	-60.4	3.6	1.51e+00	0	31	104	0	60	42576
2026-01-27 23:25:23.81	18.24	0.83	-45.4	-60.4	3.6	1.51e+00	0	31	104	0	60	42442
2026-01-27 23:25:24.82	18.26	0.89	-45.6	-60.4	3.6	1.51e+00	0	31	104	0	60	42511
2026-01-27 23:25:25.83	18.27	0.96	-45.5	-60.4	3.6	1.51e+00	0	31	104	0	60	42397
2026-01-27 23:25:26.84	18.29	1.03	-45.6	-60.3	3.6	1.51e+00	0	31	104	0	60	42151
2026-01-27 23:25:27.85	18.31	1.09	-45.6	-60.3	3.6	1.51e+00	0	31	104	0	60	42118
2026-01-27 23:25:28.86	18.32	1.16	-45.5	-60.3	3.6	1.51e+00	0	31	104	0	60	41950
2026-01-27 23:25:29.87	18.34	1.23	-45.6	-60.2	3.6	1.51e+00	0	31	104	0	60	41625
2026-01-27 23:25:30.88	18.36	1.29	-45.4	-60.1	3.6	1.51e+00	0	31	104	0	60	40871
2026-01-27 23:25:31.89	18.37	1.36	-44.9	-59.9	3.6	1.51e+00	0	31	104	0	60	40044
2026-01-27 23:25:32.90	18.39	1.43	-45.0	-59.8	3.6	1.51e+00	0	31	104	0	60	39614
2026-01-27 23:25:33.91	18.40	1.50	-45.0	-59.7	3.6	1.51e+00	0	31	104	0	60	39188
2026-01-27 23:25:34.91	18.42	1.57	-44.8	-59.5	3.6	1.51e+00	0	31	104	0	60	38460
2026-01-27 23:25:35.92	18.44	1.63	-44.6	-59.3	3.6	1.51e+00	0	31	104	0	60	37484
2026-01-27 23:25:36.93	18.45	1.70	-44.5	-59.2	3.6	1.51e+00	0	31	104	0	60	36913
2026-01-27 23:25:37.94	18.47	1.77	-44.5	-59.2	3.6	1.51e+00	0	31	104	0	60	36912
2026-01-27 23:25:38.96	18.49	1.84	-44.5	-59.2	3.6	1.51e+00	0	31	104	0	60	36795
2026-01-27 23:25:39.97	18.51	1.91	-44.5	-59.2	3.6	1.51e+00	0	31	104	0	60	36840
2026-01-27 23:25:40.98	18.52	1.98	-44.5	-59.2	3.6	1.51e+00	0	31	104	0	60	36878
2026-01-27 23:25:41.99	18.54	2.05	-44.5	-59.1	3.6	1.51e+00	0	31	104	0	60	36718
2026-01-27 23:25:43.00	18.56	2.12	-44.4	-59.1	3.6	1.51e+00	0	31	104	0	60	36540
2026-01-27 23:25:44.01	18.57	2.19	-44.4	-59.1	3.6	1.51e+00	0	31	104	0	60	36512
2026-01-27 23:25:45.02	18.59	2.26	-44.4	-59.1	3.6	1.51e+00	0	31	104	0	60	36696
2026-01-27 23:25:46.03	18.61	2.33	-44.5	-59.1	3.6	1.51e+00	0	31	104	0	60	36761
2026-01-27 23:25:47.04	18.63	2.40	-44.5	-59.1	3.6	1.51e+00	0	31	104	0	60	36736
2026-01-27 23:25:48.05	18.65	2.48	-44.4	-59.1	3.6	1.51e+00	0	31	104	0	60	36533
2026-01-27 23:25:49.06	18.66	2.55	-44.4	-59.1	3.6	1.51e+00	0	31	104	0	60	36587
2026-01-27 23:25:50.07	18.68	2.62	-44.4	-59.1	3.6	1.51e+00	0	31	104	0	60	36485
2026-01-27 23:25:51.08	18.70	2.69	-44.4	-59.1	3.6	1.51e+00	0	31	104	0	60	36586
2026-01-27 23:25:52.09	18.72	2.76	-44.4	-59.1	3.6	1.51e+00	0	31	104	0	60	36625
2026-01-27 23:25:53.10	18.73	2.84	-44.4	-59.1	3.6	1.51e+00	0	31	104	0	60	36554
2026-01-27 23:25:54.11	18.75	2.91	-44.4	-59.1	3.6	1.51e+00	0	31	104	0	60	36721
2026-01-27 23:25:55.12	18.77	2.98	-44.4	-59.1	3.6	1.51e+00	0	31	104	0	60	36607
2026-01-27 23:25:56.13	18.79	3.06	-44.4	-59.1	3.6	1.51e+00	0	31	104	0	60	36618
2026-01-27 23:25:57.14	18.81	3.13	-44.4	-59.1	3.6	1.51e+00	0	31	104	0	60	36468
2026-01-27 23:25:58.15	18.83	3.20	-44.4	-59.1	3.6	1.51e+00	0	31	104	0	60	36513
2026-01-27 23:25:59.16	18.85	3.28	-44.4	-59.1	3.6	1.51e+00	0	31	104	0	60	36499
2026-01-27 23:26:00.17	18.86	3.35	-44.4	-59.1	3.6	1.51e+00	0	31	104	0	60	36478
2026-01-27 23:26:01.18	18.88	3.43	-44.4	-59.0	3.6	1.51e+00	0	31	104	0	60	36299
2026-01-27 23:26:02.19	18.90	3.50	-44.4	-59.1	3.6	1.51e+00	0	31	104	0	60	36454
2026-01-27 23:26:03.20	18.92	3.58	-44.4	-59.1	3.6	1.51e+00	0	31	104	0	60	36513
2026-01-27 23:26:04.21	18.94	3.65	-44.4	-59.1	3.6	1.51e+00	0	31	104	0	60	36439
2026-01-27 23:26:05.22	18.96	3.73	-44.4	-59.1	3.6	1.51e+00	0	31	104	0	60	36567
2026-01-27 23:26:06.23	18.98	3.80	-44.4	-59.1	3.6	1.51e+00	0	31	104	0	60	36567
2026-01-27 23:26:07.24	19.00	3.88	-44.4	-59.1	3.6	1.51e+00	0	31	104	0	60	36410
2026-01-27 23:26:08.25	19.02	3.96	-44.4	-59.1	3.6	1.51e+00	0	31	104	0	60	36615
2026-01-27 23:26:09.26	19.04	4.03	-44.4	-59.1	3.6	1.51e+00	0	31	104	0	60	36418
2026-01-27 23:26:10.27	19.06	4.11	-44.4	-59.1	3.6	1.51e+00	0	31	104	0	60	36356
2026-01-27 23:26:11.28	19.08	4.19	-44.5	-59.2	3.6	1.51e+00	0	31	104	0	60	36976
2026-01-27 23:26:12.29	19.10	4.26	-44.4	-59.1	3.6	1.51e+00	0	31	104	0	60	36531
2026-01-27 23:26:13.30	19.12	4.34	-44.5	-59.2	3.6	1.51e+00	0	31	104	0	60	36941
2026-01-27 23:26:14.31	19.14	4.42	-44.6	-59.3	3.6	1.51e+00	0	31	104	0	60	37236
2026-01-27 23:26:15.32	19.16	4.50	-44.4	-59.1	3.6	1.51e+00	0	31	104	0	60	36556
2026-01-27 23:26:16.33	19.18	4.58	-44.5	-59.2	3.6	1.51e+00	0	31	104	0	60	36808
2026-01-27 23:26:17.34	19.20	4.66	-44.5	-59.3	3.6	1.51e+00	0	31	104	0	60	37231
2026-01-27 23:26:18.35	19.22	4.74	-44.6	-59.3	3.6	1.51e+00	0	31	104	0	60	37321
2026-01-27 23:26:19.36	19.24	4.82	-44.5	-59.1	3.6	1.51e+00	0	31	104	0	60	36735
2026-01-27 23:26:20.36	19.26	4.90	-44.5	-59.2	3.6	1.51e+00	0	31	104	0	60	37005
2026-01-27 23:26:21.38	19.28	4.98	-44.6	-59.3	3.6	1.51e+00	0	31	104	0	60	37416
2026-01-27 23:26:22.38	19.30	5.06	-44.6	-59.4	3.6	1.51e+00	0	31	104	0	60	37672
2026-01-27 23:26:23.39	19.32	5.14	-44.5	-59.2	3.6	1.51e+00	0	31	104	0	60	37052
2026-01-27 23:26:24.40	19.34	5.22	-44.6	-59.2	3.6	1.51e+00	0	31	104	0	60	37094
2026-01-27 23:26:25.41	19.37	5.30	-44.6	-59.3	3.6	1.51e+00	0	31	104	0	60	37501
2026-01-27 23:26:26.42	19.39	5.38	-44.7	-59.4	3.6	1.51e+00	0	31	104	0	60	37737
2026-01-27 23:26:27.43	19.41	5.47	-44.6	-59.3	3.6	1.51e+00	0	31	104	0	60	37249
2026-01-27 23:26:28.44	19.43	5.55	-44.5	-59.3	3.6	1.51e+00	0	31	104	0	60	37341
2026-01-27 23:26:29.45	19.45	5.63	-44.6	-59.4	3.6	1.51e+00	0	31	104	0	60	37843
2026-01-27 23:26:30.46	19.47	5.72	-44.6	-59.4	3.6	1.51e+00	0	31	104	0	60	37893
2026-01-27 23:26:31.47	19.50	5.80	-44.6	-59.3	3.6	1.51e+00	0	31	104	0	60	37299
2026-01-27 23:26:32.48	19.52	5.89	-44.6	-59.3	3.6	1.51e+00	0	31	104	0	60	37536
2026-01-27 23:26:33.49	19.54	5.97	-44.7	-59.4	3.6	1.51e+00	0	31	104	0	60	37829
2026-01-27 23:26:34.50	19.56	6.06	-44.7	-59.4	3.6	1.51e+00	0	31	104	0	60	37965
2026-01-27 23:26:35.51	19.59	6.14	-44.6	-59.3	3.6	1.51e+00	0	31	104	0	60	37526
2026-01-27 23:26:36.51	19.61	6.23	-44.7	-59.4	3.6	1.51e+00	0	31	104	0	60	37858
2026-01-27 23:26:37.52	19.63	6.31	-44.7	-59.4	3.6	1.51e+00	0	31	104	0	60	37918
2026-01-27 23:26:38.53	19.65	6.40	-44.7	-59.5	3.6	1.51e+00	0	31	104	0	60	38147
2026-01-27 23:26:39.54	19.68	6.49	-44.7	-59.4	3.6	1.51e+00	0	31	104	0	60	37774
2026-01-27 23:26:40.55	19.70	6.57	-44.7	-59.4	3.6	1.51e+00	0	31	104	0	60	37826
2026-01-27 23:26:41.56	19.72	6.66	-44.7	-59.5	3.6	1.51e+00	0	31	104	0	60	38113
2026-01-27 23:26:42.57	19.75	6.75	-44.8	-59.5	3.6	1.51e+00	0	31	104	0	60	38198
2026-01-27 23:26:43.58	19.77	6.84	-44.7	-59.4	3.6	1.51e+00	0	31	104	0	60	38048
2026-01-27 23:26:44.59	19.80	6.93	-44.8	-59.5	3.6	1.51e+00	0	31	104	0	60	38275
2026-01-27 23:26:45.59	19.82	7.01	-44.8	-59.5	3.6	1.51e+00	0	31	104	0	60	38321
2026-01-27 23:26:46.60	19.84	7.10	-44.8	-59.6	3.6	1.51e+00	0	31	104	0	60	38580
2026-01-27 23:26:47.62	19.87	7.20	-44.8	-59.5	3.6	1.51e+00	0	31	104	0	60	38231
2026-01-27 23:26:48.63	19.89	7.29	-44.8	-59.5	3.5	1.51e+00	0	31	104	0	60	38171
2026-01-27 23:26:49.64	19.92	7.38	-44.8	-59.5	3.6	1.51e+00	0	31	104	0	60	38397
2026-01-27 23:26:50.65	19.94	7.47	-44.9	-59.6	3.6	1.51e+00	0	31	104	0	60	38813
2026-01-27 23:26:51.66	19.97	7.56	-44.8	-59.5	3.6	1.51e+00	0	31	104	0	60	38319
2026-01-27 23:26:52.67	19.99	7.65	-44.8	-59.5	3.6	1.51e+00	0	31	104	0	60	38433
2026-01-27 23:26:53.68	20.02	7.75	-44.9	-59.6	3.6	1.51e+00	0	32	104	0	60	38569
2026-01-27 23:26:54.69	20.04	7.84	-44.9	-59.5	3.6	1.51e+00	0	31	104	0	60	38365
2026-01-27 23:26:55.70	20.07	7.93	-44.8	-59.5	3.6	1.51e+00	0	31	104	0	60	38465
2026-01-27 23:26:56.71	20.10	8.03	-44.9	-59.5	3.6	1.51e+00	0	32	104	0	60	38352
2026-01-27 23:26:57.72	20.12	8.12	-44.9	-59.6	3.6	1.51e+00	0	32	104	0	60	38583
2026-01-27 23:26:58.73	20.15	8.22	-44.8	-59.6	3.6	1.51e+00	0	32	104	0	60	38611
2026-01-27 23:26:59.74	20.17	8.31	-44.9	-59.6	3.6	1.51e+00	0	31	104	0	60	38535
2026-01-27 23:27:00.75	20.20	8.41	-44.8	-59.6	3.6	1.51e+00	0	31	104	0	60	38842
2026-01-27 23:27:01.75	20.23	8.50	-44.9	-59.7	3.6	1.51e+00	0	32	104	0	60	38981
2026-01-27 23:27:02.76	20.25	8.60	-44.9	-59.6	3.6	1.51e+00	0	31	104	0	60	38830
2026-01-27 23:27:03.77	20.28	8.70	-44.8	-59.5	3.6	1.51e+00	0	32	104	0	60	38496
2026-01-27 23:27:04.78	20.31	8.80	-44.9	-59.6	3.6	1.51e+00	0	32	104	0	60	38883
2026-01-27 23:27:05.79	20.34	8.90	-45.0	-59.7	3.6	1.51e+00	0	32	104	0	60	38992
2026-01-27 23:27:06.80	20.36	9.00	-44.9	-59.6	3.6	1.51e+00	0	32	104	0	60	38879
2026-01-27 23:27:07.81	20.39	9.10	-44.9	-59.7	3.6	1.51e+00	0	32	104	0	60	39124
2026-01-27 23:27:08.82	20.42	9.20	-44.9	-59.6	3.6	1.51e+00	0	32	104	0	60	38775
2026-01-27 23:27:09.83	20.45	9.30	-44.8	-59.7	3.6	1.51e+00	0	32	104	0	60	39026
2026-01-27 23:27:10.84	20.48	9.40	-44.8	-59.7	3.6	1.51e+00	0	32	104	0	60	38975
2026-01-27 23:27:11.85	20.51	9.50	-44.9	-59.6	3.6	1.51e+00	0	31	104	0	60	38881
2026-01-27 23:27:12.86	20.54	9.60	-44.9	-59.7	3.6	1.51e+00	0	32	104	0	60	39277
2026-01-27 23:27:13.87	20.56	9.71	-44.9	-59.7	3.6	1.51e+00	0	32	104	0	60	39224
2026-01-27 23:27:14.88	20.59	9.81	-44.9	-59.7	3.6	1.51e+00	0	32	104	0	60	39299
2026-01-27 23:27:15.89	20.62	9.91	-44.9	-59.7	3.6	1.51e+00	0	32	104	0	60	39160
2026-01-27 23:27:16.90	20.65	10.02	-45.0	-59.7	3.6	1.51e+00	0	32	104	0	60	39165
2026-01-27 23:27:17.91	20.68	10.12	-45.0	-59.7	3.6	1.51e+00	0	32	104	0	60	39202
2026-01-27 23:27:18.92	20.71	10.23	-45.0	-59.7	3.6	1.51e+00	0	32	104	0	60	39138
2026-01-27 23:27:19.93	20.74	10.34	-45.0	-59.7	3.6	1.51e+00	0	32	104	0	60	39180
2026-01-27 23:27:20.94	20.78	10.44	-45.0	-59.8	3.6	1.51e+00	0	32	104	0	60	39489
2026-01-27 23:27:21.95	20.81	10.55	-44.3	-59.8	3.6	1.51e+00	0	32	104	0	60	39453
2026-01-27 23:27:22.96	20.84	10.66	-44.9	-59.7	3.6	1.51e+00	0	32	104	0	60	39294
2026-01-27 23:27:23.97	20.87	10.77	-45.0	-59.7	3.6	1.51e+00	0	32	104	0	60	39316
2026-01-27 23:27:24.98	20.90	10.88	-44.4	-59.8	3.6	1.51e+00	0	32	104	0	60	39482
2026-01-27 23:27:25.99	20.93	10.99	-44.9	-59.7	3.6	1.51e+00	0	32	104	0	60	39283
2026-01-27 23:27:27.00	20.97	11.10	-44.1	-59.7	3.6	1.51e+00	0	32	104	0	60	39336
2026-01-27 23:27:28.01	21.00	11.21	-44.5	-59.7	3.6	1.51e+00	0	32	104	0	60	39347
2026-01-27 23:27:29.02	21.03	11.32	-44.9	-59.8	3.6	1.51e+00	0	32	104	0	60	39422
2026-01-27 23:27:30.03	21.06	11.44	-45.1	-59.8	3.6	1.51e+00	0	32	104	0	60	39507
2026-01-27 23:27:31.04	21.10	11.55	-44.9	-59.8	3.6	1.51e+00	0	32	104	0	60	39417
2026-01-27 23:27:32.05	21.13	11.67	-45.1	-59.7	3.5	1.51e+00	0	32	104	0	60	39285
2026-01-27 23:27:33.06	21.17	11.78	-45.0	-59.8	3.6	1.51e+00	0	32	104	0	60	39550
2026-01-27 23:27:34.07	21.20	11.90	-45.0	-59.8	3.6	1.51e+00	0	32	104	0	60	39697
2026-01-27 23:27:35.08	21.23	12.01	-45.1	-59.7	3.6	1.51e+00	0	32	104	0	60	39373
2026-01-27 23:27:36.09	21.27	12.13	-45.0	-59.8	3.6	1.51e+00	0	32	104	0	60	39492
2026-01-27 23:27:37.09	21.30	12.25	-45.1	-59.8	3.6	1.51e+00	0	32	104	0	60	39567
2026-01-27 23:27:38.10	21.34	12.37	-45.1	-59.8	3.6	1.51e+00	0	32	104	0	60	39648
2026-01-27 23:27:39.11	21.37	12.49	-45.0	-59.8	3.6	1.51e+00	0	32	104	0	60	39591
2026-01-27 23:27:40.12	21.41	12.61	-45.0	-59.8	3.6	1.51e+00	0	32	104	0	60	39526
2026-01-27 23:27:41.13	21.45	12.73	-45.1	-59.9	3.6	1.51e+00	0	32	104	0	60	39887
2026-01-27 23:27:42.14	21.48	12.85	-45.1	-59.8	3.6	1.51e+00	0	32	104	0	60	39678
2026-01-27 23:27:43.15	21.52	12.97	-45.0	-59.9	3.6	1.51e+00	0	32	104	0	60	40033
2026-01-27 23:27:44.15	21.56	13.10	-45.1	-59.8	3.6	1.51e+00	0	32	104	0	60	39645
2026-01-27 23:27:45.16	21.60	13.22	-45.1	-59.8	3.6	1.51e+00	0	32	104	0	60	39648
2026-01-27 23:27:46.17	21.63	13.35	-45.0	-59.8	3.6	1.51e+00	0	32	104	0	60	39819
2026-01-27 23:27:47.18	21.67	13.47	-45.1	-59.8	3.6	1.51e+00	0	32	104	0	60	39805
2026-01-27 23:27:48.19	21.71	13.60	-45.1	-59.8	3.5	1.51e+00	0	32	104	0	60	39630
2026-01-27 23:27:49.20	21.75	13.73	-45.1	-59.9	3.6	1.51e+00	0	32	104	0	60	39957
2026-01-27 23:27:50.21	21.79	13.86	-45.1	-59.9	3.6	1.51e+00	0	32	104	0	60	40095
2026-01-27 23:27:51.22	21.83	13.99	-45.1	-59.8	3.6	1.51e+00	0	32	104	0	60	39830
2026-01-27 23:27:52.23	21.87	14.12	-45.0	-59.8	3.6	1.51e+00	0	32	104	0	60	39810
2026-01-27 23:27:53.24	21.91	14.25	-45.1	-59.8	3.6	1.51e+00	0	32	104	0	60	39844
2026-01-27 23:27:54.24	21.95	14.38	-45.1	-59.9	3.6	1.51e+00	0	32	104	0	60	40099
2026-01-27 23:27:55.25	21.99	14.51	-45.1	-59.9	3.6	1.51e+00	0	32	104	0	60	40075
2026-01-27 23:27:56.26	22.03	14.65	-45.1	-59.9	3.6	1.51e+00	0	32	104	0	60	40123
2026-01-27 23:27:57.27	22.08	14.78	-45.2	-59.9	3.6	1.51e+00	0	32	104	0	60	40084
2026-01-27 23:27:58.28	22.12	14.92	-45.2	-59.9	3.6	1.51e+00	0	32	104	0	60	40201
2026-01-27 23:27:59.29	22.16	15.06	-45.2	-59.9	3.6	1.51e+00	0	32	104	0	60	39988
2026-01-27 23:28:00.30	22.20	15.19	-45.2	-59.9	3.6	1.51e+00	0	32	104	0	60	40002
2026-01-27 23:28:01.31	22.25	15.33	-45.2	-59.9	3.6	1.51e+00	0	32	104	0	60	39970
2026-01-27 23:28:02.32	22.29	15.47	-45.0	-59.9	3.6	1.51e+00	0	32	104	0	60	40079
2026-01-27 23:28:03.33	22.34	15.62	-45.2	-59.9	3.6	1.51e+00	0	32	104	0	60	40006
2026-01-27 23:28:04.34	22.38	15.76	-45.2	-59.9	3.6	1.51e+00	0	32	104	0	60	40057
2026-01-27 23:28:05.35	22.43	15.90	-45.3	-59.9	3.6	1.51e+00	0	32	104	0	60	40012
2026-01-27 23:28:06.36	22.47	16.05	-45.3	-59.9	3.6	1.51e+00	0	32	104	0	60	40157
2026-01-27 23:28:07.37	22.52	16.19	-45.1	-59.9	3.6	1.51e+00	0	32	104	0	60	40110
2026-01-27 23:28:08.38	22.57	16.34	-45.1	-59.9	3.6	1.51e+00	0	32	104	0	60	40207
2026-01-27 23:28:09.39	22.62	16.49	-45.3	-59.9	3.6	1.51e+00	0	32	104	0	60	40261
2026-01-27 23:28:10.40	22.66	16.64	-45.2	-60.0	3.6	1.51e+00	0	32	104	0	60	40409
2026-01-27 23:28:11.41	22.71	16.79	-45.2	-60.0	3.6	1.51e+00	0	32	104	0	60	40411
2026-01-27 23:28:12.42	22.76	16.94	-45.2	-59.9	3.6	1.51e+00	0	32	104	0	60	40145
2026-01-27 23:28:13.43	22.81	17.09	-45.2	-59.9	3.6	1.51e+00	0	32	104	0	60	40305
2026-01-27 23:28:14.44	22.86	17.25	-45.1	-60.0	3.6	1.51e+00	0	32	104	0	60	40421
2026-01-27 23:28:15.45	22.91	17.40	-45.3	-59.9	3.6	1.51e+00	0	32	104	0	60	40309
2026-01-27 23:28:16.46	22.96	17.56	-45.2	-60.0	3.6	1.51e+00	0	32	104	0	60	40370
2026-01-27 23:28:17.47	23.02	17.72	-44.9	-60.0	3.6	1.51e+00	0	32	104	0	60	40365
2026-01-27 23:28:18.48	23.07	17.87	-45.2	-60.0	3.6	1.51e+00	0	32	104	0	60	40469
2026-01-27 23:28:19.49	23.12	18.04	-45.2	-60.0	3.6	1.51e+00	0	32	104	0	60	40341
2026-01-27 23:28:20.50	23.18	18.20	-45.0	-60.0	3.6	1.51e+00	0	32	104	0	60	40365
2026-01-27 23:28:21.51	23.23	18.36	-45.3	-60.0	3.6	1.51e+00	0	32	104	0	60	40396
2026-01-27 23:28:22.52	23.28	18.53	-45.3	-60.0	3.6	1.51e+00	0	32	104	0	60	40374
2026-01-27 23:28:23.53	23.34	18.69	-45.2	-60.0	3.6	1.51e+00	0	32	104	0	60	40446
2026-01-27 23:28:24.54	23.40	18.86	-45.3	-60.0	3.6	1.51e+00	0	32	104	0	60	40606
2026-01-27 23:28:25.55	23.45	19.03	-45.3	-60.0	3.6	1.51e+00	0	32	104	0	60	40495
2026-01-27 23:28:26.56	23.51	19.20	-45.2	-60.0	3.6	1.51e+00	0	32	104	0	60	40593
2026-01-27 23:28:27.57	23.57	19.37	-45.3	-60.0	3.6	1.51e+00	0	32	104	0	60	40658
2026-01-27 23:28:28.58	23.63	19.54	-45.3	-60.0	3.6	1.51e+00	0	32	104	0	60	40499
2026-01-27 23:28:29.59	23.69	19.72	-45.3	-60.0	3.6	1.51e+00	0	32	104	0	60	40516
2026-01-27 23:28:30.60	23.75	19.89	-45.3	-60.0	3.6	1.51e+00	0	32	104	0	60	40633
2026-01-27 23:28:31.60	23.81	20.07	-45.2	-60.0	3.6	1.51e+00	0	32	104	0	60	40475
2026-01-27 23:28:32.62	23.87	20.25	-45.3	-60.0	3.6	1.51e+00	0	32	104	0	60	40710
2026-01-27 23:28:33.62	23.93	20.43	-45.2	-60.0	3.6	1.51e+00	0	32	104	0	60	40615
2026-01-27 23:28:34.63	24.00	20.61	-45.4	-60.1	3.6	1.51e+00	0	32	104	0	60	40857
2026-01-27 23:28:35.64	24.06	20.80	-45.3	-60.0	3.6	1.51e+00	0	32	104	0	60	40638
2026-01-27 23:28:36.65	24.13	20.99	-45.3	-60.0	3.6	1.51e+00	0	32	104	0	60	40652
2026-01-27 23:28:37.66	24.19	21.17	-45.3	-60.1	3.6	1.51e+00	0	32	104	0	60	40816
2026-01-27 23:28:38.67	24.26	21.36	-45.4	-60.0	3.6	1.51e+00	0	32	104	0	60	40644
2026-01-27 23:28:39.68	24.33	21.55	-45.3	-60.0	3.6	1.51e+00	0	32	104	0	60	40760
2026-01-27 23:28:40.69	24.40	21.75	-45.3	-60.1	3.6	1.51e+00	0	32	104	0	60	40869
2026-01-27 23:28:41.70	24.47	21.94	-45.4	-60.1	3.6	1.51e+00	0	32	104	0	60	40896
2026-01-27 23:28:42.71	24.54	22.14	-45.4	-60.1	3.6	1.51e+00	0	32	104	0	60	41183
2026-01-27 23:28:43.72	24.61	22.34	-45.4	-60.1	3.6	1.51e+00	0	32	104	0	60	40828
2026-01-27 23:28:44.73	24.68	22.54	-45.4	-60.1	3.6	1.51e+00	0	32	104	0	60	40913
2026-01-27 23:28:45.74	24.76	22.74	-45.3	-60.1	3.6	1.51e+00	0	32	104	0	60	40958
2026-01-27 23:28:46.75	24.83	22.95	-45.4	-60.0	3.6	1.51e+00	0	32	104	0	60	40727
2026-01-27 23:28:47.76	24.91	23.15	-45.4	-60.1	3.6	1.51e+00	0	32	104	0	60	40793
2026-01-27 23:28:48.77	24.98	23.36	-45.2	-60.1	3.6	1.51e+00	0	32	104	0	60	40945
2026-01-27 23:28:49.78	25.06	23.57	-45.4	-60.1	3.6	1.51e+00	0	32	104	0	60	40809
2026-01-27 23:28:50.79	25.14	23.79	-45.3	-60.1	3.6	1.51e+00	0	32	104	0	60	40958
2026-01-27 23:28:51.80	25.22	24.00	-45.4	-60.1	3.6	1.51e+00	0	32	104	0	60	40881
2026-01-27 23:28:52.81	25.30	24.22	-45.4	-60.1	3.6	1.51e+00	0	32	104	0	60	41022
2026-01-27 23:28:53.82	25.38	24.44	-45.4	-60.1	3.6	1.51e+00	0	32	104	0	60	40884
2026-01-27 23:28:54.82	25.47	24.66	-45.4	-60.1	3.5	1.51e+00	0	32	104	0	60	40880
2026-01-27 23:28:55.83	25.55	24.88	-45.4	-60.0	3.6	1.51e+00	0	32	104	0	60	40682
2026-01-27 23:28:56.84	25.64	25.11	-45.3	-60.1	3.6	1.51e+00	0	32	104	0	60	40860
2026-01-27 23:28:57.85	25.73	25.34	-45.4	-60.1	3.6	1.51e+00	0	32	104	0	60	41020
2026-01-27 23:28:58.87	25.82	25.57	-45.4	-60.1	3.6	1.51e+00	0	32	104	0	60	40952
2026-01-27 23:28:59.88	25.91	25.80	-45.2	-60.1	3.6	1.51e+00	0	32	104	0	60	40922
2026-01-27 23:29:00.88	26.00	26.04	-45.3	-60.1	3.6	1.51e+00	0	32	104	0	60	41046
2026-01-27 23:29:01.89	26.09	26.28	-45.4	-60.1	3.6	1.51e+00	0	32	104	0	60	41053
2026-01-27 23:29:02.90	26.19	26.52	-45.4	-60.1	3.6	1.51e+00	0	32	104	0	60	41109
2026-01-27 23:29:03.91	26.28	26.76	-45.4	-60.1	3.6	1.51e+00	0	32	104	0	60	40876
2026-01-27 23:29:04.92	26.38	27.01	-45.4	-60.1	3.6	1.51e+00	0	32	104	0	60	41186
2026-01-27 23:29:05.93	26.48	27.26	-45.4	-60.1	3.6	1.51e+00	0	32	104	0	60	40899
2026-01-27 23:29:06.94	26.58	27.51	-45.3	-60.1	3.6	1.51e+00	0	32	104	0	60	41033
2026-01-27 23:29:07.95	26.68	27.76	-45.4	-60.1	3.6	1.51e+00	0	32	104	0	60	41230
2026-01-27 23:29:08.96	26.79	28.02	-45.4	-60.1	3.6	1.51e+00	0	32	104	0	60	41172
2026-01-27 23:29:09.97	26.89	28.28	-45.4	-60.1	3.6	1.51e+00	0	32	104	0	60	41092
2026-01-27 23:29:10.98	27.00	28.54	-45.3	-60.1	3.6	1.51e+00	0	32	104	0	60	40873
2026-01-27 23:29:11.99	27.11	28.81	-45.3	-60.2	3.6	1.51e+00	0	32	104	0	60	41348
2026-01-27 23:29:13.00	27.23	29.08	-45.3	-60.2	3.6	1.51e+00	0	32	104	0	60	41314
2026-01-27 23:29:14.01	27.34	29.35	-45.3	-60.1	3.6	1.51e+00	0	32	104	0	60	41091
2026-01-27 23:29:15.02	27.46	29.62	-45.3	-60.2	3.6	1.51e+00	0	32	104	0	60	41282
2026-01-27 23:29:16.03	27.57	29.90	-45.4	-60.2	3.6	1.51e+00	0	32	104	0	60	41318
2026-01-27 23:29:17.04	27.69	30.18	-45.4	-60.1	3.6	1.51e+00	0	32	104	0	60	41041
2026-01-27 23:29:18.05	27.82	30.47	-45.3	-60.2	3.6	1.51e+00	0	32	104	0	60	41323
2026-01-27 23:29:19.06	27.94	30.75	-45.5	-60.2	3.6	1.51e+00	0	32	104	0	60	41287
2026-01-27 23:29:20.07	28.07	31.04	-45.4	-60.1	3.6	1.51e+00	0	32	104	0	60	41167
2026-01-27 23:29:21.08	28.20	31.34	-45.5	-60.2	3.6	1.51e+00	0	32	104	0	60	41330
2026-01-27 23:29:22.09	28.33	31.64	-45.4	-60.1	3.6	1.51e+00	0	32	104	0	60	41080
2026-01-27 23:29:23.10	28.47	31.94	-45.4	-60.2	3.6	1.51e+00	0	32	104	0	60	41363
2026-01-27 23:29:24.11	28.60	32.24	-45.3	-60.1	3.6	1.51e+00	0	32	104	0	60	41033
2026-01-27 23:29:25.12	28.74	32.55	-45.3	-60.2	3.6	1.51e+00	0	32	104	0	60	41351
2026-01-27 23:29:26.13	28.89	32.86	-45.4	-60.2	3.6	1.51e+00	0	32	104	0	60	41479
2026-01-27 23:29:27.14	29.03	33.18	-45.3	-60.2	3.6	1.51e+00	0	32	104	0	60	41285
2026-01-27 23:29:28.15	29.18	33.50	-45.3	-60.2	3.6	1.51e+00	0	32	104	0	60	41324
2026-01-27 23:29:29.16	29.34	33.82	-45.5	-60.2	3.6	1.51e+00	0	32	104	0	60	41643
2026-01-27 23:29:30.17	29.49	34.15	-45.5	-60.2	3.6	1.51e+00	0	32	104	0	60	41437
2026-01-27 23:29:31.18	29.65	34.48	-45.5	-60.2	3.6	1.51e+00	0	32	104	0	60	41427
2026-01-27 23:29:32.19	29.81	34.81	-45.4	-60.2	3.6	1.51e+00	0	32	104	0	60	41319
2026-01-27 23:29:33.20	29.98	35.15	-45.5	-60.2	3.6	1.51e+00	0	32	104	0	60	41715
2026-01-27 23:29:34.21	30.15	35.49	-45.5	-60.3	3.6	1.51e+00	0	32	104	0	60	41809
2026-01-27 23:29:35.22	30.32	35.84	-45.5	-60.2	3.6	1.51e+00	0	32	104	0	60	41669
2026-01-27 23:29:36.23	30.50	36.19	-45.4	-60.2	3.6	1.51e+00	0	32	104	0	60	41718
2026-01-27 23:29:37.24	30.68	36.54	-45.5	-60.2	3.6	1.51e+00	0	32	104	0	60	41626
2026-01-27 23:29:38.24	30.86	36.90	-45.4	-60.2	3.6	1.51e+00	0	32	104	0	60	41460
2026-01-27 23:29:39.25	31.05	37.26	-45.5	-60.2	3.6	1.51e+00	0	32	104	0	60	41567
2026-01-27 23:29:40.27	31.24	37.63	-45.5	-60.2	3.6	1.51e+00	0	32	104	0	60	41483
2026-01-27 23:29:41.27	31.44	38.00	-45.5	-60.2	3.6	1.51e+00	0	32	104	0	60	41635
2026-01-27 23:29:42.28	31.64	38.38	-45.2	-60.2	3.6	1.51e+00	0	32	104	0	60	41538
2026-01-27 23:29:43.29	31.85	38.76	-45.4	-60.2	3.6	1.51e+00	0	32	104	0	60	41625
2026-01-27 23:29:44.30	32.06	39.15	-45.0	-60.2	3.6	1.51e+00	0	32	104	0	60	41496
2026-01-27 23:29:45.31	32.28	39.54	-45.6	-60.2	3.6	1.51e+00	0	32	104	0	60	41710
2026-01-27 23:29:46.32	32.51	39.93	-45.6	-60.3	3.6	1.51e+00	0	32	104	0	60	41859
2026-01-27 23:29:47.33	32.74	40.33	-45.4	-60.2	3.6	1.51e+00	0	32	104	0	60	41448
2026-01-27 23:29:48.34	32.97	40.73	-45.5	-60.2	3.6	1.51e+00	0	32	104	0	60	41570
2026-01-27 23:29:49.35	33.21	41.14	-45.5	-60.2	3.6	1.51e+00	0	32	104	0	60	41655
2026-01-27 23:29:50.36	33.46	41.56	-45.4	-60.2	3.6	1.51e+00	0	32	104	0	60	41708
2026-01-27 23:29:51.37	33.72	41.98	-45.4	-60.2	3.6	1.51e+00	0	32	104	0	60	41637
2026-01-27 23:29:52.38	33.98	42.40	-45.4	-60.2	3.6	1.51e+00	0	32	104	0	60	41696
2026-01-27 23:29:53.39	34.25	42.83	-45.6	-60.2	3.6	1.51e+00	0	32	104	0	60	41679
2026-01-27 23:29:54.40	34.52	43.26	-45.6	-60.2	3.6	1.51e+00	0	32	104	0	60	41503
2026-01-27 23:29:55.41	34.81	43.70	-45.6	-60.2	3.6	1.51e+00	0	32	104	0	60	41647
2026-01-27 23:29:56.42	35.10	44.14	-45.5	-60.2	3.6	1.51e+00	0	32	104	0	60	41573
2026-01-27 23:29:57.43	35.40	44.59	-45.6	-60.3	3.6	1.51e+00	0	32	104	0	60	41893
2026-01-27 23:29:58.44	35.71	45.05	-45.6	-60.2	3.6	1.51e+00	0	32	104	0	60	41724
2026-01-27 23:29:59.45	36.03	45.50	-45.5	-60.3	3.6	1.51e+00	0	32	104	0	60	41931
2026-01-27 23:30:00.46	36.36	45.97	-45.6	-60.2	3.6	1.51e+00	0	32	104	0	60	41440
2026-01-27 23:30:01.47	36.70	46.43	-45.5	-60.2	3.6	1.51e+00	0	32	104	0	60	41619
2026-01-27 23:30:02.48	37.05	46.91	-45.6	-60.3	3.6	1.51e+00	0	32	104	0	60	41793
2026-01-27 23:30:03.49	37.41	47.39	-45.5	-60.3	3.6	1.51e+00	0	32	104	0	60	41776
2026-01-27 23:30:04.50	37.78	47.87	-45.6	-60.2	3.6	1.51e+00	0	32	104	0	60	41683
2026-01-27 23:30:05.51	38.16	48.36	-45.6	-60.3	3.6	1.51e+00	0	32	104	0	60	41751
2026-01-27 23:30:06.52	38.56	48.85	-45.5	-60.2	3.6	1.51e+00	0	32	104	0	60	41602
2026-01-27 23:30:07.53	38.97	49.35	-45.5	-60.3	3.6	1.51e+00	0	32	104	0	60	41792
2026-01-27 23:30:08.54	39.39	49.85	-45.4	-60.2	3.6	1.51e+00	0	32	104	0	60	41658
2026-01-27 23:30:09.55	39.83	50.36	-45.5	-60.2	3.6	1.51e+00	0	32	104	0	60	41608
2026-01-27 23:30:10.56	40.29	50.87	-45.5	-60.2	3.6	1.51e+00	0	32	104	0	60	41454
2026-01-27 23:30:11.57	40.76	51.38	-45.4	-60.2	3.6	1.51e+00	0	32	104	0	60	41520
2026-01-27 23:30:12.58	41.24	51.90	-45.5	-60.2	3.6	1.51e+00	0	32	104	0	60	41550
2026-01-27 23:30:13.59	41.75	52.43	-45.5	-60.3	3.6	1.51e+00	0	32	104	0	60	41772
2026-01-27 23:30:14.60	42.27	52.96	-45.5	-60.3	3.6	1.51e+00	0	32	104	0	60	41754
2026-01-27 23:30:15.61	42.81	53.49	-45.5	-60.2	3.6	1.51e+00	0	32	104	0	60	41544
2026-01-27 23:30:16.62	43.37	54.03	-45.5	-60.2	3.6	1.51e+00	0	32	104	0	60	41522
2026-01-27 23:30:17.63	43.96	54.56	-45.6	-60.3	3.6	1.51e+00	0	32	104	0	60	42114
2026-01-27 23:30:18.64	44.57	55.11	-45.6	-60.3	3.6	1.51e+00	0	32	104	0	60	41969
2026-01-27 23:30:19.65	45.20	55.65	-45.6	-60.2	3.6	1.51e+00	0	32	104	0	60	41713
2026-01-27 23:30:20.66	45.85	56.20	-45.6	-60.2	3.6	1.51e+00	0	32	104	0	60	41678
2026-01-27 23:30:21.67	46.54	56.75	-45.7	-60.3	3.6	1.51e+00	0	32	104	0	60	42112
2026-01-27 23:30:22.68	47.25	57.30	-45.6	-60.3	3.6	1.51e+00	0	32	104	0	60	41853
2026-01-27 23:30:23.69	47.99	57.86	-45.6	-60.2	3.6	1.51e+00	0	32	104	0	60	41675
2026-01-27 23:30:24.70	48.77	58.41	-45.6	-60.3	3.6	1.51e+00	0	32	104	0	60	41873
2026-01-27 23:30:25.71	49.57	58.97	-45.5	-60.3	3.6	1.51e+00	0	32	104	0	60	42035
2026-01-27 23:30:26.72	50.41	59.53	-45.6	-60.3	3.6	1.51e+00	0	32	104	0	60	41838
2026-01-27 23:30:27.73	51.29	60.08	-45.5	-60.2	3.6	1.51e+00	0	32	104	0	60	41699
2026-01-27 23:30:28.74	52.21	60.64	-45.6	-60.3	3.6	1.51e+00	0	32	104	0	60	42116
2026-01-27 23:30:29.75	53.17	61.19	-45.6	-60.3	3.6	1.51e+00	0	32	104	0	60	42017
2026-01-27 23:30:30.76	54.18	61.74	-45.5	-60.3	3.6	1.51e+00	0	32	104	0	60	41947
2026-01-27 23:30:31.77	55.23	62.29	-45.5	-60.3	3.6	1.51e+00	0	32	104	0	60	41763
2026-01-27 23:30:32.78	56.32	62.84	-45.6	-60.3	3.6	1.51e+00	0	32	104	0	60	42028
2026-01-27 23:30:33.79	57.47	63.38	-45.6	-60.3	3.6	1.51e+00	0	32	104	0	60	41919
2026-01-27 23:30:34.80	58.68	63.92	-45.6	-60.3	3.6	1.51e+00	0	32	104	0	60	41908
2026-01-27 23:30:35.81	59.94	64.44	-45.6	-60.3	3.6	1.51e+00	0	32	104	0	60	41824
2026-01-27 23:30:36.82	61.26	64.97	-45.6	-60.3	3.6	1.51e+00	0	32	104	0	60	42020
2026-01-27 23:30:37.83	62.65	65.48	-45.8	-60.5	3.6	1.51e+00	0	32	104	0	60	43040
2026-01-27 23:30:38.83	64.08	65.98	-45.7	-60.4	3.6	1.51e+00	0	32	104	0	60	42659
2026-01-27 23:30:39.84	65.60	66.47	-45.7	-60.4	3.5	1.51e+00	0	32	104	0	60	42409
2026-01-27 23:30:40.85	67.19	66.95	-45.6	-60.3	3.6	1.51e+00	0	32	104	0	60	42099
2026-01-27 23:30:41.86	68.85	67.42	-45.6	-60.3	3.6	1.51e+00	0	32	104	0	60	41894
2026-01-27 23:30:42.87	70.59	67.87	-45.5	-60.2	3.6	1.51e+00	0	32	104	0	60	41684
2026-01-27 23:30:43.88	72.40	68.31	-45.5	-60.2	3.6	1.51e+00	0	32	104	0	60	41710
2026-01-27 23:30:44.89	74.30	68.72	-45.5	-60.2	3.6	1.51e+00	0	32	104	0	60	41545
2026-01-27 23:30:45.90	76.27	69.12	-45.5	-60.2	3.6	1.51e+00	0	32	104	0	60	41490
2026-01-27 23:30:46.91	78.33	69.49	-45.4	-60.2	3.6	1.51e+00	0	32	104	0	60	41419
2026-01-27 23:30:47.92	80.46	69.84	-45.4	-60.2	3.6	1.51e+00	0	32	104	0	60	41325
2026-01-27 23:30:48.93	82.67	70.17	-45.5	-60.2	3.6	1.51e+00	0	32	104	0	60	41645
2026-01-27 23:30:49.94	84.96	70.47	-45.4	-60.2	3.6	1.51e+00	0	32	104	0	60	41589
2026-01-27 23:30:50.95	87.33	70.73	-45.4	-60.2	3.6	1.51e+00	0	32	104	0	60	41551
2026-01-27 23:30:51.96	89.76	70.97	-45.5	-60.3	3.6	1.51e+00	0	32	104	0	60	41782
2026-01-27 23:30:52.97	92.25	71.18	-45.6	-60.3	3.6	1.51e+00	0	32	104	0	60	41906
2026-01-27 23:30:53.98	94.79	71.35	-45.6	-60.3	3.6	1.51e+00	0	32	104	0	60	42040
2026-01-27 23:30:54.99	97.38	71.49	-45.5	-60.3	3.6	1.51e+00	0	32	104	0	60	41842
2026-01-27 23:30:56.00	100.01	71.59	-45.5	-60.3	3.6	1.51e+00	0	32	104	0	60	42048
2026-01-27 23:30:57.01	102.66	71.65	-45.6	-60.3	3.6	1.51e+00	0	32	104	0	60	41753
2026-01-27 23:30:58.02	105.32	71.68	-45.5	-60.2	3.6	1.51e+00	0	32	104	0	60	41681
2026-01-27 23:30:59.03	107.99	71.67	-45.5	-60.3	3.6	1.51e+00	0	32	104	0	60	41889
2026-01-27 23:31:00.04	110.65	71.63	-45.6	-60.2	3.6	1.51e+00	0	32	104	0	60	41580
2026-01-27 23:31:01.05	113.30	71.54	-45.5	-60.3	3.6	1.51e+00	0	32	104	0	60	41777
2026-01-27 23:31:02.06	115.91	71.42	-45.5	-60.3	3.6	1.51e+00	0	32	104	0	60	41820
2026-01-27 23:31:03.07	118.48	71.27	-45.5	-60.2	3.6	1.51e+00	0	32	104	0	60	41673
2026-01-27 23:31:04.08	121.00	71.08	-45.5	-60.3	3.6	1.51e+00	0	32	104	0	60	41921
2026-01-27 23:31:05.09	123.46	70.86	-45.5	-60.2	3.6	1.51e+00	0	32	104	0	60	41636
2026-01-27 23:31:06.10	125.86	70.60	-45.5	-60.2	3.6	1.51e+00	0	32	104	0	60	41423
2026-01-27 23:31:07.11	128.18	70.32	-45.5	-60.2	3.6	1.51e+00	0	32	104	0	60	41448
2026-01-27 23:31:08.12	130.44	70.01	-45.4	-60.2	3.6	1.51e+00	0	32	104	0	60	41581
2026-01-27 23:31:09.13	132.62	69.67	-45.5	-60.1	3.6	1.51e+00	0	32	104	0	60	41255
2026-01-27 23:31:10.14	134.71	69.31	-45.5	-60.2	3.6	1.51e+00	0	32	104	0	60	41474
2026-01-27 23:31:11.15	136.73	68.92	-45.5	-60.2	3.6	1.51e+00	0	32	104	0	60	41412
2026-01-27 23:31:12.16	138.67	68.51	-45.6	-60.3	3.6	1.51e+00	0	32	104	0	60	41795
2026-01-27 23:31:13.17	140.53	68.09	-45.5	-60.2	3.6	1.51e+00	0	32	104	0	60	41710
2026-01-27 23:31:14.18	142.30	67.64	-45.6	-60.3	3.6	1.51e+00	0	32	104	0	60	41933
2026-01-27 23:31:15.19	144.01	67.18	-45.5	-60.2	3.6	1.51e+00	0	32	104	0	60	41697
2026-01-27 23:31:16.20	145.63	66.70	-45.5	-60.3	3.6	1.51e+00	0	32	104	0	60	41818
2026-01-27 23:31:17.21	147.19	66.22	-45.6	-60.3	3.6	1.51e+00	0	32	104	0	60	41752
2026-01-27 23:31:18.22	148.67	65.72	-45.6	-60.3	3.6	1.51e+00	0	32	104	0	60	41932
2026-01-27 23:31:19.23	150.09	65.20	-45.5	-60.2	3.6	1.51e+00	0	32	104	0	60	41643
2026-01-27 23:31:20.24	151.44	64.68	-45.5	-60.2	3.6	1.51e+00	0	32	104	0	60	41597
2026-01-27 23:31:21.25	152.73	64.16	-45.5	-60.3	3.6	1.51e+00	0	32	104	0	60	41821
2026-01-27 23:31:22.26	153.97	63.62	-45.2	-60.3	3.6	1.51e+00	0	32	104	0	60	41881
2026-01-27 23:31:23.27	155.15	63.08	-45.2	-60.2	3.6	1.51e+00	0	32	104	0	60	41639
2026-01-27 23:31:24.28	156.27	62.54	-45.1	-60.3	3.6	1.51e+00	0	32	104	0	60	41902
2026-01-27 23:31:25.29	157.35	61.99	-45.4	-60.3	3.6	1.51e+00	0	32	104	0	60	41778
2026-01-27 23:31:26.30	158.37	61.43	-45.3	-60.2	3.6	1.51e+00	0	32	104	0	60	41602
2026-01-27 23:31:27.31	159.36	60.88	-45.3	-60.2	3.6	1.51e+00	0	32	104	0	60	41581
2026-01-27 23:31:28.32	160.30	60.32	-45.3	-60.3	3.6	1.51e+00	0	32	104	0	60	42187
2026-01-27 23:31:29.33	161.20	59.76	-45.2	-60.3	3.6	1.51e+00	0	32	104	0	60	41888
2026-01-27 23:31:30.34	162.06	59.20	-45.3	-60.3	3.6	1.51e+00	0	32	104	0	60	41748
2026-01-27 23:31:31.34	162.87	58.65	-45.2	-60.3	3.6	1.51e+00	0	32	104	0	60	41822
2026-01-27 23:31:32.36	163.67	58.09	-45.3	-60.2	3.6	1.51e+00	0	32	104	0	60	41509
2026-01-27 23:31:33.37	164.43	57.53	-45.3	-60.2	3.6	1.51e+00	0	32	104	0	60	41698
2026-01-27 23:31:34.38	165.16	56.97	-45.1	-60.3	3.6	1.51e+00	0	32	104	0	60	42014
2026-01-27 23:31:35.39	165.86	56.42	-45.3	-60.2	3.6	1.51e+00	0	32	104	0	60	41691
2026-01-27 23:31:36.40	166.53	55.87	-45.0	-60.3	3.6	1.51e+00	0	32	104	0	60	41846
2026-01-27 23:31:37.41	167.17	55.32	-45.5	-60.3	3.6	1.51e+00	0	32	104	0	60	42080
2026-01-27 23:31:38.42	167.79	54.77	-45.5	-60.3	3.6	1.51e+00	0	32	104	0	60	42023
2026-01-27 23:31:39.43	168.39	54.23	-45.5	-60.2	3.6	1.51e+00	0	32	104	0	60	41725
2026-01-27 23:31:40.43	168.95	53.69	-45.5	-60.3	3.6	1.51e+00	0	32	104	0	60	42044
2026-01-27 23:31:41.44	169.51	53.16	-45.6	-60.2	3.6	1.51e+00	0	32	104	0	60	41637
2026-01-27 23:31:42.45	170.04	52.63	-45.6	-60.2	3.6	1.51e+00	0	32	104	0	60	41592
2026-01-27 23:31:43.46	170.55	52.10	-45.6	-60.2	3.6	1.51e+00	0	32	104	0	60	41640
2026-01-27 23:31:44.47	171.05	51.57	-45.5	-60.3	3.6	1.51e+00	0	32	104	0	60	41838
2026-01-27 23:31:45.48	171.53	51.05	-45.6	-60.3	3.6	1.51e+00	0	32	104	0	60	41870
2026-01-27 23:31:46.49	171.99	50.53	-45.5	-60.3	3.6	1.51e+00	0	32	104	0	60	41787
2026-01-27 23:31:47.50	172.44	50.02	-45.5	-60.2	3.6	1.51e+00	0	32	104	0	60	41601
2026-01-27 23:31:48.52	172.87	49.51	-45.5	-60.3	3.6	1.51e+00	0	32	104	0	60	41907
2026-01-27 23:31:49.52	173.28	49.01	-45.6	-60.3	3.6	1.51e+00	0	32	104	0	60	42082
2026-01-27 23:31:50.54	173.69	48.51	-45.6	-60.2	3.6	1.51e+00	0	32	104	0	60	41558
2026-01-27 23:31:51.54	174.08	48.02	-45.6	-60.3	3.6	1.51e+00	0	32	104	0	60	41966
2026-01-27 23:31:52.55	174.46	47.54	-45.5	-60.3	3.6	1.51e+00	0	32	104	0	60	41754
2026-01-27 23:31:53.56	174.82	47.05	-45.6	-60.3	3.6	1.51e+00	0	32	104	0	60	41925
2026-01-27 23:31:54.57	175.18	46.57	-45.6	-60.2	3.6	1.51e+00	0	32	104	0	60	41715
2026-01-27 23:31:55.58	175.52	46.10	-45.6	-60.3	3.6	1.51e+00	0	32	104	0	60	41956
2026-01-27 23:31:56.59	175.85	45.63	-45.6	-60.2	3.6	1.51e+00	0	32	104	0	60	41644
2026-01-27 23:31:57.60	176.18	45.17	-45.6	-60.3	3.6	1.51e+00	0	32	104	0	60	41781
2026-01-27 23:31:58.61	176.49	44.71	-45.5	-60.3	3.6	1.51e+00	0	32	104	0	60	41883
2026-01-27 23:31:59.62	176.80	44.26	-45.6	-60.3	3.6	1.51e+00	0	32	104	0	60	41808
2026-01-27 23:32:00.63	177.10	43.81	-45.4	-60.3	3.6	1.51e+00	0	32	104	0	60	41782
2026-01-27 23:32:01.64	177.38	43.37	-45.3	-60.3	3.6	1.51e+00	0	32	104	0	60	42046
2026-01-27 23:32:02.65	177.66	42.93	-45.3	-60.3	3.6	1.51e+00	0	32	104	0	60	41912
2026-01-27 23:32:03.66	177.94	42.50	-45.4	-60.3	3.6	1.51e+00	0	32	104	0	60	42123
2026-01-27 23:32:04.67	178.20	42.07	-45.3	-60.3	3.6	1.51e+00	0	32	104	0	60	42091
2026-01-27 23:32:05.68	178.46	41.65	-45.5	-60.3	3.6	1.51e+00	0	32	104	0	60	41929
2026-01-27 23:32:06.69	178.71	41.23	-45.5	-60.3	3.6	1.51e+00	0	32	104	0	60	41743
2026-01-27 23:32:07.70	178.96	40.81	-45.5	-60.3	3.6	1.51e+00	0	32	104	0	60	41870
2026-01-27 23:32:08.71	179.20	40.40	-45.6	-60.3	3.6	1.51e+00	0	32	104	0	60	41953
2026-01-27 23:32:09.72	179.43	40.00	-45.6	-60.3	3.6	1.51e+00	0	32	104	0	60	42160
2026-01-27 23:32:10.73	179.65	39.60	-45.6	-60.3	3.6	1.51e+00	0	32	104	0	60	41968
2026-01-27 23:32:11.74	179.88	39.21	-45.6	-60.3	3.6	1.51e+00	0	32	104	0	60	41753
2026-01-27 23:32:12.75	180.09	38.82	-45.6	-60.4	3.6	1.51e+00	0	32	104	0	60	42265
2026-01-27 23:32:13.76	180.30	38.43	-45.6	-60.3	3.6	1.51e+00	0	32	104	0	60	41968
2026-01-27 23:32:14.77	180.51	38.05	-45.6	-60.3	3.6	1.51e+00	0	32	104	0	60	41846
2026-01-27 23:32:15.78	180.71	37.67	-45.6	-60.3	3.6	1.51e+00	0	32	104	0	60	42145
2026-01-27 23:32:16.79	180.90	37.30	-45.6	-60.4	3.6	1.51e+00	0	32	104	0	60	42371
2026-01-27 23:32:17.80	181.10	36.94	-45.6	-60.3	3.6	1.51e+00	0	32	104	0	60	42201
2026-01-27 23:32:18.81	181.28	36.57	-45.6	-60.4	3.6	1.51e+00	0	32	104	0	60	42328
2026-01-27 23:32:19.82	181.47	36.21	-45.6	-60.3	3.6	1.51e+00	0	32	104	0	60	41955
2026-01-27 23:32:20.83	181.64	35.86	-45.6	-60.4	3.6	1.51e+00	0	32	104	0	60	42286
2026-01-27 23:32:21.83	181.82	35.51	-45.8	-60.5	3.6	1.51e+00	0	32	104	0	60	43036
2026-01-27 23:32:22.84	181.99	35.17	-45.7	-60.4	3.6	1.51e+00	0	32	104	0	60	42619
2026-01-27 23:32:23.85	182.15	34.82	-45.7	-60.4	3.6	1.51e+00	0	32	104	0	60	42473
2026-01-27 23:32:24.86	182.32	34.49	-45.8	-60.5	3.6	1.51e+00	0	32	104	0	60	42811
2026-01-27 23:32:25.87	182.48	34.15	-45.7	-60.4	3.6	1.51e+00	0	32	104	0	60	42280
2026-01-27 23:32:26.88	182.64	33.82	-45.7	-60.4	3.6	1.51e+00	0	32	104	0	60	42327
2026-01-27 23:32:27.89	182.79	33.50	-45.6	-60.3	3.6	1.51e+00	0	32	104	0	60	42037
2026-01-27 23:32:28.90	182.94	33.17	-45.7	-60.4	3.6	1.51e+00	0	32	104	0	60	42259
2026-01-27 23:32:29.91	183.09	32.86	-45.6	-60.3	3.6	1.51e+00	0	32	104	0	60	42044
2026-01-27 23:32:30.92	183.23	32.54	-45.6	-60.3	3.6	1.51e+00	0	32	104	0	60	42157
2026-01-27 23:32:31.93	183.37	32.23	-45.6	-60.3	3.6	1.51e+00	0	32	104	0	60	41955
2026-01-27 23:32:32.94	183.51	31.92	-45.6	-60.3	3.6	1.51e+00	0	32	104	0	60	42118
2026-01-27 23:32:33.95	183.65	31.62	-45.5	-60.3	3.6	1.51e+00	0	32	104	0	60	42112
2026-01-27 23:32:34.96	183.78	31.32	-45.5	-60.3	3.6	1.51e+00	0	32	104	0	60	42172
2026-01-27 23:32:35.97	183.91	31.02	-45.5	-60.3	3.6	1.51e+00	0	32	104	0	60	41831
2026-01-27 23:32:36.97	184.04	30.73	-45.5	-60.3	3.6	1.51e+00	0	32	104	0	60	41930
2026-01-27 23:32:37.98	184.17	30.44	-45.4	-60.3	3.6	1.51e+00	0	32	104	0	60	42018
2026-01-27 23:32:38.99	184.29	30.15	-45.4	-60.3	3.6	1.51e+00	0	32	104	0	60	41883
2026-01-27 23:32:40.01	184.41	29.86	-45.4	-60.2	3.6	1.51e+00	0	32	104	0	60	41617
2026-01-27 23:32:41.01	184.53	29.59	-45.4	-60.3	3.6	1.51e+00	0	32	104	0	60	41902
2026-01-27 23:32:42.02	184.65	29.31	-45.3	-60.3	3.6	1.51e+00	0	32	104	0	60	41792
2026-01-27 23:32:43.04	184.76	29.03	-45.4	-60.3	3.6	1.51e+00	0	32	104	0	60	41835
2026-01-27 23:32:44.05	184.88	28.76	-45.3	-60.3	3.6	1.51e+00	0	32	104	0	60	41751
2026-01-27 23:32:45.05	184.99	28.49	-45.4	-60.3	3.6	1.51e+00	0	32	104	0	60	41892
2026-01-27 23:32:46.07	185.10	28.23	-45.3	-60.2	3.6	1.51e+00	0	32	104	0	60	41622
2026-01-27 23:32:47.07	185.20	27.97	-45.4	-60.3	3.6	1.51e+00	0	32	104	0	60	41862
2026-01-27 23:32:48.09	185.31	27.70	-45.4	-60.2	3.6	1.51e+00	0	32	104	0	60	41654
2026-01-27 23:32:49.09	185.41	27.45	-45.3	-60.3	3.6	1.51e+00	0	32	104	0	60	42210
2026-01-27 23:32:50.10	185.51	27.20	-45.3	-60.3	3.6	1.51e+00	0	32	104	0	60	41879
2026-01-27 23:32:51.12	185.61	26.94	-45.3	-60.3	3.6	1.51e+00	0	32	104	0	60	42093
2026-01-27 23:32:52.13	185.71	26.69	-45.4	-60.2	3.6	1.51e+00	0	32	104	0	60	41561
2026-01-27 23:32:53.14	185.81	26.45	-45.4	-60.3	3.6	1.51e+00	0	32	104	0	60	41920
2026-01-27 23:32:54.15	185.91	26.20	-45.4	-60.3	3.6	1.51e+00	0	32	104	0	60	41836
2026-01-27 23:32:55.16	186.00	25.96	-45.4	-60.3	3.6	1.51e+00	0	32	104	0	60	42023
2026-01-27 23:32:56.17	186.09	25.73	-45.4	-60.3	3.6	1.51e+00	0	32	104	0	60	41807
2026-01-27 23:32:57.18	186.18	25.49	-45.4	-60.3	3.6	1.51e+00	0	32	104	0	60	41825
2026-01-27 23:32:58.19	186.27	25.26	-45.4	-60.2	3.6	1.51e+00	0	32	104	0	60	41699
2026-01-27 23:32:59.19	186.36	25.03	-45.4	-60.3	3.6	1.51e+00	0	32	104	0	60	41864
2026-01-27 23:33:00.21	186.45	24.80	-45.4	-60.2	3.6	1.51e+00	0	32	104	0	60	41709
2026-01-27 23:33:01.22	186.53	24.57	-45.4	-60.2	3.6	1.51e+00	0	32	104	0	60	41695
2026-01-27 23:33:02.23	186.62	24.35	-45.4	-60.2	3.6	1.51e+00	0	32	104	0	60	41655
2026-01-27 23:33:03.24	186.70	24.13	-45.4	-60.3	3.6	1.51e+00	0	32	104	0	60	41986
2026-01-27 23:33:04.25	186.78	23.91	-45.4	-60.2	3.5	1.51e+00	0	32	104	0	60	41621
2026-01-27 23:33:05.26	186.86	23.69	-45.4	-60.2	3.6	1.51e+00	0	32	104	0	60	41690
2026-01-27 23:33:06.27	186.94	23.47	-45.4	-60.2	3.6	1.51e+00	0	32	104	0	60	41482
2026-01-27 23:33:07.28	187.02	23.26	-45.4	-60.3	3.6	1.51e+00	0	32	104	0	60	41801
2026-01-27 23:33:08.28	187.09	23.05	-45.4	-60.2	3.6	1.51e+00	0	32	104	0	60	41509
2026-01-27 23:33:09.29	187.17	22.84	-45.3	-60.2	3.6	1.51e+00	0	32	104	0	60	41336
2026-01-27 23:33:10.30	187.25	22.64	-45.3	-60.2	3.6	1.51e+00	0	32	104	0	60	41558
2026-01-27 23:33:11.31	187.32	22.43	-45.4	-60.3	3.6	1.51e+00	0	32	104	0	60	41779
2026-01-27 23:33:12.32	187.39	22.23	-45.4	-60.2	3.6	1.51e+00	0	32	104	0	60	41501
2026-01-27 23:33:13.33	187.46	22.03	-45.2	-60.2	3.6	1.51e+00	0	32	104	0	60	41481
2026-01-27 23:33:14.34	187.53	21.83	-45.2	-60.1	3.6	1.51e+00	0	32	104	0	60	41249
2026-01-27 23:33:15.35	187.60	21.63	-45.4	-60.2	3.6	1.51e+00	0	32	104	0	60	41735
2026-01-27 23:33:16.36	187.67	21.44	-45.2	-60.2	3.6	1.51e+00	0	32	104	0	60	41417
2026-01-27 23:33:17.37	187.74	21.25	-45.2	-60.2	3.6	1.51e+00	0	32	104	0	60	41688
2026-01-27 23:33:18.38	187.81	21.06	-45.1	-60.2	3.6	1.51e+00	0	32	104	0	60	41409
2026-01-27 23:33:19.39	187.88	20.87	-45.3	-60.3	3.6	1.51e+00	0	32	104	0	60	41931
2026-01-27 23:33:20.40	187.94	20.68	-45.1	-60.2	3.6	1.51e+00	0	32	104	0	60	41547
2026-01-27 23:33:21.41	188.00	20.49	-45.2	-60.2	3.6	1.51e+00	0	32	104	0	60	41467
2026-01-27 23:33:22.42	188.07	20.31	-45.0	-60.1	3.6	1.51e+00	0	32	104	0	60	41256
2026-01-27 23:33:23.43	188.13	20.12	-45.1	-60.2	3.6	1.51e+00	0	32	104	0	60	41680
2026-01-27 23:33:24.44	188.19	19.94	-45.0	-60.3	3.6	1.51e+00	0	32	104	0	60	41749
2026-01-27 23:33:25.45	188.25	19.76	-45.1	-60.2	3.6	1.51e+00	0	32	104	0	60	41286
2026-01-27 23:33:26.46	188.32	19.59	-45.2	-60.1	3.6	1.51e+00	0	32	104	0	60	41258
2026-01-27 23:33:27.47	188.38	19.41	-45.0	-60.2	3.6	1.51e+00	0	32	104	0	60	41582
2026-01-27 23:33:28.48	188.43	19.24	-45.1	-60.2	3.6	1.51e+00	0	32	104	0	60	41654
2026-01-27 23:33:29.49	188.49	19.06	-45.1	-60.2	3.6	1.51e+00	0	32	104	0	60	41595
2026-01-27 23:33:30.50	188.55	18.89	-45.2	-60.1	3.6	1.51e+00	0	32	104	0	60	41255
2026-01-27 23:33:31.51	188.61	18.72	-45.2	-60.3	3.6	1.51e+00	0	32	104	0	60	41852
2026-01-27 23:33:32.52	188.66	18.55	-45.2	-60.2	3.6	1.51e+00	0	32	104	0	60	41553
2026-01-27 23:33:33.53	188.72	18.38	-45.2	-60.2	3.6	1.51e+00	0	32	104	0	60	41336
2026-01-27 23:33:34.54	188.77	18.22	-45.1	-60.2	3.6	1.51e+00	0	32	104	0	60	41344
2026-01-27 23:33:35.55	188.83	18.05	-45.3	-60.2	3.6	1.51e+00	0	32	104	0	60	41562
2026-01-27 23:33:36.55	188.88	17.89	-45.2	-60.2	3.6	1.51e+00	0	32	104	0	60	41264
2026-01-27 23:33:37.56	188.93	17.73	-45.3	-60.2	3.6	1.51e+00	0	32	104	0	60	41531
2026-01-27 23:33:38.58	188.99	17.57	-45.3	-60.1	3.6	1.51e+00	0	32	104	0	60	41095
2026-01-27 23:33:39.58	189.04	17.41	-45.2	-60.2	3.6	1.51e+00	0	32	104	0	60	41306
2026-01-27 23:33:40.59	189.09	17.25	-45.3	-60.2	3.6	1.51e+00	0	32	104	0	60	41355
2026-01-27 23:33:41.60	189.14	17.10	-45.2	-60.2	3.6	1.51e+00	0	32	104	0	60	41297
2026-01-27 23:33:42.61	189.19	16.94	-45.1	-60.1	3.6	1.51e+00	0	32	104	0	60	40826
2026-01-27 23:33:43.62	189.24	16.79	-45.3	-60.2	3.6	1.51e+00	0	32	104	0	60	41353
2026-01-27 23:33:44.64	189.29	16.63	-45.2	-60.1	3.6	1.51e+00	0	32	104	0	60	41257
2026-01-27 23:33:45.64	189.34	16.48	-45.2	-60.1	3.6	1.51e+00	0	32	104	0	60	41109
2026-01-27 23:33:46.66	189.39	16.33	-45.1	-60.1	3.6	1.51e+00	0	32	104	0	60	41229
2026-01-27 23:33:47.66	189.43	16.18	-45.2	-60.2	3.6	1.51e+00	0	32	104	0	60	41435
2026-01-27 23:33:48.68	189.48	16.03	-45.1	-60.1	3.6	1.51e+00	0	32	104	0	60	41215
2026-01-27 23:33:49.69	189.53	15.89	-45.2	-60.1	3.6	1.51e+00	0	32	104	0	60	40904
2026-01-27 23:33:50.70	189.57	15.74	-45.1	-60.1	3.6	1.51e+00	0	32	104	0	60	41100
2026-01-27 23:33:51.70	189.62	15.60	-45.1	-60.1	3.6	1.51e+00	0	32	104	0	60	41237
2026-01-27 23:33:52.71	189.66	15.45	-45.2	-60.1	3.6	1.51e+00	0	32	104	0	60	41005
2026-01-27 23:33:53.72	189.71	15.31	-45.2	-60.1	3.6	1.51e+00	0	32	104	0	60	40982
2026-01-27 23:33:54.73	189.75	15.17	-45.2	-60.1	3.6	1.51e+00	0	32	104	0	60	41002
2026-01-27 23:33:55.74	189.80	15.03	-45.2	-60.2	3.6	1.51e+00	0	32	104	0	60	41321
2026-01-27 23:33:56.75	189.84	14.89	-45.1	-60.1	3.6	1.51e+00	0	32	104	0	60	41192
2026-01-27 23:33:57.76	189.88	14.75	-45.2	-60.0	3.6	1.51e+00	0	32	104	0	60	40769
2026-01-27 23:33:58.77	189.92	14.62	-45.2	-60.1	3.6	1.51e+00	0	32	104	0	60	41232
2026-01-27 23:33:59.78	189.97	14.48	-45.1	-60.1	3.6	1.51e+00	0	32	104	0	60	41086
2026-01-27 23:34:00.79	190.01	14.34	-45.3	-60.1	3.6	1.51e+00	0	32	104	0	60	40989
2026-01-27 23:34:01.80	190.05	14.21	-45.1	-60.0	3.6	1.51e+00	0	32	104	0	60	40676
2026-01-27 23:34:02.81	190.09	14.08	-45.4	-60.2	3.6	1.51e+00	0	32	104	0	60	41322
2026-01-27 23:34:03.82	190.13	13.94	-45.3	-60.1	3.6	1.51e+00	0	32	104	0	60	41134
2026-01-27 23:34:04.83	190.17	13.81	-45.2	-60.1	3.6	1.51e+00	0	32	104	0	60	41120
2026-01-27 23:34:05.84	190.21	13.68	-45.2	-60.1	3.6	1.51e+00	0	32	104	0	60	40887
2026-01-27 23:34:06.85	190.25	13.55	-45.2	-60.1	3.6	1.51e+00	0	32	104	0	60	40911
2026-01-27 23:34:07.86	190.29	13.42	-45.2	-60.1	3.6	1.51e+00	0	32	104	0	60	40979
2026-01-27 23:34:08.87	190.32	13.30	-45.1	-60.1	3.6	1.51e+00	0	32	104	0	60	40902
2026-01-27 23:34:09.88	190.36	13.17	-45.0	-60.0	3.6	1.51e+00	0	32	104	0	60	40670
2026-01-27 23:34:10.89	190.40	13.04	-45.1	-60.1	3.6	1.51e+00	0	32	104	0	60	41090
2026-01-27 23:34:11.90	190.44	12.92	-45.1	-60.1	3.6	1.51e+00	0	32	104	0	60	41084
2026-01-27 23:34:12.91	190.47	12.79	-45.0	-60.0	3.6	1.51e+00	0	32	104	0	60	40694
2026-01-27 23:34:13.92	190.51	12.67	-45.2	-60.2	3.6	1.51e+00	0	32	104	0	60	41326
2026-01-27 23:34:14.93	190.55	12.55	-45.2	-60.2	3.6	1.51e+00	0	32	104	0	60	41447
2026-01-27 23:34:15.93	190.58	12.42	-45.3	-60.2	3.6	1.51e+00	0	32	104	0	60	41351
2026-01-27 23:34:16.94	190.62	12.30	-45.1	-60.1	3.6	1.51e+00	0	32	104	0	60	40807
2026-01-27 23:34:17.95	190.65	12.18	-45.2	-60.1	3.6	1.51e+00	0	32	104	0	60	40823
2026-01-27 23:34:18.96	190.69	12.06	-45.3	-60.1	3.6	1.51e+00	0	32	104	0	60	41149
2026-01-27 23:34:19.97	190.72	11.94	-45.2	-60.1	3.6	1.51e+00	0	32	104	0	60	41134
2026-01-27 23:34:20.98	190.76	11.83	-45.3	-60.0	3.6	1.51e+00	0	32	104	0	60	40701
2026-01-27 23:34:21.99	190.79	11.71	-45.2	-59.9	3.6	1.51e+00	0	32	104	0	60	40282
2026-01-27 23:34:23.00	190.83	11.59	-45.3	-60.1	3.6	1.51e+00	0	32	104	0	60	40900
2026-01-27 23:34:24.00	190.86	11.48	-45.3	-60.0	3.6	1.51e+00	0	32	104	0	60	40563
2026-01-27 23:34:25.01	190.89	11.36	-45.2	-60.0	3.6	1.51e+00	0	32	104	0	60	40527
2026-01-27 23:34:26.02	190.93	11.25	-45.1	-59.9	3.6	1.51e+00	0	32	104	0	60	40291
2026-01-27 23:34:27.03	190.96	11.13	-45.2	-60.0	3.6	1.51e+00	0	32	104	0	60	40708
2026-01-27 23:34:28.04	190.99	11.02	-45.2	-60.1	3.6	1.51e+00	0	32	104	0	60	40817
2026-01-27 23:34:29.05	191.02	10.91	-45.2	-59.9	3.6	1.51e+00	0	32	104	0	60	40310
2026-01-27 23:34:30.06	191.06	10.80	-45.1	-59.9	3.5	1.51e+00	0	32	104	0	60	40008
2026-01-27 23:34:31.07	191.09	10.69	-45.3	-60.0	3.6	1.51e+00	0	32	104	0	60	40656
2026-01-27 23:34:32.08	191.12	10.58	-45.0	-60.0	3.6	1.51e+00	0	32	104	0	60	40385
2026-01-27 23:34:33.09	191.15	10.47	-45.0	-59.9	3.6	1.51e+00	0	32	104	0	60	40190
2026-01-27 23:34:34.10	191.18	10.36	-44.9	-59.8	3.5	1.51e+00	0	32	104	0	60	39779
2026-01-27 23:34:35.11	191.21	10.25	-45.1	-60.0	3.6	1.51e+00	0	32	104	0	60	40413
2026-01-27 23:34:36.12	191.24	10.14	-45.2	-59.9	3.6	1.51e+00	0	32	104	0	60	40257
2026-01-27 23:34:37.13	191.27	10.03	-44.9	-59.8	3.6	1.51e+00	0	32	104	0	60	39593
2026-01-27 23:34:38.14	191.30	9.93	-45.0	-59.8	3.6	1.51e+00	0	32	104	0	60	39729
2026-01-27 23:34:39.14	191.33	9.82	-45.2	-60.0	3.6	1.51e+00	0	32	104	0	60	40390
2026-01-27 23:34:40.16	191.36	9.72	-45.0	-59.8	3.6	1.51e+00	0	32	104	0	60	39653
2026-01-27 23:34:41.16	191.39	9.61	-45.0	-59.8	3.6	1.51e+00	0	32	104	0	60	39594
2026-01-27 23:34:42.18	191.42	9.51	-45.1	-59.8	3.6	1.51e+00	0	32	104	0	60	39794
2026-01-27 23:34:43.18	191.45	9.40	-45.0	-59.9	3.6	1.51e+00	0	32	104	0	60	40022
2026-01-27 23:34:44.19	191.48	9.30	-45.1	-59.8	3.6	1.51e+00	0	32	104	0	60	39622
2026-01-27 23:34:45.20	191.50	9.20	-45.0	-59.8	3.6	1.51e+00	0	32	104	0	60	39479
2026-01-27 23:34:46.21	191.53	9.10	-45.1	-59.7	3.6	1.51e+00	0	32	104	0	60	39238
2026-01-27 23:34:47.22	191.56	9.00	-45.1	-59.8	3.6	1.51e+00	0	32	104	0	60	39822
2026-01-27 23:34:48.23	191.59	8.89	-45.0	-59.8	3.6	1.51e+00	0	32	104	0	60	39709
2026-01-27 23:34:49.24	191.62	8.79	-45.0	-59.7	3.6	1.51e+00	0	32	104	0	60	39276
2026-01-27 23:34:50.25	191.64	8.69	-44.8	-59.7	3.6	1.51e+00	0	32	104	0	60	39106
2026-01-27 23:34:51.26	191.67	8.60	-45.1	-59.8	3.6	1.51e+00	0	32	104	0	60	39783
2026-01-27 23:34:52.27	191.70	8.50	-45.0	-59.8	3.5	1.51e+00	0	32	104	0	60	39597
2026-01-27 23:34:53.27	191.72	8.40	-45.0	-59.7	3.6	1.51e+00	0	32	104	0	60	39160
2026-01-27 23:34:54.28	191.75	8.30	-44.9	-59.7	3.6	1.51e+00	0	32	104	0	60	38962
2026-01-27 23:34:55.29	191.78	8.20	-45.1	-59.8	3.6	1.51e+00	0	32	104	0	60	39626
2026-01-27 23:34:56.30	191.80	8.11	-44.8	-59.7	3.6	1.51e+00	0	32	104	0	60	39295
2026-01-27 23:34:57.31	191.83	8.01	-44.9	-59.6	3.6	1.51e+00	0	32	104	0	60	38910
2026-01-27 23:34:58.32	191.85	7.92	-44.8	-59.6	3.6	1.51e+00	0	32	104	0	60	38805
2026-01-27 23:34:59.33	191.88	7.82	-45.1	-59.7	3.6	1.51e+00	0	32	104	0	60	39402
2026-01-27 23:35:00.34	191.90	7.73	-44.9	-59.6	3.6	1.51e+00	0	32	104	0	60	38922
2026-01-27 23:35:01.35	191.93	7.63	-44.8	-59.6	3.6	1.51e+00	0	32	104	0	60	38798
2026-01-27 23:35:02.36	191.95	7.54	-44.8	-59.6	3.6	1.51e+00	0	32	104	0	60	38615
2026-01-27 23:35:03.37	191.98	7.45	-44.9	-59.8	3.6	1.51e+00	0	32	104	0	60	39435
2026-01-27 23:35:04.38	192.00	7.35	-44.9	-59.7	3.6	1.51e+00	0	32	104	0	60	38967
2026-01-27 23:35:05.39	192.03	7.26	-44.9	-59.6	3.6	1.51e+00	0	32	104	0	60	38656
2026-01-27 23:35:06.40	192.05	7.17	-44.7	-59.5	3.6	1.51e+00	0	32	104	0	60	38447
2026-01-27 23:35:07.41	192.08	7.08	-44.8	-59.7	3.6	1.51e+00	0	32	104	0	60	39260
2026-01-27 23:35:08.42	192.10	6.99	-44.8	-59.6	3.6	1.51e+00	0	32	104	0	60	38590
2026-01-27 23:35:09.43	192.12	6.89	-44.8	-59.6	3.6	1.51e+00	0	32	104	0	60	38639
2026-01-27 23:35:10.44	192.15	6.80	-44.7	-59.5	3.6	1.51e+00	0	32	104	0	60	38107
2026-01-27 23:35:11.45	192.17	6.71	-44.9	-59.7	3.6	1.51e+00	0	32	104	0	60	39182
2026-01-27 23:35:12.46	192.20	6.63	-44.7	-59.5	3.6	1.51e+00	0	32	104	0	60	38372
2026-01-27 23:35:13.47	192.22	6.54	-44.7	-59.5	3.6	1.51e+00	0	32	104	0	60	38392
2026-01-27 23:35:14.48	192.24	6.45	-44.7	-59.5	3.6	1.51e+00	0	32	104	0	60	38126
2026-01-27 23:35:15.48	192.26	6.36	-44.8	-59.6	3.6	1.51e+00	0	32	104	0	60	38835
2026-01-27 23:35:16.49	192.29	6.27	-44.6	-59.5	3.6	1.51e+00	0	32	104	0	60	38364
2026-01-27 23:35:17.50	192.31	6.19	-44.6	-59.5	3.6	1.51e+00	0	32	104	0	60	38224
2026-01-27 23:35:18.51	192.33	6.10	-44.6	-59.4	3.6	1.51e+00	0	32	104	0	60	37823
2026-01-27 23:35:19.52	192.35	6.01	-44.7	-59.6	3.6	1.51e+00	0	32	104	0	60	38601
2026-01-27 23:35:20.53	192.38	5.93	-44.7	-59.4	3.6	1.51e+00	0	32	104	0	60	37902
2026-01-27 23:35:21.54	192.40	5.84	-44.7	-59.4	3.6	1.51e+00	0	32	104	0	60	37920
2026-01-27 23:35:22.55	192.42	5.75	-44.7	-59.3	3.6	1.51e+00	0	32	104	0	60	37552
2026-01-27 23:35:23.56	192.44	5.67	-44.8	-59.6	3.5	1.51e+00	0	32	104	0	60	38518
2026-01-27 23:35:24.57	192.46	5.58	-44.6	-59.3	3.6	1.51e+00	0	32	104	0	60	37577
2026-01-27 23:35:25.58	192.49	5.50	-44.6	-59.4	3.6	1.51e+00	0	32	104	0	60	37852
2026-01-27 23:35:26.59	192.51	5.42	-44.6	-59.3	3.6	1.51e+00	0	32	104	0	60	37284
2026-01-27 23:35:27.60	192.53	5.33	-44.8	-59.6	3.6	1.51e+00	0	32	104	0	60	38624
2026-01-27 23:35:28.61	192.55	5.25	-44.6	-59.3	3.6	1.51e+00	0	32	104	0	60	37428
2026-01-27 23:35:29.62	192.57	5.17	-44.6	-59.3	3.6	1.51e+00	0	32	104	0	60	37493
2026-01-27 23:35:30.63	192.59	5.08	-44.6	-59.3	3.6	1.51e+00	0	32	104	0	60	37379
2026-01-27 23:35:31.64	192.61	5.00	-44.7	-59.4	3.6	1.51e+00	0	32	104	0	60	37802
2026-01-27 23:35:32.65	192.63	4.92	-44.6	-59.3	3.6	1.51e+00	0	32	104	0	60	37305
2026-01-27 23:35:33.66	192.65	4.84	-44.5	-59.3	3.6	1.51e+00	0	32	104	0	60	37276
2026-01-27 23:35:34.67	192.67	4.76	-44.6	-59.2	3.6	1.51e+00	0	32	104	0	60	36936
2026-01-27 23:35:35.68	192.69	4.68	-44.7	-59.4	3.6	1.51e+00	0	32	104	0	60	37777
2026-01-27 23:35:36.69	192.71	4.60	-44.5	-59.2	3.6	1.51e+00	0	32	104	0	60	37035
2026-01-27 23:35:37.70	192.73	4.52	-44.5	-59.2	3.6	1.51e+00	0	32	104	0	60	36885
2026-01-27 23:35:38.71	192.75	4.44	-44.5	-59.2	3.6	1.51e+00	0	32	104	0	60	36845
2026-01-27 23:35:39.72	192.77	4.36	-44.6	-59.3	3.6	1.51e+00	0	32	104	0	60	37410
2026-01-27 23:35:40.73	192.79	4.28	-44.5	-59.1	3.6	1.51e+00	0	32	104	0	60	36748
2026-01-27 23:35:41.74	192.81	4.20	-44.4	-59.1	3.6	1.51e+00	0	32	104	0	60	36737
2026-01-27 23:35:42.75	192.83	4.12	-44.4	-59.1	3.6	1.51e+00	0	32	104	0	60	36549
2026-01-27 23:35:43.76	192.85	4.04	-44.5	-59.2	3.6	1.51e+00	0	32	104	0	60	37048
2026-01-27 23:35:44.77	192.87	3.96	-44.4	-59.1	3.6	1.51e+00	0	32	104	0	60	36628
2026-01-27 23:35:45.78	192.89	3.88	-44.3	-59.0	3.6	1.51e+00	0	32	104	0	60	36095
2026-01-27 23:35:46.79	192.91	3.81	-44.4	-59.1	3.6	1.51e+00	0	32	104	0	60	36528
2026-01-27 23:35:47.80	192.93	3.73	-44.4	-59.1	3.6	1.51e+00	0	32	104	0	60	36641
2026-01-27 23:35:48.81	192.95	3.65	-44.3	-59.0	3.6	1.51e+00	0	32	104	0	60	36034
2026-01-27 23:35:49.82	192.97	3.58	-44.2	-58.9	3.6	1.51e+00	0	32	104	0	60	35825
2026-01-27 23:35:50.83	192.98	3.50	-44.3	-59.0	3.6	1.51e+00	0	32	104	0	60	36106
2026-01-27 23:35:51.84	193.00	3.42	-44.3	-59.0	3.6	1.51e+00	0	32	104	0	60	36231
2026-01-27 23:35:52.85	193.02	3.35	-44.2	-58.9	3.6	1.51e+00	0	32	104	0	60	35740
2026-01-27 23:35:53.86	193.04	3.27	-44.1	-58.8	3.6	1.51e+00	0	32	104	0	60	35453
2026-01-27 23:35:54.87	193.06	3.20	-44.3	-58.9	3.6	1.51e+00	0	32	104	0	60	35842
2026-01-27 23:35:55.88	193.08	3.12	-44.3	-59.0	3.6	1.51e+00	0	32	104	0	60	35947
2026-01-27 23:35:56.89	193.09	3.05	-44.1	-58.8	3.6	1.51e+00	0	32	104	0	60	35372
2026-01-27 23:35:57.90	193.11	2.97	-44.3	-59.1	3.6	1.51e+00	0	32	104	0	60	36383
2026-01-27 23:35:58.91	193.13	2.90	-44.7	-59.4	3.6	1.51e+00	0	32	104	0	60	38048
2026-01-27 23:35:59.92	193.15	2.83	-45.0	-59.7	3.6	1.51e+00	0	32	104	0	60	39271
2026-01-27 23:36:00.93	193.17	2.75	-45.2	-59.9	3.6	1.51e+00	0	32	104	0	60	40021
2026-01-27 23:36:01.94	193.18	2.68	-45.3	-60.0	3.6	1.51e+00	0	32	104	0	60	40752
2026-01-27 23:36:02.94	193.20	2.61	-45.5	-60.2	3.6	1.51e+00	0	32	104	0	60	41609
2026-01-27 23:36:03.95	193.22	2.53	-45.5	-60.3	3.6	1.51e+00	0	32	104	0	60	41833
2026-01-27 23:36:04.96	193.23	2.46	-45.6	-60.4	3.6	1.51e+00	0	32	104	0	60	42377
2026-01-27 23:36:05.97	193.25	2.39	-45.6	-60.4	3.6	1.51e+00	0	32	104	0	60	42486
2026-01-27 23:36:06.98	193.27	2.32	-45.7	-60.4	3.6	1.51e+00	0	32	104	0	60	42663
2026-01-27 23:36:07.99	193.29	2.25	-45.7	-60.5	3.6	1.51e+00	0	32	104	0	60	42810
2026-01-27 23:36:09.00	193.30	2.17	-45.8	-60.5	3.6	1.51e+00	0	32	104	0	60	42865
2026-01-27 23:36:10.01	193.32	2.10	-45.8	-60.5	3.6	1.51e+00	0	32	104	0	60	43177
2026-01-27 23:36:11.02	193.34	2.03	-46.0	-60.8	3.6	1.51e+00	0	32	104	0	60	44297
2026-01-27 23:36:12.03	193.35	1.96	-45.8	-60.6	3.6	1.51e+00	0	32	104	0	60	43457
2026-01-27 23:36:13.04	193.37	1.89	-45.9	-60.6	3.6	1.51e+00	0	32	104	0	60	43611
2026-01-27 23:36:14.06	193.39	1.82	-45.6	-60.5	3.6	1.51e+00	0	32	104	0	60	43081
2026-01-27 23:36:15.07	193.40	1.75	-46.0	-60.8	3.6	1.51e+00	0	32	104	0	60	44279
2026-01-27 23:36:16.08	193.42	1.68	-45.5	-60.5	3.6	1.51e+00	0	32	104	0	60	42915
2026-01-27 23:36:17.09	193.44	1.61	-45.6	-60.5	3.6	1.51e+00	0	32	104	0	60	42917
2026-01-27 23:36:18.10	193.45	1.54	-45.7	-60.4	3.6	1.51e+00	0	32	104	0	60	42619
2026-01-27 23:36:19.10	193.47	1.47	-45.7	-60.4	3.6	1.51e+00	0	32	104	0	60	42493
2026-01-27 23:36:20.11	193.48	1.40	-45.3	-60.4	3.6	1.51e+00	0	32	104	0	60	42412
2026-01-27 23:36:21.13	193.50	1.33	-45.6	-60.3	3.6	1.51e+00	0	32	104	0	60	42056
2026-01-27 23:36:22.14	193.52	1.26	-45.8	-60.5	3.6	1.51e+00	0	32	104	0	60	42926
2026-01-27 23:36:23.14	193.53	1.20	-45.7	-60.4	3.6	1.51e+00	0	32	104	0	60	42628
2026-01-27 23:36:24.15	193.55	1.13	-45.7	-60.4	3.6	1.51e+00	0	32	104	0	60	42234
2026-01-27 23:36:25.17	193.56	1.06	-45.6	-60.4	3.6	1.51e+00	0	32	104	0	60	42300
2026-01-27 23:36:26.18	193.58	0.99	-45.6	-60.3	3.6	1.51e+00	0	32	104	0	60	42054
2026-01-27 23:36:27.19	193.59	0.92	-45.6	-60.3	3.6	1.51e+00	0	32	104	0	60	42085
2026-01-27 23:36:28.20	193.61	0.86	-45.6	-60.4	3.6	1.51e+00	0	32	104	0	60	42251
2026-01-27 23:36:29.21	193.62	0.79	-45.6	-60.3	3.6	1.51e+00	0	32	104	0	60	42201
2026-01-27 23:36:30.22	193.64	0.72	-45.6	-60.3	3.6	1.51e+00	0	32	104	0	60	41984
2026-01-27 23:36:31.23	193.65	0.65	-45.6	-60.4	3.6	1.51e+00	0	32	104	0	60	42309
2026-01-27 23:36:32.24	193.67	0.59	-45.6	-60.3	3.6	1.51e+00	0	32	104	0	60	41957
2026-01-27 23:36:33.24	193.69	0.52	-45.6	-60.3	3.6	1.51e+00	0	32	104	0	60	41985
2026-01-27 23:36:34.25	193.70	0.46	-45.6	-60.3	3.6	1.51e+00	0	32	104	0	60	42050
2026-01-27 23:36:35.26	193.72	0.39	-45.6	-60.3	3.6	1.51e+00	0	32	104	0	60	41816
2026-01-27 23:36:36.27	193.73	0.32	-45.6	-60.3	3.6	1.51e+00	0	32	104	0	60	41816
2026-01-27 23:36:37.28	193.74	0.26	-45.6	-60.3	3.6	1.51e+00	0	32	104	0	60	41863
2026-01-27 23:36:38.29	193.76	0.19	-45.6	-60.3	3.6	1.51e+00	0	32	104	0	60	41920
2026-01-27 23:36:39.30	193.77	0.13	-45.6	-60.3	3.6	1.51e+00	0	32	104	0	60	41978
2026-01-27 23:36:40.31	193.79	0.06	-45.6	-60.3	3.6	1.51e+00	0	32	104	0	60	41925
2026-01-27 23:36:41.32	193.80	-0.00	-45.6	-60.2	3.6	1.51e+00	0	32	104	0	60	41705
2026-01-27 23:36:42.33	193.82	-0.07	-45.6	-60.3	3.6	1.51e+00	0	32	104	0	60	41831
2026-01-27 23:36:43.34	193.83	-0.13	-45.5	-60.3	3.6	1.51e+00	0	32	104	0	60	41799

#Closed at: 2026-01-27 23:36:43
#Recorded file [0 MB]: D:/lorett/data/35029_260128_112512.dat