passes_logs/2026/01/27/R4.6S_Anadyr/R4.6S_Anadyr__20260127_101015_TY-42_rec.log

#Pass ID: 20260127_101015_TY-42
#Satellite: TY-42
#Configuration: TY-42_900M
#almurnet v.1.7.20251203
#Start time: 2026-01-27 10:10:48

#Version: 2.2.20231116
#Station: R4.6S_Anadyr
#Location: 177.4865 lon 64.73178 lat
#TLE: 1 64048U 25103A   26027.24398148  .00008010  00000-0  38191-3 0 09993
#TLE: 2 64048 097.4117 102.4316 0001655 092.8662 047.1811 15.19167201 38679

#Time	Az	El	Level	Level2	SNR	BER	BlckErr	Temp	State	Recorded	gain1	gain2
2026-01-27 10:10:48.07	183.26	2.09	-45.1	-59.5	3.5	1.34e+00	0	30	0	0	60	38374
2026-01-27 10:10:49.07	183.31	2.16	-48.1	-50.5	6.1	0.00e+00	0	31	104	0	60	41016
2026-01-27 10:10:50.08	183.35	2.23	-48.1	-50.6	6.1	0.00e+00	0	31	104	0	60	41304
2026-01-27 10:10:51.09	183.40	2.29	-48.1	-50.5	6.1	0.00e+00	0	31	104	0	60	41089
2026-01-27 10:10:52.11	183.45	2.36	-48.1	-50.5	6.1	0.00e+00	0	31	104	0	60	41228
2026-01-27 10:10:53.12	183.50	2.43	-48.1	-50.5	6.1	0.00e+00	0	31	104	0	60	41117
2026-01-27 10:10:54.13	183.55	2.50	-48.1	-50.5	6.1	0.00e+00	0	31	104	0	60	41156
2026-01-27 10:10:55.14	183.60	2.57	-48.1	-50.5	6.1	0.00e+00	0	32	104	0	60	41157
2026-01-27 10:10:56.14	183.65	2.64	-48.1	-50.6	6.1	0.00e+00	0	32	104	0	60	41280
2026-01-27 10:10:57.16	183.70	2.71	-48.1	-50.5	6.1	0.00e+00	0	31	104	0	60	41141
2026-01-27 10:10:58.17	183.75	2.79	-48.1	-50.5	6.0	0.00e+00	0	32	104	0	60	41250
2026-01-27 10:10:59.18	183.80	2.86	-48.1	-50.5	6.1	0.00e+00	0	32	104	0	60	41214
2026-01-27 10:11:00.19	183.85	2.93	-48.1	-50.6	6.1	0.00e+00	0	32	104	0	60	41267
2026-01-27 10:11:01.20	183.91	3.00	-48.1	-50.6	6.1	0.00e+00	0	32	104	0	60	41327
2026-01-27 10:11:02.21	183.96	3.07	-48.1	-50.6	6.1	0.00e+00	0	32	104	0	60	41303
2026-01-27 10:11:03.22	184.01	3.14	-48.1	-50.5	6.1	0.00e+00	0	32	104	0	60	41217
2026-01-27 10:11:04.23	184.06	3.21	-48.1	-50.5	6.1	0.00e+00	0	32	104	0	60	41241
2026-01-27 10:11:05.24	184.11	3.29	-48.1	-50.6	6.1	0.00e+00	0	32	104	0	60	41285
2026-01-27 10:11:06.25	184.17	3.36	-48.1	-50.5	6.1	0.00e+00	0	32	104	0	60	41176
2026-01-27 10:11:07.26	184.22	3.43	-48.1	-50.5	6.1	0.00e+00	0	32	104	0	60	41160
2026-01-27 10:11:08.27	184.28	3.50	-48.1	-50.5	6.1	0.00e+00	0	32	104	0	60	41133
2026-01-27 10:11:09.27	184.33	3.58	-48.1	-50.5	6.1	0.00e+00	0	32	104	0	60	41252
2026-01-27 10:11:10.28	184.38	3.65	-48.1	-50.5	6.1	0.00e+00	0	32	104	0	60	41202
2026-01-27 10:11:11.29	184.44	3.72	-48.1	-50.5	6.1	0.00e+00	0	32	104	0	60	41227
2026-01-27 10:11:12.30	184.49	3.80	-48.1	-50.5	6.1	0.00e+00	0	32	104	0	60	41159
2026-01-27 10:11:13.31	184.55	3.87	-48.1	-50.5	6.1	0.00e+00	0	32	104	0	60	41240
2026-01-27 10:11:14.32	184.60	3.95	-48.1	-50.6	6.1	0.00e+00	0	32	104	0	60	41454
2026-01-27 10:11:15.33	184.66	4.02	-48.1	-50.5	6.1	0.00e+00	0	32	104	0	60	41172
2026-01-27 10:11:16.35	184.72	4.10	-48.1	-50.6	6.1	0.00e+00	0	32	104	0	60	41571
2026-01-27 10:11:17.36	184.77	4.17	-47.9	-50.5	6.1	0.00e+00	0	32	104	0	60	40874
2026-01-27 10:11:18.36	184.83	4.25	-48.1	-50.6	6.1	0.00e+00	0	32	104	0	60	41715
2026-01-27 10:11:19.37	184.89	4.32	-48.2	-50.7	6.1	0.00e+00	0	32	104	0	60	41926
2026-01-27 10:11:20.38	184.94	4.40	-48.1	-50.6	6.1	0.00e+00	0	32	104	0	60	41331
2026-01-27 10:11:21.39	185.00	4.48	-48.1	-50.6	6.1	0.00e+00	0	32	104	0	60	41493
2026-01-27 10:11:22.40	185.06	4.55	-48.0	-50.6	6.1	0.00e+00	0	32	104	0	60	41304
2026-01-27 10:11:23.41	185.12	4.63	-48.0	-50.5	6.1	0.00e+00	0	32	104	0	60	41257
2026-01-27 10:11:24.42	185.18	4.71	-48.1	-50.6	6.1	0.00e+00	0	32	104	0	60	41504
2026-01-27 10:11:25.43	185.24	4.78	-48.1	-50.6	6.1	0.00e+00	0	32	104	0	60	41583
2026-01-27 10:11:26.44	185.30	4.86	-48.1	-50.6	6.1	0.00e+00	0	32	104	0	60	41690
2026-01-27 10:11:27.45	185.36	4.94	-48.0	-50.5	6.1	0.00e+00	0	32	104	0	60	41005
2026-01-27 10:11:28.46	185.42	5.02	-48.1	-50.6	6.1	0.00e+00	0	32	104	0	60	41659
2026-01-27 10:11:29.47	185.48	5.10	-48.0	-50.5	6.1	0.00e+00	0	32	104	0	60	40953
2026-01-27 10:11:30.48	185.54	5.17	-48.2	-50.7	6.1	0.00e+00	0	32	104	0	60	41943
2026-01-27 10:11:31.48	185.60	5.25	-48.2	-50.7	6.1	0.00e+00	0	32	104	0	60	41881
2026-01-27 10:11:32.49	185.67	5.33	-48.0	-50.5	6.1	0.00e+00	0	32	104	0	60	41220
2026-01-27 10:11:33.50	185.73	5.41	-48.1	-50.6	6.1	0.00e+00	0	32	104	0	60	41668
2026-01-27 10:11:34.51	185.79	5.49	-48.2	-50.7	6.1	0.00e+00	0	32	104	0	60	41993
2026-01-27 10:11:35.52	185.85	5.57	-28.1	-28.4	13.5	0.00e+00	0	32	104	0	32	16233
2026-01-27 10:11:36.53	185.92	5.65	-39.8	-40.3	10.4	0.00e+00	0	32	104	131072	60	12686
2026-01-27 10:11:37.54	185.98	5.73	-30.4	-30.6	13.1	7.12e-03	15	32	104	131072	36	16615
2026-01-27 10:11:38.55	186.05	5.82	-28.9	-29.3	15.5	7.12e-03	0	33	0	100794368	34	15871
2026-01-27 10:11:39.56	186.11	5.90	-28.0	-28.4	15.8	1.46e-02	0	33	0	209846272	32	16164
2026-01-27 10:11:40.57	186.18	5.98	-28.2	-28.6	15.7	1.46e-02	0	33	0	327286784	32	16561
2026-01-27 10:11:41.58	186.24	6.06	-28.2	-28.5	15.7	1.18e-03	0	33	0	444727296	32	16372
2026-01-27 10:11:42.59	186.31	6.14	-27.7	-28.1	15.9	1.18e-03	0	33	0	553779200	32	15611
2026-01-27 10:11:43.60	186.38	6.23	-27.3	-27.6	16.0	1.48e-03	0	33	0	671219712	30	16584
2026-01-27 10:11:44.61	186.45	6.31	-27.1	-27.5	16.1	1.48e-03	0	33	0	780271616	30	16251
2026-01-27 10:11:45.62	186.51	6.39	-27.2	-27.5	16.0	5.01e-04	0	33	0	889323520	30	16372
2026-01-27 10:11:46.63	186.58	6.48	-27.3	-27.6	16.0	5.01e-04	0	33	0	1006764032	30	16558
2026-01-27 10:11:47.64	186.65	6.56	-27.1	-27.4	16.0	3.05e-04	0	33	0	1124204544	30	16207
2026-01-27 10:11:48.64	186.72	6.64	-27.3	-27.7	16.0	4.20e-04	0	33	0	1233256448	30	16722
2026-01-27 10:11:49.65	186.79	6.73	-26.9	-27.3	16.1	4.20e-04	0	33	0	1350696960	30	15886
2026-01-27 10:11:50.66	186.86	6.81	-27.0	-27.4	16.1	4.20e-04	0	33	0	1459748864	30	16082
2026-01-27 10:11:51.67	186.93	6.90	-27.1	-27.5	16.1	3.27e-04	0	33	0	1577189376	30	16281
2026-01-27 10:11:52.68	187.00	6.99	-26.9	-27.3	16.1	3.27e-04	0	33	0	1694629888	30	15918
2026-01-27 10:11:53.69	187.07	7.07	-26.7	-27.1	16.2	3.05e-04	0	33	0	1803681792	28	17430
2026-01-27 10:11:54.70	187.14	7.16	-26.9	-27.3	16.2	3.05e-04	0	33	0	1921122304	28	17838
2026-01-27 10:11:55.71	187.22	7.24	-26.8	-27.2	16.1	2.51e-04	0	33	0	2030174208	28	17676
2026-01-27 10:11:56.72	187.29	7.33	-26.6	-27.0	16.2	2.72e-04	0	33	0	2139226112	28	17342
2026-01-27 10:11:57.73	187.36	7.42	-26.7	-27.1	16.1	2.72e-04	0	33	0	2256666624	28	17516
2026-01-27 10:11:58.74	187.44	7.51	-26.7	-27.1	16.1	2.72e-04	0	33	0	2374107136	28	17411
2026-01-27 10:11:59.75	187.51	7.60	-26.4	-26.8	16.3	2.72e-04	0	33	0	2483159040	28	16843
2026-01-27 10:12:00.76	187.59	7.68	-26.4	-26.8	16.3	2.12e-04	0	33	0	2600599552	28	16874
2026-01-27 10:12:01.77	187.66	7.77	-26.3	-26.7	16.3	2.12e-04	0	33	0	2709651456	28	16682
2026-01-27 10:12:02.77	187.74	7.86	-26.3	-26.7	16.4	1.20e-04	0	33	0	2818703360	28	16668
2026-01-27 10:12:03.78	187.82	7.95	-26.2	-26.6	16.4	1.20e-04	0	33	0	2944532480	28	16465
2026-01-27 10:12:04.79	187.89	8.04	-26.1	-26.5	16.4	8.71e-05	0	33	0	3053584384	28	16389
2026-01-27 10:12:05.80	187.97	8.13	-26.1	-26.5	16.4	5.44e-05	0	34	0	3162636288	28	16338
2026-01-27 10:12:06.81	188.05	8.22	-26.2	-26.6	16.4	5.44e-05	0	33	0	3280076800	28	16490
2026-01-27 10:12:07.82	188.13	8.32	-26.1	-26.5	16.4	3.26e-05	0	34	0	3389128704	28	16363
2026-01-27 10:12:08.83	188.21	8.41	-26.1	-26.5	16.4	3.26e-05	0	34	0	3506569216	28	16282
2026-01-27 10:12:09.84	188.29	8.50	-25.9	-26.3	16.5	5.44e-05	0	34	0	3624009728	28	15871
2026-01-27 10:12:10.85	188.37	8.59	-26.0	-26.4	16.5	5.44e-05	0	34	0	3733061632	28	16171
2026-01-27 10:12:11.86	188.45	8.69	-25.8	-26.2	16.5	3.81e-05	0	34	0	3850502144	28	15832
2026-01-27 10:12:12.87	188.53	8.78	-26.0	-26.4	16.5	6.53e-05	0	34	0	3959554048	28	16214
2026-01-27 10:12:13.88	188.62	8.87	-25.8	-26.2	16.5	6.53e-05	0	34	0	4076994560	26	17632
2026-01-27 10:12:14.89	188.70	8.97	-25.7	-26.1	16.6	6.53e-05	0	34	0	4186046464	26	17557
2026-01-27 10:12:15.90	188.79	9.06	-25.7	-26.1	16.6	3.26e-05	0	34	0	4303486976	26	17481
2026-01-27 10:12:16.91	188.87	9.16	-25.7	-26.1	16.6	3.26e-05	0	34	0	4412538880	26	17432
2026-01-27 10:12:17.92	188.96	9.25	-25.6	-26.0	16.6	1.08e-05	0	34	0	4529979392	26	17386
2026-01-27 10:12:18.93	189.04	9.35	-25.6	-26.0	16.6	1.08e-05	0	34	0	4647419904	26	17318
2026-01-27 10:12:19.94	189.13	9.45	-25.7	-26.1	16.6	3.81e-05	0	34	0	4756471808	26	17457
2026-01-27 10:12:20.95	189.22	9.54	-25.8	-26.3	16.6	3.81e-05	0	34	0	4873912320	26	17817
2026-01-27 10:12:21.96	189.30	9.64	-25.8	-26.2	16.5	2.17e-05	0	34	0	4982964224	26	17718
2026-01-27 10:12:22.97	189.39	9.74	-25.4	-25.8	16.6	2.17e-05	0	34	0	5092016128	26	16860
2026-01-27 10:12:23.98	189.48	9.84	-25.5	-25.9	16.6	3.26e-05	0	34	0	5209456640	26	17031
2026-01-27 10:12:24.99	189.57	9.94	-25.4	-25.8	16.6	3.81e-05	0	34	0	5326897152	26	16851
2026-01-27 10:12:26.00	189.66	10.03	-25.3	-25.7	16.6	3.81e-05	0	34	0	5435949056	26	16653
2026-01-27 10:12:27.01	189.75	10.13	-25.2	-25.6	16.6	0.00e+00	0	34	0	5553389568	26	16588
2026-01-27 10:12:28.01	189.85	10.23	-25.4	-25.8	16.7	0.00e+00	0	34	0	5662441472	26	16877
2026-01-27 10:12:29.02	189.94	10.33	-25.5	-25.9	16.7	1.63e-05	0	34	0	5779881984	26	17107
2026-01-27 10:12:30.03	190.03	10.44	-25.2	-25.6	16.7	1.63e-05	0	34	0	5897322496	26	16551
2026-01-27 10:12:31.04	190.13	10.54	-25.1	-25.5	16.7	1.08e-05	0	34	0	6006374400	26	16287
2026-01-27 10:12:32.05	190.22	10.64	-25.0	-25.4	16.8	1.08e-05	0	34	0	6115426304	26	16209
2026-01-27 10:12:33.06	190.32	10.74	-24.9	-25.3	16.8	1.63e-05	0	34	0	6232866816	26	15963
2026-01-27 10:12:34.07	190.42	10.85	-25.0	-25.4	16.8	1.63e-05	0	34	0	6341918720	26	16075
2026-01-27 10:12:35.08	190.51	10.95	-24.8	-25.2	16.8	0.00e+00	0	34	0	6459359232	26	15739
2026-01-27 10:12:36.09	190.61	11.05	-24.8	-25.2	16.8	0.00e+00	0	34	0	6576799744	26	15749
2026-01-27 10:12:37.10	190.71	11.16	-24.8	-25.2	16.8	0.00e+00	0	34	0	6685851648	26	15868
2026-01-27 10:12:38.11	190.81	11.26	-24.8	-25.2	16.7	0.00e+00	0	34	0	6803292160	26	15861
2026-01-27 10:12:39.11	190.91	11.37	-24.5	-24.9	16.9	5.40e-06	0	34	0	6912344064	24	17133
2026-01-27 10:12:40.12	191.01	11.48	-24.7	-25.1	16.8	5.40e-06	0	34	0	7021395968	24	17443
2026-01-27 10:12:41.13	191.12	11.58	-24.5	-24.9	16.9	0.00e+00	0	34	0	7138836480	24	17189
2026-01-27 10:12:42.14	191.22	11.69	-24.4	-24.9	16.9	0.00e+00	0	34	0	7256276992	24	17023
2026-01-27 10:12:43.15	191.33	11.80	-24.4	-24.8	16.9	0.00e+00	0	34	0	7365328896	24	16987
2026-01-27 10:12:44.16	191.43	11.91	-24.3	-24.7	16.9	0.00e+00	0	34	0	7482769408	24	16682
2026-01-27 10:12:45.17	191.54	12.02	-24.5	-24.9	16.8	5.40e-06	0	34	0	7591821312	24	17065
2026-01-27 10:12:46.18	191.64	12.13	-24.2	-24.6	16.9	5.40e-06	0	34	0	7709261824	24	16432
2026-01-27 10:12:47.19	191.75	12.24	-24.3	-24.7	16.9	0.00e+00	0	34	0	7826702336	24	16696
2026-01-27 10:12:48.20	191.86	12.35	-24.2	-24.6	16.9	0.00e+00	0	34	0	7935754240	24	16459
2026-01-27 10:12:49.21	191.97	12.46	-24.2	-24.6	16.9	5.40e-06	0	34	0	8044806144	24	16516
2026-01-27 10:12:50.22	192.08	12.57	-24.1	-24.5	16.9	5.40e-06	0	34	0	8162246656	24	16293
2026-01-27 10:12:51.23	192.20	12.68	-24.0	-24.4	17.0	0.00e+00	0	34	0	8279687168	24	16138
2026-01-27 10:12:52.24	192.31	12.80	-24.0	-24.4	16.9	0.00e+00	0	34	0	8388739072	24	16131
2026-01-27 10:12:53.25	192.42	12.91	-24.0	-24.4	17.0	0.00e+00	0	34	0	8506179584	24	16135
2026-01-27 10:12:54.26	192.54	13.02	-23.9	-24.3	17.0	0.00e+00	0	34	0	8615231488	24	15889
2026-01-27 10:12:55.27	192.65	13.14	-23.9	-24.3	17.0	0.00e+00	0	34	0	8732672000	24	16023
2026-01-27 10:12:56.27	192.77	13.25	-23.8	-24.2	17.0	0.00e+00	0	34	0	8841723904	24	15762
2026-01-27 10:12:57.28	192.89	13.37	-23.9	-24.3	17.0	0.00e+00	0	34	0	8959164416	24	15975
2026-01-27 10:12:58.29	193.01	13.49	-23.8	-24.2	17.0	0.00e+00	0	34	0	9068216320	22	17751
2026-01-27 10:12:59.30	193.13	13.61	-23.7	-24.1	17.0	0.00e+00	0	34	0	9185656832	22	17429
2026-01-27 10:13:00.31	193.25	13.72	-23.6	-24.0	17.1	5.40e-06	0	34	0	9294708736	22	17348
2026-01-27 10:13:01.32	193.37	13.84	-23.6	-24.0	17.0	0.00e+00	0	34	0	9412149248	22	17293
2026-01-27 10:13:02.33	193.50	13.96	-23.5	-23.9	17.0	0.00e+00	0	34	0	9529589760	22	17200
2026-01-27 10:13:03.34	193.62	14.08	-23.4	-23.8	17.0	0.00e+00	0	34	0	9638641664	22	16984
2026-01-27 10:13:04.35	193.75	14.20	-23.6	-24.0	17.0	0.00e+00	0	34	0	9756082176	22	17230
2026-01-27 10:13:05.36	193.87	14.32	-23.3	-23.8	17.0	0.00e+00	0	34	0	9865134080	22	16811
2026-01-27 10:13:06.37	194.00	14.45	-23.4	-23.8	17.0	0.00e+00	0	34	0	9974185984	22	16950
2026-01-27 10:13:07.38	194.13	14.57	-23.5	-23.9	17.0	0.00e+00	0	34	0	10100015104	22	17149
2026-01-27 10:13:08.39	194.26	14.69	-23.6	-24.0	17.0	0.00e+00	0	34	0	10209067008	22	17273
2026-01-27 10:13:09.40	194.39	14.82	-23.2	-23.6	17.1	0.00e+00	0	34	0	10318118912	22	16511
2026-01-27 10:13:10.41	194.53	14.94	-23.3	-23.8	17.1	0.00e+00	0	34	0	10435559424	22	16819
2026-01-27 10:13:11.42	194.66	15.07	-23.2	-23.6	17.1	0.00e+00	0	34	0	10544611328	22	16484
2026-01-27 10:13:12.43	194.80	15.19	-23.3	-23.8	17.1	0.00e+00	0	34	0	10662051840	22	16860
2026-01-27 10:13:13.43	194.93	15.32	-23.3	-23.8	17.1	0.00e+00	0	34	0	10779492352	22	16824
2026-01-27 10:13:14.44	195.07	15.45	-23.2	-23.6	17.1	0.00e+00	0	34	0	10888544256	22	16455
2026-01-27 10:13:15.45	195.21	15.58	-23.2	-23.6	17.1	0.00e+00	0	34	0	11005984768	22	16499
2026-01-27 10:13:16.45	195.35	15.71	-23.1	-23.5	17.1	0.00e+00	0	34	0	11115036672	22	16388
2026-01-27 10:13:17.46	195.50	15.84	-23.1	-23.5	17.2	0.00e+00	0	34	0	11224088576	22	16258
2026-01-27 10:13:18.47	195.64	15.97	-23.0	-23.4	17.2	0.00e+00	0	35	0	11341529088	22	16083
2026-01-27 10:13:19.48	195.79	16.10	-23.0	-23.4	17.2	0.00e+00	0	35	0	11458969600	22	16151
2026-01-27 10:13:20.49	195.93	16.23	-23.0	-23.4	17.2	0.00e+00	0	34	0	11568021504	22	16135
2026-01-27 10:13:21.50	196.08	16.36	-22.7	-23.2	17.2	0.00e+00	0	35	0	11685462016	22	15722
2026-01-27 10:13:22.51	196.23	16.50	-22.7	-23.1	17.2	0.00e+00	0	34	0	11794513920	20	17464
2026-01-27 10:13:23.52	196.38	16.63	-22.7	-23.1	17.2	0.00e+00	0	34	0	11903565824	20	17558
2026-01-27 10:13:24.53	196.54	16.77	-22.7	-23.1	17.2	0.00e+00	0	34	0	12029394944	20	17505
2026-01-27 10:13:25.54	196.69	16.90	-22.6	-23.0	17.2	0.00e+00	0	35	0	12138446848	20	17339
2026-01-27 10:13:26.55	196.85	17.04	-22.4	-22.8	17.2	0.00e+00	0	34	0	12247498752	20	16877
2026-01-27 10:13:27.56	197.01	17.18	-22.4	-22.8	17.2	0.00e+00	0	34	0	12364939264	20	16964
2026-01-27 10:13:28.57	197.17	17.32	-22.4	-22.8	17.2	0.00e+00	0	34	0	12473991168	20	16967
2026-01-27 10:13:29.58	197.33	17.46	-22.2	-22.7	17.2	0.00e+00	0	34	0	12591431680	20	16629
2026-01-27 10:13:30.58	197.49	17.60	-22.3	-22.7	17.2	0.00e+00	0	35	0	12708872192	20	16784
2026-01-27 10:13:31.59	197.65	17.74	-22.1	-22.5	17.2	0.00e+00	0	35	0	12817924096	20	16334
2026-01-27 10:13:32.60	197.82	17.88	-22.0	-22.4	17.2	0.00e+00	0	34	0	12926976000	20	16224
2026-01-27 10:13:33.61	197.99	18.02	-22.1	-22.5	17.3	0.00e+00	0	34	0	13044416512	20	16407
2026-01-27 10:13:34.62	198.16	18.16	-22.1	-22.5	17.3	0.00e+00	0	34	0	13153468416	20	16367
2026-01-27 10:13:35.63	198.33	18.31	-22.2	-22.6	17.2	0.00e+00	0	35	0	13270908928	20	16525
2026-01-27 10:13:36.64	198.50	18.45	-22.0	-22.5	17.3	0.00e+00	0	35	0	13388349440	20	16292
2026-01-27 10:13:37.64	198.68	18.60	-22.2	-22.6	17.3	0.00e+00	0	35	0	13497401344	20	16548
2026-01-27 10:13:38.65	198.85	18.75	-21.8	-22.3	17.3	0.00e+00	0	35	0	13614841856	20	15911
2026-01-27 10:13:39.66	199.03	18.89	-21.7	-22.1	17.3	0.00e+00	0	35	0	13723893760	18	17458
2026-01-27 10:13:40.67	199.21	19.04	-21.7	-22.1	17.3	0.00e+00	0	35	0	13832945664	18	17589
2026-01-27 10:13:41.68	199.40	19.19	-21.5	-21.9	17.3	0.00e+00	0	35	0	13958774784	18	17181
2026-01-27 10:13:42.69	199.58	19.34	-21.5	-21.9	17.3	0.00e+00	0	35	0	14067826688	18	17156
2026-01-27 10:13:43.70	199.77	19.49	-21.5	-22.0	17.3	0.00e+00	0	35	0	14176878592	18	17214
2026-01-27 10:13:44.71	199.96	19.65	-21.5	-22.0	17.3	0.00e+00	0	35	0	14294319104	18	17255
2026-01-27 10:13:45.72	200.15	19.80	-21.3	-21.7	17.3	0.00e+00	0	35	0	14403371008	18	16755
2026-01-27 10:13:46.72	200.34	19.95	-21.4	-21.8	17.3	0.00e+00	0	35	0	14520811520	18	17002
2026-01-27 10:13:47.73	200.54	20.11	-21.3	-21.8	17.3	0.00e+00	0	35	0	14638252032	18	16842
2026-01-27 10:13:48.74	200.74	20.26	-21.3	-21.7	17.3	0.00e+00	0	35	0	14747303936	18	16719
2026-01-27 10:13:49.75	200.94	20.42	-21.2	-21.6	17.3	0.00e+00	0	35	0	14864744448	18	16552
2026-01-27 10:13:50.76	201.14	20.58	-21.2	-21.7	17.3	0.00e+00	0	35	0	14973796352	18	16649
2026-01-27 10:13:51.77	201.34	20.74	-21.1	-21.5	17.4	0.00e+00	0	35	0	15082848256	18	16369
2026-01-27 10:13:52.78	201.55	20.90	-21.2	-21.6	17.3	0.00e+00	0	35	0	15200288768	18	16497
2026-01-27 10:13:53.79	201.76	21.06	-20.9	-21.3	17.3	0.00e+00	0	35	0	15317729280	18	16049
2026-01-27 10:13:54.80	201.97	21.22	-20.9	-21.4	17.4	0.00e+00	0	35	0	15426781184	18	16120
2026-01-27 10:13:55.81	202.19	21.38	-20.8	-21.3	17.4	0.00e+00	0	35	0	15544221696	18	15925
2026-01-27 10:13:56.82	202.41	21.54	-20.8	-21.3	17.3	0.00e+00	0	35	0	15653273600	16	17832
2026-01-27 10:13:57.83	202.63	21.71	-20.7	-21.1	17.3	0.00e+00	0	35	0	15762325504	16	17588
2026-01-27 10:13:58.84	202.85	21.87	-20.6	-21.1	17.3	0.00e+00	0	35	0	15888154624	16	17486
2026-01-27 10:13:59.84	203.07	22.04	-20.7	-21.1	17.4	0.00e+00	0	35	0	15997206528	16	17485
2026-01-27 10:14:00.85	203.30	22.20	-20.7	-21.2	17.4	0.00e+00	0	35	0	16106258432	16	17623
2026-01-27 10:14:01.86	203.53	22.37	-20.4	-20.8	17.4	0.00e+00	0	35	0	16223698944	16	16992
2026-01-27 10:14:02.87	203.76	22.54	-20.4	-20.8	17.4	0.00e+00	0	35	0	16332750848	16	16958
2026-01-27 10:14:03.88	204.00	22.71	-20.4	-20.9	17.4	0.00e+00	0	35	0	16450191360	16	17097
2026-01-27 10:14:04.89	204.24	22.88	-20.5	-20.9	17.4	0.00e+00	0	35	0	16567631872	16	17173
2026-01-27 10:14:05.89	204.47	23.05	-20.4	-20.8	17.3	0.00e+00	0	35	0	16676683776	16	16967
2026-01-27 10:14:06.91	204.72	23.23	-20.4	-20.8	17.4	0.00e+00	0	35	0	16794124288	16	16952
2026-01-27 10:14:07.91	204.97	23.40	-20.3	-20.7	17.4	0.00e+00	0	35	0	16903176192	16	16725
2026-01-27 10:14:08.93	205.22	23.58	-19.9	-20.4	17.4	0.00e+00	0	35	0	17012228096	16	16112
2026-01-27 10:14:09.94	205.47	23.75	-20.1	-20.5	17.4	0.00e+00	0	35	0	17129668608	16	16411
2026-01-27 10:14:10.95	205.73	23.93	-19.9	-20.3	17.4	0.00e+00	0	35	0	17247109120	16	16052
2026-01-27 10:14:11.96	205.99	24.10	-19.8	-20.3	17.4	0.00e+00	0	35	0	17356161024	16	15956
2026-01-27 10:14:12.96	206.25	24.28	-19.8	-20.3	17.4	0.00e+00	0	35	0	17473601536	16	15884
2026-01-27 10:14:13.97	206.52	24.46	-19.9	-20.3	17.4	0.00e+00	0	35	0	17582653440	16	15971
2026-01-27 10:14:14.98	206.79	24.64	-19.9	-20.3	17.4	0.00e+00	0	35	0	17691705344	16	16012
2026-01-27 10:14:15.99	207.06	24.82	-19.6	-20.1	17.4	0.00e+00	0	35	0	17817534464	14	17468
2026-01-27 10:14:17.00	207.34	25.00	-19.6	-20.1	17.4	0.00e+00	0	35	0	17926586368	14	17421
2026-01-27 10:14:18.00	207.61	25.18	-19.6	-20.0	17.4	0.00e+00	0	35	0	18035638272	14	17318
2026-01-27 10:14:19.01	207.90	25.37	-19.5	-19.9	17.4	0.00e+00	0	35	0	18153078784	14	17172
2026-01-27 10:14:20.02	208.18	25.55	-19.5	-19.9	17.5	0.00e+00	0	35	0	18262130688	14	17083
2026-01-27 10:14:21.03	208.47	25.74	-19.4	-19.8	17.4	0.00e+00	0	35	0	18379571200	14	16929
2026-01-27 10:14:22.04	208.77	25.92	-19.4	-19.8	17.4	0.00e+00	0	35	0	18497011712	14	16898
2026-01-27 10:14:23.04	209.06	26.11	-19.1	-19.6	17.5	0.00e+00	0	35	0	18606063616	14	16506
2026-01-27 10:14:24.05	209.37	26.30	-19.2	-19.6	17.5	0.00e+00	0	35	0	18723504128	14	16565
2026-01-27 10:14:25.06	209.67	26.48	-19.2	-19.6	17.5	0.00e+00	0	35	0	18832556032	14	16565
2026-01-27 10:14:26.07	209.98	26.67	-19.4	-19.9	17.4	0.00e+00	0	35	0	18941607936	14	17062
2026-01-27 10:14:27.08	210.30	26.86	-18.8	-19.2	17.5	0.00e+00	0	35	0	19059048448	14	15855
2026-01-27 10:14:28.09	210.61	27.05	-18.9	-19.4	17.5	0.00e+00	0	35	0	19176488960	12	18037
2026-01-27 10:14:29.10	210.94	27.25	-18.6	-19.1	17.5	0.00e+00	0	35	0	19285540864	12	17472
2026-01-27 10:14:30.11	211.26	27.44	-18.7	-19.1	17.5	0.00e+00	0	35	0	19402981376	12	17528
2026-01-27 10:14:31.12	211.59	27.63	-18.7	-19.2	17.5	0.00e+00	0	35	0	19512033280	12	17672
2026-01-27 10:14:32.13	211.93	27.83	-18.5	-18.9	17.5	0.00e+00	0	35	0	19621085184	12	17111
2026-01-27 10:14:33.14	212.27	28.02	-18.4	-18.9	17.5	0.00e+00	0	35	0	19746914304	12	17038
2026-01-27 10:14:34.15	212.61	28.21	-18.4	-18.9	17.5	0.00e+00	0	35	0	19855966208	12	17044
2026-01-27 10:14:35.15	212.96	28.41	-18.2	-18.7	17.5	0.00e+00	0	35	0	19965018112	12	16701
2026-01-27 10:14:36.16	213.31	28.60	-18.2	-18.6	17.5	0.00e+00	0	35	0	20082458624	12	16573
2026-01-27 10:14:37.17	213.67	28.80	-18.1	-18.5	17.5	0.00e+00	0	35	0	20191510528	12	16368
2026-01-27 10:14:38.18	214.03	29.00	-18.1	-18.5	17.5	0.00e+00	0	35	0	20308951040	12	16351
2026-01-27 10:14:39.19	214.39	29.20	-17.9	-18.4	17.5	0.00e+00	0	35	0	20426391552	12	16133
2026-01-27 10:14:40.20	214.77	29.39	-17.9	-18.3	17.5	0.00e+00	0	35	0	20535443456	12	16004
2026-01-27 10:14:41.21	215.14	29.59	-17.8	-18.3	17.6	0.00e+00	0	35	0	20652883968	12	15916
2026-01-27 10:14:42.22	215.52	29.79	-17.8	-18.3	17.5	0.00e+00	0	35	0	20761935872	10	17872
2026-01-27 10:14:43.23	215.91	29.99	-17.6	-18.0	17.5	0.00e+00	0	35	0	20870987776	10	17377
2026-01-27 10:14:44.24	216.30	30.19	-17.6	-18.0	17.5	0.00e+00	0	35	0	20988428288	10	17316
2026-01-27 10:14:45.24	216.70	30.39	-17.5	-17.9	17.5	0.00e+00	0	35	0	21105868800	10	17193
2026-01-27 10:14:46.25	217.10	30.59	-17.5	-18.0	17.6	0.00e+00	0	35	0	21214920704	10	17275
2026-01-27 10:14:47.26	217.51	30.79	-17.3	-17.8	17.5	0.00e+00	0	35	0	21332361216	10	16845
2026-01-27 10:14:48.27	217.92	30.99	-17.5	-17.9	17.6	0.00e+00	0	35	0	21441413120	10	17189
2026-01-27 10:14:49.28	218.34	31.19	-17.2	-17.7	17.6	0.00e+00	0	35	0	21558853632	10	16722
2026-01-27 10:14:50.29	218.76	31.39	-17.1	-17.5	17.6	0.00e+00	0	35	0	21676294144	10	16396
2026-01-27 10:14:51.30	219.19	31.59	-17.2	-17.6	17.6	0.00e+00	0	35	0	21785346048	10	16589
2026-01-27 10:14:52.31	219.63	31.79	-17.0	-17.5	17.6	0.00e+00	0	35	0	21894397952	10	16278
2026-01-27 10:14:53.31	220.06	31.99	-16.9	-17.4	17.6	0.00e+00	0	35	0	22011838464	10	16097
2026-01-27 10:14:54.32	220.51	32.19	-16.9	-17.4	17.6	0.00e+00	0	35	0	22120890368	10	16108
2026-01-27 10:14:55.33	220.96	32.39	-16.9	-17.4	17.6	0.00e+00	0	35	0	22238330880	10	16088
2026-01-27 10:14:56.34	221.42	32.59	-16.8	-17.3	17.6	0.00e+00	0	35	0	22355771392	10	15924
2026-01-27 10:14:57.35	221.88	32.79	-16.8	-17.3	17.6	0.00e+00	0	35	0	22464823296	10	15955
2026-01-27 10:14:58.36	222.36	32.98	-16.7	-17.1	17.6	0.00e+00	0	35	0	22582263808	8	17552
2026-01-27 10:14:59.36	222.83	33.18	-16.7	-17.2	17.6	0.00e+00	0	35	0	22691315712	8	17693
2026-01-27 10:15:00.37	223.31	33.38	-16.7	-17.1	17.6	0.00e+00	0	35	0	22800367616	8	17587
2026-01-27 10:15:01.38	223.80	33.57	-16.7	-17.2	17.6	0.00e+00	0	35	0	22917808128	8	17618
2026-01-27 10:15:02.39	224.29	33.77	-16.5	-17.0	17.6	0.00e+00	0	35	0	23035248640	8	17212
2026-01-27 10:15:03.40	224.80	33.97	-16.6	-17.0	17.6	0.00e+00	0	35	0	23144300544	8	17335
2026-01-27 10:15:04.41	225.30	34.16	-16.6	-17.0	17.6	0.00e+00	0	35	0	23261741056	8	17393
2026-01-27 10:15:05.42	225.82	34.35	-16.5	-16.9	17.6	0.00e+00	0	35	0	23370792960	8	17122
2026-01-27 10:15:06.43	226.34	34.55	-16.5	-17.0	17.6	0.00e+00	0	35	0	23488233472	8	17267
2026-01-27 10:15:07.44	226.86	34.74	-16.4	-16.9	17.7	0.00e+00	0	35	0	23605673984	8	17024
2026-01-27 10:15:08.45	227.40	34.93	-16.3	-16.8	17.6	0.00e+00	0	35	0	23714725888	8	16814
2026-01-27 10:15:09.45	227.93	35.11	-16.4	-16.8	17.7	0.00e+00	0	35	0	23823777792	8	16930
2026-01-27 10:15:10.46	228.48	35.30	-16.4	-16.9	17.6	0.00e+00	0	35	0	23941218304	8	17068
2026-01-27 10:15:11.47	229.03	35.49	-16.3	-16.7	17.6	0.00e+00	0	35	0	24050270208	8	16726
2026-01-27 10:15:12.48	229.59	35.67	-16.2	-16.7	17.7	0.00e+00	0	35	0	24167710720	8	16624
2026-01-27 10:15:13.49	230.16	35.85	-16.1	-16.6	17.7	0.00e+00	0	35	0	24285151232	8	16465
2026-01-27 10:15:14.50	230.73	36.03	-16.0	-16.4	17.7	0.00e+00	0	35	0	24394203136	8	16234
2026-01-27 10:15:15.52	231.32	36.21	-16.1	-16.5	17.7	0.00e+00	0	35	0	24511643648	8	16366
2026-01-27 10:15:16.53	231.90	36.39	-15.9	-16.4	17.7	0.00e+00	0	35	0	24620695552	8	16072
2026-01-27 10:15:17.54	232.50	36.57	-16.0	-16.4	17.7	0.00e+00	0	35	0	24738136064	8	16203
2026-01-27 10:15:18.54	233.09	36.74	-16.0	-16.4	17.7	0.00e+00	0	35	0	24847187968	8	16143
2026-01-27 10:15:19.55	233.70	36.91	-16.0	-16.5	17.7	0.00e+00	0	35	0	24964628480	8	16270
2026-01-27 10:15:20.56	234.31	37.07	-15.8	-16.2	17.7	0.00e+00	0	35	0	25073680384	8	15846
2026-01-27 10:15:21.57	234.93	37.24	-15.9	-16.3	17.7	0.00e+00	0	35	0	25191120896	8	15937
2026-01-27 10:15:22.58	235.55	37.40	-15.7	-16.1	17.7	0.00e+00	0	35	0	25300172800	6	17513
2026-01-27 10:15:23.59	236.19	37.56	-15.7	-16.1	17.7	0.00e+00	0	35	0	25417613312	6	17540
2026-01-27 10:15:24.59	236.82	37.72	-15.6	-16.0	17.7	0.00e+00	0	35	0	25535053824	6	17382
2026-01-27 10:15:25.60	237.46	37.87	-15.5	-16.0	17.7	0.00e+00	0	35	0	25644105728	6	17265
2026-01-27 10:15:26.61	238.11	38.02	-15.7	-16.1	17.6	0.00e+00	0	35	0	25753157632	6	17549
2026-01-27 10:15:27.62	238.77	38.17	-15.7	-16.1	17.6	0.00e+00	0	35	0	25870598144	6	17574
2026-01-27 10:15:28.63	239.44	38.31	-15.5	-15.9	17.6	0.00e+00	0	35	0	25979650048	6	17107
2026-01-27 10:15:29.64	240.11	38.45	-15.4	-15.9	17.7	0.00e+00	0	35	0	26097090560	6	17006
2026-01-27 10:15:30.65	240.78	38.59	-15.4	-15.8	17.6	0.00e+00	0	35	0	26214531072	6	16908
2026-01-27 10:15:31.66	241.46	38.72	-15.4	-15.8	17.6	0.00e+00	0	35	0	26323582976	6	16896
2026-01-27 10:15:32.67	242.15	38.85	-15.3	-15.7	17.6	0.00e+00	0	35	0	26441023488	6	16772
2026-01-27 10:15:33.68	242.84	38.98	-15.2	-15.6	17.6	0.00e+00	0	35	0	26550075392	6	16598
2026-01-27 10:15:34.69	243.54	39.10	-15.3	-15.7	17.6	0.00e+00	0	35	0	26667515904	6	16775
2026-01-27 10:15:35.70	244.24	39.22	-15.2	-15.6	17.6	0.00e+00	0	35	0	26776567808	6	16614
2026-01-27 10:15:36.70	244.95	39.33	-15.2	-15.7	17.6	0.00e+00	0	35	0	26894008320	6	16676
2026-01-27 10:15:37.71	245.66	39.44	-15.2	-15.6	17.6	0.00e+00	0	35	0	27003060224	6	16616
2026-01-27 10:15:38.72	246.38	39.54	-15.2	-15.6	17.6	0.00e+00	0	35	0	27120500736	6	16584
2026-01-27 10:15:39.73	247.10	39.64	-15.1	-15.5	17.6	0.00e+00	0	35	0	27237941248	6	16320
2026-01-27 10:15:40.74	247.83	39.74	-15.2	-15.6	17.6	0.00e+00	0	35	0	27346993152	6	16557
2026-01-27 10:15:41.75	248.56	39.83	-15.0	-15.5	17.6	0.00e+00	0	35	0	27464433664	6	16271
2026-01-27 10:15:42.76	249.30	39.92	-15.1	-15.5	17.6	0.00e+00	0	35	0	27573485568	6	16363
2026-01-27 10:15:43.77	250.04	40.00	-14.9	-15.4	17.6	0.00e+00	0	35	0	27682537472	6	16057
2026-01-27 10:15:44.78	250.78	40.07	-14.8	-15.3	17.6	0.00e+00	0	35	0	27799977984	6	15878
2026-01-27 10:15:45.79	251.53	40.15	-15.0	-15.4	17.6	0.00e+00	0	35	0	27917418496	6	16168
2026-01-27 10:15:46.80	252.28	40.21	-14.9	-15.3	17.6	0.00e+00	0	35	0	28026470400	6	15967
2026-01-27 10:15:47.80	253.03	40.27	-14.9	-15.3	17.6	0.00e+00	0	35	0	28143910912	6	16017
2026-01-27 10:15:48.82	253.79	40.33	-14.9	-15.3	17.6	0.00e+00	0	35	0	28252962816	6	16031
2026-01-27 10:15:49.82	254.54	40.38	-14.8	-15.3	17.6	0.00e+00	0	35	0	28370403328	6	15875
2026-01-27 10:15:50.83	255.30	40.43	-15.0	-15.4	17.6	0.00e+00	0	35	0	28487843840	6	16109
2026-01-27 10:15:51.84	256.07	40.47	-14.9	-15.3	17.5	0.00e+00	0	35	0	28596895744	6	16007
2026-01-27 10:15:52.85	256.83	40.50	-15.0	-15.5	17.5	0.00e+00	0	35	0	28705947648	6	16263
2026-01-27 10:15:53.86	257.60	40.53	-14.9	-15.4	17.5	0.00e+00	0	35	0	28823388160	6	16095
2026-01-27 10:15:54.87	258.37	40.55	-15.1	-15.5	17.5	0.00e+00	0	35	0	28932440064	6	16296
2026-01-27 10:15:55.88	259.14	40.57	-15.0	-15.4	17.5	0.00e+00	0	35	0	29049880576	6	16218
2026-01-27 10:15:56.89	259.91	40.59	-15.1	-15.5	17.5	0.00e+00	0	35	0	29167321088	6	16329
2026-01-27 10:15:57.90	260.68	40.59	-15.0	-15.4	17.5	0.00e+00	0	35	0	29276372992	6	16149
2026-01-27 10:15:58.91	261.45	40.59	-14.9	-15.4	17.5	0.00e+00	0	35	0	29393813504	6	16070
2026-01-27 10:15:59.92	262.22	40.59	-14.9	-15.3	17.5	0.00e+00	0	35	0	29502865408	6	16019
2026-01-27 10:16:00.93	262.99	40.58	-15.0	-15.4	17.5	0.00e+00	0	35	0	29611917312	6	16115
2026-01-27 10:16:01.94	263.76	40.57	-15.1	-15.5	17.5	0.00e+00	0	35	0	29729357824	6	16332
2026-01-27 10:16:02.94	264.52	40.55	-15.1	-15.5	17.5	0.00e+00	0	35	0	29846798336	6	16358
2026-01-27 10:16:03.96	265.29	40.52	-15.4	-15.8	17.5	0.00e+00	0	35	0	29955850240	6	16839
2026-01-27 10:16:04.96	266.05	40.49	-15.1	-15.5	17.5	0.00e+00	0	35	0	30073290752	6	16383
2026-01-27 10:16:05.98	266.82	40.45	-15.2	-15.6	17.5	0.00e+00	0	35	0	30182342656	6	16527
2026-01-27 10:16:06.99	267.58	40.41	-15.1	-15.5	17.5	0.00e+00	0	35	0	30299783168	6	16348
2026-01-27 10:16:08.00	268.34	40.36	-14.9	-15.4	17.5	0.00e+00	0	35	0	30417223680	6	16089
2026-01-27 10:16:09.00	269.09	40.31	-15.1	-15.5	17.5	0.00e+00	0	35	0	30526275584	6	16316
2026-01-27 10:16:10.01	269.85	40.25	-15.0	-15.4	17.5	0.00e+00	0	35	0	30635327488	6	16232
2026-01-27 10:16:11.02	270.60	40.19	-15.0	-15.4	17.5	0.00e+00	0	35	0	30752768000	6	16102
2026-01-27 10:16:12.03	271.35	40.12	-15.0	-15.4	17.5	0.00e+00	0	35	0	30870208512	6	16221
2026-01-27 10:16:13.04	272.10	40.05	-15.1	-15.5	17.5	0.00e+00	0	35	0	30979260416	6	16320
2026-01-27 10:16:14.05	272.84	39.97	-15.1	-15.5	17.5	0.00e+00	0	35	0	31096700928	6	16359
2026-01-27 10:16:15.06	273.58	39.89	-15.0	-15.4	17.5	0.00e+00	0	35	0	31205752832	6	16088
2026-01-27 10:16:16.07	274.31	39.80	-15.0	-15.4	17.6	0.00e+00	0	35	0	31323193344	6	16128
2026-01-27 10:16:17.08	275.04	39.71	-15.1	-15.5	17.6	0.00e+00	0	35	0	31432245248	6	16392
2026-01-27 10:16:18.08	275.76	39.61	-15.1	-15.5	17.6	0.00e+00	0	35	0	31549685760	6	16262
2026-01-27 10:16:19.09	276.48	39.51	-15.2	-15.6	17.6	0.00e+00	0	35	0	31658737664	6	16466
2026-01-27 10:16:20.10	277.19	39.41	-15.2	-15.6	17.6	0.00e+00	0	35	0	31776178176	6	16552
2026-01-27 10:16:21.10	277.90	39.30	-15.2	-15.6	17.6	0.00e+00	0	35	0	31885230080	6	16490
2026-01-27 10:16:22.12	278.61	39.18	-15.2	-15.7	17.6	0.00e+00	0	35	0	32002670592	6	16618
2026-01-27 10:16:23.12	279.30	39.06	-15.2	-15.6	17.6	0.00e+00	0	35	0	32111722496	6	16575
2026-01-27 10:16:24.13	280.00	38.94	-15.3	-15.7	17.6	0.00e+00	0	35	0	32229163008	6	16756
2026-01-27 10:16:25.14	280.69	38.82	-49.2	-51.7	6.1	0.00e+00	0	35	104	32237551616	60	47311
2026-01-27 10:16:26.15	281.37	38.69	-49.2	-51.6	6.1	0.00e+00	0	35	104	32237551616	60	46832
2026-01-27 10:16:27.16	282.05	38.55	-49.2	-51.7	6.1	0.00e+00	0	35	104	32237551616	60	47031
2026-01-27 10:16:28.17	282.72	38.41	-49.2	-51.7	6.1	0.00e+00	0	35	104	32237551616	60	47108
2026-01-27 10:16:29.18	283.39	38.27	-49.2	-51.7	6.1	0.00e+00	0	35	104	32237551616	60	47110
2026-01-27 10:16:30.19	284.05	38.13	-49.2	-51.6	6.1	0.00e+00	0	35	104	32237551616	60	46695
2026-01-27 10:16:31.20	284.70	37.98	-49.2	-51.7	6.1	0.00e+00	0	35	104	32237551616	60	47130
2026-01-27 10:16:32.21	285.35	37.83	-49.2	-51.7	6.1	0.00e+00	0	35	104	32237551616	60	46956
2026-01-27 10:16:33.21	285.99	37.68	-49.1	-51.7	6.1	0.00e+00	0	35	104	32237551616	60	46881
2026-01-27 10:16:34.22	286.62	37.52	-49.1	-51.6	6.1	0.00e+00	0	35	104	32237551616	60	46649
2026-01-27 10:16:35.23	287.25	37.36	-49.1	-51.6	6.1	0.00e+00	0	35	104	32237551616	60	46482
2026-01-27 10:16:36.24	287.87	37.20	-49.2	-51.6	6.1	0.00e+00	0	35	104	32237551616	60	46603
2026-01-27 10:16:37.25	288.49	37.03	-49.1	-51.6	6.1	0.00e+00	0	35	104	32237551616	60	46484
2026-01-27 10:16:38.26	289.10	36.86	-49.1	-51.6	6.1	0.00e+00	0	35	104	32237551616	60	46402
2026-01-27 10:16:39.27	289.70	36.69	-49.1	-51.6	6.1	0.00e+00	0	35	104	32237551616	60	46396
2026-01-27 10:16:40.28	290.30	36.52	-49.1	-51.6	6.1	0.00e+00	0	35	104	32237551616	60	46528
2026-01-27 10:16:41.29	290.89	36.35	-49.0	-51.5	6.0	0.00e+00	0	35	104	32237551616	60	46118
2026-01-27 10:16:42.30	291.47	36.17	-49.0	-51.5	6.1	0.00e+00	0	35	104	32237551616	60	46100
2026-01-27 10:16:43.31	292.04	35.99	-49.0	-51.5	6.1	0.00e+00	0	35	104	32237551616	60	45938
2026-01-27 10:16:44.32	292.61	35.81	-49.0	-51.5	6.1	0.00e+00	0	35	104	32237551616	60	46080
2026-01-27 10:16:45.33	293.18	35.63	-48.8	-51.4	6.1	0.00e+00	0	35	104	32237551616	60	45304
2026-01-27 10:16:46.34	293.73	35.45	-48.8	-51.4	6.1	0.00e+00	0	35	104	32237551616	60	45321
2026-01-27 10:16:47.35	294.28	35.26	-48.8	-51.4	6.1	0.00e+00	0	35	104	32237551616	60	45362
2026-01-27 10:16:48.35	294.82	35.08	-48.9	-51.4	6.1	0.00e+00	0	35	104	32237551616	60	45486
2026-01-27 10:16:49.37	295.36	34.89	-48.6	-51.2	6.1	0.00e+00	0	35	104	32237551616	60	44625
2026-01-27 10:16:50.38	295.89	34.70	-48.6	-51.2	6.1	0.00e+00	0	35	104	32237551616	60	44473
2026-01-27 10:16:51.39	296.41	34.51	-48.8	-51.4	6.1	0.00e+00	0	35	104	32237551616	60	45460
2026-01-27 10:16:52.40	296.93	34.31	-48.8	-51.3	6.1	0.00e+00	0	35	104	32237551616	60	45235
2026-01-27 10:16:53.40	297.44	34.12	-48.6	-51.1	6.1	0.00e+00	0	35	104	32237551616	60	44194
2026-01-27 10:16:54.41	297.94	33.93	-48.6	-51.2	6.1	0.00e+00	0	35	104	32237551616	60	44309
2026-01-27 10:16:55.42	298.44	33.73	-48.6	-51.2	6.1	0.00e+00	0	35	104	32237551616	60	44244
2026-01-27 10:16:56.43	298.93	33.54	-48.5	-51.1	6.1	0.00e+00	0	35	104	32237551616	60	44050
2026-01-27 10:16:57.44	299.42	33.34	-48.4	-51.0	6.1	0.00e+00	0	35	104	32237551616	60	43329
2026-01-27 10:16:58.45	299.90	33.15	-48.5	-51.1	6.1	0.00e+00	0	35	104	32237551616	60	43719
2026-01-27 10:16:59.46	300.37	32.95	-48.3	-51.0	6.1	0.00e+00	0	35	104	32237551616	60	43308
2026-01-27 10:17:00.47	300.84	32.75	-48.5	-51.0	6.1	0.00e+00	0	35	104	32237551616	60	43644
2026-01-27 10:17:01.47	301.29	32.56	-48.5	-51.0	6.1	0.00e+00	0	35	104	32237551616	60	43681
2026-01-27 10:17:02.48	301.75	32.36	-48.4	-51.0	6.1	0.00e+00	0	35	104	32237551616	60	43526
2026-01-27 10:17:03.49	302.20	32.16	-48.5	-51.1	6.1	0.00e+00	0	35	104	32237551616	60	43893
2026-01-27 10:17:04.50	302.64	31.96	-48.7	-51.2	6.1	0.00e+00	0	35	104	32237551616	60	44539
2026-01-27 10:17:05.51	303.08	31.76	-48.6	-51.2	6.1	0.00e+00	0	35	104	32237551616	60	44386
2026-01-27 10:17:06.52	303.51	31.56	-48.7	-51.3	6.1	0.00e+00	0	35	104	32237551616	60	45079
2026-01-27 10:17:07.53	303.94	31.36	-48.5	-51.1	6.1	0.00e+00	0	35	104	32237551616	60	43961
2026-01-27 10:17:08.54	304.36	31.16	-48.8	-51.4	6.0	0.00e+00	0	35	104	32237551616	60	45387
2026-01-27 10:17:09.55	304.77	30.96	-48.9	-51.5	6.1	0.00e+00	0	35	104	32237551616	60	45974
2026-01-27 10:17:10.56	305.18	30.76	-49.0	-51.4	6.1	0.00e+00	0	35	104	32237551616	60	45611
2026-01-27 10:17:11.57	305.59	30.57	-48.9	-51.5	6.1	0.00e+00	0	35	104	32237551616	60	46078
2026-01-27 10:17:12.58	305.99	30.37	-49.0	-51.5	6.1	0.00e+00	0	35	104	32237551616	60	46104
2026-01-27 10:17:13.59	306.38	30.17	-48.9	-51.4	6.1	0.00e+00	0	35	104	32237551616	60	45563
2026-01-27 10:17:14.59	306.77	29.97	-48.7	-51.3	6.1	0.00e+00	0	35	104	32237551616	60	44742
2026-01-27 10:17:15.60	307.15	29.77	-49.0	-51.5	6.1	0.00e+00	0	35	104	32237551616	60	45824
2026-01-27 10:17:16.61	307.53	29.58	-48.8	-51.4	6.1	0.00e+00	0	35	104	32237551616	60	45415
2026-01-27 10:17:17.62	307.90	29.38	-48.6	-51.1	6.1	0.00e+00	0	35	104	32237551616	60	44122
2026-01-27 10:17:18.63	308.27	29.18	-48.8	-51.3	6.1	0.00e+00	0	35	104	32237551616	60	45059
2026-01-27 10:17:19.64	308.64	28.99	-48.9	-51.4	6.1	0.00e+00	0	35	104	32237551616	60	45421
2026-01-27 10:17:20.65	309.00	28.79	-48.8	-51.3	6.1	0.00e+00	0	35	104	32237551616	60	44912
2026-01-27 10:17:21.66	309.35	28.59	-48.8	-51.4	6.1	0.00e+00	0	35	104	32237551616	60	45321
2026-01-27 10:17:22.67	309.70	28.40	-48.7	-51.2	6.1	0.00e+00	0	35	104	32237551616	60	44515
2026-01-27 10:17:23.68	310.05	28.21	-48.6	-51.2	6.1	0.00e+00	0	35	104	32237551616	60	44551
2026-01-27 10:17:24.68	310.39	28.01	-48.7	-51.2	6.1	0.00e+00	0	35	104	32237551616	60	44503
2026-01-27 10:17:25.69	310.72	27.82	-48.9	-51.4	6.1	0.00e+00	0	35	104	32237551616	60	45303
2026-01-27 10:17:26.70	311.06	27.63	-48.8	-51.3	6.1	0.00e+00	0	35	104	32237551616	60	45024
2026-01-27 10:17:27.71	311.38	27.44	-48.8	-51.3	6.1	0.00e+00	0	35	104	32237551616	60	45239
2026-01-27 10:17:28.72	311.71	27.25	-48.9	-51.4	6.1	0.00e+00	0	35	104	32237551616	60	45567
2026-01-27 10:17:29.73	312.03	27.06	-49.0	-51.5	6.1	0.00e+00	0	35	104	32237551616	60	45793
2026-01-27 10:17:30.75	312.35	26.86	-49.0	-51.5	6.1	0.00e+00	0	35	104	32237551616	60	45980
2026-01-27 10:17:31.75	312.66	26.68	-49.0	-51.5	6.1	0.00e+00	0	35	104	32237551616	60	45863
2026-01-27 10:17:32.77	312.97	26.49	-49.0	-51.4	6.1	0.00e+00	0	35	104	32237551616	60	45638
2026-01-27 10:17:33.78	313.27	26.30	-48.9	-51.4	6.1	0.00e+00	0	35	104	32237551616	60	45389
2026-01-27 10:17:34.79	313.57	26.11	-48.8	-51.4	6.1	0.00e+00	0	35	104	32237551616	60	45262
2026-01-27 10:17:35.80	313.87	25.93	-48.8	-51.3	6.1	0.00e+00	0	35	104	32237551616	60	45061
2026-01-27 10:17:36.80	314.16	25.74	-48.9	-51.4	6.1	0.00e+00	0	35	104	32237551616	60	45459
2026-01-27 10:17:37.81	314.45	25.56	-49.0	-51.5	6.1	0.00e+00	0	35	104	32237551616	60	45814
2026-01-27 10:17:38.82	314.73	25.38	-48.9	-51.4	6.1	0.00e+00	0	35	104	32237551616	60	45474
2026-01-27 10:17:39.83	315.01	25.20	-48.8	-51.3	6.1	0.00e+00	0	35	104	32237551616	60	45108
2026-01-27 10:17:40.83	315.29	25.02	-49.0	-51.5	6.1	0.00e+00	0	35	104	32237551616	60	46123
2026-01-27 10:17:41.84	315.56	24.84	-49.1	-51.6	6.1	0.00e+00	0	35	104	32237551616	60	46324
2026-01-27 10:17:42.86	315.84	24.65	-49.1	-51.6	6.1	0.00e+00	0	35	104	32237551616	60	46462
2026-01-27 10:17:43.87	316.10	24.48	-49.0	-51.5	6.1	0.00e+00	0	35	104	32237551616	60	45812
2026-01-27 10:17:44.87	316.37	24.30	-48.9	-51.4	6.1	0.00e+00	0	35	104	32237551616	60	45727
2026-01-27 10:17:45.88	316.63	24.12	-48.8	-51.3	6.1	0.00e+00	0	35	104	32237551616	60	45140
2026-01-27 10:17:46.89	316.89	23.95	-49.0	-51.5	6.1	0.00e+00	0	35	104	32237551616	60	45793
2026-01-27 10:17:47.90	317.14	23.77	-49.0	-51.4	6.1	0.00e+00	0	35	104	32237551616	60	45679
2026-01-27 10:17:48.90	317.39	23.60	-48.9	-51.4	6.1	0.00e+00	0	35	104	32237551616	60	45545
2026-01-27 10:17:49.91	317.64	23.43	-49.0	-51.5	6.1	0.00e+00	0	35	104	32237551616	60	45964
2026-01-27 10:17:50.92	317.89	23.25	-48.9	-51.4	6.1	0.00e+00	0	35	104	32237551616	60	45626
2026-01-27 10:17:51.92	318.13	23.08	-49.0	-51.4	6.1	0.00e+00	0	35	104	32237551616	60	45488
2026-01-27 10:17:52.94	318.37	22.91	-49.0	-51.5	6.1	0.00e+00	0	35	104	32237551616	60	46215
2026-01-27 10:17:53.95	318.61	22.74	-49.0	-51.5	6.1	0.00e+00	0	35	104	32237551616	60	46143
2026-01-27 10:17:54.96	318.84	22.57	-49.1	-51.6	6.1	0.00e+00	0	35	104	32237551616	60	46325
2026-01-27 10:17:55.96	319.07	22.41	-49.0	-51.5	6.1	0.00e+00	0	35	104	32237551616	60	45880
2026-01-27 10:17:56.97	319.30	22.24	-48.9	-51.4	6.1	0.00e+00	0	35	104	32237551616	60	45542
2026-01-27 10:17:57.98	319.52	22.07	-48.9	-51.4	6.1	0.00e+00	0	35	104	32237551616	60	45689
2026-01-27 10:17:58.99	319.75	21.91	-49.0	-51.5	6.1	0.00e+00	0	35	104	32237551616	60	45891
2026-01-27 10:18:00.00	319.97	21.75	-49.0	-51.5	6.1	0.00e+00	0	35	104	32237551616	60	46037
2026-01-27 10:18:01.01	320.19	21.58	-48.9	-51.4	6.1	0.00e+00	0	35	104	32237551616	60	45711
2026-01-27 10:18:02.02	320.40	21.42	-49.0	-51.4	6.1	0.00e+00	0	35	104	32237551616	60	45630
2026-01-27 10:18:03.03	320.62	21.26	-48.9	-51.3	6.1	0.00e+00	0	35	104	32237551616	60	45237
2026-01-27 10:18:04.04	320.83	21.10	-48.9	-51.3	6.1	0.00e+00	0	35	104	32237551616	60	45226
2026-01-27 10:18:05.05	321.04	20.94	-49.0	-51.5	6.1	0.00e+00	0	35	104	32237551616	60	45929
2026-01-27 10:18:06.06	321.24	20.78	-49.0	-51.5	6.1	0.00e+00	0	35	104	32237551616	60	45804
2026-01-27 10:18:07.07	321.45	20.62	-49.0	-51.5	6.1	0.00e+00	0	35	104	32237551616	60	45790
2026-01-27 10:18:08.08	321.65	20.47	-48.9	-51.4	6.1	0.00e+00	0	35	104	32237551616	60	45467
2026-01-27 10:18:09.09	321.85	20.31	-48.9	-51.4	6.1	0.00e+00	0	35	104	32237551616	60	45672
2026-01-27 10:18:10.10	322.05	20.16	-49.0	-51.5	6.1	0.00e+00	0	34	104	32237551616	60	45769
2026-01-27 10:18:11.11	322.24	20.00	-49.0	-51.4	6.1	0.00e+00	0	35	104	32237551616	60	45686
2026-01-27 10:18:12.12	322.43	19.85	-49.0	-51.4	6.1	0.00e+00	0	35	104	32237551616	60	45623
2026-01-27 10:18:13.12	322.62	19.70	-49.0	-51.4	6.1	0.00e+00	0	35	104	32237551616	60	45662
2026-01-27 10:18:14.14	322.81	19.55	-49.0	-51.5	6.1	0.00e+00	0	35	104	32237551616	60	45818
2026-01-27 10:18:15.14	323.00	19.40	-49.0	-51.4	6.1	0.00e+00	0	35	104	32237551616	60	45671
2026-01-27 10:18:16.15	323.18	19.25	-48.9	-51.3	6.1	0.00e+00	0	35	104	32237551616	60	45220
2026-01-27 10:18:17.16	323.36	19.10	-48.9	-51.4	6.1	0.00e+00	0	35	104	32237551616	60	45383
2026-01-27 10:18:18.17	323.54	18.95	-49.0	-51.4	6.1	0.00e+00	0	34	104	32237551616	60	45595
2026-01-27 10:18:19.18	323.72	18.80	-49.0	-51.4	6.1	0.00e+00	0	34	104	32237551616	60	45673
2026-01-27 10:18:20.19	323.90	18.66	-48.9	-51.4	6.1	0.00e+00	0	35	104	32237551616	60	45494
2026-01-27 10:18:21.20	324.07	18.51	-48.9	-51.4	6.1	0.00e+00	0	35	104	32237551616	60	45554
2026-01-27 10:18:22.20	324.25	18.37	-48.8	-51.3	6.1	0.00e+00	0	35	104	32237551616	60	45121
2026-01-27 10:18:23.21	324.42	18.23	-48.9	-51.4	6.1	0.00e+00	0	35	104	32237551616	60	45472
2026-01-27 10:18:24.22	324.59	18.08	-48.9	-51.4	6.1	0.00e+00	0	35	104	32237551616	60	45568
2026-01-27 10:18:25.23	324.75	17.94	-48.9	-51.4	6.1	0.00e+00	0	35	104	32237551616	60	45366
2026-01-27 10:18:26.24	324.92	17.80	-48.8	-51.3	6.1	0.00e+00	0	35	104	32237551616	60	45034
2026-01-27 10:18:27.25	325.08	17.66	-48.8	-51.3	6.1	0.00e+00	0	35	104	32237551616	60	45130
2026-01-27 10:18:28.26	325.25	17.52	-48.9	-51.3	6.1	0.00e+00	0	35	104	32237551616	60	45158
2026-01-27 10:18:29.27	325.41	17.38	-48.9	-51.4	6.1	0.00e+00	0	35	104	32237551616	60	45532
2026-01-27 10:18:30.28	325.57	17.25	-48.9	-51.4	6.1	0.00e+00	0	35	104	32237551616	60	45411
2026-01-27 10:18:31.29	325.72	17.11	-48.9	-51.3	6.1	0.00e+00	0	35	104	32237551616	60	45111
2026-01-27 10:18:32.30	325.88	16.97	-48.9	-51.3	6.1	0.00e+00	0	35	104	32237551616	60	45238
2026-01-27 10:18:33.31	326.03	16.84	-48.9	-51.4	6.1	0.00e+00	0	35	104	32237551616	60	45401
2026-01-27 10:18:34.32	326.19	16.70	-48.8	-51.3	6.1	0.00e+00	0	35	104	32237551616	60	45098
2026-01-27 10:18:35.33	326.34	16.57	-49.0	-51.4	6.1	0.00e+00	0	35	104	32237551616	60	45500
2026-01-27 10:18:36.34	326.49	16.44	-48.9	-51.4	6.1	0.00e+00	0	35	104	32237551616	60	45502
2026-01-27 10:18:37.35	326.63	16.30	-48.9	-51.4	6.1	0.00e+00	0	35	104	32237551616	60	45376
2026-01-27 10:18:38.35	326.78	16.17	-48.8	-51.3	6.1	0.00e+00	0	35	104	32237551616	60	45208
2026-01-27 10:18:39.36	326.92	16.04	-48.9	-51.4	6.1	0.00e+00	0	35	104	32237551616	60	45396
2026-01-27 10:18:40.37	327.07	15.91	-48.8	-51.3	6.1	0.00e+00	0	35	104	32237551616	60	45027
2026-01-27 10:18:41.38	327.21	15.78	-48.9	-51.4	6.1	0.00e+00	0	35	104	32237551616	60	45358
2026-01-27 10:18:42.39	327.35	15.66	-48.7	-51.2	6.1	0.00e+00	0	35	104	32237551616	60	44599
2026-01-27 10:18:43.40	327.49	15.53	-48.8	-51.2	6.0	0.00e+00	0	35	104	32237551616	60	44707
2026-01-27 10:18:44.41	327.63	15.40	-48.6	-51.1	6.1	0.00e+00	0	35	104	32237551616	60	43865
2026-01-27 10:18:45.42	327.77	15.28	-48.9	-51.3	6.1	0.00e+00	0	35	104	32237551616	60	45168
2026-01-27 10:18:46.43	327.90	15.15	-48.7	-51.2	6.1	0.00e+00	0	35	104	32237551616	60	44658
2026-01-27 10:18:47.44	328.04	15.02	-48.7	-51.2	6.1	0.00e+00	0	35	104	32237551616	60	44466
2026-01-27 10:18:48.45	328.17	14.90	-48.7	-51.2	6.1	0.00e+00	0	35	104	32237551616	60	44467
2026-01-27 10:18:49.46	328.30	14.78	-48.9	-51.3	6.1	0.00e+00	0	35	104	32237551616	60	44980
2026-01-27 10:18:50.47	328.43	14.65	-48.8	-51.4	6.1	0.00e+00	0	35	104	32237551616	60	45299
2026-01-27 10:18:51.48	328.56	14.53	-48.7	-51.2	6.1	0.00e+00	0	35	104	32237551616	60	44579
2026-01-27 10:18:52.49	328.69	14.41	-48.8	-51.3	6.1	0.00e+00	0	35	104	32237551616	60	45072
2026-01-27 10:18:53.50	328.82	14.29	-48.8	-51.3	6.1	0.00e+00	0	35	104	32237551616	60	44970
2026-01-27 10:18:54.50	328.94	14.17	-48.8	-51.3	6.1	0.00e+00	0	35	104	32237551616	60	45171
2026-01-27 10:18:55.51	329.07	14.05	-48.8	-51.3	6.1	0.00e+00	0	35	104	32237551616	60	45056
2026-01-27 10:18:56.52	329.19	13.93	-48.8	-51.3	6.1	0.00e+00	0	35	104	32237551616	60	44840
2026-01-27 10:18:57.53	329.31	13.81	-48.8	-51.3	6.1	0.00e+00	0	35	104	32237551616	60	44733
2026-01-27 10:18:58.54	329.43	13.70	-48.8	-51.3	6.1	0.00e+00	0	35	104	32237551616	60	44923
2026-01-27 10:18:59.55	329.55	13.58	-48.8	-51.3	6.1	0.00e+00	0	35	104	32237551616	60	44954
2026-01-27 10:19:00.56	329.67	13.46	-48.8	-51.3	6.1	0.00e+00	0	35	104	32237551616	60	44769
2026-01-27 10:19:01.57	329.79	13.35	-48.8	-51.2	6.1	0.00e+00	0	35	104	32237551616	60	44705
2026-01-27 10:19:02.58	329.91	13.23	-48.8	-51.2	6.1	0.00e+00	0	35	104	32237551616	60	44615
2026-01-27 10:19:03.59	330.02	13.12	-48.8	-51.2	6.1	0.00e+00	0	35	104	32237551616	60	44673
2026-01-27 10:19:04.60	330.14	13.01	-48.8	-51.2	6.1	0.00e+00	0	35	104	32237551616	60	44463
2026-01-27 10:19:05.60	330.25	12.89	-48.8	-51.2	6.1	0.00e+00	0	35	104	32237551616	60	44671
2026-01-27 10:19:06.61	330.36	12.78	-48.8	-51.2	6.1	0.00e+00	0	35	104	32237551616	60	44701
2026-01-27 10:19:07.62	330.48	12.67	-48.8	-51.2	6.1	0.00e+00	0	35	104	32237551616	60	44565
2026-01-27 10:19:08.63	330.59	12.56	-48.8	-51.2	6.1	0.00e+00	0	35	104	32237551616	60	44544
2026-01-27 10:19:09.64	330.70	12.45	-48.7	-51.2	6.1	0.00e+00	0	35	104	32237551616	60	44581
2026-01-27 10:19:10.65	330.81	12.34	-48.7	-51.2	6.1	0.00e+00	0	35	104	32237551616	60	44453
2026-01-27 10:19:11.66	330.91	12.23	-48.7	-51.1	6.1	0.00e+00	0	35	104	32237551616	60	44123
2026-01-27 10:19:12.67	331.02	12.12	-48.7	-51.1	6.1	0.00e+00	0	35	104	32237551616	60	44157
2026-01-27 10:19:13.67	331.13	12.01	-48.7	-51.2	6.1	0.00e+00	0	35	104	32237551616	60	44498
2026-01-27 10:19:14.69	331.23	11.90	-48.7	-51.1	6.1	0.00e+00	0	35	104	32237551616	60	44160
2026-01-27 10:19:15.69	331.34	11.79	-48.6	-51.1	6.1	0.00e+00	0	35	104	32237551616	60	44003
2026-01-27 10:19:16.71	331.44	11.69	-48.7	-51.2	6.1	0.00e+00	0	35	104	32237551616	60	44333
2026-01-27 10:19:17.72	331.54	11.58	-48.7	-51.1	6.1	0.00e+00	0	35	104	32237551616	60	44166
2026-01-27 10:19:18.73	331.65	11.47	-48.7	-51.2	6.1	0.00e+00	0	35	104	32237551616	60	44490
2026-01-27 10:19:19.73	331.75	11.37	-48.6	-51.1	6.1	0.00e+00	0	35	104	32237551616	60	43981
2026-01-27 10:19:20.74	331.85	11.27	-48.7	-51.2	6.1	0.00e+00	0	35	104	32237551616	60	44284
2026-01-27 10:19:21.75	331.95	11.16	-48.6	-51.1	6.1	0.00e+00	0	35	104	32237551616	60	43884
2026-01-27 10:19:22.76	332.05	11.06	-48.7	-51.1	6.1	0.00e+00	0	35	104	32237551616	60	44072
2026-01-27 10:19:23.77	332.14	10.95	-48.5	-51.0	6.1	0.00e+00	0	35	104	32237551616	60	43605
2026-01-27 10:19:24.78	332.24	10.85	-48.6	-51.1	6.1	0.00e+00	0	35	104	32237551616	60	43842
2026-01-27 10:19:25.79	332.34	10.75	-48.6	-51.1	6.1	0.00e+00	0	35	104	32237551616	60	44067
2026-01-27 10:19:26.80	332.43	10.65	-48.5	-51.0	6.1	0.00e+00	0	35	104	32237551616	60	43485
2026-01-27 10:19:27.81	332.53	10.55	-48.5	-51.0	6.1	0.00e+00	0	35	104	32237551616	60	43453
2026-01-27 10:19:28.82	332.62	10.45	-48.6	-51.0	6.1	0.00e+00	0	35	104	32237551616	60	43637
2026-01-27 10:19:29.83	332.71	10.35	-48.5	-51.0	6.1	0.00e+00	0	35	104	32237551616	60	43556
2026-01-27 10:19:30.84	332.81	10.25	-48.6	-51.1	6.1	0.00e+00	0	35	104	32237551616	60	43721
2026-01-27 10:19:31.85	332.90	10.15	-48.4	-50.9	6.1	0.00e+00	0	35	104	32237551616	60	43139
2026-01-27 10:19:32.86	332.99	10.05	-48.6	-51.1	6.1	0.00e+00	0	35	104	32237551616	60	43979
2026-01-27 10:19:33.87	333.08	9.95	-48.4	-50.9	6.1	0.00e+00	0	35	104	32237551616	60	43012
2026-01-27 10:19:34.87	333.17	9.85	-48.5	-51.0	6.1	0.00e+00	0	35	104	32237551616	60	43559
2026-01-27 10:19:35.88	333.26	9.76	-48.4	-50.9	6.1	0.00e+00	0	35	104	32237551616	60	43033
2026-01-27 10:19:36.89	333.35	9.66	-48.5	-51.0	6.1	0.00e+00	0	35	104	32237551616	60	43321
2026-01-27 10:19:37.90	333.43	9.56	-48.4	-50.9	6.1	0.00e+00	0	35	104	32237551616	60	42942
2026-01-27 10:19:38.91	333.52	9.47	-48.4	-51.0	6.1	0.00e+00	0	35	104	32237551616	60	43335
2026-01-27 10:19:39.92	333.61	9.37	-48.5	-51.0	6.1	0.00e+00	0	35	104	32237551616	60	43409
2026-01-27 10:19:40.93	333.69	9.28	-48.5	-51.0	6.1	0.00e+00	0	35	104	32237551616	60	43585
2026-01-27 10:19:41.94	333.78	9.18	-48.5	-51.0	6.1	0.00e+00	0	35	104	32237551616	60	43409
2026-01-27 10:19:42.95	333.86	9.09	-48.4	-50.9	6.1	0.00e+00	0	35	104	32237551616	60	42956
2026-01-27 10:19:43.96	333.94	8.99	-48.4	-50.9	6.1	0.00e+00	0	35	104	32237551616	60	42981
2026-01-27 10:19:44.97	334.03	8.90	-48.4	-51.0	6.1	0.00e+00	0	35	104	32237551616	60	43218
2026-01-27 10:19:45.98	334.11	8.81	-48.4	-50.9	6.1	0.00e+00	0	35	104	32237551616	60	43088
2026-01-27 10:19:46.99	334.19	8.71	-48.4	-50.9	6.1	0.00e+00	0	35	104	32237551616	60	43000
2026-01-27 10:19:48.00	334.27	8.62	-48.4	-50.9	6.0	0.00e+00	0	34	104	32237551616	60	42982
2026-01-27 10:19:49.01	334.35	8.53	-48.5	-51.0	6.1	0.00e+00	0	35	104	32237551616	60	43216
2026-01-27 10:19:50.02	334.43	8.44	-48.4	-50.8	6.1	0.00e+00	0	34	104	32237551616	60	42709
2026-01-27 10:19:51.03	334.51	8.35	-48.5	-50.9	6.1	0.00e+00	0	34	104	32237551616	60	43140
2026-01-27 10:19:52.04	334.59	8.26	-48.4	-50.9	6.1	0.00e+00	0	34	104	32237551616	60	42832
2026-01-27 10:19:53.05	334.67	8.17	-48.5	-51.0	6.1	0.00e+00	0	34	104	32237551616	60	43290
2026-01-27 10:19:54.06	334.75	8.08	-48.4	-50.8	6.1	0.00e+00	0	34	104	32237551616	60	42711
2026-01-27 10:19:55.07	334.83	7.99	-48.4	-50.9	6.1	0.00e+00	0	35	104	32237551616	60	43106
2026-01-27 10:19:56.08	334.90	7.90	-48.3	-50.8	6.1	0.00e+00	0	35	104	32237551616	60	42504
2026-01-27 10:19:57.09	334.98	7.81	-48.4	-50.9	6.1	0.00e+00	0	34	104	32237551616	60	42864
2026-01-27 10:19:58.10	335.05	7.72	-48.3	-50.8	6.1	0.00e+00	0	35	104	32237551616	60	42323
2026-01-27 10:19:59.11	335.13	7.63	-48.4	-50.9	6.1	0.00e+00	0	35	104	32237551616	60	42876
2026-01-27 10:20:00.12	335.20	7.55	-48.2	-50.7	6.1	0.00e+00	0	35	104	32237551616	60	42099
2026-01-27 10:20:01.13	335.28	7.46	-48.3	-50.8	6.1	0.00e+00	0	34	104	32237551616	60	42540
2026-01-27 10:20:02.14	335.35	7.37	-48.2	-50.7	6.1	0.00e+00	0	35	104	32237551616	60	42160
2026-01-27 10:20:03.14	335.42	7.29	-48.4	-50.8	6.1	0.00e+00	0	34	104	32237551616	60	42684
2026-01-27 10:20:04.16	335.50	7.20	-48.1	-50.6	6.1	0.00e+00	0	35	104	32237551616	60	41667
2026-01-27 10:20:05.16	335.57	7.11	-48.3	-50.8	6.1	0.00e+00	0	35	104	32237551616	60	42657
2026-01-27 10:20:06.17	335.64	7.03	-48.2	-50.7	6.1	0.00e+00	0	35	104	32237551616	60	41747
2026-01-27 10:20:07.18	335.71	6.94	-48.3	-50.8	6.1	0.00e+00	0	35	104	32237551616	60	42564
2026-01-27 10:20:08.19	335.78	6.86	-47.9	-50.4	6.1	0.00e+00	0	35	104	32237551616	60	40361
2026-01-27 10:20:09.20	335.85	6.78	-48.3	-50.8	6.1	0.00e+00	0	35	104	32237551616	60	42405
2026-01-27 10:20:10.21	335.92	6.69	-48.0	-50.5	6.1	0.00e+00	0	35	104	32237551616	60	40999
2026-01-27 10:20:11.22	335.99	6.61	-48.2	-50.7	6.1	0.00e+00	0	35	104	32237551616	60	41902
2026-01-27 10:20:12.23	336.06	6.52	-47.5	-50.0	6.1	0.00e+00	0	35	104	32237551616	60	38859
2026-01-27 10:20:13.24	336.13	6.44	-48.2	-50.7	6.1	0.00e+00	0	35	104	32237551616	60	42098
2026-01-27 10:20:14.25	336.19	6.36	-46.5	-49.0	6.1	0.00e+00	0	35	104	32237551616	60	34335
2026-01-27 10:20:15.26	336.26	6.28	-47.7	-50.2	6.1	0.00e+00	0	35	104	32237551616	60	39439
2026-01-27 10:20:16.27	336.33	6.19	-45.9	-48.4	6.1	0.00e+00	0	35	104	32237551616	60	32248
2026-01-27 10:20:17.28	336.40	6.11	-45.4	-47.9	6.1	0.00e+00	0	35	104	32237551616	60	30439
2026-01-27 10:20:18.28	336.46	6.03	-44.9	-47.4	6.1	0.00e+00	0	35	104	32237551616	60	28688
2026-01-27 10:20:19.29	336.53	5.95	-44.5	-47.0	6.1	0.00e+00	0	35	104	32237551616	60	27291
2026-01-27 10:20:20.30	336.59	5.87	-46.7	-49.2	6.1	0.00e+00	0	35	104	32237551616	60	35244
2026-01-27 10:20:21.31	336.66	5.79	-47.7	-50.2	6.1	0.00e+00	0	35	104	32237551616	60	39815
2026-01-27 10:20:22.32	336.72	5.71	-45.1	-47.6	6.1	0.00e+00	0	35	104	32237551616	60	29490
2026-01-27 10:20:23.33	336.78	5.63	-47.1	-49.6	6.1	0.00e+00	0	35	104	32237551616	60	36850
2026-01-27 10:20:24.34	336.85	5.55	-44.8	-47.4	6.1	0.00e+00	0	35	104	32237551616	60	28580
2026-01-27 10:20:25.35	336.91	5.47	-44.5	-47.0	6.1	0.00e+00	0	34	104	32237551616	60	27380
2026-01-27 10:20:26.36	336.97	5.39	-44.4	-46.9	6.1	0.00e+00	0	34	104	32237551616	60	27002
2026-01-27 10:20:27.37	337.04	5.31	-44.2	-46.7	6.1	0.00e+00	0	34	104	32237551616	60	26430
2026-01-27 10:20:28.38	337.10	5.23	-45.1	-47.6	6.1	0.00e+00	0	34	104	32237551616	60	29296
2026-01-27 10:20:29.39	337.16	5.16	-46.5	-49.0	6.0	0.00e+00	0	34	104	32237551616	60	34442
2026-01-27 10:20:30.40	337.22	5.08	-44.5	-47.0	6.1	0.00e+00	0	34	104	32237551616	60	27307
2026-01-27 10:20:31.41	337.28	5.00	-44.8	-47.4	6.1	0.00e+00	0	34	104	32237551616	60	28632
2026-01-27 10:20:32.41	337.34	4.92	-44.3	-46.8	6.1	0.00e+00	0	35	104	32237551616	60	26876
2026-01-27 10:20:33.42	337.40	4.85	-44.2	-46.7	6.1	0.00e+00	0	34	104	32237551616	60	26582
2026-01-27 10:20:34.43	337.46	4.77	-44.2	-46.7	6.1	0.00e+00	0	34	104	32237551616	60	26581
2026-01-27 10:20:35.44	337.52	4.69	-44.2	-46.7	6.1	0.00e+00	0	34	104	32237551616	60	26489
2026-01-27 10:20:36.45	337.58	4.62	-44.5	-46.9	6.1	0.00e+00	0	35	104	32237551616	60	27205
2026-01-27 10:20:37.46	337.64	4.54	-45.3	-47.8	6.1	0.00e+00	0	34	104	32237551616	60	30071
2026-01-27 10:20:38.47	337.70	4.47	-44.3	-46.8	6.1	0.00e+00	0	34	104	32237551616	60	26837
2026-01-27 10:20:39.48	337.75	4.39	-44.4	-46.9	6.1	0.00e+00	0	34	104	32237551616	60	27127
2026-01-27 10:20:40.49	337.81	4.32	-44.3	-46.8	6.1	0.00e+00	0	34	104	32237551616	60	26666
2026-01-27 10:20:41.50	337.87	4.24	-44.2	-46.7	6.1	0.00e+00	0	34	104	32237551616	60	26360
2026-01-27 10:20:42.51	337.93	4.17	-44.2	-46.7	6.1	0.00e+00	0	34	104	32237551616	60	26504
2026-01-27 10:20:43.52	337.98	4.09	-44.2	-46.7	6.1	0.00e+00	0	34	104	32237551616	60	26462
2026-01-27 10:20:44.53	338.04	4.02	-44.3	-46.9	6.1	0.00e+00	0	34	104	32237551616	60	26993
2026-01-27 10:20:45.54	338.09	3.94	-44.4	-46.9	6.1	0.00e+00	0	34	104	32237551616	60	27188
2026-01-27 10:20:46.55	338.15	3.87	-44.3	-46.8	6.1	0.00e+00	0	35	104	32237551616	60	26757
2026-01-27 10:20:47.56	338.21	3.80	-44.3	-46.8	6.1	0.00e+00	0	34	104	32237551616	60	26838
2026-01-27 10:20:48.57	338.26	3.72	-44.2	-46.7	6.1	0.00e+00	0	35	104	32237551616	60	26582
2026-01-27 10:20:49.58	338.31	3.65	-44.2	-46.7	6.1	0.00e+00	0	35	104	32237551616	60	26568
2026-01-27 10:20:50.59	338.37	3.58	-44.3	-46.7	6.1	0.00e+00	0	34	104	32237551616	60	26485
2026-01-27 10:20:51.60	338.42	3.50	-44.2	-46.7	6.1	0.00e+00	0	34	104	32237551616	60	26602
2026-01-27 10:20:52.61	338.48	3.43	-44.3	-46.8	6.1	0.00e+00	0	34	104	32237551616	60	26682
2026-01-27 10:20:53.62	338.53	3.36	-44.3	-46.9	6.1	0.00e+00	0	35	104	32237551616	60	26975
2026-01-27 10:20:54.63	338.58	3.29	-44.4	-46.8	6.1	0.00e+00	0	35	104	32237551616	60	26900
2026-01-27 10:20:55.63	338.64	3.22	-44.3	-46.8	6.1	0.00e+00	0	34	104	32237551616	60	26807
2026-01-27 10:20:56.64	338.69	3.15	-44.4	-46.9	6.1	0.00e+00	0	34	104	32237551616	60	27007
2026-01-27 10:20:57.65	338.74	3.08	-44.4	-46.9	6.1	0.00e+00	0	34	104	32237551616	60	27087
2026-01-27 10:20:58.66	338.79	3.01	-44.3	-46.7	6.1	0.00e+00	0	34	104	32237551616	60	26637
2026-01-27 10:20:59.67	338.84	2.93	-44.3	-46.8	6.1	0.00e+00	0	35	104	32237551616	60	26807
2026-01-27 10:21:00.68	338.90	2.86	-48.3	-50.8	6.1	0.00e+00	0	35	104	32237551616	60	42317
2026-01-27 10:21:01.69	338.95	2.79	-48.6	-51.1	6.1	0.00e+00	0	34	104	32237551616	60	43873
2026-01-27 10:21:02.70	339.00	2.72	-48.7	-51.2	6.1	0.00e+00	0	34	104	32237551616	60	44462
2026-01-27 10:21:03.71	339.05	2.65	-48.9	-51.3	6.1	0.00e+00	0	35	104	32237551616	60	45091
2026-01-27 10:21:04.72	339.10	2.58	-49.0	-51.4	6.1	0.00e+00	0	34	104	32237551616	60	45615
2026-01-27 10:21:05.73	339.15	2.52	-49.1	-51.5	6.1	0.00e+00	0	35	104	32237551616	60	46189
2026-01-27 10:21:06.74	339.20	2.45	-49.0	-51.5	6.1	0.00e+00	0	34	104	32237551616	60	45772
2026-01-27 10:21:07.76	339.25	2.38	-49.0	-51.5	6.1	0.00e+00	0	34	104	32237551616	60	46267
2026-01-27 10:21:08.77	339.30	2.31	-49.1	-51.5	6.1	0.00e+00	0	34	104	32237551616	60	46150
2026-01-27 10:21:09.78	339.34	2.24	-49.2	-51.7	6.1	0.00e+00	0	35	104	32237551616	60	47019
2026-01-27 10:21:10.79	339.39	2.17	-49.1	-51.5	6.1	0.00e+00	0	34	104	32237551616	60	46298
2026-01-27 10:21:11.80	339.44	2.10	-49.1	-51.6	6.1	0.00e+00	0	35	104	32237551616	60	46443
2026-01-27 10:21:12.81	339.49	2.04	-49.0	-51.5	6.1	0.00e+00	0	35	104	32237551616	60	46148
2026-01-27 10:21:13.82	339.54	1.97	-48.7	-51.3	6.1	0.00e+00	0	34	104	32237551616	60	44993
2026-01-27 10:21:14.83	339.59	1.90	-48.9	-51.4	6.1	0.00e+00	0	34	104	32237551616	60	45502
2026-01-27 10:21:15.83	339.63	1.83	-48.6	-51.2	6.1	0.00e+00	0	35	104	32237551616	60	44285
2026-01-27 10:21:16.84	339.68	1.77	-48.6	-51.2	6.1	0.00e+00	0	34	104	32237551616	60	44344
2026-01-27 10:21:17.85	339.73	1.70	-48.9	-51.5	6.1	0.00e+00	0	35	104	32237551616	60	45946
2026-01-27 10:21:18.86	339.77	1.63	-49.0	-51.4	6.1	0.00e+00	0	35	104	32237551616	60	45688
2026-01-27 10:21:19.87	339.82	1.57	-49.0	-51.5	6.1	0.00e+00	0	35	104	32237551616	60	45901
2026-01-27 10:21:20.88	339.87	1.50	-48.0	-50.6	6.1	0.00e+00	0	35	104	32237551616	60	41418
2026-01-27 10:21:21.89	339.91	1.43	-48.9	-51.4	6.1	0.00e+00	0	35	104	32237551616	60	45329
2026-01-27 10:21:22.90	339.96	1.37	-49.0	-51.5	6.1	0.00e+00	0	35	104	32237551616	60	46039
2026-01-27 10:21:23.91	340.00	1.30	-49.0	-51.5	6.1	0.00e+00	0	35	104	32237551616	60	46097
2026-01-27 10:21:24.92	340.05	1.24	-49.0	-51.4	6.1	0.00e+00	0	35	104	32237551616	60	45712
2026-01-27 10:21:25.93	340.09	1.17	-49.1	-51.5	6.1	0.00e+00	0	35	104	32237551616	60	46067
2026-01-27 10:21:26.94	340.14	1.11	-49.1	-51.5	6.1	0.00e+00	0	35	104	32237551616	60	46208
2026-01-27 10:21:27.95	340.18	1.04	-49.0	-51.5	6.1	0.00e+00	0	34	104	32237551616	60	46161
2026-01-27 10:21:28.96	340.23	0.98	-49.0	-51.5	6.1	0.00e+00	0	35	104	32237551616	60	45873
2026-01-27 10:21:29.97	340.27	0.91	-49.0	-51.5	6.1	0.00e+00	0	35	104	32237551616	60	46039
2026-01-27 10:21:30.98	340.31	0.85	-49.0	-51.5	6.1	0.00e+00	0	35	104	32237551616	60	46103
2026-01-27 10:21:31.99	340.36	0.78	-49.0	-51.5	6.1	0.00e+00	0	34	104	32237551616	60	46209
2026-01-27 10:21:33.00	340.40	0.72	-49.0	-51.5	6.1	0.00e+00	0	35	104	32237551616	60	46049
2026-01-27 10:21:34.01	340.44	0.65	-49.0	-51.5	6.1	0.00e+00	0	35	104	32237551616	60	46063
2026-01-27 10:21:35.02	340.49	0.59	-49.0	-51.5	6.0	0.00e+00	0	35	104	32237551616	60	45920
2026-01-27 10:21:36.03	340.53	0.53	-49.0	-51.5	6.1	0.00e+00	0	35	104	32237551616	60	45796
2026-01-27 10:21:37.04	340.57	0.46	-49.0	-51.5	6.1	0.00e+00	0	35	104	32237551616	60	45964
2026-01-27 10:21:38.05	340.62	0.40	-49.0	-51.5	6.1	0.00e+00	0	35	104	32237551616	60	46162
2026-01-27 10:21:39.06	340.66	0.34	-49.0	-51.5	6.1	0.00e+00	0	35	104	32237551616	60	46234
2026-01-27 10:21:40.07	340.70	0.27	-49.0	-51.5	6.1	0.00e+00	0	35	104	32237551616	60	46041
2026-01-27 10:21:41.08	340.74	0.21	-49.0	-51.5	6.1	0.00e+00	0	35	104	32237551616	60	45924
2026-01-27 10:21:42.09	340.78	0.15	-49.0	-51.5	6.1	0.00e+00	0	34	104	32237551616	60	46009
2026-01-27 10:21:43.10	340.82	0.09	-49.0	-51.5	6.0	0.00e+00	0	34	104	32237551616	60	45977
2026-01-27 10:21:44.11	340.87	0.02	-49.0	-51.5	6.1	0.00e+00	0	35	104	32237551616	60	46049
2026-01-27 10:21:45.12	340.91	-0.04	-49.0	-51.5	6.1	0.00e+00	0	35	104	32237551616	60	46107

#Closed at: 2026-01-27 10:21:46
#Recorded file [32237 MB]: D:/lorett/data/35029_260127_221048.dat