passes_logs/2025/01/23/planumMaritime01/planumMaritime01__20250123_004106_METEOR-M2_2_rec.log

#Pass ID: 20250123_004106_METEOR-M2 2
#Satellite: METEOR-M2 2
#Configuration: METEOR-M2 2
#Start time: 2025-01-23 00:41:11.729163

#LorettStation: 1.0.0 05.05.2024
#Station: planumMaritime01
#Location: 37.49445 lon 55.92918 lat
#TLE: 1 44387U 19038A   25022.23438579  .00000369  00000+0  17987-3 0  9991
#TLE: 2 44387  98.8577 358.6866 0002200  67.7579 292.3833 14.24122470288565

#Time	Az	El	Level	SNR
2025-01-23 00:41:13.891778	36.7	10.1	-74.4	0.0
2025-01-23 00:41:15.019527	36.8	10.2	-75.1	0.0
2025-01-23 00:41:16.146901	36.9	10.3	-74.8	0.0
2025-01-23 00:41:17.273214	37.1	10.4	-75.1	0.0
2025-01-23 00:41:18.401333	37.2	10.5	-75.2	0.0
2025-01-23 00:41:19.529470	37.3	10.5	-75.3	0.0
2025-01-23 00:41:20.656850	37.5	10.6	-75.5	0.0
2025-01-23 00:41:21.784576	37.6	10.7	-75.3	0.0
2025-01-23 00:41:22.911532	37.8	10.8	-75.5	0.0
2025-01-23 00:41:24.037441	37.9	10.8	-74.6	0.0
2025-01-23 00:41:25.164712	38.0	10.9	-75.3	0.0
2025-01-23 00:41:26.293122	38.2	11.0	-74.9	0.0
2025-01-23 00:41:27.420068	38.3	11.1	-75.5	0.0
2025-01-23 00:41:28.545404	38.4	11.1	-74.9	0.0
2025-01-23 00:41:29.671748	38.6	11.2	-75.5	0.0
2025-01-23 00:41:30.795735	38.7	11.3	-76.0	0.0
2025-01-23 00:41:31.921966	38.9	11.4	-74.2	0.0
2025-01-23 00:41:33.047394	39.0	11.5	-75.5	0.0
2025-01-23 00:41:34.173164	39.1	11.5	-75.7	0.0
2025-01-23 00:41:35.301147	39.3	11.6	-76.1	0.0
2025-01-23 00:41:36.428690	39.4	11.7	-76.5	0.0
2025-01-23 00:41:37.552723	39.6	11.8	-74.5	0.0
2025-01-23 00:41:38.679312	39.7	11.8	-75.4	0.0
2025-01-23 00:41:39.806512	39.9	11.9	-76.1	0.0
2025-01-23 00:41:40.933693	40.0	12.0	-76.0	0.0
2025-01-23 00:41:42.060097	40.2	12.1	-75.4	0.0
2025-01-23 00:41:43.186969	40.3	12.2	-77.0	0.0
2025-01-23 00:41:44.313355	40.5	12.2	-77.2	0.0
2025-01-23 00:41:45.440262	40.6	12.3	-76.3	0.0
2025-01-23 00:41:46.567196	40.8	12.4	-74.3	0.0
2025-01-23 00:41:47.694439	40.9	12.5	-74.9	0.0
2025-01-23 00:41:48.820224	41.1	12.6	-76.6	0.0
2025-01-23 00:41:49.947233	41.2	12.6	-76.1	0.0
2025-01-23 00:41:51.071620	41.4	12.7	-74.8	0.0
2025-01-23 00:41:52.197186	41.5	12.8	-76.2	0.0
2025-01-23 00:41:53.322453	41.7	12.9	-74.1	0.0
2025-01-23 00:41:54.448050	41.9	13.0	-74.4	0.0
2025-01-23 00:41:55.575101	42.0	13.0	-73.9	0.0
2025-01-23 00:41:56.701387	42.2	13.1	-74.4	0.0
2025-01-23 00:41:57.831092	42.3	13.2	-73.9	0.0
2025-01-23 00:41:58.958341	42.5	13.3	-76.0	0.0
2025-01-23 00:42:00.083819	42.7	13.4	-75.0	0.0
2025-01-23 00:42:01.210700	42.8	13.4	-75.6	0.0
2025-01-23 00:42:02.338628	43.0	13.5	-73.2	0.0
2025-01-23 00:42:03.464789	43.1	13.6	-75.4	0.0
2025-01-23 00:42:04.591970	43.3	13.7	-75.5	0.0
2025-01-23 00:42:05.719289	43.5	13.8	-73.6	0.0
2025-01-23 00:42:06.846392	43.6	13.8	-75.3	0.0
2025-01-23 00:42:07.973653	43.8	13.9	-76.1	0.0
2025-01-23 00:42:09.101439	44.0	14.0	-76.0	0.0
2025-01-23 00:42:10.226841	44.1	14.1	-74.2	0.0
2025-01-23 00:42:11.353238	44.3	14.2	-75.6	0.0
2025-01-23 00:42:12.478485	44.5	14.2	-75.9	0.0
2025-01-23 00:42:13.606704	44.7	14.3	-76.6	0.0
2025-01-23 00:42:14.733771	44.8	14.4	-76.1	0.0
2025-01-23 00:42:15.862382	45.0	14.5	-76.6	0.0
2025-01-23 00:42:16.988901	45.2	14.6	-75.8	0.0
2025-01-23 00:42:18.114947	45.4	14.6	-76.0	0.0
2025-01-23 00:42:19.240895	45.5	14.7	-77.1	0.0
2025-01-23 00:42:20.367610	45.7	14.8	-75.8	0.0
2025-01-23 00:42:21.493761	45.9	14.9	-75.7	0.0
2025-01-23 00:42:22.620341	46.1	15.0	-76.3	0.0
2025-01-23 00:42:23.747524	46.2	15.1	-75.3	0.0
2025-01-23 00:42:24.874020	46.4	15.1	-76.4	0.0
2025-01-23 00:42:26.000789	46.6	15.2	-75.3	0.0
2025-01-23 00:42:27.128513	46.8	15.3	-74.9	0.0
2025-01-23 00:42:28.254267	47.0	15.4	-74.7	0.0
2025-01-23 00:42:29.380622	47.2	15.5	-75.0	0.0
2025-01-23 00:42:30.507873	47.3	15.5	-75.4	0.0
2025-01-23 00:42:31.635476	47.5	15.6	-75.0	0.0
2025-01-23 00:42:32.763136	47.7	15.7	-75.3	0.0
2025-01-23 00:42:33.889205	47.9	15.8	-75.5	0.0
2025-01-23 00:42:35.015218	48.1	15.9	-75.5	0.0
2025-01-23 00:42:36.141989	48.3	15.9	-75.8	0.0
2025-01-23 00:42:37.268835	48.5	16.0	-75.6	0.0
2025-01-23 00:42:38.395853	48.7	16.1	-76.2	0.0
2025-01-23 00:42:39.525007	48.9	16.2	-75.4	0.0
2025-01-23 00:42:40.650884	49.1	16.3	-75.9	0.0
2025-01-23 00:42:41.776652	49.3	16.3	-76.1	0.0
2025-01-23 00:42:42.903412	49.5	16.4	-74.8	0.0
2025-01-23 00:42:44.032154	49.7	16.5	-76.0	0.0
2025-01-23 00:42:45.157422	49.9	16.6	-76.9	0.0
2025-01-23 00:42:46.284384	50.1	16.7	-77.0	0.0
2025-01-23 00:42:47.410235	50.3	16.7	-77.0	0.0
2025-01-23 00:42:48.537505	50.5	16.8	-76.8	0.0
2025-01-23 00:42:49.666058	50.7	16.9	-77.0	0.0
2025-01-23 00:42:50.793756	50.9	17.0	-76.2	0.0
2025-01-23 00:42:51.921456	51.1	17.1	-74.9	0.0
2025-01-23 00:42:53.048210	51.3	17.1	-76.1	0.0
2025-01-23 00:42:54.174502	51.5	17.2	-76.4	0.0
2025-01-23 00:42:55.301790	51.7	17.3	-76.3	0.0
2025-01-23 00:42:56.427650	51.9	17.4	-75.8	0.0
2025-01-23 00:42:57.554391	52.1	17.5	-76.2	0.0
2025-01-23 00:42:58.682865	52.3	17.5	-75.8	0.0
2025-01-23 00:42:59.811405	52.5	17.6	-76.0	0.0
2025-01-23 00:43:00.939055	52.8	17.7	-75.4	0.0
2025-01-23 00:43:02.067370	53.0	17.8	-75.6	0.0
2025-01-23 00:43:03.196267	53.2	17.9	-76.0	0.0
2025-01-23 00:43:04.321360	53.4	17.9	-75.8	0.0
2025-01-23 00:43:05.448895	53.6	18.0	-75.7	0.0
2025-01-23 00:43:06.578131	53.9	18.1	-75.5	0.0
2025-01-23 00:43:07.705711	54.1	18.2	-76.5	0.0
2025-01-23 00:43:08.833700	54.3	18.3	-76.4	0.0
2025-01-23 00:43:09.959586	54.5	18.3	-77.1	0.0
2025-01-23 00:43:11.086712	54.7	18.4	-76.2	0.0
2025-01-23 00:43:12.213509	55.0	18.5	-76.3	0.0
2025-01-23 00:43:13.339865	55.2	18.6	-77.6	0.0
2025-01-23 00:43:14.467274	55.4	18.7	-78.0	0.0
2025-01-23 00:43:15.593574	55.7	18.7	-78.0	0.0
2025-01-23 00:43:16.720201	55.9	18.8	-77.2	0.0
2025-01-23 00:43:17.845268	56.1	18.9	-78.6	0.0
2025-01-23 00:43:18.972019	56.3	19.0	-78.7	0.0
2025-01-23 00:43:20.099363	56.6	19.0	-78.7	0.0
2025-01-23 00:43:21.225646	56.8	19.1	-78.3	0.0
2025-01-23 00:43:22.352983	57.1	19.2	-77.3	0.0
2025-01-23 00:43:23.479489	57.3	19.3	-78.4	0.0
2025-01-23 00:43:24.605531	57.5	19.3	-77.3	0.0
2025-01-23 00:43:25.733067	57.8	19.4	-77.5	0.0
2025-01-23 00:43:26.860721	58.0	19.5	-76.1	0.0
2025-01-23 00:43:27.988230	58.3	19.6	-75.8	0.0
2025-01-23 00:43:29.115658	58.5	19.6	-76.0	0.0
2025-01-23 00:43:30.243181	58.7	19.7	-74.6	0.0
2025-01-23 00:43:31.370232	59.0	19.8	-76.1	0.0
2025-01-23 00:43:32.495321	59.2	19.9	-75.7	0.0
2025-01-23 00:43:33.623095	59.5	19.9	-75.9	0.0
2025-01-23 00:43:34.752676	59.7	20.0	-75.8	0.0
2025-01-23 00:43:35.882279	60.0	20.1	-75.2	0.0
2025-01-23 00:43:37.010354	60.2	20.2	-74.6	0.0
2025-01-23 00:43:38.138226	60.5	20.2	-74.0	0.0
2025-01-23 00:43:39.266157	60.7	20.3	-75.2	0.0
2025-01-23 00:43:40.391348	61.0	20.4	-75.1	0.0
2025-01-23 00:43:41.517585	61.2	20.4	-75.2	0.0
2025-01-23 00:43:42.645782	61.5	20.5	-76.2	0.0
2025-01-23 00:43:43.774581	61.8	20.6	-75.6	0.0
2025-01-23 00:43:44.901271	62.0	20.7	-75.0	0.0
2025-01-23 00:43:46.026519	62.3	20.7	-76.0	0.0
2025-01-23 00:43:47.156620	62.5	20.8	-75.7	0.0
2025-01-23 00:43:48.283416	62.8	20.9	-75.8	0.0
2025-01-23 00:43:49.411003	63.1	20.9	-75.7	0.0
2025-01-23 00:43:50.538389	63.3	21.0	-76.4	0.0
2025-01-23 00:43:51.666857	63.6	21.1	-75.8	0.0
2025-01-23 00:43:52.793882	63.9	21.1	-76.1	0.0
2025-01-23 00:43:53.920037	64.1	21.2	-76.3	0.0
2025-01-23 00:43:55.047881	64.4	21.3	-75.8	0.0
2025-01-23 00:43:56.175777	64.7	21.3	-75.6	0.0
2025-01-23 00:43:57.304245	65.0	21.4	-76.5	0.0
2025-01-23 00:43:58.431613	65.2	21.5	-76.7	0.0
2025-01-23 00:43:59.557973	65.5	21.5	-76.0	0.0
2025-01-23 00:44:00.684726	65.8	21.6	-76.4	0.0
2025-01-23 00:44:01.811028	66.1	21.7	-76.4	0.0
2025-01-23 00:44:02.936041	66.3	21.7	-76.4	0.0
2025-01-23 00:44:04.063512	66.6	21.8	-74.9	0.0
2025-01-23 00:44:05.190521	66.9	21.8	-77.1	0.0
2025-01-23 00:44:06.319520	67.2	21.9	-76.9	0.0
2025-01-23 00:44:07.446897	67.5	22.0	-76.9	0.0
2025-01-23 00:44:08.573563	67.7	22.0	-75.8	0.0
2025-01-23 00:44:09.700497	68.0	22.1	-76.0	0.0
2025-01-23 00:44:10.828703	68.3	22.1	-77.1	0.0
2025-01-23 00:44:11.953787	68.6	22.2	-76.3	0.0
2025-01-23 00:44:13.082285	68.9	22.3	-76.4	0.0
2025-01-23 00:44:14.210498	69.2	22.3	-77.5	0.0
2025-01-23 00:44:15.338697	69.5	22.4	-77.4	0.0
2025-01-23 00:44:16.466341	69.8	22.4	-77.7	0.0
2025-01-23 00:44:17.590771	70.0	22.5	-76.7	0.0
2025-01-23 00:44:18.717355	70.3	22.5	-77.5	0.0
2025-01-23 00:44:19.841670	70.6	22.6	-76.9	0.0
2025-01-23 00:44:20.967949	70.9	22.6	-77.8	0.0
2025-01-23 00:44:22.095788	71.2	22.7	-78.0	0.0
2025-01-23 00:44:23.222146	71.5	22.7	-78.4	0.0
2025-01-23 00:44:24.349192	71.8	22.8	-77.9	0.0
2025-01-23 00:44:25.474602	72.1	22.9	-78.5	0.0
2025-01-23 00:44:26.602845	72.4	22.9	-78.4	0.0
2025-01-23 00:44:27.729501	72.7	23.0	-78.7	0.0
2025-01-23 00:44:28.854414	73.0	23.0	-79.1	0.0
2025-01-23 00:44:29.980205	73.3	23.0	-79.2	0.0
2025-01-23 00:44:31.107436	73.6	23.1	-79.6	0.0
2025-01-23 00:44:32.232457	73.9	23.1	-79.2	0.0
2025-01-23 00:44:33.359384	74.2	23.2	-79.5	0.0
2025-01-23 00:44:34.486951	74.5	23.2	-79.0	0.0
2025-01-23 00:44:35.614252	74.9	23.3	-79.2	0.0
2025-01-23 00:44:36.742691	75.2	23.3	-77.7	0.0
2025-01-23 00:44:37.870148	75.5	23.4	-79.5	0.0
2025-01-23 00:44:38.996340	75.8	23.4	-79.5	0.0
2025-01-23 00:44:40.123350	76.1	23.4	-79.7	0.0
2025-01-23 00:44:41.250917	76.4	23.5	-78.8	0.0
2025-01-23 00:44:42.378307	76.7	23.5	-78.6	0.0
2025-01-23 00:44:43.505787	77.0	23.6	-79.1	0.0
2025-01-23 00:44:44.632470	77.3	23.6	-79.3	0.0
2025-01-23 00:44:45.759128	77.7	23.6	-79.5	0.0
2025-01-23 00:44:46.887558	78.0	23.7	-79.6	0.0
2025-01-23 00:44:48.013407	78.3	23.7	-79.5	0.0
2025-01-23 00:44:49.140345	78.6	23.7	-79.2	0.0
2025-01-23 00:44:50.266976	78.9	23.8	-79.0	0.0
2025-01-23 00:44:51.393114	79.2	23.8	-79.1	0.0
2025-01-23 00:44:52.519951	79.6	23.8	-78.7	0.0
2025-01-23 00:44:53.647992	79.9	23.9	-79.4	0.0
2025-01-23 00:44:54.773887	80.2	23.9	-79.4	0.0
2025-01-23 00:44:55.899427	80.5	23.9	-79.3	0.0
2025-01-23 00:44:57.024772	80.8	24.0	-77.7	0.0
2025-01-23 00:44:58.152116	81.2	24.0	-78.9	0.0
2025-01-23 00:44:59.278708	81.5	24.0	-79.1	0.0
2025-01-23 00:45:00.405530	81.8	24.0	-79.2	0.0
2025-01-23 00:45:01.532666	82.1	24.1	-78.8	0.0
2025-01-23 00:45:02.659559	82.5	24.1	-79.9	0.0
2025-01-23 00:45:03.784991	82.8	24.1	-79.5	0.0
2025-01-23 00:45:04.912032	83.1	24.1	-79.7	0.0
2025-01-23 00:45:06.038247	83.4	24.2	-79.4	0.0
2025-01-23 00:45:07.163540	83.8	24.2	-79.7	0.0
2025-01-23 00:45:08.289239	84.1	24.2	-79.0	0.0
2025-01-23 00:45:09.415698	84.4	24.2	-79.4	0.0
2025-01-23 00:45:10.542812	84.7	24.2	-79.6	0.0
2025-01-23 00:45:11.670228	85.1	24.3	-79.5	0.0
2025-01-23 00:45:12.798351	85.4	24.3	-79.3	0.0
2025-01-23 00:45:13.927572	85.7	24.3	-79.5	0.0
2025-01-23 00:45:15.051601	86.0	24.3	-79.6	0.0
2025-01-23 00:45:16.178762	86.4	24.3	-78.0	0.0
2025-01-23 00:45:17.306271	86.7	24.3	-79.5	0.0
2025-01-23 00:45:18.434998	87.0	24.3	-79.1	0.0
2025-01-23 00:45:19.561108	87.4	24.3	-79.5	0.0
2025-01-23 00:45:20.688578	87.7	24.4	-79.3	0.0
2025-01-23 00:45:21.816021	88.0	24.4	-78.6	0.0
2025-01-23 00:45:22.942190	88.3	24.4	-78.8	0.0
2025-01-23 00:45:24.067574	88.7	24.4	-76.8	0.0
2025-01-23 00:45:25.194397	89.0	24.4	-78.4	0.0
2025-01-23 00:45:26.321580	89.3	24.4	-78.2	0.0
2025-01-23 00:45:27.449177	89.7	24.4	-78.1	0.0
2025-01-23 00:45:28.575851	90.0	24.4	-78.1	0.0
2025-01-23 00:45:29.702440	90.3	24.4	-78.0	0.0
2025-01-23 00:45:30.827831	90.7	24.4	-77.8	0.0
2025-01-23 00:45:31.953122	91.0	24.4	-77.2	0.0
2025-01-23 00:45:33.079412	91.3	24.4	-77.5	0.0
2025-01-23 00:45:34.206121	91.7	24.4	-77.3	0.0
2025-01-23 00:45:35.331668	92.0	24.4	-76.3	0.0
2025-01-23 00:45:36.456680	92.3	24.4	-76.8	0.0
2025-01-23 00:45:37.584262	92.6	24.4	-77.7	0.0
2025-01-23 00:45:38.714062	93.0	24.4	-77.9	0.0
2025-01-23 00:45:39.842006	93.3	24.4	-77.9	0.0
2025-01-23 00:45:40.967354	93.6	24.3	-78.4	0.0
2025-01-23 00:45:42.094732	94.0	24.3	-78.6	0.0
2025-01-23 00:45:43.221808	94.3	24.3	-78.8	0.0
2025-01-23 00:45:44.348059	94.6	24.3	-78.0	0.0
2025-01-23 00:45:45.474427	94.9	24.3	-78.7	0.0
2025-01-23 00:45:46.602556	95.3	24.3	-78.3	0.0
2025-01-23 00:45:47.729918	95.6	24.3	-78.6	0.0
2025-01-23 00:45:48.857805	95.9	24.3	-78.8	0.0
2025-01-23 00:45:49.985552	96.3	24.2	-78.0	0.0
2025-01-23 00:45:51.113391	96.6	24.2	-78.3	0.0
2025-01-23 00:45:52.238935	96.9	24.2	-77.9	0.0
2025-01-23 00:45:53.366001	97.2	24.2	-78.2	0.0
2025-01-23 00:45:54.493077	97.6	24.2	-77.5	0.0
2025-01-23 00:45:55.620334	97.9	24.2	-78.2	0.0
2025-01-23 00:45:56.745443	98.2	24.1	-77.8	0.0
2025-01-23 00:45:57.871718	98.5	24.1	-78.2	0.0
2025-01-23 00:45:58.997567	98.9	24.1	-78.7	0.0
2025-01-23 00:46:00.125763	99.2	24.1	-77.9	0.0
2025-01-23 00:46:01.251354	99.5	24.0	-78.8	0.0
2025-01-23 00:46:02.379538	99.8	24.0	-78.6	0.0
2025-01-23 00:46:03.507832	100.2	24.0	-78.1	0.0
2025-01-23 00:46:04.633964	100.5	23.9	-78.5	0.0
2025-01-23 00:46:05.758912	100.8	23.9	-79.1	0.0
2025-01-23 00:46:06.884937	101.1	23.9	-79.3	0.0
2025-01-23 00:46:08.010698	101.4	23.9	-78.9	0.0
2025-01-23 00:46:09.137949	101.8	23.8	-79.3	0.0
2025-01-23 00:46:10.265457	102.1	23.8	-79.4	0.0
2025-01-23 00:46:11.390802	102.4	23.8	-79.7	0.0
2025-01-23 00:46:12.517242	102.7	23.7	-79.7	0.0
2025-01-23 00:46:13.643349	103.0	23.7	-79.9	0.0
2025-01-23 00:46:14.769879	103.4	23.7	-79.4	0.0
2025-01-23 00:46:15.895816	103.7	23.6	-79.5	0.0
2025-01-23 00:46:17.021891	104.0	23.6	-79.8	0.0
2025-01-23 00:46:18.148202	104.3	23.5	-80.1	0.0
2025-01-23 00:46:19.273368	104.6	23.5	-79.8	0.0
2025-01-23 00:46:20.399418	104.9	23.5	-79.8	0.0
2025-01-23 00:46:21.527103	105.2	23.4	-80.1	0.0
2025-01-23 00:46:22.653421	105.5	23.4	-79.8	0.0
2025-01-23 00:46:23.779361	105.9	23.3	-79.3	0.0
2025-01-23 00:46:24.905893	106.2	23.3	-79.2	0.0
2025-01-23 00:46:26.031932	106.5	23.2	-79.5	0.0
2025-01-23 00:46:27.160850	106.8	23.2	-78.3	0.0
2025-01-23 00:46:28.286703	107.1	23.2	-79.3	0.0
2025-01-23 00:46:29.414566	107.4	23.1	-79.7	0.0
2025-01-23 00:46:30.540795	107.7	23.1	-78.0	0.0
2025-01-23 00:46:31.668632	108.0	23.0	-78.1	0.0
2025-01-23 00:46:32.794586	108.3	23.0	-78.8	0.0
2025-01-23 00:46:33.919960	108.6	22.9	-78.4	0.0
2025-01-23 00:46:35.046315	108.9	22.9	-78.0	0.0
2025-01-23 00:46:36.171863	109.2	22.8	-79.5	0.0
2025-01-23 00:46:37.297564	109.5	22.8	-79.3	0.0
2025-01-23 00:46:38.423008	109.8	22.7	-79.5	0.0
2025-01-23 00:46:39.547974	110.1	22.7	-79.3	0.0
2025-01-23 00:46:40.673020	110.4	22.6	-77.7	0.0
2025-01-23 00:46:41.798394	110.7	22.6	-79.3	0.0
2025-01-23 00:46:42.927062	111.0	22.5	-79.3	0.0
2025-01-23 00:46:44.053144	111.3	22.4	-79.2	0.0
2025-01-23 00:46:45.179594	111.6	22.4	-79.1	0.0
2025-01-23 00:46:46.309229	111.9	22.3	-79.0	0.0
2025-01-23 00:46:47.436862	112.2	22.3	-79.4	0.0
2025-01-23 00:46:48.563385	112.4	22.2	-79.2	0.0
2025-01-23 00:46:49.689380	112.7	22.2	-79.4	0.0
2025-01-23 00:46:50.818066	113.0	22.1	-79.2	0.0
2025-01-23 00:46:51.944423	113.3	22.0	-78.3	0.0
2025-01-23 00:46:53.070449	113.6	22.0	-79.8	0.0
2025-01-23 00:46:54.196596	113.9	21.9	-79.8	0.0
2025-01-23 00:46:55.324462	114.2	21.9	-79.9	0.0
2025-01-23 00:46:56.454069	114.4	21.8	-79.9	0.0
2025-01-23 00:46:57.581455	114.7	21.7	-79.7	0.0
2025-01-23 00:46:58.710052	115.0	21.7	-79.5	0.0
2025-01-23 00:46:59.835085	115.3	21.6	-79.2	0.0
2025-01-23 00:47:00.963058	115.6	21.5	-78.5	0.0
2025-01-23 00:47:02.088403	115.8	21.5	-79.7	0.0
2025-01-23 00:47:03.214247	116.1	21.4	-79.6	0.0
2025-01-23 00:47:04.341761	116.4	21.3	-79.5	0.0
2025-01-23 00:47:05.467754	116.7	21.3	-79.1	0.0
2025-01-23 00:47:06.593670	116.9	21.2	-80.0	0.0
2025-01-23 00:47:07.722203	117.2	21.1	-80.2	0.0
2025-01-23 00:47:08.849322	117.5	21.1	-79.6	0.0
2025-01-23 00:47:09.977101	117.7	21.0	-80.1	0.0
2025-01-23 00:47:11.105066	118.0	20.9	-79.9	0.0
2025-01-23 00:47:12.233111	118.3	20.9	-79.8	0.0
2025-01-23 00:47:13.362012	118.5	20.8	-79.8	0.0
2025-01-23 00:47:14.488323	118.8	20.7	-79.3	0.0
2025-01-23 00:47:15.614070	119.1	20.7	-79.7	0.0
2025-01-23 00:47:16.741516	119.3	20.6	-79.7	0.0
2025-01-23 00:47:17.868558	119.6	20.5	-80.2	0.0
2025-01-23 00:47:18.997004	119.8	20.4	-80.0	0.0
2025-01-23 00:47:20.123939	120.1	20.4	-79.9	0.0
2025-01-23 00:47:21.250441	120.3	20.3	-79.8	0.0
2025-01-23 00:47:22.377134	120.6	20.2	-80.3	0.0
2025-01-23 00:47:23.503688	120.9	20.2	-79.7	0.0
2025-01-23 00:47:24.633892	121.1	20.1	-79.1	0.0
2025-01-23 00:47:25.760923	121.4	20.0	-78.8	0.0
2025-01-23 00:47:26.887614	121.6	19.9	-80.0	0.0
2025-01-23 00:47:28.016266	121.9	19.9	-80.3	0.0
2025-01-23 00:47:29.143678	122.1	19.8	-80.0	0.0
2025-01-23 00:47:30.270704	122.4	19.7	-80.3	0.0
2025-01-23 00:47:31.398702	122.6	19.6	-79.9	0.0
2025-01-23 00:47:32.525271	122.8	19.6	-80.0	0.0
2025-01-23 00:47:33.652606	123.1	19.5	-80.5	0.0
2025-01-23 00:47:34.777742	123.3	19.4	-79.8	0.0
2025-01-23 00:47:35.907048	123.6	19.3	-80.4	0.0
2025-01-23 00:47:37.034089	123.8	19.3	-80.4	0.0
2025-01-23 00:47:38.161498	124.1	19.2	-80.4	0.0
2025-01-23 00:47:39.289374	124.3	19.1	-79.9	0.0
2025-01-23 00:47:40.416314	124.5	19.0	-80.4	0.0
2025-01-23 00:47:41.542533	124.8	19.0	-80.7	0.0
2025-01-23 00:47:42.668829	125.0	18.9	-80.1	0.0
2025-01-23 00:47:43.793537	125.2	18.8	-80.7	0.0
2025-01-23 00:47:44.921777	125.5	18.7	-79.8	0.0
2025-01-23 00:47:46.048180	125.7	18.6	-80.0	0.0
2025-01-23 00:47:47.175706	125.9	18.6	-80.2	0.0
2025-01-23 00:47:48.304799	126.1	18.5	-79.4	0.0
2025-01-23 00:47:49.432442	126.4	18.4	-79.4	0.0
2025-01-23 00:47:50.557993	126.6	18.3	-80.4	0.0
2025-01-23 00:47:51.683198	126.8	18.3	-80.3	0.0
2025-01-23 00:47:52.809777	127.0	18.2	-80.4	0.0
2025-01-23 00:47:53.936954	127.3	18.1	-80.2	0.0
2025-01-23 00:47:55.066519	127.5	18.0	-80.4	0.0
2025-01-23 00:47:56.193211	127.7	17.9	-79.9	0.0
2025-01-23 00:47:57.320150	127.9	17.9	-80.1	0.0
2025-01-23 00:47:58.446318	128.2	17.8	-79.7	0.0
2025-01-23 00:47:59.572991	128.4	17.7	-79.6	0.0
2025-01-23 00:48:00.698851	128.6	17.6	-79.6	0.0
2025-01-23 00:48:01.826971	128.8	17.5	-80.1	0.0
2025-01-23 00:48:02.954410	129.0	17.5	-79.9	0.0
2025-01-23 00:48:04.080019	129.2	17.4	-79.3	0.0
2025-01-23 00:48:05.207001	129.4	17.3	-79.3	0.0
2025-01-23 00:48:06.334325	129.6	17.2	-80.1	0.0
2025-01-23 00:48:07.460857	129.9	17.1	-80.3	0.0
2025-01-23 00:48:08.590221	130.1	17.1	-80.2	0.0
2025-01-23 00:48:09.717510	130.3	17.0	-80.3	0.0
2025-01-23 00:48:10.845375	130.5	16.9	-80.2	0.0
2025-01-23 00:48:11.973665	130.7	16.8	-80.1	0.0
2025-01-23 00:48:13.101525	130.9	16.7	-79.6	0.0
2025-01-23 00:48:14.230072	131.1	16.6	-79.7	0.0
2025-01-23 00:48:15.358044	131.3	16.6	-80.1	0.0
2025-01-23 00:48:16.486031	131.5	16.5	-80.3	0.0
2025-01-23 00:48:17.612671	131.7	16.4	-80.2	0.0
2025-01-23 00:48:18.741415	131.9	16.3	-80.3	0.0
2025-01-23 00:48:19.869120	132.1	16.2	-79.7	0.0
2025-01-23 00:48:20.998007	132.3	16.2	-80.0	0.0
2025-01-23 00:48:22.124745	132.5	16.1	-80.2	0.0
2025-01-23 00:48:23.251952	132.7	16.0	-80.1	0.0
2025-01-23 00:48:24.379174	132.9	15.9	-79.9	0.0
2025-01-23 00:48:25.504756	133.1	15.8	-79.8	0.0
2025-01-23 00:48:26.635204	133.2	15.8	-80.0	0.0
2025-01-23 00:48:27.760794	133.4	15.7	-80.3	0.0
2025-01-23 00:48:28.888270	133.6	15.6	-79.9	0.0
2025-01-23 00:48:30.014263	133.8	15.5	-79.5	0.0
2025-01-23 00:48:31.142715	134.0	15.4	-80.1	0.0
2025-01-23 00:48:32.269650	134.2	15.3	-80.1	0.0
2025-01-23 00:48:33.395098	134.4	15.3	-80.0	0.0
2025-01-23 00:48:34.523468	134.6	15.2	-79.7	0.0
2025-01-23 00:48:35.648595	134.7	15.1	-80.2	0.0
2025-01-23 00:48:36.774894	134.9	15.0	-80.1	0.0
2025-01-23 00:48:37.902488	135.1	14.9	-80.2	0.0
2025-01-23 00:48:39.028845	135.3	14.9	-80.2	0.0
2025-01-23 00:48:40.157329	135.5	14.8	-80.3	0.0
2025-01-23 00:48:41.282919	135.6	14.7	-80.2	0.0
2025-01-23 00:48:42.410432	135.8	14.6	-79.9	0.0
2025-01-23 00:48:43.538981	136.0	14.5	-80.2	0.0
2025-01-23 00:48:44.666231	136.2	14.4	-78.7	0.0
2025-01-23 00:48:45.791980	136.3	14.4	-78.9	0.0
2025-01-23 00:48:46.918586	136.5	14.3	-79.1	0.0
2025-01-23 00:48:48.045184	136.7	14.2	-79.1	0.0
2025-01-23 00:48:49.171631	136.9	14.1	-79.6	0.0
2025-01-23 00:48:50.297968	137.0	14.0	-79.2	0.0
2025-01-23 00:48:51.425300	137.2	14.0	-79.1	0.0
2025-01-23 00:48:52.550471	137.4	13.9	-79.1	0.0
2025-01-23 00:48:53.676992	137.5	13.8	-79.1	0.0
2025-01-23 00:48:54.802606	137.7	13.7	-79.3	0.0
2025-01-23 00:48:55.930660	137.9	13.6	-79.0	0.0
2025-01-23 00:48:57.056707	138.0	13.6	-79.3	0.0
2025-01-23 00:48:58.182442	138.2	13.5	-79.2	0.0
2025-01-23 00:48:59.309921	138.4	13.4	-79.1	0.0
2025-01-23 00:49:00.434070	138.5	13.3	-79.1	0.0
2025-01-23 00:49:01.560472	138.7	13.2	-79.7	0.0
2025-01-23 00:49:02.687640	138.8	13.1	-79.4	0.0
2025-01-23 00:49:03.813583	139.0	13.1	-79.5	0.0
2025-01-23 00:49:04.940339	139.2	13.0	-79.1	0.0
2025-01-23 00:49:06.066531	139.3	12.9	-79.0	0.0
2025-01-23 00:49:07.191461	139.5	12.8	-79.5	0.0
2025-01-23 00:49:08.318347	139.6	12.7	-79.2	0.0
2025-01-23 00:49:09.444533	139.8	12.7	-79.1	0.0
2025-01-23 00:49:10.570997	140.0	12.6	-79.2	0.0
2025-01-23 00:49:11.700699	140.1	12.5	-79.4	0.0
2025-01-23 00:49:12.826905	140.3	12.4	-79.7	0.0
2025-01-23 00:49:13.953633	140.4	12.3	-79.5	0.0
2025-01-23 00:49:15.080383	140.6	12.3	-79.8	0.0
2025-01-23 00:49:16.206475	140.7	12.2	-80.0	0.0
2025-01-23 00:49:17.334536	140.9	12.1	-80.0	0.0
2025-01-23 00:49:18.461580	141.0	12.0	-80.1	0.0
2025-01-23 00:49:19.587520	141.2	11.9	-79.7	0.0
2025-01-23 00:49:20.715249	141.3	11.9	-79.9	0.0
2025-01-23 00:49:21.842328	141.5	11.8	-78.7	0.0
2025-01-23 00:49:22.970376	141.6	11.7	-78.7	0.0
2025-01-23 00:49:24.097324	141.7	11.6	-78.9	0.0
2025-01-23 00:49:25.225725	141.9	11.5	-78.8	0.0
2025-01-23 00:49:26.354132	142.0	11.5	-78.5	0.0
2025-01-23 00:49:27.482127	142.2	11.4	-79.1	0.0
2025-01-23 00:49:28.609895	142.3	11.3	-78.6	0.0
2025-01-23 00:49:29.736357	142.5	11.2	-78.2	0.0
2025-01-23 00:49:30.862357	142.6	11.2	-79.4	0.0
2025-01-23 00:49:31.987910	142.7	11.1	-79.8	0.0
2025-01-23 00:49:33.117381	142.9	11.0	-80.3	0.0
2025-01-23 00:49:34.243128	143.0	10.9	-80.6	0.0
2025-01-23 00:49:35.371070	143.2	10.8	-80.6	0.0
2025-01-23 00:49:36.497488	143.3	10.8	-80.2	0.0
2025-01-23 00:49:37.623743	143.4	10.7	-77.9	0.0
2025-01-23 00:49:38.751696	143.6	10.6	-79.1	0.0
2025-01-23 00:49:39.878936	143.7	10.5	-80.3	0.0
2025-01-23 00:49:41.006425	143.8	10.5	-81.4	0.0
2025-01-23 00:49:42.133825	144.0	10.4	-81.6	0.0
2025-01-23 00:49:43.261529	144.1	10.3	-81.8	0.0
2025-01-23 00:49:44.388506	144.2	10.2	-81.9	0.0
2025-01-23 00:49:45.514634	144.4	10.1	-81.9	0.0
2025-01-23 00:49:46.641280	144.5	10.1	-81.8	0.0
#Closed at: 2025-01-23 00:41:06.731992