passes_logs/2025/01/23/planumMaritime01/planumMaritime01__20250123_181904_METEOR-M2_3_rec.log

#Pass ID: 20250123_181904_METEOR-M2 3
#Satellite: METEOR-M2 3
#Configuration: METEOR-M2 3
#Start time: 2025-01-23 18:19:09.014425

#LorettStation: 1.0.0 05.05.2024
#Station: planumMaritime01
#Location: 37.49445 lon 55.92918 lat
#TLE: 1 57166U 23091A   25022.21022386  .00000083  00000+0  55255-4 0  9991
#TLE: 2 57166  98.6839  80.5850 0003565 200.3362 159.7676 14.23971113 81799

#Time	Az	El	Level	SNR
2025-01-23 18:19:11.179274	180.1	10.2	-75.6	0.0
2025-01-23 18:19:12.300850	180.1	10.3	-76.3	0.0
2025-01-23 18:19:13.422318	180.2	10.4	-75.5	0.0
2025-01-23 18:19:14.548283	180.2	10.5	-75.1	0.0
2025-01-23 18:19:15.669338	180.3	10.6	-75.5	0.0
2025-01-23 18:19:16.796253	180.3	10.7	-76.5	0.0
2025-01-23 18:19:17.919833	180.4	10.8	-76.2	0.0
2025-01-23 18:19:19.043058	180.4	10.9	-77.0	0.0
2025-01-23 18:19:20.166128	180.5	11.0	-76.2	0.0
2025-01-23 18:19:21.287695	180.6	11.1	-76.8	0.0
2025-01-23 18:19:22.409478	180.6	11.2	-76.4	0.0
2025-01-23 18:19:23.531455	180.7	11.3	-75.0	0.0
2025-01-23 18:19:24.653183	180.7	11.4	-75.4	0.0
2025-01-23 18:19:25.779011	180.8	11.5	-74.8	0.0
2025-01-23 18:19:26.901508	180.8	11.6	-75.5	0.0
2025-01-23 18:19:28.027456	180.9	11.7	-75.2	0.0
2025-01-23 18:19:29.151072	180.9	11.8	-75.9	0.0
2025-01-23 18:19:30.272332	181.0	11.9	-74.6	0.0
2025-01-23 18:19:31.394722	181.0	12.0	-75.7	0.0
2025-01-23 18:19:32.516722	181.1	12.1	-75.7	0.0
2025-01-23 18:19:33.639804	181.2	12.2	-75.3	0.0
2025-01-23 18:19:34.761554	181.2	12.3	-75.5	0.0
2025-01-23 18:19:35.884670	181.3	12.4	-75.4	0.0
2025-01-23 18:19:37.006641	181.3	12.5	-75.8	0.0
2025-01-23 18:19:38.128365	181.4	12.6	-74.9	0.0
2025-01-23 18:19:39.250885	181.4	12.7	-75.1	0.0
2025-01-23 18:19:40.373953	181.5	12.8	-75.6	0.0
2025-01-23 18:19:41.494397	181.6	12.9	-75.7	0.0
2025-01-23 18:19:42.618176	181.6	13.0	-75.8	0.0
2025-01-23 18:19:43.738253	181.7	13.1	-76.2	0.0
2025-01-23 18:19:44.861578	181.7	13.3	-76.0	0.0
2025-01-23 18:19:45.983368	181.8	13.4	-75.1	0.0
2025-01-23 18:19:47.102930	181.9	13.5	-76.2	0.0
2025-01-23 18:19:48.227922	181.9	13.6	-75.6	0.0
2025-01-23 18:19:49.350686	182.0	13.7	-75.9	0.0
2025-01-23 18:19:50.472869	182.1	13.8	-75.5	0.0
2025-01-23 18:19:51.596326	182.1	13.9	-75.4	0.0
2025-01-23 18:19:52.721928	182.2	14.0	-75.6	0.0
2025-01-23 18:19:53.843187	182.2	14.1	-75.4	0.0
2025-01-23 18:19:54.965918	182.3	14.3	-76.1	0.0
2025-01-23 18:19:56.088730	182.4	14.4	-75.4	0.0
2025-01-23 18:19:57.211406	182.4	14.5	-76.4	0.0
2025-01-23 18:19:58.334123	182.5	14.6	-75.5	0.0
2025-01-23 18:19:59.457183	182.6	14.7	-75.8	0.0
2025-01-23 18:20:00.578734	182.6	14.8	-76.3	0.0
2025-01-23 18:20:01.701489	182.7	14.9	-75.5	0.0
2025-01-23 18:20:02.825154	182.8	15.1	-76.4	0.0
2025-01-23 18:20:03.946008	182.8	15.2	-76.2	0.0
2025-01-23 18:20:05.069389	182.9	15.3	-76.7	0.0
2025-01-23 18:20:06.192103	183.0	15.4	-75.8	0.0
2025-01-23 18:20:07.317212	183.1	15.5	-75.7	0.0
2025-01-23 18:20:08.439607	183.1	15.7	-75.8	0.0
2025-01-23 18:20:09.563826	183.2	15.8	-75.5	0.0
2025-01-23 18:20:10.687668	183.3	15.9	-74.9	0.0
2025-01-23 18:20:11.811348	183.3	16.0	-75.7	0.0
2025-01-23 18:20:12.934546	183.4	16.1	-76.1	0.0
2025-01-23 18:20:14.056814	183.5	16.3	-75.1	0.0
2025-01-23 18:20:15.180011	183.6	16.4	-76.1	0.0
2025-01-23 18:20:16.304121	183.6	16.5	-76.3	0.0
2025-01-23 18:20:17.426262	183.7	16.6	-75.8	0.0
2025-01-23 18:20:18.549785	183.8	16.8	-75.4	0.0
2025-01-23 18:20:19.674851	183.9	16.9	-76.1	0.0
2025-01-23 18:20:20.798914	183.9	17.0	-75.2	0.0
2025-01-23 18:20:21.921095	184.0	17.1	-75.7	0.0
2025-01-23 18:20:23.046329	184.1	17.3	-75.1	0.0
2025-01-23 18:20:24.171636	184.2	17.4	-75.7	0.0
2025-01-23 18:20:25.292231	184.3	17.5	-76.1	0.0
2025-01-23 18:20:26.416280	184.3	17.6	-75.5	0.0
2025-01-23 18:20:27.539120	184.4	17.8	-76.2	0.0
2025-01-23 18:20:28.662128	184.5	17.9	-76.4	0.0
2025-01-23 18:20:29.784763	184.6	18.0	-75.7	0.0
2025-01-23 18:20:30.910906	184.7	18.2	-76.2	0.0
2025-01-23 18:20:32.033013	184.7	18.3	-76.0	0.0
2025-01-23 18:20:33.156952	184.8	18.4	-76.1	0.0
2025-01-23 18:20:34.277802	184.9	18.6	-75.2	0.0
2025-01-23 18:20:35.402463	185.0	18.7	-75.6	0.0
2025-01-23 18:20:36.524066	185.1	18.8	-75.7	0.0
2025-01-23 18:20:37.648863	185.2	19.0	-76.6	0.0
2025-01-23 18:20:38.769838	185.3	19.1	-75.6	0.0
2025-01-23 18:20:39.892243	185.4	19.2	-75.6	0.0
2025-01-23 18:20:41.014726	185.4	19.4	-76.1	0.0
2025-01-23 18:20:42.139315	185.5	19.5	-76.2	0.0
2025-01-23 18:20:43.262546	185.6	19.6	-76.7	0.0
2025-01-23 18:20:44.387083	185.7	19.8	-76.0	0.0
2025-01-23 18:20:45.509136	185.8	19.9	-75.9	0.0
2025-01-23 18:20:46.630841	185.9	20.1	-75.3	0.0
2025-01-23 18:20:47.753192	186.0	20.2	-75.8	0.0
2025-01-23 18:20:48.876483	186.1	20.4	-75.3	0.0
2025-01-23 18:20:50.001145	186.2	20.5	-74.9	0.0
2025-01-23 18:20:51.121655	186.3	20.6	-76.0	0.0
2025-01-23 18:20:52.245247	186.4	20.8	-75.4	0.0
2025-01-23 18:20:53.367984	186.5	20.9	-75.7	0.0
2025-01-23 18:20:54.489790	186.6	21.1	-75.2	0.0
2025-01-23 18:20:55.612604	186.7	21.2	-75.3	0.0
2025-01-23 18:20:56.735946	186.8	21.4	-75.2	0.0
2025-01-23 18:20:57.859156	186.9	21.5	-75.0	0.0
2025-01-23 18:20:58.982382	187.0	21.7	-75.6	0.0
2025-01-23 18:21:00.106574	187.1	21.8	-74.8	0.0
2025-01-23 18:21:01.228939	187.2	22.0	-75.8	0.0
2025-01-23 18:21:02.350604	187.3	22.1	-75.3	0.0
2025-01-23 18:21:03.476144	187.4	22.3	-76.5	0.0
2025-01-23 18:21:04.599321	187.5	22.4	-74.9	0.0
2025-01-23 18:21:05.721586	187.6	22.6	-77.1	0.0
2025-01-23 18:21:06.844564	187.7	22.7	-75.5	0.0
2025-01-23 18:21:07.967406	187.8	22.9	-75.6	0.0
2025-01-23 18:21:09.089834	188.0	23.1	-75.5	0.0
2025-01-23 18:21:10.211716	188.1	23.2	-75.1	0.0
2025-01-23 18:21:11.334197	188.2	23.4	-77.1	0.0
2025-01-23 18:21:12.458117	188.3	23.5	-75.9	0.0
2025-01-23 18:21:13.581153	188.4	23.7	-76.6	0.0
2025-01-23 18:21:14.705132	188.5	23.8	-75.8	0.0
2025-01-23 18:21:15.826046	188.7	24.0	-76.2	0.0
2025-01-23 18:21:16.951361	188.8	24.2	-76.7	0.0
2025-01-23 18:21:18.075085	188.9	24.3	-76.8	0.0
2025-01-23 18:21:19.197246	189.0	24.5	-76.9	0.0
2025-01-23 18:21:20.323080	189.2	24.7	-76.5	0.0
2025-01-23 18:21:21.445229	189.3	24.8	-76.3	0.0
2025-01-23 18:21:22.567499	189.4	25.0	-76.6	0.0
2025-01-23 18:21:23.690625	189.5	25.2	-77.0	0.0
2025-01-23 18:21:24.814608	189.7	25.3	-77.5	0.0
2025-01-23 18:21:25.936131	189.8	25.5	-75.0	0.0
2025-01-23 18:21:27.058862	189.9	25.7	-77.1	0.0
2025-01-23 18:21:28.180408	190.1	25.9	-77.5	0.0
2025-01-23 18:21:29.301819	190.2	26.0	-77.6	0.0
2025-01-23 18:21:30.425627	190.3	26.2	-76.8	0.0
2025-01-23 18:21:31.547982	190.5	26.4	-77.2	0.0
2025-01-23 18:21:32.670519	190.6	26.6	-76.4	0.0
2025-01-23 18:21:33.793881	190.7	26.7	-76.1	0.0
2025-01-23 18:21:34.917213	190.9	26.9	-77.7	0.0
2025-01-23 18:21:36.040226	191.0	27.1	-77.1	0.0
2025-01-23 18:21:37.163829	191.2	27.3	-77.6	0.0
2025-01-23 18:21:38.287768	191.3	27.4	-76.9	0.0
2025-01-23 18:21:39.409712	191.5	27.6	-77.6	0.0
2025-01-23 18:21:40.533411	191.6	27.8	-77.0	0.0
2025-01-23 18:21:41.655707	191.8	28.0	-77.2	0.0
2025-01-23 18:21:42.779016	191.9	28.2	-77.1	0.0
2025-01-23 18:21:43.902648	192.1	28.4	-76.5	0.0
2025-01-23 18:21:45.024174	192.2	28.6	-76.5	0.0
2025-01-23 18:21:46.148254	192.4	28.7	-76.5	0.0
2025-01-23 18:21:47.273971	192.6	28.9	-77.0	0.0
2025-01-23 18:21:48.397232	192.7	29.1	-77.1	0.0
2025-01-23 18:21:49.519852	192.9	29.3	-77.5	0.0
2025-01-23 18:21:50.643537	193.1	29.5	-77.0	0.0
2025-01-23 18:21:51.765144	193.2	29.7	-77.4	0.0
2025-01-23 18:21:52.887702	193.4	29.9	-77.3	0.0
2025-01-23 18:21:54.010842	193.6	30.1	-76.1	0.0
2025-01-23 18:21:55.135410	193.7	30.3	-77.4	0.0
2025-01-23 18:21:56.257157	193.9	30.5	-77.2	0.0
2025-01-23 18:21:57.380549	194.1	30.7	-76.8	0.0
2025-01-23 18:21:58.503602	194.3	30.9	-76.8	0.0
2025-01-23 18:21:59.625569	194.5	31.1	-77.4	0.0
2025-01-23 18:22:00.747548	194.7	31.3	-77.4	0.0
2025-01-23 18:22:01.872327	194.8	31.5	-77.6	0.0
2025-01-23 18:22:02.994431	195.0	31.7	-76.9	0.0
2025-01-23 18:22:04.119298	195.2	31.9	-77.4	0.0
2025-01-23 18:22:05.242042	195.4	32.1	-77.3	0.0
2025-01-23 18:22:06.366386	195.6	32.3	-76.7	0.0
2025-01-23 18:22:07.489215	195.8	32.5	-77.3	0.0
2025-01-23 18:22:08.613914	196.0	32.7	-77.4	0.0
2025-01-23 18:22:09.736006	196.2	32.9	-77.1	0.0
2025-01-23 18:22:10.858262	196.4	33.2	-76.7	0.0
2025-01-23 18:22:11.980712	196.6	33.4	-77.1	0.0
2025-01-23 18:22:13.103969	196.9	33.6	-77.5	0.0
2025-01-23 18:22:14.226953	197.1	33.8	-75.9	0.0
2025-01-23 18:22:15.349071	197.3	34.0	-76.0	0.0
2025-01-23 18:22:16.472623	197.5	34.2	-77.4	0.0
2025-01-23 18:22:17.598749	197.7	34.5	-77.0	0.0
2025-01-23 18:22:18.721556	198.0	34.7	-76.4	0.0
2025-01-23 18:22:19.845761	198.2	34.9	-77.5	0.0
2025-01-23 18:22:20.969562	198.4	35.1	-76.4	0.0
2025-01-23 18:22:22.092453	198.7	35.3	-75.9	0.0
2025-01-23 18:22:23.215417	198.9	35.6	-77.4	0.0
2025-01-23 18:22:24.336719	199.2	35.8	-77.2	0.0
2025-01-23 18:22:25.458478	199.4	36.0	-77.0	0.0
2025-01-23 18:22:26.580488	199.6	36.2	-76.6	0.0
2025-01-23 18:22:27.704096	199.9	36.5	-77.1	0.0
2025-01-23 18:22:28.826013	200.2	36.7	-77.8	0.0
2025-01-23 18:22:29.948803	200.4	36.9	-77.7	0.0
2025-01-23 18:22:31.071108	200.7	37.2	-76.6	0.0
2025-01-23 18:22:32.194007	201.0	37.4	-76.6	0.0
2025-01-23 18:22:33.316723	201.2	37.6	-77.0	0.0
2025-01-23 18:22:34.436691	201.5	37.9	-76.7	0.0
2025-01-23 18:22:35.559069	201.8	38.1	-77.0	0.0
2025-01-23 18:22:36.682160	202.1	38.3	-78.4	0.0
2025-01-23 18:22:37.807123	202.4	38.6	-78.0	0.0
2025-01-23 18:22:38.930497	202.6	38.8	-77.1	0.0
2025-01-23 18:22:40.052628	202.9	39.0	-77.4	0.0
2025-01-23 18:22:41.176288	203.2	39.3	-78.2	0.0
2025-01-23 18:22:42.299232	203.5	39.5	-78.2	0.0
2025-01-23 18:22:43.423180	203.9	39.8	-78.0	0.0
2025-01-23 18:22:44.543507	204.2	40.0	-77.5	0.0
2025-01-23 18:22:45.665596	204.5	40.2	-77.8	0.0
2025-01-23 18:22:46.786609	204.8	40.5	-77.7	0.0
2025-01-23 18:22:47.910805	205.1	40.7	-78.0	0.0
2025-01-23 18:22:49.035873	205.5	41.0	-77.7	0.0
2025-01-23 18:22:50.159228	205.8	41.2	-76.4	0.0
2025-01-23 18:22:51.282173	206.1	41.5	-77.9	0.0
2025-01-23 18:22:52.404398	206.5	41.7	-78.0	0.0
2025-01-23 18:22:53.526563	206.8	41.9	-77.5	0.0
2025-01-23 18:22:54.649750	207.2	42.2	-76.4	0.0
2025-01-23 18:22:55.772685	207.6	42.4	-77.3	0.0
2025-01-23 18:22:56.896387	207.9	42.7	-77.3	0.0
2025-01-23 18:22:58.021138	208.3	42.9	-77.7	0.0
2025-01-23 18:22:59.143577	208.7	43.2	-77.7	0.0
2025-01-23 18:23:00.266055	209.1	43.4	-77.5	0.0
2025-01-23 18:23:01.389081	209.5	43.7	-77.0	0.0
2025-01-23 18:23:02.512766	209.9	43.9	-77.1	0.0
2025-01-23 18:23:03.636165	210.3	44.2	-76.3	0.0
2025-01-23 18:23:04.759233	210.7	44.4	-76.2	0.0
2025-01-23 18:23:05.885622	211.1	44.7	-76.7	0.0
2025-01-23 18:23:07.012317	211.5	44.9	-77.2	0.0
2025-01-23 18:23:08.134013	212.0	45.2	-77.5	0.0
2025-01-23 18:23:09.259525	212.4	45.4	-77.5	0.0
2025-01-23 18:23:10.383507	212.9	45.7	-76.3	0.0
2025-01-23 18:23:11.507221	213.3	45.9	-76.3	0.0
2025-01-23 18:23:12.630957	213.8	46.2	-76.8	0.0
2025-01-23 18:23:13.753384	214.2	46.4	-76.9	0.0
2025-01-23 18:23:14.877518	214.7	46.7	-76.8	0.0
2025-01-23 18:23:16.000328	215.2	46.9	-78.2	0.0
2025-01-23 18:23:17.123383	215.7	47.1	-77.9	0.0
2025-01-23 18:23:18.245482	216.2	47.4	-76.8	0.0
2025-01-23 18:23:19.370051	216.7	47.6	-77.7	0.0
2025-01-23 18:23:20.494202	217.2	47.9	-77.5	0.0
2025-01-23 18:23:21.615913	217.7	48.1	-78.3	0.0
2025-01-23 18:23:22.741442	218.2	48.4	-77.6	0.0
2025-01-23 18:23:23.865300	218.8	48.6	-77.9	0.0
2025-01-23 18:23:24.987780	219.3	48.8	-77.7	0.0
2025-01-23 18:23:26.111771	219.9	49.1	-77.4	0.0
2025-01-23 18:23:27.234507	220.4	49.3	-77.8	0.0
2025-01-23 18:23:28.357771	221.0	49.5	-78.3	0.0
2025-01-23 18:23:29.482953	221.6	49.8	-78.0	0.0
2025-01-23 18:23:30.605428	222.1	50.0	-77.6	0.0
2025-01-23 18:23:31.728266	222.7	50.2	-77.8	0.0
2025-01-23 18:23:32.850748	223.3	50.4	-77.9	0.0
2025-01-23 18:23:33.975037	224.0	50.7	-77.3	0.0
2025-01-23 18:23:35.096573	224.6	50.9	-77.5	0.0
2025-01-23 18:23:36.221091	225.2	51.1	-77.9	0.0
2025-01-23 18:23:37.344185	225.9	51.3	-77.9	0.0
2025-01-23 18:23:38.466402	226.5	51.5	-77.3	0.0
2025-01-23 18:23:39.590453	227.2	51.7	-77.5	0.0
2025-01-23 18:23:40.712668	227.8	51.9	-77.6	0.0
2025-01-23 18:23:41.834104	228.5	52.1	-77.2	0.0
2025-01-23 18:23:42.955179	229.2	52.3	-77.8	0.0
2025-01-23 18:23:44.078530	229.9	52.5	-78.2	0.0
2025-01-23 18:23:45.201555	230.6	52.7	-78.3	0.0
2025-01-23 18:23:46.323984	231.3	52.9	-77.6	0.0
2025-01-23 18:23:47.448304	232.0	53.1	-78.1	0.0
2025-01-23 18:23:48.572239	232.7	53.3	-77.4	0.0
2025-01-23 18:23:49.694523	233.5	53.4	-77.9	0.0
2025-01-23 18:23:50.816259	234.2	53.6	-76.9	0.0
2025-01-23 18:23:51.939004	235.0	53.8	-77.4	0.0
2025-01-23 18:23:53.061533	235.7	54.0	-77.6	0.0
2025-01-23 18:23:54.183233	236.5	54.1	-77.5	0.0
2025-01-23 18:23:55.305960	237.3	54.3	-77.1	0.0
2025-01-23 18:23:56.431142	238.1	54.4	-76.8	0.0
2025-01-23 18:23:57.552669	238.9	54.6	-77.9	0.0
2025-01-23 18:23:58.674576	239.7	54.7	-76.6	0.0
2025-01-23 18:23:59.796143	240.5	54.8	-77.9	0.0
2025-01-23 18:24:00.920041	241.3	55.0	-78.0	0.0
2025-01-23 18:24:02.042347	242.2	55.1	-77.2	0.0
2025-01-23 18:24:03.168057	243.0	55.2	-78.2	0.0
2025-01-23 18:24:04.289091	243.8	55.3	-78.0	0.0
2025-01-23 18:24:05.412751	244.7	55.4	-78.1	0.0
2025-01-23 18:24:06.535518	245.5	55.5	-76.5	0.0
2025-01-23 18:24:07.656710	246.4	55.6	-78.1	0.0
2025-01-23 18:24:08.778452	247.3	55.7	-77.7	0.0
2025-01-23 18:24:09.900283	248.1	55.8	-77.9	0.0
2025-01-23 18:24:11.023822	249.0	55.9	-77.6	0.0
2025-01-23 18:24:12.145842	249.9	55.9	-78.1	0.0
2025-01-23 18:24:13.270656	250.8	56.0	-77.7	0.0
2025-01-23 18:24:14.393524	251.7	56.0	-78.0	0.0
2025-01-23 18:24:15.515526	252.6	56.1	-77.4	0.0
2025-01-23 18:24:16.638918	253.5	56.1	-77.7	0.0
2025-01-23 18:24:17.762177	254.3	56.2	-77.3	0.0
2025-01-23 18:24:18.886182	255.2	56.2	-77.5	0.0
2025-01-23 18:24:20.010381	256.2	56.2	-78.1	0.0
2025-01-23 18:24:21.132990	257.1	56.2	-76.9	0.0
2025-01-23 18:24:22.256785	258.0	56.2	-77.8	0.0
2025-01-23 18:24:23.379163	258.9	56.2	-77.9	0.0
2025-01-23 18:24:24.499756	259.8	56.2	-76.3	0.0
2025-01-23 18:24:25.622574	260.7	56.2	-77.4	0.0
2025-01-23 18:24:26.746010	261.6	56.2	-76.5	0.0
2025-01-23 18:24:27.867881	262.5	56.2	-77.2	0.0
2025-01-23 18:24:28.990251	263.4	56.2	-77.8	0.0
2025-01-23 18:24:30.114017	264.3	56.1	-77.6	0.0
2025-01-23 18:24:31.236976	265.2	56.1	-77.6	0.0
2025-01-23 18:24:32.359010	266.0	56.0	-77.3	0.0
2025-01-23 18:24:33.481695	266.9	56.0	-77.2	0.0
2025-01-23 18:24:34.603555	267.8	55.9	-77.0	0.0
2025-01-23 18:24:35.726463	268.7	55.8	-77.3	0.0
2025-01-23 18:24:36.847581	269.6	55.7	-78.2	0.0
2025-01-23 18:24:37.967704	270.4	55.7	-77.5	0.0
2025-01-23 18:24:39.089666	271.3	55.6	-77.7	0.0
2025-01-23 18:24:40.213835	272.1	55.5	-77.3	0.0
2025-01-23 18:24:41.336005	273.0	55.4	-78.1	0.0
2025-01-23 18:24:42.458182	273.8	55.3	-78.0	0.0
2025-01-23 18:24:43.582749	274.7	55.2	-77.9	0.0
2025-01-23 18:24:44.703319	275.5	55.0	-77.4	0.0
2025-01-23 18:24:45.825606	276.3	54.9	-76.9	0.0
2025-01-23 18:24:46.948402	277.2	54.8	-77.4	0.0
2025-01-23 18:24:48.072291	278.0	54.6	-77.3	0.0
2025-01-23 18:24:49.193793	278.8	54.5	-77.7	0.0
2025-01-23 18:24:50.315371	279.6	54.4	-77.2	0.0
2025-01-23 18:24:51.440007	280.3	54.2	-77.3	0.0
2025-01-23 18:24:52.564944	281.1	54.0	-77.6	0.0
2025-01-23 18:24:53.687643	281.9	53.9	-77.3	0.0
2025-01-23 18:24:54.810319	282.7	53.7	-77.3	0.0
2025-01-23 18:24:55.931498	283.4	53.6	-77.4	0.0
2025-01-23 18:24:57.055410	284.1	53.4	-77.1	0.0
2025-01-23 18:24:58.179260	284.9	53.2	-77.4	0.0
2025-01-23 18:24:59.302197	285.6	53.0	-76.8	0.0
2025-01-23 18:25:00.425005	286.3	52.8	-77.1	0.0
2025-01-23 18:25:01.548540	287.0	52.6	-77.3	0.0
2025-01-23 18:25:02.672910	287.7	52.5	-77.6	0.0
2025-01-23 18:25:03.797251	288.4	52.3	-77.7	0.0
2025-01-23 18:25:04.921807	289.1	52.1	-77.1	0.0
2025-01-23 18:25:06.043748	289.8	51.9	-77.0	0.0
2025-01-23 18:25:07.165363	290.4	51.6	-77.5	0.0
2025-01-23 18:25:08.287261	291.1	51.4	-76.7	0.0
2025-01-23 18:25:09.410869	291.7	51.2	-76.5	0.0
2025-01-23 18:25:10.533967	292.4	51.0	-77.6	0.0
2025-01-23 18:25:11.658972	293.0	50.8	-76.5	0.0
2025-01-23 18:25:12.783464	293.6	50.6	-76.6	0.0
2025-01-23 18:25:13.909336	294.2	50.4	-77.2	0.0
2025-01-23 18:25:15.030252	294.8	50.1	-77.0	0.0
2025-01-23 18:25:16.151822	295.4	49.9	-76.8	0.0
2025-01-23 18:25:17.274140	296.0	49.7	-77.3	0.0
2025-01-23 18:25:18.400406	296.5	49.4	-76.5	0.0
2025-01-23 18:25:19.522914	297.1	49.2	-76.4	0.0
2025-01-23 18:25:20.647218	297.7	49.0	-76.5	0.0
2025-01-23 18:25:21.769296	298.2	48.7	-76.2	0.0
2025-01-23 18:25:22.890390	298.8	48.5	-76.2	0.0
2025-01-23 18:25:24.013351	299.3	48.3	-76.4	0.0
2025-01-23 18:25:25.137181	299.8	48.0	-76.8	0.0
2025-01-23 18:25:26.259201	300.3	47.8	-76.9	0.0
2025-01-23 18:25:27.382775	300.8	47.6	-76.2	0.0
2025-01-23 18:25:28.507798	301.3	47.3	-76.0	0.0
2025-01-23 18:25:29.630851	301.8	47.1	-76.4	0.0
2025-01-23 18:25:30.752371	302.3	46.8	-76.9	0.0
2025-01-23 18:25:31.873370	302.8	46.6	-76.5	0.0
2025-01-23 18:25:32.997186	303.2	46.3	-76.1	0.0
2025-01-23 18:25:34.121107	303.7	46.1	-76.5	0.0
2025-01-23 18:25:35.244271	304.2	45.8	-76.6	0.0
2025-01-23 18:25:36.368081	304.6	45.6	-76.1	0.0
2025-01-23 18:25:37.491054	305.1	45.4	-76.5	0.0
2025-01-23 18:25:38.613491	305.5	45.1	-76.1	0.0
2025-01-23 18:25:39.735118	305.9	44.9	-76.8	0.0
2025-01-23 18:25:40.856110	306.3	44.6	-77.3	0.0
2025-01-23 18:25:41.977610	306.7	44.4	-75.9	0.0
2025-01-23 18:25:43.099501	307.2	44.1	-76.7	0.0
2025-01-23 18:25:44.222202	307.6	43.9	-76.1	0.0
2025-01-23 18:25:45.344905	308.0	43.6	-77.3	0.0
2025-01-23 18:25:46.467118	308.3	43.4	-76.6	0.0
2025-01-23 18:25:47.588575	308.7	43.1	-76.3	0.0
2025-01-23 18:25:48.710849	309.1	42.9	-76.2	0.0
2025-01-23 18:25:49.834004	309.5	42.6	-76.1	0.0
2025-01-23 18:25:50.957109	309.8	42.4	-75.7	0.0
2025-01-23 18:25:52.081612	310.2	42.1	-76.2	0.0
2025-01-23 18:25:53.203424	310.6	41.9	-76.5	0.0
2025-01-23 18:25:54.325916	310.9	41.7	-76.7	0.0
2025-01-23 18:25:55.448943	311.3	41.4	-76.9	0.0
2025-01-23 18:25:56.572249	311.6	41.2	-77.0	0.0
2025-01-23 18:25:57.693835	311.9	40.9	-77.0	0.0
2025-01-23 18:25:58.818284	312.3	40.7	-76.7	0.0
2025-01-23 18:25:59.940693	312.6	40.4	-76.4	0.0
2025-01-23 18:26:01.062565	312.9	40.2	-76.5	0.0
2025-01-23 18:26:02.184468	313.2	40.0	-77.5	0.0
2025-01-23 18:26:03.307750	313.5	39.7	-77.4	0.0
2025-01-23 18:26:04.431163	313.8	39.5	-76.4	0.0
2025-01-23 18:26:05.552914	314.1	39.2	-77.7	0.0
2025-01-23 18:26:06.676902	314.4	39.0	-76.2	0.0
2025-01-23 18:26:07.799242	314.7	38.8	-78.1	0.0
2025-01-23 18:26:08.921964	315.0	38.5	-77.3	0.0
2025-01-23 18:26:10.043947	315.3	38.3	-77.2	0.0
2025-01-23 18:26:11.166682	315.6	38.1	-77.4	0.0
2025-01-23 18:26:12.288804	315.9	37.8	-77.5	0.0
2025-01-23 18:26:13.410909	316.2	37.6	-78.0	0.0
2025-01-23 18:26:14.533077	316.4	37.4	-77.6	0.0
2025-01-23 18:26:15.653516	316.7	37.1	-77.5	0.0
2025-01-23 18:26:16.777600	316.9	36.9	-78.0	0.0
2025-01-23 18:26:17.896593	317.2	36.7	-76.9	0.0
2025-01-23 18:26:19.019011	317.5	36.5	-76.6	0.0
2025-01-23 18:26:20.142273	317.7	36.2	-76.6	0.0
2025-01-23 18:26:21.264935	318.0	36.0	-77.4	0.0
2025-01-23 18:26:22.387048	318.2	35.8	-77.6	0.0
2025-01-23 18:26:23.510703	318.5	35.6	-78.1	0.0
2025-01-23 18:26:24.631820	318.7	35.3	-76.6	0.0
2025-01-23 18:26:25.755672	318.9	35.1	-77.2	0.0
2025-01-23 18:26:26.879243	319.2	34.9	-77.8	0.0
2025-01-23 18:26:28.002529	319.4	34.7	-77.4	0.0
2025-01-23 18:26:29.125099	319.6	34.5	-77.4	0.0
2025-01-23 18:26:30.248157	319.8	34.2	-78.1	0.0
2025-01-23 18:26:31.370216	320.1	34.0	-78.1	0.0
2025-01-23 18:26:32.490719	320.3	33.8	-77.6	0.0
2025-01-23 18:26:33.614569	320.5	33.6	-77.5	0.0
2025-01-23 18:26:34.738132	320.7	33.4	-76.7	0.0
2025-01-23 18:26:35.860928	320.9	33.2	-77.8	0.0
2025-01-23 18:26:36.982742	321.1	33.0	-78.0	0.0
2025-01-23 18:26:38.105720	321.3	32.7	-78.0	0.0
2025-01-23 18:26:39.226361	321.5	32.5	-78.2	0.0
2025-01-23 18:26:40.349713	321.7	32.3	-78.1	0.0
2025-01-23 18:26:41.472398	321.9	32.1	-77.7	0.0
2025-01-23 18:26:42.596148	322.1	31.9	-77.6	0.0
2025-01-23 18:26:43.719585	322.3	31.7	-78.3	0.0
2025-01-23 18:26:44.841330	322.5	31.5	-78.4	0.0
2025-01-23 18:26:45.964709	322.7	31.3	-78.5	0.0
2025-01-23 18:26:47.087469	322.9	31.1	-78.4	0.0
2025-01-23 18:26:48.210525	323.1	30.9	-78.6	0.0
2025-01-23 18:26:49.332408	323.2	30.7	-78.5	0.0
2025-01-23 18:26:50.456186	323.4	30.5	-78.3	0.0
2025-01-23 18:26:51.578681	323.6	30.3	-78.2	0.0
2025-01-23 18:26:52.701466	323.8	30.1	-78.8	0.0
2025-01-23 18:26:53.823626	323.9	29.9	-78.0	0.0
2025-01-23 18:26:54.945441	324.1	29.7	-78.2	0.0
2025-01-23 18:26:56.067460	324.3	29.5	-78.5	0.0
2025-01-23 18:26:57.188836	324.4	29.4	-77.7	0.0
2025-01-23 18:26:58.312329	324.6	29.2	-78.0	0.0
2025-01-23 18:26:59.436671	324.8	29.0	-78.1	0.0
2025-01-23 18:27:00.558406	324.9	28.8	-78.5	0.0
2025-01-23 18:27:01.681133	325.1	28.6	-78.2	0.0
2025-01-23 18:27:02.805028	325.2	28.4	-77.7	0.0
2025-01-23 18:27:03.928736	325.4	28.2	-78.3	0.0
2025-01-23 18:27:05.052942	325.6	28.0	-78.1	0.0
2025-01-23 18:27:06.176262	325.7	27.9	-78.0	0.0
2025-01-23 18:27:07.295829	325.9	27.7	-77.8	0.0
2025-01-23 18:27:08.417346	326.0	27.5	-77.9	0.0
2025-01-23 18:27:09.540079	326.1	27.3	-77.7	0.0
2025-01-23 18:27:10.665512	326.3	27.1	-78.0	0.0
2025-01-23 18:27:11.787917	326.4	27.0	-78.0	0.0
2025-01-23 18:27:12.908712	326.6	26.8	-77.9	0.0
2025-01-23 18:27:14.030575	326.7	26.6	-78.3	0.0
2025-01-23 18:27:15.155171	326.9	26.4	-78.2	0.0
2025-01-23 18:27:16.277667	327.0	26.3	-77.4	0.0
2025-01-23 18:27:17.398626	327.1	26.1	-78.5	0.0
2025-01-23 18:27:18.520512	327.3	25.9	-77.8	0.0
2025-01-23 18:27:19.645633	327.4	25.7	-78.0	0.0
2025-01-23 18:27:20.767066	327.5	25.6	-78.4	0.0
2025-01-23 18:27:21.890096	327.7	25.4	-78.2	0.0
2025-01-23 18:27:23.012934	327.8	25.2	-78.5	0.0
2025-01-23 18:27:24.133971	327.9	25.1	-77.8	0.0
2025-01-23 18:27:25.256543	328.1	24.9	-78.4	0.0
2025-01-23 18:27:26.380263	328.2	24.7	-78.2	0.0
2025-01-23 18:27:27.504971	328.3	24.6	-78.4	0.0
2025-01-23 18:27:28.625507	328.4	24.4	-77.9	0.0
2025-01-23 18:27:29.747055	328.5	24.2	-78.3	0.0
2025-01-23 18:27:30.870001	328.7	24.1	-78.4	0.0
2025-01-23 18:27:31.993533	328.8	23.9	-78.4	0.0
2025-01-23 18:27:33.117046	328.9	23.8	-78.3	0.0
2025-01-23 18:27:34.239806	329.0	23.6	-78.4	0.0
2025-01-23 18:27:35.362271	329.1	23.4	-78.1	0.0
2025-01-23 18:27:36.485252	329.3	23.3	-78.5	0.0
2025-01-23 18:27:37.606163	329.4	23.1	-78.2	0.0
2025-01-23 18:27:38.729522	329.5	23.0	-77.5	0.0
2025-01-23 18:27:39.852211	329.6	22.8	-77.6	0.0
2025-01-23 18:27:40.975152	329.7	22.7	-78.1	0.0
2025-01-23 18:27:42.096656	329.8	22.5	-77.6	0.0
2025-01-23 18:27:43.219528	329.9	22.4	-76.6	0.0
2025-01-23 18:27:44.342039	330.0	22.2	-77.5	0.0
2025-01-23 18:27:45.465096	330.1	22.1	-77.4	0.0
2025-01-23 18:27:46.587320	330.2	21.9	-76.5	0.0
2025-01-23 18:27:47.707679	330.3	21.8	-77.8	0.0
2025-01-23 18:27:48.829997	330.4	21.6	-77.5	0.0
2025-01-23 18:27:49.952835	330.5	21.5	-77.2	0.0
2025-01-23 18:27:51.074813	330.6	21.3	-77.7	0.0
2025-01-23 18:27:52.196036	330.7	21.2	-77.6	0.0
2025-01-23 18:27:53.320708	330.8	21.0	-77.5	0.0
2025-01-23 18:27:54.443403	330.9	20.9	-77.8	0.0
2025-01-23 18:27:55.568256	331.0	20.7	-77.6	0.0
2025-01-23 18:27:56.691197	331.1	20.6	-76.5	0.0
2025-01-23 18:27:57.812649	331.2	20.5	-77.5	0.0
2025-01-23 18:27:58.933719	331.3	20.3	-77.4	0.0
2025-01-23 18:28:00.055183	331.4	20.2	-77.6	0.0
2025-01-23 18:28:01.176337	331.5	20.0	-77.4	0.0
2025-01-23 18:28:02.297822	331.6	19.9	-77.4	0.0
2025-01-23 18:28:03.419673	331.7	19.8	-77.5	0.0
2025-01-23 18:28:04.542679	331.8	19.6	-76.1	0.0
2025-01-23 18:28:05.664458	331.9	19.5	-76.7	0.0
2025-01-23 18:28:06.787817	332.0	19.3	-76.7	0.0
2025-01-23 18:28:07.910980	332.1	19.2	-76.6	0.0
2025-01-23 18:28:09.033901	332.2	19.1	-77.6	0.0
2025-01-23 18:28:10.157654	332.2	18.9	-76.5	0.0
2025-01-23 18:28:11.280994	332.3	18.8	-76.9	0.0
2025-01-23 18:28:12.405019	332.4	18.7	-77.7	0.0
2025-01-23 18:28:13.528040	332.5	18.5	-77.2	0.0
2025-01-23 18:28:14.650614	332.6	18.4	-77.0	0.0
2025-01-23 18:28:15.775218	332.7	18.3	-77.4	0.0
2025-01-23 18:28:16.896930	332.8	18.1	-75.8	0.0
2025-01-23 18:28:18.019502	332.8	18.0	-76.6	0.0
2025-01-23 18:28:19.141602	332.9	17.9	-78.2	0.0
2025-01-23 18:28:20.262660	333.0	17.8	-78.0	0.0
2025-01-23 18:28:21.385466	333.1	17.6	-77.5	0.0
2025-01-23 18:28:22.508251	333.2	17.5	-77.5	0.0
2025-01-23 18:28:23.634128	333.2	17.4	-77.2	0.0
2025-01-23 18:28:24.754496	333.3	17.2	-77.2	0.0
2025-01-23 18:28:25.878426	333.4	17.1	-78.0	0.0
2025-01-23 18:28:26.999141	333.5	17.0	-77.1	0.0
2025-01-23 18:28:28.124440	333.6	16.9	-77.1	0.0
2025-01-23 18:28:29.247389	333.6	16.7	-77.4	0.0
2025-01-23 18:28:30.371371	333.7	16.6	-77.6	0.0
2025-01-23 18:28:31.493602	333.8	16.5	-77.9	0.0
2025-01-23 18:28:32.617711	333.9	16.4	-77.9	0.0
2025-01-23 18:28:33.741124	333.9	16.3	-77.7	0.0
2025-01-23 18:28:34.864172	334.0	16.1	-76.9	0.0
2025-01-23 18:28:35.988319	334.1	16.0	-77.6	0.0
2025-01-23 18:28:37.109694	334.1	15.9	-77.5	0.0
2025-01-23 18:28:38.235419	334.2	15.8	-76.8	0.0
2025-01-23 18:28:39.360051	334.3	15.7	-77.2	0.0
2025-01-23 18:28:40.484491	334.4	15.5	-77.1	0.0
2025-01-23 18:28:41.608503	334.4	15.4	-77.2	0.0
2025-01-23 18:28:42.728058	334.5	15.3	-77.5	0.0
2025-01-23 18:28:43.850514	334.6	15.2	-78.0	0.0
2025-01-23 18:28:44.973675	334.6	15.1	-77.6	0.0
2025-01-23 18:28:46.096660	334.7	15.0	-78.1	0.0
2025-01-23 18:28:47.217423	334.8	14.8	-77.5	0.0
2025-01-23 18:28:48.339754	334.8	14.7	-77.3	0.0
2025-01-23 18:28:49.461238	334.9	14.6	-77.5	0.0
2025-01-23 18:28:50.583256	335.0	14.5	-77.0	0.0
2025-01-23 18:28:51.705113	335.0	14.4	-77.1	0.0
2025-01-23 18:28:52.828890	335.1	14.3	-77.5	0.0
2025-01-23 18:28:53.952751	335.2	14.2	-77.5	0.0
2025-01-23 18:28:55.076469	335.2	14.1	-77.4	0.0
2025-01-23 18:28:56.198445	335.3	13.9	-77.2	0.0
2025-01-23 18:28:57.319852	335.4	13.8	-77.2	0.0
2025-01-23 18:28:58.443120	335.4	13.7	-77.9	0.0
2025-01-23 18:28:59.566409	335.5	13.6	-77.1	0.0
2025-01-23 18:29:00.689660	335.6	13.5	-78.3	0.0
2025-01-23 18:29:01.813244	335.6	13.4	-78.0	0.0
2025-01-23 18:29:02.937019	335.7	13.3	-78.1	0.0
2025-01-23 18:29:04.060526	335.7	13.2	-78.5	0.0
2025-01-23 18:29:05.183987	335.8	13.1	-77.8	0.0
2025-01-23 18:29:06.306880	335.9	13.0	-77.7	0.0
2025-01-23 18:29:07.430058	335.9	12.9	-78.0	0.0
2025-01-23 18:29:08.554485	336.0	12.8	-78.7	0.0
2025-01-23 18:29:09.678645	336.0	12.6	-78.3	0.0
2025-01-23 18:29:10.802416	336.1	12.5	-77.7	0.0
2025-01-23 18:29:11.925548	336.2	12.4	-77.4	0.0
2025-01-23 18:29:13.048589	336.2	12.3	-77.6	0.0
2025-01-23 18:29:14.172166	336.3	12.2	-77.4	0.0
2025-01-23 18:29:15.295744	336.3	12.1	-77.9	0.0
2025-01-23 18:29:16.418271	336.4	12.0	-78.0	0.0
2025-01-23 18:29:17.541037	336.4	11.9	-77.8	0.0
2025-01-23 18:29:18.664093	336.5	11.8	-78.5	0.0
2025-01-23 18:29:19.788631	336.6	11.7	-77.5	0.0
2025-01-23 18:29:20.911766	336.6	11.6	-76.9	0.0
2025-01-23 18:29:22.034273	336.7	11.5	-77.4	0.0
2025-01-23 18:29:23.156403	336.7	11.4	-77.6	0.0
2025-01-23 18:29:24.279340	336.8	11.3	-76.9	0.0
2025-01-23 18:29:25.400836	336.8	11.2	-77.1	0.0
2025-01-23 18:29:26.524664	336.9	11.1	-77.8	0.0
2025-01-23 18:29:27.647461	336.9	11.0	-77.2	0.0
2025-01-23 18:29:28.769548	337.0	10.9	-77.2	0.0
2025-01-23 18:29:29.891222	337.0	10.8	-77.8	0.0
2025-01-23 18:29:31.012531	337.1	10.7	-77.5	0.0
2025-01-23 18:29:32.135188	337.1	10.6	-77.5	0.0
2025-01-23 18:29:33.257152	337.2	10.5	-77.1	0.0
2025-01-23 18:29:34.379999	337.2	10.4	-75.7	0.0
2025-01-23 18:29:35.503170	337.3	10.3	-76.5	0.0
2025-01-23 18:29:36.626279	337.3	10.2	-77.7	0.0
2025-01-23 18:29:37.750272	337.4	10.1	-78.0	0.0
2025-01-23 18:29:38.875022	337.4	10.1	-76.4	0.0
#Closed at: 2025-01-23 18:19:04.023394