passes_logs/2025/01/23/planumMaritime01/planumMaritime01__20250123_185751_NOAA_19_rec.log

#Pass ID: 20250123_185751_NOAA 19
#Satellite: NOAA 19
#Configuration: NOAA 19
#Start time: 2025-01-23 18:57:56.222640

#LorettStation: 1.0.0 05.05.2024
#Station: planumMaritime01
#Location: 37.49445 lon 55.92918 lat
#TLE: 1 33591U 09005A   25022.22545190  .00000382  00000+0  22773-3 0  9990
#TLE: 2 33591  99.0184  86.0433 0014227  38.0135 322.2038 14.13265658822568

#Time	Az	El	Level	SNR
2025-01-23 18:57:58.377737	190.9	10.2	-75.5	0.0
2025-01-23 18:57:59.499312	191.0	10.3	-75.6	0.0
2025-01-23 18:58:00.621822	191.0	10.4	-75.5	0.0
2025-01-23 18:58:01.743483	191.1	10.4	-76.1	0.0
2025-01-23 18:58:02.866346	191.2	10.5	-76.0	0.0
2025-01-23 18:58:03.990495	191.3	10.6	-75.4	0.0
2025-01-23 18:58:05.115195	191.4	10.7	-75.5	0.0
2025-01-23 18:58:06.239254	191.4	10.8	-75.3	0.0
2025-01-23 18:58:07.361899	191.5	10.9	-75.2	0.0
2025-01-23 18:58:08.483812	191.6	11.0	-75.9	0.0
2025-01-23 18:58:09.606177	191.7	11.1	-75.6	0.0
2025-01-23 18:58:10.727432	191.7	11.2	-75.2	0.0
2025-01-23 18:58:11.849217	191.8	11.3	-74.9	0.0
2025-01-23 18:58:12.972325	191.9	11.4	-75.7	0.0
2025-01-23 18:58:14.094924	192.0	11.5	-76.1	0.0
2025-01-23 18:58:15.218366	192.1	11.6	-76.0	0.0
2025-01-23 18:58:16.343222	192.2	11.7	-76.1	0.0
2025-01-23 18:58:17.464160	192.2	11.8	-76.1	0.0
2025-01-23 18:58:18.586129	192.3	11.9	-76.4	0.0
2025-01-23 18:58:19.711342	192.4	12.0	-75.7	0.0
2025-01-23 18:58:20.833431	192.5	12.1	-76.1	0.0
2025-01-23 18:58:21.955176	192.6	12.2	-76.5	0.0
2025-01-23 18:58:23.080029	192.7	12.3	-76.4	0.0
2025-01-23 18:58:24.203687	192.8	12.4	-76.9	0.0
2025-01-23 18:58:25.327188	192.8	12.5	-75.9	0.0
2025-01-23 18:58:26.448774	192.9	12.6	-76.5	0.0
2025-01-23 18:58:27.571645	193.0	12.7	-76.7	0.0
2025-01-23 18:58:28.691679	193.1	12.8	-76.7	0.0
2025-01-23 18:58:29.814078	193.2	12.9	-76.7	0.0
2025-01-23 18:58:30.938162	193.3	13.0	-76.6	0.0
2025-01-23 18:58:32.060999	193.4	13.1	-76.1	0.0
2025-01-23 18:58:33.181453	193.5	13.2	-76.4	0.0
2025-01-23 18:58:34.304635	193.6	13.3	-76.0	0.0
2025-01-23 18:58:35.426223	193.7	13.4	-76.2	0.0
2025-01-23 18:58:36.549014	193.7	13.5	-76.5	0.0
2025-01-23 18:58:37.670913	193.8	13.6	-76.5	0.0
2025-01-23 18:58:38.793242	193.9	13.7	-76.6	0.0
2025-01-23 18:58:39.918029	194.0	13.8	-76.9	0.0
2025-01-23 18:58:41.040003	194.1	13.9	-76.5	0.0
2025-01-23 18:58:42.162025	194.2	14.0	-76.4	0.0
2025-01-23 18:58:43.284922	194.3	14.1	-76.5	0.0
2025-01-23 18:58:44.407162	194.4	14.2	-76.3	0.0
2025-01-23 18:58:45.528679	194.5	14.3	-75.7	0.0
2025-01-23 18:58:46.652519	194.6	14.4	-75.7	0.0
2025-01-23 18:58:47.773314	194.7	14.5	-75.8	0.0
2025-01-23 18:58:48.896763	194.8	14.6	-75.7	0.0
2025-01-23 18:58:50.018663	194.9	14.7	-75.6	0.0
2025-01-23 18:58:51.142984	195.0	14.8	-76.3	0.0
2025-01-23 18:58:52.266925	195.1	14.9	-75.9	0.0
2025-01-23 18:58:53.391722	195.2	15.0	-76.7	0.0
2025-01-23 18:58:54.514906	195.3	15.1	-76.2	0.0
2025-01-23 18:58:55.638162	195.4	15.3	-76.4	0.0
2025-01-23 18:58:56.760744	195.5	15.4	-75.9	0.0
2025-01-23 18:58:57.884028	195.6	15.5	-76.7	0.0
2025-01-23 18:58:59.007779	195.7	15.6	-76.7	0.0
2025-01-23 18:59:00.130169	195.9	15.7	-76.8	0.0
2025-01-23 18:59:01.250781	196.0	15.8	-76.9	0.0
2025-01-23 18:59:02.373868	196.1	15.9	-76.9	0.0
2025-01-23 18:59:03.496989	196.2	16.0	-76.4	0.0
2025-01-23 18:59:04.618205	196.3	16.1	-77.0	0.0
2025-01-23 18:59:05.740304	196.4	16.3	-76.1	0.0
2025-01-23 18:59:06.862828	196.5	16.4	-76.8	0.0
2025-01-23 18:59:07.985507	196.6	16.5	-75.8	0.0
2025-01-23 18:59:09.107823	196.7	16.6	-76.0	0.0
2025-01-23 18:59:10.231231	196.9	16.7	-75.9	0.0
2025-01-23 18:59:11.353831	197.0	16.8	-75.3	0.0
2025-01-23 18:59:12.473123	197.1	16.9	-76.5	0.0
2025-01-23 18:59:13.598423	197.2	17.1	-76.4	0.0
2025-01-23 18:59:14.718388	197.3	17.2	-76.2	0.0
2025-01-23 18:59:15.841639	197.4	17.3	-76.6	0.0
2025-01-23 18:59:16.963336	197.6	17.4	-75.4	0.0
2025-01-23 18:59:18.084417	197.7	17.5	-75.7	0.0
2025-01-23 18:59:19.207470	197.8	17.6	-76.1	0.0
2025-01-23 18:59:20.331605	197.9	17.8	-76.3	0.0
2025-01-23 18:59:21.452908	198.1	17.9	-76.0	0.0
2025-01-23 18:59:22.577212	198.2	18.0	-76.2	0.0
2025-01-23 18:59:23.700799	198.3	18.1	-76.4	0.0
2025-01-23 18:59:24.822513	198.4	18.2	-76.2	0.0
2025-01-23 18:59:25.944857	198.6	18.3	-76.0	0.0
2025-01-23 18:59:27.067358	198.7	18.5	-75.7	0.0
2025-01-23 18:59:28.186656	198.8	18.6	-76.3	0.0
2025-01-23 18:59:29.307526	198.9	18.7	-76.1	0.0
2025-01-23 18:59:30.429808	199.1	18.8	-76.2	0.0
2025-01-23 18:59:31.552149	199.2	19.0	-76.3	0.0
2025-01-23 18:59:32.672517	199.3	19.1	-75.8	0.0
2025-01-23 18:59:33.796102	199.5	19.2	-76.2	0.0
2025-01-23 18:59:34.919791	199.6	19.3	-76.2	0.0
2025-01-23 18:59:36.044159	199.7	19.4	-76.1	0.0
2025-01-23 18:59:37.167597	199.9	19.6	-75.8	0.0
2025-01-23 18:59:38.291285	200.0	19.7	-75.8	0.0
2025-01-23 18:59:39.415100	200.2	19.8	-75.4	0.0
2025-01-23 18:59:40.537686	200.3	19.9	-75.9	0.0
2025-01-23 18:59:41.659437	200.4	20.1	-76.1	0.0
2025-01-23 18:59:42.783460	200.6	20.2	-75.8	0.0
2025-01-23 18:59:43.906874	200.7	20.3	-75.8	0.0
2025-01-23 18:59:45.028207	200.9	20.5	-76.2	0.0
2025-01-23 18:59:46.151277	201.0	20.6	-75.8	0.0
2025-01-23 18:59:47.277789	201.2	20.7	-76.2	0.0
2025-01-23 18:59:48.402331	201.3	20.8	-75.5	0.0
2025-01-23 18:59:49.525411	201.5	21.0	-75.5	0.0
2025-01-23 18:59:50.647920	201.6	21.1	-76.0	0.0
2025-01-23 18:59:51.769792	201.8	21.2	-76.0	0.0
2025-01-23 18:59:52.892491	201.9	21.4	-75.5	0.0
2025-01-23 18:59:54.014884	202.1	21.5	-75.4	0.0
2025-01-23 18:59:55.138307	202.2	21.6	-75.1	0.0
2025-01-23 18:59:56.259894	202.4	21.8	-75.5	0.0
2025-01-23 18:59:57.382197	202.6	21.9	-75.6	0.0
2025-01-23 18:59:58.505486	202.7	22.0	-74.9	0.0
2025-01-23 18:59:59.628238	202.9	22.2	-75.3	0.0
2025-01-23 19:00:00.749198	203.0	22.3	-74.6	0.0
2025-01-23 19:00:01.871885	203.2	22.4	-75.0	0.0
2025-01-23 19:00:02.997161	203.4	22.6	-75.3	0.0
2025-01-23 19:00:04.120042	203.5	22.7	-75.7	0.0
2025-01-23 19:00:05.242805	203.7	22.8	-75.6	0.0
2025-01-23 19:00:06.364744	203.9	23.0	-75.6	0.0
2025-01-23 19:00:07.487944	204.0	23.1	-75.9	0.0
2025-01-23 19:00:08.613064	204.2	23.3	-76.0	0.0
2025-01-23 19:00:09.736000	204.4	23.4	-75.7	0.0
2025-01-23 19:00:10.858323	204.6	23.5	-74.9	0.0
2025-01-23 19:00:11.980417	204.7	23.7	-75.8	0.0
2025-01-23 19:00:13.102139	204.9	23.8	-75.3	0.0
2025-01-23 19:00:14.222587	205.1	24.0	-76.1	0.0
2025-01-23 19:00:15.344987	205.3	24.1	-75.4	0.0
2025-01-23 19:00:16.469623	205.5	24.2	-76.0	0.0
2025-01-23 19:00:17.590983	205.7	24.4	-75.2	0.0
2025-01-23 19:00:18.715811	205.8	24.5	-76.2	0.0
2025-01-23 19:00:19.838512	206.0	24.7	-76.2	0.0
2025-01-23 19:00:20.960141	206.2	24.8	-75.8	0.0
2025-01-23 19:00:22.083786	206.4	24.9	-75.8	0.0
2025-01-23 19:00:23.207161	206.6	25.1	-75.9	0.0
2025-01-23 19:00:24.329766	206.8	25.2	-75.9	0.0
2025-01-23 19:00:25.449495	207.0	25.4	-76.3	0.0
2025-01-23 19:00:26.572804	207.2	25.5	-76.4	0.0
2025-01-23 19:00:27.694486	207.4	25.7	-76.6	0.0
2025-01-23 19:00:28.818463	207.6	25.8	-75.0	0.0
2025-01-23 19:00:29.941531	207.8	26.0	-75.2	0.0
2025-01-23 19:00:31.066331	208.0	26.1	-75.2	0.0
2025-01-23 19:00:32.187522	208.2	26.3	-76.6	0.0
2025-01-23 19:00:33.310004	208.4	26.4	-76.2	0.0
2025-01-23 19:00:34.434206	208.6	26.5	-76.4	0.0
2025-01-23 19:00:35.556353	208.9	26.7	-75.9	0.0
2025-01-23 19:00:36.678641	209.1	26.8	-76.3	0.0
2025-01-23 19:00:37.801228	209.3	27.0	-76.0	0.0
2025-01-23 19:00:38.922708	209.5	27.1	-76.6	0.0
2025-01-23 19:00:40.045309	209.7	27.3	-76.4	0.0
2025-01-23 19:00:41.168340	210.0	27.4	-76.2	0.0
2025-01-23 19:00:42.290877	210.2	27.6	-75.5	0.0
2025-01-23 19:00:43.412576	210.4	27.7	-75.3	0.0
2025-01-23 19:00:44.536203	210.6	27.9	-75.9	0.0
2025-01-23 19:00:45.657677	210.9	28.0	-75.5	0.0
2025-01-23 19:00:46.780427	211.1	28.2	-75.3	0.0
2025-01-23 19:00:47.902936	211.3	28.4	-75.4	0.0
2025-01-23 19:00:49.025954	211.6	28.5	-75.5	0.0
2025-01-23 19:00:50.147052	211.8	28.7	-75.8	0.0
2025-01-23 19:00:51.271178	212.1	28.8	-74.8	0.0
2025-01-23 19:00:52.394090	212.3	29.0	-76.2	0.0
2025-01-23 19:00:53.517269	212.6	29.1	-75.9	0.0
2025-01-23 19:00:54.641398	212.8	29.3	-76.4	0.0
2025-01-23 19:00:55.764249	213.1	29.4	-76.2	0.0
2025-01-23 19:00:56.888252	213.3	29.6	-76.3	0.0
2025-01-23 19:00:58.011479	213.6	29.7	-76.3	0.0
2025-01-23 19:00:59.134067	213.8	29.9	-76.3	0.0
2025-01-23 19:01:00.256214	214.1	30.0	-76.1	0.0
2025-01-23 19:01:01.379025	214.4	30.2	-75.2	0.0
2025-01-23 19:01:02.502298	214.6	30.4	-76.6	0.0
2025-01-23 19:01:03.622295	214.9	30.5	-75.9	0.0
2025-01-23 19:01:04.745528	215.2	30.7	-76.8	0.0
2025-01-23 19:01:05.867560	215.4	30.8	-76.4	0.0
2025-01-23 19:01:06.989647	215.7	31.0	-76.4	0.0
2025-01-23 19:01:08.113385	216.0	31.1	-76.5	0.0
2025-01-23 19:01:09.234617	216.3	31.3	-76.3	0.0
2025-01-23 19:01:10.357323	216.6	31.5	-75.6	0.0
2025-01-23 19:01:11.480920	216.8	31.6	-76.4	0.0
2025-01-23 19:01:12.604771	217.1	31.8	-75.5	0.0
2025-01-23 19:01:13.730549	217.4	31.9	-76.6	0.0
2025-01-23 19:01:14.852928	217.7	32.1	-76.3	0.0
2025-01-23 19:01:15.976390	218.0	32.2	-76.5	0.0
2025-01-23 19:01:17.100919	218.3	32.4	-76.4	0.0
2025-01-23 19:01:18.223731	218.6	32.5	-76.6	0.0
2025-01-23 19:01:19.345166	218.9	32.7	-76.1	0.0
2025-01-23 19:01:20.467052	219.2	32.9	-76.3	0.0
2025-01-23 19:01:21.590550	219.6	33.0	-76.6	0.0
2025-01-23 19:01:22.713400	219.9	33.2	-76.5	0.0
2025-01-23 19:01:23.836932	220.2	33.3	-76.7	0.0
2025-01-23 19:01:24.960702	220.5	33.5	-76.5	0.0
2025-01-23 19:01:26.084525	220.8	33.6	-76.5	0.0
2025-01-23 19:01:27.208087	221.2	33.8	-76.5	0.0
2025-01-23 19:01:28.329645	221.5	33.9	-76.8	0.0
2025-01-23 19:01:29.451736	221.8	34.1	-76.5	0.0
2025-01-23 19:01:30.574751	222.2	34.3	-76.1	0.0
2025-01-23 19:01:31.699745	222.5	34.4	-76.4	0.0
2025-01-23 19:01:32.822276	222.9	34.6	-75.4	0.0
2025-01-23 19:01:33.944907	223.2	34.7	-76.5	0.0
2025-01-23 19:01:35.069167	223.6	34.9	-76.7	0.0
2025-01-23 19:01:36.190514	223.9	35.0	-76.5	0.0
2025-01-23 19:01:37.311852	224.3	35.2	-76.7	0.0
2025-01-23 19:01:38.433037	224.6	35.3	-77.0	0.0
2025-01-23 19:01:39.555707	225.0	35.5	-75.9	0.0
2025-01-23 19:01:40.679644	225.4	35.6	-75.1	0.0
2025-01-23 19:01:41.802334	225.7	35.8	-75.8	0.0
2025-01-23 19:01:42.923380	226.1	35.9	-76.4	0.0
2025-01-23 19:01:44.046437	226.5	36.1	-76.9	0.0
2025-01-23 19:01:45.167350	226.9	36.2	-76.3	0.0
2025-01-23 19:01:46.291410	227.2	36.4	-76.8	0.0
2025-01-23 19:01:47.415122	227.6	36.5	-77.1	0.0
2025-01-23 19:01:48.537378	228.0	36.7	-77.1	0.0
2025-01-23 19:01:49.659270	228.4	36.8	-77.2	0.0
2025-01-23 19:01:50.782149	228.8	36.9	-76.4	0.0
2025-01-23 19:01:51.906722	229.2	37.1	-77.0	0.0
2025-01-23 19:01:53.028159	229.6	37.2	-77.1	0.0
2025-01-23 19:01:54.152572	230.0	37.4	-76.7	0.0
2025-01-23 19:01:55.276509	230.4	37.5	-76.4	0.0
2025-01-23 19:01:56.400416	230.8	37.7	-76.5	0.0
2025-01-23 19:01:57.523875	231.3	37.8	-76.7	0.0
2025-01-23 19:01:58.648740	231.7	37.9	-76.6	0.0
2025-01-23 19:01:59.773139	232.1	38.1	-75.9	0.0
2025-01-23 19:02:00.896102	232.5	38.2	-76.7	0.0
2025-01-23 19:02:02.021037	233.0	38.3	-76.9	0.0
2025-01-23 19:02:03.141658	233.4	38.5	-76.2	0.0
2025-01-23 19:02:04.266580	233.8	38.6	-76.5	0.0
2025-01-23 19:02:05.387596	234.3	38.7	-76.5	0.0
2025-01-23 19:02:06.510128	234.7	38.8	-76.8	0.0
2025-01-23 19:02:07.631090	235.2	39.0	-76.5	0.0
2025-01-23 19:02:08.754203	235.6	39.1	-75.7	0.0
2025-01-23 19:02:09.876782	236.1	39.2	-76.7	0.0
2025-01-23 19:02:10.997914	236.5	39.3	-75.8	0.0
2025-01-23 19:02:12.120414	237.0	39.5	-76.7	0.0
2025-01-23 19:02:13.242306	237.5	39.6	-76.5	0.0
2025-01-23 19:02:14.368997	237.9	39.7	-76.4	0.0
2025-01-23 19:02:15.491633	238.4	39.8	-76.8	0.0
2025-01-23 19:02:16.615262	238.9	39.9	-75.8	0.0
2025-01-23 19:02:17.736391	239.4	40.0	-76.4	0.0
2025-01-23 19:02:18.858830	239.8	40.1	-76.9	0.0
2025-01-23 19:02:19.980166	240.3	40.2	-77.0	0.0
2025-01-23 19:02:21.102307	240.8	40.4	-76.4	0.0
2025-01-23 19:02:22.225097	241.3	40.5	-76.5	0.0
2025-01-23 19:02:23.348018	241.8	40.6	-77.1	0.0
2025-01-23 19:02:24.469625	242.3	40.7	-76.9	0.0
2025-01-23 19:02:25.592282	242.8	40.8	-77.2	0.0
2025-01-23 19:02:26.714732	243.3	40.8	-77.0	0.0
2025-01-23 19:02:27.839707	243.8	40.9	-77.1	0.0
2025-01-23 19:02:28.962582	244.3	41.0	-76.8	0.0
2025-01-23 19:02:30.085493	244.8	41.1	-76.5	0.0
2025-01-23 19:02:31.207837	245.3	41.2	-77.2	0.0
2025-01-23 19:02:32.330665	245.9	41.3	-77.4	0.0
2025-01-23 19:02:33.455675	246.4	41.4	-77.3	0.0
2025-01-23 19:02:34.578981	246.9	41.4	-77.4	0.0
2025-01-23 19:02:35.703581	247.4	41.5	-76.2	0.0
2025-01-23 19:02:36.826137	248.0	41.6	-76.6	0.0
2025-01-23 19:02:37.950433	248.5	41.7	-76.7	0.0
2025-01-23 19:02:39.073138	249.0	41.7	-76.7	0.0
2025-01-23 19:02:40.195245	249.5	41.8	-75.7	0.0
2025-01-23 19:02:41.317842	250.1	41.9	-77.1	0.0
2025-01-23 19:02:42.441116	250.6	41.9	-76.3	0.0
2025-01-23 19:02:43.564231	251.2	42.0	-77.0	0.0
2025-01-23 19:02:44.687057	251.7	42.0	-76.6	0.0
2025-01-23 19:02:45.809944	252.2	42.1	-76.7	0.0
2025-01-23 19:02:46.932890	252.8	42.1	-76.3	0.0
2025-01-23 19:02:48.054690	253.3	42.2	-76.4	0.0
2025-01-23 19:02:49.179473	253.9	42.2	-76.1	0.0
2025-01-23 19:02:50.302300	254.4	42.3	-75.7	0.0
2025-01-23 19:02:51.424767	255.0	42.3	-76.3	0.0
2025-01-23 19:02:52.546926	255.5	42.3	-76.6	0.0
2025-01-23 19:02:53.667840	256.1	42.4	-76.2	0.0
2025-01-23 19:02:54.791511	256.6	42.4	-75.9	0.0
2025-01-23 19:02:55.914332	257.2	42.4	-76.6	0.0
2025-01-23 19:02:57.037645	257.8	42.5	-76.6	0.0
2025-01-23 19:02:58.161842	258.3	42.5	-77.0	0.0
2025-01-23 19:02:59.286610	258.9	42.5	-76.2	0.0
2025-01-23 19:03:00.408578	259.4	42.5	-75.7	0.0
2025-01-23 19:03:01.531939	260.0	42.5	-75.7	0.0
2025-01-23 19:03:02.656043	260.5	42.5	-76.8	0.0
2025-01-23 19:03:03.779127	261.1	42.5	-75.8	0.0
2025-01-23 19:03:04.904174	261.7	42.5	-77.4	0.0
2025-01-23 19:03:06.027892	262.2	42.5	-76.9	0.0
2025-01-23 19:03:07.149586	262.8	42.5	-76.7	0.0
2025-01-23 19:03:08.273269	263.3	42.5	-76.4	0.0
2025-01-23 19:03:09.395148	263.9	42.5	-76.5	0.0
2025-01-23 19:03:10.518230	264.5	42.5	-76.8	0.0
2025-01-23 19:03:11.642661	265.0	42.5	-76.6	0.0
2025-01-23 19:03:12.763706	265.6	42.5	-77.2	0.0
2025-01-23 19:03:13.886898	266.1	42.5	-76.3	0.0
2025-01-23 19:03:15.009018	266.7	42.4	-76.0	0.0
2025-01-23 19:03:16.131592	267.2	42.4	-76.4	0.0
2025-01-23 19:03:17.253853	267.8	42.4	-76.3	0.0
2025-01-23 19:03:18.376228	268.3	42.3	-76.5	0.0
2025-01-23 19:03:19.499685	268.9	42.3	-76.3	0.0
2025-01-23 19:03:20.622102	269.4	42.3	-76.5	0.0
2025-01-23 19:03:21.744198	270.0	42.2	-76.8	0.0
2025-01-23 19:03:22.866973	270.5	42.2	-77.0	0.0
2025-01-23 19:03:23.987722	271.1	42.1	-76.7	0.0
2025-01-23 19:03:25.112559	271.6	42.1	-76.9	0.0
2025-01-23 19:03:26.233622	272.2	42.0	-76.7	0.0
2025-01-23 19:03:27.356477	272.7	42.0	-76.9	0.0
2025-01-23 19:03:28.478666	273.2	41.9	-77.5	0.0
2025-01-23 19:03:29.600177	273.8	41.9	-77.1	0.0
2025-01-23 19:03:30.722085	274.3	41.8	-77.1	0.0
2025-01-23 19:03:31.844596	274.8	41.7	-76.1	0.0
2025-01-23 19:03:32.968279	275.4	41.7	-76.8	0.0
2025-01-23 19:03:34.090699	275.9	41.6	-77.0	0.0
2025-01-23 19:03:35.214099	276.4	41.5	-76.7	0.0
2025-01-23 19:03:36.337788	277.0	41.5	-75.6	0.0
2025-01-23 19:03:37.461555	277.5	41.4	-76.7	0.0
2025-01-23 19:03:38.586181	278.0	41.3	-76.4	0.0
2025-01-23 19:03:39.710512	278.5	41.2	-76.5	0.0
2025-01-23 19:03:40.834360	279.0	41.1	-76.2	0.0
2025-01-23 19:03:41.958408	279.5	41.0	-76.2	0.0
2025-01-23 19:03:43.081542	280.0	40.9	-76.6	0.0
2025-01-23 19:03:44.206345	280.5	40.9	-76.5	0.0
2025-01-23 19:03:45.329275	281.1	40.8	-75.9	0.0
2025-01-23 19:03:46.452474	281.5	40.7	-76.3	0.0
2025-01-23 19:03:47.576851	282.0	40.6	-76.8	0.0
2025-01-23 19:03:48.699039	282.5	40.5	-77.1	0.0
2025-01-23 19:03:49.820336	283.0	40.4	-76.9	0.0
2025-01-23 19:03:50.942572	283.5	40.3	-76.5	0.0
2025-01-23 19:03:52.065316	284.0	40.2	-77.4	0.0
2025-01-23 19:03:53.187249	284.5	40.0	-75.6	0.0
2025-01-23 19:03:54.311446	285.0	39.9	-76.2	0.0
2025-01-23 19:03:55.434060	285.4	39.8	-76.6	0.0
2025-01-23 19:03:56.557145	285.9	39.7	-75.7	0.0
2025-01-23 19:03:57.680933	286.4	39.6	-75.8	0.0
2025-01-23 19:03:58.803272	286.8	39.5	-76.8	0.0
2025-01-23 19:03:59.925059	287.3	39.4	-76.7	0.0
2025-01-23 19:04:01.049404	287.7	39.2	-76.4	0.0
2025-01-23 19:04:02.172417	288.2	39.1	-75.7	0.0
2025-01-23 19:04:03.293829	288.7	39.0	-76.0	0.0
2025-01-23 19:04:04.415191	289.1	38.9	-75.3	0.0
2025-01-23 19:04:05.538863	289.5	38.7	-76.0	0.0
2025-01-23 19:04:06.661145	290.0	38.6	-75.8	0.0
2025-01-23 19:04:07.784787	290.4	38.5	-76.2	0.0
2025-01-23 19:04:08.906286	290.9	38.4	-76.5	0.0
2025-01-23 19:04:10.029286	291.3	38.2	-77.0	0.0
2025-01-23 19:04:11.152026	291.7	38.1	-76.4	0.0
2025-01-23 19:04:12.275434	292.1	38.0	-76.5	0.0
2025-01-23 19:04:13.401151	292.6	37.8	-77.4	0.0
2025-01-23 19:04:14.523652	293.0	37.7	-76.9	0.0
2025-01-23 19:04:15.647177	293.4	37.5	-77.0	0.0
2025-01-23 19:04:16.768672	293.8	37.4	-75.8	0.0
2025-01-23 19:04:17.892177	294.2	37.3	-76.3	0.0
2025-01-23 19:04:19.015822	294.6	37.1	-77.2	0.0
2025-01-23 19:04:20.142172	295.0	37.0	-76.2	0.0
2025-01-23 19:04:21.266735	295.4	36.8	-76.8	0.0
2025-01-23 19:04:22.387774	295.8	36.7	-77.3	0.0
2025-01-23 19:04:23.511728	296.2	36.6	-77.1	0.0
2025-01-23 19:04:24.634286	296.6	36.4	-77.3	0.0
2025-01-23 19:04:25.757860	296.9	36.3	-77.3	0.0
2025-01-23 19:04:26.879349	297.3	36.1	-77.3	0.0
2025-01-23 19:04:28.003370	297.7	36.0	-77.2	0.0
2025-01-23 19:04:29.126464	298.1	35.8	-76.8	0.0
2025-01-23 19:04:30.250032	298.4	35.7	-76.5	0.0
2025-01-23 19:04:31.372971	298.8	35.5	-76.6	0.0
2025-01-23 19:04:32.496211	299.2	35.4	-76.7	0.0
2025-01-23 19:04:33.619905	299.5	35.2	-76.4	0.0
2025-01-23 19:04:34.743344	299.9	35.1	-76.9	0.0
2025-01-23 19:04:35.867139	300.2	34.9	-76.8	0.0
2025-01-23 19:04:36.989099	300.6	34.8	-76.6	0.0
2025-01-23 19:04:38.111989	300.9	34.6	-77.3	0.0
2025-01-23 19:04:39.236168	301.3	34.5	-76.0	0.0
2025-01-23 19:04:40.358593	301.6	34.3	-77.5	0.0
2025-01-23 19:04:41.484138	301.9	34.2	-77.1	0.0
2025-01-23 19:04:42.607947	302.3	34.0	-76.5	0.0
2025-01-23 19:04:43.730500	302.6	33.9	-77.3	0.0
2025-01-23 19:04:44.853995	302.9	33.7	-77.1	0.0
2025-01-23 19:04:45.976823	303.3	33.5	-76.9	0.0
2025-01-23 19:04:47.100723	303.6	33.4	-77.5	0.0
2025-01-23 19:04:48.224255	303.9	33.2	-76.4	0.0
2025-01-23 19:04:49.345720	304.2	33.1	-76.3	0.0
2025-01-23 19:04:50.468858	304.5	32.9	-76.9	0.0
2025-01-23 19:04:51.591461	304.8	32.8	-77.0	0.0
2025-01-23 19:04:52.714332	305.1	32.6	-76.6	0.0
2025-01-23 19:04:53.836435	305.4	32.5	-77.3	0.0
2025-01-23 19:04:54.960025	305.8	32.3	-77.3	0.0
2025-01-23 19:04:56.080222	306.0	32.2	-75.9	0.0
2025-01-23 19:04:57.203334	306.3	32.0	-76.7	0.0
2025-01-23 19:04:58.327814	306.6	31.8	-76.5	0.0
2025-01-23 19:04:59.451308	306.9	31.7	-77.2	0.0
2025-01-23 19:05:00.574855	307.2	31.5	-76.8	0.0
2025-01-23 19:05:01.696788	307.5	31.4	-75.9	0.0
2025-01-23 19:05:02.818803	307.8	31.2	-76.2	0.0
2025-01-23 19:05:03.943497	308.1	31.1	-76.5	0.0
2025-01-23 19:05:05.065287	308.3	30.9	-77.2	0.0
2025-01-23 19:05:06.188082	308.6	30.8	-76.0	0.0
2025-01-23 19:05:07.310704	308.9	30.6	-76.6	0.0
2025-01-23 19:05:08.436091	309.1	30.4	-76.0	0.0
2025-01-23 19:05:09.556238	309.4	30.3	-76.6	0.0
2025-01-23 19:05:10.678670	309.7	30.1	-76.3	0.0
2025-01-23 19:05:11.801827	309.9	30.0	-76.1	0.0
2025-01-23 19:05:12.924988	310.2	29.8	-76.2	0.0
2025-01-23 19:05:14.048995	310.5	29.7	-75.9	0.0
2025-01-23 19:05:15.173677	310.7	29.5	-76.1	0.0
2025-01-23 19:05:16.295795	311.0	29.4	-76.0	0.0
2025-01-23 19:05:17.419814	311.2	29.2	-76.3	0.0
2025-01-23 19:05:18.543077	311.5	29.1	-76.2	0.0
2025-01-23 19:05:19.664965	311.7	28.9	-76.4	0.0
2025-01-23 19:05:20.786654	311.9	28.8	-76.5	0.0
2025-01-23 19:05:21.908776	312.2	28.6	-75.7	0.0
2025-01-23 19:05:23.034314	312.4	28.5	-75.6	0.0
2025-01-23 19:05:24.154937	312.7	28.3	-76.1	0.0
2025-01-23 19:05:25.279926	312.9	28.2	-77.0	0.0
2025-01-23 19:05:26.404146	313.1	28.0	-76.1	0.0
2025-01-23 19:05:27.526169	313.4	27.9	-76.9	0.0
2025-01-23 19:05:28.649942	313.6	27.7	-75.7	0.0
2025-01-23 19:05:29.772530	313.8	27.6	-77.3	0.0
2025-01-23 19:05:30.894064	314.0	27.4	-76.5	0.0
2025-01-23 19:05:32.017323	314.2	27.3	-76.0	0.0
2025-01-23 19:05:33.140085	314.5	27.1	-75.9	0.0
2025-01-23 19:05:34.261464	314.7	27.0	-77.4	0.0
2025-01-23 19:05:35.384681	314.9	26.8	-77.0	0.0
2025-01-23 19:05:36.506993	315.1	26.7	-76.8	0.0
2025-01-23 19:05:37.629135	315.3	26.5	-76.7	0.0
2025-01-23 19:05:38.750611	315.5	26.4	-76.5	0.0
2025-01-23 19:05:39.874644	315.7	26.2	-76.6	0.0
2025-01-23 19:05:40.995252	315.9	26.1	-77.1	0.0
2025-01-23 19:05:42.115521	316.1	25.9	-76.2	0.0
2025-01-23 19:05:43.238256	316.4	25.8	-75.9	0.0
2025-01-23 19:05:44.361807	316.6	25.6	-76.2	0.0
2025-01-23 19:05:45.484580	316.7	25.5	-75.6	0.0
2025-01-23 19:05:46.608427	316.9	25.4	-76.3	0.0
2025-01-23 19:05:47.730635	317.1	25.2	-77.1	0.0
2025-01-23 19:05:48.853874	317.3	25.1	-77.1	0.0
2025-01-23 19:05:49.975038	317.5	24.9	-76.1	0.0
2025-01-23 19:05:51.098896	317.7	24.8	-76.6	0.0
2025-01-23 19:05:52.219266	317.9	24.7	-75.8	0.0
2025-01-23 19:05:53.341514	318.1	24.5	-77.2	0.0
2025-01-23 19:05:54.464466	318.3	24.4	-77.2	0.0
2025-01-23 19:05:55.585966	318.5	24.2	-77.1	0.0
2025-01-23 19:05:56.708177	318.6	24.1	-77.0	0.0
2025-01-23 19:05:57.831407	318.8	24.0	-76.4	0.0
2025-01-23 19:05:58.955798	319.0	23.8	-76.5	0.0
2025-01-23 19:06:00.078457	319.2	23.7	-76.4	0.0
2025-01-23 19:06:01.200192	319.4	23.5	-77.0	0.0
2025-01-23 19:06:02.320699	319.5	23.4	-77.2	0.0
2025-01-23 19:06:03.444218	319.7	23.3	-76.1	0.0
2025-01-23 19:06:04.565248	319.9	23.1	-75.8	0.0
2025-01-23 19:06:05.687264	320.0	23.0	-76.2	0.0
2025-01-23 19:06:06.812093	320.2	22.9	-76.0	0.0
2025-01-23 19:06:07.937745	320.4	22.7	-76.7	0.0
2025-01-23 19:06:09.059266	320.5	22.6	-76.3	0.0
2025-01-23 19:06:10.180077	320.7	22.5	-76.2	0.0
2025-01-23 19:06:11.301805	320.9	22.3	-76.3	0.0
2025-01-23 19:06:12.422947	321.0	22.2	-76.1	0.0
2025-01-23 19:06:13.545601	321.2	22.1	-76.0	0.0
2025-01-23 19:06:14.668552	321.4	21.9	-76.4	0.0
2025-01-23 19:06:15.791477	321.5	21.8	-75.9	0.0
2025-01-23 19:06:16.916962	321.7	21.7	-76.2	0.0
2025-01-23 19:06:18.038068	321.8	21.5	-76.7	0.0
2025-01-23 19:06:19.161096	322.0	21.4	-77.3	0.0
2025-01-23 19:06:20.282585	322.1	21.3	-76.1	0.0
2025-01-23 19:06:21.404822	322.3	21.1	-76.1	0.0
2025-01-23 19:06:22.528319	322.4	21.0	-76.2	0.0
2025-01-23 19:06:23.650926	322.6	20.9	-76.8	0.0
2025-01-23 19:06:24.775942	322.7	20.8	-77.0	0.0
2025-01-23 19:06:25.900300	322.9	20.6	-76.5	0.0
2025-01-23 19:06:27.022564	323.0	20.5	-76.8	0.0
2025-01-23 19:06:28.143397	323.2	20.4	-76.0	0.0
2025-01-23 19:06:29.268028	323.3	20.3	-76.6	0.0
2025-01-23 19:06:30.391291	323.4	20.1	-76.9	0.0
2025-01-23 19:06:31.512169	323.6	20.0	-76.7	0.0
2025-01-23 19:06:32.635659	323.7	19.9	-76.6	0.0
2025-01-23 19:06:33.757694	323.9	19.8	-76.8	0.0
2025-01-23 19:06:34.882133	324.0	19.6	-76.7	0.0
2025-01-23 19:06:36.004260	324.1	19.5	-76.1	0.0
2025-01-23 19:06:37.128331	324.3	19.4	-76.7	0.0
2025-01-23 19:06:38.251959	324.4	19.3	-77.1	0.0
2025-01-23 19:06:39.374984	324.5	19.1	-77.2	0.0
2025-01-23 19:06:40.497118	324.7	19.0	-76.5	0.0
2025-01-23 19:06:41.617778	324.8	18.9	-75.9	0.0
2025-01-23 19:06:42.741994	324.9	18.8	-76.3	0.0
2025-01-23 19:06:43.863641	325.1	18.7	-76.0	0.0
2025-01-23 19:06:44.987705	325.2	18.5	-75.5	0.0
2025-01-23 19:06:46.109811	325.3	18.4	-76.1	0.0
2025-01-23 19:06:47.235288	325.5	18.3	-75.6	0.0
2025-01-23 19:06:48.359007	325.6	18.2	-76.7	0.0
2025-01-23 19:06:49.483384	325.7	18.1	-75.7	0.0
2025-01-23 19:06:50.605895	325.8	17.9	-76.1	0.0
2025-01-23 19:06:51.729916	325.9	17.8	-77.1	0.0
2025-01-23 19:06:52.851803	326.1	17.7	-75.9	0.0
2025-01-23 19:06:53.976028	326.2	17.6	-75.8	0.0
2025-01-23 19:06:55.098773	326.3	17.5	-76.1	0.0
2025-01-23 19:06:56.220072	326.4	17.4	-75.8	0.0
2025-01-23 19:06:57.341688	326.5	17.2	-76.0	0.0
2025-01-23 19:06:58.467289	326.7	17.1	-76.3	0.0
2025-01-23 19:06:59.588920	326.8	17.0	-76.3	0.0
2025-01-23 19:07:00.712106	326.9	16.9	-76.0	0.0
2025-01-23 19:07:01.836065	327.0	16.8	-76.2	0.0
2025-01-23 19:07:02.958632	327.1	16.7	-76.6	0.0
2025-01-23 19:07:04.082301	327.2	16.6	-76.4	0.0
2025-01-23 19:07:05.204892	327.4	16.5	-75.9	0.0
2025-01-23 19:07:06.327026	327.5	16.3	-76.3	0.0
2025-01-23 19:07:07.451741	327.6	16.2	-75.9	0.0
2025-01-23 19:07:08.575427	327.7	16.1	-77.0	0.0
2025-01-23 19:07:09.698868	327.8	16.0	-76.4	0.0
2025-01-23 19:07:10.821108	327.9	15.9	-76.3	0.0
2025-01-23 19:07:11.943437	328.0	15.8	-76.2	0.0
2025-01-23 19:07:13.064804	328.1	15.7	-76.9	0.0
2025-01-23 19:07:14.188093	328.2	15.6	-76.3	0.0
2025-01-23 19:07:15.310900	328.3	15.5	-76.0	0.0
2025-01-23 19:07:16.434202	328.4	15.4	-75.7	0.0
2025-01-23 19:07:17.555886	328.5	15.3	-76.0	0.0
2025-01-23 19:07:18.680419	328.6	15.1	-76.1	0.0
2025-01-23 19:07:19.805766	328.8	15.0	-76.1	0.0
2025-01-23 19:07:20.928380	328.9	14.9	-76.3	0.0
2025-01-23 19:07:22.050619	329.0	14.8	-75.9	0.0
2025-01-23 19:07:23.173352	329.1	14.7	-76.1	0.0
2025-01-23 19:07:24.295143	329.2	14.6	-77.3	0.0
2025-01-23 19:07:25.417922	329.3	14.5	-76.5	0.0
2025-01-23 19:07:26.540985	329.4	14.4	-76.1	0.0
2025-01-23 19:07:27.665067	329.5	14.3	-76.5	0.0
2025-01-23 19:07:28.790039	329.6	14.2	-76.2	0.0
2025-01-23 19:07:29.915569	329.6	14.1	-77.1	0.0
2025-01-23 19:07:31.038905	329.7	14.0	-76.7	0.0
2025-01-23 19:07:32.160793	329.8	13.9	-75.8	0.0
2025-01-23 19:07:33.282516	329.9	13.8	-76.8	0.0
2025-01-23 19:07:34.403048	330.0	13.7	-76.9	0.0
2025-01-23 19:07:35.526196	330.1	13.6	-76.5	0.0
2025-01-23 19:07:36.650911	330.2	13.5	-77.2	0.0
2025-01-23 19:07:37.774118	330.3	13.4	-76.8	0.0
2025-01-23 19:07:38.897988	330.4	13.3	-77.4	0.0
2025-01-23 19:07:40.021791	330.5	13.2	-76.7	0.0
2025-01-23 19:07:41.145182	330.6	13.1	-76.2	0.0
2025-01-23 19:07:42.268641	330.7	13.0	-76.7	0.0
2025-01-23 19:07:43.391629	330.8	12.9	-76.8	0.0
2025-01-23 19:07:44.511723	330.9	12.8	-76.9	0.0
2025-01-23 19:07:45.633176	330.9	12.7	-76.4	0.0
2025-01-23 19:07:46.756835	331.0	12.6	-76.8	0.0
2025-01-23 19:07:47.878859	331.1	12.5	-76.5	0.0
2025-01-23 19:07:49.002030	331.2	12.4	-76.7	0.0
2025-01-23 19:07:50.125635	331.3	12.3	-76.9	0.0
2025-01-23 19:07:51.249149	331.4	12.2	-77.2	0.0
2025-01-23 19:07:52.371914	331.5	12.1	-76.5	0.0
2025-01-23 19:07:53.493875	331.5	12.0	-77.3	0.0
2025-01-23 19:07:54.618411	331.6	11.9	-76.9	0.0
2025-01-23 19:07:55.739908	331.7	11.8	-77.1	0.0
2025-01-23 19:07:56.864013	331.8	11.7	-78.0	0.0
2025-01-23 19:07:57.985729	331.9	11.6	-77.7	0.0
2025-01-23 19:07:59.107740	332.0	11.5	-77.9	0.0
2025-01-23 19:08:00.228384	332.0	11.4	-77.6	0.0
2025-01-23 19:08:01.351189	332.1	11.3	-77.8	0.0
2025-01-23 19:08:02.472061	332.2	11.2	-76.8	0.0
2025-01-23 19:08:03.597463	332.3	11.2	-77.7	0.0
2025-01-23 19:08:04.722446	332.4	11.1	-77.2	0.0
2025-01-23 19:08:05.844549	332.4	11.0	-76.9	0.0
2025-01-23 19:08:06.968044	332.5	10.9	-76.4	0.0
2025-01-23 19:08:08.089105	332.6	10.8	-77.6	0.0
2025-01-23 19:08:09.212986	332.7	10.7	-77.0	0.0
2025-01-23 19:08:10.336421	332.8	10.6	-76.2	0.0
2025-01-23 19:08:11.459558	332.8	10.5	-76.4	0.0
2025-01-23 19:08:12.583530	332.9	10.4	-77.0	0.0
2025-01-23 19:08:13.706782	333.0	10.3	-77.8	0.0
2025-01-23 19:08:14.826769	333.1	10.2	-77.7	0.0
2025-01-23 19:08:15.949060	333.1	10.1	-76.3	0.0
#Closed at: 2025-01-23 18:57:51.223940