passes_logs/2025/01/23/planumMaritime01/planumMaritime01__20250123_192036_NOAA_18_rec.log

#Pass ID: 20250123_192036_NOAA 18
#Satellite: NOAA 18
#Configuration: NOAA 18
#Start time: 2025-01-23 19:20:41.082383

#LorettStation: 1.0.0 05.05.2024
#Station: planumMaritime01
#Location: 37.49445 lon 55.92918 lat
#TLE: 1 28654U 05018A   25022.24143052  .00000458  00000+0  26647-3 0  9995
#TLE: 2 28654  98.8556 103.2235 0014680 159.1096 201.0679 14.13493787 14203

#Time	Az	El	Level	SNR
2025-01-23 19:20:43.239539	163.0	10.2	-73.9	4.0
2025-01-23 19:20:44.361424	163.0	10.3	-74.1	2.3
2025-01-23 19:20:45.484112	163.0	10.4	-74.1	3.3
2025-01-23 19:20:46.608670	163.0	10.5	-74.2	3.4
2025-01-23 19:20:47.731522	163.0	10.6	-74.1	2.3
2025-01-23 19:20:48.854207	163.0	10.7	-74.3	3.6
2025-01-23 19:20:49.977612	163.0	10.8	-74.2	3.8
2025-01-23 19:20:51.099344	163.1	10.9	-73.9	2.4
2025-01-23 19:20:52.220871	163.1	11.0	-73.8	3.3
2025-01-23 19:20:53.343313	163.1	11.1	-74.1	4.1
2025-01-23 19:20:54.466746	163.1	11.2	-73.6	2.9
2025-01-23 19:20:55.589824	163.1	11.3	-74.3	3.5
2025-01-23 19:20:56.713414	163.1	11.4	-73.6	3.8
2025-01-23 19:20:57.836378	163.1	11.5	-74.5	4.4
2025-01-23 19:20:58.956895	163.1	11.6	-74.2	4.2
2025-01-23 19:21:00.079636	163.1	11.7	-74.3	4.3
2025-01-23 19:21:01.202283	163.1	11.8	-73.7	3.6
2025-01-23 19:21:02.327022	163.1	11.9	-74.3	3.8
2025-01-23 19:21:03.449847	163.2	12.0	-73.9	4.0
2025-01-23 19:21:04.572275	163.2	12.1	-74.1	3.0
2025-01-23 19:21:05.694396	163.2	12.2	-73.7	4.4
2025-01-23 19:21:06.819135	163.2	12.3	-74.4	3.5
2025-01-23 19:21:07.943942	163.2	12.4	-74.2	5.1
2025-01-23 19:21:09.065125	163.2	12.5	-73.8	3.1
2025-01-23 19:21:10.187504	163.2	12.6	-74.3	3.7
2025-01-23 19:21:11.310177	163.2	12.7	-74.2	4.2
2025-01-23 19:21:12.430410	163.2	12.9	-73.5	2.5
2025-01-23 19:21:13.554676	163.2	13.0	-74.3	4.0
2025-01-23 19:21:14.677544	163.2	13.1	-74.1	4.3
2025-01-23 19:21:15.802181	163.3	13.2	-74.0	3.9
2025-01-23 19:21:16.927414	163.3	13.3	-74.0	4.8
2025-01-23 19:21:18.051788	163.3	13.4	-74.2	3.5
2025-01-23 19:21:19.176085	163.3	13.5	-74.3	4.4
2025-01-23 19:21:20.299261	163.3	13.6	-74.2	5.4
2025-01-23 19:21:21.422281	163.3	13.7	-74.1	3.6
2025-01-23 19:21:22.546116	163.3	13.9	-74.3	4.7
2025-01-23 19:21:23.669664	163.3	14.0	-74.3	3.5
2025-01-23 19:21:24.792523	163.3	14.1	-74.3	4.7
2025-01-23 19:21:25.916115	163.3	14.2	-74.1	3.4
2025-01-23 19:21:27.039507	163.4	14.3	-73.7	2.8
2025-01-23 19:21:28.161359	163.4	14.4	-74.2	4.7
2025-01-23 19:21:29.285613	163.4	14.5	-74.2	4.5
2025-01-23 19:21:30.409010	163.4	14.7	-74.3	4.2
2025-01-23 19:21:31.531254	163.4	14.8	-74.5	4.8
2025-01-23 19:21:32.652968	163.4	14.9	-74.9	4.6
2025-01-23 19:21:33.775129	163.4	15.0	-74.6	3.9
2025-01-23 19:21:34.900273	163.4	15.1	-74.1	4.1
2025-01-23 19:21:36.023917	163.4	15.2	-73.9	5.4
2025-01-23 19:21:37.148519	163.4	15.4	-74.5	5.5
2025-01-23 19:21:38.273523	163.5	15.5	-74.2	4.3
2025-01-23 19:21:39.395334	163.5	15.6	-74.0	5.2
2025-01-23 19:21:40.518850	163.5	15.7	-73.9	3.9
2025-01-23 19:21:41.644949	163.5	15.9	-73.8	3.7
2025-01-23 19:21:42.769479	163.5	16.0	-73.5	3.5
2025-01-23 19:21:43.892604	163.5	16.1	-74.1	4.4
2025-01-23 19:21:45.014946	163.5	16.2	-74.0	3.4
2025-01-23 19:21:46.140553	163.5	16.3	-74.3	5.4
2025-01-23 19:21:47.262792	163.5	16.5	-74.6	4.6
2025-01-23 19:21:48.387441	163.6	16.6	-74.3	5.2
2025-01-23 19:21:49.508708	163.6	16.7	-74.7	4.3
2025-01-23 19:21:50.629237	163.6	16.9	-73.9	4.9
2025-01-23 19:21:51.753503	163.6	17.0	-74.1	4.5
2025-01-23 19:21:52.877791	163.6	17.1	-74.8	5.2
2025-01-23 19:21:54.001495	163.6	17.2	-74.3	5.4
2025-01-23 19:21:55.122338	163.6	17.4	-74.2	4.0
2025-01-23 19:21:56.243903	163.6	17.5	-74.0	5.2
2025-01-23 19:21:57.369902	163.6	17.6	-74.0	3.9
2025-01-23 19:21:58.491081	163.7	17.8	-74.0	4.0
2025-01-23 19:21:59.612704	163.7	17.9	-74.5	4.8
2025-01-23 19:22:00.736631	163.7	18.0	-74.4	4.2
2025-01-23 19:22:01.858288	163.7	18.2	-74.6	4.3
2025-01-23 19:22:02.980014	163.7	18.3	-74.3	5.0
2025-01-23 19:22:04.101363	163.7	18.4	-74.5	5.2
2025-01-23 19:22:05.221844	163.7	18.6	-74.7	5.1
2025-01-23 19:22:06.345147	163.7	18.7	-74.4	4.3
2025-01-23 19:22:07.467801	163.8	18.8	-74.7	5.1
2025-01-23 19:22:08.590434	163.8	19.0	-74.6	3.5
2025-01-23 19:22:09.714434	163.8	19.1	-74.7	4.6
2025-01-23 19:22:10.839749	163.8	19.3	-74.1	3.4
2025-01-23 19:22:11.961905	163.8	19.4	-73.4	3.9
2025-01-23 19:22:13.085354	163.8	19.5	-74.0	3.9
2025-01-23 19:22:14.206747	163.8	19.7	-74.4	5.0
2025-01-23 19:22:15.329534	163.8	19.8	-74.1	3.8
2025-01-23 19:22:16.452387	163.9	20.0	-73.9	3.5
2025-01-23 19:22:17.577092	163.9	20.1	-74.2	3.8
2025-01-23 19:22:18.700345	163.9	20.3	-74.2	3.4
2025-01-23 19:22:19.821135	163.9	20.4	-74.4	3.9
2025-01-23 19:22:20.943207	163.9	20.6	-74.0	1.8
2025-01-23 19:22:22.064535	163.9	20.7	-74.2	1.6
2025-01-23 19:22:23.189481	163.9	20.9	-74.3	2.5
2025-01-23 19:22:24.313579	163.9	21.0	-74.5	2.6
2025-01-23 19:22:25.438678	164.0	21.2	-74.2	2.5
2025-01-23 19:22:26.561699	164.0	21.3	-74.0	2.3
2025-01-23 19:22:27.685341	164.0	21.5	-73.5	2.9
2025-01-23 19:22:28.810517	164.0	21.6	-74.0	2.9
2025-01-23 19:22:29.933010	164.0	21.8	-74.4	3.2
2025-01-23 19:22:31.056862	164.0	21.9	-74.1	2.9
2025-01-23 19:22:32.179534	164.0	22.1	-74.4	2.9
2025-01-23 19:22:33.302972	164.1	22.2	-74.3	1.9
2025-01-23 19:22:34.424559	164.1	22.4	-74.2	2.3
2025-01-23 19:22:35.550096	164.1	22.6	-74.4	2.6
2025-01-23 19:22:36.674010	164.1	22.7	-74.4	0.8
2025-01-23 19:22:37.796359	164.1	22.9	-74.9	2.8
2025-01-23 19:22:38.921327	164.1	23.0	-74.4	2.0
2025-01-23 19:22:40.046626	164.1	23.2	-74.6	2.9
2025-01-23 19:22:41.170285	164.2	23.4	-74.3	1.7
2025-01-23 19:22:42.290816	164.2	23.5	-74.5	1.3
2025-01-23 19:22:43.414638	164.2	23.7	-74.4	0.7
2025-01-23 19:22:44.539230	164.2	23.9	-74.3	1.2
2025-01-23 19:22:45.662802	164.2	24.0	-74.4	0.6
2025-01-23 19:22:46.785766	164.2	24.2	-74.5	1.7
2025-01-23 19:22:47.909753	164.3	24.4	-74.5	2.2
2025-01-23 19:22:49.031589	164.3	24.6	-74.6	0.0
2025-01-23 19:22:50.153811	164.3	24.7	-75.0	0.0
2025-01-23 19:22:51.277196	164.3	24.9	-74.9	0.0
2025-01-23 19:22:52.398602	164.3	25.1	-74.9	0.0
2025-01-23 19:22:53.522332	164.3	25.3	-74.8	0.0
2025-01-23 19:22:54.645035	164.4	25.4	-74.7	0.0
2025-01-23 19:22:55.766797	164.4	25.6	-74.8	0.0
2025-01-23 19:22:56.888659	164.4	25.8	-74.6	0.0
2025-01-23 19:22:58.013615	164.4	26.0	-74.6	0.0
2025-01-23 19:22:59.136041	164.4	26.2	-75.0	0.0
2025-01-23 19:23:00.260148	164.4	26.3	-74.9	0.0
2025-01-23 19:23:01.385644	164.5	26.5	-74.8	0.0
2025-01-23 19:23:02.510597	164.5	26.7	-74.0	0.0
2025-01-23 19:23:03.633361	164.5	26.9	-75.0	0.0
2025-01-23 19:23:04.756493	164.5	27.1	-75.0	0.0
2025-01-23 19:23:05.879388	164.5	27.3	-74.9	0.0
2025-01-23 19:23:07.001258	164.6	27.5	-75.0	0.0
2025-01-23 19:23:08.124323	164.6	27.7	-75.1	0.0
2025-01-23 19:23:09.246755	164.6	27.9	-75.1	0.0
2025-01-23 19:23:10.367636	164.6	28.1	-75.0	0.0
2025-01-23 19:23:11.491065	164.6	28.2	-74.8	0.0
2025-01-23 19:23:12.614129	164.7	28.4	-75.0	0.0
2025-01-23 19:23:13.736908	164.7	28.6	-74.9	0.0
2025-01-23 19:23:14.858940	164.7	28.8	-75.1	0.0
2025-01-23 19:23:15.979415	164.7	29.0	-75.2	0.0
2025-01-23 19:23:17.102108	164.7	29.3	-74.9	0.0
2025-01-23 19:23:18.223934	164.8	29.5	-75.3	0.0
2025-01-23 19:23:19.346535	164.8	29.7	-75.2	0.0
2025-01-23 19:23:20.469209	164.8	29.9	-74.8	0.0
2025-01-23 19:23:21.592041	164.8	30.1	-75.3	0.0
2025-01-23 19:23:22.715421	164.8	30.3	-75.1	0.0
2025-01-23 19:23:23.837805	164.9	30.5	-75.2	0.0
2025-01-23 19:23:24.962580	164.9	30.7	-75.4	0.0
2025-01-23 19:23:26.085862	164.9	30.9	-75.1	0.0
2025-01-23 19:23:27.208653	164.9	31.2	-75.0	0.0
2025-01-23 19:23:28.331846	165.0	31.4	-74.9	0.0
2025-01-23 19:23:29.454255	165.0	31.6	-75.4	0.0
2025-01-23 19:23:30.579289	165.0	31.8	-75.5	0.0
2025-01-23 19:23:31.702623	165.0	32.0	-75.1	0.0
2025-01-23 19:23:32.826850	165.1	32.3	-75.4	0.0
2025-01-23 19:23:33.952931	165.1	32.5	-75.9	0.0
2025-01-23 19:23:35.075461	165.1	32.7	-75.6	0.0
2025-01-23 19:23:36.198339	165.1	33.0	-75.7	0.0
2025-01-23 19:23:37.320853	165.2	33.2	-76.0	0.0
2025-01-23 19:23:38.442835	165.2	33.4	-75.6	0.0
2025-01-23 19:23:39.565231	165.2	33.7	-75.1	0.0
2025-01-23 19:23:40.687368	165.2	33.9	-75.1	0.0
2025-01-23 19:23:41.809211	165.3	34.1	-75.3	0.0
2025-01-23 19:23:42.934009	165.3	34.4	-75.4	0.0
2025-01-23 19:23:44.057376	165.3	34.6	-75.7	0.0
2025-01-23 19:23:45.179721	165.3	34.9	-75.0	0.0
2025-01-23 19:23:46.303164	165.4	35.1	-75.1	0.0
2025-01-23 19:23:47.425083	165.4	35.4	-75.3	0.0
2025-01-23 19:23:48.548293	165.4	35.6	-75.2	0.0
2025-01-23 19:23:49.670418	165.5	35.9	-75.3	0.0
2025-01-23 19:23:50.792404	165.5	36.1	-75.4	0.0
2025-01-23 19:23:51.916037	165.5	36.4	-75.0	0.0
2025-01-23 19:23:53.039722	165.5	36.7	-75.4	0.0
2025-01-23 19:23:54.163202	165.6	36.9	-75.4	0.0
2025-01-23 19:23:55.285733	165.6	37.2	-75.4	0.0
2025-01-23 19:23:56.409546	165.6	37.4	-75.4	0.0
2025-01-23 19:23:57.532480	165.7	37.7	-75.1	0.0
2025-01-23 19:23:58.655431	165.7	38.0	-75.4	0.0
2025-01-23 19:23:59.777926	165.7	38.3	-75.2	0.0
2025-01-23 19:24:00.901511	165.8	38.5	-74.9	0.0
2025-01-23 19:24:02.024097	165.8	38.8	-74.8	0.0
2025-01-23 19:24:03.145493	165.8	39.1	-74.8	0.0
2025-01-23 19:24:04.268054	165.9	39.4	-75.6	0.0
2025-01-23 19:24:05.391087	165.9	39.7	-75.1	0.0
2025-01-23 19:24:06.513235	165.9	39.9	-74.8	0.0
2025-01-23 19:24:07.635528	166.0	40.2	-75.1	0.0
2025-01-23 19:24:08.757283	166.0	40.5	-75.2	0.0
2025-01-23 19:24:09.883522	166.1	40.8	-75.4	0.0
2025-01-23 19:24:11.007591	166.1	41.1	-75.1	0.0
2025-01-23 19:24:12.130092	166.1	41.4	-75.5	0.0
2025-01-23 19:24:13.254916	166.2	41.7	-75.1	0.0
2025-01-23 19:24:14.380149	166.2	42.0	-75.3	0.0
2025-01-23 19:24:15.502156	166.3	42.3	-75.3	0.0
2025-01-23 19:24:16.625614	166.3	42.6	-74.9	0.0
2025-01-23 19:24:17.751142	166.3	42.9	-75.2	0.0
2025-01-23 19:24:18.872801	166.4	43.2	-75.2	0.0
2025-01-23 19:24:19.995396	166.4	43.6	-75.2	0.0
2025-01-23 19:24:21.118832	166.5	43.9	-74.9	0.0
2025-01-23 19:24:22.241961	166.5	44.2	-75.5	0.0
2025-01-23 19:24:23.364106	166.6	44.5	-75.3	0.0
2025-01-23 19:24:24.488439	166.6	44.8	-75.0	0.0
2025-01-23 19:24:25.612322	166.7	45.2	-75.6	0.0
2025-01-23 19:24:26.735346	166.7	45.5	-75.9	0.0
2025-01-23 19:24:27.858213	166.8	45.8	-75.6	0.0
2025-01-23 19:24:28.981375	166.8	46.2	-75.8	0.0
2025-01-23 19:24:30.102456	166.9	46.5	-75.3	0.0
2025-01-23 19:24:31.225640	166.9	46.9	-75.6	0.0
2025-01-23 19:24:32.349323	167.0	47.2	-75.8	0.0
2025-01-23 19:24:33.471948	167.0	47.5	-75.1	0.0
2025-01-23 19:24:34.593784	167.1	47.9	-75.4	0.0
2025-01-23 19:24:35.717385	167.2	48.3	-75.5	0.0
2025-01-23 19:24:36.842520	167.2	48.6	-75.8	0.0
2025-01-23 19:24:37.965316	167.3	49.0	-75.4	0.0
2025-01-23 19:24:39.088173	167.3	49.3	-75.3	0.0
2025-01-23 19:24:40.211426	167.4	49.7	-75.8	0.0
2025-01-23 19:24:41.333599	167.5	50.1	-75.6	0.0
2025-01-23 19:24:42.456074	167.5	50.4	-75.5	0.0
2025-01-23 19:24:43.577286	167.6	50.8	-75.5	0.0
2025-01-23 19:24:44.699922	167.7	51.2	-75.0	0.0
2025-01-23 19:24:45.822258	167.7	51.6	-75.0	0.0
2025-01-23 19:24:46.946480	167.8	51.9	-75.8	0.0
2025-01-23 19:24:48.067925	167.9	52.3	-75.3	0.0
2025-01-23 19:24:49.190947	168.0	52.7	-75.6	0.0
2025-01-23 19:24:50.314908	168.1	53.1	-75.2	0.0
2025-01-23 19:24:51.437670	168.1	53.5	-75.6	0.0
2025-01-23 19:24:52.559568	168.2	53.9	-75.7	0.0
2025-01-23 19:24:53.682375	168.3	54.3	-75.8	0.0
2025-01-23 19:24:54.805658	168.4	54.7	-75.9	0.0
2025-01-23 19:24:55.928840	168.5	55.1	-75.7	0.0
2025-01-23 19:24:57.049678	168.6	55.5	-75.3	0.0
2025-01-23 19:24:58.171502	168.7	55.9	-76.0	0.0
2025-01-23 19:24:59.294265	168.8	56.3	-75.7	0.0
2025-01-23 19:25:00.416617	168.9	56.8	-75.8	0.0
2025-01-23 19:25:01.538647	169.0	57.2	-75.4	0.0
2025-01-23 19:25:02.660766	169.1	57.6	-75.7	0.0
2025-01-23 19:25:03.783018	169.2	58.0	-75.4	0.0
2025-01-23 19:25:04.906206	169.3	58.5	-75.5	0.0
2025-01-23 19:25:06.027568	169.4	58.9	-75.5	0.0
2025-01-23 19:25:07.149241	169.5	59.3	-75.3	0.0
2025-01-23 19:25:08.271575	169.7	59.8	-75.1	0.0
2025-01-23 19:25:09.396135	169.8	60.2	-75.6	0.0
2025-01-23 19:25:10.521546	169.9	60.7	-75.4	0.0
2025-01-23 19:25:11.643649	170.1	61.1	-75.4	0.0
2025-01-23 19:25:12.764411	170.2	61.6	-75.6	0.0
2025-01-23 19:25:13.887824	170.4	62.0	-75.3	0.0
2025-01-23 19:25:15.010462	170.5	62.5	-75.1	0.0
2025-01-23 19:25:16.135246	170.7	62.9	-75.4	0.0
2025-01-23 19:25:17.256823	170.9	63.4	-75.7	0.0
2025-01-23 19:25:18.380168	171.0	63.9	-76.1	0.0
2025-01-23 19:25:19.504921	171.2	64.3	-76.0	0.0
2025-01-23 19:25:20.627259	171.4	64.8	-75.5	0.0
2025-01-23 19:25:21.749194	171.6	65.3	-75.6	0.0
2025-01-23 19:25:22.873667	171.8	65.8	-75.7	0.0
2025-01-23 19:25:23.996586	172.0	66.2	-75.5	0.0
2025-01-23 19:25:25.119200	172.2	66.7	-74.8	0.0
2025-01-23 19:25:26.244714	172.5	67.2	-75.3	0.0
2025-01-23 19:25:27.369122	172.7	67.7	-75.2	0.0
2025-01-23 19:25:28.490516	173.0	68.2	-75.2	0.0
2025-01-23 19:25:29.612261	173.2	68.7	-75.6	0.0
2025-01-23 19:25:30.735616	173.5	69.2	-75.5	0.0
2025-01-23 19:25:31.856645	173.8	69.7	-75.7	0.0
2025-01-23 19:25:32.981781	174.1	70.2	-75.2	0.0
2025-01-23 19:25:34.105515	174.4	70.7	-75.4	0.0
2025-01-23 19:25:35.226876	174.8	71.2	-75.4	0.0
2025-01-23 19:25:36.351897	175.2	71.7	-75.6	0.0
2025-01-23 19:25:37.475304	175.6	72.2	-75.7	0.0
2025-01-23 19:25:38.600202	176.0	72.7	-76.1	0.0
2025-01-23 19:25:39.722214	176.4	73.2	-75.6	0.0
2025-01-23 19:25:40.845917	176.9	73.7	-75.4	0.0
2025-01-23 19:25:41.967386	177.4	74.2	-75.3	0.0
2025-01-23 19:25:43.092417	177.9	74.7	-76.0	0.0
2025-01-23 19:25:44.214795	178.5	75.2	-75.6	0.0
2025-01-23 19:25:45.337202	179.1	75.8	-75.3	0.0
2025-01-23 19:25:46.461245	179.8	76.3	-75.1	0.0
2025-01-23 19:25:47.585016	180.5	76.8	-74.9	0.0
2025-01-23 19:25:48.708794	181.2	77.3	-75.2	0.0
2025-01-23 19:25:49.831965	182.1	77.8	-75.3	0.0
2025-01-23 19:25:50.954879	183.0	78.3	-75.0	0.0
2025-01-23 19:25:52.077744	184.0	78.8	-75.7	0.0
2025-01-23 19:25:53.200336	185.1	79.3	-75.0	0.0
2025-01-23 19:25:54.325196	186.3	79.8	-75.5	0.0
2025-01-23 19:25:55.447833	187.6	80.3	-75.7	0.0
2025-01-23 19:25:56.570948	189.1	80.8	-75.6	0.0
2025-01-23 19:25:57.696678	190.8	81.3	-75.0	0.0
2025-01-23 19:25:58.821171	192.6	81.8	-75.0	0.0
2025-01-23 19:25:59.945740	194.7	82.3	-75.8	0.0
2025-01-23 19:26:01.068987	197.1	82.7	-75.5	0.0
2025-01-23 19:26:02.192263	199.8	83.2	-75.5	0.0
2025-01-23 19:26:03.317618	202.8	83.6	-75.6	0.0
2025-01-23 19:26:04.439220	206.3	84.1	-75.3	0.0
2025-01-23 19:26:05.562040	210.3	84.4	-75.0	0.0
2025-01-23 19:26:06.685895	214.9	84.8	-75.1	0.0
2025-01-23 19:26:07.808063	220.1	85.1	-75.9	0.0
2025-01-23 19:26:08.929698	226.1	85.4	-75.1	0.0
2025-01-23 19:26:10.055340	232.7	85.6	-75.5	0.0
2025-01-23 19:26:11.177182	239.9	85.8	-75.5	0.0
2025-01-23 19:26:12.298514	247.5	85.9	-74.9	0.0
2025-01-23 19:26:13.422751	255.3	85.9	-75.9	0.0
2025-01-23 19:26:14.546512	263.1	85.8	-75.3	0.0
2025-01-23 19:26:15.668027	270.4	85.7	-75.2	0.0
2025-01-23 19:26:16.791378	277.2	85.5	-75.1	0.0
2025-01-23 19:26:17.915491	283.4	85.2	-75.2	0.0
2025-01-23 19:26:19.038693	288.8	84.9	-74.9	0.0
2025-01-23 19:26:20.161608	293.6	84.6	-75.8	0.0
2025-01-23 19:26:21.286778	297.8	84.2	-75.1	0.0
2025-01-23 19:26:22.410880	301.5	83.8	-75.9	0.0
2025-01-23 19:26:23.535982	304.7	83.3	-75.5	0.0
2025-01-23 19:26:24.658818	307.5	82.9	-75.5	0.0
2025-01-23 19:26:25.781982	309.9	82.4	-75.9	0.0
2025-01-23 19:26:26.904998	312.1	82.0	-75.9	0.0
2025-01-23 19:26:28.028405	314.0	81.5	-75.6	0.0
2025-01-23 19:26:29.151841	315.7	81.0	-75.6	0.0
2025-01-23 19:26:30.275043	317.3	80.5	-75.7	0.0
2025-01-23 19:26:31.399645	318.6	80.0	-75.7	0.0
2025-01-23 19:26:32.523365	319.9	79.5	-75.6	0.0
2025-01-23 19:26:33.645370	321.0	79.0	-75.8	0.0
2025-01-23 19:26:34.768239	322.0	78.5	-75.8	0.0
2025-01-23 19:26:35.890516	323.0	78.0	-75.6	0.0
2025-01-23 19:26:37.013212	323.9	77.5	-75.8	0.0
2025-01-23 19:26:38.136759	324.6	76.9	-75.9	0.0
2025-01-23 19:26:39.260833	325.4	76.4	-75.5	0.0
2025-01-23 19:26:40.383360	326.1	75.9	-76.0	0.0
2025-01-23 19:26:41.507886	326.7	75.4	-76.3	0.0
2025-01-23 19:26:42.629744	327.3	74.9	-75.7	0.0
2025-01-23 19:26:43.754042	327.8	74.4	-75.9	0.0
2025-01-23 19:26:44.876952	328.3	73.9	-75.7	0.0
2025-01-23 19:26:46.000590	328.8	73.4	-76.0	0.0
2025-01-23 19:26:47.123396	329.3	72.9	-75.6	0.0
2025-01-23 19:26:48.246159	329.7	72.3	-75.8	0.0
2025-01-23 19:26:49.369522	330.1	71.8	-76.3	0.0
2025-01-23 19:26:50.490954	330.4	71.3	-75.7	0.0
2025-01-23 19:26:51.613695	330.8	70.8	-76.0	0.0
2025-01-23 19:26:52.738130	331.1	70.3	-75.7	0.0
2025-01-23 19:26:53.859033	331.4	69.8	-75.8	0.0
2025-01-23 19:26:54.981673	331.7	69.3	-76.0	0.0
2025-01-23 19:26:56.106816	332.0	68.8	-76.2	0.0
2025-01-23 19:26:57.228425	332.3	68.4	-75.6	0.0
2025-01-23 19:26:58.351850	332.6	67.9	-75.2	0.0
2025-01-23 19:26:59.475559	332.8	67.4	-75.7	0.0
2025-01-23 19:27:00.596578	333.1	66.9	-75.2	0.0
2025-01-23 19:27:01.720758	333.3	66.4	-74.7	0.0
2025-01-23 19:27:02.846115	333.5	65.9	-75.7	0.0
2025-01-23 19:27:03.971858	333.7	65.4	-75.5	0.0
2025-01-23 19:27:05.095944	333.9	65.0	-75.1	0.0
2025-01-23 19:27:06.217648	334.1	64.5	-75.8	0.0
2025-01-23 19:27:07.340356	334.3	64.0	-76.0	0.0
2025-01-23 19:27:08.463951	334.5	63.6	-75.6	0.0
2025-01-23 19:27:09.586197	334.6	63.1	-75.6	0.0
2025-01-23 19:27:10.708860	334.8	62.6	-75.6	0.0
2025-01-23 19:27:11.831523	334.9	62.2	-75.1	0.0
2025-01-23 19:27:12.952831	335.1	61.7	-75.5	0.0
2025-01-23 19:27:14.077032	335.2	61.3	-74.8	0.0
2025-01-23 19:27:15.198880	335.4	60.8	-75.6	0.0
2025-01-23 19:27:16.321075	335.5	60.4	-75.8	0.0
2025-01-23 19:27:17.443849	335.6	59.9	-75.7	0.0
2025-01-23 19:27:18.567704	335.8	59.5	-75.7	0.0
2025-01-23 19:27:19.691699	335.9	59.1	-75.2	0.0
2025-01-23 19:27:20.817480	336.0	58.6	-75.4	0.0
2025-01-23 19:27:21.940169	336.1	58.2	-75.5	0.0
2025-01-23 19:27:23.064740	336.2	57.8	-75.4	0.0
2025-01-23 19:27:24.188404	336.4	57.3	-75.6	0.0
2025-01-23 19:27:25.310113	336.5	56.9	-75.2	0.0
2025-01-23 19:27:26.434358	336.6	56.5	-75.9	0.0
2025-01-23 19:27:27.557416	336.7	56.1	-76.1	0.0
2025-01-23 19:27:28.681826	336.8	55.7	-75.8	0.0
2025-01-23 19:27:29.806781	336.9	55.2	-75.7	0.0
2025-01-23 19:27:30.930994	336.9	54.8	-75.7	0.0
2025-01-23 19:27:32.056441	337.0	54.4	-75.9	0.0
2025-01-23 19:27:33.179354	337.1	54.0	-74.9	0.0
2025-01-23 19:27:34.305212	337.2	53.6	-76.0	0.0
2025-01-23 19:27:35.425166	337.3	53.2	-75.2	0.0
2025-01-23 19:27:36.548734	337.4	52.8	-75.5	0.0
2025-01-23 19:27:37.670260	337.4	52.5	-75.4	0.0
2025-01-23 19:27:38.794855	337.5	52.1	-75.2	0.0
2025-01-23 19:27:39.918549	337.6	51.7	-75.4	0.0
2025-01-23 19:27:41.042709	337.7	51.3	-75.2	0.0
2025-01-23 19:27:42.165190	337.7	50.9	-75.4	0.0
2025-01-23 19:27:43.287811	337.8	50.6	-75.2	0.0
2025-01-23 19:27:44.409032	337.9	50.2	-75.2	0.0
2025-01-23 19:27:45.533603	337.9	49.8	-75.7	0.0
2025-01-23 19:27:46.655465	338.0	49.5	-75.3	0.0
2025-01-23 19:27:47.778791	338.1	49.1	-75.4	0.0
2025-01-23 19:27:48.903444	338.1	48.7	-75.9	0.0
2025-01-23 19:27:50.026582	338.2	48.4	-75.7	0.0
2025-01-23 19:27:51.149555	338.3	48.0	-75.4	0.0
2025-01-23 19:27:52.274559	338.3	47.7	-75.7	0.0
2025-01-23 19:27:53.395266	338.4	47.3	-75.5	0.0
2025-01-23 19:27:54.518703	338.4	47.0	-75.7	0.0
2025-01-23 19:27:55.641742	338.5	46.6	-75.5	0.0
2025-01-23 19:27:56.765754	338.5	46.3	-76.0	0.0
2025-01-23 19:27:57.888324	338.6	46.0	-75.6	0.0
2025-01-23 19:27:59.010736	338.6	45.6	-75.7	0.0
2025-01-23 19:28:00.135991	338.7	45.3	-75.8	0.0
2025-01-23 19:28:01.261776	338.7	45.0	-75.5	0.0
2025-01-23 19:28:02.385026	338.8	44.6	-76.0	0.0
2025-01-23 19:28:03.510630	338.8	44.3	-75.6	0.0
2025-01-23 19:28:04.633951	338.9	44.0	-75.9	0.0
2025-01-23 19:28:05.755457	338.9	43.7	-75.7	0.0
2025-01-23 19:28:06.880285	339.0	43.4	-75.5	0.0
2025-01-23 19:28:08.003378	339.0	43.0	-75.6	0.0
2025-01-23 19:28:09.125693	339.1	42.7	-75.3	0.0
2025-01-23 19:28:10.247638	339.1	42.4	-75.4	0.0
2025-01-23 19:28:11.369972	339.1	42.1	-75.6	0.0
2025-01-23 19:28:12.492359	339.2	41.8	-75.8	0.0
2025-01-23 19:28:13.615812	339.2	41.5	-75.3	0.0
2025-01-23 19:28:14.740750	339.3	41.2	-75.1	0.0
2025-01-23 19:28:15.862967	339.3	40.9	-75.9	0.0
2025-01-23 19:28:16.985617	339.3	40.6	-75.5	0.0
2025-01-23 19:28:18.109313	339.4	40.3	-75.5	0.0
2025-01-23 19:28:19.233657	339.4	40.0	-75.4	0.0
2025-01-23 19:28:20.356767	339.5	39.8	-75.2	0.0
2025-01-23 19:28:21.480349	339.5	39.5	-75.3	0.0
2025-01-23 19:28:22.604547	339.5	39.2	-75.8	0.0
2025-01-23 19:28:23.727679	339.6	38.9	-75.7	0.0
2025-01-23 19:28:24.851556	339.6	38.6	-76.0	0.0
2025-01-23 19:28:25.974310	339.6	38.4	-75.9	0.0
2025-01-23 19:28:27.097265	339.7	38.1	-75.1	0.0
2025-01-23 19:28:28.220554	339.7	37.8	-76.0	0.0
2025-01-23 19:28:29.343170	339.7	37.5	-75.4	0.0
2025-01-23 19:28:30.466038	339.8	37.3	-75.1	0.0
2025-01-23 19:28:31.587966	339.8	37.0	-75.0	0.0
2025-01-23 19:28:32.711175	339.8	36.8	-75.4	0.0
2025-01-23 19:28:33.834117	339.9	36.5	-75.3	0.0
2025-01-23 19:28:34.957654	339.9	36.2	-75.4	0.0
2025-01-23 19:28:36.082064	339.9	36.0	-75.2	0.0
2025-01-23 19:28:37.201926	340.0	35.7	-75.2	0.0
2025-01-23 19:28:38.323158	340.0	35.5	-75.4	0.0
2025-01-23 19:28:39.446682	340.0	35.2	-75.3	0.0
2025-01-23 19:28:40.568981	340.0	35.0	-75.0	0.0
2025-01-23 19:28:41.690525	340.1	34.7	-75.1	0.0
2025-01-23 19:28:42.813380	340.1	34.5	-75.0	0.0
2025-01-23 19:28:43.935576	340.1	34.2	-74.9	0.0
2025-01-23 19:28:45.059390	340.2	34.0	-75.7	0.0
2025-01-23 19:28:46.180576	340.2	33.8	-75.7	0.0
2025-01-23 19:28:47.303405	340.2	33.5	-76.1	0.0
2025-01-23 19:28:48.424997	340.2	33.3	-75.2	0.0
2025-01-23 19:28:49.547589	340.3	33.1	-76.0	0.0
2025-01-23 19:28:50.669298	340.3	32.8	-75.6	0.0
2025-01-23 19:28:51.790891	340.3	32.6	-76.1	0.0
2025-01-23 19:28:52.914434	340.3	32.4	-75.8	0.0
2025-01-23 19:28:54.037963	340.4	32.1	-75.8	0.0
2025-01-23 19:28:55.160666	340.4	31.9	-75.6	0.0
2025-01-23 19:28:56.282540	340.4	31.7	-75.8	0.0
2025-01-23 19:28:57.406024	340.4	31.5	-75.4	0.0
2025-01-23 19:28:58.528933	340.5	31.3	-75.5	0.0
2025-01-23 19:28:59.652791	340.5	31.0	-75.6	0.0
2025-01-23 19:29:00.775396	340.5	30.8	-75.8	0.0
2025-01-23 19:29:01.898044	340.5	30.6	-76.0	0.0
2025-01-23 19:29:03.020224	340.5	30.4	-75.4	0.0
2025-01-23 19:29:04.142593	340.6	30.2	-76.0	0.0
2025-01-23 19:29:05.263210	340.6	30.0	-75.8	0.0
2025-01-23 19:29:06.383858	340.6	29.8	-76.1	0.0
2025-01-23 19:29:07.505836	340.6	29.6	-76.2	0.0
2025-01-23 19:29:08.628578	340.7	29.3	-76.1	0.0
2025-01-23 19:29:09.751940	340.7	29.1	-76.0	0.0
2025-01-23 19:29:10.875566	340.7	28.9	-76.1	0.0
2025-01-23 19:29:11.999009	340.7	28.7	-75.7	0.0
2025-01-23 19:29:13.121788	340.7	28.5	-75.7	0.0
2025-01-23 19:29:14.245328	340.8	28.3	-75.9	0.0
2025-01-23 19:29:15.368726	340.8	28.1	-75.4	0.0
2025-01-23 19:29:16.490555	340.8	27.9	-75.7	0.0
2025-01-23 19:29:17.613180	340.8	27.8	-76.0	0.0
2025-01-23 19:29:18.736647	340.8	27.6	-76.1	0.0
2025-01-23 19:29:19.860194	340.9	27.4	-76.0	0.0
2025-01-23 19:29:20.983487	340.9	27.2	-75.6	0.0
2025-01-23 19:29:22.105295	340.9	27.0	-75.6	0.0
2025-01-23 19:29:23.224965	340.9	26.8	-75.5	0.0
2025-01-23 19:29:24.346691	340.9	26.6	-75.9	0.0
2025-01-23 19:29:25.469161	341.0	26.4	-75.7	0.0
2025-01-23 19:29:26.590654	341.0	26.2	-76.1	0.0
2025-01-23 19:29:27.713536	341.0	26.1	-76.0	0.0
2025-01-23 19:29:28.834697	341.0	25.9	-75.8	0.0
2025-01-23 19:29:29.958661	341.0	25.7	-75.8	0.0
2025-01-23 19:29:31.080023	341.0	25.5	-76.0	0.0
2025-01-23 19:29:32.202737	341.1	25.3	-75.6	0.0
2025-01-23 19:29:33.327394	341.1	25.2	-75.2	0.0
2025-01-23 19:29:34.450784	341.1	25.0	-75.5	0.0
2025-01-23 19:29:35.575511	341.1	24.8	-75.4	0.0
2025-01-23 19:29:36.697380	341.1	24.6	-75.5	0.0
2025-01-23 19:29:37.820494	341.2	24.5	-75.4	0.0
2025-01-23 19:29:38.943132	341.2	24.3	-75.6	0.0
2025-01-23 19:29:40.063691	341.2	24.1	-75.7	0.0
2025-01-23 19:29:41.186166	341.2	24.0	-75.8	0.0
2025-01-23 19:29:42.307702	341.2	23.8	-75.4	0.0
2025-01-23 19:29:43.430527	341.2	23.6	-75.5	0.0
2025-01-23 19:29:44.553764	341.3	23.5	-76.2	0.0
2025-01-23 19:29:45.676552	341.3	23.3	-75.6	0.0
2025-01-23 19:29:46.798877	341.3	23.1	-75.0	0.0
2025-01-23 19:29:47.923404	341.3	23.0	-75.5	0.0
2025-01-23 19:29:49.046852	341.3	22.8	-75.8	0.0
2025-01-23 19:29:50.168180	341.3	22.6	-76.0	0.0
2025-01-23 19:29:51.292284	341.3	22.5	-75.7	0.0
2025-01-23 19:29:52.413804	341.4	22.3	-75.7	0.0
2025-01-23 19:29:53.537161	341.4	22.2	-76.3	0.0
2025-01-23 19:29:54.659397	341.4	22.0	-75.4	0.0
2025-01-23 19:29:55.781936	341.4	21.9	-75.7	0.0
2025-01-23 19:29:56.908241	341.4	21.7	-75.4	0.0
2025-01-23 19:29:58.030255	341.4	21.5	-75.6	0.0
2025-01-23 19:29:59.153989	341.5	21.4	-75.4	0.0
2025-01-23 19:30:00.276383	341.5	21.2	-75.2	0.0
2025-01-23 19:30:01.399471	341.5	21.1	-75.8	0.0
2025-01-23 19:30:02.521518	341.5	20.9	-75.9	0.0
2025-01-23 19:30:03.647370	341.5	20.8	-75.9	0.0
2025-01-23 19:30:04.769392	341.5	20.6	-75.5	0.0
2025-01-23 19:30:05.894193	341.5	20.5	-75.5	0.0
2025-01-23 19:30:07.019283	341.6	20.3	-75.4	0.0
2025-01-23 19:30:08.141613	341.6	20.2	-75.9	0.0
2025-01-23 19:30:09.264259	341.6	20.1	-75.7	0.0
2025-01-23 19:30:10.386612	341.6	19.9	-75.6	0.0
2025-01-23 19:30:11.510666	341.6	19.8	-75.9	0.0
2025-01-23 19:30:12.632652	341.6	19.6	-75.7	0.0
2025-01-23 19:30:13.755852	341.6	19.5	-75.6	0.0
2025-01-23 19:30:14.877170	341.7	19.3	-75.2	0.0
2025-01-23 19:30:15.997672	341.7	19.2	-76.0	0.0
2025-01-23 19:30:17.120606	341.7	19.1	-75.8	0.0
2025-01-23 19:30:18.244488	341.7	18.9	-75.3	0.0
2025-01-23 19:30:19.365346	341.7	18.8	-76.1	0.0
2025-01-23 19:30:20.489176	341.7	18.7	-75.8	0.0
2025-01-23 19:30:21.612398	341.7	18.5	-76.2	0.0
2025-01-23 19:30:22.733737	341.7	18.4	-75.9	0.0
2025-01-23 19:30:23.859168	341.8	18.2	-76.0	0.0
2025-01-23 19:30:24.982763	341.8	18.1	-76.0	0.0
2025-01-23 19:30:26.107367	341.8	18.0	-76.2	0.0
2025-01-23 19:30:27.229635	341.8	17.8	-76.0	0.0
2025-01-23 19:30:28.353281	341.8	17.7	-76.1	0.0
2025-01-23 19:30:29.477788	341.8	17.6	-75.8	0.0
2025-01-23 19:30:30.600981	341.8	17.4	-76.2	0.0
2025-01-23 19:30:31.725121	341.8	17.3	-75.8	0.0
2025-01-23 19:30:32.848672	341.9	17.2	-75.7	0.0
2025-01-23 19:30:33.970181	341.9	17.1	-75.9	0.0
2025-01-23 19:30:35.092830	341.9	16.9	-75.9	0.0
2025-01-23 19:30:36.217521	341.9	16.8	-75.3	0.0
2025-01-23 19:30:37.341195	341.9	16.7	-76.1	0.0
2025-01-23 19:30:38.466022	341.9	16.6	-76.1	0.0
2025-01-23 19:30:39.589116	341.9	16.4	-76.1	0.0
2025-01-23 19:30:40.711904	341.9	16.3	-76.1	0.0
2025-01-23 19:30:41.834811	342.0	16.2	-75.8	0.0
2025-01-23 19:30:42.956098	342.0	16.1	-76.2	0.0
2025-01-23 19:30:44.078005	342.0	15.9	-75.9	0.0
2025-01-23 19:30:45.201025	342.0	15.8	-75.3	0.0
2025-01-23 19:30:46.323479	342.0	15.7	-75.5	0.0
2025-01-23 19:30:47.445369	342.0	15.6	-75.9	0.0
2025-01-23 19:30:48.569025	342.0	15.4	-76.1	0.0
2025-01-23 19:30:49.694231	342.0	15.3	-75.6	0.0
2025-01-23 19:30:50.819908	342.0	15.2	-75.4	0.0
2025-01-23 19:30:51.943168	342.1	15.1	-75.8	0.0
2025-01-23 19:30:53.065832	342.1	15.0	-76.1	0.0
2025-01-23 19:30:54.187581	342.1	14.9	-75.4	0.0
2025-01-23 19:30:55.309869	342.1	14.7	-76.1	0.0
2025-01-23 19:30:56.434292	342.1	14.6	-75.7	0.0
2025-01-23 19:30:57.557572	342.1	14.5	-76.0	0.0
2025-01-23 19:30:58.680768	342.1	14.4	-75.7	0.0
2025-01-23 19:30:59.803175	342.1	14.3	-75.8	0.0
2025-01-23 19:31:00.926490	342.1	14.2	-76.0	0.0
2025-01-23 19:31:02.050343	342.2	14.0	-76.0	0.0
2025-01-23 19:31:03.171617	342.2	13.9	-75.3	0.0
2025-01-23 19:31:04.294621	342.2	13.8	-75.5	0.0
2025-01-23 19:31:05.417384	342.2	13.7	-75.9	0.0
2025-01-23 19:31:06.540711	342.2	13.6	-75.9	0.0
2025-01-23 19:31:07.664020	342.2	13.5	-75.7	0.0
2025-01-23 19:31:08.786292	342.2	13.4	-75.2	0.0
2025-01-23 19:31:09.908797	342.2	13.3	-75.5	0.0
2025-01-23 19:31:11.031076	342.2	13.2	-75.9	0.0
2025-01-23 19:31:12.151507	342.3	13.0	-75.0	0.0
2025-01-23 19:31:13.277103	342.3	12.9	-75.8	0.0
2025-01-23 19:31:14.399347	342.3	12.8	-76.0	0.0
2025-01-23 19:31:15.522290	342.3	12.7	-75.9	0.0
2025-01-23 19:31:16.647508	342.3	12.6	-75.8	0.0
2025-01-23 19:31:17.771150	342.3	12.5	-75.7	0.0
2025-01-23 19:31:18.894716	342.3	12.4	-75.6	0.0
2025-01-23 19:31:20.018047	342.3	12.3	-76.1	0.0
2025-01-23 19:31:21.141155	342.3	12.2	-75.8	0.0
2025-01-23 19:31:22.264410	342.3	12.1	-76.0	0.0
2025-01-23 19:31:23.387672	342.4	12.0	-75.9	0.0
2025-01-23 19:31:24.510190	342.4	11.9	-75.8	0.0
2025-01-23 19:31:25.632384	342.4	11.8	-75.7	0.0
2025-01-23 19:31:26.755210	342.4	11.7	-76.0	0.0
2025-01-23 19:31:27.878132	342.4	11.6	-75.7	0.0
2025-01-23 19:31:29.001459	342.4	11.5	-76.2	0.0
2025-01-23 19:31:30.122224	342.4	11.4	-75.9	0.0
2025-01-23 19:31:31.246376	342.4	11.3	-75.6	0.0
2025-01-23 19:31:32.369606	342.4	11.2	-75.9	0.0
2025-01-23 19:31:33.492865	342.4	11.1	-75.8	0.0
2025-01-23 19:31:34.618340	342.5	11.0	-75.7	0.0
2025-01-23 19:31:35.741800	342.5	10.9	-76.0	0.0
2025-01-23 19:31:36.863977	342.5	10.8	-75.7	0.0
2025-01-23 19:31:37.988072	342.5	10.7	-75.7	0.0
2025-01-23 19:31:39.110125	342.5	10.6	-76.1	0.0
2025-01-23 19:31:40.234609	342.5	10.5	-75.9	0.0
2025-01-23 19:31:41.358212	342.5	10.4	-75.8	0.0
2025-01-23 19:31:42.482297	342.5	10.3	-75.8	0.0
2025-01-23 19:31:43.607966	342.5	10.2	-75.9	0.0
2025-01-23 19:31:44.729737	342.5	10.1	-75.8	0.0
2025-01-23 19:31:45.857565	342.6	10.0	-75.1	0.0
#Closed at: 2025-01-23 19:20:36.085593