passes_logs/2025/01/23/planumMaritime01/planumMaritime01__20250123_165945_METOP-B_rec.log

#Pass ID: 20250123_165945_METOP-B
#Satellite: METOP-B
#Configuration: METOP-B
#Start time: 2025-01-23 16:59:50.083242

#LorettStation: 1.0.0 05.05.2024
#Station: planumMaritime01
#Location: 37.49445 lon 55.92918 lat
#TLE: 1 38771U 12049A   25022.22192915  .00000342  00000+0  17605-3 0  9994
#TLE: 2 38771  98.6000  80.1937 0001632  73.2603 286.8754 14.21415579640663

#Time	Az	El	Level	SNR
2025-01-23 16:59:52.246657	133.5	10.2	-76.5	0.0
2025-01-23 16:59:53.371567	133.4	10.3	-76.0	0.0
2025-01-23 16:59:54.495110	133.3	10.4	-75.5	0.0
2025-01-23 16:59:55.618119	133.3	10.5	-76.1	0.0
2025-01-23 16:59:56.741419	133.2	10.6	-76.2	0.0
2025-01-23 16:59:57.866793	133.1	10.7	-75.1	0.0
2025-01-23 16:59:58.988114	133.1	10.8	-75.3	0.0
2025-01-23 17:00:00.110052	133.0	10.8	-75.6	0.0
2025-01-23 17:00:01.234028	132.9	10.9	-75.5	0.0
2025-01-23 17:00:02.356605	132.9	11.0	-75.5	0.0
2025-01-23 17:00:03.478849	132.8	11.1	-75.2	0.0
2025-01-23 17:00:04.602417	132.7	11.2	-75.7	0.0
2025-01-23 17:00:05.725359	132.7	11.3	-75.3	0.0
2025-01-23 17:00:06.846336	132.6	11.4	-75.5	0.0
2025-01-23 17:00:07.969063	132.5	11.5	-75.2	0.0
2025-01-23 17:00:09.091731	132.4	11.6	-75.5	0.0
2025-01-23 17:00:10.215156	132.4	11.7	-75.8	0.0
2025-01-23 17:00:11.337820	132.3	11.8	-76.0	0.0
2025-01-23 17:00:12.460259	132.2	11.9	-76.1	0.0
2025-01-23 17:00:13.582236	132.2	12.0	-75.6	0.0
2025-01-23 17:00:14.706133	132.1	12.1	-76.2	0.0
2025-01-23 17:00:15.828867	132.0	12.2	-75.2	0.0
2025-01-23 17:00:16.950707	131.9	12.3	-75.1	0.0
2025-01-23 17:00:18.072056	131.9	12.4	-75.6	0.0
2025-01-23 17:00:19.195864	131.8	12.5	-75.8	0.0
2025-01-23 17:00:20.319677	131.7	12.6	-76.3	0.0
2025-01-23 17:00:21.442804	131.6	12.7	-75.7	0.0
2025-01-23 17:00:22.566607	131.6	12.8	-75.5	0.0
2025-01-23 17:00:23.693046	131.5	13.0	-75.8	0.0
2025-01-23 17:00:24.814386	131.4	13.1	-76.5	0.0
2025-01-23 17:00:25.940034	131.3	13.2	-75.6	0.0
2025-01-23 17:00:27.063288	131.2	13.3	-75.9	0.0
2025-01-23 17:00:28.186225	131.2	13.4	-76.2	0.0
2025-01-23 17:00:29.309232	131.1	13.5	-76.2	0.0
2025-01-23 17:00:30.433730	131.0	13.6	-76.2	0.0
2025-01-23 17:00:31.555867	130.9	13.7	-76.9	0.0
2025-01-23 17:00:32.679691	130.8	13.8	-76.8	0.0
2025-01-23 17:00:33.801277	130.7	13.9	-76.9	0.0
2025-01-23 17:00:34.923947	130.7	14.0	-76.3	0.0
2025-01-23 17:00:36.047584	130.6	14.1	-75.6	0.0
2025-01-23 17:00:37.170036	130.5	14.2	-75.8	0.0
2025-01-23 17:00:38.294523	130.4	14.3	-76.7	0.0
2025-01-23 17:00:39.415206	130.3	14.5	-75.6	0.0
2025-01-23 17:00:40.536844	130.2	14.6	-75.4	0.0
2025-01-23 17:00:41.660796	130.1	14.7	-76.3	0.0
2025-01-23 17:00:42.785358	130.1	14.8	-75.3	0.0
2025-01-23 17:00:43.908702	130.0	14.9	-76.9	0.0
2025-01-23 17:00:45.031190	129.9	15.0	-77.0	0.0
2025-01-23 17:00:46.155542	129.8	15.1	-76.0	0.0
2025-01-23 17:00:47.278710	129.7	15.2	-77.1	0.0
2025-01-23 17:00:48.401857	129.6	15.3	-76.9	0.0
2025-01-23 17:00:49.526221	129.5	15.5	-75.7	0.0
2025-01-23 17:00:50.649855	129.4	15.6	-76.9	0.0
2025-01-23 17:00:51.771688	129.3	15.7	-75.8	0.0
2025-01-23 17:00:52.894311	129.2	15.8	-77.2	0.0
2025-01-23 17:00:54.017139	129.1	15.9	-77.1	0.0
2025-01-23 17:00:55.141029	129.0	16.0	-75.9	0.0
2025-01-23 17:00:56.262926	128.9	16.2	-75.6	0.0
2025-01-23 17:00:57.390087	128.8	16.3	-75.9	0.0
2025-01-23 17:00:58.515077	128.7	16.4	-76.2	0.0
2025-01-23 17:00:59.637864	128.6	16.5	-77.2	0.0
2025-01-23 17:01:00.762052	128.5	16.6	-76.8	0.0
2025-01-23 17:01:01.884644	128.4	16.7	-75.8	0.0
2025-01-23 17:01:03.005945	128.3	16.9	-75.7	0.0
2025-01-23 17:01:04.129377	128.2	17.0	-76.7	0.0
2025-01-23 17:01:05.252668	128.1	17.1	-76.4	0.0
2025-01-23 17:01:06.374016	128.0	17.2	-76.8	0.0
2025-01-23 17:01:07.499444	127.9	17.3	-77.0	0.0
2025-01-23 17:01:08.624320	127.8	17.5	-75.6	0.0
2025-01-23 17:01:09.747565	127.7	17.6	-76.4	0.0
2025-01-23 17:01:10.871596	127.6	17.7	-76.2	0.0
2025-01-23 17:01:11.995061	127.5	17.8	-77.1	0.0
2025-01-23 17:01:13.119060	127.4	18.0	-76.0	0.0
2025-01-23 17:01:14.242033	127.3	18.1	-75.6	0.0
2025-01-23 17:01:15.364884	127.2	18.2	-77.2	0.0
2025-01-23 17:01:16.490318	127.1	18.3	-76.4	0.0
2025-01-23 17:01:17.614063	126.9	18.5	-76.2	0.0
2025-01-23 17:01:18.737635	126.8	18.6	-76.7	0.0
2025-01-23 17:01:19.860557	126.7	18.7	-76.5	0.0
2025-01-23 17:01:20.984421	126.6	18.8	-76.3	0.0
2025-01-23 17:01:22.106163	126.5	19.0	-76.7	0.0
2025-01-23 17:01:23.228975	126.4	19.1	-77.5	0.0
2025-01-23 17:01:24.352831	126.2	19.2	-76.6	0.0
2025-01-23 17:01:25.475911	126.1	19.4	-77.1	0.0
2025-01-23 17:01:26.599525	126.0	19.5	-76.7	0.0
2025-01-23 17:01:27.722982	125.9	19.6	-76.4	0.0
2025-01-23 17:01:28.845871	125.7	19.8	-77.0	0.0
2025-01-23 17:01:29.967778	125.6	19.9	-76.6	0.0
2025-01-23 17:01:31.090496	125.5	20.0	-76.4	0.0
2025-01-23 17:01:32.212464	125.4	20.2	-76.4	0.0
2025-01-23 17:01:33.333285	125.2	20.3	-75.9	0.0
2025-01-23 17:01:34.457784	125.1	20.4	-76.7	0.0
2025-01-23 17:01:35.579624	125.0	20.6	-76.0	0.0
2025-01-23 17:01:36.703003	124.8	20.7	-76.5	0.0
2025-01-23 17:01:37.826647	124.7	20.8	-76.2	0.0
2025-01-23 17:01:38.948716	124.6	21.0	-76.0	0.0
2025-01-23 17:01:40.072355	124.4	21.1	-77.0	0.0
2025-01-23 17:01:41.194436	124.3	21.2	-77.1	0.0
2025-01-23 17:01:42.319488	124.2	21.4	-76.4	0.0
2025-01-23 17:01:43.441862	124.0	21.5	-76.3	0.0
2025-01-23 17:01:44.564554	123.9	21.7	-76.5	0.0
2025-01-23 17:01:45.686448	123.7	21.8	-76.4	0.0
2025-01-23 17:01:46.809749	123.6	21.9	-76.6	0.0
2025-01-23 17:01:47.934839	123.5	22.1	-75.6	0.0
2025-01-23 17:01:49.059136	123.3	22.2	-75.8	0.0
2025-01-23 17:01:50.180930	123.2	22.4	-76.7	0.0
2025-01-23 17:01:51.305009	123.0	22.5	-75.1	0.0
2025-01-23 17:01:52.427503	122.9	22.6	-75.3	0.0
2025-01-23 17:01:53.550294	122.7	22.8	-67.3	0.0
2025-01-23 17:01:54.674805	122.6	22.9	-68.0	0.0
2025-01-23 17:01:55.797921	122.4	23.1	-76.2	0.0
2025-01-23 17:01:56.922216	122.3	23.2	-76.6	0.0
2025-01-23 17:01:58.044408	122.1	23.4	-76.5	0.0
2025-01-23 17:01:59.165819	121.9	23.5	-76.3	0.0
2025-01-23 17:02:00.289173	121.8	23.7	-76.2	0.0
2025-01-23 17:02:01.412695	121.6	23.8	-76.2	0.0
2025-01-23 17:02:02.537049	121.5	24.0	-76.6	0.0
2025-01-23 17:02:03.660932	121.3	24.1	-76.8	0.0
2025-01-23 17:02:04.784010	121.1	24.3	-76.5	0.0
2025-01-23 17:02:05.905332	121.0	24.4	-76.8	0.0
2025-01-23 17:02:07.028725	120.8	24.6	-76.0	0.0
2025-01-23 17:02:08.154128	120.6	24.7	-76.0	0.0
2025-01-23 17:02:09.277871	120.4	24.9	-77.0	0.0
2025-01-23 17:02:10.402546	120.3	25.0	-76.5	0.0
2025-01-23 17:02:11.524686	120.1	25.2	-76.8	0.0
2025-01-23 17:02:12.647237	119.9	25.3	-76.1	0.0
2025-01-23 17:02:13.768945	119.7	25.5	-75.6	0.0
2025-01-23 17:02:14.893168	119.5	25.7	-77.2	0.0
2025-01-23 17:02:16.015468	119.4	25.8	-77.3	0.0
2025-01-23 17:02:17.138026	119.2	26.0	-75.7	0.0
2025-01-23 17:02:18.261917	119.0	26.1	-77.0	0.0
2025-01-23 17:02:19.386607	118.8	26.3	-77.1	0.0
2025-01-23 17:02:20.509894	118.6	26.4	-77.0	0.0
2025-01-23 17:02:21.631837	118.4	26.6	-76.0	0.0
2025-01-23 17:02:22.754769	118.2	26.8	-76.9	0.0
2025-01-23 17:02:23.877924	118.0	26.9	-76.1	0.0
2025-01-23 17:02:25.000243	117.8	27.1	-75.9	0.0
2025-01-23 17:02:26.121911	117.6	27.2	-76.5	0.0
2025-01-23 17:02:27.243311	117.4	27.4	-76.7	0.0
2025-01-23 17:02:28.365239	117.2	27.6	-75.8	0.0
2025-01-23 17:02:29.487656	117.0	27.7	-77.0	0.0
2025-01-23 17:02:30.609952	116.8	27.9	-76.8	0.0
2025-01-23 17:02:31.732629	116.6	28.1	-76.8	0.0
2025-01-23 17:02:32.855895	116.4	28.2	-76.7	0.0
2025-01-23 17:02:33.978125	116.2	28.4	-77.0	0.0
2025-01-23 17:02:35.101827	115.9	28.6	-76.4	0.0
2025-01-23 17:02:36.222736	115.7	28.7	-77.2	0.0
2025-01-23 17:02:37.345792	115.5	28.9	-76.8	0.0
2025-01-23 17:02:38.468115	115.3	29.1	-75.9	0.0
2025-01-23 17:02:39.592131	115.0	29.2	-75.9	0.0
2025-01-23 17:02:40.714726	114.8	29.4	-75.3	0.0
2025-01-23 17:02:41.838843	114.6	29.6	-77.4	0.0
2025-01-23 17:02:42.961113	114.3	29.7	-75.8	0.0
2025-01-23 17:02:44.084430	114.1	29.9	-75.9	0.0
2025-01-23 17:02:45.208146	113.9	30.1	-75.4	0.0
2025-01-23 17:02:46.330932	113.6	30.2	-76.4	0.0
2025-01-23 17:02:47.455182	113.4	30.4	-75.4	0.0
2025-01-23 17:02:48.579202	113.1	30.6	-75.8	0.0
2025-01-23 17:02:49.703371	112.9	30.8	-75.7	0.0
2025-01-23 17:02:50.826195	112.6	30.9	-75.5	0.0
2025-01-23 17:02:51.950562	112.4	31.1	-75.9	0.0
2025-01-23 17:02:53.074544	112.1	31.3	-75.4	0.0
2025-01-23 17:02:54.199356	111.8	31.4	-76.3	0.0
2025-01-23 17:02:55.322301	111.6	31.6	-76.7	0.0
2025-01-23 17:02:56.443942	111.3	31.8	-76.4	0.0
2025-01-23 17:02:57.567890	111.0	32.0	-76.8	0.0
2025-01-23 17:02:58.690505	110.8	32.1	-76.3	0.0
2025-01-23 17:02:59.815350	110.5	32.3	-76.6	0.0
2025-01-23 17:03:00.938648	110.2	32.5	-77.3	0.0
2025-01-23 17:03:02.060167	109.9	32.7	-77.3	0.0
2025-01-23 17:03:03.184526	109.6	32.8	-76.6	0.0
2025-01-23 17:03:04.307341	109.4	33.0	-77.4	0.0
2025-01-23 17:03:05.429789	109.1	33.2	-76.0	0.0
2025-01-23 17:03:06.554094	108.8	33.4	-77.1	0.0
2025-01-23 17:03:07.679109	108.5	33.6	-77.2	0.0
2025-01-23 17:03:08.801074	108.2	33.7	-77.3	0.0
2025-01-23 17:03:09.954622	107.9	33.9	-77.2	0.0
2025-01-23 17:03:11.078142	107.5	34.1	-76.9	0.0
2025-01-23 17:03:12.202426	107.2	34.3	-76.9	0.0
2025-01-23 17:03:13.327051	106.9	34.4	-77.5	0.0
2025-01-23 17:03:14.450524	106.6	34.6	-75.8	0.0
2025-01-23 17:03:15.572689	106.3	34.8	-75.9	0.0
2025-01-23 17:03:16.696753	105.9	35.0	-77.6	0.0
2025-01-23 17:03:17.821860	105.6	35.1	-77.6	0.0
2025-01-23 17:03:18.943931	105.3	35.3	-77.2	0.0
2025-01-23 17:03:20.066372	104.9	35.5	-76.6	0.0
2025-01-23 17:03:21.188805	104.6	35.7	-77.0	0.0
2025-01-23 17:03:22.310247	104.3	35.9	-76.4	0.0
2025-01-23 17:03:23.434069	103.9	36.0	-75.9	0.0
2025-01-23 17:03:24.555251	103.6	36.2	-76.1	0.0
2025-01-23 17:03:25.675694	103.2	36.4	-76.2	0.0
2025-01-23 17:03:26.798070	102.8	36.6	-76.5	0.0
2025-01-23 17:03:27.921064	102.5	36.7	-75.8	0.0
2025-01-23 17:03:29.040813	102.1	36.9	-76.9	0.0
2025-01-23 17:03:30.163412	101.7	37.1	-75.8	0.0
2025-01-23 17:03:31.286129	101.4	37.3	-76.0	0.0
2025-01-23 17:03:32.408933	101.0	37.4	-76.6	0.0
2025-01-23 17:03:33.531287	100.6	37.6	-77.1	0.0
2025-01-23 17:03:34.655105	100.2	37.8	-77.0	0.0
2025-01-23 17:03:35.777617	99.8	37.9	-75.8	0.0
2025-01-23 17:03:36.901002	99.4	38.1	-77.1	0.0
2025-01-23 17:03:38.026123	99.0	38.3	-77.5	0.0
2025-01-23 17:03:39.149064	98.6	38.4	-77.7	0.0
2025-01-23 17:03:40.274367	98.2	38.6	-77.3	0.0
2025-01-23 17:03:41.395516	97.8	38.8	-76.6	0.0
2025-01-23 17:03:42.518497	97.4	38.9	-77.7	0.0
2025-01-23 17:03:43.641592	97.0	39.1	-76.1	0.0
2025-01-23 17:03:44.765783	96.5	39.3	-77.0	0.0
2025-01-23 17:03:45.888578	96.1	39.4	-77.8	0.0
2025-01-23 17:03:47.011432	95.7	39.6	-76.1	0.0
2025-01-23 17:03:48.136147	95.2	39.8	-77.2	0.0
2025-01-23 17:03:49.259349	94.8	39.9	-76.4	0.0
2025-01-23 17:03:50.385171	94.4	40.1	-76.7	0.0
2025-01-23 17:03:51.508514	93.9	40.2	-76.7	0.0
2025-01-23 17:03:52.633035	93.4	40.4	-77.2	0.0
2025-01-23 17:03:53.756452	93.0	40.6	-76.9	0.0
2025-01-23 17:03:54.880761	92.5	40.7	-77.4	0.0
2025-01-23 17:03:56.004058	92.1	40.9	-77.3	0.0
2025-01-23 17:03:57.126983	91.6	41.0	-76.4	0.0
2025-01-23 17:03:58.248149	91.1	41.2	-76.6	0.0
2025-01-23 17:03:59.371138	90.6	41.3	-77.1	0.0
2025-01-23 17:04:00.495579	90.1	41.5	-77.0	0.0
2025-01-23 17:04:01.616844	89.6	41.6	-76.1	0.0
2025-01-23 17:04:02.740987	89.1	41.7	-76.3	0.0
2025-01-23 17:04:03.865037	88.6	41.9	-75.6	0.0
2025-01-23 17:04:04.990925	88.1	42.0	-76.9	0.0
2025-01-23 17:04:06.110301	87.6	42.1	-77.0	0.0
2025-01-23 17:04:07.235260	87.1	42.3	-77.7	0.0
2025-01-23 17:04:08.359561	86.6	42.4	-77.5	0.0
2025-01-23 17:04:09.483927	86.1	42.5	-77.1	0.0
2025-01-23 17:04:10.605878	85.6	42.7	-76.5	0.0
2025-01-23 17:04:11.728455	85.0	42.8	-75.5	0.0
2025-01-23 17:04:12.850233	84.5	42.9	-77.1	0.0
2025-01-23 17:04:13.973027	84.0	43.0	-76.8	0.0
2025-01-23 17:04:15.095788	83.4	43.2	-76.8	0.0
2025-01-23 17:04:16.219706	82.9	43.3	-75.5	0.0
2025-01-23 17:04:17.341662	82.3	43.4	-77.0	0.0
2025-01-23 17:04:18.466470	81.8	43.5	-75.7	0.0
2025-01-23 17:04:19.590884	81.2	43.6	-76.6	0.0
2025-01-23 17:04:20.711901	80.6	43.7	-77.7	0.0
2025-01-23 17:04:21.835427	80.1	43.8	-76.8	0.0
2025-01-23 17:04:22.960267	79.5	43.9	-77.7	0.0
2025-01-23 17:04:24.084401	78.9	44.0	-76.8	0.0
2025-01-23 17:04:25.207379	78.4	44.1	-77.1	0.0
2025-01-23 17:04:26.328820	77.8	44.2	-76.9	0.0
2025-01-23 17:04:27.451639	77.2	44.3	-77.2	0.0
2025-01-23 17:04:28.575732	76.6	44.3	-76.5	0.0
2025-01-23 17:04:29.699397	76.0	44.4	-77.3	0.0
2025-01-23 17:04:30.821728	75.4	44.5	-76.6	0.0
2025-01-23 17:04:31.943571	74.9	44.6	-77.0	0.0
2025-01-23 17:04:33.065930	74.3	44.6	-77.1	0.0
2025-01-23 17:04:34.188932	73.7	44.7	-77.5	0.0
2025-01-23 17:04:35.313198	73.1	44.8	-77.8	0.0
2025-01-23 17:04:36.436400	72.5	44.8	-77.4	0.0
2025-01-23 17:04:37.561386	71.8	44.9	-77.7	0.0
2025-01-23 17:04:38.682182	71.2	45.0	-78.1	0.0
2025-01-23 17:04:39.804979	70.6	45.0	-77.5	0.0
2025-01-23 17:04:40.927906	70.0	45.0	-77.6	0.0
2025-01-23 17:04:42.049702	69.4	45.1	-78.1	0.0
2025-01-23 17:04:43.171605	68.8	45.1	-77.7	0.0
2025-01-23 17:04:44.293685	68.2	45.2	-77.9	0.0
2025-01-23 17:04:45.417161	67.6	45.2	-77.7	0.0
2025-01-23 17:04:46.541472	66.9	45.2	-78.1	0.0
2025-01-23 17:04:47.666845	66.3	45.2	-77.8	0.0
2025-01-23 17:04:48.791095	65.7	45.3	-77.2	0.0
2025-01-23 17:04:49.912804	65.1	45.3	-77.8	0.0
2025-01-23 17:04:51.035717	64.5	45.3	-77.4	0.0
2025-01-23 17:04:52.160025	63.8	45.3	-76.7	0.0
2025-01-23 17:04:53.282896	63.2	45.3	-78.0	0.0
2025-01-23 17:04:54.404251	62.6	45.3	-76.6	0.0
2025-01-23 17:04:55.528000	62.0	45.3	-76.7	0.0
2025-01-23 17:04:56.651838	61.3	45.3	-76.9	0.0
2025-01-23 17:04:57.774007	60.7	45.3	-77.2	0.0
2025-01-23 17:04:58.898033	60.1	45.3	-77.1	0.0
2025-01-23 17:05:00.019945	59.5	45.3	-77.0	0.0
2025-01-23 17:05:01.141865	58.9	45.2	-78.3	0.0
2025-01-23 17:05:02.266461	58.2	45.2	-77.0	0.0
2025-01-23 17:05:03.390731	57.6	45.2	-76.7	0.0
2025-01-23 17:05:04.514985	57.0	45.2	-77.1	0.0
2025-01-23 17:05:05.637412	56.4	45.1	-77.7	0.0
2025-01-23 17:05:06.759168	55.8	45.1	-78.3	0.0
2025-01-23 17:05:07.882870	55.2	45.0	-77.4	0.0
2025-01-23 17:05:09.005698	54.6	45.0	-76.9	0.0
2025-01-23 17:05:10.130480	53.9	45.0	-75.7	0.0
2025-01-23 17:05:11.254797	53.3	44.9	-76.9	0.0
2025-01-23 17:05:12.378824	52.7	44.8	-76.8	0.0
2025-01-23 17:05:13.503561	52.1	44.8	-77.6	0.0
2025-01-23 17:05:14.626730	51.5	44.7	-78.0	0.0
2025-01-23 17:05:15.751384	50.9	44.7	-77.0	0.0
2025-01-23 17:05:16.875171	50.3	44.6	-77.2	0.0
2025-01-23 17:05:17.998050	49.7	44.5	-77.7	0.0
2025-01-23 17:05:19.119334	49.2	44.4	-78.4	0.0
2025-01-23 17:05:20.242237	48.6	44.4	-78.0	0.0
2025-01-23 17:05:21.364861	48.0	44.3	-78.1	0.0
2025-01-23 17:05:22.486909	47.4	44.2	-76.1	0.0
2025-01-23 17:05:23.610219	46.8	44.1	-77.9	0.0
2025-01-23 17:05:24.732346	46.3	44.0	-77.4	0.0
2025-01-23 17:05:25.857713	45.7	43.9	-77.5	0.0
2025-01-23 17:05:26.978806	45.1	43.8	-77.3	0.0
2025-01-23 17:05:28.101951	44.6	43.7	-77.6	0.0
2025-01-23 17:05:29.225702	44.0	43.6	-76.9	0.0
2025-01-23 17:05:30.349591	43.4	43.5	-77.7	0.0
2025-01-23 17:05:31.474182	42.9	43.4	-77.0	0.0
2025-01-23 17:05:32.595717	42.3	43.3	-77.8	0.0
2025-01-23 17:05:33.719417	41.8	43.2	-78.4	0.0
2025-01-23 17:05:34.841688	41.3	43.0	-77.3	0.0
2025-01-23 17:05:35.965819	40.7	42.9	-77.5	0.0
2025-01-23 17:05:37.090079	40.2	42.8	-77.7	0.0
2025-01-23 17:05:38.214245	39.7	42.7	-78.0	0.0
2025-01-23 17:05:39.334826	39.1	42.6	-76.5	0.0
2025-01-23 17:05:40.458832	38.6	42.4	-76.5	0.0
2025-01-23 17:05:41.579493	38.1	42.3	-77.2	0.0
2025-01-23 17:05:42.705553	37.6	42.2	-78.1	0.0
2025-01-23 17:05:43.828980	37.1	42.0	-77.5	0.0
2025-01-23 17:05:44.950622	36.6	41.9	-76.9	0.0
2025-01-23 17:05:46.073764	36.1	41.7	-77.3	0.0
2025-01-23 17:05:47.196061	35.6	41.6	-76.3	0.0
2025-01-23 17:05:48.319326	35.1	41.5	-77.4	0.0
2025-01-23 17:05:49.441821	34.6	41.3	-76.6	0.0
2025-01-23 17:05:50.563993	34.1	41.2	-77.6	0.0
2025-01-23 17:05:51.686958	33.6	41.0	-77.7	0.0
2025-01-23 17:05:52.808918	33.2	40.9	-77.2	0.0
2025-01-23 17:05:53.931849	32.7	40.7	-77.7	0.0
2025-01-23 17:05:55.053529	32.2	40.6	-76.6	0.0
2025-01-23 17:05:56.176900	31.8	40.4	-76.1	0.0
2025-01-23 17:05:57.299845	31.3	40.3	-77.1	0.0
2025-01-23 17:05:58.423408	30.9	40.1	-76.9	0.0
2025-01-23 17:05:59.545763	30.4	39.9	-77.3	0.0
2025-01-23 17:06:00.668398	30.0	39.8	-76.2	0.0
2025-01-23 17:06:01.791979	29.6	39.6	-77.2	0.0
2025-01-23 17:06:02.915444	29.1	39.5	-77.5	0.0
2025-01-23 17:06:04.040958	28.7	39.3	-76.8	0.0
2025-01-23 17:06:05.164435	28.3	39.1	-78.1	0.0
2025-01-23 17:06:06.288444	27.8	39.0	-77.5	0.0
2025-01-23 17:06:07.411805	27.4	38.8	-77.3	0.0
2025-01-23 17:06:08.534086	27.0	38.6	-77.0	0.0
2025-01-23 17:06:09.658520	26.6	38.5	-77.1	0.0
2025-01-23 17:06:10.782004	26.2	38.3	-76.9	0.0
2025-01-23 17:06:11.905380	25.8	38.1	-77.1	0.0
2025-01-23 17:06:13.030964	25.4	38.0	-76.5	0.0
2025-01-23 17:06:14.154068	25.0	37.8	-77.4	0.0
2025-01-23 17:06:15.277039	24.6	37.6	-77.2	0.0
2025-01-23 17:06:16.398542	24.3	37.5	-77.5	0.0
2025-01-23 17:06:17.519717	23.9	37.3	-76.5	0.0
2025-01-23 17:06:18.644178	23.5	37.1	-77.5	0.0
2025-01-23 17:06:19.768464	23.1	36.9	-77.7	0.0
2025-01-23 17:06:20.892892	22.8	36.8	-78.2	0.0
2025-01-23 17:06:22.017967	22.4	36.6	-78.1	0.0
2025-01-23 17:06:23.140620	22.0	36.4	-78.2	0.0
2025-01-23 17:06:24.264028	21.7	36.2	-77.8	0.0
2025-01-23 17:06:25.389364	21.3	36.1	-78.2	0.0
2025-01-23 17:06:26.511813	21.0	35.9	-76.7	0.0
2025-01-23 17:06:27.634803	20.6	35.7	-77.3	0.0
2025-01-23 17:06:28.761094	20.3	35.5	-77.4	0.0
2025-01-23 17:06:29.883345	20.0	35.4	-77.6	0.0
2025-01-23 17:06:31.005110	19.6	35.2	-77.2	0.0
2025-01-23 17:06:32.127374	19.3	35.0	-77.0	0.0
2025-01-23 17:06:33.250480	19.0	34.8	-77.5	0.0
2025-01-23 17:06:34.373960	18.7	34.7	-77.9	0.0
2025-01-23 17:06:35.496024	18.3	34.5	-77.6	0.0
2025-01-23 17:06:36.620193	18.0	34.3	-77.1	0.0
2025-01-23 17:06:37.741518	17.7	34.1	-78.1	0.0
2025-01-23 17:06:38.865110	17.4	34.0	-78.5	0.0
2025-01-23 17:06:39.989101	17.1	33.8	-77.9	0.0
2025-01-23 17:06:41.113254	16.8	33.6	-77.7	0.0
2025-01-23 17:06:42.236927	16.5	33.4	-76.3	0.0
2025-01-23 17:06:43.362706	16.2	33.2	-78.0	0.0
2025-01-23 17:06:44.485317	15.9	33.1	-78.1	0.0
2025-01-23 17:06:45.610460	15.6	32.9	-78.3	0.0
2025-01-23 17:06:46.733334	15.4	32.7	-77.6	0.0
2025-01-23 17:06:47.857622	15.1	32.5	-77.3	0.0
2025-01-23 17:06:48.980400	14.8	32.4	-76.1	0.0
2025-01-23 17:06:50.103699	14.5	32.2	-77.3	0.0
2025-01-23 17:06:51.227300	14.2	32.0	-76.6	0.0
2025-01-23 17:06:52.350691	14.0	31.9	-78.1	0.0
2025-01-23 17:06:53.472300	13.7	31.7	-78.3	0.0
2025-01-23 17:06:54.594096	13.4	31.5	-78.3	0.0
2025-01-23 17:06:55.719647	13.2	31.3	-77.9	0.0
2025-01-23 17:06:56.843136	12.9	31.2	-77.9	0.0
2025-01-23 17:06:57.967229	12.7	31.0	-77.2	0.0
2025-01-23 17:06:59.091847	12.4	30.8	-77.5	0.0
2025-01-23 17:07:00.216023	12.2	30.6	-77.6	0.0
2025-01-23 17:07:01.339603	11.9	30.5	-77.5	0.0
2025-01-23 17:07:02.462701	11.7	30.3	-77.7	0.0
2025-01-23 17:07:03.586489	11.4	30.1	-78.2	0.0
2025-01-23 17:07:04.708523	11.2	30.0	-77.7	0.0
2025-01-23 17:07:05.832765	11.0	29.8	-77.6	0.0
2025-01-23 17:07:06.956049	10.7	29.6	-77.7	0.0
2025-01-23 17:07:08.078178	10.5	29.5	-77.4	0.0
2025-01-23 17:07:09.202861	10.3	29.3	-77.0	0.0
2025-01-23 17:07:10.328278	10.0	29.1	-78.3	0.0
2025-01-23 17:07:11.449982	9.8	29.0	-77.6	0.0
2025-01-23 17:07:12.574169	9.6	28.8	-76.7	0.0
2025-01-23 17:07:13.697802	9.4	28.6	-77.5	0.0
2025-01-23 17:07:14.820629	9.1	28.5	-76.5	0.0
2025-01-23 17:07:15.944341	8.9	28.3	-77.2	0.0
2025-01-23 17:07:17.067401	8.7	28.1	-77.7	0.0
2025-01-23 17:07:18.189820	8.5	28.0	-77.4	0.0
2025-01-23 17:07:19.311968	8.3	27.8	-78.0	0.0
2025-01-23 17:07:20.437184	8.1	27.6	-77.2	0.0
2025-01-23 17:07:21.562484	7.9	27.5	-77.6	0.0
2025-01-23 17:07:22.684662	7.7	27.3	-77.6	0.0
2025-01-23 17:07:23.808281	7.5	27.2	-77.3	0.0
2025-01-23 17:07:24.928371	7.3	27.0	-77.7	0.0
2025-01-23 17:07:26.052981	7.1	26.8	-77.6	0.0
2025-01-23 17:07:27.174275	6.9	26.7	-77.7	0.0
2025-01-23 17:07:28.297136	6.7	26.5	-77.8	0.0
2025-01-23 17:07:29.420299	6.5	26.4	-77.5	0.0
2025-01-23 17:07:30.543880	6.3	26.2	-77.1	0.0
2025-01-23 17:07:31.667178	6.1	26.0	-77.3	0.0
2025-01-23 17:07:32.791031	5.9	25.9	-77.9	0.0
2025-01-23 17:07:33.915809	5.8	25.7	-77.2	0.0
2025-01-23 17:07:35.038571	5.6	25.6	-78.0	0.0
2025-01-23 17:07:36.163837	5.4	25.4	-77.2	0.0
2025-01-23 17:07:37.287468	5.2	25.3	-77.5	0.0
2025-01-23 17:07:38.409997	5.1	25.1	-78.2	0.0
2025-01-23 17:07:39.536638	4.9	25.0	-78.3	0.0
2025-01-23 17:07:40.660164	4.7	24.8	-78.0	0.0
2025-01-23 17:07:41.783805	4.5	24.7	-78.4	0.0
2025-01-23 17:07:42.907316	4.4	24.5	-77.7	0.0
2025-01-23 17:07:44.030967	4.2	24.4	-77.7	0.0
2025-01-23 17:07:45.154458	4.0	24.2	-78.0	0.0
2025-01-23 17:07:46.277981	3.9	24.1	-77.5	0.0
2025-01-23 17:07:47.400770	3.7	23.9	-77.6	0.0
2025-01-23 17:07:48.525107	3.5	23.8	-78.1	0.0
2025-01-23 17:07:49.650901	3.4	23.6	-78.3	0.0
2025-01-23 17:07:50.773593	3.2	23.5	-78.4	0.0
2025-01-23 17:07:51.898359	3.1	23.3	-77.6	0.0
2025-01-23 17:07:53.019565	2.9	23.2	-77.4	0.0
2025-01-23 17:07:54.141772	2.8	23.0	-76.9	0.0
2025-01-23 17:07:55.267453	2.6	22.9	-76.6	0.0
2025-01-23 17:07:56.390001	2.5	22.7	-77.6	0.0
2025-01-23 17:07:57.513310	2.3	22.6	-78.0	0.0
2025-01-23 17:07:58.639194	2.2	22.5	-78.1	0.0
2025-01-23 17:07:59.761994	2.0	22.3	-77.9	0.0
2025-01-23 17:08:00.884084	1.9	22.2	-77.3	0.0
2025-01-23 17:08:02.006640	1.7	22.0	-78.0	0.0
2025-01-23 17:08:03.128226	1.6	21.9	-78.5	0.0
2025-01-23 17:08:04.252672	1.4	21.8	-77.6	0.0
2025-01-23 17:08:05.375544	1.3	21.6	-78.1	0.0
2025-01-23 17:08:06.498578	1.2	21.5	-77.2	0.0
2025-01-23 17:08:07.621851	1.0	21.3	-77.8	0.0
2025-01-23 17:08:08.744346	0.9	21.2	-78.2	0.0
2025-01-23 17:08:09.866240	0.8	21.1	-76.2	0.0
2025-01-23 17:08:10.989418	0.6	20.9	-76.2	0.0
2025-01-23 17:08:12.112711	0.5	20.8	-76.1	0.0
2025-01-23 17:08:13.233578	0.4	20.7	-77.9	0.0
2025-01-23 17:08:14.357191	0.2	20.5	-76.0	0.0
2025-01-23 17:08:15.477388	0.1	20.4	-76.4	0.0
2025-01-23 17:08:16.602414	360.0	20.3	-76.2	0.0
2025-01-23 17:08:17.726120	359.9	20.1	-76.9	0.0
2025-01-23 17:08:18.849980	359.7	20.0	-77.7	0.0
2025-01-23 17:08:19.975217	359.6	19.9	-76.7	0.0
2025-01-23 17:08:21.098781	359.5	19.7	-77.4	0.0
2025-01-23 17:08:22.222862	359.4	19.6	-77.5	0.0
2025-01-23 17:08:23.346710	359.2	19.5	-76.8	0.0
2025-01-23 17:08:24.469303	359.1	19.3	-76.9	0.0
2025-01-23 17:08:25.592354	359.0	19.2	-77.4	0.0
2025-01-23 17:08:26.715410	358.9	19.1	-76.8	0.0
2025-01-23 17:08:27.838998	358.8	19.0	-76.1	0.0
2025-01-23 17:08:28.962511	358.6	18.8	-75.6	0.0
2025-01-23 17:08:30.086221	358.5	18.7	-76.5	0.0
2025-01-23 17:08:31.209086	358.4	18.6	-78.7	0.0
2025-01-23 17:08:32.333196	358.3	18.4	-77.6	0.0
2025-01-23 17:08:33.456883	358.2	18.3	-77.9	0.0
2025-01-23 17:08:34.578226	358.1	18.2	-76.6	0.0
2025-01-23 17:08:35.701762	358.0	18.1	-77.4	0.0
2025-01-23 17:08:36.825257	357.9	17.9	-77.4	0.0
2025-01-23 17:08:37.948499	357.8	17.8	-77.1	0.0
2025-01-23 17:08:39.072682	357.7	17.7	-77.7	0.0
2025-01-23 17:08:40.195872	357.5	17.6	-78.6	0.0
2025-01-23 17:08:41.318957	357.4	17.5	-78.3	0.0
2025-01-23 17:08:42.441794	357.3	17.3	-78.4	0.0
2025-01-23 17:08:43.566742	357.2	17.2	-78.4	0.0
2025-01-23 17:08:44.692748	357.1	17.1	-78.0	0.0
2025-01-23 17:08:45.816575	357.0	17.0	-78.1	0.0
2025-01-23 17:08:46.939867	356.9	16.9	-77.3	0.0
2025-01-23 17:08:48.064360	356.8	16.7	-77.5	0.0
2025-01-23 17:08:49.186737	356.7	16.6	-77.3	0.0
2025-01-23 17:08:50.308832	356.6	16.5	-77.2	0.0
2025-01-23 17:08:51.431754	356.5	16.4	-77.6	0.0
2025-01-23 17:08:52.556482	356.4	16.3	-77.7	0.0
2025-01-23 17:08:53.680037	356.3	16.2	-77.6	0.0
2025-01-23 17:08:54.802065	356.2	16.0	-77.1	0.0
2025-01-23 17:08:55.923915	356.1	15.9	-77.1	0.0
2025-01-23 17:08:57.046797	356.1	15.8	-77.2	0.0
2025-01-23 17:08:58.170921	356.0	15.7	-77.6	0.0
2025-01-23 17:08:59.294435	355.9	15.6	-77.0	0.0
2025-01-23 17:09:00.419069	355.8	15.5	-76.3	0.0
2025-01-23 17:09:01.543724	355.7	15.4	-76.3	0.0
2025-01-23 17:09:02.669943	355.6	15.2	-76.7	0.0
2025-01-23 17:09:03.791220	355.5	15.1	-76.6	0.0
2025-01-23 17:09:04.913914	355.4	15.0	-76.8	0.0
2025-01-23 17:09:06.035741	355.3	14.9	-76.5	0.0
2025-01-23 17:09:07.159472	355.2	14.8	-77.1	0.0
2025-01-23 17:09:08.284340	355.2	14.7	-77.3	0.0
2025-01-23 17:09:09.405932	355.1	14.6	-76.9	0.0
2025-01-23 17:09:10.528695	355.0	14.5	-77.1	0.0
2025-01-23 17:09:11.650649	354.9	14.4	-76.8	0.0
2025-01-23 17:09:12.775287	354.8	14.2	-76.3	0.0
2025-01-23 17:09:13.898361	354.7	14.1	-77.3	0.0
2025-01-23 17:09:15.021260	354.6	14.0	-76.3	0.0
2025-01-23 17:09:16.142313	354.6	13.9	-76.5	0.0
2025-01-23 17:09:17.266068	354.5	13.8	-76.8	0.0
2025-01-23 17:09:18.387951	354.4	13.7	-77.2	0.0
2025-01-23 17:09:19.511893	354.3	13.6	-77.8	0.0
2025-01-23 17:09:20.635493	354.2	13.5	-77.2	0.0
2025-01-23 17:09:21.758019	354.2	13.4	-77.4	0.0
2025-01-23 17:09:22.879513	354.1	13.3	-77.8	0.0
2025-01-23 17:09:24.003812	354.0	13.2	-76.8	0.0
2025-01-23 17:09:25.126079	353.9	13.1	-77.3	0.0
2025-01-23 17:09:26.248129	353.9	13.0	-78.6	0.0
2025-01-23 17:09:27.370836	353.8	12.9	-76.7	0.0
2025-01-23 17:09:28.492078	353.7	12.8	-77.7	0.0
2025-01-23 17:09:29.614980	353.6	12.7	-77.7	0.0
2025-01-23 17:09:30.736878	353.6	12.6	-78.1	0.0
2025-01-23 17:09:31.860760	353.5	12.5	-78.0	0.0
2025-01-23 17:09:32.984267	353.4	12.4	-77.6	0.0
2025-01-23 17:09:34.106712	353.3	12.3	-77.9	0.0
2025-01-23 17:09:35.230887	353.3	12.2	-76.9	0.0
2025-01-23 17:09:36.354142	353.2	12.1	-77.9	0.0
2025-01-23 17:09:37.476759	353.1	12.0	-77.8	0.0
2025-01-23 17:09:38.600311	353.0	11.9	-77.0	0.0
2025-01-23 17:09:39.725145	353.0	11.8	-77.0	0.0
2025-01-23 17:09:40.848805	352.9	11.7	-77.6	0.0
2025-01-23 17:09:41.974434	352.8	11.6	-78.2	0.0
2025-01-23 17:09:43.097729	352.8	11.5	-77.6	0.0
2025-01-23 17:09:44.221505	352.7	11.4	-77.2	0.0
2025-01-23 17:09:45.343063	352.6	11.3	-77.5	0.0
2025-01-23 17:09:46.466666	352.6	11.2	-76.9	0.0
2025-01-23 17:09:47.591873	352.5	11.1	-76.6	0.0
2025-01-23 17:09:48.712982	352.4	11.0	-78.1	0.0
2025-01-23 17:09:49.836001	352.4	10.9	-77.5	0.0
2025-01-23 17:09:50.957731	352.3	10.8	-77.7	0.0
2025-01-23 17:09:52.081212	352.2	10.7	-78.0	0.0
2025-01-23 17:09:53.203812	352.2	10.6	-78.2	0.0
2025-01-23 17:09:54.325065	352.1	10.5	-76.9	0.0
2025-01-23 17:09:55.447916	352.0	10.4	-76.7	0.0
2025-01-23 17:09:56.572692	352.0	10.3	-76.9	0.0
2025-01-23 17:09:57.696988	351.9	10.2	-77.0	0.0
2025-01-23 17:09:58.818564	351.9	10.1	-76.6	0.0
2025-01-23 17:09:59.942259	351.8	10.0	-76.7	0.0
#Closed at: 2025-01-23 16:59:45.084791