passes_logs/2025/01/23/planumMaritime01/planumMaritime01__20250123_171711_NOAA_19_rec.log

#Pass ID: 20250123_171711_NOAA 19
#Satellite: NOAA 19
#Configuration: NOAA 19
#Start time: 2025-01-23 17:17:16.616325

#LorettStation: 1.0.0 05.05.2024
#Station: planumMaritime01
#Location: 37.49445 lon 55.92918 lat
#TLE: 1 33591U 09005A   25022.22545190  .00000382  00000+0  22773-3 0  9990
#TLE: 2 33591  99.0184  86.0433 0014227  38.0135 322.2038 14.13265658822568

#Time	Az	El	Level	SNR
2025-01-23 17:17:18.778377	131.0	10.2	-75.7	0.0
2025-01-23 17:17:19.903962	130.9	10.3	-75.5	0.0
2025-01-23 17:17:21.025841	130.8	10.4	-75.2	0.0
2025-01-23 17:17:22.149197	130.8	10.5	-76.0	0.0
2025-01-23 17:17:23.271924	130.7	10.6	-76.4	0.0
2025-01-23 17:17:24.396845	130.6	10.6	-76.6	0.0
2025-01-23 17:17:25.521134	130.6	10.7	-76.6	0.0
2025-01-23 17:17:26.641958	130.5	10.8	-76.1	0.0
2025-01-23 17:17:27.766011	130.4	10.9	-75.9	0.0
2025-01-23 17:17:28.887885	130.4	11.0	-75.7	0.0
2025-01-23 17:17:30.009160	130.3	11.1	-75.7	0.0
2025-01-23 17:17:31.131586	130.2	11.2	-75.9	0.0
2025-01-23 17:17:32.252620	130.1	11.3	-75.5	0.0
2025-01-23 17:17:33.376466	130.1	11.4	-76.0	0.0
2025-01-23 17:17:34.499862	130.0	11.5	-75.6	0.0
2025-01-23 17:17:35.623222	129.9	11.6	-75.7	0.0
2025-01-23 17:17:36.747143	129.9	11.7	-75.5	0.0
2025-01-23 17:17:37.870118	129.8	11.8	-75.8	0.0
2025-01-23 17:17:38.992286	129.7	11.9	-76.2	0.0
2025-01-23 17:17:40.115530	129.6	12.0	-76.8	0.0
2025-01-23 17:17:41.239656	129.6	12.1	-77.0	0.0
2025-01-23 17:17:42.363307	129.5	12.2	-74.8	0.0
2025-01-23 17:17:43.487547	129.4	12.3	-75.9	0.0
2025-01-23 17:17:44.609746	129.3	12.4	-76.3	0.0
2025-01-23 17:17:45.733705	129.2	12.5	-75.6	0.0
2025-01-23 17:17:46.857383	129.2	12.6	-76.1	0.0
2025-01-23 17:17:47.979643	129.1	12.7	-76.3	0.0
2025-01-23 17:17:49.104536	129.0	12.8	-76.0	0.0
2025-01-23 17:17:50.230315	128.9	12.9	-75.2	0.0
2025-01-23 17:17:51.354518	128.8	13.0	-76.0	0.0
2025-01-23 17:17:52.476140	128.8	13.1	-76.1	0.0
2025-01-23 17:17:53.599579	128.7	13.2	-76.2	0.0
2025-01-23 17:17:54.721887	128.6	13.3	-76.0	0.0
2025-01-23 17:17:55.845827	128.5	13.4	-76.1	0.0
2025-01-23 17:17:56.966977	128.4	13.5	-76.4	0.0
2025-01-23 17:17:58.089819	128.4	13.6	-75.5	0.0
2025-01-23 17:17:59.211646	128.3	13.7	-76.3	0.0
2025-01-23 17:18:00.332392	128.2	13.8	-76.2	0.0
2025-01-23 17:18:01.455185	128.1	14.0	-76.0	0.0
2025-01-23 17:18:02.575924	128.0	14.1	-75.8	0.0
2025-01-23 17:18:03.698562	127.9	14.2	-76.1	0.0
2025-01-23 17:18:04.822332	127.8	14.3	-76.3	0.0
2025-01-23 17:18:05.947084	127.7	14.4	-75.7	0.0
2025-01-23 17:18:07.068956	127.7	14.5	-76.3	0.0
2025-01-23 17:18:08.191693	127.6	14.6	-76.5	0.0
2025-01-23 17:18:09.314957	127.5	14.7	-76.2	0.0
2025-01-23 17:18:10.437440	127.4	14.8	-75.8	0.0
2025-01-23 17:18:11.559580	127.3	14.9	-75.6	0.0
2025-01-23 17:18:12.680032	127.2	15.0	-76.3	0.0
2025-01-23 17:18:13.801388	127.1	15.1	-76.3	0.0
2025-01-23 17:18:14.921874	127.0	15.3	-76.4	0.0
2025-01-23 17:18:16.045377	126.9	15.4	-75.9	0.0
2025-01-23 17:18:17.166983	126.8	15.5	-76.0	0.0
2025-01-23 17:18:18.291532	126.7	15.6	-75.3	0.0
2025-01-23 17:18:19.414184	126.6	15.7	-76.2	0.0
2025-01-23 17:18:20.538226	126.5	15.8	-76.1	0.0
2025-01-23 17:18:21.663294	126.4	15.9	-76.3	0.0
2025-01-23 17:18:22.784948	126.3	16.0	-75.7	0.0
2025-01-23 17:18:23.907725	126.2	16.2	-76.0	0.0
2025-01-23 17:18:25.031695	126.1	16.3	-76.3	0.0
2025-01-23 17:18:26.156695	126.0	16.4	-75.3	0.0
2025-01-23 17:18:27.279891	125.9	16.5	-76.1	0.0
2025-01-23 17:18:28.403386	125.8	16.6	-76.1	0.0
2025-01-23 17:18:29.526653	125.7	16.7	-76.3	0.0
2025-01-23 17:18:30.650542	125.6	16.9	-75.5	0.0
2025-01-23 17:18:31.771384	125.5	17.0	-76.1	0.0
2025-01-23 17:18:32.895049	125.4	17.1	-76.0	0.0
2025-01-23 17:18:34.018744	125.3	17.2	-76.2	0.0
2025-01-23 17:18:35.140153	125.2	17.3	-75.3	0.0
2025-01-23 17:18:36.263897	125.1	17.4	-76.4	0.0
2025-01-23 17:18:37.388099	125.0	17.6	-76.5	0.0
2025-01-23 17:18:38.509890	124.8	17.7	-75.7	0.0
2025-01-23 17:18:39.637053	124.7	17.8	-76.7	0.0
2025-01-23 17:18:40.759770	124.6	17.9	-75.7	0.0
2025-01-23 17:18:41.884614	124.5	18.0	-75.9	0.0
2025-01-23 17:18:43.007768	124.4	18.2	-75.7	0.0
2025-01-23 17:18:44.132151	124.3	18.3	-76.1	0.0
2025-01-23 17:18:45.255548	124.2	18.4	-75.5	0.0
2025-01-23 17:18:46.376916	124.0	18.5	-76.0	0.0
2025-01-23 17:18:47.502985	123.9	18.7	-76.0	0.0
2025-01-23 17:18:48.627251	123.8	18.8	-75.9	0.0
2025-01-23 17:18:49.752179	123.7	18.9	-75.4	0.0
2025-01-23 17:18:50.873693	123.6	19.0	-75.3	0.0
2025-01-23 17:18:51.999613	123.4	19.2	-75.9	0.0
2025-01-23 17:18:53.120692	123.3	19.3	-76.0	0.0
2025-01-23 17:18:54.244097	123.2	19.4	-75.4	0.0
2025-01-23 17:18:55.367840	123.1	19.5	-75.8	0.0
2025-01-23 17:18:56.489797	122.9	19.7	-75.6	0.0
2025-01-23 17:18:57.614059	122.8	19.8	-75.8	0.0
2025-01-23 17:18:58.737591	122.7	19.9	-75.6	0.0
2025-01-23 17:18:59.860838	122.5	20.1	-75.4	0.0
2025-01-23 17:19:00.982629	122.4	20.2	-75.2	0.0
2025-01-23 17:19:02.108320	122.3	20.3	-75.3	0.0
2025-01-23 17:19:03.231982	122.1	20.5	-75.9	0.0
2025-01-23 17:19:04.355203	122.0	20.6	-76.2	0.0
2025-01-23 17:19:05.478481	121.9	20.7	-76.3	0.0
2025-01-23 17:19:06.602686	121.7	20.9	-77.3	0.0
2025-01-23 17:19:07.728111	121.6	21.0	-76.3	0.0
2025-01-23 17:19:08.849526	121.5	21.1	-76.3	0.0
2025-01-23 17:19:09.972721	121.3	21.3	-76.8	0.0
2025-01-23 17:19:11.096219	121.2	21.4	-77.0	0.0
2025-01-23 17:19:12.218285	121.0	21.5	-77.2	0.0
2025-01-23 17:19:13.341223	120.9	21.7	-77.3	0.0
2025-01-23 17:19:14.463582	120.7	21.8	-76.7	0.0
2025-01-23 17:19:15.585380	120.6	21.9	-76.9	0.0
2025-01-23 17:19:16.706509	120.5	22.1	-77.3	0.0
2025-01-23 17:19:17.828572	120.3	22.2	-77.2	0.0
2025-01-23 17:19:18.951160	120.2	22.3	-75.8	0.0
2025-01-23 17:19:20.073487	120.0	22.5	-77.2	0.0
2025-01-23 17:19:21.197159	119.8	22.6	-76.0	0.0
2025-01-23 17:19:22.320543	119.7	22.8	-75.4	0.0
2025-01-23 17:19:23.443854	119.5	22.9	-76.9	0.0
2025-01-23 17:19:24.566593	119.4	23.0	-77.0	0.0
2025-01-23 17:19:25.690973	119.2	23.2	-76.3	0.0
2025-01-23 17:19:26.815260	119.1	23.3	-76.9	0.0
2025-01-23 17:19:27.938038	118.9	23.5	-76.8	0.0
2025-01-23 17:19:29.061841	118.7	23.6	-76.5	0.0
2025-01-23 17:19:30.186550	118.6	23.8	-75.7	0.0
2025-01-23 17:19:31.310151	118.4	23.9	-75.6	0.0
2025-01-23 17:19:32.434151	118.2	24.0	-75.7	0.0
2025-01-23 17:19:33.558696	118.1	24.2	-75.8	0.0
2025-01-23 17:19:34.681828	117.9	24.3	-75.7	0.0
2025-01-23 17:19:35.804425	117.7	24.5	-75.8	0.0
2025-01-23 17:19:36.929098	117.5	24.6	-75.8	0.0
2025-01-23 17:19:38.054850	117.4	24.8	-76.2	0.0
2025-01-23 17:19:39.176296	117.2	24.9	-76.1	0.0
2025-01-23 17:19:40.299421	117.0	25.1	-76.0	0.0
2025-01-23 17:19:41.420902	116.8	25.2	-76.1	0.0
2025-01-23 17:19:42.543146	116.6	25.4	-75.3	0.0
2025-01-23 17:19:43.667051	116.4	25.5	-75.7	0.0
2025-01-23 17:19:44.789610	116.3	25.7	-76.1	0.0
2025-01-23 17:19:45.911261	116.1	25.8	-76.5	0.0
2025-01-23 17:19:47.034670	115.9	26.0	-76.3	0.0
2025-01-23 17:19:48.160123	115.7	26.1	-76.1	0.0
2025-01-23 17:19:49.284426	115.5	26.3	-76.9	0.0
2025-01-23 17:19:50.407641	115.3	26.4	-76.2	0.0
2025-01-23 17:19:51.530004	115.1	26.6	-76.7	0.0
2025-01-23 17:19:52.653586	114.9	26.7	-77.7	0.0
2025-01-23 17:19:53.777755	114.7	26.9	-76.3	0.0
2025-01-23 17:19:54.901366	114.5	27.1	-76.7	0.0
2025-01-23 17:19:56.023867	114.3	27.2	-77.5	0.0
2025-01-23 17:19:57.147769	114.1	27.4	-77.2	0.0
2025-01-23 17:19:58.271593	113.9	27.5	-77.3	0.0
2025-01-23 17:19:59.396871	113.6	27.7	-77.3	0.0
2025-01-23 17:20:00.518378	113.4	27.8	-77.3	0.0
2025-01-23 17:20:01.640303	113.2	28.0	-77.2	0.0
2025-01-23 17:20:02.764697	113.0	28.1	-78.0	0.0
2025-01-23 17:20:03.886362	112.8	28.3	-78.2	0.0
2025-01-23 17:20:05.008517	112.6	28.5	-77.1	0.0
2025-01-23 17:20:06.131360	112.3	28.6	-77.3	0.0
2025-01-23 17:20:07.252330	112.1	28.8	-76.7	0.0
2025-01-23 17:20:08.374739	111.9	28.9	-77.3	0.0
2025-01-23 17:20:09.498084	111.6	29.1	-77.4	0.0
2025-01-23 17:20:10.618861	111.4	29.3	-77.6	0.0
2025-01-23 17:20:11.741748	111.2	29.4	-76.3	0.0
2025-01-23 17:20:12.865840	110.9	29.6	-76.3	0.0
2025-01-23 17:20:13.990039	110.7	29.7	-77.5	0.0
2025-01-23 17:20:15.111808	110.4	29.9	-77.7	0.0
2025-01-23 17:20:16.232088	110.2	30.1	-77.6	0.0
2025-01-23 17:20:17.356768	109.9	30.2	-76.5	0.0
2025-01-23 17:20:18.478811	109.7	30.4	-76.6	0.0
2025-01-23 17:20:19.603470	109.4	30.6	-76.7	0.0
2025-01-23 17:20:20.725900	109.2	30.7	-77.5	0.0
2025-01-23 17:20:21.850666	108.9	30.9	-77.7	0.0
2025-01-23 17:20:22.973628	108.7	31.1	-76.9	0.0
2025-01-23 17:20:24.094839	108.4	31.2	-78.7	0.0
2025-01-23 17:20:25.217733	108.1	31.4	-77.5	0.0
2025-01-23 17:20:26.339565	107.9	31.5	-77.4	0.0
2025-01-23 17:20:27.462186	107.6	31.7	-77.5	0.0
2025-01-23 17:20:28.587019	107.3	31.9	-77.2	0.0
2025-01-23 17:20:29.712951	107.0	32.0	-77.8	0.0
2025-01-23 17:20:30.835877	106.7	32.2	-77.6	0.0
2025-01-23 17:20:31.957966	106.5	32.4	-76.7	0.0
2025-01-23 17:20:33.080933	106.2	32.5	-77.8	0.0
2025-01-23 17:20:34.205838	105.9	32.7	-77.9	0.0
2025-01-23 17:20:35.329269	105.6	32.9	-77.8	0.0
2025-01-23 17:20:36.451910	105.3	33.0	-77.7	0.0
2025-01-23 17:20:37.576200	105.0	33.2	-77.9	0.0
2025-01-23 17:20:38.701034	104.7	33.4	-78.1	0.0
2025-01-23 17:20:39.825122	104.4	33.5	-78.3	0.0
2025-01-23 17:20:40.947921	104.1	33.7	-77.4	0.0
2025-01-23 17:20:42.071086	103.8	33.9	-77.1	0.0
2025-01-23 17:20:43.193647	103.4	34.0	-78.0	0.0
2025-01-23 17:20:44.316579	103.1	34.2	-78.0	0.0
2025-01-23 17:20:45.438611	102.8	34.4	-77.7	0.0
2025-01-23 17:20:46.561450	102.5	34.5	-78.3	0.0
2025-01-23 17:20:47.683755	102.1	34.7	-77.6	0.0
2025-01-23 17:20:48.805257	101.8	34.9	-78.1	0.0
2025-01-23 17:20:49.928338	101.5	35.0	-77.5	0.0
2025-01-23 17:20:51.052771	101.1	35.2	-77.0	0.0
2025-01-23 17:20:52.177480	100.8	35.3	-78.2	0.0
2025-01-23 17:20:53.300344	100.5	35.5	-77.7	0.0
2025-01-23 17:20:54.420906	100.1	35.7	-77.9	0.0
2025-01-23 17:20:55.545950	99.8	35.8	-77.6	0.0
2025-01-23 17:20:56.670041	99.4	36.0	-76.7	0.0
2025-01-23 17:20:57.793132	99.0	36.2	-77.2	0.0
2025-01-23 17:20:58.917249	98.7	36.3	-76.3	0.0
2025-01-23 17:21:00.038453	98.3	36.5	-76.7	0.0
2025-01-23 17:21:01.161362	97.9	36.6	-76.0	0.0
2025-01-23 17:21:02.284572	97.6	36.8	-76.6	0.0
2025-01-23 17:21:03.406252	97.2	37.0	-77.0	0.0
2025-01-23 17:21:04.528645	96.8	37.1	-77.7	0.0
2025-01-23 17:21:05.650576	96.4	37.3	-77.8	0.0
2025-01-23 17:21:06.773275	96.0	37.4	-77.6	0.0
2025-01-23 17:21:07.895789	95.6	37.6	-77.9	0.0
2025-01-23 17:21:09.021695	95.2	37.7	-77.4	0.0
2025-01-23 17:21:10.144438	94.8	37.9	-77.0	0.0
2025-01-23 17:21:11.267667	94.4	38.1	-76.6	0.0
2025-01-23 17:21:12.390345	94.0	38.2	-77.7	0.0
2025-01-23 17:21:13.511191	93.6	38.4	-76.6	0.0
2025-01-23 17:21:14.632853	93.2	38.5	-77.7	0.0
2025-01-23 17:21:15.756621	92.8	38.7	-77.9	0.0
2025-01-23 17:21:16.881931	92.4	38.8	-76.2	0.0
2025-01-23 17:21:18.006219	91.9	39.0	-77.9	0.0
2025-01-23 17:21:19.131034	91.5	39.1	-77.8	0.0
2025-01-23 17:21:20.253079	91.1	39.2	-77.0	0.0
2025-01-23 17:21:21.374045	90.6	39.4	-77.0	0.0
2025-01-23 17:21:22.497600	90.2	39.5	-76.9	0.0
2025-01-23 17:21:23.620120	89.7	39.7	-77.3	0.0
2025-01-23 17:21:24.741356	89.3	39.8	-77.2	0.0
2025-01-23 17:21:25.863879	88.8	39.9	-77.8	0.0
2025-01-23 17:21:26.987810	88.4	40.1	-77.6	0.0
2025-01-23 17:21:28.110057	87.9	40.2	-77.7	0.0
2025-01-23 17:21:29.232721	87.5	40.3	-77.8	0.0
2025-01-23 17:21:30.356139	87.0	40.5	-77.9	0.0
2025-01-23 17:21:31.479664	86.5	40.6	-76.6	0.0
2025-01-23 17:21:32.600287	86.0	40.7	-76.4	0.0
2025-01-23 17:21:33.722771	85.6	40.9	-76.0	0.0
2025-01-23 17:21:34.843510	85.1	41.0	-76.1	0.0
2025-01-23 17:21:35.968665	84.6	41.1	-76.1	0.0
2025-01-23 17:21:37.091310	84.1	41.2	-78.1	0.0
2025-01-23 17:21:38.213570	83.6	41.3	-77.8	0.0
2025-01-23 17:21:39.337377	83.1	41.5	-78.0	0.0
2025-01-23 17:21:40.460636	82.6	41.6	-77.9	0.0
2025-01-23 17:21:41.582576	82.1	41.7	-77.6	0.0
2025-01-23 17:21:42.704813	81.6	41.8	-76.1	0.0
2025-01-23 17:21:43.828077	81.1	41.9	-78.2	0.0
2025-01-23 17:21:44.952401	80.6	42.0	-78.0	0.0
2025-01-23 17:21:46.075471	80.0	42.1	-77.6	0.0
2025-01-23 17:21:47.198858	79.5	42.2	-78.0	0.0
2025-01-23 17:21:48.323668	79.0	42.3	-75.9	0.0
2025-01-23 17:21:49.449247	78.5	42.4	-77.7	0.0
2025-01-23 17:21:50.570815	77.9	42.5	-77.2	0.0
2025-01-23 17:21:51.694271	77.4	42.6	-77.7	0.0
2025-01-23 17:21:52.817979	76.9	42.7	-76.7	0.0
2025-01-23 17:21:53.939089	76.3	42.8	-77.0	0.0
2025-01-23 17:21:55.062547	75.8	42.8	-76.5	0.0
2025-01-23 17:21:56.183877	75.2	42.9	-76.6	0.0
2025-01-23 17:21:57.306782	74.7	43.0	-76.9	0.0
2025-01-23 17:21:58.429325	74.1	43.1	-77.0	0.0
2025-01-23 17:21:59.554940	73.6	43.1	-78.0	0.0
2025-01-23 17:22:00.678650	73.0	43.2	-77.5	0.0
2025-01-23 17:22:01.803188	72.5	43.3	-77.8	0.0
2025-01-23 17:22:02.927048	71.9	43.3	-77.1	0.0
2025-01-23 17:22:04.051569	71.3	43.4	-77.8	0.0
2025-01-23 17:22:05.175077	70.8	43.4	-76.1	0.0
2025-01-23 17:22:06.300074	70.2	43.5	-77.0	0.0
2025-01-23 17:22:07.422896	69.6	43.6	-77.1	0.0
2025-01-23 17:22:08.546607	69.1	43.6	-77.3	0.0
2025-01-23 17:22:09.671402	68.5	43.6	-77.5	0.0
2025-01-23 17:22:10.795605	67.9	43.7	-76.0	0.0
2025-01-23 17:22:11.920175	67.3	43.7	-76.6	0.0
2025-01-23 17:22:13.043763	66.8	43.8	-77.7	0.0
2025-01-23 17:22:14.165249	66.2	43.8	-77.7	0.0
2025-01-23 17:22:15.290632	65.6	43.8	-76.8	0.0
2025-01-23 17:22:16.411539	65.0	43.8	-76.5	0.0
2025-01-23 17:22:17.532456	64.4	43.9	-77.0	0.0
2025-01-23 17:22:18.656890	63.9	43.9	-77.1	0.0
2025-01-23 17:22:19.776858	63.3	43.9	-77.0	0.0
2025-01-23 17:22:20.901027	62.7	43.9	-77.3	0.0
2025-01-23 17:22:22.022707	62.1	43.9	-77.3	0.0
2025-01-23 17:22:23.145032	61.5	43.9	-76.8	0.0
2025-01-23 17:22:24.267707	61.0	43.9	-77.1	0.0
2025-01-23 17:22:25.390319	60.4	43.9	-77.5	0.0
2025-01-23 17:22:26.512887	59.8	43.9	-77.3	0.0
2025-01-23 17:22:27.636028	59.2	43.9	-76.2	0.0
2025-01-23 17:22:28.758800	58.6	43.9	-77.0	0.0
2025-01-23 17:22:29.881610	58.0	43.9	-77.0	0.0
2025-01-23 17:22:31.004503	57.5	43.8	-76.3	0.0
2025-01-23 17:22:32.127087	56.9	43.8	-76.9	0.0
2025-01-23 17:22:33.250878	56.3	43.8	-77.1	0.0
2025-01-23 17:22:34.374466	55.7	43.8	-76.7	0.0
2025-01-23 17:22:35.498235	55.2	43.7	-78.0	0.0
2025-01-23 17:22:36.621080	54.6	43.7	-77.9	0.0
2025-01-23 17:22:37.743780	54.0	43.7	-76.6	0.0
2025-01-23 17:22:38.867247	53.4	43.6	-76.8	0.0
2025-01-23 17:22:39.988808	52.9	43.6	-76.5	0.0
2025-01-23 17:22:41.111337	52.3	43.5	-77.6	0.0
2025-01-23 17:22:42.234830	51.7	43.5	-76.8	0.0
2025-01-23 17:22:43.356817	51.2	43.4	-76.5	0.0
2025-01-23 17:22:44.480808	50.6	43.4	-77.9	0.0
2025-01-23 17:22:45.605242	50.0	43.3	-77.7	0.0
2025-01-23 17:22:46.727930	49.5	43.3	-77.9	0.0
2025-01-23 17:22:47.852308	48.9	43.2	-78.1	0.0
2025-01-23 17:22:48.973521	48.4	43.1	-77.6	0.0
2025-01-23 17:22:50.096549	47.8	43.0	-76.4	0.0
2025-01-23 17:22:51.219237	47.3	43.0	-76.8	0.0
2025-01-23 17:22:52.341683	46.7	42.9	-78.1	0.0
2025-01-23 17:22:53.465776	46.2	42.8	-77.7	0.0
2025-01-23 17:22:54.591018	45.6	42.7	-76.9	0.0
2025-01-23 17:22:55.713504	45.1	42.6	-76.8	0.0
2025-01-23 17:22:56.836492	44.6	42.6	-78.2	0.0
2025-01-23 17:22:57.960668	44.0	42.5	-77.9	0.0
2025-01-23 17:22:59.085072	43.5	42.4	-76.5	0.0
2025-01-23 17:23:00.208023	43.0	42.3	-76.6	0.0
2025-01-23 17:23:01.330880	42.4	42.2	-76.7	0.0
2025-01-23 17:23:02.454241	41.9	42.1	-76.4	0.0
2025-01-23 17:23:03.579929	41.4	42.0	-77.3	0.0
2025-01-23 17:23:04.702800	40.9	41.9	-76.1	0.0
2025-01-23 17:23:05.826457	40.4	41.8	-76.8	0.0
2025-01-23 17:23:06.949613	39.9	41.7	-77.7	0.0
2025-01-23 17:23:08.072088	39.4	41.5	-77.4	0.0
2025-01-23 17:23:09.193585	38.9	41.4	-77.5	0.0
2025-01-23 17:23:10.315966	38.4	41.3	-77.7	0.0
2025-01-23 17:23:11.439787	37.9	41.2	-77.4	0.0
2025-01-23 17:23:12.562315	37.4	41.1	-77.1	0.0
2025-01-23 17:23:13.683860	36.9	41.0	-77.6	0.0
2025-01-23 17:23:14.807460	36.4	40.8	-77.3	0.0
2025-01-23 17:23:15.929369	36.0	40.7	-77.3	0.0
2025-01-23 17:23:17.054835	35.5	40.6	-77.8	0.0
2025-01-23 17:23:18.180575	35.0	40.4	-77.6	0.0
2025-01-23 17:23:19.304643	34.5	40.3	-77.0	0.0
2025-01-23 17:23:20.426818	34.1	40.2	-76.1	0.0
2025-01-23 17:23:21.552238	33.6	40.0	-76.6	0.0
2025-01-23 17:23:22.674667	33.2	39.9	-77.5	0.0
2025-01-23 17:23:23.800587	32.7	39.8	-77.8	0.0
2025-01-23 17:23:24.925068	32.3	39.6	-76.6	0.0
2025-01-23 17:23:26.047819	31.8	39.5	-77.8	0.0
2025-01-23 17:23:27.170889	31.4	39.4	-77.2	0.0
2025-01-23 17:23:28.294189	30.9	39.2	-77.6	0.0
2025-01-23 17:23:29.415949	30.5	39.1	-76.6	0.0
2025-01-23 17:23:30.539203	30.1	38.9	-77.3	0.0
2025-01-23 17:23:31.664554	29.7	38.8	-76.0	0.0
2025-01-23 17:23:32.786557	29.2	38.6	-76.4	0.0
2025-01-23 17:23:33.908335	28.8	38.5	-77.1	0.0
2025-01-23 17:23:35.031649	28.4	38.3	-76.9	0.0
2025-01-23 17:23:36.155273	28.0	38.2	-77.5	0.0
2025-01-23 17:23:37.281540	27.6	38.0	-77.6	0.0
2025-01-23 17:23:38.405902	27.2	37.9	-77.3	0.0
2025-01-23 17:23:39.528618	26.8	37.7	-76.9	0.0
2025-01-23 17:23:40.651140	26.4	37.6	-77.8	0.0
2025-01-23 17:23:41.775189	26.0	37.4	-77.3	0.0
2025-01-23 17:23:42.899665	25.6	37.3	-76.5	0.0
2025-01-23 17:23:44.021832	25.3	37.1	-76.7	0.0
2025-01-23 17:23:45.145313	24.9	36.9	-77.1	0.0
2025-01-23 17:23:46.268235	24.5	36.8	-77.1	0.0
2025-01-23 17:23:47.393637	24.1	36.6	-78.0	0.0
2025-01-23 17:23:48.513118	23.8	36.5	-77.1	0.0
2025-01-23 17:23:49.635462	23.4	36.3	-76.5	0.0
2025-01-23 17:23:50.759539	23.0	36.1	-76.7	0.0
2025-01-23 17:23:51.883115	22.7	36.0	-76.9	0.0
2025-01-23 17:23:53.006058	22.3	35.8	-77.1	0.0
2025-01-23 17:23:54.130715	22.0	35.7	-77.4	0.0
2025-01-23 17:23:55.254892	21.6	35.5	-76.8	0.0
2025-01-23 17:23:56.376147	21.3	35.3	-77.7	0.0
2025-01-23 17:23:57.500125	20.9	35.2	-77.1	0.0
2025-01-23 17:23:58.621385	20.6	35.0	-77.3	0.0
2025-01-23 17:23:59.741921	20.3	34.8	-77.2	0.0
2025-01-23 17:24:00.867201	19.9	34.7	-77.7	0.0
2025-01-23 17:24:01.990515	19.6	34.5	-76.9	0.0
2025-01-23 17:24:03.113074	19.3	34.3	-78.0	0.0
2025-01-23 17:24:04.236804	19.0	34.2	-76.9	0.0
2025-01-23 17:24:05.360757	18.7	34.0	-77.7	0.0
2025-01-23 17:24:06.485315	18.4	33.9	-77.9	0.0
2025-01-23 17:24:07.608457	18.0	33.7	-77.5	0.0
2025-01-23 17:24:08.731333	17.7	33.5	-77.1	0.0
2025-01-23 17:24:09.853109	17.4	33.4	-75.8	0.0
2025-01-23 17:24:10.975738	17.1	33.2	-77.1	0.0
2025-01-23 17:24:12.097790	16.8	33.0	-77.9	0.0
2025-01-23 17:24:13.220312	16.5	32.9	-76.3	0.0
2025-01-23 17:24:14.342050	16.3	32.7	-77.1	0.0
2025-01-23 17:24:15.464789	16.0	32.5	-77.7	0.0
2025-01-23 17:24:16.588656	15.7	32.4	-77.4	0.0
2025-01-23 17:24:17.709767	15.4	32.2	-78.2	0.0
2025-01-23 17:24:18.831073	15.1	32.0	-76.3	0.0
2025-01-23 17:24:19.953594	14.8	31.9	-76.9	0.0
2025-01-23 17:24:21.075512	14.6	31.7	-76.6	0.0
2025-01-23 17:24:22.197904	14.3	31.6	-76.8	0.0
2025-01-23 17:24:23.321296	14.0	31.4	-76.5	0.0
2025-01-23 17:24:24.443749	13.8	31.2	-78.3	0.0
2025-01-23 17:24:25.565658	13.5	31.1	-77.2	0.0
2025-01-23 17:24:26.691247	13.2	30.9	-77.6	0.0
2025-01-23 17:24:27.815629	13.0	30.7	-77.0	0.0
2025-01-23 17:24:28.938095	12.7	30.6	-77.7	0.0
2025-01-23 17:24:30.061139	12.5	30.4	-76.5	0.0
2025-01-23 17:24:31.184141	12.2	30.3	-78.1	0.0
2025-01-23 17:24:32.304954	12.0	30.1	-76.7	0.0
2025-01-23 17:24:33.426647	11.7	29.9	-77.2	0.0
2025-01-23 17:24:34.550096	11.5	29.8	-77.4	0.0
2025-01-23 17:24:35.672561	11.3	29.6	-77.1	0.0
2025-01-23 17:24:36.796583	11.0	29.4	-77.8	0.0
2025-01-23 17:24:37.919893	10.8	29.3	-77.0	0.0
2025-01-23 17:24:39.041612	10.5	29.1	-78.0	0.0
2025-01-23 17:24:40.163460	10.3	29.0	-78.3	0.0
2025-01-23 17:24:41.285657	10.1	28.8	-77.4	0.0
2025-01-23 17:24:42.409097	9.9	28.7	-77.3	0.0
2025-01-23 17:24:43.533713	9.6	28.5	-77.5	0.0
2025-01-23 17:24:44.656184	9.4	28.3	-78.4	0.0
2025-01-23 17:24:45.780122	9.2	28.2	-77.9	0.0
2025-01-23 17:24:46.901911	9.0	28.0	-78.3	0.0
2025-01-23 17:24:48.022620	8.8	27.9	-78.3	0.0
2025-01-23 17:24:49.144207	8.6	27.7	-77.3	0.0
2025-01-23 17:24:50.266720	8.3	27.6	-76.8	0.0
2025-01-23 17:24:51.389494	8.1	27.4	-76.9	0.0
2025-01-23 17:24:52.512636	7.9	27.2	-77.5	0.0
2025-01-23 17:24:53.635927	7.7	27.1	-77.2	0.0
2025-01-23 17:24:54.760940	7.5	26.9	-78.2	0.0
2025-01-23 17:24:55.886545	7.3	26.8	-76.5	0.0
2025-01-23 17:24:57.009188	7.1	26.6	-76.8	0.0
2025-01-23 17:24:58.132512	6.9	26.5	-77.6	0.0
2025-01-23 17:24:59.254659	6.7	26.3	-77.8	0.0
2025-01-23 17:25:00.375693	6.5	26.2	-77.0	0.0
2025-01-23 17:25:01.497980	6.3	26.0	-76.4	0.0
2025-01-23 17:25:02.620348	6.2	25.9	-77.3	0.0
2025-01-23 17:25:03.743389	6.0	25.7	-77.7	0.0
2025-01-23 17:25:04.866813	5.8	25.6	-78.4	0.0
2025-01-23 17:25:05.990122	5.6	25.4	-77.6	0.0
2025-01-23 17:25:07.113317	5.4	25.3	-78.1	0.0
2025-01-23 17:25:08.236740	5.2	25.1	-78.4	0.0
2025-01-23 17:25:09.360012	5.1	25.0	-77.7	0.0
2025-01-23 17:25:10.483003	4.9	24.8	-77.0	0.0
2025-01-23 17:25:11.607111	4.7	24.7	-77.7	0.0
2025-01-23 17:25:12.728719	4.5	24.5	-77.5	0.0
2025-01-23 17:25:13.853314	4.4	24.4	-77.8	0.0
2025-01-23 17:25:14.975242	4.2	24.3	-77.8	0.0
2025-01-23 17:25:16.096662	4.0	24.1	-78.2	0.0
2025-01-23 17:25:17.220507	3.9	24.0	-78.0	0.0
2025-01-23 17:25:18.341189	3.7	23.8	-78.0	0.0
2025-01-23 17:25:19.464717	3.5	23.7	-77.5	0.0
2025-01-23 17:25:20.587607	3.4	23.5	-77.8	0.0
2025-01-23 17:25:21.711193	3.2	23.4	-77.9	0.0
2025-01-23 17:25:22.834413	3.0	23.3	-77.4	0.0
2025-01-23 17:25:23.957683	2.9	23.1	-77.9	0.0
2025-01-23 17:25:25.081300	2.7	23.0	-77.9	0.0
2025-01-23 17:25:26.203718	2.6	22.8	-77.7	0.0
2025-01-23 17:25:27.326347	2.4	22.7	-77.4	0.0
2025-01-23 17:25:28.449248	2.3	22.6	-76.8	0.0
2025-01-23 17:25:29.571670	2.1	22.4	-76.9	0.0
2025-01-23 17:25:30.695103	2.0	22.3	-76.9	0.0
2025-01-23 17:25:31.817425	1.8	22.1	-76.6	0.0
2025-01-23 17:25:32.940301	1.7	22.0	-77.9	0.0
2025-01-23 17:25:34.061954	1.5	21.9	-76.8	0.0
2025-01-23 17:25:35.184347	1.4	21.7	-76.4	0.0
2025-01-23 17:25:36.306637	1.2	21.6	-77.7	0.0
2025-01-23 17:25:37.428151	1.1	21.5	-77.6	0.0
2025-01-23 17:25:38.552932	1.0	21.3	-76.6	0.0
2025-01-23 17:25:39.674363	0.8	21.2	-77.0	0.0
2025-01-23 17:25:40.798367	0.7	21.1	-76.8	0.0
2025-01-23 17:25:41.921970	0.5	20.9	-77.0	0.0
2025-01-23 17:25:43.042980	0.4	20.8	-76.6	0.0
2025-01-23 17:25:44.166590	0.3	20.7	-77.2	0.0
2025-01-23 17:25:45.286641	0.1	20.5	-77.4	0.0
2025-01-23 17:25:46.408281	0.0	20.4	-76.5	0.0
2025-01-23 17:25:47.532112	359.9	20.3	-77.1	0.0
2025-01-23 17:25:48.654753	359.7	20.2	-76.8	0.0
2025-01-23 17:25:49.777468	359.6	20.0	-77.3	0.0
2025-01-23 17:25:50.900465	359.5	19.9	-77.1	0.0
2025-01-23 17:25:52.024144	359.4	19.8	-76.5	0.0
2025-01-23 17:25:53.149136	359.2	19.6	-76.3	0.0
2025-01-23 17:25:54.271716	359.1	19.5	-77.3	0.0
2025-01-23 17:25:55.394970	359.0	19.4	-76.6	0.0
2025-01-23 17:25:56.519871	358.9	19.3	-76.5	0.0
2025-01-23 17:25:57.642624	358.7	19.1	-77.4	0.0
2025-01-23 17:25:58.765608	358.6	19.0	-77.2	0.0
2025-01-23 17:25:59.887951	358.5	18.9	-76.2	0.0
2025-01-23 17:26:01.010375	358.4	18.8	-76.2	0.0
2025-01-23 17:26:02.136093	358.3	18.6	-76.2	0.0
2025-01-23 17:26:03.257792	358.2	18.5	-76.2	0.0
2025-01-23 17:26:04.381269	358.0	18.4	-76.4	0.0
2025-01-23 17:26:05.503460	357.9	18.3	-76.4	0.0
2025-01-23 17:26:06.625925	357.8	18.2	-77.3	0.0
2025-01-23 17:26:07.747277	357.7	18.0	-76.0	0.0
2025-01-23 17:26:08.869021	357.6	17.9	-76.2	0.0
2025-01-23 17:26:09.990906	357.5	17.8	-76.5	0.0
2025-01-23 17:26:11.114036	357.4	17.7	-77.2	0.0
2025-01-23 17:26:12.235687	357.3	17.6	-77.5	0.0
2025-01-23 17:26:13.357215	357.1	17.4	-76.9	0.0
2025-01-23 17:26:14.479834	357.0	17.3	-77.0	0.0
2025-01-23 17:26:15.601409	356.9	17.2	-76.7	0.0
2025-01-23 17:26:16.724745	356.8	17.1	-78.1	0.0
2025-01-23 17:26:17.848096	356.7	17.0	-77.4	0.0
2025-01-23 17:26:18.971338	356.6	16.9	-76.8	0.0
2025-01-23 17:26:20.093902	356.5	16.7	-76.2	0.0
2025-01-23 17:26:21.216003	356.4	16.6	-76.8	0.0
2025-01-23 17:26:22.335888	356.3	16.5	-77.4	0.0
2025-01-23 17:26:23.458866	356.2	16.4	-76.3	0.0
2025-01-23 17:26:24.581668	356.1	16.3	-76.9	0.0
2025-01-23 17:26:25.706210	356.0	16.2	-76.7	0.0
2025-01-23 17:26:26.831582	355.9	16.1	-76.5	0.0
2025-01-23 17:26:27.954362	355.8	15.9	-76.3	0.0
2025-01-23 17:26:29.078576	355.7	15.8	-76.8	0.0
2025-01-23 17:26:30.202521	355.6	15.7	-76.7	0.0
2025-01-23 17:26:31.324835	355.5	15.6	-76.8	0.0
2025-01-23 17:26:32.446722	355.4	15.5	-78.0	0.0
2025-01-23 17:26:33.568466	355.3	15.4	-78.1	0.0
2025-01-23 17:26:34.692130	355.3	15.3	-78.5	0.0
2025-01-23 17:26:35.817248	355.2	15.2	-77.7	0.0
2025-01-23 17:26:36.939683	355.1	15.1	-77.6	0.0
2025-01-23 17:26:38.063089	355.0	14.9	-77.6	0.0
2025-01-23 17:26:39.187260	354.9	14.8	-78.2	0.0
2025-01-23 17:26:40.309365	354.8	14.7	-78.3	0.0
2025-01-23 17:26:41.432970	354.7	14.6	-78.4	0.0
2025-01-23 17:26:42.557365	354.6	14.5	-78.1	0.0
2025-01-23 17:26:43.680722	354.5	14.4	-77.2	0.0
2025-01-23 17:26:44.803010	354.4	14.3	-77.3	0.0
2025-01-23 17:26:45.927333	354.4	14.2	-77.3	0.0
2025-01-23 17:26:47.051563	354.3	14.1	-77.3	0.0
2025-01-23 17:26:48.175218	354.2	14.0	-77.7	0.0
2025-01-23 17:26:49.299451	354.1	13.9	-77.8	0.0
2025-01-23 17:26:50.423701	354.0	13.8	-77.5	0.0
2025-01-23 17:26:51.545392	353.9	13.7	-77.6	0.0
2025-01-23 17:26:52.669251	353.9	13.6	-77.6	0.0
2025-01-23 17:26:53.793736	353.8	13.5	-77.4	0.0
2025-01-23 17:26:54.917204	353.7	13.4	-77.7	0.0
2025-01-23 17:26:56.039605	353.6	13.3	-78.1	0.0
2025-01-23 17:26:57.162622	353.5	13.2	-77.3	0.0
2025-01-23 17:26:58.285278	353.4	13.1	-77.9	0.0
2025-01-23 17:26:59.407518	353.4	12.9	-76.8	0.0
2025-01-23 17:27:00.530302	353.3	12.8	-77.4	0.0
2025-01-23 17:27:01.652324	353.2	12.7	-77.4	0.0
2025-01-23 17:27:02.774819	353.1	12.6	-77.9	0.0
2025-01-23 17:27:03.898811	353.1	12.5	-77.9	0.0
2025-01-23 17:27:05.022980	353.0	12.4	-76.4	0.0
2025-01-23 17:27:06.146974	352.9	12.3	-78.5	0.0
2025-01-23 17:27:07.270720	352.8	12.2	-77.5	0.0
2025-01-23 17:27:08.395375	352.8	12.1	-78.0	0.0
2025-01-23 17:27:09.519300	352.7	12.1	-77.7	0.0
2025-01-23 17:27:10.641576	352.6	12.0	-78.1	0.0
2025-01-23 17:27:11.766273	352.5	11.9	-78.0	0.0
2025-01-23 17:27:12.890518	352.5	11.8	-78.2	0.0
2025-01-23 17:27:14.014108	352.4	11.7	-78.4	0.0
2025-01-23 17:27:15.138557	352.3	11.6	-78.1	0.0
2025-01-23 17:27:16.263127	352.2	11.5	-77.5	0.0
2025-01-23 17:27:17.385987	352.2	11.4	-77.8	0.0
2025-01-23 17:27:18.506998	352.1	11.3	-77.8	0.0
2025-01-23 17:27:19.631787	352.0	11.2	-77.4	0.0
2025-01-23 17:27:20.756244	352.0	11.1	-78.2	0.0
2025-01-23 17:27:21.881520	351.9	11.0	-78.2	0.0
2025-01-23 17:27:23.003148	351.8	10.9	-76.6	0.0
2025-01-23 17:27:24.127690	351.8	10.8	-78.4	0.0
2025-01-23 17:27:25.251174	351.7	10.7	-77.8	0.0
2025-01-23 17:27:26.373309	351.6	10.6	-77.4	0.0
2025-01-23 17:27:27.496288	351.6	10.5	-78.0	0.0
2025-01-23 17:27:28.618118	351.5	10.4	-77.6	0.0
2025-01-23 17:27:29.742802	351.4	10.3	-77.6	0.0
2025-01-23 17:27:30.865104	351.4	10.2	-77.8	0.0
2025-01-23 17:27:31.987863	351.3	10.2	-77.4	0.0
2025-01-23 17:27:33.109997	351.2	10.1	-77.1	0.0
#Closed at: 2025-01-23 17:17:11.619323