passes_logs/2025/01/23/planumMaritime01/planumMaritime01__20250123_074713_NOAA_18_rec.log

#Pass ID: 20250123_074713_NOAA 18
#Satellite: NOAA 18
#Configuration: NOAA 18
#Start time: 2025-01-23 07:47:18.431822

#LorettStation: 1.0.0 05.05.2024
#Station: planumMaritime01
#Location: 37.49445 lon 55.92918 lat
#TLE: 1 28654U 05018A   25022.24143052  .00000458  00000+0  26647-3 0  9995
#TLE: 2 28654  98.8556 103.2235 0014680 159.1096 201.0679 14.13493787 14203

#Time	Az	El	Level	SNR
2025-01-23 07:47:20.600021	33.2	10.2	-94.8	0.0
2025-01-23 07:47:21.725242	33.3	10.2	-94.6	0.0
2025-01-23 07:47:22.853774	33.4	10.3	-94.3	0.0
2025-01-23 07:47:23.982305	33.5	10.4	-94.6	0.0
2025-01-23 07:47:25.109363	33.6	10.5	-94.2	0.0
2025-01-23 07:47:26.236492	33.8	10.6	-94.3	0.0
2025-01-23 07:47:27.363477	33.9	10.6	-94.6	0.0
2025-01-23 07:47:28.491290	34.0	10.7	-94.7	0.0
2025-01-23 07:47:29.617644	34.1	10.8	-94.6	0.0
2025-01-23 07:47:30.744462	34.2	10.9	-94.9	0.0
2025-01-23 07:47:31.872309	34.3	11.0	-94.4	0.0
2025-01-23 07:47:32.997431	34.5	11.0	-94.4	0.0
2025-01-23 07:47:34.124863	34.6	11.1	-94.6	0.0
2025-01-23 07:47:35.250328	34.7	11.2	-94.5	0.0
2025-01-23 07:47:36.377693	34.8	11.3	-94.5	0.0
2025-01-23 07:47:37.503609	35.0	11.4	-94.6	0.0
2025-01-23 07:47:38.629207	35.1	11.5	-94.7	0.0
2025-01-23 07:47:39.756000	35.2	11.5	-94.5	0.0
2025-01-23 07:47:40.883520	35.3	11.6	-94.6	0.0
2025-01-23 07:47:42.009720	35.4	11.7	-94.5	0.0
2025-01-23 07:47:43.134878	35.6	11.8	-94.5	0.0
2025-01-23 07:47:44.261531	35.7	11.9	-94.2	0.0
2025-01-23 07:47:45.388772	35.8	12.0	-94.7	0.0
2025-01-23 07:47:46.514476	36.0	12.0	-94.6	0.0
2025-01-23 07:47:47.641927	36.1	12.1	-94.6	0.0
2025-01-23 07:47:48.768335	36.2	12.2	-94.8	0.0
2025-01-23 07:47:49.896111	36.3	12.3	-94.8	0.0
2025-01-23 07:47:51.019910	36.5	12.4	-94.5	0.0
2025-01-23 07:47:52.149555	36.6	12.5	-94.7	0.0
2025-01-23 07:47:53.276167	36.7	12.6	-94.5	0.0
2025-01-23 07:47:54.403052	36.9	12.6	-94.6	0.0
2025-01-23 07:47:55.529775	37.0	12.7	-94.9	0.0
2025-01-23 07:47:56.657737	37.1	12.8	-94.8	0.0
2025-01-23 07:47:57.784513	37.3	12.9	-94.6	0.0
2025-01-23 07:47:58.911724	37.4	13.0	-94.8	0.0
2025-01-23 07:48:00.037400	37.5	13.1	-94.7	0.0
2025-01-23 07:48:01.163736	37.7	13.2	-94.4	0.0
2025-01-23 07:48:02.289330	37.8	13.2	-94.6	0.0
2025-01-23 07:48:03.415943	38.0	13.3	-94.5	0.0
2025-01-23 07:48:04.542611	38.1	13.4	-94.5	0.0
2025-01-23 07:48:05.668171	38.2	13.5	-94.9	0.0
2025-01-23 07:48:06.795313	38.4	13.6	-94.9	0.0
2025-01-23 07:48:07.921884	38.5	13.7	-94.5	0.0
2025-01-23 07:48:09.049507	38.7	13.8	-94.3	0.0
2025-01-23 07:48:10.177043	38.8	13.8	-94.9	0.0
2025-01-23 07:48:11.303156	38.9	13.9	-94.7	0.0
2025-01-23 07:48:12.431088	39.1	14.0	-94.4	0.0
2025-01-23 07:48:13.557294	39.2	14.1	-95.0	0.0
2025-01-23 07:48:14.683526	39.4	14.2	-94.5	0.0
2025-01-23 07:48:15.810887	39.5	14.3	-94.6	0.0
2025-01-23 07:48:16.938418	39.7	14.4	-94.8	0.0
2025-01-23 07:48:18.063760	39.8	14.5	-94.5	0.0
2025-01-23 07:48:19.192458	40.0	14.5	-94.4	0.0
2025-01-23 07:48:20.320594	40.1	14.6	-94.6	0.0
2025-01-23 07:48:21.445146	40.3	14.7	-94.6	0.0
2025-01-23 07:48:22.571632	40.4	14.8	-94.5	0.0
2025-01-23 07:48:23.697630	40.6	14.9	-94.6	0.0
2025-01-23 07:48:24.825443	40.7	15.0	-94.8	0.0
2025-01-23 07:48:25.952766	40.9	15.1	-94.6	0.0
2025-01-23 07:48:27.078087	41.1	15.2	-94.6	0.0
2025-01-23 07:48:28.204463	41.2	15.3	-94.5	0.0
2025-01-23 07:48:29.330701	41.4	15.4	-94.7	0.0
2025-01-23 07:48:30.457510	41.5	15.4	-95.0	0.0
2025-01-23 07:48:31.584903	41.7	15.5	-95.0	0.0
2025-01-23 07:48:32.708987	41.8	15.6	-94.8	0.0
2025-01-23 07:48:33.836514	42.0	15.7	-94.8	0.0
2025-01-23 07:48:34.965270	42.2	15.8	-95.0	0.0
2025-01-23 07:48:36.092608	42.3	15.9	-94.6	0.0
2025-01-23 07:48:37.220821	42.5	16.0	-94.5	0.0
2025-01-23 07:48:38.347332	42.7	16.1	-94.7	0.0
2025-01-23 07:48:39.476624	42.8	16.2	-94.7	0.0
2025-01-23 07:48:40.601966	43.0	16.3	-94.8	0.0
2025-01-23 07:48:41.731605	43.2	16.3	-94.7	0.0
2025-01-23 07:48:42.858164	43.3	16.4	-94.6	0.0
2025-01-23 07:48:43.986347	43.5	16.5	-94.7	0.0
2025-01-23 07:48:45.114866	43.7	16.6	-94.5	0.0
2025-01-23 07:48:46.241873	43.9	16.7	-94.5	0.0
2025-01-23 07:48:47.368304	44.0	16.8	-94.9	0.0
2025-01-23 07:48:48.495040	44.2	16.9	-94.7	0.0
2025-01-23 07:48:49.622592	44.4	17.0	-94.7	0.0
2025-01-23 07:48:50.751753	44.6	17.1	-94.9	0.0
2025-01-23 07:48:51.879968	44.7	17.2	-94.5	0.0
2025-01-23 07:48:53.007645	44.9	17.3	-94.8	0.0
2025-01-23 07:48:54.135405	45.1	17.4	-94.9	0.0
2025-01-23 07:48:55.261587	45.3	17.5	-94.6	0.0
2025-01-23 07:48:56.387193	45.5	17.5	-94.8	0.0
2025-01-23 07:48:57.514825	45.6	17.6	-94.8	0.0
2025-01-23 07:48:58.642461	45.8	17.7	-94.6	0.0
2025-01-23 07:48:59.770165	46.0	17.8	-94.8	0.0
2025-01-23 07:49:00.896642	46.2	17.9	-95.0	0.0
2025-01-23 07:49:02.021825	46.4	18.0	-94.6	0.0
2025-01-23 07:49:03.149023	46.6	18.1	-94.4	0.0
2025-01-23 07:49:04.276985	46.8	18.2	-94.6	0.0
2025-01-23 07:49:05.403911	46.9	18.3	-94.7	0.0
2025-01-23 07:49:06.531686	47.1	18.4	-94.7	0.0
2025-01-23 07:49:07.660096	47.3	18.5	-94.5	0.0
2025-01-23 07:49:08.786353	47.5	18.6	-94.7	0.0
2025-01-23 07:49:09.913517	47.7	18.7	-94.7	0.0
2025-01-23 07:49:11.040410	47.9	18.7	-94.7	0.0
2025-01-23 07:49:12.165603	48.1	18.8	-94.8	0.0
2025-01-23 07:49:13.293248	48.3	18.9	-94.9	0.0
2025-01-23 07:49:14.418598	48.5	19.0	-95.1	0.0
2025-01-23 07:49:15.546890	48.7	19.1	-94.4	0.0
2025-01-23 07:49:16.671878	48.9	19.2	-94.7	0.0
2025-01-23 07:49:17.799171	49.1	19.3	-94.7	0.0
2025-01-23 07:49:18.927291	49.3	19.4	-94.5	0.0
2025-01-23 07:49:20.054879	49.5	19.5	-94.8	0.0
2025-01-23 07:49:21.181575	49.7	19.6	-94.8	0.0
2025-01-23 07:49:22.308386	50.0	19.7	-94.7	0.0
2025-01-23 07:49:23.436474	50.2	19.8	-94.9	0.0
2025-01-23 07:49:24.563629	50.4	19.9	-94.8	0.0
2025-01-23 07:49:25.690367	50.6	20.0	-94.5	0.0
2025-01-23 07:49:26.817013	50.8	20.1	-94.5	0.0
2025-01-23 07:49:27.942614	51.0	20.1	-94.7	0.0
2025-01-23 07:49:29.070895	51.2	20.2	-94.5	0.0
2025-01-23 07:49:30.198431	51.4	20.3	-94.5	0.0
2025-01-23 07:49:31.326066	51.7	20.4	-94.8	0.0
2025-01-23 07:49:32.451322	51.9	20.5	-94.4	0.0
2025-01-23 07:49:33.579155	52.1	20.6	-94.7	0.0
2025-01-23 07:49:34.704281	52.3	20.7	-94.8	0.0
2025-01-23 07:49:35.831948	52.6	20.8	-94.5	0.0
2025-01-23 07:49:36.957736	52.8	20.9	-94.8	0.0
2025-01-23 07:49:38.085925	53.0	21.0	-94.8	0.0
2025-01-23 07:49:39.214236	53.2	21.1	-94.8	0.0
2025-01-23 07:49:40.341129	53.5	21.2	-94.7	0.0
2025-01-23 07:49:41.467799	53.7	21.3	-95.0	0.0
2025-01-23 07:49:42.593506	53.9	21.3	-94.9	0.0
2025-01-23 07:49:43.721067	54.2	21.4	-94.6	0.0
2025-01-23 07:49:44.846812	54.4	21.5	-94.9	0.0
2025-01-23 07:49:45.972909	54.6	21.6	-94.6	0.0
2025-01-23 07:49:47.102317	54.9	21.7	-94.8	0.0
2025-01-23 07:49:48.227899	55.1	21.8	-94.8	0.0
2025-01-23 07:49:49.354389	55.3	21.9	-94.6	0.0
2025-01-23 07:49:50.481149	55.6	22.0	-94.5	0.0
2025-01-23 07:49:51.608990	55.8	22.1	-94.7	0.0
2025-01-23 07:49:52.735482	56.1	22.2	-94.8	0.0
2025-01-23 07:49:53.863626	56.3	22.3	-94.4	0.0
2025-01-23 07:49:54.992295	56.6	22.3	-94.8	0.0
2025-01-23 07:49:56.119870	56.8	22.4	-94.8	0.0
2025-01-23 07:49:57.247056	57.1	22.5	-94.8	0.0
2025-01-23 07:49:58.373781	57.3	22.6	-94.7	0.0
2025-01-23 07:49:59.502891	57.6	22.7	-94.8	0.0
2025-01-23 07:50:00.628671	57.8	22.8	-94.5	0.0
2025-01-23 07:50:01.756756	58.1	22.9	-94.5	0.0
2025-01-23 07:50:02.883335	58.3	23.0	-94.7	0.0
2025-01-23 07:50:04.010598	58.6	23.1	-95.1	0.0
2025-01-23 07:50:05.136185	58.9	23.1	-94.9	0.0
2025-01-23 07:50:06.262494	59.1	23.2	-94.4	0.0
2025-01-23 07:50:07.391850	59.4	23.3	-95.0	0.0
2025-01-23 07:50:08.521014	59.6	23.4	-94.8	0.0
2025-01-23 07:50:09.649050	59.9	23.5	-94.4	0.0
2025-01-23 07:50:10.775086	60.2	23.6	-94.8	0.0
2025-01-23 07:50:11.900849	60.4	23.7	-94.7	0.0
2025-01-23 07:50:13.027532	60.7	23.7	-94.5	0.0
2025-01-23 07:50:14.156827	61.0	23.8	-94.7	0.0
2025-01-23 07:50:15.284788	61.3	23.9	-94.8	0.0
2025-01-23 07:50:16.411193	61.5	24.0	-94.4	0.0
2025-01-23 07:50:17.537314	61.8	24.1	-94.8	0.0
2025-01-23 07:50:18.665642	62.1	24.2	-94.7	0.0
2025-01-23 07:50:19.793989	62.4	24.2	-94.5	0.0
2025-01-23 07:50:20.920675	62.6	24.3	-94.8	0.0
2025-01-23 07:50:22.048241	62.9	24.4	-94.6	0.0
2025-01-23 07:50:23.175923	63.2	24.5	-94.7	0.0
2025-01-23 07:50:24.301397	63.5	24.6	-94.7	0.0
2025-01-23 07:50:25.427833	63.8	24.7	-94.6	0.0
2025-01-23 07:50:26.553804	64.1	24.7	-94.5	0.0
2025-01-23 07:50:27.680720	64.4	24.8	-94.7	0.0
2025-01-23 07:50:28.807404	64.6	24.9	-94.8	0.0
2025-01-23 07:50:29.932675	64.9	25.0	-94.8	0.0
2025-01-23 07:50:31.059081	65.2	25.0	-94.9	0.0
2025-01-23 07:50:32.185221	65.5	25.1	-95.0	0.0
2025-01-23 07:50:33.312422	65.8	25.2	-94.6	0.0
2025-01-23 07:50:34.438096	66.1	25.3	-94.8	0.0
2025-01-23 07:50:35.563677	66.4	25.4	-94.8	0.0
2025-01-23 07:50:36.690193	66.7	25.4	-94.6	0.0
2025-01-23 07:50:37.817531	67.0	25.5	-94.7	0.0
2025-01-23 07:50:38.944357	67.3	25.6	-94.9	0.0
2025-01-23 07:50:40.072128	67.6	25.7	-94.6	0.0
2025-01-23 07:50:41.198423	67.9	25.7	-94.7	0.0
2025-01-23 07:50:42.326419	68.2	25.8	-94.8	0.0
2025-01-23 07:50:43.453618	68.5	25.9	-94.7	0.0
2025-01-23 07:50:44.580190	68.9	25.9	-94.4	0.0
2025-01-23 07:50:45.706287	69.2	26.0	-94.6	0.0
2025-01-23 07:50:46.833840	69.5	26.1	-94.8	0.0
2025-01-23 07:50:47.960917	69.8	26.1	-94.5	0.0
2025-01-23 07:50:49.088985	70.1	26.2	-94.7	0.0
2025-01-23 07:50:50.217774	70.4	26.3	-94.6	0.0
2025-01-23 07:50:51.346089	70.7	26.3	-94.8	0.0
2025-01-23 07:50:52.472556	71.1	26.4	-94.6	0.0
2025-01-23 07:50:53.596897	71.4	26.5	-94.9	0.0
2025-01-23 07:50:54.722160	71.7	26.5	-94.5	0.0
2025-01-23 07:50:55.846979	72.0	26.6	-94.7	0.0
2025-01-23 07:50:56.973470	72.3	26.7	-95.0	0.0
2025-01-23 07:50:58.097869	72.7	26.7	-94.9	0.0
2025-01-23 07:50:59.222692	73.0	26.8	-94.9	0.0
2025-01-23 07:51:00.348585	73.3	26.8	-94.7	0.0
2025-01-23 07:51:01.474838	73.6	26.9	-94.9	0.0
2025-01-23 07:51:02.601364	74.0	27.0	-94.7	0.0
2025-01-23 07:51:03.728494	74.3	27.0	-94.5	0.0
2025-01-23 07:51:04.855064	74.6	27.1	-94.8	0.0
2025-01-23 07:51:05.980719	75.0	27.1	-94.5	0.0
2025-01-23 07:51:07.109032	75.3	27.2	-94.7	0.0
2025-01-23 07:51:08.234694	75.6	27.2	-94.8	0.0
2025-01-23 07:51:09.362672	76.0	27.3	-94.8	0.0
2025-01-23 07:51:10.488842	76.3	27.3	-94.6	0.0
2025-01-23 07:51:11.614241	76.7	27.4	-94.5	0.0
2025-01-23 07:51:12.743047	77.0	27.4	-94.5	0.0
2025-01-23 07:51:13.870515	77.3	27.5	-94.7	0.0
2025-01-23 07:51:14.996520	77.7	27.5	-94.9	0.0
2025-01-23 07:51:16.122404	78.0	27.6	-95.1	0.0
2025-01-23 07:51:17.250480	78.4	27.6	-94.4	0.0
2025-01-23 07:51:18.374430	78.7	27.7	-94.6	0.0
2025-01-23 07:51:19.503078	79.1	27.7	-95.0	0.0
2025-01-23 07:51:20.629780	79.4	27.8	-94.5	0.0
2025-01-23 07:51:21.756882	79.8	27.8	-94.6	0.0
2025-01-23 07:51:22.881810	80.1	27.8	-94.6	0.0
2025-01-23 07:51:24.006537	80.5	27.9	-94.7	0.0
2025-01-23 07:51:25.134002	80.8	27.9	-94.7	0.0
2025-01-23 07:51:26.259314	81.2	28.0	-95.0	0.0
2025-01-23 07:51:27.387888	81.5	28.0	-94.8	0.0
2025-01-23 07:51:28.517500	81.9	28.0	-94.4	0.0
2025-01-23 07:51:29.646096	82.2	28.1	-94.8	0.0
2025-01-23 07:51:30.775138	82.6	28.1	-94.7	0.0
2025-01-23 07:51:31.900963	82.9	28.1	-94.8	0.0
2025-01-23 07:51:33.028190	83.3	28.2	-94.8	0.0
2025-01-23 07:51:34.155955	83.6	28.2	-94.9	0.0
2025-01-23 07:51:35.281951	84.0	28.2	-94.7	0.0
2025-01-23 07:51:36.412333	84.4	28.2	-94.7	0.0
2025-01-23 07:51:37.541632	84.7	28.3	-94.8	0.0
2025-01-23 07:51:38.668630	85.1	28.3	-94.7	0.0
2025-01-23 07:51:39.793210	85.4	28.3	-94.8	0.0
2025-01-23 07:51:40.918182	85.8	28.3	-94.7	0.0
2025-01-23 07:51:42.044910	86.2	28.4	-95.1	0.0
2025-01-23 07:51:43.174349	86.5	28.4	-94.6	0.0
2025-01-23 07:51:44.302519	86.9	28.4	-94.5	0.0
2025-01-23 07:51:45.429429	87.2	28.4	-94.9	0.0
2025-01-23 07:51:46.555608	87.6	28.4	-94.8	0.0
2025-01-23 07:51:47.682331	88.0	28.4	-94.8	0.0
2025-01-23 07:51:48.809593	88.3	28.5	-94.8	0.0
2025-01-23 07:51:49.935509	88.7	28.5	-94.9	0.0
2025-01-23 07:51:51.062140	89.1	28.5	-94.6	0.0
2025-01-23 07:51:52.190407	89.4	28.5	-94.8	0.0
2025-01-23 07:51:53.315105	89.8	28.5	-94.7	0.0
2025-01-23 07:51:54.442075	90.2	28.5	-94.7	0.0
2025-01-23 07:51:55.568528	90.5	28.5	-95.0	0.0
2025-01-23 07:51:56.696045	90.9	28.5	-95.0	0.0
2025-01-23 07:51:57.823196	91.2	28.5	-94.7	0.0
2025-01-23 07:51:58.948730	91.6	28.5	-94.9	0.0
2025-01-23 07:52:00.076877	92.0	28.5	-95.0	0.0
2025-01-23 07:52:01.205332	92.3	28.5	-94.7	0.0
2025-01-23 07:52:02.332141	92.7	28.5	-94.7	0.0
2025-01-23 07:52:03.458728	93.1	28.5	-94.6	0.0
2025-01-23 07:52:04.586975	93.4	28.5	-94.6	0.0
2025-01-23 07:52:05.710247	93.8	28.5	-94.9	0.0
2025-01-23 07:52:06.835672	94.2	28.5	-94.7	0.0
2025-01-23 07:52:07.962507	94.5	28.5	-94.6	0.0
2025-01-23 07:52:09.087980	94.9	28.5	-94.7	0.0
2025-01-23 07:52:10.214821	95.3	28.5	-94.7	0.0
2025-01-23 07:52:11.341262	95.6	28.5	-94.9	0.0
2025-01-23 07:52:12.468981	96.0	28.5	-94.4	0.0
2025-01-23 07:52:13.595280	96.4	28.5	-94.4	0.0
2025-01-23 07:52:14.722702	96.7	28.4	-94.8	0.0
2025-01-23 07:52:15.847885	97.1	28.4	-94.9	0.0
2025-01-23 07:52:16.973324	97.4	28.4	-94.7	0.0
2025-01-23 07:52:18.098954	97.8	28.4	-95.0	0.0
2025-01-23 07:52:19.224727	98.2	28.4	-94.8	0.0
2025-01-23 07:52:20.350829	98.5	28.4	-94.8	0.0
2025-01-23 07:52:21.476434	98.9	28.3	-94.9	0.0
2025-01-23 07:52:22.602419	99.2	28.3	-94.9	0.0
2025-01-23 07:52:23.730308	99.6	28.3	-94.8	0.0
2025-01-23 07:52:24.855036	100.0	28.3	-95.1	0.0
2025-01-23 07:52:25.982546	100.3	28.2	-95.0	0.0
2025-01-23 07:52:27.108043	100.7	28.2	-95.0	0.0
2025-01-23 07:52:28.233506	101.0	28.2	-94.8	0.0
2025-01-23 07:52:29.359232	101.4	28.1	-94.9	0.0
2025-01-23 07:52:30.486621	101.8	28.1	-94.8	0.0
2025-01-23 07:52:31.611886	102.1	28.1	-95.0	0.0
2025-01-23 07:52:32.739280	102.5	28.0	-94.6	0.0
2025-01-23 07:52:33.866223	102.8	28.0	-94.5	0.0
2025-01-23 07:52:34.991990	103.2	28.0	-94.6	0.0
2025-01-23 07:52:36.117602	103.5	27.9	-94.6	0.0
2025-01-23 07:52:37.243813	103.9	27.9	-95.0	0.0
2025-01-23 07:52:38.370405	104.2	27.9	-95.0	0.0
2025-01-23 07:52:39.495638	104.6	27.8	-94.5	0.0
2025-01-23 07:52:40.622209	104.9	27.8	-94.5	0.0
2025-01-23 07:52:41.750972	105.3	27.7	-94.9	0.0
2025-01-23 07:52:42.876798	105.6	27.7	-94.6	0.0
2025-01-23 07:52:44.004467	106.0	27.7	-94.5	0.0
2025-01-23 07:52:45.130827	106.3	27.6	-94.9	0.0
2025-01-23 07:52:46.257128	106.7	27.6	-94.7	0.0
2025-01-23 07:52:47.383437	107.0	27.5	-94.7	0.0
2025-01-23 07:52:48.508934	107.4	27.5	-94.9	0.0
2025-01-23 07:52:49.635142	107.7	27.4	-94.7	0.0
2025-01-23 07:52:50.761151	108.0	27.4	-94.6	0.0
2025-01-23 07:52:51.886866	108.4	27.3	-94.4	0.0
2025-01-23 07:52:53.013082	108.7	27.3	-94.8	0.0
2025-01-23 07:52:54.141912	109.0	27.2	-95.0	0.0
2025-01-23 07:52:55.266907	109.4	27.2	-94.9	0.0
2025-01-23 07:52:56.393033	109.7	27.1	-94.8	0.0
2025-01-23 07:52:57.520496	110.1	27.0	-94.9	0.0
2025-01-23 07:52:58.647760	110.4	27.0	-94.6	0.0
2025-01-23 07:52:59.774046	110.7	26.9	-94.6	0.0
2025-01-23 07:53:00.898759	111.1	26.9	-95.1	0.0
2025-01-23 07:53:02.025360	111.4	26.8	-94.7	0.0
2025-01-23 07:53:03.150802	111.7	26.8	-94.5	0.0
2025-01-23 07:53:04.276820	112.0	26.7	-94.8	0.0
2025-01-23 07:53:05.404329	112.4	26.6	-94.6	0.0
2025-01-23 07:53:06.532847	112.7	26.6	-94.9	0.0
2025-01-23 07:53:07.660361	113.0	26.5	-94.6	0.0
2025-01-23 07:53:08.787887	113.3	26.4	-94.7	0.0
2025-01-23 07:53:09.916765	113.7	26.4	-94.5	0.0
2025-01-23 07:53:11.042918	114.0	26.3	-94.9	0.0
2025-01-23 07:53:12.171252	114.3	26.2	-94.7	0.0
2025-01-23 07:53:13.298127	114.6	26.2	-94.8	0.0
2025-01-23 07:53:14.424606	114.9	26.1	-94.4	0.0
2025-01-23 07:53:15.553228	115.2	26.0	-94.6	0.0
2025-01-23 07:53:16.679382	115.6	26.0	-94.8	0.0
2025-01-23 07:53:17.805659	115.9	25.9	-94.9	0.0
2025-01-23 07:53:18.931864	116.2	25.8	-94.7	0.0
2025-01-23 07:53:20.057959	116.5	25.7	-94.6	0.0
2025-01-23 07:53:21.184556	116.8	25.7	-95.0	0.0
2025-01-23 07:53:22.311983	117.1	25.6	-95.1	0.0
2025-01-23 07:53:23.439601	117.4	25.5	-95.2	0.0
2025-01-23 07:53:24.568659	117.7	25.5	-94.8	0.0
2025-01-23 07:53:25.697902	118.0	25.4	-94.9	0.0
2025-01-23 07:53:26.824458	118.3	25.3	-94.8	0.0
2025-01-23 07:53:27.950335	118.6	25.2	-95.0	0.0
2025-01-23 07:53:29.078084	118.9	25.1	-94.7	0.0
2025-01-23 07:53:30.207382	119.2	25.1	-95.2	0.0
2025-01-23 07:53:31.333741	119.5	25.0	-94.6	0.0
2025-01-23 07:53:32.460556	119.8	24.9	-94.8	0.0
2025-01-23 07:53:33.588202	120.1	24.8	-94.8	0.0
2025-01-23 07:53:34.714468	120.4	24.8	-94.6	0.0
2025-01-23 07:53:35.841837	120.7	24.7	-94.5	0.0
2025-01-23 07:53:36.969328	121.0	24.6	-94.8	0.0
2025-01-23 07:53:38.097384	121.2	24.5	-94.7	0.0
2025-01-23 07:53:39.224753	121.5	24.4	-94.7	0.0
2025-01-23 07:53:40.351098	121.8	24.3	-95.0	0.0
2025-01-23 07:53:41.479076	122.1	24.3	-94.6	0.0
2025-01-23 07:53:42.604685	122.4	24.2	-94.8	0.0
2025-01-23 07:53:43.731268	122.7	24.1	-94.8	0.0
2025-01-23 07:53:44.858012	122.9	24.0	-94.5	0.0
2025-01-23 07:53:45.986524	123.2	23.9	-94.7	0.0
2025-01-23 07:53:47.113399	123.5	23.8	-95.0	0.0
2025-01-23 07:53:48.240944	123.8	23.8	-94.8	0.0
2025-01-23 07:53:49.369406	124.0	23.7	-94.6	0.0
2025-01-23 07:53:50.495024	124.3	23.6	-94.6	0.0
2025-01-23 07:53:51.623567	124.6	23.5	-94.6	0.0
2025-01-23 07:53:52.750630	124.8	23.4	-94.9	0.0
2025-01-23 07:53:53.877345	125.1	23.3	-94.8	0.0
2025-01-23 07:53:55.003415	125.4	23.2	-94.8	0.0
2025-01-23 07:53:56.131660	125.6	23.1	-95.3	0.0
2025-01-23 07:53:57.257306	125.9	23.1	-95.1	0.0
2025-01-23 07:53:58.384292	126.2	23.0	-94.8	0.0
2025-01-23 07:53:59.513179	126.4	22.9	-94.6	0.0
2025-01-23 07:54:00.639158	126.7	22.8	-95.0	0.0
2025-01-23 07:54:01.766421	126.9	22.7	-95.0	0.0
2025-01-23 07:54:02.891233	127.2	22.6	-94.9	0.0
2025-01-23 07:54:04.016724	127.4	22.5	-95.1	0.0
2025-01-23 07:54:05.145026	127.7	22.4	-94.7	0.0
2025-01-23 07:54:06.272192	127.9	22.3	-94.8	0.0
2025-01-23 07:54:07.400074	128.2	22.3	-94.9	0.0
2025-01-23 07:54:08.526967	128.4	22.2	-94.7	0.0
2025-01-23 07:54:09.654061	128.7	22.1	-94.5	0.0
2025-01-23 07:54:10.781976	128.9	22.0	-94.8	0.0
2025-01-23 07:54:11.910894	129.2	21.9	-94.9	0.0
2025-01-23 07:54:13.036829	129.4	21.8	-94.7	0.0
2025-01-23 07:54:14.163207	129.7	21.7	-94.7	0.0
2025-01-23 07:54:15.290846	129.9	21.6	-94.6	0.0
2025-01-23 07:54:16.417892	130.1	21.5	-94.7	0.0
2025-01-23 07:54:17.545567	130.4	21.4	-94.8	0.0
2025-01-23 07:54:18.673826	130.6	21.3	-94.7	0.0
2025-01-23 07:54:19.800893	130.8	21.2	-95.0	0.0
2025-01-23 07:54:20.928686	131.1	21.1	-94.7	0.0
2025-01-23 07:54:22.056780	131.3	21.1	-94.8	0.0
2025-01-23 07:54:23.185466	131.5	21.0	-94.8	0.0
2025-01-23 07:54:24.313455	131.8	20.9	-94.6	0.0
2025-01-23 07:54:25.439773	132.0	20.8	-94.6	0.0
2025-01-23 07:54:26.564262	132.2	20.7	-94.9	0.0
2025-01-23 07:54:27.689955	132.4	20.6	-94.8	0.0
2025-01-23 07:54:28.817065	132.7	20.5	-95.0	0.0
2025-01-23 07:54:29.941977	132.9	20.4	-94.8	0.0
2025-01-23 07:54:31.069595	133.1	20.3	-95.0	0.0
2025-01-23 07:54:32.195315	133.3	20.2	-94.6	0.0
2025-01-23 07:54:33.324614	133.5	20.1	-94.7	0.0
2025-01-23 07:54:34.451412	133.8	20.0	-94.9	0.0
2025-01-23 07:54:35.578010	134.0	19.9	-94.8	0.0
2025-01-23 07:54:36.704568	134.2	19.8	-95.0	0.0
2025-01-23 07:54:37.830725	134.4	19.7	-94.7	0.0
2025-01-23 07:54:38.957433	134.6	19.6	-95.1	0.0
2025-01-23 07:54:40.084002	134.8	19.6	-94.8	0.0
2025-01-23 07:54:41.210409	135.0	19.5	-94.7	0.0
2025-01-23 07:54:42.337315	135.2	19.4	-94.6	0.0
2025-01-23 07:54:43.463273	135.5	19.3	-94.9	0.0
2025-01-23 07:54:44.589215	135.7	19.2	-94.8	0.0
2025-01-23 07:54:45.716104	135.9	19.1	-94.8	0.0
2025-01-23 07:54:46.842569	136.1	19.0	-94.8	0.0
2025-01-23 07:54:47.968932	136.3	18.9	-94.9	0.0
2025-01-23 07:54:49.094603	136.5	18.8	-94.7	0.0
2025-01-23 07:54:50.220758	136.7	18.7	-94.7	0.0
2025-01-23 07:54:51.348506	136.9	18.6	-94.6	0.0
2025-01-23 07:54:52.475215	137.1	18.5	-94.7	0.0
2025-01-23 07:54:53.603361	137.3	18.4	-94.6	0.0
2025-01-23 07:54:54.731340	137.5	18.3	-94.9	0.0
2025-01-23 07:54:55.856769	137.6	18.2	-94.9	0.0
2025-01-23 07:54:56.982973	137.8	18.1	-94.9	0.0
2025-01-23 07:54:58.107439	138.0	18.0	-94.9	0.0
2025-01-23 07:54:59.233836	138.2	18.0	-95.0	0.0
2025-01-23 07:55:00.361218	138.4	17.9	-94.9	0.0
2025-01-23 07:55:01.489196	138.6	17.8	-94.7	0.0
2025-01-23 07:55:02.615916	138.8	17.7	-94.9	0.0
2025-01-23 07:55:03.742098	139.0	17.6	-95.0	0.0
2025-01-23 07:55:04.867891	139.2	17.5	-95.1	0.0
2025-01-23 07:55:05.996130	139.3	17.4	-95.2	0.0
2025-01-23 07:55:07.123579	139.5	17.3	-94.9	0.0
2025-01-23 07:55:08.251269	139.7	17.2	-94.6	0.0
2025-01-23 07:55:09.378896	139.9	17.1	-94.9	0.0
2025-01-23 07:55:10.505373	140.1	17.0	-94.7	0.0
2025-01-23 07:55:11.632533	140.2	16.9	-94.7	0.0
2025-01-23 07:55:12.759115	140.4	16.8	-95.0	0.0
2025-01-23 07:55:13.884897	140.6	16.7	-95.0	0.0
2025-01-23 07:55:15.011346	140.8	16.6	-94.8	0.0
2025-01-23 07:55:16.138839	140.9	16.6	-94.7	0.0
2025-01-23 07:55:17.264787	141.1	16.5	-94.7	0.0
2025-01-23 07:55:18.391719	141.3	16.4	-94.7	0.0
2025-01-23 07:55:19.518754	141.5	16.3	-94.7	0.0
2025-01-23 07:55:20.645822	141.6	16.2	-94.8	0.0
2025-01-23 07:55:21.772119	141.8	16.1	-94.8	0.0
2025-01-23 07:55:22.899142	142.0	16.0	-95.1	0.0
2025-01-23 07:55:24.025468	142.1	15.9	-94.9	0.0
2025-01-23 07:55:25.151151	142.3	15.8	-94.9	0.0
2025-01-23 07:55:26.279890	142.5	15.7	-94.8	0.0
2025-01-23 07:55:27.404058	142.6	15.6	-94.9	0.0
2025-01-23 07:55:28.530446	142.8	15.5	-94.7	0.0
2025-01-23 07:55:29.658274	142.9	15.5	-94.8	0.0
2025-01-23 07:55:30.784854	143.1	15.4	-95.2	0.0
2025-01-23 07:55:31.910180	143.3	15.3	-95.1	0.0
2025-01-23 07:55:33.035863	143.4	15.2	-94.8	0.0
2025-01-23 07:55:34.162265	143.6	15.1	-94.8	0.0
2025-01-23 07:55:35.287228	143.7	15.0	-95.0	0.0
2025-01-23 07:55:36.413574	143.9	14.9	-94.9	0.0
2025-01-23 07:55:37.537491	144.0	14.8	-94.7	0.0
2025-01-23 07:55:38.664930	144.2	14.7	-94.9	0.0
2025-01-23 07:55:39.790645	144.4	14.6	-94.8	0.0
2025-01-23 07:55:40.917771	144.5	14.5	-95.0	0.0
2025-01-23 07:55:42.045320	144.7	14.5	-95.2	0.0
2025-01-23 07:55:43.174158	144.8	14.4	-95.0	0.0
2025-01-23 07:55:44.300554	145.0	14.3	-94.7	0.0
2025-01-23 07:55:45.427675	145.1	14.2	-95.0	0.0
2025-01-23 07:55:46.554424	145.3	14.1	-94.9	0.0
2025-01-23 07:55:47.679961	145.4	14.0	-94.7	0.0
2025-01-23 07:55:48.805669	145.6	13.9	-94.6	0.0
2025-01-23 07:55:49.932786	145.7	13.8	-94.7	0.0
2025-01-23 07:55:51.058673	145.8	13.7	-94.8	0.0
2025-01-23 07:55:52.184891	146.0	13.7	-94.6	0.0
2025-01-23 07:55:53.310244	146.1	13.6	-94.7	0.0
2025-01-23 07:55:54.435589	146.3	13.5	-94.9	0.0
2025-01-23 07:55:55.561947	146.4	13.4	-94.6	0.0
2025-01-23 07:55:56.686122	146.6	13.3	-94.4	0.0
2025-01-23 07:55:57.813572	146.7	13.2	-94.9	0.0
2025-01-23 07:55:58.939260	146.8	13.1	-94.9	0.0
2025-01-23 07:56:00.065218	147.0	13.0	-94.9	0.0
2025-01-23 07:56:01.190901	147.1	13.0	-94.8	0.0
2025-01-23 07:56:02.317724	147.2	12.9	-95.1	0.0
2025-01-23 07:56:03.444628	147.4	12.8	-94.8	0.0
2025-01-23 07:56:04.570866	147.5	12.7	-94.8	0.0
2025-01-23 07:56:05.695542	147.7	12.6	-95.1	0.0
2025-01-23 07:56:06.822479	147.8	12.5	-95.0	0.0
2025-01-23 07:56:07.948558	147.9	12.4	-94.6	0.0
2025-01-23 07:56:09.076609	148.1	12.3	-94.7	0.0
2025-01-23 07:56:10.203796	148.2	12.3	-95.0	0.0
2025-01-23 07:56:11.329820	148.3	12.2	-94.7	0.0
2025-01-23 07:56:12.455553	148.4	12.1	-95.1	0.0
2025-01-23 07:56:13.582355	148.6	12.0	-94.8	0.0
2025-01-23 07:56:14.711010	148.7	11.9	-94.8	0.0
2025-01-23 07:56:15.836623	148.8	11.8	-94.9	0.0
2025-01-23 07:56:16.962969	149.0	11.8	-94.7	0.0
2025-01-23 07:56:18.088510	149.1	11.7	-95.1	0.0
2025-01-23 07:56:19.213372	149.2	11.6	-94.8	0.0
2025-01-23 07:56:20.340279	149.3	11.5	-94.9	0.0
2025-01-23 07:56:21.466209	149.5	11.4	-95.1	0.0
2025-01-23 07:56:22.591011	149.6	11.3	-95.0	0.0
2025-01-23 07:56:23.716808	149.7	11.2	-94.6	0.0
2025-01-23 07:56:24.842822	149.8	11.2	-94.7	0.0
2025-01-23 07:56:25.968454	149.9	11.1	-94.8	0.0
2025-01-23 07:56:27.093644	150.1	11.0	-94.6	0.0
2025-01-23 07:56:28.221269	150.2	10.9	-94.5	0.0
2025-01-23 07:56:29.347860	150.3	10.8	-95.0	0.0
2025-01-23 07:56:30.472822	150.4	10.7	-95.0	0.0
2025-01-23 07:56:31.600541	150.5	10.7	-94.8	0.0
2025-01-23 07:56:32.725830	150.7	10.6	-94.7	0.0
2025-01-23 07:56:33.851299	150.8	10.5	-94.9	0.0
2025-01-23 07:56:34.979117	150.9	10.4	-94.5	0.0
2025-01-23 07:56:36.104247	151.0	10.3	-94.8	0.0
2025-01-23 07:56:37.232056	151.1	10.3	-94.8	0.0
2025-01-23 07:56:38.358461	151.2	10.2	-94.8	0.0
2025-01-23 07:56:39.484624	151.4	10.1	-94.9	0.0
2025-01-23 07:56:40.611906	151.5	10.0	-95.2	0.0
#Closed at: 2025-01-23 07:47:13.436670