passes_logs/2025/01/23/planumMaritime01/planumMaritime01__20250123_072326_NOAA_19_rec.log

#Pass ID: 20250123_072326_NOAA 19
#Satellite: NOAA 19
#Configuration: NOAA 19
#Start time: 2025-01-23 07:23:31.937310

#LorettStation: 1.0.0 05.05.2024
#Station: planumMaritime01
#Location: 37.49445 lon 55.92918 lat
#TLE: 1 33591U 09005A   25022.22545190  .00000382  00000+0  22773-3 0  9990
#TLE: 2 33591  99.0184  86.0433 0014227  38.0135 322.2038 14.13265658822568

#Time	Az	El	Level	SNR
2025-01-23 07:23:34.100509	23.0	10.2	-94.4	0.0
2025-01-23 07:23:35.225664	23.1	10.3	-94.8	0.0
2025-01-23 07:23:36.353396	23.1	10.4	-94.2	0.0
2025-01-23 07:23:37.478267	23.2	10.5	-94.3	0.0
2025-01-23 07:23:38.603788	23.2	10.6	-94.2	0.0
2025-01-23 07:23:39.731149	23.3	10.7	-94.6	0.0
2025-01-23 07:23:40.856338	23.4	10.8	-94.7	0.0
2025-01-23 07:23:41.981107	23.4	10.9	-94.7	0.0
2025-01-23 07:23:43.109135	23.5	10.9	-94.5	0.0
2025-01-23 07:23:44.237775	23.5	11.0	-94.6	0.0
2025-01-23 07:23:45.364858	23.6	11.1	-94.5	0.0
2025-01-23 07:23:46.492495	23.6	11.2	-94.7	0.0
2025-01-23 07:23:47.618273	23.7	11.3	-94.8	0.0
2025-01-23 07:23:48.745304	23.7	11.4	-94.3	0.0
2025-01-23 07:23:49.872582	23.8	11.5	-95.0	0.0
2025-01-23 07:23:50.999168	23.8	11.6	-94.9	0.0
2025-01-23 07:23:52.125480	23.9	11.7	-94.7	0.0
2025-01-23 07:23:53.252664	23.9	11.8	-94.7	0.0
2025-01-23 07:23:54.379275	24.0	11.9	-94.6	0.0
2025-01-23 07:23:55.506042	24.0	12.0	-94.8	0.0
2025-01-23 07:23:56.633342	24.1	12.1	-94.9	0.0
2025-01-23 07:23:57.761067	24.2	12.2	-94.6	0.0
2025-01-23 07:23:58.886922	24.2	12.3	-94.7	0.0
2025-01-23 07:24:00.013050	24.3	12.5	-94.9	0.0
2025-01-23 07:24:01.139897	24.3	12.6	-95.0	0.0
2025-01-23 07:24:02.267297	24.4	12.7	-94.4	0.0
2025-01-23 07:24:03.394890	24.4	12.8	-94.8	0.0
2025-01-23 07:24:04.522194	24.5	12.9	-94.6	0.0
2025-01-23 07:24:05.651779	24.6	13.0	-94.4	0.0
2025-01-23 07:24:06.776893	24.6	13.1	-94.6	0.0
2025-01-23 07:24:07.904704	24.7	13.2	-94.8	0.0
2025-01-23 07:24:09.030696	24.7	13.3	-94.9	0.0
2025-01-23 07:24:10.158268	24.8	13.4	-94.9	0.0
2025-01-23 07:24:11.284286	24.9	13.5	-94.6	0.0
2025-01-23 07:24:12.412333	24.9	13.6	-94.3	0.0
2025-01-23 07:24:13.537607	25.0	13.7	-94.7	0.0
2025-01-23 07:24:14.663809	25.0	13.8	-94.6	0.0
2025-01-23 07:24:15.791887	25.1	13.9	-94.5	0.0
2025-01-23 07:24:16.917847	25.2	14.0	-94.6	0.0
2025-01-23 07:24:18.044906	25.2	14.2	-94.7	0.0
2025-01-23 07:24:19.171288	25.3	14.3	-94.7	0.0
2025-01-23 07:24:20.298882	25.4	14.4	-94.8	0.0
2025-01-23 07:24:21.423853	25.4	14.5	-94.6	0.0
2025-01-23 07:24:22.548566	25.5	14.6	-94.5	0.0
2025-01-23 07:24:23.674445	25.6	14.7	-94.7	0.0
2025-01-23 07:24:24.801481	25.6	14.8	-94.8	0.0
2025-01-23 07:24:25.930669	25.7	14.9	-94.8	0.0
2025-01-23 07:24:27.057710	25.8	15.1	-94.8	0.0
2025-01-23 07:24:28.184478	25.8	15.2	-94.9	0.0
2025-01-23 07:24:29.308802	25.9	15.3	-94.7	0.0
2025-01-23 07:24:30.434135	26.0	15.4	-94.8	0.0
2025-01-23 07:24:31.562001	26.0	15.5	-94.7	0.0
2025-01-23 07:24:32.688210	26.1	15.6	-94.5	0.0
2025-01-23 07:24:33.814088	26.2	15.7	-94.6	0.0
2025-01-23 07:24:34.941419	26.2	15.9	-94.7	0.0
2025-01-23 07:24:36.066580	26.3	16.0	-94.9	0.0
2025-01-23 07:24:37.194290	26.4	16.1	-94.7	0.0
2025-01-23 07:24:38.323504	26.4	16.2	-94.2	0.0
2025-01-23 07:24:39.450293	26.5	16.3	-94.9	0.0
2025-01-23 07:24:40.578170	26.6	16.5	-94.7	0.0
2025-01-23 07:24:41.705950	26.7	16.6	-94.4	0.0
2025-01-23 07:24:42.834180	26.7	16.7	-94.8	0.0
2025-01-23 07:24:43.961732	26.8	16.8	-94.7	0.0
2025-01-23 07:24:45.088648	26.9	16.9	-94.9	0.0
2025-01-23 07:24:46.217247	27.0	17.1	-94.6	0.0
2025-01-23 07:24:47.344009	27.0	17.2	-94.8	0.0
2025-01-23 07:24:48.470544	27.1	17.3	-94.6	0.0
2025-01-23 07:24:49.595815	27.2	17.4	-94.6	0.0
2025-01-23 07:24:50.723816	27.3	17.6	-94.7	0.0
2025-01-23 07:24:51.850386	27.3	17.7	-94.9	0.0
2025-01-23 07:24:52.976762	27.4	17.8	-94.8	0.0
2025-01-23 07:24:54.102993	27.5	17.9	-94.7	0.0
2025-01-23 07:24:55.228973	27.6	18.1	-94.6	0.0
2025-01-23 07:24:56.355561	27.7	18.2	-94.8	0.0
2025-01-23 07:24:57.483409	27.7	18.3	-94.6	0.0
2025-01-23 07:24:58.611285	27.8	18.5	-95.0	0.0
2025-01-23 07:24:59.738542	27.9	18.6	-94.8	0.0
2025-01-23 07:25:00.865645	28.0	18.7	-94.7	0.0
2025-01-23 07:25:01.991810	28.1	18.8	-95.2	0.0
2025-01-23 07:25:03.119908	28.2	19.0	-94.8	0.0
2025-01-23 07:25:04.245279	28.2	19.1	-94.4	0.0
2025-01-23 07:25:05.373156	28.3	19.2	-94.4	0.0
2025-01-23 07:25:06.500971	28.4	19.4	-94.9	0.0
2025-01-23 07:25:07.630619	28.5	19.5	-94.7	0.0
2025-01-23 07:25:08.756758	28.6	19.6	-94.8	0.0
2025-01-23 07:25:09.884248	28.7	19.8	-94.7	0.0
2025-01-23 07:25:11.010723	28.8	19.9	-94.7	0.0
2025-01-23 07:25:12.138933	28.9	20.1	-94.8	0.0
2025-01-23 07:25:13.267716	29.0	20.2	-94.5	0.0
2025-01-23 07:25:14.394631	29.1	20.3	-95.0	0.0
2025-01-23 07:25:15.521709	29.1	20.5	-94.8	0.0
2025-01-23 07:25:16.647708	29.2	20.6	-94.7	0.0
2025-01-23 07:25:17.775101	29.3	20.8	-94.7	0.0
2025-01-23 07:25:18.902254	29.4	20.9	-94.8	0.0
2025-01-23 07:25:20.030129	29.5	21.0	-94.6	0.0
2025-01-23 07:25:21.157936	29.6	21.2	-94.6	0.0
2025-01-23 07:25:22.284840	29.7	21.3	-94.7	0.0
2025-01-23 07:25:23.414132	29.8	21.5	-94.6	0.0
2025-01-23 07:25:24.542784	29.9	21.6	-94.6	0.0
2025-01-23 07:25:25.670893	30.0	21.8	-94.7	0.0
2025-01-23 07:25:26.796403	30.1	21.9	-94.8	0.0
2025-01-23 07:25:27.923535	30.2	22.1	-94.5	0.0
2025-01-23 07:25:29.049812	30.3	22.2	-94.7	0.0
2025-01-23 07:25:30.177768	30.4	22.4	-94.5	0.0
2025-01-23 07:25:31.304038	30.5	22.5	-94.9	0.0
2025-01-23 07:25:32.430544	30.6	22.6	-94.8	0.0
2025-01-23 07:25:33.558396	30.7	22.8	-94.9	0.0
2025-01-23 07:25:34.685965	30.9	23.0	-94.9	0.0
2025-01-23 07:25:35.811498	31.0	23.1	-94.7	0.0
2025-01-23 07:25:36.938586	31.1	23.3	-94.9	0.0
2025-01-23 07:25:38.065333	31.2	23.4	-94.8	0.0
2025-01-23 07:25:39.193933	31.3	23.6	-94.6	0.0
2025-01-23 07:25:40.321373	31.4	23.7	-94.9	0.0
2025-01-23 07:25:41.446972	31.5	23.9	-94.9	0.0
2025-01-23 07:25:42.573312	31.6	24.0	-94.8	0.0
2025-01-23 07:25:43.701952	31.8	24.2	-94.7	0.0
2025-01-23 07:25:44.829006	31.9	24.4	-95.0	0.0
2025-01-23 07:25:45.957183	32.0	24.5	-94.7	0.0
2025-01-23 07:25:47.083811	32.1	24.7	-94.3	0.0
2025-01-23 07:25:48.210683	32.2	24.8	-94.8	0.0
2025-01-23 07:25:49.338625	32.4	25.0	-94.9	0.0
2025-01-23 07:25:50.463127	32.5	25.2	-94.7	0.0
2025-01-23 07:25:51.589613	32.6	25.3	-94.6	0.0
2025-01-23 07:25:52.715418	32.7	25.5	-95.1	0.0
2025-01-23 07:25:53.842116	32.9	25.7	-94.6	0.0
2025-01-23 07:25:54.968806	33.0	25.8	-94.5	0.0
2025-01-23 07:25:56.096838	33.1	26.0	-94.6	0.0
2025-01-23 07:25:57.223390	33.2	26.2	-94.4	0.0
2025-01-23 07:25:58.351692	33.4	26.3	-94.5	0.0
2025-01-23 07:25:59.477853	33.5	26.5	-95.0	0.0
2025-01-23 07:26:00.604653	33.6	26.7	-94.6	0.0
2025-01-23 07:26:01.731611	33.8	26.8	-94.7	0.0
2025-01-23 07:26:02.857465	33.9	27.0	-94.8	0.0
2025-01-23 07:26:03.984949	34.1	27.2	-94.7	0.0
2025-01-23 07:26:05.112825	34.2	27.4	-94.8	0.0
2025-01-23 07:26:06.238865	34.3	27.5	-94.6	0.0
2025-01-23 07:26:07.364638	34.5	27.7	-94.6	0.0
2025-01-23 07:26:08.489558	34.6	27.9	-94.9	0.0
2025-01-23 07:26:09.616293	34.8	28.1	-94.7	0.0
2025-01-23 07:26:10.743364	34.9	28.3	-94.7	0.0
2025-01-23 07:26:11.868856	35.1	28.4	-94.8	0.0
2025-01-23 07:26:12.995217	35.2	28.6	-94.8	0.0
2025-01-23 07:26:14.122403	35.4	28.8	-94.8	0.0
2025-01-23 07:26:15.248201	35.5	29.0	-94.8	0.0
2025-01-23 07:26:16.373341	35.7	29.2	-94.7	0.0
2025-01-23 07:26:17.501091	35.9	29.4	-94.9	0.0
2025-01-23 07:26:18.627039	36.0	29.5	-94.7	0.0
2025-01-23 07:26:19.754862	36.2	29.7	-94.9	0.0
2025-01-23 07:26:20.882317	36.3	29.9	-95.0	0.0
2025-01-23 07:26:22.008290	36.5	30.1	-94.7	0.0
2025-01-23 07:26:23.133091	36.7	30.3	-94.8	0.0
2025-01-23 07:26:24.260543	36.8	30.5	-94.7	0.0
2025-01-23 07:26:25.386258	37.0	30.7	-94.7	0.0
2025-01-23 07:26:26.512878	37.2	30.9	-94.5	0.0
2025-01-23 07:26:27.640457	37.4	31.1	-94.8	0.0
2025-01-23 07:26:28.767691	37.5	31.3	-94.9	0.0
2025-01-23 07:26:29.895481	37.7	31.5	-94.5	0.0
2025-01-23 07:26:31.020424	37.9	31.7	-94.5	0.0
2025-01-23 07:26:32.147151	38.1	31.9	-94.7	0.0
2025-01-23 07:26:33.273934	38.3	32.1	-94.9	0.0
2025-01-23 07:26:34.401219	38.5	32.3	-94.6	0.0
2025-01-23 07:26:35.527054	38.7	32.5	-94.7	0.0
2025-01-23 07:26:36.655170	38.9	32.7	-94.8	0.0
2025-01-23 07:26:37.780721	39.0	32.9	-94.6	0.0
2025-01-23 07:26:38.906005	39.2	33.1	-94.6	0.0
2025-01-23 07:26:40.032911	39.4	33.3	-94.7	0.0
2025-01-23 07:26:41.159090	39.6	33.5	-94.4	0.0
2025-01-23 07:26:42.286675	39.9	33.7	-95.0	0.0
2025-01-23 07:26:43.412981	40.1	33.9	-94.6	0.0
2025-01-23 07:26:44.540743	40.3	34.1	-94.6	0.0
2025-01-23 07:26:45.669720	40.5	34.3	-94.8	0.0
2025-01-23 07:26:46.796772	40.7	34.5	-94.8	0.0
2025-01-23 07:26:47.923870	40.9	34.8	-94.7	0.0
2025-01-23 07:26:49.051657	41.1	35.0	-94.7	0.0
2025-01-23 07:26:50.178860	41.4	35.2	-94.7	0.0
2025-01-23 07:26:51.306554	41.6	35.4	-94.8	0.0
2025-01-23 07:26:52.435015	41.8	35.6	-95.0	0.0
2025-01-23 07:26:53.560327	42.1	35.8	-94.9	0.0
2025-01-23 07:26:54.689030	42.3	36.1	-94.8	0.0
2025-01-23 07:26:55.814764	42.5	36.3	-95.1	0.0
2025-01-23 07:26:56.942063	42.8	36.5	-94.9	0.0
2025-01-23 07:26:58.069547	43.0	36.7	-94.5	0.0
2025-01-23 07:26:59.197622	43.3	36.9	-94.9	0.0
2025-01-23 07:27:00.326701	43.5	37.2	-94.8	0.0
2025-01-23 07:27:01.452798	43.8	37.4	-94.9	0.0
2025-01-23 07:27:02.579488	44.0	37.6	-94.9	0.0
2025-01-23 07:27:03.706575	44.3	37.8	-94.7	0.0
2025-01-23 07:27:04.832312	44.6	38.1	-94.6	0.0
2025-01-23 07:27:05.961338	44.8	38.3	-94.8	0.0
2025-01-23 07:27:07.086454	45.1	38.5	-94.5	0.0
2025-01-23 07:27:08.214414	45.4	38.8	-95.0	0.0
2025-01-23 07:27:09.343122	45.7	39.0	-95.1	0.0
2025-01-23 07:27:10.469786	46.0	39.2	-94.7	0.0
2025-01-23 07:27:11.595164	46.3	39.4	-94.9	0.0
2025-01-23 07:27:12.720445	46.5	39.7	-94.6	0.0
2025-01-23 07:27:13.846340	46.8	39.9	-94.8	0.0
2025-01-23 07:27:14.974995	47.1	40.1	-94.9	0.0
2025-01-23 07:27:16.102274	47.5	40.4	-94.8	0.0
2025-01-23 07:27:17.227086	47.8	40.6	-94.8	0.0
2025-01-23 07:27:18.352887	48.1	40.8	-94.7	0.0
2025-01-23 07:27:19.479371	48.4	41.1	-94.9	0.0
2025-01-23 07:27:20.605878	48.7	41.3	-94.9	0.0
2025-01-23 07:27:21.732641	49.1	41.6	-94.5	0.0
2025-01-23 07:27:22.857729	49.4	41.8	-94.4	0.0
2025-01-23 07:27:23.983643	49.7	42.0	-94.9	0.0
2025-01-23 07:27:25.111256	50.1	42.3	-94.8	0.0
2025-01-23 07:27:26.238268	50.4	42.5	-94.5	0.0
2025-01-23 07:27:27.363678	50.8	42.8	-94.7	0.0
2025-01-23 07:27:28.490940	51.1	43.0	-94.8	0.0
2025-01-23 07:27:29.618752	51.5	43.2	-94.9	0.0
2025-01-23 07:27:30.745801	51.9	43.5	-95.1	0.0
2025-01-23 07:27:31.872678	52.2	43.7	-94.7	0.0
2025-01-23 07:27:33.001346	52.6	44.0	-94.6	0.0
2025-01-23 07:27:34.125555	53.0	44.2	-94.9	0.0
2025-01-23 07:27:35.252774	53.4	44.4	-94.9	0.0
2025-01-23 07:27:36.381612	53.8	44.7	-94.7	0.0
2025-01-23 07:27:37.507827	54.2	44.9	-95.0	0.0
2025-01-23 07:27:38.633372	54.6	45.2	-94.9	0.0
2025-01-23 07:27:39.761774	55.0	45.4	-94.9	0.0
2025-01-23 07:27:40.887557	55.5	45.6	-94.8	0.0
2025-01-23 07:27:42.013360	55.9	45.9	-94.6	0.0
2025-01-23 07:27:43.143412	56.3	46.1	-94.7	0.0
2025-01-23 07:27:44.272830	56.8	46.4	-94.9	0.0
2025-01-23 07:27:45.400489	57.2	46.6	-94.8	0.0
2025-01-23 07:27:46.528341	57.7	46.8	-94.8	0.0
2025-01-23 07:27:47.655826	58.1	47.1	-94.7	0.0
2025-01-23 07:27:48.782908	58.6	47.3	-94.4	0.0
2025-01-23 07:27:49.908366	59.1	47.5	-94.5	0.0
2025-01-23 07:27:51.037384	59.6	47.8	-94.7	0.0
2025-01-23 07:27:52.161747	60.1	48.0	-94.9	0.0
2025-01-23 07:27:53.289677	60.6	48.3	-94.7	0.0
2025-01-23 07:27:54.418428	61.1	48.5	-94.7	0.0
2025-01-23 07:27:55.546532	61.6	48.7	-94.7	0.0
2025-01-23 07:27:56.672799	62.1	48.9	-94.6	0.0
2025-01-23 07:27:57.801376	62.6	49.2	-94.6	0.0
2025-01-23 07:27:58.928769	63.2	49.4	-94.5	0.0
2025-01-23 07:28:00.054276	63.7	49.6	-94.9	0.0
2025-01-23 07:28:01.180499	64.3	49.8	-94.9	0.0
2025-01-23 07:28:02.308763	64.8	50.1	-95.0	0.0
2025-01-23 07:28:03.435553	65.4	50.3	-94.8	0.0
2025-01-23 07:28:04.562078	66.0	50.5	-94.6	0.0
2025-01-23 07:28:05.691067	66.6	50.7	-94.7	0.0
2025-01-23 07:28:06.818666	67.2	50.9	-94.4	0.0
2025-01-23 07:28:07.947294	67.8	51.2	-94.5	0.0
2025-01-23 07:28:09.074311	68.4	51.4	-95.0	0.0
2025-01-23 07:28:10.202002	69.0	51.6	-95.1	0.0
2025-01-23 07:28:11.327167	69.6	51.8	-94.7	0.0
2025-01-23 07:28:12.454503	70.3	52.0	-94.7	0.0
2025-01-23 07:28:13.580660	70.9	52.2	-94.8	0.0
2025-01-23 07:28:14.708669	71.6	52.4	-94.6	0.0
2025-01-23 07:28:15.833872	72.2	52.6	-94.5	0.0
2025-01-23 07:28:16.959895	72.9	52.8	-94.8	0.0
2025-01-23 07:28:18.086158	73.6	52.9	-94.8	0.0
2025-01-23 07:28:19.212516	74.3	53.1	-95.1	0.0
2025-01-23 07:28:20.340087	75.0	53.3	-94.8	0.0
2025-01-23 07:28:21.465488	75.7	53.5	-95.0	0.0
2025-01-23 07:28:22.593202	76.4	53.7	-94.7	0.0
2025-01-23 07:28:23.718792	77.1	53.8	-94.6	0.0
2025-01-23 07:28:24.846944	77.8	54.0	-94.9	0.0
2025-01-23 07:28:25.973503	78.6	54.1	-95.0	0.0
2025-01-23 07:28:27.099833	79.3	54.3	-94.7	0.0
2025-01-23 07:28:28.227040	80.1	54.5	-94.7	0.0
2025-01-23 07:28:29.352452	80.8	54.6	-94.8	0.0
2025-01-23 07:28:30.477972	81.6	54.7	-94.9	0.0
2025-01-23 07:28:31.604798	82.4	54.9	-94.6	0.0
2025-01-23 07:28:32.729921	83.2	55.0	-94.9	0.0
2025-01-23 07:28:33.856407	84.0	55.1	-94.6	0.0
2025-01-23 07:28:34.984714	84.8	55.3	-95.0	0.0
2025-01-23 07:28:36.112163	85.6	55.4	-94.9	0.0
2025-01-23 07:28:37.239345	86.4	55.5	-94.5	0.0
2025-01-23 07:28:38.364797	87.2	55.6	-94.8	0.0
2025-01-23 07:28:39.491045	88.0	55.7	-95.0	0.0
2025-01-23 07:28:40.617744	88.9	55.8	-94.7	0.0
2025-01-23 07:28:41.745149	89.7	55.9	-94.7	0.0
2025-01-23 07:28:42.873137	90.5	56.0	-94.8	0.0
2025-01-23 07:28:44.001191	91.4	56.0	-94.7	0.0
2025-01-23 07:28:45.127205	92.2	56.1	-94.9	0.0
2025-01-23 07:28:46.252373	93.1	56.2	-94.9	0.0
2025-01-23 07:28:47.380775	94.0	56.2	-94.7	0.0
2025-01-23 07:28:48.509821	94.8	56.3	-94.9	0.0
2025-01-23 07:28:49.639170	95.7	56.3	-94.8	0.0
2025-01-23 07:28:50.764447	96.6	56.4	-94.5	0.0
2025-01-23 07:28:51.892960	97.4	56.4	-94.8	0.0
2025-01-23 07:28:53.024269	98.3	56.4	-94.9	0.0
2025-01-23 07:28:54.149936	99.2	56.5	-94.7	0.0
2025-01-23 07:28:55.281184	100.1	56.5	-94.7	0.0
2025-01-23 07:28:56.410261	100.9	56.5	-94.7	0.0
2025-01-23 07:28:57.540738	101.8	56.5	-94.8	0.0
2025-01-23 07:28:58.666567	102.7	56.5	-94.9	0.0
2025-01-23 07:28:59.792847	103.6	56.5	-95.0	0.0
2025-01-23 07:29:00.920342	104.5	56.5	-94.8	0.0
2025-01-23 07:29:02.044707	105.3	56.4	-95.0	0.0
2025-01-23 07:29:03.172505	106.2	56.4	-94.9	0.0
2025-01-23 07:29:04.298484	107.1	56.4	-94.9	0.0
2025-01-23 07:29:05.423862	107.9	56.3	-94.9	0.0
2025-01-23 07:29:06.550528	108.8	56.3	-94.7	0.0
2025-01-23 07:29:07.677020	109.7	56.2	-94.6	0.0
2025-01-23 07:29:08.804517	110.5	56.2	-94.8	0.0
2025-01-23 07:29:09.933363	111.4	56.1	-95.0	0.0
2025-01-23 07:29:11.061420	112.2	56.0	-95.0	0.0
2025-01-23 07:29:12.188900	113.1	56.0	-94.8	0.0
2025-01-23 07:29:13.315163	113.9	55.9	-94.7	0.0
2025-01-23 07:29:14.443376	114.8	55.8	-94.8	0.0
2025-01-23 07:29:15.569011	115.6	55.7	-94.7	0.0
2025-01-23 07:29:16.693536	116.4	55.6	-94.9	0.0
2025-01-23 07:29:17.821000	117.2	55.5	-94.9	0.0
2025-01-23 07:29:18.946185	118.1	55.4	-95.0	0.0
2025-01-23 07:29:20.072339	118.9	55.3	-94.7	0.0
2025-01-23 07:29:21.197787	119.7	55.1	-94.8	0.0
2025-01-23 07:29:22.323843	120.4	55.0	-94.8	0.0
2025-01-23 07:29:23.450463	121.2	54.9	-94.8	0.0
2025-01-23 07:29:24.577539	122.0	54.7	-94.7	0.0
2025-01-23 07:29:25.703737	122.8	54.6	-95.0	0.0
2025-01-23 07:29:26.831116	123.5	54.5	-94.7	0.0
2025-01-23 07:29:27.956872	124.3	54.3	-94.6	0.0
2025-01-23 07:29:29.083961	125.1	54.1	-94.7	0.0
2025-01-23 07:29:30.210560	125.8	54.0	-95.1	0.0
2025-01-23 07:29:31.336669	126.5	53.8	-94.6	0.0
2025-01-23 07:29:32.463747	127.2	53.7	-94.5	0.0
2025-01-23 07:29:33.592264	128.0	53.5	-94.9	0.0
2025-01-23 07:29:34.719551	128.7	53.3	-94.6	0.0
2025-01-23 07:29:35.846055	129.4	53.1	-94.9	0.0
2025-01-23 07:29:36.972288	130.1	52.9	-95.0	0.0
2025-01-23 07:29:38.097498	130.7	52.8	-94.6	0.0
2025-01-23 07:29:39.223394	131.4	52.6	-94.7	0.0
2025-01-23 07:29:40.350526	132.1	52.4	-94.8	0.0
2025-01-23 07:29:41.475041	132.7	52.2	-94.9	0.0
2025-01-23 07:29:42.602421	133.4	52.0	-94.5	0.0
2025-01-23 07:29:43.729635	134.0	51.8	-94.4	0.0
2025-01-23 07:29:44.855872	134.6	51.6	-94.9	0.0
2025-01-23 07:29:45.982359	135.3	51.4	-94.8	0.0
2025-01-23 07:29:47.109020	135.9	51.2	-95.0	0.0
2025-01-23 07:29:48.236618	136.5	50.9	-95.0	0.0
2025-01-23 07:29:49.361879	137.1	50.7	-94.6	0.0
2025-01-23 07:29:50.488282	137.6	50.5	-94.6	0.0
2025-01-23 07:29:51.615520	138.2	50.3	-94.9	0.0
2025-01-23 07:29:52.741126	138.8	50.1	-94.8	0.0
2025-01-23 07:29:53.869615	139.4	49.8	-94.9	0.0
2025-01-23 07:29:54.996132	139.9	49.6	-94.8	0.0
2025-01-23 07:29:56.123451	140.5	49.4	-95.1	0.0
2025-01-23 07:29:57.250673	141.0	49.2	-94.8	0.0
2025-01-23 07:29:58.377989	141.5	48.9	-94.8	0.0
2025-01-23 07:29:59.503797	142.0	48.7	-94.8	0.0
2025-01-23 07:30:00.632037	142.6	48.5	-94.8	0.0
2025-01-23 07:30:01.757374	143.1	48.2	-95.1	0.0
2025-01-23 07:30:02.883115	143.6	48.0	-94.7	0.0
2025-01-23 07:30:04.010401	144.1	47.8	-94.9	0.0
2025-01-23 07:30:05.138986	144.5	47.5	-95.0	0.0
2025-01-23 07:30:06.266059	145.0	47.3	-94.9	0.0
2025-01-23 07:30:07.391413	145.5	47.1	-94.6	0.0
2025-01-23 07:30:08.517757	146.0	46.8	-94.6	0.0
2025-01-23 07:30:09.644354	146.4	46.6	-94.7	0.0
2025-01-23 07:30:10.771619	146.9	46.4	-94.8	0.0
2025-01-23 07:30:11.898690	147.3	46.1	-94.9	0.0
2025-01-23 07:30:13.027896	147.7	45.9	-94.9	0.0
2025-01-23 07:30:14.154829	148.2	45.6	-94.7	0.0
2025-01-23 07:30:15.281528	148.6	45.4	-94.8	0.0
2025-01-23 07:30:16.410245	149.0	45.2	-94.5	0.0
2025-01-23 07:30:17.539128	149.4	44.9	-94.7	0.0
2025-01-23 07:30:18.665759	149.8	44.7	-94.8	0.0
2025-01-23 07:30:19.792201	150.2	44.4	-94.7	0.0
2025-01-23 07:30:20.918865	150.6	44.2	-94.8	0.0
2025-01-23 07:30:22.044986	151.0	43.9	-94.8	0.0
2025-01-23 07:30:23.171403	151.4	43.7	-94.6	0.0
2025-01-23 07:30:24.300352	151.8	43.5	-94.7	0.0
2025-01-23 07:30:25.427307	152.1	43.2	-94.6	0.0
2025-01-23 07:30:26.553401	152.5	43.0	-94.8	0.0
2025-01-23 07:30:27.681014	152.9	42.7	-94.7	0.0
2025-01-23 07:30:28.807476	153.2	42.5	-95.0	0.0
2025-01-23 07:30:29.934856	153.6	42.3	-94.7	0.0
2025-01-23 07:30:31.061015	153.9	42.0	-94.6	0.0
2025-01-23 07:30:32.187824	154.2	41.8	-94.9	0.0
2025-01-23 07:30:33.317023	154.6	41.5	-94.5	0.0
2025-01-23 07:30:34.442453	154.9	41.3	-94.6	0.0
2025-01-23 07:30:35.569947	155.2	41.1	-94.7	0.0
2025-01-23 07:30:36.698420	155.6	40.8	-94.9	0.0
2025-01-23 07:30:37.823230	155.9	40.6	-95.0	0.0
2025-01-23 07:30:38.949001	156.2	40.4	-95.1	0.0
2025-01-23 07:30:40.074162	156.5	40.1	-94.9	0.0
2025-01-23 07:30:41.199917	156.8	39.9	-94.8	0.0
2025-01-23 07:30:42.326994	157.1	39.7	-94.7	0.0
2025-01-23 07:30:43.453354	157.4	39.4	-94.8	0.0
2025-01-23 07:30:44.580163	157.7	39.2	-94.9	0.0
2025-01-23 07:30:45.705524	158.0	39.0	-94.7	0.0
2025-01-23 07:30:46.832922	158.2	38.7	-95.0	0.0
2025-01-23 07:30:47.958676	158.5	38.5	-94.8	0.0
2025-01-23 07:30:49.085399	158.8	38.3	-94.7	0.0
2025-01-23 07:30:50.213046	159.1	38.0	-94.8	0.0
2025-01-23 07:30:51.339603	159.3	37.8	-94.9	0.0
2025-01-23 07:30:52.465804	159.6	37.6	-94.6	0.0
2025-01-23 07:30:53.592367	159.8	37.4	-94.9	0.0
2025-01-23 07:30:54.721397	160.1	37.1	-94.9	0.0
2025-01-23 07:30:55.848154	160.4	36.9	-94.9	0.0
2025-01-23 07:30:56.974938	160.6	36.7	-94.9	0.0
2025-01-23 07:30:58.099830	160.9	36.5	-94.9	0.0
2025-01-23 07:30:59.228329	161.1	36.3	-94.7	0.0
2025-01-23 07:31:00.354514	161.3	36.0	-94.6	0.0
2025-01-23 07:31:01.479763	161.6	35.8	-94.8	0.0
2025-01-23 07:31:02.606865	161.8	35.6	-94.8	0.0
2025-01-23 07:31:03.733821	162.0	35.4	-94.8	0.0
2025-01-23 07:31:04.861040	162.3	35.2	-95.0	0.0
2025-01-23 07:31:05.986762	162.5	34.9	-94.6	0.0
2025-01-23 07:31:07.113769	162.7	34.7	-94.8	0.0
2025-01-23 07:31:08.240497	162.9	34.5	-94.8	0.0
2025-01-23 07:31:09.367930	163.1	34.3	-94.6	0.0
2025-01-23 07:31:10.494770	163.4	34.1	-94.8	0.0
2025-01-23 07:31:11.620758	163.6	33.9	-94.8	0.0
2025-01-23 07:31:12.747821	163.8	33.7	-95.0	0.0
2025-01-23 07:31:13.874419	164.0	33.5	-94.7	0.0
2025-01-23 07:31:15.001131	164.2	33.3	-94.9	0.0
2025-01-23 07:31:16.128494	164.4	33.1	-94.5	0.0
2025-01-23 07:31:17.254876	164.6	32.8	-94.8	0.0
2025-01-23 07:31:18.381351	164.8	32.6	-95.0	0.0
2025-01-23 07:31:19.509917	165.0	32.4	-94.8	0.0
2025-01-23 07:31:20.635207	165.2	32.2	-94.8	0.0
2025-01-23 07:31:21.760456	165.3	32.0	-94.8	0.0
2025-01-23 07:31:22.888591	165.5	31.8	-95.0	0.0
2025-01-23 07:31:24.016779	165.7	31.6	-94.8	0.0
2025-01-23 07:31:25.142316	165.9	31.4	-94.8	0.0
2025-01-23 07:31:26.270836	166.1	31.2	-94.9	0.0
2025-01-23 07:31:27.396810	166.3	31.0	-95.0	0.0
2025-01-23 07:31:28.524590	166.4	30.9	-94.7	0.0
2025-01-23 07:31:29.651122	166.6	30.7	-95.0	0.0
2025-01-23 07:31:30.780014	166.8	30.5	-94.7	0.0
2025-01-23 07:31:31.906419	166.9	30.3	-95.2	0.0
2025-01-23 07:31:33.033225	167.1	30.1	-94.8	0.0
2025-01-23 07:31:34.158903	167.3	29.9	-95.0	0.0
2025-01-23 07:31:35.286915	167.4	29.7	-94.9	0.0
2025-01-23 07:31:36.412263	167.6	29.5	-94.9	0.0
2025-01-23 07:31:37.537518	167.8	29.3	-94.7	0.0
2025-01-23 07:31:38.662977	167.9	29.1	-94.9	0.0
2025-01-23 07:31:39.790898	168.1	29.0	-95.0	0.0
2025-01-23 07:31:40.918733	168.2	28.8	-94.7	0.0
2025-01-23 07:31:42.042565	168.4	28.6	-94.7	0.0
2025-01-23 07:31:43.168276	168.5	28.4	-94.9	0.0
2025-01-23 07:31:44.294380	168.7	28.2	-94.9	0.0
2025-01-23 07:31:45.423100	168.8	28.0	-94.5	0.0
2025-01-23 07:31:46.549210	169.0	27.9	-94.8	0.0
2025-01-23 07:31:47.675939	169.1	27.7	-94.8	0.0
2025-01-23 07:31:48.803425	169.3	27.5	-94.9	0.0
2025-01-23 07:31:49.931515	169.4	27.3	-95.1	0.0
2025-01-23 07:31:51.057869	169.6	27.2	-95.1	0.0
2025-01-23 07:31:52.183475	169.7	27.0	-94.6	0.0
2025-01-23 07:31:53.311706	169.8	26.8	-95.0	0.0
2025-01-23 07:31:54.438590	170.0	26.6	-94.9	0.0
2025-01-23 07:31:55.566596	170.1	26.5	-94.6	0.0
2025-01-23 07:31:56.691896	170.2	26.3	-94.6	0.0
2025-01-23 07:31:57.818747	170.4	26.1	-94.8	0.0
2025-01-23 07:31:58.945035	170.5	26.0	-94.9	0.0
2025-01-23 07:32:00.072098	170.6	25.8	-94.8	0.0
2025-01-23 07:32:01.197747	170.8	25.6	-94.6	0.0
2025-01-23 07:32:02.324171	170.9	25.5	-94.7	0.0
2025-01-23 07:32:03.452176	171.0	25.3	-94.6	0.0
2025-01-23 07:32:04.577328	171.1	25.1	-95.0	0.0
2025-01-23 07:32:05.704601	171.2	25.0	-94.8	0.0
2025-01-23 07:32:06.832367	171.4	24.8	-94.6	0.0
2025-01-23 07:32:07.957854	171.5	24.6	-94.8	0.0
2025-01-23 07:32:09.084360	171.6	24.5	-95.0	0.0
2025-01-23 07:32:10.211352	171.7	24.3	-94.8	0.0
2025-01-23 07:32:11.339462	171.8	24.2	-94.8	0.0
2025-01-23 07:32:12.465421	172.0	24.0	-94.6	0.0
2025-01-23 07:32:13.592764	172.1	23.8	-94.7	0.0
2025-01-23 07:32:14.718962	172.2	23.7	-94.7	0.0
2025-01-23 07:32:15.845101	172.3	23.5	-95.0	0.0
2025-01-23 07:32:16.972284	172.4	23.4	-94.7	0.0
2025-01-23 07:32:18.099135	172.5	23.2	-95.0	0.0
2025-01-23 07:32:19.225541	172.6	23.1	-94.9	0.0
2025-01-23 07:32:20.350861	172.7	22.9	-94.7	0.0
2025-01-23 07:32:21.476851	172.8	22.8	-94.6	0.0
2025-01-23 07:32:22.603171	173.0	22.6	-94.9	0.0
2025-01-23 07:32:23.728964	173.1	22.5	-94.9	0.0
2025-01-23 07:32:24.856395	173.2	22.3	-95.1	0.0
2025-01-23 07:32:25.984471	173.3	22.2	-95.1	0.0
2025-01-23 07:32:27.110921	173.4	22.0	-95.1	0.0
2025-01-23 07:32:28.238953	173.5	21.9	-94.8	0.0
2025-01-23 07:32:29.365507	173.6	21.7	-94.8	0.0
2025-01-23 07:32:30.491590	173.7	21.6	-95.0	0.0
2025-01-23 07:32:31.618436	173.8	21.4	-94.5	0.0
2025-01-23 07:32:32.744236	173.9	21.3	-94.6	0.0
2025-01-23 07:32:33.870768	174.0	21.1	-94.9	0.0
2025-01-23 07:32:34.997479	174.1	21.0	-95.1	0.0
2025-01-23 07:32:36.124451	174.2	20.9	-94.8	0.0
2025-01-23 07:32:37.250251	174.3	20.7	-95.0	0.0
2025-01-23 07:32:38.376175	174.3	20.6	-94.6	0.0
2025-01-23 07:32:39.501383	174.4	20.4	-94.5	0.0
2025-01-23 07:32:40.630858	174.5	20.3	-94.8	0.0
2025-01-23 07:32:41.757364	174.6	20.2	-94.9	0.0
2025-01-23 07:32:42.885639	174.7	20.0	-94.8	0.0
2025-01-23 07:32:44.012000	174.8	19.9	-94.8	0.0
2025-01-23 07:32:45.138917	174.9	19.7	-94.7	0.0
2025-01-23 07:32:46.267630	175.0	19.6	-94.9	0.0
2025-01-23 07:32:47.395200	175.1	19.5	-94.7	0.0
2025-01-23 07:32:48.522319	175.2	19.3	-94.5	0.0
2025-01-23 07:32:49.648618	175.2	19.2	-94.8	0.0
2025-01-23 07:32:50.775322	175.3	19.1	-94.9	0.0
2025-01-23 07:32:51.902057	175.4	18.9	-94.9	0.0
2025-01-23 07:32:53.026586	175.5	18.8	-95.1	0.0
2025-01-23 07:32:54.152831	175.6	18.7	-94.9	0.0
2025-01-23 07:32:55.282394	175.7	18.5	-95.0	0.0
2025-01-23 07:32:56.410895	175.7	18.4	-94.5	0.0
2025-01-23 07:32:57.537702	175.8	18.3	-94.7	0.0
2025-01-23 07:32:58.664849	175.9	18.2	-94.9	0.0
2025-01-23 07:32:59.792915	176.0	18.0	-94.6	0.0
2025-01-23 07:33:00.921002	176.1	17.9	-95.0	0.0
2025-01-23 07:33:02.049009	176.1	17.8	-95.0	0.0
2025-01-23 07:33:03.176332	176.2	17.6	-95.0	0.0
2025-01-23 07:33:04.304004	176.3	17.5	-94.7	0.0
2025-01-23 07:33:05.431320	176.4	17.4	-95.0	0.0
2025-01-23 07:33:06.557879	176.5	17.3	-95.0	0.0
2025-01-23 07:33:07.685906	176.5	17.1	-95.0	0.0
2025-01-23 07:33:08.814231	176.6	17.0	-94.8	0.0
2025-01-23 07:33:09.943237	176.7	16.9	-95.3	0.0
2025-01-23 07:33:11.071481	176.8	16.8	-94.7	0.0
2025-01-23 07:33:12.197199	176.8	16.7	-94.6	0.0
2025-01-23 07:33:13.324195	176.9	16.5	-94.8	0.0
2025-01-23 07:33:14.451424	177.0	16.4	-94.5	0.0
2025-01-23 07:33:15.578264	177.0	16.3	-94.8	0.0
2025-01-23 07:33:16.705197	177.1	16.2	-95.2	0.0
2025-01-23 07:33:17.831619	177.2	16.1	-95.0	0.0
2025-01-23 07:33:18.958119	177.3	15.9	-94.7	0.0
2025-01-23 07:33:20.086614	177.3	15.8	-95.0	0.0
2025-01-23 07:33:21.213312	177.4	15.7	-94.6	0.0
2025-01-23 07:33:22.339722	177.5	15.6	-94.4	0.0
2025-01-23 07:33:23.466676	177.5	15.5	-95.0	0.0
2025-01-23 07:33:24.594173	177.6	15.3	-94.8	0.0
2025-01-23 07:33:25.720870	177.7	15.2	-94.9	0.0
2025-01-23 07:33:26.847146	177.7	15.1	-94.7	0.0
2025-01-23 07:33:27.973497	177.8	15.0	-95.0	0.0
2025-01-23 07:33:29.099095	177.9	14.9	-95.0	0.0
2025-01-23 07:33:30.224712	177.9	14.8	-94.6	0.0
2025-01-23 07:33:31.353990	178.0	14.7	-94.9	0.0
2025-01-23 07:33:32.481301	178.1	14.5	-94.5	0.0
2025-01-23 07:33:33.608936	178.1	14.4	-95.0	0.0
2025-01-23 07:33:34.737043	178.2	14.3	-94.8	0.0
2025-01-23 07:33:35.864703	178.2	14.2	-94.7	0.0
2025-01-23 07:33:36.991349	178.3	14.1	-94.6	0.0
2025-01-23 07:33:38.117266	178.4	14.0	-94.6	0.0
2025-01-23 07:33:39.243550	178.4	13.9	-94.5	0.0
2025-01-23 07:33:40.370025	178.5	13.8	-94.7	0.0
2025-01-23 07:33:41.498293	178.6	13.7	-94.6	0.0
2025-01-23 07:33:42.624841	178.6	13.6	-94.9	0.0
2025-01-23 07:33:43.752996	178.7	13.5	-95.0	0.0
2025-01-23 07:33:44.879583	178.7	13.3	-94.5	0.0
2025-01-23 07:33:46.005411	178.8	13.2	-94.8	0.0
2025-01-23 07:33:47.132135	178.9	13.1	-94.9	0.0
2025-01-23 07:33:48.259236	178.9	13.0	-94.8	0.0
2025-01-23 07:33:49.386137	179.0	12.9	-94.8	0.0
2025-01-23 07:33:50.513656	179.0	12.8	-94.7	0.0
2025-01-23 07:33:51.639979	179.1	12.7	-94.8	0.0
2025-01-23 07:33:52.769137	179.1	12.6	-94.9	0.0
2025-01-23 07:33:53.894760	179.2	12.5	-94.8	0.0
2025-01-23 07:33:55.018947	179.3	12.4	-95.2	0.0
2025-01-23 07:33:56.145839	179.3	12.3	-94.9	0.0
2025-01-23 07:33:57.272860	179.4	12.2	-95.1	0.0
2025-01-23 07:33:58.397964	179.4	12.1	-94.9	0.0
2025-01-23 07:33:59.523108	179.5	12.0	-95.1	0.0
2025-01-23 07:34:00.648911	179.5	11.9	-95.0	0.0
2025-01-23 07:34:01.775349	179.6	11.8	-95.1	0.0
2025-01-23 07:34:02.900939	179.6	11.7	-95.1	0.0
2025-01-23 07:34:04.030213	179.7	11.6	-94.9	0.0
2025-01-23 07:34:05.156700	179.7	11.5	-94.8	0.0
2025-01-23 07:34:06.282941	179.8	11.4	-94.8	0.0
2025-01-23 07:34:07.410104	179.8	11.3	-94.8	0.0
2025-01-23 07:34:08.535921	179.9	11.2	-94.7	0.0
2025-01-23 07:34:09.661382	180.0	11.1	-95.1	0.0
2025-01-23 07:34:10.787686	180.0	11.0	-94.9	0.0
2025-01-23 07:34:11.916460	180.1	10.9	-94.8	0.0
2025-01-23 07:34:13.043917	180.1	10.8	-95.1	0.0
2025-01-23 07:34:14.170171	180.2	10.7	-94.7	0.0
2025-01-23 07:34:15.298017	180.2	10.6	-95.1	0.0
2025-01-23 07:34:16.424224	180.3	10.5	-94.9	0.0
2025-01-23 07:34:17.550214	180.3	10.4	-94.9	0.0
2025-01-23 07:34:18.677353	180.4	10.3	-94.7	0.0
2025-01-23 07:34:19.802218	180.4	10.2	-94.9	0.0
2025-01-23 07:34:20.928540	180.5	10.1	-94.9	0.0
2025-01-23 07:34:22.055021	180.5	10.0	-94.9	0.0
#Closed at: 2025-01-23 07:23:26.943350