passes_logs/2025/01/23/planumMaritime01/planumMaritime01__20250123_174141_NOAA_18_rec.log

#Pass ID: 20250123_174141_NOAA 18
#Satellite: NOAA 18
#Configuration: NOAA 18
#Start time: 2025-01-23 17:41:46.338560

#LorettStation: 1.0.0 05.05.2024
#Station: planumMaritime01
#Location: 37.49445 lon 55.92918 lat
#TLE: 1 28654U 05018A   25022.24143052  .00000458  00000+0  26647-3 0  9995
#TLE: 2 28654  98.8556 103.2235 0014680 159.1096 201.0679 14.13493787 14203

#Time	Az	El	Level	SNR
2025-01-23 17:41:48.492755	103.8	10.1	-75.1	0.0
2025-01-23 17:41:49.615091	103.7	10.2	-75.4	0.0
2025-01-23 17:41:50.740459	103.6	10.3	-75.1	0.0
2025-01-23 17:41:51.863201	103.4	10.4	-75.0	0.0
2025-01-23 17:41:52.986980	103.3	10.5	-75.5	0.0
2025-01-23 17:41:54.109589	103.2	10.5	-75.4	0.0
2025-01-23 17:41:55.233375	103.1	10.6	-75.0	0.0
2025-01-23 17:41:56.355331	102.9	10.7	-75.1	0.0
2025-01-23 17:41:57.480159	102.8	10.8	-75.2	0.0
2025-01-23 17:41:58.604799	102.7	10.8	-75.1	0.0
2025-01-23 17:41:59.729535	102.6	10.9	-74.9	0.0
2025-01-23 17:42:00.852544	102.4	11.0	-75.2	0.0
2025-01-23 17:42:01.975425	102.3	11.1	-75.3	0.0
2025-01-23 17:42:03.101714	102.2	11.2	-75.2	0.0
2025-01-23 17:42:04.225021	102.0	11.2	-75.0	0.0
2025-01-23 17:42:05.346910	101.9	11.3	-75.1	0.0
2025-01-23 17:42:06.469621	101.8	11.4	-75.3	0.0
2025-01-23 17:42:07.590037	101.6	11.5	-75.1	0.0
2025-01-23 17:42:08.713523	101.5	11.6	-75.2	0.0
2025-01-23 17:42:09.835457	101.4	11.6	-75.2	0.0
2025-01-23 17:42:10.957968	101.2	11.7	-75.1	0.0
2025-01-23 17:42:12.082289	101.1	11.8	-74.8	0.0
2025-01-23 17:42:13.204415	101.0	11.9	-74.9	0.0
2025-01-23 17:42:14.327877	100.8	11.9	-75.1	0.0
2025-01-23 17:42:15.450281	100.7	12.0	-75.1	0.0
2025-01-23 17:42:16.573479	100.6	12.1	-75.5	0.0
2025-01-23 17:42:17.697079	100.4	12.2	-75.2	0.0
2025-01-23 17:42:18.823128	100.3	12.3	-75.4	0.0
2025-01-23 17:42:19.945198	100.1	12.3	-75.2	0.0
2025-01-23 17:42:21.067871	100.0	12.4	-75.3	0.0
2025-01-23 17:42:22.191559	99.9	12.5	-75.2	0.0
2025-01-23 17:42:23.313378	99.7	12.6	-75.6	0.0
2025-01-23 17:42:24.436578	99.6	12.7	-75.4	0.0
2025-01-23 17:42:25.561297	99.4	12.7	-75.6	0.0
2025-01-23 17:42:26.683848	99.3	12.8	-75.3	0.0
2025-01-23 17:42:27.806248	99.1	12.9	-75.4	0.0
2025-01-23 17:42:28.930287	99.0	13.0	-75.1	0.0
2025-01-23 17:42:30.054691	98.8	13.1	-75.3	0.0
2025-01-23 17:42:31.179017	98.7	13.1	-75.4	0.0
2025-01-23 17:42:32.302229	98.5	13.2	-75.5	0.0
2025-01-23 17:42:33.426241	98.4	13.3	-75.5	0.0
2025-01-23 17:42:34.549072	98.2	13.4	-75.7	0.0
2025-01-23 17:42:35.672277	98.1	13.5	-75.5	0.0
2025-01-23 17:42:36.794825	97.9	13.5	-75.7	0.0
2025-01-23 17:42:37.916889	97.8	13.6	-76.1	0.0
2025-01-23 17:42:39.040480	97.6	13.7	-75.7	0.0
2025-01-23 17:42:40.162370	97.5	13.8	-75.5	0.0
2025-01-23 17:42:41.286928	97.3	13.9	-76.1	0.0
2025-01-23 17:42:42.410776	97.2	14.0	-75.7	0.0
2025-01-23 17:42:43.533970	97.0	14.0	-75.3	0.0
2025-01-23 17:42:44.657209	96.8	14.1	-75.7	0.0
2025-01-23 17:42:45.781194	96.7	14.2	-75.6	0.0
2025-01-23 17:42:46.904113	96.5	14.3	-75.2	0.0
2025-01-23 17:42:48.027226	96.4	14.4	-75.8	0.0
2025-01-23 17:42:49.150132	96.2	14.4	-75.7	0.0
2025-01-23 17:42:50.272906	96.0	14.5	-74.9	0.0
2025-01-23 17:42:51.395610	95.9	14.6	-75.9	0.0
2025-01-23 17:42:52.519694	95.7	14.7	-75.6	0.0
2025-01-23 17:42:53.643713	95.5	14.8	-76.4	0.0
2025-01-23 17:42:54.765938	95.4	14.8	-75.7	0.0
2025-01-23 17:42:55.888765	95.2	14.9	-75.8	0.0
2025-01-23 17:42:57.009197	95.0	15.0	-76.3	0.0
2025-01-23 17:42:58.132355	94.9	15.1	-75.3	0.0
2025-01-23 17:42:59.256211	94.7	15.2	-75.9	0.0
2025-01-23 17:43:00.378608	94.5	15.3	-75.8	0.0
2025-01-23 17:43:01.503394	94.4	15.3	-75.6	0.0
2025-01-23 17:43:02.627024	94.2	15.4	-75.1	0.0
2025-01-23 17:43:03.748214	94.0	15.5	-75.5	0.0
2025-01-23 17:43:04.870810	93.8	15.6	-75.8	0.0
2025-01-23 17:43:05.993204	93.7	15.7	-75.6	0.0
2025-01-23 17:43:07.115100	93.5	15.7	-75.7	0.0
2025-01-23 17:43:08.238056	93.3	15.8	-75.7	0.0
2025-01-23 17:43:09.361099	93.1	15.9	-76.2	0.0
2025-01-23 17:43:10.486564	92.9	16.0	-75.4	0.0
2025-01-23 17:43:11.608727	92.8	16.1	-76.1	0.0
2025-01-23 17:43:12.730944	92.6	16.2	-76.1	0.0
2025-01-23 17:43:13.858460	92.4	16.2	-75.9	0.0
2025-01-23 17:43:14.981995	92.2	16.3	-75.9	0.0
2025-01-23 17:43:16.104971	92.0	16.4	-75.8	0.0
2025-01-23 17:43:17.227947	91.8	16.5	-75.6	0.0
2025-01-23 17:43:18.353447	91.7	16.6	-75.5	0.0
2025-01-23 17:43:19.477861	91.5	16.6	-76.0	0.0
2025-01-23 17:43:20.601479	91.3	16.7	-75.9	0.0
2025-01-23 17:43:21.725151	91.1	16.8	-75.8	0.0
2025-01-23 17:43:22.849603	90.9	16.9	-75.5	0.0
2025-01-23 17:43:23.973663	90.7	17.0	-75.8	0.0
2025-01-23 17:43:25.098816	90.5	17.1	-75.9	0.0
2025-01-23 17:43:26.221644	90.3	17.1	-75.9	0.0
2025-01-23 17:43:27.344231	90.1	17.2	-76.2	0.0
2025-01-23 17:43:28.465326	89.9	17.3	-76.0	0.0
2025-01-23 17:43:29.588965	89.7	17.4	-76.1	0.0
2025-01-23 17:43:30.710631	89.5	17.5	-76.2	0.0
2025-01-23 17:43:31.833828	89.3	17.5	-75.8	0.0
2025-01-23 17:43:32.958160	89.1	17.6	-75.5	0.0
2025-01-23 17:43:34.082240	88.9	17.7	-75.8	0.0
2025-01-23 17:43:35.203735	88.7	17.8	-75.9	0.0
2025-01-23 17:43:36.327904	88.5	17.9	-75.9	0.0
2025-01-23 17:43:37.449165	88.3	17.9	-75.6	0.0
2025-01-23 17:43:38.572730	88.1	18.0	-75.9	0.0
2025-01-23 17:43:39.696668	87.9	18.1	-75.7	0.0
2025-01-23 17:43:40.821173	87.7	18.2	-75.9	0.0
2025-01-23 17:43:41.941697	87.5	18.3	-76.1	0.0
2025-01-23 17:43:43.064628	87.3	18.3	-75.8	0.0
2025-01-23 17:43:44.188096	87.1	18.4	-75.5	0.0
2025-01-23 17:43:45.309880	86.8	18.5	-75.9	0.0
2025-01-23 17:43:46.432495	86.6	18.6	-75.6	0.0
2025-01-23 17:43:47.557252	86.4	18.6	-76.0	0.0
2025-01-23 17:43:48.681070	86.2	18.7	-75.8	0.0
2025-01-23 17:43:49.804282	86.0	18.8	-75.9	0.0
2025-01-23 17:43:50.928001	85.8	18.9	-76.0	0.0
2025-01-23 17:43:52.050614	85.5	19.0	-75.8	0.0
2025-01-23 17:43:53.174741	85.3	19.0	-76.0	0.0
2025-01-23 17:43:54.298900	85.1	19.1	-75.6	0.0
2025-01-23 17:43:55.421866	84.9	19.2	-75.9	0.0
2025-01-23 17:43:56.544603	84.7	19.3	-76.1	0.0
2025-01-23 17:43:57.668109	84.4	19.3	-75.9	0.0
2025-01-23 17:43:58.793288	84.2	19.4	-75.9	0.0
2025-01-23 17:43:59.914281	84.0	19.5	-75.8	0.0
2025-01-23 17:44:01.037037	83.7	19.6	-75.9	0.0
2025-01-23 17:44:02.158277	83.5	19.7	-76.1	0.0
2025-01-23 17:44:03.281862	83.3	19.7	-75.9	0.0
2025-01-23 17:44:04.406411	83.1	19.8	-76.0	0.0
2025-01-23 17:44:05.528904	82.8	19.9	-76.3	0.0
2025-01-23 17:44:06.651739	82.6	20.0	-76.5	0.0
2025-01-23 17:44:07.774643	82.4	20.0	-75.8	0.0
2025-01-23 17:44:08.894528	82.1	20.1	-75.8	0.0
2025-01-23 17:44:10.017325	81.9	20.2	-76.3	0.0
2025-01-23 17:44:11.138802	81.6	20.2	-76.2	0.0
2025-01-23 17:44:12.262040	81.4	20.3	-76.0	0.0
2025-01-23 17:44:13.385845	81.2	20.4	-75.3	0.0
2025-01-23 17:44:14.509733	80.9	20.5	-76.1	0.0
2025-01-23 17:44:15.633497	80.7	20.5	-75.9	0.0
2025-01-23 17:44:16.759589	80.4	20.6	-76.1	0.0
2025-01-23 17:44:17.882291	80.2	20.7	-75.9	0.0
2025-01-23 17:44:19.003487	79.9	20.8	-75.8	0.0
2025-01-23 17:44:20.126879	79.7	20.8	-76.1	0.0
2025-01-23 17:44:21.249320	79.4	20.9	-76.1	0.0
2025-01-23 17:44:22.373176	79.2	21.0	-76.0	0.0
2025-01-23 17:44:23.496420	78.9	21.0	-76.1	0.0
2025-01-23 17:44:24.619806	78.7	21.1	-75.1	0.0
2025-01-23 17:44:25.743532	78.4	21.2	-76.0	0.0
2025-01-23 17:44:26.866699	78.2	21.2	-76.2	0.0
2025-01-23 17:44:27.991280	77.9	21.3	-75.7	0.0
2025-01-23 17:44:29.115508	77.7	21.4	-75.8	0.0
2025-01-23 17:44:30.236967	77.4	21.4	-75.6	0.0
2025-01-23 17:44:31.359612	77.1	21.5	-76.2	0.0
2025-01-23 17:44:32.483722	76.9	21.6	-76.0	0.0
2025-01-23 17:44:33.606739	76.6	21.6	-76.1	0.0
2025-01-23 17:44:34.728986	76.4	21.7	-76.2	0.0
2025-01-23 17:44:35.854763	76.1	21.8	-75.4	0.0
2025-01-23 17:44:36.975763	75.8	21.8	-75.8	0.0
2025-01-23 17:44:38.099497	75.6	21.9	-76.4	0.0
2025-01-23 17:44:39.221442	75.3	22.0	-75.6	0.0
2025-01-23 17:44:40.346363	75.0	22.0	-76.1	0.0
2025-01-23 17:44:41.467954	74.8	22.1	-76.3	0.0
2025-01-23 17:44:42.589778	74.5	22.1	-76.5	0.0
2025-01-23 17:44:43.701176	74.2	22.2	-75.8	0.0
2025-01-23 17:44:44.820355	74.0	22.3	-75.8	0.0
2025-01-23 17:44:45.943481	73.7	22.3	-76.0	0.0
2025-01-23 17:44:47.066161	73.4	22.4	-75.6	0.0
2025-01-23 17:44:48.188097	73.1	22.4	-75.9	0.0
2025-01-23 17:44:49.312270	72.9	22.5	-76.0	0.0
2025-01-23 17:44:50.434713	72.6	22.6	-76.1	0.0
2025-01-23 17:44:51.556114	72.3	22.6	-75.8	0.0
2025-01-23 17:44:52.678582	72.0	22.7	-76.2	0.0
2025-01-23 17:44:53.800656	71.7	22.7	-76.0	0.0
2025-01-23 17:44:54.922381	71.5	22.8	-76.0	0.0
2025-01-23 17:44:56.046804	71.2	22.8	-75.9	0.0
2025-01-23 17:44:57.170595	70.9	22.9	-76.3	0.0
2025-01-23 17:44:58.293182	70.6	23.0	-75.9	0.0
2025-01-23 17:44:59.415875	70.3	23.0	-75.8	0.0
2025-01-23 17:45:00.540936	70.0	23.1	-76.0	0.0
2025-01-23 17:45:01.663327	69.7	23.1	-75.9	0.0
2025-01-23 17:45:02.785575	69.5	23.2	-76.2	0.0
2025-01-23 17:45:03.907998	69.2	23.2	-76.0	0.0
2025-01-23 17:45:05.029917	68.9	23.3	-75.8	0.0
2025-01-23 17:45:06.153040	68.6	23.3	-75.8	0.0
2025-01-23 17:45:07.275601	68.3	23.4	-75.8	0.0
2025-01-23 17:45:08.396789	68.0	23.4	-75.9	0.0
2025-01-23 17:45:09.518406	67.7	23.4	-75.5	0.0
2025-01-23 17:45:10.641681	67.4	23.5	-75.3	0.0
2025-01-23 17:45:11.763135	67.1	23.5	-75.3	0.0
2025-01-23 17:45:12.888955	66.8	23.6	-75.1	0.0
2025-01-23 17:45:14.014751	66.5	23.6	-75.3	0.0
2025-01-23 17:45:15.135257	66.2	23.7	-75.7	0.0
2025-01-23 17:45:16.259415	65.9	23.7	-75.8	0.0
2025-01-23 17:45:17.383254	65.6	23.8	-76.1	0.0
2025-01-23 17:45:18.507785	65.3	23.8	-76.0	0.0
2025-01-23 17:45:19.631034	65.0	23.8	-76.3	0.0
2025-01-23 17:45:20.754055	64.7	23.9	-76.0	0.0
2025-01-23 17:45:21.877252	64.4	23.9	-75.7	0.0
2025-01-23 17:45:23.000780	64.1	23.9	-76.1	0.0
2025-01-23 17:45:24.122951	63.8	24.0	-76.0	0.0
2025-01-23 17:45:25.246014	63.5	24.0	-76.4	0.0
2025-01-23 17:45:26.368150	63.2	24.1	-75.6	0.0
2025-01-23 17:45:27.492765	62.9	24.1	-76.0	0.0
2025-01-23 17:45:28.613989	62.6	24.1	-75.7	0.0
2025-01-23 17:45:29.737042	62.3	24.2	-75.7	0.0
2025-01-23 17:45:30.859096	62.0	24.2	-76.0	0.0
2025-01-23 17:45:31.982414	61.7	24.2	-75.8	0.0
2025-01-23 17:45:33.103631	61.4	24.2	-76.4	0.0
2025-01-23 17:45:34.228157	61.0	24.3	-76.1	0.0
2025-01-23 17:45:35.348479	60.7	24.3	-76.5	0.0
2025-01-23 17:45:36.471532	60.4	24.3	-75.6	0.0
2025-01-23 17:45:37.595248	60.1	24.4	-75.9	0.0
2025-01-23 17:45:38.717268	59.8	24.4	-75.8	0.0
2025-01-23 17:45:39.840485	59.5	24.4	-75.7	0.0
2025-01-23 17:45:40.964870	59.2	24.4	-76.3	0.0
2025-01-23 17:45:42.088428	58.9	24.4	-76.2	0.0
2025-01-23 17:45:43.211490	58.6	24.5	-76.4	0.0
2025-01-23 17:45:44.333624	58.2	24.5	-76.2	0.0
2025-01-23 17:45:45.454419	57.9	24.5	-76.4	0.0
2025-01-23 17:45:46.576587	57.6	24.5	-76.3	0.0
2025-01-23 17:45:47.698716	57.3	24.5	-76.1	0.0
2025-01-23 17:45:48.821350	57.0	24.6	-76.1	0.0
2025-01-23 17:45:49.945774	56.7	24.6	-76.3	0.0
2025-01-23 17:45:51.068307	56.3	24.6	-76.0	0.0
2025-01-23 17:45:52.192086	56.0	24.6	-76.0	0.0
2025-01-23 17:45:53.315646	55.7	24.6	-75.6	0.0
2025-01-23 17:45:54.438803	55.4	24.6	-76.0	0.0
2025-01-23 17:45:55.562401	55.1	24.6	-76.1	0.0
2025-01-23 17:45:56.684679	54.8	24.7	-75.8	0.0
2025-01-23 17:45:57.808700	54.4	24.7	-76.0	0.0
2025-01-23 17:45:58.932256	54.1	24.7	-76.4	0.0
2025-01-23 17:46:00.054029	53.8	24.7	-76.1	0.0
2025-01-23 17:46:01.175960	53.5	24.7	-76.3	0.0
2025-01-23 17:46:02.298664	53.2	24.7	-76.4	0.0
2025-01-23 17:46:03.420251	52.8	24.7	-76.5	0.0
2025-01-23 17:46:04.541451	52.5	24.7	-76.0	0.0
2025-01-23 17:46:05.663532	52.2	24.7	-76.7	0.0
2025-01-23 17:46:06.785276	51.9	24.7	-76.2	0.0
2025-01-23 17:46:07.907659	51.6	24.7	-76.3	0.0
2025-01-23 17:46:09.029420	51.3	24.7	-76.2	0.0
2025-01-23 17:46:10.152300	50.9	24.7	-76.0	0.0
2025-01-23 17:46:11.276450	50.6	24.7	-76.5	0.0
2025-01-23 17:46:12.399776	50.3	24.7	-76.0	0.0
2025-01-23 17:46:13.521175	50.0	24.7	-76.4	0.0
2025-01-23 17:46:14.643172	49.7	24.7	-76.1	0.0
2025-01-23 17:46:15.765110	49.3	24.7	-76.2	0.0
2025-01-23 17:46:16.887305	49.0	24.7	-76.3	0.0
2025-01-23 17:46:18.011134	48.7	24.7	-76.1	0.0
2025-01-23 17:46:19.134134	48.4	24.7	-76.4	0.0
2025-01-23 17:46:20.257144	48.1	24.6	-75.6	0.0
2025-01-23 17:46:21.380039	47.8	24.6	-76.1	0.0
2025-01-23 17:46:22.503319	47.4	24.6	-76.4	0.0
2025-01-23 17:46:23.625044	47.1	24.6	-75.8	0.0
2025-01-23 17:46:24.747070	46.8	24.6	-75.8	0.0
2025-01-23 17:46:25.871193	46.5	24.6	-76.4	0.0
2025-01-23 17:46:26.994923	46.2	24.6	-76.1	0.0
2025-01-23 17:46:28.118163	45.9	24.5	-76.4	0.0
2025-01-23 17:46:29.242667	45.5	24.5	-76.1	0.0
2025-01-23 17:46:30.364449	45.2	24.5	-76.4	0.0
2025-01-23 17:46:31.487853	44.9	24.5	-76.3	0.0
2025-01-23 17:46:32.610794	44.6	24.5	-76.0	0.0
2025-01-23 17:46:33.732815	44.3	24.4	-76.0	0.0
2025-01-23 17:46:34.857870	44.0	24.4	-75.8	0.0
2025-01-23 17:46:35.982092	43.7	24.4	-76.1	0.0
2025-01-23 17:46:37.104135	43.3	24.4	-76.4	0.0
2025-01-23 17:46:38.228142	43.0	24.3	-76.2	0.0
2025-01-23 17:46:39.352223	42.7	24.3	-76.3	0.0
2025-01-23 17:46:40.477612	42.4	24.3	-76.1	0.0
2025-01-23 17:46:41.602510	42.1	24.3	-76.1	0.0
2025-01-23 17:46:42.725694	41.8	24.2	-76.0	0.0
2025-01-23 17:46:43.849745	41.5	24.2	-76.1	0.0
2025-01-23 17:46:44.974256	41.2	24.2	-75.8	0.0
2025-01-23 17:46:46.098662	40.9	24.1	-76.3	0.0
2025-01-23 17:46:47.222161	40.6	24.1	-76.2	0.0
2025-01-23 17:46:48.345281	40.2	24.1	-75.7	0.0
2025-01-23 17:46:49.468008	39.9	24.0	-76.5	0.0
2025-01-23 17:46:50.589497	39.6	24.0	-76.4	0.0
2025-01-23 17:46:51.714211	39.3	24.0	-75.9	0.0
2025-01-23 17:46:52.834955	39.0	23.9	-76.1	0.0
2025-01-23 17:46:53.959583	38.7	23.9	-75.9	0.0
2025-01-23 17:46:55.083497	38.4	23.9	-76.5	0.0
2025-01-23 17:46:56.206829	38.1	23.8	-76.1	0.0
2025-01-23 17:46:57.327569	37.8	23.8	-76.1	0.0
2025-01-23 17:46:58.450160	37.5	23.7	-75.4	0.0
2025-01-23 17:46:59.572499	37.2	23.7	-75.6	0.0
2025-01-23 17:47:00.693501	36.9	23.7	-76.0	0.0
2025-01-23 17:47:01.815455	36.6	23.6	-75.4	0.0
2025-01-23 17:47:02.937993	36.3	23.6	-76.6	0.0
2025-01-23 17:47:04.060387	36.0	23.5	-75.9	0.0
2025-01-23 17:47:05.184908	35.7	23.5	-76.3	0.0
2025-01-23 17:47:06.308798	35.4	23.4	-76.0	0.0
2025-01-23 17:47:07.432834	35.1	23.4	-76.0	0.0
2025-01-23 17:47:08.556679	34.9	23.3	-75.9	0.0
2025-01-23 17:47:09.678641	34.6	23.3	-75.6	0.0
2025-01-23 17:47:10.801768	34.3	23.3	-76.1	0.0
2025-01-23 17:47:11.925441	34.0	23.2	-76.1	0.0
2025-01-23 17:47:13.050284	33.7	23.2	-75.7	0.0
2025-01-23 17:47:14.175534	33.4	23.1	-75.4	0.0
2025-01-23 17:47:15.295872	33.1	23.1	-75.7	0.0
2025-01-23 17:47:16.420270	32.8	23.0	-76.0	0.0
2025-01-23 17:47:17.543053	32.5	22.9	-75.7	0.0
2025-01-23 17:47:18.666567	32.3	22.9	-75.6	0.0
2025-01-23 17:47:19.788947	32.0	22.8	-76.0	0.0
2025-01-23 17:47:20.910463	31.7	22.8	-76.0	0.0
2025-01-23 17:47:22.033141	31.4	22.7	-75.9	0.0
2025-01-23 17:47:23.157191	31.1	22.7	-76.0	0.0
2025-01-23 17:47:24.281861	30.8	22.6	-76.1	0.0
2025-01-23 17:47:25.403607	30.6	22.6	-75.4	0.0
2025-01-23 17:47:26.524679	30.3	22.5	-76.0	0.0
2025-01-23 17:47:27.648867	30.0	22.4	-75.7	0.0
2025-01-23 17:47:28.772452	29.7	22.4	-75.6	0.0
2025-01-23 17:47:29.895104	29.5	22.3	-76.1	0.0
2025-01-23 17:47:31.019394	29.2	22.3	-76.0	0.0
2025-01-23 17:47:32.141893	28.9	22.2	-75.9	0.0
2025-01-23 17:47:33.265887	28.6	22.1	-76.0	0.0
2025-01-23 17:47:34.389015	28.4	22.1	-75.9	0.0
2025-01-23 17:47:35.510770	28.1	22.0	-76.4	0.0
2025-01-23 17:47:36.633283	27.8	22.0	-76.0	0.0
2025-01-23 17:47:37.756531	27.6	21.9	-75.8	0.0
2025-01-23 17:47:38.877361	27.3	21.8	-76.2	0.0
2025-01-23 17:47:40.001471	27.0	21.8	-76.1	0.0
2025-01-23 17:47:41.124333	26.8	21.7	-76.0	0.0
2025-01-23 17:47:42.249948	26.5	21.6	-76.3	0.0
2025-01-23 17:47:43.372955	26.3	21.6	-76.1	0.0
2025-01-23 17:47:44.496741	26.0	21.5	-75.6	0.0
2025-01-23 17:47:45.621532	25.7	21.4	-76.1	0.0
2025-01-23 17:47:46.745730	25.5	21.4	-75.8	0.0
2025-01-23 17:47:47.871016	25.2	21.3	-75.7	0.0
2025-01-23 17:47:48.992426	25.0	21.2	-75.7	0.0
2025-01-23 17:47:50.117296	24.7	21.2	-75.7	0.0
2025-01-23 17:47:51.242130	24.5	21.1	-76.4	0.0
2025-01-23 17:47:52.366649	24.2	21.0	-75.8	0.0
2025-01-23 17:47:53.488379	24.0	21.0	-76.0	0.0
2025-01-23 17:47:54.612612	23.7	20.9	-75.6	0.0
2025-01-23 17:47:55.736752	23.5	20.8	-76.3	0.0
2025-01-23 17:47:56.860363	23.2	20.7	-76.1	0.0
2025-01-23 17:47:57.984576	23.0	20.7	-76.3	0.0
2025-01-23 17:47:59.107982	22.7	20.6	-75.8	0.0
2025-01-23 17:48:00.229758	22.5	20.5	-76.2	0.0
2025-01-23 17:48:01.352595	22.2	20.5	-76.1	0.0
2025-01-23 17:48:02.475845	22.0	20.4	-75.9	0.0
2025-01-23 17:48:03.597843	21.7	20.3	-76.3	0.0
2025-01-23 17:48:04.720416	21.5	20.2	-76.4	0.0
2025-01-23 17:48:05.844268	21.3	20.2	-75.8	0.0
2025-01-23 17:48:06.965917	21.0	20.1	-76.1	0.0
2025-01-23 17:48:08.090594	20.8	20.0	-76.0	0.0
2025-01-23 17:48:09.212668	20.6	19.9	-75.9	0.0
2025-01-23 17:48:10.333707	20.3	19.9	-75.8	0.0
2025-01-23 17:48:11.456403	20.1	19.8	-75.5	0.0
2025-01-23 17:48:12.581902	19.9	19.7	-76.0	0.0
2025-01-23 17:48:13.705482	19.6	19.6	-75.7	0.0
2025-01-23 17:48:14.826414	19.4	19.6	-76.0	0.0
2025-01-23 17:48:15.948872	19.2	19.5	-76.1	0.0
2025-01-23 17:48:17.072781	18.9	19.4	-75.3	0.0
2025-01-23 17:48:18.195744	18.7	19.3	-75.6	0.0
2025-01-23 17:48:19.318011	18.5	19.3	-75.7	0.0
2025-01-23 17:48:20.440086	18.3	19.2	-75.9	0.0
2025-01-23 17:48:21.562203	18.1	19.1	-76.0	0.0
2025-01-23 17:48:22.687121	17.8	19.0	-75.9	0.0
2025-01-23 17:48:23.810217	17.6	18.9	-75.7	0.0
2025-01-23 17:48:24.932701	17.4	18.9	-75.9	0.0
2025-01-23 17:48:26.056273	17.2	18.8	-75.9	0.0
2025-01-23 17:48:27.179437	17.0	18.7	-76.0	0.0
2025-01-23 17:48:28.301562	16.7	18.6	-75.8	0.0
2025-01-23 17:48:29.426358	16.5	18.6	-75.7	0.0
2025-01-23 17:48:30.550174	16.3	18.5	-75.9	0.0
2025-01-23 17:48:31.673918	16.1	18.4	-75.9	0.0
2025-01-23 17:48:32.796577	15.9	18.3	-76.3	0.0
2025-01-23 17:48:33.921678	15.7	18.2	-75.7	0.0
2025-01-23 17:48:35.048195	15.5	18.2	-76.0	0.0
2025-01-23 17:48:36.173411	15.3	18.1	-75.9	0.0
2025-01-23 17:48:37.295791	15.1	18.0	-76.5	0.0
2025-01-23 17:48:38.417953	14.8	17.9	-75.7	0.0
2025-01-23 17:48:39.539775	14.6	17.8	-76.1	0.0
2025-01-23 17:48:40.664272	14.4	17.8	-76.1	0.0
2025-01-23 17:48:41.789512	14.2	17.7	-76.4	0.0
2025-01-23 17:48:42.911929	14.0	17.6	-76.1	0.0
2025-01-23 17:48:44.033975	13.8	17.5	-76.2	0.0
2025-01-23 17:48:45.156596	13.6	17.4	-76.4	0.0
2025-01-23 17:48:46.279176	13.4	17.4	-76.3	0.0
2025-01-23 17:48:47.404930	13.2	17.3	-76.4	0.0
2025-01-23 17:48:48.528381	13.0	17.2	-75.7	0.0
2025-01-23 17:48:49.650278	12.8	17.1	-76.6	0.0
2025-01-23 17:48:50.776089	12.7	17.0	-76.2	0.0
2025-01-23 17:48:51.902029	12.5	16.9	-76.0	0.0
2025-01-23 17:48:53.023243	12.3	16.9	-76.4	0.0
2025-01-23 17:48:54.144632	12.1	16.8	-76.2	0.0
2025-01-23 17:48:55.267642	11.9	16.7	-76.4	0.0
2025-01-23 17:48:56.392055	11.7	16.6	-76.5	0.0
2025-01-23 17:48:57.516183	11.5	16.5	-76.5	0.0
2025-01-23 17:48:58.637747	11.3	16.5	-76.4	0.0
2025-01-23 17:48:59.760829	11.1	16.4	-75.7	0.0
2025-01-23 17:49:00.885520	11.0	16.3	-76.5	0.0
2025-01-23 17:49:02.007594	10.8	16.2	-76.1	0.0
2025-01-23 17:49:03.134268	10.6	16.1	-76.5	0.0
2025-01-23 17:49:04.257553	10.4	16.1	-76.4	0.0
2025-01-23 17:49:05.379930	10.2	16.0	-76.0	0.0
2025-01-23 17:49:06.503796	10.0	15.9	-75.7	0.0
2025-01-23 17:49:07.626602	9.9	15.8	-75.5	0.0
2025-01-23 17:49:08.749781	9.7	15.7	-76.5	0.0
2025-01-23 17:49:09.873063	9.5	15.6	-75.7	0.0
2025-01-23 17:49:10.995915	9.3	15.6	-76.2	0.0
2025-01-23 17:49:12.118610	9.2	15.5	-76.2	0.0
2025-01-23 17:49:13.241875	9.0	15.4	-76.3	0.0
2025-01-23 17:49:14.363245	8.8	15.3	-76.2	0.0
2025-01-23 17:49:15.488631	8.6	15.2	-75.8	0.0
2025-01-23 17:49:16.612649	8.5	15.2	-76.5	0.0
2025-01-23 17:49:17.734973	8.3	15.1	-76.1	0.0
2025-01-23 17:49:18.856847	8.1	15.0	-76.4	0.0
2025-01-23 17:49:19.978926	8.0	14.9	-76.2	0.0
2025-01-23 17:49:21.103713	7.8	14.8	-76.2	0.0
2025-01-23 17:49:22.226863	7.6	14.7	-76.6	0.0
2025-01-23 17:49:23.351067	7.5	14.7	-76.2	0.0
2025-01-23 17:49:24.477105	7.3	14.6	-76.2	0.0
2025-01-23 17:49:25.599881	7.1	14.5	-76.1	0.0
2025-01-23 17:49:26.723204	7.0	14.4	-76.3	0.0
2025-01-23 17:49:27.846787	6.8	14.3	-75.9	0.0
2025-01-23 17:49:28.970257	6.7	14.3	-76.1	0.0
2025-01-23 17:49:30.094664	6.5	14.2	-75.6	0.0
2025-01-23 17:49:31.217040	6.3	14.1	-76.2	0.0
2025-01-23 17:49:32.341766	6.2	14.0	-76.0	0.0
2025-01-23 17:49:33.463466	6.0	13.9	-76.1	0.0
2025-01-23 17:49:34.586852	5.9	13.8	-76.0	0.0
2025-01-23 17:49:35.709660	5.7	13.8	-75.9	0.0
2025-01-23 17:49:36.832736	5.6	13.7	-76.3	0.0
2025-01-23 17:49:37.953119	5.4	13.6	-76.0	0.0
2025-01-23 17:49:39.074263	5.2	13.5	-76.2	0.0
2025-01-23 17:49:40.198519	5.1	13.4	-75.4	0.0
2025-01-23 17:49:41.320284	4.9	13.4	-76.5	0.0
2025-01-23 17:49:42.444492	4.8	13.3	-76.2	0.0
2025-01-23 17:49:43.566258	4.6	13.2	-76.3	0.0
2025-01-23 17:49:44.690890	4.5	13.1	-76.5	0.0
2025-01-23 17:49:45.815294	4.3	13.0	-76.1	0.0
2025-01-23 17:49:46.940377	4.2	13.0	-76.3	0.0
2025-01-23 17:49:48.060401	4.1	12.9	-76.4	0.0
2025-01-23 17:49:49.184169	3.9	12.8	-76.2	0.0
2025-01-23 17:49:50.305645	3.8	12.7	-76.0	0.0
2025-01-23 17:49:51.428140	3.6	12.6	-76.3	0.0
2025-01-23 17:49:52.552006	3.5	12.6	-76.6	0.0
2025-01-23 17:49:53.677873	3.3	12.5	-76.3	0.0
2025-01-23 17:49:54.801424	3.2	12.4	-76.7	0.0
2025-01-23 17:49:55.924961	3.1	12.3	-76.3	0.0
2025-01-23 17:49:57.048061	2.9	12.2	-76.2	0.0
2025-01-23 17:49:58.171563	2.8	12.2	-76.0	0.0
2025-01-23 17:49:59.294439	2.6	12.1	-76.5	0.0
2025-01-23 17:50:00.417300	2.5	12.0	-76.5	0.0
2025-01-23 17:50:01.541971	2.4	11.9	-76.2	0.0
2025-01-23 17:50:02.664377	2.2	11.8	-75.9	0.0
2025-01-23 17:50:03.786255	2.1	11.8	-76.3	0.0
2025-01-23 17:50:04.907721	2.0	11.7	-76.2	0.0
2025-01-23 17:50:06.029618	1.8	11.6	-76.3	0.0
2025-01-23 17:50:07.150930	1.7	11.5	-76.4	0.0
2025-01-23 17:50:08.274058	1.6	11.4	-76.5	0.0
2025-01-23 17:50:09.395089	1.4	11.4	-76.3	0.0
2025-01-23 17:50:10.518271	1.3	11.3	-76.0	0.0
2025-01-23 17:50:11.642509	1.2	11.2	-75.6	0.0
2025-01-23 17:50:12.762838	1.0	11.1	-75.7	0.0
2025-01-23 17:50:13.884425	0.9	11.1	-76.5	0.0
2025-01-23 17:50:15.007998	0.8	11.0	-76.4	0.0
2025-01-23 17:50:16.132062	0.6	10.9	-76.6	0.0
2025-01-23 17:50:17.255414	0.5	10.8	-76.3	0.0
2025-01-23 17:50:18.379789	0.4	10.7	-76.0	0.0
2025-01-23 17:50:19.500085	0.3	10.7	-76.2	0.0
2025-01-23 17:50:20.624546	0.1	10.6	-76.1	0.0
2025-01-23 17:50:21.749016	0.0	10.5	-75.9	0.0
2025-01-23 17:50:22.872232	359.9	10.4	-76.2	0.0
2025-01-23 17:50:23.993497	359.8	10.3	-76.3	0.0
2025-01-23 17:50:25.115104	359.6	10.3	-76.3	0.0
2025-01-23 17:50:26.237897	359.5	10.2	-76.4	0.0
2025-01-23 17:50:27.359922	359.4	10.1	-76.5	0.0
#Closed at: 2025-01-23 17:41:41.342132