passes_logs/2026/01/15/R3.2S_Murmansk/R3.2S_Murmansk__20260115_080920_NOAA_20_JPSS-1_rec.log

#Pass ID: 20260115_080920_NOAA 20 (JPSS-1)
#Satellite: NOAA 20 (JPSS-1)
#Configuration: NOAA 20
#almurnet v.1.7.20251203
#Start time: 2026-01-15 08:09:20

#Version: 2.2.20231116
#Station: R3.2S_Murmansk
#Location: 33.079688 lon 68.888172 lat
#TLE: 1 43013U 17073A   26014.55467351  .00000038  00000+0  38801-4 0  9992
#TLE: 2 43013  98.7635 315.4987 0001517  39.9279 320.2008 14.19535859422677

#Time	Az	El	Level	Level2	SNR	BER	BlckErr	Temp	State	Recorded	gain1	gain2
2026-01-15 08:09:20.57	119.82	1.98	-58.2	-74.2	3.8	1.49e+00	0	26	0	0	82	22968
2026-01-15 08:09:21.58	119.79	2.04	-58.2	-74.2	3.8	1.49e+00	0	26	104	0	81	24299
2026-01-15 08:09:22.59	119.76	2.11	-58.2	-74.2	3.8	1.49e+00	0	26	104	0	81	24278
2026-01-15 08:09:23.60	119.73	2.17	-58.2	-74.2	3.8	1.49e+00	0	26	104	0	81	24293
2026-01-15 08:09:24.61	119.70	2.23	-58.2	-74.2	3.8	1.49e+00	0	26	104	0	81	24353
2026-01-15 08:09:25.62	119.67	2.30	-58.2	-74.2	3.8	1.49e+00	0	26	104	0	81	24294
2026-01-15 08:09:26.63	119.64	2.36	-58.2	-74.2	3.8	1.49e+00	0	26	104	0	81	24290
2026-01-15 08:09:27.64	119.61	2.43	-58.2	-74.2	3.8	1.49e+00	0	26	104	0	81	24293
2026-01-15 08:09:28.65	119.58	2.49	-58.2	-74.2	3.8	1.49e+00	0	26	104	0	81	24336
2026-01-15 08:09:29.66	119.54	2.55	-58.2	-74.2	3.8	1.49e+00	0	26	104	0	81	24308
2026-01-15 08:09:30.67	119.51	2.62	-58.2	-74.2	3.8	1.49e+00	0	26	104	0	81	24273
2026-01-15 08:09:31.67	119.48	2.68	-58.2	-74.2	3.8	1.49e+00	0	26	104	0	81	24228
2026-01-15 08:09:32.68	119.45	2.75	-58.2	-74.2	3.8	1.49e+00	0	26	104	0	81	24263
2026-01-15 08:09:33.69	119.42	2.81	-58.2	-74.2	3.8	1.49e+00	0	26	104	0	81	24231
2026-01-15 08:09:34.70	119.38	2.88	-58.2	-74.2	3.8	1.49e+00	0	26	104	0	81	24202
2026-01-15 08:09:35.70	119.35	2.94	-58.2	-74.2	3.8	1.49e+00	0	26	104	0	81	24186
2026-01-15 08:09:36.71	119.32	3.01	-58.2	-74.2	3.8	1.49e+00	0	26	104	0	81	24199
2026-01-15 08:09:37.72	119.29	3.07	-58.2	-74.2	3.8	1.49e+00	0	26	104	0	81	24215
2026-01-15 08:09:38.73	119.25	3.14	-58.2	-74.1	3.8	1.49e+00	0	26	104	0	81	24119
2026-01-15 08:09:39.74	119.22	3.20	-58.2	-74.2	3.8	1.49e+00	0	26	104	0	81	24152
2026-01-15 08:09:40.75	119.19	3.27	-58.2	-74.2	3.8	1.49e+00	0	27	104	0	81	24231
2026-01-15 08:09:41.75	119.15	3.34	-58.2	-74.2	3.8	1.49e+00	0	27	104	0	81	24145
2026-01-15 08:09:42.76	119.12	3.40	-58.2	-74.1	3.8	1.49e+00	0	27	104	0	81	24004
2026-01-15 08:09:43.77	119.08	3.47	-58.2	-74.0	3.8	1.49e+00	0	27	104	0	81	23841
2026-01-15 08:09:44.78	119.05	3.53	-58.2	-74.0	3.8	1.49e+00	0	26	104	0	81	23612
2026-01-15 08:09:45.79	119.02	3.60	-58.2	-73.9	3.8	1.49e+00	0	26	104	0	81	23393
2026-01-15 08:09:46.80	118.98	3.67	-58.2	-73.7	3.8	1.49e+00	0	26	104	0	81	22854
2026-01-15 08:09:47.80	118.95	3.73	-58.1	-73.0	3.8	1.49e+00	0	27	104	0	81	21218
2026-01-15 08:09:48.81	118.91	3.80	-58.1	-72.5	3.8	1.49e+00	0	27	104	0	81	19930
2026-01-15 08:09:49.82	118.88	3.87	-58.1	-71.9	3.8	1.48e+00	0	27	104	0	81	18608
2026-01-15 08:09:50.83	118.84	3.94	-58.0	-70.8	4.2	1.47e+00	0	27	0	0	81	16428
2026-01-15 08:09:51.84	118.81	4.00	-58.0	-70.4	4.3	1.33e+00	0	27	0	0	81	15701
2026-01-15 08:09:52.85	118.77	4.07	-57.9	-69.1	4.7	8.84e-01	0	27	0	1048576	81	13488
2026-01-15 08:09:53.86	118.74	4.14	-57.9	-68.6	5.0	8.88e-01	0	27	0	3145728	81	12696
2026-01-15 08:09:54.87	118.70	4.21	-57.8	-67.7	5.5	4.81e-01	0	27	0	5242880	81	11462
2026-01-15 08:09:55.87	118.66	4.27	-57.8	-67.4	5.6	4.74e-01	0	27	0	7340032	81	11136
2026-01-15 08:09:56.87	118.63	4.34	-57.6	-66.4	6.2	2.60e-01	0	27	0	8388608	81	9897
2026-01-15 08:09:57.88	118.59	4.41	-57.5	-65.6	6.8	1.57e-01	0	27	0	10485760	81	9043
2026-01-15 08:09:58.89	118.55	4.48	-57.3	-64.4	7.9	8.19e-02	0	27	0	12582912	81	7858
2026-01-15 08:09:59.90	118.52	4.55	-57.0	-63.4	8.7	1.66e-02	0	27	0	14680064	80	7403
2026-01-15 08:10:00.90	118.48	4.62	-56.7	-62.5	9.5	7.40e-03	0	27	0	16777216	80	6674
2026-01-15 08:10:01.91	118.44	4.69	-56.1	-60.7	10.9	7.47e-04	0	27	0	17825792	78	6081
2026-01-15 08:10:02.92	118.41	4.76	-55.9	-60.3	11.2	1.23e-04	0	27	0	19922944	78	5820
2026-01-15 08:10:03.93	118.37	4.82	-55.2	-58.8	12.3	2.36e-05	0	27	0	22020096	77	5183
2026-01-15 08:10:04.94	118.33	4.89	-55.0	-58.5	12.4	7.00e-07	0	27	0	24117248	76	5292
2026-01-15 08:10:05.94	118.29	4.96	-55.0	-58.4	12.4	0.00e+00	0	27	0	26214400	76	5264
2026-01-15 08:10:06.95	118.26	5.03	-54.6	-57.7	12.8	0.00e+00	0	27	0	27262976	75	5141
2026-01-15 08:10:07.96	118.22	5.10	-54.9	-58.2	12.5	0.00e+00	0	27	0	29360128	75	5416
2026-01-15 08:10:08.96	118.18	5.17	-56.1	-60.7	11.0	1.44e-05	0	27	0	31457280	77	6423
2026-01-15 08:10:09.97	118.14	5.24	-56.3	-61.3	10.5	0.00e+00	0	27	0	33554432	77	6881
2026-01-15 08:10:10.98	118.10	5.31	-57.1	-63.3	8.9	4.95e-03	0	27	0	35651584	79	7788
2026-01-15 08:10:11.99	118.06	5.39	-56.4	-61.4	10.3	5.30e-06	0	27	0	36700160	77	7020
2026-01-15 08:10:13.00	118.02	5.46	-55.0	-58.3	12.6	3.05e-05	0	27	0	38797312	76	5216
2026-01-15 08:10:14.01	117.98	5.53	-55.0	-58.2	12.7	0.00e+00	0	27	0	40894464	76	5133
2026-01-15 08:10:15.01	117.94	5.60	-54.8	-58.0	12.8	0.00e+00	0	27	0	42991616	76	4995
2026-01-15 08:10:16.02	117.90	5.67	-54.8	-58.0	12.8	0.00e+00	0	27	0	45088768	76	4994
2026-01-15 08:10:17.03	117.86	5.74	-54.6	-57.6	12.9	0.00e+00	0	27	0	46137344	75	5100
2026-01-15 08:10:18.03	117.82	5.81	-54.7	-57.8	12.9	0.00e+00	0	27	0	48234496	75	5161
2026-01-15 08:10:19.04	117.78	5.89	-54.6	-57.6	12.9	0.00e+00	0	27	0	50331648	75	5082
2026-01-15 08:10:20.05	117.74	5.96	-54.7	-57.7	12.9	0.00e+00	0	27	0	52428800	75	5137
2026-01-15 08:10:21.06	117.70	6.03	-54.6	-57.6	13.0	0.00e+00	0	27	0	54525952	75	5064
2026-01-15 08:10:22.06	117.66	6.10	-54.6	-57.6	13.0	0.00e+00	0	27	0	55574528	75	5083
2026-01-15 08:10:23.07	117.62	6.17	-54.6	-57.6	13.0	0.00e+00	0	27	0	57671680	75	5060
2026-01-15 08:10:24.08	117.58	6.25	-54.4	-57.4	13.1	0.00e+00	0	27	0	59768832	75	4927
2026-01-15 08:10:25.08	117.53	6.32	-54.4	-57.3	13.2	0.00e+00	0	27	0	61865984	75	4877
2026-01-15 08:10:26.09	117.49	6.39	-54.4	-57.3	13.2	0.00e+00	0	27	0	63963136	75	4897
2026-01-15 08:10:27.10	117.45	6.47	-54.6	-57.5	13.0	0.00e+00	0	27	0	65011712	75	5027
2026-01-15 08:10:28.10	117.41	6.54	-54.4	-57.2	13.3	0.00e+00	0	27	0	67108864	75	4825
2026-01-15 08:10:29.11	117.36	6.61	-54.6	-57.5	13.0	0.00e+00	0	27	0	69206016	75	5034
2026-01-15 08:10:30.12	117.32	6.69	-54.4	-57.2	13.3	0.00e+00	0	27	0	71303168	75	4858
2026-01-15 08:10:31.12	117.28	6.76	-54.4	-57.2	13.3	0.00e+00	0	27	0	73400320	75	4858
2026-01-15 08:10:32.13	117.23	6.84	-54.6	-57.5	13.1	0.00e+00	0	27	0	74448896	75	5021
2026-01-15 08:10:33.13	117.19	6.91	-54.6	-57.5	13.1	0.00e+00	0	27	0	76546048	75	5017
2026-01-15 08:10:34.14	117.15	6.99	-54.4	-57.2	13.3	0.00e+00	0	27	0	78643200	75	4858
2026-01-15 08:10:35.15	117.10	7.06	-54.5	-57.4	13.2	0.00e+00	0	27	0	80740352	75	4933
2026-01-15 08:10:36.16	117.06	7.14	-54.4	-57.1	13.3	0.00e+00	0	27	0	82837504	75	4801
2026-01-15 08:10:37.17	117.01	7.21	-54.5	-57.3	13.2	0.00e+00	0	27	0	83886080	75	4917
2026-01-15 08:10:38.18	116.97	7.29	-54.3	-56.9	13.5	0.00e+00	0	27	0	85983232	75	4689
2026-01-15 08:10:39.18	116.92	7.36	-54.4	-57.1	13.3	0.00e+00	0	27	0	88080384	75	4810
2026-01-15 08:10:40.19	116.88	7.44	-54.4	-57.1	13.4	0.00e+00	0	27	0	90177536	75	4774
2026-01-15 08:10:41.19	116.83	7.52	-54.5	-57.2	13.3	0.00e+00	0	27	0	92274688	75	4868
2026-01-15 08:10:42.20	116.79	7.59	-54.3	-56.9	13.5	0.00e+00	0	27	0	93323264	75	4700
2026-01-15 08:10:43.20	116.74	7.67	-54.5	-57.2	13.3	0.00e+00	0	27	0	95420416	75	4836
2026-01-15 08:10:44.21	116.69	7.75	-54.4	-57.1	13.4	0.00e+00	0	27	0	97517568	75	4786
2026-01-15 08:10:45.22	116.65	7.82	-54.4	-57.1	13.4	0.00e+00	0	27	0	99614720	75	4814
2026-01-15 08:10:46.23	116.60	7.90	-54.5	-57.2	13.4	0.00e+00	0	27	0	101711872	75	4822
2026-01-15 08:10:47.24	116.55	7.98	-54.6	-57.4	13.3	0.00e+00	0	27	0	102760448	75	4936
2026-01-15 08:10:48.25	116.50	8.06	-54.4	-57.1	13.4	0.00e+00	0	27	0	104857600	75	4767
2026-01-15 08:10:49.26	116.46	8.13	-54.4	-57.1	13.4	0.00e+00	0	27	0	106954752	75	4775
2026-01-15 08:10:50.26	116.41	8.21	-54.3	-56.9	13.6	0.00e+00	0	27	0	109051904	75	4660
2026-01-15 08:10:51.27	116.36	8.29	-54.4	-57.0	13.5	0.00e+00	0	27	0	111149056	75	4748
2026-01-15 08:10:52.27	116.31	8.37	-54.6	-57.4	13.3	0.00e+00	0	27	0	113246208	75	4933
2026-01-15 08:10:53.28	116.26	8.45	-54.4	-57.0	13.5	0.00e+00	0	27	0	114294784	75	4722
2026-01-15 08:10:54.29	116.21	8.53	-54.4	-57.0	13.5	0.00e+00	0	27	0	116391936	75	4751
2026-01-15 08:10:55.30	116.16	8.61	-54.2	-56.8	13.6	0.00e+00	0	27	0	118489088	75	4617
2026-01-15 08:10:56.31	116.11	8.69	-54.3	-57.0	13.5	0.00e+00	0	27	0	120586240	75	4708
2026-01-15 08:10:57.32	116.06	8.77	-54.2	-56.8	13.6	0.00e+00	0	27	0	121634816	75	4611
2026-01-15 08:10:58.33	116.01	8.85	-54.2	-56.7	13.7	0.00e+00	0	27	0	123731968	75	4572
2026-01-15 08:10:59.33	115.96	8.93	-54.1	-56.5	13.7	0.00e+00	0	27	0	125829120	74	4758
2026-01-15 08:11:00.34	115.91	9.01	-54.2	-56.7	13.6	0.00e+00	0	27	0	127926272	74	4826
2026-01-15 08:11:01.35	115.86	9.09	-54.0	-56.5	13.7	0.00e+00	0	27	0	130023424	74	4735
2026-01-15 08:11:02.36	115.81	9.17	-54.1	-56.6	13.6	0.00e+00	0	27	0	131072000	74	4765
2026-01-15 08:11:03.37	115.76	9.25	-53.9	-56.3	13.8	0.00e+00	0	27	0	133169152	74	4633
2026-01-15 08:11:04.37	115.71	9.33	-54.0	-56.5	13.7	0.00e+00	0	27	0	135266304	74	4712
2026-01-15 08:11:05.38	115.65	9.41	-54.1	-56.5	13.7	0.00e+00	0	27	0	137363456	74	4748
2026-01-15 08:11:06.38	115.60	9.50	-53.9	-56.2	13.9	0.00e+00	0	28	0	139460608	74	4573
2026-01-15 08:11:07.39	115.55	9.58	-53.9	-56.3	13.8	0.00e+00	0	28	0	141557760	74	4614
2026-01-15 08:11:08.40	115.49	9.66	-53.9	-56.3	13.8	0.00e+00	0	28	0	142606336	74	4630
2026-01-15 08:11:09.41	115.44	9.74	-53.9	-56.2	13.9	0.00e+00	0	27	0	144703488	74	4563
2026-01-15 08:11:10.42	115.38	9.83	-53.9	-56.3	13.8	0.00e+00	0	27	0	146800640	74	4602
2026-01-15 08:11:11.42	115.33	9.91	-53.8	-56.1	13.9	0.00e+00	0	28	0	148897792	74	4499
2026-01-15 08:11:12.43	115.28	9.99	-53.7	-56.0	14.0	0.00e+00	0	27	0	150994944	74	4465
2026-01-15 08:11:13.44	115.22	10.08	-53.7	-56.0	14.0	0.00e+00	0	27	0	152043520	74	4473
2026-01-15 08:11:14.45	115.17	10.16	-53.8	-56.0	14.0	0.00e+00	0	28	0	154140672	74	4478
2026-01-15 08:11:15.46	115.11	10.25	-53.6	-55.8	14.0	0.00e+00	0	27	0	156237824	73	4645
2026-01-15 08:11:16.47	115.05	10.33	-53.6	-55.9	14.0	0.00e+00	0	27	0	158334976	73	4662
2026-01-15 08:11:17.48	115.00	10.41	-53.6	-55.8	14.0	0.00e+00	0	27	0	160432128	73	4617
2026-01-15 08:11:18.49	114.94	10.50	-53.6	-55.8	14.0	0.00e+00	0	27	0	161480704	73	4625
2026-01-15 08:11:19.50	114.88	10.59	-53.6	-55.8	14.0	0.00e+00	0	28	0	163577856	73	4604
2026-01-15 08:11:20.51	114.82	10.67	-53.4	-55.5	14.1	0.00e+00	0	27	0	165675008	73	4477
2026-01-15 08:11:21.51	114.77	10.76	-53.4	-55.6	14.1	0.00e+00	0	27	0	167772160	73	4524
2026-01-15 08:11:22.52	114.71	10.84	-53.5	-55.6	14.0	0.00e+00	0	27	0	169869312	73	4532
2026-01-15 08:11:23.53	114.65	10.93	-53.5	-55.7	14.1	0.00e+00	0	27	0	170917888	73	4551
2026-01-15 08:11:24.54	114.59	11.02	-53.5	-55.6	14.1	0.00e+00	0	27	0	173015040	73	4542
2026-01-15 08:11:25.54	114.53	11.10	-53.5	-55.7	14.1	0.00e+00	0	27	0	175112192	73	4564
2026-01-15 08:11:26.54	114.47	11.19	-53.6	-55.8	14.0	0.00e+00	0	27	0	177209344	73	4608
2026-01-15 08:11:27.55	114.41	11.28	-53.5	-55.7	14.0	0.00e+00	0	28	0	179306496	73	4570
2026-01-15 08:11:28.56	114.35	11.36	-53.5	-55.7	14.1	0.00e+00	0	27	0	180355072	73	4557
2026-01-15 08:11:29.56	114.29	11.45	-53.5	-55.7	14.0	0.00e+00	0	27	0	182452224	73	4583
2026-01-15 08:11:30.57	114.23	11.54	-53.3	-55.4	14.2	0.00e+00	0	27	0	184549376	73	4396
2026-01-15 08:11:31.57	114.17	11.63	-53.3	-55.5	14.2	0.00e+00	0	27	0	186646528	73	4443
2026-01-15 08:11:32.58	114.11	11.72	-53.3	-55.4	14.2	0.00e+00	0	28	0	188743680	73	4422
2026-01-15 08:11:33.59	114.04	11.81	-53.3	-55.4	14.2	0.00e+00	0	27	0	189792256	73	4419
2026-01-15 08:11:34.60	113.98	11.90	-53.3	-55.3	14.2	0.00e+00	0	28	0	191889408	73	4385
2026-01-15 08:11:35.60	113.92	11.99	-53.3	-55.4	14.2	0.00e+00	0	28	0	193986560	73	4439
2026-01-15 08:11:36.61	113.85	12.08	-53.2	-55.3	14.3	0.00e+00	0	27	0	196083712	73	4346
2026-01-15 08:11:37.62	113.79	12.17	-53.3	-55.4	14.2	0.00e+00	0	27	0	198180864	73	4398
2026-01-15 08:11:38.63	113.73	12.26	-53.3	-55.4	14.2	0.00e+00	0	27	0	199229440	73	4423
2026-01-15 08:11:39.63	113.66	12.35	-53.2	-55.3	14.3	0.00e+00	0	28	0	201326592	73	4345
2026-01-15 08:11:40.64	113.60	12.44	-53.2	-55.3	14.3	0.00e+00	0	28	0	203423744	73	4368
2026-01-15 08:11:41.65	113.53	12.53	-53.1	-55.1	14.2	0.00e+00	0	28	0	205520896	72	4523
2026-01-15 08:11:42.66	113.46	12.62	-53.2	-55.2	14.2	0.00e+00	0	28	0	207618048	72	4576
2026-01-15 08:11:43.67	113.40	12.72	-53.2	-55.2	14.2	0.00e+00	0	27	0	208666624	72	4568
2026-01-15 08:11:44.68	113.33	12.81	-53.3	-55.3	14.1	0.00e+00	0	27	0	210763776	72	4635
2026-01-15 08:11:45.68	113.26	12.90	-53.2	-55.2	14.2	0.00e+00	0	28	0	212860928	72	4574
2026-01-15 08:11:46.68	113.20	12.99	-53.2	-55.3	14.2	0.00e+00	0	28	0	214958080	72	4604
2026-01-15 08:11:47.69	113.13	13.09	-53.3	-55.4	14.1	0.00e+00	0	28	0	217055232	72	4694
2026-01-15 08:11:48.70	113.06	13.18	-53.4	-55.5	14.0	0.00e+00	0	27	0	218103808	72	4743
2026-01-15 08:11:49.71	112.99	13.27	-53.2	-55.2	14.2	0.00e+00	0	28	0	220200960	72	4582
2026-01-15 08:11:50.72	112.92	13.37	-53.2	-55.3	14.2	0.00e+00	0	28	0	222298112	72	4619
2026-01-15 08:11:51.73	112.85	13.46	-53.2	-55.3	14.2	0.00e+00	0	28	0	224395264	72	4608
2026-01-15 08:11:52.74	112.78	13.56	-53.4	-55.5	14.1	0.00e+00	0	28	0	226492416	72	4712
2026-01-15 08:11:53.75	112.71	13.65	-53.3	-55.4	14.1	0.00e+00	0	28	0	227540992	72	4675
2026-01-15 08:11:54.76	112.64	13.75	-53.3	-55.4	14.1	0.00e+00	0	28	0	229638144	72	4687
2026-01-15 08:11:55.77	112.56	13.85	-53.4	-55.5	14.1	0.00e+00	0	28	0	231735296	72	4713
2026-01-15 08:11:56.77	112.49	13.94	-53.1	-55.2	14.2	0.00e+00	0	28	0	233832448	72	4546
2026-01-15 08:11:57.78	112.42	14.04	-53.2	-55.2	14.2	0.00e+00	0	28	0	235929600	72	4569
2026-01-15 08:11:58.79	112.34	14.14	-53.1	-55.1	14.3	0.00e+00	0	28	0	236978176	72	4518
2026-01-15 08:11:59.80	112.27	14.23	-53.1	-55.2	14.2	0.00e+00	0	27	0	239075328	72	4546
2026-01-15 08:12:00.81	112.20	14.33	-53.1	-55.1	14.3	0.00e+00	0	28	0	241172480	72	4521
2026-01-15 08:12:01.81	112.12	14.43	-53.2	-55.2	14.2	0.00e+00	0	28	0	243269632	72	4574
2026-01-15 08:12:02.82	112.04	14.53	-53.1	-55.1	14.3	0.00e+00	0	28	0	245366784	72	4527
2026-01-15 08:12:03.83	111.97	14.63	-53.1	-55.1	14.3	0.00e+00	0	28	0	246415360	72	4531
2026-01-15 08:12:04.84	111.89	14.73	-53.2	-55.2	14.2	0.00e+00	0	28	0	248512512	72	4568
2026-01-15 08:12:05.85	111.81	14.83	-53.1	-55.1	14.3	0.00e+00	0	28	0	250609664	72	4531
2026-01-15 08:12:06.86	111.74	14.93	-53.0	-55.0	14.3	0.00e+00	0	28	0	252706816	72	4442
2026-01-15 08:12:07.87	111.66	15.03	-53.0	-55.0	14.3	0.00e+00	0	28	0	254803968	72	4447
2026-01-15 08:12:08.88	111.58	15.13	-53.0	-54.9	14.3	0.00e+00	0	28	0	256901120	72	4431
2026-01-15 08:12:09.88	111.50	15.23	-53.1	-55.1	14.3	0.00e+00	0	28	0	257949696	72	4506
2026-01-15 08:12:10.89	111.42	15.33	-53.1	-55.1	14.3	0.00e+00	0	28	0	260046848	72	4515
2026-01-15 08:12:11.90	111.34	15.43	-53.1	-55.1	14.3	0.00e+00	0	28	0	262144000	72	4536
2026-01-15 08:12:12.90	111.26	15.53	-53.2	-55.2	14.2	0.00e+00	0	28	0	264241152	72	4590
2026-01-15 08:12:13.91	111.18	15.63	-53.2	-55.2	14.3	0.00e+00	0	27	0	265289728	72	4547
2026-01-15 08:12:14.92	111.09	15.74	-53.1	-55.0	14.3	0.00e+00	0	28	0	267386880	72	4487
2026-01-15 08:12:15.93	111.01	15.84	-53.1	-55.1	14.3	0.00e+00	0	28	0	269484032	72	4520
2026-01-15 08:12:16.93	110.93	15.94	-53.1	-55.1	14.3	0.00e+00	0	28	0	271581184	72	4495
2026-01-15 08:12:17.94	110.84	16.05	-53.1	-55.1	14.3	0.00e+00	0	28	0	273678336	72	4522
2026-01-15 08:12:18.95	110.76	16.15	-53.1	-55.0	14.3	0.00e+00	0	28	0	274726912	72	4473
2026-01-15 08:12:19.95	110.68	16.25	-53.1	-55.0	14.3	0.00e+00	0	28	0	276824064	72	4487
2026-01-15 08:12:20.96	110.59	16.36	-53.1	-55.1	14.3	0.00e+00	0	28	0	278921216	72	4512
2026-01-15 08:12:21.96	110.50	16.46	-53.2	-55.2	14.2	0.00e+00	0	28	0	281018368	72	4583
2026-01-15 08:12:22.97	110.42	16.57	-53.2	-55.2	14.2	0.00e+00	0	28	0	283115520	72	4568
2026-01-15 08:12:23.97	110.33	16.68	-53.3	-55.3	14.2	0.00e+00	0	28	0	285212672	72	4623
2026-01-15 08:12:24.98	110.24	16.78	-53.3	-55.3	14.2	0.00e+00	0	28	0	286261248	72	4614
2026-01-15 08:12:25.99	110.15	16.89	-53.2	-55.2	14.2	0.00e+00	0	27	0	288358400	72	4580
2026-01-15 08:12:27.00	110.06	17.00	-53.3	-55.3	14.2	0.00e+00	0	28	0	290455552	72	4630
2026-01-15 08:12:28.01	109.97	17.10	-53.2	-55.2	14.2	0.00e+00	0	27	0	292552704	72	4563
2026-01-15 08:12:29.01	109.88	17.21	-53.3	-55.3	14.2	0.00e+00	0	28	0	293601280	72	4611
2026-01-15 08:12:30.02	109.79	17.32	-53.3	-55.3	14.2	0.00e+00	0	28	0	295698432	72	4633
2026-01-15 08:12:31.03	109.70	17.43	-53.4	-55.5	14.1	0.00e+00	0	28	0	297795584	72	4710
2026-01-15 08:12:32.03	109.60	17.54	-53.5	-55.6	14.0	0.00e+00	0	28	0	299892736	72	4803
2026-01-15 08:12:33.04	109.51	17.65	-53.5	-55.6	14.1	0.00e+00	0	28	0	301989888	72	4760
2026-01-15 08:12:34.05	109.42	17.76	-53.6	-55.7	14.0	0.00e+00	0	27	0	303038464	72	4842
2026-01-15 08:12:35.06	109.32	17.87	-53.6	-55.7	14.0	0.00e+00	0	28	0	305135616	72	4857
2026-01-15 08:12:36.06	109.22	17.98	-53.7	-55.9	13.9	0.00e+00	0	27	0	307232768	72	4933
2026-01-15 08:12:37.07	109.13	18.09	-53.5	-55.6	14.0	0.00e+00	0	28	0	309329920	72	4792
2026-01-15 08:12:38.08	109.03	18.20	-53.5	-55.6	14.0	0.00e+00	0	27	0	311427072	72	4797
2026-01-15 08:12:39.09	108.93	18.31	-53.6	-55.7	14.0	0.00e+00	0	28	0	313524224	72	4826
2026-01-15 08:12:40.09	108.83	18.43	-53.7	-55.8	14.0	0.00e+00	0	28	0	314572800	72	4906
2026-01-15 08:12:41.10	108.73	18.54	-53.5	-55.6	14.1	0.00e+00	0	28	0	316669952	72	4776
2026-01-15 08:12:42.11	108.63	18.65	-53.6	-55.7	14.0	0.00e+00	0	28	0	318767104	72	4839
2026-01-15 08:12:43.12	108.53	18.77	-53.6	-55.7	14.0	0.00e+00	0	28	0	320864256	72	4824
2026-01-15 08:12:44.13	108.43	18.88	-53.6	-55.7	14.0	0.00e+00	0	28	0	322961408	72	4844
2026-01-15 08:12:45.14	108.33	19.00	-53.7	-55.8	14.0	0.00e+00	0	28	0	324009984	72	4897
2026-01-15 08:12:46.15	108.22	19.11	-53.5	-55.5	14.1	0.00e+00	0	28	0	326107136	72	4739
2026-01-15 08:12:47.15	108.12	19.23	-53.5	-55.6	14.1	0.00e+00	0	28	0	328204288	72	4763
2026-01-15 08:12:48.17	108.01	19.34	-53.6	-55.8	14.0	0.00e+00	0	28	0	330301440	72	4880
2026-01-15 08:12:49.17	107.91	19.46	-53.4	-55.5	14.1	0.00e+00	0	28	0	332398592	72	4708
2026-01-15 08:12:50.18	107.80	19.58	-53.5	-55.6	14.1	0.00e+00	0	28	0	333447168	72	4765
2026-01-15 08:12:51.19	107.69	19.69	-53.5	-55.6	14.1	0.00e+00	0	28	0	335544320	72	4771
2026-01-15 08:12:52.20	107.58	19.81	-53.5	-55.6	14.1	0.00e+00	0	28	0	337641472	72	4794
2026-01-15 08:12:53.20	107.48	19.93	-53.6	-55.7	14.0	0.00e+00	0	28	0	339738624	72	4837
2026-01-15 08:12:54.22	107.36	20.05	-53.6	-55.7	14.1	0.00e+00	0	28	0	341835776	72	4826
2026-01-15 08:12:55.23	107.25	20.17	-53.7	-55.8	14.0	0.00e+00	0	28	0	342884352	72	4891
2026-01-15 08:12:56.23	107.14	20.29	-53.7	-55.8	14.0	0.00e+00	0	28	0	344981504	72	4892
2026-01-15 08:12:57.24	107.03	20.41	-53.6	-55.7	14.0	0.00e+00	0	28	0	347078656	72	4855
2026-01-15 08:12:58.25	106.91	20.53	-53.7	-55.8	14.0	0.00e+00	0	28	0	349175808	72	4894
2026-01-15 08:12:59.26	106.80	20.65	-53.6	-55.7	14.0	0.00e+00	0	28	0	351272960	72	4862
2026-01-15 08:13:00.26	106.69	20.77	-53.7	-55.8	14.0	0.00e+00	0	27	0	352321536	72	4906
2026-01-15 08:13:01.27	106.57	20.89	-53.7	-55.9	13.9	0.00e+00	0	28	0	354418688	72	4962
2026-01-15 08:13:02.28	106.45	21.02	-53.7	-55.9	13.9	0.00e+00	0	27	0	356515840	72	4952
2026-01-15 08:13:03.29	106.33	21.14	-53.8	-56.0	13.9	0.00e+00	0	27	0	358612992	72	5014
2026-01-15 08:13:04.30	106.21	21.26	-53.7	-55.9	13.9	0.00e+00	0	28	0	360710144	72	4952
2026-01-15 08:13:05.31	106.09	21.39	-53.6	-55.8	14.0	0.00e+00	0	28	0	361758720	72	4878
2026-01-15 08:13:06.31	105.97	21.51	-53.6	-55.7	14.0	0.00e+00	0	27	0	363855872	72	4833
2026-01-15 08:13:07.32	105.85	21.63	-53.6	-55.7	14.0	0.00e+00	0	28	0	365953024	72	4859
2026-01-15 08:13:08.33	105.72	21.76	-53.6	-55.7	14.0	0.00e+00	0	28	0	368050176	72	4841
2026-01-15 08:13:09.34	105.60	21.89	-53.6	-55.6	14.1	0.00e+00	0	28	0	370147328	72	4808
2026-01-15 08:13:10.34	105.47	22.01	-53.5	-55.5	14.1	0.00e+00	0	27	0	371195904	72	4757
2026-01-15 08:13:11.35	105.35	22.14	-53.4	-55.4	14.1	0.00e+00	0	28	0	373293056	72	4694
2026-01-15 08:13:12.36	105.22	22.27	-53.5	-55.5	14.1	0.00e+00	0	28	0	375390208	72	4731
2026-01-15 08:13:13.37	105.09	22.39	-53.4	-55.5	14.1	0.00e+00	0	28	0	377487360	72	4729
2026-01-15 08:13:14.37	104.96	22.52	-53.4	-55.4	14.2	0.00e+00	0	28	0	379584512	72	4686
2026-01-15 08:13:15.38	104.83	22.65	-53.3	-55.3	14.2	0.00e+00	0	28	0	380633088	72	4650
2026-01-15 08:13:16.39	104.70	22.78	-53.4	-55.5	14.1	0.00e+00	0	28	0	382730240	72	4713
2026-01-15 08:13:17.40	104.57	22.91	-53.5	-55.5	14.1	0.00e+00	0	28	0	384827392	72	4729
2026-01-15 08:13:18.41	104.43	23.04	-53.6	-55.6	14.1	0.00e+00	0	28	0	386924544	72	4806
2026-01-15 08:13:19.42	104.30	23.17	-53.7	-55.8	14.0	0.00e+00	0	28	0	389021696	72	4896
2026-01-15 08:13:20.42	104.16	23.30	-53.7	-55.9	14.0	0.00e+00	0	28	0	390070272	72	4934
2026-01-15 08:13:21.43	104.02	23.43	-53.6	-55.6	14.1	0.00e+00	0	28	0	392167424	72	4809
2026-01-15 08:13:22.44	103.88	23.56	-53.6	-55.7	14.0	0.00e+00	0	28	0	394264576	72	4818
2026-01-15 08:13:23.44	103.74	23.69	-53.4	-55.5	14.2	0.00e+00	0	27	0	396361728	72	4707
2026-01-15 08:13:24.44	103.60	23.83	-53.5	-55.5	14.1	0.00e+00	0	28	0	398458880	72	4757
2026-01-15 08:13:25.44	103.46	23.96	-53.4	-55.5	14.2	0.00e+00	0	28	0	399507456	72	4711
2026-01-15 08:13:26.45	103.32	24.09	-53.5	-55.6	14.1	0.00e+00	0	28	0	401604608	72	4768
2026-01-15 08:13:27.45	103.17	24.22	-53.5	-55.6	14.1	0.00e+00	0	28	0	403701760	72	4790
2026-01-15 08:13:28.46	103.03	24.36	-53.7	-55.8	14.0	0.00e+00	0	28	0	405798912	72	4909
2026-01-15 08:13:29.46	102.88	24.49	-53.6	-55.7	14.0	0.00e+00	0	28	0	407896064	72	4861
2026-01-15 08:13:30.47	102.73	24.63	-53.6	-55.7	14.0	0.00e+00	0	28	0	408944640	72	4824
2026-01-15 08:13:31.47	102.58	24.77	-53.6	-55.7	14.0	0.00e+00	0	28	0	411041792	72	4836
2026-01-15 08:13:32.48	102.43	24.90	-53.6	-55.7	14.0	0.00e+00	0	28	0	413138944	72	4858
2026-01-15 08:13:33.48	102.28	25.04	-53.5	-55.6	14.1	0.00e+00	0	28	0	415236096	72	4800
2026-01-15 08:13:34.49	102.12	25.18	-53.6	-55.7	14.0	0.00e+00	0	28	0	417333248	72	4851
2026-01-15 08:13:35.50	101.97	25.31	-53.6	-55.7	14.0	0.00e+00	0	28	0	418381824	72	4859
2026-01-15 08:13:36.51	101.81	25.45	-53.7	-55.8	14.0	0.00e+00	0	28	0	420478976	72	4918
2026-01-15 08:13:37.52	101.65	25.59	-53.7	-55.8	14.0	0.00e+00	0	28	0	422576128	72	4908
2026-01-15 08:13:38.53	101.49	25.73	-53.7	-55.8	14.0	0.00e+00	0	28	0	424673280	72	4879
2026-01-15 08:13:39.54	101.33	25.87	-53.6	-55.7	14.0	0.00e+00	0	27	0	426770432	72	4834
2026-01-15 08:13:40.54	101.17	26.01	-53.6	-55.6	14.1	0.00e+00	0	28	0	427819008	72	4813
2026-01-15 08:13:41.55	101.00	26.15	-53.6	-55.6	14.1	0.00e+00	0	28	0	429916160	72	4814
2026-01-15 08:13:42.56	100.84	26.30	-53.6	-55.6	14.1	0.00e+00	0	28	0	432013312	72	4801
2026-01-15 08:13:43.57	100.67	26.44	-53.6	-55.8	14.0	0.00e+00	0	28	0	434110464	72	4873
2026-01-15 08:13:44.58	100.50	26.58	-53.7	-55.8	14.0	0.00e+00	0	28	0	436207616	72	4895
2026-01-15 08:13:45.58	100.33	26.72	-53.7	-55.8	14.0	0.00e+00	0	28	0	437256192	72	4910
2026-01-15 08:13:46.59	100.16	26.87	-53.8	-55.9	13.9	0.00e+00	0	28	0	439353344	72	4968
2026-01-15 08:13:47.60	99.99	27.01	-53.7	-55.8	14.0	0.00e+00	0	28	0	441450496	72	4872
2026-01-15 08:13:48.61	99.81	27.15	-53.7	-55.8	14.0	0.00e+00	0	28	0	443547648	72	4918
2026-01-15 08:13:49.62	99.64	27.30	-53.7	-55.7	14.0	0.00e+00	0	28	0	445644800	72	4866
2026-01-15 08:13:50.63	99.46	27.45	-53.6	-55.7	14.1	0.00e+00	0	28	0	446693376	72	4863
2026-01-15 08:13:51.64	99.28	27.59	-53.7	-55.7	14.0	0.00e+00	0	28	0	448790528	72	4864
2026-01-15 08:13:52.65	99.09	27.74	-53.5	-55.5	14.1	0.00e+00	0	28	0	450887680	72	4751
2026-01-15 08:13:53.66	98.91	27.89	-53.6	-55.6	14.1	0.00e+00	0	28	0	452984832	72	4810
2026-01-15 08:13:54.67	98.73	28.03	-53.7	-55.8	14.0	0.00e+00	0	28	0	455081984	72	4899
2026-01-15 08:13:55.67	98.54	28.18	-53.8	-55.9	14.0	0.00e+00	0	28	0	456130560	72	4946
2026-01-15 08:13:56.68	98.35	28.33	-53.9	-56.0	13.9	0.00e+00	0	28	0	458227712	72	5018
2026-01-15 08:13:57.69	98.16	28.48	-54.0	-56.2	13.9	0.00e+00	0	28	0	460324864	73	4844
2026-01-15 08:13:58.70	97.97	28.62	-53.9	-56.1	14.0	0.00e+00	0	28	0	462422016	73	4781
2026-01-15 08:13:59.71	97.77	28.77	-53.9	-56.1	14.0	0.00e+00	0	28	0	464519168	73	4776
2026-01-15 08:14:00.71	97.58	28.92	-54.0	-56.1	14.0	0.00e+00	0	28	0	465567744	73	4803
2026-01-15 08:14:01.72	97.38	29.07	-54.2	-56.4	13.8	0.00e+00	0	28	0	467664896	73	4957
2026-01-15 08:14:02.73	97.18	29.22	-54.4	-56.7	13.7	0.00e+00	0	28	0	469762048	73	5136
2026-01-15 08:14:03.74	96.98	29.38	-54.7	-57.2	13.6	0.00e+00	0	28	0	471859200	74	5101
2026-01-15 08:14:04.75	96.78	29.53	-54.9	-57.4	13.4	0.00e+00	0	28	0	473956352	74	5276
2026-01-15 08:14:05.76	96.57	29.68	-55.1	-57.7	13.3	0.00e+00	0	28	0	475004928	75	5136
2026-01-15 08:14:06.77	96.36	29.83	-55.1	-57.7	13.3	0.00e+00	0	28	0	477102080	75	5141
2026-01-15 08:14:07.77	96.16	29.98	-55.1	-57.8	13.3	0.00e+00	0	28	0	479199232	75	5179
2026-01-15 08:14:08.78	95.94	30.14	-55.3	-58.2	13.1	0.00e+00	0	27	0	481296384	75	5412
2026-01-15 08:14:09.79	95.73	30.29	-55.3	-58.1	13.1	0.00e+00	0	28	0	483393536	75	5399
2026-01-15 08:14:10.79	95.52	30.44	-55.5	-58.4	13.1	0.00e+00	0	28	0	484442112	76	5230
2026-01-15 08:14:11.79	95.30	30.59	-55.7	-58.7	12.9	0.00e+00	0	28	0	486539264	76	5406
2026-01-15 08:14:12.80	95.08	30.75	-55.7	-58.7	12.9	0.00e+00	0	28	0	488636416	76	5446
2026-01-15 08:14:13.81	94.86	30.90	-55.9	-59.0	12.8	0.00e+00	0	28	0	490733568	77	5311
2026-01-15 08:14:14.82	94.63	31.06	-56.0	-59.1	12.8	0.00e+00	0	28	0	492830720	77	5359
2026-01-15 08:14:15.83	94.41	31.21	-56.1	-59.2	12.7	0.00e+00	0	28	0	494927872	77	5455
2026-01-15 08:14:16.84	94.18	31.37	-56.0	-59.1	12.8	0.00e+00	0	28	0	495976448	77	5341
2026-01-15 08:14:17.84	93.95	31.52	-56.1	-59.2	12.7	0.00e+00	0	28	0	498073600	77	5454
2026-01-15 08:14:18.85	93.72	31.68	-56.1	-59.3	12.7	0.00e+00	0	28	0	500170752	77	5492
2026-01-15 08:14:19.87	93.48	31.84	-56.2	-59.4	12.6	0.00e+00	0	27	0	502267904	77	5572
2026-01-15 08:14:20.87	93.25	32.00	-55.9	-59.0	12.8	0.00e+00	0	28	0	504365056	77	5334
2026-01-15 08:14:21.88	93.01	32.15	-55.8	-58.8	13.0	0.00e+00	0	28	0	505413632	77	5175
2026-01-15 08:14:22.88	92.77	32.31	-55.9	-58.9	12.9	0.00e+00	0	28	0	507510784	77	5258
2026-01-15 08:14:23.89	92.52	32.47	-55.8	-58.9	12.9	0.00e+00	0	28	0	509607936	77	5230
2026-01-15 08:14:24.89	92.28	32.62	-55.8	-58.8	13.0	0.00e+00	0	28	0	511705088	77	5169
2026-01-15 08:14:25.90	92.03	32.78	-55.8	-58.9	12.9	0.00e+00	0	28	0	512753664	77	5226
2026-01-15 08:14:26.91	91.77	32.94	-55.9	-59.0	12.8	0.00e+00	0	28	0	514850816	77	5307
2026-01-15 08:14:27.91	91.52	33.10	-55.9	-58.9	12.9	0.00e+00	0	28	0	516947968	77	5230
2026-01-15 08:14:28.92	91.27	33.26	-55.9	-58.9	12.9	7.00e-07	0	28	0	519045120	77	5269
2026-01-15 08:14:29.93	91.01	33.41	-55.9	-59.0	12.9	0.00e+00	0	28	0	521142272	77	5294
2026-01-15 08:14:30.93	90.75	33.57	-55.9	-58.9	12.9	0.00e+00	0	28	0	523239424	77	5254
2026-01-15 08:14:31.94	90.48	33.73	-55.9	-58.9	12.9	0.00e+00	0	28	0	524288000	77	5227
2026-01-15 08:14:32.95	90.21	33.89	-55.9	-59.0	12.8	0.00e+00	0	28	0	526385152	77	5301
2026-01-15 08:14:33.96	89.94	34.05	-55.7	-58.6	13.1	0.00e+00	0	28	0	528482304	77	5083
2026-01-15 08:14:34.97	89.67	34.21	-55.6	-58.5	13.1	0.00e+00	0	28	0	530579456	77	5009
2026-01-15 08:14:35.97	89.40	34.37	-55.7	-58.6	13.1	0.00e+00	0	28	0	532676608	77	5088
2026-01-15 08:14:36.98	89.12	34.53	-55.7	-58.6	13.1	0.00e+00	0	28	0	533725184	77	5066
2026-01-15 08:14:37.99	88.84	34.69	-55.5	-58.3	13.3	0.00e+00	0	28	0	535822336	77	4899
2026-01-15 08:14:39.00	88.56	34.85	-55.4	-58.1	13.4	0.00e+00	0	28	0	537919488	77	4771
2026-01-15 08:14:40.01	88.27	35.01	-55.1	-57.5	13.6	0.00e+00	0	28	0	540016640	76	4759
2026-01-15 08:14:41.02	87.98	35.17	-54.9	-57.4	13.7	0.00e+00	0	28	0	541065216	76	4655
2026-01-15 08:14:42.02	87.69	35.32	-54.9	-57.4	13.7	0.00e+00	0	28	0	543162368	76	4670
2026-01-15 08:14:43.03	87.40	35.48	-54.8	-57.3	13.7	0.00e+00	0	28	0	545259520	76	4599
2026-01-15 08:14:44.04	87.10	35.64	-54.6	-56.9	13.8	0.00e+00	0	28	0	547356672	75	4682
2026-01-15 08:14:45.05	86.80	35.80	-54.5	-56.9	13.8	0.00e+00	0	28	0	549453824	75	4653
2026-01-15 08:14:46.05	86.50	35.96	-54.5	-56.8	13.9	0.00e+00	0	27	0	551550976	75	4638
2026-01-15 08:14:47.06	86.19	36.12	-54.5	-56.8	13.9	0.00e+00	0	28	0	552599552	75	4642
2026-01-15 08:14:48.06	85.88	36.28	-54.5	-56.9	13.9	0.00e+00	0	28	0	554696704	75	4655
2026-01-15 08:14:49.07	85.57	36.43	-54.5	-56.8	13.9	0.00e+00	0	28	0	556793856	75	4625
2026-01-15 08:14:50.07	85.26	36.59	-54.5	-56.8	13.9	0.00e+00	0	28	0	558891008	75	4649
2026-01-15 08:14:51.08	84.94	36.75	-54.6	-56.9	13.8	0.00e+00	0	28	0	560988160	75	4699
2026-01-15 08:14:52.08	84.62	36.91	-54.5	-56.8	13.9	0.00e+00	0	28	0	562036736	75	4650
2026-01-15 08:14:53.09	84.30	37.06	-54.4	-56.7	13.9	0.00e+00	0	28	0	564133888	75	4575
2026-01-15 08:14:54.10	83.97	37.22	-54.4	-56.7	13.9	0.00e+00	0	28	0	566231040	75	4579
2026-01-15 08:14:55.11	83.64	37.38	-54.5	-56.8	13.9	0.00e+00	0	28	0	568328192	75	4637
2026-01-15 08:14:56.12	83.30	37.54	-54.5	-56.9	13.8	0.00e+00	0	28	0	569376768	75	4655
2026-01-15 08:14:57.13	82.96	37.69	-54.6	-56.9	13.9	0.00e+00	0	28	0	571473920	75	4669
2026-01-15 08:14:58.14	82.62	37.85	-54.8	-57.2	13.7	0.00e+00	0	28	0	573571072	75	4842
2026-01-15 08:14:59.15	82.28	38.00	-54.7	-57.1	13.7	0.00e+00	0	28	0	575668224	75	4779
2026-01-15 08:15:00.15	81.93	38.16	-54.6	-57.0	13.8	0.00e+00	0	28	0	577765376	75	4716
2026-01-15 08:15:01.16	81.58	38.31	-54.6	-57.0	13.8	0.00e+00	0	28	0	579862528	75	4739
2026-01-15 08:15:02.16	81.23	38.46	-54.7	-57.0	13.8	0.00e+00	0	28	0	580911104	75	4743
2026-01-15 08:15:03.17	80.87	38.62	-54.8	-57.2	13.7	0.00e+00	0	28	0	583008256	75	4854
2026-01-15 08:15:04.18	80.51	38.77	-54.9	-57.4	13.6	0.00e+00	0	28	0	585105408	75	4978
2026-01-15 08:15:05.19	80.15	38.92	-55.0	-57.6	13.5	0.00e+00	0	28	0	587202560	75	5043
2026-01-15 08:15:06.20	79.78	39.07	-54.9	-57.4	13.6	0.00e+00	0	28	0	589299712	75	4953
2026-01-15 08:15:07.20	79.41	39.22	-54.8	-57.3	13.7	0.00e+00	0	28	0	590348288	75	4888
2026-01-15 08:15:08.21	79.03	39.37	-54.8	-57.3	13.7	0.00e+00	0	28	0	592445440	75	4879
2026-01-15 08:15:09.22	78.66	39.52	-54.9	-57.3	13.6	0.00e+00	0	28	0	594542592	75	4924
2026-01-15 08:15:10.23	78.27	39.67	-54.9	-57.4	13.5	0.00e+00	0	28	0	596639744	75	4977
2026-01-15 08:15:11.23	77.89	39.82	-54.9	-57.4	13.6	0.00e+00	0	28	0	598736896	75	4959
2026-01-15 08:15:12.24	77.50	39.96	-54.7	-57.0	13.8	0.00e+00	0	28	0	599785472	75	4739
2026-01-15 08:15:13.25	77.11	40.11	-54.4	-56.6	14.0	0.00e+00	0	28	0	601882624	75	4543
2026-01-15 08:15:14.26	76.71	40.25	-54.4	-56.7	14.0	0.00e+00	0	28	0	603979776	75	4553
2026-01-15 08:15:15.27	76.31	40.40	-54.6	-56.9	13.9	0.00e+00	0	28	0	606076928	75	4663
2026-01-15 08:15:16.27	75.92	40.54	-54.6	-56.9	13.9	0.00e+00	0	27	0	608174080	75	4695
2026-01-15 08:15:17.28	75.51	40.68	-54.5	-56.7	14.0	0.00e+00	0	28	0	609222656	75	4581
2026-01-15 08:15:18.29	75.10	40.82	-54.1	-56.2	14.1	0.00e+00	0	28	0	611319808	74	4566
2026-01-15 08:15:19.29	74.69	40.96	-53.8	-55.8	14.3	0.00e+00	0	28	0	613416960	74	4350
2026-01-15 08:15:20.30	74.27	41.10	-53.8	-55.8	14.3	0.00e+00	0	28	0	615514112	74	4360
2026-01-15 08:15:21.30	73.85	41.23	-53.9	-55.9	14.2	0.00e+00	0	28	0	617611264	74	4427
2026-01-15 08:15:22.31	73.43	41.37	-53.5	-55.5	14.3	0.00e+00	0	28	0	618659840	73	4447
2026-01-15 08:15:23.32	73.00	41.50	-53.3	-55.2	14.5	0.00e+00	0	28	0	620756992	73	4297
2026-01-15 08:15:24.32	72.57	41.63	-53.2	-55.0	14.4	0.00e+00	0	28	0	622854144	72	4462
2026-01-15 08:15:25.33	72.14	41.77	-53.1	-55.0	14.4	0.00e+00	0	28	0	624951296	72	4465
2026-01-15 08:15:26.34	71.70	41.90	-53.2	-55.0	14.4	0.00e+00	0	28	0	627048448	72	4486
2026-01-15 08:15:27.35	71.26	42.03	-53.2	-55.1	14.4	0.00e+00	0	28	0	628097024	72	4534
2026-01-15 08:15:28.36	70.81	42.15	-53.0	-54.8	14.5	0.00e+00	0	28	0	630194176	72	4391
2026-01-15 08:15:29.37	70.36	42.28	-53.0	-54.8	14.5	0.00e+00	0	28	0	632291328	72	4377
2026-01-15 08:15:30.38	69.91	42.40	-53.0	-54.8	14.5	0.00e+00	0	28	0	634388480	72	4373
2026-01-15 08:15:31.39	69.45	42.53	-53.0	-54.8	14.6	0.00e+00	0	28	0	636485632	72	4354
2026-01-15 08:15:32.39	69.00	42.65	-53.2	-55.1	14.4	0.00e+00	0	28	0	637534208	72	4530
2026-01-15 08:15:33.39	68.54	42.76	-53.3	-55.2	14.3	0.00e+00	0	28	0	639631360	72	4581
2026-01-15 08:15:34.40	68.07	42.88	-53.5	-55.4	14.3	0.00e+00	0	28	0	641728512	72	4690
2026-01-15 08:15:35.41	67.60	43.00	-53.5	-55.4	14.3	0.00e+00	0	28	0	643825664	72	4684
2026-01-15 08:15:36.42	67.13	43.11	-53.7	-55.7	14.1	0.00e+00	0	28	0	645922816	72	4853
2026-01-15 08:15:37.42	66.65	43.22	-54.0	-56.0	14.1	0.00e+00	0	28	0	646971392	73	4754
2026-01-15 08:15:38.43	66.17	43.33	-54.0	-56.1	14.1	0.00e+00	0	28	0	649068544	73	4768
2026-01-15 08:15:39.43	65.69	43.44	-53.8	-55.8	14.1	0.00e+00	0	28	0	651165696	73	4646
2026-01-15 08:15:40.44	65.21	43.54	-53.7	-55.6	14.3	0.00e+00	0	28	0	653262848	73	4536
2026-01-15 08:15:41.45	64.72	43.65	-53.8	-55.8	14.2	0.00e+00	0	28	0	655360000	73	4632
2026-01-15 08:15:42.45	64.23	43.75	-53.7	-55.7	14.3	0.00e+00	0	28	0	656408576	73	4585
2026-01-15 08:15:43.46	63.73	43.85	-53.7	-55.7	14.3	0.00e+00	0	28	0	658505728	73	4587
2026-01-15 08:15:44.47	63.23	43.95	-53.9	-56.0	14.1	0.00e+00	0	28	0	660602880	73	4709
2026-01-15 08:15:45.48	62.73	44.04	-53.8	-55.8	14.2	0.00e+00	0	28	0	662700032	73	4635
2026-01-15 08:15:46.49	62.23	44.14	-53.8	-55.9	14.2	0.00e+00	0	28	0	664797184	73	4664
2026-01-15 08:15:47.49	61.72	44.23	-53.7	-55.7	14.3	0.00e+00	0	28	0	665845760	73	4571
2026-01-15 08:15:48.50	61.21	44.31	-53.7	-55.7	14.2	0.00e+00	0	28	0	667942912	73	4587
2026-01-15 08:15:49.50	60.70	44.40	-53.8	-55.9	14.2	0.00e+00	0	28	0	670040064	73	4669
2026-01-15 08:15:50.51	60.19	44.48	-53.9	-55.9	14.1	0.00e+00	0	28	0	672137216	73	4692
2026-01-15 08:15:51.52	59.67	44.57	-53.8	-55.8	14.2	0.00e+00	0	28	0	674234368	73	4620
2026-01-15 08:15:52.53	59.14	44.64	-53.7	-55.7	14.2	0.00e+00	0	28	0	675282944	73	4553
2026-01-15 08:15:53.54	58.62	44.72	-53.7	-55.7	14.2	0.00e+00	0	28	0	677380096	73	4557
2026-01-15 08:15:54.55	58.09	44.79	-53.8	-55.8	14.2	0.00e+00	0	28	0	679477248	73	4635
2026-01-15 08:15:55.56	57.56	44.87	-53.9	-56.0	14.1	0.00e+00	0	28	0	681574400	73	4740
2026-01-15 08:15:56.56	57.04	44.93	-54.1	-56.2	14.0	0.00e+00	0	28	0	683671552	73	4835
2026-01-15 08:15:57.57	56.50	45.00	-53.9	-56.0	14.1	0.00e+00	0	28	0	684720128	73	4741
2026-01-15 08:15:58.58	55.97	45.06	-54.2	-56.4	13.9	0.00e+00	0	28	0	686817280	73	4965
2026-01-15 08:15:59.59	55.43	45.12	-54.5	-56.9	13.8	0.00e+00	0	28	0	688914432	74	4935
2026-01-15 08:16:00.59	54.89	45.18	-54.6	-57.0	13.7	0.00e+00	0	28	0	691011584	74	4992
2026-01-15 08:16:01.60	54.35	45.24	-54.5	-56.8	13.8	0.00e+00	0	28	0	693108736	74	4905
2026-01-15 08:16:02.60	53.81	45.29	-54.5	-56.7	13.8	0.00e+00	0	28	0	694157312	74	4868
2026-01-15 08:16:03.61	53.27	45.34	-54.5	-56.7	13.9	0.00e+00	0	28	0	696254464	74	4859
2026-01-15 08:16:04.62	52.72	45.38	-54.6	-56.9	13.8	0.00e+00	0	28	0	698351616	74	4935
2026-01-15 08:16:05.63	52.17	45.43	-54.8	-57.1	13.7	0.00e+00	0	28	0	700448768	74	5090
2026-01-15 08:16:06.64	51.62	45.47	-55.1	-57.6	13.6	0.00e+00	0	28	0	702545920	75	5052
2026-01-15 08:16:07.64	51.07	45.51	-55.1	-57.6	13.5	0.00e+00	0	28	0	703594496	75	5076
2026-01-15 08:16:08.65	50.52	45.54	-54.9	-57.3	13.7	0.00e+00	0	28	0	705691648	75	4900
2026-01-15 08:16:09.65	49.97	45.57	-54.6	-57.0	13.8	0.00e+00	0	28	0	707788800	75	4710
2026-01-15 08:16:10.66	49.41	45.60	-54.7	-57.0	13.8	0.00e+00	0	28	0	709885952	75	4737
2026-01-15 08:16:11.67	48.86	45.63	-54.9	-57.3	13.7	0.00e+00	0	28	0	711983104	75	4901
2026-01-15 08:16:12.67	48.31	45.65	-54.8	-57.2	13.7	0.00e+00	0	28	0	713031680	75	4827
2026-01-15 08:16:13.68	47.75	45.67	-54.7	-57.2	13.7	0.00e+00	0	28	0	715128832	75	4817
2026-01-15 08:16:14.69	47.19	45.69	-54.9	-57.3	13.7	0.00e+00	0	28	0	717225984	75	4904
2026-01-15 08:16:15.70	46.63	45.71	-54.8	-57.2	13.7	0.00e+00	0	28	0	719323136	75	4867
2026-01-15 08:16:16.70	46.07	45.72	-54.8	-57.2	13.7	0.00e+00	0	28	0	721420288	75	4829
2026-01-15 08:16:17.71	45.51	45.72	-54.7	-57.0	13.8	0.00e+00	0	28	0	722468864	75	4750
2026-01-15 08:16:18.72	44.95	45.73	-54.9	-57.3	13.7	0.00e+00	0	28	0	724566016	75	4911
2026-01-15 08:16:19.73	44.39	45.73	-54.9	-57.3	13.7	0.00e+00	0	28	0	726663168	75	4890
2026-01-15 08:16:20.73	43.84	45.73	-54.9	-57.3	13.7	0.00e+00	0	28	0	728760320	75	4877
2026-01-15 08:16:21.74	43.28	45.73	-54.7	-57.0	13.8	0.00e+00	0	28	0	730857472	75	4721
2026-01-15 08:16:22.75	42.72	45.72	-54.9	-57.4	13.6	0.00e+00	0	28	0	731906048	75	4942
2026-01-15 08:16:23.76	42.16	45.71	-55.0	-57.5	13.6	0.00e+00	0	28	0	734003200	75	4995
2026-01-15 08:16:24.77	41.60	45.70	-55.1	-57.6	13.5	0.00e+00	0	28	0	736100352	75	5093
2026-01-15 08:16:25.78	41.04	45.68	-55.2	-57.8	13.4	0.00e+00	0	28	0	738197504	75	5205
2026-01-15 08:16:26.79	40.48	45.66	-55.3	-58.0	13.3	0.00e+00	0	28	0	740294656	75	5285
2026-01-15 08:16:27.79	39.93	45.64	-55.2	-57.7	13.4	0.00e+00	0	28	0	741343232	75	5146
2026-01-15 08:16:28.80	39.37	45.62	-55.1	-57.6	13.5	0.00e+00	0	28	0	743440384	75	5079
2026-01-15 08:16:29.81	38.82	45.59	-55.2	-57.7	13.4	0.00e+00	0	28	0	745537536	75	5156
2026-01-15 08:16:30.82	38.26	45.56	-55.3	-57.9	13.4	0.00e+00	0	28	0	747634688	75	5236
2026-01-15 08:16:31.83	37.71	45.52	-55.3	-57.9	13.4	0.00e+00	0	28	0	749731840	75	5230
2026-01-15 08:16:32.84	37.16	45.49	-55.6	-58.4	13.2	0.00e+00	0	28	0	750780416	76	5241
2026-01-15 08:16:33.85	36.61	45.45	-56.0	-59.0	12.9	0.00e+00	0	28	0	752877568	77	5305
2026-01-15 08:16:34.86	36.06	45.41	-56.0	-59.1	12.9	0.00e+00	0	28	0	754974720	77	5341
2026-01-15 08:16:35.87	35.51	45.36	-55.9	-58.9	13.0	0.00e+00	0	28	0	757071872	77	5242
2026-01-15 08:16:36.87	34.97	45.31	-55.7	-58.5	13.1	0.00e+00	0	28	0	759169024	77	4994
2026-01-15 08:16:37.88	34.42	45.26	-55.7	-58.5	13.2	0.00e+00	0	28	0	761266176	77	5035
2026-01-15 08:16:38.89	33.88	45.21	-55.7	-58.5	13.2	0.00e+00	0	28	0	762314752	77	4993
2026-01-15 08:16:39.90	33.34	45.15	-56.0	-58.9	13.0	0.00e+00	0	28	0	764411904	77	5250
2026-01-15 08:16:40.90	32.81	45.09	-56.3	-59.4	12.7	0.00e+00	0	28	0	766509056	77	5568
2026-01-15 08:16:41.90	32.27	45.03	-56.1	-59.0	12.9	0.00e+00	0	28	0	768606208	77	5336
2026-01-15 08:16:42.91	31.74	44.97	-55.8	-58.6	13.2	0.00e+00	0	28	0	769654784	77	5054
2026-01-15 08:16:43.92	31.21	44.90	-55.4	-58.0	13.5	0.00e+00	0	28	0	771751936	77	4710
2026-01-15 08:16:44.93	30.68	44.83	-55.4	-58.1	13.5	0.00e+00	0	28	0	773849088	77	4770
2026-01-15 08:16:45.94	30.15	44.76	-55.5	-58.2	13.4	0.00e+00	0	28	0	775946240	77	4836
2026-01-15 08:16:46.94	29.63	44.68	-55.4	-58.0	13.5	0.00e+00	0	28	0	778043392	77	4742
2026-01-15 08:16:47.95	29.11	44.60	-55.3	-57.8	13.6	0.00e+00	0	28	0	779091968	77	4621
2026-01-15 08:16:48.96	28.59	44.52	-55.1	-57.5	13.7	0.00e+00	0	28	0	781189120	76	4742
2026-01-15 08:16:49.96	28.07	44.44	-54.8	-57.0	14.0	0.00e+00	0	28	0	783286272	76	4487
2026-01-15 08:16:50.97	27.56	44.36	-54.6	-56.9	13.9	0.00e+00	0	28	0	785383424	75	4662
2026-01-15 08:16:51.97	27.05	44.27	-54.4	-56.6	14.0	0.00e+00	0	28	0	787480576	75	4514
2026-01-15 08:16:52.98	26.54	44.18	-54.1	-56.3	14.1	0.00e+00	0	28	0	789577728	74	4611
2026-01-15 08:16:53.99	26.04	44.09	-54.1	-56.1	14.2	0.00e+00	0	28	0	790626304	74	4536
2026-01-15 08:16:55.00	25.53	43.99	-53.9	-55.9	14.3	0.00e+00	0	27	0	792723456	74	4428
2026-01-15 08:16:56.00	25.04	43.90	-54.0	-56.0	14.3	0.00e+00	0	28	0	794820608	74	4461
2026-01-15 08:16:57.01	24.54	43.80	-53.8	-55.8	14.3	0.00e+00	0	28	0	796917760	74	4366
2026-01-15 08:16:58.02	24.05	43.70	-53.4	-55.3	14.5	0.00e+00	0	28	0	797966336	73	4350
2026-01-15 08:16:59.02	23.56	43.60	-53.2	-55.1	14.5	0.00e+00	0	28	0	800063488	73	4247
2026-01-15 08:17:00.03	23.07	43.49	-53.1	-55.0	14.5	0.00e+00	0	28	0	802160640	72	4453
2026-01-15 08:17:01.04	22.59	43.39	-53.2	-55.0	14.4	0.00e+00	0	28	0	804257792	72	4471
2026-01-15 08:17:02.04	22.11	43.28	-53.2	-55.0	14.4	0.00e+00	0	28	0	806354944	72	4492
2026-01-15 08:17:03.05	21.63	43.17	-53.1	-54.9	14.5	0.00e+00	0	28	0	807403520	72	4402
2026-01-15 08:17:04.06	21.16	43.05	-52.6	-54.4	14.6	0.00e+00	0	28	0	809500672	71	4395
2026-01-15 08:17:05.07	20.69	42.94	-52.5	-54.2	14.7	0.00e+00	0	28	0	811597824	71	4293
2026-01-15 08:17:06.08	20.22	42.82	-52.4	-54.1	14.7	0.00e+00	0	28	0	813694976	71	4259
2026-01-15 08:17:07.08	19.76	42.71	-52.2	-53.9	14.8	0.00e+00	0	28	0	815792128	71	4148
2026-01-15 08:17:08.09	19.30	42.59	-51.9	-53.4	14.9	0.00e+00	0	28	0	817889280	70	4193
2026-01-15 08:17:09.10	18.84	42.46	-51.6	-53.1	14.8	0.00e+00	0	28	0	818937856	69	4286
2026-01-15 08:17:10.11	18.39	42.34	-51.7	-53.2	14.8	0.00e+00	0	28	0	821035008	69	4315
2026-01-15 08:17:11.11	17.94	42.22	-51.7	-53.3	14.8	0.00e+00	0	28	0	823132160	69	4365
2026-01-15 08:17:12.12	17.49	42.09	-51.8	-53.4	14.8	0.00e+00	0	28	0	825229312	69	4408
2026-01-15 08:17:13.13	17.05	41.96	-51.8	-53.4	14.8	0.00e+00	0	28	0	827326464	69	4405
2026-01-15 08:17:14.14	16.61	41.83	-51.7	-53.3	14.8	0.00e+00	0	28	0	828375040	69	4360
2026-01-15 08:17:15.15	16.17	41.70	-51.6	-53.2	14.8	0.00e+00	0	28	0	830472192	69	4299
2026-01-15 08:17:16.16	15.74	41.57	-51.4	-52.8	14.9	0.00e+00	0	28	0	832569344	69	4143
2026-01-15 08:17:17.16	15.32	41.44	-51.4	-52.9	15.0	0.00e+00	0	28	0	834666496	69	4154
2026-01-15 08:17:18.17	14.89	41.30	-51.7	-53.2	14.8	0.00e+00	0	28	0	836763648	69	4338
2026-01-15 08:17:19.18	14.47	41.17	-52.0	-53.6	14.7	0.00e+00	0	28	0	837812224	69	4513
2026-01-15 08:17:20.19	14.05	41.03	-52.0	-53.6	14.7	0.00e+00	0	28	0	839909376	69	4508
2026-01-15 08:17:21.20	13.63	40.89	-51.8	-53.3	14.8	0.00e+00	0	28	0	842006528	69	4375
2026-01-15 08:17:22.20	13.23	40.75	-51.6	-53.2	14.8	0.00e+00	0	28	0	844103680	69	4307
2026-01-15 08:17:23.21	12.82	40.61	-51.5	-53.0	14.9	0.00e+00	0	28	0	846200832	69	4226
2026-01-15 08:17:24.22	12.42	40.47	-51.4	-52.9	14.9	0.00e+00	0	28	0	847249408	69	4160
2026-01-15 08:17:25.22	12.02	40.33	-51.4	-52.9	14.9	0.00e+00	0	28	0	849346560	69	4162
2026-01-15 08:17:26.22	11.63	40.19	-51.7	-53.2	14.8	0.00e+00	0	28	0	851443712	69	4307
2026-01-15 08:17:27.23	11.23	40.04	-51.9	-53.4	14.7	0.00e+00	0	28	0	853540864	69	4438
2026-01-15 08:17:28.24	10.84	39.90	-52.0	-53.6	14.7	0.00e+00	0	28	0	855638016	69	4512
2026-01-15 08:17:29.25	10.46	39.75	-52.0	-53.6	14.7	0.00e+00	0	28	0	856686592	69	4515
2026-01-15 08:17:30.26	10.07	39.60	-52.0	-53.6	14.7	0.00e+00	0	28	0	858783744	69	4524
2026-01-15 08:17:31.26	9.70	39.45	-52.1	-53.7	14.7	0.00e+00	0	28	0	860880896	69	4549
2026-01-15 08:17:32.27	9.32	39.31	-52.0	-53.6	14.7	0.00e+00	0	28	0	862978048	69	4530
2026-01-15 08:17:33.28	8.95	39.16	-52.0	-53.6	14.7	0.00e+00	0	28	0	865075200	69	4528
2026-01-15 08:17:34.29	8.58	39.00	-52.0	-53.6	14.7	0.00e+00	0	28	0	866123776	69	4524
2026-01-15 08:17:35.30	8.21	38.85	-52.3	-53.9	14.6	0.00e+00	0	28	0	868220928	69	4687
2026-01-15 08:17:36.31	7.85	38.70	-52.3	-54.0	14.5	0.00e+00	0	28	0	870318080	69	4725
2026-01-15 08:17:37.32	7.49	38.55	-52.4	-54.1	14.6	0.00e+00	0	28	0	872415232	70	4531
2026-01-15 08:17:38.33	7.14	38.40	-52.5	-54.3	14.5	0.00e+00	0	28	0	874512384	70	4602
2026-01-15 08:17:39.34	6.78	38.24	-52.8	-54.6	14.4	0.00e+00	0	28	0	875560960	70	4803
2026-01-15 08:17:40.34	6.44	38.09	-52.9	-54.7	14.4	0.00e+00	0	28	0	877658112	71	4588
2026-01-15 08:17:41.35	6.09	37.93	-53.0	-54.8	14.4	0.00e+00	0	28	0	879755264	71	4609
2026-01-15 08:17:42.35	5.75	37.78	-52.9	-54.7	14.4	0.00e+00	0	28	0	881852416	71	4590
2026-01-15 08:17:43.36	5.42	37.62	-52.9	-54.7	14.5	0.00e+00	0	28	0	883949568	71	4578
2026-01-15 08:17:44.37	5.08	37.47	-52.8	-54.5	14.5	0.00e+00	0	28	0	884998144	71	4492
2026-01-15 08:17:45.37	4.75	37.31	-52.7	-54.5	14.6	0.00e+00	0	28	0	887095296	71	4454
2026-01-15 08:17:46.38	4.42	37.16	-52.9	-54.7	14.5	0.00e+00	0	28	0	889192448	71	4558
2026-01-15 08:17:47.38	4.10	37.00	-53.2	-55.0	14.3	0.00e+00	0	28	0	891289600	71	4759
2026-01-15 08:17:48.39	3.78	36.84	-53.4	-55.3	14.2	0.00e+00	0	28	0	893386752	71	4886
2026-01-15 08:17:49.39	3.46	36.69	-53.5	-55.4	14.3	0.00e+00	0	28	0	894435328	72	4705
2026-01-15 08:17:50.40	3.14	36.53	-53.7	-55.7	14.2	0.00e+00	0	28	0	896532480	72	4856
2026-01-15 08:17:51.41	2.83	36.37	-53.8	-55.8	14.1	0.00e+00	0	28	0	898629632	72	4912
2026-01-15 08:17:52.42	2.52	36.21	-53.8	-55.8	14.1	0.00e+00	0	28	0	900726784	72	4894
2026-01-15 08:17:53.43	2.21	36.05	-53.8	-55.8	14.1	0.00e+00	0	28	0	902823936	72	4919
2026-01-15 08:17:54.43	1.91	35.90	-54.4	-56.3	14.0	0.00e+00	0	28	0	903872512	73	4883
2026-01-15 08:17:55.44	1.61	35.74	-54.1	-56.3	14.0	0.00e+00	0	28	0	905969664	73	4887
2026-01-15 08:17:56.44	1.31	35.58	-54.5	-56.7	13.9	0.00e+00	0	28	0	908066816	74	4854
2026-01-15 08:17:57.45	1.02	35.42	-54.5	-56.8	13.8	0.00e+00	0	28	0	910163968	74	4879
2026-01-15 08:17:58.46	0.72	35.26	-54.7	-57.1	13.7	0.00e+00	0	28	0	912261120	74	5050
2026-01-15 08:17:59.46	0.44	35.11	-55.0	-57.4	13.6	0.00e+00	0	28	0	913309696	75	4978
2026-01-15 08:18:00.47	0.15	34.95	-55.2	-57.7	13.4	0.00e+00	0	28	0	915406848	75	5154
2026-01-15 08:18:01.48	359.87	34.79	-55.2	-57.7	13.4	0.00e+00	0	28	0	917504000	75	5124
2026-01-15 08:18:02.49	359.58	34.63	-55.2	-57.8	13.4	0.00e+00	0	28	0	919601152	75	5187
2026-01-15 08:18:03.49	359.31	34.47	-55.2	-57.7	13.4	0.00e+00	0	28	0	921698304	75	5154
2026-01-15 08:18:04.50	359.03	34.31	-55.7	-58.5	13.2	0.00e+00	0	28	0	922746880	76	5291
2026-01-15 08:18:05.51	358.76	34.15	-55.8	-58.7	13.0	0.00e+00	0	28	0	924844032	76	5431
2026-01-15 08:18:06.52	358.49	33.99	-56.0	-59.0	12.9	0.00e+00	0	28	0	926941184	77	5331
2026-01-15 08:18:07.52	358.22	33.84	-56.1	-59.1	12.8	0.00e+00	0	28	0	929038336	77	5401
2026-01-15 08:18:08.53	357.96	33.68	-56.3	-59.5	12.6	0.00e+00	0	28	0	931135488	77	5600
2026-01-15 08:18:09.53	357.70	33.52	-56.3	-59.6	12.6	0.00e+00	0	28	0	932184064	77	5689
2026-01-15 08:18:10.54	357.44	33.36	-56.5	-59.9	12.5	0.00e+00	0	28	0	934281216	78	5548
2026-01-15 08:18:11.54	357.18	33.20	-56.5	-59.9	12.4	0.00e+00	0	28	0	936378368	78	5535
2026-01-15 08:18:12.56	356.92	33.04	-56.6	-60.0	12.4	0.00e+00	0	28	0	938475520	78	5597
2026-01-15 08:18:13.56	356.67	32.89	-56.3	-59.6	12.6	0.00e+00	0	28	0	940572672	78	5347
2026-01-15 08:18:14.57	356.42	32.73	-56.2	-59.4	12.8	0.00e+00	0	28	0	941621248	78	5231
2026-01-15 08:18:15.58	356.18	32.57	-56.0	-59.1	13.0	0.00e+00	0	28	0	943718400	78	5042
2026-01-15 08:18:16.59	355.93	32.42	-56.1	-59.1	13.0	0.00e+00	0	28	0	945815552	78	5066
2026-01-15 08:18:17.60	355.69	32.26	-56.0	-58.9	13.1	0.00e+00	0	28	0	947912704	78	4960
2026-01-15 08:18:18.61	355.45	32.10	-56.0	-58.9	13.1	0.00e+00	0	28	0	950009856	78	4963
2026-01-15 08:18:19.62	355.21	31.94	-56.0	-59.0	13.0	0.00e+00	0	28	0	951058432	78	4995
2026-01-15 08:18:20.62	354.98	31.79	-56.0	-59.0	13.0	0.00e+00	0	28	0	953155584	78	5007
2026-01-15 08:18:21.63	354.74	31.63	-56.2	-59.3	12.8	0.00e+00	0	28	0	955252736	78	5184
2026-01-15 08:18:22.64	354.51	31.48	-56.0	-58.9	13.0	0.00e+00	0	28	0	957349888	78	4975
2026-01-15 08:18:23.64	354.29	31.32	-55.9	-58.8	13.1	0.00e+00	0	28	0	959447040	78	4899
2026-01-15 08:18:24.65	354.06	31.17	-55.8	-58.7	13.2	0.00e+00	0	28	0	960495616	78	4836
2026-01-15 08:18:25.65	353.84	31.02	-55.4	-58.1	13.4	0.00e+00	0	28	0	962592768	77	4806
2026-01-15 08:18:26.66	353.61	30.86	-55.3	-58.0	13.5	0.00e+00	0	28	0	964689920	77	4707
2026-01-15 08:18:27.67	353.39	30.71	-55.1	-57.6	13.6	0.00e+00	0	28	0	966787072	76	4788
2026-01-15 08:18:28.67	353.18	30.55	-55.0	-57.5	13.7	0.00e+00	0	28	0	968884224	76	4706
2026-01-15 08:18:29.68	352.96	30.40	-55.0	-57.5	13.7	0.00e+00	0	28	0	969932800	76	4736
2026-01-15 08:18:30.68	352.75	30.25	-55.0	-57.5	13.7	0.00e+00	0	28	0	972029952	76	4730
2026-01-15 08:18:31.69	352.54	30.10	-55.2	-57.7	13.5	0.00e+00	0	28	0	974127104	76	4835
2026-01-15 08:18:32.70	352.33	29.94	-55.1	-57.7	13.6	0.00e+00	0	28	0	976224256	76	4825
2026-01-15 08:18:33.71	352.12	29.79	-55.2	-57.8	13.5	0.00e+00	0	28	0	978321408	76	4891
2026-01-15 08:18:34.72	351.91	29.64	-55.2	-57.7	13.5	0.00e+00	0	28	0	979369984	76	4853
2026-01-15 08:18:35.72	351.71	29.49	-55.2	-57.8	13.5	0.00e+00	0	28	0	981467136	76	4923
2026-01-15 08:18:36.73	351.51	29.34	-55.2	-57.8	13.5	0.00e+00	0	28	0	983564288	76	4874
2026-01-15 08:18:37.74	351.31	29.19	-55.2	-57.8	13.5	0.00e+00	0	28	0	985661440	76	4912
2026-01-15 08:18:38.75	351.11	29.04	-55.1	-57.6	13.6	0.00e+00	0	28	0	987758592	76	4808
2026-01-15 08:18:39.76	350.91	28.89	-55.0	-57.4	13.7	0.00e+00	0	28	0	988807168	76	4689
2026-01-15 08:18:40.76	350.72	28.74	-54.9	-57.3	13.8	0.00e+00	0	28	0	990904320	76	4631
2026-01-15 08:18:41.77	350.53	28.59	-55.0	-57.4	13.7	0.00e+00	0	28	0	993001472	76	4675
2026-01-15 08:18:42.77	350.34	28.44	-55.0	-57.4	13.7	0.00e+00	0	28	0	995098624	76	4694
2026-01-15 08:18:43.78	350.15	28.30	-55.1	-57.6	13.6	0.00e+00	0	28	0	997195776	76	4769
2026-01-15 08:18:44.79	349.96	28.15	-55.2	-57.8	13.5	0.00e+00	0	28	0	998244352	76	4903
2026-01-15 08:18:45.80	349.78	28.00	-55.2	-57.8	13.4	0.00e+00	0	28	0	1000341504	76	4913
2026-01-15 08:18:46.81	349.59	27.86	-55.1	-57.6	13.6	0.00e+00	0	28	0	1002438656	76	4785
2026-01-15 08:18:47.82	349.41	27.71	-55.0	-57.5	13.7	0.00e+00	0	28	0	1004535808	76	4706
2026-01-15 08:18:48.83	349.23	27.56	-55.0	-57.4	13.6	0.00e+00	0	28	0	1006632960	76	4694
2026-01-15 08:18:49.84	349.05	27.42	-55.0	-57.4	13.7	0.00e+00	0	28	0	1007681536	76	4702
2026-01-15 08:18:50.84	348.88	27.27	-54.9	-57.3	13.8	0.00e+00	0	28	0	1009778688	76	4611
2026-01-15 08:18:51.85	348.70	27.13	-54.9	-57.4	13.7	0.00e+00	0	28	0	1011875840	76	4690
2026-01-15 08:18:52.86	348.53	26.99	-55.0	-57.5	13.7	0.00e+00	0	27	0	1013972992	76	4731
2026-01-15 08:18:53.87	348.35	26.84	-54.9	-57.4	13.7	0.00e+00	0	28	0	1016070144	76	4657
2026-01-15 08:18:54.87	348.18	26.70	-54.8	-57.2	13.8	0.00e+00	0	28	0	1017118720	76	4564
2026-01-15 08:18:55.87	348.02	26.56	-54.6	-56.9	13.8	0.00e+00	0	28	0	1019215872	75	4688
2026-01-15 08:18:56.88	347.85	26.42	-54.4	-56.7	13.9	0.00e+00	0	28	0	1021313024	75	4587
2026-01-15 08:18:57.89	347.68	26.28	-54.3	-56.5	14.0	0.00e+00	0	28	0	1023410176	75	4475
2026-01-15 08:18:58.90	347.52	26.14	-54.3	-56.6	14.0	0.00e+00	0	28	0	1025507328	75	4495
2026-01-15 08:18:59.90	347.36	26.00	-54.3	-56.5	14.1	0.00e+00	0	28	0	1026555904	75	4458
2026-01-15 08:19:00.91	347.19	25.86	-54.3	-56.5	14.0	0.00e+00	0	28	0	1028653056	75	4480
2026-01-15 08:19:01.92	347.03	25.72	-54.2	-56.5	14.1	0.00e+00	0	28	0	1030750208	75	4445
2026-01-15 08:19:02.93	346.87	25.58	-54.2	-56.5	13.9	0.00e+00	0	28	0	1032847360	74	4712
2026-01-15 08:19:03.93	346.72	25.44	-54.2	-56.4	14.0	0.00e+00	0	28	0	1034944512	74	4683
2026-01-15 08:19:04.94	346.56	25.30	-54.2	-56.4	14.0	0.00e+00	0	28	0	1035993088	74	4703
2026-01-15 08:19:05.95	346.41	25.16	-54.3	-56.5	13.9	0.00e+00	0	28	0	1038090240	74	4754
2026-01-15 08:19:06.96	346.25	25.03	-54.2	-56.5	13.9	0.00e+00	0	28	0	1040187392	74	4717
2026-01-15 08:19:07.97	346.10	24.89	-54.3	-56.6	13.9	0.00e+00	0	28	0	1042284544	74	4774
2026-01-15 08:19:08.98	345.95	24.75	-54.4	-56.7	13.8	0.00e+00	0	28	0	1044381696	74	4836
2026-01-15 08:19:09.99	345.80	24.62	-54.3	-56.6	13.9	0.00e+00	0	28	0	1045430272	74	4774
2026-01-15 08:19:10.99	345.66	24.48	-54.2	-56.4	13.9	0.00e+00	0	28	0	1047527424	74	4705
2026-01-15 08:19:12.00	345.51	24.35	-54.2	-56.4	14.0	0.00e+00	0	28	0	1049624576	74	4677
2026-01-15 08:19:13.01	345.36	24.21	-54.2	-56.4	14.0	0.00e+00	0	28	0	1051721728	74	4665
2026-01-15 08:19:14.02	345.22	24.08	-54.2	-56.4	14.0	0.00e+00	0	28	0	1053818880	74	4701
2026-01-15 08:19:15.03	345.08	23.95	-54.1	-56.3	14.0	0.00e+00	0	28	0	1055916032	74	4628
2026-01-15 08:19:16.04	344.93	23.81	-53.9	-56.0	14.1	0.00e+00	0	28	0	1056964608	74	4490
2026-01-15 08:19:17.05	344.79	23.68	-53.9	-56.1	14.1	0.00e+00	0	28	0	1059061760	74	4499
2026-01-15 08:19:18.05	344.66	23.55	-53.9	-56.0	14.2	0.00e+00	0	28	0	1061158912	74	4458
2026-01-15 08:19:19.05	344.52	23.42	-53.9	-55.9	14.2	0.00e+00	0	28	0	1063256064	74	4440
2026-01-15 08:19:20.06	344.38	23.29	-53.8	-55.9	14.2	0.00e+00	0	28	0	1064304640	74	4414
2026-01-15 08:19:21.07	344.25	23.16	-53.8	-55.8	14.2	0.00e+00	0	28	0	1066401792	74	4388
2026-01-15 08:19:22.08	344.11	23.03	-53.8	-55.8	14.3	0.00e+00	0	28	0	1068498944	74	4363
2026-01-15 08:19:23.08	343.98	22.90	-53.7	-55.7	14.3	0.00e+00	0	28	0	1070596096	74	4328
2026-01-15 08:19:24.09	343.85	22.77	-53.7	-55.8	14.3	0.00e+00	0	28	0	1072693248	74	4347
2026-01-15 08:19:25.10	343.72	22.64	-53.6	-55.7	14.2	0.00e+00	0	28	0	1073741824	73	4559
2026-01-15 08:19:26.10	343.59	22.52	-53.7	-55.7	14.2	0.00e+00	0	28	0	1075838976	73	4572
2026-01-15 08:19:27.11	343.46	22.39	-53.7	-55.8	14.1	0.00e+00	0	28	0	1077936128	73	4605
2026-01-15 08:19:28.12	343.33	22.26	-53.7	-55.8	14.1	0.00e+00	0	28	0	1080033280	73	4613
2026-01-15 08:19:29.13	343.20	22.13	-53.8	-55.9	14.1	0.00e+00	0	28	0	1082130432	73	4658
2026-01-15 08:19:30.14	343.08	22.01	-53.8	-55.8	14.1	0.00e+00	0	28	0	1084227584	73	4640
2026-01-15 08:19:31.15	342.95	21.88	-53.7	-55.8	14.1	0.00e+00	0	28	0	1085276160	73	4617
2026-01-15 08:19:32.15	342.83	21.76	-53.7	-55.8	14.1	0.00e+00	0	28	0	1087373312	73	4632
2026-01-15 08:19:33.16	342.71	21.63	-53.8	-55.8	14.1	0.00e+00	0	28	0	1089470464	73	4638
2026-01-15 08:19:34.17	342.59	21.51	-53.7	-55.8	14.1	0.00e+00	0	28	0	1091567616	73	4623
2026-01-15 08:19:35.18	342.47	21.38	-53.6	-55.7	14.2	0.00e+00	0	28	0	1093664768	73	4546
2026-01-15 08:19:36.19	342.35	21.26	-53.8	-55.9	14.1	0.00e+00	0	28	0	1094713344	73	4666
2026-01-15 08:19:37.20	342.23	21.14	-53.6	-55.6	14.2	0.00e+00	0	28	0	1096810496	73	4545
2026-01-15 08:19:38.20	342.11	21.02	-53.6	-55.7	14.2	0.00e+00	0	28	0	1098907648	73	4563
2026-01-15 08:19:39.22	341.99	20.89	-53.7	-55.8	14.1	0.00e+00	0	28	0	1101004800	73	4601
2026-01-15 08:19:40.22	341.88	20.77	-53.8	-55.9	14.0	0.00e+00	0	28	0	1102053376	73	4685
2026-01-15 08:19:41.22	341.76	20.65	-53.7	-55.8	14.1	0.00e+00	0	28	0	1104150528	73	4645
2026-01-15 08:19:42.22	341.65	20.53	-53.8	-55.9	14.0	0.00e+00	0	28	0	1106247680	73	4688
2026-01-15 08:19:43.23	341.54	20.41	-53.9	-56.0	14.0	0.00e+00	0	28	0	1108344832	73	4741
2026-01-15 08:19:44.24	341.43	20.29	-53.9	-56.0	14.0	0.00e+00	0	28	0	1110441984	73	4721
2026-01-15 08:19:45.25	341.31	20.18	-54.0	-56.1	14.0	0.00e+00	0	28	0	1112539136	73	4795
2026-01-15 08:19:46.26	341.20	20.06	-54.0	-56.2	13.9	0.00e+00	0	28	0	1113587712	73	4828
2026-01-15 08:19:47.27	341.09	19.94	-54.0	-56.2	13.9	0.00e+00	0	28	0	1115684864	73	4849
2026-01-15 08:19:48.28	340.99	19.82	-53.9	-56.1	14.0	0.00e+00	0	28	0	1117782016	73	4785
2026-01-15 08:19:49.29	340.88	19.70	-54.0	-56.1	13.9	0.00e+00	0	28	0	1119879168	73	4805
2026-01-15 08:19:50.29	340.77	19.59	-54.0	-56.2	13.9	0.00e+00	0	28	0	1121976320	73	4856
2026-01-15 08:19:51.30	340.67	19.47	-53.9	-56.1	14.0	0.00e+00	0	28	0	1123024896	73	4774
2026-01-15 08:19:52.31	340.56	19.35	-54.0	-56.2	13.9	0.00e+00	0	28	0	1125122048	73	4852
2026-01-15 08:19:53.32	340.46	19.24	-54.0	-56.2	13.9	0.00e+00	0	28	0	1127219200	73	4855
2026-01-15 08:19:54.33	340.35	19.12	-53.9	-56.1	14.0	0.00e+00	0	28	0	1129316352	73	4771
2026-01-15 08:19:55.34	340.25	19.01	-53.9	-56.1	13.9	0.00e+00	0	28	0	1131413504	73	4797
2026-01-15 08:19:56.34	340.15	18.89	-54.0	-56.2	13.9	0.00e+00	0	28	0	1132462080	73	4847
2026-01-15 08:19:57.35	340.05	18.78	-53.9	-56.1	13.9	0.00e+00	0	28	0	1134559232	73	4806
2026-01-15 08:19:58.36	339.95	18.67	-54.0	-56.2	13.9	0.00e+00	0	28	0	1136656384	73	4861
2026-01-15 08:19:59.37	339.85	18.55	-54.1	-56.3	13.8	0.00e+00	0	28	0	1138753536	73	4919
2026-01-15 08:20:00.38	339.75	18.44	-54.0	-56.2	13.9	0.00e+00	0	28	0	1140850688	73	4818
2026-01-15 08:20:01.39	339.65	18.33	-54.0	-56.2	13.9	0.00e+00	0	28	0	1141899264	73	4866
2026-01-15 08:20:02.40	339.55	18.22	-54.0	-56.3	13.9	0.00e+00	0	28	0	1143996416	73	4882
2026-01-15 08:20:03.40	339.46	18.11	-54.0	-56.2	13.9	0.00e+00	0	28	0	1146093568	73	4822
2026-01-15 08:20:04.41	339.36	18.00	-54.0	-56.2	13.9	0.00e+00	0	28	0	1148190720	73	4860
2026-01-15 08:20:05.42	339.26	17.88	-54.1	-56.4	13.8	0.00e+00	0	28	0	1150287872	73	4933
2026-01-15 08:20:06.43	339.17	17.77	-54.0	-56.2	13.9	0.00e+00	0	28	0	1151336448	73	4863
2026-01-15 08:20:07.44	339.08	17.66	-54.0	-56.3	13.9	0.00e+00	0	28	0	1153433600	73	4894
2026-01-15 08:20:08.44	338.98	17.56	-54.1	-56.4	13.8	0.00e+00	0	28	0	1155530752	73	4976
2026-01-15 08:20:09.45	338.89	17.45	-54.2	-56.5	13.7	0.00e+00	0	28	0	1157627904	73	5004
2026-01-15 08:20:10.46	338.80	17.34	-54.2	-56.6	13.7	0.00e+00	0	28	0	1159725056	73	5060
2026-01-15 08:20:11.46	338.71	17.23	-54.4	-56.9	13.6	0.00e+00	0	28	0	1160773632	73	5220
2026-01-15 08:20:12.47	338.62	17.12	-54.4	-56.8	13.7	0.00e+00	0	28	0	1162870784	74	4908
2026-01-15 08:20:13.48	338.53	17.02	-54.5	-57.0	13.6	0.00e+00	0	28	0	1164967936	74	4998
2026-01-15 08:20:14.49	338.44	16.91	-54.4	-56.9	13.7	0.00e+00	0	28	0	1167065088	74	4930
2026-01-15 08:20:15.50	338.35	16.80	-54.5	-57.0	13.6	0.00e+00	0	28	0	1169162240	74	4988
2026-01-15 08:20:16.51	338.26	16.70	-54.5	-57.0	13.6	0.00e+00	0	28	0	1170210816	74	5003
2026-01-15 08:20:17.51	338.18	16.59	-54.5	-57.0	13.6	0.00e+00	0	28	0	1172307968	74	4987
2026-01-15 08:20:18.52	338.09	16.49	-54.5	-57.0	13.6	0.00e+00	0	28	0	1174405120	74	5012
2026-01-15 08:20:19.53	338.01	16.38	-54.5	-56.9	13.6	0.00e+00	0	28	0	1176502272	74	4952
2026-01-15 08:20:20.54	337.92	16.28	-54.4	-56.9	13.7	0.00e+00	0	28	0	1178599424	74	4932
2026-01-15 08:20:21.55	337.84	16.17	-54.4	-56.7	13.7	0.00e+00	0	28	0	1179648000	74	4868
2026-01-15 08:20:22.56	337.75	16.07	-54.4	-56.8	13.7	0.00e+00	0	28	0	1181745152	74	4893
2026-01-15 08:20:23.56	337.67	15.97	-54.5	-56.9	13.6	0.00e+00	0	28	0	1183842304	74	4967
2026-01-15 08:20:24.57	337.59	15.86	-54.3	-56.7	13.7	0.00e+00	0	28	0	1185939456	74	4844
2026-01-15 08:20:25.58	337.50	15.76	-54.3	-56.7	13.8	0.00e+00	0	28	0	1188036608	74	4820
2026-01-15 08:20:26.58	337.42	15.66	-54.3	-56.7	13.7	0.00e+00	0	28	0	1189085184	74	4858
2026-01-15 08:20:27.58	337.34	15.56	-54.3	-56.6	13.8	0.00e+00	0	28	0	1191182336	74	4791
2026-01-15 08:20:28.59	337.26	15.46	-54.2	-56.5	13.8	0.00e+00	0	28	0	1193279488	74	4753
2026-01-15 08:20:29.60	337.18	15.35	-54.2	-56.5	13.8	0.00e+00	0	28	0	1195376640	74	4726
2026-01-15 08:20:30.61	337.10	15.25	-54.1	-56.4	13.9	0.00e+00	0	28	0	1197473792	74	4670
2026-01-15 08:20:31.61	337.03	15.15	-54.1	-56.4	13.9	0.00e+00	0	28	0	1198522368	74	4657
2026-01-15 08:20:32.62	336.95	15.05	-54.1	-56.3	13.9	0.00e+00	0	28	0	1200619520	74	4647
2026-01-15 08:20:33.62	336.87	14.95	-54.1	-56.3	13.9	0.00e+00	0	28	0	1202716672	74	4631
2026-01-15 08:20:34.63	336.79	14.85	-54.2	-56.5	13.9	0.00e+00	0	28	0	1204813824	74	4714
2026-01-15 08:20:35.64	336.72	14.76	-54.1	-56.5	13.8	0.00e+00	0	28	0	1206910976	74	4713
2026-01-15 08:20:36.65	336.64	14.66	-54.2	-56.5	13.8	0.00e+00	0	28	0	1207959552	74	4750
2026-01-15 08:20:37.66	336.56	14.56	-54.3	-56.7	13.7	0.00e+00	0	28	0	1210056704	74	4817
2026-01-15 08:20:38.67	336.49	14.46	-54.2	-56.5	13.8	0.00e+00	0	28	0	1212153856	74	4733
2026-01-15 08:20:39.67	336.42	14.36	-54.2	-56.6	13.8	0.00e+00	0	28	0	1214251008	74	4778
2026-01-15 08:20:40.68	336.34	14.27	-54.3	-56.7	13.7	0.00e+00	0	28	0	1216348160	74	4820
2026-01-15 08:20:41.69	336.27	14.17	-54.4	-56.8	13.6	0.00e+00	0	28	0	1217396736	74	4923
2026-01-15 08:20:42.70	336.20	14.07	-54.4	-56.8	13.7	0.00e+00	0	28	0	1219493888	74	4923
2026-01-15 08:20:43.70	336.12	13.98	-54.5	-56.9	13.6	1.90e-05	0	28	0	1221591040	74	4968
2026-01-15 08:20:44.71	336.05	13.88	-54.6	-57.2	13.4	0.00e+00	0	28	0	1223688192	74	5127
2026-01-15 08:20:45.72	335.98	13.78	-54.6	-57.1	13.5	3.80e-06	0	28	0	1225785344	74	5075
2026-01-15 08:20:46.73	335.91	13.69	-54.6	-57.2	13.4	0.00e+00	0	28	0	1226833920	74	5133
2026-01-15 08:20:47.73	335.84	13.59	-54.6	-57.1	13.5	0.00e+00	0	28	0	1228931072	74	5087
2026-01-15 08:20:48.74	335.77	13.50	-54.6	-57.2	13.4	0.00e+00	0	28	0	1231028224	74	5155
2026-01-15 08:20:49.75	335.70	13.40	-54.6	-57.1	13.5	0.00e+00	0	28	0	1233125376	74	5063
2026-01-15 08:20:50.76	335.63	13.31	-54.6	-57.1	13.5	0.00e+00	0	28	0	1235222528	74	5085
2026-01-15 08:20:51.77	335.56	13.22	-54.7	-57.3	13.4	0.00e+00	0	28	0	1237319680	74	5165
2026-01-15 08:20:52.78	335.49	13.12	-54.6	-57.2	13.4	2.20e-06	0	28	0	1238368256	74	5123
2026-01-15 08:20:53.79	335.43	13.03	-54.6	-57.1	13.5	1.22e-05	0	28	0	1240465408	74	5080
2026-01-15 08:20:54.80	335.36	12.94	-54.5	-57.0	13.5	0.00e+00	0	28	0	1242562560	74	5015
