passes_logs/2026/01/15/R3.2S_Murmansk/R3.2S_Murmansk__20260115_061011_SUOMI_NPP_rec.log

#Pass ID: 20260115_061011_SUOMI NPP
#Satellite: SUOMI NPP
#Configuration: NPP
#almurnet v.1.7.20251203
#Start time: 2026-01-15 06:10:10

#Version: 2.2.20231116
#Station: R3.2S_Murmansk
#Location: 33.079688 lon 68.888172 lat
#TLE: 1 37849U 11061A   26014.61059675  .00000037  00000+0  38639-4 0  9994
#TLE: 2 37849  98.7810 316.6625 0002460  64.3781 295.7649 14.19525105736658

#Time	Az	El	Level	Level2	SNR	BER	BlckErr	Temp	State	Recorded	gain1	gain2
2026-01-15 06:10:10.66	77.58	1.98	-58.1	-74.1	3.8	1.49e+00	0	26	0	0	82	22647
2026-01-15 06:10:11.67	77.52	2.04	-58.1	-74.1	3.8	1.49e+00	0	26	104	0	81	23933
2026-01-15 06:10:12.67	77.46	2.09	-58.1	-74.1	3.8	1.49e+00	0	26	104	0	81	23886
2026-01-15 06:10:13.67	77.40	2.15	-58.1	-74.1	3.8	1.49e+00	0	26	104	0	81	23940
2026-01-15 06:10:14.67	77.34	2.21	-58.1	-74.1	3.8	1.49e+00	0	26	104	0	81	23897
2026-01-15 06:10:15.67	77.28	2.27	-58.0	-74.0	3.8	1.49e+00	0	26	104	0	81	23816
2026-01-15 06:10:16.68	77.21	2.33	-58.0	-74.1	3.8	1.49e+00	0	26	104	0	81	23864
2026-01-15 06:10:17.67	77.15	2.38	-58.1	-74.0	3.8	1.49e+00	0	26	104	0	81	23810
2026-01-15 06:10:18.67	77.09	2.44	-58.0	-74.0	3.8	1.49e+00	0	26	104	0	81	23786
2026-01-15 06:10:19.67	77.03	2.50	-58.1	-74.0	3.8	1.49e+00	0	26	104	0	81	23827
2026-01-15 06:10:20.68	76.97	2.56	-58.1	-74.0	3.8	1.49e+00	0	26	104	0	81	23834
2026-01-15 06:10:21.67	76.90	2.62	-58.1	-74.1	3.8	1.49e+00	0	26	104	0	81	23864
2026-01-15 06:10:22.67	76.84	2.67	-58.1	-74.1	3.8	1.49e+00	0	26	104	0	81	23875
2026-01-15 06:10:23.67	76.78	2.73	-58.1	-74.1	3.8	1.49e+00	0	26	104	0	81	23942
2026-01-15 06:10:24.67	76.71	2.79	-58.1	-74.1	3.8	1.49e+00	0	26	104	0	81	23927
2026-01-15 06:10:25.67	76.65	2.85	-58.1	-74.1	3.8	1.49e+00	0	26	104	0	81	23913
2026-01-15 06:10:26.68	76.58	2.91	-58.1	-74.1	3.8	1.49e+00	0	26	104	0	81	23992
2026-01-15 06:10:27.67	76.52	2.97	-58.1	-74.1	3.8	1.49e+00	0	26	104	0	81	23967
2026-01-15 06:10:28.68	76.46	3.03	-58.1	-74.1	3.8	1.49e+00	0	26	104	0	81	24056
2026-01-15 06:10:29.68	76.39	3.09	-58.1	-74.1	3.8	1.49e+00	0	26	104	0	81	23973
2026-01-15 06:10:30.68	76.33	3.15	-58.1	-74.1	3.8	1.49e+00	0	26	104	0	81	23931
2026-01-15 06:10:31.67	76.26	3.20	-58.1	-74.1	3.8	1.49e+00	0	27	104	0	81	23975
2026-01-15 06:10:32.67	76.19	3.26	-58.1	-74.1	3.8	1.49e+00	0	26	104	0	81	23911
2026-01-15 06:10:33.67	76.13	3.32	-58.1	-74.1	3.8	1.49e+00	0	26	104	0	81	23949
2026-01-15 06:10:34.67	76.06	3.38	-58.1	-74.1	3.8	1.49e+00	0	27	104	0	81	23934
2026-01-15 06:10:35.67	76.00	3.44	-58.1	-74.1	3.8	1.49e+00	0	27	104	0	81	24026
2026-01-15 06:10:36.66	75.93	3.50	-58.1	-74.1	3.8	1.49e+00	0	27	104	0	81	24025
2026-01-15 06:10:37.66	75.86	3.56	-58.1	-74.1	3.8	1.49e+00	0	27	104	0	81	24027
2026-01-15 06:10:38.65	75.80	3.62	-58.1	-74.1	3.8	1.49e+00	0	27	104	0	81	23963
2026-01-15 06:10:39.64	75.73	3.68	-58.1	-74.1	3.8	1.49e+00	0	26	104	0	81	23890
2026-01-15 06:10:40.64	75.66	3.74	-58.1	-74.1	3.8	1.49e+00	0	27	104	0	81	23880
2026-01-15 06:10:41.64	75.59	3.80	-58.1	-74.0	3.8	1.49e+00	0	27	104	0	81	23841
2026-01-15 06:10:42.63	75.52	3.86	-58.1	-74.0	3.8	1.49e+00	0	27	104	0	81	23805
2026-01-15 06:10:43.62	75.46	3.92	-58.1	-74.1	3.8	1.49e+00	0	26	104	0	81	23876
2026-01-15 06:10:44.61	75.39	3.98	-58.1	-74.1	3.8	1.49e+00	0	27	104	0	81	23937
2026-01-15 06:10:45.61	75.32	4.04	-58.1	-74.1	3.8	1.49e+00	0	27	104	0	81	23946
2026-01-15 06:10:46.61	75.25	4.10	-58.1	-74.0	3.8	1.49e+00	0	27	104	0	81	23640
2026-01-15 06:10:47.61	75.18	4.16	-58.1	-73.8	3.8	1.49e+00	0	27	104	0	81	23165
2026-01-15 06:10:48.60	75.11	4.22	-58.1	-73.4	3.8	1.49e+00	0	27	104	0	81	22200
2026-01-15 06:10:49.59	75.04	4.28	-58.0	-72.8	3.8	1.49e+00	0	27	104	0	81	20745
2026-01-15 06:10:50.59	74.97	4.34	-58.0	-72.3	3.8	1.49e+00	0	27	104	0	81	19413
2026-01-15 06:10:51.59	74.89	4.40	-58.0	-71.7	3.8	1.49e+00	0	27	104	0	81	18198
2026-01-15 06:10:52.59	74.82	4.47	-57.9	-70.8	4.1	1.45e+00	0	27	0	0	81	16432
2026-01-15 06:10:53.58	74.75	4.53	-57.9	-70.0	4.3	1.39e+00	67	27	0	0	81	15012
2026-01-15 06:10:54.57	74.68	4.59	-57.8	-69.3	4.6	1.02e+00	0	27	0	2097152	81	13784
2026-01-15 06:10:55.57	74.61	4.65	-57.8	-68.9	4.7	8.20e-01	0	27	0	3145728	81	13257
2026-01-15 06:10:56.57	74.53	4.71	-57.7	-68.2	5.1	6.30e-01	0	27	0	5242880	81	12180
2026-01-15 06:10:57.56	74.46	4.77	-57.6	-67.2	5.7	4.78e-01	0	27	0	7340032	81	10848
2026-01-15 06:10:58.56	74.39	4.83	-57.6	-67.0	5.8	3.48e-01	0	27	0	9437184	81	10545
2026-01-15 06:10:59.55	74.32	4.89	-57.5	-66.4	6.2	3.28e-01	0	27	0	10485760	81	9838
2026-01-15 06:11:00.55	74.24	4.96	-57.4	-66.2	6.3	2.24e-01	0	27	0	12582912	81	9642
2026-01-15 06:11:01.55	74.17	5.02	-57.5	-66.9	5.9	2.65e-01	0	27	0	14680064	81	10454
2026-01-15 06:11:02.55	74.09	5.08	-57.0	-63.9	8.0	2.81e-01	0	27	0	16777216	80	7898
2026-01-15 06:11:03.55	74.02	5.14	-56.2	-61.3	10.5	2.58e-03	0	27	0	18874368	79	6137
2026-01-15 06:11:04.55	73.94	5.21	-57.6	-67.0	6.0	9.61e-05	0	27	0	19922944	80	11230
2026-01-15 06:11:05.54	73.87	5.27	-57.6	-66.2	6.2	1.20e+00	0	27	0	20971520	81	9635
2026-01-15 06:11:06.55	73.79	5.33	-55.9	-60.6	11.0	2.89e-02	0	27	0	22020096	78	6026
2026-01-15 06:11:07.55	73.71	5.39	-56.2	-61.3	10.4	2.43e-02	0	27	0	24117248	79	6154
2026-01-15 06:11:08.55	73.64	5.46	-55.9	-60.6	11.0	1.46e-04	0	27	0	26214400	78	6048
2026-01-15 06:11:09.55	73.56	5.52	-55.7	-60.1	11.3	3.20e-05	0	27	0	28311552	77	6036
2026-01-15 06:11:10.55	73.48	5.58	-55.4	-59.5	11.8	2.21e-05	0	27	0	30408704	77	5642
2026-01-15 06:11:11.56	73.40	5.65	-55.5	-59.6	11.7	1.37e-05	0	27	0	31457280	77	5691
2026-01-15 06:11:12.56	73.32	5.71	-55.3	-59.3	11.9	6.10e-06	0	27	0	33554432	77	5518
2026-01-15 06:11:13.56	73.24	5.77	-55.1	-59.0	12.1	7.00e-07	0	27	0	35651584	76	5641
2026-01-15 06:11:14.56	73.17	5.84	-55.2	-59.1	12.0	2.20e-06	0	27	0	37748736	76	5716
2026-01-15 06:11:15.55	73.09	5.90	-55.1	-58.9	12.1	0.00e+00	0	27	0	38797312	76	5567
2026-01-15 06:11:16.55	73.01	5.96	-54.9	-58.5	12.4	0.00e+00	0	27	0	40894464	76	5315
2026-01-15 06:11:17.55	72.93	6.03	-54.9	-58.5	12.4	7.00e-07	0	27	0	42991616	76	5330
2026-01-15 06:11:18.56	72.85	6.09	-54.6	-58.0	12.7	0.00e+00	0	27	0	45088768	75	5297
2026-01-15 06:11:19.56	72.76	6.15	-54.8	-58.4	12.4	0.00e+00	0	27	0	47185920	75	5554
2026-01-15 06:11:20.56	72.68	6.22	-54.5	-57.9	12.7	7.00e-07	0	27	0	48234496	75	5261
2026-01-15 06:11:21.55	72.60	6.28	-54.4	-57.8	12.8	0.00e+00	0	27	0	50331648	75	5161
2026-01-15 06:11:22.54	72.52	6.35	-54.4	-57.7	12.9	0.00e+00	0	27	0	52428800	75	5115
2026-01-15 06:11:23.54	72.44	6.41	-54.3	-57.5	13.0	0.00e+00	0	27	0	54525952	75	4992
2026-01-15 06:11:24.55	72.36	6.47	-54.8	-58.4	12.4	0.00e+00	0	27	0	56623104	75	5592
2026-01-15 06:11:25.55	72.27	6.54	-54.6	-57.9	12.7	0.00e+00	0	27	0	57671680	75	5279
2026-01-15 06:11:26.56	72.19	6.60	-54.4	-57.7	12.9	0.00e+00	0	27	0	59768832	75	5101
2026-01-15 06:11:27.56	72.10	6.67	-54.6	-58.0	12.7	0.00e+00	0	27	0	61865984	75	5322
2026-01-15 06:11:28.55	72.02	6.73	-54.6	-57.9	12.8	0.00e+00	0	27	0	63963136	75	5242
2026-01-15 06:11:29.55	71.94	6.80	-54.2	-57.3	13.2	0.00e+00	0	27	0	65011712	75	4902
2026-01-15 06:11:30.54	71.85	6.86	-54.3	-57.5	13.0	0.00e+00	0	27	0	67108864	74	5295
2026-01-15 06:11:31.55	71.77	6.93	-54.4	-57.6	12.9	0.00e+00	0	27	0	69206016	74	5348
2026-01-15 06:11:32.55	71.68	6.99	-54.3	-57.4	13.0	0.00e+00	0	27	0	71303168	74	5241
2026-01-15 06:11:33.54	71.59	7.06	-54.2	-57.3	13.1	0.00e+00	0	27	0	73400320	74	5189
2026-01-15 06:11:34.54	71.51	7.12	-54.4	-57.5	13.0	0.00e+00	0	27	0	74448896	74	5302
2026-01-15 06:11:35.53	71.42	7.19	-54.4	-57.6	12.8	0.00e+00	0	27	0	76546048	74	5395
2026-01-15 06:11:36.54	71.33	7.25	-54.5	-57.7	12.8	0.00e+00	0	27	0	78643200	74	5434
2026-01-15 06:11:37.54	71.24	7.32	-54.7	-58.0	12.6	0.00e+00	0	27	0	80740352	74	5648
2026-01-15 06:11:38.53	71.16	7.39	-54.7	-58.1	12.6	0.00e+00	0	27	0	82837504	74	5676
2026-01-15 06:11:39.53	71.07	7.45	-54.7	-58.1	12.6	0.00e+00	0	27	0	83886080	74	5680
2026-01-15 06:11:40.52	70.98	7.52	-54.5	-57.8	12.7	0.00e+00	0	27	0	85983232	74	5512
2026-01-15 06:11:41.52	70.89	7.58	-54.5	-57.8	12.7	0.00e+00	0	27	0	88080384	74	5511
2026-01-15 06:11:42.52	70.80	7.65	-54.5	-57.8	12.8	0.00e+00	0	27	0	90177536	74	5493
2026-01-15 06:11:43.51	70.71	7.72	-54.6	-57.9	12.7	0.00e+00	0	27	0	91226112	74	5574
2026-01-15 06:11:44.50	70.62	7.78	-54.5	-57.9	12.7	7.00e-07	0	27	0	93323264	74	5558
2026-01-15 06:11:45.50	70.53	7.85	-54.7	-58.2	12.5	0.00e+00	0	27	0	95420416	74	5749
2026-01-15 06:11:46.49	70.44	7.91	-54.8	-58.4	12.5	0.00e+00	0	27	0	97517568	74	5859
2026-01-15 06:11:47.48	70.35	7.98	-54.8	-58.5	12.4	7.00e-07	0	27	0	99614720	75	5610
2026-01-15 06:11:48.48	70.26	8.05	-54.8	-58.4	12.5	0.00e+00	0	27	0	100663296	75	5571
2026-01-15 06:11:49.47	70.16	8.11	-55.0	-58.7	12.3	7.00e-07	0	27	0	102760448	75	5759
2026-01-15 06:11:50.47	70.07	8.18	-54.6	-58.1	12.7	0.00e+00	0	27	0	104857600	75	5360
2026-01-15 06:11:51.46	69.98	8.25	-54.7	-58.1	12.7	0.00e+00	0	27	0	106954752	75	5396
2026-01-15 06:11:52.47	69.88	8.31	-54.7	-58.1	12.7	0.00e+00	0	27	0	109051904	75	5389
2026-01-15 06:11:53.46	69.79	8.38	-54.5	-57.9	12.9	0.00e+00	0	27	0	110100480	75	5225
2026-01-15 06:11:54.46	69.69	8.45	-54.4	-57.7	13.0	0.00e+00	0	27	0	112197632	75	5114
2026-01-15 06:11:55.46	69.60	8.52	-54.4	-57.7	13.0	0.00e+00	0	27	0	114294784	75	5117
2026-01-15 06:11:56.47	69.50	8.59	-54.4	-57.7	13.0	0.00e+00	0	27	0	116391936	75	5117
2026-01-15 06:11:57.46	69.41	8.65	-54.3	-57.5	13.1	0.00e+00	0	27	0	117440512	75	5026
2026-01-15 06:11:58.46	69.31	8.72	-54.3	-57.5	13.1	0.00e+00	0	27	0	119537664	75	5016
2026-01-15 06:11:59.45	69.21	8.79	-54.4	-57.7	13.0	0.00e+00	0	27	0	121634816	75	5156
2026-01-15 06:12:00.45	69.11	8.86	-54.5	-57.8	12.9	0.00e+00	0	27	0	123731968	75	5169
2026-01-15 06:12:01.45	69.01	8.92	-54.6	-57.9	12.9	0.00e+00	0	27	0	125829120	75	5266
2026-01-15 06:12:02.44	68.92	8.99	-54.1	-57.3	13.1	0.00e+00	0	27	0	126877696	74	5175
2026-01-15 06:12:03.44	68.82	9.06	-54.1	-57.1	13.2	0.00e+00	0	27	0	128974848	74	5093
2026-01-15 06:12:04.44	68.72	9.13	-54.0	-56.9	13.4	0.00e+00	0	27	0	131072000	74	4975
2026-01-15 06:12:05.44	68.62	9.20	-53.9	-56.9	13.4	0.00e+00	0	27	0	133169152	74	4930
2026-01-15 06:12:06.43	68.52	9.27	-53.9	-56.9	13.4	0.00e+00	0	27	0	134217728	74	4946
2026-01-15 06:12:07.44	68.42	9.34	-54.0	-56.9	13.4	0.00e+00	0	27	0	136314880	74	4973
2026-01-15 06:12:08.44	68.31	9.40	-54.0	-57.0	13.3	0.00e+00	0	27	0	138412032	74	5021
2026-01-15 06:12:09.45	68.21	9.47	-54.0	-56.9	13.4	0.00e+00	0	27	0	140509184	74	4945
2026-01-15 06:12:10.44	68.11	9.54	-54.0	-57.0	13.3	0.00e+00	0	27	0	142606336	74	4996
2026-01-15 06:12:11.44	68.00	9.61	-54.0	-56.9	13.4	0.00e+00	0	27	0	143654912	74	4955
2026-01-15 06:12:12.44	67.90	9.68	-54.1	-57.1	13.3	0.00e+00	0	28	0	145752064	74	5046
2026-01-15 06:12:13.44	67.80	9.75	-54.1	-57.1	13.3	0.00e+00	0	27	0	147849216	74	5063
2026-01-15 06:12:14.44	67.69	9.82	-54.2	-57.1	13.3	0.00e+00	0	28	0	149946368	74	5087
2026-01-15 06:12:15.43	67.59	9.89	-54.2	-57.1	13.3	0.00e+00	0	27	0	152043520	74	5089
2026-01-15 06:12:16.43	67.48	9.96	-54.2	-57.1	13.3	0.00e+00	0	27	0	153092096	74	5086
2026-01-15 06:12:17.42	67.38	10.03	-54.1	-57.0	13.3	0.00e+00	0	27	0	155189248	74	5034
2026-01-15 06:12:18.42	67.27	10.10	-54.0	-56.9	13.4	0.00e+00	0	27	0	157286400	74	4969
2026-01-15 06:12:19.42	67.16	10.17	-54.0	-56.9	13.4	0.00e+00	0	27	0	159383552	74	4927
2026-01-15 06:12:20.41	67.05	10.24	-54.0	-56.8	13.4	0.00e+00	0	27	0	161480704	74	4919
2026-01-15 06:12:21.42	66.94	10.31	-54.0	-56.9	13.4	0.00e+00	0	27	0	162529280	74	4963
2026-01-15 06:12:22.43	66.83	10.38	-53.9	-56.8	13.5	0.00e+00	0	28	0	164626432	74	4873
2026-01-15 06:12:23.43	66.73	10.45	-54.1	-57.0	13.4	0.00e+00	0	27	0	166723584	74	5018
2026-01-15 06:12:24.42	66.62	10.52	-54.1	-57.1	13.3	0.00e+00	0	27	0	168820736	74	5051
2026-01-15 06:12:25.42	66.51	10.59	-54.1	-57.0	13.4	0.00e+00	0	28	0	169869312	74	4995
2026-01-15 06:12:26.42	66.39	10.66	-54.0	-56.9	13.4	0.00e+00	0	27	0	171966464	74	4947
2026-01-15 06:12:27.42	66.28	10.73	-54.1	-57.0	13.3	0.00e+00	0	27	0	174063616	74	5003
2026-01-15 06:12:28.43	66.17	10.80	-54.0	-56.9	13.4	0.00e+00	0	27	0	176160768	74	4928
2026-01-15 06:12:29.42	66.06	10.87	-54.2	-57.1	13.3	0.00e+00	0	27	0	178257920	74	5081
2026-01-15 06:12:30.41	65.94	10.94	-54.3	-57.2	13.2	0.00e+00	0	27	0	179306496	74	5147
2026-01-15 06:12:31.41	65.83	11.02	-54.3	-57.2	13.2	0.00e+00	0	27	0	181403648	74	5149
2026-01-15 06:12:32.42	65.71	11.09	-54.4	-57.4	13.1	0.00e+00	0	27	0	183500800	74	5238
2026-01-15 06:12:33.42	65.60	11.16	-54.2	-57.2	13.3	0.00e+00	0	27	0	185597952	74	5114
2026-01-15 06:12:34.42	65.48	11.23	-54.3	-57.2	13.2	0.00e+00	0	27	0	187695104	74	5159
2026-01-15 06:12:35.42	65.37	11.30	-54.3	-57.4	13.2	0.00e+00	0	28	0	188743680	74	5227
2026-01-15 06:12:36.43	65.25	11.37	-54.3	-57.2	13.2	0.00e+00	0	28	0	190840832	74	5151
2026-01-15 06:12:37.43	65.13	11.45	-54.5	-57.7	13.0	0.00e+00	0	27	0	192937984	74	5425
2026-01-15 06:12:38.43	65.01	11.52	-54.4	-57.4	13.1	0.00e+00	0	27	0	195035136	74	5258
2026-01-15 06:12:39.42	64.90	11.59	-54.3	-57.2	13.3	0.00e+00	0	27	0	196083712	74	5151
2026-01-15 06:12:40.42	64.78	11.66	-54.3	-57.3	13.2	0.00e+00	0	27	0	198180864	74	5212
2026-01-15 06:12:41.42	64.66	11.73	-54.4	-57.4	13.1	0.00e+00	0	27	0	200278016	74	5246
2026-01-15 06:12:42.41	64.54	11.81	-54.6	-57.7	12.9	0.00e+00	0	27	0	202375168	74	5459
2026-01-15 06:12:43.41	64.42	11.88	-54.3	-57.3	13.2	0.00e+00	0	27	0	204472320	74	5186
2026-01-15 06:12:44.41	64.29	11.95	-54.1	-57.0	13.4	0.00e+00	0	27	0	205520896	74	5030
2026-01-15 06:12:45.40	64.17	12.02	-54.1	-57.0	13.4	0.00e+00	0	27	0	207618048	74	5019
2026-01-15 06:12:46.40	64.05	12.09	-54.1	-57.0	13.4	0.00e+00	0	27	0	209715200	74	5013
2026-01-15 06:12:47.40	63.93	12.17	-54.0	-56.8	13.5	0.00e+00	0	27	0	211812352	74	4890
2026-01-15 06:12:48.39	63.80	12.24	-54.1	-56.9	13.4	0.00e+00	0	27	0	212860928	74	4946
2026-01-15 06:12:49.39	63.68	12.31	-53.9	-56.7	13.6	0.00e+00	0	28	0	214958080	74	4829
2026-01-15 06:12:50.39	63.55	12.38	-53.6	-56.2	13.7	0.00e+00	0	27	0	217055232	73	4841
2026-01-15 06:12:51.39	63.43	12.46	-53.4	-56.0	13.8	0.00e+00	0	28	0	219152384	73	4708
2026-01-15 06:12:52.38	63.30	12.53	-53.5	-56.0	13.8	0.00e+00	0	27	0	221249536	73	4742
2026-01-15 06:12:53.38	63.17	12.60	-53.4	-55.9	13.8	0.00e+00	0	27	0	222298112	73	4675
2026-01-15 06:12:54.38	63.05	12.68	-53.5	-56.0	13.8	0.00e+00	0	27	0	224395264	73	4747
2026-01-15 06:12:55.37	62.92	12.75	-53.4	-55.9	13.9	0.00e+00	0	28	0	226492416	73	4683
2026-01-15 06:12:56.37	62.79	12.82	-53.3	-55.8	13.9	0.00e+00	0	27	0	228589568	73	4601
2026-01-15 06:12:57.37	62.66	12.90	-53.2	-55.6	14.0	0.00e+00	0	28	0	230686720	73	4540
2026-01-15 06:12:58.37	62.53	12.97	-53.3	-55.7	14.0	0.00e+00	0	28	0	231735296	73	4585
2026-01-15 06:12:59.37	62.40	13.04	-53.3	-55.7	14.0	0.00e+00	0	27	0	233832448	73	4588
2026-01-15 06:13:00.36	62.27	13.12	-53.2	-55.7	13.9	0.00e+00	0	28	0	235929600	72	4849
2026-01-15 06:13:01.36	62.13	13.19	-53.3	-55.8	13.8	0.00e+00	0	27	0	238026752	72	4899
2026-01-15 06:13:02.35	62.00	13.26	-53.4	-55.9	13.8	0.00e+00	0	28	0	239075328	72	4952
2026-01-15 06:13:03.35	61.87	13.34	-53.5	-56.1	13.7	0.00e+00	0	28	0	241172480	72	5059
2026-01-15 06:13:04.34	61.73	13.41	-53.3	-55.8	13.8	0.00e+00	0	28	0	243269632	72	4891
2026-01-15 06:13:05.34	61.60	13.48	-53.3	-55.8	13.9	0.00e+00	0	28	0	245366784	72	4882
2026-01-15 06:13:06.33	61.46	13.56	-53.5	-56.0	13.8	0.00e+00	0	28	0	247463936	72	5005
2026-01-15 06:13:07.33	61.33	13.63	-53.3	-55.8	13.9	0.00e+00	0	28	0	248512512	72	4886
2026-01-15 06:13:08.33	61.19	13.71	-53.3	-55.7	13.9	0.00e+00	0	28	0	250609664	72	4869
2026-01-15 06:13:09.33	61.05	13.78	-53.3	-55.8	13.8	0.00e+00	0	27	0	252706816	72	4898
2026-01-15 06:13:10.32	60.91	13.85	-53.3	-55.8	13.8	0.00e+00	0	28	0	254803968	72	4899
2026-01-15 06:13:11.32	60.78	13.93	-53.2	-55.5	14.0	0.00e+00	0	28	0	256901120	72	4756
2026-01-15 06:13:12.32	60.63	14.00	-53.2	-55.6	13.9	0.00e+00	0	27	0	257949696	72	4769
2026-01-15 06:13:13.31	60.50	14.08	-53.3	-55.7	13.9	0.00e+00	0	28	0	260046848	72	4865
2026-01-15 06:13:14.32	60.35	14.15	-53.2	-55.6	13.9	0.00e+00	0	28	0	262144000	72	4812
2026-01-15 06:13:15.31	60.21	14.22	-53.3	-55.8	13.8	0.00e+00	0	28	0	264241152	72	4884
2026-01-15 06:13:16.31	60.07	14.30	-53.4	-55.9	13.8	0.00e+00	0	28	0	265289728	72	4933
2026-01-15 06:13:17.31	59.92	14.37	-53.3	-55.8	13.9	0.00e+00	0	27	0	267386880	72	4874
2026-01-15 06:13:18.32	59.78	14.45	-53.3	-55.9	13.8	0.00e+00	0	28	0	269484032	72	4939
2026-01-15 06:13:19.31	59.63	14.52	-53.2	-55.8	13.9	0.00e+00	0	28	0	271581184	72	4889
2026-01-15 06:13:20.31	59.49	14.60	-53.1	-55.6	13.9	0.00e+00	0	28	0	273678336	72	4807
2026-01-15 06:13:21.31	59.34	14.67	-53.2	-55.7	13.9	0.00e+00	0	28	0	274726912	72	4870
2026-01-15 06:13:22.31	59.19	14.75	-53.1	-55.6	13.9	0.00e+00	0	28	0	276824064	72	4800
2026-01-15 06:13:23.31	59.04	14.82	-53.0	-55.5	14.0	0.00e+00	0	28	0	278921216	72	4716
2026-01-15 06:13:24.31	58.90	14.90	-53.1	-55.6	13.9	0.00e+00	0	28	0	281018368	72	4802
2026-01-15 06:13:25.30	58.75	14.97	-53.2	-55.8	13.9	0.00e+00	0	28	0	282066944	72	4878
2026-01-15 06:13:26.30	58.60	15.05	-53.3	-56.0	13.8	0.00e+00	0	27	0	284164096	72	5003
2026-01-15 06:13:27.30	58.44	15.12	-53.4	-56.2	13.7	0.00e+00	0	27	0	286261248	72	5135
2026-01-15 06:13:28.31	58.29	15.20	-53.5	-56.3	13.6	0.00e+00	0	28	0	288358400	72	5203
2026-01-15 06:13:29.31	58.14	15.27	-53.4	-56.2	13.7	0.00e+00	0	27	0	290455552	72	5129
2026-01-15 06:13:30.31	57.98	15.35	-53.4	-56.1	13.7	0.00e+00	0	28	0	291504128	72	5095
2026-01-15 06:13:31.31	57.83	15.42	-53.6	-56.4	13.6	0.00e+00	0	28	0	293601280	72	5225
2026-01-15 06:13:32.31	57.67	15.50	-53.7	-56.6	13.5	0.00e+00	0	28	0	295698432	72	5360
2026-01-15 06:13:33.31	57.52	15.57	-53.7	-56.6	13.5	0.00e+00	0	28	0	297795584	72	5346
2026-01-15 06:13:34.31	57.36	15.65	-53.7	-56.5	13.5	0.00e+00	0	28	0	299892736	72	5312
2026-01-15 06:13:35.31	57.20	15.72	-53.6	-56.3	13.6	0.00e+00	0	28	0	300941312	72	5204
2026-01-15 06:13:36.30	57.05	15.80	-53.7	-56.4	13.5	0.00e+00	0	28	0	303038464	72	5264
2026-01-15 06:13:37.30	56.89	15.87	-53.6	-56.3	13.6	0.00e+00	0	27	0	305135616	72	5218
2026-01-15 06:13:38.30	56.73	15.95	-53.5	-56.2	13.6	0.00e+00	0	28	0	307232768	72	5146
2026-01-15 06:13:39.31	56.56	16.02	-53.6	-56.3	13.6	0.00e+00	0	28	0	309329920	72	5207
2026-01-15 06:13:40.31	56.40	16.10	-53.7	-56.5	13.5	0.00e+00	0	28	0	310378496	72	5303
2026-01-15 06:13:41.31	56.24	16.17	-53.7	-56.4	13.5	0.00e+00	0	28	0	312475648	72	5277
2026-01-15 06:13:42.31	56.07	16.25	-53.8	-56.7	13.5	0.00e+00	0	28	0	314572800	72	5406
2026-01-15 06:13:43.32	55.91	16.33	-53.9	-56.8	13.5	0.00e+00	0	28	0	316669952	73	5205
2026-01-15 06:13:44.31	55.75	16.40	-53.9	-56.8	13.5	0.00e+00	0	28	0	318767104	73	5197
2026-01-15 06:13:45.31	55.58	16.47	-54.0	-56.9	13.4	0.00e+00	0	28	0	319815680	73	5268
2026-01-15 06:13:46.31	55.41	16.55	-54.1	-57.1	13.3	0.00e+00	0	28	0	321912832	73	5359
2026-01-15 06:13:47.31	55.24	16.62	-54.0	-56.9	13.4	0.00e+00	0	28	0	324009984	73	5255
2026-01-15 06:13:48.30	55.08	16.70	-54.0	-57.1	13.3	0.00e+00	0	28	0	326107136	73	5349
2026-01-15 06:13:49.30	54.91	16.77	-53.8	-56.7	13.5	0.00e+00	0	28	0	327155712	73	5115
2026-01-15 06:13:50.29	54.74	16.85	-53.6	-56.4	13.7	0.00e+00	0	28	0	329252864	73	4961
2026-01-15 06:13:51.29	54.57	16.92	-53.6	-56.3	13.7	0.00e+00	0	28	0	331350016	73	4906
2026-01-15 06:13:52.29	54.40	17.00	-53.8	-56.5	13.6	0.00e+00	0	28	0	333447168	73	5027
2026-01-15 06:13:53.29	54.22	17.07	-53.6	-56.3	13.7	0.00e+00	0	28	0	335544320	73	4921
2026-01-15 06:13:54.28	54.05	17.15	-53.3	-55.8	14.0	0.00e+00	0	28	0	336592896	73	4642
2026-01-15 06:13:55.29	53.87	17.22	-53.4	-56.1	13.8	0.00e+00	0	28	0	338690048	73	4770
2026-01-15 06:13:56.29	53.70	17.30	-53.4	-56.0	13.9	0.00e+00	0	28	0	340787200	73	4745
2026-01-15 06:13:57.28	53.52	17.37	-53.6	-56.3	13.7	0.00e+00	0	28	0	342884352	73	4926
2026-01-15 06:13:58.28	53.35	17.45	-53.5	-56.2	13.8	0.00e+00	0	28	0	343932928	73	4858
2026-01-15 06:13:59.27	53.17	17.52	-53.6	-56.4	13.7	0.00e+00	0	28	0	346030080	73	4931
2026-01-15 06:14:00.27	52.99	17.59	-53.5	-56.1	13.8	0.00e+00	0	28	0	348127232	73	4799
2026-01-15 06:14:01.26	52.81	17.67	-53.5	-56.2	13.8	0.00e+00	0	28	0	350224384	73	4848
2026-01-15 06:14:02.26	52.63	17.74	-53.4	-56.0	13.9	0.00e+00	0	28	0	352321536	73	4743
2026-01-15 06:14:03.25	52.45	17.82	-53.5	-56.2	13.8	0.00e+00	0	28	0	353370112	73	4843
2026-01-15 06:14:04.25	52.27	17.89	-53.4	-56.0	13.9	0.00e+00	0	28	0	355467264	73	4740
2026-01-15 06:14:05.25	52.09	17.96	-53.5	-56.2	13.8	0.00e+00	0	28	0	357564416	73	4863
2026-01-15 06:14:06.25	51.90	18.04	-53.4	-56.0	13.9	0.00e+00	0	28	0	359661568	73	4751
2026-01-15 06:14:07.26	51.71	18.11	-53.4	-56.0	13.9	0.00e+00	0	28	0	360710144	73	4729
2026-01-15 06:14:08.26	51.53	18.19	-53.5	-56.1	13.8	0.00e+00	0	28	0	362807296	73	4776
2026-01-15 06:14:09.27	51.34	18.26	-53.6	-56.3	13.7	0.00e+00	0	28	0	364904448	73	4921
2026-01-15 06:14:10.26	51.15	18.34	-53.6	-56.2	13.8	0.00e+00	0	28	0	367001600	73	4844
2026-01-15 06:14:11.26	50.96	18.41	-53.6	-56.3	13.7	0.00e+00	0	28	0	369098752	73	4916
2026-01-15 06:14:12.25	50.78	18.48	-53.6	-56.3	13.7	0.00e+00	0	28	0	370147328	73	4908
2026-01-15 06:14:13.26	50.58	18.56	-53.7	-56.5	13.7	0.00e+00	0	28	0	372244480	73	4992
2026-01-15 06:14:14.26	50.39	18.63	-53.6	-56.3	13.7	0.00e+00	0	28	0	374341632	73	4922
2026-01-15 06:14:15.25	50.20	18.70	-53.6	-56.2	13.8	0.00e+00	0	28	0	376438784	73	4842
2026-01-15 06:14:16.25	50.01	18.77	-53.4	-56.0	13.9	0.00e+00	0	28	0	378535936	73	4733
2026-01-15 06:14:17.24	49.81	18.85	-53.2	-55.6	14.1	0.00e+00	0	28	0	379584512	73	4507
2026-01-15 06:14:18.24	49.62	18.92	-53.2	-55.6	13.9	0.00e+00	0	28	0	381681664	72	4789
2026-01-15 06:14:19.23	49.42	18.99	-53.1	-55.5	14.0	0.00e+00	0	28	0	383778816	72	4716
2026-01-15 06:14:20.24	49.22	19.06	-53.0	-55.3	14.1	0.00e+00	0	28	0	385875968	72	4631
2026-01-15 06:14:21.24	49.02	19.14	-53.1	-55.4	14.0	0.00e+00	0	28	0	387973120	72	4665
2026-01-15 06:14:22.25	48.82	19.21	-53.0	-55.4	14.0	0.00e+00	0	28	0	389021696	72	4657
2026-01-15 06:14:23.25	48.62	19.28	-53.0	-55.3	14.1	0.00e+00	0	28	0	391118848	72	4620
2026-01-15 06:14:24.25	48.42	19.35	-53.0	-55.3	14.0	0.00e+00	0	28	0	393216000	72	4648
2026-01-15 06:14:25.25	48.22	19.43	-53.0	-55.4	14.0	0.00e+00	0	28	0	395313152	72	4675
2026-01-15 06:14:26.25	48.02	19.50	-52.9	-55.4	14.0	0.00e+00	0	28	0	396361728	71	4935
2026-01-15 06:14:27.25	47.81	19.57	-52.9	-55.3	14.0	0.00e+00	0	28	0	398458880	71	4911
2026-01-15 06:14:28.25	47.61	19.64	-52.6	-55.0	14.1	0.00e+00	0	28	0	400556032	71	4743
2026-01-15 06:14:29.24	47.40	19.71	-52.4	-54.7	14.2	0.00e+00	0	28	0	402653184	71	4575
2026-01-15 06:14:30.24	47.19	19.78	-52.4	-54.7	14.3	0.00e+00	0	28	0	404750336	71	4559
2026-01-15 06:14:31.24	46.99	19.85	-52.3	-54.6	14.3	0.00e+00	0	28	0	405798912	71	4494
2026-01-15 06:14:32.24	46.78	19.92	-52.3	-54.4	14.3	0.00e+00	0	28	0	407896064	70	4678
2026-01-15 06:14:33.24	46.57	19.99	-52.3	-54.5	14.2	0.00e+00	0	28	0	409993216	70	4748
2026-01-15 06:14:34.25	46.35	20.06	-52.2	-54.3	14.3	0.00e+00	0	28	0	412090368	70	4628
2026-01-15 06:14:35.25	46.14	20.13	-52.1	-54.3	14.3	0.00e+00	0	28	0	414187520	70	4602
2026-01-15 06:14:36.25	45.93	20.20	-52.1	-54.2	14.4	0.00e+00	0	28	0	415236096	70	4559
2026-01-15 06:14:37.25	45.71	20.27	-52.0	-54.1	14.4	0.00e+00	0	28	0	417333248	70	4502
2026-01-15 06:14:38.25	45.50	20.34	-52.0	-54.1	14.3	0.00e+00	0	28	0	419430400	70	4545
2026-01-15 06:14:39.25	45.28	20.41	-52.2	-54.4	14.3	0.00e+00	0	28	0	421527552	70	4683
2026-01-15 06:14:40.24	45.07	20.48	-52.3	-54.4	14.2	0.00e+00	0	28	0	422576128	70	4688
2026-01-15 06:14:41.25	44.85	20.55	-52.1	-54.2	14.3	0.00e+00	0	28	0	424673280	70	4582
2026-01-15 06:14:42.25	44.63	20.61	-52.1	-54.2	14.4	0.00e+00	0	28	0	426770432	70	4550
2026-01-15 06:14:43.24	44.41	20.68	-52.0	-54.1	14.4	0.00e+00	0	28	0	428867584	70	4503
2026-01-15 06:14:44.24	44.19	20.75	-52.0	-54.0	14.4	0.00e+00	0	28	0	430964736	70	4458
2026-01-15 06:14:45.24	43.97	20.82	-52.0	-54.0	14.4	0.00e+00	0	28	0	432013312	70	4472
2026-01-15 06:14:46.24	43.75	20.88	-52.0	-54.1	14.4	0.00e+00	0	28	0	434110464	70	4514
2026-01-15 06:14:47.24	43.52	20.95	-52.0	-54.1	14.4	0.00e+00	0	28	0	436207616	70	4511
2026-01-15 06:14:48.23	43.30	21.02	-52.0	-54.0	14.4	0.00e+00	0	28	0	438304768	70	4463
2026-01-15 06:14:49.22	43.08	21.08	-51.9	-53.9	14.5	0.00e+00	0	28	0	440401920	70	4420
2026-01-15 06:14:50.22	42.85	21.15	-51.8	-53.8	14.5	0.00e+00	0	28	0	441450496	70	4384
2026-01-15 06:14:51.21	42.63	21.21	-51.9	-54.0	14.4	0.00e+00	0	28	0	443547648	70	4450
2026-01-15 06:14:52.21	42.40	21.28	-51.9	-53.9	14.5	0.00e+00	0	28	0	445644800	70	4441
2026-01-15 06:14:53.20	42.17	21.34	-51.7	-53.7	14.6	0.00e+00	0	28	0	447741952	70	4324
2026-01-15 06:14:54.20	41.94	21.41	-51.6	-53.5	14.5	0.00e+00	0	27	0	448790528	69	4477
2026-01-15 06:14:55.19	41.71	21.47	-51.8	-53.8	14.4	0.00e+00	0	28	0	450887680	69	4630
2026-01-15 06:14:56.18	41.48	21.53	-51.9	-54.0	14.4	0.00e+00	0	28	0	452984832	69	4711
2026-01-15 06:14:57.18	41.25	21.60	-51.8	-53.8	14.4	0.00e+00	0	28	0	455081984	69	4616
2026-01-15 06:14:58.18	41.01	21.66	-51.7	-53.7	14.5	0.00e+00	0	28	0	457179136	69	4548
2026-01-15 06:14:59.18	40.78	21.72	-51.7	-53.6	14.5	0.00e+00	0	28	0	458227712	69	4511
2026-01-15 06:15:00.17	40.54	21.78	-51.5	-53.4	14.6	0.00e+00	0	28	0	460324864	69	4420
2026-01-15 06:15:01.15	40.31	21.84	-51.5	-53.4	14.6	0.00e+00	0	28	0	462422016	69	4393
2026-01-15 06:15:02.16	40.07	21.91	-51.5	-53.3	14.6	0.00e+00	0	28	0	464519168	69	4372
2026-01-15 06:15:03.15	39.83	21.97	-51.7	-53.6	14.5	0.00e+00	0	28	0	465567744	69	4535
2026-01-15 06:15:04.14	39.59	22.03	-51.9	-53.8	14.5	0.00e+00	0	28	0	467664896	69	4606
2026-01-15 06:15:05.14	39.35	22.09	-51.9	-53.8	14.5	0.00e+00	0	28	0	469762048	69	4607
2026-01-15 06:15:06.14	39.11	22.15	-51.5	-53.3	14.6	0.00e+00	0	28	0	471859200	69	4370
2026-01-15 06:15:07.14	38.87	22.21	-51.6	-53.4	14.6	0.00e+00	0	28	0	473956352	69	4413
2026-01-15 06:15:08.14	38.62	22.27	-51.4	-53.2	14.7	0.00e+00	0	28	0	475004928	69	4329
2026-01-15 06:15:09.14	38.38	22.33	-51.6	-53.4	14.6	0.00e+00	0	28	0	477102080	69	4415
2026-01-15 06:15:10.13	38.14	22.38	-51.6	-53.5	14.6	0.00e+00	0	28	0	479199232	69	4461
2026-01-15 06:15:11.14	37.89	22.44	-51.7	-53.5	14.6	0.00e+00	0	28	0	481296384	69	4459
2026-01-15 06:15:12.14	37.64	22.50	-51.6	-53.4	14.6	0.00e+00	0	28	0	483393536	69	4433
2026-01-15 06:15:13.14	37.39	22.56	-51.4	-53.2	14.6	0.00e+00	0	28	0	484442112	69	4339
2026-01-15 06:15:14.15	37.14	22.62	-51.4	-53.2	14.7	0.00e+00	0	28	0	486539264	69	4306
2026-01-15 06:15:15.14	36.89	22.67	-51.6	-53.4	14.6	0.00e+00	0	28	0	488636416	69	4419
2026-01-15 06:15:16.13	36.64	22.73	-51.6	-53.5	14.6	0.00e+00	0	28	0	490733568	69	4453
2026-01-15 06:15:17.13	36.39	22.78	-51.7	-53.5	14.6	0.00e+00	0	28	0	491782144	69	4490
2026-01-15 06:15:18.12	36.14	22.84	-51.6	-53.5	14.6	0.00e+00	0	28	0	493879296	69	4462
2026-01-15 06:15:19.11	35.89	22.89	-51.7	-53.5	14.5	0.00e+00	0	28	0	495976448	69	4490
2026-01-15 06:15:20.09	35.64	22.94	-51.8	-53.7	14.5	0.00e+00	0	28	0	498073600	69	4547
2026-01-15 06:15:21.09	35.38	23.00	-52.0	-53.9	14.4	0.00e+00	0	28	0	500170752	69	4692
2026-01-15 06:15:22.09	35.13	23.05	-52.1	-54.0	14.4	0.00e+00	0	28	0	501219328	69	4737
2026-01-15 06:15:23.10	34.87	23.10	-52.0	-53.9	14.4	0.00e+00	0	28	0	503316480	69	4684
2026-01-15 06:15:24.10	34.61	23.15	-52.0	-53.8	14.4	0.00e+00	0	28	0	505413632	69	4650
2026-01-15 06:15:25.09	34.35	23.20	-52.1	-54.1	14.3	0.00e+00	0	28	0	507510784	69	4768
2026-01-15 06:15:26.08	34.09	23.25	-52.1	-54.0	14.4	0.00e+00	0	28	0	508559360	69	4707
2026-01-15 06:15:27.08	33.83	23.30	-52.0	-53.8	14.4	0.00e+00	0	28	0	510656512	69	4647
2026-01-15 06:15:28.08	33.57	23.35	-52.1	-54.0	14.4	0.00e+00	0	28	0	512753664	69	4756
2026-01-15 06:15:29.07	33.31	23.40	-51.7	-53.6	14.5	0.00e+00	0	28	0	514850816	69	4505
2026-01-15 06:15:30.07	33.05	23.45	-51.7	-53.5	14.6	0.00e+00	0	28	0	516947968	69	4446
2026-01-15 06:15:31.07	32.78	23.50	-51.7	-53.5	14.6	0.00e+00	0	28	0	517996544	69	4466
2026-01-15 06:15:32.07	32.52	23.55	-51.7	-53.5	14.5	0.00e+00	0	28	0	520093696	69	4484
2026-01-15 06:15:33.07	32.25	23.59	-51.3	-53.1	14.8	0.00e+00	0	28	0	522190848	69	4251
2026-01-15 06:15:34.07	31.99	23.64	-51.4	-53.1	14.7	0.00e+00	0	28	0	524288000	69	4265
2026-01-15 06:15:35.07	31.72	23.69	-51.4	-53.1	14.7	0.00e+00	0	28	0	526385152	69	4287
2026-01-15 06:15:36.07	31.45	23.73	-51.5	-53.2	14.7	0.00e+00	0	28	0	527433728	69	4305
2026-01-15 06:15:37.07	31.18	23.77	-51.5	-53.2	14.7	0.00e+00	0	28	0	529530880	69	4318
2026-01-15 06:15:38.07	30.91	23.82	-51.3	-53.0	14.7	0.00e+00	0	28	0	531628032	69	4226
2026-01-15 06:15:39.07	30.64	23.86	-51.1	-52.8	14.7	0.00e+00	0	28	0	533725184	68	4346
2026-01-15 06:15:40.07	30.37	23.90	-51.2	-52.9	14.7	0.00e+00	0	28	0	535822336	68	4392
2026-01-15 06:15:41.07	30.10	23.95	-51.3	-53.0	14.6	0.00e+00	0	28	0	536870912	68	4452
2026-01-15 06:15:42.07	29.83	23.99	-51.4	-53.1	14.6	0.00e+00	0	28	0	538968064	68	4504
2026-01-15 06:15:43.07	29.55	24.03	-51.6	-53.3	14.5	0.00e+00	0	28	0	541065216	68	4648
2026-01-15 06:15:44.07	29.28	24.07	-51.8	-53.6	14.4	0.00e+00	0	28	0	543162368	68	4789
2026-01-15 06:15:45.06	29.01	24.11	-52.2	-54.1	14.3	0.00e+00	0	28	0	544210944	69	4783
2026-01-15 06:15:46.06	28.73	24.15	-52.4	-54.3	14.2	0.00e+00	0	28	0	546308096	69	4925
2026-01-15 06:15:47.06	28.46	24.18	-52.5	-54.5	14.3	0.00e+00	0	28	0	548405248	70	4719
2026-01-15 06:15:48.06	28.18	24.22	-52.7	-54.8	14.2	0.00e+00	0	28	0	550502400	70	4873
2026-01-15 06:15:49.07	27.90	24.26	-53.0	-55.2	14.1	0.00e+00	0	28	0	552599552	71	4864
2026-01-15 06:15:50.06	27.62	24.29	-53.5	-55.9	13.9	0.00e+00	0	28	0	553648128	72	4963
2026-01-15 06:15:51.06	27.34	24.33	-53.7	-56.2	13.7	0.00e+00	0	28	0	555745280	72	5114
2026-01-15 06:15:52.05	27.07	24.36	-53.5	-55.9	13.8	0.00e+00	0	28	0	557842432	72	4957
2026-01-15 06:15:53.05	26.79	24.40	-53.1	-55.3	14.1	0.00e+00	0	28	0	559939584	72	4641
2026-01-15 06:15:54.04	26.51	24.43	-52.8	-55.0	14.3	0.00e+00	0	28	0	560988160	72	4473
2026-01-15 06:15:55.04	26.23	24.46	-52.6	-54.7	14.3	0.00e+00	0	28	0	563085312	71	4580
2026-01-15 06:15:56.04	25.95	24.49	-52.8	-55.0	14.2	0.00e+00	0	28	0	565182464	71	4734
2026-01-15 06:15:57.03	25.67	24.53	-52.8	-54.9	14.2	0.00e+00	0	28	0	567279616	71	4694
2026-01-15 06:15:58.03	25.38	24.56	-52.9	-55.1	14.1	0.00e+00	0	28	0	569376768	71	4807
2026-01-15 06:15:59.03	25.10	24.59	-52.7	-54.8	14.2	0.00e+00	0	28	0	570425344	71	4650
2026-01-15 06:16:00.01	24.82	24.61	-52.7	-54.9	14.2	0.00e+00	0	28	0	572522496	71	4674
2026-01-15 06:16:01.01	24.54	24.64	-52.7	-54.8	14.2	0.00e+00	0	28	0	574619648	71	4646
2026-01-15 06:16:02.01	24.25	24.67	-52.8	-55.0	14.1	0.00e+00	0	28	0	576716800	71	4741
2026-01-15 06:16:03.01	23.97	24.70	-53.0	-55.2	14.1	0.00e+00	0	28	0	577765376	71	4852
2026-01-15 06:16:04.01	23.68	24.72	-52.9	-55.1	14.1	0.00e+00	0	28	0	579862528	71	4812
2026-01-15 06:16:05.02	23.39	24.75	-52.9	-55.2	14.0	0.00e+00	0	28	0	581959680	71	4856
2026-01-15 06:16:06.02	23.11	24.77	-53.0	-55.3	14.0	0.00e+00	0	28	0	584056832	71	4917
2026-01-15 06:16:07.02	22.82	24.80	-53.2	-55.7	13.8	0.00e+00	0	28	0	586153984	71	5140
2026-01-15 06:16:08.02	22.53	24.82	-53.5	-56.0	13.8	0.00e+00	0	28	0	587202560	72	5012
2026-01-15 06:16:09.02	22.24	24.84	-53.7	-56.3	13.6	0.00e+00	0	28	0	589299712	72	5175
2026-01-15 06:16:10.02	21.95	24.86	-53.6	-56.1	13.7	0.00e+00	0	28	0	591396864	72	5055
2026-01-15 06:16:11.01	21.67	24.88	-53.6	-56.1	13.7	0.00e+00	0	28	0	593494016	72	5072
2026-01-15 06:16:12.01	21.38	24.90	-53.5	-56.0	13.8	0.00e+00	0	28	0	595591168	72	5040
2026-01-15 06:16:13.00	21.09	24.92	-53.5	-56.0	13.7	0.00e+00	0	28	0	596639744	72	5029
2026-01-15 06:16:14.00	20.80	24.94	-53.4	-55.9	13.8	0.00e+00	0	28	0	598736896	72	4940
2026-01-15 06:16:15.00	20.51	24.96	-53.3	-55.8	13.9	0.00e+00	0	28	0	600834048	72	4904
2026-01-15 06:16:16.01	20.22	24.97	-53.3	-55.7	13.9	0.00e+00	0	28	0	602931200	72	4863
2026-01-15 06:16:17.01	19.93	24.99	-53.2	-55.6	14.0	0.00e+00	0	28	0	603979776	72	4763
2026-01-15 06:16:18.02	19.63	25.01	-53.0	-55.2	14.2	0.00e+00	0	28	0	606076928	72	4589
2026-01-15 06:16:19.02	19.34	25.02	-52.9	-55.1	14.2	0.00e+00	0	28	0	608174080	72	4537
2026-01-15 06:16:20.02	19.05	25.03	-53.1	-55.4	14.1	0.00e+00	0	28	0	610271232	72	4685
2026-01-15 06:16:21.03	18.76	25.05	-53.3	-55.7	13.9	0.00e+00	0	28	0	612368384	72	4852
2026-01-15 06:16:22.03	18.46	25.06	-53.6	-56.2	13.7	0.00e+00	0	28	0	614465536	72	5120
2026-01-15 06:16:23.03	18.17	25.07	-53.7	-56.3	13.6	0.00e+00	0	28	0	615514112	72	5202
2026-01-15 06:16:24.03	17.88	25.08	-53.7	-56.3	13.6	0.00e+00	0	28	0	617611264	72	5181
2026-01-15 06:16:25.03	17.58	25.09	-53.4	-55.8	13.9	0.00e+00	0	28	0	619708416	72	4922
2026-01-15 06:16:26.02	17.29	25.10	-53.3	-55.6	14.0	0.00e+00	0	28	0	621805568	72	4805
2026-01-15 06:16:27.02	17.00	25.10	-53.1	-55.5	14.0	0.00e+00	0	28	0	622854144	72	4714
2026-01-15 06:16:28.02	16.71	25.11	-53.0	-55.3	14.1	0.00e+00	0	28	0	624951296	72	4648
2026-01-15 06:16:29.02	16.42	25.12	-52.9	-55.2	14.2	0.00e+00	0	28	0	627048448	72	4570
2026-01-15 06:16:30.02	16.12	25.12	-52.6	-54.8	14.3	0.00e+00	0	28	0	629145600	71	4602
2026-01-15 06:16:31.02	15.83	25.13	-52.3	-54.4	14.4	0.00e+00	0	28	0	631242752	71	4429
2026-01-15 06:16:32.02	15.53	25.13	-52.3	-54.3	14.4	0.00e+00	0	28	0	632291328	71	4389
2026-01-15 06:16:33.03	15.24	25.13	-52.5	-54.7	14.3	0.00e+00	0	28	0	634388480	71	4575
2026-01-15 06:16:34.02	14.95	25.14	-52.9	-55.2	14.1	0.00e+00	0	28	0	636485632	71	4848
2026-01-15 06:16:35.03	14.65	25.14	-53.2	-55.7	13.8	0.00e+00	0	28	0	638582784	71	5114
2026-01-15 06:16:36.03	14.36	25.14	-53.5	-56.1	13.7	0.00e+00	0	28	0	640679936	72	5043
2026-01-15 06:16:37.02	14.07	25.14	-53.6	-56.2	13.7	0.00e+00	0	28	0	641728512	72	5146
2026-01-15 06:16:38.01	13.77	25.14	-53.4	-55.9	13.8	0.00e+00	0	28	0	643825664	72	4974
2026-01-15 06:16:39.01	13.48	25.13	-53.3	-55.8	13.8	0.00e+00	0	28	0	645922816	72	4917
2026-01-15 06:16:40.01	13.19	25.13	-53.1	-55.5	14.0	0.00e+00	0	28	0	648019968	72	4744
2026-01-15 06:16:41.01	12.89	25.13	-53.1	-55.5	14.0	0.00e+00	0	28	0	649068544	72	4718
2026-01-15 06:16:42.01	12.60	25.12	-53.0	-55.4	14.1	0.00e+00	0	28	0	651165696	72	4652
2026-01-15 06:16:43.00	12.31	25.12	-52.9	-55.2	14.1	0.00e+00	0	28	0	653262848	72	4576
2026-01-15 06:16:44.00	12.02	25.11	-52.6	-54.7	14.2	0.00e+00	0	28	0	655360000	71	4594
2026-01-15 06:16:44.99	11.73	25.10	-52.4	-54.5	14.4	0.00e+00	0	28	0	657457152	71	4475
2026-01-15 06:16:45.99	11.43	25.10	-52.3	-54.4	14.4	0.00e+00	0	28	0	658505728	71	4397
2026-01-15 06:16:46.99	11.14	25.09	-52.1	-54.1	14.4	0.00e+00	0	28	0	660602880	70	4508
2026-01-15 06:16:47.98	10.85	25.08	-52.1	-54.1	14.4	0.00e+00	0	28	0	662700032	70	4513
2026-01-15 06:16:48.98	10.56	25.07	-52.1	-54.1	14.5	0.00e+00	0	28	0	664797184	70	4503
2026-01-15 06:16:49.98	10.27	25.06	-52.0	-54.0	14.5	0.00e+00	0	28	0	665845760	70	4459
2026-01-15 06:16:50.97	9.98	25.05	-52.0	-53.9	14.5	0.00e+00	0	28	0	667942912	70	4409
2026-01-15 06:16:51.96	9.69	25.03	-52.1	-54.1	14.4	0.00e+00	0	28	0	670040064	70	4519
2026-01-15 06:16:52.96	9.40	25.02	-52.1	-54.0	14.5	0.00e+00	0	28	0	672137216	70	4486
2026-01-15 06:16:53.96	9.10	25.01	-52.1	-54.1	14.5	0.00e+00	0	28	0	674234368	70	4514
2026-01-15 06:16:54.95	8.82	24.99	-51.7	-53.5	14.7	0.00e+00	0	28	0	675282944	70	4238
2026-01-15 06:16:55.95	8.53	24.97	-51.4	-53.2	14.7	0.00e+00	0	28	0	677380096	69	4292
2026-01-15 06:16:56.94	8.24	24.96	-50.9	-52.5	14.8	0.00e+00	0	28	0	679477248	68	4242
2026-01-15 06:16:57.93	7.95	24.94	-51.0	-52.6	14.8	0.00e+00	0	28	0	681574400	68	4245
2026-01-15 06:16:58.92	7.66	24.92	-51.1	-52.7	14.8	0.00e+00	0	28	0	683671552	68	4325
2026-01-15 06:16:59.92	7.37	24.90	-51.1	-52.8	14.7	0.00e+00	0	28	0	684720128	68	4366
2026-01-15 06:17:00.92	7.08	24.88	-51.1	-52.7	14.7	0.00e+00	0	28	0	686817280	68	4339
2026-01-15 06:17:01.91	6.80	24.86	-51.1	-52.8	14.7	0.00e+00	0	28	0	688914432	68	4354
2026-01-15 06:17:02.91	6.51	24.84	-50.9	-52.5	14.8	0.00e+00	0	28	0	691011584	68	4217
2026-01-15 06:17:03.90	6.22	24.82	-50.9	-52.5	14.8	0.00e+00	0	28	0	692060160	68	4236
2026-01-15 06:17:04.90	5.94	24.80	-51.1	-52.7	14.8	0.00e+00	0	28	0	694157312	68	4312
2026-01-15 06:17:05.90	5.65	24.77	-51.1	-52.8	14.8	0.00e+00	0	28	0	696254464	68	4351
2026-01-15 06:17:06.89	5.37	24.75	-51.1	-52.8	14.7	0.00e+00	0	28	0	698351616	68	4351
2026-01-15 06:17:07.89	5.08	24.72	-51.1	-52.7	14.8	0.00e+00	0	28	0	700448768	68	4334
2026-01-15 06:17:08.89	4.79	24.70	-51.4	-53.1	14.6	0.00e+00	0	28	0	701497344	68	4516
2026-01-15 06:17:09.89	4.51	24.67	-51.5	-53.2	14.5	0.00e+00	0	28	0	703594496	68	4572
2026-01-15 06:17:10.89	4.22	24.64	-51.7	-53.4	14.5	0.00e+00	0	28	0	705691648	68	4688
2026-01-15 06:17:11.89	3.94	24.62	-51.8	-53.6	14.5	0.00e+00	0	28	0	707788800	68	4771
2026-01-15 06:17:12.89	3.66	24.59	-51.7	-53.5	14.5	0.00e+00	0	28	0	708837376	68	4720
2026-01-15 06:17:13.89	3.37	24.56	-51.8	-53.5	14.5	0.00e+00	0	28	0	710934528	68	4746
2026-01-15 06:17:14.89	3.09	24.53	-51.7	-53.4	14.5	0.00e+00	0	28	0	713031680	68	4682
2026-01-15 06:17:15.89	2.81	24.50	-51.7	-53.4	14.5	0.00e+00	0	28	0	715128832	68	4693
2026-01-15 06:17:16.89	2.53	24.46	-51.8	-53.5	14.5	0.00e+00	0	28	0	717225984	68	4746
2026-01-15 06:17:17.89	2.24	24.43	-51.6	-53.3	14.6	0.00e+00	0	28	0	718274560	68	4601
2026-01-15 06:17:18.90	1.96	24.40	-51.6	-53.2	14.6	0.00e+00	0	28	0	720371712	68	4590
2026-01-15 06:17:19.90	1.68	24.36	-52.0	-53.8	14.5	0.00e+00	0	28	0	722468864	69	4616
2026-01-15 06:17:20.91	1.40	24.33	-52.4	-54.2	14.3	0.00e+00	0	28	0	724566016	69	4866
2026-01-15 06:17:21.91	1.12	24.29	-52.7	-54.7	14.2	0.00e+00	0	28	0	726663168	70	4826
2026-01-15 06:17:22.91	0.84	24.26	-52.5	-54.4	14.3	0.00e+00	0	28	0	727711744	70	4705
2026-01-15 06:17:23.91	0.57	24.22	-52.3	-54.1	14.4	0.00e+00	0	28	0	729808896	70	4535
2026-01-15 06:17:24.91	0.29	24.18	-52.0	-53.7	14.6	0.00e+00	0	28	0	731906048	70	4332
2026-01-15 06:17:25.91	0.01	24.15	-51.8	-53.5	14.7	0.00e+00	0	28	0	734003200	70	4236
2026-01-15 06:17:26.91	359.74	24.11	-52.0	-53.7	14.6	0.00e+00	0	28	0	735051776	70	4332
2026-01-15 06:17:27.91	359.46	24.07	-52.2	-54.1	14.5	0.00e+00	0	28	0	737148928	70	4510
2026-01-15 06:17:28.89	359.19	24.03	-52.5	-54.4	14.3	0.00e+00	0	28	0	739246080	70	4689
2026-01-15 06:17:29.89	358.92	23.99	-52.7	-54.6	14.2	0.00e+00	0	28	0	741343232	70	4809
2026-01-15 06:17:30.88	358.65	23.95	-53.0	-55.2	14.1	0.00e+00	0	28	0	743440384	71	4816
2026-01-15 06:17:31.88	358.38	23.91	-53.0	-55.2	14.1	0.00e+00	0	28	0	744488960	71	4840
2026-01-15 06:17:32.87	358.11	23.86	-53.1	-55.3	14.1	0.00e+00	0	28	0	746586112	71	4875
2026-01-15 06:17:33.87	357.84	23.82	-53.1	-55.3	14.0	0.00e+00	0	28	0	748683264	71	4893
2026-01-15 06:17:34.87	357.57	23.78	-53.0	-55.1	14.1	0.00e+00	0	28	0	750780416	71	4811
2026-01-15 06:17:35.87	357.30	23.73	-53.0	-55.1	14.1	0.00e+00	0	28	0	752877568	71	4804
2026-01-15 06:17:36.87	357.04	23.69	-53.2	-55.5	14.0	0.00e+00	0	28	0	753926144	71	5038
2026-01-15 06:17:37.87	356.77	23.64	-53.3	-55.7	13.9	0.00e+00	0	28	0	756023296	71	5145
2026-01-15 06:17:38.86	356.50	23.60	-53.5	-55.9	13.8	0.00e+00	0	28	0	758120448	72	4971
2026-01-15 06:17:39.87	356.24	23.55	-53.5	-55.9	13.9	0.00e+00	0	28	0	760217600	72	4957
2026-01-15 06:17:40.87	355.97	23.50	-53.3	-55.7	13.9	0.00e+00	0	28	0	762314752	72	4853
2026-01-15 06:17:41.87	355.71	23.45	-53.0	-55.3	14.1	0.00e+00	0	28	0	763363328	72	4625
2026-01-15 06:17:42.87	355.44	23.40	-53.2	-55.5	14.0	0.00e+00	0	28	0	765460480	72	4736
2026-01-15 06:17:43.87	355.18	23.36	-53.4	-55.8	13.9	0.00e+00	0	28	0	767557632	72	4885
2026-01-15 06:17:44.86	354.92	23.31	-53.3	-55.6	14.0	0.00e+00	0	28	0	769654784	72	4802
2026-01-15 06:17:45.86	354.66	23.26	-53.5	-56.0	13.8	0.00e+00	0	28	0	770703360	72	5002
2026-01-15 06:17:46.86	354.40	23.21	-53.7	-56.3	13.7	0.00e+00	0	28	0	772800512	72	5171
2026-01-15 06:17:47.86	354.14	23.15	-53.9	-56.5	13.6	0.00e+00	0	28	0	774897664	72	5308
2026-01-15 06:17:48.85	353.89	23.10	-53.9	-56.6	13.5	0.00e+00	0	28	0	776994816	73	5093
2026-01-15 06:17:49.86	353.63	23.05	-53.6	-56.2	13.8	0.00e+00	0	28	0	779091968	73	4845
2026-01-15 06:17:50.85	353.37	23.00	-53.5	-55.9	13.9	0.00e+00	0	28	0	780140544	73	4704
2026-01-15 06:17:51.84	353.12	22.94	-53.3	-55.7	13.9	0.00e+00	0	28	0	782237696	72	4860
2026-01-15 06:17:52.83	352.87	22.89	-53.2	-55.6	14.0	0.00e+00	0	28	0	784334848	72	4790
2026-01-15 06:17:53.82	352.62	22.84	-53.1	-55.4	14.1	0.00e+00	0	28	0	786432000	72	4677
2026-01-15 06:17:54.82	352.37	22.78	-53.0	-55.3	14.1	0.00e+00	0	28	0	787480576	72	4641
2026-01-15 06:17:55.81	352.12	22.73	-53.1	-55.4	14.1	0.00e+00	0	28	0	789577728	72	4688
2026-01-15 06:17:56.80	351.87	22.67	-53.0	-55.3	14.1	0.00e+00	0	28	0	791674880	72	4625
2026-01-15 06:17:57.80	351.62	22.62	-53.2	-55.7	14.0	0.00e+00	0	28	0	793772032	72	4819
2026-01-15 06:17:58.80	351.37	22.56	-53.5	-56.1	13.8	0.00e+00	0	28	0	795869184	72	5071
2026-01-15 06:17:59.80	351.12	22.50	-53.9	-56.6	13.5	0.00e+00	0	28	0	796917760	72	5370
2026-01-15 06:18:00.79	350.87	22.45	-54.1	-57.0	13.4	0.00e+00	0	28	0	799014912	73	5281
2026-01-15 06:18:01.80	350.63	22.39	-53.9	-56.6	13.6	0.00e+00	0	28	0	801112064	73	5070
2026-01-15 06:18:02.79	350.38	22.33	-53.6	-56.2	13.8	0.00e+00	0	28	0	803209216	73	4830
2026-01-15 06:18:03.79	350.14	22.27	-53.2	-55.6	14.1	0.00e+00	0	28	0	804257792	73	4526
2026-01-15 06:18:04.80	349.89	22.21	-53.0	-55.3	14.1	0.00e+00	0	28	0	806354944	72	4636
2026-01-15 06:18:05.79	349.65	22.15	-53.1	-55.5	14.0	0.00e+00	0	28	0	808452096	72	4733
2026-01-15 06:18:06.79	349.41	22.09	-53.2	-55.6	14.0	0.00e+00	0	28	0	810549248	72	4792
2026-01-15 06:18:07.79	349.17	22.03	-53.4	-55.9	13.8	0.00e+00	0	28	0	812646400	72	4980
2026-01-15 06:18:08.79	348.93	21.97	-53.8	-56.5	13.5	0.00e+00	0	28	0	813694976	72	5317
2026-01-15 06:18:09.78	348.69	21.91	-54.1	-57.1	13.3	0.00e+00	0	28	0	815792128	73	5361
2026-01-15 06:18:10.79	348.45	21.85	-54.0	-57.0	13.4	0.00e+00	0	28	0	817889280	73	5297
2026-01-15 06:18:11.78	348.22	21.79	-54.3	-57.4	13.2	0.00e+00	0	28	0	819986432	73	5553
2026-01-15 06:18:12.79	347.98	21.72	-53.7	-56.5	13.6	0.00e+00	0	28	0	822083584	73	5027
2026-01-15 06:18:13.79	347.74	21.66	-53.4	-56.0	13.9	0.00e+00	0	28	0	823132160	73	4742
2026-01-15 06:18:14.79	347.51	21.60	-53.0	-55.3	14.1	0.00e+00	0	28	0	825229312	72	4643
2026-01-15 06:18:15.79	347.28	21.53	-52.8	-55.1	14.1	0.00e+00	0	28	0	827326464	71	4800
2026-01-15 06:18:16.79	347.04	21.47	-52.7	-54.9	14.2	0.00e+00	0	28	0	829423616	71	4666
2026-01-15 06:18:17.79	346.81	21.41	-52.7	-55.0	14.2	0.00e+00	0	28	0	830472192	71	4724
2026-01-15 06:18:18.79	346.58	21.34	-52.8	-55.0	14.2	0.00e+00	0	28	0	832569344	71	4753
2026-01-15 06:18:19.79	346.35	21.28	-53.0	-55.4	14.0	0.00e+00	0	28	0	834666496	71	4945
2026-01-15 06:18:20.78	346.13	21.21	-53.1	-55.5	13.9	0.00e+00	0	28	0	836763648	71	5040
2026-01-15 06:18:21.78	345.90	21.15	-53.0	-55.4	13.9	0.00e+00	0	28	0	838860800	71	4974
2026-01-15 06:18:22.79	345.67	21.08	-53.0	-55.4	14.0	0.00e+00	0	28	0	839909376	71	4930
2026-01-15 06:18:23.78	345.45	21.02	-52.7	-54.9	14.2	0.00e+00	0	28	0	842006528	71	4688
2026-01-15 06:18:24.78	345.22	20.95	-52.5	-54.7	14.3	0.00e+00	0	28	0	844103680	71	4550
2026-01-15 06:18:25.78	345.00	20.88	-52.4	-54.5	14.3	0.00e+00	0	28	0	846200832	71	4486
2026-01-15 06:18:26.77	344.78	20.82	-52.3	-54.4	14.4	0.00e+00	0	28	0	848297984	71	4404
2026-01-15 06:18:27.77	344.56	20.75	-52.0	-54.0	14.5	0.00e+00	0	28	0	849346560	70	4445
2026-01-15 06:18:28.78	344.34	20.68	-51.7	-53.6	14.5	0.00e+00	0	28	0	851443712	69	4538
2026-01-15 06:18:29.77	344.12	20.61	-51.5	-53.3	14.6	0.00e+00	0	28	0	853540864	69	4378
2026-01-15 06:18:30.77	343.90	20.55	-51.5	-53.4	14.6	0.00e+00	0	28	0	855638016	69	4395
2026-01-15 06:18:31.78	343.68	20.48	-51.4	-53.3	14.6	0.00e+00	0	28	0	857735168	69	4357
2026-01-15 06:18:32.78	343.46	20.41	-51.8	-53.7	14.5	0.00e+00	0	28	0	858783744	69	4572
2026-01-15 06:18:33.78	343.25	20.34	-52.1	-54.1	14.3	0.00e+00	0	28	0	860880896	69	4809
2026-01-15 06:18:34.77	343.04	20.27	-52.1	-54.2	14.3	0.00e+00	0	28	0	862978048	69	4849
2026-01-15 06:18:35.77	342.82	20.20	-52.2	-54.3	14.2	0.00e+00	0	28	0	865075200	69	4915
2026-01-15 06:18:36.77	342.61	20.13	-52.3	-54.4	14.2	0.00e+00	0	28	0	866123776	69	4962
2026-01-15 06:18:37.77	342.40	20.06	-52.4	-54.6	14.2	0.00e+00	0	28	0	868220928	70	4772
2026-01-15 06:18:38.77	342.19	19.99	-52.5	-54.8	14.1	0.00e+00	0	28	0	870318080	70	4876
2026-01-15 06:18:39.76	341.98	19.92	-52.8	-55.1	14.0	0.00e+00	0	28	0	872415232	70	5072
2026-01-15 06:18:40.76	341.77	19.85	-52.8	-55.2	14.0	0.00e+00	0	28	0	874512384	70	5113
2026-01-15 06:18:41.77	341.56	19.78	-52.7	-55.0	14.0	0.00e+00	0	28	0	875560960	70	5036
2026-01-15 06:18:42.76	341.36	19.71	-52.5	-54.7	14.1	0.00e+00	0	28	0	877658112	70	4855
2026-01-15 06:18:43.76	341.15	19.64	-52.5	-54.7	14.1	0.00e+00	0	28	0	879755264	70	4845
2026-01-15 06:18:44.76	340.95	19.57	-52.6	-54.9	14.1	0.00e+00	0	28	0	881852416	70	4933
2026-01-15 06:18:45.76	340.74	19.50	-52.4	-54.7	14.1	0.00e+00	0	28	0	882900992	70	4830
2026-01-15 06:18:46.76	340.54	19.43	-52.3	-54.5	14.2	0.00e+00	0	28	0	884998144	70	4718
2026-01-15 06:18:47.76	340.34	19.36	-52.0	-54.1	14.4	0.00e+00	0	28	0	887095296	70	4542
2026-01-15 06:18:48.76	340.14	19.28	-51.9	-53.9	14.5	0.00e+00	0	28	0	889192448	70	4430
2026-01-15 06:18:49.75	339.94	19.21	-51.8	-53.8	14.5	0.00e+00	0	28	0	891289600	70	4363
2026-01-15 06:18:50.75	339.74	19.14	-51.8	-53.9	14.5	0.00e+00	0	28	0	892338176	70	4396
2026-01-15 06:18:51.75	339.54	19.07	-51.9	-53.9	14.5	0.00e+00	0	28	0	894435328	70	4429
2026-01-15 06:18:52.74	339.35	19.00	-52.2	-54.3	14.3	0.00e+00	0	28	0	896532480	70	4619
2026-01-15 06:18:53.73	339.15	18.92	-52.4	-54.5	14.2	0.00e+00	0	28	0	898629632	70	4754
2026-01-15 06:18:54.73	338.96	18.85	-52.5	-54.7	14.2	0.00e+00	0	28	0	900726784	70	4815
2026-01-15 06:18:55.74	338.76	18.78	-52.3	-54.5	14.3	0.00e+00	0	28	0	901775360	70	4731
2026-01-15 06:18:56.73	338.57	18.71	-52.1	-54.2	14.4	0.00e+00	0	28	0	903872512	70	4569
2026-01-15 06:18:57.73	338.37	18.63	-52.0	-54.0	14.5	0.00e+00	0	28	0	905969664	70	4467
2026-01-15 06:18:58.72	338.19	18.56	-52.0	-54.0	14.5	0.00e+00	0	28	0	908066816	70	4442
2026-01-15 06:18:59.72	337.99	18.49	-52.2	-54.3	14.3	0.00e+00	0	28	0	910163968	70	4631
2026-01-15 06:19:00.72	337.80	18.41	-52.4	-54.6	14.2	0.00e+00	0	28	0	911212544	70	4787
2026-01-15 06:19:01.71	337.62	18.34	-52.5	-54.7	14.2	0.00e+00	0	28	0	913309696	70	4832
2026-01-15 06:19:02.70	337.43	18.27	-52.7	-55.0	14.1	0.00e+00	0	28	0	915406848	70	4984
2026-01-15 06:19:03.70	337.24	18.19	-52.5	-54.7	14.2	0.00e+00	0	28	0	917504000	70	4844
2026-01-15 06:19:04.69	337.06	18.12	-52.4	-54.5	14.2	0.00e+00	0	28	0	918552576	70	4731
2026-01-15 06:19:05.69	336.88	18.05	-52.1	-54.1	14.4	0.00e+00	0	28	0	920649728	70	4509
2026-01-15 06:19:06.69	336.69	17.97	-51.9	-53.8	14.5	0.00e+00	0	28	0	922746880	70	4380
2026-01-15 06:19:07.69	336.51	17.90	-52.0	-53.9	14.5	0.00e+00	0	28	0	924844032	70	4416
2026-01-15 06:19:08.69	336.33	17.83	-52.1	-54.1	14.5	0.00e+00	0	28	0	926941184	70	4496
2026-01-15 06:19:09.69	336.14	17.75	-52.0	-53.9	14.5	0.00e+00	0	28	0	927989760	70	4419
2026-01-15 06:19:10.69	335.96	17.68	-51.9	-53.8	14.5	0.00e+00	0	28	0	930086912	70	4375
2026-01-15 06:19:11.70	335.78	17.60	-51.8	-53.7	14.6	0.00e+00	0	28	0	932184064	70	4312
2026-01-15 06:19:12.69	335.60	17.53	-52.0	-53.9	14.5	0.00e+00	0	28	0	934281216	70	4400
2026-01-15 06:19:13.69	335.43	17.45	-52.0	-53.9	14.5	0.00e+00	0	28	0	935329792	70	4404
2026-01-15 06:19:14.69	335.25	17.38	-52.1	-54.0	14.5	0.00e+00	0	28	0	937426944	70	4453
2026-01-15 06:19:15.70	335.07	17.30	-52.3	-54.3	14.3	0.00e+00	0	28	0	939524096	70	4623
2026-01-15 06:19:16.70	334.90	17.23	-52.3	-54.3	14.3	0.00e+00	0	28	0	941621248	70	4648
2026-01-15 06:19:17.70	334.72	17.15	-52.4	-54.4	14.3	0.00e+00	0	28	0	943718400	70	4697
2026-01-15 06:19:18.70	334.55	17.08	-52.2	-54.2	14.4	0.00e+00	0	28	0	944766976	70	4546
2026-01-15 06:19:19.70	334.38	17.01	-52.1	-54.0	14.5	0.00e+00	0	28	0	946864128	70	4466
2026-01-15 06:19:20.71	334.20	16.93	-51.7	-53.5	14.6	0.00e+00	0	28	0	948961280	70	4223
2026-01-15 06:19:21.70	334.03	16.86	-51.6	-53.4	14.6	0.00e+00	0	28	0	951058432	69	4399
2026-01-15 06:19:22.71	333.86	16.78	-51.4	-53.1	14.7	0.00e+00	0	28	0	953155584	69	4283
2026-01-15 06:19:23.71	333.69	16.70	-51.6	-53.4	14.6	0.00e+00	0	28	0	954204160	69	4429
2026-01-15 06:19:24.71	333.52	16.63	-51.7	-53.5	14.6	0.00e+00	0	28	0	956301312	69	4455
2026-01-15 06:19:25.70	333.36	16.56	-51.6	-53.4	14.6	0.00e+00	0	28	0	958398464	69	4425
2026-01-15 06:19:26.70	333.19	16.48	-51.8	-53.6	14.5	0.00e+00	0	28	0	960495616	69	4534
2026-01-15 06:19:27.70	333.03	16.41	-51.9	-53.8	14.5	0.00e+00	0	28	0	961544192	69	4599
2026-01-15 06:19:28.69	332.86	16.33	-52.0	-53.9	14.4	0.00e+00	0	28	0	963641344	69	4664
2026-01-15 06:19:29.68	332.70	16.26	-52.0	-53.9	14.4	0.00e+00	0	28	0	965738496	69	4676
2026-01-15 06:19:30.68	332.54	16.18	-52.2	-54.1	14.3	0.00e+00	0	28	0	967835648	69	4765
2026-01-15 06:19:31.68	332.37	16.11	-52.1	-54.0	14.4	0.00e+00	0	28	0	969932800	69	4743
2026-01-15 06:19:32.68	332.21	16.03	-52.0	-53.9	14.4	0.00e+00	0	28	0	970981376	69	4677
2026-01-15 06:19:33.68	332.05	15.96	-52.1	-54.0	14.4	0.00e+00	0	28	0	973078528	69	4720
2026-01-15 06:19:34.68	331.89	15.88	-51.8	-53.6	14.5	0.00e+00	0	28	0	975175680	69	4503
2026-01-15 06:19:35.69	331.73	15.81	-51.7	-53.5	14.5	0.00e+00	0	28	0	977272832	69	4488
2026-01-15 06:19:36.69	331.57	15.73	-51.4	-53.1	14.7	0.00e+00	0	28	0	979369984	69	4267
2026-01-15 06:19:37.69	331.42	15.66	-51.3	-53.0	14.7	0.00e+00	0	28	0	980418560	69	4224
2026-01-15 06:19:38.69	331.26	15.58	-51.3	-53.0	14.7	0.00e+00	0	28	0	982515712	69	4217
2026-01-15 06:19:39.69	331.10	15.51	-51.6	-53.3	14.6	0.00e+00	0	28	0	984612864	69	4388
2026-01-15 06:19:40.68	330.95	15.43	-51.8	-53.6	14.5	0.00e+00	0	28	0	986710016	69	4541
2026-01-15 06:19:41.68	330.79	15.36	-52.0	-53.9	14.4	0.00e+00	0	28	0	988807168	69	4674
2026-01-15 06:19:42.68	330.64	15.28	-52.4	-54.4	14.2	0.00e+00	0	28	0	989855744	70	4704
2026-01-15 06:19:43.67	330.49	15.21	-52.5	-54.5	14.2	0.00e+00	0	28	0	991952896	70	4736
2026-01-15 06:19:44.67	330.34	15.13	-52.6	-54.7	14.2	0.00e+00	0	28	0	994050048	70	4818
2026-01-15 06:19:45.67	330.19	15.06	-52.7	-54.8	14.1	0.00e+00	0	28	0	996147200	70	4893
2026-01-15 06:19:46.67	330.04	14.98	-52.7	-54.8	14.1	0.00e+00	0	28	0	997195776	70	4880
2026-01-15 06:19:47.67	329.89	14.91	-52.4	-54.4	14.3	0.00e+00	0	28	0	999292928	70	4686
2026-01-15 06:19:48.66	329.74	14.83	-52.3	-54.3	14.3	0.00e+00	0	28	0	1001390080	70	4621
2026-01-15 06:19:49.66	329.59	14.76	-52.1	-54.1	14.4	0.00e+00	0	28	0	1003487232	70	4500
2026-01-15 06:19:50.66	329.44	14.68	-52.0	-53.9	14.5	0.00e+00	0	28	0	1005584384	70	4426
2026-01-15 06:19:51.65	329.30	14.61	-52.2	-54.1	14.4	0.00e+00	0	28	0	1006632960	70	4527
2026-01-15 06:19:52.65	329.15	14.54	-52.0	-53.8	14.5	0.00e+00	0	28	0	1008730112	70	4383
2026-01-15 06:19:53.64	329.01	14.46	-52.1	-53.9	14.5	0.00e+00	0	28	0	1010827264	70	4441
2026-01-15 06:19:54.64	328.86	14.39	-52.0	-53.8	14.5	0.00e+00	0	28	0	1012924416	70	4390
2026-01-15 06:19:55.63	328.72	14.31	-52.2	-54.1	14.4	0.00e+00	0	28	0	1013972992	70	4501
2026-01-15 06:19:56.63	328.58	14.24	-52.2	-54.1	14.4	0.00e+00	0	28	0	1016070144	70	4521
2026-01-15 06:19:57.63	328.44	14.16	-52.3	-54.3	14.3	0.00e+00	0	28	0	1018167296	70	4612
2026-01-15 06:19:58.63	328.30	14.09	-52.4	-54.4	14.3	0.00e+00	0	28	0	1020264448	70	4661
2026-01-15 06:19:59.62	328.16	14.02	-52.5	-54.5	14.2	0.00e+00	0	28	0	1022361600	70	4731
2026-01-15 06:20:00.61	328.02	13.94	-53.0	-55.1	14.0	0.00e+00	0	28	0	1023410176	71	4798
2026-01-15 06:20:01.61	327.88	13.87	-53.3	-55.6	13.8	0.00e+00	0	28	0	1025507328	71	5079
2026-01-15 06:20:02.61	327.74	13.79	-53.6	-56.0	13.8	0.00e+00	0	28	0	1027604480	72	4990
2026-01-15 06:20:03.61	327.60	13.72	-53.6	-56.0	13.8	0.00e+00	0	28	0	1029701632	72	4992
2026-01-15 06:20:04.60	327.47	13.65	-53.5	-55.9	13.8	0.00e+00	0	28	0	1030750208	72	4945
2026-01-15 06:20:05.60	327.33	13.57	-53.4	-55.7	13.9	0.00e+00	0	28	0	1032847360	72	4859
2026-01-15 06:20:06.60	327.19	13.50	-53.3	-55.6	13.9	0.00e+00	0	28	0	1034944512	72	4787
2026-01-15 06:20:07.59	327.06	13.43	-53.2	-55.4	14.0	0.00e+00	0	28	0	1037041664	72	4681
2026-01-15 06:20:08.59	326.93	13.35	-52.7	-54.8	14.3	0.00e+00	0	28	0	1039138816	72	4354
2026-01-15 06:20:09.59	326.79	13.28	-52.5	-54.4	14.3	0.00e+00	0	28	0	1040187392	71	4438
2026-01-15 06:20:10.58	326.66	13.21	-52.2	-54.1	14.5	0.00e+00	0	28	0	1042284544	71	4259
2026-01-15 06:20:11.59	326.53	13.13	-52.4	-54.4	14.3	0.00e+00	0	28	0	1044381696	70	4656
2026-01-15 06:20:12.58	326.40	13.06	-52.5	-54.5	14.2	0.00e+00	0	28	0	1046478848	70	4727
2026-01-15 06:20:13.59	326.26	12.98	-52.4	-54.3	14.3	0.00e+00	0	28	0	1048576000	70	4635
2026-01-15 06:20:14.59	326.13	12.91	-52.4	-54.4	14.3	0.00e+00	0	28	0	1049624576	70	4668
2026-01-15 06:20:15.59	326.00	12.84	-52.5	-54.5	14.2	0.00e+00	0	28	0	1051721728	70	4732
2026-01-15 06:20:16.59	325.87	12.76	-52.4	-54.4	14.2	0.00e+00	0	28	0	1053818880	70	4690
2026-01-15 06:20:17.59	325.75	12.69	-52.4	-54.3	14.3	0.00e+00	0	28	0	1055916032	70	4630
2026-01-15 06:20:18.59	325.62	12.62	-52.6	-54.6	14.2	0.00e+00	0	28	0	1056964608	70	4798
2026-01-15 06:20:19.58	325.49	12.55	-52.4	-54.4	14.3	0.00e+00	0	28	0	1059061760	70	4654
2026-01-15 06:20:20.58	325.37	12.47	-52.4	-54.4	14.2	0.00e+00	0	28	0	1061158912	70	4692
2026-01-15 06:20:21.58	325.24	12.40	-52.5	-54.5	14.2	0.00e+00	0	28	0	1063256064	70	4746
2026-01-15 06:20:22.58	325.11	12.33	-52.5	-54.5	14.2	0.00e+00	0	28	0	1065353216	70	4714
2026-01-15 06:20:23.57	324.99	12.25	-52.7	-54.8	14.1	0.00e+00	0	28	0	1066401792	70	4905
2026-01-15 06:20:24.58	324.87	12.18	-52.8	-55.0	14.0	0.00e+00	0	28	0	1068498944	70	4996
2026-01-15 06:20:25.58	324.74	12.11	-53.0	-55.3	14.0	0.00e+00	0	28	0	1070596096	71	4881
2026-01-15 06:20:26.58	324.62	12.04	-53.0	-55.2	14.0	0.00e+00	0	28	0	1072693248	71	4866
2026-01-15 06:20:27.57	324.50	11.96	-53.3	-55.7	13.8	0.00e+00	0	28	0	1074790400	71	5103
2026-01-15 06:20:28.56	324.38	11.89	-53.2	-55.5	13.9	0.00e+00	0	28	0	1075838976	71	5023
2026-01-15 06:20:29.56	324.26	11.82	-53.2	-55.5	13.8	0.00e+00	0	28	0	1077936128	71	5031
2026-01-15 06:20:30.57	324.14	11.75	-53.3	-55.6	13.8	0.00e+00	0	28	0	1080033280	71	5090
2026-01-15 06:20:31.57	324.02	11.68	-53.1	-55.4	13.9	0.00e+00	0	28	0	1082130432	71	4981
2026-01-15 06:20:32.56	323.90	11.60	-53.2	-55.5	13.8	0.00e+00	0	28	0	1084227584	71	5030
2026-01-15 06:20:33.56	323.78	11.53	-53.3	-55.7	13.8	0.00e+00	0	28	0	1085276160	71	5130
2026-01-15 06:20:34.56	323.66	11.46	-53.4	-55.8	13.8	0.00e+00	0	28	0	1087373312	72	4888
2026-01-15 06:20:35.54	323.55	11.39	-53.4	-55.8	13.8	0.00e+00	0	28	0	1089470464	72	4887
2026-01-15 06:20:36.52	323.43	11.32	-53.4	-55.8	13.8	0.00e+00	0	28	0	1091567616	72	4911
2026-01-15 06:20:37.52	323.32	11.25	-53.8	-56.4	13.5	0.00e+00	0	28	0	1092616192	72	5252
2026-01-15 06:20:38.51	323.20	11.18	-53.6	-56.2	13.6	0.00e+00	0	28	0	1094713344	72	5126
2026-01-15 06:20:39.51	323.09	11.11	-53.8	-56.5	13.5	0.00e+00	0	28	0	1096810496	72	5290
2026-01-15 06:20:40.50	322.97	11.04	-53.8	-56.4	13.5	0.00e+00	0	28	0	1098907648	72	5227
2026-01-15 06:20:41.49	322.86	10.97	-53.7	-56.2	13.6	0.00e+00	0	28	0	1099956224	72	5119
2026-01-15 06:20:42.49	322.75	10.89	-53.6	-56.1	13.6	0.00e+00	0	28	0	1102053376	72	5097
2026-01-15 06:20:43.49	322.64	10.82	-53.4	-55.8	13.8	0.00e+00	0	28	0	1104150528	72	4908
2026-01-15 06:20:44.48	322.52	10.75	-53.4	-55.8	13.8	0.00e+00	0	28	0	1106247680	72	4896
2026-01-15 06:20:45.48	322.41	10.68	-53.2	-55.4	14.0	0.00e+00	0	28	0	1108344832	72	4696
2026-01-15 06:20:46.47	322.30	10.61	-53.2	-55.5	13.9	0.00e+00	0	28	0	1109393408	72	4725
2026-01-15 06:20:47.46	322.19	10.54	-53.1	-55.4	14.0	0.00e+00	0	28	0	1111490560	72	4671
2026-01-15 06:20:48.46	322.08	10.47	-53.1	-55.4	14.0	0.00e+00	0	28	0	1113587712	72	4667
2026-01-15 06:20:49.45	321.98	10.40	-53.2	-55.4	14.0	0.00e+00	0	28	0	1115684864	72	4697
2026-01-15 06:20:50.43	321.87	10.33	-53.2	-55.5	13.9	0.00e+00	0	28	0	1116733440	72	4711
2026-01-15 06:20:51.43	321.76	10.26	-53.4	-55.7	13.8	0.00e+00	0	28	0	1118830592	72	4859
2026-01-15 06:20:52.43	321.65	10.19	-53.5	-55.9	13.8	0.00e+00	0	28	0	1120927744	72	4928
2026-01-15 06:20:53.43	321.55	10.12	-53.7	-56.2	13.6	0.00e+00	0	28	0	1123024896	72	5131
2026-01-15 06:20:54.43	321.44	10.05	-53.7	-56.2	13.6	0.00e+00	0	28	0	1125122048	72	5158
2026-01-15 06:20:55.43	321.33	9.98	-54.0	-56.6	13.4	0.00e+00	0	28	0	1126170624	73	5079
2026-01-15 06:20:56.44	321.23	9.91	-54.0	-56.6	13.5	0.00e+00	0	28	0	1128267776	73	5076
2026-01-15 06:20:57.44	321.12	9.84	-53.9	-56.5	13.5	0.00e+00	0	28	0	1130364928	73	5039
2026-01-15 06:20:58.45	321.01	9.77	-54.0	-56.7	13.4	0.00e+00	0	28	0	1132462080	73	5121
2026-01-15 06:20:59.44	320.91	9.71	-53.8	-56.4	13.6	0.00e+00	0	28	0	1134559232	73	4957
2026-01-15 06:21:00.44	320.81	9.64	-53.8	-56.3	13.6	0.00e+00	0	28	0	1135607808	73	4893
2026-01-15 06:21:01.44	320.70	9.57	-53.7	-56.2	13.7	0.00e+00	0	28	0	1137704960	73	4817
2026-01-15 06:21:02.45	320.60	9.50	-53.7	-56.1	13.7	0.00e+00	0	28	0	1139802112	73	4806
2026-01-15 06:21:03.45	320.50	9.43	-53.5	-55.9	13.8	0.00e+00	0	28	0	1141899264	73	4681
2026-01-15 06:21:04.46	320.40	9.36	-53.5	-55.8	13.8	0.00e+00	0	28	0	1142947840	73	4642
2026-01-15 06:21:05.46	320.30	9.29	-53.4	-55.7	13.9	0.00e+00	0	28	0	1145044992	73	4577
2026-01-15 06:21:06.46	320.19	9.22	-53.5	-55.9	13.8	0.00e+00	0	28	0	1147142144	73	4683
2026-01-15 06:21:07.46	320.09	9.15	-53.4	-55.7	13.9	0.00e+00	0	28	0	1149239296	73	4598
2026-01-15 06:21:08.47	319.99	9.08	-53.5	-55.9	13.8	0.00e+00	0	28	0	1151336448	73	4656
2026-01-15 06:21:09.47	319.89	9.01	-53.8	-56.3	13.6	0.00e+00	0	28	0	1153433600	73	4898
2026-01-15 06:21:10.48	319.79	8.95	-53.8	-56.3	13.6	0.00e+00	0	28	0	1154482176	73	4912
2026-01-15 06:21:11.47	319.70	8.88	-53.7	-56.2	13.6	0.00e+00	0	28	0	1156579328	73	4869
2026-01-15 06:21:12.48	319.60	8.81	-53.8	-56.5	13.5	0.00e+00	0	28	0	1158676480	73	4989
2026-01-15 06:21:13.48	319.50	8.74	-53.8	-56.5	13.5	0.00e+00	0	28	0	1160773632	73	4999
2026-01-15 06:21:14.48	319.40	8.67	-54.0	-56.7	13.3	0.00e+00	0	28	0	1161822208	73	5133
2026-01-15 06:21:15.48	319.31	8.61	-54.2	-57.1	13.2	0.00e+00	0	28	0	1163919360	73	5345
2026-01-15 06:21:16.48	319.21	8.54	-54.2	-57.0	13.2	0.00e+00	0	28	0	1166016512	73	5312
2026-01-15 06:21:17.48	319.12	8.47	-54.4	-57.4	13.1	0.00e+00	0	28	0	1168113664	74	5228
2026-01-15 06:21:18.49	319.02	8.40	-54.3	-57.2	13.2	0.00e+00	0	28	0	1170210816	74	5156
2026-01-15 06:21:19.49	318.93	8.34	-54.4	-57.3	13.1	0.00e+00	0	28	0	1171259392	74	5183
2026-01-15 06:21:20.50	318.83	8.27	-54.4	-57.4	13.1	0.00e+00	0	28	0	1173356544	74	5222
2026-01-15 06:21:21.51	318.74	8.20	-54.5	-57.6	12.9	0.00e+00	0	28	0	1175453696	74	5353
2026-01-15 06:21:22.51	318.64	8.13	-54.6	-57.7	12.9	0.00e+00	0	28	0	1177550848	74	5422
2026-01-15 06:21:23.51	318.55	8.07	-54.7	-57.8	12.8	0.00e+00	0	28	0	1179648000	74	5508
2026-01-15 06:21:24.51	318.46	8.00	-54.6	-57.7	12.9	0.00e+00	0	28	0	1180696576	74	5429
2026-01-15 06:21:25.51	318.37	7.93	-54.6	-57.6	12.9	0.00e+00	0	28	0	1182793728	74	5377
2026-01-15 06:21:26.51	318.28	7.87	-54.6	-57.6	12.9	0.00e+00	0	28	0	1184890880	74	5375
2026-01-15 06:21:27.51	318.18	7.80	-54.8	-58.0	12.6	0.00e+00	0	28	0	1186988032	74	5645
2026-01-15 06:21:28.51	318.09	7.73	-54.6	-57.6	12.9	0.00e+00	0	28	0	1188036608	74	5398
2026-01-15 06:21:29.51	318.00	7.67	-54.5	-57.4	13.0	0.00e+00	0	28	0	1190133760	74	5263
2026-01-15 06:21:30.51	317.91	7.60	-54.6	-57.7	12.8	0.00e+00	0	28	0	1192230912	74	5431
2026-01-15 06:21:31.51	317.83	7.53	-54.4	-57.3	13.1	0.00e+00	0	28	0	1194328064	74	5178
2026-01-15 06:21:32.51	317.74	7.47	-54.3	-57.2	13.1	0.00e+00	0	28	0	1196425216	74	5135
2026-01-15 06:21:33.52	317.65	7.40	-54.8	-57.9	12.7	0.00e+00	0	28	0	1198522368	74	5559
2026-01-15 06:21:34.51	317.56	7.34	-54.6	-57.6	12.9	0.00e+00	0	28	0	1199570944	74	5365
2026-01-15 06:21:35.51	317.47	7.27	-54.6	-57.6	13.0	0.00e+00	0	28	0	1201668096	74	5350
2026-01-15 06:21:36.51	317.39	7.21	-54.7	-57.9	12.7	0.00e+00	0	28	0	1203765248	74	5555
2026-01-15 06:21:37.51	317.30	7.14	-54.8	-58.0	12.6	0.00e+00	0	28	0	1205862400	74	5634
2026-01-15 06:21:38.50	317.21	7.07	-54.9	-58.1	12.6	0.00e+00	0	28	0	1206910976	74	5699
2026-01-15 06:21:39.50	317.13	7.01	-54.9	-58.1	12.7	0.00e+00	0	28	0	1209008128	75	5395
2026-01-15 06:21:40.49	317.04	6.95	-55.1	-58.5	12.4	7.00e-07	0	28	0	1211105280	75	5632
2026-01-15 06:21:41.48	316.96	6.88	-55.2	-58.8	12.2	0.00e+00	0	28	0	1213202432	75	5808
2026-01-15 06:21:42.48	316.87	6.82	-55.2	-58.8	12.3	0.00e+00	0	28	0	1215299584	75	5811
