passes_logs/2026/01/15/R3.2S_Murmansk/R3.2S_Murmansk__20260115_072809_KANOPUS-V_5_rec.log

#Pass ID: 20260115_072809_KANOPUS-V 5
#Satellite: KANOPUS-V 5
#Configuration: KANOPUS-V_8320
#almurnet v.1.7.20251203
#Start time: 2026-01-15 07:28:09

#Version: 2.2.20231116
#Station: R3.2S_Murmansk
#Location: 33.079688 lon 68.888172 lat
#TLE: 1 43876U 18111A   26014.64517351  .00002226  00000+0  96418-4 0  9998
#TLE: 2 43876  97.3685 283.1659 0001742  85.8061 274.3376 15.23434183391418

#Time	Az	El	Level	Level2	SNR	BER	BlckErr	Temp	State	Recorded	gain1	gain2
2026-01-15 07:28:09.53	150.98	2.03	-59.3	-69.0	3.8	7.44e-01	0	26	0	0	83	10611
2026-01-15 07:28:10.53	150.97	2.10	-59.3	-69.0	3.8	7.45e-01	0	26	104	0	83	10607
2026-01-15 07:28:11.53	150.96	2.18	-59.3	-69.0	3.8	7.44e-01	0	26	104	0	83	10594
2026-01-15 07:28:12.52	150.96	2.25	-59.3	-69.0	3.8	7.45e-01	0	26	104	0	83	10599
2026-01-15 07:28:13.51	150.95	2.32	-59.3	-69.0	3.8	7.46e-01	0	26	104	0	83	10571
2026-01-15 07:28:14.50	150.94	2.39	-59.3	-69.0	3.8	7.44e-01	0	26	104	0	83	10643
2026-01-15 07:28:15.50	150.94	2.46	-59.3	-69.0	3.8	7.45e-01	0	26	104	0	83	10624
2026-01-15 07:28:16.49	150.93	2.53	-59.3	-69.0	3.8	7.45e-01	0	27	104	0	83	10633
2026-01-15 07:28:17.49	150.92	2.60	-59.3	-69.0	3.8	7.45e-01	0	27	104	0	83	10624
2026-01-15 07:28:18.49	150.91	2.67	-59.3	-69.0	3.8	7.47e-01	0	27	104	0	83	10577
2026-01-15 07:28:19.50	150.91	2.75	-59.3	-69.0	3.8	7.45e-01	0	27	104	0	83	10598
2026-01-15 07:28:20.50	150.90	2.82	-59.3	-69.0	3.8	7.44e-01	0	27	104	0	83	10590
2026-01-15 07:28:21.50	150.89	2.89	-59.3	-69.0	3.8	7.47e-01	0	27	104	0	83	10539
2026-01-15 07:28:22.50	150.89	2.97	-59.3	-69.0	3.8	7.46e-01	0	27	104	0	83	10600
2026-01-15 07:28:23.49	150.88	3.04	-59.3	-69.0	3.8	7.47e-01	0	27	104	0	83	10550
2026-01-15 07:28:24.49	150.87	3.11	-59.3	-69.0	3.8	7.46e-01	0	27	104	0	83	10538
2026-01-15 07:28:25.48	150.86	3.19	-59.3	-69.0	3.8	7.44e-01	0	27	104	0	83	10547
2026-01-15 07:28:26.48	150.86	3.26	-59.3	-69.0	3.8	7.44e-01	0	27	104	0	83	10603
2026-01-15 07:28:27.47	150.85	3.34	-59.3	-69.0	3.8	7.44e-01	0	27	104	0	83	10601
2026-01-15 07:28:28.48	150.84	3.41	-59.3	-69.0	3.8	7.45e-01	0	27	104	0	83	10547
2026-01-15 07:28:29.48	150.83	3.49	-59.2	-68.6	3.8	7.45e-01	0	27	104	0	83	10135
2026-01-15 07:28:30.49	150.83	3.56	-59.1	-68.3	3.8	7.45e-01	0	27	104	0	82	10325
2026-01-15 07:28:31.48	150.82	3.64	-59.0	-67.9	3.8	7.46e-01	0	27	104	0	82	9868
2026-01-15 07:28:32.47	150.81	3.71	-58.9	-67.3	3.8	7.44e-01	0	27	104	0	82	9224
2026-01-15 07:28:33.46	150.80	3.79	-58.6	-66.2	4.0	7.37e-01	0	27	104	0	81	8635
2026-01-15 07:28:34.46	150.79	3.87	-58.4	-65.6	3.9	7.43e-01	0	27	104	0	81	8005
2026-01-15 07:28:35.46	150.79	3.94	-58.3	-65.1	4.2	7.31e-01	0	27	0	10485760	81	7612
2026-01-15 07:28:36.46	150.78	4.02	-58.1	-64.6	4.4	7.25e-01	0	27	0	25165824	80	7585
2026-01-15 07:28:37.45	150.77	4.10	-57.2	-62.3	5.6	6.83e-01	0	27	0	39845888	79	6161
2026-01-15 07:28:38.44	150.76	4.17	-57.3	-62.3	5.6	6.83e-01	0	27	0	56623104	79	6199
2026-01-15 07:28:39.44	150.75	4.25	-56.4	-60.7	6.6	6.54e-01	0	27	0	71303168	77	5788
2026-01-15 07:28:40.44	150.74	4.33	-55.9	-59.9	7.3	6.42e-01	0	27	0	85983232	76	5587
2026-01-15 07:28:41.43	150.73	4.41	-54.9	-58.5	8.3	6.32e-01	0	27	0	102760448	74	5291
2026-01-15 07:28:42.42	150.73	4.49	-55.0	-58.7	8.2	6.28e-01	0	27	0	115343360	74	5406
2026-01-15 07:28:43.41	150.72	4.56	-54.3	-57.6	9.0	6.21e-01	0	27	0	132120576	73	5043
2026-01-15 07:28:44.39	150.71	4.64	-53.8	-56.9	9.6	6.13e-01	0	27	0	146800640	72	4959
2026-01-15 07:28:45.40	150.70	4.72	-53.5	-56.6	9.8	6.11e-01	0	27	0	161480704	71	5055
2026-01-15 07:28:46.40	150.69	4.80	-53.7	-56.8	9.6	6.12e-01	0	27	0	178257920	71	5200
2026-01-15 07:28:47.39	150.68	4.88	-53.3	-56.3	10.0	6.06e-01	0	27	0	192937984	71	4883
2026-01-15 07:28:48.39	150.67	4.96	-53.2	-56.2	10.0	6.09e-01	0	27	0	207618048	70	5136
2026-01-15 07:28:49.39	150.66	5.05	-53.1	-56.0	10.3	6.08e-01	0	28	0	224395264	70	5001
2026-01-15 07:28:50.39	150.65	5.13	-55.2	-58.7	8.2	6.28e-01	0	27	0	239075328	73	5786
2026-01-15 07:28:51.39	150.64	5.21	-52.8	-55.6	10.6	6.05e-01	0	27	0	253755392	70	4794
2026-01-15 07:28:52.39	150.63	5.29	-57.2	-62.4	5.5	6.89e-01	0	27	0	270532608	79	6203
2026-01-15 07:28:53.39	150.62	5.37	-53.9	-57.1	9.5	6.13e-01	0	27	0	285212672	72	5042
2026-01-15 07:28:54.39	150.61	5.46	-53.6	-56.6	9.7	6.16e-01	0	27	0	299892736	70	5379
2026-01-15 07:28:55.40	150.60	5.54	-52.8	-55.7	10.6	6.06e-01	0	27	0	316669952	70	4819
2026-01-15 07:28:56.39	150.59	5.62	-53.0	-55.9	10.4	6.08e-01	0	28	0	331350016	70	4937
2026-01-15 07:28:57.38	150.58	5.71	-53.0	-55.9	10.4	6.08e-01	0	27	0	346030080	70	4954
2026-01-15 07:28:58.38	150.57	5.79	-53.0	-55.8	10.5	6.07e-01	0	27	0	362807296	70	4924
2026-01-15 07:28:59.37	150.56	5.88	-53.1	-56.0	10.3	6.11e-01	0	28	0	377487360	70	4991
2026-01-15 07:29:00.37	150.55	5.96	-53.0	-55.8	10.4	6.09e-01	0	28	0	392167424	70	4925
2026-01-15 07:29:01.36	150.54	6.05	-53.0	-55.9	10.4	6.09e-01	0	27	0	406847488	70	4940
2026-01-15 07:29:02.34	150.53	6.13	-52.6	-55.4	10.8	6.08e-01	0	28	0	423624704	69	4937
2026-01-15 07:29:03.35	150.52	6.22	-52.9	-55.7	10.5	6.10e-01	0	28	0	438304768	69	5150
2026-01-15 07:29:04.34	150.51	6.30	-52.7	-55.5	10.7	6.07e-01	0	28	0	452984832	69	5040
2026-01-15 07:29:05.34	150.50	6.39	-52.7	-55.5	10.7	6.09e-01	0	27	0	467664896	69	5020
2026-01-15 07:29:06.33	150.49	6.48	-53.0	-55.8	10.5	6.08e-01	0	27	0	484442112	69	5184
2026-01-15 07:29:07.33	150.48	6.56	-53.1	-56.0	10.3	6.13e-01	0	27	0	499122176	69	5300
2026-01-15 07:29:08.33	150.47	6.65	-52.9	-55.7	10.6	6.09e-01	0	27	0	515899392	69	5104
2026-01-15 07:29:09.33	150.46	6.74	-52.7	-55.5	10.7	6.09e-01	0	28	0	530579456	69	5016
2026-01-15 07:29:10.33	150.44	6.83	-52.3	-55.0	11.2	6.06e-01	0	28	0	545259520	69	4720
2026-01-15 07:29:11.33	150.43	6.92	-52.5	-55.3	11.0	6.08e-01	0	27	0	562036736	69	4886
2026-01-15 07:29:12.33	150.42	7.01	-52.4	-55.0	11.2	6.08e-01	0	28	0	576716800	69	4751
2026-01-15 07:29:13.32	150.41	7.10	-52.8	-55.5	10.8	6.08e-01	0	28	0	591396864	69	5038
2026-01-15 07:29:14.32	150.40	7.19	-52.3	-55.0	11.2	6.07e-01	0	28	0	606076928	69	4743
2026-01-15 07:29:15.32	150.38	7.28	-52.5	-55.2	11.0	6.08e-01	0	28	0	620756992	69	4849
2026-01-15 07:29:16.32	150.37	7.37	-52.6	-55.4	10.9	6.08e-01	0	28	0	637534208	69	4938
2026-01-15 07:29:17.31	150.36	7.46	-52.6	-55.3	11.0	6.07e-01	0	28	0	652214272	69	4908
2026-01-15 07:29:18.31	150.35	7.56	-52.5	-55.2	11.1	6.06e-01	0	28	0	666894336	69	4848
2026-01-15 07:29:19.29	150.34	7.65	-52.3	-55.0	11.3	6.08e-01	0	28	0	683671552	69	4716
2026-01-15 07:29:20.29	150.32	7.74	-52.3	-54.9	11.3	6.10e-01	0	28	0	698351616	69	4665
2026-01-15 07:29:21.29	150.31	7.84	-52.1	-54.7	11.4	6.06e-01	0	28	0	713031680	68	4857
2026-01-15 07:29:22.29	150.30	7.93	-51.7	-54.3	11.8	6.04e-01	0	28	0	729808896	68	4622
2026-01-15 07:29:23.28	150.28	8.02	-51.9	-54.4	11.6	6.05e-01	0	28	0	744488960	68	4705
2026-01-15 07:29:24.27	150.27	8.12	-51.9	-54.4	11.6	6.07e-01	0	28	0	759169024	68	4705
2026-01-15 07:29:25.27	150.26	8.21	-51.9	-54.5	11.6	6.07e-01	0	28	0	773849088	67	4997
2026-01-15 07:29:26.26	150.24	8.31	-51.9	-54.5	11.5	6.06e-01	0	28	0	790626304	67	5039
2026-01-15 07:29:27.25	150.23	8.40	-51.7	-54.3	11.7	6.06e-01	0	28	0	805306368	67	4885
2026-01-15 07:29:28.24	150.22	8.50	-51.7	-54.3	11.7	6.04e-01	0	28	0	819986432	67	4903
2026-01-15 07:29:29.24	150.20	8.60	-51.6	-54.2	11.8	6.07e-01	0	28	0	836763648	67	4844
2026-01-15 07:29:30.23	150.19	8.70	-51.4	-54.0	12.0	6.04e-01	0	28	0	851443712	67	4714
2026-01-15 07:29:31.23	150.17	8.79	-51.7	-54.3	11.8	5.98e-01	0	28	0	866123776	67	4887
2026-01-15 07:29:32.22	150.16	8.89	-51.5	-54.1	11.9	6.06e-01	0	28	0	880803840	67	4760
2026-01-15 07:29:33.22	150.15	8.99	-51.5	-54.1	11.9	6.01e-01	0	28	0	897581056	67	4763
2026-01-15 07:29:34.20	150.13	9.09	-51.6	-54.1	11.9	6.03e-01	0	28	0	912261120	67	4810
2026-01-15 07:29:35.20	150.12	9.19	-51.5	-54.1	11.9	6.05e-01	0	28	0	926941184	67	4774
2026-01-15 07:29:36.18	150.10	9.29	-51.4	-53.9	12.0	6.05e-01	0	28	0	943718400	67	4701
2026-01-15 07:29:37.18	150.09	9.39	-51.4	-54.0	12.0	6.05e-01	0	28	0	958398464	67	4723
2026-01-15 07:29:38.18	150.07	9.50	-51.6	-54.1	11.9	6.05e-01	0	28	0	973078528	67	4814
2026-01-15 07:29:39.17	150.06	9.60	-51.2	-53.7	12.2	6.03e-01	0	28	0	987758592	67	4591
2026-01-15 07:29:40.17	150.04	9.70	-51.1	-53.6	12.2	6.06e-01	0	28	0	1002438656	66	4807
2026-01-15 07:29:41.16	150.02	9.81	-51.2	-53.7	12.1	6.03e-01	0	28	0	1019215872	66	4832
2026-01-15 07:29:42.15	150.01	9.91	-51.1	-53.6	12.2	6.01e-01	0	28	0	1033895936	66	4795
2026-01-15 07:29:43.14	149.99	10.01	-51.2	-53.7	12.1	6.03e-01	0	28	0	1048576000	66	4863
2026-01-15 07:29:44.13	149.98	10.12	-51.1	-53.6	12.2	6.06e-01	0	28	0	1065353216	66	4804
2026-01-15 07:29:45.13	149.96	10.23	-51.2	-53.8	12.1	6.06e-01	0	28	0	1080033280	66	4872
2026-01-15 07:29:46.12	149.94	10.33	-51.1	-53.6	12.2	6.00e-01	0	28	0	1094713344	66	4801
2026-01-15 07:29:47.11	149.93	10.44	-51.2	-53.8	12.1	6.05e-01	0	28	0	1109393408	66	4877
2026-01-15 07:29:48.11	149.91	10.55	-51.2	-53.7	12.1	6.04e-01	0	28	0	1126170624	66	4852
2026-01-15 07:29:49.10	149.89	10.66	-51.0	-53.5	12.3	6.01e-01	0	28	0	1140850688	66	4725
2026-01-15 07:29:50.10	149.88	10.77	-50.9	-53.4	12.3	6.04e-01	0	28	0	1155530752	66	4695
2026-01-15 07:29:51.09	149.86	10.87	-50.9	-53.4	12.4	6.04e-01	0	28	0	1172307968	66	4695
2026-01-15 07:29:52.08	149.84	10.98	-50.9	-53.4	12.4	6.02e-01	0	28	0	1186988032	66	4697
2026-01-15 07:29:53.08	149.82	11.10	-50.7	-53.2	12.5	6.04e-01	0	28	0	1201668096	66	4586
2026-01-15 07:29:54.08	149.80	11.21	-50.8	-53.3	12.4	6.04e-01	0	28	0	1218445312	66	4639
2026-01-15 07:29:55.07	149.79	11.32	-50.7	-53.2	12.4	6.04e-01	0	28	0	1233125376	65	4846
2026-01-15 07:29:56.07	149.77	11.43	-50.7	-53.3	12.4	6.04e-01	0	28	0	1247805440	65	4881
2026-01-15 07:29:57.07	149.75	11.55	-50.7	-53.3	12.4	6.05e-01	0	28	0	1262485504	65	4887
2026-01-15 07:29:58.07	149.73	11.66	-50.6	-53.1	12.5	6.03e-01	0	28	0	1279262720	65	4774
2026-01-15 07:29:59.07	149.71	11.78	-50.5	-53.1	12.5	6.04e-01	0	28	0	1293942784	65	4760
2026-01-15 07:30:00.07	149.69	11.90	-50.5	-53.0	12.6	6.05e-01	0	28	0	1308622848	65	4718
2026-01-15 07:30:01.08	149.67	12.02	-50.6	-53.1	12.5	6.03e-01	0	28	0	1325400064	65	4810
2026-01-15 07:30:02.08	149.65	12.13	-50.4	-52.9	12.6	6.02e-01	0	28	0	1340080128	65	4690
2026-01-15 07:30:03.08	149.63	12.25	-50.5	-53.0	12.6	6.05e-01	0	28	0	1356857344	65	4737
2026-01-15 07:30:04.08	149.61	12.37	-50.5	-53.0	12.6	6.05e-01	0	28	0	1371537408	65	4726
2026-01-15 07:30:05.07	149.59	12.49	-50.4	-52.9	12.6	6.03e-01	0	28	0	1386217472	65	4702
2026-01-15 07:30:06.08	149.57	12.61	-50.3	-52.8	12.7	6.03e-01	0	28	0	1402994688	65	4650
2026-01-15 07:30:07.07	149.55	12.74	-50.3	-52.8	12.7	6.02e-01	0	28	0	1417674752	65	4609
2026-01-15 07:30:08.07	149.53	12.86	-50.3	-52.7	12.8	6.05e-01	0	28	0	1432354816	65	4594
2026-01-15 07:30:09.07	149.50	12.98	-50.3	-52.8	12.7	6.04e-01	0	28	0	1447034880	65	4646
2026-01-15 07:30:10.06	149.48	13.11	-50.2	-52.7	12.8	6.06e-01	0	28	0	1461714944	65	4571
2026-01-15 07:30:11.07	149.46	13.23	-50.1	-52.6	12.8	6.04e-01	0	28	0	1478492160	64	4798
2026-01-15 07:30:12.06	149.44	13.36	-50.0	-52.5	12.8	6.01e-01	0	28	0	1493172224	64	4739
2026-01-15 07:30:13.06	149.42	13.48	-50.1	-52.5	12.8	6.04e-01	0	28	0	1507852288	64	4752
2026-01-15 07:30:14.04	149.39	13.61	-50.0	-52.5	12.8	6.04e-01	0	28	0	1524629504	64	4710
2026-01-15 07:30:15.04	149.37	13.74	-50.0	-52.5	12.9	6.02e-01	0	28	0	1539309568	64	4713
2026-01-15 07:30:16.04	149.35	13.87	-49.9	-52.3	12.9	6.05e-01	0	28	0	1553989632	64	4645
2026-01-15 07:30:17.04	149.32	14.00	-49.9	-52.3	12.9	6.03e-01	0	28	0	1570766848	64	4632
2026-01-15 07:30:18.05	149.30	14.13	-49.9	-52.3	12.9	6.02e-01	0	28	0	1585446912	64	4648
2026-01-15 07:30:19.04	149.27	14.26	-49.8	-52.2	13.0	6.03e-01	0	28	0	1600126976	64	4587
2026-01-15 07:30:20.04	149.25	14.40	-49.8	-52.2	13.0	6.05e-01	0	28	0	1616904192	64	4565
2026-01-15 07:30:21.04	149.22	14.53	-49.7	-52.1	13.0	6.03e-01	0	28	0	1631584256	64	4545
2026-01-15 07:30:22.03	149.20	14.67	-49.7	-52.1	13.0	6.00e-01	0	28	0	1646264320	63	4792
2026-01-15 07:30:23.03	149.17	14.80	-49.7	-52.1	13.0	6.03e-01	0	28	0	1663041536	63	4778
2026-01-15 07:30:24.04	149.15	14.94	-49.7	-52.1	13.0	6.02e-01	0	28	0	1677721600	63	4805
2026-01-15 07:30:25.03	149.12	15.08	-49.7	-52.2	13.0	6.05e-01	0	28	0	1692401664	63	4817
2026-01-15 07:30:26.04	149.09	15.22	-49.5	-51.9	13.2	6.02e-01	0	28	0	1709178880	63	4675
2026-01-15 07:30:27.03	149.07	15.36	-49.5	-51.9	13.2	6.00e-01	0	28	0	1723858944	63	4658
2026-01-15 07:30:28.03	149.04	15.50	-49.5	-51.9	13.1	6.00e-01	0	28	0	1738539008	63	4681
2026-01-15 07:30:29.02	149.01	15.64	-49.4	-51.7	13.2	6.03e-01	0	28	0	1753219072	63	4586
2026-01-15 07:30:30.02	148.99	15.79	-49.4	-51.7	13.2	6.03e-01	0	28	0	1769996288	63	4586
2026-01-15 07:30:31.01	148.96	15.93	-49.3	-51.6	13.3	6.01e-01	0	28	0	1784676352	63	4534
2026-01-15 07:30:32.01	148.93	16.07	-49.3	-51.6	13.3	6.02e-01	0	28	0	1799356416	63	4517
2026-01-15 07:30:33.01	148.90	16.22	-49.1	-51.4	13.3	6.05e-01	0	28	0	1816133632	62	4699
2026-01-15 07:30:34.00	148.87	16.37	-49.1	-51.4	13.3	6.04e-01	0	28	0	1830813696	62	4690
2026-01-15 07:30:34.99	148.84	16.52	-49.1	-51.4	13.3	6.04e-01	0	28	0	1845493760	62	4682
2026-01-15 07:30:35.98	148.81	16.67	-49.1	-51.4	13.3	6.04e-01	0	28	0	1862270976	62	4683
2026-01-15 07:30:36.98	148.78	16.82	-49.0	-51.3	13.4	6.04e-01	0	28	0	1876951040	62	4621
2026-01-15 07:30:37.97	148.75	16.97	-49.0	-51.3	13.4	6.02e-01	0	28	0	1891631104	62	4607
2026-01-15 07:30:38.97	148.72	17.12	-48.9	-51.2	13.4	6.05e-01	0	28	0	1906311168	62	4579
2026-01-15 07:30:39.96	148.69	17.28	-48.9	-51.2	13.5	6.04e-01	0	28	0	1920991232	62	4547
2026-01-15 07:30:40.94	148.66	17.43	-48.8	-51.1	13.5	6.05e-01	0	28	0	1937768448	62	4503
2026-01-15 07:30:41.94	148.62	17.59	-48.8	-51.0	13.5	6.05e-01	0	28	0	1952448512	62	4491
2026-01-15 07:30:42.93	148.59	17.75	-48.8	-51.1	13.5	6.04e-01	0	28	0	1967128576	62	4507
2026-01-15 07:30:43.94	148.56	17.91	-48.8	-51.1	13.5	6.03e-01	0	28	0	1983905792	62	4537
2026-01-15 07:30:44.93	148.52	18.07	-48.7	-51.0	13.6	6.02e-01	0	28	0	1998585856	62	4465
2026-01-15 07:30:45.94	148.49	18.23	-48.7	-51.0	13.6	6.02e-01	0	28	0	2013265920	62	4475
2026-01-15 07:30:46.94	148.45	18.40	-48.5	-50.8	13.5	6.03e-01	0	28	0	2030043136	61	4648
2026-01-15 07:30:47.94	148.42	18.57	-48.5	-50.8	13.6	6.01e-01	0	28	0	2044723200	61	4600
2026-01-15 07:30:48.95	148.38	18.73	-48.5	-50.7	13.6	6.00e-01	0	28	0	2059403264	61	4593
2026-01-15 07:30:49.96	148.34	18.91	-48.4	-50.7	13.6	6.02e-01	0	28	0	2076180480	61	4583
2026-01-15 07:30:50.97	148.31	19.08	-48.4	-50.7	13.6	6.03e-01	0	28	0	2090860544	61	4558
2026-01-15 07:30:51.97	148.27	19.25	-48.4	-50.7	13.7	6.02e-01	0	28	0	2105540608	61	4551
2026-01-15 07:30:52.97	148.23	19.42	-48.4	-50.7	13.7	6.03e-01	0	28	0	2122317824	61	4548
2026-01-15 07:30:53.96	148.19	19.60	-48.3	-50.5	13.7	6.03e-01	0	28	0	2136997888	61	4482
2026-01-15 07:30:54.97	148.15	19.77	-48.4	-50.6	13.7	6.03e-01	0	28	0	2151677952	61	4529
2026-01-15 07:30:55.98	148.11	19.95	-48.3	-50.5	13.7	6.01e-01	0	28	0	2168455168	61	4488
2026-01-15 07:30:56.99	148.07	20.14	-48.3	-50.5	13.7	6.02e-01	0	28	0	2183135232	61	4470
2026-01-15 07:30:58.00	148.03	20.32	-48.2	-50.4	13.8	6.04e-01	0	28	0	2199912448	61	4417
2026-01-15 07:30:59.00	147.99	20.50	-48.3	-50.5	13.7	6.05e-01	0	28	0	2214592512	61	4445
2026-01-15 07:31:00.00	147.95	20.69	-48.1	-50.2	13.7	6.04e-01	0	28	0	2229272576	60	4570
2026-01-15 07:31:01.00	147.90	20.87	-48.0	-50.1	13.8	6.03e-01	0	28	0	2246049792	60	4538
2026-01-15 07:31:02.00	147.86	21.06	-47.9	-50.1	13.8	6.02e-01	0	28	0	2260729856	60	4498
2026-01-15 07:31:03.00	147.82	21.25	-47.8	-49.9	13.9	6.04e-01	0	28	0	2275409920	60	4433
2026-01-15 07:31:04.00	147.77	21.44	-47.8	-49.9	13.9	6.03e-01	0	28	0	2292187136	60	4418
2026-01-15 07:31:05.00	147.73	21.64	-47.9	-50.0	13.9	6.04e-01	0	28	0	2306867200	60	4454
2026-01-15 07:31:06.00	147.68	21.83	-47.9	-50.0	13.9	6.03e-01	0	28	0	2321547264	60	4451
2026-01-15 07:31:06.99	147.63	22.03	-48.0	-50.0	13.8	6.02e-01	0	28	0	2338324480	60	4493
2026-01-15 07:31:07.98	147.59	22.23	-47.8	-49.9	13.9	6.03e-01	0	28	0	2353004544	60	4395
2026-01-15 07:31:08.98	147.54	22.43	-47.9	-49.9	13.9	6.02e-01	0	28	0	2367684608	60	4440
2026-01-15 07:31:09.97	147.49	22.63	-47.9	-50.0	13.8	6.03e-01	0	28	0	2382364672	60	4464
2026-01-15 07:31:10.97	147.44	22.83	-47.9	-49.9	13.9	6.04e-01	0	28	0	2397044736	60	4438
2026-01-15 07:31:11.96	147.39	23.04	-47.9	-50.0	13.9	6.02e-01	0	28	0	2413821952	60	4457
2026-01-15 07:31:12.95	147.34	23.25	-47.9	-50.0	13.9	6.03e-01	0	28	0	2428502016	60	4456
2026-01-15 07:31:13.94	147.29	23.46	-47.8	-50.0	13.9	6.03e-01	0	28	0	2443182080	60	4469
2026-01-15 07:31:14.94	147.23	23.67	-47.9	-50.1	13.8	6.02e-01	0	28	0	2459959296	60	4496
2026-01-15 07:31:15.93	147.18	23.88	-47.9	-50.1	13.8	6.04e-01	0	28	0	2474639360	60	4525
2026-01-15 07:31:16.93	147.13	24.10	-47.9	-50.1	13.8	6.04e-01	0	28	0	2489319424	60	4526
2026-01-15 07:31:17.92	147.07	24.32	-47.9	-50.1	13.8	6.03e-01	0	28	0	2503999488	60	4513
2026-01-15 07:31:18.91	147.01	24.54	-47.9	-50.1	13.8	6.03e-01	0	28	0	2520776704	60	4535
2026-01-15 07:31:19.90	146.96	24.76	-48.0	-50.2	13.8	6.02e-01	0	28	0	2535456768	60	4572
2026-01-15 07:31:20.89	146.90	24.99	-47.9	-50.0	13.9	6.03e-01	0	28	0	2550136832	60	4468
2026-01-15 07:31:21.88	146.84	25.21	-47.9	-50.0	13.9	6.02e-01	0	28	0	2566914048	60	4459
2026-01-15 07:31:22.87	146.78	25.44	-47.8	-49.9	13.9	6.02e-01	0	28	0	2581594112	60	4407
2026-01-15 07:31:23.86	146.72	25.67	-47.8	-49.9	13.9	6.05e-01	0	28	0	2596274176	60	4419
2026-01-15 07:31:24.86	146.66	25.91	-47.8	-49.9	13.8	6.03e-01	0	28	0	2610954240	59	4656
2026-01-15 07:31:25.85	146.59	26.15	-47.9	-49.9	13.8	6.04e-01	0	28	0	2627731456	59	4693
2026-01-15 07:31:26.84	146.53	26.39	-47.8	-49.9	13.8	6.03e-01	0	28	0	2642411520	59	4683
2026-01-15 07:31:27.84	146.46	26.63	-47.9	-50.0	13.7	6.03e-01	0	28	0	2657091584	59	4756
2026-01-15 07:31:28.84	146.39	26.88	-47.9	-50.1	13.7	6.04e-01	0	28	0	2673868800	59	4762
2026-01-15 07:31:29.83	146.33	27.12	-47.9	-50.1	13.7	6.02e-01	0	28	0	2688548864	59	4802
2026-01-15 07:31:30.82	146.26	27.37	-48.1	-50.3	13.6	6.03e-01	0	28	0	2703228928	59	4891
2026-01-15 07:31:31.81	146.19	27.63	-48.2	-50.5	13.6	6.03e-01	0	28	0	2717908992	59	4992
2026-01-15 07:31:32.81	146.11	27.88	-48.1	-50.4	13.6	6.03e-01	0	28	0	2734686208	59	4938
2026-01-15 07:31:33.81	146.04	28.14	-48.3	-50.6	13.5	6.02e-01	0	28	0	2749366272	59	5067
2026-01-15 07:31:34.80	145.97	28.41	-48.2	-50.5	13.6	6.02e-01	0	28	0	2764046336	59	5013
2026-01-15 07:31:35.79	145.89	28.67	-48.2	-50.4	13.6	6.03e-01	0	28	0	2778726400	59	4973
2026-01-15 07:31:36.79	145.81	28.94	-48.2	-50.5	13.6	6.04e-01	0	28	0	2795503616	59	4992
2026-01-15 07:31:37.79	145.73	29.21	-48.2	-50.4	13.6	6.01e-01	0	28	0	2810183680	59	4972
2026-01-15 07:31:38.78	145.65	29.48	-48.2	-50.4	13.6	6.02e-01	0	28	0	2824863744	59	4938
2026-01-15 07:31:39.77	145.57	29.76	-48.0	-50.3	13.7	5.99e-01	0	28	0	2839543808	59	4891
2026-01-15 07:31:40.75	145.49	30.04	-48.1	-50.4	13.7	6.00e-01	0	28	0	2856321024	59	4937
2026-01-15 07:31:41.75	145.40	30.32	-48.0	-50.3	13.7	6.01e-01	0	28	0	2871001088	59	4902
2026-01-15 07:31:42.74	145.31	30.61	-48.2	-50.4	13.6	6.03e-01	0	28	0	2885681152	59	4982
2026-01-15 07:31:43.74	145.22	30.90	-48.2	-50.5	13.6	6.03e-01	0	28	0	2902458368	59	5006
2026-01-15 07:31:44.73	145.13	31.19	-48.2	-50.6	13.6	5.99e-01	0	28	0	2917138432	59	5042
2026-01-15 07:31:45.73	145.04	31.49	-48.4	-50.7	13.4	6.01e-01	0	28	0	2931818496	59	5128
2026-01-15 07:31:46.72	144.95	31.79	-48.2	-50.6	13.5	5.98e-01	0	28	0	2946498560	59	5069
2026-01-15 07:31:47.71	144.85	32.09	-48.3	-50.8	13.5	6.05e-01	0	28	0	2963275776	59	5190
2026-01-15 07:31:48.70	144.75	32.40	-48.2	-50.8	13.5	6.03e-01	0	28	0	2977955840	59	5193
2026-01-15 07:31:49.68	144.65	32.71	-48.0	-50.7	13.6	6.02e-01	0	28	0	2992635904	59	5151
2026-01-15 07:31:50.68	144.55	33.02	-48.0	-50.7	13.6	6.02e-01	0	28	0	3009413120	59	5135
2026-01-15 07:31:51.67	144.44	33.34	-48.0	-50.7	13.6	6.03e-01	0	28	0	3024093184	59	5132
2026-01-15 07:31:52.67	144.34	33.67	-48.1	-50.7	13.6	6.00e-01	0	28	0	3038773248	59	5128
2026-01-15 07:31:53.66	144.23	33.99	-47.9	-50.4	13.7	6.03e-01	0	28	0	3053453312	59	4975
2026-01-15 07:31:54.65	144.12	34.32	-48.0	-50.5	13.6	6.04e-01	0	28	0	3070230528	59	4986
2026-01-15 07:31:55.65	144.00	34.66	-47.8	-50.2	13.8	6.01e-01	0	28	0	3084910592	59	4857
2026-01-15 07:31:56.64	143.88	34.99	-47.6	-50.2	13.8	6.02e-01	0	28	0	3099590656	59	4826
2026-01-15 07:31:57.64	143.76	35.34	-47.6	-50.2	13.9	6.03e-01	0	28	0	3116367872	59	4839
2026-01-15 07:31:58.65	143.64	35.69	-47.4	-50.1	13.9	6.02e-01	0	28	0	3131047936	59	4787
2026-01-15 07:31:59.65	143.51	36.04	-47.4	-50.1	13.9	6.03e-01	0	28	0	3145728000	59	4794
2026-01-15 07:32:00.65	143.38	36.40	-47.4	-50.1	13.9	6.06e-01	0	28	0	3162505216	59	4765
2026-01-15 07:32:01.66	143.25	36.77	-47.1	-49.6	14.0	6.02e-01	0	28	0	3177185280	58	4803
2026-01-15 07:32:02.65	143.11	37.13	-47.0	-49.5	14.0	6.03e-01	0	28	0	3191865344	58	4752
2026-01-15 07:32:03.65	142.97	37.50	-46.9	-49.4	14.1	6.01e-01	0	28	0	3206545408	58	4672
2026-01-15 07:32:04.64	142.83	37.87	-46.7	-49.2	14.2	6.01e-01	0	28	0	3223322624	58	4549
2026-01-15 07:32:05.64	142.68	38.26	-46.5	-49.0	14.2	5.98e-01	0	28	0	3238002688	57	4721
2026-01-15 07:32:06.63	142.53	38.64	-46.6	-49.2	14.1	6.02e-01	0	28	0	3252682752	57	4842
2026-01-15 07:32:07.63	142.38	39.03	-46.4	-49.0	14.2	6.03e-01	0	28	0	3269459968	57	4746
2026-01-15 07:32:08.63	142.22	39.42	-46.3	-49.0	14.2	6.01e-01	0	28	0	3284140032	57	4707
2026-01-15 07:32:09.62	142.06	39.82	-46.1	-48.8	14.2	6.02e-01	0	28	0	3298820096	56	4893
2026-01-15 07:32:10.62	141.89	40.22	-46.0	-48.7	14.2	6.03e-01	0	28	0	3313500160	56	4857
2026-01-15 07:32:11.61	141.72	40.63	-46.0	-48.7	14.2	6.02e-01	0	28	0	3330277376	56	4836
2026-01-15 07:32:12.60	141.55	41.04	-45.8	-48.5	14.3	6.02e-01	0	28	0	3344957440	56	4711
2026-01-15 07:32:13.60	141.37	41.46	-45.7	-48.4	14.3	6.04e-01	0	28	0	3359637504	55	4972
2026-01-15 07:32:14.60	141.18	41.88	-45.7	-48.4	14.3	6.02e-01	0	28	0	3376414720	55	4983
2026-01-15 07:32:15.59	140.99	42.31	-45.7	-48.5	14.3	6.01e-01	0	28	0	3391094784	55	5041
2026-01-15 07:32:16.59	140.80	42.75	-45.8	-48.7	14.2	6.03e-01	0	28	0	3405774848	55	5132
2026-01-15 07:32:17.58	140.60	43.18	-45.7	-48.6	14.3	6.03e-01	0	28	0	3422552064	55	5077
2026-01-15 07:32:18.58	140.39	43.63	-45.5	-48.2	14.4	6.05e-01	0	28	0	3437232128	55	4870
2026-01-15 07:32:19.58	140.17	44.08	-45.3	-47.8	14.5	6.03e-01	0	28	0	3451912192	55	4651
2026-01-15 07:32:20.58	139.95	44.54	-45.1	-47.6	14.5	6.02e-01	0	28	0	3468689408	54	4774
2026-01-15 07:32:21.58	139.72	45.00	-45.3	-47.8	14.4	6.01e-01	0	28	0	3483369472	54	4901
2026-01-15 07:32:22.57	139.49	45.47	-45.3	-48.0	14.3	6.01e-01	0	28	0	3498049536	54	4993
2026-01-15 07:32:23.56	139.25	45.94	-45.4	-48.1	14.3	5.97e-01	0	28	0	3512729600	54	5047
2026-01-15 07:32:24.55	139.00	46.41	-45.4	-48.1	14.3	6.00e-01	0	28	0	3529506816	54	5073
2026-01-15 07:32:25.54	138.75	46.89	-45.4	-47.9	14.3	5.98e-01	0	28	0	3544186880	54	4981
2026-01-15 07:32:26.54	138.48	47.38	-45.0	-47.6	14.5	6.06e-01	0	28	0	3558866944	54	4765
2026-01-15 07:32:27.53	138.21	47.88	-45.0	-47.7	14.5	6.01e-01	0	28	0	3575644160	54	4816
2026-01-15 07:32:28.53	137.92	48.38	-45.3	-47.9	14.4	5.94e-01	0	28	0	3590324224	54	4981
2026-01-15 07:32:29.52	137.63	48.88	-45.4	-48.1	14.3	6.02e-01	0	28	0	3605004288	54	5100
2026-01-15 07:32:30.52	137.32	49.40	-45.3	-48.0	14.4	5.97e-01	0	28	0	3619684352	54	5034
2026-01-15 07:32:31.51	137.01	49.91	-45.4	-48.2	14.3	5.97e-01	0	28	0	3634364416	54	5119
2026-01-15 07:32:32.50	136.69	50.43	-45.6	-48.5	14.1	5.96e-01	0	28	0	3651141632	54	5316
2026-01-15 07:32:33.49	136.35	50.96	-46.0	-48.8	14.1	5.95e-01	0	28	0	3665821696	55	5188
2026-01-15 07:32:34.48	136.00	51.49	-45.9	-48.6	14.2	5.99e-01	0	28	0	3680501760	55	5080
2026-01-15 07:32:35.48	135.64	52.03	-45.9	-48.6	14.2	6.00e-01	0	29	0	3697278976	55	5088
2026-01-15 07:32:36.47	135.26	52.57	-46.1	-48.7	14.1	5.99e-01	0	28	0	3711959040	55	5155
2026-01-15 07:32:37.47	134.87	53.13	-46.5	-49.2	14.0	6.01e-01	0	28	0	3726639104	56	5151
2026-01-15 07:32:38.46	134.46	53.68	-46.7	-49.3	14.0	6.01e-01	0	28	0	3741319168	56	5202
2026-01-15 07:32:39.46	134.03	54.24	-46.6	-49.2	14.0	6.00e-01	0	28	0	3758096384	56	5112
2026-01-15 07:32:40.44	133.60	54.80	-46.6	-49.1	14.0	5.93e-01	0	28	0	3772776448	56	5079
2026-01-15 07:32:41.43	133.14	55.37	-46.6	-49.1	14.1	5.93e-01	0	28	0	3787456512	56	5091
2026-01-15 07:32:42.42	132.66	55.94	-46.4	-49.1	14.1	5.93e-01	0	28	0	3802136576	56	5061
2026-01-15 07:32:43.41	132.17	56.52	-46.6	-49.4	14.0	5.94e-01	0	28	0	3818913792	56	5234
2026-01-15 07:32:44.40	131.65	57.10	-46.7	-49.5	13.9	5.94e-01	0	28	0	3833593856	56	5282
2026-01-15 07:32:45.40	131.10	57.69	-46.6	-49.2	14.0	5.93e-01	0	28	0	3848273920	56	5134
2026-01-15 07:32:46.39	130.53	58.28	-46.6	-49.1	14.0	5.94e-01	0	28	0	3865051136	56	5093
2026-01-15 07:32:47.38	129.94	58.88	-46.5	-49.1	14.0	5.93e-01	0	28	0	3879731200	56	5090
2026-01-15 07:32:48.37	129.31	59.47	-46.7	-49.5	13.9	5.94e-01	0	28	0	3894411264	56	5280
2026-01-15 07:32:49.36	128.66	60.07	-48.2	-49.3	13.7	5.94e-01	0	28	0	3909091328	59	4370
2026-01-15 07:32:50.34	127.99	60.67	-48.2	-49.3	13.8	5.94e-01	0	28	0	3925868544	59	4359
2026-01-15 07:32:51.34	127.26	61.28	-61.2	-71.0	3.8	7.46e-01	0	28	104	3930062848	85	11847
2026-01-15 07:32:52.34	126.50	61.90	-61.2	-70.9	3.8	7.46e-01	0	28	104	3930062848	85	11810
2026-01-15 07:32:53.33	125.71	62.51	-61.2	-71.0	3.8	7.45e-01	0	28	104	3930062848	85	11884
2026-01-15 07:32:54.32	124.87	63.12	-61.2	-71.0	3.8	7.47e-01	0	28	104	3930062848	85	11833
2026-01-15 07:32:55.31	123.99	63.73	-61.2	-71.0	3.8	7.46e-01	0	28	104	3930062848	85	11828
2026-01-15 07:32:56.31	123.05	64.34	-61.2	-71.0	3.8	7.46e-01	0	28	104	3930062848	85	11869
2026-01-15 07:32:57.31	122.06	64.96	-61.2	-70.9	3.8	7.45e-01	0	28	104	3930062848	85	11817
2026-01-15 07:32:58.30	121.03	65.57	-61.2	-71.0	3.8	7.46e-01	0	28	104	3930062848	85	11882
2026-01-15 07:32:59.30	119.92	66.18	-61.2	-71.0	3.8	7.47e-01	0	28	104	3930062848	85	11866
2026-01-15 07:33:00.30	118.75	66.78	-61.2	-71.0	3.8	7.45e-01	0	28	104	3930062848	85	11876
2026-01-15 07:33:01.30	117.51	67.39	-61.2	-70.9	3.8	7.46e-01	0	28	104	3930062848	85	11805
2026-01-15 07:33:02.28	116.23	67.97	-61.3	-71.0	3.8	7.45e-01	0	28	104	3930062848	85	11879
2026-01-15 07:33:03.28	114.84	68.56	-61.3	-71.0	3.8	7.47e-01	0	28	104	3930062848	85	11878
2026-01-15 07:33:04.27	113.37	69.14	-61.3	-71.0	3.8	7.47e-01	0	28	104	3930062848	85	11926
2026-01-15 07:33:05.27	111.80	69.71	-61.2	-71.0	3.8	7.47e-01	0	28	104	3930062848	85	11913
2026-01-15 07:33:06.27	110.14	70.27	-61.3	-71.0	3.8	7.44e-01	0	28	104	3930062848	85	11938
2026-01-15 07:33:07.27	108.37	70.82	-61.3	-71.0	3.8	7.45e-01	0	28	104	3930062848	85	11950
2026-01-15 07:33:08.26	106.51	71.35	-61.3	-71.1	3.8	7.45e-01	0	28	104	3930062848	85	11989
2026-01-15 07:33:09.25	104.53	71.86	-61.3	-71.0	3.8	7.45e-01	0	28	104	3930062848	85	11925
2026-01-15 07:33:10.24	102.44	72.35	-61.3	-71.0	3.8	7.46e-01	0	28	104	3930062848	85	11929
2026-01-15 07:33:11.24	100.20	72.83	-61.3	-71.1	3.8	7.46e-01	0	28	104	3930062848	85	11983
2026-01-15 07:33:12.24	97.82	73.28	-61.3	-71.1	3.8	7.45e-01	0	29	104	3930062848	85	11983
2026-01-15 07:33:13.24	95.32	73.70	-61.3	-71.1	3.8	7.45e-01	0	28	104	3930062848	85	11958
2026-01-15 07:33:14.24	92.67	74.09	-61.3	-71.1	3.8	7.46e-01	0	28	104	3930062848	85	11985
2026-01-15 07:33:15.23	89.92	74.45	-61.3	-71.1	3.8	7.47e-01	0	29	104	3930062848	85	11999
2026-01-15 07:33:16.23	87.02	74.77	-61.3	-71.1	3.8	7.46e-01	0	28	104	3930062848	85	12012
2026-01-15 07:33:17.22	84.02	75.06	-61.3	-71.0	3.8	7.46e-01	0	28	104	3930062848	85	11936
2026-01-15 07:33:18.21	80.90	75.30	-61.4	-71.2	3.8	7.44e-01	0	28	104	3930062848	85	12109
2026-01-15 07:33:19.20	77.69	75.50	-61.4	-71.2	3.8	7.46e-01	0	28	104	3930062848	85	12116
2026-01-15 07:33:20.20	74.36	75.66	-61.4	-71.2	3.8	7.45e-01	0	28	104	3930062848	85	12106
2026-01-15 07:33:21.20	70.97	75.77	-61.4	-71.1	3.8	7.45e-01	0	28	104	3930062848	85	12026
2026-01-15 07:33:22.20	67.54	75.83	-61.4	-71.2	3.8	7.46e-01	0	28	104	3930062848	85	12098
2026-01-15 07:33:23.19	64.12	75.84	-61.4	-71.2	3.8	7.46e-01	0	28	104	3930062848	86	11502
2026-01-15 07:33:24.18	60.70	75.80	-61.4	-71.2	3.8	7.46e-01	0	28	104	3930062848	86	11512
2026-01-15 07:33:25.18	57.29	75.72	-61.4	-71.2	3.8	7.46e-01	0	28	104	3930062848	86	11423
2026-01-15 07:33:26.17	53.96	75.58	-61.5	-71.2	3.8	7.46e-01	0	28	104	3930062848	86	11476
2026-01-15 07:33:27.15	50.74	75.41	-61.5	-71.2	3.8	7.46e-01	0	28	104	3930062848	86	11510
2026-01-15 07:33:28.15	47.55	75.18	-61.5	-71.2	3.8	7.45e-01	0	28	104	3930062848	86	11474
2026-01-15 07:33:29.15	44.46	74.91	-61.4	-71.2	3.8	7.46e-01	0	29	104	3930062848	86	11458
2026-01-15 07:33:30.14	41.52	74.61	-61.5	-71.2	3.8	7.47e-01	0	28	104	3930062848	86	11502
2026-01-15 07:33:31.14	38.69	74.27	-61.5	-71.2	3.8	7.46e-01	0	28	104	3930062848	86	11519
2026-01-15 07:33:32.14	35.98	73.89	-61.5	-71.2	3.8	7.46e-01	0	28	104	3930062848	86	11533
2026-01-15 07:33:33.13	33.44	73.48	-61.5	-71.2	3.8	7.46e-01	0	28	104	3930062848	86	11507
2026-01-15 07:33:34.12	31.02	73.05	-61.5	-71.3	3.8	7.45e-01	0	28	104	3930062848	86	11618
2026-01-15 07:33:35.11	28.74	72.59	-61.5	-71.3	3.8	7.46e-01	0	28	104	3930062848	86	11572
2026-01-15 07:33:36.10	26.59	72.11	-61.5	-71.3	3.8	7.44e-01	0	28	104	3930062848	86	11624
2026-01-15 07:33:37.09	24.55	71.61	-61.5	-71.2	3.8	7.43e-01	0	28	104	3930062848	86	11501
2026-01-15 07:33:38.09	22.62	71.09	-61.5	-71.3	3.8	7.46e-01	0	28	104	3930062848	86	11579
2026-01-15 07:33:39.09	20.80	70.55	-61.5	-71.3	3.8	7.46e-01	0	28	104	3930062848	86	11571
2026-01-15 07:33:40.08	19.10	70.00	-61.5	-71.3	3.8	7.44e-01	0	28	104	3930062848	86	11563
2026-01-15 07:33:41.07	17.50	69.44	-61.5	-71.2	3.8	7.46e-01	0	28	104	3930062848	86	11541
2026-01-15 07:33:42.06	15.99	68.87	-61.5	-71.3	3.8	7.46e-01	0	28	104	3930062848	86	11553
2026-01-15 07:33:43.06	14.56	68.28	-61.5	-71.2	3.8	7.45e-01	0	28	104	3930062848	86	11539
2026-01-15 07:33:44.05	13.22	67.70	-61.5	-71.3	3.8	7.46e-01	0	28	104	3930062848	86	11574
2026-01-15 07:33:45.05	11.94	67.10	-61.5	-71.2	3.8	7.46e-01	0	28	104	3930062848	86	11532
2026-01-15 07:33:46.04	10.75	66.50	-61.5	-71.3	3.8	7.46e-01	0	28	104	3930062848	86	11583
2026-01-15 07:33:47.04	9.61	65.89	-61.5	-71.3	3.8	7.46e-01	0	28	104	3930062848	86	11569
2026-01-15 07:33:48.04	8.54	65.28	-61.6	-71.3	3.8	7.44e-01	0	28	104	3930062848	86	11645
2026-01-15 07:33:49.03	7.53	64.67	-61.5	-71.3	3.8	7.46e-01	0	28	104	3930062848	86	11572
2026-01-15 07:33:50.02	6.58	64.06	-61.5	-71.3	3.8	7.46e-01	0	28	104	3930062848	86	11590
2026-01-15 07:33:51.02	5.67	63.45	-61.6	-71.3	3.8	7.47e-01	0	29	104	3930062848	86	11629
2026-01-15 07:33:52.02	4.80	62.83	-61.6	-71.3	3.8	7.45e-01	0	28	104	3930062848	86	11662
2026-01-15 07:33:53.02	3.98	62.22	-61.5	-71.3	3.8	7.45e-01	0	28	104	3930062848	86	11578
2026-01-15 07:33:54.01	3.21	61.61	-61.6	-71.3	3.8	7.45e-01	0	28	104	3930062848	86	11580
2026-01-15 07:33:55.00	2.47	61.01	-61.5	-71.3	3.8	7.46e-01	0	28	104	3930062848	86	11592
2026-01-15 07:33:56.00	1.77	60.40	-61.6	-71.3	3.8	7.46e-01	0	28	104	3930062848	86	11633
2026-01-15 07:33:56.99	1.10	59.80	-61.5	-71.3	3.8	7.45e-01	0	28	104	3930062848	86	11560
2026-01-15 07:33:57.99	0.46	59.19	-61.6	-71.3	3.8	7.46e-01	0	28	104	3930062848	86	11636
2026-01-15 07:33:58.99	359.84	58.59	-61.6	-71.3	3.8	7.45e-01	0	28	104	3930062848	86	11606
2026-01-15 07:33:59.98	359.26	58.00	-61.6	-71.3	3.8	7.46e-01	0	28	104	3930062848	86	11645
2026-01-15 07:34:00.97	358.71	57.42	-61.5	-71.3	3.8	7.46e-01	0	28	104	3930062848	86	11574
2026-01-15 07:34:01.97	358.17	56.83	-61.6	-71.3	3.8	7.45e-01	0	29	104	3930062848	86	11672
2026-01-15 07:34:02.97	357.66	56.24	-61.6	-71.3	3.8	7.44e-01	0	28	104	3930062848	86	11592
2026-01-15 07:34:03.97	357.17	55.66	-61.5	-71.3	3.8	7.46e-01	0	28	104	3930062848	86	11623
2026-01-15 07:34:04.97	356.70	55.09	-61.5	-71.3	3.8	7.46e-01	0	29	104	3930062848	86	11560
2026-01-15 07:34:05.96	356.25	54.52	-61.5	-71.3	3.8	7.47e-01	0	28	104	3930062848	86	11565
2026-01-15 07:34:06.95	355.82	53.97	-61.5	-71.3	3.8	7.45e-01	0	28	104	3930062848	86	11609
2026-01-15 07:34:07.94	355.41	53.41	-61.5	-71.3	3.8	7.47e-01	0	29	104	3930062848	86	11578
2026-01-15 07:34:08.94	355.01	52.86	-61.5	-71.2	3.8	7.45e-01	0	28	104	3930062848	86	11539
2026-01-15 07:34:09.93	354.63	52.31	-61.5	-71.3	3.8	7.45e-01	0	28	104	3930062848	86	11563
2026-01-15 07:34:10.93	354.26	51.77	-61.5	-71.3	3.8	7.46e-01	0	28	104	3930062848	86	11557
2026-01-15 07:34:11.92	353.90	51.24	-61.5	-71.3	3.8	7.46e-01	0	28	104	3930062848	86	11570
2026-01-15 07:34:12.92	353.56	50.71	-61.5	-71.2	3.8	7.46e-01	0	28	104	3930062848	86	11510
2026-01-15 07:34:13.93	353.22	50.18	-61.5	-71.2	3.8	7.45e-01	0	28	104	3930062848	86	11530
2026-01-15 07:34:14.92	352.90	49.66	-61.5	-71.2	3.8	7.45e-01	0	28	104	3930062848	86	11509
2026-01-15 07:34:15.92	352.59	49.14	-61.5	-71.3	3.8	7.47e-01	0	28	104	3930062848	86	11557
2026-01-15 07:34:16.92	352.29	48.63	-61.5	-71.2	3.8	7.46e-01	0	28	104	3930062848	86	11474
2026-01-15 07:34:17.91	352.01	48.14	-61.5	-71.2	3.8	7.45e-01	0	28	104	3930062848	86	11497
2026-01-15 07:34:18.91	351.73	47.64	-61.5	-71.2	3.8	7.44e-01	0	28	104	3930062848	86	11470
2026-01-15 07:34:19.90	351.46	47.15	-61.5	-71.2	3.8	7.45e-01	0	28	104	3930062848	86	11509
2026-01-15 07:34:20.90	351.20	46.66	-61.4	-71.2	3.8	7.46e-01	0	28	104	3930062848	86	11461
2026-01-15 07:34:21.90	350.95	46.18	-61.4	-71.2	3.8	7.44e-01	0	28	104	3930062848	86	11471
2026-01-15 07:34:22.90	350.70	45.71	-61.5	-71.2	3.8	7.45e-01	0	28	104	3930062848	86	11491
2026-01-15 07:34:23.90	350.46	45.24	-61.5	-71.2	3.8	7.46e-01	0	28	104	3930062848	86	11517
2026-01-15 07:34:24.89	350.23	44.78	-61.4	-71.2	3.8	7.43e-01	0	28	104	3930062848	86	11441
2026-01-15 07:34:25.88	350.01	44.32	-61.4	-71.2	3.8	7.45e-01	0	28	104	3930062848	86	11444
2026-01-15 07:34:26.88	349.80	43.87	-61.5	-71.2	3.8	7.45e-01	0	28	104	3930062848	86	11517
2026-01-15 07:34:27.87	349.59	43.43	-61.5	-71.2	3.8	7.46e-01	0	28	104	3930062848	86	11482
2026-01-15 07:34:28.87	349.38	42.99	-61.4	-71.2	3.8	7.47e-01	0	29	104	3930062848	86	11424
2026-01-15 07:34:29.87	349.18	42.55	-61.4	-71.2	3.8	7.46e-01	0	28	104	3930062848	86	11463
2026-01-15 07:34:30.87	348.99	42.12	-61.5	-71.2	3.8	7.46e-01	0	28	104	3930062848	86	11488
2026-01-15 07:34:31.86	348.80	41.70	-61.5	-71.2	3.8	7.47e-01	0	28	104	3930062848	86	11459
2026-01-15 07:34:32.86	348.62	41.27	-61.4	-71.2	3.8	7.46e-01	0	28	104	3930062848	86	11452
2026-01-15 07:34:33.85	348.45	40.86	-61.4	-71.2	3.8	7.45e-01	0	29	104	3930062848	86	11453
2026-01-15 07:34:34.84	348.27	40.46	-61.4	-71.2	3.8	7.46e-01	0	28	104	3930062848	86	11470
2026-01-15 07:34:35.83	348.11	40.05	-61.4	-71.2	3.8	7.46e-01	0	29	104	3930062848	86	11420
2026-01-15 07:34:36.82	347.95	39.66	-61.4	-71.2	3.8	7.45e-01	0	28	104	3930062848	86	11437
2026-01-15 07:34:37.82	347.79	39.26	-61.4	-71.1	3.8	7.46e-01	0	28	104	3930062848	86	11414
2026-01-15 07:34:38.81	347.63	38.88	-61.4	-71.1	3.8	7.46e-01	0	29	104	3930062848	86	11358
2026-01-15 07:34:39.80	347.48	38.49	-61.4	-71.2	3.8	7.46e-01	0	29	104	3930062848	86	11419
2026-01-15 07:34:40.79	347.34	38.12	-61.4	-71.2	3.8	7.46e-01	0	28	104	3930062848	86	11426
2026-01-15 07:34:41.78	347.19	37.74	-61.4	-71.1	3.8	7.45e-01	0	28	104	3930062848	86	11375
2026-01-15 07:34:42.77	347.05	37.37	-61.4	-71.2	3.8	7.47e-01	0	28	104	3930062848	86	11461
2026-01-15 07:34:43.76	346.92	37.01	-61.4	-71.1	3.8	7.46e-01	0	28	104	3930062848	86	11355
2026-01-15 07:34:44.75	346.78	36.65	-61.3	-71.1	3.8	7.45e-01	0	28	104	3930062848	86	11330
2026-01-15 07:34:45.75	346.65	36.29	-61.3	-71.1	3.8	7.47e-01	0	28	104	3930062848	86	11327
2026-01-15 07:34:46.73	346.53	35.94	-61.3	-71.1	3.8	7.46e-01	0	28	104	3930062848	86	11325
2026-01-15 07:34:47.72	346.40	35.60	-61.3	-71.1	3.8	7.44e-01	0	28	104	3930062848	86	11295
2026-01-15 07:34:48.72	346.28	35.25	-61.3	-71.0	3.8	7.45e-01	0	28	104	3930062848	86	11283
2026-01-15 07:34:49.71	346.16	34.91	-61.3	-71.1	3.8	7.46e-01	0	29	104	3930062848	86	11291
2026-01-15 07:34:50.72	346.05	34.57	-61.3	-71.1	3.8	7.45e-01	0	29	104	3930062848	86	11315
2026-01-15 07:34:51.71	345.93	34.24	-61.3	-71.1	3.8	7.45e-01	0	29	104	3930062848	86	11324
2026-01-15 07:34:52.69	345.82	33.92	-61.3	-71.1	3.8	7.46e-01	0	28	104	3930062848	86	11304
2026-01-15 07:34:53.68	345.72	33.60	-61.3	-71.0	3.8	7.46e-01	0	28	104	3930062848	86	11253
2026-01-15 07:34:54.68	345.61	33.27	-61.3	-71.0	3.8	7.46e-01	0	28	104	3930062848	86	11260
2026-01-15 07:34:55.67	345.51	32.96	-61.3	-71.0	3.8	7.45e-01	0	28	104	3930062848	86	11224
2026-01-15 07:34:56.67	345.40	32.64	-61.3	-71.0	3.8	7.45e-01	0	28	104	3930062848	86	11247
2026-01-15 07:34:57.67	345.30	32.33	-61.3	-71.0	3.8	7.46e-01	0	28	104	3930062848	86	11223
2026-01-15 07:34:58.65	345.21	32.03	-61.3	-71.0	3.8	7.44e-01	0	28	104	3930062848	86	11226
2026-01-15 07:34:59.64	345.11	31.73	-61.3	-71.0	3.8	7.45e-01	0	29	104	3930062848	86	11244
2026-01-15 07:35:00.64	345.02	31.43	-61.2	-71.0	3.8	7.46e-01	0	28	104	3930062848	86	11220
2026-01-15 07:35:01.63	344.93	31.14	-61.2	-71.0	3.8	7.46e-01	0	28	104	3930062848	86	11211
2026-01-15 07:35:02.62	344.84	30.85	-61.3	-71.0	3.8	7.46e-01	0	28	104	3930062848	86	11212
2026-01-15 07:35:03.62	344.75	30.56	-61.2	-71.0	3.8	7.46e-01	0	28	104	3930062848	86	11179
2026-01-15 07:35:04.61	344.66	30.28	-61.2	-70.9	3.8	7.44e-01	0	29	104	3930062848	86	11144
2026-01-15 07:35:05.60	344.58	30.00	-61.2	-70.9	3.8	7.46e-01	0	28	104	3930062848	86	11153
2026-01-15 07:35:06.60	344.50	29.72	-61.2	-70.9	3.8	7.46e-01	0	28	104	3930062848	86	11140
2026-01-15 07:35:07.59	344.42	29.44	-61.2	-70.9	3.8	7.45e-01	0	29	104	3930062848	86	11153
2026-01-15 07:35:08.60	344.33	29.17	-61.2	-70.9	3.8	7.47e-01	0	28	104	3930062848	86	11139
2026-01-15 07:35:09.60	344.26	28.90	-61.2	-70.9	3.8	7.45e-01	0	29	104	3930062848	86	11107
2026-01-15 07:35:10.59	344.18	28.63	-61.2	-71.0	3.8	7.46e-01	0	28	104	3930062848	86	11169
2026-01-15 07:35:11.59	344.10	28.37	-61.2	-71.0	3.8	7.46e-01	0	28	104	3930062848	86	11165
2026-01-15 07:35:12.59	344.03	28.11	-61.2	-70.9	3.8	7.45e-01	0	28	104	3930062848	86	11058
2026-01-15 07:35:13.58	343.96	27.85	-61.2	-70.9	3.8	7.46e-01	0	28	104	3930062848	86	11072
2026-01-15 07:35:14.58	343.89	27.59	-61.2	-70.9	3.8	7.46e-01	0	29	104	3930062848	86	11143
2026-01-15 07:35:15.57	343.82	27.34	-61.1	-70.9	3.8	7.46e-01	0	29	104	3930062848	86	11069
2026-01-15 07:35:16.56	343.75	27.10	-61.1	-70.9	3.8	7.45e-01	0	28	104	3930062848	86	11071
2026-01-15 07:35:17.56	343.68	26.85	-61.1	-70.9	3.8	7.48e-01	0	28	104	3930062848	86	11062
2026-01-15 07:35:18.55	343.61	26.61	-61.1	-70.9	3.8	7.46e-01	0	28	104	3930062848	86	11037
2026-01-15 07:35:19.54	343.55	26.37	-61.1	-70.9	3.8	7.44e-01	0	28	104	3930062848	86	11072
2026-01-15 07:35:20.53	343.49	26.13	-61.1	-70.9	3.8	7.46e-01	0	29	104	3930062848	86	11045
2026-01-15 07:35:21.52	343.42	25.89	-61.1	-70.8	3.8	7.45e-01	0	28	104	3930062848	86	11017
2026-01-15 07:35:22.52	343.36	25.66	-61.1	-70.8	3.8	7.46e-01	0	28	104	3930062848	86	11029
2026-01-15 07:35:23.51	343.30	25.43	-61.1	-70.8	3.8	7.46e-01	0	28	104	3930062848	86	11017
2026-01-15 07:35:24.50	343.24	25.20	-61.1	-70.8	3.8	7.44e-01	0	28	104	3930062848	86	10992
2026-01-15 07:35:25.49	343.18	24.98	-61.1	-70.8	3.8	7.47e-01	0	28	104	3930062848	86	10954
2026-01-15 07:35:26.49	343.13	24.75	-61.1	-70.8	3.8	7.46e-01	0	28	104	3930062848	86	10950
2026-01-15 07:35:27.48	343.07	24.53	-61.1	-70.8	3.8	7.46e-01	0	29	104	3930062848	86	10950
2026-01-15 07:35:28.48	343.01	24.31	-61.1	-70.8	3.8	7.45e-01	0	28	104	3930062848	86	11004
2026-01-15 07:35:29.47	342.96	24.10	-61.1	-70.8	3.8	7.45e-01	0	28	104	3930062848	86	10967
2026-01-15 07:35:30.47	342.90	23.88	-61.0	-70.8	3.8	7.46e-01	0	28	104	3930062848	86	10961
2026-01-15 07:35:31.45	342.85	23.67	-61.0	-70.8	3.8	7.45e-01	0	28	104	3930062848	86	10949
2026-01-15 07:35:32.45	342.80	23.46	-61.0	-70.8	3.8	7.47e-01	0	28	104	3930062848	86	10922
2026-01-15 07:35:33.44	342.75	23.25	-61.0	-70.8	3.8	7.46e-01	0	28	104	3930062848	86	10921
2026-01-15 07:35:34.44	342.70	23.04	-61.0	-70.8	3.8	7.44e-01	0	28	104	3930062848	86	10911
2026-01-15 07:35:35.43	342.65	22.84	-61.0	-70.8	3.8	7.44e-01	0	28	104	3930062848	86	10906
2026-01-15 07:35:36.42	342.60	22.64	-61.0	-70.7	3.8	7.46e-01	0	29	104	3930062848	86	10898
2026-01-15 07:35:37.42	342.55	22.44	-61.0	-70.7	3.8	7.44e-01	0	28	104	3930062848	86	10847
2026-01-15 07:35:38.40	342.50	22.24	-61.0	-70.7	3.8	7.44e-01	0	28	104	3930062848	86	10867
2026-01-15 07:35:39.40	342.46	22.04	-61.0	-70.7	3.8	7.45e-01	0	29	104	3930062848	86	10889
2026-01-15 07:35:40.39	342.41	21.85	-61.0	-70.7	3.8	7.44e-01	0	28	104	3930062848	86	10850
2026-01-15 07:35:41.38	342.37	21.66	-61.0	-70.7	3.8	7.46e-01	0	28	104	3930062848	86	10840
2026-01-15 07:35:42.37	342.32	21.46	-61.0	-70.7	3.8	7.45e-01	0	28	104	3930062848	86	10894
2026-01-15 07:35:43.36	342.28	21.28	-61.0	-70.7	3.8	7.45e-01	0	29	104	3930062848	86	10828
2026-01-15 07:35:44.35	342.24	21.09	-61.0	-70.7	3.8	7.45e-01	0	28	104	3930062848	86	10810
2026-01-15 07:35:45.35	342.19	20.90	-61.0	-70.7	3.8	7.47e-01	0	29	104	3930062848	86	10828
2026-01-15 07:35:46.35	342.15	20.72	-60.9	-70.6	3.8	7.44e-01	0	28	104	3930062848	86	10776
2026-01-15 07:35:47.34	342.11	20.53	-60.9	-70.7	3.8	7.45e-01	0	28	104	3930062848	86	10812
2026-01-15 07:35:48.33	342.07	20.35	-60.9	-70.7	3.8	7.46e-01	0	28	104	3930062848	86	10803
2026-01-15 07:35:49.33	342.03	20.17	-60.9	-70.7	3.8	7.46e-01	0	28	104	3930062848	86	10784
2026-01-15 07:35:50.33	341.99	20.00	-60.9	-70.7	3.8	7.46e-01	0	28	104	3930062848	86	10794
2026-01-15 07:35:51.32	341.95	19.82	-60.9	-70.6	3.8	7.45e-01	0	28	104	3930062848	86	10773
2026-01-15 07:35:52.31	341.91	19.65	-60.9	-70.6	3.8	7.46e-01	0	29	104	3930062848	86	10746
2026-01-15 07:35:53.31	341.87	19.47	-60.9	-70.6	3.8	7.46e-01	0	28	104	3930062848	86	10777
2026-01-15 07:35:54.30	341.84	19.30	-60.9	-70.6	3.8	7.46e-01	0	28	104	3930062848	86	10726
2026-01-15 07:35:55.29	341.80	19.13	-60.9	-70.6	3.8	7.46e-01	0	28	104	3930062848	86	10726
2026-01-15 07:35:56.28	341.76	18.96	-60.9	-70.6	3.8	7.46e-01	0	29	104	3930062848	86	10710
2026-01-15 07:35:57.29	341.73	18.79	-60.9	-70.6	3.8	7.45e-01	0	28	104	3930062848	86	10741
2026-01-15 07:35:58.28	341.69	18.63	-60.9	-70.6	3.8	7.45e-01	0	29	104	3930062848	86	10708
2026-01-15 07:35:59.27	341.66	18.46	-60.9	-70.6	3.8	7.45e-01	0	28	104	3930062848	86	10691
2026-01-15 07:36:00.26	341.62	18.30	-60.8	-70.6	3.8	7.46e-01	0	28	104	3930062848	86	10688
2026-01-15 07:36:01.26	341.59	18.14	-60.9	-70.6	3.8	7.46e-01	0	29	104	3930062848	86	10712
2026-01-15 07:36:02.26	341.56	17.98	-60.8	-70.6	3.8	7.46e-01	0	29	104	3930062848	86	10701
2026-01-15 07:36:03.25	341.52	17.82	-60.8	-70.6	3.8	7.45e-01	0	29	104	3930062848	86	10659
2026-01-15 07:36:04.24	341.49	17.66	-60.8	-70.5	3.8	7.46e-01	0	28	104	3930062848	86	10643
2026-01-15 07:36:05.24	341.46	17.51	-60.8	-70.6	3.8	7.45e-01	0	28	104	3930062848	86	10693
2026-01-15 07:36:06.24	341.43	17.35	-60.8	-70.5	3.8	7.46e-01	0	28	104	3930062848	86	10642
2026-01-15 07:36:07.24	341.40	17.20	-60.8	-70.5	3.8	7.45e-01	0	29	104	3930062848	86	10649
2026-01-15 07:36:08.23	341.37	17.04	-60.8	-70.5	3.8	7.46e-01	0	29	104	3930062848	86	10627
2026-01-15 07:36:09.23	341.33	16.89	-60.8	-70.6	3.8	7.46e-01	0	28	104	3930062848	86	10673
2026-01-15 07:36:10.22	341.31	16.74	-60.8	-70.5	3.8	7.45e-01	0	28	104	3930062848	86	10631
2026-01-15 07:36:11.22	341.28	16.59	-60.8	-70.6	3.8	7.46e-01	0	29	104	3930062848	86	10660
2026-01-15 07:36:12.21	341.25	16.44	-60.8	-70.5	3.8	7.46e-01	0	29	104	3930062848	86	10588
2026-01-15 07:36:13.20	341.22	16.30	-60.8	-70.5	3.8	7.45e-01	0	28	104	3930062848	86	10588
2026-01-15 07:36:14.20	341.19	16.15	-60.8	-70.5	3.8	7.46e-01	0	28	104	3930062848	86	10572
2026-01-15 07:36:15.20	341.16	16.01	-60.8	-70.5	3.8	7.46e-01	0	28	104	3930062848	86	10600
2026-01-15 07:36:16.18	341.13	15.86	-60.7	-70.5	3.8	7.46e-01	0	28	104	3930062848	86	10562
2026-01-15 07:36:17.18	341.11	15.72	-60.8	-70.5	3.8	7.48e-01	0	28	104	3930062848	86	10585
2026-01-15 07:36:18.17	341.08	15.58	-60.7	-70.4	3.8	7.44e-01	0	29	104	3930062848	86	10531
2026-01-15 07:36:19.17	341.05	15.44	-60.7	-70.5	3.8	7.45e-01	0	29	104	3930062848	86	10540
2026-01-15 07:36:20.16	341.03	15.30	-60.7	-70.5	3.8	7.46e-01	0	28	104	3930062848	86	10551
2026-01-15 07:36:21.15	341.00	15.16	-60.8	-70.5	3.8	7.46e-01	0	28	104	3930062848	86	10588
2026-01-15 07:36:22.15	340.97	15.03	-60.7	-70.4	3.8	7.46e-01	0	28	104	3930062848	86	10495
2026-01-15 07:36:23.14	340.95	14.89	-60.7	-70.4	3.8	7.45e-01	0	28	104	3930062848	86	10516
2026-01-15 07:36:24.13	340.92	14.76	-60.6	-70.4	3.8	7.45e-01	0	28	104	3930062848	85	11053
2026-01-15 07:36:25.12	340.90	14.62	-60.7	-70.4	3.8	7.44e-01	0	29	104	3930062848	85	11038
2026-01-15 07:36:26.12	340.88	14.49	-60.6	-70.4	3.8	7.44e-01	0	29	104	3930062848	85	11037
2026-01-15 07:36:27.11	340.85	14.36	-60.6	-70.4	3.8	7.46e-01	0	29	104	3930062848	85	11063
2026-01-15 07:36:28.11	340.83	14.22	-60.6	-70.3	3.8	7.46e-01	0	28	104	3930062848	85	11014
2026-01-15 07:36:29.11	340.80	14.09	-60.6	-70.3	3.8	7.46e-01	0	29	104	3930062848	85	11014
2026-01-15 07:36:30.10	340.78	13.96	-60.6	-70.3	3.8	7.45e-01	0	28	104	3930062848	85	11014
2026-01-15 07:36:31.09	340.76	13.84	-60.6	-70.3	3.8	7.46e-01	0	28	104	3930062848	85	11016
2026-01-15 07:36:32.08	340.74	13.71	-60.6	-70.3	3.8	7.45e-01	0	28	104	3930062848	85	10962
2026-01-15 07:36:33.08	340.71	13.58	-60.6	-70.3	3.8	7.45e-01	0	28	104	3930062848	85	11016
2026-01-15 07:36:34.07	340.69	13.46	-60.6	-70.3	3.8	7.43e-01	0	29	104	3930062848	85	10942
2026-01-15 07:36:35.07	340.67	13.33	-60.6	-70.3	3.8	7.47e-01	0	28	104	3930062848	85	10958
2026-01-15 07:36:36.06	340.65	13.21	-60.5	-70.3	3.8	7.47e-01	0	29	104	3930062848	85	10934
2026-01-15 07:36:37.06	340.63	13.08	-60.6	-70.3	3.8	7.46e-01	0	28	104	3930062848	85	10965
2026-01-15 07:36:38.06	340.61	12.96	-60.5	-70.3	3.8	7.45e-01	0	29	104	3930062848	85	10925
2026-01-15 07:36:39.06	340.58	12.84	-60.5	-70.3	3.8	7.46e-01	0	28	104	3930062848	85	10951
2026-01-15 07:36:40.05	340.56	12.72	-60.5	-70.2	3.8	7.45e-01	0	29	104	3930062848	85	10889
2026-01-15 07:36:41.04	340.54	12.60	-60.6	-70.3	3.8	7.47e-01	0	28	104	3930062848	85	10947
2026-01-15 07:36:42.03	340.52	12.48	-60.5	-70.2	3.8	7.46e-01	0	28	104	3930062848	85	10872
2026-01-15 07:36:43.03	340.50	12.36	-60.5	-70.2	3.8	7.46e-01	0	28	104	3930062848	85	10897
2026-01-15 07:36:44.02	340.48	12.24	-60.5	-70.2	3.8	7.46e-01	0	28	104	3930062848	85	10850
2026-01-15 07:36:45.02	340.46	12.12	-60.5	-70.3	3.8	7.44e-01	0	28	104	3930062848	85	10911
2026-01-15 07:36:46.02	340.45	12.01	-60.5	-70.2	3.8	7.45e-01	0	28	104	3930062848	85	10890
2026-01-15 07:36:47.01	340.43	11.89	-60.5	-70.2	3.8	7.46e-01	0	28	104	3930062848	85	10834
2026-01-15 07:36:47.99	340.41	11.78	-60.4	-70.2	3.8	7.46e-01	0	29	104	3930062848	85	10826
2026-01-15 07:36:48.98	340.39	11.66	-60.5	-70.3	3.8	7.46e-01	0	28	104	3930062848	85	10906
2026-01-15 07:36:49.96	340.37	11.55	-60.5	-70.2	3.8	7.45e-01	0	28	104	3930062848	85	10823
2026-01-15 07:36:50.95	340.35	11.44	-60.4	-70.1	3.8	7.44e-01	0	29	104	3930062848	85	10768
2026-01-15 07:36:51.94	340.34	11.33	-60.4	-70.2	3.8	7.44e-01	0	28	104	3930062848	85	10787
2026-01-15 07:36:52.94	340.32	11.21	-60.4	-70.2	3.8	7.46e-01	0	28	104	3930062848	85	10854
2026-01-15 07:36:53.93	340.30	11.10	-60.4	-70.2	3.8	7.46e-01	0	28	104	3930062848	85	10781
2026-01-15 07:36:54.92	340.28	10.99	-60.4	-70.1	3.8	7.47e-01	0	29	104	3930062848	85	10727
2026-01-15 07:36:55.91	340.27	10.88	-60.4	-70.1	3.8	7.45e-01	0	28	104	3930062848	85	10723
2026-01-15 07:36:56.90	340.25	10.78	-60.4	-70.2	3.8	7.47e-01	0	29	104	3930062848	85	10805
2026-01-15 07:36:57.89	340.23	10.67	-60.4	-70.1	3.8	7.47e-01	0	28	104	3930062848	85	10711
2026-01-15 07:36:58.88	340.22	10.56	-60.4	-70.1	3.8	7.44e-01	0	28	104	3930062848	85	10698
2026-01-15 07:36:59.87	340.20	10.45	-60.3	-70.0	3.8	7.45e-01	0	28	104	3930062848	85	10642
2026-01-15 07:37:00.86	340.18	10.35	-60.4	-70.2	3.8	7.46e-01	0	28	104	3930062848	85	10808
2026-01-15 07:37:01.85	340.17	10.24	-60.4	-70.1	3.8	7.46e-01	0	29	104	3930062848	85	10666
2026-01-15 07:37:02.85	340.15	10.14	-60.3	-70.1	3.8	7.44e-01	0	29	104	3930062848	85	10678
2026-01-15 07:37:03.84	340.14	10.03	-60.3	-70.0	3.8	7.48e-01	0	28	104	3930062848	85	10623
2026-01-15 07:37:04.82	340.12	9.93	-60.4	-70.1	3.8	7.45e-01	0	29	104	3930062848	85	10739
2026-01-15 07:37:05.82	340.11	9.83	-60.3	-70.1	3.8	7.47e-01	0	28	104	3930062848	85	10672
2026-01-15 07:37:06.81	340.09	9.72	-60.3	-70.0	3.8	7.45e-01	0	28	104	3930062848	85	10638
2026-01-15 07:37:07.80	340.08	9.62	-60.2	-70.0	3.8	7.46e-01	0	28	104	3930062848	85	10578
2026-01-15 07:37:08.79	340.06	9.52	-60.3	-70.1	3.8	7.45e-01	0	28	104	3930062848	85	10667
2026-01-15 07:37:09.79	340.05	9.42	-60.3	-70.0	3.8	7.46e-01	0	28	104	3930062848	85	10623
2026-01-15 07:37:10.79	340.03	9.32	-60.3	-70.0	3.8	7.47e-01	0	28	104	3930062848	85	10556
2026-01-15 07:37:11.78	340.02	9.22	-60.2	-69.9	3.8	7.45e-01	0	28	104	3930062848	85	10515
2026-01-15 07:37:12.77	340.00	9.12	-60.3	-70.0	3.8	7.45e-01	0	28	104	3930062848	85	10603
2026-01-15 07:37:13.76	339.99	9.02	-60.2	-70.0	3.8	7.45e-01	0	28	104	3930062848	85	10579
2026-01-15 07:37:14.75	339.98	8.92	-60.2	-69.9	3.8	7.44e-01	0	28	104	3930062848	85	10530
2026-01-15 07:37:15.74	339.96	8.82	-60.1	-69.9	3.8	7.48e-01	0	28	104	3930062848	84	11078
2026-01-15 07:37:16.73	339.95	8.73	-60.2	-70.0	3.8	7.46e-01	0	29	104	3930062848	84	11208
2026-01-15 07:37:17.72	339.94	8.63	-60.2	-69.9	3.8	7.47e-01	0	28	104	3930062848	84	11110
2026-01-15 07:37:18.71	339.92	8.53	-60.2	-69.9	3.8	7.46e-01	0	28	104	3930062848	84	11091
2026-01-15 07:37:19.71	339.91	8.44	-60.1	-69.8	3.8	7.46e-01	0	28	104	3930062848	84	10993
2026-01-15 07:37:20.71	339.90	8.34	-60.2	-70.0	3.8	7.45e-01	0	29	104	3930062848	84	11179
2026-01-15 07:37:21.71	339.88	8.25	-60.1	-69.9	3.8	7.45e-01	0	29	104	3930062848	84	11069
2026-01-15 07:37:22.71	339.87	8.15	-60.1	-69.8	3.8	7.45e-01	0	28	104	3930062848	84	11023
2026-01-15 07:37:23.70	339.86	8.06	-60.0	-69.8	3.8	7.46e-01	0	28	104	3930062848	84	10909
2026-01-15 07:37:24.70	339.85	7.96	-60.2	-69.9	3.8	7.45e-01	0	28	104	3930062848	84	11047
2026-01-15 07:37:25.69	339.83	7.87	-60.1	-69.8	3.8	7.44e-01	0	28	104	3930062848	84	11014
2026-01-15 07:37:26.69	339.82	7.78	-60.1	-69.8	3.8	7.47e-01	0	28	104	3930062848	84	10980
2026-01-15 07:37:27.69	339.81	7.68	-60.0	-69.7	3.8	7.46e-01	0	28	104	3930062848	84	10870
2026-01-15 07:37:28.68	339.80	7.59	-60.1	-69.9	3.8	7.45e-01	0	28	104	3930062848	84	11047
2026-01-15 07:37:29.68	339.79	7.50	-60.0	-69.8	3.8	7.47e-01	0	28	104	3930062848	84	10925
2026-01-15 07:37:30.67	339.77	7.41	-60.0	-69.7	3.8	7.46e-01	0	29	104	3930062848	84	10887
2026-01-15 07:37:31.67	339.76	7.32	-59.9	-69.7	3.8	7.46e-01	0	29	104	3930062848	84	10787
2026-01-15 07:37:32.66	339.75	7.23	-60.0	-69.7	3.8	7.44e-01	0	29	104	3930062848	84	10901
2026-01-15 07:37:33.65	339.74	7.14	-60.0	-69.7	3.8	7.46e-01	0	28	104	3930062848	84	10841
2026-01-15 07:37:34.65	339.73	7.05	-60.0	-69.7	3.8	7.45e-01	0	28	104	3930062848	84	10806
2026-01-15 07:37:35.64	339.72	6.96	-59.9	-69.6	3.8	7.46e-01	0	28	104	3930062848	84	10751
2026-01-15 07:37:36.62	339.71	6.88	-60.0	-69.7	3.8	7.46e-01	0	29	104	3930062848	84	10816
2026-01-15 07:37:37.61	339.70	6.79	-59.9	-69.6	3.8	7.45e-01	0	29	104	3930062848	84	10768
2026-01-15 07:37:38.60	339.69	6.70	-59.9	-69.6	3.8	7.46e-01	0	29	104	3930062848	84	10754
2026-01-15 07:37:39.60	339.68	6.61	-59.9	-69.6	3.8	7.44e-01	0	29	104	3930062848	84	10754
2026-01-15 07:37:40.58	339.67	6.53	-60.0	-69.7	3.8	7.47e-01	0	28	104	3930062848	84	10787
2026-01-15 07:37:41.57	339.65	6.44	-59.9	-69.6	3.8	7.46e-01	0	28	104	3930062848	84	10759
2026-01-15 07:37:42.56	339.64	6.36	-59.9	-69.6	3.8	7.46e-01	0	28	104	3930062848	84	10764
2026-01-15 07:37:43.55	339.63	6.27	-59.9	-69.6	3.8	7.46e-01	0	29	104	3930062848	84	10673
2026-01-15 07:37:44.55	339.62	6.18	-59.9	-69.6	3.8	7.43e-01	0	29	104	3930062848	84	10763
2026-01-15 07:37:45.54	339.61	6.10	-59.9	-69.6	3.8	7.46e-01	0	28	104	3930062848	84	10725
2026-01-15 07:37:46.54	339.60	6.01	-59.9	-69.6	3.8	7.46e-01	0	28	104	3930062848	84	10733
2026-01-15 07:37:47.53	339.60	5.93	-59.8	-69.5	3.8	7.46e-01	0	29	104	3930062848	84	10641
2026-01-15 07:37:48.51	339.59	5.85	-59.9	-69.6	3.8	7.43e-01	0	28	104	3930062848	84	10717
2026-01-15 07:37:49.51	339.58	5.76	-59.9	-69.6	3.8	7.45e-01	0	28	104	3930062848	84	10709
2026-01-15 07:37:50.50	339.57	5.68	-59.8	-69.5	3.8	7.45e-01	0	29	104	3930062848	84	10630
2026-01-15 07:37:51.49	339.56	5.60	-59.7	-69.4	3.8	7.47e-01	0	28	104	3930062848	84	10532
2026-01-15 07:37:52.48	339.55	5.52	-59.8	-69.5	3.8	7.46e-01	0	29	104	3930062848	84	10650
2026-01-15 07:37:53.47	339.54	5.44	-59.8	-69.5	3.8	7.47e-01	0	29	104	3930062848	84	10654
2026-01-15 07:37:54.47	339.53	5.35	-59.8	-69.5	3.8	7.45e-01	0	29	104	3930062848	84	10563
2026-01-15 07:37:55.46	339.52	5.27	-59.7	-69.4	3.8	7.44e-01	0	28	104	3930062848	84	10505
2026-01-15 07:37:56.45	339.51	5.19	-59.6	-69.3	3.8	7.46e-01	0	28	104	3930062848	83	10982
2026-01-15 07:37:57.44	339.50	5.11	-59.6	-69.4	3.8	7.45e-01	0	29	104	3930062848	83	11034
2026-01-15 07:37:58.44	339.49	5.03	-59.6	-69.3	3.8	7.45e-01	0	28	104	3930062848	83	10982
2026-01-15 07:37:59.43	339.49	4.95	-60.0	-69.7	3.8	7.45e-01	0	29	104	3930062848	83	11474
2026-01-15 07:38:00.44	339.48	4.87	-60.4	-70.1	3.8	7.46e-01	0	29	104	3930062848	83	12011
2026-01-15 07:38:01.45	339.47	4.79	-60.7	-70.5	3.8	7.45e-01	0	28	104	3930062848	84	11896
2026-01-15 07:38:02.46	339.46	4.71	-60.9	-70.6	3.8	7.44e-01	0	29	104	3930062848	84	12077
2026-01-15 07:38:03.46	339.45	4.63	-61.1	-70.8	3.8	7.47e-01	0	28	104	3930062848	85	11629
2026-01-15 07:38:04.46	339.44	4.55	-61.2	-70.9	3.8	7.45e-01	0	29	104	3930062848	85	11808
2026-01-15 07:38:05.47	339.44	4.47	-61.3	-71.0	3.8	7.44e-01	0	29	104	3930062848	85	11912
2026-01-15 07:38:06.48	339.43	4.39	-61.4	-71.1	3.8	7.47e-01	0	29	104	3930062848	85	12051
2026-01-15 07:38:07.48	339.42	4.31	-61.5	-71.3	3.8	7.44e-01	0	29	104	3930062848	86	11550
2026-01-15 07:38:08.49	339.41	4.24	-61.5	-71.3	3.8	7.45e-01	0	28	104	3930062848	86	11586
2026-01-15 07:38:09.50	339.40	4.16	-61.6	-71.3	3.8	7.45e-01	0	29	104	3930062848	86	11650
2026-01-15 07:38:10.51	339.40	4.08	-61.6	-71.3	3.8	7.45e-01	0	28	104	3930062848	86	11657
2026-01-15 07:38:11.51	339.39	4.00	-61.6	-71.4	3.8	7.45e-01	0	29	104	3930062848	86	11720
2026-01-15 07:38:12.51	339.38	3.93	-61.6	-71.3	3.8	7.47e-01	0	29	104	3930062848	86	11676
2026-01-15 07:38:13.51	339.37	3.85	-61.6	-71.4	3.8	7.44e-01	0	29	104	3930062848	86	11761
2026-01-15 07:38:14.51	339.37	3.77	-61.7	-71.4	3.8	7.45e-01	0	29	104	3930062848	86	11799
2026-01-15 07:38:15.50	339.36	3.70	-61.7	-71.4	3.8	7.47e-01	0	29	104	3930062848	86	11774
2026-01-15 07:38:16.51	339.35	3.62	-61.7	-71.4	3.8	7.44e-01	0	29	104	3930062848	86	11814
2026-01-15 07:38:17.50	339.34	3.55	-61.7	-71.5	3.8	7.46e-01	0	28	104	3930062848	86	11833
2026-01-15 07:38:18.49	339.34	3.47	-61.7	-71.4	3.8	7.46e-01	0	29	104	3930062848	86	11813
2026-01-15 07:38:19.49	339.33	3.40	-61.7	-71.5	3.8	7.46e-01	0	29	104	3930062848	86	11844
2026-01-15 07:38:20.48	339.32	3.33	-61.7	-71.5	3.8	7.45e-01	0	28	104	3930062848	86	11863
2026-01-15 07:38:21.47	339.32	3.25	-61.7	-71.4	3.8	7.46e-01	0	29	104	3930062848	86	11798
2026-01-15 07:38:22.47	339.31	3.18	-61.6	-71.4	3.8	7.45e-01	0	29	104	3930062848	86	11727
2026-01-15 07:38:23.46	339.30	3.11	-61.6	-71.4	3.8	7.45e-01	0	28	104	3930062848	86	11694
2026-01-15 07:38:24.45	339.30	3.03	-61.6	-71.4	3.8	7.46e-01	0	29	104	3930062848	86	11691
2026-01-15 07:38:25.44	339.29	2.96	-61.6	-71.4	3.8	7.44e-01	0	28	104	3930062848	86	11697
2026-01-15 07:38:26.44	339.28	2.89	-61.6	-71.3	3.8	7.47e-01	0	29	104	3930062848	86	11662
2026-01-15 07:38:27.44	339.28	2.82	-61.6	-71.3	3.8	7.47e-01	0	28	104	3930062848	86	11642
2026-01-15 07:38:28.43	339.27	2.74	-61.5	-71.3	3.8	7.45e-01	0	29	104	3930062848	86	11582
2026-01-15 07:38:29.42	339.27	2.67	-61.5	-71.3	3.8	7.44e-01	0	29	104	3930062848	86	11550
2026-01-15 07:38:30.42	339.26	2.60	-61.5	-71.3	3.8	7.45e-01	0	29	104	3930062848	86	11603
2026-01-15 07:38:31.41	339.25	2.53	-61.5	-71.3	3.8	7.46e-01	0	28	104	3930062848	86	11596
2026-01-15 07:38:32.41	339.25	2.46	-61.5	-71.3	3.8	7.46e-01	0	28	104	3930062848	86	11551
2026-01-15 07:38:33.41	339.24	2.39	-61.5	-71.2	3.8	7.44e-01	0	28	104	3930062848	86	11538
2026-01-15 07:38:34.40	339.24	2.32	-61.5	-71.2	3.8	7.46e-01	0	28	104	3930062848	86	11491
2026-01-15 07:38:35.40	339.23	2.25	-61.5	-71.3	3.8	7.46e-01	0	29	104	3930062848	86	11564
2026-01-15 07:38:36.39	339.22	2.18	-61.5	-71.2	3.8	7.45e-01	0	28	104	3930062848	86	11509
2026-01-15 07:38:37.38	339.22	2.11	-61.5	-71.2	3.8	7.46e-01	0	28	104	3930062848	86	11527
2026-01-15 07:38:38.38	339.21	2.04	-61.5	-71.3	3.8	7.46e-01	0	29	104	3930062848	86	11570
2026-01-15 07:38:39.37	339.21	1.97	-61.5	-71.2	3.8	7.46e-01	0	28	104	3930062848	86	11471
2026-01-15 07:38:40.36	339.20	1.90	-61.4	-71.2	3.8	7.45e-01	0	29	104	3930062848	86	11436
2026-01-15 07:38:41.35	339.20	1.83	-61.4	-71.2	3.8	7.45e-01	0	29	104	3930062848	86	11455

#Closed at: 2026-01-15 07:38:41
#Recorded file [3930 MB]: D:/lorett/data/31004_260115_102809.dat