passes_logs/2026/01/15/R3.2S_Murmansk/R3.2S_Murmansk__20260115_213140_SUOMI_NPP_rec.log

#Pass ID: 20260115_213140_SUOMI NPP
#Satellite: SUOMI NPP
#Configuration: NPP
#almurnet v.1.7.20251203
#Start time: 2026-01-15 21:31:42

#Version: 2.2.20231116
#Station: R3.2S_Murmansk
#Location: 33.079688 lon 68.888172 lat
#TLE: 1 37849U 11061A   26015.52691075  .00000052  00000+0  45753-4 0  9993
#TLE: 2 37849  98.7811 317.5709 0002448  62.7632 297.3794 14.19525354736784

#Time	Az	El	Level	Level2	SNR	BER	BlckErr	Temp	State	Recorded	gain1	gain2
2026-01-15 21:31:42.20	18.63	2.09	-56.4	-71.2	3.8	1.49e+00	0	41	0	0	84	19746
2026-01-15 21:31:43.19	18.73	2.14	-56.2	-71.1	3.8	1.49e+00	0	41	104	0	83	20684
2026-01-15 21:31:44.20	18.82	2.18	-56.3	-71.2	3.8	1.49e+00	0	41	104	0	83	20782
2026-01-15 21:31:45.21	18.92	2.23	-56.2	-71.2	3.8	1.49e+00	0	41	104	0	83	20814
2026-01-15 21:31:46.22	19.01	2.28	-56.3	-71.2	3.8	1.49e+00	0	41	104	0	83	20819
2026-01-15 21:31:47.23	19.11	2.32	-56.3	-71.2	3.8	1.49e+00	0	41	104	0	83	20919
2026-01-15 21:31:48.24	19.21	2.37	-56.3	-71.2	3.8	1.49e+00	0	41	104	0	83	20924
2026-01-15 21:31:49.25	19.31	2.42	-56.3	-71.2	3.8	1.49e+00	0	41	104	0	83	20847
2026-01-15 21:31:50.26	19.40	2.47	-56.3	-71.2	3.8	1.49e+00	0	41	104	0	83	20838
2026-01-15 21:31:51.27	19.50	2.51	-56.3	-71.2	3.8	1.49e+00	0	41	104	0	83	20885
2026-01-15 21:31:52.28	19.60	2.56	-56.3	-71.2	3.8	1.49e+00	0	41	104	0	83	20909
2026-01-15 21:31:53.29	19.70	2.61	-56.3	-71.2	3.8	1.49e+00	0	41	104	0	83	20904
2026-01-15 21:31:54.30	19.80	2.65	-56.3	-71.2	3.8	1.49e+00	0	41	104	0	83	20859
2026-01-15 21:31:55.31	19.89	2.70	-56.3	-71.2	3.8	1.49e+00	0	41	104	0	83	20883
2026-01-15 21:31:56.32	19.99	2.75	-56.3	-71.2	3.8	1.49e+00	0	41	104	0	83	20858
2026-01-15 21:31:57.33	20.09	2.79	-56.3	-71.2	3.8	1.49e+00	0	41	104	0	83	20939
2026-01-15 21:31:58.34	20.19	2.84	-56.3	-71.2	3.8	1.49e+00	0	41	104	0	83	20864
2026-01-15 21:31:59.35	20.29	2.89	-56.3	-71.2	3.8	1.49e+00	0	41	104	0	83	20968
2026-01-15 21:32:00.36	20.39	2.93	-56.3	-71.2	3.8	1.49e+00	0	42	104	0	83	20888
2026-01-15 21:32:01.37	20.49	2.98	-56.3	-71.2	3.8	1.49e+00	0	41	104	0	83	20914
2026-01-15 21:32:02.38	20.59	3.03	-56.3	-71.2	3.8	1.49e+00	0	41	104	0	83	20976
2026-01-15 21:32:03.39	20.70	3.08	-56.3	-71.2	3.8	1.49e+00	0	42	104	0	83	20859
2026-01-15 21:32:04.40	20.80	3.12	-56.3	-71.2	3.8	1.49e+00	0	42	104	0	83	20840
2026-01-15 21:32:05.41	20.90	3.17	-56.3	-71.1	3.8	1.49e+00	0	42	104	0	83	20733
2026-01-15 21:32:06.42	21.00	3.22	-56.3	-71.1	3.8	1.49e+00	0	42	104	0	83	20621
2026-01-15 21:32:07.43	21.10	3.26	-56.2	-71.1	3.8	1.49e+00	0	42	104	0	83	20555
2026-01-15 21:32:08.44	21.21	3.31	-56.3	-71.0	3.8	1.49e+00	0	42	104	0	83	20527
2026-01-15 21:32:09.45	21.31	3.36	-56.3	-71.1	3.8	1.49e+00	0	42	104	0	83	20634
2026-01-15 21:32:10.46	21.41	3.41	-56.2	-71.2	3.8	1.49e+00	0	42	104	0	83	20862
2026-01-15 21:32:11.47	21.52	3.45	-56.3	-71.2	3.8	1.49e+00	0	42	104	0	83	20951
2026-01-15 21:32:12.48	21.62	3.50	-56.3	-71.2	3.8	1.49e+00	0	42	104	0	83	20918
2026-01-15 21:32:13.49	21.73	3.55	-56.3	-71.2	3.8	1.49e+00	0	42	104	0	83	20785
2026-01-15 21:32:14.50	21.83	3.59	-56.3	-71.2	3.8	1.49e+00	0	42	104	0	83	20832
2026-01-15 21:32:15.51	21.94	3.64	-56.2	-71.2	3.8	1.49e+00	0	42	104	0	83	20861
2026-01-15 21:32:16.52	22.04	3.69	-56.3	-71.2	3.8	1.49e+00	0	42	104	0	83	20805
2026-01-15 21:32:17.53	22.15	3.73	-56.3	-71.2	3.8	1.49e+00	0	43	104	0	83	20941
2026-01-15 21:32:18.54	22.25	3.78	-56.2	-71.2	3.8	1.49e+00	0	43	104	0	83	20924
2026-01-15 21:32:19.55	22.36	3.83	-56.3	-71.2	3.8	1.49e+00	0	42	104	0	83	20844
2026-01-15 21:32:20.56	22.47	3.88	-56.3	-71.0	3.8	1.49e+00	0	42	104	0	83	20537
2026-01-15 21:32:21.57	22.57	3.92	-56.3	-71.1	3.8	1.49e+00	0	43	104	0	83	20693
2026-01-15 21:32:22.58	22.68	3.97	-56.2	-71.0	3.8	1.49e+00	0	43	104	0	83	20456
2026-01-15 21:32:23.59	22.79	4.02	-56.2	-71.1	3.8	1.49e+00	0	43	104	0	83	20547
2026-01-15 21:32:24.60	22.90	4.06	-56.2	-71.0	3.8	1.49e+00	0	43	104	0	83	20509
2026-01-15 21:32:25.61	23.00	4.11	-56.3	-71.1	3.8	1.49e+00	0	43	104	0	83	20764
2026-01-15 21:32:26.62	23.11	4.16	-56.2	-71.2	3.8	1.49e+00	0	43	104	0	83	20811
2026-01-15 21:32:27.63	23.22	4.21	-56.2	-71.1	3.8	1.49e+00	0	43	104	0	83	20640
2026-01-15 21:32:28.64	23.33	4.25	-56.2	-70.8	3.8	1.49e+00	0	43	104	0	83	19933
2026-01-15 21:32:29.65	23.44	4.30	-56.2	-70.7	3.8	1.49e+00	0	43	104	0	83	19735
2026-01-15 21:32:30.66	23.55	4.35	-56.2	-70.9	3.8	1.49e+00	0	43	104	0	83	20109
2026-01-15 21:32:31.67	23.66	4.40	-56.2	-70.8	3.8	1.49e+00	0	43	104	0	83	20001
2026-01-15 21:32:32.68	23.77	4.44	-56.3	-71.0	3.8	1.49e+00	0	43	104	0	83	20434
2026-01-15 21:32:33.69	23.88	4.49	-56.2	-71.0	3.8	1.49e+00	0	43	104	0	83	20491
2026-01-15 21:32:34.70	23.99	4.54	-56.2	-70.5	3.8	1.49e+00	0	43	104	0	83	19248
2026-01-15 21:32:35.71	24.11	4.58	-56.1	-68.7	3.8	1.49e+00	0	43	104	0	83	15645
2026-01-15 21:32:36.72	24.22	4.63	-55.9	-66.0	4.8	1.20e+00	0	43	0	0	83	11437
2026-01-15 21:32:37.73	24.33	4.68	-55.7	-64.6	5.6	5.31e-01	0	43	0	2097152	83	9752
2026-01-15 21:32:38.74	24.44	4.73	-55.6	-63.7	6.4	2.60e-01	0	43	0	4194304	83	8767
2026-01-15 21:32:39.75	24.56	4.77	-55.4	-62.7	7.2	1.67e-01	0	43	0	6291456	82	8325
2026-01-15 21:32:40.76	24.67	4.82	-55.2	-61.8	8.1	7.56e-02	0	43	0	8388608	82	7490
2026-01-15 21:32:41.77	24.78	4.87	-55.1	-61.4	8.5	6.67e-02	0	43	0	9437184	82	7139
2026-01-15 21:32:42.78	24.90	4.91	-55.0	-61.0	9.0	1.72e-02	0	44	0	11534336	81	7207
2026-01-15 21:32:43.79	25.01	4.96	-55.1	-61.3	8.6	5.14e-02	0	44	0	13631488	81	7502
2026-01-15 21:32:44.80	25.13	5.01	-55.2	-61.9	7.9	7.34e-02	0	44	0	15728640	81	8055
2026-01-15 21:32:45.81	25.24	5.05	-55.5	-62.8	7.3	4.72e-02	0	44	0	17825792	81	8913
2026-01-15 21:32:46.82	25.36	5.10	-55.5	-66.6	4.4	4.66e-01	59	44	0	18874368	81	13870
2026-01-15 21:32:47.82	25.47	5.15	-54.0	-57.9	12.3	9.14e-01	0	44	0	20971520	80	5356
2026-01-15 21:32:48.83	25.59	5.20	-52.8	-55.4	15.1	7.60e-06	0	44	0	22020096	77	4791
2026-01-15 21:32:49.84	25.71	5.24	-55.6	-62.8	7.6	9.72e-04	0	44	0	24117248	81	8919
2026-01-15 21:32:50.85	25.82	5.29	-52.7	-55.3	15.2	7.60e-02	0	44	0	26214400	77	4744
2026-01-15 21:32:51.86	25.94	5.34	-52.5	-55.0	15.5	0.00e+00	0	44	0	28311552	77	4591
2026-01-15 21:32:52.87	26.06	5.38	-52.4	-54.8	15.7	0.00e+00	0	44	0	30408704	76	4719
2026-01-15 21:32:53.88	26.18	5.43	-52.2	-54.5	16.1	0.00e+00	0	44	0	31457280	76	4561
2026-01-15 21:32:54.89	26.29	5.48	-52.3	-54.7	15.9	0.00e+00	0	44	0	33554432	76	4655
2026-01-15 21:32:55.90	26.41	5.52	-52.7	-55.3	15.3	0.00e+00	0	44	0	35651584	76	5019
2026-01-15 21:32:56.91	26.53	5.57	-52.3	-54.8	15.9	0.00e+00	0	44	0	37748736	76	4713
2026-01-15 21:32:57.91	26.65	5.62	-52.4	-54.9	15.7	0.00e+00	0	44	0	39845888	76	4770
2026-01-15 21:32:58.93	26.77	5.67	-52.6	-55.2	15.5	0.00e+00	0	44	0	40894464	76	4934
2026-01-15 21:32:59.93	26.89	5.71	-52.6	-55.2	15.5	0.00e+00	0	44	0	42991616	76	4946
2026-01-15 21:33:00.94	27.01	5.76	-52.4	-54.8	15.9	0.00e+00	0	44	0	45088768	76	4746
2026-01-15 21:33:01.95	27.13	5.81	-52.9	-55.6	15.1	0.00e+00	0	44	0	47185920	76	5175
2026-01-15 21:33:02.96	27.25	5.85	-52.7	-55.3	15.4	0.00e+00	0	44	0	49283072	76	5009
2026-01-15 21:33:03.97	27.38	5.90	-52.3	-54.6	16.0	0.00e+00	0	44	0	50331648	76	4624
2026-01-15 21:33:04.98	27.50	5.95	-52.0	-54.2	16.4	0.00e+00	0	44	0	52428800	76	4437
2026-01-15 21:33:05.99	27.62	5.99	-52.2	-54.5	16.2	0.00e+00	0	44	0	54525952	75	4819
2026-01-15 21:33:07.00	27.74	6.04	-52.3	-54.6	16.1	0.00e+00	0	44	0	56623104	75	4905
2026-01-15 21:33:08.01	27.87	6.09	-51.9	-54.1	16.6	0.00e+00	0	44	0	58720256	75	4611
2026-01-15 21:33:09.02	27.99	6.13	-51.6	-53.6	17.1	0.00e+00	0	44	0	60817408	75	4354
2026-01-15 21:33:10.03	28.11	6.18	-51.7	-53.8	17.0	0.00e+00	0	44	0	61865984	74	4720
2026-01-15 21:33:11.03	28.24	6.23	-52.1	-54.3	16.4	0.00e+00	0	44	0	63963136	74	5001
2026-01-15 21:33:12.04	28.36	6.27	-51.3	-53.2	17.4	0.00e+00	0	44	0	66060288	74	4441
2026-01-15 21:33:13.05	28.49	6.32	-51.6	-53.5	17.2	0.00e+00	0	45	0	68157440	74	4594
2026-01-15 21:33:14.06	28.61	6.37	-51.8	-53.9	16.9	0.00e+00	0	44	0	69206016	74	4765
2026-01-15 21:33:15.07	28.74	6.41	-51.6	-53.6	17.1	0.00e+00	0	45	0	71303168	74	4650
2026-01-15 21:33:16.08	28.87	6.46	-51.1	-53.0	17.7	0.00e+00	0	44	0	73400320	74	4295
2026-01-15 21:33:17.09	28.99	6.50	-51.9	-54.0	16.7	0.00e+00	0	44	0	75497472	74	4835
2026-01-15 21:33:18.10	29.12	6.55	-51.6	-53.7	17.1	0.00e+00	0	44	0	77594624	74	4671
2026-01-15 21:33:19.11	29.25	6.60	-51.8	-53.9	16.9	0.00e+00	0	44	0	79691776	74	4793
2026-01-15 21:33:20.12	29.37	6.64	-51.6	-53.6	17.1	0.00e+00	0	44	0	80740352	74	4648
2026-01-15 21:33:21.13	29.50	6.69	-51.6	-53.6	17.2	0.00e+00	0	45	0	82837504	74	4630
2026-01-15 21:33:22.14	29.63	6.74	-51.6	-53.6	17.1	0.00e+00	0	45	0	84934656	74	4615
2026-01-15 21:33:23.15	29.76	6.78	-51.3	-53.2	17.6	0.00e+00	0	45	0	87031808	74	4402
2026-01-15 21:33:24.16	29.89	6.83	-51.6	-53.5	17.2	0.00e+00	0	45	0	89128960	74	4594
2026-01-15 21:33:25.17	30.02	6.88	-51.5	-53.5	17.3	0.00e+00	0	45	0	90177536	74	4553
2026-01-15 21:33:26.18	30.15	6.92	-51.1	-53.0	17.7	0.00e+00	0	45	0	92274688	74	4299
2026-01-15 21:33:27.19	30.28	6.97	-51.4	-53.3	17.4	0.00e+00	0	45	0	94371840	74	4465
2026-01-15 21:33:28.20	30.41	7.01	-51.9	-54.0	16.7	0.00e+00	0	45	0	96468992	74	4868
2026-01-15 21:33:29.20	30.54	7.06	-51.8	-53.8	17.0	0.00e+00	0	45	0	98566144	74	4738
2026-01-15 21:33:30.21	30.67	7.11	-51.6	-53.5	17.3	0.00e+00	0	45	0	99614720	74	4590
2026-01-15 21:33:31.23	30.81	7.15	-51.4	-53.3	17.5	0.00e+00	0	45	0	101711872	74	4483
2026-01-15 21:33:32.23	30.94	7.20	-51.9	-54.0	16.9	0.00e+00	0	45	0	103809024	74	4847
2026-01-15 21:33:33.25	31.07	7.24	-51.7	-53.8	17.1	0.00e+00	0	45	0	105906176	74	4716
2026-01-15 21:33:34.26	31.21	7.29	-51.6	-53.6	17.3	0.00e+00	0	45	0	108003328	74	4617
2026-01-15 21:33:35.26	31.34	7.33	-51.7	-53.7	17.1	0.00e+00	0	45	0	109051904	74	4680
2026-01-15 21:33:36.27	31.47	7.38	-51.7	-53.7	17.2	0.00e+00	0	45	0	111149056	74	4679
2026-01-15 21:33:37.28	31.61	7.43	-51.8	-53.8	17.0	0.00e+00	0	45	0	113246208	74	4727
2026-01-15 21:33:38.29	31.74	7.47	-51.8	-53.9	17.0	0.00e+00	0	45	0	115343360	74	4790
2026-01-15 21:33:39.30	31.88	7.52	-52.0	-54.1	16.8	0.00e+00	0	45	0	117440512	74	4906
2026-01-15 21:33:40.31	32.01	7.56	-51.9	-54.0	16.9	0.00e+00	0	45	0	118489088	74	4845
2026-01-15 21:33:41.32	32.15	7.61	-51.5	-53.4	17.4	0.00e+00	0	45	0	120586240	74	4522
2026-01-15 21:33:42.33	32.29	7.65	-51.7	-53.6	17.3	0.00e+00	0	45	0	122683392	74	4646
2026-01-15 21:33:43.33	32.42	7.70	-51.9	-54.0	17.0	0.00e+00	0	45	0	124780544	74	4828
2026-01-15 21:33:44.34	32.56	7.74	-51.9	-54.0	17.0	0.00e+00	0	45	0	126877696	74	4823
2026-01-15 21:33:45.35	32.70	7.79	-51.9	-54.0	16.9	0.00e+00	0	45	0	127926272	74	4841
2026-01-15 21:33:46.36	32.84	7.83	-52.2	-54.4	16.6	0.00e+00	0	45	0	130023424	74	5046
2026-01-15 21:33:47.37	32.97	7.88	-52.3	-54.6	16.4	0.00e+00	0	45	0	132120576	75	4893
2026-01-15 21:33:48.38	33.11	7.92	-52.2	-54.4	16.6	0.00e+00	0	45	0	134217728	75	4801
2026-01-15 21:33:49.39	33.25	7.97	-52.4	-54.6	16.4	0.00e+00	0	45	0	136314880	75	4902
2026-01-15 21:33:50.40	33.39	8.01	-52.0	-54.0	16.9	0.00e+00	0	46	0	138412032	75	4592
2026-01-15 21:33:51.41	33.53	8.06	-52.0	-54.1	16.8	0.00e+00	0	45	0	139460608	75	4626
2026-01-15 21:33:52.42	33.67	8.10	-51.9	-53.9	17.0	0.00e+00	0	45	0	141557760	75	4534
2026-01-15 21:33:53.43	33.82	8.15	-51.7	-53.7	17.3	0.00e+00	0	45	0	143654912	75	4421
2026-01-15 21:33:54.44	33.96	8.19	-51.9	-53.9	17.1	0.00e+00	0	45	0	145752064	75	4523
2026-01-15 21:33:55.45	34.10	8.24	-51.7	-53.6	17.3	0.00e+00	0	45	0	146800640	75	4377
2026-01-15 21:33:56.46	34.24	8.28	-51.5	-53.4	17.5	0.00e+00	0	45	0	148897792	75	4279
2026-01-15 21:33:57.47	34.38	8.33	-51.5	-53.4	17.6	0.00e+00	0	45	0	150994944	74	4494
2026-01-15 21:33:58.48	34.53	8.37	-51.6	-53.5	17.4	0.00e+00	0	45	0	153092096	74	4584
2026-01-15 21:33:59.49	34.67	8.42	-51.7	-53.7	17.3	0.00e+00	0	45	0	155189248	74	4669
2026-01-15 21:34:00.50	34.82	8.46	-51.9	-53.9	17.1	0.00e+00	0	45	0	157286400	74	4805
2026-01-15 21:34:01.50	34.96	8.50	-51.9	-53.9	17.1	0.00e+00	0	45	0	158334976	74	4813
2026-01-15 21:34:02.51	35.10	8.55	-51.7	-53.6	17.4	0.00e+00	0	46	0	160432128	74	4634
2026-01-15 21:34:03.53	35.25	8.59	-51.7	-53.7	17.2	0.00e+00	0	45	0	162529280	74	4678
2026-01-15 21:34:04.53	35.39	8.64	-51.8	-53.8	17.3	0.00e+00	0	45	0	164626432	74	4729
2026-01-15 21:34:05.54	35.54	8.68	-51.6	-53.5	17.5	0.00e+00	0	46	0	166723584	74	4570
2026-01-15 21:34:06.55	35.69	8.72	-51.6	-53.6	17.4	0.00e+00	0	45	0	167772160	74	4617
2026-01-15 21:34:07.56	35.83	8.77	-51.6	-53.5	17.4	0.00e+00	0	46	0	169869312	74	4580
2026-01-15 21:34:08.57	35.98	8.81	-51.6	-53.6	17.4	0.00e+00	0	46	0	171966464	74	4609
2026-01-15 21:34:09.58	36.13	8.85	-51.8	-53.7	17.2	0.00e+00	0	46	0	174063616	74	4697
2026-01-15 21:34:10.59	36.28	8.90	-51.8	-53.8	17.2	0.00e+00	0	46	0	175112192	74	4729
2026-01-15 21:34:11.60	36.43	8.94	-51.6	-53.5	17.5	0.00e+00	0	46	0	177209344	74	4566
2026-01-15 21:34:12.61	36.58	8.98	-51.7	-53.7	17.3	0.00e+00	0	46	0	179306496	74	4689
2026-01-15 21:34:13.62	36.73	9.03	-51.9	-53.9	17.2	0.00e+00	0	46	0	181403648	74	4764
2026-01-15 21:34:14.63	36.88	9.07	-51.8	-53.8	17.1	0.00e+00	0	46	0	183500800	74	4759
2026-01-15 21:34:15.64	37.03	9.11	-51.8	-53.9	17.2	0.00e+00	0	46	0	185597952	74	4762
2026-01-15 21:34:16.65	37.18	9.16	-52.0	-54.0	17.1	0.00e+00	0	46	0	186646528	74	4849
2026-01-15 21:34:17.66	37.33	9.20	-51.9	-53.9	17.2	0.00e+00	0	46	0	188743680	74	4781
2026-01-15 21:34:18.67	37.48	9.24	-51.8	-53.7	17.3	0.00e+00	0	46	0	190840832	74	4687
2026-01-15 21:34:19.67	37.63	9.28	-51.6	-53.5	17.5	0.00e+00	0	46	0	192937984	74	4571
2026-01-15 21:34:20.68	37.78	9.33	-51.7	-53.7	17.4	0.00e+00	0	46	0	195035136	74	4654
2026-01-15 21:34:21.69	37.94	9.37	-51.6	-53.5	17.4	0.00e+00	0	46	0	196083712	74	4587
2026-01-15 21:34:22.70	38.09	9.41	-51.8	-53.7	17.3	0.00e+00	0	46	0	198180864	74	4687
2026-01-15 21:34:23.71	38.25	9.45	-51.8	-53.8	17.2	0.00e+00	0	46	0	200278016	74	4717
2026-01-15 21:34:24.72	38.40	9.50	-52.0	-54.1	17.0	0.00e+00	0	46	0	202375168	74	4888
2026-01-15 21:34:25.73	38.55	9.54	-51.9	-53.9	17.1	0.00e+00	0	46	0	204472320	74	4808
2026-01-15 21:34:26.74	38.71	9.58	-52.1	-54.1	17.0	0.00e+00	0	46	0	205520896	74	4917
2026-01-15 21:34:27.75	38.87	9.62	-52.1	-54.2	16.9	0.00e+00	0	46	0	207618048	74	4954
2026-01-15 21:34:28.76	39.02	9.66	-52.3	-54.5	16.6	0.00e+00	0	46	0	209715200	75	4840
2026-01-15 21:34:29.76	39.18	9.70	-52.3	-54.5	16.6	0.00e+00	0	46	0	211812352	75	4839
2026-01-15 21:34:30.77	39.33	9.74	-52.0	-54.1	17.0	0.00e+00	0	46	0	213909504	75	4624
2026-01-15 21:34:31.78	39.49	9.79	-52.2	-54.3	16.8	0.00e+00	0	46	0	214958080	75	4736
2026-01-15 21:34:32.79	39.65	9.83	-52.0	-54.0	17.0	0.00e+00	0	46	0	217055232	75	4591
2026-01-15 21:34:33.80	39.81	9.87	-52.1	-54.2	17.0	0.00e+00	0	46	0	219152384	75	4653
2026-01-15 21:34:34.81	39.97	9.91	-52.1	-54.1	17.0	0.00e+00	0	46	0	221249536	75	4644
2026-01-15 21:34:35.82	40.12	9.95	-51.9	-53.9	17.1	0.00e+00	0	46	0	223346688	75	4528
2026-01-15 21:34:36.83	40.28	9.99	-52.2	-54.3	16.8	0.00e+00	0	46	0	225443840	75	4740
2026-01-15 21:34:37.84	40.44	10.03	-52.1	-54.1	17.0	0.00e+00	0	46	0	226492416	75	4618
2026-01-15 21:34:38.85	40.60	10.07	-52.0	-54.1	17.0	0.00e+00	0	46	0	228589568	75	4610
2026-01-15 21:34:39.86	40.77	10.11	-52.1	-54.1	17.0	0.00e+00	0	46	0	230686720	75	4635
2026-01-15 21:34:40.87	40.93	10.15	-52.2	-54.3	16.9	0.00e+00	0	46	0	232783872	75	4713
2026-01-15 21:34:41.88	41.09	10.19	-52.3	-54.4	16.7	0.00e+00	0	46	0	233832448	75	4799
2026-01-15 21:34:42.89	41.25	10.23	-52.3	-54.5	16.6	0.00e+00	0	46	0	235929600	75	4859
2026-01-15 21:34:43.90	41.41	10.27	-52.5	-54.7	16.4	0.00e+00	0	46	0	238026752	75	4951
2026-01-15 21:34:44.91	41.58	10.31	-52.3	-54.5	16.7	0.00e+00	0	46	0	240123904	75	4817
2026-01-15 21:34:45.91	41.74	10.35	-52.4	-54.6	16.6	0.00e+00	0	46	0	242221056	75	4872
2026-01-15 21:34:46.92	41.90	10.39	-52.2	-54.4	16.8	0.00e+00	0	46	0	244318208	75	4763
2026-01-15 21:34:47.93	42.07	10.43	-52.4	-54.6	16.6	0.00e+00	0	46	0	245366784	75	4893
2026-01-15 21:34:48.94	42.23	10.47	-52.4	-54.5	16.6	0.00e+00	0	46	0	247463936	75	4855
2026-01-15 21:34:49.95	42.40	10.51	-52.4	-54.6	16.5	0.00e+00	0	46	0	249561088	75	4898
2026-01-15 21:34:50.96	42.56	10.55	-52.5	-54.8	16.4	0.00e+00	0	46	0	251658240	75	4993
2026-01-15 21:34:51.97	42.73	10.58	-52.2	-54.3	16.8	0.00e+00	0	46	0	253755392	75	4754
2026-01-15 21:34:52.98	42.89	10.62	-52.3	-54.5	16.7	0.00e+00	0	46	0	254803968	75	4818
2026-01-15 21:34:53.99	43.06	10.66	-52.5	-54.7	16.5	0.00e+00	0	46	0	256901120	75	4955
2026-01-15 21:34:55.00	43.23	10.70	-52.4	-54.7	16.5	0.00e+00	0	47	0	258998272	75	4934
2026-01-15 21:34:56.01	43.40	10.74	-52.6	-54.9	16.4	0.00e+00	0	46	0	261095424	75	5042
2026-01-15 21:34:57.01	43.56	10.77	-52.4	-54.6	16.5	0.00e+00	0	46	0	263192576	75	4926
2026-01-15 21:34:58.02	43.73	10.81	-52.4	-54.6	16.5	0.00e+00	0	46	0	264241152	75	4919
2026-01-15 21:34:59.03	43.90	10.85	-52.4	-54.5	16.6	0.00e+00	0	46	0	266338304	75	4870
2026-01-15 21:35:00.04	44.07	10.89	-52.2	-54.4	16.8	0.00e+00	0	46	0	268435456	75	4761
2026-01-15 21:35:01.05	44.24	10.92	-52.2	-54.3	16.8	0.00e+00	0	46	0	270532608	75	4750
2026-01-15 21:35:02.06	44.41	10.96	-52.2	-54.3	16.8	0.00e+00	0	46	0	272629760	75	4753
2026-01-15 21:35:03.07	44.58	11.00	-52.2	-54.3	16.9	0.00e+00	0	46	0	273678336	75	4742
2026-01-15 21:35:04.08	44.75	11.04	-52.2	-54.4	16.8	0.00e+00	0	46	0	275775488	75	4765
2026-01-15 21:35:05.09	44.92	11.07	-52.3	-54.4	16.7	0.00e+00	0	46	0	277872640	75	4801
2026-01-15 21:35:06.10	45.09	11.11	-52.2	-54.3	16.9	0.00e+00	0	46	0	279969792	75	4726
2026-01-15 21:35:07.11	45.27	11.14	-52.2	-54.3	16.9	0.00e+00	0	46	0	282066944	75	4739
2026-01-15 21:35:08.12	45.44	11.18	-52.2	-54.3	16.9	0.00e+00	0	47	0	283115520	75	4745
2026-01-15 21:35:09.13	45.61	11.22	-52.2	-54.3	16.9	0.00e+00	0	47	0	285212672	75	4706
2026-01-15 21:35:10.14	45.78	11.25	-52.1	-54.1	17.0	0.00e+00	0	47	0	287309824	75	4638
2026-01-15 21:35:11.15	45.96	11.29	-52.3	-54.4	16.9	0.00e+00	0	46	0	289406976	75	4770
2026-01-15 21:35:12.16	46.13	11.32	-52.1	-54.2	17.0	0.00e+00	0	47	0	291504128	75	4671
2026-01-15 21:35:13.16	46.31	11.36	-52.2	-54.2	17.0	0.00e+00	0	47	0	292552704	75	4689
2026-01-15 21:35:14.17	46.48	11.39	-51.9	-53.8	17.3	0.00e+00	0	47	0	294649856	75	4483
2026-01-15 21:35:15.18	46.66	11.43	-51.9	-53.9	17.3	0.00e+00	0	46	0	296747008	75	4500
2026-01-15 21:35:16.19	46.83	11.46	-52.0	-54.0	17.2	0.00e+00	0	47	0	298844160	75	4571
2026-01-15 21:35:17.20	47.01	11.50	-52.0	-54.0	17.2	0.00e+00	0	46	0	300941312	75	4558
2026-01-15 21:35:18.21	47.19	11.53	-52.0	-54.1	17.1	0.00e+00	0	46	0	303038464	75	4602
2026-01-15 21:35:19.22	47.36	11.56	-52.0	-54.0	17.3	0.00e+00	0	47	0	304087040	75	4556
2026-01-15 21:35:20.23	47.54	11.60	-52.1	-54.1	17.1	0.00e+00	0	47	0	306184192	75	4642
2026-01-15 21:35:21.24	47.72	11.63	-52.1	-54.2	17.0	0.00e+00	0	47	0	308281344	75	4668
2026-01-15 21:35:22.25	47.90	11.66	-52.1	-54.1	17.0	0.00e+00	0	47	0	310378496	75	4632
2026-01-15 21:35:23.26	48.08	11.70	-52.2	-54.2	17.0	0.00e+00	0	47	0	311427072	75	4692
2026-01-15 21:35:24.27	48.25	11.73	-52.3	-54.4	16.8	0.00e+00	0	47	0	313524224	75	4768
2026-01-15 21:35:25.28	48.43	11.76	-52.2	-54.3	16.9	0.00e+00	0	47	0	315621376	75	4720
2026-01-15 21:35:26.29	48.61	11.80	-52.1	-54.1	17.1	0.00e+00	0	47	0	317718528	75	4625
2026-01-15 21:35:27.30	48.79	11.83	-52.2	-54.3	16.9	0.00e+00	0	47	0	319815680	75	4744
2026-01-15 21:35:28.31	48.97	11.86	-52.1	-54.2	17.0	0.00e+00	0	47	0	321912832	75	4668
2026-01-15 21:35:29.32	49.16	11.89	-52.1	-54.1	17.1	0.00e+00	0	47	0	322961408	75	4629
2026-01-15 21:35:30.33	49.34	11.92	-52.2	-54.2	16.9	0.00e+00	0	47	0	325058560	75	4690
2026-01-15 21:35:31.34	49.52	11.96	-52.2	-54.2	17.0	0.00e+00	0	47	0	327155712	75	4682
2026-01-15 21:35:32.35	49.70	11.99	-52.1	-54.1	17.1	0.00e+00	0	47	0	329252864	75	4618
2026-01-15 21:35:33.35	49.88	12.02	-52.0	-54.0	17.2	0.00e+00	0	47	0	331350016	75	4564
2026-01-15 21:35:34.36	50.06	12.05	-51.9	-53.8	17.4	0.00e+00	0	47	0	332398592	75	4471
2026-01-15 21:35:35.37	50.25	12.08	-51.7	-53.5	17.6	0.00e+00	0	47	0	334495744	75	4337
2026-01-15 21:35:36.38	50.43	12.11	-51.8	-53.6	17.6	0.00e+00	0	47	0	336592896	75	4389
2026-01-15 21:35:37.39	50.62	12.14	-51.5	-53.4	17.9	0.00e+00	0	47	0	338690048	75	4252
2026-01-15 21:35:38.40	50.80	12.17	-51.5	-53.2	18.0	0.00e+00	0	47	0	340787200	74	4436
2026-01-15 21:35:39.41	50.99	12.20	-51.3	-53.0	18.2	0.00e+00	0	47	0	341835776	74	4306
2026-01-15 21:35:40.42	51.17	12.23	-51.3	-53.1	18.1	0.00e+00	0	47	0	343932928	74	4342
2026-01-15 21:35:41.43	51.36	12.26	-51.5	-53.3	17.9	0.00e+00	0	47	0	346030080	74	4473
2026-01-15 21:35:42.44	51.54	12.29	-51.3	-53.1	18.1	0.00e+00	0	47	0	348127232	74	4364
2026-01-15 21:35:43.45	51.73	12.32	-51.5	-53.3	17.9	0.00e+00	0	47	0	350224384	74	4474
2026-01-15 21:35:44.46	51.91	12.35	-51.7	-53.5	17.7	0.00e+00	0	47	0	351272960	74	4585
2026-01-15 21:35:45.47	52.10	12.37	-51.7	-53.6	17.5	0.00e+00	0	47	0	353370112	74	4635
2026-01-15 21:35:46.48	52.29	12.40	-51.9	-53.8	17.4	0.00e+00	0	47	0	355467264	74	4731
2026-01-15 21:35:47.49	52.48	12.43	-51.9	-53.8	17.4	0.00e+00	0	47	0	357564416	74	4741
2026-01-15 21:35:48.50	52.66	12.46	-51.6	-53.5	17.7	0.00e+00	0	47	0	359661568	74	4559
2026-01-15 21:35:49.51	52.85	12.48	-51.6	-53.5	17.7	0.00e+00	0	47	0	361758720	74	4554
2026-01-15 21:35:50.52	53.04	12.51	-51.4	-53.2	17.9	0.00e+00	0	47	0	362807296	74	4411
2026-01-15 21:35:51.53	53.23	12.54	-51.2	-52.9	18.3	0.00e+00	0	47	0	364904448	74	4263
2026-01-15 21:35:52.54	53.42	12.56	-51.2	-52.8	18.3	0.00e+00	0	47	0	367001600	74	4242
2026-01-15 21:35:53.55	53.61	12.59	-51.3	-53.0	18.1	0.00e+00	0	47	0	369098752	74	4321
2026-01-15 21:35:54.56	53.80	12.62	-51.4	-53.2	18.0	0.00e+00	0	47	0	370147328	74	4439
2026-01-15 21:35:55.57	53.99	12.64	-51.5	-53.3	17.8	0.00e+00	0	47	0	372244480	74	4485
2026-01-15 21:35:56.57	54.18	12.67	-51.6	-53.4	17.9	0.00e+00	0	47	0	374341632	74	4510
2026-01-15 21:35:57.58	54.37	12.69	-51.4	-53.2	18.0	0.00e+00	0	47	0	376438784	74	4409
2026-01-15 21:35:58.60	54.56	12.72	-51.3	-53.0	18.2	0.00e+00	0	47	0	378535936	74	4299
2026-01-15 21:35:59.61	54.75	12.74	-50.9	-52.5	18.6	0.00e+00	0	47	0	380633088	73	4328
2026-01-15 21:36:00.62	54.95	12.77	-50.8	-52.4	18.7	0.00e+00	0	47	0	381681664	73	4280
2026-01-15 21:36:01.63	55.14	12.79	-50.8	-52.3	18.8	0.00e+00	0	47	0	383778816	73	4235
2026-01-15 21:36:02.64	55.33	12.82	-50.8	-52.4	18.7	0.00e+00	0	47	0	385875968	73	4278
2026-01-15 21:36:03.65	55.52	12.84	-51.1	-52.8	18.4	0.00e+00	0	47	0	387973120	73	4466
2026-01-15 21:36:04.66	55.72	12.86	-51.4	-53.2	18.0	0.00e+00	0	47	0	390070272	73	4687
2026-01-15 21:36:05.67	55.91	12.89	-51.7	-53.6	17.6	0.00e+00	0	47	0	391118848	74	4624
2026-01-15 21:36:06.68	56.10	12.91	-51.8	-53.8	17.5	0.00e+00	0	47	0	393216000	74	4715
2026-01-15 21:36:07.69	56.30	12.93	-51.8	-53.7	17.5	0.00e+00	0	47	0	395313152	74	4678
2026-01-15 21:36:08.70	56.49	12.95	-51.5	-53.3	17.9	0.00e+00	0	47	0	397410304	74	4474
2026-01-15 21:36:09.71	56.69	12.98	-51.5	-53.2	17.9	0.00e+00	0	47	0	399507456	74	4438
2026-01-15 21:36:10.72	56.88	13.00	-51.5	-53.3	17.9	0.00e+00	0	47	0	400556032	74	4470
2026-01-15 21:36:11.73	57.08	13.02	-51.6	-53.4	17.8	0.00e+00	0	47	0	402653184	74	4544
2026-01-15 21:36:12.74	57.27	13.04	-52.0	-53.9	17.3	0.00e+00	0	47	0	404750336	74	4812
2026-01-15 21:36:13.75	57.47	13.06	-52.5	-54.7	16.7	0.00e+00	0	47	0	406847488	75	4953
2026-01-15 21:36:14.76	57.66	13.08	-52.9	-55.3	16.1	0.00e+00	0	47	0	408944640	76	4993
2026-01-15 21:36:15.77	57.86	13.10	-53.1	-55.6	15.7	0.00e+00	0	47	0	409993216	76	5168
2026-01-15 21:36:16.78	58.06	13.12	-53.1	-55.5	15.8	0.00e+00	0	47	0	412090368	76	5145
2026-01-15 21:36:17.79	58.25	13.14	-52.8	-55.1	16.2	0.00e+00	0	47	0	414187520	76	4880
2026-01-15 21:36:18.80	58.45	13.16	-52.3	-54.4	16.8	0.00e+00	0	47	0	416284672	76	4528
2026-01-15 21:36:19.81	58.65	13.18	-52.1	-54.1	17.2	0.00e+00	0	47	0	418381824	76	4373
2026-01-15 21:36:20.82	58.84	13.20	-52.0	-53.9	17.3	0.00e+00	0	47	0	419430400	75	4529
2026-01-15 21:36:21.83	59.04	13.22	-51.9	-53.8	17.5	0.00e+00	0	47	0	421527552	75	4482
2026-01-15 21:36:22.84	59.24	13.24	-52.2	-54.2	17.1	0.00e+00	0	47	0	423624704	75	4699
2026-01-15 21:36:23.85	59.44	13.26	-52.3	-54.5	16.8	0.00e+00	0	47	0	425721856	75	4830
2026-01-15 21:36:24.86	59.64	13.27	-52.4	-54.6	16.7	0.00e+00	0	47	0	427819008	75	4917
2026-01-15 21:36:25.87	59.84	13.29	-52.4	-54.5	16.7	0.00e+00	0	47	0	428867584	75	4868
2026-01-15 21:36:26.88	60.04	13.31	-52.3	-54.4	16.9	0.00e+00	0	47	0	430964736	75	4776
2026-01-15 21:36:27.89	60.23	13.33	-52.2	-54.3	17.0	0.00e+00	0	47	0	433061888	75	4728
2026-01-15 21:36:28.90	60.43	13.34	-51.9	-53.9	17.3	0.00e+00	0	47	0	435159040	75	4512
2026-01-15 21:36:29.91	60.63	13.36	-51.9	-53.8	17.5	0.00e+00	0	47	0	437256192	75	4453
2026-01-15 21:36:30.92	60.83	13.37	-51.9	-53.8	17.5	0.00e+00	0	47	0	439353344	75	4448
2026-01-15 21:36:31.93	61.03	13.39	-51.9	-53.9	17.4	0.00e+00	0	47	0	440401920	75	4501
2026-01-15 21:36:32.94	61.23	13.40	-52.1	-54.1	17.2	0.00e+00	0	47	0	442499072	75	4621
2026-01-15 21:36:33.95	61.43	13.42	-52.1	-54.2	17.1	0.00e+00	0	47	0	444596224	75	4664
2026-01-15 21:36:34.95	61.63	13.43	-52.1	-54.2	17.1	0.00e+00	0	47	0	446693376	75	4670
2026-01-15 21:36:35.96	61.83	13.45	-51.9	-53.9	17.4	0.00e+00	0	47	0	447741952	75	4516
2026-01-15 21:36:36.97	62.03	13.46	-51.8	-53.7	17.6	0.00e+00	0	47	0	449839104	75	4396
2026-01-15 21:36:37.98	62.24	13.48	-51.6	-53.4	17.8	0.00e+00	0	47	0	451936256	75	4273
2026-01-15 21:36:38.99	62.44	13.49	-51.3	-53.0	18.2	0.00e+00	0	47	0	454033408	74	4305
2026-01-15 21:36:40.00	62.64	13.50	-51.2	-52.9	18.3	0.00e+00	0	47	0	456130560	74	4282
2026-01-15 21:36:41.01	62.84	13.52	-51.3	-53.0	18.2	0.00e+00	0	47	0	458227712	74	4319
2026-01-15 21:36:42.02	63.04	13.53	-51.5	-53.3	17.9	0.00e+00	0	47	0	459276288	74	4472
2026-01-15 21:36:43.03	63.24	13.54	-51.5	-53.3	17.9	0.00e+00	0	47	0	461373440	74	4492
2026-01-15 21:36:44.03	63.44	13.55	-51.7	-53.6	17.7	0.00e+00	0	47	0	463470592	74	4602
2026-01-15 21:36:45.04	63.65	13.56	-51.6	-53.4	17.8	0.00e+00	0	47	0	465567744	74	4544
2026-01-15 21:36:46.05	63.85	13.58	-51.5	-53.3	18.0	0.00e+00	0	47	0	467664896	74	4448
2026-01-15 21:36:47.06	64.05	13.59	-51.4	-53.2	18.0	0.00e+00	0	47	0	468713472	74	4431
2026-01-15 21:36:48.07	64.26	13.60	-51.0	-52.7	18.5	0.00e+00	0	47	0	470810624	74	4150
2026-01-15 21:36:49.08	64.46	13.61	-50.6	-52.2	19.0	0.00e+00	0	47	0	472907776	73	4160
2026-01-15 21:36:50.09	64.66	13.62	-50.5	-52.1	19.1	0.00e+00	0	47	0	475004928	73	4104
2026-01-15 21:36:51.10	64.86	13.63	-50.4	-51.9	19.2	0.00e+00	0	47	0	477102080	72	4279
2026-01-15 21:36:52.11	65.07	13.64	-50.6	-52.1	19.1	0.00e+00	0	47	0	478150656	72	4363
2026-01-15 21:36:53.12	65.27	13.64	-50.7	-52.3	18.9	0.00e+00	0	47	0	480247808	72	4445
2026-01-15 21:36:54.13	65.48	13.65	-50.8	-52.4	18.8	0.00e+00	0	47	0	482344960	72	4497
2026-01-15 21:36:55.14	65.68	13.66	-50.8	-52.4	18.8	0.00e+00	0	47	0	484442112	72	4521
2026-01-15 21:36:56.15	65.88	13.67	-51.0	-52.6	18.6	0.00e+00	0	47	0	486539264	72	4621
2026-01-15 21:36:57.16	66.09	13.68	-50.9	-52.5	18.7	0.00e+00	0	47	0	487587840	72	4589
2026-01-15 21:36:58.17	66.29	13.68	-51.0	-52.7	18.5	0.00e+00	0	47	0	489684992	72	4675
2026-01-15 21:36:59.18	66.50	13.69	-51.1	-52.8	18.4	0.00e+00	0	47	0	491782144	72	4716
2026-01-15 21:37:00.19	66.70	13.70	-51.2	-52.9	18.3	0.00e+00	0	47	0	493879296	72	4799
2026-01-15 21:37:01.20	66.90	13.70	-51.3	-53.0	18.2	0.00e+00	0	47	0	495976448	73	4572
2026-01-15 21:37:02.21	67.11	13.71	-51.3	-53.0	18.2	0.00e+00	0	47	0	498073600	73	4565
2026-01-15 21:37:03.22	67.31	13.72	-51.3	-53.0	18.3	0.00e+00	0	47	0	499122176	73	4559
2026-01-15 21:37:04.23	67.52	13.72	-51.0	-52.6	18.6	0.00e+00	0	47	0	501219328	73	4385
2026-01-15 21:37:05.24	67.72	13.73	-51.0	-52.7	18.4	0.00e+00	0	47	0	503316480	73	4422
2026-01-15 21:37:06.25	67.93	13.73	-50.9	-52.6	18.6	0.00e+00	0	47	0	505413632	73	4346
2026-01-15 21:37:07.26	68.13	13.74	-50.9	-52.6	18.6	0.00e+00	0	47	0	506462208	73	4342
2026-01-15 21:37:08.27	68.34	13.74	-51.2	-52.9	18.3	0.00e+00	0	48	0	508559360	73	4543
2026-01-15 21:37:09.28	68.54	13.74	-51.2	-53.0	18.2	0.00e+00	0	47	0	510656512	73	4557
2026-01-15 21:37:10.29	68.75	13.75	-51.3	-53.1	18.1	0.00e+00	0	47	0	512753664	73	4611
2026-01-15 21:37:11.30	68.95	13.75	-51.3	-53.1	18.1	0.00e+00	0	47	0	514850816	73	4620
2026-01-15 21:37:12.31	69.16	13.75	-51.3	-53.1	18.1	0.00e+00	0	47	0	516947968	73	4616
2026-01-15 21:37:13.32	69.36	13.75	-51.2	-52.9	18.2	0.00e+00	0	47	0	517996544	73	4543
2026-01-15 21:37:14.33	69.57	13.76	-50.9	-52.6	18.6	0.00e+00	0	48	0	520093696	73	4353
2026-01-15 21:37:15.33	69.77	13.76	-51.0	-52.7	18.5	0.00e+00	0	47	0	522190848	73	4421
2026-01-15 21:37:16.34	69.98	13.76	-51.0	-52.7	18.5	0.00e+00	0	47	0	524288000	73	4421
2026-01-15 21:37:17.35	70.18	13.76	-51.2	-52.9	18.4	0.00e+00	0	47	0	526385152	73	4496
2026-01-15 21:37:18.36	70.39	13.76	-51.2	-52.9	18.3	0.00e+00	0	47	0	527433728	73	4532
2026-01-15 21:37:19.37	70.59	13.76	-51.3	-53.1	18.2	0.00e+00	0	47	0	529530880	73	4613
2026-01-15 21:37:20.38	70.80	13.76	-51.3	-53.0	18.3	0.00e+00	0	47	0	531628032	73	4558
2026-01-15 21:37:21.39	71.00	13.76	-51.1	-52.8	18.4	0.00e+00	0	47	0	533725184	73	4448
2026-01-15 21:37:22.40	71.21	13.76	-50.9	-52.5	18.7	0.00e+00	0	48	0	535822336	73	4301
2026-01-15 21:37:23.41	71.41	13.76	-50.7	-52.3	18.8	0.00e+00	0	48	0	536870912	73	4219
2026-01-15 21:37:24.42	71.62	13.76	-50.9	-52.6	18.6	0.00e+00	0	48	0	538968064	73	4344
2026-01-15 21:37:25.43	71.82	13.76	-50.8	-52.4	18.8	0.00e+00	0	47	0	541065216	73	4267
2026-01-15 21:37:26.44	72.03	13.75	-51.0	-52.6	18.6	0.00e+00	0	47	0	543162368	73	4371
2026-01-15 21:37:27.45	72.23	13.75	-51.1	-52.8	18.4	0.00e+00	0	47	0	545259520	73	4447
2026-01-15 21:37:28.46	72.44	13.75	-51.0	-52.7	18.5	0.00e+00	0	47	0	546308096	73	4416
2026-01-15 21:37:29.47	72.64	13.75	-50.9	-52.6	18.6	0.00e+00	0	48	0	548405248	73	4359
2026-01-15 21:37:30.48	72.85	13.74	-50.8	-52.4	18.8	0.00e+00	0	47	0	550502400	73	4252
2026-01-15 21:37:31.49	73.05	13.74	-50.4	-51.9	19.2	0.00e+00	0	48	0	552599552	72	4273
2026-01-15 21:37:32.50	73.26	13.73	-50.4	-51.9	19.2	0.00e+00	0	48	0	554696704	72	4291
2026-01-15 21:37:33.51	73.46	13.73	-50.2	-51.6	19.5	0.00e+00	0	47	0	555745280	72	4136
2026-01-15 21:37:34.52	73.67	13.73	-50.0	-51.4	19.7	0.00e+00	0	47	0	557842432	71	4291
2026-01-15 21:37:35.53	73.87	13.72	-50.1	-51.5	19.6	0.00e+00	0	48	0	559939584	71	4323
2026-01-15 21:37:36.54	74.08	13.71	-50.2	-51.6	19.6	0.00e+00	0	47	0	562036736	71	4386
2026-01-15 21:37:37.54	74.28	13.71	-50.2	-51.7	19.5	0.00e+00	0	48	0	564133888	71	4404
2026-01-15 21:37:38.55	74.48	13.70	-50.4	-51.9	19.4	0.00e+00	0	48	0	565182464	71	4499
2026-01-15 21:37:39.56	74.69	13.70	-50.3	-51.8	19.4	0.00e+00	0	48	0	567279616	71	4470
2026-01-15 21:37:40.57	74.89	13.69	-50.3	-51.7	19.4	0.00e+00	0	48	0	569376768	71	4439
2026-01-15 21:37:41.58	75.10	13.68	-50.3	-51.8	19.4	0.00e+00	0	48	0	571473920	71	4472
2026-01-15 21:37:42.59	75.30	13.68	-50.3	-51.8	19.4	0.00e+00	0	47	0	573571072	71	4471
2026-01-15 21:37:43.60	75.51	13.67	-50.6	-52.1	19.1	0.00e+00	0	48	0	575668224	71	4628
2026-01-15 21:37:44.61	75.71	13.66	-50.6	-52.1	19.1	0.00e+00	0	47	0	576716800	71	4646
2026-01-15 21:37:45.62	75.91	13.65	-50.7	-52.3	19.0	0.00e+00	0	47	0	578813952	71	4711
2026-01-15 21:37:46.63	76.12	13.64	-50.7	-52.2	18.9	0.00e+00	0	47	0	580911104	72	4441
2026-01-15 21:37:47.64	76.32	13.63	-50.8	-52.4	18.8	0.00e+00	0	47	0	583008256	72	4539
2026-01-15 21:37:48.65	76.52	13.62	-50.9	-52.5	18.7	0.00e+00	0	47	0	584056832	72	4560
2026-01-15 21:37:49.66	76.73	13.61	-50.9	-52.6	18.6	0.00e+00	0	48	0	586153984	72	4616
2026-01-15 21:37:50.67	76.93	13.60	-50.8	-52.3	18.8	0.00e+00	0	47	0	588251136	72	4485
2026-01-15 21:37:51.68	77.13	13.59	-50.6	-52.1	19.0	0.00e+00	0	47	0	590348288	72	4388
2026-01-15 21:37:52.69	77.34	13.58	-50.7	-52.2	18.9	0.00e+00	0	47	0	592445440	72	4441
2026-01-15 21:37:53.70	77.54	13.57	-50.6	-52.1	19.0	0.00e+00	0	48	0	594542592	72	4376
2026-01-15 21:37:54.70	77.74	13.56	-50.8	-52.4	18.8	0.00e+00	0	47	0	595591168	72	4501
2026-01-15 21:37:55.71	77.94	13.55	-50.8	-52.4	18.8	0.00e+00	0	47	0	597688320	72	4519
2026-01-15 21:37:56.72	78.15	13.54	-50.9	-52.6	18.6	0.00e+00	0	47	0	599785472	72	4623
2026-01-15 21:37:57.73	78.35	13.53	-51.0	-52.7	18.5	0.00e+00	0	47	0	601882624	72	4686
2026-01-15 21:37:58.74	78.55	13.51	-50.9	-52.5	18.6	0.00e+00	0	48	0	603979776	72	4570
2026-01-15 21:37:59.75	78.75	13.50	-50.8	-52.4	18.8	0.00e+00	0	48	0	605028352	72	4524
2026-01-15 21:38:00.76	78.95	13.49	-50.8	-52.4	18.8	0.00e+00	0	48	0	607125504	72	4499
2026-01-15 21:38:01.77	79.16	13.47	-50.6	-52.1	19.0	0.00e+00	0	48	0	609222656	72	4378
2026-01-15 21:38:02.78	79.36	13.46	-50.7	-52.2	18.9	0.00e+00	0	47	0	611319808	72	4441
2026-01-15 21:38:03.79	79.56	13.44	-50.6	-52.1	19.0	0.00e+00	0	48	0	612368384	72	4375
2026-01-15 21:38:04.80	79.76	13.43	-50.5	-52.0	19.1	0.00e+00	0	47	0	614465536	72	4335
2026-01-15 21:38:05.81	79.96	13.42	-50.3	-51.8	19.3	0.00e+00	0	47	0	616562688	72	4230
2026-01-15 21:38:06.82	80.16	13.40	-50.4	-51.9	19.2	0.00e+00	0	48	0	618659840	72	4266
2026-01-15 21:38:07.83	80.36	13.39	-50.2	-51.6	19.5	0.00e+00	0	47	0	620756992	72	4134
2026-01-15 21:38:08.84	80.56	13.37	-50.1	-51.5	19.5	0.00e+00	0	47	0	622854144	72	4091
2026-01-15 21:38:09.85	80.76	13.35	-50.2	-51.6	19.5	0.00e+00	0	47	0	623902720	72	4125
2026-01-15 21:38:10.86	80.96	13.34	-50.0	-51.4	19.6	0.00e+00	0	48	0	625999872	71	4291
2026-01-15 21:38:11.87	81.16	13.32	-50.0	-51.4	19.7	0.00e+00	0	48	0	628097024	71	4288
2026-01-15 21:38:12.88	81.36	13.30	-50.1	-51.5	19.6	0.00e+00	0	48	0	630194176	71	4340
2026-01-15 21:38:13.89	81.56	13.29	-50.2	-51.6	19.5	0.00e+00	0	48	0	632291328	71	4365
2026-01-15 21:38:14.90	81.76	13.27	-50.2	-51.6	19.5	0.00e+00	0	48	0	634388480	71	4363
2026-01-15 21:38:15.91	81.96	13.25	-50.0	-51.5	19.6	0.00e+00	0	48	0	635437056	71	4292
2026-01-15 21:38:16.92	82.16	13.23	-50.0	-51.4	19.7	0.00e+00	0	47	0	637534208	71	4252
2026-01-15 21:38:17.93	82.35	13.21	-49.8	-51.2	19.9	0.00e+00	0	48	0	639631360	71	4162
2026-01-15 21:38:18.94	82.55	13.20	-49.9	-51.3	19.8	0.00e+00	0	48	0	641728512	71	4227
2026-01-15 21:38:19.95	82.75	13.18	-49.8	-51.2	19.8	0.00e+00	0	48	0	642777088	71	4168
2026-01-15 21:38:20.95	82.95	13.16	-50.0	-51.4	19.7	0.00e+00	0	48	0	644874240	71	4270
2026-01-15 21:38:21.96	83.14	13.14	-50.0	-51.4	19.8	0.00e+00	0	48	0	646971392	71	4264
2026-01-15 21:38:22.97	83.34	13.12	-50.1	-51.5	19.7	0.00e+00	0	48	0	649068544	71	4323
2026-01-15 21:38:23.98	83.54	13.10	-50.2	-51.6	19.5	0.00e+00	0	48	0	651165696	71	4389
2026-01-15 21:38:24.99	83.73	13.08	-50.3	-51.8	19.4	0.00e+00	0	48	0	652214272	71	4445
2026-01-15 21:38:26.00	83.93	13.06	-50.3	-51.8	19.4	0.00e+00	0	48	0	654311424	71	4467
2026-01-15 21:38:27.01	84.13	13.03	-50.4	-51.9	19.2	0.00e+00	0	48	0	656408576	71	4533
2026-01-15 21:38:28.02	84.32	13.01	-50.4	-51.9	19.2	0.00e+00	0	48	0	658505728	71	4538
2026-01-15 21:38:29.03	84.52	12.99	-50.6	-52.2	19.0	0.00e+00	0	48	0	660602880	71	4677
2026-01-15 21:38:30.04	84.71	12.97	-50.4	-51.9	19.2	0.00e+00	0	47	0	662700032	71	4523
2026-01-15 21:38:31.05	84.91	12.95	-50.4	-51.9	19.2	0.00e+00	0	48	0	663748608	71	4522
2026-01-15 21:38:32.06	85.10	12.93	-50.4	-52.0	19.2	0.00e+00	0	48	0	665845760	71	4548
2026-01-15 21:38:33.07	85.30	12.90	-50.3	-51.8	19.4	0.00e+00	0	48	0	667942912	71	4469
2026-01-15 21:38:34.07	85.49	12.88	-50.2	-51.6	19.5	0.00e+00	0	48	0	670040064	71	4376
2026-01-15 21:38:35.08	85.68	12.86	-50.1	-51.5	19.7	0.00e+00	0	48	0	671088640	71	4313
2026-01-15 21:38:36.09	85.88	12.83	-50.0	-51.4	19.7	0.00e+00	0	48	0	673185792	71	4275
2026-01-15 21:38:37.10	86.07	12.81	-50.0	-51.3	19.8	0.00e+00	0	48	0	675282944	71	4240
2026-01-15 21:38:38.11	86.26	12.78	-50.1	-51.5	19.6	0.00e+00	0	48	0	677380096	71	4299
2026-01-15 21:38:39.12	86.45	12.76	-50.0	-51.4	19.7	0.00e+00	0	48	0	679477248	71	4263
2026-01-15 21:38:40.13	86.65	12.74	-49.9	-51.3	19.8	0.00e+00	0	48	0	681574400	71	4216
2026-01-15 21:38:41.14	86.84	12.71	-49.7	-51.1	20.0	0.00e+00	0	48	0	682622976	71	4114
2026-01-15 21:38:42.15	87.03	12.69	-49.6	-50.9	20.1	0.00e+00	0	48	0	684720128	71	4037
2026-01-15 21:38:43.16	87.22	12.66	-49.6	-51.0	20.1	0.00e+00	0	48	0	686817280	71	4061
2026-01-15 21:38:44.17	87.41	12.63	-49.5	-50.9	20.2	0.00e+00	0	48	0	688914432	71	4013
2026-01-15 21:38:45.18	87.60	12.61	-49.7	-51.0	20.1	0.00e+00	0	48	0	691011584	71	4082
2026-01-15 21:38:46.18	87.79	12.58	-49.6	-50.9	20.1	0.00e+00	0	47	0	692060160	71	4045
2026-01-15 21:38:47.19	87.98	12.56	-49.7	-51.1	20.0	0.00e+00	0	48	0	694157312	71	4101
2026-01-15 21:38:48.20	88.17	12.53	-49.6	-51.0	20.1	0.00e+00	0	48	0	696254464	71	4070
2026-01-15 21:38:49.21	88.36	12.50	-49.7	-51.0	20.0	0.00e+00	0	48	0	698351616	71	4092
2026-01-15 21:38:50.22	88.55	12.47	-49.7	-51.1	20.0	0.00e+00	0	48	0	700448768	71	4119
2026-01-15 21:38:51.23	88.74	12.45	-49.9	-51.2	19.8	0.00e+00	0	48	0	701497344	71	4187
2026-01-15 21:38:52.24	88.93	12.42	-50.0	-51.4	19.7	0.00e+00	0	48	0	703594496	71	4255
2026-01-15 21:38:53.25	89.11	12.39	-50.1	-51.5	19.6	0.00e+00	0	48	0	705691648	71	4306
2026-01-15 21:38:54.26	89.30	12.36	-50.1	-51.6	19.5	0.00e+00	0	48	0	707788800	71	4353
2026-01-15 21:38:55.26	89.49	12.33	-50.2	-51.7	19.4	0.00e+00	0	48	0	709885952	71	4410
2026-01-15 21:38:56.27	89.67	12.31	-50.1	-51.5	19.6	0.00e+00	0	48	0	710934528	71	4307
2026-01-15 21:38:57.28	89.86	12.28	-50.0	-51.3	19.7	0.00e+00	0	48	0	713031680	71	4242
2026-01-15 21:38:58.29	90.05	12.25	-49.9	-51.3	19.8	0.00e+00	0	48	0	715128832	71	4209
2026-01-15 21:38:59.30	90.23	12.22	-50.0	-51.4	19.6	0.00e+00	0	48	0	717225984	71	4256
2026-01-15 21:39:00.31	90.42	12.19	-49.9	-51.3	19.7	0.00e+00	0	48	0	719323136	71	4214
2026-01-15 21:39:01.32	90.60	12.16	-49.9	-51.3	19.7	0.00e+00	0	48	0	720371712	71	4234
2026-01-15 21:39:02.33	90.79	12.13	-50.1	-51.6	19.5	0.00e+00	0	48	0	722468864	71	4349
2026-01-15 21:39:03.34	90.97	12.10	-50.2	-51.6	19.5	0.00e+00	0	48	0	724566016	71	4375
2026-01-15 21:39:04.35	91.16	12.07	-50.3	-51.8	19.3	0.00e+00	0	48	0	726663168	71	4485
2026-01-15 21:39:05.36	91.34	12.04	-50.4	-51.9	19.2	0.00e+00	0	48	0	728760320	71	4538
2026-01-15 21:39:06.37	91.52	12.01	-50.4	-51.9	19.2	0.00e+00	0	48	0	729808896	71	4499
2026-01-15 21:39:07.38	91.71	11.97	-50.4	-51.9	19.2	0.00e+00	0	48	0	731906048	71	4530
2026-01-15 21:39:08.39	91.89	11.94	-50.3	-51.8	19.3	0.00e+00	0	48	0	734003200	71	4471
2026-01-15 21:39:09.40	92.07	11.91	-50.3	-51.7	19.3	0.00e+00	0	48	0	736100352	71	4437
2026-01-15 21:39:10.41	92.25	11.88	-50.5	-52.0	19.0	0.00e+00	0	48	0	738197504	71	4598
2026-01-15 21:39:11.42	92.43	11.85	-50.6	-52.1	18.9	0.00e+00	0	48	0	740294656	71	4640
2026-01-15 21:39:12.43	92.62	11.81	-50.7	-52.3	18.7	0.00e+00	0	48	0	741343232	72	4475
2026-01-15 21:39:13.44	92.80	11.78	-50.9	-52.6	18.4	0.00e+00	0	48	0	743440384	72	4624
2026-01-15 21:39:14.45	92.98	11.75	-50.9	-52.6	18.5	0.00e+00	0	48	0	745537536	72	4620
2026-01-15 21:39:15.46	93.16	11.72	-50.9	-52.6	18.5	0.00e+00	0	48	0	747634688	72	4614
2026-01-15 21:39:16.47	93.34	11.68	-51.0	-52.7	18.4	0.00e+00	0	48	0	748683264	72	4654
2026-01-15 21:39:17.48	93.51	11.65	-51.1	-52.8	18.3	0.00e+00	0	48	0	750780416	72	4730
2026-01-15 21:39:18.49	93.69	11.62	-51.0	-52.7	18.3	0.00e+00	0	48	0	752877568	72	4680
2026-01-15 21:39:19.50	93.87	11.58	-50.8	-52.5	18.5	0.00e+00	0	48	0	754974720	72	4570
2026-01-15 21:39:20.51	94.05	11.55	-50.9	-52.5	18.5	0.00e+00	0	48	0	757071872	72	4586
2026-01-15 21:39:21.52	94.23	11.51	-50.9	-52.5	18.6	0.00e+00	0	48	0	759169024	72	4576
2026-01-15 21:39:22.52	94.40	11.48	-51.0	-52.7	18.4	0.00e+00	0	47	0	760217600	72	4661
2026-01-15 21:39:23.54	94.58	11.45	-51.2	-52.9	18.2	0.00e+00	0	48	0	762314752	72	4789
2026-01-15 21:39:24.54	94.76	11.41	-51.4	-53.2	17.9	0.00e+00	0	48	0	764411904	73	4662
2026-01-15 21:39:25.55	94.93	11.38	-51.7	-53.7	17.4	0.00e+00	0	48	0	766509056	73	4938
2026-01-15 21:39:26.56	95.11	11.34	-51.8	-53.8	17.3	0.00e+00	0	48	0	768606208	74	4711
2026-01-15 21:39:27.57	95.28	11.31	-51.9	-53.9	17.1	0.00e+00	0	48	0	769654784	74	4789
2026-01-15 21:39:28.58	95.46	11.27	-52.0	-54.1	17.0	0.00e+00	0	48	0	771751936	74	4871
2026-01-15 21:39:29.59	95.63	11.23	-52.0	-54.1	17.0	0.00e+00	0	48	0	773849088	74	4902
2026-01-15 21:39:30.60	95.81	11.20	-51.9	-54.0	17.1	0.00e+00	0	48	0	775946240	74	4831
2026-01-15 21:39:31.61	95.98	11.16	-51.8	-53.8	17.3	0.00e+00	0	48	0	778043392	74	4730
2026-01-15 21:39:32.62	96.15	11.13	-51.9	-53.9	17.1	0.00e+00	0	48	0	779091968	74	4793
2026-01-15 21:39:33.63	96.32	11.09	-51.9	-53.8	17.2	0.00e+00	0	48	0	781189120	74	4752
2026-01-15 21:39:34.64	96.50	11.05	-52.1	-54.2	16.9	0.00e+00	0	48	0	783286272	74	4954
2026-01-15 21:39:35.65	96.67	11.02	-52.4	-54.7	16.5	0.00e+00	0	48	0	785383424	75	4934
2026-01-15 21:39:36.66	96.84	10.98	-52.5	-54.7	16.3	0.00e+00	0	48	0	787480576	75	4971
2026-01-15 21:39:37.67	97.01	10.94	-52.3	-54.5	16.6	0.00e+00	0	48	0	788529152	75	4839
2026-01-15 21:39:38.68	97.18	10.90	-52.1	-54.3	16.8	0.00e+00	0	48	0	790626304	75	4707
2026-01-15 21:39:39.69	97.35	10.87	-52.0	-54.0	17.0	0.00e+00	0	48	0	792723456	75	4581
2026-01-15 21:39:40.69	97.52	10.83	-51.8	-53.7	17.4	0.00e+00	0	48	0	794820608	75	4418
2026-01-15 21:39:41.70	97.69	10.79	-51.5	-53.3	17.7	0.00e+00	0	48	0	796917760	75	4235
2026-01-15 21:39:42.71	97.86	10.75	-51.3	-53.1	17.9	0.00e+00	0	48	0	799014912	74	4362
2026-01-15 21:39:43.72	98.03	10.72	-51.4	-53.3	17.8	0.00e+00	0	48	0	800063488	74	4448
2026-01-15 21:39:44.73	98.19	10.68	-51.6	-53.5	17.5	0.00e+00	0	48	0	802160640	74	4592
2026-01-15 21:39:45.74	98.36	10.64	-51.7	-53.6	17.4	0.00e+00	0	48	0	804257792	74	4627
2026-01-15 21:39:46.75	98.53	10.60	-52.0	-54.0	17.0	0.00e+00	0	48	0	806354944	74	4863
2026-01-15 21:39:47.76	98.70	10.56	-52.2	-54.4	16.6	0.00e+00	0	48	0	807403520	75	4790
2026-01-15 21:39:48.77	98.86	10.52	-52.3	-54.5	16.6	0.00e+00	0	48	0	809500672	75	4834
2026-01-15 21:39:49.78	99.03	10.48	-52.2	-54.3	16.7	0.00e+00	0	48	0	811597824	75	4742
2026-01-15 21:39:50.78	99.19	10.45	-52.4	-54.6	16.5	0.00e+00	0	48	0	813694976	75	4881
2026-01-15 21:39:51.79	99.36	10.41	-52.4	-54.6	16.4	0.00e+00	0	48	0	815792128	75	4909
2026-01-15 21:39:52.80	99.52	10.37	-52.2	-54.4	16.6	0.00e+00	0	48	0	817889280	75	4782
2026-01-15 21:39:53.81	99.69	10.33	-52.5	-54.8	16.3	0.00e+00	0	48	0	818937856	75	4993
2026-01-15 21:39:54.82	99.85	10.29	-52.4	-54.6	16.4	0.00e+00	0	48	0	821035008	75	4916
2026-01-15 21:39:55.83	100.01	10.25	-52.5	-54.8	16.3	0.00e+00	0	48	0	823132160	75	4994
2026-01-15 21:39:56.84	100.18	10.21	-52.5	-54.7	16.2	0.00e+00	0	48	0	825229312	75	4983
2026-01-15 21:39:57.85	100.34	10.17	-52.4	-54.7	16.3	0.00e+00	0	48	0	827326464	75	4944
2026-01-15 21:39:58.86	100.50	10.13	-52.4	-54.6	16.4	0.00e+00	0	48	0	828375040	75	4899
2026-01-15 21:39:59.87	100.66	10.09	-52.2	-54.3	16.7	0.00e+00	0	48	0	830472192	75	4759
2026-01-15 21:40:00.88	100.82	10.05	-52.2	-54.3	16.7	0.00e+00	0	48	0	832569344	75	4734
2026-01-15 21:40:01.88	100.98	10.01	-52.3	-54.5	16.5	0.00e+00	0	48	0	834666496	75	4853
2026-01-15 21:40:02.90	101.14	9.96	-52.3	-54.5	16.4	0.00e+00	0	48	0	836763648	75	4855
2026-01-15 21:40:03.91	101.30	9.92	-52.4	-54.7	16.4	0.00e+00	0	48	0	837812224	75	4934
2026-01-15 21:40:04.91	101.46	9.88	-52.5	-54.8	16.3	0.00e+00	0	48	0	839909376	75	4998
2026-01-15 21:40:05.92	101.62	9.84	-52.4	-54.6	16.4	0.00e+00	0	48	0	842006528	75	4890
2026-01-15 21:40:06.93	101.78	9.80	-52.2	-54.4	16.6	0.00e+00	0	48	0	844103680	75	4766
2026-01-15 21:40:07.94	101.94	9.76	-52.0	-54.2	16.8	0.00e+00	0	48	0	846200832	75	4652
2026-01-15 21:40:08.95	102.10	9.72	-51.9	-53.9	17.1	0.00e+00	0	48	0	847249408	75	4528
2026-01-15 21:40:09.96	102.25	9.68	-51.7	-53.7	17.2	0.00e+00	0	48	0	849346560	75	4411
2026-01-15 21:40:10.97	102.41	9.63	-51.5	-53.3	17.6	0.00e+00	0	48	0	851443712	75	4241
2026-01-15 21:40:11.98	102.57	9.59	-51.2	-53.0	17.9	0.00e+00	0	48	0	853540864	74	4317
2026-01-15 21:40:12.99	102.72	9.55	-51.3	-53.1	17.8	0.00e+00	0	48	0	855638016	74	4389
2026-01-15 21:40:14.00	102.88	9.51	-51.4	-53.3	17.6	0.00e+00	0	48	0	856686592	74	4477
2026-01-15 21:40:15.01	103.03	9.46	-51.4	-53.2	17.7	0.00e+00	0	48	0	858783744	74	4428
2026-01-15 21:40:16.02	103.19	9.42	-51.5	-53.4	17.5	0.00e+00	0	48	0	860880896	74	4544
2026-01-15 21:40:17.03	103.34	9.38	-51.7	-53.7	17.2	0.00e+00	0	48	0	862978048	74	4698
2026-01-15 21:40:18.04	103.50	9.34	-52.0	-54.2	16.9	0.00e+00	0	48	0	865075200	74	4928
2026-01-15 21:40:19.05	103.65	9.29	-52.2	-54.4	16.6	0.00e+00	0	48	0	866123776	74	5077
2026-01-15 21:40:20.06	103.80	9.25	-52.4	-54.6	16.4	0.00e+00	0	48	0	868220928	75	4917
2026-01-15 21:40:21.07	103.95	9.21	-52.3	-54.5	16.4	0.00e+00	0	48	0	870318080	75	4869
2026-01-15 21:40:22.08	104.11	9.17	-52.6	-55.1	15.9	0.00e+00	0	48	0	872415232	75	5174
2026-01-15 21:40:23.09	104.26	9.12	-52.3	-54.6	16.4	0.00e+00	0	48	0	874512384	75	4886
2026-01-15 21:40:24.10	104.41	9.08	-52.2	-54.4	16.6	0.00e+00	0	48	0	876609536	75	4809
2026-01-15 21:40:25.10	104.56	9.04	-52.2	-54.4	16.6	0.00e+00	0	48	0	877658112	75	4776
2026-01-15 21:40:26.11	104.71	8.99	-51.9	-53.9	17.0	0.00e+00	0	48	0	879755264	75	4525
2026-01-15 21:40:27.12	104.86	8.95	-51.9	-53.9	17.0	0.00e+00	0	48	0	881852416	75	4516
2026-01-15 21:40:28.13	105.01	8.91	-51.8	-53.8	17.1	0.00e+00	0	48	0	883949568	75	4488
2026-01-15 21:40:29.14	105.16	8.86	-51.6	-53.5	17.4	0.00e+00	0	48	0	884998144	75	4324
2026-01-15 21:40:30.15	105.31	8.82	-51.8	-53.9	17.0	0.00e+00	0	48	0	887095296	75	4507
2026-01-15 21:40:31.16	105.46	8.78	-51.8	-53.8	17.2	0.00e+00	0	48	0	889192448	75	4449
2026-01-15 21:40:32.17	105.60	8.73	-51.7	-53.6	17.3	0.00e+00	0	48	0	891289600	75	4389
2026-01-15 21:40:33.18	105.75	8.69	-51.6	-53.6	17.3	0.00e+00	0	48	0	893386752	75	4369
2026-01-15 21:40:34.18	105.90	8.64	-51.5	-53.4	17.5	0.00e+00	0	48	0	894435328	75	4282
2026-01-15 21:40:35.19	106.04	8.60	-51.4	-53.3	17.6	0.00e+00	0	48	0	896532480	74	4447
2026-01-15 21:40:36.20	106.19	8.56	-51.6	-53.5	17.3	0.00e+00	0	48	0	898629632	74	4598
2026-01-15 21:40:37.21	106.33	8.51	-51.5	-53.5	17.5	0.00e+00	0	48	0	900726784	74	4551
2026-01-15 21:40:38.22	106.48	8.47	-51.5	-53.4	17.5	0.00e+00	0	48	0	902823936	74	4510
2026-01-15 21:40:39.23	106.62	8.42	-51.5	-53.4	17.5	0.00e+00	0	48	0	904921088	74	4544
2026-01-15 21:40:40.24	106.77	8.38	-51.7	-53.7	17.2	0.00e+00	0	48	0	905969664	74	4666
2026-01-15 21:40:41.25	106.91	8.33	-51.7	-53.7	17.2	0.00e+00	0	48	0	908066816	74	4658
2026-01-15 21:40:42.26	107.06	8.29	-51.6	-53.5	17.4	0.00e+00	0	48	0	910163968	74	4593
2026-01-15 21:40:43.27	107.20	8.24	-51.5	-53.4	17.5	0.00e+00	0	48	0	912261120	74	4518
2026-01-15 21:40:44.28	107.34	8.20	-51.6	-53.6	17.3	0.00e+00	0	48	0	913309696	74	4623
2026-01-15 21:40:45.29	107.48	8.15	-51.6	-53.6	17.3	0.00e+00	0	48	0	915406848	74	4607
2026-01-15 21:40:46.30	107.63	8.11	-51.3	-53.2	17.7	0.00e+00	0	48	0	917504000	74	4422
2026-01-15 21:40:47.31	107.77	8.06	-51.2	-53.1	17.8	0.00e+00	0	48	0	919601152	74	4345
2026-01-15 21:40:48.32	107.91	8.02	-51.3	-53.1	17.8	0.00e+00	0	48	0	921698304	74	4369
2026-01-15 21:40:49.33	108.05	7.97	-51.3	-53.1	17.7	0.00e+00	0	48	0	923795456	74	4369
2026-01-15 21:40:50.34	108.19	7.93	-51.2	-53.0	17.8	0.00e+00	0	48	0	924844032	74	4322
2026-01-15 21:40:51.35	108.33	7.88	-51.2	-53.1	17.7	0.00e+00	0	48	0	926941184	74	4344
2026-01-15 21:40:52.36	108.47	7.84	-51.2	-53.1	17.8	0.00e+00	0	48	0	929038336	74	4351
2026-01-15 21:40:53.37	108.61	7.79	-51.2	-53.1	17.8	0.00e+00	0	48	0	931135488	74	4354
2026-01-15 21:40:54.38	108.75	7.75	-51.4	-53.2	17.6	0.00e+00	0	48	0	933232640	74	4432
2026-01-15 21:40:55.39	108.88	7.70	-51.4	-53.3	17.6	0.00e+00	0	48	0	934281216	74	4471
2026-01-15 21:40:56.40	109.02	7.65	-51.3	-53.1	17.7	0.00e+00	0	48	0	936378368	74	4388
2026-01-15 21:40:57.41	109.16	7.61	-51.5	-53.4	17.4	0.00e+00	0	48	0	938475520	74	4519
2026-01-15 21:40:58.42	109.30	7.56	-51.5	-53.4	17.4	0.00e+00	0	48	0	940572672	74	4514
2026-01-15 21:40:59.43	109.43	7.52	-51.5	-53.4	17.4	0.00e+00	0	48	0	942669824	74	4530
2026-01-15 21:41:00.44	109.57	7.47	-51.5	-53.4	17.4	0.00e+00	0	48	0	943718400	74	4537
2026-01-15 21:41:01.45	109.70	7.43	-51.6	-53.5	17.3	0.00e+00	0	48	0	945815552	74	4590
2026-01-15 21:41:02.46	109.84	7.38	-51.4	-53.3	17.5	0.00e+00	0	48	0	947912704	74	4493
2026-01-15 21:41:03.46	109.97	7.33	-51.6	-53.5	17.3	0.00e+00	0	48	0	950009856	74	4597
2026-01-15 21:41:04.47	110.11	7.29	-51.5	-53.5	17.4	0.00e+00	0	48	0	952107008	74	4552
2026-01-15 21:41:05.48	110.24	7.24	-51.6	-53.6	17.2	0.00e+00	0	48	0	953155584	74	4645
2026-01-15 21:41:06.49	110.38	7.20	-51.7	-53.8	17.1	0.00e+00	0	48	0	955252736	74	4720
2026-01-15 21:41:07.50	110.51	7.15	-51.4	-53.4	17.4	0.00e+00	0	48	0	957349888	74	4514
2026-01-15 21:41:08.51	110.64	7.10	-51.6	-53.6	17.3	0.00e+00	0	48	0	959447040	74	4617
2026-01-15 21:41:09.52	110.77	7.06	-51.6	-53.6	17.2	0.00e+00	0	48	0	961544192	74	4632
2026-01-15 21:41:10.53	110.91	7.01	-51.8	-53.9	16.9	0.00e+00	0	48	0	963641344	74	4806
2026-01-15 21:41:11.54	111.04	6.96	-52.0	-54.2	16.5	0.00e+00	0	48	0	964689920	74	4983
2026-01-15 21:41:12.55	111.17	6.92	-51.7	-53.8	17.1	0.00e+00	0	48	0	966787072	74	4710
2026-01-15 21:41:13.56	111.30	6.87	-51.7	-53.7	17.1	0.00e+00	0	48	0	968884224	74	4691
2026-01-15 21:41:14.57	111.43	6.82	-51.6	-53.6	17.2	0.00e+00	0	48	0	970981376	74	4643
2026-01-15 21:41:15.58	111.56	6.78	-51.6	-53.6	17.2	0.00e+00	0	48	0	972029952	74	4640
2026-01-15 21:41:16.59	111.69	6.73	-51.5	-53.4	17.3	0.00e+00	0	48	0	974127104	74	4543
2026-01-15 21:41:17.60	111.82	6.68	-51.6	-53.5	17.2	0.00e+00	0	48	0	976224256	74	4595
2026-01-15 21:41:18.61	111.95	6.64	-51.7	-53.7	17.1	0.00e+00	0	48	0	978321408	74	4690
2026-01-15 21:41:19.61	112.07	6.59	-51.7	-53.7	17.0	0.00e+00	0	48	0	980418560	74	4690
2026-01-15 21:41:20.62	112.20	6.55	-51.3	-53.2	17.5	0.00e+00	0	48	0	982515712	74	4430
2026-01-15 21:41:21.63	112.33	6.50	-51.7	-53.8	17.0	0.00e+00	0	48	0	983564288	74	4711
2026-01-15 21:41:22.64	112.46	6.45	-51.7	-53.8	17.0	0.00e+00	0	48	0	985661440	74	4718
2026-01-15 21:41:23.65	112.58	6.40	-51.8	-54.0	16.7	0.00e+00	0	48	0	987758592	74	4826
2026-01-15 21:41:24.66	112.71	6.36	-51.5	-53.5	17.2	0.00e+00	0	48	0	989855744	74	4565
2026-01-15 21:41:25.67	112.84	6.31	-51.9	-54.1	16.6	0.00e+00	0	48	0	991952896	74	4906
2026-01-15 21:41:26.68	112.96	6.26	-52.1	-54.3	16.3	0.00e+00	0	48	0	993001472	74	5038
2026-01-15 21:41:27.69	113.09	6.22	-51.9	-54.0	16.6	0.00e+00	0	48	0	995098624	74	4849
2026-01-15 21:41:28.70	113.21	6.17	-52.0	-54.2	16.5	0.00e+00	0	48	0	997195776	75	4659
2026-01-15 21:41:29.71	113.34	6.12	-51.7	-53.8	16.9	0.00e+00	0	48	0	999292928	75	4453
2026-01-15 21:41:30.72	113.46	6.08	-52.0	-54.2	16.4	0.00e+00	0	48	0	1001390080	75	4702
2026-01-15 21:41:31.73	113.58	6.03	-52.1	-54.3	16.3	0.00e+00	0	48	0	1002438656	75	4757
2026-01-15 21:41:32.74	113.71	5.98	-51.9	-54.1	16.5	0.00e+00	0	48	0	1004535808	75	4626
2026-01-15 21:41:33.75	113.83	5.93	-51.4	-53.3	17.3	0.00e+00	0	48	0	1006632960	74	4477
2026-01-15 21:41:34.76	113.95	5.89	-51.9	-54.0	16.6	0.00e+00	0	48	0	1008730112	74	4867
2026-01-15 21:41:35.77	114.08	5.84	-51.8	-54.0	16.6	0.00e+00	0	48	0	1010827264	74	4823
2026-01-15 21:41:36.77	114.20	5.79	-51.9	-54.1	16.5	0.00e+00	0	48	0	1011875840	74	4911
2026-01-15 21:41:37.78	114.32	5.75	-51.8	-54.0	16.6	0.00e+00	0	48	0	1013972992	74	4859
2026-01-15 21:41:38.79	114.44	5.70	-51.9	-54.1	16.4	0.00e+00	0	48	0	1016070144	74	4908
2026-01-15 21:41:39.80	114.56	5.65	-51.8	-54.0	16.6	0.00e+00	0	48	0	1018167296	74	4817
2026-01-15 21:41:40.81	114.68	5.60	-51.9	-54.2	16.3	0.00e+00	0	48	0	1020264448	74	4947
2026-01-15 21:41:41.82	114.80	5.56	-51.8	-54.0	16.4	0.00e+00	0	48	0	1021313024	74	4850
2026-01-15 21:41:42.83	114.92	5.51	-51.8	-54.0	16.4	0.00e+00	0	48	0	1023410176	74	4861
2026-01-15 21:41:43.84	115.04	5.46	-51.7	-53.9	16.5	0.00e+00	0	48	0	1025507328	74	4775
2026-01-15 21:41:44.85	115.16	5.42	-51.9	-54.2	16.2	0.00e+00	0	48	0	1027604480	74	4975
2026-01-15 21:41:45.86	115.28	5.37	-51.8	-54.1	16.3	0.00e+00	0	48	0	1029701632	74	4879
2026-01-15 21:41:46.87	115.39	5.32	-51.8	-54.0	16.3	0.00e+00	0	48	0	1030750208	74	4868
2026-01-15 21:41:47.88	115.51	5.27	-51.9	-54.2	16.1	0.00e+00	0	48	0	1032847360	74	4970
2026-01-15 21:41:48.89	115.63	5.23	-52.0	-54.4	15.9	0.00e+00	0	48	0	1034944512	74	5055
2026-01-15 21:41:49.89	115.74	5.18	-51.9	-54.3	16.0	0.00e+00	0	48	0	1037041664	74	5023
2026-01-15 21:41:50.90	115.86	5.13	-52.1	-54.6	15.7	0.00e+00	0	48	0	1039138816	74	5199
2026-01-15 21:41:51.91	115.98	5.08	-52.2	-54.8	15.5	0.00e+00	0	48	0	1041235968	74	5284
2026-01-15 21:41:52.92	116.09	5.04	-52.4	-55.1	15.2	0.00e+00	0	48	0	1042284544	75	5167
2026-01-15 21:41:53.93	116.21	4.99	-56.1	-65.6	5.6	0.00e+00	0	48	0	1044381696	82	11653
2026-01-15 21:41:54.94	116.32	4.94	-57.0	-72.0	3.8	1.49e+00	0	48	104	1044381696	84	21579
2026-01-15 21:41:55.96	116.44	4.89	-57.3	-72.2	3.8	1.49e+00	0	48	104	1044381696	85	20910
2026-01-15 21:41:56.97	116.55	4.85	-57.5	-72.5	3.8	1.49e+00	0	48	104	1044381696	85	21534
2026-01-15 21:41:57.98	116.67	4.80	-57.6	-72.6	3.8	1.49e+00	0	48	104	1044381696	85	21870
2026-01-15 21:41:58.99	116.78	4.75	-57.8	-72.8	3.8	1.49e+00	0	48	104	1044381696	86	21074
2026-01-15 21:42:00.00	116.90	4.70	-57.9	-72.9	3.8	1.49e+00	0	48	104	1044381696	86	21455
2026-01-15 21:42:01.01	117.01	4.66	-58.1	-73.1	3.8	1.49e+00	0	48	104	1044381696	86	21794
2026-01-15 21:42:02.02	117.12	4.61	-58.1	-73.1	3.8	1.49e+00	0	48	104	1044381696	86	21837
2026-01-15 21:42:03.03	117.23	4.56	-58.1	-73.1	3.8	1.49e+00	0	48	104	1044381696	86	21967
2026-01-15 21:42:04.04	117.35	4.51	-58.2	-73.2	3.8	1.49e+00	0	48	104	1044381696	86	22076
2026-01-15 21:42:05.04	117.46	4.47	-58.2	-73.2	3.8	1.49e+00	0	48	104	1044381696	86	22161
2026-01-15 21:42:06.05	117.57	4.42	-58.2	-73.2	3.8	1.49e+00	0	48	104	1044381696	86	22221
2026-01-15 21:42:07.06	117.68	4.37	-58.2	-73.3	3.8	1.49e+00	0	48	104	1044381696	87	21067
2026-01-15 21:42:08.07	117.79	4.32	-58.3	-73.3	3.8	1.49e+00	0	48	104	1044381696	87	21077
2026-01-15 21:42:09.09	117.90	4.28	-58.3	-73.3	3.8	1.49e+00	0	48	104	1044381696	87	21164
2026-01-15 21:42:10.10	118.01	4.23	-58.3	-73.3	3.8	1.49e+00	0	48	104	1044381696	87	21159
2026-01-15 21:42:11.11	118.12	4.18	-58.3	-73.3	3.8	1.49e+00	0	48	104	1044381696	87	21207
2026-01-15 21:42:12.12	118.23	4.13	-58.3	-73.3	3.8	1.49e+00	0	48	104	1044381696	87	21215
2026-01-15 21:42:13.13	118.34	4.09	-58.3	-73.4	3.8	1.49e+00	0	48	104	1044381696	87	21291
2026-01-15 21:42:14.14	118.45	4.04	-58.4	-73.3	3.8	1.49e+00	0	48	104	1044381696	87	21256
2026-01-15 21:42:15.15	118.56	3.99	-58.4	-73.4	3.8	1.49e+00	0	48	104	1044381696	87	21316
2026-01-15 21:42:16.16	118.66	3.94	-58.4	-73.4	3.8	1.49e+00	0	48	104	1044381696	87	21399
2026-01-15 21:42:17.17	118.77	3.90	-58.4	-73.4	3.8	1.49e+00	0	48	104	1044381696	87	21444
2026-01-15 21:42:18.18	118.88	3.85	-58.4	-73.4	3.8	1.49e+00	0	48	104	1044381696	87	21422
2026-01-15 21:42:19.19	118.99	3.80	-58.4	-73.4	3.8	1.49e+00	0	49	104	1044381696	87	21500
2026-01-15 21:42:20.20	119.09	3.75	-58.4	-73.4	3.8	1.49e+00	0	48	104	1044381696	87	21454
2026-01-15 21:42:21.21	119.20	3.71	-58.4	-73.4	3.8	1.49e+00	0	48	104	1044381696	87	21493
2026-01-15 21:42:22.22	119.30	3.66	-58.4	-73.5	3.8	1.49e+00	0	48	104	1044381696	87	21570
2026-01-15 21:42:23.23	119.41	3.61	-58.4	-73.4	3.8	1.49e+00	0	48	104	1044381696	87	21468
2026-01-15 21:42:24.24	119.52	3.56	-58.4	-73.4	3.8	1.49e+00	0	48	104	1044381696	87	21503
2026-01-15 21:42:25.25	119.62	3.52	-58.4	-73.4	3.8	1.49e+00	0	48	104	1044381696	87	21435
2026-01-15 21:42:26.26	119.72	3.47	-58.4	-73.4	3.8	1.49e+00	0	48	104	1044381696	87	21439
2026-01-15 21:42:27.27	119.83	3.42	-58.4	-73.4	3.8	1.49e+00	0	48	104	1044381696	87	21380
2026-01-15 21:42:28.28	119.93	3.37	-58.4	-73.4	3.8	1.49e+00	0	48	104	1044381696	87	21376
2026-01-15 21:42:29.29	120.04	3.33	-58.4	-73.4	3.8	1.49e+00	0	48	104	1044381696	87	21418
2026-01-15 21:42:30.30	120.14	3.28	-58.4	-73.4	3.8	1.49e+00	0	48	104	1044381696	87	21421
2026-01-15 21:42:31.31	120.24	3.23	-58.4	-73.4	3.8	1.49e+00	0	48	104	1044381696	87	21395
2026-01-15 21:42:32.32	120.35	3.18	-58.4	-73.4	3.8	1.49e+00	0	48	104	1044381696	87	21344
2026-01-15 21:42:33.32	120.45	3.14	-58.4	-73.4	3.8	1.49e+00	0	48	104	1044381696	87	21316
2026-01-15 21:42:34.33	120.55	3.09	-58.4	-73.4	3.8	1.49e+00	0	48	104	1044381696	87	21380
2026-01-15 21:42:35.34	120.65	3.04	-58.4	-73.4	3.8	1.49e+00	0	48	104	1044381696	87	21326
2026-01-15 21:42:36.35	120.75	2.99	-58.4	-73.4	3.8	1.49e+00	0	48	104	1044381696	87	21352
2026-01-15 21:42:37.36	120.85	2.95	-58.3	-73.4	3.8	1.49e+00	0	48	104	1044381696	87	21269
2026-01-15 21:42:38.37	120.95	2.90	-58.3	-73.4	3.8	1.49e+00	0	49	104	1044381696	87	21271
2026-01-15 21:42:39.38	121.05	2.85	-58.3	-73.4	3.8	1.49e+00	0	48	104	1044381696	87	21315
2026-01-15 21:42:40.39	121.16	2.80	-58.3	-73.4	3.8	1.49e+00	0	48	104	1044381696	87	21334
2026-01-15 21:42:41.40	121.26	2.76	-58.3	-73.4	3.8	1.49e+00	0	48	104	1044381696	87	21311
2026-01-15 21:42:42.41	121.35	2.71	-58.3	-73.4	3.8	1.49e+00	0	48	104	1044381696	87	21284
2026-01-15 21:42:43.42	121.45	2.66	-58.3	-73.3	3.8	1.49e+00	0	48	104	1044381696	87	21226
2026-01-15 21:42:44.43	121.55	2.62	-58.3	-73.3	3.8	1.49e+00	0	48	104	1044381696	87	21257
2026-01-15 21:42:45.44	121.65	2.57	-58.3	-73.3	3.8	1.49e+00	0	48	104	1044381696	87	21259
2026-01-15 21:42:46.45	121.75	2.52	-58.3	-73.4	3.8	1.49e+00	0	48	104	1044381696	87	21277
2026-01-15 21:42:47.46	121.85	2.47	-58.3	-73.4	3.8	1.49e+00	0	48	104	1044381696	87	21296
2026-01-15 21:42:48.47	121.95	2.43	-58.3	-73.4	3.8	1.49e+00	0	48	104	1044381696	87	21294
2026-01-15 21:42:49.48	122.04	2.38	-58.3	-73.4	3.8	1.49e+00	0	48	104	1044381696	87	21272
2026-01-15 21:42:50.49	122.14	2.33	-58.3	-73.4	3.8	1.49e+00	0	48	104	1044381696	87	21272
2026-01-15 21:42:51.50	122.24	2.28	-58.3	-73.4	3.8	1.49e+00	0	48	104	1044381696	87	21264
2026-01-15 21:42:52.51	122.33	2.24	-58.3	-73.3	3.8	1.49e+00	0	48	104	1044381696	87	21215
2026-01-15 21:42:53.52	122.43	2.19	-58.3	-73.4	3.8	1.49e+00	0	48	104	1044381696	87	21267
2026-01-15 21:42:54.53	122.53	2.14	-58.3	-73.3	3.8	1.49e+00	0	48	104	1044381696	87	21226
2026-01-15 21:42:55.54	122.62	2.10	-58.3	-73.4	3.8	1.49e+00	0	48	104	1044381696	87	21270
2026-01-15 21:42:56.55	122.72	2.05	-58.3	-73.4	3.8	1.49e+00	0	48	104	1044381696	87	21300
2026-01-15 21:42:57.56	122.81	2.00	-58.3	-73.3	3.8	1.49e+00	0	48	104	1044381696	87	21228
2026-01-15 21:42:58.57	122.91	1.95	-58.3	-73.4	3.8	1.49e+00	0	48	104	1044381696	87	21263
2026-01-15 21:42:59.58	123.00	1.91	-58.3	-73.3	3.8	1.49e+00	0	48	104	1044381696	87	21233

#Closed at: 2026-01-15 21:42:59
#Recorded file [1044 MB]: D:/lorett/data/31041_260116_003142.dat