passes_logs/2026/01/15/R3.2S_Murmansk/R3.2S_Murmansk__20260115_102313_AQUA_rec.log

#Pass ID: 20260115_102313_AQUA
#Satellite: AQUA
#Configuration: AQUA
#almurnet v.1.7.20251203
#Start time: 2026-01-15 10:23:12

#Version: 2.2.20231116
#Station: R3.2S_Murmansk
#Location: 33.079688 lon 68.888172 lat
#TLE: 1 27424U 02022A   26014.61231444  .00000653  00000+0  14070-3 0  9991
#TLE: 2 27424  98.4080 341.0332 0002042  78.9336 335.9961 14.61820174260839

#Time	Az	El	Level	Level2	SNR	BER	BlckErr	Temp	State	Recorded	gain1	gain2
2026-01-15 10:23:12.88	130.24	1.96	-58.0	-77.4	3.8	7.47e-01	0	26	0	0	85	32245
2026-01-15 10:23:13.87	130.22	2.03	-57.8	-77.1	3.8	7.48e-01	0	26	104	0	83	35152
2026-01-15 10:23:14.85	130.19	2.09	-57.8	-77.1	3.8	7.47e-01	0	26	104	0	83	35152
2026-01-15 10:23:15.84	130.17	2.16	-57.8	-77.1	3.8	7.47e-01	0	26	104	0	83	35132
2026-01-15 10:23:16.84	130.14	2.22	-57.8	-77.1	3.8	7.45e-01	0	26	104	0	83	35248
2026-01-15 10:23:17.84	130.11	2.29	-57.8	-77.1	3.8	7.47e-01	0	26	104	0	83	35257
2026-01-15 10:23:18.82	130.09	2.35	-57.8	-77.2	3.8	7.47e-01	0	26	104	0	83	35341
2026-01-15 10:23:19.82	130.06	2.42	-57.8	-77.2	3.8	7.44e-01	0	26	104	0	83	35370
2026-01-15 10:23:20.81	130.04	2.49	-57.8	-77.2	3.8	7.43e-01	0	26	104	0	83	35351
2026-01-15 10:23:21.81	130.01	2.55	-57.8	-77.2	3.8	7.44e-01	0	26	104	0	83	35366
2026-01-15 10:23:22.80	129.98	2.62	-57.8	-77.2	3.8	7.47e-01	0	26	104	0	83	35397
2026-01-15 10:23:23.81	129.95	2.69	-57.8	-77.1	3.8	7.48e-01	0	26	104	0	83	35230
2026-01-15 10:23:24.81	129.93	2.75	-57.8	-77.1	3.8	7.46e-01	0	26	104	0	83	35241
2026-01-15 10:23:25.80	129.90	2.82	-57.8	-77.1	3.8	7.49e-01	0	26	104	0	83	35089
2026-01-15 10:23:26.80	129.87	2.89	-57.8	-77.0	3.8	7.45e-01	0	26	104	0	83	34496
2026-01-15 10:23:27.80	129.85	2.96	-57.8	-76.8	3.8	7.43e-01	0	26	104	0	83	33716
2026-01-15 10:23:28.80	129.82	3.03	-57.8	-76.5	3.8	7.45e-01	0	26	104	0	83	32716
2026-01-15 10:23:29.81	129.79	3.09	-57.8	-76.5	3.8	7.49e-01	0	26	104	0	83	32895
2026-01-15 10:23:30.80	129.76	3.16	-57.8	-76.4	3.8	7.49e-01	0	26	104	0	83	32519
2026-01-15 10:23:31.80	129.73	3.23	-57.8	-76.8	3.8	7.48e-01	0	26	104	0	83	33998
2026-01-15 10:23:32.80	129.70	3.30	-57.8	-77.0	3.8	7.44e-01	0	26	104	0	83	34485
2026-01-15 10:23:33.79	129.68	3.37	-57.8	-77.0	3.8	7.47e-01	0	26	104	0	83	34558
2026-01-15 10:23:34.78	129.65	3.44	-57.8	-76.7	3.8	7.46e-01	0	26	104	0	83	33357
2026-01-15 10:23:35.78	129.62	3.51	-57.8	-76.2	3.8	7.47e-01	0	26	104	0	83	31798
2026-01-15 10:23:36.78	129.59	3.58	-57.8	-75.4	3.8	7.46e-01	0	26	104	0	83	28685
2026-01-15 10:23:37.77	129.56	3.64	-57.8	-73.6	4.0	7.37e-01	0	26	104	0	83	23440
2026-01-15 10:23:38.76	129.53	3.71	-57.7	-71.5	5.0	7.06e-01	13	26	0	0	83	18413
2026-01-15 10:23:39.76	129.50	3.78	-57.6	-70.2	5.7	6.87e-01	29	27	0	524288	83	15837
2026-01-15 10:23:40.75	129.47	3.85	-57.6	-69.5	6.2	6.76e-01	92	27	0	2097152	83	14573
2026-01-15 10:23:41.74	129.44	3.92	-57.5	-69.1	6.5	6.70e-01	92	27	0	4194304	83	13981
2026-01-15 10:23:42.74	129.41	3.99	-57.6	-69.3	6.3	6.74e-01	92	27	0	5767168	83	14211
2026-01-15 10:23:43.73	129.38	4.06	-57.5	-68.9	6.7	6.68e-01	92	27	0	7864320	83	13613
2026-01-15 10:23:44.72	129.35	4.14	-57.5	-68.4	6.9	6.58e-01	92	27	0	9437184	83	12953
2026-01-15 10:23:45.72	129.32	4.21	-57.4	-68.1	7.2	6.53e-01	92	27	0	11534336	83	12401
2026-01-15 10:23:46.73	129.29	4.28	-57.2	-66.2	8.8	6.32e-01	0	27	0	13631488	83	10021
2026-01-15 10:23:47.72	129.26	4.35	-57.0	-65.0	10.0	6.20e-01	0	27	0	15204352	83	8674
2026-01-15 10:23:48.72	129.23	4.42	-56.6	-63.3	11.2	6.15e-01	0	27	0	17301504	82	7605
2026-01-15 10:23:49.71	129.19	4.49	-56.0	-61.4	12.5	6.08e-01	0	27	0	18874368	81	6450
2026-01-15 10:23:50.71	129.16	4.57	-55.2	-59.6	13.2	6.08e-01	0	27	0	20971520	79	5869
2026-01-15 10:23:51.71	129.13	4.64	-54.6	-58.3	14.0	6.07e-01	0	27	0	22544384	78	5342
2026-01-15 10:23:52.71	129.10	4.71	-54.1	-57.4	14.3	6.10e-01	0	27	0	24641536	77	5108
2026-01-15 10:23:53.70	129.07	4.78	-53.0	-55.7	14.8	6.08e-01	0	27	0	26738688	75	4744
2026-01-15 10:23:54.70	129.03	4.86	-53.0	-55.7	14.8	6.09e-01	0	27	0	28311552	75	4729
2026-01-15 10:23:55.69	129.00	4.93	-52.7	-55.4	14.8	6.04e-01	0	27	0	30408704	74	4818
2026-01-15 10:23:56.68	128.97	5.00	-52.1	-54.5	15.0	6.07e-01	0	27	0	31981568	73	4633
2026-01-15 10:23:57.68	128.94	5.08	-52.8	-55.5	14.7	6.06e-01	0	27	0	34078720	73	5178
2026-01-15 10:23:58.67	128.90	5.15	-52.0	-54.3	15.0	6.06e-01	0	27	0	35651584	72	4791
2026-01-15 10:23:59.67	128.87	5.22	-53.4	-56.3	14.5	6.06e-01	0	27	0	37748736	74	5364
2026-01-15 10:24:00.66	128.84	5.30	-54.8	-58.6	14.1	6.08e-01	0	27	0	39321600	78	5536
2026-01-15 10:24:01.66	128.80	5.37	-52.7	-55.3	14.9	6.08e-01	0	27	0	41418752	73	5056
2026-01-15 10:24:02.66	128.77	5.45	-52.7	-55.2	14.8	6.08e-01	0	27	0	43515904	74	4759
2026-01-15 10:24:03.65	128.74	5.52	-52.3	-54.7	15.0	6.06e-01	0	27	0	45088768	73	4706
2026-01-15 10:24:04.65	128.70	5.60	-52.0	-54.3	15.1	6.08e-01	0	27	0	47185920	73	4523
2026-01-15 10:24:05.65	128.67	5.67	-52.1	-54.4	15.0	6.06e-01	0	27	0	48758784	73	4596
2026-01-15 10:24:06.65	128.63	5.75	-52.1	-54.5	15.0	6.06e-01	0	27	0	50855936	73	4616
2026-01-15 10:24:07.64	128.60	5.82	-52.3	-54.7	14.9	6.05e-01	0	27	0	52428800	73	4711
2026-01-15 10:24:08.65	128.56	5.90	-52.5	-54.9	14.9	6.06e-01	0	27	0	54525952	73	4853
2026-01-15 10:24:09.64	128.53	5.98	-52.5	-55.0	14.8	6.06e-01	0	27	0	56623104	73	4901
2026-01-15 10:24:10.62	128.49	6.05	-52.6	-55.1	14.8	6.07e-01	0	27	0	58195968	73	4948
2026-01-15 10:24:11.62	128.45	6.13	-52.5	-55.0	14.8	6.06e-01	0	27	0	60293120	73	4910
2026-01-15 10:24:12.61	128.42	6.21	-52.7	-55.2	14.8	6.06e-01	0	27	0	61865984	73	4998
2026-01-15 10:24:13.61	128.38	6.28	-52.2	-54.6	15.0	6.07e-01	0	27	0	63963136	73	4685
2026-01-15 10:24:14.61	128.35	6.36	-51.9	-54.1	15.2	6.06e-01	0	27	0	65536000	73	4414
2026-01-15 10:24:15.60	128.31	6.44	-52.0	-54.2	15.0	6.07e-01	0	27	0	67633152	72	4756
2026-01-15 10:24:16.59	128.27	6.52	-51.6	-53.8	15.2	6.08e-01	0	27	0	69206016	72	4510
2026-01-15 10:24:17.58	128.23	6.59	-51.8	-54.0	15.1	6.10e-01	0	27	0	71303168	72	4640
2026-01-15 10:24:18.57	128.20	6.67	-51.9	-54.1	15.0	6.06e-01	0	27	0	72876032	72	4698
2026-01-15 10:24:19.57	128.16	6.75	-51.6	-53.8	15.2	6.04e-01	0	27	0	74973184	72	4494
2026-01-15 10:24:20.56	128.12	6.83	-51.6	-53.7	15.2	6.08e-01	0	27	0	77070336	72	4461
2026-01-15 10:24:21.56	128.08	6.91	-51.7	-53.8	15.1	6.06e-01	0	27	0	78643200	72	4523
2026-01-15 10:24:22.55	128.05	6.99	-51.6	-53.7	15.2	6.07e-01	0	27	0	80740352	72	4444
2026-01-15 10:24:23.55	128.01	7.07	-51.5	-53.6	15.2	6.06e-01	0	27	0	82313216	72	4424
2026-01-15 10:24:24.55	127.97	7.15	-51.6	-53.7	15.2	6.08e-01	0	27	0	84410368	72	4459
2026-01-15 10:24:25.55	127.93	7.23	-51.5	-53.6	15.2	6.08e-01	0	27	0	86507520	72	4406
2026-01-15 10:24:26.55	127.89	7.31	-51.6	-53.7	15.2	6.07e-01	0	27	0	88080384	72	4449
2026-01-15 10:24:27.55	127.85	7.39	-51.4	-53.5	15.3	6.06e-01	0	27	0	90177536	72	4362
2026-01-15 10:24:28.54	127.81	7.47	-51.5	-53.6	15.2	6.06e-01	0	27	0	91750400	72	4421
2026-01-15 10:24:29.54	127.77	7.55	-51.6	-53.7	15.2	6.08e-01	0	27	0	93847552	72	4446
2026-01-15 10:24:30.53	127.73	7.63	-51.5	-53.5	15.3	6.06e-01	0	27	0	95420416	72	4374
2026-01-15 10:24:31.53	127.69	7.72	-51.5	-53.6	15.2	6.04e-01	0	27	0	97517568	72	4422
2026-01-15 10:24:32.52	127.65	7.80	-51.5	-53.6	15.2	6.06e-01	0	27	0	99090432	72	4425
2026-01-15 10:24:33.52	127.60	7.88	-51.4	-53.5	15.1	6.07e-01	0	27	0	101187584	71	4608
2026-01-15 10:24:34.51	127.56	7.96	-51.4	-53.4	15.2	6.05e-01	0	27	0	103284736	71	4564
2026-01-15 10:24:35.51	127.52	8.05	-51.4	-53.5	15.1	6.05e-01	0	27	0	104857600	71	4602
2026-01-15 10:24:36.51	127.48	8.13	-51.4	-53.5	15.1	6.07e-01	0	27	0	106954752	71	4618
2026-01-15 10:24:37.50	127.44	8.21	-51.3	-53.4	15.2	6.07e-01	0	27	0	108527616	71	4555
2026-01-15 10:24:38.49	127.39	8.30	-51.3	-53.3	15.2	6.07e-01	0	27	0	110624768	71	4532
2026-01-15 10:24:39.49	127.35	8.38	-51.4	-53.4	15.2	6.07e-01	0	27	0	112197632	71	4588
2026-01-15 10:24:40.48	127.31	8.47	-51.3	-53.3	15.2	6.07e-01	0	27	0	114294784	71	4545
2026-01-15 10:24:41.49	127.26	8.55	-51.3	-53.3	15.2	6.07e-01	0	27	0	116391936	71	4504
2026-01-15 10:24:42.48	127.22	8.64	-51.3	-53.3	15.2	6.07e-01	0	27	0	117964800	71	4526
2026-01-15 10:24:43.48	127.18	8.72	-51.1	-53.1	15.3	6.09e-01	0	27	0	120061952	71	4402
2026-01-15 10:24:44.48	127.13	8.81	-51.3	-53.3	15.2	6.07e-01	0	27	0	121634816	71	4500
2026-01-15 10:24:45.47	127.09	8.89	-51.2	-53.2	15.3	6.08e-01	0	27	0	123731968	71	4463
2026-01-15 10:24:46.45	127.04	8.98	-51.3	-53.3	15.2	6.07e-01	0	27	0	125304832	71	4527
2026-01-15 10:24:47.45	127.00	9.07	-51.2	-53.1	15.3	6.08e-01	0	27	0	127401984	71	4428
2026-01-15 10:24:48.44	126.95	9.15	-51.0	-52.9	15.3	6.08e-01	0	27	0	128974848	71	4340
2026-01-15 10:24:49.44	126.90	9.24	-51.2	-53.1	15.3	6.08e-01	0	27	0	131072000	71	4441
2026-01-15 10:24:50.43	126.86	9.33	-51.2	-53.2	15.3	6.05e-01	0	27	0	133169152	71	4444
2026-01-15 10:24:51.42	126.81	9.42	-51.2	-53.1	15.2	6.06e-01	0	27	0	134742016	71	4426
2026-01-15 10:24:52.41	126.76	9.50	-51.1	-53.0	15.3	6.07e-01	0	27	0	136839168	71	4374
2026-01-15 10:24:53.41	126.72	9.59	-51.0	-52.9	15.3	6.06e-01	0	27	0	138412032	71	4309
2026-01-15 10:24:54.41	126.67	9.68	-51.1	-53.0	15.3	6.06e-01	0	27	0	140509184	71	4360
2026-01-15 10:24:55.40	126.62	9.77	-51.0	-52.8	15.4	6.08e-01	0	27	0	142082048	71	4290
2026-01-15 10:24:56.39	126.57	9.86	-51.0	-52.9	15.4	6.06e-01	0	27	0	144179200	71	4293
2026-01-15 10:24:57.38	126.52	9.95	-51.0	-52.9	15.3	6.04e-01	0	27	0	145752064	71	4305
2026-01-15 10:24:58.37	126.48	10.04	-50.8	-52.7	15.4	6.07e-01	0	27	0	147849216	70	4477
2026-01-15 10:24:59.36	126.43	10.13	-50.9	-52.7	15.3	6.05e-01	0	27	0	149422080	70	4474
2026-01-15 10:25:00.36	126.38	10.22	-50.9	-52.7	15.2	6.05e-01	0	27	0	151519232	70	4491
2026-01-15 10:25:01.36	126.33	10.31	-50.8	-52.7	15.3	6.05e-01	0	27	0	153616384	70	4463
2026-01-15 10:25:02.36	126.28	10.40	-51.0	-52.8	15.2	6.06e-01	0	27	0	155189248	70	4541
2026-01-15 10:25:03.36	126.22	10.50	-50.8	-52.7	15.3	6.05e-01	0	27	0	157286400	70	4447
2026-01-15 10:25:04.35	126.17	10.59	-50.7	-52.6	15.3	6.07e-01	0	27	0	158859264	70	4404
2026-01-15 10:25:05.35	126.12	10.68	-50.7	-52.5	15.3	6.04e-01	0	27	0	160956416	70	4388
2026-01-15 10:25:06.34	126.07	10.78	-50.8	-52.7	15.3	6.07e-01	0	27	0	162529280	70	4458
2026-01-15 10:25:07.34	126.02	10.87	-50.7	-52.5	15.3	6.07e-01	0	27	0	164626432	70	4373
2026-01-15 10:25:08.33	125.97	10.96	-50.7	-52.6	15.3	6.08e-01	0	27	0	166723584	70	4397
2026-01-15 10:25:09.33	125.91	11.06	-50.6	-52.4	15.3	6.05e-01	0	28	0	168296448	70	4337
2026-01-15 10:25:10.33	125.86	11.15	-50.6	-52.4	15.4	6.06e-01	0	27	0	170393600	70	4307
2026-01-15 10:25:11.33	125.80	11.25	-50.6	-52.4	15.4	6.06e-01	0	27	0	171966464	70	4300
2026-01-15 10:25:12.32	125.75	11.34	-50.5	-52.3	15.4	6.07e-01	0	27	0	174063616	70	4272
2026-01-15 10:25:13.31	125.70	11.44	-50.4	-52.2	15.4	6.05e-01	0	27	0	175636480	70	4220
2026-01-15 10:25:14.31	125.64	11.53	-50.5	-52.3	15.4	6.06e-01	0	27	0	177733632	70	4282
2026-01-15 10:25:15.31	125.58	11.63	-50.4	-52.2	15.4	6.05e-01	0	27	0	179306496	70	4208
2026-01-15 10:25:16.30	125.53	11.73	-50.6	-52.4	15.4	6.05e-01	0	27	0	181403648	70	4311
2026-01-15 10:25:17.29	125.47	11.83	-50.4	-52.1	15.4	6.06e-01	0	28	0	183500800	70	4191
2026-01-15 10:25:18.29	125.42	11.92	-50.3	-52.1	15.3	6.06e-01	0	27	0	185073664	69	4409
2026-01-15 10:25:19.29	125.36	12.02	-50.3	-52.1	15.3	6.07e-01	0	27	0	187170816	69	4409
2026-01-15 10:25:20.28	125.30	12.12	-50.5	-52.3	15.3	6.06e-01	0	27	0	188743680	69	4499
2026-01-15 10:25:21.28	125.24	12.22	-50.4	-52.2	15.3	6.06e-01	0	27	0	190840832	69	4444
2026-01-15 10:25:22.28	125.18	12.32	-50.3	-52.1	15.3	6.08e-01	0	27	0	192413696	69	4399
2026-01-15 10:25:23.27	125.13	12.42	-50.4	-52.1	15.3	6.07e-01	0	27	0	194510848	69	4441
2026-01-15 10:25:24.27	125.07	12.52	-50.3	-52.1	15.3	6.07e-01	0	27	0	196083712	69	4395
2026-01-15 10:25:25.26	125.01	12.62	-50.3	-52.0	15.3	6.07e-01	0	27	0	198180864	69	4378
2026-01-15 10:25:26.26	124.95	12.72	-50.4	-52.2	15.3	6.04e-01	0	27	0	200278016	69	4453
2026-01-15 10:25:27.25	124.88	12.82	-50.6	-52.4	15.2	6.06e-01	0	27	0	201850880	69	4559
2026-01-15 10:25:28.25	124.82	12.93	-50.5	-52.3	15.3	6.07e-01	0	27	0	203948032	69	4495
2026-01-15 10:25:29.25	124.76	13.03	-50.3	-52.1	15.3	6.05e-01	0	27	0	205520896	69	4398
2026-01-15 10:25:30.25	124.70	13.13	-50.5	-52.2	15.3	6.06e-01	0	27	0	207618048	69	4483
2026-01-15 10:25:31.25	124.64	13.24	-50.4	-52.1	15.3	6.07e-01	0	27	0	209190912	69	4427
2026-01-15 10:25:32.24	124.57	13.34	-50.3	-52.1	15.3	6.07e-01	0	28	0	211288064	69	4409
2026-01-15 10:25:33.24	124.51	13.44	-50.4	-52.1	15.3	6.07e-01	0	27	0	213385216	69	4417
2026-01-15 10:25:34.24	124.44	13.55	-50.4	-52.1	15.3	6.06e-01	0	27	0	214958080	69	4441
2026-01-15 10:25:35.23	124.38	13.65	-50.3	-52.0	15.3	6.07e-01	0	28	0	217055232	69	4385
2026-01-15 10:25:36.22	124.31	13.76	-50.3	-52.1	15.3	6.06e-01	0	27	0	218628096	69	4404
2026-01-15 10:25:37.22	124.25	13.87	-50.4	-52.2	15.3	6.04e-01	0	27	0	220725248	69	4449
2026-01-15 10:25:38.22	124.18	13.97	-50.3	-52.1	15.3	6.06e-01	0	27	0	222298112	69	4412
2026-01-15 10:25:39.22	124.11	14.08	-50.4	-52.1	15.3	6.05e-01	0	28	0	224395264	69	4410
2026-01-15 10:25:40.22	124.05	14.19	-50.5	-52.3	15.3	6.07e-01	0	27	0	225968128	69	4519
2026-01-15 10:25:41.21	123.98	14.30	-50.3	-52.1	15.3	6.06e-01	0	27	0	228065280	69	4403
2026-01-15 10:25:42.19	123.91	14.40	-50.3	-52.0	15.3	6.08e-01	0	27	0	230162432	69	4372
2026-01-15 10:25:43.19	123.84	14.51	-50.3	-52.0	15.3	6.05e-01	0	27	0	231735296	69	4391
2026-01-15 10:25:44.18	123.77	14.62	-50.2	-51.9	15.4	6.07e-01	0	27	0	233832448	69	4316
2026-01-15 10:25:45.18	123.70	14.73	-50.3	-52.0	15.4	6.06e-01	0	27	0	235405312	69	4353
2026-01-15 10:25:46.17	123.63	14.84	-50.2	-51.9	15.4	6.06e-01	0	28	0	237502464	69	4318
2026-01-15 10:25:47.16	123.56	14.95	-50.1	-51.8	15.4	6.08e-01	0	27	0	239075328	69	4280
2026-01-15 10:25:48.16	123.49	15.07	-50.1	-51.8	15.4	6.07e-01	0	27	0	241172480	69	4291
2026-01-15 10:25:49.15	123.42	15.18	-50.1	-51.8	15.4	6.07e-01	0	28	0	242745344	69	4279
2026-01-15 10:25:50.14	123.34	15.29	-50.2	-51.9	15.4	6.07e-01	0	28	0	244842496	69	4299
2026-01-15 10:25:51.13	123.27	15.40	-50.0	-51.7	15.4	6.05e-01	0	27	0	246939648	69	4221
2026-01-15 10:25:52.13	123.19	15.52	-50.1	-51.8	15.4	6.06e-01	0	28	0	248512512	69	4251
2026-01-15 10:25:53.12	123.12	15.63	-50.1	-51.7	15.4	6.06e-01	0	28	0	250609664	69	4231
2026-01-15 10:25:54.12	123.04	15.75	-50.1	-51.8	15.4	6.07e-01	0	28	0	252182528	69	4246
2026-01-15 10:25:55.12	122.97	15.86	-50.0	-51.6	15.5	6.07e-01	0	27	0	254279680	69	4192
2026-01-15 10:25:56.12	122.89	15.98	-50.1	-51.8	15.4	6.05e-01	0	28	0	255852544	69	4270
2026-01-15 10:25:57.13	122.81	16.10	-50.1	-51.8	15.4	6.06e-01	0	28	0	257949696	69	4262
2026-01-15 10:25:58.12	122.73	16.21	-50.2	-51.8	15.4	6.06e-01	0	27	0	259522560	69	4285
2026-01-15 10:25:59.12	122.65	16.33	-50.1	-51.7	15.4	6.07e-01	0	27	0	261619712	69	4232
2026-01-15 10:26:00.11	122.57	16.45	-50.1	-51.7	15.4	6.08e-01	0	28	0	263716864	69	4232
2026-01-15 10:26:01.11	122.49	16.57	-50.0	-51.7	15.4	6.07e-01	0	27	0	265289728	69	4219
2026-01-15 10:26:02.10	122.41	16.69	-50.1	-51.8	15.4	6.06e-01	0	28	0	267386880	69	4249
2026-01-15 10:26:03.10	122.33	16.81	-50.0	-51.7	15.4	6.08e-01	0	27	0	268959744	69	4224
2026-01-15 10:26:04.09	122.25	16.93	-50.1	-51.8	15.4	6.06e-01	0	27	0	271056896	69	4251
2026-01-15 10:26:05.09	122.16	17.05	-50.0	-51.6	15.5	6.07e-01	0	27	0	273154048	69	4178
2026-01-15 10:26:06.08	122.08	17.17	-50.1	-51.7	15.4	6.06e-01	0	28	0	274726912	69	4234
2026-01-15 10:26:07.08	121.99	17.30	-50.0	-51.7	15.4	6.06e-01	0	28	0	276824064	69	4208
2026-01-15 10:26:08.08	121.91	17.42	-50.0	-51.7	15.4	6.07e-01	0	28	0	278396928	69	4226
2026-01-15 10:26:09.08	121.82	17.54	-50.0	-51.6	15.5	6.07e-01	0	28	0	280494080	69	4192
2026-01-15 10:26:10.07	121.73	17.67	-50.0	-51.7	15.4	6.08e-01	0	27	0	282066944	69	4225
2026-01-15 10:26:11.06	121.65	17.79	-50.1	-51.7	15.4	6.09e-01	0	28	0	284164096	69	4225
2026-01-15 10:26:12.05	121.56	17.92	-50.0	-51.7	15.4	6.05e-01	0	28	0	285736960	69	4210
2026-01-15 10:26:13.04	121.47	18.04	-50.1	-51.7	15.4	6.06e-01	0	27	0	287834112	69	4227
2026-01-15 10:26:14.04	121.38	18.17	-50.2	-51.8	15.4	6.05e-01	0	28	0	289931264	69	4281
2026-01-15 10:26:15.03	121.29	18.30	-50.1	-51.8	15.4	6.06e-01	0	28	0	291504128	69	4269
2026-01-15 10:26:16.03	121.20	18.42	-50.2	-51.9	15.4	6.04e-01	0	28	0	293601280	69	4317
2026-01-15 10:26:17.03	121.10	18.55	-50.1	-51.8	15.4	6.05e-01	0	27	0	295174144	69	4246
2026-01-15 10:26:18.03	121.01	18.68	-50.2	-51.8	15.4	6.07e-01	0	28	0	297271296	69	4279
2026-01-15 10:26:19.03	120.91	18.81	-50.2	-51.9	15.4	6.07e-01	0	27	0	298844160	69	4310
2026-01-15 10:26:20.02	120.82	18.94	-50.1	-51.8	15.4	6.06e-01	0	28	0	300941312	69	4263
2026-01-15 10:26:21.01	120.72	19.08	-50.2	-51.8	15.4	6.06e-01	0	27	0	302514176	69	4283
2026-01-15 10:26:22.00	120.63	19.21	-50.2	-51.8	15.4	6.06e-01	0	28	0	304611328	69	4282
2026-01-15 10:26:23.00	120.53	19.34	-50.0	-51.7	15.4	6.07e-01	0	28	0	306708480	69	4219
2026-01-15 10:26:24.00	120.43	19.47	-50.0	-51.6	15.5	6.05e-01	0	28	0	308281344	69	4192
2026-01-15 10:26:24.99	120.33	19.61	-50.0	-51.7	15.4	6.07e-01	0	28	0	310378496	69	4202
2026-01-15 10:26:26.00	120.22	19.75	-50.0	-51.7	15.4	6.06e-01	0	28	0	311951360	69	4209
2026-01-15 10:26:26.99	120.12	19.88	-50.1	-51.8	15.4	6.05e-01	0	27	0	314048512	69	4252
2026-01-15 10:26:27.98	120.02	20.02	-50.1	-51.8	15.4	6.06e-01	0	28	0	315621376	69	4253
2026-01-15 10:26:28.97	119.92	20.15	-50.1	-51.8	15.4	6.06e-01	0	28	0	317718528	69	4250
2026-01-15 10:26:29.96	119.81	20.29	-50.2	-51.9	15.4	6.07e-01	0	27	0	319291392	69	4295
2026-01-15 10:26:30.96	119.71	20.43	-50.1	-51.8	15.4	6.06e-01	0	28	0	321388544	69	4257
2026-01-15 10:26:31.95	119.60	20.57	-50.5	-61.9	3.8	7.48e-01	0	28	104	321912832	69	13724
2026-01-15 10:26:32.94	119.49	20.71	-50.5	-61.9	3.8	7.44e-01	0	28	104	321912832	69	13683
2026-01-15 10:26:33.94	119.38	20.85	-50.5	-62.0	3.8	7.48e-01	0	28	104	321912832	69	13750
2026-01-15 10:26:34.93	119.27	20.99	-51.9	-63.4	3.9	7.43e-01	0	28	104	321912832	71	14507
2026-01-15 10:26:35.92	119.16	21.13	-59.0	-76.8	3.7	7.45e-01	0	28	104	321912832	85	30126
2026-01-15 10:26:36.93	119.05	21.28	-56.0	-69.1	3.8	7.46e-01	0	28	104	321912832	80	16528
2026-01-15 10:26:37.93	118.93	21.42	-51.5	-63.1	3.8	7.49e-01	0	28	104	321912832	70	14751
2026-01-15 10:26:38.93	118.82	21.57	-50.8	-62.1	3.9	7.39e-01	0	28	104	321912832	70	13219
2026-01-15 10:26:39.92	118.70	21.71	-50.9	-62.3	3.9	7.39e-01	0	28	104	321912832	70	13421
2026-01-15 10:26:40.90	118.59	21.85	-50.7	-62.1	3.8	7.47e-01	0	28	104	321912832	70	13241
2026-01-15 10:26:41.90	118.47	22.00	-51.1	-62.4	3.9	7.41e-01	0	28	104	321912832	70	13710
2026-01-15 10:26:42.89	118.35	22.15	-52.0	-63.6	3.8	7.45e-01	0	28	104	321912832	71	14863
2026-01-15 10:26:43.89	118.23	22.30	-59.0	-76.8	3.7	7.50e-01	0	28	104	321912832	85	30234
2026-01-15 10:26:44.89	118.10	22.45	-55.9	-68.8	3.9	7.43e-01	0	28	104	321912832	80	15969
2026-01-15 10:26:45.89	117.98	22.60	-51.5	-62.9	3.6	7.58e-01	0	28	104	321912832	70	14405
2026-01-15 10:26:46.88	117.86	22.75	-50.9	-62.2	3.7	7.48e-01	0	28	104	321912832	71	12648
2026-01-15 10:26:47.87	117.73	22.90	-51.1	-62.3	4.1	7.39e-01	0	28	104	321912832	71	12757
2026-01-15 10:26:48.87	117.60	23.05	-50.9	-62.2	3.6	7.55e-01	0	28	104	321912832	71	12615
2026-01-15 10:26:49.85	117.48	23.20	-51.1	-62.3	4.2	7.30e-01	0	28	104	321912832	71	12731
2026-01-15 10:26:50.85	117.34	23.36	-52.2	-63.7	3.6	7.46e-01	0	28	104	321912832	72	14137
2026-01-15 10:26:51.85	117.21	23.52	-59.0	-76.5	3.7	7.48e-01	0	28	104	321912832	85	29093
2026-01-15 10:26:52.84	117.08	23.67	-55.7	-68.5	3.8	7.46e-01	0	28	104	321912832	80	15573
2026-01-15 10:26:53.83	116.95	23.83	-51.2	-62.7	3.9	7.44e-01	0	28	104	321912832	70	14140
2026-01-15 10:26:54.83	116.81	23.99	-50.8	-62.2	3.8	7.43e-01	0	28	104	321912832	70	13344
2026-01-15 10:26:55.82	116.67	24.14	-50.8	-62.3	3.9	7.46e-01	0	28	104	321912832	70	13484
2026-01-15 10:26:56.81	116.54	24.30	-50.8	-62.2	3.8	7.45e-01	0	28	104	321912832	70	13338
2026-01-15 10:26:57.81	116.40	24.46	-52.6	-64.3	3.8	7.48e-01	0	28	104	321912832	72	15160
2026-01-15 10:26:58.79	116.26	24.62	-52.2	-63.9	3.8	7.44e-01	0	28	104	321912832	73	13583
2026-01-15 10:26:59.79	116.11	24.78	-58.9	-76.1	3.8	7.49e-01	0	28	104	321912832	85	27890
2026-01-15 10:27:00.78	115.97	24.95	-55.8	-68.7	3.8	7.46e-01	0	28	104	321912832	80	15833
2026-01-15 10:27:01.78	115.82	25.11	-51.1	-62.4	3.8	7.50e-01	0	28	104	321912832	70	13709
2026-01-15 10:27:02.77	115.67	25.28	-50.7	-62.0	3.8	7.47e-01	0	28	104	321912832	70	13044
2026-01-15 10:27:03.76	115.53	25.44	-50.4	-61.7	3.8	7.44e-01	0	28	104	321912832	70	12660
2026-01-15 10:27:04.75	115.38	25.61	-50.3	-61.7	3.9	7.48e-01	0	28	104	321912832	69	13284
2026-01-15 10:27:05.74	115.22	25.77	-50.9	-62.3	3.8	7.45e-01	0	28	104	321912832	69	14301
2026-01-15 10:27:06.73	115.07	25.94	-51.6	-63.2	3.8	7.46e-01	0	28	104	321912832	70	14880
2026-01-15 10:27:07.73	114.91	26.11	-58.8	-75.3	3.7	7.47e-01	0	28	104	321912832	85	25512
2026-01-15 10:27:08.72	114.75	26.28	-55.4	-67.9	3.8	7.48e-01	0	28	104	321912832	79	15315
2026-01-15 10:27:09.73	114.59	26.45	-51.0	-62.5	3.8	7.48e-01	0	28	104	321912832	70	13732
2026-01-15 10:27:10.72	114.43	26.62	-50.8	-62.2	3.8	7.44e-01	0	28	104	321912832	70	13302
2026-01-15 10:27:11.73	114.26	26.80	-50.6	-62.0	3.8	7.43e-01	0	28	104	321912832	70	13056
2026-01-15 10:27:12.72	114.10	26.97	-50.6	-61.9	3.8	7.45e-01	0	28	104	321912832	70	12876
2026-01-15 10:27:13.72	113.93	27.15	-51.0	-62.4	3.8	7.44e-01	0	28	104	321912832	70	13717
2026-01-15 10:27:14.71	113.76	27.32	-51.4	-62.9	3.8	7.45e-01	0	28	104	321912832	70	14378
2026-01-15 10:27:15.70	113.59	27.50	-58.2	-73.4	3.8	7.49e-01	0	28	104	321912832	83	22822
2026-01-15 10:27:16.69	113.42	27.68	-55.2	-67.6	3.8	7.46e-01	0	28	104	321912832	79	14878
2026-01-15 10:27:17.69	113.24	27.86	-50.6	-62.0	3.9	7.47e-01	0	28	104	321912832	70	13001
2026-01-15 10:27:18.69	113.06	28.04	-50.4	-61.7	3.8	7.46e-01	0	28	104	321912832	70	12618
2026-01-15 10:27:19.68	112.89	28.22	-50.2	-61.5	3.8	7.47e-01	0	28	104	321912832	69	13025
2026-01-15 10:27:20.65	112.71	28.39	-50.0	-61.3	3.8	7.48e-01	0	28	104	321912832	69	12760
2026-01-15 10:27:21.65	112.52	28.58	-51.0	-62.4	3.8	7.44e-01	0	28	104	321912832	69	14461
2026-01-15 10:27:22.64	112.34	28.76	-51.5	-63.0	3.8	7.45e-01	0	28	104	321912832	70	14670
2026-01-15 10:27:23.64	112.15	28.95	-57.8	-72.5	3.8	7.53e-01	0	28	104	321912832	83	20610
2026-01-15 10:27:24.64	111.96	29.13	-55.1	-67.5	3.8	7.47e-01	0	28	104	321912832	79	14699
2026-01-15 10:27:25.64	111.76	29.32	-50.3	-61.6	3.9	7.46e-01	0	28	104	321912832	69	13161
2026-01-15 10:27:26.64	111.57	29.51	-50.5	-61.8	3.9	7.44e-01	0	28	104	321912832	70	12763
2026-01-15 10:27:27.63	111.37	29.69	-50.3	-61.6	3.8	7.46e-01	0	28	104	321912832	69	13257
2026-01-15 10:27:28.62	111.17	29.88	-50.2	-61.6	3.8	7.45e-01	0	28	104	321912832	69	13171
2026-01-15 10:27:29.61	110.97	30.07	-51.3	-62.8	3.8	7.45e-01	0	28	104	321912832	70	14354
2026-01-15 10:27:30.61	110.76	30.26	-51.4	-62.9	3.8	7.45e-01	0	28	104	321912832	71	13706
2026-01-15 10:27:31.61	110.55	30.46	-57.6	-71.9	3.8	7.49e-01	0	28	104	321912832	82	20330
2026-01-15 10:27:32.60	110.34	30.65	-54.9	-67.2	3.9	7.46e-01	0	28	104	321912832	79	14147
2026-01-15 10:27:33.60	110.13	30.84	-50.3	-61.5	3.8	7.47e-01	0	28	104	321912832	69	13067
2026-01-15 10:27:34.59	109.92	31.04	-50.3	-61.6	3.9	7.47e-01	0	28	104	321912832	69	13186
2026-01-15 10:27:35.58	109.70	31.23	-50.2	-61.4	3.8	7.45e-01	0	28	104	321912832	69	12946
2026-01-15 10:27:36.57	109.48	31.43	-50.0	-61.3	3.8	7.47e-01	0	28	104	321912832	69	12691
2026-01-15 10:27:37.57	109.25	31.63	-50.7	-62.0	3.8	7.45e-01	0	28	104	321912832	69	13850
2026-01-15 10:27:38.57	109.02	31.83	-51.4	-62.9	3.8	7.47e-01	0	28	104	321912832	70	14450
2026-01-15 10:27:39.57	108.79	32.03	-57.1	-70.8	3.8	7.48e-01	0	28	104	321912832	81	19007
2026-01-15 10:27:40.56	108.56	32.23	-55.1	-67.6	3.8	7.46e-01	0	28	104	321912832	79	14753
2026-01-15 10:27:41.55	108.33	32.43	-50.4	-61.7	3.8	7.45e-01	0	28	104	321912832	70	12553
2026-01-15 10:27:42.56	108.08	32.63	-50.1	-61.4	3.8	7.45e-01	0	28	104	321912832	69	12836
2026-01-15 10:27:43.55	107.84	32.83	-50.1	-61.4	3.9	7.44e-01	0	28	104	321912832	69	12817
2026-01-15 10:27:44.54	107.60	33.04	-50.1	-61.4	3.9	7.46e-01	0	28	104	321912832	69	12855
2026-01-15 10:27:45.54	107.35	33.24	-50.6	-62.0	3.8	7.43e-01	0	28	104	321912832	69	13803
2026-01-15 10:27:46.53	107.10	33.45	-51.6	-63.1	3.8	7.45e-01	0	28	104	321912832	70	14823
2026-01-15 10:27:47.52	106.84	33.65	-56.4	-69.5	3.8	7.47e-01	0	28	104	321912832	80	17430
2026-01-15 10:27:48.52	106.58	33.86	-55.5	-68.1	3.9	7.46e-01	0	28	104	321912832	80	14779
2026-01-15 10:27:49.52	106.32	34.07	-51.0	-62.4	3.9	7.40e-01	0	28	104	321912832	71	12820
2026-01-15 10:27:50.51	106.06	34.28	-50.8	-62.1	3.9	7.47e-01	0	28	104	321912832	70	13150
2026-01-15 10:27:51.50	105.79	34.49	-50.7	-62.1	3.9	7.46e-01	0	28	104	321912832	70	13144
2026-01-15 10:27:52.49	105.52	34.70	-50.7	-62.1	3.9	7.48e-01	0	28	104	321912832	70	13154
2026-01-15 10:27:53.48	105.24	34.91	-51.4	-62.9	3.8	7.45e-01	0	28	104	321912832	70	14395
2026-01-15 10:27:54.47	104.96	35.12	-52.2	-63.8	3.8	7.46e-01	0	28	104	321912832	72	14358
2026-01-15 10:27:55.47	104.68	35.33	-55.7	-68.3	3.8	7.46e-01	0	28	104	321912832	78	16888
2026-01-15 10:27:56.47	104.39	35.55	-56.4	-69.7	3.9	7.44e-01	0	28	104	321912832	82	15798
2026-01-15 10:27:57.46	104.10	35.76	-52.2	-63.6	3.8	7.46e-01	0	28	104	321912832	73	13155
2026-01-15 10:27:58.45	103.81	35.98	-51.7	-63.1	3.9	7.47e-01	0	28	104	321912832	72	13175
2026-01-15 10:27:59.45	103.51	36.19	-51.5	-63.0	3.9	7.48e-01	0	28	104	321912832	72	12974
2026-01-15 10:28:00.45	103.20	36.41	-51.4	-62.9	3.8	7.43e-01	0	28	104	321912832	72	12817
2026-01-15 10:28:01.44	102.89	36.63	-51.8	-63.3	3.8	7.43e-01	0	28	104	321912832	72	13422
2026-01-15 10:28:02.43	102.58	36.84	-52.9	-64.6	3.8	7.46e-01	0	28	104	321912832	73	14814
2026-01-15 10:28:03.42	102.27	37.06	-55.7	-68.0	3.9	7.47e-01	0	28	104	321912832	78	16375
2026-01-15 10:28:04.41	101.95	37.28	-57.4	-71.4	3.9	7.42e-01	0	28	104	321912832	84	17243
2026-01-15 10:28:05.41	101.62	37.50	-53.0	-64.8	3.9	7.43e-01	0	28	104	321912832	75	13421
2026-01-15 10:28:06.41	101.29	37.72	-52.0	-63.5	3.9	7.43e-01	0	28	104	321912832	73	13108
2026-01-15 10:28:07.41	100.95	37.94	-51.8	-63.3	3.9	7.46e-01	0	28	104	321912832	72	13467
2026-01-15 10:28:08.40	100.62	38.16	-52.0	-63.6	3.9	7.45e-01	0	28	104	321912832	72	13926
2026-01-15 10:28:09.40	100.27	38.38	-52.5	-64.2	3.8	7.48e-01	0	28	104	321912832	72	14990
2026-01-15 10:28:10.40	99.92	38.60	-54.3	-66.5	3.8	7.44e-01	0	28	104	321912832	77	14664
2026-01-15 10:28:11.40	99.56	38.83	-54.5	-66.6	3.8	7.47e-01	0	28	104	321912832	76	15628
2026-01-15 10:28:12.40	99.20	39.05	-57.3	-71.9	3.9	7.43e-01	0	28	104	321912832	84	18159
2026-01-15 10:28:13.39	98.84	39.27	-53.7	-65.4	3.8	7.44e-01	0	28	104	321912832	76	13700
2026-01-15 10:28:14.39	98.47	39.49	-52.5	-64.1	3.9	7.47e-01	0	28	104	321912832	73	14022
2026-01-15 10:28:15.39	98.10	39.72	-52.2	-63.8	3.8	7.43e-01	0	28	104	321912832	73	13484
2026-01-15 10:28:16.38	97.72	39.94	-52.5	-64.3	3.8	7.45e-01	0	28	104	321912832	73	14271
2026-01-15 10:28:17.38	97.33	40.16	-52.7	-64.3	3.9	7.45e-01	0	28	104	321912832	73	14351
2026-01-15 10:28:18.37	96.94	40.38	-53.9	-65.9	3.9	7.41e-01	0	28	104	321912832	77	13622
2026-01-15 10:28:19.36	96.55	40.60	-54.2	-66.1	3.8	7.46e-01	0	28	104	321912832	75	15725
2026-01-15 10:28:20.35	96.15	40.83	-57.8	-71.9	3.9	7.42e-01	0	28	104	321912832	84	18113
2026-01-15 10:28:21.34	95.74	41.05	-54.9	-67.3	3.9	7.48e-01	0	28	104	321912832	79	14240
2026-01-15 10:28:22.34	95.33	41.27	-53.0	-64.8	3.8	7.46e-01	0	28	104	321912832	74	14315
2026-01-15 10:28:23.34	94.91	41.49	-51.9	-63.4	3.9	7.42e-01	0	28	104	321912832	73	12842
2026-01-15 10:28:24.33	94.49	41.71	-51.8	-63.4	3.8	7.47e-01	0	28	104	321912832	72	13583
2026-01-15 10:28:25.34	94.05	41.94	-51.6	-63.1	3.9	7.48e-01	0	28	104	321912832	72	13186
2026-01-15 10:28:26.34	93.61	42.16	-53.2	-65.0	3.9	7.47e-01	0	28	104	321912832	74	14567
2026-01-15 10:28:27.33	93.17	42.38	-53.4	-65.1	3.8	7.48e-01	0	28	104	321912832	74	14823
2026-01-15 10:28:28.33	92.72	42.60	-58.1	-72.9	3.9	7.48e-01	0	28	104	321912832	85	19374
2026-01-15 10:28:29.32	92.27	42.82	-54.3	-66.6	3.9	7.45e-01	0	28	104	321912832	78	13886
2026-01-15 10:28:30.32	91.80	43.04	-52.4	-64.0	3.9	7.47e-01	0	28	104	321912832	73	13866
2026-01-15 10:28:31.31	91.34	43.25	-51.7	-63.2	3.8	7.47e-01	0	28	104	321912832	72	13395
2026-01-15 10:28:32.30	90.86	43.47	-51.6	-63.1	3.9	7.45e-01	0	28	104	321912832	72	13233
2026-01-15 10:28:33.30	90.38	43.68	-51.6	-63.0	3.9	7.44e-01	0	28	104	321912832	72	13017
2026-01-15 10:28:34.29	89.89	43.90	-53.0	-64.8	3.9	7.46e-01	0	28	104	321912832	75	13514
2026-01-15 10:28:35.29	89.40	44.11	-52.5	-64.1	3.8	7.45e-01	0	28	104	321912832	73	13984
2026-01-15 10:28:36.28	88.90	44.32	-58.4	-73.7	3.9	7.45e-01	0	28	104	321912832	85	21026
2026-01-15 10:28:37.28	88.39	44.54	-55.0	-67.5	3.8	7.46e-01	0	28	104	321912832	79	14600
2026-01-15 10:28:38.27	87.88	44.74	-52.3	-64.0	3.9	7.41e-01	0	28	104	321912832	73	13738
2026-01-15 10:28:39.26	87.36	44.95	-51.5	-62.9	3.8	7.41e-01	0	28	104	321912832	72	12870
2026-01-15 10:28:40.26	86.82	45.16	-51.5	-62.9	3.8	7.45e-01	0	28	104	321912832	72	12920
2026-01-15 10:28:41.25	86.29	45.36	-51.8	-63.3	3.9	7.51e-01	0	28	104	321912832	72	13543
2026-01-15 10:28:42.26	85.74	45.57	-54.7	-67.0	3.8	7.44e-01	0	28	104	321912832	78	14608
2026-01-15 10:28:43.25	85.19	45.77	-52.6	-64.2	3.9	7.47e-01	0	28	104	321912832	73	14093
2026-01-15 10:28:44.25	84.63	45.97	-58.4	-73.7	3.9	7.45e-01	0	28	104	321912832	85	21040
2026-01-15 10:28:45.25	84.06	46.17	-54.9	-67.3	3.9	7.44e-01	0	28	104	321912832	79	14318
2026-01-15 10:28:46.25	83.49	46.37	-52.8	-64.5	3.9	7.46e-01	0	28	104	321912832	73	14685
2026-01-15 10:28:47.24	82.91	46.56	-51.7	-63.2	3.9	7.46e-01	0	28	104	321912832	72	13369
2026-01-15 10:28:48.24	82.32	46.75	-52.0	-63.5	3.9	7.45e-01	0	28	104	321912832	72	13851
2026-01-15 10:28:49.23	81.73	46.94	-51.9	-63.4	3.8	7.45e-01	0	28	104	321912832	72	13720
2026-01-15 10:28:50.22	81.14	47.12	-53.8	-65.6	3.9	7.45e-01	0	28	104	321912832	76	13923
2026-01-15 10:28:51.21	80.53	47.31	-52.4	-64.0	3.9	7.45e-01	0	28	104	321912832	73	13862
2026-01-15 10:28:52.21	79.91	47.49	-58.7	-74.5	3.9	7.42e-01	0	28	104	321912832	85	23121
2026-01-15 10:28:53.20	79.29	47.66	-55.6	-68.3	3.9	7.44e-01	0	28	104	321912832	80	15134
2026-01-15 10:28:54.20	78.66	47.84	-53.3	-65.2	3.8	7.43e-01	0	28	104	321912832	74	14931
2026-01-15 10:28:55.19	78.03	48.01	-52.1	-63.6	3.8	7.48e-01	0	28	104	321912832	73	13238
2026-01-15 10:28:56.20	77.37	48.18	-52.0	-63.6	3.9	7.46e-01	0	28	104	321912832	73	13131
2026-01-15 10:28:57.18	76.73	48.35	-51.8	-63.3	3.9	7.43e-01	0	28	104	321912832	72	13516
2026-01-15 10:28:58.17	76.08	48.51	-53.1	-64.9	3.9	7.43e-01	0	28	104	321912832	75	13670
2026-01-15 10:28:59.16	75.41	48.67	-52.2	-63.6	3.9	7.47e-01	0	28	104	321912832	73	13164
2026-01-15 10:29:00.16	74.74	48.82	-58.9	-75.1	3.8	7.42e-01	0	28	104	321912832	85	24898
2026-01-15 10:29:01.16	74.06	48.97	-55.8	-68.6	3.9	7.44e-01	0	28	104	321912832	81	14759
2026-01-15 10:29:02.15	73.37	49.12	-53.1	-64.9	3.8	7.45e-01	0	28	104	321912832	74	14486
2026-01-15 10:29:03.16	72.67	49.27	-52.2	-63.8	3.8	7.45e-01	0	28	104	321912832	73	13441
2026-01-15 10:29:04.15	71.98	49.41	-52.1	-63.6	3.8	7.49e-01	0	28	104	321912832	72	14017
2026-01-15 10:29:05.15	71.27	49.54	-51.7	-63.2	3.8	7.46e-01	0	28	104	321912832	72	13305
2026-01-15 10:29:06.14	70.56	49.67	-53.2	-65.1	3.9	7.47e-01	0	28	104	321912832	75	13942
2026-01-15 10:29:07.13	69.84	49.80	-52.3	-63.7	3.9	7.47e-01	0	28	104	321912832	73	13364
2026-01-15 10:29:08.13	69.12	49.92	-58.9	-75.1	3.9	7.47e-01	0	28	104	321912832	85	24977
2026-01-15 10:29:09.12	68.39	50.04	-56.2	-68.9	3.9	7.46e-01	0	28	104	321912832	81	15356
2026-01-15 10:29:10.12	67.65	50.15	-52.7	-64.3	3.9	7.49e-01	0	28	104	321912832	73	14347
2026-01-15 10:29:11.12	66.91	50.26	-52.1	-63.7	3.8	7.49e-01	0	28	104	321912832	73	13279
2026-01-15 10:29:12.11	66.17	50.37	-51.8	-63.4	3.8	7.47e-01	0	28	104	321912832	72	13591
2026-01-15 10:29:13.11	65.41	50.47	-51.5	-62.9	3.8	7.44e-01	0	28	104	321912832	72	12920
2026-01-15 10:29:14.10	64.66	50.56	-52.8	-64.4	3.9	7.44e-01	0	28	104	321912832	74	13696
2026-01-15 10:29:15.09	63.90	50.65	-52.4	-64.0	3.9	7.47e-01	0	28	104	321912832	74	12990
2026-01-15 10:29:16.09	63.13	50.73	-58.9	-75.1	3.8	7.43e-01	0	28	104	321912832	85	24735
2026-01-15 10:29:17.07	62.38	50.81	-56.4	-69.4	3.9	7.44e-01	0	28	104	321912832	82	15347
2026-01-15 10:29:18.06	61.61	50.88	-52.4	-64.0	3.9	7.46e-01	0	28	104	321912832	72	14541
2026-01-15 10:29:19.06	60.83	50.95	-51.7	-63.2	3.8	7.45e-01	0	28	104	321912832	72	13357
2026-01-15 10:29:20.05	60.05	51.01	-51.2	-62.8	3.8	7.48e-01	0	28	104	321912832	71	13416
2026-01-15 10:29:21.05	59.26	51.07	-51.0	-62.4	3.9	7.45e-01	0	28	104	321912832	71	12911
2026-01-15 10:29:22.05	58.47	51.12	-53.0	-64.8	3.9	7.43e-01	0	28	104	321912832	74	14258
2026-01-15 10:29:23.04	57.69	51.17	-52.7	-64.3	3.9	7.46e-01	0	28	104	321912832	74	13552
2026-01-15 10:29:24.04	56.90	51.21	-59.0	-75.3	3.8	7.48e-01	0	28	104	321912832	85	25273
2026-01-15 10:29:25.04	56.10	51.24	-56.8	-70.2	3.9	7.42e-01	0	28	104	321912832	82	16820
2026-01-15 10:29:26.04	55.30	51.27	-52.4	-64.1	3.8	7.44e-01	0	28	104	321912832	72	14727
2026-01-15 10:29:27.03	54.51	51.30	-51.6	-63.1	3.8	7.48e-01	0	28	104	321912832	72	13171
2026-01-15 10:29:28.03	53.71	51.31	-51.2	-62.7	3.9	7.45e-01	0	28	104	321912832	71	13311
2026-01-15 10:29:29.02	52.91	51.32	-51.2	-62.7	3.8	7.47e-01	0	28	104	321912832	71	13320
2026-01-15 10:29:30.02	52.11	51.33	-53.6	-65.5	3.8	7.42e-01	0	28	104	321912832	75	14637
2026-01-15 10:29:31.02	51.31	51.33	-52.6	-64.3	3.9	7.45e-01	0	28	104	321912832	74	13516
2026-01-15 10:29:32.02	50.51	51.32	-58.9	-74.9	3.8	7.48e-01	0	28	104	321912832	85	24261
2026-01-15 10:29:33.01	49.71	51.31	-56.8	-70.1	3.9	7.41e-01	0	28	104	321912832	82	16540
2026-01-15 10:29:34.02	48.90	51.30	-52.2	-63.8	3.8	7.46e-01	0	28	104	321912832	72	14325
2026-01-15 10:29:35.02	48.10	51.27	-51.4	-62.8	3.8	7.45e-01	0	28	104	321912832	72	12743
2026-01-15 10:29:36.01	47.31	51.24	-51.3	-62.7	3.8	7.44e-01	0	28	104	321912832	71	13368
2026-01-15 10:29:37.01	46.52	51.21	-51.2	-62.7	3.9	7.48e-01	0	28	104	321912832	71	13315
2026-01-15 10:29:38.01	45.72	51.17	-53.5	-65.3	3.8	7.44e-01	0	28	104	321912832	75	14258
2026-01-15 10:29:39.01	44.93	51.12	-52.6	-64.3	3.9	7.47e-01	0	28	104	321912832	74	13451
2026-01-15 10:29:40.01	44.14	51.07	-58.9	-74.9	3.8	7.43e-01	0	28	104	321912832	85	24206
2026-01-15 10:29:41.00	43.36	51.01	-56.9	-70.4	3.9	7.43e-01	0	28	104	321912832	82	17237
2026-01-15 10:29:42.01	42.57	50.95	-52.0	-63.4	3.9	7.45e-01	0	28	104	321912832	72	13663
2026-01-15 10:29:43.00	41.80	50.88	-51.6	-63.1	3.8	7.49e-01	0	28	104	321912832	72	13182
2026-01-15 10:29:44.00	41.02	50.81	-51.8	-63.4	3.8	7.43e-01	0	28	104	321912832	72	13586
2026-01-15 10:29:44.99	40.26	50.73	-51.2	-62.6	3.8	7.49e-01	0	28	104	321912832	71	13150
2026-01-15 10:29:45.99	39.49	50.65	-51.5	-63.0	3.8	7.48e-01	0	28	104	321912832	71	13733
2026-01-15 10:29:46.98	38.74	50.56	-56.0	-68.9	3.8	7.47e-01	0	28	104	321912832	79	17099
2026-01-15 10:29:47.99	37.97	50.46	-57.5	-71.7	3.8	7.45e-01	0	28	104	321912832	82	19990
2026-01-15 10:29:48.99	37.21	50.36	-52.4	-63.8	3.8	7.46e-01	0	28	104	321912832	74	12729
2026-01-15 10:29:49.98	36.47	50.26	-58.9	-74.7	3.8	7.46e-01	0	28	104	321912832	85	23617
2026-01-15 10:29:50.97	35.74	50.15	-52.7	-64.5	3.9	7.46e-01	0	28	104	321912832	74	13861
2026-01-15 10:29:51.97	35.00	50.04	-52.2	-63.7	3.8	7.50e-01	0	28	104	321912832	73	13320
2026-01-15 10:29:52.96	34.27	49.92	-51.9	-63.4	3.8	7.44e-01	0	28	104	321912832	73	12918
2026-01-15 10:29:53.96	33.55	49.80	-57.2	-70.6	3.8	7.46e-01	0	28	104	321912832	82	17658
2026-01-15 10:29:54.95	32.84	49.67	-53.2	-65.0	3.9	7.45e-01	0	28	104	321912832	75	13762
2026-01-15 10:29:55.94	32.13	49.54	-58.9	-74.9	3.8	7.44e-01	0	28	104	321912832	85	24262
2026-01-15 10:29:56.94	31.42	49.40	-57.3	-70.8	3.8	7.42e-01	0	28	104	321912832	83	17002
2026-01-15 10:29:57.93	30.73	49.26	-51.5	-63.0	3.8	7.44e-01	0	28	104	321912832	71	13841
2026-01-15 10:29:58.93	30.03	49.12	-51.5	-63.1	3.9	7.48e-01	0	28	104	321912832	71	13986
2026-01-15 10:29:59.92	29.35	48.97	-51.2	-62.5	3.9	7.44e-01	0	28	104	321912832	71	13101
2026-01-15 10:30:00.92	28.67	48.82	-51.0	-62.3	3.8	7.48e-01	0	28	104	321912832	71	12775
2026-01-15 10:30:01.91	28.00	48.66	-51.3	-62.7	3.8	7.44e-01	0	28	104	321912832	70	14080
2026-01-15 10:30:02.92	27.33	48.50	-55.2	-67.7	3.8	7.44e-01	0	28	104	321912832	78	15763
2026-01-15 10:30:03.92	26.67	48.34	-57.8	-72.1	3.8	7.43e-01	0	28	104	321912832	83	19763
2026-01-15 10:30:04.91	26.02	48.18	-51.3	-62.6	3.9	7.46e-01	0	28	104	321912832	71	13188
2026-01-15 10:30:05.91	25.37	48.01	-58.9	-74.6	3.8	7.46e-01	0	28	104	321912832	85	23422
2026-01-15 10:30:06.91	24.74	47.83	-51.7	-63.3	3.9	7.45e-01	0	28	104	321912832	72	13431
2026-01-15 10:30:07.91	24.10	47.66	-51.2	-62.6	3.9	7.44e-01	0	28	104	321912832	71	13139
2026-01-15 10:30:08.91	23.48	47.48	-51.0	-62.3	3.9	7.46e-01	0	28	104	321912832	71	12687
2026-01-15 10:30:09.91	22.86	47.30	-55.4	-67.8	3.8	7.43e-01	0	28	104	321912832	78	16067
2026-01-15 10:30:10.91	22.25	47.11	-55.2	-67.8	3.8	7.49e-01	0	28	104	321912832	78	16058
2026-01-15 10:30:11.90	21.66	46.93	-57.8	-72.0	3.9	7.45e-01	0	28	104	321912832	83	19414
2026-01-15 10:30:12.90	21.06	46.74	-51.5	-62.9	3.8	7.44e-01	0	28	104	321912832	72	12941
2026-01-15 10:30:13.90	20.47	46.55	-58.8	-74.3	3.8	7.49e-01	0	28	104	321912832	85	22690
2026-01-15 10:30:14.90	19.89	46.35	-51.8	-63.2	3.9	7.45e-01	0	28	104	321912832	72	13389
2026-01-15 10:30:15.89	19.33	46.16	-51.5	-62.9	3.9	7.46e-01	0	28	104	321912832	72	12920
2026-01-15 10:30:16.89	18.76	45.96	-51.6	-63.0	3.9	7.46e-01	0	28	104	321912832	72	13085
2026-01-15 10:30:17.88	18.21	45.76	-57.0	-70.2	3.8	7.48e-01	0	28	104	321912832	81	17807
2026-01-15 10:30:18.88	17.66	45.56	-53.8	-65.7	3.9	7.45e-01	0	28	104	321912832	76	14165
2026-01-15 10:30:19.87	17.12	45.36	-58.7	-74.2	3.8	7.45e-01	0	28	104	321912832	85	22266
2026-01-15 10:30:20.87	16.58	45.15	-57.4	-71.4	3.8	7.47e-01	0	28	104	321912832	83	18137
2026-01-15 10:30:21.86	16.05	44.95	-51.2	-62.6	3.9	7.44e-01	0	28	104	321912832	71	13119
2026-01-15 10:30:22.85	15.54	44.74	-50.9	-62.3	3.9	7.46e-01	0	28	104	321912832	71	12699
2026-01-15 10:30:23.85	15.02	44.53	-50.9	-62.3	3.9	7.46e-01	0	28	104	321912832	71	12674
2026-01-15 10:30:24.85	14.51	44.32	-50.8	-62.2	3.8	7.45e-01	0	28	104	321912832	70	13293
2026-01-15 10:30:25.84	14.01	44.11	-51.8	-63.1	3.9	7.46e-01	0	28	104	321912832	71	14014
2026-01-15 10:30:26.84	13.52	43.89	-54.1	-66.2	3.8	7.46e-01	0	28	104	321912832	75	15851
2026-01-15 10:30:27.83	13.03	43.68	-57.9	-72.2	3.8	7.46e-01	0	28	104	321912832	83	19887
2026-01-15 10:30:28.82	12.56	43.47	-52.3	-63.8	3.9	7.43e-01	0	28	104	321912832	73	13424
2026-01-15 10:30:29.81	12.09	43.25	-58.7	-74.3	3.8	7.46e-01	0	28	104	321912832	85	22564
2026-01-15 10:30:30.80	11.62	43.03	-52.2	-63.7	3.8	7.46e-01	0	28	104	321912832	73	13406
2026-01-15 10:30:31.79	11.16	42.82	-52.1	-63.5	3.8	7.48e-01	0	28	104	321912832	72	13842
2026-01-15 10:30:32.79	10.71	42.60	-51.6	-63.1	3.8	7.45e-01	0	28	104	321912832	72	13137
2026-01-15 10:30:33.78	10.26	42.38	-56.2	-69.0	3.8	7.45e-01	0	28	104	321912832	80	16468
2026-01-15 10:30:34.79	9.81	42.16	-54.6	-66.7	3.9	7.44e-01	0	28	104	321912832	78	14183
2026-01-15 10:30:35.78	9.38	41.94	-58.8	-74.4	3.8	7.48e-01	0	28	104	321912832	85	22934
2026-01-15 10:30:36.78	8.95	41.72	-58.1	-72.5	3.8	7.49e-01	0	28	104	321912832	84	19532
2026-01-15 10:30:37.76	8.53	41.50	-51.8	-63.4	3.9	7.46e-01	0	28	104	321912832	72	13669
2026-01-15 10:30:38.76	8.11	41.28	-51.8	-63.2	3.8	7.43e-01	0	28	104	321912832	72	13344
2026-01-15 10:30:39.76	7.70	41.06	-51.7	-63.2	3.9	7.47e-01	0	28	104	321912832	72	13313
2026-01-15 10:30:40.74	7.30	40.84	-51.8	-63.2	3.8	7.48e-01	0	28	104	321912832	72	13380
2026-01-15 10:30:41.74	6.90	40.61	-53.0	-64.8	3.8	7.46e-01	0	28	104	321912832	73	15083
2026-01-15 10:30:42.74	6.50	40.39	-54.4	-66.6	3.8	7.48e-01	0	28	104	321912832	76	15684
2026-01-15 10:30:43.73	6.11	40.17	-58.5	-73.5	3.8	7.46e-01	0	28	104	321912832	84	21761
2026-01-15 10:30:44.73	5.73	39.95	-52.5	-63.9	3.8	7.46e-01	0	28	104	321912832	74	12941
2026-01-15 10:30:45.73	5.35	39.73	-58.9	-74.5	3.8	7.49e-01	0	28	104	321912832	85	23225
2026-01-15 10:30:46.72	4.98	39.50	-52.4	-64.1	3.8	7.48e-01	0	28	104	321912832	74	13249
2026-01-15 10:30:47.72	4.61	39.28	-52.3	-64.2	3.8	7.46e-01	0	28	104	321912832	73	14182
2026-01-15 10:30:48.71	4.24	39.06	-52.4	-63.8	3.8	7.48e-01	0	28	104	321912832	73	13554
2026-01-15 10:30:49.70	3.89	38.84	-57.6	-71.5	3.8	7.46e-01	0	28	104	321912832	82	19552
2026-01-15 10:30:50.70	3.53	38.62	-55.8	-68.3	3.9	7.45e-01	0	28	104	321912832	80	15192
2026-01-15 10:30:51.70	3.18	38.40	-58.9	-74.5	3.8	7.47e-01	0	28	104	321912832	85	23146
2026-01-15 10:30:52.69	2.84	38.18	-58.3	-72.9	3.8	7.44e-01	0	28	104	321912832	85	19324
2026-01-15 10:30:53.69	2.50	37.96	-52.8	-64.4	3.8	7.43e-01	0	28	104	321912832	74	13598
2026-01-15 10:30:54.68	2.17	37.74	-52.4	-64.2	3.9	7.46e-01	0	28	104	321912832	74	13392
2026-01-15 10:30:55.68	1.84	37.52	-52.6	-64.0	3.8	7.44e-01	0	28	104	321912832	73	13738
2026-01-15 10:30:56.68	1.51	37.30	-52.3	-63.7	3.8	7.44e-01	0	28	104	321912832	73	13380
2026-01-15 10:30:57.68	1.19	37.08	-52.8	-64.9	3.9	7.46e-01	0	28	104	321912832	73	15274
2026-01-15 10:30:58.67	0.88	36.86	-54.6	-66.7	3.8	7.47e-01	0	28	104	321912832	76	15920
2026-01-15 10:30:59.67	0.57	36.65	-58.1	-72.3	3.8	7.45e-01	0	28	104	321912832	83	20163
2026-01-15 10:31:00.67	0.26	36.43	-53.4	-65.1	3.9	7.49e-01	0	28	104	321912832	76	13129
2026-01-15 10:31:01.66	359.96	36.21	-58.6	-74.1	3.8	7.48e-01	0	28	104	321912832	84	23562
2026-01-15 10:31:02.65	359.66	36.00	-53.6	-65.6	3.8	7.46e-01	0	28	104	321912832	76	13955
2026-01-15 10:31:03.65	359.36	35.79	-52.4	-63.7	3.9	7.47e-01	0	28	104	321912832	73	13383
2026-01-15 10:31:04.64	359.07	35.57	-52.4	-64.1	3.8	7.46e-01	0	28	104	321912832	73	13929
2026-01-15 10:31:05.64	358.78	35.36	-55.9	-69.0	3.8	7.48e-01	0	28	104	321912832	79	17338
2026-01-15 10:31:06.64	358.50	35.15	-54.3	-66.1	3.8	7.46e-01	0	28	104	321912832	77	13931
2026-01-15 10:31:07.64	358.22	34.93	-57.6	-71.3	3.8	7.50e-01	0	28	104	321912832	82	19137
2026-01-15 10:31:08.63	357.95	34.72	-52.7	-64.4	3.9	7.43e-01	0	28	104	321912832	74	13631
2026-01-15 10:31:09.63	357.67	34.51	-57.9	-72.7	3.8	7.49e-01	0	28	104	321912832	83	21258
2026-01-15 10:31:10.62	357.41	34.30	-52.0	-63.6	3.9	7.45e-01	0	28	104	321912832	73	13244
2026-01-15 10:31:11.63	357.14	34.09	-51.4	-62.5	3.8	7.44e-01	0	28	104	321912832	71	12970
2026-01-15 10:31:12.62	356.88	33.89	-51.4	-62.5	3.8	7.44e-01	0	28	104	321912832	71	13019
2026-01-15 10:31:13.61	356.62	33.68	-54.6	-66.9	3.8	7.46e-01	0	28	104	321912832	76	16137
2026-01-15 10:31:14.61	356.37	33.47	-53.6	-65.7	3.9	7.44e-01	0	28	104	321912832	76	14093
2026-01-15 10:31:15.61	356.11	33.27	-57.5	-71.3	3.8	7.43e-01	0	28	104	321912832	82	19135
2026-01-15 10:31:16.60	355.87	33.06	-52.3	-63.5	3.8	7.45e-01	0	28	104	321912832	73	12995
2026-01-15 10:31:17.59	355.62	32.86	-57.0	-70.4	3.8	7.43e-01	0	28	104	321912832	81	18183
2026-01-15 10:31:18.58	355.38	32.66	-52.6	-64.4	3.9	7.45e-01	0	28	104	321912832	74	13603
2026-01-15 10:31:19.57	355.15	32.46	-51.0	-62.4	3.8	7.44e-01	0	28	104	321912832	71	12830
2026-01-15 10:31:20.57	354.91	32.26	-50.9	-62.1	3.9	7.45e-01	0	28	104	321912832	71	12399
2026-01-15 10:31:21.55	354.68	32.06	-54.0	-65.8	3.8	7.46e-01	0	28	104	321912832	75	15216
2026-01-15 10:31:22.55	354.45	31.86	-53.5	-65.4	3.8	7.46e-01	0	28	104	321912832	76	13606
2026-01-15 10:31:23.55	354.22	31.66	-56.6	-69.9	3.8	7.44e-01	0	28	104	321912832	80	18296
2026-01-15 10:31:24.54	354.00	31.47	-52.9	-64.6	3.9	7.43e-01	0	28	104	321912832	75	13130
2026-01-15 10:31:25.53	353.78	31.27	-55.8	-68.4	3.8	7.46e-01	0	28	104	321912832	79	16202
2026-01-15 10:31:26.52	353.57	31.08	-52.8	-64.1	3.9	7.47e-01	0	28	104	321912832	74	13149
2026-01-15 10:31:27.51	353.35	30.88	-50.9	-62.4	3.9	7.46e-01	0	28	104	321912832	70	13713
2026-01-15 10:31:28.51	353.14	30.69	-50.9	-62.7	3.9	7.45e-01	0	28	104	321912832	70	14133
2026-01-15 10:31:29.52	352.92	30.49	-54.1	-66.3	3.8	7.49e-01	0	28	104	321912832	75	16036
2026-01-15 10:31:30.52	352.72	30.30	-53.5	-65.2	3.8	7.47e-01	0	28	104	321912832	76	13401
2026-01-15 10:31:31.52	352.51	30.11	-56.5	-69.4	3.8	7.47e-01	0	28	104	321912832	80	17110
2026-01-15 10:31:32.51	352.31	29.92	-52.7	-64.1	3.9	7.45e-01	0	28	104	321912832	74	13155
2026-01-15 10:31:33.51	352.11	29.73	-55.6	-68.1	3.8	7.47e-01	0	28	104	321912832	78	16578
2026-01-15 10:31:34.51	351.91	29.54	-52.6	-64.3	3.9	7.43e-01	0	28	104	321912832	74	13564
2026-01-15 10:31:35.51	351.72	29.36	-50.8	-62.1	3.9	7.45e-01	0	28	104	321912832	70	13208
2026-01-15 10:31:36.50	351.52	29.17	-50.8	-61.8	3.9	7.47e-01	0	28	104	321912832	70	12780
2026-01-15 10:31:37.49	351.33	28.99	-52.5	-64.0	3.8	7.45e-01	0	28	104	321912832	72	14601
2026-01-15 10:31:38.50	351.14	28.80	-52.9	-64.7	3.8	7.47e-01	0	28	104	321912832	75	13394
2026-01-15 10:31:39.50	350.96	28.62	-56.0	-69.1	3.8	7.50e-01	0	28	104	321912832	79	17563
2026-01-15 10:31:40.49	350.78	28.44	-53.3	-65.4	3.9	7.44e-01	0	28	104	321912832	76	13688
2026-01-15 10:31:41.49	350.59	28.25	-54.1	-65.9	3.8	7.46e-01	0	28	104	321912832	75	15277
2026-01-15 10:31:42.49	350.41	28.07	-53.0	-64.5	3.9	7.41e-01	0	28	104	321912832	75	12960
2026-01-15 10:31:43.48	350.24	27.89	-50.8	-61.9	3.9	7.47e-01	0	28	104	321912832	70	12878
2026-01-15 10:31:44.47	350.06	27.72	-50.8	-62.2	3.9	7.46e-01	0	28	104	321912832	70	13306
2026-01-15 10:31:45.46	349.89	27.54	-53.1	-65.0	3.8	7.44e-01	0	28	104	321912832	73	15444
2026-01-15 10:31:46.45	349.72	27.37	-51.2	-62.8	3.9	7.48e-01	0	28	104	321912832	71	13494
2026-01-15 10:31:47.45	349.55	27.19	-55.8	-68.7	3.8	7.47e-01	0	28	104	321912832	79	16834
2026-01-15 10:31:48.44	349.39	27.02	-54.9	-67.3	3.9	7.45e-01	0	28	104	321912832	79	14273
2026-01-15 10:31:49.44	349.22	26.84	-53.0	-64.7	3.8	7.47e-01	0	28	104	321912832	73	14913
2026-01-15 10:31:50.44	349.06	26.67	-54.1	-66.1	3.9	7.44e-01	0	28	104	321912832	77	13974
2026-01-15 10:31:51.43	348.90	26.50	-51.0	-62.4	3.9	7.44e-01	0	28	104	321912832	71	12926
2026-01-15 10:31:52.43	348.74	26.33	-50.9	-62.3	3.9	7.46e-01	0	28	104	321912832	71	12679
2026-01-15 10:31:53.43	348.58	26.16	-52.5	-64.1	3.8	7.45e-01	0	28	104	321912832	72	14759
2026-01-15 10:31:54.42	348.42	25.99	-53.7	-65.5	3.9	7.45e-01	0	28	104	321912832	76	13878
2026-01-15 10:31:55.40	348.27	25.82	-55.8	-68.8	3.8	7.47e-01	0	28	104	321912832	79	16959
2026-01-15 10:31:56.40	348.12	25.66	-54.9	-67.4	3.8	7.42e-01	0	28	104	321912832	79	14500
2026-01-15 10:31:57.40	347.97	25.49	-52.7	-64.3	3.8	7.46e-01	0	28	104	321912832	72	15165
2026-01-15 10:31:58.39	347.82	25.32	-55.2	-67.6	3.9	7.46e-01	0	28	104	321912832	79	14845
2026-01-15 10:31:59.39	347.67	25.16	-51.1	-62.5	3.8	7.48e-01	0	28	104	321912832	71	13054
2026-01-15 10:32:00.38	347.52	25.00	-51.0	-62.2	3.8	7.48e-01	0	28	104	321912832	71	12653
2026-01-15 10:32:01.38	347.38	24.83	-52.7	-64.0	3.8	7.46e-01	0	28	104	321912832	72	14629
2026-01-15 10:32:02.36	347.24	24.67	-53.8	-65.4	3.8	7.48e-01	0	28	104	321912832	76	13678
2026-01-15 10:32:03.36	347.10	24.51	-55.1	-67.5	3.8	7.45e-01	0	28	104	321912832	77	16349
2026-01-15 10:32:04.35	346.96	24.35	-55.7	-68.4	3.8	7.42e-01	0	28	104	321912832	80	15232
2026-01-15 10:32:05.35	346.82	24.19	-51.8	-63.4	3.8	7.46e-01	0	28	104	321912832	71	14507
2026-01-15 10:32:06.34	346.68	24.04	-55.8	-69.1	3.9	7.44e-01	0	28	104	321912832	81	15740
2026-01-15 10:32:07.33	346.55	23.88	-51.4	-63.1	3.9	7.44e-01	0	28	104	321912832	72	13222
2026-01-15 10:32:08.33	346.42	23.72	-51.2	-62.9	3.9	7.46e-01	0	28	104	321912832	71	13615
2026-01-15 10:32:09.32	346.28	23.57	-51.4	-62.9	3.8	7.46e-01	0	28	104	321912832	71	13672
2026-01-15 10:32:10.33	346.15	23.41	-53.0	-64.7	3.9	7.42e-01	0	28	104	321912832	75	13333
2026-01-15 10:32:11.32	346.02	23.26	-54.6	-66.6	3.8	7.47e-01	0	28	104	321912832	76	15703
2026-01-15 10:32:12.31	345.90	23.11	-56.2	-69.0	3.8	7.49e-01	0	28	104	321912832	81	15519
2026-01-15 10:32:13.31	345.77	22.95	-51.7	-63.0	3.8	7.43e-01	0	28	104	321912832	71	13765
2026-01-15 10:32:14.30	345.64	22.80	-55.7	-68.2	3.9	7.49e-01	0	28	104	321912832	80	14979
2026-01-15 10:32:15.30	345.52	22.65	-51.2	-62.6	3.8	7.44e-01	0	28	104	321912832	71	13148
2026-01-15 10:32:16.30	345.40	22.50	-51.2	-62.5	3.8	7.46e-01	0	28	104	321912832	71	13048
2026-01-15 10:32:17.29	345.27	22.35	-51.6	-63.0	3.8	7.46e-01	0	28	104	321912832	71	13786
2026-01-15 10:32:18.29	345.15	22.20	-54.2	-66.3	3.9	7.49e-01	0	28	104	321912832	77	14363
2026-01-15 10:32:19.30	345.03	22.06	-53.8	-65.8	3.8	7.44e-01	0	28	104	321912832	75	15165
2026-01-15 10:32:20.29	344.92	21.91	-56.5	-69.9	3.9	7.45e-01	0	28	104	321912832	82	16278
2026-01-15 10:32:21.28	344.80	21.76	-51.4	-62.8	3.9	7.47e-01	0	28	104	321912832	71	13541
2026-01-15 10:32:22.27	344.69	21.62	-56.2	-69.3	3.9	7.41e-01	0	28	104	321912832	81	15973
2026-01-15 10:32:23.26	344.57	21.48	-51.3	-62.9	3.9	7.45e-01	0	28	104	321912832	71	13620
2026-01-15 10:32:24.26	344.46	21.33	-51.2	-62.8	3.9	7.45e-01	0	28	104	321912832	71	13424
2026-01-15 10:32:25.26	344.35	21.19	-51.5	-63.0	3.9	7.45e-01	0	28	104	321912832	71	13814
2026-01-15 10:32:26.27	344.23	21.05	-53.8	-65.6	3.9	7.43e-01	0	28	104	321912832	76	13906
2026-01-15 10:32:27.27	344.12	20.90	-53.8	-65.9	3.8	7.48e-01	0	28	104	321912832	75	15310
2026-01-15 10:32:28.27	344.01	20.76	-56.7	-70.2	3.9	7.48e-01	0	28	104	321912832	82	16770
2026-01-15 10:32:29.27	343.90	20.62	-51.1	-53.6	5.0	7.03e-01	0	28	104	321912832	71	4680
2026-01-15 10:32:30.26	343.80	20.49	-55.7	-59.2	13.8	6.03e-01	0	28	0	322961408	80	5303
2026-01-15 10:32:31.25	343.69	20.35	-51.1	-52.8	15.4	6.05e-01	0	28	0	324534272	71	4284
2026-01-15 10:32:32.25	343.59	20.21	-51.1	-52.8	15.4	6.03e-01	0	28	0	326631424	71	4289
2026-01-15 10:32:33.25	343.48	20.07	-50.9	-52.6	15.4	6.03e-01	0	28	0	328204288	71	4180
2026-01-15 10:32:34.24	343.38	19.94	-50.9	-52.6	15.3	6.04e-01	0	28	0	330301440	70	4425
2026-01-15 10:32:35.24	343.28	19.80	-50.8	-52.6	15.3	6.04e-01	0	28	0	331874304	70	4411
2026-01-15 10:32:36.24	343.18	19.67	-50.8	-52.5	15.3	6.04e-01	0	28	0	333971456	70	4388
2026-01-15 10:32:37.22	343.08	19.53	-50.7	-52.4	15.3	6.05e-01	0	28	0	335544320	70	4339
2026-01-15 10:32:38.21	342.98	19.40	-50.6	-52.3	15.4	6.03e-01	0	28	0	337641472	70	4281
2026-01-15 10:32:39.20	342.89	19.27	-50.7	-52.4	15.3	6.05e-01	0	28	0	339738624	70	4332
2026-01-15 10:32:40.19	342.79	19.14	-50.7	-52.5	15.3	6.04e-01	0	28	0	341311488	70	4350
2026-01-15 10:32:41.17	342.70	19.01	-50.7	-52.4	15.4	6.05e-01	0	28	0	343408640	70	4319
2026-01-15 10:32:42.17	342.60	18.88	-50.7	-52.4	15.3	6.04e-01	0	28	0	344981504	70	4337
2026-01-15 10:32:43.17	342.51	18.75	-50.6	-52.3	15.4	6.05e-01	0	28	0	347078656	70	4289
2026-01-15 10:32:44.17	342.41	18.62	-50.7	-52.4	15.3	6.05e-01	0	28	0	348651520	70	4339
2026-01-15 10:32:45.17	342.32	18.49	-50.7	-52.5	15.3	6.01e-01	0	28	0	350748672	70	4349
2026-01-15 10:32:46.17	342.23	18.36	-50.7	-52.4	15.4	6.02e-01	0	28	0	352321536	70	4335
2026-01-15 10:32:47.17	342.14	18.23	-50.8	-52.5	15.3	6.03e-01	0	28	0	354418688	70	4385
2026-01-15 10:32:48.16	342.05	18.11	-50.8	-52.6	15.3	6.06e-01	0	28	0	356515840	70	4393
2026-01-15 10:32:49.15	341.96	17.98	-50.8	-52.6	15.3	6.04e-01	0	28	0	358088704	70	4418
2026-01-15 10:32:50.14	341.87	17.86	-50.9	-52.6	15.3	6.03e-01	0	28	0	360185856	70	4427
2026-01-15 10:32:51.13	341.78	17.74	-50.9	-52.7	15.3	6.01e-01	0	28	0	361758720	70	4483
2026-01-15 10:32:52.12	341.70	17.61	-51.0	-52.8	15.3	6.02e-01	0	28	0	363855872	70	4513
2026-01-15 10:32:53.12	341.61	17.49	-50.9	-52.6	15.3	6.02e-01	0	28	0	365428736	70	4437
2026-01-15 10:32:54.11	341.53	17.37	-50.8	-52.6	15.3	6.03e-01	0	28	0	367525888	70	4395
2026-01-15 10:32:55.12	341.44	17.24	-50.7	-52.5	15.3	6.03e-01	0	28	0	369098752	70	4356
2026-01-15 10:32:56.11	341.36	17.12	-50.8	-52.6	15.3	6.06e-01	0	28	0	371195904	70	4411
2026-01-15 10:32:57.09	341.28	17.00	-50.7	-52.4	15.4	6.03e-01	0	28	0	372768768	70	4328
2026-01-15 10:32:58.09	341.19	16.88	-50.7	-52.5	15.3	6.03e-01	0	28	0	374865920	70	4358
2026-01-15 10:32:59.08	341.11	16.76	-50.6	-52.3	15.4	6.03e-01	0	28	0	376963072	70	4284
2026-01-15 10:33:00.07	341.03	16.64	-50.7	-52.5	15.4	6.03e-01	0	28	0	378535936	70	4341
2026-01-15 10:33:01.06	340.95	16.53	-50.7	-52.5	15.4	6.02e-01	0	28	0	380633088	70	4352
2026-01-15 10:33:02.06	340.87	16.41	-50.8	-52.6	15.3	6.04e-01	0	28	0	382205952	70	4398
2026-01-15 10:33:03.06	340.79	16.29	-50.8	-52.6	15.3	6.05e-01	0	28	0	384303104	70	4392
2026-01-15 10:33:04.07	340.72	16.17	-50.9	-52.7	15.3	6.01e-01	0	28	0	385875968	70	4466
2026-01-15 10:33:05.07	340.64	16.05	-50.7	-52.4	15.4	6.02e-01	0	28	0	387973120	70	4335
2026-01-15 10:33:06.06	340.56	15.94	-50.7	-52.4	15.4	6.03e-01	0	28	0	390070272	70	4321
2026-01-15 10:33:07.06	340.49	15.82	-50.7	-52.5	15.3	6.02e-01	0	28	0	391643136	70	4366
2026-01-15 10:33:08.05	340.41	15.71	-50.7	-52.5	15.3	6.02e-01	0	28	0	393740288	70	4343
2026-01-15 10:33:09.04	340.34	15.60	-50.7	-52.4	15.4	6.02e-01	0	28	0	395313152	70	4330
2026-01-15 10:33:10.04	340.26	15.48	-50.8	-52.6	15.3	6.02e-01	0	28	0	397410304	70	4394
2026-01-15 10:33:11.03	340.19	15.37	-50.9	-52.6	15.3	6.04e-01	0	28	0	398983168	70	4435
2026-01-15 10:33:12.02	340.12	15.26	-50.8	-52.5	15.3	6.04e-01	0	28	0	401080320	70	4381
2026-01-15 10:33:13.01	340.04	15.15	-50.9	-52.6	15.3	6.03e-01	0	28	0	402653184	70	4433
2026-01-15 10:33:14.01	339.97	15.03	-50.7	-52.5	15.3	6.03e-01	0	28	0	404750336	70	4362
2026-01-15 10:33:15.02	339.90	14.92	-50.8	-52.5	15.3	6.03e-01	0	28	0	406847488	70	4387
2026-01-15 10:33:16.01	339.83	14.81	-50.8	-52.5	15.3	6.00e-01	0	28	0	408420352	70	4389
2026-01-15 10:33:17.01	339.76	14.70	-50.8	-52.6	15.3	6.03e-01	0	28	0	410517504	70	4428
2026-01-15 10:33:18.01	339.69	14.59	-51.0	-52.8	15.3	6.03e-01	0	28	0	412090368	70	4518
2026-01-15 10:33:19.00	339.62	14.48	-51.0	-52.8	15.2	6.02e-01	0	28	0	414187520	70	4509
2026-01-15 10:33:20.00	339.55	14.37	-51.0	-52.8	15.2	6.03e-01	0	28	0	416284672	70	4545
2026-01-15 10:33:21.00	339.49	14.27	-51.0	-52.8	15.3	6.03e-01	0	28	0	417857536	70	4496
2026-01-15 10:33:21.99	339.42	14.16	-50.9	-52.7	15.3	6.00e-01	0	28	0	419954688	70	4474
2026-01-15 10:33:22.99	339.35	14.05	-50.9	-52.7	15.3	6.04e-01	0	28	0	421527552	70	4480
2026-01-15 10:33:23.98	339.29	13.95	-50.9	-52.7	15.3	6.02e-01	0	28	0	423624704	70	4442
2026-01-15 10:33:24.98	339.22	13.84	-50.8	-52.6	15.3	6.03e-01	0	28	0	425197568	70	4397
2026-01-15 10:33:25.97	339.16	13.73	-50.9	-52.7	15.3	6.03e-01	0	28	0	427294720	70	4469
2026-01-15 10:33:26.97	339.09	13.63	-50.9	-52.7	15.3	6.04e-01	0	28	0	428867584	70	4491
2026-01-15 10:33:27.97	339.03	13.52	-50.8	-52.6	15.3	6.03e-01	0	28	0	430964736	70	4424
2026-01-15 10:33:28.97	338.97	13.42	-50.8	-52.6	15.3	6.01e-01	0	28	0	433061888	70	4416
2026-01-15 10:33:29.97	338.90	13.32	-50.8	-52.6	15.3	6.03e-01	0	28	0	434634752	70	4422
2026-01-15 10:33:30.97	338.84	13.21	-50.8	-52.6	15.3	6.04e-01	0	28	0	436731904	70	4428
2026-01-15 10:33:31.96	338.78	13.11	-50.9	-52.7	15.3	6.02e-01	0	28	0	438304768	70	4448
2026-01-15 10:33:32.95	338.72	13.01	-50.8	-52.6	15.3	6.03e-01	0	28	0	440401920	70	4434
2026-01-15 10:33:33.95	338.66	12.91	-50.9	-52.7	15.3	6.05e-01	0	28	0	441974784	70	4477
2026-01-15 10:33:34.94	338.60	12.80	-50.9	-52.7	15.3	6.01e-01	0	28	0	444071936	70	4475
2026-01-15 10:33:35.94	338.54	12.70	-50.8	-52.6	15.3	6.04e-01	0	28	0	445644800	70	4414
2026-01-15 10:33:36.93	338.48	12.60	-51.0	-52.8	15.2	6.03e-01	0	28	0	447741952	70	4519
2026-01-15 10:33:37.93	338.42	12.50	-51.0	-52.8	15.3	6.03e-01	0	28	0	449839104	70	4510
2026-01-15 10:33:38.92	338.36	12.40	-51.0	-52.8	15.2	6.04e-01	0	28	0	451411968	70	4539
2026-01-15 10:33:39.93	338.30	12.30	-51.0	-52.9	15.2	6.01e-01	0	28	0	453509120	70	4555
2026-01-15 10:33:40.92	338.24	12.20	-51.0	-52.9	15.2	6.04e-01	0	28	0	455081984	70	4553
2026-01-15 10:33:41.92	338.19	12.11	-51.0	-52.8	15.3	6.04e-01	0	28	0	457179136	70	4506
2026-01-15 10:33:42.92	338.13	12.01	-51.0	-52.8	15.2	6.04e-01	0	28	0	458752000	70	4530
2026-01-15 10:33:43.91	338.07	11.91	-51.0	-52.9	15.2	6.03e-01	0	28	0	460849152	70	4548
2026-01-15 10:33:44.90	338.02	11.81	-50.9	-52.7	15.3	6.01e-01	0	28	0	462946304	70	4482
2026-01-15 10:33:45.90	337.96	11.72	-50.9	-52.7	15.3	6.04e-01	0	28	0	464519168	70	4459
2026-01-15 10:33:46.90	337.91	11.62	-51.0	-52.8	15.2	6.03e-01	0	28	0	466616320	70	4499
2026-01-15 10:33:47.89	337.85	11.52	-51.0	-52.8	15.3	6.02e-01	0	28	0	468189184	70	4517
2026-01-15 10:33:48.89	337.80	11.43	-51.0	-52.9	15.2	6.03e-01	0	28	0	470286336	70	4566
2026-01-15 10:33:49.88	337.75	11.33	-51.2	-53.1	15.2	6.06e-01	0	28	0	471859200	70	4665
2026-01-15 10:33:50.87	337.69	11.24	-51.3	-53.2	15.1	6.05e-01	0	28	0	473956352	70	4706
2026-01-15 10:33:51.87	337.64	11.14	-51.4	-53.3	15.1	6.03e-01	0	28	0	475529216	70	4778
2026-01-15 10:33:52.87	337.59	11.05	-51.3	-53.2	15.1	6.04e-01	0	28	0	477626368	70	4706
2026-01-15 10:33:53.85	337.54	10.96	-51.4	-53.3	15.1	6.02e-01	0	28	0	479723520	70	4788
2026-01-15 10:33:54.86	337.48	10.86	-51.4	-53.3	15.1	6.04e-01	0	28	0	481296384	70	4783
2026-01-15 10:33:55.85	337.43	10.77	-51.3	-53.3	15.1	6.04e-01	0	28	0	483393536	70	4774
2026-01-15 10:33:56.84	337.38	10.68	-51.3	-53.3	15.1	6.04e-01	0	28	0	484966400	70	4777
2026-01-15 10:33:57.84	337.33	10.59	-51.5	-53.4	15.1	6.02e-01	0	28	0	487063552	70	4849
2026-01-15 10:33:58.84	337.28	10.49	-51.4	-53.3	15.1	6.04e-01	0	28	0	488636416	70	4807
2026-01-15 10:33:59.83	337.23	10.40	-51.4	-53.4	15.1	6.04e-01	0	28	0	490733568	70	4837
2026-01-15 10:34:00.83	337.18	10.31	-51.2	-53.2	15.1	6.01e-01	0	28	0	492306432	70	4723
2026-01-15 10:34:01.82	337.13	10.22	-51.4	-53.4	15.2	6.05e-01	0	28	0	494403584	71	4557
2026-01-15 10:34:02.82	337.08	10.13	-51.4	-53.4	15.2	6.03e-01	0	28	0	496500736	71	4573
2026-01-15 10:34:03.81	337.03	10.04	-51.5	-53.5	15.2	6.04e-01	0	28	0	498073600	71	4604
2026-01-15 10:34:04.81	336.99	9.95	-51.5	-53.4	15.1	6.04e-01	0	28	0	500170752	71	4597
2026-01-15 10:34:05.81	336.94	9.86	-51.5	-53.5	15.1	6.04e-01	0	28	0	501743616	71	4640
2026-01-15 10:34:06.80	336.89	9.77	-51.6	-53.7	15.1	6.04e-01	0	28	0	503840768	71	4713
2026-01-15 10:34:07.80	336.84	9.68	-51.5	-53.5	15.1	6.02e-01	0	28	0	505413632	71	4639
2026-01-15 10:34:08.79	336.80	9.59	-51.6	-53.6	15.1	6.04e-01	0	28	0	507510784	71	4692
2026-01-15 10:34:09.77	336.75	9.51	-51.6	-53.6	15.1	6.03e-01	0	28	0	509083648	71	4683
2026-01-15 10:34:10.77	336.70	9.42	-51.6	-53.6	15.1	6.06e-01	0	28	0	511180800	71	4690
2026-01-15 10:34:11.76	336.66	9.33	-51.3	-53.2	15.2	6.04e-01	0	28	0	513277952	71	4490
2026-01-15 10:34:12.76	336.61	9.24	-51.4	-53.4	15.2	6.04e-01	0	28	0	514850816	71	4567
2026-01-15 10:34:13.75	336.57	9.16	-51.4	-53.3	15.2	6.04e-01	0	28	0	516947968	71	4544
2026-01-15 10:34:14.75	336.52	9.07	-51.6	-53.5	15.1	6.02e-01	0	28	0	518520832	71	4649
2026-01-15 10:34:15.75	336.48	8.98	-51.4	-53.4	15.1	6.06e-01	0	28	0	520617984	71	4574
2026-01-15 10:34:16.74	336.43	8.90	-51.7	-53.7	15.1	6.03e-01	0	28	0	522190848	71	4721
2026-01-15 10:34:17.73	336.39	8.81	-51.6	-53.6	15.1	6.05e-01	0	28	0	524288000	71	4655
2026-01-15 10:34:18.73	336.35	8.73	-51.8	-53.8	15.1	6.04e-01	0	28	0	525860864	71	4801
2026-01-15 10:34:19.72	336.30	8.64	-51.8	-53.9	15.0	6.01e-01	0	28	0	527958016	71	4823
2026-01-15 10:34:20.71	336.26	8.56	-51.9	-54.0	15.0	6.03e-01	0	28	0	530055168	71	4917
2026-01-15 10:34:21.71	336.22	8.47	-51.7	-53.8	15.0	6.04e-01	0	28	0	531628032	71	4761
2026-01-15 10:34:22.70	336.18	8.39	-52.0	-54.1	14.9	6.03e-01	0	28	0	533725184	71	4972
2026-01-15 10:34:23.69	336.13	8.31	-51.8	-53.9	15.0	6.03e-01	0	28	0	535298048	71	4844
2026-01-15 10:34:24.68	336.09	8.23	-51.8	-53.8	15.0	6.05e-01	0	28	0	537395200	71	4811
2026-01-15 10:34:25.68	336.05	8.14	-51.7	-53.8	15.1	6.03e-01	0	28	0	538968064	71	4766
2026-01-15 10:34:26.67	336.01	8.06	-51.8	-53.9	15.0	6.00e-01	0	28	0	541065216	71	4860
2026-01-15 10:34:27.67	335.97	7.98	-51.8	-54.0	15.0	6.03e-01	0	28	0	542638080	71	4872
2026-01-15 10:34:28.67	335.93	7.89	-51.7	-53.8	15.1	6.02e-01	0	28	0	544735232	71	4766
2026-01-15 10:34:29.66	335.89	7.81	-51.8	-53.9	15.0	6.03e-01	0	28	0	546832384	71	4838
2026-01-15 10:34:30.67	335.85	7.73	-51.9	-54.0	15.0	6.04e-01	0	28	0	548405248	71	4911
