passes_logs/2026/01/15/R3.2S_Murmansk/R3.2S_Murmansk__20260115_094911_NOAA_20_JPSS-1_rec.log

#Pass ID: 20260115_094911_NOAA 20 (JPSS-1)
#Satellite: NOAA 20 (JPSS-1)
#Configuration: NOAA 20
#almurnet v.1.7.20251203
#Start time: 2026-01-15 09:49:14

#Version: 2.2.20231116
#Station: R3.2S_Murmansk
#Location: 33.079688 lon 68.888172 lat
#TLE: 1 43013U 17073A   26014.55467351  .00000038  00000+0  38801-4 0  9992
#TLE: 2 43013  98.7635 315.4987 0001517  39.9279 320.2008 14.19535859422677

#Time	Az	El	Level	Level2	SNR	BER	BlckErr	Temp	State	Recorded	gain1	gain2
2026-01-15 09:49:14.32	158.82	2.15	-58.5	-74.5	3.8	1.49e+00	0	26	0	0	82	23708
2026-01-15 09:49:15.33	158.83	2.22	-58.5	-74.5	3.8	1.49e+00	0	26	104	0	82	23669
2026-01-15 09:49:16.34	158.84	2.28	-58.5	-74.5	3.8	1.49e+00	0	26	104	0	82	23684
2026-01-15 09:49:17.35	158.85	2.35	-58.5	-74.5	3.8	1.49e+00	0	26	104	0	82	23640
2026-01-15 09:49:18.36	158.87	2.41	-58.5	-74.4	3.8	1.49e+00	0	26	104	0	82	23576
2026-01-15 09:49:19.37	158.88	2.48	-58.5	-74.4	3.8	1.49e+00	0	26	104	0	82	23479
2026-01-15 09:49:20.38	158.89	2.55	-58.4	-74.4	3.8	1.49e+00	0	26	104	0	82	23330
2026-01-15 09:49:21.39	158.90	2.61	-58.4	-74.3	3.8	1.49e+00	0	26	104	0	82	23255
2026-01-15 09:49:22.40	158.91	2.68	-58.4	-74.3	3.8	1.49e+00	0	26	104	0	82	23262
2026-01-15 09:49:23.41	158.92	2.74	-58.4	-74.2	3.8	1.49e+00	0	26	104	0	82	22982
2026-01-15 09:49:24.41	158.93	2.81	-58.4	-74.3	3.8	1.49e+00	0	26	104	0	82	23135
2026-01-15 09:49:25.42	158.94	2.88	-58.4	-74.2	3.8	1.49e+00	0	26	104	0	82	22934
2026-01-15 09:49:26.43	158.96	2.94	-58.5	-74.3	3.8	1.49e+00	0	26	104	0	82	23203
2026-01-15 09:49:27.44	158.97	3.01	-58.5	-74.3	3.8	1.49e+00	0	26	104	0	82	23177
2026-01-15 09:49:28.45	158.98	3.08	-58.5	-74.4	3.8	1.49e+00	0	26	104	0	82	23412
2026-01-15 09:49:29.46	158.99	3.14	-58.5	-74.4	3.8	1.49e+00	0	26	104	0	82	23386
2026-01-15 09:49:30.46	159.00	3.21	-58.5	-74.4	3.8	1.49e+00	0	26	104	0	82	23532
2026-01-15 09:49:31.47	159.01	3.28	-58.5	-74.5	3.8	1.49e+00	0	26	104	0	82	23645
2026-01-15 09:49:32.48	159.03	3.35	-58.5	-74.5	3.8	1.49e+00	0	26	104	0	82	23613
2026-01-15 09:49:33.49	159.04	3.41	-58.5	-74.3	3.8	1.49e+00	0	27	104	0	82	23135
2026-01-15 09:49:34.50	159.05	3.48	-58.4	-73.7	3.8	1.49e+00	0	27	104	0	82	21591
2026-01-15 09:49:35.51	159.06	3.55	-58.4	-73.0	3.8	1.49e+00	0	27	104	0	82	19854
2026-01-15 09:49:36.52	159.07	3.62	-58.4	-72.3	3.8	1.49e+00	0	27	104	0	82	18446
2026-01-15 09:49:37.53	159.09	3.69	-58.3	-71.7	3.9	1.47e+00	0	27	104	0	82	17237
2026-01-15 09:49:38.54	159.10	3.76	-58.3	-70.6	4.3	1.33e+00	19	27	0	0	82	15163
2026-01-15 09:49:39.55	159.11	3.83	-58.2	-69.8	4.5	1.27e+00	0	27	0	1048576	82	13801
2026-01-15 09:49:40.56	159.12	3.90	-58.2	-69.4	4.7	8.71e-01	0	27	0	2097152	82	13199
2026-01-15 09:49:41.56	159.13	3.96	-58.1	-68.2	5.3	7.79e-01	0	27	0	4194304	82	11431
2026-01-15 09:49:42.57	159.15	4.03	-58.0	-68.0	5.4	4.74e-01	0	27	0	6291456	82	11203
2026-01-15 09:49:43.58	159.16	4.10	-57.9	-66.8	6.2	3.63e-01	0	27	0	8388608	82	9823
2026-01-15 09:49:44.59	159.17	4.17	-57.8	-66.2	6.6	2.43e-01	0	27	0	10485760	82	9155
2026-01-15 09:49:45.60	159.18	4.24	-57.8	-65.9	6.9	1.45e-01	0	27	0	11534336	82	8828
2026-01-15 09:49:46.61	159.19	4.31	-57.5	-64.9	7.7	7.27e-02	0	27	0	13631488	81	8275
2026-01-15 09:49:47.61	159.21	4.38	-57.3	-63.9	8.5	3.75e-02	0	27	0	15728640	81	7389
2026-01-15 09:49:48.62	159.22	4.45	-57.1	-63.1	9.2	1.05e-02	0	27	0	17825792	80	7176
2026-01-15 09:49:49.63	159.23	4.52	-56.8	-62.1	10.0	3.82e-03	0	27	0	19922944	80	6398
2026-01-15 09:49:50.64	159.24	4.60	-56.6	-61.7	10.3	1.11e-03	0	27	0	20971520	79	6473
2026-01-15 09:49:51.65	159.26	4.67	-56.5	-61.3	10.6	7.00e-04	0	27	0	23068672	79	6200
2026-01-15 09:49:52.66	159.27	4.74	-56.2	-60.6	11.2	1.75e-04	0	27	0	25165824	79	5716
2026-01-15 09:49:53.67	159.28	4.81	-56.1	-60.5	11.3	3.50e-05	0	27	0	27262976	78	5928
2026-01-15 09:49:54.67	159.29	4.88	-55.9	-60.0	11.6	1.44e-05	0	27	0	29360128	78	5615
2026-01-15 09:49:55.68	159.31	4.95	-55.9	-60.0	11.6	2.28e-05	0	27	0	31457280	78	5625
2026-01-15 09:49:56.68	159.32	5.02	-55.9	-60.0	11.6	1.98e-05	0	27	0	32505856	78	5600
2026-01-15 09:49:57.69	159.33	5.10	-56.5	-61.1	10.9	2.89e-05	0	27	0	34603008	78	6397
2026-01-15 09:49:58.70	159.35	5.17	-57.1	-62.6	9.7	1.05e-03	0	27	0	36700160	79	7203
2026-01-15 09:49:59.70	159.36	5.24	-56.8	-62.2	10.1	7.74e-04	0	27	0	38797312	78	7219
2026-01-15 09:50:00.71	159.37	5.31	-57.6	-64.9	7.7	1.05e-01	0	27	0	39845888	80	8795
2026-01-15 09:50:01.71	159.38	5.39	-55.7	-59.4	12.1	4.37e-03	0	27	0	41943040	78	5276
2026-01-15 09:50:02.72	159.40	5.46	-55.8	-59.6	11.9	1.44e-05	0	27	0	44040192	78	5395
2026-01-15 09:50:03.73	159.41	5.53	-55.6	-59.1	12.2	1.50e-06	0	27	0	46137344	77	5401
2026-01-15 09:50:04.74	159.42	5.61	-55.8	-59.6	11.9	4.50e-06	0	27	0	48234496	77	5664
2026-01-15 09:50:05.74	159.44	5.68	-55.8	-59.6	11.9	7.00e-07	0	27	0	49283072	77	5659
2026-01-15 09:50:06.75	159.45	5.75	-55.7	-59.5	12.0	3.00e-06	0	27	0	51380224	77	5612
2026-01-15 09:50:07.76	159.46	5.83	-55.7	-59.3	12.1	3.80e-06	0	27	0	53477376	77	5514
2026-01-15 09:50:08.77	159.48	5.90	-55.7	-59.4	12.0	1.50e-06	0	27	0	55574528	77	5586
2026-01-15 09:50:09.77	159.49	5.98	-55.8	-59.5	12.0	7.00e-07	0	27	0	57671680	77	5626
2026-01-15 09:50:10.78	159.50	6.05	-55.8	-59.6	12.0	1.50e-06	0	27	0	59768832	77	5662
2026-01-15 09:50:11.78	159.52	6.13	-55.6	-59.2	12.2	2.20e-06	0	27	0	60817408	77	5417
2026-01-15 09:50:12.78	159.53	6.20	-55.7	-59.4	12.1	7.00e-07	0	27	0	62914560	77	5553
2026-01-15 09:50:13.79	159.54	6.28	-55.4	-58.8	12.4	7.00e-07	0	27	0	65011712	77	5208
2026-01-15 09:50:14.79	159.56	6.35	-55.6	-59.2	12.2	0.00e+00	0	27	0	67108864	77	5440
2026-01-15 09:50:15.80	159.57	6.43	-55.5	-59.0	12.3	0.00e+00	0	27	0	68157440	77	5314
2026-01-15 09:50:16.81	159.58	6.50	-55.5	-58.9	12.5	7.00e-07	0	27	0	70254592	77	5230
2026-01-15 09:50:17.82	159.60	6.58	-55.4	-58.7	12.6	0.00e+00	0	27	0	72351744	77	5155
2026-01-15 09:50:18.83	159.61	6.66	-55.4	-58.7	12.6	0.00e+00	0	27	0	74448896	77	5137
2026-01-15 09:50:19.83	159.63	6.73	-55.5	-58.8	12.5	0.00e+00	0	27	0	76546048	77	5187
2026-01-15 09:50:20.84	159.64	6.81	-55.4	-58.7	12.6	0.00e+00	0	27	0	77594624	77	5123
2026-01-15 09:50:21.85	159.65	6.89	-55.3	-58.5	12.7	0.00e+00	0	27	0	79691776	77	5016
2026-01-15 09:50:22.86	159.67	6.97	-55.3	-58.5	12.7	0.00e+00	0	27	0	81788928	77	5029
2026-01-15 09:50:23.86	159.68	7.04	-55.2	-58.4	12.8	0.00e+00	0	27	0	83886080	77	4936
2026-01-15 09:50:24.88	159.70	7.12	-55.2	-58.4	12.9	0.00e+00	0	27	0	85983232	77	4930
2026-01-15 09:50:25.88	159.71	7.20	-55.3	-58.4	12.8	0.00e+00	0	28	0	88080384	77	4962
2026-01-15 09:50:26.89	159.72	7.28	-55.2	-58.3	12.9	0.00e+00	0	27	0	89128960	77	4872
2026-01-15 09:50:27.90	159.74	7.36	-55.1	-58.2	12.8	0.00e+00	0	27	0	91226112	76	5138
2026-01-15 09:50:28.90	159.75	7.43	-55.2	-58.3	12.8	0.00e+00	0	27	0	93323264	76	5182
2026-01-15 09:50:29.91	159.77	7.51	-55.1	-58.1	12.9	0.00e+00	0	27	0	95420416	76	5071
2026-01-15 09:50:30.92	159.78	7.59	-55.1	-58.1	13.0	0.00e+00	0	27	0	96468992	76	5048
2026-01-15 09:50:31.92	159.80	7.67	-55.2	-58.2	12.9	0.00e+00	0	27	0	98566144	76	5128
2026-01-15 09:50:32.93	159.81	7.75	-55.0	-57.9	13.1	0.00e+00	0	27	0	100663296	76	4943
2026-01-15 09:50:33.94	159.83	7.83	-55.0	-58.0	13.0	0.00e+00	0	27	0	102760448	76	4988
2026-01-15 09:50:34.95	159.84	7.91	-54.9	-57.8	13.2	0.00e+00	0	27	0	104857600	76	4890
2026-01-15 09:50:35.95	159.86	7.99	-55.0	-57.9	13.1	0.00e+00	0	27	0	105906176	76	4942
2026-01-15 09:50:36.96	159.87	8.08	-55.0	-57.9	13.1	0.00e+00	0	27	0	108003328	76	4980
2026-01-15 09:50:37.97	159.89	8.16	-54.9	-57.7	13.2	0.00e+00	0	27	0	110100480	76	4829
2026-01-15 09:50:38.98	159.90	8.24	-54.8	-57.7	13.2	0.00e+00	0	27	0	112197632	76	4825
2026-01-15 09:50:39.99	159.92	8.32	-54.9	-57.7	13.2	0.00e+00	0	27	0	114294784	76	4861
2026-01-15 09:50:41.00	159.93	8.40	-54.9	-57.7	13.2	0.00e+00	0	27	0	116391936	76	4846
2026-01-15 09:50:42.00	159.95	8.48	-55.0	-57.8	13.1	0.00e+00	0	27	0	117440512	76	4919
2026-01-15 09:50:43.01	159.96	8.57	-54.9	-57.7	13.2	0.00e+00	0	27	0	119537664	76	4867
2026-01-15 09:50:44.01	159.98	8.65	-54.9	-57.8	13.2	0.00e+00	0	27	0	121634816	76	4889
2026-01-15 09:50:45.02	159.99	8.73	-54.9	-57.7	13.2	0.00e+00	0	27	0	123731968	76	4860
2026-01-15 09:50:46.03	160.01	8.82	-54.9	-57.8	13.2	0.00e+00	0	27	0	125829120	76	4879
2026-01-15 09:50:47.03	160.02	8.90	-54.9	-57.7	13.2	0.00e+00	0	27	0	126877696	76	4866
2026-01-15 09:50:48.04	160.04	8.98	-54.8	-57.5	13.4	0.00e+00	0	28	0	128974848	76	4735
2026-01-15 09:50:49.05	160.05	9.07	-54.7	-57.4	13.4	0.00e+00	0	27	0	131072000	76	4693
2026-01-15 09:50:50.06	160.07	9.15	-54.8	-57.5	13.4	0.00e+00	0	27	0	133169152	76	4730
2026-01-15 09:50:51.07	160.09	9.24	-54.9	-57.6	13.3	0.00e+00	0	27	0	134217728	76	4814
2026-01-15 09:50:52.08	160.10	9.32	-54.7	-57.4	13.4	0.00e+00	0	27	0	136314880	76	4677
2026-01-15 09:50:53.08	160.12	9.41	-54.5	-57.0	13.5	0.00e+00	0	28	0	138412032	75	4756
2026-01-15 09:50:54.09	160.13	9.49	-54.4	-57.0	13.5	0.00e+00	0	27	0	140509184	75	4749
2026-01-15 09:50:55.09	160.15	9.58	-54.5	-57.1	13.5	0.00e+00	0	28	0	142606336	75	4780
2026-01-15 09:50:56.10	160.17	9.66	-54.4	-56.9	13.6	0.00e+00	0	27	0	144703488	75	4676
2026-01-15 09:50:57.11	160.18	9.75	-54.4	-56.9	13.6	0.00e+00	0	27	0	145752064	75	4674
2026-01-15 09:50:58.12	160.20	9.84	-54.4	-56.9	13.6	0.00e+00	0	27	0	147849216	75	4676
2026-01-15 09:50:59.13	160.21	9.92	-54.3	-56.9	13.6	0.00e+00	0	28	0	149946368	75	4656
2026-01-15 09:51:00.14	160.23	10.01	-54.2	-56.7	13.7	0.00e+00	0	27	0	152043520	75	4566
2026-01-15 09:51:01.14	160.25	10.10	-54.3	-56.9	13.6	0.00e+00	0	27	0	154140672	75	4654
2026-01-15 09:51:02.14	160.26	10.19	-54.3	-56.7	13.7	0.00e+00	0	27	0	155189248	75	4598
2026-01-15 09:51:03.15	160.28	10.28	-54.3	-56.8	13.7	0.00e+00	0	27	0	157286400	75	4651
2026-01-15 09:51:04.16	160.30	10.36	-54.3	-56.7	13.7	0.00e+00	0	27	0	159383552	75	4578
2026-01-15 09:51:05.17	160.31	10.45	-54.3	-56.7	13.7	0.00e+00	0	27	0	161480704	75	4588
2026-01-15 09:51:06.18	160.33	10.54	-54.3	-56.7	13.7	0.00e+00	0	28	0	163577856	75	4584
2026-01-15 09:51:07.18	160.35	10.63	-54.4	-56.9	13.6	0.00e+00	0	27	0	164626432	75	4665
2026-01-15 09:51:08.19	160.37	10.72	-54.3	-56.7	13.8	0.00e+00	0	28	0	166723584	75	4571
2026-01-15 09:51:09.20	160.38	10.81	-54.3	-56.7	13.8	0.00e+00	0	28	0	168820736	75	4578
2026-01-15 09:51:10.21	160.40	10.90	-54.2	-56.7	13.8	0.00e+00	0	28	0	170917888	75	4550
2026-01-15 09:51:11.22	160.42	10.99	-54.1	-56.5	13.8	0.00e+00	0	27	0	173015040	74	4729
2026-01-15 09:51:12.22	160.44	11.09	-54.1	-56.6	13.7	0.00e+00	0	27	0	174063616	74	4768
2026-01-15 09:51:13.23	160.45	11.18	-54.1	-56.6	13.7	0.00e+00	0	28	0	176160768	74	4765
2026-01-15 09:51:14.24	160.47	11.27	-54.1	-56.5	13.7	0.00e+00	0	28	0	178257920	74	4746
2026-01-15 09:51:15.25	160.49	11.36	-54.1	-56.4	13.8	0.00e+00	0	27	0	180355072	74	4701
2026-01-15 09:51:16.26	160.51	11.45	-54.0	-56.4	13.8	0.00e+00	0	28	0	182452224	74	4657
2026-01-15 09:51:17.27	160.52	11.55	-54.0	-56.3	13.9	0.00e+00	0	28	0	183500800	74	4608
2026-01-15 09:51:18.27	160.54	11.64	-54.0	-56.4	13.8	0.00e+00	0	27	0	185597952	74	4652
2026-01-15 09:51:19.28	160.56	11.73	-54.0	-56.2	13.9	0.00e+00	0	27	0	187695104	74	4597
2026-01-15 09:51:20.29	160.58	11.83	-53.9	-56.2	13.9	0.00e+00	0	28	0	189792256	74	4576
2026-01-15 09:51:21.30	160.60	11.92	-53.9	-56.1	14.0	0.00e+00	0	28	0	191889408	74	4526
2026-01-15 09:51:22.31	160.62	12.02	-53.9	-56.2	14.0	0.00e+00	0	28	0	192937984	74	4568
2026-01-15 09:51:23.32	160.63	12.11	-53.9	-56.1	14.0	0.00e+00	0	28	0	195035136	74	4528
2026-01-15 09:51:24.32	160.65	12.21	-53.8	-56.0	14.1	0.00e+00	0	28	0	197132288	74	4447
2026-01-15 09:51:25.33	160.67	12.30	-53.8	-56.0	14.1	0.00e+00	0	28	0	199229440	74	4456
2026-01-15 09:51:26.34	160.69	12.40	-53.8	-56.0	14.1	0.00e+00	0	27	0	201326592	74	4455
2026-01-15 09:51:27.35	160.71	12.50	-53.8	-56.1	14.0	0.00e+00	0	28	0	202375168	74	4505
2026-01-15 09:51:28.36	160.73	12.60	-53.8	-56.0	14.0	0.00e+00	0	27	0	204472320	74	4489
2026-01-15 09:51:29.37	160.75	12.69	-53.9	-56.1	14.0	0.00e+00	0	28	0	206569472	74	4528
2026-01-15 09:51:30.38	160.77	12.79	-53.8	-56.0	14.1	0.00e+00	0	28	0	208666624	74	4461
2026-01-15 09:51:31.38	160.79	12.89	-53.7	-55.9	14.1	0.00e+00	0	28	0	210763776	74	4411
2026-01-15 09:51:32.39	160.80	12.99	-53.6	-55.7	14.1	0.00e+00	0	28	0	211812352	73	4582
2026-01-15 09:51:33.40	160.82	13.09	-53.6	-55.8	14.1	0.00e+00	0	27	0	213909504	73	4609
2026-01-15 09:51:34.41	160.84	13.19	-53.6	-55.8	14.1	0.00e+00	0	27	0	216006656	73	4602
2026-01-15 09:51:35.41	160.86	13.29	-53.6	-55.8	14.1	0.00e+00	0	28	0	218103808	73	4620
2026-01-15 09:51:36.42	160.88	13.39	-53.5	-55.6	14.2	0.00e+00	0	27	0	220200960	73	4504
2026-01-15 09:51:37.43	160.90	13.49	-53.5	-55.5	14.2	0.00e+00	0	28	0	221249536	73	4490
2026-01-15 09:51:38.44	160.92	13.59	-53.5	-55.7	14.1	0.00e+00	0	28	0	223346688	73	4546
2026-01-15 09:51:39.45	160.94	13.69	-53.4	-55.5	14.2	0.00e+00	0	28	0	225443840	73	4462
2026-01-15 09:51:40.45	160.96	13.79	-53.5	-55.6	14.2	0.00e+00	0	28	0	227540992	73	4495
2026-01-15 09:51:41.46	160.98	13.89	-53.5	-55.6	14.1	0.00e+00	0	28	0	229638144	73	4499
2026-01-15 09:51:42.47	161.00	14.00	-53.4	-55.5	14.2	0.00e+00	0	27	0	230686720	73	4456
2026-01-15 09:51:43.47	161.03	14.10	-53.5	-55.6	14.2	0.00e+00	0	28	0	232783872	73	4496
2026-01-15 09:51:44.48	161.05	14.20	-53.5	-55.6	14.1	0.00e+00	0	28	0	234881024	73	4526
2026-01-15 09:51:45.49	161.07	14.31	-53.4	-55.4	14.2	0.00e+00	0	28	0	236978176	73	4415
2026-01-15 09:51:46.49	161.09	14.41	-53.4	-55.5	14.2	0.00e+00	0	27	0	239075328	73	4449
2026-01-15 09:51:47.50	161.11	14.52	-53.3	-55.3	14.3	0.00e+00	0	28	0	240123904	73	4380
2026-01-15 09:51:48.51	161.13	14.62	-53.3	-55.4	14.3	0.00e+00	0	28	0	242221056	73	4402
2026-01-15 09:51:49.52	161.15	14.73	-53.3	-55.3	14.3	0.00e+00	0	28	0	244318208	73	4384
2026-01-15 09:51:50.52	161.17	14.83	-53.3	-55.3	14.3	0.00e+00	0	28	0	246415360	73	4373
2026-01-15 09:51:51.53	161.19	14.94	-53.3	-55.3	14.3	0.00e+00	0	28	0	248512512	73	4376
2026-01-15 09:51:52.54	161.22	15.05	-53.2	-55.2	14.3	0.00e+00	0	28	0	249561088	73	4325
2026-01-15 09:51:53.55	161.24	15.16	-53.2	-55.1	14.3	0.00e+00	0	28	0	251658240	72	4540
2026-01-15 09:51:54.56	161.26	15.26	-53.2	-55.2	14.2	0.00e+00	0	28	0	253755392	72	4572
2026-01-15 09:51:55.57	161.28	15.37	-53.2	-55.2	14.3	0.00e+00	0	28	0	255852544	72	4549
2026-01-15 09:51:56.57	161.30	15.48	-53.2	-55.2	14.2	0.00e+00	0	28	0	257949696	72	4571
2026-01-15 09:51:57.58	161.33	15.59	-53.2	-55.2	14.3	0.00e+00	0	28	0	258998272	72	4550
2026-01-15 09:51:58.59	161.35	15.70	-53.2	-55.2	14.3	0.00e+00	0	28	0	261095424	72	4552
2026-01-15 09:51:59.60	161.37	15.81	-53.1	-55.1	14.3	0.00e+00	0	27	0	263192576	72	4530
2026-01-15 09:52:00.60	161.39	15.92	-53.1	-55.1	14.3	0.00e+00	0	28	0	265289728	72	4497
2026-01-15 09:52:01.61	161.42	16.04	-53.1	-55.1	14.3	0.00e+00	0	28	0	267386880	72	4504
2026-01-15 09:52:02.62	161.44	16.15	-53.2	-55.1	14.3	0.00e+00	0	28	0	268435456	72	4528
2026-01-15 09:52:03.62	161.46	16.26	-53.2	-55.1	14.3	0.00e+00	0	28	0	270532608	72	4530
2026-01-15 09:52:04.63	161.49	16.37	-53.1	-55.0	14.3	0.00e+00	0	28	0	272629760	72	4492
2026-01-15 09:52:05.64	161.51	16.49	-53.1	-55.1	14.3	0.00e+00	0	28	0	274726912	72	4516
2026-01-15 09:52:06.65	161.53	16.60	-53.1	-55.1	14.3	0.00e+00	0	28	0	276824064	72	4522
2026-01-15 09:52:07.66	161.56	16.72	-53.1	-55.1	14.3	0.00e+00	0	28	0	277872640	72	4517
2026-01-15 09:52:08.67	161.58	16.83	-53.1	-55.1	14.3	0.00e+00	0	28	0	279969792	72	4505
2026-01-15 09:52:09.68	161.61	16.95	-53.1	-55.1	14.3	0.00e+00	0	28	0	282066944	72	4498
2026-01-15 09:52:10.68	161.63	17.06	-53.2	-55.1	14.3	0.00e+00	0	28	0	284164096	72	4531
2026-01-15 09:52:11.69	161.66	17.18	-53.3	-55.3	14.2	0.00e+00	0	27	0	286261248	72	4640
2026-01-15 09:52:12.70	161.68	17.30	-53.2	-55.2	14.2	0.00e+00	0	27	0	287309824	72	4575
2026-01-15 09:52:13.71	161.71	17.42	-53.3	-55.3	14.2	0.00e+00	0	28	0	289406976	72	4626
2026-01-15 09:52:14.72	161.73	17.54	-53.4	-55.4	14.1	0.00e+00	0	28	0	291504128	72	4678
2026-01-15 09:52:15.72	161.76	17.66	-53.4	-55.4	14.1	0.00e+00	0	28	0	293601280	72	4698
2026-01-15 09:52:16.73	161.78	17.78	-53.3	-55.4	14.2	0.00e+00	0	28	0	295698432	72	4652
2026-01-15 09:52:17.74	161.81	17.90	-53.3	-55.4	14.2	0.00e+00	0	28	0	297795584	72	4656
2026-01-15 09:52:18.75	161.83	18.02	-53.2	-55.2	14.3	0.00e+00	0	28	0	298844160	72	4578
2026-01-15 09:52:19.76	161.86	18.14	-53.4	-55.4	14.2	0.00e+00	0	28	0	300941312	72	4691
2026-01-15 09:52:20.77	161.88	18.26	-53.4	-55.4	14.2	0.00e+00	0	28	0	303038464	72	4674
2026-01-15 09:52:21.78	161.91	18.39	-53.4	-55.5	14.1	0.00e+00	0	28	0	305135616	72	4710
2026-01-15 09:52:22.78	161.94	18.51	-53.4	-55.5	14.1	0.00e+00	0	28	0	307232768	72	4717
2026-01-15 09:52:23.79	161.96	18.63	-53.5	-55.5	14.1	0.00e+00	0	28	0	308281344	72	4746
2026-01-15 09:52:24.81	161.99	18.76	-53.4	-55.5	14.1	0.00e+00	0	28	0	310378496	72	4719
2026-01-15 09:52:25.81	162.02	18.88	-53.3	-55.3	14.2	0.00e+00	0	28	0	312475648	72	4647
2026-01-15 09:52:26.82	162.04	19.01	-53.4	-55.4	14.2	0.00e+00	0	28	0	314572800	72	4666
2026-01-15 09:52:27.83	162.07	19.14	-53.4	-55.4	14.2	0.00e+00	0	28	0	316669952	72	4665
2026-01-15 09:52:28.84	162.10	19.26	-53.4	-55.4	14.2	0.00e+00	0	28	0	317718528	72	4702
2026-01-15 09:52:29.85	162.13	19.39	-53.4	-55.4	14.2	0.00e+00	0	27	0	319815680	72	4665
2026-01-15 09:52:30.86	162.15	19.52	-53.5	-55.6	14.1	0.00e+00	0	28	0	321912832	72	4772
2026-01-15 09:52:31.86	162.18	19.65	-53.4	-55.5	14.2	0.00e+00	0	28	0	324009984	72	4715
2026-01-15 09:52:32.87	162.21	19.78	-53.4	-55.5	14.2	0.00e+00	0	27	0	326107136	72	4713
2026-01-15 09:52:33.88	162.24	19.91	-53.5	-55.6	14.1	0.00e+00	0	28	0	327155712	72	4774
2026-01-15 09:52:34.89	162.27	20.04	-53.6	-55.7	14.0	0.00e+00	0	28	0	329252864	72	4859
2026-01-15 09:52:35.90	162.30	20.17	-53.5	-55.5	14.1	0.00e+00	0	28	0	331350016	72	4756
2026-01-15 09:52:36.90	162.33	20.31	-53.6	-55.7	14.1	0.00e+00	0	28	0	333447168	72	4825
2026-01-15 09:52:37.91	162.36	20.44	-53.7	-55.8	14.0	0.00e+00	0	28	0	335544320	72	4914
2026-01-15 09:52:38.92	162.39	20.57	-53.7	-55.8	14.0	0.00e+00	0	28	0	336592896	72	4907
2026-01-15 09:52:39.93	162.42	20.71	-53.7	-55.8	14.0	0.00e+00	0	28	0	338690048	72	4907
2026-01-15 09:52:40.94	162.45	20.84	-53.6	-55.6	14.1	0.00e+00	0	28	0	340787200	72	4805
2026-01-15 09:52:41.94	162.48	20.98	-53.6	-55.6	14.1	0.00e+00	0	28	0	342884352	72	4795
2026-01-15 09:52:42.95	162.51	21.12	-53.6	-55.6	14.1	0.00e+00	0	28	0	344981504	72	4809
2026-01-15 09:52:43.96	162.54	21.26	-53.6	-55.6	14.1	0.00e+00	0	28	0	346030080	72	4813
2026-01-15 09:52:44.97	162.57	21.39	-53.6	-55.7	14.1	0.00e+00	0	28	0	348127232	72	4820
2026-01-15 09:52:45.97	162.60	21.53	-53.7	-55.8	14.0	0.00e+00	0	28	0	350224384	72	4895
2026-01-15 09:52:46.97	162.63	21.67	-53.7	-55.7	14.0	0.00e+00	0	28	0	352321536	72	4857
2026-01-15 09:52:47.98	162.66	21.81	-53.6	-55.7	14.0	0.00e+00	0	28	0	354418688	72	4856
2026-01-15 09:52:48.99	162.70	21.95	-53.6	-55.7	14.1	0.00e+00	0	28	0	355467264	72	4848
2026-01-15 09:52:50.00	162.73	22.10	-53.7	-55.7	14.0	0.00e+00	0	28	0	357564416	72	4865
2026-01-15 09:52:51.00	162.76	22.24	-53.7	-55.8	14.0	0.00e+00	0	28	0	359661568	72	4919
2026-01-15 09:52:52.01	162.79	22.38	-53.7	-55.8	14.0	0.00e+00	0	28	0	361758720	72	4902
2026-01-15 09:52:53.02	162.83	22.53	-53.7	-55.8	14.0	0.00e+00	0	28	0	363855872	72	4891
2026-01-15 09:52:54.03	162.86	22.67	-53.8	-55.9	14.0	0.00e+00	0	28	0	364904448	72	4943
2026-01-15 09:52:55.04	162.89	22.82	-53.8	-55.9	14.0	0.00e+00	0	28	0	367001600	72	4983
2026-01-15 09:52:56.05	162.93	22.97	-53.8	-55.9	14.0	0.00e+00	0	28	0	369098752	72	4960
2026-01-15 09:52:57.05	162.96	23.11	-53.6	-55.7	14.1	0.00e+00	0	28	0	371195904	72	4848
2026-01-15 09:52:58.06	163.00	23.26	-53.5	-55.6	14.1	0.00e+00	0	28	0	373293056	72	4772
2026-01-15 09:52:59.07	163.03	23.41	-53.7	-55.8	14.0	0.00e+00	0	28	0	374341632	72	4898
2026-01-15 09:53:00.07	163.07	23.56	-53.8	-55.8	14.0	0.00e+00	0	28	0	376438784	72	4924
2026-01-15 09:53:01.08	163.10	23.71	-53.6	-55.6	14.1	0.00e+00	0	28	0	378535936	72	4803
2026-01-15 09:53:02.09	163.14	23.87	-53.6	-55.7	14.1	0.00e+00	0	28	0	380633088	72	4815
2026-01-15 09:53:03.10	163.17	24.02	-53.6	-55.6	14.1	0.00e+00	0	28	0	382730240	72	4781
2026-01-15 09:53:04.11	163.21	24.18	-53.6	-55.6	14.1	0.00e+00	0	28	0	383778816	72	4810
2026-01-15 09:53:05.12	163.25	24.33	-53.6	-55.7	14.1	0.00e+00	0	28	0	385875968	72	4841
2026-01-15 09:53:06.12	163.28	24.49	-53.7	-55.8	14.0	0.00e+00	0	28	0	387973120	72	4879
2026-01-15 09:53:07.14	163.32	24.64	-53.8	-56.0	14.0	0.00e+00	0	28	0	390070272	72	4995
2026-01-15 09:53:08.14	163.36	24.80	-53.8	-55.9	14.0	0.00e+00	0	28	0	392167424	72	4978
2026-01-15 09:53:09.15	163.40	24.96	-53.8	-56.0	13.9	0.00e+00	0	28	0	393216000	72	4994
2026-01-15 09:53:10.16	163.43	25.12	-53.9	-56.0	13.9	0.00e+00	0	28	0	395313152	72	5024
2026-01-15 09:53:11.17	163.47	25.28	-53.9	-56.0	14.1	0.00e+00	0	28	0	397410304	73	4715
2026-01-15 09:53:12.17	163.51	25.44	-53.9	-56.0	14.0	0.00e+00	0	28	0	399507456	73	4738
2026-01-15 09:53:13.18	163.55	25.60	-53.9	-56.1	14.0	0.00e+00	0	28	0	401604608	73	4763
2026-01-15 09:53:14.18	163.59	25.77	-54.0	-56.1	14.0	0.00e+00	0	28	0	402653184	73	4806
2026-01-15 09:53:15.19	163.63	25.93	-54.0	-56.1	14.0	0.00e+00	0	28	0	404750336	73	4803
2026-01-15 09:53:16.20	163.67	26.10	-54.0	-56.2	13.9	0.00e+00	0	28	0	406847488	73	4852
2026-01-15 09:53:17.21	163.71	26.26	-54.0	-56.1	14.0	0.00e+00	0	28	0	408944640	73	4784
2026-01-15 09:53:18.21	163.75	26.43	-54.0	-56.1	14.0	0.00e+00	0	28	0	411041792	73	4777
2026-01-15 09:53:19.22	163.80	26.60	-54.0	-56.1	14.0	0.00e+00	0	28	0	412090368	73	4785
2026-01-15 09:53:20.23	163.84	26.77	-54.0	-56.1	14.0	0.00e+00	0	28	0	414187520	73	4792
2026-01-15 09:53:21.24	163.88	26.94	-54.1	-56.3	13.9	0.00e+00	0	28	0	416284672	73	4893
2026-01-15 09:53:22.24	163.92	27.11	-54.2	-56.4	13.9	0.00e+00	0	28	0	418381824	73	4958
2026-01-15 09:53:23.25	163.97	27.28	-54.1	-56.3	13.9	0.00e+00	0	28	0	420478976	73	4917
2026-01-15 09:53:24.26	164.01	27.46	-54.3	-56.5	13.8	0.00e+00	0	28	0	421527552	73	5032
2026-01-15 09:53:25.26	164.05	27.63	-54.3	-56.6	13.8	0.00e+00	0	28	0	423624704	73	5055
2026-01-15 09:53:26.27	164.10	27.81	-54.3	-56.5	13.8	0.00e+00	0	28	0	425721856	73	5020
2026-01-15 09:53:27.28	164.14	27.99	-54.4	-56.7	13.7	0.00e+00	0	27	0	427819008	73	5125
2026-01-15 09:53:28.29	164.19	28.17	-54.5	-56.8	13.8	0.00e+00	0	28	0	429916160	74	4885
2026-01-15 09:53:29.29	164.24	28.34	-54.5	-56.9	13.7	0.00e+00	0	28	0	430964736	74	4941
2026-01-15 09:53:30.30	164.28	28.52	-54.6	-57.0	13.7	0.00e+00	0	28	0	433061888	74	4991
2026-01-15 09:53:31.30	164.33	28.70	-54.7	-57.2	13.6	0.00e+00	0	28	0	435159040	74	5103
2026-01-15 09:53:32.31	164.38	28.89	-54.8	-57.2	13.5	0.00e+00	0	28	0	437256192	74	5144
2026-01-15 09:53:33.31	164.42	29.07	-54.8	-57.3	13.5	0.00e+00	0	28	0	439353344	74	5195
2026-01-15 09:53:34.31	164.47	29.25	-54.9	-57.4	13.5	0.00e+00	0	28	0	440401920	74	5223
2026-01-15 09:53:35.32	164.52	29.44	-54.8	-57.3	13.5	0.00e+00	0	28	0	442499072	74	5199
2026-01-15 09:53:36.33	164.57	29.63	-54.9	-57.4	13.6	0.00e+00	0	28	0	444596224	75	4946
2026-01-15 09:53:37.33	164.62	29.82	-54.9	-57.4	13.5	0.00e+00	0	28	0	446693376	75	4974
2026-01-15 09:53:38.34	164.67	30.01	-55.0	-57.5	13.5	0.00e+00	0	28	0	448790528	75	5018
2026-01-15 09:53:39.36	164.72	30.20	-55.1	-57.7	13.4	0.00e+00	0	28	0	449839104	75	5117
2026-01-15 09:53:40.36	164.78	30.39	-55.1	-57.7	13.4	0.00e+00	0	28	0	451936256	75	5112
2026-01-15 09:53:41.37	164.83	30.59	-55.1	-57.6	13.4	0.00e+00	0	28	0	454033408	75	5099
2026-01-15 09:53:42.37	164.88	30.78	-55.1	-57.7	13.4	0.00e+00	0	28	0	456130560	75	5111
2026-01-15 09:53:43.38	164.93	30.98	-55.1	-57.7	13.4	0.00e+00	0	28	0	458227712	75	5132
2026-01-15 09:53:44.39	164.99	31.18	-55.2	-57.9	13.3	0.00e+00	0	28	0	459276288	75	5234
2026-01-15 09:53:45.39	165.04	31.37	-55.3	-58.0	13.3	0.00e+00	0	28	0	461373440	75	5280
2026-01-15 09:53:46.40	165.10	31.58	-55.3	-58.0	13.2	0.00e+00	0	28	0	463470592	75	5310
2026-01-15 09:53:47.40	165.15	31.78	-55.5	-58.3	13.2	0.00e+00	0	28	0	465567744	76	5163
2026-01-15 09:53:48.41	165.21	31.98	-55.4	-58.1	13.3	0.00e+00	0	28	0	467664896	76	5074
2026-01-15 09:53:49.42	165.27	32.19	-55.5	-58.1	13.3	0.00e+00	0	28	0	468713472	76	5100
2026-01-15 09:53:50.43	165.33	32.39	-55.5	-58.2	13.2	0.00e+00	0	28	0	470810624	76	5132
2026-01-15 09:53:51.44	165.38	32.60	-55.3	-57.9	13.4	0.00e+00	0	28	0	472907776	76	4957
2026-01-15 09:53:52.44	165.44	32.81	-55.1	-57.7	13.6	0.00e+00	0	28	0	475004928	76	4828
2026-01-15 09:53:53.45	165.50	33.02	-55.1	-57.6	13.6	0.00e+00	0	28	0	477102080	76	4811
2026-01-15 09:53:54.46	165.57	33.23	-55.1	-57.5	13.7	0.00e+00	0	28	0	478150656	76	4743
2026-01-15 09:53:55.46	165.63	33.44	-55.0	-57.5	13.7	0.00e+00	0	28	0	480247808	76	4720
2026-01-15 09:53:56.47	165.69	33.66	-54.8	-57.1	13.8	0.00e+00	0	28	0	482344960	76	4543
2026-01-15 09:53:57.48	165.75	33.87	-54.6	-56.9	13.9	0.00e+00	0	28	0	484442112	75	4679
2026-01-15 09:53:58.49	165.82	34.09	-54.5	-56.7	14.0	0.00e+00	0	28	0	486539264	75	4579
2026-01-15 09:53:59.50	165.88	34.31	-54.1	-56.3	14.1	0.00e+00	0	28	0	487587840	74	4600
2026-01-15 09:54:00.50	165.95	34.53	-54.0	-56.1	14.1	0.00e+00	0	28	0	489684992	74	4501
2026-01-15 09:54:01.51	166.01	34.75	-53.8	-55.8	14.3	0.00e+00	0	28	0	491782144	74	4356
2026-01-15 09:54:02.52	166.08	34.98	-53.8	-55.8	14.3	0.00e+00	0	28	0	493879296	74	4351
2026-01-15 09:54:03.52	166.15	35.20	-53.6	-55.6	14.2	0.00e+00	0	28	0	495976448	73	4520
2026-01-15 09:54:04.53	166.22	35.43	-53.4	-55.3	14.4	0.00e+00	0	28	0	498073600	73	4373
2026-01-15 09:54:05.54	166.29	35.66	-53.4	-55.3	14.4	0.00e+00	0	28	0	499122176	73	4373
2026-01-15 09:54:06.55	166.36	35.89	-53.2	-55.1	14.5	0.00e+00	0	28	0	501219328	73	4244
2026-01-15 09:54:07.56	166.43	36.12	-53.1	-54.9	14.5	0.00e+00	0	28	0	503316480	72	4430
2026-01-15 09:54:08.56	166.50	36.35	-52.9	-54.7	14.6	0.00e+00	0	28	0	505413632	72	4318
2026-01-15 09:54:09.57	166.58	36.59	-52.9	-54.7	14.6	0.00e+00	0	28	0	507510784	72	4311
2026-01-15 09:54:10.58	166.65	36.82	-52.9	-54.7	14.5	0.00e+00	0	28	0	508559360	72	4322
2026-01-15 09:54:11.59	166.73	37.06	-53.0	-54.8	14.5	0.00e+00	0	28	0	510656512	72	4350
2026-01-15 09:54:12.59	166.80	37.30	-52.9	-54.7	14.6	0.00e+00	0	28	0	512753664	72	4320
2026-01-15 09:54:13.60	166.88	37.54	-52.9	-54.7	14.6	0.00e+00	0	28	0	514850816	72	4309
2026-01-15 09:54:14.61	166.96	37.79	-53.0	-54.8	14.5	0.00e+00	0	28	0	515899392	72	4359
2026-01-15 09:54:15.61	167.04	38.03	-53.0	-54.8	14.6	0.00e+00	0	28	0	517996544	72	4344
2026-01-15 09:54:16.62	167.12	38.28	-53.1	-54.9	14.5	0.00e+00	0	28	0	520093696	72	4407
2026-01-15 09:54:17.62	167.20	38.52	-53.2	-55.0	14.4	0.00e+00	0	28	0	522190848	72	4468
2026-01-15 09:54:18.63	167.29	38.77	-53.2	-55.1	14.4	0.00e+00	0	28	0	524288000	72	4527
2026-01-15 09:54:19.63	167.37	39.02	-53.5	-55.4	14.3	0.00e+00	0	28	0	526385152	72	4687
2026-01-15 09:54:20.64	167.46	39.28	-53.5	-55.4	14.3	0.00e+00	0	28	0	527433728	72	4680
2026-01-15 09:54:21.65	167.55	39.53	-53.5	-55.5	14.2	0.00e+00	0	28	0	529530880	72	4717
2026-01-15 09:54:22.66	167.64	39.79	-53.6	-55.6	14.2	0.00e+00	0	28	0	531628032	72	4810
2026-01-15 09:54:23.67	167.73	40.05	-53.8	-55.8	14.1	0.00e+00	0	28	0	533725184	72	4891
2026-01-15 09:54:24.68	167.82	40.31	-53.7	-55.7	14.1	0.00e+00	0	28	0	535822336	72	4863
2026-01-15 09:54:25.69	167.91	40.58	-54.0	-56.0	14.1	0.00e+00	0	28	0	536870912	73	4755
2026-01-15 09:54:26.69	168.01	40.84	-54.0	-56.1	14.1	0.00e+00	0	28	0	538968064	73	4813
2026-01-15 09:54:27.70	168.10	41.11	-54.2	-56.3	13.9	0.00e+00	0	28	0	541065216	73	4916
2026-01-15 09:54:28.70	168.20	41.37	-54.1	-56.3	14.0	0.00e+00	0	28	0	543162368	73	4877
2026-01-15 09:54:29.71	168.30	41.65	-54.0	-56.1	14.0	0.00e+00	0	28	0	544210944	73	4800
2026-01-15 09:54:30.72	168.40	41.92	-54.1	-56.2	14.0	0.00e+00	0	28	0	546308096	73	4851
2026-01-15 09:54:31.72	168.50	42.19	-54.1	-56.2	14.0	0.00e+00	0	28	0	548405248	73	4841
2026-01-15 09:54:32.73	168.61	42.47	-53.9	-55.9	14.2	0.00e+00	0	28	0	550502400	73	4679
2026-01-15 09:54:33.74	168.71	42.75	-53.7	-55.7	14.3	0.00e+00	0	28	0	552599552	73	4553
2026-01-15 09:54:34.75	168.82	43.03	-53.6	-55.6	14.3	0.00e+00	0	28	0	554696704	73	4524
2026-01-15 09:54:35.76	168.93	43.31	-53.6	-55.6	14.3	0.00e+00	0	28	0	555745280	73	4510
2026-01-15 09:54:36.76	169.04	43.59	-53.5	-55.4	14.4	0.00e+00	0	28	0	557842432	73	4416
2026-01-15 09:54:37.77	169.15	43.88	-53.6	-55.5	14.3	0.00e+00	0	28	0	559939584	73	4465
2026-01-15 09:54:38.78	169.27	44.17	-53.7	-55.7	14.3	0.00e+00	0	28	0	562036736	73	4568
2026-01-15 09:54:39.79	169.39	44.46	-53.7	-55.7	14.2	0.00e+00	0	28	0	564133888	73	4574
2026-01-15 09:54:40.79	169.50	44.75	-53.9	-56.0	14.1	0.00e+00	0	28	0	565182464	73	4731
2026-01-15 09:54:41.80	169.63	45.04	-54.3	-56.5	13.9	0.00e+00	0	28	0	567279616	73	4984
2026-01-15 09:54:42.80	169.75	45.34	-54.7	-57.1	13.7	0.00e+00	0	28	0	569376768	74	5071
2026-01-15 09:54:43.81	169.88	45.64	-55.1	-57.6	13.5	0.00e+00	0	28	0	571473920	75	5068
2026-01-15 09:54:44.82	170.00	45.94	-55.1	-57.6	13.5	0.00e+00	0	28	0	573571072	75	5059
2026-01-15 09:54:45.83	170.13	46.24	-55.0	-57.4	13.6	0.00e+00	0	28	0	574619648	75	4972
2026-01-15 09:54:46.84	170.27	46.55	-54.9	-57.3	13.6	0.00e+00	0	28	0	576716800	75	4916
2026-01-15 09:54:47.85	170.40	46.86	-54.9	-57.3	13.7	0.00e+00	0	28	0	578813952	75	4924
2026-01-15 09:54:48.85	170.54	47.16	-55.0	-57.4	13.6	0.00e+00	0	28	0	580911104	75	4978
2026-01-15 09:54:49.86	170.68	47.47	-54.8	-57.2	13.7	0.00e+00	0	28	0	583008256	75	4825
2026-01-15 09:54:50.87	170.83	47.79	-54.6	-56.9	13.9	0.00e+00	0	28	0	584056832	75	4692
2026-01-15 09:54:51.88	170.97	48.10	-54.6	-56.8	13.9	0.00e+00	0	28	0	586153984	75	4628
2026-01-15 09:54:52.88	171.12	48.42	-54.5	-56.7	13.9	0.00e+00	0	28	0	588251136	75	4578
2026-01-15 09:54:53.90	171.28	48.74	-54.4	-56.6	14.1	0.00e+00	0	28	0	590348288	75	4521
2026-01-15 09:54:54.90	171.43	49.06	-54.2	-56.4	14.1	0.00e+00	0	28	0	592445440	75	4394
2026-01-15 09:54:55.91	171.59	49.38	-54.0	-56.1	14.2	0.00e+00	0	28	0	593494016	74	4510
2026-01-15 09:54:56.92	171.75	49.71	-53.9	-55.9	14.3	0.00e+00	0	28	0	595591168	74	4403
2026-01-15 09:54:57.92	171.92	50.04	-53.5	-55.4	14.4	0.00e+00	0	28	0	597688320	73	4407
2026-01-15 09:54:58.93	172.09	50.37	-53.1	-54.9	14.5	0.00e+00	0	28	0	599785472	72	4399
2026-01-15 09:54:59.94	172.26	50.70	-52.7	-54.4	14.7	0.00e+00	0	28	0	601882624	72	4187
2026-01-15 09:55:00.95	172.44	51.04	-52.6	-54.2	14.6	0.00e+00	0	28	0	602931200	71	4339
2026-01-15 09:55:01.96	172.62	51.37	-52.3	-53.9	14.8	0.00e+00	0	28	0	605028352	71	4166
2026-01-15 09:55:02.96	172.80	51.71	-51.8	-53.3	14.9	0.00e+00	0	28	0	607125504	70	4115
2026-01-15 09:55:03.97	172.99	52.05	-51.4	-52.9	14.9	0.00e+00	0	28	0	609222656	69	4179
2026-01-15 09:55:04.98	173.18	52.39	-51.1	-52.6	14.9	0.00e+00	0	28	0	611319808	68	4246
2026-01-15 09:55:05.98	173.38	52.74	-50.7	-52.1	15.1	0.00e+00	0	28	0	612368384	68	4046
2026-01-15 09:55:06.99	173.58	53.08	-50.4	-51.8	15.1	0.00e+00	0	28	0	614465536	67	4125
2026-01-15 09:55:08.00	173.79	53.43	-50.4	-51.7	15.1	0.00e+00	0	28	0	616562688	67	4090
2026-01-15 09:55:09.01	174.00	53.78	-50.2	-51.6	15.2	0.00e+00	0	28	0	618659840	67	4018
2026-01-15 09:55:10.01	174.22	54.14	-50.1	-51.5	15.0	0.00e+00	0	28	0	620756992	66	4209
2026-01-15 09:55:11.02	174.44	54.49	-50.2	-51.5	15.0	0.00e+00	0	28	0	621805568	66	4223
2026-01-15 09:55:12.02	174.67	54.85	-50.3	-51.7	15.0	0.00e+00	0	28	0	623902720	66	4301
2026-01-15 09:55:13.03	174.90	55.21	-50.6	-52.0	14.9	0.00e+00	0	28	0	625999872	66	4449
2026-01-15 09:55:14.04	175.14	55.57	-50.7	-52.2	14.8	0.00e+00	0	28	0	628097024	66	4546
2026-01-15 09:55:15.05	175.39	55.93	-50.7	-52.1	14.8	0.00e+00	0	28	0	630194176	66	4544
2026-01-15 09:55:16.06	175.64	56.30	-50.7	-52.1	14.8	0.00e+00	0	28	0	631242752	66	4540
2026-01-15 09:55:17.06	175.89	56.66	-50.7	-52.1	14.9	0.00e+00	0	28	0	633339904	66	4510
2026-01-15 09:55:18.06	176.16	57.03	-50.7	-52.1	14.8	0.00e+00	0	28	0	635437056	66	4529
2026-01-15 09:55:19.07	176.43	57.40	-51.0	-52.4	14.9	0.00e+00	0	28	0	637534208	67	4422
2026-01-15 09:55:20.08	176.71	57.77	-51.4	-52.9	14.7	0.00e+00	0	28	0	639631360	67	4699
2026-01-15 09:55:21.08	177.00	58.14	-51.8	-53.4	14.7	0.00e+00	0	28	0	640679936	68	4680
2026-01-15 09:55:22.09	177.29	58.52	-52.0	-53.6	14.7	0.00e+00	0	28	0	642777088	69	4501
2026-01-15 09:55:23.10	177.60	58.90	-52.0	-53.5	14.7	0.00e+00	0	28	0	644874240	69	4488
2026-01-15 09:55:24.11	177.91	59.28	-51.6	-53.1	14.9	0.00e+00	0	28	0	646971392	69	4267
2026-01-15 09:55:25.12	178.23	59.66	-51.5	-53.0	14.9	0.00e+00	0	28	0	649068544	69	4204
2026-01-15 09:55:26.13	178.56	60.04	-51.3	-52.8	15.0	0.00e+00	0	28	0	650117120	69	4127
2026-01-15 09:55:27.14	178.91	60.42	-51.3	-52.8	15.0	0.00e+00	0	28	0	652214272	69	4107
2026-01-15 09:55:28.14	179.25	60.81	-51.2	-52.6	15.0	0.00e+00	0	28	0	654311424	69	4028
2026-01-15 09:55:29.15	179.62	61.19	-50.9	-52.3	15.0	0.00e+00	0	28	0	656408576	68	4125
2026-01-15 09:55:30.16	179.99	61.58	-50.8	-52.2	15.1	0.00e+00	0	28	0	658505728	68	4052
2026-01-15 09:55:31.17	180.38	61.97	-50.5	-51.9	15.0	0.00e+00	0	28	0	659554304	67	4148
2026-01-15 09:55:32.18	180.78	62.36	-50.4	-51.8	15.1	0.00e+00	0	28	0	661651456	67	4124
2026-01-15 09:55:33.18	181.18	62.75	-50.6	-51.9	15.0	0.00e+00	0	28	0	663748608	67	4173
2026-01-15 09:55:34.18	181.60	63.14	-51.0	-52.4	14.9	0.00e+00	0	28	0	665845760	67	4425
2026-01-15 09:55:35.19	182.04	63.53	-51.4	-52.9	14.7	0.00e+00	0	28	0	667942912	67	4694
2026-01-15 09:55:36.20	182.49	63.93	-51.5	-53.1	14.8	0.00e+00	0	28	0	668991488	68	4499
2026-01-15 09:55:37.21	182.96	64.32	-51.6	-53.1	14.8	0.00e+00	0	28	0	671088640	68	4517
2026-01-15 09:55:38.22	183.45	64.72	-51.7	-53.3	14.7	0.00e+00	0	28	0	673185792	68	4608
2026-01-15 09:55:39.23	183.95	65.11	-52.2	-53.8	14.6	0.00e+00	0	28	0	675282944	69	4612
2026-01-15 09:55:40.24	184.47	65.51	-52.8	-54.5	14.5	0.00e+00	0	28	0	677380096	70	4740
2026-01-15 09:55:41.25	185.01	65.90	-53.0	-54.7	14.4	0.00e+00	0	28	0	678428672	71	4583
2026-01-15 09:55:42.25	185.56	66.30	-53.2	-55.1	14.4	0.00e+00	0	28	0	680525824	71	4761
2026-01-15 09:55:43.26	186.14	66.69	-53.5	-55.4	14.3	0.00e+00	0	28	0	682622976	72	4674
2026-01-15 09:55:44.27	186.74	67.09	-53.7	-55.6	14.2	0.00e+00	0	28	0	684720128	72	4775
2026-01-15 09:55:45.28	187.37	67.48	-53.9	-55.9	14.1	0.00e+00	0	28	0	686817280	72	4976
2026-01-15 09:55:46.29	188.01	67.88	-53.8	-55.8	14.1	0.00e+00	0	28	0	687865856	72	4906
2026-01-15 09:55:47.29	188.68	68.27	-53.8	-55.8	14.1	0.00e+00	0	28	0	689963008	72	4904
2026-01-15 09:55:48.29	189.37	68.66	-54.0	-56.0	14.2	0.00e+00	0	28	0	692060160	73	4712
2026-01-15 09:55:49.30	190.10	69.05	-54.1	-56.2	14.1	0.00e+00	0	28	0	694157312	73	4827
2026-01-15 09:55:50.31	190.86	69.44	-54.2	-56.3	14.1	0.00e+00	0	28	0	696254464	73	4876
2026-01-15 09:55:51.31	191.64	69.82	-54.2	-56.3	14.0	0.00e+00	0	28	0	697303040	73	4891
2026-01-15 09:55:52.32	192.46	70.21	-54.2	-56.3	14.0	0.00e+00	0	28	0	699400192	73	4912
2026-01-15 09:55:53.33	193.32	70.59	-54.1	-56.1	14.1	0.00e+00	0	28	0	701497344	73	4788
2026-01-15 09:55:54.33	194.20	70.97	-54.0	-56.0	14.2	0.00e+00	0	28	0	703594496	73	4744
2026-01-15 09:55:55.34	195.13	71.34	-53.8	-55.8	14.2	0.00e+00	0	28	0	705691648	73	4620
2026-01-15 09:55:56.35	196.10	71.72	-54.1	-56.1	14.1	0.00e+00	0	28	0	706740224	73	4775
2026-01-15 09:55:57.36	197.11	72.09	-54.6	-56.8	13.9	0.00e+00	0	28	0	708837376	74	4914
2026-01-15 09:55:58.36	198.16	72.45	-55.1	-57.6	13.6	0.00e+00	0	28	0	710934528	75	5065
2026-01-15 09:55:59.37	199.27	72.81	-55.6	-58.3	13.4	0.00e+00	0	28	0	713031680	76	5180
2026-01-15 09:56:00.38	200.42	73.17	-55.6	-58.3	13.3	0.00e+00	0	28	0	715128832	76	5177
2026-01-15 09:56:01.39	201.62	73.52	-55.3	-57.8	13.6	0.00e+00	0	28	0	716177408	76	4899
2026-01-15 09:56:02.39	202.87	73.86	-55.2	-57.5	13.7	0.00e+00	0	28	0	718274560	76	4751
2026-01-15 09:56:03.40	204.19	74.20	-55.2	-57.6	13.7	0.00e+00	0	28	0	720371712	76	4791
2026-01-15 09:56:04.41	205.56	74.53	-55.2	-57.6	13.7	0.00e+00	0	28	0	722468864	76	4769
2026-01-15 09:56:05.42	207.00	74.85	-55.1	-57.5	13.8	0.00e+00	0	28	0	724566016	76	4723
2026-01-15 09:56:06.43	208.50	75.16	-54.8	-56.9	14.1	0.00e+00	0	28	0	725614592	76	4437
2026-01-15 09:56:07.44	210.07	75.47	-54.4	-56.5	14.2	0.00e+00	0	28	0	727711744	75	4462
2026-01-15 09:56:08.45	211.70	75.76	-54.4	-56.5	14.2	0.00e+00	0	28	0	729808896	75	4452
2026-01-15 09:56:09.45	213.39	76.04	-54.6	-56.8	14.0	0.00e+00	0	28	0	731906048	75	4648
2026-01-15 09:56:10.46	215.16	76.31	-54.9	-57.2	13.8	0.00e+00	0	28	0	734003200	75	4861
2026-01-15 09:56:11.47	217.01	76.57	-55.2	-57.7	13.6	0.00e+00	0	28	0	736100352	75	5111
2026-01-15 09:56:12.48	218.93	76.82	-55.1	-57.5	13.7	0.00e+00	0	28	0	737148928	75	4996
2026-01-15 09:56:13.49	220.92	77.05	-55.1	-57.5	13.7	0.00e+00	0	28	0	739246080	75	5000
2026-01-15 09:56:14.50	222.98	77.26	-55.2	-57.6	13.5	0.00e+00	0	28	0	741343232	75	5095
2026-01-15 09:56:15.51	225.11	77.46	-54.8	-57.1	13.9	0.00e+00	0	28	0	743440384	75	4799
2026-01-15 09:56:16.51	227.29	77.64	-54.4	-56.5	14.2	0.00e+00	0	28	0	744488960	75	4443
2026-01-15 09:56:17.53	229.58	77.80	-54.0	-56.0	14.3	0.00e+00	0	28	0	746586112	74	4466
2026-01-15 09:56:18.53	231.88	77.95	-54.6	-56.9	13.9	0.00e+00	0	28	0	748683264	74	4934
2026-01-15 09:56:19.54	234.25	78.07	-55.6	-58.2	13.4	0.00e+00	0	28	0	750780416	76	5159
2026-01-15 09:56:20.55	236.67	78.18	-55.1	-57.5	13.7	0.00e+00	0	28	0	752877568	76	4740
2026-01-15 09:56:21.56	239.14	78.26	-54.4	-56.6	14.1	0.00e+00	0	28	0	753926144	75	4516
2026-01-15 09:56:22.56	241.61	78.32	-54.1	-56.1	14.2	0.00e+00	0	28	0	756023296	74	4542
2026-01-15 09:56:23.57	244.12	78.36	-54.9	-57.2	13.7	0.00e+00	0	28	0	758120448	74	5122
2026-01-15 09:56:24.58	246.65	78.38	-55.5	-58.1	13.5	0.00e+00	0	28	0	760217600	76	5096
2026-01-15 09:56:25.58	249.16	78.38	-55.1	-57.5	13.8	0.00e+00	0	28	0	762314752	76	4726
2026-01-15 09:56:26.59	251.69	78.36	-54.4	-56.5	14.1	0.00e+00	0	28	0	764411904	75	4474
2026-01-15 09:56:27.60	254.20	78.31	-54.0	-56.0	14.3	0.00e+00	0	28	0	765460480	74	4464
2026-01-15 09:56:28.61	256.69	78.24	-54.5	-56.6	14.0	0.00e+00	0	28	0	767557632	74	4782
2026-01-15 09:56:29.62	259.14	78.15	-54.9	-57.1	13.8	0.00e+00	0	28	0	769654784	74	5086
2026-01-15 09:56:30.63	261.55	78.04	-55.6	-58.1	13.5	0.00e+00	0	28	0	771751936	76	5085
2026-01-15 09:56:31.63	263.89	77.91	-56.2	-59.1	13.0	0.00e+00	0	28	0	773849088	77	5367
2026-01-15 09:56:32.63	266.17	77.76	-56.4	-59.4	12.9	0.00e+00	0	28	0	774897664	78	5252
2026-01-15 09:56:33.63	268.40	77.60	-56.2	-59.1	13.1	0.00e+00	0	28	0	776994816	78	5045
2026-01-15 09:56:34.65	270.60	77.41	-56.0	-58.8	13.3	0.00e+00	0	28	0	779091968	78	4882
2026-01-15 09:56:35.66	272.72	77.21	-56.3	-59.3	13.0	0.00e+00	0	28	0	781189120	78	5165
2026-01-15 09:56:36.67	274.76	76.99	-56.5	-59.6	12.7	0.00e+00	0	28	0	782237696	78	5390
2026-01-15 09:56:37.67	276.71	76.76	-56.8	-60.1	12.5	0.00e+00	0	28	0	784334848	78	5661
2026-01-15 09:56:38.68	278.61	76.51	-57.1	-60.6	12.3	0.00e+00	0	28	0	786432000	79	5670
2026-01-15 09:56:39.69	280.44	76.25	-56.6	-59.8	12.7	7.00e-07	0	28	0	788529152	79	5184
2026-01-15 09:56:40.70	282.20	75.97	-56.2	-59.0	13.2	0.00e+00	0	28	0	790626304	79	4727
2026-01-15 09:56:41.71	283.88	75.69	-56.2	-59.1	13.1	0.00e+00	0	28	0	792723456	78	5072
2026-01-15 09:56:42.72	285.50	75.39	-56.2	-59.1	13.1	0.00e+00	0	28	0	793772032	78	5080
2026-01-15 09:56:43.72	287.03	75.09	-56.1	-58.9	13.3	0.00e+00	0	28	0	795869184	78	4933
2026-01-15 09:56:44.72	288.50	74.78	-56.4	-59.4	13.0	0.00e+00	0	28	0	797966336	78	5226
2026-01-15 09:56:45.73	289.92	74.45	-56.8	-60.1	12.6	0.00e+00	0	28	0	800063488	78	5705
2026-01-15 09:56:46.74	291.28	74.12	-56.1	-58.9	13.2	0.00e+00	0	28	0	802160640	78	4976
2026-01-15 09:56:47.75	292.58	73.78	-55.4	-57.8	13.7	0.00e+00	0	28	0	803209216	77	4623
2026-01-15 09:56:48.75	293.82	73.44	-55.0	-57.2	13.9	0.00e+00	0	28	0	805306368	76	4598
2026-01-15 09:56:49.75	295.00	73.09	-54.2	-56.2	14.3	0.00e+00	0	28	0	807403520	75	4334
2026-01-15 09:56:50.76	296.14	72.74	-54.1	-56.1	14.2	0.00e+00	0	28	0	809500672	74	4535
2026-01-15 09:56:51.76	297.22	72.38	-54.3	-56.4	14.1	0.00e+00	0	28	0	810549248	74	4662
2026-01-15 09:56:52.77	298.27	72.01	-53.6	-55.5	14.4	0.00e+00	0	28	0	812646400	73	4460
2026-01-15 09:56:53.78	299.27	71.64	-53.9	-55.8	14.3	0.00e+00	0	28	0	814743552	73	4640
2026-01-15 09:56:54.79	300.23	71.27	-54.2	-56.2	14.1	0.00e+00	0	28	0	816840704	73	4868
2026-01-15 09:56:55.79	301.14	70.89	-54.0	-56.0	14.2	0.00e+00	0	28	0	818937856	73	4759
2026-01-15 09:56:56.80	302.03	70.51	-54.0	-55.9	14.2	0.00e+00	0	28	0	821035008	73	4702
2026-01-15 09:56:57.81	302.87	70.13	-53.9	-55.8	14.2	0.00e+00	0	28	0	822083584	73	4643
2026-01-15 09:56:58.81	303.68	69.75	-53.3	-55.1	14.6	0.00e+00	0	28	0	824180736	73	4247
2026-01-15 09:56:59.82	304.46	69.36	-53.6	-55.5	14.4	0.00e+00	0	28	0	826277888	73	4467
2026-01-15 09:57:00.82	305.20	68.97	-54.8	-57.0	13.9	0.00e+00	0	28	0	828375040	74	5014
2026-01-15 09:57:01.83	305.92	68.58	-54.9	-57.2	13.8	0.00e+00	0	28	0	830472192	75	4861
2026-01-15 09:57:02.84	306.62	68.19	-55.2	-57.6	13.6	0.00e+00	0	28	0	831520768	75	5100
2026-01-15 09:57:03.84	307.28	67.80	-56.3	-59.2	13.0	0.00e+00	0	28	0	833617920	77	5421
2026-01-15 09:57:04.85	307.92	67.41	-56.2	-59.1	13.1	0.00e+00	0	28	0	835715072	77	5354
2026-01-15 09:57:05.86	308.54	67.01	-55.2	-57.6	13.8	0.00e+00	0	28	0	837812224	77	4514
2026-01-15 09:57:06.86	309.13	66.62	-54.5	-56.6	14.1	0.00e+00	0	28	0	838860800	75	4541
2026-01-15 09:57:07.87	309.70	66.23	-53.7	-55.6	14.5	0.00e+00	0	28	0	840957952	74	4258
2026-01-15 09:57:08.88	310.26	65.83	-52.9	-54.5	14.7	0.00e+00	0	28	0	843055104	72	4227
2026-01-15 09:57:09.89	310.79	65.44	-52.5	-54.0	14.8	0.00e+00	0	28	0	845152256	71	4235
2026-01-15 09:57:10.90	311.31	65.04	-52.0	-53.6	14.9	0.00e+00	0	28	0	847249408	70	4247
2026-01-15 09:57:11.89	311.80	64.65	-51.3	-52.7	15.1	0.00e+00	0	28	0	849346560	69	4078
2026-01-15 09:57:12.90	312.28	64.26	-50.8	-52.1	15.1	0.00e+00	0	28	0	850395136	68	4040
2026-01-15 09:57:13.90	312.74	63.87	-50.5	-51.8	15.1	0.00e+00	0	28	0	852492288	67	4130
2026-01-15 09:57:14.91	313.19	63.48	-50.2	-51.5	15.2	0.00e+00	0	28	0	854589440	67	3983
2026-01-15 09:57:15.91	313.62	63.09	-49.9	-51.2	15.1	0.00e+00	0	28	0	856686592	66	4078
2026-01-15 09:57:16.92	314.04	62.70	-50.2	-51.5	15.1	0.00e+00	0	28	0	857735168	66	4221
2026-01-15 09:57:17.92	314.45	62.31	-51.0	-52.4	14.9	0.00e+00	0	28	0	859832320	67	4424
2026-01-15 09:57:18.93	314.84	61.92	-51.3	-52.8	14.8	0.00e+00	0	28	0	861929472	67	4618
2026-01-15 09:57:19.94	315.22	61.53	-51.4	-52.8	14.8	0.00e+00	0	28	0	864026624	67	4649
2026-01-15 09:57:20.97	315.60	61.14	-51.4	-52.9	14.8	0.00e+00	0	28	0	866123776	67	4661
2026-01-15 09:57:21.88	315.93	60.79	-51.9	-53.5	14.8	0.00e+00	0	28	0	867172352	69	4443
2026-01-15 09:57:22.89	316.28	60.40	-52.1	-53.6	14.7	0.00e+00	0	28	0	869269504	69	4543
2026-01-15 09:57:23.90	316.62	60.02	-52.8	-54.5	14.5	0.00e+00	0	28	0	871366656	70	4712
2026-01-15 09:57:24.91	316.95	59.64	-53.9	-55.9	14.2	0.00e+00	0	28	0	873463808	72	4946
2026-01-15 09:57:25.92	317.27	59.26	-55.0	-57.3	13.9	0.00e+00	0	28	0	875560960	75	4898
2026-01-15 09:57:26.93	317.58	58.88	-54.7	-56.9	14.0	0.00e+00	0	28	0	876609536	75	4678
2026-01-15 09:57:27.93	317.88	58.51	-54.5	-56.6	14.2	0.00e+00	0	28	0	878706688	75	4510
2026-01-15 09:57:28.94	318.18	58.13	-54.4	-56.5	14.2	0.00e+00	0	28	0	880803840	75	4443
2026-01-15 09:57:29.94	318.46	57.76	-54.8	-57.1	13.9	0.00e+00	0	28	0	882900992	75	4773
2026-01-15 09:57:30.94	318.74	57.39	-55.1	-57.5	13.7	0.00e+00	0	28	0	883949568	75	4990
2026-01-15 09:57:31.95	319.01	57.02	-54.8	-57.1	13.9	0.00e+00	0	28	0	886046720	75	4770
2026-01-15 09:57:32.95	319.27	56.66	-54.0	-56.0	14.3	0.00e+00	0	28	0	888143872	74	4481
2026-01-15 09:57:33.96	319.53	56.29	-53.3	-55.0	14.6	0.00e+00	0	28	0	890241024	73	4240
2026-01-15 09:57:34.97	319.78	55.93	-52.9	-54.6	14.7	0.00e+00	0	28	0	892338176	72	4256
2026-01-15 09:57:35.97	320.03	55.57	-52.4	-53.9	14.8	0.00e+00	0	28	0	894435328	71	4177
2026-01-15 09:57:36.98	320.27	55.21	-51.9	-53.5	14.9	0.00e+00	0	28	0	895483904	70	4196
2026-01-15 09:57:37.98	320.50	54.86	-52.4	-54.0	14.7	0.00e+00	0	28	0	897581056	70	4476
2026-01-15 09:57:38.99	320.72	54.50	-52.2	-53.8	14.8	0.00e+00	0	28	0	899678208	70	4355
2026-01-15 09:57:40.00	320.95	54.14	-51.1	-52.4	15.0	0.00e+00	0	28	0	901775360	68	4187
2026-01-15 09:57:41.01	321.16	53.79	-50.4	-51.7	15.1	0.00e+00	0	28	0	903872512	67	4087
2026-01-15 09:57:42.02	321.38	53.44	-50.5	-51.9	15.1	0.00e+00	0	28	0	904921088	67	4159
2026-01-15 09:57:43.02	321.58	53.10	-50.9	-52.3	14.9	0.00e+00	0	28	0	907018240	67	4342
2026-01-15 09:57:44.03	321.78	52.75	-51.3	-52.8	14.8	0.00e+00	0	28	0	909115392	67	4619
2026-01-15 09:57:45.04	321.98	52.40	-52.1	-53.7	14.7	0.00e+00	0	28	0	911212544	69	4552
2026-01-15 09:57:46.05	322.17	52.06	-52.9	-54.7	14.5	0.00e+00	0	28	0	912261120	70	4817
2026-01-15 09:57:47.05	322.36	51.73	-54.1	-56.2	14.2	0.00e+00	0	28	0	914358272	73	4821
2026-01-15 09:57:48.06	322.54	51.39	-55.1	-57.5	13.7	0.00e+00	0	28	0	916455424	75	4988
2026-01-15 09:57:49.07	322.73	51.05	-55.6	-58.0	13.5	0.00e+00	0	28	0	918552576	76	5033
2026-01-15 09:57:50.08	322.90	50.72	-55.6	-58.2	13.5	0.00e+00	0	28	0	920649728	76	5101
2026-01-15 09:57:51.09	323.07	50.39	-56.1	-58.9	13.2	0.00e+00	0	28	0	922746880	77	5267
2026-01-15 09:57:52.10	323.24	50.06	-57.3	-61.0	12.0	0.00e+00	0	28	0	923795456	79	5946
2026-01-15 09:57:53.10	323.41	49.73	-57.9	-62.2	11.2	1.22e-05	0	28	0	925892608	80	6482
2026-01-15 09:57:54.11	323.57	49.41	-57.8	-62.0	11.4	3.81e-05	0	28	0	927989760	81	5974
2026-01-15 09:57:55.12	323.73	49.08	-57.1	-60.5	12.4	7.00e-07	0	28	0	930086912	80	5313
2026-01-15 09:57:56.13	323.89	48.76	-57.0	-60.4	12.5	0.00e+00	0	28	0	932184064	80	5238
2026-01-15 09:57:57.14	324.04	48.44	-57.5	-61.4	11.8	7.00e-07	0	28	0	933232640	80	5914
2026-01-15 09:57:58.14	324.19	48.13	-57.7	-61.9	11.5	1.14e-05	0	28	0	935329792	80	6231
2026-01-15 09:57:59.15	324.33	47.82	-56.7	-59.9	12.8	6.10e-06	0	28	0	937426944	80	4927
2026-01-15 09:58:00.16	324.48	47.50	-55.9	-58.5	13.5	0.00e+00	0	28	0	939524096	78	4752
2026-01-15 09:58:01.16	324.62	47.20	-55.5	-57.9	13.7	0.00e+00	0	28	0	941621248	77	4674
2026-01-15 09:58:02.17	324.76	46.89	-55.3	-57.7	13.8	0.00e+00	0	28	0	942669824	77	4560
2026-01-15 09:58:03.18	324.89	46.58	-55.6	-58.0	13.6	0.00e+00	0	28	0	944766976	77	4754
2026-01-15 09:58:04.19	325.02	46.28	-55.8	-58.5	13.4	0.00e+00	0	28	0	946864128	77	5002
2026-01-15 09:58:05.19	325.15	45.98	-56.0	-58.8	13.2	0.00e+00	0	28	0	948961280	77	5161
2026-01-15 09:58:06.20	325.28	45.68	-55.4	-57.8	13.7	0.00e+00	0	28	0	951058432	77	4620
2026-01-15 09:58:07.21	325.41	45.38	-54.7	-56.9	14.1	0.00e+00	0	28	0	952107008	76	4418
2026-01-15 09:58:08.22	325.53	45.08	-54.3	-56.4	14.3	0.00e+00	0	28	0	954204160	75	4424
2026-01-15 09:58:09.23	325.65	44.79	-53.6	-55.4	14.4	0.00e+00	0	28	0	956301312	73	4429
2026-01-15 09:58:10.24	325.77	44.50	-53.0	-54.7	14.6	0.00e+00	0	28	0	958398464	72	4299
2026-01-15 09:58:11.25	325.89	44.21	-52.8	-54.5	14.7	0.00e+00	0	28	0	960495616	72	4211
2026-01-15 09:58:12.25	326.01	43.92	-52.3	-53.9	14.9	0.00e+00	0	28	0	961544192	71	4156
2026-01-15 09:58:13.26	326.12	43.64	-52.2	-53.7	14.9	0.00e+00	0	28	0	963641344	71	4087
2026-01-15 09:58:14.27	326.23	43.35	-52.2	-53.8	14.8	0.00e+00	0	28	0	965738496	70	4350
2026-01-15 09:58:15.28	326.34	43.07	-52.9	-54.7	14.4	0.00e+00	0	28	0	967835648	70	4823
2026-01-15 09:58:16.29	326.45	42.79	-53.9	-55.9	14.1	0.00e+00	0	28	0	969932800	72	4972
2026-01-15 09:58:17.29	326.55	42.52	-54.8	-57.1	13.8	0.00e+00	0	28	0	970981376	74	5095
2026-01-15 09:58:18.30	326.66	42.24	-55.0	-57.4	13.7	0.00e+00	0	28	0	973078528	75	4955
2026-01-15 09:58:19.31	326.76	41.97	-54.5	-56.7	14.1	0.00e+00	0	28	0	975175680	75	4561
2026-01-15 09:58:20.31	326.86	41.70	-53.6	-55.5	14.4	0.00e+00	0	28	0	977272832	73	4458
2026-01-15 09:58:21.32	326.96	41.43	-53.0	-54.7	14.6	0.00e+00	0	28	0	979369984	72	4311
2026-01-15 09:58:22.33	327.06	41.16	-52.5	-54.0	14.8	0.00e+00	0	28	0	980418560	71	4235
2026-01-15 09:58:23.33	327.15	40.89	-52.1	-53.7	14.8	0.00e+00	0	28	0	982515712	70	4295
2026-01-15 09:58:24.34	327.25	40.63	-52.4	-54.0	14.7	0.00e+00	0	28	0	984612864	70	4451
2026-01-15 09:58:25.35	327.34	40.37	-52.9	-54.6	14.5	0.00e+00	0	28	0	986710016	70	4770
2026-01-15 09:58:26.35	327.43	40.11	-53.6	-55.5	14.3	0.00e+00	0	28	0	988807168	72	4725
2026-01-15 09:58:27.36	327.52	39.85	-54.3	-56.4	14.0	0.00e+00	0	28	0	989855744	73	4961
2026-01-15 09:58:28.37	327.61	39.59	-55.1	-57.6	13.6	0.00e+00	0	28	0	991952896	75	5074
2026-01-15 09:58:29.38	327.70	39.34	-55.7	-58.4	13.3	0.00e+00	0	28	0	994050048	76	5227
2026-01-15 09:58:30.38	327.79	39.09	-55.6	-58.2	13.4	0.00e+00	0	28	0	996147200	76	5138
2026-01-15 09:58:31.39	327.87	38.84	-55.4	-57.9	13.6	0.00e+00	0	28	0	998244352	76	4940
2026-01-15 09:58:32.40	327.95	38.59	-55.1	-57.4	13.8	0.00e+00	0	28	0	999292928	76	4698
2026-01-15 09:58:33.40	328.04	38.34	-54.1	-56.2	14.2	0.00e+00	0	28	0	1001390080	74	4551
2026-01-15 09:58:34.41	328.12	38.09	-53.5	-55.3	14.5	0.00e+00	0	28	0	1003487232	73	4384
2026-01-15 09:58:35.42	328.20	37.85	-52.9	-54.6	14.7	0.00e+00	0	28	0	1005584384	72	4269
2026-01-15 09:58:36.43	328.28	37.61	-52.9	-54.6	14.7	0.00e+00	0	28	0	1007681536	72	4281
2026-01-15 09:58:37.44	328.36	37.36	-53.2	-54.9	14.5	0.00e+00	0	28	0	1008730112	72	4419
2026-01-15 09:58:38.45	328.43	37.13	-53.6	-55.4	14.3	0.00e+00	0	28	0	1010827264	72	4683
2026-01-15 09:58:39.46	328.51	36.89	-54.0	-56.1	14.2	0.00e+00	0	28	0	1012924416	73	4763
2026-01-15 09:58:40.46	328.58	36.65	-54.6	-56.8	13.9	0.00e+00	0	28	0	1015021568	74	4895
2026-01-15 09:58:41.47	328.66	36.42	-54.8	-57.1	13.8	0.00e+00	0	28	0	1017118720	74	5063
2026-01-15 09:58:42.48	328.73	36.19	-55.1	-57.5	13.7	0.00e+00	0	28	0	1018167296	75	5009
2026-01-15 09:58:43.49	328.80	35.95	-55.1	-57.6	13.6	0.00e+00	0	28	0	1020264448	75	5058
2026-01-15 09:58:44.50	328.87	35.73	-55.0	-57.4	13.7	0.00e+00	0	28	0	1022361600	75	4936
2026-01-15 09:58:45.50	328.94	35.50	-54.9	-57.2	13.8	0.00e+00	0	28	0	1024458752	75	4827
2026-01-15 09:58:46.51	329.01	35.27	-54.7	-57.0	13.9	0.00e+00	0	28	0	1026555904	75	4715
2026-01-15 09:58:47.52	329.08	35.05	-54.4	-56.5	14.2	0.00e+00	0	28	0	1027604480	75	4464
2026-01-15 09:58:48.52	329.15	34.83	-54.0	-55.9	14.3	0.00e+00	0	28	0	1029701632	74	4427
2026-01-15 09:58:49.53	329.22	34.60	-53.7	-55.6	14.5	0.00e+00	0	28	0	1031798784	74	4260
2026-01-15 09:58:50.53	329.28	34.39	-53.7	-55.6	14.4	0.00e+00	0	28	0	1033895936	73	4502
2026-01-15 09:58:51.54	329.35	34.17	-53.8	-55.7	14.3	0.00e+00	0	28	0	1035993088	73	4581
2026-01-15 09:58:52.55	329.41	33.95	-54.0	-55.9	14.2	0.00e+00	0	28	0	1037041664	73	4688
2026-01-15 09:58:53.56	329.47	33.73	-54.3	-56.3	14.0	0.00e+00	0	28	0	1039138816	73	4905
2026-01-15 09:58:54.56	329.54	33.52	-54.7	-56.9	13.8	0.00e+00	0	28	0	1041235968	74	4969
2026-01-15 09:58:55.57	329.60	33.31	-55.0	-57.3	13.7	0.00e+00	0	28	0	1043333120	75	4897
2026-01-15 09:58:56.58	329.66	33.10	-55.2	-57.7	13.5	0.00e+00	0	28	0	1045430272	75	5147
2026-01-15 09:58:57.59	329.72	32.89	-55.3	-57.8	13.5	0.00e+00	0	28	0	1046478848	75	5178
2026-01-15 09:58:58.60	329.78	32.68	-55.5	-58.0	13.5	0.00e+00	0	28	0	1048576000	76	5028
2026-01-15 09:58:59.61	329.84	32.47	-55.5	-58.1	13.4	0.00e+00	0	28	0	1050673152	76	5053
2026-01-15 09:59:00.61	329.90	32.27	-55.5	-58.1	13.3	0.00e+00	0	28	0	1052770304	76	5086
2026-01-15 09:59:01.62	329.95	32.06	-55.5	-58.0	13.5	0.00e+00	0	28	0	1054867456	76	5025
2026-01-15 09:59:02.62	330.01	31.86	-55.5	-58.1	13.5	0.00e+00	0	28	0	1055916032	76	5044
2026-01-15 09:59:03.63	330.07	31.66	-55.6	-58.2	13.4	0.00e+00	0	28	0	1058013184	76	5120
2026-01-15 09:59:04.64	330.12	31.46	-55.5	-58.1	13.4	0.00e+00	0	28	0	1060110336	76	5043
2026-01-15 09:59:05.65	330.18	31.26	-55.6	-58.2	13.4	0.00e+00	0	28	0	1062207488	76	5101
2026-01-15 09:59:06.65	330.23	31.07	-55.5	-58.1	13.4	0.00e+00	0	28	0	1064304640	76	5079
2026-01-15 09:59:07.66	330.29	30.87	-55.4	-57.9	13.5	0.00e+00	0	28	0	1065353216	76	4980
2026-01-15 09:59:08.67	330.34	30.68	-55.3	-57.7	13.6	0.00e+00	0	28	0	1067450368	76	4865
2026-01-15 09:59:09.68	330.39	30.48	-55.2	-57.6	13.7	0.00e+00	0	28	0	1069547520	76	4777
2026-01-15 09:59:10.69	330.44	30.29	-55.1	-57.5	13.8	0.00e+00	0	28	0	1071644672	76	4708
2026-01-15 09:59:11.70	330.49	30.10	-54.8	-57.1	14.0	0.00e+00	0	28	0	1073741824	76	4498
2026-01-15 09:59:12.71	330.55	29.91	-54.7	-56.9	14.0	0.00e+00	0	28	0	1075838976	76	4430
2026-01-15 09:59:13.72	330.60	29.72	-54.5	-56.7	14.0	0.00e+00	0	28	0	1076887552	75	4568
2026-01-15 09:59:14.72	330.65	29.53	-54.0	-56.0	14.2	0.00e+00	0	28	0	1078984704	74	4480
2026-01-15 09:59:15.73	330.70	29.35	-53.8	-55.8	14.4	0.00e+00	0	28	0	1081081856	74	4368
2026-01-15 09:59:16.74	330.74	29.16	-53.8	-55.7	14.4	0.00e+00	0	28	0	1083179008	74	4338
2026-01-15 09:59:17.75	330.79	28.98	-53.7	-55.6	14.4	0.00e+00	0	28	0	1084227584	74	4282
2026-01-15 09:59:18.75	330.84	28.80	-53.6	-55.5	14.4	0.00e+00	0	28	0	1086324736	73	4465
2026-01-15 09:59:19.76	330.89	28.62	-53.5	-55.4	14.4	0.00e+00	0	28	0	1088421888	73	4421
2026-01-15 09:59:20.77	330.93	28.44	-53.4	-55.3	14.5	0.00e+00	0	28	0	1090519040	73	4357
2026-01-15 09:59:21.77	330.98	28.26	-53.5	-55.3	14.4	0.00e+00	0	28	0	1092616192	73	4386
2026-01-15 09:59:22.78	331.03	28.08	-53.5	-55.3	14.4	0.00e+00	0	28	0	1093664768	73	4384
2026-01-15 09:59:23.79	331.07	27.90	-53.5	-55.3	14.4	0.00e+00	0	28	0	1095761920	73	4384
2026-01-15 09:59:24.79	331.12	27.73	-53.4	-55.2	14.5	0.00e+00	0	28	0	1097859072	73	4326
2026-01-15 09:59:25.80	331.16	27.55	-53.3	-55.1	14.5	0.00e+00	0	28	0	1099956224	73	4277
2026-01-15 09:59:26.81	331.21	27.38	-53.3	-55.1	14.5	0.00e+00	0	28	0	1102053376	73	4261
2026-01-15 09:59:27.82	331.25	27.21	-53.3	-55.1	14.5	0.00e+00	0	28	0	1104150528	73	4256
2026-01-15 09:59:28.83	331.29	27.04	-53.4	-55.3	14.5	0.00e+00	0	28	0	1105199104	73	4353
2026-01-15 09:59:29.84	331.34	26.87	-53.2	-55.0	14.6	0.00e+00	0	28	0	1107296256	73	4228
2026-01-15 09:59:30.85	331.38	26.70	-53.3	-55.1	14.5	0.00e+00	0	28	0	1109393408	73	4281
2026-01-15 09:59:31.85	331.42	26.53	-53.3	-55.1	14.5	0.00e+00	0	28	0	1111490560	73	4257
2026-01-15 09:59:32.86	331.46	26.36	-53.3	-55.1	14.5	0.00e+00	0	28	0	1113587712	73	4282
2026-01-15 09:59:33.87	331.50	26.20	-53.2	-55.0	14.5	0.00e+00	0	28	0	1114636288	73	4239
2026-01-15 09:59:34.88	331.54	26.03	-53.3	-55.1	14.5	0.00e+00	0	28	0	1116733440	73	4271
2026-01-15 09:59:35.88	331.58	25.87	-53.3	-55.1	14.5	0.00e+00	0	28	0	1118830592	73	4290
2026-01-15 09:59:36.89	331.62	25.70	-53.3	-55.1	14.5	0.00e+00	0	28	0	1120927744	73	4281
2026-01-15 09:59:37.89	331.66	25.54	-53.3	-55.2	14.5	0.00e+00	0	28	0	1121976320	73	4301
2026-01-15 09:59:38.90	331.70	25.38	-53.3	-55.1	14.5	0.00e+00	0	28	0	1124073472	73	4287
2026-01-15 09:59:39.91	331.74	25.22	-53.0	-54.8	14.5	0.00e+00	0	28	0	1126170624	72	4364
2026-01-15 09:59:40.92	331.78	25.06	-52.9	-54.7	14.6	0.00e+00	0	28	0	1128267776	72	4299
2026-01-15 09:59:41.93	331.82	24.90	-52.8	-54.6	14.6	0.00e+00	0	28	0	1130364928	72	4252
2026-01-15 09:59:42.94	331.86	24.75	-52.8	-54.5	14.6	0.00e+00	0	28	0	1132462080	72	4234
2026-01-15 09:59:43.95	331.89	24.59	-52.6	-54.3	14.6	0.00e+00	0	28	0	1133510656	71	4352
2026-01-15 09:59:44.95	331.93	24.44	-52.6	-54.3	14.6	0.00e+00	0	28	0	1135607808	71	4387
2026-01-15 09:59:45.96	331.97	24.28	-52.5	-54.2	14.7	0.00e+00	0	28	0	1137704960	71	4315
2026-01-15 09:59:46.97	332.01	24.13	-52.5	-54.2	14.7	0.00e+00	0	28	0	1139802112	71	4317
2026-01-15 09:59:47.98	332.04	23.97	-52.5	-54.1	14.7	0.00e+00	0	28	0	1141899264	71	4279
2026-01-15 09:59:48.98	332.08	23.82	-52.4	-54.0	14.7	0.00e+00	0	28	0	1142947840	71	4241
2026-01-15 09:59:49.98	332.11	23.67	-52.4	-54.0	14.7	0.00e+00	0	28	0	1145044992	71	4226
2026-01-15 09:59:50.99	332.15	23.52	-52.3	-54.0	14.8	0.00e+00	0	28	0	1147142144	71	4199
2026-01-15 09:59:52.00	332.18	23.37	-52.4	-54.0	14.7	0.00e+00	0	28	0	1149239296	71	4232
2026-01-15 09:59:53.00	332.22	23.23	-52.3	-54.0	14.7	0.00e+00	0	28	0	1150287872	71	4224
2026-01-15 09:59:54.00	332.25	23.08	-52.3	-53.9	14.8	0.00e+00	0	28	0	1152385024	71	4185
2026-01-15 09:59:55.01	332.29	22.93	-52.2	-53.8	14.7	0.00e+00	0	28	0	1154482176	70	4384
2026-01-15 09:59:56.02	332.32	22.79	-52.2	-53.8	14.7	0.00e+00	0	28	0	1156579328	70	4367
2026-01-15 09:59:57.03	332.36	22.64	-52.1	-53.7	14.7	0.00e+00	0	28	0	1158676480	70	4320
2026-01-15 09:59:58.03	332.39	22.50	-52.1	-53.7	14.7	0.00e+00	0	28	0	1160773632	70	4331
2026-01-15 09:59:59.04	332.42	22.35	-52.1	-53.7	14.7	0.00e+00	0	28	0	1161822208	70	4324
2026-01-15 10:00:00.05	332.45	22.21	-52.1	-53.7	14.7	0.00e+00	0	28	0	1163919360	70	4332
2026-01-15 10:00:01.06	332.49	22.07	-52.0	-53.6	14.7	0.00e+00	0	28	0	1166016512	70	4290
2026-01-15 10:00:02.07	332.52	21.93	-52.1	-53.7	14.7	0.00e+00	0	28	0	1168113664	70	4329
2026-01-15 10:00:03.07	332.55	21.79	-52.1	-53.7	14.7	0.00e+00	0	28	0	1170210816	70	4308
2026-01-15 10:00:04.08	332.58	21.65	-52.2	-53.8	14.7	0.00e+00	0	28	0	1171259392	70	4363
2026-01-15 10:00:05.09	332.62	21.51	-52.2	-53.9	14.7	0.00e+00	0	28	0	1173356544	70	4399
2026-01-15 10:00:06.10	332.65	21.37	-52.3	-54.0	14.6	0.00e+00	0	28	0	1175453696	70	4442
2026-01-15 10:00:07.11	332.68	21.23	-52.2	-53.9	14.7	0.00e+00	0	28	0	1177550848	70	4409
2026-01-15 10:00:08.11	332.71	21.10	-52.2	-53.8	14.7	0.00e+00	0	28	0	1179648000	70	4368
2026-01-15 10:00:09.12	332.74	20.96	-52.2	-53.8	14.7	0.00e+00	0	28	0	1180696576	70	4380
2026-01-15 10:00:10.13	332.77	20.83	-52.2	-53.9	14.7	0.00e+00	0	28	0	1182793728	70	4414
2026-01-15 10:00:11.14	332.80	20.69	-52.2	-53.9	14.7	0.00e+00	0	28	0	1184890880	70	4412
2026-01-15 10:00:12.14	332.83	20.56	-52.4	-54.1	14.6	0.00e+00	0	28	0	1186988032	70	4530
2026-01-15 10:00:13.15	332.86	20.43	-52.3	-54.0	14.6	0.00e+00	0	28	0	1189085184	70	4483
2026-01-15 10:00:14.16	332.89	20.29	-52.4	-54.1	14.6	0.00e+00	0	28	0	1190133760	70	4525
2026-01-15 10:00:15.17	332.92	20.16	-52.3	-53.9	14.6	0.00e+00	0	28	0	1192230912	70	4436
2026-01-15 10:00:16.18	332.95	20.03	-52.3	-54.0	14.6	0.00e+00	0	28	0	1194328064	70	4454
2026-01-15 10:00:17.18	332.98	19.90	-52.4	-54.1	14.6	0.00e+00	0	28	0	1196425216	70	4498
2026-01-15 10:00:18.19	333.01	19.77	-52.4	-54.1	14.6	0.00e+00	0	28	0	1198522368	70	4524
2026-01-15 10:00:19.20	333.04	19.64	-52.4	-54.1	14.6	0.00e+00	0	28	0	1199570944	70	4539
2026-01-15 10:00:20.21	333.06	19.51	-52.5	-54.3	14.5	0.00e+00	0	28	0	1201668096	70	4605
2026-01-15 10:00:21.21	333.09	19.39	-52.6	-54.3	14.5	0.00e+00	0	28	0	1203765248	70	4630
2026-01-15 10:00:22.22	333.12	19.26	-52.6	-54.4	14.5	0.00e+00	0	28	0	1205862400	70	4652
2026-01-15 10:00:23.23	333.15	19.13	-52.6	-54.4	14.5	0.00e+00	0	28	0	1207959552	70	4652
2026-01-15 10:00:24.23	333.18	19.01	-52.7	-54.5	14.4	0.00e+00	0	28	0	1209008128	70	4732
2026-01-15 10:00:25.24	333.20	18.88	-52.7	-54.5	14.4	0.00e+00	0	28	0	1211105280	70	4753
2026-01-15 10:00:26.25	333.23	18.76	-52.7	-54.5	14.4	0.00e+00	0	28	0	1213202432	70	4723
2026-01-15 10:00:27.25	333.26	18.64	-52.7	-54.6	14.4	0.00e+00	0	28	0	1215299584	70	4764
2026-01-15 10:00:28.25	333.28	18.51	-52.9	-54.7	14.3	0.00e+00	0	28	0	1217396736	70	4835
2026-01-15 10:00:29.26	333.31	18.39	-52.9	-54.7	14.3	0.00e+00	0	28	0	1218445312	70	4844
2026-01-15 10:00:30.27	333.34	18.27	-52.8	-54.6	14.4	0.00e+00	0	28	0	1220542464	70	4812
2026-01-15 10:00:31.28	333.36	18.15	-52.8	-54.7	14.3	0.00e+00	0	28	0	1222639616	70	4836
2026-01-15 10:00:32.29	333.39	18.03	-53.0	-54.8	14.4	0.00e+00	0	28	0	1224736768	71	4635
2026-01-15 10:00:33.30	333.41	17.91	-53.0	-54.8	14.4	0.00e+00	0	28	0	1226833920	71	4629
2026-01-15 10:00:34.31	333.44	17.79	-53.0	-54.9	14.4	0.00e+00	0	28	0	1227882496	71	4655
2026-01-15 10:00:35.31	333.47	17.67	-53.0	-54.9	14.3	0.00e+00	0	28	0	1229979648	71	4684
2026-01-15 10:00:36.32	333.49	17.55	-53.1	-55.0	14.3	0.00e+00	0	28	0	1232076800	71	4753
2026-01-15 10:00:37.33	333.52	17.43	-53.2	-55.1	14.3	0.00e+00	0	28	0	1234173952	71	4785
2026-01-15 10:00:38.34	333.54	17.31	-53.1	-55.0	14.3	0.00e+00	0	28	0	1236271104	71	4738
2026-01-15 10:00:39.35	333.57	17.20	-53.1	-55.1	14.3	0.00e+00	0	28	0	1237319680	71	4761
2026-01-15 10:00:40.36	333.59	17.08	-53.1	-55.0	14.3	0.00e+00	0	28	0	1239416832	71	4745
2026-01-15 10:00:41.36	333.62	16.97	-53.2	-55.2	14.2	0.00e+00	0	28	0	1241513984	71	4817
2026-01-15 10:00:42.37	333.64	16.85	-53.3	-55.2	14.2	0.00e+00	0	28	0	1243611136	71	4854
2026-01-15 10:00:43.38	333.67	16.74	-53.3	-55.3	14.2	0.00e+00	0	28	0	1245708288	71	4872
2026-01-15 10:00:44.39	333.69	16.62	-53.3	-55.3	14.1	0.00e+00	0	28	0	1246756864	71	4890
