passes_logs/2026/01/15/R3.2S_Murmansk/R3.2S_Murmansk__20260115_045137_NOAA_20_JPSS-1_rec.log

#Pass ID: 20260115_045137_NOAA 20 (JPSS-1)
#Satellite: NOAA 20 (JPSS-1)
#Configuration: NOAA 20
#almurnet v.1.7.20251203
#Start time: 2026-01-15 04:51:37

#Version: 2.2.20231116
#Station: R3.2S_Murmansk
#Location: 33.079688 lon 68.888172 lat
#TLE: 1 43013U 17073A   26014.55467351  .00000038  00000+0  38801-4 0  9992
#TLE: 2 43013  98.7635 315.4987 0001517  39.9279 320.2008 14.19535859422677

#Time	Az	El	Level	Level2	SNR	BER	BlckErr	Temp	State	Recorded	gain1	gain2
2026-01-15 04:51:37.17	57.79	1.99	-58.2	-74.3	3.8	1.49e+00	0	26	0	0	82	23048
2026-01-15 04:51:38.16	57.73	2.04	-58.2	-74.2	3.8	1.49e+00	0	26	104	0	81	24341
2026-01-15 04:51:39.15	57.66	2.10	-58.2	-74.2	3.8	1.49e+00	0	26	104	0	81	24338
2026-01-15 04:51:40.16	57.60	2.16	-58.2	-74.2	3.8	1.49e+00	0	26	104	0	81	24363
2026-01-15 04:51:41.15	57.53	2.21	-58.2	-74.2	3.8	1.49e+00	0	26	104	0	81	24313
2026-01-15 04:51:42.16	57.47	2.27	-58.2	-74.2	3.8	1.49e+00	0	26	104	0	81	24333
2026-01-15 04:51:43.14	57.41	2.33	-58.2	-74.2	3.8	1.49e+00	0	26	104	0	81	24300
2026-01-15 04:51:44.14	57.34	2.39	-58.2	-74.2	3.8	1.49e+00	0	26	104	0	81	24222
2026-01-15 04:51:45.14	57.28	2.44	-58.2	-74.2	3.8	1.49e+00	0	26	104	0	81	24320
2026-01-15 04:51:46.14	57.21	2.50	-58.2	-74.2	3.8	1.49e+00	0	26	104	0	81	24248
2026-01-15 04:51:47.14	57.14	2.56	-58.2	-74.2	3.8	1.49e+00	0	26	104	0	81	24275
2026-01-15 04:51:48.14	57.08	2.61	-58.2	-74.2	3.8	1.49e+00	0	26	104	0	81	24266
2026-01-15 04:51:49.13	57.01	2.67	-58.2	-74.2	3.8	1.49e+00	0	26	104	0	81	24339
2026-01-15 04:51:50.13	56.95	2.73	-58.2	-74.2	3.8	1.49e+00	0	26	104	0	81	24242
2026-01-15 04:51:51.13	56.88	2.79	-58.2	-74.2	3.8	1.49e+00	0	26	104	0	81	24268
2026-01-15 04:51:52.13	56.81	2.84	-58.2	-74.2	3.8	1.49e+00	0	26	104	0	81	24307
2026-01-15 04:51:53.12	56.74	2.90	-58.2	-74.2	3.8	1.49e+00	0	26	104	0	81	24277
2026-01-15 04:51:54.12	56.68	2.96	-58.2	-74.2	3.8	1.49e+00	0	27	104	0	81	24329
2026-01-15 04:51:55.12	56.61	3.02	-58.2	-74.2	3.8	1.49e+00	0	26	104	0	81	24338
2026-01-15 04:51:56.11	56.54	3.08	-58.2	-74.2	3.8	1.49e+00	0	26	104	0	81	24349
2026-01-15 04:51:57.11	56.47	3.13	-58.2	-74.2	3.8	1.49e+00	0	27	104	0	81	24386
2026-01-15 04:51:58.10	56.40	3.19	-58.2	-74.2	3.8	1.49e+00	0	26	104	0	81	24355
2026-01-15 04:51:59.10	56.33	3.25	-58.2	-74.2	3.8	1.49e+00	0	26	104	0	81	24377
2026-01-15 04:52:00.10	56.26	3.31	-58.2	-74.2	3.8	1.49e+00	0	26	104	0	81	24328
2026-01-15 04:52:01.09	56.20	3.37	-58.2	-74.2	3.8	1.49e+00	0	27	104	0	81	24317
2026-01-15 04:52:02.08	56.13	3.42	-58.2	-74.2	3.8	1.49e+00	0	27	104	0	81	24301
2026-01-15 04:52:03.08	56.06	3.48	-58.2	-74.2	3.8	1.49e+00	0	27	104	0	81	24297
2026-01-15 04:52:04.07	55.99	3.54	-58.2	-74.2	3.8	1.49e+00	0	27	104	0	81	24381
2026-01-15 04:52:05.07	55.91	3.60	-58.2	-74.2	3.8	1.49e+00	0	27	104	0	81	24355
2026-01-15 04:52:06.07	55.84	3.66	-58.2	-74.2	3.8	1.49e+00	0	27	104	0	81	24372
2026-01-15 04:52:07.06	55.77	3.72	-58.2	-74.2	3.8	1.49e+00	0	27	104	0	81	24247
2026-01-15 04:52:08.05	55.70	3.78	-58.2	-74.1	3.8	1.49e+00	0	27	104	0	81	24098
2026-01-15 04:52:09.05	55.63	3.83	-58.2	-74.1	3.8	1.49e+00	0	27	104	0	81	24022
2026-01-15 04:52:10.05	55.56	3.89	-58.2	-74.2	3.8	1.49e+00	0	27	104	0	81	24165
2026-01-15 04:52:11.06	55.48	3.95	-58.2	-74.2	3.8	1.49e+00	0	27	104	0	81	24193
2026-01-15 04:52:12.06	55.41	4.01	-58.2	-74.2	3.8	1.49e+00	0	27	104	0	81	24381
2026-01-15 04:52:13.07	55.34	4.07	-58.2	-74.2	3.8	1.49e+00	0	27	104	0	81	24370
2026-01-15 04:52:14.07	55.26	4.13	-58.2	-74.2	3.8	1.49e+00	0	27	104	0	81	24151
2026-01-15 04:52:15.08	55.19	4.19	-58.2	-74.0	3.8	1.49e+00	0	27	104	0	81	23620
2026-01-15 04:52:16.08	55.11	4.25	-58.2	-73.5	3.8	1.49e+00	0	27	104	0	81	22498
2026-01-15 04:52:17.08	55.04	4.31	-58.2	-73.1	3.8	1.49e+00	0	27	104	0	81	21411
2026-01-15 04:52:18.08	54.96	4.37	-58.2	-72.3	3.8	1.49e+00	0	27	104	0	81	19460
2026-01-15 04:52:19.08	54.89	4.43	-58.1	-71.4	4.0	1.49e+00	0	27	0	0	81	17549
2026-01-15 04:52:20.08	54.81	4.49	-58.1	-70.8	4.2	1.48e+00	0	27	0	0	81	16329
2026-01-15 04:52:21.07	54.74	4.55	-58.0	-70.2	4.3	1.31e+00	92	27	0	0	81	15360
2026-01-15 04:52:22.06	54.66	4.61	-58.0	-69.5	4.6	1.12e+00	0	27	0	1048576	81	14143
2026-01-15 04:52:23.06	54.58	4.67	-57.9	-68.3	5.1	7.30e-01	0	27	0	3145728	81	12314
2026-01-15 04:52:24.05	54.51	4.73	-57.8	-67.9	5.3	5.61e-01	0	27	0	5242880	81	11814
2026-01-15 04:52:25.05	54.43	4.79	-57.8	-67.5	5.6	4.67e-01	0	27	0	7340032	81	11200
2026-01-15 04:52:26.05	54.35	4.85	-57.8	-67.4	5.6	3.71e-01	0	27	0	9437184	81	11109
2026-01-15 04:52:27.05	54.28	4.91	-57.7	-66.9	6.0	3.60e-01	0	27	0	10485760	81	10477
2026-01-15 04:52:28.05	54.20	4.97	-57.8	-67.3	5.7	3.91e-01	0	27	0	12582912	81	11017
2026-01-15 04:52:29.05	54.12	5.04	-57.8	-67.4	5.6	3.66e-01	0	27	0	14680064	81	11110
2026-01-15 04:52:30.05	54.04	5.10	-57.1	-63.1	9.2	7.09e-02	0	27	0	16777216	80	7191
2026-01-15 04:52:31.05	53.96	5.16	-56.4	-61.2	10.7	2.05e-03	0	27	0	17825792	79	6098
2026-01-15 04:52:32.05	53.88	5.22	-58.2	-73.5	3.8	1.18e+00	0	27	104	19922944	81	22292
2026-01-15 04:52:33.05	53.80	5.28	-57.7	-65.4	7.2	5.64e-01	0	27	0	19922944	81	8818
2026-01-15 04:52:34.05	53.72	5.34	-57.6	-65.3	7.3	2.84e-03	0	27	0	22020096	80	9268
2026-01-15 04:52:35.05	53.64	5.40	-56.6	-61.6	10.4	1.70e-03	0	27	0	24117248	79	6388
2026-01-15 04:52:36.05	53.56	5.46	-56.7	-62.1	9.9	1.68e-03	0	27	0	25165824	79	6737
2026-01-15 04:52:37.05	53.48	5.53	-56.7	-61.9	10.2	7.82e-04	0	27	0	27262976	79	6573
2026-01-15 04:52:38.05	53.39	5.59	-56.5	-61.5	10.5	8.42e-04	0	27	0	29360128	79	6287
2026-01-15 04:52:39.05	53.31	5.65	-56.6	-61.6	10.4	4.55e-04	0	27	0	31457280	79	6408
2026-01-15 04:52:40.04	53.23	5.71	-56.5	-61.3	10.7	7.54e-04	0	27	0	32505856	79	6133
2026-01-15 04:52:41.05	53.15	5.77	-56.2	-60.4	11.3	1.43e-04	0	27	0	34603008	78	5912
2026-01-15 04:52:42.05	53.06	5.83	-55.8	-59.6	11.9	9.10e-06	0	27	0	36700160	78	5378
2026-01-15 04:52:43.05	52.98	5.90	-55.8	-59.6	12.0	2.20e-06	0	27	0	38797312	78	5365
2026-01-15 04:52:44.05	52.90	5.96	-55.5	-59.2	12.2	3.00e-06	0	27	0	40894464	77	5405
2026-01-15 04:52:45.05	52.81	6.02	-55.4	-58.8	12.4	0.00e+00	0	27	0	41943040	77	5195
2026-01-15 04:52:46.05	52.73	6.08	-55.5	-59.0	12.3	0.00e+00	0	27	0	44040192	77	5288
2026-01-15 04:52:47.05	52.64	6.15	-55.1	-58.3	12.7	0.00e+00	0	27	0	46137344	76	5168
2026-01-15 04:52:48.05	52.56	6.21	-55.1	-58.3	12.7	0.00e+00	0	27	0	48234496	76	5184
2026-01-15 04:52:49.03	52.47	6.27	-55.4	-58.8	12.4	0.00e+00	0	27	0	50331648	76	5495
2026-01-15 04:52:50.03	52.39	6.33	-55.3	-58.5	12.5	0.00e+00	0	27	0	51380224	76	5340
2026-01-15 04:52:51.03	52.30	6.40	-55.2	-58.4	12.7	7.00e-07	0	27	0	53477376	76	5255
2026-01-15 04:52:52.02	52.21	6.46	-55.1	-58.3	12.7	0.00e+00	0	27	0	55574528	76	5208
2026-01-15 04:52:53.01	52.13	6.52	-55.2	-58.5	12.6	0.00e+00	0	27	0	57671680	76	5321
2026-01-15 04:52:54.00	52.04	6.58	-55.2	-58.4	12.6	0.00e+00	0	27	0	58720256	76	5265
2026-01-15 04:52:55.00	51.95	6.65	-55.3	-58.6	12.5	0.00e+00	0	27	0	60817408	76	5389
2026-01-15 04:52:55.99	51.86	6.71	-55.2	-58.4	12.7	0.00e+00	0	27	0	62914560	76	5221
2026-01-15 04:52:56.99	51.77	6.77	-55.2	-58.5	12.6	0.00e+00	0	27	0	65011712	76	5291
2026-01-15 04:52:57.98	51.69	6.84	-55.3	-58.6	12.5	0.00e+00	0	27	0	67108864	76	5367
2026-01-15 04:52:58.98	51.60	6.90	-55.2	-58.5	12.6	0.00e+00	0	27	0	68157440	76	5308
2026-01-15 04:52:59.98	51.51	6.96	-55.5	-59.0	12.3	7.00e-07	0	27	0	70254592	76	5599
2026-01-15 04:53:00.98	51.42	7.03	-55.4	-58.8	12.5	0.00e+00	0	28	0	72351744	76	5467
2026-01-15 04:53:01.98	51.32	7.09	-55.3	-58.5	12.6	0.00e+00	0	28	0	74448896	76	5325
2026-01-15 04:53:02.98	51.23	7.15	-55.3	-58.5	12.6	0.00e+00	0	28	0	75497472	76	5307
2026-01-15 04:53:03.98	51.14	7.22	-55.2	-58.3	12.8	0.00e+00	0	27	0	77594624	76	5183
2026-01-15 04:53:04.98	51.05	7.28	-55.2	-58.3	12.8	7.00e-07	0	27	0	79691776	76	5167
2026-01-15 04:53:05.99	50.95	7.35	-55.1	-58.2	12.8	0.00e+00	0	28	0	81788928	76	5137
2026-01-15 04:53:06.99	50.86	7.41	-55.0	-58.1	12.9	0.00e+00	0	27	0	83886080	76	5064
2026-01-15 04:53:08.00	50.77	7.48	-55.1	-58.2	12.8	0.00e+00	0	27	0	84934656	76	5139
2026-01-15 04:53:08.99	50.67	7.54	-55.3	-58.4	12.7	0.00e+00	0	27	0	87031808	76	5254
2026-01-15 04:53:09.99	50.58	7.60	-55.3	-58.4	12.7	0.00e+00	0	27	0	89128960	76	5263
2026-01-15 04:53:10.99	50.48	7.67	-55.3	-58.4	12.7	0.00e+00	0	27	0	91226112	76	5261
2026-01-15 04:53:11.99	50.39	7.73	-55.2	-58.4	12.7	0.00e+00	0	27	0	93323264	76	5238
2026-01-15 04:53:12.99	50.29	7.80	-55.2	-58.2	12.8	0.00e+00	0	28	0	94371840	76	5151
2026-01-15 04:53:13.98	50.20	7.86	-55.1	-58.2	12.9	0.00e+00	0	27	0	96468992	76	5104
2026-01-15 04:53:14.97	50.10	7.93	-55.1	-58.2	12.9	0.00e+00	0	27	0	98566144	76	5114
2026-01-15 04:53:15.97	50.01	7.99	-55.2	-58.3	12.8	0.00e+00	0	27	0	100663296	76	5161
2026-01-15 04:53:16.97	49.91	8.06	-55.3	-58.5	12.7	0.00e+00	0	27	0	101711872	76	5293
2026-01-15 04:53:17.97	49.81	8.12	-55.1	-58.2	12.9	0.00e+00	0	28	0	103809024	76	5131
2026-01-15 04:53:18.96	49.71	8.19	-55.1	-58.1	12.9	0.00e+00	0	28	0	105906176	76	5079
2026-01-15 04:53:19.96	49.61	8.25	-55.1	-58.2	12.9	0.00e+00	0	27	0	108003328	76	5134
2026-01-15 04:53:20.96	49.51	8.32	-55.0	-58.0	13.0	0.00e+00	0	27	0	110100480	76	4992
2026-01-15 04:53:21.96	49.41	8.38	-54.9	-57.7	13.2	0.00e+00	0	28	0	111149056	76	4843
2026-01-15 04:53:22.96	49.31	8.45	-54.9	-57.7	13.2	0.00e+00	0	28	0	113246208	76	4865
2026-01-15 04:53:23.96	49.21	8.51	-54.9	-57.7	13.2	0.00e+00	0	28	0	115343360	76	4829
2026-01-15 04:53:24.96	49.11	8.58	-54.8	-57.6	13.3	0.00e+00	0	27	0	117440512	76	4774
2026-01-15 04:53:25.96	49.01	8.65	-54.9	-57.7	13.2	0.00e+00	0	27	0	119537664	76	4830
2026-01-15 04:53:26.95	48.91	8.71	-54.7	-57.5	13.3	0.00e+00	0	28	0	120586240	76	4748
2026-01-15 04:53:27.95	48.81	8.78	-54.7	-57.5	13.3	0.00e+00	0	27	0	122683392	76	4734
2026-01-15 04:53:28.95	48.70	8.84	-54.8	-57.6	13.3	0.00e+00	0	28	0	124780544	76	4795
2026-01-15 04:53:29.95	48.60	8.91	-55.0	-57.8	13.1	0.00e+00	0	27	0	126877696	76	4911
2026-01-15 04:53:30.95	48.50	8.98	-54.9	-57.7	13.2	0.00e+00	0	28	0	127926272	76	4843
2026-01-15 04:53:31.95	48.39	9.04	-54.9	-57.7	13.2	0.00e+00	0	27	0	130023424	76	4825
2026-01-15 04:53:32.94	48.29	9.11	-54.7	-57.4	13.4	0.00e+00	0	27	0	132120576	76	4697
2026-01-15 04:53:33.94	48.18	9.17	-54.8	-57.6	13.3	0.00e+00	0	28	0	134217728	76	4766
2026-01-15 04:53:34.94	48.08	9.24	-55.0	-57.8	13.1	0.00e+00	0	28	0	136314880	76	4911
2026-01-15 04:53:35.94	47.97	9.31	-54.9	-57.7	13.2	0.00e+00	0	27	0	137363456	76	4846
2026-01-15 04:53:36.94	47.86	9.37	-54.9	-57.8	13.2	0.00e+00	0	27	0	139460608	76	4892
2026-01-15 04:53:37.94	47.75	9.44	-54.9	-57.7	13.2	0.00e+00	0	28	0	141557760	76	4840
2026-01-15 04:53:38.94	47.65	9.51	-55.0	-57.9	13.1	0.00e+00	0	28	0	143654912	76	4955
2026-01-15 04:53:39.93	47.54	9.57	-54.8	-57.6	13.3	0.00e+00	0	28	0	145752064	76	4799
2026-01-15 04:53:40.93	47.43	9.64	-54.9	-57.6	13.3	0.00e+00	0	28	0	146800640	76	4808
2026-01-15 04:53:41.92	47.32	9.71	-54.8	-57.6	13.2	0.00e+00	0	28	0	148897792	76	4813
2026-01-15 04:53:42.92	47.21	9.78	-55.0	-57.9	13.1	0.00e+00	0	28	0	150994944	76	4934
2026-01-15 04:53:43.91	47.10	9.84	-55.0	-57.9	13.1	0.00e+00	0	28	0	153092096	76	4956
2026-01-15 04:53:44.91	46.99	9.91	-55.0	-57.9	13.1	0.00e+00	0	28	0	154140672	76	4937
2026-01-15 04:53:45.91	46.88	9.98	-55.0	-57.9	13.1	0.00e+00	0	27	0	156237824	76	4944
2026-01-15 04:53:46.89	46.77	10.04	-55.0	-57.9	13.1	0.00e+00	0	28	0	158334976	76	4935
2026-01-15 04:53:47.89	46.66	10.11	-55.0	-57.8	13.2	0.00e+00	0	28	0	160432128	76	4885
2026-01-15 04:53:48.89	46.54	10.18	-54.9	-57.7	13.2	0.00e+00	0	28	0	162529280	76	4855
2026-01-15 04:53:49.89	46.43	10.25	-55.0	-57.8	13.2	0.00e+00	0	28	0	163577856	76	4909
2026-01-15 04:53:50.88	46.32	10.31	-55.0	-57.8	13.1	0.00e+00	0	28	0	165675008	76	4925
2026-01-15 04:53:51.87	46.20	10.38	-55.0	-57.8	13.2	0.00e+00	0	28	0	167772160	76	4884
2026-01-15 04:53:52.87	46.09	10.45	-54.9	-57.6	13.3	0.00e+00	0	27	0	169869312	76	4800
2026-01-15 04:53:53.87	45.97	10.52	-54.9	-57.7	13.3	0.00e+00	0	28	0	170917888	76	4825
2026-01-15 04:53:54.87	45.85	10.59	-54.8	-57.6	13.3	0.00e+00	0	27	0	173015040	76	4771
2026-01-15 04:53:55.87	45.74	10.65	-54.8	-57.6	13.3	0.00e+00	0	28	0	175112192	76	4781
2026-01-15 04:53:56.87	45.62	10.72	-54.9	-57.7	13.3	0.00e+00	0	28	0	177209344	76	4859
2026-01-15 04:53:57.87	45.50	10.79	-54.9	-57.7	13.3	0.00e+00	0	28	0	179306496	76	4836
2026-01-15 04:53:58.87	45.38	10.86	-54.8	-57.5	13.4	0.00e+00	0	28	0	180355072	76	4731
2026-01-15 04:53:59.87	45.26	10.93	-54.8	-57.6	13.3	0.00e+00	0	28	0	182452224	76	4779
2026-01-15 04:54:00.87	45.14	11.00	-54.8	-57.5	13.4	0.00e+00	0	28	0	184549376	76	4706
2026-01-15 04:54:01.87	45.02	11.06	-54.6	-57.2	13.5	0.00e+00	0	28	0	186646528	75	4834
2026-01-15 04:54:02.87	44.90	11.13	-54.5	-57.1	13.5	0.00e+00	0	28	0	188743680	75	4768
2026-01-15 04:54:03.87	44.78	11.20	-54.5	-57.1	13.5	0.00e+00	0	28	0	189792256	75	4792
2026-01-15 04:54:04.87	44.66	11.27	-54.5	-57.1	13.5	0.00e+00	0	28	0	191889408	75	4786
2026-01-15 04:54:05.87	44.53	11.34	-54.4	-57.0	13.5	0.00e+00	0	28	0	193986560	75	4739
2026-01-15 04:54:06.87	44.41	11.41	-54.4	-57.0	13.6	0.00e+00	0	28	0	196083712	75	4736
2026-01-15 04:54:07.87	44.29	11.48	-54.5	-57.1	13.5	0.00e+00	0	27	0	198180864	75	4775
2026-01-15 04:54:08.87	44.16	11.55	-54.3	-56.8	13.7	0.00e+00	0	28	0	199229440	75	4636
2026-01-15 04:54:09.87	44.04	11.62	-54.3	-56.7	13.7	0.00e+00	0	28	0	201326592	75	4598
2026-01-15 04:54:10.87	43.91	11.68	-54.2	-56.6	13.8	0.00e+00	0	28	0	203423744	75	4537
2026-01-15 04:54:11.87	43.78	11.75	-54.3	-56.8	13.7	0.00e+00	0	28	0	205520896	75	4608
2026-01-15 04:54:12.87	43.66	11.82	-54.3	-56.7	13.7	0.00e+00	0	28	0	206569472	75	4597
2026-01-15 04:54:13.88	43.53	11.89	-54.2	-56.6	13.8	0.00e+00	0	28	0	208666624	75	4529
2026-01-15 04:54:14.88	43.40	11.96	-54.3	-56.8	13.7	0.00e+00	0	28	0	210763776	75	4611
2026-01-15 04:54:15.89	43.27	12.03	-54.3	-56.7	13.7	0.00e+00	0	28	0	212860928	75	4589
2026-01-15 04:54:16.89	43.14	12.10	-54.3	-56.8	13.7	0.00e+00	0	28	0	214958080	75	4602
2026-01-15 04:54:17.89	43.01	12.17	-54.3	-56.8	13.7	0.00e+00	0	28	0	216006656	75	4601
2026-01-15 04:54:18.89	42.88	12.24	-54.3	-56.8	13.7	0.00e+00	0	28	0	218103808	75	4621
2026-01-15 04:54:19.89	42.75	12.31	-54.2	-56.6	13.8	0.00e+00	0	28	0	220200960	75	4545
2026-01-15 04:54:20.89	42.61	12.38	-54.3	-56.7	13.7	0.00e+00	0	28	0	222298112	75	4575
2026-01-15 04:54:21.89	42.48	12.45	-54.2	-56.7	13.8	0.00e+00	0	28	0	224395264	75	4551
2026-01-15 04:54:22.89	42.35	12.52	-54.1	-56.6	13.7	0.00e+00	0	28	0	225443840	74	4760
2026-01-15 04:54:23.89	42.21	12.59	-54.2	-56.6	13.7	0.00e+00	0	28	0	227540992	74	4813
2026-01-15 04:54:24.88	42.08	12.66	-54.2	-56.6	13.7	0.00e+00	0	28	0	229638144	74	4779
2026-01-15 04:54:25.88	41.95	12.73	-54.0	-56.4	13.8	0.00e+00	0	28	0	231735296	74	4680
2026-01-15 04:54:26.88	41.81	12.80	-54.1	-56.4	13.8	0.00e+00	0	28	0	233832448	74	4682
2026-01-15 04:54:27.88	41.67	12.87	-54.1	-56.4	13.8	0.00e+00	0	28	0	234881024	74	4673
2026-01-15 04:54:28.88	41.54	12.94	-54.1	-56.5	13.8	0.00e+00	0	28	0	236978176	74	4711
2026-01-15 04:54:29.88	41.40	13.01	-54.0	-56.2	13.9	0.00e+00	0	28	0	239075328	74	4592
2026-01-15 04:54:30.87	41.26	13.08	-53.9	-56.1	13.9	0.00e+00	0	28	0	241172480	74	4543
2026-01-15 04:54:31.88	41.12	13.15	-53.8	-56.0	14.0	0.00e+00	0	28	0	242221056	74	4445
2026-01-15 04:54:32.88	40.98	13.22	-53.7	-55.9	14.1	0.00e+00	0	28	0	244318208	74	4437
2026-01-15 04:54:33.89	40.84	13.29	-53.7	-55.9	14.1	0.00e+00	0	28	0	246415360	74	4409
2026-01-15 04:54:34.88	40.70	13.36	-53.7	-55.9	14.0	0.00e+00	0	28	0	248512512	73	4670
2026-01-15 04:54:35.88	40.56	13.43	-53.7	-55.9	14.0	0.00e+00	0	28	0	250609664	73	4686
2026-01-15 04:54:36.88	40.41	13.50	-53.7	-55.9	13.9	0.00e+00	0	28	0	251658240	73	4694
2026-01-15 04:54:37.88	40.27	13.57	-53.8	-56.0	13.9	0.00e+00	0	28	0	253755392	73	4740
2026-01-15 04:54:38.89	40.12	13.64	-53.9	-56.1	13.9	0.00e+00	0	28	0	255852544	73	4794
2026-01-15 04:54:39.88	39.98	13.71	-53.9	-56.2	13.8	0.00e+00	0	28	0	257949696	73	4866
2026-01-15 04:54:40.88	39.83	13.78	-53.9	-56.2	13.8	0.00e+00	0	28	0	260046848	73	4845
2026-01-15 04:54:41.88	39.69	13.85	-53.7	-56.0	14.0	0.00e+00	0	28	0	261095424	73	4710
2026-01-15 04:54:42.87	39.54	13.92	-53.9	-56.2	13.8	0.00e+00	0	28	0	263192576	73	4837
2026-01-15 04:54:43.87	39.39	13.99	-54.0	-56.3	13.8	0.00e+00	0	28	0	265289728	73	4893
2026-01-15 04:54:44.87	39.25	14.06	-53.9	-56.2	13.8	0.00e+00	0	28	0	267386880	73	4854
2026-01-15 04:54:45.87	39.10	14.13	-54.0	-56.3	13.7	0.00e+00	0	28	0	268435456	73	4920
2026-01-15 04:54:46.86	38.95	14.20	-53.9	-56.1	13.9	0.00e+00	0	28	0	270532608	73	4814
2026-01-15 04:54:47.86	38.80	14.27	-53.9	-56.2	13.8	0.00e+00	0	28	0	272629760	73	4824
2026-01-15 04:54:48.85	38.65	14.34	-54.0	-56.3	13.8	0.00e+00	0	28	0	274726912	73	4883
2026-01-15 04:54:49.85	38.50	14.41	-53.9	-56.2	13.8	0.00e+00	0	28	0	276824064	73	4840
2026-01-15 04:54:50.85	38.34	14.49	-54.0	-56.3	13.8	0.00e+00	0	28	0	277872640	73	4873
2026-01-15 04:54:51.84	38.19	14.55	-54.0	-56.3	13.8	0.00e+00	0	28	0	279969792	73	4919
2026-01-15 04:54:52.84	38.04	14.63	-54.0	-56.3	13.8	0.00e+00	0	28	0	282066944	73	4919
2026-01-15 04:54:53.84	37.88	14.70	-54.1	-56.4	13.7	0.00e+00	0	28	0	284164096	73	4980
2026-01-15 04:54:54.83	37.73	14.77	-54.1	-56.4	13.7	0.00e+00	0	28	0	285212672	73	4963
2026-01-15 04:54:55.83	37.57	14.84	-54.0	-56.4	13.7	0.00e+00	0	28	0	287309824	73	4928
2026-01-15 04:54:56.83	37.41	14.91	-54.1	-56.4	13.7	0.00e+00	0	28	0	289406976	73	4979
2026-01-15 04:54:57.83	37.26	14.98	-54.2	-56.6	13.6	0.00e+00	0	28	0	291504128	73	5071
2026-01-15 04:54:58.82	37.10	15.05	-54.2	-56.6	13.6	0.00e+00	0	28	0	293601280	73	5065
2026-01-15 04:54:59.82	36.94	15.12	-54.2	-56.6	13.6	0.00e+00	0	28	0	294649856	73	5047
2026-01-15 04:55:00.80	36.78	15.19	-54.2	-56.6	13.6	0.00e+00	0	28	0	296747008	73	5092
2026-01-15 04:55:01.80	36.62	15.26	-54.4	-56.8	13.5	0.00e+00	0	28	0	298844160	73	5213
2026-01-15 04:55:02.79	36.46	15.33	-54.4	-56.9	13.5	0.00e+00	0	28	0	300941312	73	5238
2026-01-15 04:55:03.78	36.30	15.39	-54.3	-56.8	13.6	0.00e+00	0	28	0	303038464	73	5168
2026-01-15 04:55:04.77	36.14	15.46	-54.3	-56.7	13.6	0.00e+00	0	28	0	304087040	73	5159
2026-01-15 04:55:05.78	35.97	15.54	-54.3	-56.7	13.6	0.00e+00	0	28	0	306184192	73	5129
2026-01-15 04:55:06.78	35.81	15.61	-54.3	-56.8	13.6	0.00e+00	0	28	0	308281344	73	5160
2026-01-15 04:55:07.78	35.64	15.68	-54.2	-56.6	13.6	0.00e+00	0	28	0	310378496	73	5064
2026-01-15 04:55:08.79	35.47	15.75	-54.4	-56.8	13.6	0.00e+00	0	28	0	311427072	73	5186
2026-01-15 04:55:09.77	35.31	15.81	-54.3	-56.7	13.6	0.00e+00	0	28	0	313524224	73	5107
2026-01-15 04:55:10.77	35.14	15.88	-54.3	-56.7	13.6	0.00e+00	0	28	0	315621376	73	5101
2026-01-15 04:55:11.77	34.97	15.95	-54.3	-56.7	13.6	0.00e+00	0	28	0	317718528	73	5135
2026-01-15 04:55:12.77	34.80	16.02	-54.2	-56.6	13.7	0.00e+00	0	28	0	319815680	73	5059
2026-01-15 04:55:13.77	34.63	16.09	-54.3	-56.8	13.6	0.00e+00	0	28	0	320864256	73	5173
2026-01-15 04:55:14.77	34.46	16.16	-54.5	-56.9	13.6	0.00e+00	0	28	0	322961408	74	4979
2026-01-15 04:55:15.77	34.29	16.23	-54.5	-57.0	13.5	0.00e+00	0	28	0	325058560	74	5028
2026-01-15 04:55:16.77	34.12	16.30	-54.5	-57.0	13.5	0.00e+00	0	28	0	327155712	74	5016
2026-01-15 04:55:17.77	33.94	16.37	-54.4	-56.9	13.6	0.00e+00	0	28	0	328204288	74	4944
2026-01-15 04:55:18.77	33.77	16.44	-54.4	-56.9	13.6	0.00e+00	0	28	0	330301440	74	4953
2026-01-15 04:55:19.77	33.59	16.51	-54.5	-56.9	13.6	0.00e+00	0	28	0	332398592	74	4959
2026-01-15 04:55:20.77	33.42	16.58	-54.4	-56.8	13.7	0.00e+00	0	28	0	334495744	74	4905
2026-01-15 04:55:21.78	33.24	16.65	-54.4	-56.8	13.7	0.00e+00	0	28	0	336592896	74	4895
2026-01-15 04:55:22.78	33.06	16.72	-54.4	-56.8	13.6	0.00e+00	0	28	0	337641472	74	4901
2026-01-15 04:55:23.77	32.88	16.79	-54.5	-57.0	13.5	0.00e+00	0	28	0	339738624	74	5019
2026-01-15 04:55:24.77	32.70	16.86	-54.4	-56.8	13.6	0.00e+00	0	28	0	341835776	74	4895
2026-01-15 04:55:25.76	32.53	16.93	-54.4	-56.8	13.7	0.00e+00	0	28	0	343932928	74	4876
2026-01-15 04:55:26.76	32.34	16.99	-54.4	-56.8	13.6	0.00e+00	0	28	0	346030080	74	4884
2026-01-15 04:55:27.76	32.16	17.06	-54.3	-56.7	13.7	0.00e+00	0	28	0	347078656	74	4840
2026-01-15 04:55:28.76	31.98	17.13	-54.4	-56.8	13.6	0.00e+00	0	28	0	349175808	74	4911
2026-01-15 04:55:29.75	31.80	17.20	-54.5	-56.9	13.6	0.00e+00	0	28	0	351272960	74	4956
2026-01-15 04:55:30.74	31.61	17.27	-54.3	-56.7	13.7	0.00e+00	0	28	0	353370112	74	4839
2026-01-15 04:55:31.74	31.43	17.33	-54.3	-56.6	13.8	0.00e+00	0	28	0	354418688	74	4790
2026-01-15 04:55:32.74	31.24	17.40	-54.3	-56.6	13.7	0.00e+00	0	28	0	356515840	74	4792
2026-01-15 04:55:33.75	31.05	17.47	-54.2	-56.5	13.8	0.00e+00	0	28	0	358612992	74	4759
2026-01-15 04:55:34.75	30.87	17.54	-54.1	-56.4	13.8	0.00e+00	0	28	0	360710144	74	4695
2026-01-15 04:55:35.75	30.68	17.61	-54.0	-56.3	13.9	0.00e+00	0	28	0	362807296	74	4624
2026-01-15 04:55:36.76	30.49	17.67	-54.1	-56.3	13.9	0.00e+00	0	28	0	363855872	74	4634
2026-01-15 04:55:37.76	30.30	17.74	-53.9	-56.1	14.0	0.00e+00	0	28	0	365953024	74	4521
2026-01-15 04:55:38.77	30.10	17.81	-53.9	-56.0	14.1	0.00e+00	0	28	0	368050176	74	4487
2026-01-15 04:55:39.77	29.91	17.88	-53.8	-55.9	14.1	0.00e+00	0	28	0	370147328	74	4428
2026-01-15 04:55:40.76	29.72	17.94	-53.8	-55.9	14.1	0.00e+00	0	28	0	372244480	74	4414
2026-01-15 04:55:41.76	29.52	18.01	-53.7	-55.8	14.2	0.00e+00	0	28	0	373293056	74	4363
2026-01-15 04:55:42.76	29.33	18.08	-53.6	-55.7	14.1	0.00e+00	0	28	0	375390208	73	4560
2026-01-15 04:55:43.76	29.13	18.14	-53.7	-55.8	14.1	0.00e+00	0	28	0	377487360	73	4604
2026-01-15 04:55:44.76	28.94	18.21	-53.4	-55.4	14.3	0.00e+00	0	28	0	379584512	73	4424
2026-01-15 04:55:45.76	28.74	18.28	-53.2	-55.1	14.4	0.00e+00	0	28	0	381681664	73	4288
2026-01-15 04:55:46.76	28.54	18.34	-53.0	-54.9	14.4	0.00e+00	0	28	0	382730240	72	4413
2026-01-15 04:55:47.75	28.34	18.41	-52.9	-54.7	14.4	0.00e+00	0	28	0	384827392	72	4335
2026-01-15 04:55:48.75	28.14	18.47	-52.8	-54.6	14.5	0.00e+00	0	28	0	386924544	72	4289
2026-01-15 04:55:49.74	27.95	18.54	-52.8	-54.7	14.5	0.00e+00	0	28	0	389021696	72	4306
2026-01-15 04:55:50.74	27.74	18.60	-52.7	-54.5	14.5	0.00e+00	0	28	0	390070272	72	4234
2026-01-15 04:55:51.73	27.54	18.67	-52.7	-54.5	14.6	0.00e+00	0	28	0	392167424	72	4236
2026-01-15 04:55:52.73	27.34	18.73	-52.7	-54.5	14.6	0.00e+00	0	28	0	394264576	72	4229
2026-01-15 04:55:53.72	27.14	18.79	-52.6	-54.4	14.5	0.00e+00	0	28	0	396361728	71	4438
2026-01-15 04:55:54.73	26.93	18.86	-52.7	-54.5	14.4	0.00e+00	0	28	0	398458880	71	4465
2026-01-15 04:55:55.72	26.73	18.92	-52.5	-54.3	14.5	0.00e+00	0	28	0	399507456	71	4377
2026-01-15 04:55:56.72	26.52	18.99	-52.6	-54.4	14.5	0.00e+00	0	28	0	401604608	71	4432
2026-01-15 04:55:57.72	26.31	19.05	-52.5	-54.3	14.6	0.00e+00	0	28	0	403701760	71	4352
2026-01-15 04:55:58.72	26.10	19.11	-52.4	-54.2	14.6	0.00e+00	0	28	0	405798912	71	4308
2026-01-15 04:55:59.71	25.89	19.18	-52.4	-54.2	14.6	0.00e+00	0	28	0	406847488	71	4321
2026-01-15 04:56:00.70	25.69	19.24	-52.3	-54.1	14.6	0.00e+00	0	28	0	408944640	71	4260
2026-01-15 04:56:01.70	25.47	19.30	-52.3	-54.0	14.7	0.00e+00	0	28	0	411041792	71	4242
2026-01-15 04:56:02.71	25.26	19.36	-52.3	-54.1	14.6	0.00e+00	0	28	0	413138944	71	4250
2026-01-15 04:56:03.71	25.05	19.43	-52.3	-54.1	14.6	0.00e+00	0	28	0	415236096	71	4255
2026-01-15 04:56:04.71	24.83	19.49	-52.3	-54.1	14.7	0.00e+00	0	28	0	416284672	71	4253
2026-01-15 04:56:05.70	24.62	19.55	-52.3	-54.0	14.7	0.00e+00	0	28	0	418381824	71	4212
2026-01-15 04:56:06.71	24.40	19.61	-52.2	-53.9	14.7	0.00e+00	0	28	0	420478976	71	4180
2026-01-15 04:56:07.70	24.19	19.67	-52.1	-53.8	14.6	0.00e+00	0	28	0	422576128	70	4375
2026-01-15 04:56:08.70	23.97	19.73	-52.2	-53.9	14.6	0.00e+00	0	28	0	424673280	70	4394
2026-01-15 04:56:09.69	23.75	19.79	-52.2	-53.9	14.6	0.00e+00	0	28	0	425721856	70	4423
2026-01-15 04:56:10.68	23.54	19.85	-52.2	-53.9	14.6	0.00e+00	0	28	0	427819008	70	4428
2026-01-15 04:56:11.67	23.32	19.91	-52.1	-53.8	14.6	0.00e+00	0	28	0	429916160	70	4361
2026-01-15 04:56:12.67	23.10	19.97	-52.1	-53.8	14.6	0.00e+00	0	28	0	432013312	70	4353
2026-01-15 04:56:13.67	22.88	20.03	-52.2	-53.9	14.6	0.00e+00	0	28	0	433061888	70	4427
2026-01-15 04:56:14.67	22.65	20.09	-52.2	-53.8	14.6	0.00e+00	0	28	0	435159040	70	4389
2026-01-15 04:56:15.67	22.43	20.15	-52.2	-54.0	14.6	0.00e+00	0	28	0	437256192	70	4444
2026-01-15 04:56:16.67	22.21	20.21	-52.2	-53.9	14.6	0.00e+00	0	28	0	439353344	70	4424
2026-01-15 04:56:17.67	21.98	20.26	-52.3	-54.0	14.6	0.00e+00	0	28	0	441450496	70	4468
2026-01-15 04:56:18.68	21.75	20.32	-52.2	-54.0	14.6	0.00e+00	0	28	0	442499072	70	4444
2026-01-15 04:56:19.68	21.52	20.38	-52.2	-53.9	14.6	0.00e+00	0	28	0	444596224	70	4404
2026-01-15 04:56:20.68	21.30	20.44	-52.3	-54.0	14.6	0.00e+00	0	28	0	446693376	70	4462
2026-01-15 04:56:21.68	21.07	20.49	-52.3	-54.1	14.5	0.00e+00	0	28	0	448790528	70	4507
2026-01-15 04:56:22.68	20.84	20.55	-52.5	-54.2	14.5	0.00e+00	0	28	0	450887680	70	4594
2026-01-15 04:56:23.68	20.61	20.61	-52.4	-54.1	14.5	0.00e+00	0	28	0	451936256	70	4528
2026-01-15 04:56:24.68	20.38	20.66	-52.3	-54.0	14.6	0.00e+00	0	28	0	454033408	70	4444
2026-01-15 04:56:25.68	20.14	20.72	-52.3	-54.0	14.6	0.00e+00	0	28	0	456130560	70	4448
2026-01-15 04:56:26.68	19.91	20.77	-52.3	-54.1	14.5	0.00e+00	0	28	0	458227712	70	4497
2026-01-15 04:56:27.68	19.68	20.83	-52.4	-54.2	14.5	0.00e+00	0	28	0	460324864	70	4556
2026-01-15 04:56:28.69	19.44	20.88	-52.4	-54.1	14.5	0.00e+00	0	28	0	461373440	70	4531
2026-01-15 04:56:29.69	19.20	20.93	-52.4	-54.2	14.5	0.00e+00	0	28	0	463470592	70	4558
2026-01-15 04:56:30.69	18.97	20.99	-52.3	-54.0	14.6	0.00e+00	0	28	0	465567744	70	4453
2026-01-15 04:56:31.69	18.73	21.04	-52.2	-53.9	14.6	0.00e+00	0	28	0	467664896	70	4392
2026-01-15 04:56:32.69	18.49	21.09	-52.2	-53.8	14.6	0.00e+00	0	28	0	468713472	70	4389
2026-01-15 04:56:33.70	18.25	21.14	-52.2	-53.8	14.6	0.00e+00	0	28	0	470810624	70	4384
2026-01-15 04:56:34.69	18.02	21.20	-52.1	-53.8	14.7	0.00e+00	0	28	0	472907776	70	4352
2026-01-15 04:56:35.69	17.77	21.25	-52.0	-53.7	14.7	0.00e+00	0	28	0	475004928	70	4311
2026-01-15 04:56:36.69	17.53	21.30	-52.0	-53.6	14.7	0.00e+00	0	28	0	477102080	70	4268
2026-01-15 04:56:37.69	17.29	21.35	-51.8	-53.4	14.8	0.00e+00	0	28	0	478150656	70	4167
2026-01-15 04:56:38.70	17.05	21.40	-51.7	-53.3	14.9	0.00e+00	0	28	0	480247808	70	4127
2026-01-15 04:56:39.70	16.80	21.45	-51.7	-53.2	14.7	0.00e+00	0	28	0	482344960	69	4332
2026-01-15 04:56:40.69	16.56	21.50	-51.7	-53.3	14.7	0.00e+00	0	28	0	484442112	69	4381
2026-01-15 04:56:41.69	16.32	21.54	-51.8	-53.5	14.7	0.00e+00	0	28	0	485490688	69	4451
2026-01-15 04:56:42.69	16.07	21.59	-51.9	-53.6	14.6	0.00e+00	0	28	0	487587840	69	4501
2026-01-15 04:56:43.69	15.82	21.64	-51.7	-53.3	14.7	0.00e+00	0	28	0	489684992	69	4374
2026-01-15 04:56:44.68	15.58	21.69	-51.7	-53.3	14.7	0.00e+00	0	28	0	491782144	69	4388
2026-01-15 04:56:45.67	15.33	21.73	-51.7	-53.3	14.8	0.00e+00	0	28	0	493879296	69	4345
2026-01-15 04:56:46.67	15.08	21.78	-51.6	-53.2	14.8	0.00e+00	0	28	0	494927872	69	4304
2026-01-15 04:56:47.68	14.83	21.82	-51.6	-53.1	14.8	0.00e+00	0	28	0	497025024	69	4281
2026-01-15 04:56:48.68	14.58	21.87	-51.5	-53.1	14.8	0.00e+00	0	28	0	499122176	69	4275
2026-01-15 04:56:49.67	14.33	21.91	-51.5	-53.1	14.8	0.00e+00	0	28	0	501219328	69	4247
2026-01-15 04:56:50.67	14.08	21.96	-51.6	-53.1	14.8	0.00e+00	0	28	0	503316480	69	4281
2026-01-15 04:56:51.67	13.83	22.00	-51.6	-53.2	14.7	0.00e+00	0	28	0	504365056	69	4327
2026-01-15 04:56:52.67	13.57	22.04	-51.7	-53.4	14.7	0.00e+00	0	28	0	506462208	69	4395
2026-01-15 04:56:53.66	13.32	22.09	-51.6	-53.2	14.8	0.00e+00	0	28	0	508559360	69	4320
2026-01-15 04:56:54.66	13.07	22.13	-51.6	-53.2	14.8	0.00e+00	0	28	0	510656512	69	4303
2026-01-15 04:56:55.65	12.82	22.17	-51.7	-53.2	14.8	0.00e+00	0	28	0	512753664	69	4330
2026-01-15 04:56:56.64	12.56	22.21	-51.6	-53.2	14.8	0.00e+00	0	28	0	513802240	69	4316
2026-01-15 04:56:57.64	12.31	22.25	-51.7	-53.3	14.7	0.00e+00	0	28	0	515899392	69	4381
2026-01-15 04:56:58.64	12.05	22.29	-51.8	-53.5	14.7	0.00e+00	0	28	0	517996544	69	4450
2026-01-15 04:56:59.63	11.79	22.33	-52.0	-53.7	14.6	0.00e+00	0	28	0	520093696	69	4579
2026-01-15 04:57:00.62	11.54	22.37	-52.0	-53.7	14.6	0.00e+00	0	28	0	521142272	69	4559
2026-01-15 04:57:01.63	11.28	22.40	-52.1	-53.8	14.6	0.00e+00	0	28	0	523239424	69	4618
2026-01-15 04:57:02.62	11.02	22.44	-51.9	-53.5	14.7	0.00e+00	0	28	0	525336576	69	4470
2026-01-15 04:57:03.61	10.76	22.48	-51.8	-53.4	14.7	0.00e+00	0	28	0	527433728	69	4433
2026-01-15 04:57:04.61	10.50	22.51	-51.8	-53.4	14.7	0.00e+00	0	28	0	529530880	69	4423
2026-01-15 04:57:05.61	10.24	22.55	-51.9	-53.6	14.6	0.00e+00	0	28	0	530579456	69	4494
2026-01-15 04:57:06.61	9.97	22.58	-52.1	-53.7	14.6	0.00e+00	0	28	0	532676608	69	4589
2026-01-15 04:57:07.60	9.71	22.62	-52.3	-54.0	14.5	0.00e+00	0	28	0	534773760	69	4708
2026-01-15 04:57:08.61	9.45	22.65	-52.3	-54.0	14.5	0.00e+00	0	28	0	536870912	69	4751
2026-01-15 04:57:09.61	9.18	22.69	-52.3	-54.1	14.4	0.00e+00	0	28	0	537919488	69	4774
2026-01-15 04:57:10.60	8.92	22.72	-52.5	-54.2	14.5	0.00e+00	0	28	0	540016640	70	4594
2026-01-15 04:57:11.59	8.66	22.75	-52.8	-54.6	14.4	0.00e+00	0	28	0	542113792	70	4770
2026-01-15 04:57:12.59	8.39	22.78	-53.0	-54.9	14.3	0.00e+00	0	28	0	544210944	71	4679
2026-01-15 04:57:13.59	8.13	22.81	-53.0	-54.9	14.3	0.00e+00	0	28	0	546308096	71	4671
2026-01-15 04:57:14.59	7.86	22.84	-53.0	-54.9	14.3	0.00e+00	0	28	0	547356672	71	4652
2026-01-15 04:57:15.59	7.59	22.87	-52.8	-54.6	14.4	0.00e+00	0	28	0	549453824	71	4543
2026-01-15 04:57:16.58	7.33	22.90	-52.8	-54.6	14.4	0.00e+00	0	28	0	551550976	71	4528
2026-01-15 04:57:17.59	7.06	22.93	-52.8	-54.7	14.4	0.00e+00	0	28	0	553648128	71	4558
2026-01-15 04:57:18.59	6.79	22.96	-53.0	-54.9	14.3	0.00e+00	0	28	0	555745280	71	4698
2026-01-15 04:57:19.60	6.52	22.98	-53.3	-55.2	14.2	0.00e+00	0	28	0	556793856	71	4853
2026-01-15 04:57:20.59	6.25	23.01	-53.2	-55.2	14.2	0.00e+00	0	28	0	558891008	71	4829
2026-01-15 04:57:21.59	5.98	23.04	-53.2	-55.2	14.2	0.00e+00	0	28	0	560988160	71	4818
2026-01-15 04:57:22.59	5.71	23.06	-53.2	-55.1	14.2	0.00e+00	0	28	0	563085312	71	4800
2026-01-15 04:57:23.59	5.44	23.08	-53.1	-55.0	14.3	0.00e+00	0	28	0	564133888	71	4733
2026-01-15 04:57:24.59	5.17	23.11	-53.1	-55.0	14.3	0.00e+00	0	28	0	566231040	71	4713
2026-01-15 04:57:25.59	4.89	23.13	-53.3	-55.2	14.2	0.00e+00	0	28	0	568328192	71	4854
2026-01-15 04:57:26.58	4.62	23.15	-53.6	-55.7	14.1	0.00e+00	0	28	0	570425344	72	4824
2026-01-15 04:57:27.58	4.35	23.17	-53.8	-55.8	14.0	0.00e+00	0	28	0	572522496	72	4926
2026-01-15 04:57:28.57	4.08	23.20	-53.6	-55.7	14.1	0.00e+00	0	28	0	573571072	72	4859
2026-01-15 04:57:29.57	3.81	23.22	-53.7	-55.8	14.0	0.00e+00	0	28	0	575668224	72	4891
2026-01-15 04:57:30.57	3.53	23.24	-53.8	-55.9	14.0	0.00e+00	0	28	0	577765376	72	4944
2026-01-15 04:57:31.56	3.26	23.25	-53.8	-55.9	14.0	0.00e+00	0	28	0	579862528	72	4964
2026-01-15 04:57:32.56	2.99	23.27	-53.8	-55.9	14.0	0.00e+00	0	28	0	580911104	72	4981
2026-01-15 04:57:33.55	2.72	23.29	-53.9	-56.0	14.0	0.00e+00	0	28	0	583008256	73	4758
2026-01-15 04:57:34.56	2.44	23.31	-53.9	-56.0	14.0	0.00e+00	0	28	0	585105408	73	4743
2026-01-15 04:57:35.55	2.17	23.32	-53.8	-55.9	14.1	0.00e+00	0	28	0	587202560	73	4685
2026-01-15 04:57:36.55	1.89	23.34	-53.7	-55.8	14.1	0.00e+00	0	28	0	589299712	73	4627
2026-01-15 04:57:37.55	1.61	23.35	-53.6	-55.6	14.2	0.00e+00	0	28	0	590348288	73	4524
2026-01-15 04:57:38.56	1.33	23.37	-53.5	-55.5	14.3	0.00e+00	0	28	0	592445440	73	4464
2026-01-15 04:57:39.56	1.06	23.38	-53.5	-55.5	14.2	0.00e+00	0	28	0	594542592	73	4482
2026-01-15 04:57:40.56	0.78	23.39	-53.6	-55.6	14.3	0.00e+00	0	28	0	596639744	73	4501
2026-01-15 04:57:41.56	0.51	23.40	-53.6	-55.6	14.2	0.00e+00	0	28	0	598736896	73	4510
2026-01-15 04:57:42.55	0.23	23.41	-53.6	-55.6	14.2	0.00e+00	0	28	0	599785472	73	4523
2026-01-15 04:57:43.55	359.95	23.43	-53.6	-55.6	14.2	0.00e+00	0	28	0	601882624	73	4543
2026-01-15 04:57:44.54	359.68	23.43	-53.6	-55.6	14.2	0.00e+00	0	28	0	603979776	73	4502
2026-01-15 04:57:45.54	359.40	23.44	-53.5	-55.4	14.3	0.00e+00	0	28	0	606076928	73	4434
2026-01-15 04:57:46.54	359.12	23.45	-53.5	-55.5	14.3	0.00e+00	0	28	0	607125504	73	4473
2026-01-15 04:57:47.54	358.85	23.46	-53.5	-55.5	14.2	0.00e+00	0	28	0	609222656	73	4488
2026-01-15 04:57:48.55	358.56	23.47	-53.6	-55.6	14.2	0.00e+00	0	28	0	611319808	73	4535
2026-01-15 04:57:49.55	358.29	23.47	-53.6	-55.7	14.2	0.00e+00	0	28	0	613416960	73	4561
2026-01-15 04:57:50.54	358.01	23.48	-53.6	-55.6	14.2	0.00e+00	0	28	0	615514112	73	4519
2026-01-15 04:57:51.54	357.73	23.48	-53.4	-55.4	14.3	0.00e+00	0	28	0	616562688	73	4411
2026-01-15 04:57:52.53	357.46	23.49	-53.3	-55.2	14.4	0.00e+00	0	28	0	618659840	73	4293
2026-01-15 04:57:53.53	357.18	23.49	-53.3	-55.2	14.4	0.00e+00	0	28	0	620756992	73	4314
2026-01-15 04:57:54.52	356.90	23.49	-53.3	-55.2	14.4	0.00e+00	0	28	0	622854144	73	4333
2026-01-15 04:57:55.51	356.63	23.49	-53.5	-55.5	14.3	0.00e+00	0	28	0	624951296	73	4478
2026-01-15 04:57:56.50	356.35	23.49	-53.6	-55.6	14.2	0.00e+00	0	28	0	625999872	73	4515
2026-01-15 04:57:57.50	356.07	23.49	-53.4	-55.4	14.3	0.00e+00	0	28	0	628097024	73	4427
2026-01-15 04:57:58.50	355.79	23.49	-53.4	-55.4	14.3	0.00e+00	0	28	0	630194176	73	4397
2026-01-15 04:57:59.49	355.52	23.49	-53.2	-55.1	14.5	0.00e+00	0	28	0	632291328	73	4257
2026-01-15 04:58:00.48	355.24	23.49	-52.9	-54.7	14.5	0.00e+00	0	28	0	633339904	72	4335
2026-01-15 04:58:01.48	354.96	23.49	-52.8	-54.6	14.6	0.00e+00	0	28	0	635437056	72	4244
2026-01-15 04:58:02.48	354.69	23.48	-52.6	-54.4	14.5	0.00e+00	0	28	0	637534208	71	4406
2026-01-15 04:58:03.47	354.41	23.48	-52.7	-54.5	14.5	0.00e+00	0	28	0	639631360	71	4480
2026-01-15 04:58:04.47	354.13	23.47	-52.7	-54.5	14.5	0.00e+00	0	28	0	641728512	71	4456
2026-01-15 04:58:05.47	353.85	23.47	-52.8	-54.6	14.5	0.00e+00	0	28	0	642777088	71	4503
2026-01-15 04:58:06.47	353.58	23.46	-52.7	-54.5	14.5	0.00e+00	0	28	0	644874240	71	4454
2026-01-15 04:58:07.47	353.30	23.46	-52.6	-54.4	14.5	0.00e+00	0	28	0	646971392	71	4422
2026-01-15 04:58:08.47	353.02	23.45	-52.8	-54.6	14.5	0.00e+00	0	28	0	649068544	71	4494
2026-01-15 04:58:09.47	352.74	23.44	-52.4	-54.2	14.6	0.00e+00	0	28	0	650117120	71	4303
2026-01-15 04:58:10.48	352.46	23.43	-52.4	-54.1	14.7	0.00e+00	0	28	0	652214272	71	4260
2026-01-15 04:58:11.47	352.19	23.42	-52.5	-54.2	14.6	0.00e+00	0	28	0	654311424	71	4310
2026-01-15 04:58:12.47	351.91	23.41	-52.3	-54.1	14.7	0.00e+00	0	28	0	656408576	71	4243
2026-01-15 04:58:13.46	351.64	23.40	-52.4	-54.1	14.6	0.00e+00	0	28	0	658505728	71	4285
2026-01-15 04:58:14.47	351.36	23.39	-52.4	-54.1	14.7	0.00e+00	0	28	0	659554304	71	4245
2026-01-15 04:58:15.47	351.08	23.37	-52.3	-53.9	14.7	0.00e+00	0	28	0	661651456	71	4186
2026-01-15 04:58:16.47	350.80	23.36	-52.0	-53.7	14.7	0.00e+00	0	28	0	663748608	70	4302
2026-01-15 04:58:17.47	350.53	23.34	-51.7	-53.3	14.9	0.00e+00	0	28	0	665845760	70	4129
2026-01-15 04:58:18.46	350.26	23.33	-51.6	-53.1	14.8	0.00e+00	0	28	0	667942912	69	4285
2026-01-15 04:58:19.46	349.98	23.31	-51.6	-53.1	14.8	0.00e+00	0	28	0	668991488	69	4271
2026-01-15 04:58:20.46	349.70	23.30	-51.6	-53.1	14.8	0.00e+00	0	28	0	671088640	69	4270
2026-01-15 04:58:21.46	349.43	23.28	-51.6	-53.2	14.7	0.00e+00	0	28	0	673185792	69	4293
2026-01-15 04:58:22.45	349.16	23.26	-51.5	-53.1	14.8	0.00e+00	0	28	0	675282944	69	4250
2026-01-15 04:58:23.45	348.88	23.24	-51.4	-53.0	14.8	0.00e+00	0	28	0	677380096	69	4198
2026-01-15 04:58:24.46	348.61	23.23	-51.4	-52.9	14.9	0.00e+00	0	28	0	678428672	69	4192
2026-01-15 04:58:25.46	348.33	23.21	-51.4	-53.0	14.9	0.00e+00	0	28	0	680525824	69	4207
2026-01-15 04:58:26.45	348.06	23.18	-51.5	-53.0	14.8	0.00e+00	0	28	0	682622976	69	4242
2026-01-15 04:58:27.46	347.79	23.16	-51.4	-52.9	14.9	0.00e+00	0	28	0	684720128	69	4184
2026-01-15 04:58:28.45	347.52	23.14	-51.3	-52.8	15.0	0.00e+00	0	28	0	685768704	69	4112
2026-01-15 04:58:29.45	347.25	23.12	-51.3	-52.8	14.9	0.00e+00	0	28	0	687865856	69	4129
2026-01-15 04:58:30.45	346.97	23.10	-51.3	-52.8	15.0	0.00e+00	0	28	0	689963008	69	4117
2026-01-15 04:58:31.45	346.70	23.07	-51.2	-52.7	15.0	0.00e+00	0	28	0	692060160	69	4056
2026-01-15 04:58:32.44	346.43	23.05	-51.2	-52.7	14.9	0.00e+00	0	28	0	694157312	68	4326
2026-01-15 04:58:33.43	346.17	23.02	-51.3	-52.8	14.8	0.00e+00	0	28	0	695205888	68	4384
2026-01-15 04:58:34.43	345.90	23.00	-51.3	-52.8	14.8	0.00e+00	0	28	0	697303040	68	4371
2026-01-15 04:58:35.44	345.62	22.97	-51.3	-52.9	14.8	0.00e+00	0	28	0	699400192	68	4402
2026-01-15 04:58:36.44	345.36	22.94	-51.5	-53.0	14.7	0.00e+00	0	28	0	701497344	68	4480
2026-01-15 04:58:37.44	345.09	22.91	-51.5	-53.0	14.7	0.00e+00	0	28	0	702545920	68	4477
2026-01-15 04:58:38.44	344.82	22.89	-51.5	-53.1	14.7	0.00e+00	0	28	0	704643072	68	4499
2026-01-15 04:58:39.45	344.55	22.86	-51.5	-53.1	14.7	0.00e+00	0	28	0	706740224	68	4503
2026-01-15 04:58:40.45	344.28	22.83	-51.6	-53.2	14.7	0.00e+00	0	28	0	708837376	68	4549
2026-01-15 04:58:41.45	344.01	22.80	-51.5	-53.1	14.7	0.00e+00	0	28	0	710934528	68	4531
2026-01-15 04:58:42.45	343.75	22.76	-51.7	-53.3	14.6	0.00e+00	0	28	0	711983104	68	4599
2026-01-15 04:58:43.45	343.48	22.73	-51.8	-53.4	14.6	0.00e+00	0	28	0	714080256	68	4688
2026-01-15 04:58:44.45	343.22	22.70	-51.9	-53.6	14.6	0.00e+00	0	28	0	716177408	69	4506
2026-01-15 04:58:45.45	342.95	22.67	-51.9	-53.5	14.7	0.00e+00	0	28	0	718274560	69	4490
2026-01-15 04:58:46.45	342.69	22.63	-52.0	-53.6	14.6	0.00e+00	0	28	0	720371712	69	4542
2026-01-15 04:58:47.45	342.43	22.60	-52.1	-53.7	14.6	0.00e+00	0	28	0	721420288	69	4573
2026-01-15 04:58:48.45	342.16	22.57	-52.1	-53.7	14.6	0.00e+00	0	28	0	723517440	69	4592
2026-01-15 04:58:49.45	341.90	22.53	-52.1	-53.7	14.6	0.00e+00	0	28	0	725614592	69	4585
2026-01-15 04:58:50.45	341.64	22.49	-52.2	-53.9	14.5	0.00e+00	0	28	0	727711744	69	4660
2026-01-15 04:58:51.44	341.38	22.46	-52.2	-53.9	14.5	0.00e+00	0	28	0	729808896	69	4685
2026-01-15 04:58:52.44	341.12	22.42	-52.3	-54.0	14.5	0.00e+00	0	28	0	730857472	69	4743
2026-01-15 04:58:53.44	340.86	22.38	-52.3	-54.1	14.4	0.00e+00	0	28	0	732954624	69	4776
2026-01-15 04:58:54.43	340.61	22.34	-52.5	-54.2	14.5	0.00e+00	0	28	0	735051776	70	4578
2026-01-15 04:58:55.43	340.35	22.31	-52.5	-54.2	14.5	0.00e+00	0	28	0	737148928	70	4586
2026-01-15 04:58:56.42	340.09	22.27	-52.5	-54.2	14.5	0.00e+00	0	28	0	738197504	70	4598
2026-01-15 04:58:57.42	339.84	22.23	-52.5	-54.2	14.5	0.00e+00	0	28	0	740294656	70	4567
2026-01-15 04:58:58.41	339.58	22.19	-52.6	-54.4	14.4	0.00e+00	0	28	0	742391808	70	4667
2026-01-15 04:58:59.40	339.33	22.15	-52.7	-54.5	14.4	0.00e+00	0	28	0	744488960	70	4710
2026-01-15 04:59:00.38	339.08	22.11	-52.8	-54.6	14.4	0.00e+00	0	28	0	745537536	70	4791
2026-01-15 04:59:01.38	338.83	22.06	-53.0	-54.9	14.3	0.00e+00	0	28	0	747634688	71	4658
2026-01-15 04:59:02.36	338.58	22.02	-53.0	-54.9	14.3	0.00e+00	0	28	0	749731840	71	4675
2026-01-15 04:59:03.36	338.32	21.98	-53.1	-54.9	14.3	0.00e+00	0	28	0	751828992	71	4702
2026-01-15 04:59:04.35	338.07	21.93	-53.0	-54.9	14.3	0.00e+00	0	28	0	753926144	71	4695
2026-01-15 04:59:05.35	337.82	21.89	-53.0	-54.8	14.4	0.00e+00	0	28	0	754974720	71	4641
2026-01-15 04:59:06.34	337.57	21.85	-52.9	-54.8	14.4	0.00e+00	0	28	0	757071872	71	4628
2026-01-15 04:59:07.34	337.32	21.80	-53.0	-54.8	14.3	0.00e+00	0	28	0	759169024	71	4649
2026-01-15 04:59:08.34	337.08	21.76	-52.9	-54.8	14.4	0.00e+00	0	28	0	761266176	71	4614
2026-01-15 04:59:09.33	336.83	21.71	-53.0	-54.9	14.3	0.00e+00	0	28	0	762314752	71	4662
2026-01-15 04:59:10.33	336.58	21.66	-53.1	-55.0	14.3	0.00e+00	0	28	0	764411904	71	4714
2026-01-15 04:59:11.33	336.33	21.62	-53.1	-55.0	14.3	0.00e+00	0	28	0	766509056	71	4742
2026-01-15 04:59:12.33	336.09	21.57	-53.3	-55.2	14.2	0.00e+00	0	28	0	768606208	71	4842
2026-01-15 04:59:13.33	335.84	21.52	-53.3	-55.2	14.2	0.00e+00	0	28	0	770703360	71	4856
2026-01-15 04:59:14.32	335.60	21.47	-53.3	-55.2	14.2	0.00e+00	0	28	0	771751936	71	4854
2026-01-15 04:59:15.32	335.36	21.42	-53.3	-55.3	14.2	0.00e+00	0	28	0	773849088	71	4889
2026-01-15 04:59:16.32	335.11	21.37	-53.4	-55.4	14.1	0.00e+00	0	28	0	775946240	71	4964
2026-01-15 04:59:17.33	334.87	21.32	-53.4	-55.4	14.2	0.00e+00	0	28	0	778043392	72	4700
2026-01-15 04:59:18.33	334.63	21.27	-53.5	-55.5	14.1	0.00e+00	0	28	0	780140544	72	4733
2026-01-15 04:59:19.33	334.39	21.22	-53.5	-55.5	14.2	0.00e+00	0	28	0	781189120	72	4752
2026-01-15 04:59:20.33	334.15	21.17	-53.6	-55.6	14.1	0.00e+00	0	28	0	783286272	72	4799
2026-01-15 04:59:21.33	333.91	21.12	-53.4	-55.3	14.2	0.00e+00	0	28	0	785383424	72	4644
2026-01-15 04:59:22.33	333.67	21.07	-53.3	-55.3	14.3	0.00e+00	0	28	0	787480576	72	4608
2026-01-15 04:59:23.33	333.43	21.01	-53.3	-55.2	14.3	0.00e+00	0	28	0	789577728	72	4565
2026-01-15 04:59:24.33	333.19	20.96	-53.3	-55.2	14.3	0.00e+00	0	28	0	790626304	72	4578
2026-01-15 04:59:25.32	332.96	20.91	-53.5	-55.5	14.2	0.00e+00	0	28	0	792723456	72	4709
2026-01-15 04:59:26.32	332.73	20.85	-53.6	-55.6	14.1	0.00e+00	0	28	0	794820608	72	4783
2026-01-15 04:59:27.31	332.49	20.80	-53.6	-55.7	14.1	0.00e+00	0	28	0	796917760	72	4855
2026-01-15 04:59:28.30	332.26	20.75	-53.5	-55.5	14.1	0.00e+00	0	28	0	797966336	72	4756
2026-01-15 04:59:29.31	332.03	20.69	-53.4	-55.4	14.2	3.00e-06	0	28	0	800063488	72	4693
2026-01-15 04:59:30.31	331.80	20.64	-53.3	-55.2	14.3	0.00e+00	0	28	0	802160640	72	4562
2026-01-15 04:59:31.31	331.57	20.58	-53.2	-55.1	14.3	0.00e+00	0	28	0	804257792	72	4509
2026-01-15 04:59:32.31	331.34	20.52	-53.1	-55.0	14.4	1.50e-06	0	28	0	806354944	72	4455
2026-01-15 04:59:33.30	331.11	20.47	-53.1	-55.0	14.4	0.00e+00	0	28	0	807403520	72	4451
2026-01-15 04:59:34.31	330.88	20.41	-53.1	-55.0	14.4	0.00e+00	0	28	0	809500672	72	4474
2026-01-15 04:59:35.31	330.65	20.35	-53.1	-55.0	14.4	0.00e+00	0	28	0	811597824	72	4476
2026-01-15 04:59:36.31	330.42	20.30	-53.2	-55.1	14.3	0.00e+00	0	28	0	813694976	72	4504
2026-01-15 04:59:37.31	330.20	20.24	-53.2	-55.1	14.3	0.00e+00	0	28	0	815792128	72	4530
2026-01-15 04:59:38.32	329.97	20.18	-53.3	-55.2	14.3	0.00e+00	0	28	0	816840704	72	4587
2026-01-15 04:59:39.32	329.75	20.12	-53.2	-55.1	14.3	0.00e+00	0	28	0	818937856	72	4535
2026-01-15 04:59:40.32	329.52	20.06	-53.1	-55.0	14.3	0.00e+00	0	28	0	821035008	72	4492
2026-01-15 04:59:41.32	329.30	20.00	-53.1	-54.9	14.4	0.00e+00	0	28	0	823132160	72	4437
2026-01-15 04:59:42.32	329.08	19.94	-53.1	-55.0	14.4	0.00e+00	0	28	0	824180736	72	4443
2026-01-15 04:59:43.32	328.86	19.88	-53.0	-54.8	14.4	0.00e+00	0	28	0	826277888	72	4389
2026-01-15 04:59:44.31	328.64	19.82	-53.0	-54.9	14.4	0.00e+00	0	28	0	828375040	72	4400
2026-01-15 04:59:45.32	328.42	19.76	-53.1	-54.9	14.4	0.00e+00	0	28	0	830472192	72	4432
2026-01-15 04:59:46.32	328.20	19.70	-53.0	-54.9	14.4	0.00e+00	0	28	0	832569344	72	4422
2026-01-15 04:59:47.32	327.99	19.64	-53.0	-54.9	14.4	0.00e+00	0	28	0	833617920	72	4406
2026-01-15 04:59:48.31	327.77	19.58	-52.9	-54.8	14.5	0.00e+00	0	28	0	835715072	72	4344
2026-01-15 04:59:49.31	327.56	19.52	-52.9	-54.8	14.5	0.00e+00	0	28	0	837812224	72	4350
2026-01-15 04:59:50.31	327.34	19.46	-53.0	-54.8	14.4	0.00e+00	0	28	0	839909376	72	4379
2026-01-15 04:59:51.31	327.13	19.40	-53.0	-54.9	14.4	0.00e+00	0	28	0	842006528	72	4405
2026-01-15 04:59:52.30	326.92	19.33	-53.0	-54.9	14.4	0.00e+00	0	28	0	843055104	72	4405
2026-01-15 04:59:53.30	326.71	19.27	-53.0	-54.9	14.4	0.00e+00	0	28	0	845152256	72	4408
2026-01-15 04:59:54.29	326.50	19.21	-53.1	-54.9	14.4	0.00e+00	0	28	0	847249408	72	4434
2026-01-15 04:59:55.30	326.28	19.15	-53.1	-55.0	14.4	0.00e+00	0	28	0	849346560	72	4450
2026-01-15 04:59:56.30	326.08	19.08	-53.1	-55.1	14.3	0.00e+00	0	28	0	851443712	72	4499
2026-01-15 04:59:57.29	325.87	19.02	-53.0	-54.9	14.4	0.00e+00	0	28	0	852492288	72	4413
2026-01-15 04:59:58.29	325.66	18.96	-53.0	-54.9	14.4	0.00e+00	0	28	0	854589440	72	4399
2026-01-15 04:59:59.29	325.45	18.89	-53.0	-54.9	14.4	0.00e+00	0	28	0	856686592	72	4393
2026-01-15 05:00:00.28	325.25	18.83	-52.9	-54.7	14.5	0.00e+00	0	28	0	858783744	72	4320
2026-01-15 05:00:01.28	325.05	18.76	-52.9	-54.7	14.5	0.00e+00	0	28	0	859832320	72	4322
2026-01-15 05:00:02.27	324.84	18.70	-52.9	-54.7	14.5	0.00e+00	0	28	0	861929472	72	4322
2026-01-15 05:00:03.26	324.64	18.64	-52.9	-54.8	14.4	0.00e+00	0	28	0	864026624	72	4343
2026-01-15 05:00:04.25	324.44	18.57	-53.0	-54.9	14.4	0.00e+00	0	28	0	866123776	72	4401
2026-01-15 05:00:05.25	324.24	18.51	-53.1	-55.0	14.4	0.00e+00	0	28	0	868220928	72	4461
2026-01-15 05:00:06.25	324.04	18.44	-53.1	-55.1	14.3	0.00e+00	0	28	0	869269504	72	4495
2026-01-15 05:00:07.25	323.84	18.37	-53.2	-55.1	14.3	0.00e+00	0	28	0	871366656	72	4520
2026-01-15 05:00:08.23	323.65	18.31	-53.2	-55.1	14.3	0.00e+00	0	28	0	873463808	72	4509
2026-01-15 05:00:09.22	323.45	18.25	-53.2	-55.2	14.3	0.00e+00	0	28	0	875560960	72	4551
2026-01-15 05:00:10.22	323.25	18.18	-53.3	-55.3	14.2	0.00e+00	0	28	0	876609536	72	4612
2026-01-15 05:00:11.22	323.06	18.11	-53.1	-55.1	14.3	0.00e+00	0	28	0	878706688	72	4501
2026-01-15 05:00:12.22	322.86	18.05	-53.2	-55.2	14.3	0.00e+00	0	28	0	880803840	72	4570
2026-01-15 05:00:13.20	322.67	17.98	-53.3	-55.2	14.3	0.00e+00	0	28	0	882900992	72	4594
2026-01-15 05:00:14.20	322.48	17.91	-53.2	-55.2	14.3	0.00e+00	0	28	0	884998144	72	4562
2026-01-15 05:00:15.20	322.29	17.85	-53.2	-55.2	14.3	0.00e+00	0	28	0	886046720	72	4567
2026-01-15 05:00:16.21	322.09	17.78	-53.1	-55.0	14.3	0.00e+00	0	28	0	888143872	72	4492
2026-01-15 05:00:17.21	321.90	17.71	-53.2	-55.2	14.3	0.00e+00	0	28	0	890241024	72	4566
2026-01-15 05:00:18.20	321.71	17.65	-53.3	-55.2	14.2	0.00e+00	0	28	0	892338176	72	4590
2026-01-15 05:00:19.20	321.52	17.58	-53.3	-55.3	14.2	7.00e-07	0	28	0	893386752	72	4614
2026-01-15 05:00:20.20	321.33	17.51	-53.2	-55.2	14.3	0.00e+00	0	28	0	895483904	72	4551
2026-01-15 05:00:21.20	321.15	17.44	-53.3	-55.3	14.2	0.00e+00	0	28	0	897581056	72	4609
2026-01-15 05:00:22.20	320.96	17.37	-53.3	-55.2	14.2	0.00e+00	0	28	0	899678208	72	4591
2026-01-15 05:00:23.20	320.77	17.31	-53.1	-55.1	14.3	0.00e+00	0	28	0	901775360	72	4505
2026-01-15 05:00:24.21	320.59	17.24	-53.2	-55.2	14.2	0.00e+00	0	28	0	902823936	72	4556
2026-01-15 05:00:25.22	320.40	17.17	-53.2	-55.1	14.3	0.00e+00	0	28	0	904921088	72	4531
2026-01-15 05:00:26.22	320.22	17.10	-53.1	-55.0	14.3	0.00e+00	0	28	0	907018240	72	4476
2026-01-15 05:00:27.23	320.03	17.03	-53.0	-55.0	14.4	0.00e+00	0	28	0	909115392	72	4442
2026-01-15 05:00:28.23	319.85	16.96	-53.0	-54.9	14.4	0.00e+00	0	28	0	911212544	72	4418
2026-01-15 05:00:29.22	319.67	16.89	-53.0	-55.0	14.3	0.00e+00	0	28	0	912261120	72	4442
2026-01-15 05:00:30.21	319.50	16.83	-53.0	-54.9	14.4	0.00e+00	0	28	0	914358272	72	4411
2026-01-15 05:00:31.21	319.32	16.76	-53.0	-54.9	14.4	0.00e+00	0	28	0	916455424	72	4409
2026-01-15 05:00:32.20	319.14	16.69	-52.9	-54.7	14.5	0.00e+00	0	28	0	918552576	72	4339
2026-01-15 05:00:33.19	318.96	16.62	-52.9	-54.7	14.5	0.00e+00	0	28	0	919601152	72	4330
2026-01-15 05:00:34.19	318.79	16.55	-52.7	-54.6	14.5	0.00e+00	0	28	0	921698304	72	4250
2026-01-15 05:00:35.19	318.61	16.48	-52.6	-54.5	14.5	0.00e+00	0	28	0	923795456	71	4442
2026-01-15 05:00:36.19	318.44	16.41	-52.5	-54.3	14.5	0.00e+00	0	28	0	925892608	71	4365
2026-01-15 05:00:37.19	318.26	16.34	-52.5	-54.3	14.5	0.00e+00	0	28	0	927989760	71	4375
2026-01-15 05:00:38.19	318.09	16.27	-52.5	-54.2	14.6	0.00e+00	0	28	0	929038336	71	4335
2026-01-15 05:00:39.20	317.91	16.20	-52.6	-54.5	14.5	0.00e+00	0	28	0	931135488	71	4448
2026-01-15 05:00:40.20	317.74	16.13	-52.6	-54.4	14.5	0.00e+00	0	28	0	933232640	71	4419
2026-01-15 05:00:41.20	317.57	16.06	-52.6	-54.5	14.5	0.00e+00	0	28	0	935329792	71	4443
2026-01-15 05:00:42.20	317.40	15.99	-52.8	-54.6	14.4	0.00e+00	0	28	0	937426944	71	4541
2026-01-15 05:00:43.18	317.24	15.93	-52.7	-54.6	14.4	0.00e+00	0	28	0	938475520	71	4507
2026-01-15 05:00:44.17	317.07	15.86	-52.8	-54.6	14.4	0.00e+00	0	28	0	940572672	71	4540
2026-01-15 05:00:45.18	316.90	15.79	-52.8	-54.7	14.4	0.00e+00	0	28	0	942669824	71	4585
2026-01-15 05:00:46.18	316.73	15.72	-52.6	-54.4	14.5	0.00e+00	0	28	0	944766976	71	4401
2026-01-15 05:00:47.18	316.57	15.65	-52.3	-54.1	14.6	0.00e+00	0	28	0	945815552	71	4264
2026-01-15 05:00:48.18	316.40	15.58	-52.5	-54.3	14.5	0.00e+00	0	28	0	947912704	71	4353
2026-01-15 05:00:49.18	316.24	15.51	-52.2	-54.0	14.7	0.00e+00	0	28	0	950009856	71	4195
2026-01-15 05:00:50.18	316.07	15.43	-52.2	-53.9	14.7	0.00e+00	0	28	0	952107008	71	4178
2026-01-15 05:00:51.18	315.91	15.36	-52.2	-53.9	14.6	0.00e+00	0	28	0	954204160	70	4424
2026-01-15 05:00:52.19	315.75	15.29	-52.2	-54.0	14.5	0.00e+00	0	28	0	955252736	70	4462
2026-01-15 05:00:53.19	315.58	15.22	-52.4	-54.1	14.5	0.00e+00	0	28	0	957349888	70	4534
2026-01-15 05:00:54.20	315.42	15.15	-52.3	-54.1	14.5	0.00e+00	0	28	0	959447040	70	4519
2026-01-15 05:00:55.20	315.26	15.08	-52.3	-54.0	14.5	0.00e+00	0	28	0	961544192	70	4477
2026-01-15 05:00:56.20	315.10	15.01	-52.3	-54.0	14.5	0.00e+00	0	28	0	963641344	70	4484
2026-01-15 05:00:57.20	314.94	14.94	-52.3	-54.1	14.5	0.00e+00	0	28	0	964689920	70	4498
2026-01-15 05:00:58.19	314.79	14.87	-52.4	-54.2	14.5	0.00e+00	0	28	0	966787072	70	4576
2026-01-15 05:00:59.20	314.63	14.80	-52.3	-54.0	14.5	0.00e+00	0	28	0	968884224	70	4491
2026-01-15 05:01:00.20	314.47	14.73	-52.4	-54.1	14.5	0.00e+00	0	28	0	970981376	70	4543
2026-01-15 05:01:01.19	314.32	14.66	-52.3	-54.1	14.5	0.00e+00	0	28	0	972029952	70	4500
2026-01-15 05:01:02.19	314.17	14.59	-52.3	-54.1	14.5	0.00e+00	0	28	0	974127104	70	4521
2026-01-15 05:01:03.19	314.01	14.52	-52.2	-53.9	14.6	0.00e+00	0	28	0	976224256	70	4431
2026-01-15 05:01:04.18	313.86	14.45	-52.2	-54.0	14.6	0.00e+00	0	28	0	978321408	70	4445
2026-01-15 05:01:05.17	313.71	14.38	-52.2	-54.0	14.5	0.00e+00	0	28	0	980418560	70	4465
2026-01-15 05:01:06.17	313.56	14.31	-52.3	-54.1	14.5	0.00e+00	0	28	0	981467136	70	4524
2026-01-15 05:01:07.17	313.41	14.24	-52.2	-53.9	14.5	0.00e+00	0	28	0	983564288	70	4433
2026-01-15 05:01:08.17	313.26	14.17	-52.3	-54.1	14.5	0.00e+00	0	28	0	985661440	70	4514
2026-01-15 05:01:09.16	313.11	14.10	-52.4	-54.1	14.5	0.00e+00	0	28	0	987758592	70	4537
2026-01-15 05:01:10.16	312.96	14.03	-52.3	-54.1	14.5	0.00e+00	0	28	0	989855744	70	4529
2026-01-15 05:01:11.16	312.81	13.96	-52.4	-54.2	14.4	0.00e+00	0	28	0	990904320	70	4590
2026-01-15 05:01:12.15	312.67	13.89	-52.5	-54.3	14.4	0.00e+00	0	28	0	993001472	70	4632
2026-01-15 05:01:13.15	312.52	13.82	-52.5	-54.3	14.4	0.00e+00	0	28	0	995098624	70	4648
2026-01-15 05:01:14.15	312.37	13.75	-52.6	-54.4	14.3	0.00e+00	0	28	0	997195776	70	4685
2026-01-15 05:01:15.15	312.23	13.68	-52.6	-54.4	14.3	0.00e+00	0	28	0	999292928	70	4704
2026-01-15 05:01:16.15	312.08	13.61	-52.6	-54.4	14.4	0.00e+00	0	28	0	1000341504	70	4675
2026-01-15 05:01:17.15	311.94	13.54	-52.6	-54.5	14.3	0.00e+00	0	28	0	1002438656	70	4711
2026-01-15 05:01:18.15	311.80	13.47	-52.7	-54.5	14.3	0.00e+00	0	28	0	1004535808	70	4754
2026-01-15 05:01:19.14	311.66	13.40	-52.8	-54.7	14.2	0.00e+00	0	28	0	1006632960	70	4868
2026-01-15 05:01:20.14	311.51	13.33	-52.9	-54.8	14.2	0.00e+00	0	28	0	1007681536	70	4926
2026-01-15 05:01:21.13	311.37	13.26	-53.0	-55.0	14.2	0.00e+00	0	28	0	1009778688	71	4739
2026-01-15 05:01:22.13	311.23	13.19	-53.1	-55.1	14.2	0.00e+00	0	28	0	1011875840	71	4790
2026-01-15 05:01:23.13	311.09	13.12	-53.1	-55.1	14.2	0.00e+00	0	28	0	1013972992	71	4768
2026-01-15 05:01:24.13	310.96	13.05	-53.2	-55.2	14.1	0.00e+00	0	28	0	1016070144	71	4855
2026-01-15 05:01:25.14	310.82	12.98	-53.2	-55.2	14.1	0.00e+00	0	28	0	1017118720	71	4868
2026-01-15 05:01:26.14	310.68	12.91	-53.0	-55.0	14.2	0.00e+00	0	28	0	1019215872	71	4726
2026-01-15 05:01:27.13	310.54	12.84	-53.0	-54.9	14.2	0.00e+00	0	28	0	1021313024	71	4683
2026-01-15 05:01:28.13	310.41	12.77	-52.9	-54.8	14.3	0.00e+00	0	28	0	1023410176	71	4627
2026-01-15 05:01:29.13	310.27	12.70	-52.8	-54.8	14.3	0.00e+00	0	28	0	1024458752	71	4601
2026-01-15 05:01:30.12	310.14	12.63	-52.8	-54.7	14.3	0.00e+00	0	28	0	1026555904	71	4578
2026-01-15 05:01:31.12	310.00	12.56	-52.8	-54.8	14.3	0.00e+00	0	28	0	1028653056	71	4602
2026-01-15 05:01:32.12	309.87	12.49	-52.7	-54.6	14.3	0.00e+00	0	28	0	1030750208	71	4530
2026-01-15 05:01:33.13	309.73	12.42	-52.9	-54.8	14.2	0.00e+00	0	28	0	1032847360	71	4634
2026-01-15 05:01:34.12	309.60	12.35	-53.0	-55.0	14.2	0.00e+00	0	28	0	1033895936	71	4711
2026-01-15 05:01:35.12	309.47	12.28	-52.9	-54.9	14.2	0.00e+00	0	28	0	1035993088	71	4681
2026-01-15 05:01:36.12	309.34	12.21	-53.0	-55.0	14.2	0.00e+00	0	28	0	1038090240	71	4709
2026-01-15 05:01:37.11	309.21	12.14	-53.1	-55.1	14.1	0.00e+00	0	28	0	1040187392	71	4772
2026-01-15 05:01:38.11	309.08	12.07	-53.1	-55.1	14.1	0.00e+00	0	28	0	1042284544	71	4790
2026-01-15 05:01:39.11	308.95	12.00	-53.2	-55.3	14.1	0.00e+00	0	28	0	1043333120	71	4887
2026-01-15 05:01:40.10	308.82	11.93	-53.3	-55.4	14.0	0.00e+00	0	28	0	1045430272	71	4976
2026-01-15 05:01:41.10	308.70	11.86	-53.1	-55.2	14.1	0.00e+00	0	28	0	1047527424	71	4819
2026-01-15 05:01:42.10	308.57	11.79	-53.2	-55.3	14.0	0.00e+00	0	28	0	1049624576	71	4915
2026-01-15 05:01:43.10	308.44	11.72	-53.3	-55.4	14.0	0.00e+00	0	28	0	1051721728	71	4942
2026-01-15 05:01:44.10	308.31	11.66	-53.3	-55.4	14.0	0.00e+00	0	28	0	1052770304	71	4968
2026-01-15 05:01:45.10	308.19	11.59	-53.3	-55.5	14.0	0.00e+00	0	28	0	1054867456	71	4985
2026-01-15 05:01:46.11	308.06	11.52	-53.3	-55.4	14.0	0.00e+00	0	28	0	1056964608	71	4981
2026-01-15 05:01:47.11	307.94	11.45	-53.3	-55.4	14.1	0.00e+00	0	28	0	1059061760	72	4703
2026-01-15 05:01:48.11	307.81	11.38	-53.4	-55.4	14.1	0.00e+00	0	28	0	1060110336	72	4703
2026-01-15 05:01:49.11	307.69	11.31	-53.4	-55.6	14.0	0.00e+00	0	28	0	1062207488	72	4771
2026-01-15 05:01:50.11	307.57	11.24	-53.3	-55.4	14.1	0.00e+00	0	28	0	1064304640	72	4680
2026-01-15 05:01:51.11	307.45	11.17	-53.4	-55.5	14.0	0.00e+00	0	28	0	1066401792	72	4730
2026-01-15 05:01:52.11	307.33	11.10	-53.5	-55.6	14.0	0.00e+00	0	28	0	1068498944	72	4786
2026-01-15 05:01:53.11	307.20	11.03	-53.2	-55.3	14.1	0.00e+00	0	28	0	1069547520	72	4626
2026-01-15 05:01:54.11	307.08	10.97	-53.4	-55.5	14.0	0.00e+00	0	28	0	1071644672	72	4756
2026-01-15 05:01:55.12	306.96	10.90	-53.5	-55.6	14.0	0.00e+00	0	28	0	1073741824	72	4800
2026-01-15 05:01:56.11	306.85	10.83	-53.6	-55.8	13.9	0.00e+00	0	28	0	1075838976	72	4908
2026-01-15 05:01:57.11	306.73	10.76	-53.5	-55.7	14.0	0.00e+00	0	28	0	1077936128	72	4817
2026-01-15 05:01:58.10	306.61	10.69	-53.7	-55.9	13.8	0.00e+00	0	28	0	1078984704	72	4966
2026-01-15 05:01:59.10	306.49	10.62	-53.8	-56.1	13.7	0.00e+00	0	28	0	1081081856	72	5061
2026-01-15 05:02:00.09	306.38	10.56	-53.6	-55.8	13.8	0.00e+00	0	28	0	1083179008	72	4926
2026-01-15 05:02:01.09	306.26	10.49	-53.8	-56.2	13.7	0.00e+00	0	28	0	1085276160	72	5109
2026-01-15 05:02:02.08	306.15	10.42	-53.7	-56.0	13.8	0.00e+00	0	28	0	1086324736	72	4991
2026-01-15 05:02:03.07	306.03	10.35	-53.7	-55.9	13.8	0.00e+00	0	28	0	1088421888	72	4956
2026-01-15 05:02:04.07	305.92	10.29	-53.8	-56.2	13.7	0.00e+00	0	28	0	1090519040	72	5104
2026-01-15 05:02:05.07	305.80	10.22	-53.9	-56.2	13.7	0.00e+00	0	28	0	1092616192	72	5124
2026-01-15 05:02:06.08	305.69	10.15	-53.7	-56.0	13.8	0.00e+00	0	28	0	1094713344	72	5025
2026-01-15 05:02:07.07	305.58	10.08	-53.9	-56.3	13.6	0.00e+00	0	28	0	1095761920	72	5168
2026-01-15 05:02:08.07	305.46	10.02	-53.8	-56.1	13.8	0.00e+00	0	28	0	1097859072	73	4780
2026-01-15 05:02:09.07	305.35	9.95	-53.9	-56.2	13.8	0.00e+00	0	28	0	1099956224	73	4847
2026-01-15 05:02:10.07	305.24	9.88	-53.8	-56.1	13.8	0.00e+00	0	28	0	1102053376	73	4799
2026-01-15 05:02:11.07	305.13	9.81	-53.8	-56.1	13.8	0.00e+00	0	28	0	1103101952	73	4769
2026-01-15 05:02:12.07	305.02	9.75	-53.7	-56.0	13.8	0.00e+00	0	28	0	1105199104	73	4756
2026-01-15 05:02:13.06	304.91	9.68	-53.8	-56.1	13.8	0.00e+00	0	28	0	1107296256	73	4769
2026-01-15 05:02:14.06	304.80	9.61	-53.7	-56.0	13.9	0.00e+00	0	28	0	1109393408	73	4710
2026-01-15 05:02:15.06	304.69	9.55	-53.8	-56.2	13.8	0.00e+00	0	28	0	1111490560	73	4815
2026-01-15 05:02:16.06	304.58	9.48	-53.9	-56.3	13.7	0.00e+00	0	28	0	1112539136	73	4884
2026-01-15 05:02:17.05	304.48	9.41	-53.9	-56.3	13.7	0.00e+00	0	28	0	1114636288	73	4906
2026-01-15 05:02:18.05	304.37	9.35	-53.8	-56.2	13.7	0.00e+00	0	28	0	1116733440	73	4836
2026-01-15 05:02:19.05	304.26	9.28	-53.9	-56.2	13.7	0.00e+00	0	28	0	1118830592	73	4868
2026-01-15 05:02:20.04	304.16	9.21	-54.0	-56.4	13.7	0.00e+00	0	28	0	1119879168	73	4928
2026-01-15 05:02:21.04	304.05	9.15	-54.1	-56.5	13.6	0.00e+00	0	28	0	1121976320	73	5018
2026-01-15 05:02:22.04	303.95	9.08	-54.1	-56.5	13.5	0.00e+00	0	28	0	1124073472	73	5022
2026-01-15 05:02:23.04	303.84	9.01	-54.2	-56.7	13.5	0.00e+00	0	28	0	1126170624	73	5119
2026-01-15 05:02:24.04	303.74	8.95	-54.2	-56.7	13.5	0.00e+00	0	28	0	1128267776	73	5111
2026-01-15 05:02:25.04	303.63	8.88	-54.3	-56.8	13.4	0.00e+00	0	28	0	1129316352	73	5211
2026-01-15 05:02:26.03	303.53	8.81	-54.4	-57.0	13.3	0.00e+00	0	28	0	1131413504	73	5329
2026-01-15 05:02:27.02	303.43	8.75	-54.3	-56.9	13.4	0.00e+00	0	28	0	1133510656	73	5240
2026-01-15 05:02:28.02	303.33	8.68	-54.3	-56.9	13.3	0.00e+00	0	28	0	1135607808	73	5252
2026-01-15 05:02:29.02	303.22	8.62	-54.3	-56.9	13.3	0.00e+00	0	28	0	1137704960	73	5262
2026-01-15 05:02:30.02	303.12	8.55	-54.4	-57.1	13.3	0.00e+00	0	28	0	1138753536	73	5343
2026-01-15 05:02:31.02	303.02	8.49	-54.3	-56.9	13.4	0.00e+00	0	28	0	1140850688	73	5224
2026-01-15 05:02:32.01	302.92	8.42	-54.4	-57.1	13.2	0.00e+00	0	28	0	1142947840	73	5365
2026-01-15 05:02:33.00	302.82	8.36	-54.4	-57.1	13.3	0.00e+00	0	28	0	1145044992	74	5068
2026-01-15 05:02:34.00	302.72	8.29	-54.5	-57.2	13.3	0.00e+00	0	28	0	1147142144	74	5106
2026-01-15 05:02:35.00	302.62	8.23	-54.6	-57.3	13.2	0.00e+00	0	28	0	1148190720	74	5196
2026-01-15 05:02:36.00	302.53	8.16	-54.5	-57.2	13.2	0.00e+00	0	28	0	1150287872	74	5157
2026-01-15 05:02:37.00	302.43	8.09	-54.7	-57.5	13.1	0.00e+00	0	28	0	1152385024	74	5330
2026-01-15 05:02:38.00	302.33	8.03	-54.6	-57.4	13.1	0.00e+00	0	28	0	1154482176	74	5244
2026-01-15 05:02:39.00	302.23	7.96	-54.6	-57.4	13.1	0.00e+00	0	28	0	1155530752	74	5258
2026-01-15 05:02:40.00	302.14	7.90	-54.7	-57.5	13.0	0.00e+00	0	28	0	1157627904	74	5332
2026-01-15 05:02:41.00	302.04	7.83	-54.7	-57.5	13.0	0.00e+00	0	28	0	1159725056	74	5336
2026-01-15 05:02:42.00	301.94	7.77	-54.6	-57.5	13.1	0.00e+00	0	28	0	1161822208	74	5288
2026-01-15 05:02:43.00	301.85	7.71	-54.6	-57.4	13.2	0.00e+00	0	28	0	1163919360	74	5228
2026-01-15 05:02:44.00	301.75	7.64	-54.8	-57.8	12.9	0.00e+00	0	28	0	1164967936	74	5479
2026-01-15 05:02:45.00	301.66	7.58	-54.7	-57.6	13.0	0.00e+00	0	28	0	1167065088	74	5344
2026-01-15 05:02:45.99	301.56	7.51	-54.7	-57.6	13.0	0.00e+00	0	28	0	1169162240	74	5366
2026-01-15 05:02:46.99	301.47	7.45	-54.7	-57.6	13.0	0.00e+00	0	28	0	1171259392	74	5341
2026-01-15 05:02:47.99	301.38	7.38	-54.4	-57.2	13.3	0.00e+00	0	28	0	1172307968	74	5101
2026-01-15 05:02:48.99	301.28	7.32	-54.7	-57.5	13.0	0.00e+00	0	28	0	1174405120	74	5325
2026-01-15 05:02:50.00	301.19	7.25	-54.7	-57.5	13.0	0.00e+00	0	28	0	1176502272	74	5333
2026-01-15 05:02:50.99	301.10	7.19	-54.6	-57.5	13.0	0.00e+00	0	28	0	1178599424	74	5311
2026-01-15 05:02:51.99	301.01	7.13	-54.6	-57.5	13.0	0.00e+00	0	28	0	1180696576	74	5327
2026-01-15 05:02:53.00	300.91	7.06	-54.6	-57.5	13.0	0.00e+00	0	28	0	1181745152	74	5333
2026-01-15 05:02:53.99	300.82	7.00	-54.6	-57.5	13.0	0.00e+00	0	28	0	1183842304	74	5313
2026-01-15 05:02:54.99	300.73	6.94	-54.7	-57.6	13.0	0.00e+00	0	28	0	1185939456	74	5345
2026-01-15 05:02:55.99	300.64	6.87	-54.7	-57.6	13.0	0.00e+00	0	28	0	1188036608	74	5373
2026-01-15 05:02:56.99	300.55	6.81	-54.9	-57.9	12.8	0.00e+00	0	28	0	1190133760	74	5556
2026-01-15 05:02:57.99	300.47	6.75	-54.9	-57.9	12.9	0.00e+00	0	28	0	1191182336	75	5231
2026-01-15 05:02:58.98	300.38	6.68	-55.3	-58.6	12.4	0.00e+00	0	28	0	1193279488	75	5674
2026-01-15 05:02:59.99	300.29	6.62	-54.6	-57.5	13.1	0.00e+00	0	28	0	1195376640	75	5023
2026-01-15 05:03:00.98	300.20	6.56	-55.0	-58.1	12.7	0.00e+00	0	28	0	1197473792	75	5366
2026-01-15 05:03:01.98	300.11	6.49	-55.0	-58.1	12.7	0.00e+00	0	28	0	1198522368	75	5368
2026-01-15 05:03:02.98	300.03	6.43	-55.2	-58.5	12.5	0.00e+00	0	28	0	1200619520	75	5643
2026-01-15 05:03:03.98	299.94	6.37	-55.0	-58.2	12.7	0.00e+00	0	28	0	1202716672	75	5420
2026-01-15 05:03:04.97	299.85	6.31	-55.4	-58.8	12.3	0.00e+00	0	28	0	1204813824	75	5798
2026-01-15 05:03:05.97	299.77	6.24	-55.4	-58.7	12.5	0.00e+00	0	28	0	1206910976	76	5435
2026-01-15 05:03:06.97	299.68	6.18	-55.2	-58.4	12.7	0.00e+00	0	28	0	1207959552	76	5222
2026-01-15 05:03:07.96	299.60	6.12	-55.3	-58.5	12.6	0.00e+00	0	28	0	1210056704	76	5331
