passes_logs/2026/01/15/R3.2S_Murmansk/R3.2S_Murmansk__20260115_053047_FENGYUN_3D_rec.log

#Pass ID: 20260115_053047_FENGYUN 3D
#Satellite: FENGYUN 3D
#Configuration: FENGYUN 3D
#almurnet v.1.7.20251203
#Start time: 2026-01-15 05:30:48

#Version: 2.2.20231116
#Station: R3.2S_Murmansk
#Location: 33.079688 lon 68.888172 lat
#TLE: 1 43010U 17072A   26014.65117763 -.00000217  00000+0 -80772-4 0  9993
#TLE: 2 43010  98.9933 346.4618 0002330 108.4699 251.6730 14.19694700423204

#Time	Az	El	Level	Level2	SNR	BER	BlckErr	Temp	State	Recorded	gain1	gain2
2026-01-15 05:30:48.26	42.08	2.05	-58.1	-71.1	3.8	8.45e-01	0	26	0	0	82	15964
2026-01-15 05:30:49.26	42.03	2.11	-58.0	-71.0	3.8	8.45e-01	0	26	104	0	81	16830
2026-01-15 05:30:50.25	41.97	2.16	-58.0	-71.0	3.8	8.46e-01	0	26	104	0	81	16781
2026-01-15 05:30:51.25	41.92	2.22	-58.0	-71.0	3.8	8.44e-01	0	26	104	0	81	16863
2026-01-15 05:30:52.25	41.87	2.28	-58.0	-71.0	3.8	8.44e-01	0	26	104	0	81	16855
2026-01-15 05:30:53.24	41.82	2.34	-58.0	-71.0	3.8	8.45e-01	0	26	104	0	81	16712
2026-01-15 05:30:54.24	41.76	2.40	-58.0	-71.0	3.8	8.45e-01	0	26	104	0	81	16852
2026-01-15 05:30:55.24	41.71	2.46	-58.0	-71.0	3.8	8.46e-01	0	26	104	0	81	16832
2026-01-15 05:30:56.23	41.66	2.52	-58.0	-71.0	3.8	8.45e-01	0	26	104	0	81	16796
2026-01-15 05:30:57.23	41.60	2.58	-58.0	-71.0	3.8	8.45e-01	0	26	104	0	81	16857
2026-01-15 05:30:58.24	41.55	2.64	-58.0	-71.0	3.8	8.45e-01	0	26	104	0	81	16876
2026-01-15 05:30:59.24	41.49	2.70	-58.0	-71.1	3.8	8.46e-01	0	26	104	0	81	16936
2026-01-15 05:31:00.24	41.44	2.76	-58.0	-71.1	3.8	8.45e-01	0	26	104	0	81	16908
2026-01-15 05:31:01.24	41.38	2.82	-58.0	-71.0	3.8	8.47e-01	0	26	104	0	81	16887
2026-01-15 05:31:02.24	41.33	2.88	-58.0	-71.0	3.8	8.46e-01	0	26	104	0	81	16756
2026-01-15 05:31:03.23	41.27	2.94	-58.0	-71.0	3.8	8.45e-01	0	26	104	0	81	16745
2026-01-15 05:31:04.23	41.22	3.00	-58.0	-71.0	3.8	8.45e-01	0	26	104	0	81	16749
2026-01-15 05:31:05.23	41.16	3.07	-58.0	-71.0	3.8	8.46e-01	0	26	104	0	81	16715
2026-01-15 05:31:06.23	41.11	3.13	-58.0	-71.0	3.8	8.45e-01	0	26	104	0	81	16772
2026-01-15 05:31:07.24	41.05	3.19	-58.0	-71.0	3.8	8.45e-01	0	26	104	0	81	16760
2026-01-15 05:31:08.24	40.99	3.25	-58.0	-71.0	3.8	8.45e-01	0	26	104	0	81	16848
2026-01-15 05:31:09.24	40.94	3.31	-58.1	-71.1	3.8	8.45e-01	0	26	104	0	81	16954
2026-01-15 05:31:10.24	40.88	3.37	-58.1	-71.1	3.8	8.44e-01	0	26	104	0	81	16962
2026-01-15 05:31:11.24	40.82	3.43	-58.0	-71.0	3.8	8.46e-01	0	26	104	0	81	16887
2026-01-15 05:31:12.24	40.76	3.50	-58.1	-71.0	3.8	8.46e-01	0	26	104	0	81	16778
2026-01-15 05:31:13.24	40.71	3.56	-58.0	-70.9	3.8	8.45e-01	0	26	104	0	81	16676
2026-01-15 05:31:14.24	40.65	3.62	-58.1	-70.9	3.8	8.46e-01	0	27	104	0	81	16633
2026-01-15 05:31:15.24	40.59	3.68	-58.1	-70.9	3.8	8.44e-01	0	27	104	0	81	16615
2026-01-15 05:31:16.24	40.53	3.74	-58.1	-70.9	3.8	8.46e-01	0	26	104	0	81	16684
2026-01-15 05:31:17.25	40.47	3.81	-58.1	-71.0	3.8	8.45e-01	0	27	104	0	81	16725
2026-01-15 05:31:18.25	40.41	3.87	-58.1	-71.0	3.8	8.44e-01	0	26	104	0	81	16885
2026-01-15 05:31:19.25	40.35	3.93	-58.0	-70.9	3.8	8.46e-01	0	27	104	0	81	16650
2026-01-15 05:31:20.25	40.29	3.99	-58.0	-70.7	3.8	8.44e-01	0	27	104	0	81	16249
2026-01-15 05:31:21.24	40.23	4.06	-58.0	-70.5	3.8	8.45e-01	0	27	104	0	81	15816
2026-01-15 05:31:22.23	40.17	4.12	-58.0	-69.8	3.8	8.44e-01	0	27	104	0	81	14691
2026-01-15 05:31:23.24	40.11	4.18	-57.9	-68.8	3.8	8.45e-01	0	27	104	0	81	13091
2026-01-15 05:31:24.25	40.05	4.24	-57.8	-67.9	4.1	8.43e-01	0	27	104	0	81	11769
2026-01-15 05:31:25.25	39.99	4.31	-57.7	-66.9	4.4	8.29e-01	0	27	0	0	81	10474
2026-01-15 05:31:26.24	39.93	4.37	-57.6	-66.0	4.7	8.16e-01	0	27	0	0	81	9467
2026-01-15 05:31:27.25	39.87	4.43	-57.4	-65.1	5.1	7.52e-01	0	27	0	0	81	8531
2026-01-15 05:31:28.25	39.80	4.50	-57.2	-64.1	5.7	4.79e-01	0	27	0	1048576	81	7626
2026-01-15 05:31:29.26	39.74	4.56	-56.9	-63.0	6.5	2.60e-01	0	27	0	7340032	80	7044
2026-01-15 05:31:30.25	39.68	4.62	-56.7	-62.3	7.1	1.44e-01	0	27	0	12582912	80	6528
2026-01-15 05:31:31.26	39.62	4.69	-56.5	-61.6	7.6	8.61e-02	0	27	0	17825792	79	6402
2026-01-15 05:31:32.26	39.55	4.75	-56.3	-61.1	8.0	4.81e-02	0	27	0	24117248	79	6048
2026-01-15 05:31:33.25	39.49	4.82	-56.1	-60.7	8.4	3.21e-02	0	27	0	29360128	78	6091
2026-01-15 05:31:34.25	39.43	4.88	-56.1	-60.7	8.3	2.85e-02	0	27	0	34603008	78	6117
2026-01-15 05:31:35.25	39.36	4.95	-56.0	-60.4	8.7	1.72e-02	0	27	0	39845888	78	5898
2026-01-15 05:31:36.25	39.30	5.01	-56.3	-61.3	7.9	4.19e-02	0	27	0	46137344	78	6497
2026-01-15 05:31:37.25	39.23	5.07	-56.2	-61.0	8.1	3.30e-02	0	27	0	51380224	78	6324
2026-01-15 05:31:38.24	39.17	5.14	-56.1	-60.5	8.6	2.49e-02	0	27	0	57671680	78	5980
2026-01-15 05:31:39.24	39.10	5.20	-56.2	-60.6	8.6	3.09e-02	0	27	0	62914560	78	6040
2026-01-15 05:31:40.24	39.04	5.27	-57.1	-63.6	6.0	5.91e-01	0	27	0	68157440	79	8057
2026-01-15 05:31:41.24	38.97	5.33	-53.8	-56.3	11.8	1.10e-06	0	27	0	73400320	72	5188
2026-01-15 05:31:42.23	38.91	5.40	-57.6	-66.0	4.1	8.40e-01	0	27	104	76546048	80	10058
2026-01-15 05:31:43.23	38.84	5.46	-52.9	-55.1	12.7	0.00e+00	0	27	0	79691776	72	4497
2026-01-15 05:31:44.23	38.77	5.53	-51.9	-53.7	13.4	0.00e+00	0	27	0	84934656	70	4317
2026-01-15 05:31:45.22	38.71	5.59	-51.6	-53.3	13.5	0.00e+00	0	27	0	90177536	69	4380
2026-01-15 05:31:46.22	38.64	5.66	-51.2	-52.9	13.8	0.00e+00	0	27	0	96468992	69	4161
2026-01-15 05:31:47.21	38.57	5.72	-50.8	-52.4	14.0	0.00e+00	0	27	0	101711872	68	4159
2026-01-15 05:31:48.21	38.50	5.79	-50.9	-52.6	13.8	0.00e+00	0	27	0	106954752	68	4256
2026-01-15 05:31:49.20	38.44	5.85	-50.5	-52.1	14.0	0.00e+00	0	27	0	113246208	67	4248
2026-01-15 05:31:50.20	38.37	5.92	-50.0	-51.5	14.2	0.00e+00	0	27	0	118489088	66	4227
2026-01-15 05:31:51.20	38.30	5.99	-50.1	-51.6	14.1	0.00e+00	0	27	0	123731968	66	4262
2026-01-15 05:31:52.20	38.23	6.05	-50.1	-51.6	14.1	0.00e+00	0	27	0	130023424	66	4271
2026-01-15 05:31:53.20	38.16	6.12	-50.1	-51.5	14.1	0.00e+00	0	27	0	135266304	66	4231
2026-01-15 05:31:54.20	38.09	6.19	-50.1	-51.6	14.1	0.00e+00	0	27	0	140509184	66	4285
2026-01-15 05:31:55.20	38.02	6.25	-50.5	-52.1	13.9	0.00e+00	0	27	0	146800640	66	4504
2026-01-15 05:31:56.20	37.95	6.32	-50.0	-51.5	14.2	0.00e+00	0	27	0	152043520	66	4218
2026-01-15 05:31:57.21	37.88	6.39	-50.0	-51.5	14.2	0.00e+00	0	27	0	158334976	66	4228
2026-01-15 05:31:58.20	37.81	6.45	-50.0	-51.5	14.2	0.00e+00	0	27	0	163577856	66	4223
2026-01-15 05:31:59.21	37.73	6.52	-50.2	-51.7	14.0	0.00e+00	0	27	0	169869312	66	4335
2026-01-15 05:32:00.21	37.66	6.59	-50.1	-51.6	14.1	0.00e+00	0	27	0	175112192	66	4280
2026-01-15 05:32:01.21	37.59	6.66	-50.1	-51.6	14.1	0.00e+00	0	27	0	180355072	66	4262
2026-01-15 05:32:02.21	37.52	6.72	-49.8	-51.3	14.3	0.00e+00	0	27	0	186646528	66	4100
2026-01-15 05:32:03.21	37.44	6.79	-50.0	-51.4	14.2	0.00e+00	0	27	0	191889408	66	4180
2026-01-15 05:32:04.21	37.37	6.86	-50.1	-51.5	14.2	0.00e+00	0	27	0	197132288	66	4232
2026-01-15 05:32:05.21	37.30	6.93	-50.0	-51.5	14.2	0.00e+00	0	27	0	203423744	66	4221
2026-01-15 05:32:06.22	37.22	7.00	-50.1	-51.5	14.2	0.00e+00	0	27	0	208666624	66	4240
2026-01-15 05:32:07.22	37.15	7.07	-50.2	-51.7	14.1	0.00e+00	0	27	0	213909504	66	4301
2026-01-15 05:32:08.22	37.07	7.13	-49.9	-51.4	14.3	0.00e+00	0	27	0	220200960	66	4170
2026-01-15 05:32:09.23	37.00	7.20	-50.0	-51.5	14.2	0.00e+00	0	27	0	225443840	66	4215
2026-01-15 05:32:10.23	36.92	7.27	-49.7	-51.1	14.3	0.00e+00	0	27	0	231735296	65	4268
2026-01-15 05:32:11.23	36.84	7.34	-49.6	-51.0	14.3	0.00e+00	0	27	0	236978176	65	4233
2026-01-15 05:32:12.23	36.77	7.41	-49.7	-51.1	14.3	0.00e+00	0	27	0	242221056	65	4283
2026-01-15 05:32:13.23	36.69	7.48	-49.6	-51.0	14.3	0.00e+00	0	27	0	248512512	65	4218
2026-01-15 05:32:14.23	36.61	7.55	-49.8	-51.2	14.2	0.00e+00	0	27	0	253755392	65	4322
2026-01-15 05:32:15.22	36.54	7.62	-49.7	-51.2	14.2	0.00e+00	0	27	0	258998272	65	4302
2026-01-15 05:32:16.22	36.46	7.69	-49.6	-51.1	14.3	0.00e+00	0	27	0	265289728	65	4245
2026-01-15 05:32:17.21	36.38	7.76	-49.6	-51.0	14.3	0.00e+00	0	27	0	270532608	65	4232
2026-01-15 05:32:18.20	36.30	7.83	-49.6	-51.1	14.3	0.00e+00	0	27	0	275775488	65	4244
2026-01-15 05:32:19.20	36.22	7.90	-49.4	-50.7	14.5	0.00e+00	0	27	0	282066944	65	4090
2026-01-15 05:32:20.20	36.14	7.97	-49.6	-51.0	14.4	0.00e+00	0	27	0	287309824	65	4199
2026-01-15 05:32:21.19	36.06	8.04	-49.8	-51.2	14.2	0.00e+00	0	27	0	292552704	65	4309
2026-01-15 05:32:22.19	35.98	8.11	-49.7	-51.1	14.3	0.00e+00	0	27	0	298844160	65	4274
2026-01-15 05:32:23.19	35.90	8.18	-49.8	-51.2	14.3	0.00e+00	0	27	0	304087040	65	4325
2026-01-15 05:32:24.19	35.82	8.25	-49.6	-51.0	14.4	0.00e+00	0	27	0	309329920	65	4205
2026-01-15 05:32:25.19	35.74	8.32	-49.6	-51.0	14.4	0.00e+00	0	27	0	315621376	65	4203
2026-01-15 05:32:26.19	35.66	8.39	-49.7	-51.1	14.3	0.00e+00	0	27	0	320864256	65	4267
2026-01-15 05:32:27.18	35.58	8.46	-49.7	-51.1	14.3	0.00e+00	0	27	0	326107136	65	4280
2026-01-15 05:32:28.18	35.49	8.53	-49.4	-50.8	14.5	0.00e+00	0	27	0	332398592	65	4120
2026-01-15 05:32:29.18	35.41	8.60	-49.5	-50.9	14.4	0.00e+00	0	27	0	337641472	65	4146
2026-01-15 05:32:30.18	35.33	8.67	-49.7	-51.1	14.3	0.00e+00	0	27	0	343932928	65	4285
2026-01-15 05:32:31.18	35.24	8.74	-49.6	-51.0	14.4	0.00e+00	0	27	0	349175808	65	4195
2026-01-15 05:32:32.18	35.16	8.82	-49.9	-51.3	14.2	0.00e+00	0	27	0	354418688	65	4374
2026-01-15 05:32:33.18	35.07	8.89	-49.6	-51.0	14.4	0.00e+00	0	27	0	360710144	65	4219
2026-01-15 05:32:34.19	34.99	8.96	-49.5	-50.9	14.4	0.00e+00	0	27	0	365953024	65	4185
2026-01-15 05:32:35.19	34.90	9.03	-49.6	-51.0	14.4	0.00e+00	0	27	0	371195904	65	4210
2026-01-15 05:32:36.20	34.81	9.11	-49.5	-50.9	14.4	0.00e+00	0	27	0	377487360	65	4170
2026-01-15 05:32:37.19	34.73	9.18	-49.5	-50.9	14.4	0.00e+00	0	27	0	382730240	65	4175
2026-01-15 05:32:38.19	34.64	9.25	-49.5	-50.9	14.4	0.00e+00	0	28	0	387973120	65	4173
2026-01-15 05:32:39.19	34.55	9.32	-49.5	-50.9	14.4	0.00e+00	0	27	0	394264576	65	4172
2026-01-15 05:32:40.20	34.46	9.40	-49.5	-50.8	14.5	0.00e+00	0	27	0	399507456	65	4135
2026-01-15 05:32:41.20	34.37	9.47	-49.4	-50.8	14.5	0.00e+00	0	27	0	405798912	65	4119
2026-01-15 05:32:42.19	34.29	9.54	-49.6	-51.0	14.4	0.00e+00	0	27	0	411041792	65	4234
2026-01-15 05:32:43.19	34.20	9.62	-49.4	-50.8	14.5	0.00e+00	0	27	0	416284672	65	4127
2026-01-15 05:32:44.19	34.11	9.69	-49.4	-50.8	14.5	0.00e+00	0	27	0	422576128	65	4127
2026-01-15 05:32:45.18	34.02	9.76	-49.1	-50.5	14.5	0.00e+00	0	28	0	427819008	64	4215
2026-01-15 05:32:46.18	33.93	9.84	-49.3	-50.6	14.4	0.00e+00	0	27	0	433061888	64	4289
2026-01-15 05:32:47.18	33.83	9.91	-49.0	-50.3	14.6	0.00e+00	0	27	0	439353344	64	4123
2026-01-15 05:32:48.17	33.74	9.98	-49.2	-50.5	14.5	0.00e+00	0	28	0	444596224	64	4229
2026-01-15 05:32:49.17	33.65	10.06	-49.1	-50.5	14.5	0.00e+00	0	28	0	449839104	64	4198
2026-01-15 05:32:50.16	33.56	10.13	-49.1	-50.5	14.5	0.00e+00	0	27	0	456130560	64	4205
2026-01-15 05:32:51.16	33.46	10.21	-49.2	-50.5	14.5	0.00e+00	0	28	0	461373440	64	4230
2026-01-15 05:32:52.15	33.37	10.28	-49.0	-50.3	14.6	0.00e+00	0	27	0	466616320	64	4130
2026-01-15 05:32:53.15	33.28	10.36	-49.1	-50.4	14.6	0.00e+00	0	27	0	472907776	64	4150
2026-01-15 05:32:54.15	33.18	10.43	-48.9	-50.2	14.6	0.00e+00	0	27	0	478150656	64	4086
2026-01-15 05:32:55.14	33.09	10.51	-49.0	-50.3	14.6	0.00e+00	0	27	0	483393536	64	4139
2026-01-15 05:32:56.15	32.99	10.58	-49.1	-50.4	14.5	0.00e+00	0	28	0	489684992	64	4172
2026-01-15 05:32:57.14	32.90	10.66	-49.0	-50.3	14.6	0.00e+00	0	28	0	494927872	64	4125
2026-01-15 05:32:58.14	32.80	10.73	-49.1	-50.4	14.6	0.00e+00	0	27	0	500170752	64	4151
2026-01-15 05:32:59.14	32.70	10.81	-49.0	-50.3	14.6	0.00e+00	0	27	0	506462208	64	4102
2026-01-15 05:33:00.13	32.60	10.88	-48.9	-50.2	14.7	0.00e+00	0	28	0	511705088	64	4058
2026-01-15 05:33:01.12	32.51	10.96	-48.9	-50.2	14.6	0.00e+00	0	27	0	517996544	64	4092
2026-01-15 05:33:02.12	32.41	11.03	-48.7	-50.0	14.6	0.00e+00	0	27	0	523239424	63	4226
2026-01-15 05:33:03.12	32.31	11.11	-49.0	-50.3	14.5	0.00e+00	0	27	0	528482304	63	4342
2026-01-15 05:33:04.12	32.21	11.19	-49.0	-50.3	14.5	0.00e+00	0	27	0	534773760	63	4356
2026-01-15 05:33:05.12	32.11	11.26	-48.7	-50.0	14.6	0.00e+00	0	27	0	540016640	63	4203
2026-01-15 05:33:06.11	32.01	11.34	-48.9	-50.2	14.5	0.00e+00	0	27	0	545259520	63	4331
2026-01-15 05:33:07.12	31.90	11.42	-48.9	-50.2	14.5	0.00e+00	0	27	0	551550976	63	4319
2026-01-15 05:33:08.12	31.80	11.50	-48.7	-50.0	14.6	0.00e+00	0	28	0	556793856	63	4231
2026-01-15 05:33:09.12	31.70	11.57	-48.8	-50.1	14.6	0.00e+00	0	28	0	562036736	63	4247
2026-01-15 05:33:10.11	31.60	11.65	-48.7	-50.0	14.6	0.00e+00	0	27	0	568328192	63	4216
2026-01-15 05:33:11.11	31.49	11.73	-48.6	-49.9	14.7	0.00e+00	0	28	0	573571072	63	4169
2026-01-15 05:33:12.11	31.39	11.80	-48.7	-50.0	14.6	0.00e+00	0	28	0	578813952	63	4233
2026-01-15 05:33:13.10	31.28	11.88	-48.6	-49.9	14.7	0.00e+00	0	27	0	585105408	63	4178
2026-01-15 05:33:14.10	31.18	11.96	-48.7	-50.0	14.6	0.00e+00	0	28	0	590348288	63	4198
2026-01-15 05:33:15.11	31.07	12.04	-48.8	-50.1	14.6	0.00e+00	0	28	0	596639744	63	4263
2026-01-15 05:33:16.11	30.96	12.12	-48.7	-49.9	14.7	0.00e+00	0	28	0	601882624	63	4188
2026-01-15 05:33:17.11	30.86	12.20	-48.5	-49.8	14.7	0.00e+00	0	27	0	607125504	63	4115
2026-01-15 05:33:18.11	30.75	12.27	-48.6	-49.8	14.7	0.00e+00	0	27	0	613416960	63	4140
2026-01-15 05:33:19.11	30.64	12.35	-48.5	-49.8	14.7	0.00e+00	0	27	0	618659840	63	4119
2026-01-15 05:33:20.10	30.53	12.43	-48.6	-49.9	14.7	0.00e+00	0	28	0	623902720	63	4146
2026-01-15 05:33:21.10	30.42	12.51	-48.4	-49.6	14.8	0.00e+00	0	27	0	630194176	63	4051
2026-01-15 05:33:22.09	30.31	12.59	-48.4	-49.7	14.8	0.00e+00	0	28	0	635437056	63	4056
2026-01-15 05:33:23.09	30.20	12.67	-48.5	-49.8	14.7	0.00e+00	0	27	0	640679936	63	4124
2026-01-15 05:33:24.09	30.09	12.75	-48.6	-49.8	14.7	0.00e+00	0	28	0	646971392	63	4128
2026-01-15 05:33:25.09	29.98	12.83	-48.4	-49.7	14.8	0.00e+00	0	28	0	652214272	63	4056
2026-01-15 05:33:26.09	29.86	12.91	-48.5	-49.8	14.7	0.00e+00	0	28	0	657457152	63	4112
2026-01-15 05:33:27.09	29.75	12.99	-48.5	-49.7	14.7	0.00e+00	0	28	0	663748608	63	4096
2026-01-15 05:33:28.09	29.64	13.07	-48.4	-49.7	14.8	0.00e+00	0	28	0	668991488	63	4067
2026-01-15 05:33:29.09	29.52	13.15	-48.5	-49.8	14.7	0.00e+00	0	28	0	675282944	63	4109
2026-01-15 05:33:30.09	29.41	13.23	-48.5	-49.7	14.8	0.00e+00	0	28	0	680525824	63	4098
2026-01-15 05:33:31.10	29.29	13.31	-48.5	-49.8	14.7	0.00e+00	0	28	0	685768704	63	4110
2026-01-15 05:33:32.09	29.17	13.39	-48.4	-49.7	14.8	0.00e+00	0	28	0	692060160	63	4058
2026-01-15 05:33:33.09	29.05	13.47	-48.5	-49.8	14.7	0.00e+00	0	28	0	697303040	63	4114
2026-01-15 05:33:34.08	28.94	13.55	-48.6	-49.8	14.7	0.00e+00	0	28	0	702545920	63	4136
2026-01-15 05:33:35.08	28.82	13.63	-48.4	-49.7	14.8	0.00e+00	0	28	0	708837376	63	4055
2026-01-15 05:33:36.09	28.70	13.71	-48.5	-49.7	14.8	0.00e+00	0	28	0	714080256	63	4084
2026-01-15 05:33:37.09	28.58	13.80	-48.6	-49.8	14.7	0.00e+00	0	28	0	719323136	63	4144
2026-01-15 05:33:38.09	28.46	13.88	-48.4	-49.7	14.8	0.00e+00	0	28	0	725614592	63	4062
2026-01-15 05:33:39.09	28.34	13.96	-48.4	-49.6	14.8	0.00e+00	0	28	0	730857472	63	4034
2026-01-15 05:33:40.08	28.21	14.04	-48.2	-49.4	14.9	0.00e+00	0	27	0	737148928	63	3931
2026-01-15 05:33:41.08	28.09	14.12	-48.2	-49.4	14.8	0.00e+00	0	28	0	742391808	62	4163
2026-01-15 05:33:42.09	27.97	14.21	-48.3	-49.5	14.7	0.00e+00	0	28	0	747634688	62	4207
2026-01-15 05:33:43.08	27.84	14.29	-48.1	-49.3	14.8	0.00e+00	0	28	0	753926144	62	4137
2026-01-15 05:33:44.08	27.72	14.37	-48.1	-49.3	14.8	0.00e+00	0	28	0	759169024	62	4114
2026-01-15 05:33:45.09	27.59	14.45	-48.1	-49.3	14.8	0.00e+00	0	28	0	764411904	62	4118
2026-01-15 05:33:46.09	27.46	14.54	-47.9	-49.1	14.9	0.00e+00	0	28	0	770703360	62	4017
2026-01-15 05:33:47.08	27.34	14.62	-47.9	-49.1	14.9	0.00e+00	0	28	0	775946240	62	4039
2026-01-15 05:33:48.08	27.21	14.70	-47.9	-49.1	14.9	0.00e+00	0	28	0	781189120	62	4047
2026-01-15 05:33:49.08	27.08	14.78	-48.0	-49.2	14.9	0.00e+00	0	28	0	787480576	62	4068
2026-01-15 05:33:50.07	26.95	14.87	-48.0	-49.2	14.9	0.00e+00	0	28	0	792723456	62	4069
2026-01-15 05:33:51.07	26.82	14.95	-48.0	-49.2	14.8	0.00e+00	0	28	0	799014912	62	4098
2026-01-15 05:33:52.07	26.69	15.03	-48.0	-49.2	14.9	0.00e+00	0	28	0	804257792	62	4087
2026-01-15 05:33:53.06	26.56	15.12	-48.0	-49.3	14.8	0.00e+00	0	28	0	809500672	62	4100
2026-01-15 05:33:54.06	26.43	15.20	-47.9	-49.1	14.9	0.00e+00	0	28	0	815792128	62	4020
2026-01-15 05:33:55.06	26.30	15.28	-47.9	-49.1	14.9	0.00e+00	0	28	0	821035008	62	4009
2026-01-15 05:33:56.06	26.16	15.37	-47.9	-49.1	14.9	0.00e+00	0	28	0	826277888	62	4007
2026-01-15 05:33:57.06	26.03	15.45	-47.9	-49.1	14.9	0.00e+00	0	28	0	832569344	62	4026
2026-01-15 05:33:58.05	25.89	15.54	-47.8	-49.0	14.9	0.00e+00	0	28	0	837812224	62	3984
2026-01-15 05:33:59.05	25.76	15.62	-47.8	-49.0	15.0	0.00e+00	0	28	0	843055104	62	3977
2026-01-15 05:34:00.05	25.62	15.71	-47.7	-48.9	15.0	0.00e+00	0	28	0	849346560	62	3946
2026-01-15 05:34:01.04	25.48	15.79	-47.8	-48.9	15.0	0.00e+00	0	28	0	854589440	62	3950
2026-01-15 05:34:02.04	25.35	15.87	-47.7	-48.8	14.9	0.00e+00	0	28	0	859832320	61	4144
2026-01-15 05:34:03.03	25.21	15.96	-47.7	-48.9	14.8	0.00e+00	0	28	0	866123776	61	4169
2026-01-15 05:34:04.03	25.07	16.04	-47.6	-48.8	14.9	0.00e+00	0	27	0	871366656	61	4104
2026-01-15 05:34:05.03	24.93	16.13	-47.5	-48.7	14.9	0.00e+00	0	28	0	876609536	61	4054
2026-01-15 05:34:06.03	24.78	16.21	-47.6	-48.7	14.9	0.00e+00	0	27	0	882900992	61	4089
2026-01-15 05:34:07.03	24.64	16.30	-47.5	-48.7	14.9	0.00e+00	0	28	0	888143872	61	4075
2026-01-15 05:34:08.03	24.50	16.38	-47.4	-48.6	15.0	0.00e+00	0	28	0	893386752	61	4029
2026-01-15 05:34:09.02	24.35	16.47	-47.4	-48.5	15.0	0.00e+00	0	28	0	899678208	61	3986
2026-01-15 05:34:10.01	24.21	16.55	-47.3	-48.5	15.0	0.00e+00	0	28	0	904921088	61	3981
2026-01-15 05:34:11.02	24.06	16.64	-47.4	-48.6	15.0	0.00e+00	0	28	0	911212544	61	4011
2026-01-15 05:34:12.02	23.92	16.73	-47.2	-48.4	15.1	0.00e+00	0	28	0	916455424	61	3923
2026-01-15 05:34:13.01	23.77	16.81	-47.3	-48.4	14.9	0.00e+00	0	28	0	921698304	60	4177
2026-01-15 05:34:14.01	23.62	16.90	-47.3	-48.5	14.9	0.00e+00	0	28	0	927989760	60	4199
2026-01-15 05:34:15.01	23.47	16.99	-47.3	-48.5	14.9	0.00e+00	0	28	0	933232640	60	4205
2026-01-15 05:34:16.01	23.32	17.07	-47.3	-48.5	14.9	0.00e+00	0	28	0	938475520	60	4214
2026-01-15 05:34:17.01	23.17	17.16	-47.4	-48.6	14.9	0.00e+00	0	28	0	944766976	60	4254
2026-01-15 05:34:18.00	23.02	17.24	-47.4	-48.6	14.8	0.00e+00	0	28	0	950009856	60	4247
2026-01-15 05:34:19.00	22.87	17.33	-47.4	-48.6	14.8	0.00e+00	0	28	0	955252736	60	4273
2026-01-15 05:34:20.01	22.71	17.42	-47.4	-48.5	14.9	0.00e+00	0	28	0	961544192	60	4229
2026-01-15 05:34:21.01	22.56	17.51	-47.3	-48.4	14.9	0.00e+00	0	28	0	966787072	60	4178
2026-01-15 05:34:22.01	22.40	17.59	-47.2	-48.4	14.9	0.00e+00	0	28	0	973078528	60	4160
2026-01-15 05:34:23.02	22.24	17.68	-47.1	-48.3	15.0	0.00e+00	0	28	0	978321408	60	4109
2026-01-15 05:34:24.02	22.08	17.77	-47.2	-48.4	14.9	0.00e+00	0	28	0	983564288	60	4153
2026-01-15 05:34:25.02	21.93	17.85	-47.3	-48.4	14.9	0.00e+00	0	28	0	989855744	60	4191
2026-01-15 05:34:26.03	21.76	17.94	-47.0	-48.2	15.0	0.00e+00	0	28	0	995098624	60	4065
2026-01-15 05:34:27.03	21.60	18.03	-47.1	-48.2	15.0	0.00e+00	0	28	0	1000341504	60	4091
2026-01-15 05:34:28.03	21.44	18.12	-47.0	-48.2	15.0	0.00e+00	0	28	0	1006632960	60	4054
2026-01-15 05:34:29.03	21.28	18.21	-47.0	-48.2	15.0	0.00e+00	0	28	0	1011875840	60	4055
2026-01-15 05:34:30.03	21.12	18.29	-47.1	-48.3	15.0	0.00e+00	0	28	0	1017118720	60	4101
2026-01-15 05:34:31.02	20.95	18.38	-46.9	-48.1	15.0	0.00e+00	0	28	0	1023410176	60	4009
2026-01-15 05:34:32.02	20.79	18.47	-46.9	-48.0	15.0	0.00e+00	0	28	0	1028653056	60	4002
2026-01-15 05:34:33.02	20.62	18.56	-46.8	-48.0	15.1	0.00e+00	0	28	0	1034944512	60	3962
2026-01-15 05:34:34.01	20.46	18.64	-46.8	-47.9	15.1	0.00e+00	0	28	0	1040187392	60	3947
2026-01-15 05:34:35.02	20.29	18.73	-46.8	-47.9	15.1	0.00e+00	0	28	0	1045430272	60	3932
2026-01-15 05:34:36.02	20.12	18.82	-46.9	-48.0	15.1	0.00e+00	0	28	0	1051721728	60	3976
2026-01-15 05:34:37.02	19.95	18.91	-46.8	-47.9	15.1	0.00e+00	0	28	0	1056964608	60	3933
2026-01-15 05:34:38.01	19.78	18.99	-46.8	-47.9	15.1	0.00e+00	0	28	0	1062207488	60	3925
2026-01-15 05:34:39.02	19.60	19.08	-46.9	-48.0	15.1	0.00e+00	0	28	0	1068498944	60	3973
2026-01-15 05:34:40.02	19.43	19.17	-46.9	-48.0	15.1	0.00e+00	0	28	0	1073741824	60	3965
2026-01-15 05:34:41.02	19.26	19.26	-46.8	-47.9	15.1	0.00e+00	0	28	0	1078984704	60	3934
2026-01-15 05:34:42.01	19.08	19.35	-46.9	-48.0	15.1	0.00e+00	0	28	0	1085276160	60	3997
2026-01-15 05:34:43.02	18.90	19.44	-47.1	-48.2	15.0	0.00e+00	0	28	0	1090519040	60	4088
2026-01-15 05:34:44.02	18.73	19.52	-47.2	-48.3	15.0	0.00e+00	0	28	0	1096810496	60	4122
2026-01-15 05:34:45.01	18.55	19.61	-47.0	-48.1	15.0	0.00e+00	0	28	0	1102053376	60	4038
2026-01-15 05:34:46.00	18.37	19.70	-47.1	-48.2	15.0	0.00e+00	0	28	0	1107296256	60	4073
2026-01-15 05:34:47.00	18.19	19.79	-47.0	-48.1	15.0	0.00e+00	0	28	0	1112539136	60	4024
2026-01-15 05:34:48.01	18.01	19.88	-46.9	-48.0	15.1	0.00e+00	0	28	0	1118830592	60	3993
2026-01-15 05:34:49.00	17.83	19.96	-46.7	-47.8	15.2	0.00e+00	0	28	0	1124073472	60	3886
2026-01-15 05:34:49.99	17.65	20.05	-47.1	-48.2	14.9	0.00e+00	0	28	0	1129316352	59	4316
2026-01-15 05:34:50.99	17.46	20.14	-47.2	-48.3	14.9	0.00e+00	0	28	0	1135607808	59	4390
2026-01-15 05:34:51.99	17.28	20.23	-47.1	-48.3	14.9	0.00e+00	0	28	0	1140850688	59	4359
2026-01-15 05:34:52.99	17.09	20.32	-47.1	-48.3	14.9	0.00e+00	0	28	0	1147142144	59	4341
2026-01-15 05:34:53.98	16.90	20.40	-47.2	-48.3	14.9	0.00e+00	0	28	0	1152385024	59	4386
2026-01-15 05:34:54.97	16.71	20.49	-47.2	-48.4	14.9	0.00e+00	0	28	0	1157627904	59	4398
2026-01-15 05:34:55.97	16.52	20.58	-47.1	-48.2	14.9	0.00e+00	0	28	0	1163919360	59	4320
2026-01-15 05:34:56.97	16.33	20.67	-47.0	-48.2	14.9	0.00e+00	0	28	0	1169162240	59	4305
2026-01-15 05:34:57.96	16.14	20.75	-47.0	-48.2	14.9	0.00e+00	0	28	0	1174405120	59	4317
2026-01-15 05:34:58.96	15.95	20.84	-47.0	-48.1	15.0	0.00e+00	0	28	0	1180696576	59	4269
2026-01-15 05:34:59.95	15.76	20.93	-47.0	-48.1	14.9	0.00e+00	0	28	0	1185939456	59	4278
2026-01-15 05:35:00.95	15.56	21.02	-47.1	-48.2	14.9	0.00e+00	0	28	0	1191182336	59	4328
2026-01-15 05:35:01.95	15.36	21.11	-47.0	-48.2	14.9	0.00e+00	0	28	0	1197473792	59	4298
2026-01-15 05:35:02.95	15.17	21.19	-47.1	-48.2	14.9	0.00e+00	0	28	0	1202716672	59	4327
2026-01-15 05:35:03.94	14.97	21.28	-47.1	-48.2	14.9	0.00e+00	0	28	0	1207959552	59	4337
2026-01-15 05:35:04.95	14.77	21.37	-47.1	-48.2	14.9	0.00e+00	0	28	0	1214251008	59	4323
2026-01-15 05:35:05.94	14.57	21.46	-47.0	-48.1	15.0	0.00e+00	0	28	0	1219493888	59	4278
2026-01-15 05:35:06.94	14.36	21.54	-46.9	-48.0	15.0	0.00e+00	0	28	0	1224736768	59	4234
2026-01-15 05:35:07.94	14.16	21.63	-46.9	-48.0	15.0	0.00e+00	0	28	0	1231028224	59	4219
2026-01-15 05:35:08.94	13.95	21.72	-46.9	-48.0	15.0	0.00e+00	0	28	0	1236271104	59	4240
2026-01-15 05:35:09.94	13.75	21.81	-46.9	-48.1	15.0	0.00e+00	0	28	0	1242562560	59	4260
2026-01-15 05:35:10.93	13.54	21.89	-46.9	-48.0	15.0	0.00e+00	0	28	0	1247805440	59	4229
2026-01-15 05:35:11.94	13.33	21.98	-46.9	-48.0	15.0	0.00e+00	0	28	0	1253048320	59	4242
2026-01-15 05:35:12.93	13.12	22.07	-46.7	-47.8	15.0	0.00e+00	0	28	0	1259339776	59	4118
2026-01-15 05:35:13.93	12.91	22.15	-46.6	-47.7	15.1	0.00e+00	0	28	0	1264582656	59	4056
2026-01-15 05:35:14.93	12.70	22.24	-46.7	-47.8	15.1	0.00e+00	0	28	0	1269825536	59	4110
2026-01-15 05:35:15.94	12.49	22.33	-46.6	-47.7	15.1	0.00e+00	0	28	0	1276116992	59	4094
2026-01-15 05:35:16.94	12.27	22.42	-46.6	-47.8	15.1	0.00e+00	0	28	0	1281359872	59	4099
2026-01-15 05:35:17.94	12.06	22.50	-46.6	-47.7	15.1	0.00e+00	0	28	0	1286602752	59	4059
2026-01-15 05:35:18.93	11.84	22.59	-46.6	-47.7	15.1	0.00e+00	0	28	0	1292894208	59	4088
2026-01-15 05:35:19.93	11.62	22.67	-46.6	-47.8	15.1	0.00e+00	0	28	0	1298137088	59	4104
2026-01-15 05:35:20.92	11.40	22.76	-46.6	-47.7	15.1	0.00e+00	0	28	0	1304428544	59	4052
2026-01-15 05:35:21.91	11.19	22.84	-46.5	-47.6	15.1	0.00e+00	0	28	0	1309671424	59	4008
2026-01-15 05:35:22.91	10.96	22.93	-46.4	-47.5	15.1	0.00e+00	0	28	0	1314914304	59	3988
2026-01-15 05:35:23.90	10.74	23.01	-46.5	-47.6	15.1	0.00e+00	0	28	0	1320157184	59	4019
2026-01-15 05:35:24.90	10.52	23.10	-46.3	-47.4	15.2	0.00e+00	0	28	0	1326448640	59	3924
2026-01-15 05:35:25.90	10.29	23.18	-46.2	-47.3	15.2	0.00e+00	0	28	0	1331691520	59	3891
2026-01-15 05:35:26.90	10.07	23.27	-46.4	-47.5	15.2	0.00e+00	0	28	0	1336934400	59	3980
2026-01-15 05:35:27.90	9.84	23.35	-46.3	-47.4	15.2	0.00e+00	0	28	0	1343225856	59	3953
2026-01-15 05:35:28.90	9.61	23.44	-46.3	-47.4	15.2	0.00e+00	0	28	0	1348468736	59	3915
2026-01-15 05:35:29.89	9.38	23.52	-46.3	-47.4	15.2	0.00e+00	0	28	0	1354760192	59	3932
2026-01-15 05:35:30.89	9.15	23.61	-46.3	-47.4	15.2	0.00e+00	0	28	0	1360003072	59	3940
2026-01-15 05:35:31.88	8.92	23.69	-46.3	-47.4	15.2	0.00e+00	0	28	0	1365245952	59	3954
2026-01-15 05:35:32.88	8.68	23.77	-46.4	-47.5	15.2	0.00e+00	0	28	0	1371537408	59	3971
2026-01-15 05:35:33.89	8.45	23.86	-46.3	-47.4	15.2	0.00e+00	0	28	0	1376780288	59	3955
2026-01-15 05:35:34.89	8.21	23.94	-46.3	-47.4	15.2	0.00e+00	0	28	0	1382023168	59	3943
2026-01-15 05:35:35.90	7.97	24.02	-46.3	-47.4	15.2	0.00e+00	0	28	0	1388314624	59	3945
2026-01-15 05:35:36.89	7.73	24.10	-46.3	-47.4	15.2	0.00e+00	0	28	0	1393557504	59	3920
2026-01-15 05:35:37.89	7.49	24.19	-46.2	-47.3	15.2	0.00e+00	0	28	0	1398800384	59	3900
2026-01-15 05:35:38.89	7.25	24.27	-46.3	-47.4	15.2	0.00e+00	0	28	0	1405091840	59	3925
2026-01-15 05:35:39.89	7.00	24.35	-46.4	-47.5	15.2	0.00e+00	0	28	0	1410334720	59	3971
2026-01-15 05:35:40.89	6.76	24.43	-46.4	-47.5	15.2	0.00e+00	0	28	0	1416626176	59	3959
2026-01-15 05:35:41.89	6.51	24.51	-46.5	-47.6	15.1	0.00e+00	0	28	0	1421869056	59	4040
2026-01-15 05:35:42.90	6.26	24.59	-46.7	-47.8	15.1	0.00e+00	0	28	0	1427111936	59	4111
2026-01-15 05:35:43.89	6.02	24.67	-46.6	-47.7	15.1	0.00e+00	0	28	0	1433403392	59	4071
2026-01-15 05:35:44.89	5.77	24.75	-46.6	-47.7	15.1	0.00e+00	0	28	0	1438646272	59	4083
2026-01-15 05:35:45.88	5.52	24.83	-46.5	-47.6	15.1	0.00e+00	0	28	0	1443889152	59	4024
2026-01-15 05:35:46.88	5.27	24.91	-46.4	-47.5	15.2	0.00e+00	0	28	0	1450180608	59	3971
2026-01-15 05:35:47.88	5.01	24.99	-46.3	-47.4	15.2	0.00e+00	0	28	0	1455423488	59	3924
2026-01-15 05:35:48.87	4.76	25.07	-46.4	-47.5	15.2	0.00e+00	0	28	0	1460666368	59	3977
2026-01-15 05:35:49.87	4.51	25.14	-46.5	-47.6	15.1	0.00e+00	0	28	0	1466957824	59	4012
2026-01-15 05:35:50.87	4.25	25.22	-46.4	-47.5	15.2	0.00e+00	0	28	0	1472200704	59	3965
2026-01-15 05:35:51.86	3.99	25.30	-46.3	-47.4	15.2	0.00e+00	0	28	0	1478492160	59	3945
2026-01-15 05:35:52.85	3.73	25.37	-46.3	-47.4	15.2	0.00e+00	0	28	0	1483735040	59	3914
2026-01-15 05:35:53.84	3.48	25.45	-46.3	-47.3	15.2	0.00e+00	0	28	0	1488977920	59	3911
2026-01-15 05:35:54.84	3.21	25.53	-46.3	-47.4	15.2	0.00e+00	0	28	0	1494220800	59	3943
2026-01-15 05:35:55.83	2.95	25.60	-46.2	-47.3	15.2	0.00e+00	0	28	0	1500512256	59	3907
2026-01-15 05:35:56.83	2.69	25.68	-46.2	-47.3	15.2	0.00e+00	0	28	0	1505755136	59	3879
2026-01-15 05:35:57.82	2.42	25.75	-46.3	-47.3	15.2	0.00e+00	0	28	0	1510998016	59	3912
2026-01-15 05:35:58.82	2.16	25.82	-46.1	-47.2	15.1	0.00e+00	0	28	0	1517289472	58	4057
2026-01-15 05:35:59.82	1.89	25.90	-46.1	-47.1	15.1	0.00e+00	0	28	0	1522532352	58	4050
2026-01-15 05:36:00.83	1.62	25.97	-46.0	-47.1	15.1	0.00e+00	0	28	0	1528823808	58	4036
2026-01-15 05:36:01.83	1.34	26.04	-46.1	-47.2	15.1	0.00e+00	0	28	0	1534066688	58	4079
2026-01-15 05:36:02.83	1.07	26.12	-46.2	-47.2	15.1	0.00e+00	0	28	0	1539309568	58	4095
2026-01-15 05:36:03.83	0.80	26.19	-46.1	-47.2	15.1	0.00e+00	0	28	0	1545601024	58	4069
2026-01-15 05:36:04.82	0.53	26.26	-46.3	-47.3	15.1	0.00e+00	0	28	0	1550843904	58	4145
2026-01-15 05:36:05.82	0.25	26.33	-46.2	-47.3	15.1	0.00e+00	0	28	0	1556086784	58	4104
2026-01-15 05:36:06.82	359.97	26.40	-46.2	-47.3	15.1	0.00e+00	0	28	0	1562378240	58	4125
2026-01-15 05:36:07.82	359.69	26.47	-46.2	-47.3	15.1	0.00e+00	0	28	0	1567621120	58	4105
2026-01-15 05:36:08.82	359.41	26.54	-46.1	-47.2	15.1	0.00e+00	0	28	0	1572864000	58	4093
2026-01-15 05:36:09.82	359.13	26.60	-46.1	-47.2	15.1	0.00e+00	0	28	0	1579155456	58	4077
2026-01-15 05:36:10.82	358.85	26.67	-46.1	-47.2	15.1	0.00e+00	0	28	0	1584398336	58	4057
2026-01-15 05:36:11.83	358.56	26.74	-46.1	-47.1	15.1	0.00e+00	0	28	0	1590689792	58	4048
2026-01-15 05:36:12.83	358.28	26.80	-46.0	-47.0	15.2	0.00e+00	0	28	0	1595932672	58	4004
2026-01-15 05:36:13.82	357.99	26.87	-46.2	-47.3	15.1	0.00e+00	0	28	0	1601175552	58	4106
2026-01-15 05:36:14.82	357.71	26.93	-46.2	-47.3	15.1	0.00e+00	0	28	0	1607467008	58	4142
2026-01-15 05:36:15.83	357.42	27.00	-46.3	-47.4	15.1	0.00e+00	0	28	0	1612709888	58	4168
2026-01-15 05:36:16.82	357.13	27.06	-46.2	-47.3	15.1	0.00e+00	0	28	0	1617952768	58	4103
2026-01-15 05:36:17.82	356.84	27.13	-46.0	-47.1	15.1	0.00e+00	0	28	0	1624244224	58	4021
2026-01-15 05:36:18.82	356.55	27.19	-46.1	-47.2	15.1	0.00e+00	0	28	0	1629487104	58	4061
2026-01-15 05:36:19.82	356.25	27.25	-46.1	-47.2	15.1	0.00e+00	0	28	0	1634729984	58	4085
2026-01-15 05:36:20.81	355.96	27.31	-46.1	-47.1	15.1	0.00e+00	0	28	0	1641021440	58	4048
2026-01-15 05:36:21.81	355.67	27.37	-46.1	-47.1	15.1	0.00e+00	0	28	0	1646264320	58	4043
2026-01-15 05:36:22.81	355.37	27.43	-46.0	-47.1	15.2	0.00e+00	0	28	0	1652555776	58	4017
2026-01-15 05:36:23.81	355.07	27.49	-46.1	-47.2	15.1	0.00e+00	0	28	0	1657798656	58	4056
2026-01-15 05:36:24.81	354.78	27.55	-46.0	-47.1	15.2	0.00e+00	0	28	0	1663041536	58	4023
2026-01-15 05:36:25.81	354.48	27.60	-46.1	-47.1	15.1	0.00e+00	0	28	0	1669332992	58	4050
2026-01-15 05:36:26.80	354.18	27.66	-46.1	-47.1	15.1	0.00e+00	0	28	0	1674575872	58	4049
2026-01-15 05:36:27.79	353.88	27.72	-45.9	-47.0	15.2	0.00e+00	0	28	0	1679818752	58	3961
2026-01-15 05:36:28.79	353.58	27.77	-45.9	-46.9	15.2	0.00e+00	0	28	0	1685061632	58	3954
2026-01-15 05:36:29.78	353.27	27.83	-45.9	-47.0	15.2	0.00e+00	0	28	0	1691353088	58	3966
2026-01-15 05:36:30.78	352.97	27.88	-45.9	-47.0	15.2	0.00e+00	0	28	0	1696595968	58	3970
2026-01-15 05:36:31.78	352.66	27.93	-45.9	-46.9	15.2	0.00e+00	0	28	0	1702887424	58	3950
2026-01-15 05:36:32.78	352.36	27.98	-45.8	-46.9	15.2	0.00e+00	0	28	0	1708130304	58	3931
2026-01-15 05:36:33.78	352.05	28.03	-45.8	-46.9	15.2	0.00e+00	0	28	0	1713373184	58	3926
2026-01-15 05:36:34.78	351.74	28.08	-45.9	-47.0	15.2	0.00e+00	0	28	0	1719664640	58	3966
2026-01-15 05:36:35.78	351.43	28.13	-46.0	-47.0	15.2	0.00e+00	0	28	0	1724907520	58	3999
2026-01-15 05:36:36.78	351.12	28.18	-45.9	-47.0	15.2	0.00e+00	0	28	0	1730150400	58	3971
2026-01-15 05:36:37.79	350.80	28.23	-46.0	-47.0	15.2	0.00e+00	0	28	0	1736441856	58	4002
2026-01-15 05:36:38.79	350.49	28.28	-45.8	-46.9	15.2	0.00e+00	0	28	0	1741684736	58	3917
2026-01-15 05:36:39.79	350.18	28.32	-45.9	-46.9	15.2	0.00e+00	0	28	0	1747976192	58	3953
2026-01-15 05:36:40.79	349.86	28.37	-45.9	-46.9	15.2	0.00e+00	0	28	0	1753219072	58	3956
2026-01-15 05:36:41.79	349.55	28.41	-45.8	-46.8	15.3	0.00e+00	0	28	0	1758461952	58	3900
2026-01-15 05:36:42.79	349.23	28.46	-45.6	-46.7	15.2	0.00e+00	0	28	0	1764753408	57	4066
2026-01-15 05:36:43.79	348.91	28.50	-45.6	-46.7	15.2	0.00e+00	0	28	0	1769996288	57	4055
2026-01-15 05:36:44.78	348.60	28.54	-45.6	-46.7	15.2	0.00e+00	0	28	0	1775239168	57	4079
2026-01-15 05:36:45.78	348.28	28.58	-45.6	-46.7	15.2	0.00e+00	0	28	0	1781530624	57	4085
2026-01-15 05:36:46.77	347.96	28.62	-45.6	-46.7	15.2	0.00e+00	0	28	0	1786773504	57	4062
2026-01-15 05:36:47.77	347.64	28.66	-45.7	-46.8	15.1	0.00e+00	0	28	0	1792016384	57	4105
2026-01-15 05:36:48.77	347.32	28.70	-45.6	-46.7	15.2	0.00e+00	0	28	0	1798307840	57	4070
2026-01-15 05:36:49.77	347.00	28.73	-45.6	-46.6	15.2	0.00e+00	0	28	0	1803550720	57	4050
2026-01-15 05:36:50.76	346.68	28.77	-45.5	-46.5	15.2	0.00e+00	0	28	0	1809842176	57	3995
2026-01-15 05:36:51.77	346.35	28.80	-45.5	-46.5	15.2	0.00e+00	0	28	0	1815085056	57	3998
2026-01-15 05:36:52.76	346.03	28.84	-45.6	-46.7	15.2	0.00e+00	0	28	0	1820327936	57	4057
2026-01-15 05:36:53.75	345.71	28.87	-45.6	-46.7	15.2	0.00e+00	0	28	0	1825570816	57	4083
2026-01-15 05:36:54.75	345.38	28.90	-45.6	-46.6	15.2	0.00e+00	0	28	0	1831862272	57	4050
2026-01-15 05:36:55.74	345.06	28.93	-45.4	-46.5	15.2	0.00e+00	0	28	0	1837105152	57	3978
2026-01-15 05:36:56.73	344.74	28.96	-45.5	-46.6	15.2	0.00e+00	0	28	0	1842348032	57	4005
2026-01-15 05:36:57.73	344.41	28.99	-45.6	-46.7	15.2	0.00e+00	0	28	0	1848639488	57	4057
2026-01-15 05:36:58.73	344.08	29.02	-45.8	-46.9	15.1	0.00e+00	0	28	0	1853882368	57	4151
2026-01-15 05:36:59.72	343.76	29.04	-45.6	-46.6	15.2	0.00e+00	0	28	0	1860173824	57	4050
2026-01-15 05:37:00.72	343.43	29.07	-45.5	-46.6	15.2	0.00e+00	0	28	0	1865416704	57	4024
2026-01-15 05:37:01.72	343.10	29.09	-45.6	-46.7	15.2	0.00e+00	0	28	0	1870659584	57	4057
2026-01-15 05:37:02.71	342.77	29.12	-45.3	-46.3	15.3	0.00e+00	0	28	0	1876951040	57	3906
2026-01-15 05:37:03.71	342.44	29.14	-45.3	-46.3	15.3	0.00e+00	0	28	0	1882193920	57	3881
2026-01-15 05:37:04.70	342.11	29.16	-45.4	-46.4	15.2	0.00e+00	0	28	0	1887436800	57	3935
2026-01-15 05:37:05.69	341.79	29.18	-45.4	-46.5	15.2	0.00e+00	0	28	0	1892679680	57	3974
2026-01-15 05:37:06.69	341.45	29.20	-45.5	-46.5	15.2	0.00e+00	0	28	0	1898971136	57	3990
2026-01-15 05:37:07.69	341.12	29.22	-45.4	-46.4	15.2	0.00e+00	0	28	0	1904214016	57	3946
2026-01-15 05:37:08.69	340.79	29.24	-45.3	-46.4	15.3	0.00e+00	0	28	0	1910505472	57	3932
2026-01-15 05:37:09.69	340.46	29.25	-45.4	-46.5	15.2	0.00e+00	0	28	0	1915748352	57	3965
2026-01-15 05:37:10.68	340.13	29.27	-45.3	-46.3	15.3	0.00e+00	0	28	0	1920991232	57	3892
2026-01-15 05:37:11.68	339.79	29.28	-45.3	-46.3	15.3	0.00e+00	0	28	0	1927282688	57	3898
2026-01-15 05:37:12.69	339.45	29.30	-45.3	-46.4	15.3	0.00e+00	0	28	0	1932525568	57	3923
2026-01-15 05:37:13.69	339.12	29.31	-45.5	-46.5	15.2	0.00e+00	0	28	0	1937768448	57	4003
2026-01-15 05:37:14.68	338.79	29.32	-45.6	-46.7	15.2	0.00e+00	0	28	0	1944059904	57	4063
2026-01-15 05:37:15.68	338.45	29.33	-45.7	-46.8	15.1	0.00e+00	0	28	0	1949302784	57	4099
2026-01-15 05:37:16.67	338.12	29.34	-45.6	-46.7	15.2	0.00e+00	0	28	0	1954545664	57	4072
2026-01-15 05:37:17.67	337.79	29.35	-45.4	-46.4	15.2	0.00e+00	0	28	0	1960837120	57	3955
2026-01-15 05:37:18.66	337.46	29.35	-45.4	-46.4	15.2	0.00e+00	0	28	0	1966080000	57	3951
2026-01-15 05:37:19.66	337.12	29.36	-45.4	-46.5	15.2	0.00e+00	0	28	0	1972371456	57	3979
2026-01-15 05:37:20.67	336.78	29.36	-45.5	-46.6	15.2	0.00e+00	0	28	0	1977614336	57	4022
2026-01-15 05:37:21.67	336.45	29.37	-45.5	-46.6	15.2	0.00e+00	0	28	0	1982857216	57	4031
2026-01-15 05:37:22.67	336.11	29.37	-45.3	-46.3	15.3	0.00e+00	0	28	0	1989148672	57	3909
2026-01-15 05:37:23.66	335.78	29.37	-45.3	-46.3	15.3	0.00e+00	0	28	0	1994391552	57	3902
2026-01-15 05:37:24.66	335.44	29.37	-45.2	-46.3	15.3	0.00e+00	0	28	0	1999634432	57	3877
2026-01-15 05:37:25.66	335.11	29.37	-45.3	-46.4	15.3	0.00e+00	0	28	0	2005925888	57	3931
2026-01-15 05:37:26.67	334.77	29.36	-45.2	-46.3	15.3	0.00e+00	0	28	0	2011168768	57	3883
2026-01-15 05:37:27.66	334.44	29.36	-45.2	-46.2	15.3	0.00e+00	0	28	0	2016411648	57	3862
2026-01-15 05:37:28.66	334.10	29.36	-45.3	-46.3	15.3	0.00e+00	0	28	0	2022703104	57	3910
2026-01-15 05:37:29.66	333.77	29.35	-45.4	-46.5	15.2	0.00e+00	0	28	0	2027945984	57	3966
2026-01-15 05:37:30.66	333.43	29.34	-45.4	-46.5	15.2	0.00e+00	0	28	0	2034237440	57	3975
2026-01-15 05:37:31.65	333.10	29.34	-45.4	-46.4	15.2	0.00e+00	0	28	0	2039480320	57	3943
2026-01-15 05:37:32.65	332.76	29.33	-45.4	-46.4	15.2	0.00e+00	0	28	0	2044723200	57	3951
2026-01-15 05:37:33.64	332.43	29.32	-45.4	-46.5	15.2	0.00e+00	0	28	0	2049966080	57	3960
2026-01-15 05:37:34.64	332.10	29.31	-45.3	-46.4	15.2	0.00e+00	0	28	0	2056257536	57	3922
2026-01-15 05:37:35.63	331.77	29.30	-45.4	-46.4	15.3	0.00e+00	0	28	0	2061500416	57	3935
2026-01-15 05:37:36.63	331.43	29.28	-45.4	-46.4	15.2	0.00e+00	0	28	0	2066743296	57	3941
2026-01-15 05:37:37.62	331.10	29.27	-45.4	-46.5	15.2	0.00e+00	0	28	0	2073034752	57	3963
2026-01-15 05:37:38.62	330.77	29.25	-45.4	-46.5	15.2	0.00e+00	0	28	0	2078277632	57	3974
2026-01-15 05:37:39.62	330.44	29.24	-45.5	-46.5	15.2	0.00e+00	0	28	0	2084569088	57	3995
2026-01-15 05:37:40.62	330.10	29.22	-45.4	-46.5	15.2	0.00e+00	0	28	0	2089811968	57	3970
2026-01-15 05:37:41.62	329.77	29.20	-45.4	-46.5	15.2	0.00e+00	0	28	0	2095054848	57	3961
2026-01-15 05:37:42.62	329.44	29.18	-45.4	-46.4	15.3	0.00e+00	0	28	0	2101346304	57	3935
2026-01-15 05:37:43.62	329.11	29.16	-45.4	-46.4	15.2	0.00e+00	0	28	0	2106589184	57	3934
2026-01-15 05:37:44.62	328.78	29.14	-45.4	-46.5	15.2	0.00e+00	0	28	0	2111832064	57	3963
2026-01-15 05:37:45.62	328.45	29.12	-45.5	-46.5	15.2	0.00e+00	0	28	0	2118123520	57	4003
2026-01-15 05:37:46.62	328.12	29.09	-45.5	-46.6	15.2	0.00e+00	0	28	0	2123366400	57	4010
2026-01-15 05:37:47.62	327.79	29.07	-45.5	-46.6	15.2	0.00e+00	0	28	0	2128609280	57	4010
2026-01-15 05:37:48.62	327.46	29.04	-45.4	-46.5	15.2	0.00e+00	0	28	0	2134900736	57	3973
2026-01-15 05:37:49.61	327.13	29.01	-45.2	-46.3	15.3	0.00e+00	0	28	0	2140143616	57	3879
2026-01-15 05:37:50.61	326.80	28.99	-45.1	-46.1	15.2	0.00e+00	0	28	0	2146435072	56	4048
2026-01-15 05:37:51.61	326.48	28.96	-45.1	-46.1	15.2	0.00e+00	0	28	0	2151677952	56	4028
2026-01-15 05:37:52.61	326.15	28.93	-45.2	-46.2	15.2	0.00e+00	0	28	0	2156920832	56	4068
2026-01-15 05:37:53.61	325.82	28.90	-45.2	-46.2	15.2	0.00e+00	0	28	0	2163212288	56	4098
2026-01-15 05:37:54.61	325.50	28.86	-45.2	-46.2	15.2	0.00e+00	0	28	0	2168455168	56	4098
2026-01-15 05:37:55.61	325.17	28.83	-45.3	-46.3	15.1	0.00e+00	0	28	0	2173698048	56	4117
2026-01-15 05:37:56.61	324.85	28.80	-45.3	-46.4	15.1	0.00e+00	0	28	0	2179989504	56	4159
2026-01-15 05:37:57.62	324.52	28.76	-45.3	-46.3	15.1	0.00e+00	0	28	0	2185232384	56	4125
2026-01-15 05:37:58.61	324.20	28.73	-45.3	-46.4	15.1	0.00e+00	0	28	0	2190475264	56	4156
2026-01-15 05:37:59.61	323.88	28.69	-45.5	-46.5	15.1	0.00e+00	0	28	0	2196766720	56	4226
2026-01-15 05:38:00.60	323.56	28.65	-45.6	-46.7	15.1	0.00e+00	0	28	0	2202009600	56	4306
2026-01-15 05:38:01.60	323.24	28.61	-45.7	-46.8	15.1	0.00e+00	0	28	0	2207252480	56	4353
2026-01-15 05:38:02.60	322.92	28.57	-45.6	-46.6	15.1	0.00e+00	0	28	0	2213543936	56	4290
2026-01-15 05:38:03.61	322.60	28.53	-45.5	-46.6	15.1	0.00e+00	0	28	0	2218786816	56	4249
2026-01-15 05:38:04.61	322.28	28.49	-45.5	-46.6	15.1	0.00e+00	0	28	0	2225078272	56	4259
2026-01-15 05:38:05.60	321.97	28.45	-45.5	-46.6	15.1	0.00e+00	0	28	0	2230321152	56	4270
2026-01-15 05:38:06.60	321.65	28.41	-45.6	-46.7	15.1	0.00e+00	0	28	0	2235564032	56	4302
2026-01-15 05:38:07.60	321.33	28.36	-45.5	-46.6	15.1	0.00e+00	0	28	0	2240806912	56	4272
2026-01-15 05:38:08.60	321.02	28.32	-45.5	-46.5	15.1	0.00e+00	0	28	0	2247098368	56	4223
2026-01-15 05:38:09.61	320.70	28.27	-45.4	-46.5	15.1	0.00e+00	0	28	0	2252341248	56	4211
2026-01-15 05:38:10.60	320.39	28.22	-45.4	-46.4	15.1	0.00e+00	0	28	0	2258632704	56	4167
2026-01-15 05:38:11.60	320.08	28.17	-45.5	-46.5	15.1	0.00e+00	0	28	0	2263875584	56	4226
2026-01-15 05:38:12.60	319.77	28.13	-45.6	-46.7	15.1	0.00e+00	0	28	0	2269118464	56	4294
2026-01-15 05:38:13.60	319.46	28.08	-45.7	-46.8	15.1	0.00e+00	0	28	0	2275409920	56	4372
2026-01-15 05:38:14.60	319.15	28.03	-45.6	-46.7	15.1	0.00e+00	0	28	0	2280652800	56	4317
2026-01-15 05:38:15.61	318.84	27.97	-45.8	-46.8	15.0	0.00e+00	0	28	0	2286944256	56	4379
2026-01-15 05:38:16.60	318.53	27.92	-45.7	-46.8	15.1	0.00e+00	0	28	0	2292187136	56	4351
2026-01-15 05:38:17.60	318.23	27.87	-45.7	-46.8	15.0	0.00e+00	0	28	0	2297430016	56	4373
2026-01-15 05:38:18.61	317.92	27.82	-45.7	-46.8	15.1	0.00e+00	0	28	0	2303721472	56	4374
2026-01-15 05:38:19.61	317.62	27.76	-45.6	-46.7	15.1	0.00e+00	0	28	0	2308964352	56	4316
2026-01-15 05:38:20.60	317.32	27.71	-45.7	-46.8	15.1	0.00e+00	0	28	0	2314207232	56	4351
2026-01-15 05:38:21.60	317.01	27.65	-45.6	-46.7	15.1	0.00e+00	0	28	0	2320498688	56	4293
2026-01-15 05:38:22.60	316.71	27.59	-45.6	-46.6	15.1	0.00e+00	0	28	0	2325741568	56	4275
2026-01-15 05:38:23.61	316.41	27.53	-45.7	-46.8	15.1	0.00e+00	0	28	0	2330984448	56	4342
2026-01-15 05:38:24.60	316.11	27.48	-45.8	-46.8	15.1	0.00e+00	0	28	0	2337275904	56	4390
2026-01-15 05:38:25.60	315.82	27.42	-45.7	-46.8	15.0	0.00e+00	0	28	0	2342518784	56	4355
2026-01-15 05:38:26.59	315.52	27.36	-45.7	-46.8	15.1	0.00e+00	0	28	0	2347761664	56	4371
2026-01-15 05:38:27.59	315.23	27.30	-45.7	-46.8	15.0	0.00e+00	0	28	0	2354053120	56	4351
2026-01-15 05:38:28.59	314.93	27.24	-45.7	-46.8	15.1	0.00e+00	0	28	0	2359296000	56	4350
2026-01-15 05:38:29.59	314.64	27.17	-45.8	-46.8	15.0	0.00e+00	0	28	0	2365587456	56	4369
2026-01-15 05:38:30.58	314.35	27.11	-45.7	-46.8	15.1	0.00e+00	0	28	0	2370830336	56	4374
2026-01-15 05:38:31.58	314.06	27.05	-45.8	-46.9	15.0	0.00e+00	0	28	0	2376073216	56	4403
2026-01-15 05:38:32.58	313.77	26.99	-45.7	-46.8	15.1	0.00e+00	0	28	0	2382364672	56	4356
2026-01-15 05:38:33.59	313.48	26.92	-45.6	-46.7	15.1	0.00e+00	0	28	0	2387607552	56	4297
2026-01-15 05:38:34.59	313.19	26.86	-45.6	-46.6	15.1	0.00e+00	0	28	0	2392850432	56	4283
2026-01-15 05:38:35.58	312.91	26.79	-45.6	-46.6	15.1	0.00e+00	0	28	0	2399141888	56	4286
2026-01-15 05:38:36.58	312.62	26.72	-45.6	-46.6	15.1	0.00e+00	0	28	0	2404384768	56	4284
2026-01-15 05:38:37.58	312.34	26.66	-45.5	-46.6	15.1	0.00e+00	0	28	0	2409627648	56	4249
2026-01-15 05:38:38.58	312.06	26.59	-45.6	-46.7	15.1	0.00e+00	0	28	0	2415919104	56	4303
2026-01-15 05:38:39.58	311.78	26.52	-45.7	-46.8	15.1	0.00e+00	0	28	0	2421161984	56	4356
2026-01-15 05:38:40.57	311.50	26.45	-45.8	-46.9	15.0	0.00e+00	0	28	0	2427453440	56	4416
2026-01-15 05:38:41.57	311.22	26.38	-45.9	-47.0	15.0	0.00e+00	0	28	0	2432696320	56	4464
2026-01-15 05:38:42.57	310.94	26.31	-45.9	-47.0	15.1	0.00e+00	0	28	0	2437939200	57	4223
2026-01-15 05:38:43.57	310.67	26.24	-46.0	-47.1	15.1	0.00e+00	0	28	0	2444230656	57	4255
2026-01-15 05:38:44.57	310.39	26.17	-46.0	-47.0	15.1	0.00e+00	0	28	0	2449473536	57	4235
2026-01-15 05:38:45.57	310.12	26.10	-46.0	-47.1	15.1	0.00e+00	0	28	0	2454716416	57	4259
2026-01-15 05:38:46.56	309.85	26.03	-46.0	-47.1	15.1	0.00e+00	0	28	0	2461007872	57	4245
2026-01-15 05:38:47.56	309.58	25.95	-46.1	-47.2	15.0	0.00e+00	0	28	0	2466250752	57	4294
2026-01-15 05:38:48.56	309.31	25.88	-46.1	-47.1	15.0	0.00e+00	0	28	0	2471493632	57	4286
2026-01-15 05:38:49.56	309.04	25.81	-46.1	-47.1	15.0	0.00e+00	0	28	0	2477785088	57	4283
2026-01-15 05:38:50.56	308.77	25.73	-46.2	-47.3	15.0	0.00e+00	0	28	0	2483027968	57	4349
2026-01-15 05:38:51.56	308.50	25.66	-46.1	-47.2	15.0	0.00e+00	0	28	0	2489319424	57	4320
2026-01-15 05:38:52.56	308.24	25.58	-46.0	-47.1	15.0	0.00e+00	0	28	0	2494562304	57	4284
2026-01-15 05:38:53.56	307.97	25.51	-46.2	-47.3	15.0	0.00e+00	0	28	0	2499805184	57	4346
2026-01-15 05:38:54.55	307.71	25.43	-46.3	-47.3	15.0	0.00e+00	0	28	0	2505048064	57	4387
2026-01-15 05:38:55.55	307.45	25.36	-46.3	-47.4	15.0	0.00e+00	0	28	0	2511339520	57	4397
2026-01-15 05:38:56.54	307.19	25.28	-46.4	-47.5	15.0	0.00e+00	0	28	0	2516582400	57	4457
2026-01-15 05:38:57.54	306.94	25.20	-46.3	-47.4	15.0	0.00e+00	0	28	0	2521825280	57	4423
2026-01-15 05:38:58.53	306.68	25.13	-46.3	-47.4	15.0	0.00e+00	0	28	0	2528116736	57	4414
2026-01-15 05:38:59.54	306.42	25.05	-46.3	-47.4	15.0	0.00e+00	0	28	0	2533359616	57	4414
2026-01-15 05:39:00.53	306.17	24.97	-46.3	-47.4	15.0	0.00e+00	0	28	0	2539651072	57	4431
2026-01-15 05:39:01.52	305.92	24.89	-46.1	-47.2	15.0	0.00e+00	0	28	0	2544893952	57	4322
2026-01-15 05:39:02.53	305.66	24.81	-46.1	-47.1	15.0	0.00e+00	0	28	0	2550136832	57	4285
2026-01-15 05:39:03.53	305.41	24.73	-45.9	-47.0	15.1	0.00e+00	0	28	0	2556428288	57	4222
2026-01-15 05:39:04.52	305.16	24.65	-45.9	-47.0	15.1	0.00e+00	0	28	0	2561671168	57	4204
2026-01-15 05:39:05.52	304.92	24.57	-45.9	-47.0	15.1	0.00e+00	0	28	0	2566914048	57	4205
2026-01-15 05:39:06.52	304.67	24.49	-46.0	-47.1	15.1	0.00e+00	0	28	0	2573205504	57	4255
2026-01-15 05:39:07.52	304.42	24.41	-46.2	-47.3	15.0	0.00e+00	0	28	0	2578448384	57	4363
2026-01-15 05:39:08.52	304.18	24.33	-46.4	-47.5	15.0	0.00e+00	0	28	0	2583691264	57	4473
2026-01-15 05:39:09.52	303.93	24.25	-46.3	-47.4	15.0	0.00e+00	0	28	0	2589982720	57	4407
2026-01-15 05:39:10.53	303.69	24.16	-46.3	-47.4	15.0	0.00e+00	0	28	0	2595225600	57	4430
2026-01-15 05:39:11.52	303.45	24.08	-46.4	-47.5	15.0	0.00e+00	0	28	0	2601517056	57	4455
2026-01-15 05:39:12.52	303.21	24.00	-46.2	-47.3	15.0	0.00e+00	0	28	0	2606759936	57	4342
2026-01-15 05:39:13.53	302.97	23.92	-46.0	-47.1	15.0	0.00e+00	0	28	0	2612002816	57	4265
2026-01-15 05:39:14.53	302.73	23.83	-46.2	-47.3	15.0	0.00e+00	0	28	0	2618294272	57	4362
2026-01-15 05:39:15.53	302.50	23.75	-46.2	-47.3	15.0	0.00e+00	0	28	0	2623537152	57	4360
2026-01-15 05:39:16.53	302.26	23.67	-46.2	-47.3	15.0	0.00e+00	0	28	0	2628780032	57	4381
2026-01-15 05:39:17.53	302.03	23.58	-46.2	-47.3	15.0	0.00e+00	0	28	0	2635071488	57	4389
2026-01-15 05:39:18.53	301.80	23.50	-46.3	-47.3	15.0	0.00e+00	0	28	0	2640314368	57	4388
2026-01-15 05:39:19.53	301.57	23.41	-46.3	-47.4	15.0	0.00e+00	0	28	0	2645557248	57	4423
2026-01-15 05:39:20.53	301.34	23.33	-46.4	-47.6	15.0	0.00e+00	0	28	0	2651848704	58	4249
2026-01-15 05:39:21.53	301.11	23.24	-46.4	-47.5	15.1	0.00e+00	0	28	0	2657091584	58	4195
2026-01-15 05:39:22.53	300.88	23.16	-46.4	-47.5	15.1	0.00e+00	0	28	0	2663383040	58	4199
2026-01-15 05:39:23.52	300.66	23.07	-46.3	-47.4	15.0	0.00e+00	0	28	0	2668625920	58	4168
2026-01-15 05:39:24.52	300.43	22.99	-46.4	-47.5	15.0	0.00e+00	0	28	0	2673868800	58	4216
2026-01-15 05:39:25.52	300.21	22.90	-46.5	-47.6	15.0	0.00e+00	0	28	0	2680160256	58	4263
2026-01-15 05:39:26.51	299.99	22.82	-46.5	-47.7	15.0	0.00e+00	0	28	0	2685403136	58	4293
2026-01-15 05:39:27.52	299.77	22.73	-46.7	-47.8	15.0	0.00e+00	0	28	0	2690646016	58	4360
2026-01-15 05:39:28.52	299.55	22.64	-46.7	-47.8	15.0	0.00e+00	0	28	0	2696937472	58	4386
2026-01-15 05:39:29.51	299.33	22.56	-46.7	-47.9	15.0	0.00e+00	0	28	0	2702180352	58	4392
2026-01-15 05:39:30.51	299.11	22.47	-46.9	-48.0	14.9	0.00e+00	0	28	0	2707423232	58	4457
2026-01-15 05:39:31.51	298.90	22.39	-46.9	-48.0	15.0	0.00e+00	0	28	0	2713714688	59	4240
2026-01-15 05:39:32.52	298.68	22.30	-47.1	-48.2	14.9	0.00e+00	0	28	0	2718957568	59	4324
2026-01-15 05:39:33.52	298.47	22.21	-46.9	-48.0	15.0	0.00e+00	0	28	0	2725249024	59	4222
2026-01-15 05:39:34.51	298.26	22.13	-46.8	-47.9	15.0	0.00e+00	0	28	0	2730491904	59	4192
2026-01-15 05:39:35.52	298.04	22.04	-46.9	-48.0	15.0	0.00e+00	0	28	0	2735734784	59	4209
2026-01-15 05:39:36.52	297.83	21.95	-46.9	-48.0	15.0	0.00e+00	0	28	0	2742026240	59	4225
2026-01-15 05:39:37.52	297.63	21.86	-46.9	-48.0	15.0	0.00e+00	0	28	0	2747269120	59	4242
2026-01-15 05:39:38.52	297.42	21.78	-47.0	-48.1	15.0	0.00e+00	0	28	0	2752512000	59	4281
2026-01-15 05:39:39.51	297.21	21.69	-47.0	-48.1	15.0	0.00e+00	0	28	0	2758803456	59	4274
2026-01-15 05:39:40.52	297.01	21.60	-46.9	-48.0	15.0	0.00e+00	0	28	0	2764046336	59	4242
2026-01-15 05:39:41.51	296.80	21.51	-46.9	-48.0	15.0	0.00e+00	0	28	0	2769289216	59	4210
2026-01-15 05:39:42.51	296.60	21.43	-46.8	-47.9	15.0	0.00e+00	0	28	0	2775580672	59	4191
2026-01-15 05:39:43.52	296.40	21.34	-46.8	-47.9	15.0	0.00e+00	0	28	0	2780823552	59	4162
2026-01-15 05:39:44.51	296.20	21.25	-46.9	-48.0	15.0	0.00e+00	0	28	0	2787115008	59	4227
2026-01-15 05:39:45.52	296.00	21.16	-47.0	-48.1	15.0	0.00e+00	0	28	0	2792357888	59	4284
2026-01-15 05:39:46.51	295.80	21.07	-47.0	-48.2	14.9	0.00e+00	0	28	0	2797600768	59	4293
2026-01-15 05:39:47.52	295.60	20.98	-47.0	-48.2	15.0	0.00e+00	0	28	0	2803892224	59	4299
2026-01-15 05:39:48.52	295.41	20.90	-47.1	-48.2	14.9	0.00e+00	0	28	0	2809135104	59	4333
2026-01-15 05:39:49.52	295.21	20.81	-46.9	-48.1	15.0	0.00e+00	0	28	0	2814377984	59	4246
2026-01-15 05:39:50.53	295.02	20.72	-47.1	-48.2	14.9	0.00e+00	0	28	0	2820669440	59	4329
2026-01-15 05:39:51.52	294.83	20.63	-47.1	-48.2	14.9	0.00e+00	0	28	0	2825912320	59	4330
2026-01-15 05:39:52.52	294.63	20.54	-47.1	-48.3	14.9	0.00e+00	0	28	0	2831155200	59	4356
2026-01-15 05:39:53.52	294.44	20.45	-47.1	-48.2	14.9	0.00e+00	0	28	0	2837446656	59	4336
2026-01-15 05:39:54.52	294.25	20.37	-47.1	-48.3	14.9	0.00e+00	0	28	0	2842689536	59	4341
2026-01-15 05:39:55.52	294.07	20.28	-47.1	-48.3	14.9	0.00e+00	0	28	0	2848980992	59	4347
2026-01-15 05:39:56.51	293.88	20.19	-46.9	-48.0	15.0	0.00e+00	0	28	0	2854223872	59	4229
2026-01-15 05:39:57.51	293.70	20.10	-46.8	-47.9	15.0	0.00e+00	0	28	0	2859466752	59	4184
2026-01-15 05:39:58.51	293.51	20.01	-46.8	-47.9	15.0	0.00e+00	0	28	0	2865758208	59	4179
2026-01-15 05:39:59.49	293.33	19.93	-46.9	-48.0	15.0	0.00e+00	0	28	0	2871001088	59	4210
2026-01-15 05:40:00.49	293.15	19.84	-46.9	-48.1	15.0	0.00e+00	0	28	0	2876243968	59	4254
2026-01-15 05:40:01.49	292.97	19.75	-47.0	-48.1	15.0	0.00e+00	0	28	0	2881486848	59	4268
2026-01-15 05:40:02.47	292.79	19.66	-47.1	-48.3	14.9	0.00e+00	0	28	0	2887778304	59	4355
2026-01-15 05:40:03.46	292.61	19.57	-47.1	-48.3	14.9	0.00e+00	0	28	0	2893021184	59	4344
2026-01-15 05:40:04.46	292.43	19.49	-47.2	-48.4	14.9	0.00e+00	0	28	0	2899312640	59	4405
2026-01-15 05:40:05.46	292.26	19.40	-47.3	-48.4	14.9	0.00e+00	0	28	0	2904555520	59	4415
2026-01-15 05:40:06.45	292.08	19.31	-47.3	-48.4	14.9	0.00e+00	0	28	0	2909798400	59	4426
2026-01-15 05:40:07.45	291.91	19.22	-47.2	-48.3	14.9	0.00e+00	0	28	0	2915041280	59	4387
2026-01-15 05:40:08.44	291.73	19.13	-47.2	-48.3	14.9	0.00e+00	0	28	0	2921332736	59	4356
2026-01-15 05:40:09.44	291.56	19.05	-47.3	-48.4	14.9	0.00e+00	0	28	0	2926575616	59	4420
2026-01-15 05:40:10.44	291.39	18.96	-47.3	-48.5	14.9	0.00e+00	0	28	0	2932867072	59	4443
2026-01-15 05:40:11.44	291.22	18.87	-47.0	-48.1	15.0	0.00e+00	0	28	0	2938109952	60	4049
2026-01-15 05:40:12.43	291.05	18.78	-47.0	-48.1	15.0	0.00e+00	0	28	0	2943352832	60	4028
2026-01-15 05:40:13.43	290.88	18.69	-47.2	-48.3	15.0	0.00e+00	0	28	0	2949644288	60	4126
2026-01-15 05:40:14.43	290.71	18.61	-47.3	-48.4	14.9	0.00e+00	0	28	0	2954887168	60	4184
2026-01-15 05:40:15.44	290.54	18.52	-47.2	-48.3	15.0	0.00e+00	0	28	0	2960130048	60	4144
2026-01-15 05:40:16.44	290.37	18.43	-47.2	-48.3	15.0	0.00e+00	0	28	0	2966421504	60	4125
2026-01-15 05:40:17.43	290.21	18.34	-47.2	-48.4	15.0	0.00e+00	0	28	0	2971664384	60	4160
2026-01-15 05:40:18.43	290.04	18.25	-47.2	-48.3	15.0	0.00e+00	0	28	0	2976907264	60	4128
2026-01-15 05:40:19.43	289.88	18.17	-47.2	-48.4	14.9	0.00e+00	0	28	0	2983198720	60	4149
2026-01-15 05:40:20.44	289.72	18.08	-47.3	-48.4	14.9	0.00e+00	0	28	0	2988441600	60	4185
2026-01-15 05:40:21.43	289.56	17.99	-47.1	-48.2	15.0	0.00e+00	0	28	0	2994733056	60	4097
2026-01-15 05:40:22.43	289.40	17.90	-47.2	-48.3	15.0	0.00e+00	0	28	0	2999975936	60	4112
2026-01-15 05:40:23.42	289.24	17.82	-47.2	-48.3	15.0	0.00e+00	0	28	0	3005218816	60	4124
2026-01-15 05:40:24.42	289.08	17.73	-47.1	-48.2	15.0	0.00e+00	0	28	0	3011510272	60	4085
2026-01-15 05:40:25.42	288.92	17.64	-47.3	-48.4	14.9	0.00e+00	0	28	0	3016753152	60	4186
2026-01-15 05:40:26.41	288.77	17.56	-47.4	-48.5	14.9	0.00e+00	0	28	0	3021996032	60	4221
2026-01-15 05:40:27.41	288.61	17.47	-47.2	-48.4	15.0	0.00e+00	0	28	0	3028287488	60	4146
2026-01-15 05:40:28.41	288.46	17.38	-47.3	-48.5	14.9	0.00e+00	0	28	0	3033530368	60	4207
2026-01-15 05:40:29.40	288.30	17.30	-47.4	-48.5	14.9	0.00e+00	0	28	0	3038773248	60	4238
2026-01-15 05:40:30.40	288.15	17.21	-47.3	-48.5	14.9	0.00e+00	0	28	0	3045064704	60	4210
2026-01-15 05:40:31.41	288.00	17.12	-47.5	-48.7	14.9	0.00e+00	0	28	0	3050307584	60	4300
2026-01-15 05:40:32.40	287.85	17.04	-47.5	-48.7	14.8	0.00e+00	0	28	0	3055550464	60	4304
2026-01-15 05:40:33.40	287.69	16.95	-47.6	-48.7	14.8	0.00e+00	0	28	0	3061841920	60	4334
2026-01-15 05:40:34.41	287.54	16.86	-47.6	-48.8	14.8	0.00e+00	0	28	0	3067084800	60	4369
2026-01-15 05:40:35.40	287.40	16.78	-47.7	-48.9	14.8	0.00e+00	0	28	0	3072327680	60	4412
2026-01-15 05:40:36.40	287.25	16.69	-47.7	-48.9	14.8	0.00e+00	0	28	0	3078619136	60	4424
2026-01-15 05:40:37.40	287.10	16.60	-47.6	-48.8	14.8	0.00e+00	0	28	0	3083862016	60	4347
2026-01-15 05:40:38.40	286.95	16.52	-47.7	-48.9	14.8	0.00e+00	0	28	0	3089104896	60	4399
2026-01-15 05:40:39.39	286.81	16.43	-47.7	-48.9	14.8	0.00e+00	0	28	0	3095396352	60	4420
2026-01-15 05:40:40.39	286.67	16.35	-47.7	-48.8	14.8	0.00e+00	0	28	0	3100639232	60	4379
2026-01-15 05:40:41.39	286.52	16.26	-47.8	-48.9	14.8	0.00e+00	0	28	0	3106930688	60	4431
2026-01-15 05:40:42.38	286.38	16.18	-47.8	-49.0	14.7	0.00e+00	0	28	0	3112173568	60	4472
2026-01-15 05:40:43.37	286.24	16.09	-48.4	-49.2	14.7	0.00e+00	0	28	0	3117416448	61	4336
2026-01-15 05:40:44.38	286.10	16.01	-47.9	-49.1	14.8	0.00e+00	0	28	0	3123707904	61	4251
2026-01-15 05:40:45.38	285.96	15.92	-47.9	-49.1	14.8	0.00e+00	0	28	0	3128950784	61	4263
2026-01-15 05:40:46.39	285.81	15.83	-47.9	-49.0	14.8	0.00e+00	0	28	0	3134193664	61	4238
2026-01-15 05:40:47.39	285.68	15.75	-48.0	-49.2	14.8	0.00e+00	0	28	0	3140485120	61	4332
2026-01-15 05:40:48.39	285.54	15.66	-48.0	-49.2	14.8	0.00e+00	0	28	0	3145728000	61	4337
2026-01-15 05:40:49.39	285.40	15.58	-48.2	-49.4	14.7	0.00e+00	0	28	0	3150970880	61	4401
2026-01-15 05:40:50.39	285.26	15.50	-48.2	-49.4	14.7	0.00e+00	0	28	0	3157262336	61	4424
2026-01-15 05:40:51.39	285.13	15.41	-48.2	-49.4	14.7	0.00e+00	0	28	0	3162505216	61	4403
2026-01-15 05:40:52.39	284.99	15.33	-48.2	-49.4	14.7	0.00e+00	0	28	0	3168796672	61	4398
2026-01-15 05:40:53.39	284.86	15.24	-48.2	-49.5	14.7	0.00e+00	0	28	0	3174039552	61	4447
2026-01-15 05:40:54.39	284.73	15.16	-48.1	-49.3	14.7	0.00e+00	0	28	0	3179282432	61	4372
2026-01-15 05:40:55.39	284.59	15.07	-48.2	-49.4	14.7	0.00e+00	0	28	0	3185573888	61	4404
2026-01-15 05:40:56.39	284.46	14.99	-48.1	-49.3	14.7	0.00e+00	0	28	0	3190816768	61	4363
2026-01-15 05:40:57.39	284.33	14.91	-48.1	-49.2	14.7	0.00e+00	0	28	0	3196059648	61	4338
2026-01-15 05:40:58.38	284.20	14.82	-48.2	-49.3	14.7	0.00e+00	0	28	0	3202351104	61	4391
2026-01-15 05:40:59.38	284.07	14.74	-48.2	-49.4	14.7	0.00e+00	0	28	0	3207593984	61	4405
2026-01-15 05:41:00.38	283.94	14.66	-48.0	-49.2	14.8	0.00e+00	0	28	0	3212836864	61	4318
2026-01-15 05:41:01.36	283.82	14.58	-48.1	-49.3	14.7	0.00e+00	0	28	0	3219128320	61	4389
2026-01-15 05:41:02.35	283.69	14.49	-48.2	-49.4	14.7	0.00e+00	0	28	0	3224371200	61	4438
2026-01-15 05:41:03.35	283.56	14.41	-48.2	-49.4	14.7	0.00e+00	0	28	0	3229614080	61	4431
2026-01-15 05:41:04.35	283.44	14.33	-48.2	-49.4	14.7	0.00e+00	0	28	0	3235905536	61	4419
2026-01-15 05:41:05.35	283.31	14.25	-48.1	-49.3	14.7	0.00e+00	0	28	0	3241148416	61	4379
2026-01-15 05:41:06.35	283.19	14.16	-48.2	-49.5	14.7	0.00e+00	0	28	0	3246391296	61	4447
2026-01-15 05:41:07.34	283.07	14.08	-48.1	-49.3	14.7	0.00e+00	0	28	0	3252682752	61	4353
2026-01-15 05:41:08.34	282.94	14.00	-48.1	-49.3	14.7	0.00e+00	0	28	0	3257925632	61	4364
2026-01-15 05:41:09.34	282.82	13.92	-48.1	-49.3	14.7	0.00e+00	0	28	0	3263168512	61	4341
2026-01-15 05:41:10.34	282.70	13.84	-48.1	-49.3	14.7	0.00e+00	0	28	0	3269459968	61	4372
2026-01-15 05:41:11.33	282.58	13.75	-48.3	-49.5	14.7	0.00e+00	0	28	0	3274702848	61	4452
2026-01-15 05:41:12.34	282.46	13.67	-48.3	-49.5	14.7	0.00e+00	0	28	0	3280994304	61	4475
2026-01-15 05:41:13.34	282.34	13.59	-48.4	-49.7	14.6	0.00e+00	0	28	0	3286237184	61	4552
2026-01-15 05:41:14.34	282.22	13.51	-48.5	-49.8	14.7	0.00e+00	0	28	0	3291480064	62	4342
2026-01-15 05:41:15.34	282.10	13.43	-48.5	-49.8	14.7	0.00e+00	0	28	0	3297771520	62	4346
2026-01-15 05:41:16.34	281.98	13.35	-48.6	-49.9	14.6	0.00e+00	0	28	0	3303014400	62	4408
2026-01-15 05:41:17.34	281.86	13.27	-48.7	-49.9	14.6	0.00e+00	0	28	0	3308257280	62	4431
2026-01-15 05:41:18.33	281.75	13.19	-48.8	-50.1	14.5	0.00e+00	0	28	0	3314548736	62	4500
2026-01-15 05:41:19.33	281.63	13.11	-48.6	-49.8	14.6	0.00e+00	0	28	0	3319791616	62	4372
2026-01-15 05:41:20.33	281.52	13.03	-48.5	-49.7	14.7	0.00e+00	0	28	0	3325034496	62	4314
2026-01-15 05:41:21.34	281.40	12.94	-48.5	-49.8	14.7	0.00e+00	0	28	0	3331325952	62	4349
2026-01-15 05:41:22.34	281.29	12.86	-48.5	-49.7	14.7	0.00e+00	0	28	0	3336568832	62	4330
2026-01-15 05:41:23.34	281.18	12.78	-48.6	-49.9	14.6	0.00e+00	0	28	0	3342860288	62	4408
2026-01-15 05:41:24.33	281.06	12.70	-48.7	-49.9	14.6	0.00e+00	0	28	0	3348103168	62	4437
2026-01-15 05:41:25.33	280.95	12.63	-48.6	-49.9	14.6	0.00e+00	0	28	0	3353346048	62	4409
2026-01-15 05:41:26.33	280.84	12.55	-48.7	-50.0	14.6	0.00e+00	0	28	0	3359637504	62	4466
2026-01-15 05:41:27.33	280.73	12.47	-48.7	-50.0	14.6	0.00e+00	0	28	0	3364880384	62	4461
2026-01-15 05:41:28.33	280.62	12.39	-48.9	-50.2	14.5	0.00e+00	0	28	0	3370123264	62	4584
2026-01-15 05:41:29.33	280.51	12.31	-48.8	-50.0	14.7	0.00e+00	0	28	0	3376414720	63	4224
2026-01-15 05:41:30.33	280.40	12.23	-48.8	-50.0	14.7	0.00e+00	0	28	0	3381657600	63	4228
2026-01-15 05:41:31.33	280.29	12.15	-48.7	-49.9	14.7	0.00e+00	0	28	0	3386900480	63	4190
2026-01-15 05:41:32.33	280.19	12.07	-48.6	-49.8	14.7	0.00e+00	0	28	0	3393191936	63	4137
2026-01-15 05:41:33.33	280.08	11.99	-48.8	-50.1	14.6	0.00e+00	0	28	0	3398434816	63	4266
2026-01-15 05:41:34.33	279.97	11.91	-48.8	-50.0	14.6	0.00e+00	0	28	0	3404726272	63	4241
2026-01-15 05:41:35.33	279.87	11.84	-48.6	-49.8	14.7	0.00e+00	0	28	0	3409969152	63	4137
2026-01-15 05:41:36.32	279.76	11.76	-48.7	-50.0	14.7	0.00e+00	0	28	0	3415212032	63	4209
2026-01-15 05:41:37.32	279.66	11.68	-48.7	-50.0	14.7	0.00e+00	0	28	0	3421503488	63	4210
2026-01-15 05:41:38.32	279.55	11.60	-48.9	-50.2	14.6	0.00e+00	0	28	0	3426746368	63	4293
2026-01-15 05:41:39.32	279.45	11.53	-48.9	-50.1	14.6	0.00e+00	0	28	0	3431989248	63	4281
2026-01-15 05:41:40.32	279.35	11.45	-49.0	-50.3	14.5	0.00e+00	0	28	0	3438280704	63	4360
2026-01-15 05:41:41.32	279.24	11.37	-49.0	-50.3	14.5	0.00e+00	0	28	0	3443523584	63	4373
2026-01-15 05:41:42.31	279.14	11.30	-49.0	-50.3	14.5	0.00e+00	0	28	0	3448766464	63	4344
2026-01-15 05:41:43.30	279.04	11.22	-49.1	-50.4	14.5	0.00e+00	0	28	0	3455057920	63	4396
2026-01-15 05:41:44.30	278.94	11.14	-49.0	-50.3	14.5	0.00e+00	0	28	0	3460300800	63	4362
2026-01-15 05:41:45.30	278.84	11.07	-49.0	-50.3	14.5	0.00e+00	0	28	0	3465543680	63	4355
2026-01-15 05:41:46.30	278.74	10.99	-49.0	-50.3	14.5	0.00e+00	0	28	0	3471835136	63	4357
2026-01-15 05:41:47.29	278.64	10.91	-49.0	-50.3	14.5	0.00e+00	0	28	0	3477078016	63	4381
2026-01-15 05:41:48.29	278.54	10.84	-49.0	-50.3	14.5	0.00e+00	0	28	0	3482320896	63	4377
2026-01-15 05:41:49.29	278.45	10.76	-49.0	-50.3	14.5	0.00e+00	0	28	0	3488612352	63	4368
2026-01-15 05:41:50.30	278.35	10.68	-49.1	-50.4	14.5	0.00e+00	0	28	0	3493855232	63	4437
2026-01-15 05:41:51.30	278.25	10.61	-49.0	-50.3	14.5	0.00e+00	0	28	0	3499098112	63	4364
2026-01-15 05:41:52.30	278.15	10.53	-49.1	-50.4	14.5	0.00e+00	0	28	0	3505389568	63	4392
2026-01-15 05:41:53.30	278.06	10.46	-49.0	-50.3	14.5	0.00e+00	0	28	0	3510632448	63	4372
2026-01-15 05:41:54.30	277.96	10.38	-49.0	-50.3	14.5	0.00e+00	0	28	0	3516923904	63	4379
2026-01-15 05:41:55.30	277.87	10.31	-49.1	-50.4	14.5	0.00e+00	0	28	0	3522166784	63	4436
2026-01-15 05:41:56.29	277.77	10.23	-49.1	-50.5	14.5	0.00e+00	0	28	0	3527409664	63	4454
2026-01-15 05:41:57.29	277.68	10.16	-49.3	-50.6	14.4	0.00e+00	0	28	0	3533701120	63	4520
2026-01-15 05:41:58.28	277.58	10.08	-49.3	-50.6	14.4	0.00e+00	0	28	0	3538944000	63	4540
2026-01-15 05:41:59.27	277.49	10.01	-49.3	-50.7	14.4	0.00e+00	0	28	0	3544186880	63	4548
2026-01-15 05:42:00.26	277.40	9.94	-49.3	-50.7	14.4	0.00e+00	0	28	0	3550478336	63	4571
2026-01-15 05:42:01.26	277.31	9.86	-49.3	-50.6	14.4	0.00e+00	0	28	0	3555721216	63	4528
2026-01-15 05:42:02.25	277.22	9.79	-49.2	-50.5	14.4	0.00e+00	0	28	0	3560964096	63	4475
2026-01-15 05:42:03.25	277.13	9.72	-49.4	-50.7	14.4	0.00e+00	0	28	0	3567255552	63	4577
2026-01-15 05:42:04.24	277.04	9.64	-49.3	-50.6	14.4	0.00e+00	0	28	0	3572498432	63	4531
2026-01-15 05:42:05.24	276.95	9.57	-49.4	-50.7	14.4	0.00e+00	0	28	0	3577741312	64	4309
2026-01-15 05:42:06.24	276.86	9.50	-49.4	-50.7	14.4	0.00e+00	0	28	0	3584032768	64	4327
2026-01-15 05:42:07.24	276.77	9.42	-49.4	-50.7	14.4	0.00e+00	0	28	0	3589275648	64	4332
2026-01-15 05:42:08.24	276.68	9.35	-49.5	-50.9	14.4	0.00e+00	0	28	0	3594518528	64	4396
2026-01-15 05:42:09.24	276.59	9.28	-49.3	-50.7	14.4	0.00e+00	0	28	0	3600809984	64	4311
2026-01-15 05:42:10.24	276.50	9.20	-49.2	-50.6	14.5	0.00e+00	0	28	0	3606052864	64	4249
2026-01-15 05:42:11.23	276.42	9.13	-49.4	-50.7	14.4	0.00e+00	0	28	0	3612344320	64	4330
2026-01-15 05:42:12.23	276.33	9.06	-49.3	-50.6	14.5	0.00e+00	0	28	0	3617587200	64	4269
2026-01-15 05:42:13.22	276.24	8.99	-49.3	-50.7	14.4	0.00e+00	0	28	0	3622830080	64	4295
