passes_logs/2026/01/15/R3.2S_Murmansk/R3.2S_Murmansk__20260115_022010_AQUA_rec.log

#Pass ID: 20260115_022010_AQUA
#Satellite: AQUA
#Configuration: AQUA
#almurnet v.1.7.20251203
#Start time: 2026-01-15 02:20:09

#Version: 2.2.20231116
#Station: R3.2S_Murmansk
#Location: 33.079688 lon 68.888172 lat
#TLE: 1 27424U 02022A   26014.61231444  .00000653  00000+0  14070-3 0  9991
#TLE: 2 27424  98.4080 341.0332 0002042  78.9336 335.9961 14.61820174260839

#Time	Az	El	Level	Level2	SNR	BER	BlckErr	Temp	State	Recorded	gain1	gain2
2026-01-15 02:20:09.99	23.60	1.99	-57.9	-77.1	3.8	7.46e-01	0	25	0	0	84	33213
2026-01-15 02:20:10.99	23.61	2.06	-57.8	-77.0	3.8	7.48e-01	0	26	104	0	83	34780
2026-01-15 02:20:11.99	23.61	2.12	-57.8	-77.1	3.8	7.49e-01	0	26	104	0	83	35096
2026-01-15 02:20:12.98	23.61	2.19	-57.8	-77.1	3.8	7.49e-01	0	26	104	0	83	35159
2026-01-15 02:20:13.97	23.62	2.25	-57.8	-77.1	3.8	7.44e-01	0	26	104	0	83	35020
2026-01-15 02:20:14.97	23.62	2.32	-57.8	-77.0	3.8	7.46e-01	0	26	104	0	83	34586
2026-01-15 02:20:15.97	23.62	2.39	-57.8	-76.8	3.8	7.44e-01	0	26	104	0	83	33718
2026-01-15 02:20:16.97	23.63	2.46	-57.8	-76.4	3.8	7.46e-01	0	26	104	0	83	32200
2026-01-15 02:20:17.96	23.63	2.52	-57.8	-76.0	3.8	7.47e-01	0	26	104	0	83	30813
2026-01-15 02:20:18.95	23.63	2.59	-57.7	-75.3	3.9	7.45e-01	0	26	104	0	83	28593
2026-01-15 02:20:19.95	23.64	2.66	-57.7	-74.8	3.8	7.41e-01	0	26	104	0	83	27025
2026-01-15 02:20:20.96	23.64	2.73	-57.7	-73.9	4.2	7.36e-01	0	26	104	0	83	24148
2026-01-15 02:20:21.96	23.64	2.79	-57.7	-73.6	3.9	7.42e-01	0	26	104	0	83	23580
2026-01-15 02:20:22.95	23.65	2.86	-57.7	-72.4	4.6	7.22e-01	0	26	104	0	83	20437
2026-01-15 02:20:23.96	23.65	2.93	-57.7	-73.2	3.9	7.39e-01	0	26	104	0	83	22307
2026-01-15 02:20:24.96	23.65	3.00	-57.7	-73.3	4.0	7.40e-01	0	26	104	0	83	22558
2026-01-15 02:20:25.96	23.66	3.07	-57.7	-72.9	3.9	7.43e-01	0	26	104	0	83	21568
2026-01-15 02:20:26.96	23.66	3.14	-57.6	-71.8	4.9	7.16e-01	0	26	0	0	83	19021
2026-01-15 02:20:27.96	23.66	3.21	-57.7	-72.2	4.4	7.18e-01	0	26	104	0	83	20042
2026-01-15 02:20:28.96	23.67	3.28	-57.6	-71.9	4.8	7.16e-01	0	26	104	0	83	19319
2026-01-15 02:20:29.96	23.67	3.34	-57.6	-71.2	5.1	7.07e-01	0	26	0	0	83	17735
2026-01-15 02:20:30.97	23.67	3.42	-57.5	-69.2	6.3	6.70e-01	92	26	0	1048576	83	14139
2026-01-15 02:20:31.97	23.68	3.49	-57.3	-67.2	8.0	6.38e-01	3	26	0	2621440	83	11202
2026-01-15 02:20:32.98	23.68	3.56	-57.2	-66.4	8.7	6.27e-01	0	26	0	4718592	83	10195
2026-01-15 02:20:33.98	23.68	3.63	-56.9	-64.7	10.1	6.15e-01	0	26	0	6291456	83	8406
2026-01-15 02:20:34.98	23.69	3.70	-56.5	-63.1	11.3	6.09e-01	0	26	0	8388608	82	7455
2026-01-15 02:20:35.97	23.69	3.77	-56.3	-62.4	11.8	6.06e-01	0	26	0	9961472	81	7223
2026-01-15 02:20:36.97	23.69	3.84	-55.6	-60.5	12.9	6.04e-01	0	26	0	12058624	80	6149
2026-01-15 02:20:37.97	23.70	3.91	-55.4	-59.9	13.3	6.03e-01	0	26	0	14155776	80	5776
2026-01-15 02:20:38.98	23.70	3.98	-55.2	-59.5	13.5	6.04e-01	0	26	0	15728640	79	5815
2026-01-15 02:20:39.98	23.70	4.05	-55.0	-59.0	13.8	6.04e-01	0	26	0	17825792	79	5506
2026-01-15 02:20:40.98	23.71	4.13	-54.8	-58.7	13.8	6.02e-01	0	26	0	19398656	78	5649
2026-01-15 02:20:41.98	23.71	4.20	-54.4	-57.9	14.2	6.04e-01	0	26	0	21495808	78	5126
2026-01-15 02:20:42.98	23.71	4.27	-54.3	-57.9	14.1	6.03e-01	0	26	0	23592960	77	5404
2026-01-15 02:20:43.98	23.72	4.34	-54.5	-58.2	14.0	6.01e-01	0	26	0	25165824	77	5603
2026-01-15 02:20:44.98	23.72	4.41	-54.6	-58.4	13.8	6.03e-01	0	26	0	27262976	77	5767
2026-01-15 02:20:45.98	23.72	4.49	-54.7	-58.5	13.8	6.02e-01	0	26	0	28835840	77	5851
2026-01-15 02:20:46.97	23.73	4.56	-54.9	-58.9	13.6	6.03e-01	0	26	0	30932992	77	6067
2026-01-15 02:20:47.97	23.73	4.63	-55.3	-59.7	13.3	6.04e-01	0	26	0	32505856	78	6321
2026-01-15 02:20:48.97	23.73	4.71	-55.3	-59.7	13.2	6.03e-01	0	26	0	34603008	78	6331
2026-01-15 02:20:49.98	23.74	4.78	-55.7	-60.6	12.8	6.03e-01	0	26	0	36175872	79	6592
2026-01-15 02:20:50.98	23.74	4.86	-55.9	-61.1	12.5	6.05e-01	0	26	0	38273024	79	7016
2026-01-15 02:20:51.99	23.74	4.93	-56.0	-61.5	12.3	6.05e-01	0	27	0	40370176	79	7326
2026-01-15 02:20:52.98	23.75	5.00	-56.3	-62.3	11.7	6.08e-01	0	26	0	41943040	80	7626
2026-01-15 02:20:53.98	23.75	5.08	-54.0	-57.2	14.4	6.04e-01	0	26	0	44040192	77	5029
2026-01-15 02:20:54.97	23.75	5.15	-56.4	-62.8	11.5	6.09e-01	0	26	0	45613056	80	8019
2026-01-15 02:20:55.97	23.76	5.23	-56.9	-64.7	10.2	6.15e-01	0	27	0	47710208	81	9409
2026-01-15 02:20:56.98	23.76	5.30	-54.4	-57.8	14.3	6.02e-01	0	27	0	49283072	78	5064
2026-01-15 02:20:57.98	23.76	5.38	-57.6	-71.0	5.5	7.01e-01	23	27	0	51380224	82	18458
2026-01-15 02:20:58.98	23.77	5.46	-54.5	-57.8	14.2	6.01e-01	0	27	0	51904512	78	5093
2026-01-15 02:20:59.98	23.77	5.53	-54.3	-57.6	14.3	6.02e-01	0	27	0	53477376	77	5237
2026-01-15 02:21:00.97	23.77	5.61	-54.5	-57.9	14.1	6.06e-01	0	27	0	55574528	77	5422
2026-01-15 02:21:01.98	23.77	5.69	-54.2	-57.5	14.3	6.02e-01	0	27	0	57147392	77	5182
2026-01-15 02:21:02.98	23.78	5.76	-54.2	-57.5	14.3	6.03e-01	0	27	0	59244544	77	5167
2026-01-15 02:21:03.98	23.78	5.84	-54.0	-57.1	14.5	6.03e-01	0	27	0	61341696	77	4976
2026-01-15 02:21:04.98	23.78	5.92	-54.0	-57.0	14.5	6.02e-01	0	27	0	62914560	77	4926
2026-01-15 02:21:05.98	23.79	5.99	-53.2	-55.9	14.8	6.04e-01	0	27	0	65011712	75	4818
2026-01-15 02:21:06.97	23.79	6.07	-53.0	-55.6	14.9	6.02e-01	0	27	0	66584576	75	4658
2026-01-15 02:21:07.97	23.79	6.15	-52.9	-55.5	14.8	6.02e-01	0	27	0	68681728	74	4887
2026-01-15 02:21:08.97	23.80	6.23	-52.1	-54.4	15.1	6.04e-01	0	27	0	70254592	73	4580
2026-01-15 02:21:09.97	23.80	6.31	-52.3	-54.6	15.0	6.04e-01	0	27	0	72351744	73	4665
2026-01-15 02:21:10.96	23.80	6.39	-51.9	-54.1	15.1	6.04e-01	0	27	0	74448896	72	4681
2026-01-15 02:21:11.96	23.81	6.46	-52.1	-54.4	15.0	6.01e-01	0	27	0	76021760	72	4846
2026-01-15 02:21:12.96	23.81	6.54	-51.9	-54.1	15.1	6.03e-01	0	27	0	78118912	72	4667
2026-01-15 02:21:13.95	23.81	6.62	-52.0	-54.3	15.0	6.04e-01	0	27	0	79691776	72	4767
2026-01-15 02:21:14.95	23.81	6.70	-51.8	-53.9	15.1	6.02e-01	0	27	0	81788928	72	4571
2026-01-15 02:21:15.95	23.82	6.78	-51.8	-54.0	15.1	6.01e-01	0	27	0	83886080	72	4635
2026-01-15 02:21:16.95	23.82	6.86	-51.7	-53.8	15.2	6.02e-01	0	27	0	85458944	72	4521
2026-01-15 02:21:17.95	23.82	6.95	-51.7	-53.8	15.2	6.02e-01	0	27	0	87556096	72	4508
2026-01-15 02:21:18.95	23.83	7.03	-51.8	-53.9	15.2	6.02e-01	0	27	0	89128960	72	4569
2026-01-15 02:21:19.95	23.83	7.11	-51.9	-54.1	15.1	6.03e-01	0	27	0	91226112	72	4655
2026-01-15 02:21:20.95	23.83	7.19	-51.8	-53.9	15.2	6.03e-01	0	27	0	92798976	72	4554
2026-01-15 02:21:21.94	23.84	7.27	-52.0	-54.2	15.0	6.04e-01	0	27	0	94896128	72	4751
2026-01-15 02:21:22.94	23.84	7.35	-51.9	-54.1	15.1	6.03e-01	0	27	0	96993280	72	4668
2026-01-15 02:21:23.94	23.84	7.44	-51.9	-54.1	15.1	6.03e-01	0	27	0	98566144	72	4669
2026-01-15 02:21:24.94	23.84	7.52	-51.6	-53.6	15.2	6.02e-01	0	27	0	100663296	72	4427
2026-01-15 02:21:25.94	23.85	7.60	-51.5	-53.5	15.3	6.03e-01	0	27	0	102236160	72	4382
2026-01-15 02:21:26.93	23.85	7.69	-51.7	-53.7	15.2	6.01e-01	0	27	0	104333312	72	4485
2026-01-15 02:21:27.94	23.85	7.77	-51.2	-53.2	15.3	6.04e-01	0	27	0	105906176	71	4463
2026-01-15 02:21:28.93	23.86	7.85	-51.3	-53.3	15.2	6.04e-01	0	27	0	108003328	71	4518
2026-01-15 02:21:29.93	23.86	7.94	-51.4	-53.4	15.2	6.03e-01	0	27	0	109576192	71	4589
2026-01-15 02:21:30.93	23.86	8.02	-51.5	-53.5	15.1	6.02e-01	0	27	0	111673344	71	4621
2026-01-15 02:21:31.92	23.86	8.11	-51.4	-53.4	15.2	6.02e-01	0	27	0	113770496	71	4590
2026-01-15 02:21:32.92	23.87	8.19	-51.2	-53.2	15.2	6.05e-01	0	27	0	115343360	71	4482
2026-01-15 02:21:33.91	23.87	8.28	-51.4	-53.5	15.2	6.04e-01	0	27	0	117440512	71	4600
2026-01-15 02:21:34.91	23.87	8.36	-51.1	-53.0	15.3	6.03e-01	0	27	0	119013376	71	4367
2026-01-15 02:21:35.91	23.88	8.45	-51.2	-53.2	15.3	6.02e-01	0	27	0	121110528	71	4445
2026-01-15 02:21:36.92	23.88	8.54	-51.1	-53.1	15.3	6.02e-01	0	27	0	122683392	71	4404
2026-01-15 02:21:37.92	23.88	8.62	-51.0	-53.0	15.3	6.03e-01	0	27	0	124780544	71	4348
2026-01-15 02:21:38.92	23.88	8.71	-51.3	-53.3	15.2	6.05e-01	0	27	0	126877696	71	4494
2026-01-15 02:21:39.92	23.89	8.80	-51.0	-52.9	15.3	6.00e-01	0	27	0	128450560	71	4325
2026-01-15 02:21:40.91	23.89	8.89	-50.9	-52.8	15.4	6.03e-01	0	27	0	130547712	71	4269
2026-01-15 02:21:41.91	23.89	8.98	-51.0	-53.0	15.3	6.04e-01	0	27	0	132120576	71	4349
2026-01-15 02:21:42.91	23.90	9.06	-51.0	-52.9	15.4	6.03e-01	0	27	0	134217728	71	4336
2026-01-15 02:21:43.90	23.90	9.15	-51.0	-52.9	15.4	6.04e-01	0	27	0	135790592	71	4304
2026-01-15 02:21:44.90	23.90	9.24	-51.0	-52.9	15.3	6.02e-01	0	27	0	137887744	71	4330
2026-01-15 02:21:45.91	23.90	9.33	-50.9	-52.8	15.4	6.05e-01	0	27	0	139984896	71	4255
2026-01-15 02:21:46.90	23.91	9.42	-50.9	-52.7	15.3	6.03e-01	0	27	0	141557760	70	4480
2026-01-15 02:21:47.90	23.91	9.51	-50.9	-52.8	15.3	6.04e-01	0	27	0	143654912	70	4508
2026-01-15 02:21:48.90	23.91	9.60	-50.8	-52.7	15.3	6.02e-01	0	27	0	145227776	70	4460
2026-01-15 02:21:49.90	23.92	9.70	-50.9	-52.8	15.3	6.04e-01	0	27	0	147324928	70	4505
2026-01-15 02:21:50.90	23.92	9.79	-50.8	-52.7	15.3	6.03e-01	0	27	0	149422080	70	4449
2026-01-15 02:21:51.90	23.92	9.88	-50.8	-52.7	15.3	6.01e-01	0	27	0	150994944	70	4445
2026-01-15 02:21:52.90	23.92	9.97	-50.7	-52.6	15.3	6.04e-01	0	27	0	153092096	70	4402
2026-01-15 02:21:53.90	23.93	10.06	-50.7	-52.5	15.3	6.03e-01	0	27	0	154664960	70	4377
2026-01-15 02:21:54.90	23.93	10.16	-50.8	-52.7	15.3	6.03e-01	0	27	0	156762112	70	4455
2026-01-15 02:21:55.89	23.93	10.25	-50.7	-52.6	15.3	6.02e-01	0	27	0	158334976	70	4405
2026-01-15 02:21:56.89	23.93	10.35	-50.7	-52.5	15.3	6.06e-01	0	27	0	160432128	70	4383
2026-01-15 02:21:57.89	23.94	10.44	-50.8	-52.6	15.3	6.04e-01	0	27	0	162529280	70	4424
2026-01-15 02:21:58.88	23.94	10.53	-50.7	-52.5	15.3	6.03e-01	0	27	0	164102144	70	4382
2026-01-15 02:21:59.87	23.94	10.63	-50.6	-52.4	15.4	6.03e-01	0	27	0	166199296	70	4318
2026-01-15 02:22:00.87	23.94	10.72	-50.7	-52.6	15.3	6.02e-01	0	27	0	167772160	70	4397
2026-01-15 02:22:01.87	23.95	10.82	-50.6	-52.4	15.4	6.02e-01	0	27	0	169869312	70	4317
2026-01-15 02:22:02.86	23.95	10.92	-50.7	-52.5	15.3	6.05e-01	0	27	0	171442176	70	4360
2026-01-15 02:22:03.86	23.95	11.01	-50.6	-52.4	15.4	6.02e-01	0	27	0	173539328	70	4333
2026-01-15 02:22:04.86	23.95	11.11	-50.6	-52.4	15.4	6.04e-01	0	27	0	175112192	70	4309
2026-01-15 02:22:05.85	23.96	11.21	-50.7	-52.5	15.3	6.03e-01	0	27	0	177209344	70	4369
2026-01-15 02:22:06.85	23.96	11.30	-50.6	-52.4	15.4	6.04e-01	0	27	0	179306496	70	4329
2026-01-15 02:22:07.85	23.96	11.40	-50.6	-52.4	15.4	6.02e-01	0	27	0	180879360	70	4301
2026-01-15 02:22:08.85	23.96	11.50	-50.5	-52.3	15.4	6.02e-01	0	27	0	182976512	70	4274
2026-01-15 02:22:09.85	23.97	11.60	-50.6	-52.4	15.4	6.01e-01	0	27	0	184549376	70	4295
2026-01-15 02:22:10.85	23.97	11.70	-50.6	-52.4	15.4	6.04e-01	0	27	0	186646528	70	4330
2026-01-15 02:22:11.84	23.97	11.80	-50.5	-52.4	15.4	6.00e-01	0	27	0	188219392	70	4292
2026-01-15 02:22:12.84	23.97	11.90	-50.7	-52.5	15.3	6.01e-01	0	27	0	190316544	70	4371
2026-01-15 02:22:13.84	23.98	12.00	-50.6	-52.4	15.4	6.03e-01	0	27	0	192413696	70	4326
2026-01-15 02:22:14.83	23.98	12.11	-50.6	-52.4	15.4	6.04e-01	0	27	0	193986560	70	4314
2026-01-15 02:22:15.83	23.98	12.21	-50.5	-52.3	15.4	6.03e-01	0	27	0	196083712	70	4269
2026-01-15 02:22:16.82	23.98	12.31	-50.5	-52.2	15.4	6.02e-01	0	27	0	197656576	70	4229
2026-01-15 02:22:17.82	23.99	12.41	-50.5	-52.3	15.4	6.02e-01	0	27	0	199753728	70	4252
2026-01-15 02:22:18.82	23.99	12.52	-50.5	-52.3	15.4	6.03e-01	0	27	0	201326592	70	4280
2026-01-15 02:22:19.81	23.99	12.62	-50.6	-52.4	15.4	6.02e-01	0	27	0	203423744	70	4298
2026-01-15 02:22:20.80	23.99	12.72	-50.5	-52.2	15.4	6.02e-01	0	27	0	204996608	70	4238
2026-01-15 02:22:21.79	23.99	12.83	-50.6	-52.4	15.4	6.03e-01	0	27	0	207093760	70	4317
2026-01-15 02:22:22.79	24.00	12.93	-50.4	-52.2	15.5	6.03e-01	0	27	0	209190912	70	4196
2026-01-15 02:22:23.78	24.00	13.04	-50.3	-52.1	15.3	6.02e-01	0	27	0	210763776	69	4404
2026-01-15 02:22:24.78	24.00	13.15	-50.5	-52.2	15.3	6.01e-01	0	27	0	212860928	69	4486
2026-01-15 02:22:25.78	24.00	13.25	-50.4	-52.1	15.3	6.05e-01	0	27	0	214433792	69	4440
2026-01-15 02:22:26.77	24.01	13.36	-50.3	-52.0	15.3	6.02e-01	0	27	0	216530944	69	4387
2026-01-15 02:22:27.77	24.01	13.47	-50.3	-52.0	15.3	6.00e-01	0	27	0	218103808	69	4388
2026-01-15 02:22:28.77	24.01	13.58	-50.2	-51.9	15.4	6.04e-01	0	27	0	220200960	69	4325
2026-01-15 02:22:29.77	24.01	13.69	-50.2	-51.9	15.4	6.05e-01	0	27	0	221773824	69	4311
2026-01-15 02:22:30.76	24.01	13.80	-50.2	-51.9	15.4	6.05e-01	0	27	0	223870976	69	4318
2026-01-15 02:22:31.76	24.02	13.91	-50.0	-51.7	15.5	6.03e-01	0	27	0	225968128	69	4199
2026-01-15 02:22:32.77	24.02	14.02	-50.0	-51.7	15.5	6.03e-01	0	27	0	227540992	69	4196
2026-01-15 02:22:33.76	24.02	14.13	-50.0	-51.7	15.4	6.03e-01	0	27	0	229638144	69	4215
2026-01-15 02:22:34.76	24.02	14.24	-50.0	-51.7	15.4	6.04e-01	0	27	0	231211008	69	4199
2026-01-15 02:22:35.75	24.03	14.35	-50.0	-51.7	15.4	6.03e-01	0	27	0	233308160	69	4197
2026-01-15 02:22:36.75	24.03	14.47	-49.9	-51.5	15.3	6.03e-01	0	27	0	234881024	68	4391
2026-01-15 02:22:37.75	24.03	14.58	-49.9	-51.6	15.3	6.01e-01	0	27	0	236978176	68	4411
2026-01-15 02:22:38.74	24.03	14.69	-49.9	-51.6	15.3	6.03e-01	0	27	0	239075328	68	4429
2026-01-15 02:22:39.74	24.03	14.81	-50.0	-51.7	15.3	6.04e-01	0	27	0	240648192	68	4489
2026-01-15 02:22:40.75	24.04	14.93	-50.1	-51.8	15.3	6.01e-01	0	27	0	242745344	68	4514
2026-01-15 02:22:41.75	24.04	15.04	-50.0	-51.7	15.3	6.03e-01	0	27	0	244318208	68	4473
2026-01-15 02:22:42.75	24.04	15.16	-50.1	-51.8	15.3	6.01e-01	0	27	0	246415360	68	4506
2026-01-15 02:22:43.74	24.04	15.28	-50.2	-51.9	15.3	6.03e-01	0	27	0	248512512	68	4563
2026-01-15 02:22:44.74	24.04	15.39	-50.2	-51.9	15.3	6.03e-01	0	27	0	250085376	68	4575
2026-01-15 02:22:45.72	24.05	15.51	-50.1	-51.8	15.3	6.04e-01	0	27	0	251658240	68	4543
2026-01-15 02:22:46.72	24.05	15.63	-50.2	-52.0	15.2	6.02e-01	0	27	0	253755392	68	4607
2026-01-15 02:22:47.73	24.05	15.75	-50.2	-51.9	15.3	6.04e-01	0	27	0	255852544	68	4554
2026-01-15 02:22:48.72	24.05	15.87	-50.1	-51.8	15.3	6.03e-01	0	27	0	257425408	68	4523
2026-01-15 02:22:49.73	24.05	15.99	-50.1	-51.8	15.3	6.02e-01	0	27	0	259522560	68	4532
2026-01-15 02:22:50.73	24.05	16.12	-50.1	-51.8	15.3	6.04e-01	0	27	0	261095424	68	4505
2026-01-15 02:22:51.73	24.06	16.24	-50.0	-51.8	15.3	6.05e-01	0	27	0	263192576	68	4494
2026-01-15 02:22:52.73	24.06	16.36	-50.0	-51.7	15.3	6.02e-01	0	27	0	265289728	68	4464
2026-01-15 02:22:53.74	24.06	16.49	-50.1	-51.8	15.3	6.04e-01	0	27	0	266862592	68	4517
2026-01-15 02:22:54.74	24.06	16.61	-50.0	-51.7	15.3	6.03e-01	0	27	0	268959744	68	4465
2026-01-15 02:22:55.73	24.06	16.74	-50.1	-51.8	15.3	6.04e-01	0	27	0	270532608	68	4502
2026-01-15 02:22:56.73	24.06	16.87	-49.9	-51.6	15.4	6.03e-01	0	27	0	272629760	68	4402
2026-01-15 02:22:57.73	24.07	16.99	-49.9	-51.6	15.3	6.03e-01	0	27	0	274202624	68	4425
2026-01-15 02:22:58.73	24.07	17.12	-49.9	-51.5	15.4	6.04e-01	0	27	0	276299776	68	4391
2026-01-15 02:22:59.72	24.07	17.25	-49.9	-51.6	15.3	6.03e-01	0	27	0	278396928	68	4405
2026-01-15 02:23:00.72	24.07	17.38	-49.8	-51.5	15.4	6.05e-01	0	27	0	279969792	68	4350
2026-01-15 02:23:01.72	24.07	17.51	-49.8	-51.4	15.4	6.02e-01	0	27	0	282066944	68	4333
2026-01-15 02:23:02.72	24.07	17.64	-49.8	-51.4	15.4	6.02e-01	0	27	0	283639808	68	4327
2026-01-15 02:23:03.71	24.08	17.77	-49.8	-51.5	15.4	6.03e-01	0	27	0	285736960	68	4344
2026-01-15 02:23:04.71	24.08	17.90	-49.8	-51.5	15.4	6.02e-01	0	27	0	287309824	68	4348
2026-01-15 02:23:05.69	24.08	18.03	-49.9	-51.6	15.3	6.02e-01	0	27	0	289406976	68	4410
2026-01-15 02:23:06.70	24.08	18.17	-49.9	-51.6	15.4	6.02e-01	0	27	0	291504128	68	4407
2026-01-15 02:23:07.69	24.08	18.30	-50.0	-51.7	15.3	6.03e-01	0	27	0	293076992	68	4474
2026-01-15 02:23:08.69	24.08	18.44	-50.0	-51.7	15.3	6.01e-01	0	27	0	295174144	68	4485
2026-01-15 02:23:09.69	24.08	18.57	-50.0	-51.7	15.3	6.02e-01	0	27	0	296747008	68	4479
2026-01-15 02:23:10.68	24.08	18.71	-50.1	-51.8	15.3	6.03e-01	0	27	0	298844160	68	4525
2026-01-15 02:23:11.68	24.09	18.85	-50.1	-51.8	15.3	6.02e-01	0	27	0	300417024	68	4531
2026-01-15 02:23:12.67	24.09	18.99	-50.1	-51.8	15.3	6.03e-01	0	27	0	302514176	68	4540
2026-01-15 02:23:13.66	24.09	19.12	-50.1	-51.8	15.3	6.02e-01	0	27	0	304087040	68	4509
2026-01-15 02:23:14.65	24.09	19.26	-50.1	-51.8	15.3	6.02e-01	0	27	0	306184192	68	4496
2026-01-15 02:23:15.65	24.09	19.40	-50.1	-51.7	15.3	6.05e-01	0	27	0	308281344	68	4488
2026-01-15 02:23:16.65	24.09	19.55	-50.0	-51.7	15.3	6.05e-01	0	27	0	309854208	68	4470
2026-01-15 02:23:17.64	24.09	19.69	-50.0	-51.7	15.3	6.04e-01	0	27	0	311951360	68	4458
2026-01-15 02:23:18.65	24.09	19.84	-50.1	-51.8	15.3	6.02e-01	0	27	0	313524224	68	4508
2026-01-15 02:23:19.65	24.10	19.98	-50.0	-51.7	15.3	6.04e-01	0	27	0	315621376	68	4460
2026-01-15 02:23:20.64	24.10	20.13	-50.1	-51.8	15.3	6.01e-01	0	27	0	317194240	68	4505
2026-01-15 02:23:21.64	24.10	20.27	-50.1	-51.8	15.3	6.03e-01	0	27	0	319291392	68	4500
2026-01-15 02:23:22.63	24.10	20.42	-50.2	-51.8	15.3	6.04e-01	0	27	0	320864256	68	4542
2026-01-15 02:23:23.62	24.10	20.57	-50.2	-51.9	15.3	6.03e-01	0	27	0	322961408	68	4598
2026-01-15 02:23:24.62	24.10	20.72	-50.3	-52.1	15.2	6.04e-01	0	27	0	325058560	68	4662
2026-01-15 02:23:25.62	24.10	20.87	-50.3	-52.0	15.2	6.02e-01	0	27	0	326631424	68	4651
2026-01-15 02:23:26.62	24.10	21.02	-50.3	-52.0	15.2	6.04e-01	0	27	0	328728576	68	4639
2026-01-15 02:23:27.62	24.10	21.17	-50.3	-52.0	15.2	6.03e-01	0	27	0	330301440	68	4638
2026-01-15 02:23:28.62	24.10	21.33	-50.4	-52.1	15.2	6.05e-01	0	27	0	332398592	68	4697
2026-01-15 02:23:29.62	24.10	21.48	-50.4	-52.1	15.2	6.04e-01	0	27	0	333971456	68	4703
2026-01-15 02:23:30.62	24.10	21.64	-50.4	-52.1	15.2	6.01e-01	0	27	0	336068608	68	4668
2026-01-15 02:23:31.62	24.11	21.80	-50.4	-52.1	15.2	6.01e-01	0	27	0	338165760	68	4690
2026-01-15 02:23:32.62	24.11	21.95	-50.4	-52.2	15.2	6.04e-01	0	27	0	339738624	68	4714
2026-01-15 02:23:33.62	24.11	22.11	-50.5	-52.2	15.2	6.04e-01	0	27	0	341835776	68	4746
2026-01-15 02:23:34.62	24.11	22.27	-50.4	-52.1	15.2	6.05e-01	0	27	0	343408640	68	4702
2026-01-15 02:23:35.61	24.11	22.43	-50.5	-52.3	15.2	6.04e-01	0	27	0	345505792	68	4776
2026-01-15 02:23:36.61	24.11	22.60	-50.5	-52.3	15.2	6.04e-01	0	27	0	347602944	68	4773
2026-01-15 02:23:37.62	24.11	22.76	-50.4	-52.1	15.2	6.01e-01	0	27	0	349175808	68	4690
2026-01-15 02:23:38.62	24.11	22.93	-50.4	-52.1	15.2	6.03e-01	0	27	0	351272960	68	4696
2026-01-15 02:23:39.62	24.11	23.09	-50.4	-52.2	15.2	6.03e-01	0	27	0	352845824	68	4716
2026-01-15 02:23:40.62	24.11	23.26	-50.5	-52.2	15.2	6.02e-01	0	27	0	354942976	68	4745
2026-01-15 02:23:41.62	24.11	23.43	-50.5	-52.3	15.2	6.03e-01	0	27	0	356515840	68	4768
2026-01-15 02:23:42.62	24.11	23.60	-50.6	-52.4	15.3	6.02e-01	0	27	0	358612992	69	4559
2026-01-15 02:23:43.61	24.11	23.77	-50.7	-52.4	15.3	6.02e-01	0	27	0	360710144	69	4576
2026-01-15 02:23:44.61	24.11	23.94	-50.6	-52.4	15.3	6.04e-01	0	27	0	362283008	69	4569
2026-01-15 02:23:45.60	24.11	24.11	-50.6	-52.3	15.3	6.02e-01	0	27	0	364380160	69	4533
2026-01-15 02:23:46.61	24.11	24.29	-50.6	-52.3	15.3	6.03e-01	0	28	0	365953024	69	4522
2026-01-15 02:23:47.61	24.11	24.46	-50.5	-52.2	15.3	6.01e-01	0	27	0	368050176	69	4466
2026-01-15 02:23:48.61	24.11	24.64	-50.5	-52.2	15.3	6.02e-01	0	27	0	369623040	69	4488
2026-01-15 02:23:49.62	24.11	24.82	-50.4	-52.1	15.3	6.01e-01	0	27	0	371720192	69	4434
2026-01-15 02:23:50.61	24.11	25.00	-50.4	-52.1	15.3	6.00e-01	0	27	0	373817344	69	4405
2026-01-15 02:23:51.61	24.11	25.18	-50.4	-52.2	15.3	6.03e-01	0	27	0	375390208	69	4445
2026-01-15 02:23:52.61	24.11	25.36	-50.5	-52.2	15.3	6.02e-01	0	27	0	377487360	69	4456
2026-01-15 02:23:53.61	24.11	25.55	-50.5	-52.2	15.3	6.03e-01	0	27	0	379060224	69	4473
2026-01-15 02:23:54.61	24.11	25.73	-50.5	-52.2	15.3	6.04e-01	0	27	0	381157376	69	4487
2026-01-15 02:23:55.61	24.11	25.92	-50.6	-52.3	15.3	6.04e-01	0	27	0	382730240	69	4518
2026-01-15 02:23:56.61	24.11	26.11	-50.6	-52.3	15.3	6.04e-01	0	27	0	384827392	69	4524
2026-01-15 02:23:57.61	24.11	26.30	-50.4	-52.1	15.3	6.03e-01	0	27	0	386924544	69	4413
2026-01-15 02:23:58.61	24.11	26.49	-50.3	-52.0	15.3	6.02e-01	0	27	0	388497408	69	4368
2026-01-15 02:23:59.61	24.10	26.68	-50.3	-51.9	15.4	6.04e-01	0	27	0	390594560	69	4329
2026-01-15 02:24:00.60	24.10	26.87	-50.2	-51.9	15.4	6.01e-01	0	27	0	392167424	69	4318
2026-01-15 02:24:01.59	24.10	27.07	-50.3	-52.0	15.4	6.02e-01	0	27	0	394264576	69	4356
2026-01-15 02:24:02.59	24.10	27.26	-50.2	-51.8	15.4	6.03e-01	0	28	0	396361728	69	4291
2026-01-15 02:24:03.59	24.10	27.46	-50.2	-51.8	15.4	6.04e-01	0	27	0	397934592	69	4287
2026-01-15 02:24:04.58	24.10	27.66	-50.1	-51.8	15.4	6.02e-01	0	27	0	399507456	69	4262
2026-01-15 02:24:05.57	24.10	27.86	-50.2	-51.8	15.4	6.04e-01	0	27	0	401604608	69	4275
2026-01-15 02:24:06.57	24.10	28.06	-50.2	-51.9	15.4	6.01e-01	0	27	0	403701760	69	4308
2026-01-15 02:24:07.57	24.10	28.27	-50.1	-51.8	15.4	6.02e-01	0	27	0	405274624	69	4268
2026-01-15 02:24:08.57	24.10	28.47	-50.2	-51.8	15.4	6.02e-01	0	27	0	407371776	69	4284
2026-01-15 02:24:09.57	24.09	28.68	-50.1	-51.8	15.4	6.05e-01	0	27	0	408944640	69	4270
2026-01-15 02:24:10.55	24.09	28.89	-50.0	-51.6	15.5	6.04e-01	0	27	0	411041792	69	4175
2026-01-15 02:24:11.55	24.09	29.10	-49.9	-51.5	15.5	6.04e-01	0	27	0	413138944	69	4124
2026-01-15 02:24:12.55	24.09	29.31	-49.8	-51.4	15.5	6.03e-01	0	27	0	414711808	68	4330
2026-01-15 02:24:13.54	24.09	29.52	-49.9	-51.5	15.4	6.01e-01	0	27	0	416808960	68	4355
2026-01-15 02:24:14.54	24.09	29.74	-49.9	-51.5	15.4	6.04e-01	0	27	0	418381824	68	4374
2026-01-15 02:24:15.53	24.08	29.96	-49.9	-51.5	15.4	6.02e-01	0	27	0	420478976	68	4364
2026-01-15 02:24:16.52	24.08	30.18	-50.0	-51.7	15.3	6.02e-01	0	27	0	422051840	68	4458
2026-01-15 02:24:17.52	24.08	30.40	-50.1	-51.7	15.3	6.03e-01	0	27	0	424148992	68	4485
2026-01-15 02:24:18.51	24.08	30.62	-50.1	-51.7	15.3	6.01e-01	0	27	0	425721856	68	4478
2026-01-15 02:24:19.51	24.08	30.85	-50.0	-51.6	15.3	6.00e-01	0	27	0	427819008	68	4439
2026-01-15 02:24:20.51	24.07	31.07	-49.9	-51.5	15.4	6.05e-01	0	28	0	429916160	68	4371
2026-01-15 02:24:21.50	24.07	31.30	-49.9	-51.5	15.4	6.04e-01	0	27	0	431489024	68	4372
2026-01-15 02:24:22.50	24.07	31.53	-49.9	-51.5	15.4	6.02e-01	0	27	0	433586176	68	4386
2026-01-15 02:24:23.50	24.07	31.77	-49.9	-51.6	15.4	6.04e-01	0	27	0	435159040	68	4394
2026-01-15 02:24:24.49	24.06	32.00	-49.9	-51.5	15.4	6.03e-01	0	27	0	437256192	68	4386
2026-01-15 02:24:25.49	24.06	32.24	-49.9	-51.6	15.3	6.02e-01	0	27	0	438829056	68	4399
2026-01-15 02:24:26.49	24.06	32.48	-50.0	-51.6	15.3	6.02e-01	0	27	0	440926208	68	4424
2026-01-15 02:24:27.48	24.06	32.72	-50.0	-51.7	15.3	6.02e-01	0	27	0	442499072	68	4463
2026-01-15 02:24:28.47	24.05	32.96	-50.1	-51.8	15.3	6.03e-01	0	27	0	444596224	68	4505
2026-01-15 02:24:29.47	24.05	33.20	-50.1	-51.7	15.3	6.02e-01	0	27	0	446693376	68	4469
2026-01-15 02:24:30.47	24.05	33.45	-50.1	-51.8	15.3	6.02e-01	0	28	0	448266240	68	4495
2026-01-15 02:24:31.46	24.04	33.70	-50.2	-51.9	15.3	6.01e-01	0	27	0	450363392	68	4571
2026-01-15 02:24:32.45	24.04	33.95	-50.4	-52.1	15.2	6.04e-01	0	27	0	451936256	68	4702
2026-01-15 02:24:33.45	24.04	34.20	-50.5	-52.2	15.2	6.01e-01	0	27	0	454033408	68	4751
2026-01-15 02:24:34.44	24.03	34.46	-50.5	-52.2	15.2	6.03e-01	0	27	0	455606272	68	4735
2026-01-15 02:24:35.44	24.03	34.72	-50.7	-52.4	15.3	6.04e-01	0	27	0	457703424	69	4559
2026-01-15 02:24:36.44	24.02	34.98	-50.8	-52.5	15.2	6.01e-01	0	27	0	459800576	69	4638
2026-01-15 02:24:37.44	24.02	35.24	-50.9	-52.6	15.2	6.02e-01	0	27	0	461373440	69	4704
2026-01-15 02:24:38.44	24.01	35.51	-50.9	-52.7	15.2	6.01e-01	0	27	0	463470592	69	4732
2026-01-15 02:24:39.43	24.01	35.77	-51.0	-52.7	15.2	6.02e-01	0	27	0	465043456	69	4756
2026-01-15 02:24:40.43	24.01	36.04	-51.0	-52.8	15.2	6.05e-01	0	27	0	467140608	69	4772
2026-01-15 02:24:41.43	24.00	36.32	-51.1	-52.9	15.1	6.03e-01	0	27	0	468713472	69	4858
2026-01-15 02:24:42.43	24.00	36.59	-51.3	-53.1	15.2	6.04e-01	0	27	0	470810624	70	4700
2026-01-15 02:24:43.42	23.99	36.87	-51.6	-53.5	15.1	6.03e-01	0	27	0	472383488	70	4896
2026-01-15 02:24:44.42	23.99	37.15	-51.9	-53.8	15.1	6.02e-01	0	27	0	474480640	71	4789
2026-01-15 02:24:45.42	23.98	37.43	-51.9	-53.9	15.1	6.04e-01	0	27	0	476577792	71	4819
2026-01-15 02:24:46.42	23.98	37.72	-51.9	-53.8	15.1	6.03e-01	0	27	0	478150656	71	4803
2026-01-15 02:24:47.41	23.97	38.00	-51.8	-53.8	15.1	6.02e-01	0	27	0	480247808	71	4776
2026-01-15 02:24:48.41	23.96	38.29	-52.0	-54.0	15.1	6.01e-01	0	27	0	481820672	71	4883
2026-01-15 02:24:49.41	23.96	38.59	-52.3	-54.3	15.1	6.03e-01	0	27	0	483917824	72	4805
2026-01-15 02:24:50.41	23.95	38.88	-52.2	-54.1	15.1	6.03e-01	0	27	0	485490688	72	4704
2026-01-15 02:24:51.40	23.94	39.18	-52.2	-54.2	15.1	6.02e-01	0	27	0	487587840	72	4715
2026-01-15 02:24:52.40	23.94	39.48	-52.1	-54.1	15.1	6.03e-01	0	27	0	489684992	72	4669
2026-01-15 02:24:53.40	23.93	39.79	-52.1	-54.0	15.1	6.01e-01	0	27	0	491257856	72	4642
2026-01-15 02:24:54.40	23.92	40.09	-51.8	-53.7	15.3	6.03e-01	0	27	0	493355008	72	4450
2026-01-15 02:24:55.40	23.92	40.41	-51.7	-53.6	15.3	6.03e-01	0	27	0	494927872	72	4425
2026-01-15 02:24:56.39	23.91	40.72	-51.8	-53.7	15.2	6.02e-01	0	27	0	497025024	72	4487
2026-01-15 02:24:57.39	23.90	41.03	-51.8	-53.6	15.3	6.03e-01	0	27	0	498597888	72	4433
2026-01-15 02:24:58.39	23.89	41.35	-51.7	-53.5	15.3	6.02e-01	0	27	0	500695040	72	4373
2026-01-15 02:24:59.39	23.89	41.67	-51.5	-53.4	15.4	6.03e-01	0	27	0	502792192	72	4298
2026-01-15 02:25:00.40	23.88	42.00	-51.5	-53.3	15.4	6.06e-01	0	27	0	504365056	72	4262
2026-01-15 02:25:01.40	23.87	42.33	-51.2	-53.0	15.3	6.01e-01	0	28	0	506462208	71	4364
2026-01-15 02:25:02.40	23.86	42.66	-51.2	-53.0	15.3	6.01e-01	0	27	0	508035072	71	4362
2026-01-15 02:25:03.40	23.85	43.00	-51.1	-52.9	15.3	6.02e-01	0	27	0	510132224	71	4324
2026-01-15 02:25:04.40	23.84	43.33	-50.8	-52.5	15.4	6.03e-01	0	27	0	512229376	70	4383
2026-01-15 02:25:05.40	23.83	43.67	-50.8	-52.5	15.3	6.03e-01	0	27	0	513802240	70	4367
2026-01-15 02:25:06.39	23.82	44.01	-50.7	-52.4	15.4	6.02e-01	0	27	0	515899392	70	4294
2026-01-15 02:25:07.38	23.81	44.36	-50.7	-52.3	15.4	6.01e-01	0	27	0	517472256	70	4291
2026-01-15 02:25:08.38	23.80	44.71	-50.4	-52.1	15.5	6.02e-01	0	28	0	519569408	70	4146
2026-01-15 02:25:09.38	23.79	45.06	-50.3	-52.0	15.4	6.03e-01	0	27	0	521142272	69	4343
2026-01-15 02:25:10.37	23.78	45.42	-50.5	-52.2	15.3	5.99e-01	0	27	0	523239424	69	4455
2026-01-15 02:25:11.37	23.76	45.78	-50.5	-52.1	15.3	6.04e-01	0	27	0	524812288	69	4437
2026-01-15 02:25:12.36	23.75	46.14	-50.4	-52.1	15.3	6.03e-01	0	27	0	526909440	69	4410
2026-01-15 02:25:13.37	23.74	46.51	-50.3	-52.0	15.4	6.02e-01	0	27	0	529006592	69	4345
2026-01-15 02:25:14.36	23.73	46.87	-50.3	-52.0	15.4	6.03e-01	0	27	0	530579456	69	4343
2026-01-15 02:25:15.35	23.71	47.24	-50.2	-51.9	15.4	6.03e-01	0	27	0	532676608	69	4295
2026-01-15 02:25:16.34	23.70	47.62	-50.4	-52.0	15.4	6.07e-01	0	27	0	534249472	69	4375
2026-01-15 02:25:17.34	23.69	48.00	-50.4	-52.0	15.3	6.05e-01	0	27	0	536346624	69	4384
2026-01-15 02:25:18.33	23.67	48.38	-50.4	-52.1	15.4	6.01e-01	0	27	0	537919488	69	4400
2026-01-15 02:25:19.33	23.66	48.77	-50.5	-52.2	15.3	6.03e-01	0	27	0	540016640	69	4442
2026-01-15 02:25:20.33	23.64	49.16	-50.3	-51.9	15.4	6.03e-01	0	27	0	541589504	69	4319
2026-01-15 02:25:21.33	23.62	49.56	-50.4	-52.0	15.4	6.04e-01	0	27	0	543686656	69	4370
2026-01-15 02:25:22.33	23.61	49.96	-50.7	-52.4	15.3	6.03e-01	0	27	0	545783808	69	4559
2026-01-15 02:25:23.33	23.59	50.36	-50.2	-51.9	15.4	6.04e-01	0	27	0	547356672	69	4299
2026-01-15 02:25:24.33	23.57	50.76	-50.2	-51.8	15.4	6.03e-01	0	27	0	549453824	69	4260
2026-01-15 02:25:25.33	23.55	51.17	-49.9	-51.5	15.5	6.03e-01	0	28	0	551026688	69	4122
2026-01-15 02:25:26.32	23.53	51.58	-49.9	-51.5	15.4	6.01e-01	0	27	0	553123840	68	4372
2026-01-15 02:25:27.32	23.51	52.00	-50.1	-51.8	15.3	6.04e-01	0	27	0	554696704	68	4497
2026-01-15 02:25:28.31	23.49	52.42	-49.7	-51.2	15.5	6.02e-01	0	27	0	556793856	68	4217
2026-01-15 02:25:29.31	23.47	52.85	-49.7	-51.3	15.4	6.03e-01	0	27	0	558891008	68	4245
2026-01-15 02:25:30.31	23.45	53.27	-49.6	-51.1	15.5	6.01e-01	0	27	0	560463872	68	4173
2026-01-15 02:25:31.31	23.43	53.71	-49.6	-51.2	15.5	6.03e-01	0	27	0	562561024	68	4208
2026-01-15 02:25:32.31	23.40	54.14	-50.0	-51.6	15.3	6.03e-01	0	27	0	564133888	68	4416
2026-01-15 02:25:33.32	23.38	54.59	-49.8	-51.4	15.4	6.03e-01	0	27	0	566231040	68	4316
2026-01-15 02:25:34.31	23.35	55.03	-49.8	-51.3	15.4	6.02e-01	0	28	0	567803904	68	4286
2026-01-15 02:25:35.31	23.33	55.48	-50.0	-51.6	15.3	6.03e-01	0	27	0	569901056	68	4398
2026-01-15 02:25:36.31	23.30	55.93	-50.1	-51.7	15.3	6.01e-01	0	28	0	571998208	68	4444
2026-01-15 02:25:37.31	23.27	56.39	-50.5	-52.2	15.2	6.02e-01	0	27	0	573571072	68	4729
2026-01-15 02:25:38.30	23.24	56.84	-50.3	-51.9	15.3	6.02e-01	0	28	0	575668224	68	4590
2026-01-15 02:25:39.30	23.21	57.31	-50.6	-52.3	15.2	6.04e-01	0	27	0	577241088	68	4791
2026-01-15 02:25:40.30	23.18	57.78	-50.7	-52.4	15.2	6.05e-01	0	28	0	579338240	69	4585
2026-01-15 02:25:41.31	23.15	58.25	-51.4	-53.2	15.2	6.02e-01	0	27	0	580911104	70	4754
2026-01-15 02:25:42.30	23.11	58.73	-51.2	-53.0	15.2	6.02e-01	0	27	0	583008256	70	4616
2026-01-15 02:25:43.30	23.08	59.21	-51.6	-53.5	15.2	6.04e-01	0	28	0	585105408	71	4602
2026-01-15 02:25:44.29	23.04	59.68	-52.1	-54.1	15.2	6.01e-01	0	27	0	586678272	72	4653
2026-01-15 02:25:45.30	23.00	60.18	-52.1	-54.1	15.1	6.02e-01	0	27	0	588775424	72	4665
2026-01-15 02:25:46.29	22.96	60.66	-51.7	-53.5	15.3	6.03e-01	0	28	0	590348288	72	4362
2026-01-15 02:25:47.29	22.92	61.16	-52.4	-54.4	15.1	6.03e-01	0	27	0	592445440	72	4821
2026-01-15 02:25:48.29	22.87	61.66	-52.6	-54.6	15.1	6.01e-01	0	28	0	594542592	73	4678
2026-01-15 02:25:49.29	22.83	62.16	-52.5	-54.5	15.1	6.03e-01	0	27	0	596115456	73	4599
2026-01-15 02:25:50.29	22.78	62.67	-52.8	-54.8	15.0	6.02e-01	0	27	0	598212608	73	4797
2026-01-15 02:25:51.29	22.73	63.18	-52.7	-54.8	15.1	6.05e-01	0	27	0	599785472	73	4784
2026-01-15 02:25:52.29	22.68	63.70	-53.3	-55.6	14.9	6.03e-01	0	27	0	601882624	74	4941
2026-01-15 02:25:53.29	22.62	64.22	-52.9	-55.0	15.1	6.02e-01	0	27	0	603455488	74	4619
2026-01-15 02:25:54.28	22.56	64.74	-53.4	-55.6	14.9	6.03e-01	0	28	0	605552640	74	4969
2026-01-15 02:25:55.27	22.50	65.26	-54.0	-56.4	14.8	6.03e-01	0	27	0	607125504	75	5118
2026-01-15 02:25:56.28	22.44	65.79	-53.6	-55.9	14.9	6.02e-01	0	27	0	609222656	75	4863
2026-01-15 02:25:57.28	22.37	66.33	-54.1	-56.6	14.7	6.03e-01	0	27	0	611319808	75	5253
2026-01-15 02:25:58.27	22.30	66.86	-54.2	-56.6	14.8	6.01e-01	0	27	0	612892672	76	4966
2026-01-15 02:25:59.27	22.22	67.40	-54.5	-57.1	14.7	6.03e-01	0	27	0	614989824	76	5245
2026-01-15 02:26:00.28	22.14	67.95	-54.3	-56.8	14.7	6.06e-01	0	27	0	616562688	76	5050
2026-01-15 02:26:01.28	22.05	68.50	-54.7	-57.4	14.7	6.04e-01	0	27	0	618659840	77	5128
2026-01-15 02:26:02.28	21.97	69.05	-55.0	-57.9	14.5	6.05e-01	0	27	0	620232704	77	5409
2026-01-15 02:26:03.28	21.87	69.61	-54.4	-56.9	14.8	6.01e-01	0	27	0	622329856	77	4849
2026-01-15 02:26:04.31	21.77	70.18	-54.9	-57.7	14.5	6.03e-01	0	28	0	624427008	77	5289
2026-01-15 02:26:05.31	21.66	70.74	-54.6	-57.3	14.7	6.04e-01	0	28	0	625999872	77	5048
2026-01-15 02:26:06.31	21.54	71.31	-54.4	-57.0	14.8	6.02e-01	0	27	0	628097024	77	4879
2026-01-15 02:26:07.31	21.42	71.88	-54.3	-56.8	14.9	6.02e-01	0	28	0	629669888	77	4763
2026-01-15 02:26:08.31	21.29	72.45	-54.4	-56.9	14.8	6.02e-01	0	28	0	631767040	77	4844
2026-01-15 02:26:09.30	21.15	73.02	-53.9	-56.2	15.1	6.04e-01	0	28	0	633339904	77	4481
2026-01-15 02:26:10.30	20.99	73.59	-53.7	-56.0	15.1	6.03e-01	0	27	0	635437056	76	4599
2026-01-15 02:26:11.30	20.83	74.17	-53.9	-56.3	14.9	6.01e-01	0	28	0	637534208	76	4792
2026-01-15 02:26:12.29	20.65	74.75	-53.8	-56.2	15.0	6.02e-01	0	28	0	639107072	76	4720
2026-01-15 02:26:13.28	20.46	75.33	-53.7	-56.0	15.0	6.03e-01	0	28	0	641204224	76	4640
2026-01-15 02:26:14.28	20.25	75.92	-53.1	-55.3	15.1	6.02e-01	0	28	0	642777088	75	4506
2026-01-15 02:26:15.28	20.03	76.51	-53.2	-55.3	15.1	6.02e-01	0	27	0	644874240	75	4539
2026-01-15 02:26:16.27	19.78	77.09	-53.1	-55.2	15.2	6.03e-01	0	28	0	646447104	75	4492
2026-01-15 02:26:17.27	19.50	77.69	-52.7	-54.7	15.2	6.03e-01	0	27	0	648544256	74	4465
2026-01-15 02:26:18.27	19.20	78.28	-52.8	-54.8	15.1	6.06e-01	0	27	0	650641408	74	4542
2026-01-15 02:26:19.27	18.86	78.88	-52.1	-54.0	15.3	6.03e-01	0	28	0	652214272	73	4343
2026-01-15 02:26:20.26	18.48	79.48	-52.2	-54.1	15.2	6.04e-01	0	27	0	654311424	73	4427
2026-01-15 02:26:21.26	18.05	80.08	-51.8	-53.7	15.3	6.03e-01	0	28	0	655884288	72	4466
2026-01-15 02:26:22.26	17.57	80.68	-51.7	-53.5	15.3	6.02e-01	0	28	0	657981440	72	4375
2026-01-15 02:26:23.25	17.03	81.28	-51.8	-53.6	15.3	6.04e-01	0	27	0	659554304	72	4431
2026-01-15 02:26:24.25	16.39	81.88	-51.3	-53.1	15.3	6.03e-01	0	28	0	661651456	71	4405
2026-01-15 02:26:25.25	15.65	82.49	-51.1	-52.8	15.4	6.03e-01	0	28	0	663224320	71	4273
2026-01-15 02:26:26.25	14.78	83.09	-51.4	-53.2	15.3	6.04e-01	0	28	0	665321472	71	4464
2026-01-15 02:26:27.24	13.76	83.69	-51.2	-52.9	15.4	6.05e-01	0	27	0	667418624	71	4317
2026-01-15 02:26:28.23	12.51	84.29	-51.6	-53.4	15.2	6.03e-01	0	27	0	668991488	71	4557
2026-01-15 02:26:29.22	10.97	84.88	-51.3	-53.0	15.3	6.04e-01	0	28	0	671088640	71	4375
2026-01-15 02:26:30.22	9.01	85.48	-51.6	-53.5	15.2	6.04e-01	0	27	0	672661504	71	4606
2026-01-15 02:26:31.22	6.44	86.07	-51.4	-53.1	15.3	6.02e-01	0	27	0	674758656	71	4435
2026-01-15 02:26:32.22	2.97	86.65	-51.1	-52.8	15.4	6.02e-01	0	27	0	676855808	71	4254
2026-01-15 02:26:33.22	358.07	87.22	-51.4	-53.2	15.3	6.03e-01	0	28	0	678428672	71	4471
2026-01-15 02:26:34.22	350.75	87.75	-50.6	-52.2	15.4	6.03e-01	0	27	0	680525824	70	4224
2026-01-15 02:26:35.21	339.35	88.22	-51.0	-52.7	15.1	6.02e-01	0	27	0	682098688	70	4451
2026-01-15 02:26:36.21	320.90	88.58	-51.7	-53.6	15.1	6.03e-01	0	27	0	684195840	71	4660
2026-01-15 02:26:37.20	295.13	88.72	-51.2	-52.9	15.1	6.05e-01	0	27	0	685768704	70	4591
2026-01-15 02:26:38.20	269.26	88.57	-51.3	-53.0	15.2	6.03e-01	0	28	0	687865856	70	4636
2026-01-15 02:26:39.20	251.09	88.21	-51.9	-53.8	15.1	6.02e-01	0	28	0	689438720	71	4767
2026-01-15 02:26:40.20	239.79	87.73	-51.2	-52.9	15.2	6.03e-01	0	28	0	691535872	70	4563
2026-01-15 02:26:41.20	232.61	87.19	-51.6	-53.4	15.1	6.01e-01	0	28	0	693633024	71	4575
2026-01-15 02:26:42.19	227.83	86.63	-51.5	-53.4	15.2	6.03e-01	0	28	0	695205888	71	4552
2026-01-15 02:26:43.19	224.40	86.05	-51.9	-53.7	15.1	6.02e-01	0	27	0	697303040	71	4758
2026-01-15 02:26:44.20	221.84	85.45	-51.8	-53.6	15.1	6.03e-01	0	28	0	698875904	71	4701
2026-01-15 02:26:45.20	219.89	84.86	-51.7	-53.6	15.2	6.05e-01	0	28	0	700973056	71	4676
2026-01-15 02:26:46.20	218.35	84.25	-51.5	-53.2	15.3	6.04e-01	0	28	0	702545920	71	4479
2026-01-15 02:26:47.20	217.11	83.65	-51.9	-53.8	15.1	6.03e-01	0	27	0	704643072	71	4799
2026-01-15 02:26:48.20	216.09	83.05	-51.6	-53.5	15.2	6.05e-01	0	28	0	706740224	71	4606
2026-01-15 02:26:49.20	215.23	82.44	-50.9	-52.6	15.5	6.04e-01	0	28	0	708313088	71	4166
2026-01-15 02:26:50.19	214.50	81.84	-51.2	-52.9	15.2	6.04e-01	0	27	0	710410240	70	4598
2026-01-15 02:26:51.19	213.88	81.24	-51.2	-53.0	15.2	6.02e-01	0	27	0	711983104	70	4610
2026-01-15 02:26:52.19	213.33	80.63	-51.0	-52.7	15.3	6.03e-01	0	27	0	714080256	70	4455
2026-01-15 02:26:53.19	212.85	80.03	-51.2	-53.0	15.2	6.03e-01	0	27	0	715653120	70	4623
2026-01-15 02:26:54.19	212.43	79.43	-52.2	-54.2	15.1	6.03e-01	0	28	0	717750272	72	4739
2026-01-15 02:26:55.19	212.05	78.83	-52.0	-53.9	15.2	6.05e-01	0	28	0	719847424	72	4585
2026-01-15 02:26:56.19	211.72	78.23	-52.5	-54.4	15.1	6.05e-01	0	28	0	721420288	72	4844
2026-01-15 02:26:57.19	211.42	77.63	-53.6	-55.9	14.9	6.04e-01	0	28	0	723517440	75	4818
2026-01-15 02:26:58.19	211.14	77.04	-53.6	-55.9	15.0	6.04e-01	0	28	0	725090304	75	4827
2026-01-15 02:26:59.19	210.89	76.44	-53.3	-55.5	15.1	6.04e-01	0	28	0	727187456	75	4602
2026-01-15 02:27:00.19	210.67	75.85	-53.5	-55.8	15.0	6.02e-01	0	27	0	728760320	75	4760
2026-01-15 02:27:01.18	210.46	75.27	-54.4	-57.0	14.7	6.04e-01	0	27	0	730857472	76	5170
2026-01-15 02:27:02.18	210.27	74.69	-53.7	-55.9	15.1	6.02e-01	0	28	0	732954624	76	4554
2026-01-15 02:27:03.17	210.09	74.11	-53.2	-55.3	15.1	6.01e-01	0	27	0	734527488	75	4527
2026-01-15 02:27:04.18	209.93	73.52	-54.0	-56.5	14.8	6.04e-01	0	28	0	736624640	75	5162
2026-01-15 02:27:05.17	209.78	72.95	-53.3	-55.5	15.0	6.01e-01	0	27	0	738197504	75	4647
2026-01-15 02:27:06.17	209.64	72.38	-53.4	-55.6	15.0	6.05e-01	0	28	0	740294656	75	4674
2026-01-15 02:27:07.16	209.51	71.81	-53.9	-56.2	14.8	6.04e-01	0	27	0	742391808	75	5031
2026-01-15 02:27:08.16	209.39	71.24	-54.4	-56.9	14.7	6.03e-01	0	27	0	743964672	76	5125
2026-01-15 02:27:09.16	209.27	70.68	-54.4	-56.9	14.7	6.04e-01	0	27	0	746061824	76	5137
2026-01-15 02:27:10.16	209.16	70.11	-54.7	-57.4	14.6	6.04e-01	0	27	0	747634688	77	5137
2026-01-15 02:27:11.16	209.06	69.55	-54.8	-57.4	14.7	6.01e-01	0	27	0	749731840	77	5140
2026-01-15 02:27:12.16	208.97	69.00	-55.0	-57.7	14.5	6.05e-01	0	28	0	751304704	77	5337
2026-01-15 02:27:13.16	208.88	68.45	-55.2	-58.0	14.5	6.02e-01	0	28	0	753401856	78	5183
2026-01-15 02:27:14.16	208.79	67.90	-54.7	-57.2	14.8	6.03e-01	0	27	0	754974720	78	4757
2026-01-15 02:27:15.16	208.71	67.35	-54.6	-57.1	14.9	6.02e-01	0	28	0	757071872	78	4664
2026-01-15 02:27:16.15	208.64	66.81	-54.2	-56.6	14.9	6.02e-01	0	28	0	759169024	77	4694
2026-01-15 02:27:17.15	208.57	66.28	-54.5	-57.1	14.7	6.02e-01	0	28	0	760741888	77	4959
2026-01-15 02:27:18.14	208.50	65.75	-54.3	-56.7	14.9	6.02e-01	0	27	0	762839040	77	4745
2026-01-15 02:27:19.14	208.44	65.22	-53.2	-55.3	15.1	6.01e-01	0	28	0	764411904	75	4503
2026-01-15 02:27:20.14	208.37	64.69	-53.1	-55.2	15.2	6.01e-01	0	27	0	766509056	75	4450
2026-01-15 02:27:21.13	208.32	64.17	-53.3	-55.5	15.1	6.03e-01	0	28	0	768081920	75	4600
2026-01-15 02:27:22.13	208.26	63.65	-53.0	-55.1	15.2	6.02e-01	0	27	0	770179072	75	4415
2026-01-15 02:27:23.12	208.21	63.14	-52.6	-54.5	15.3	6.04e-01	0	27	0	772276224	74	4378
2026-01-15 02:27:24.12	208.16	62.63	-52.6	-54.6	15.2	6.01e-01	0	27	0	773849088	74	4412
2026-01-15 02:27:25.12	208.11	62.12	-52.2	-54.1	15.3	6.03e-01	0	28	0	775946240	73	4397
2026-01-15 02:27:26.11	208.06	61.62	-51.9	-53.8	15.4	6.02e-01	0	28	0	777519104	73	4252
2026-01-15 02:27:27.12	208.02	61.11	-52.5	-54.6	15.1	6.03e-01	0	28	0	779616256	73	4672
2026-01-15 02:27:28.11	207.98	60.62	-52.1	-54.0	15.3	6.04e-01	0	27	0	781189120	73	4370
2026-01-15 02:27:29.11	207.94	60.13	-51.9	-53.8	15.3	6.05e-01	0	27	0	783286272	73	4254
2026-01-15 02:27:30.11	207.90	59.64	-52.2	-54.1	15.1	6.03e-01	0	27	0	784859136	72	4698
2026-01-15 02:27:31.10	207.86	59.16	-52.2	-54.2	15.1	6.03e-01	0	27	0	786956288	72	4719
2026-01-15 02:27:32.10	207.82	58.68	-51.7	-53.5	15.3	6.02e-01	0	27	0	789053440	72	4352
2026-01-15 02:27:33.10	207.79	58.20	-51.2	-52.9	15.4	6.01e-01	0	27	0	790626304	71	4330
2026-01-15 02:27:34.10	207.76	57.73	-51.0	-52.7	15.4	6.04e-01	0	27	0	792723456	71	4236
2026-01-15 02:27:35.10	207.72	57.26	-50.7	-52.4	15.4	6.02e-01	0	28	0	794296320	70	4321
2026-01-15 02:27:36.10	207.69	56.79	-50.8	-52.5	15.4	6.03e-01	0	27	0	796393472	70	4375
2026-01-15 02:27:37.10	207.66	56.33	-50.6	-52.3	15.4	6.02e-01	0	27	0	797966336	70	4274
2026-01-15 02:27:38.10	207.64	55.87	-50.2	-51.8	15.4	6.04e-01	0	27	0	800063488	69	4252
2026-01-15 02:27:39.10	207.61	55.42	-49.9	-51.5	15.5	6.04e-01	0	28	0	802160640	69	4115
2026-01-15 02:27:40.09	207.58	54.98	-49.7	-51.3	15.4	6.02e-01	0	27	0	803733504	68	4254
2026-01-15 02:27:41.09	207.56	54.53	-49.7	-51.3	15.4	6.02e-01	0	28	0	805830656	68	4268
2026-01-15 02:27:42.10	207.53	54.08	-49.6	-51.2	15.5	6.03e-01	0	27	0	807403520	68	4197
2026-01-15 02:27:43.09	207.51	53.65	-49.7	-51.2	15.5	6.03e-01	0	27	0	809500672	68	4229
2026-01-15 02:27:44.09	207.49	53.22	-49.7	-51.3	15.4	6.03e-01	0	27	0	811073536	68	4271
2026-01-15 02:27:45.09	207.46	52.79	-49.8	-51.4	15.4	6.03e-01	0	27	0	813170688	68	4316
2026-01-15 02:27:46.10	207.44	52.36	-49.8	-51.4	15.4	6.04e-01	0	28	0	815267840	68	4305
2026-01-15 02:27:47.09	207.42	51.94	-49.8	-51.4	15.4	6.03e-01	0	28	0	816840704	68	4311
2026-01-15 02:27:48.09	207.40	51.52	-50.1	-51.6	15.4	6.02e-01	0	27	0	818937856	68	4438
2026-01-15 02:27:49.09	207.38	51.11	-50.2	-51.8	15.3	6.01e-01	0	27	0	820510720	68	4502
2026-01-15 02:27:50.08	207.36	50.70	-50.6	-52.3	15.2	6.03e-01	0	28	0	822607872	68	4799
2026-01-15 02:27:51.09	207.35	50.29	-50.6	-52.3	15.3	6.02e-01	0	27	0	824705024	69	4508
2026-01-15 02:27:52.07	207.33	49.89	-50.5	-52.2	15.3	6.02e-01	0	28	0	826277888	69	4457
2026-01-15 02:27:53.07	207.31	49.49	-50.7	-52.4	15.3	6.04e-01	0	27	0	828375040	69	4564
2026-01-15 02:27:54.07	207.29	49.10	-51.0	-52.8	15.3	6.03e-01	0	28	0	829947904	70	4528
2026-01-15 02:27:55.06	207.28	48.71	-51.0	-52.8	15.3	6.04e-01	0	28	0	832045056	70	4502
2026-01-15 02:27:56.06	207.26	48.32	-50.9	-52.6	15.3	6.02e-01	0	28	0	833617920	70	4396
2026-01-15 02:27:57.06	207.25	47.93	-50.5	-52.2	15.4	6.03e-01	0	27	0	835715072	70	4214
2026-01-15 02:27:58.06	207.23	47.55	-50.6	-52.3	15.4	6.03e-01	0	27	0	837287936	70	4249
2026-01-15 02:27:59.05	207.22	47.18	-50.6	-52.2	15.4	6.02e-01	0	28	0	839385088	70	4237
2026-01-15 02:28:00.05	207.21	46.80	-50.5	-52.1	15.4	6.03e-01	0	27	0	841482240	70	4168
2026-01-15 02:28:01.04	207.19	46.43	-50.5	-52.2	15.4	6.01e-01	0	28	0	843055104	70	4206
2026-01-15 02:28:02.04	207.18	46.06	-50.6	-52.2	15.4	6.02e-01	0	27	0	845152256	70	4230
2026-01-15 02:28:03.04	207.17	45.70	-50.4	-52.1	15.5	6.02e-01	0	27	0	846725120	70	4163
2026-01-15 02:28:04.03	207.16	45.34	-50.6	-52.2	15.4	6.02e-01	0	28	0	848822272	70	4240
2026-01-15 02:28:05.03	207.15	44.98	-50.5	-52.2	15.4	6.04e-01	0	28	0	850395136	70	4222
2026-01-15 02:28:06.03	207.13	44.63	-50.5	-52.2	15.4	6.00e-01	0	28	0	852492288	70	4218
2026-01-15 02:28:07.04	207.12	44.28	-50.7	-52.4	15.4	6.02e-01	0	28	0	854589440	70	4316
2026-01-15 02:28:08.03	207.11	43.93	-50.9	-52.6	15.3	6.04e-01	0	27	0	856162304	70	4410
2026-01-15 02:28:09.04	207.10	43.58	-50.9	-52.6	15.3	6.02e-01	0	28	0	858259456	70	4407
2026-01-15 02:28:10.04	207.09	43.24	-50.4	-52.0	15.5	6.03e-01	0	28	0	859832320	70	4133
2026-01-15 02:28:11.03	207.08	42.91	-50.3	-51.9	15.4	6.05e-01	0	28	0	861929472	69	4310
2026-01-15 02:28:12.04	207.07	42.57	-50.4	-52.1	15.4	6.03e-01	0	27	0	863502336	69	4399
2026-01-15 02:28:13.03	207.06	42.24	-50.7	-52.3	15.3	6.03e-01	0	28	0	865599488	69	4539
2026-01-15 02:28:14.02	207.05	41.91	-50.9	-52.6	15.2	6.04e-01	0	28	0	867696640	69	4664
2026-01-15 02:28:15.02	207.05	41.59	-51.3	-53.1	15.2	6.03e-01	0	28	0	869269504	70	4657
2026-01-15 02:28:16.02	207.04	41.27	-51.5	-53.4	15.1	6.03e-01	0	28	0	871366656	70	4835
2026-01-15 02:28:17.02	207.03	40.95	-51.5	-53.4	15.1	6.02e-01	0	27	0	872939520	70	4853
2026-01-15 02:28:18.01	207.02	40.63	-51.6	-53.5	15.2	6.05e-01	0	28	0	875036672	71	4620
2026-01-15 02:28:19.00	207.01	40.32	-51.7	-53.5	15.2	6.05e-01	0	28	0	876609536	71	4647
2026-01-15 02:28:19.99	207.01	40.01	-51.8	-53.7	15.1	6.02e-01	0	28	0	878706688	71	4741
2026-01-15 02:28:20.99	207.00	39.71	-51.8	-53.7	15.1	6.03e-01	0	27	0	880279552	71	4712
2026-01-15 02:28:21.98	206.99	39.40	-51.7	-53.5	15.2	6.02e-01	0	27	0	882376704	71	4635
2026-01-15 02:28:22.98	206.99	39.10	-51.7	-53.6	15.2	6.01e-01	0	27	0	884473856	71	4654
2026-01-15 02:28:23.97	206.98	38.80	-51.8	-53.7	15.1	6.03e-01	0	28	0	886046720	71	4737
2026-01-15 02:28:24.96	206.97	38.51	-51.8	-53.7	15.1	6.02e-01	0	28	0	888143872	71	4714
2026-01-15 02:28:25.96	206.97	38.21	-51.8	-53.7	15.1	6.02e-01	0	28	0	889716736	71	4732
2026-01-15 02:28:26.95	206.96	37.93	-51.8	-53.7	15.1	6.03e-01	0	27	0	891813888	71	4706
2026-01-15 02:28:27.95	206.95	37.64	-51.7	-53.6	15.2	6.03e-01	0	28	0	893386752	71	4668
2026-01-15 02:28:28.94	206.95	37.35	-51.5	-53.4	15.2	6.03e-01	0	28	0	895483904	71	4558
2026-01-15 02:28:29.94	206.94	37.07	-51.5	-53.4	15.2	6.01e-01	0	28	0	897056768	71	4561
2026-01-15 02:28:30.94	206.94	36.79	-51.4	-53.2	15.3	6.03e-01	0	28	0	899153920	71	4492
2026-01-15 02:28:31.93	206.93	36.51	-51.2	-53.0	15.3	6.02e-01	0	27	0	901251072	71	4363
2026-01-15 02:28:32.93	206.93	36.24	-51.3	-53.1	15.3	6.04e-01	0	28	0	902823936	71	4394
2026-01-15 02:28:33.92	206.92	35.96	-51.0	-52.7	15.4	6.03e-01	0	28	0	904921088	71	4228
2026-01-15 02:28:34.92	206.92	35.69	-50.8	-52.5	15.3	6.02e-01	0	28	0	906493952	70	4371
2026-01-15 02:28:35.93	206.91	35.42	-50.6	-52.2	15.4	6.03e-01	0	28	0	908591104	70	4224
2026-01-15 02:28:36.92	206.91	35.16	-50.6	-52.3	15.4	6.04e-01	0	27	0	910163968	70	4247
2026-01-15 02:28:37.92	206.90	34.89	-50.2	-51.9	15.4	6.03e-01	0	28	0	912261120	69	4296
2026-01-15 02:28:38.92	206.90	34.63	-50.2	-51.8	15.4	6.04e-01	0	27	0	914358272	69	4276
2026-01-15 02:28:39.93	206.89	34.37	-50.2	-51.8	15.4	6.03e-01	0	28	0	915931136	69	4274
2026-01-15 02:28:40.93	206.89	34.11	-50.2	-51.8	15.4	6.04e-01	0	28	0	918028288	69	4254
2026-01-15 02:28:41.93	206.89	33.86	-50.2	-51.8	15.4	6.04e-01	0	27	0	919601152	69	4287
2026-01-15 02:28:42.92	206.88	33.61	-50.1	-51.7	15.4	6.05e-01	0	28	0	921698304	69	4230
2026-01-15 02:28:43.93	206.88	33.35	-50.0	-51.6	15.5	6.02e-01	0	28	0	923795456	69	4186
2026-01-15 02:28:44.93	206.88	33.10	-50.0	-51.6	15.5	6.03e-01	0	28	0	925368320	69	4178
2026-01-15 02:28:45.92	206.87	32.86	-49.7	-51.3	15.4	6.03e-01	0	28	0	927465472	68	4257
2026-01-15 02:28:46.93	206.87	32.61	-49.7	-51.2	15.4	6.00e-01	0	28	0	929038336	68	4225
2026-01-15 02:28:47.93	206.87	32.37	-49.7	-51.2	15.4	6.05e-01	0	27	0	931135488	68	4236
2026-01-15 02:28:48.93	206.86	32.13	-49.6	-51.2	15.4	6.02e-01	0	28	0	932708352	68	4220
2026-01-15 02:28:49.92	206.86	31.90	-49.6	-51.2	15.4	6.04e-01	0	28	0	934805504	68	4199
2026-01-15 02:28:50.92	206.86	31.66	-49.6	-51.2	15.4	6.04e-01	0	27	0	936902656	68	4197
2026-01-15 02:28:51.92	206.85	31.43	-49.5	-51.0	15.5	6.03e-01	0	28	0	938475520	68	4118
2026-01-15 02:28:52.92	206.85	31.19	-49.4	-50.9	15.5	6.03e-01	0	28	0	940572672	68	4097
2026-01-15 02:28:53.91	206.85	30.97	-49.4	-51.0	15.5	6.01e-01	0	28	0	942145536	68	4111
2026-01-15 02:28:54.92	206.85	30.74	-49.5	-51.0	15.5	6.02e-01	0	28	0	944242688	68	4119
2026-01-15 02:28:55.91	206.84	30.51	-49.5	-51.1	15.5	6.04e-01	0	28	0	945815552	68	4156
2026-01-15 02:28:56.91	206.84	30.29	-49.6	-51.1	15.5	6.04e-01	0	28	0	947912704	68	4178
2026-01-15 02:28:57.90	206.84	30.07	-49.5	-51.1	15.5	6.03e-01	0	28	0	949485568	68	4175
2026-01-15 02:28:58.89	206.84	29.85	-49.7	-51.3	15.4	6.03e-01	0	28	0	951582720	68	4260
2026-01-15 02:28:59.89	206.83	29.63	-49.8	-51.4	15.4	6.02e-01	0	28	0	953679872	68	4332
2026-01-15 02:29:00.88	206.83	29.41	-49.8	-51.4	15.4	6.00e-01	0	27	0	955252736	68	4327
2026-01-15 02:29:01.88	206.83	29.20	-49.8	-51.4	15.4	6.02e-01	0	28	0	957349888	68	4332
2026-01-15 02:29:02.87	206.83	28.99	-49.8	-51.5	15.4	6.04e-01	0	28	0	958922752	68	4342
2026-01-15 02:29:03.87	206.83	28.78	-49.9	-51.6	15.4	6.01e-01	0	28	0	961019904	68	4392
2026-01-15 02:29:04.86	206.83	28.57	-49.9	-51.5	15.4	6.01e-01	0	28	0	962592768	68	4367
2026-01-15 02:29:05.87	206.82	28.36	-49.9	-51.5	15.4	6.01e-01	0	28	0	964689920	68	4354
2026-01-15 02:29:06.87	206.82	28.15	-49.9	-51.5	15.3	6.04e-01	0	28	0	966787072	68	4361
2026-01-15 02:29:07.87	206.82	27.95	-49.8	-51.4	15.4	6.02e-01	0	28	0	968359936	68	4322
2026-01-15 02:29:08.87	206.82	27.74	-49.9	-51.5	15.3	6.03e-01	0	28	0	970457088	68	4344
2026-01-15 02:29:09.87	206.82	27.54	-49.9	-51.5	15.2	6.02e-01	0	28	0	972029952	68	4374
2026-01-15 02:29:10.87	206.82	27.34	-49.8	-51.4	15.4	6.02e-01	0	28	0	974127104	68	4323
2026-01-15 02:29:11.87	206.82	27.14	-49.8	-51.4	15.4	6.04e-01	0	28	0	975699968	68	4321
2026-01-15 02:29:12.87	206.81	26.94	-49.8	-51.4	15.4	6.00e-01	0	28	0	977797120	68	4335
2026-01-15 02:29:13.87	206.81	26.75	-49.8	-51.4	15.4	6.00e-01	0	28	0	979894272	68	4299
2026-01-15 02:29:14.87	206.81	26.55	-49.7	-51.3	15.4	6.04e-01	0	28	0	981467136	68	4280
2026-01-15 02:29:15.86	206.81	26.36	-49.8	-51.4	15.4	6.03e-01	0	27	0	983564288	68	4304
2026-01-15 02:29:16.86	206.81	26.17	-49.8	-51.4	15.4	6.03e-01	0	27	0	985137152	68	4323
2026-01-15 02:29:17.85	206.81	25.98	-49.9	-51.5	15.4	6.04e-01	0	28	0	987234304	68	4348
2026-01-15 02:29:18.84	206.81	25.80	-49.9	-51.5	15.4	6.06e-01	0	27	0	988807168	68	4383
2026-01-15 02:29:19.85	206.81	25.61	-50.0	-51.6	15.3	6.01e-01	0	27	0	990904320	68	4438
2026-01-15 02:29:20.85	206.81	25.42	-50.1	-51.7	15.3	6.03e-01	0	28	0	992477184	68	4476
2026-01-15 02:29:21.84	206.81	25.24	-50.3	-52.0	15.3	6.03e-01	0	28	0	994574336	68	4608
2026-01-15 02:29:22.84	206.81	25.06	-50.4	-52.2	15.2	6.02e-01	0	28	0	996671488	68	4712
2026-01-15 02:29:23.84	206.80	24.88	-50.5	-52.2	15.2	6.01e-01	0	28	0	998244352	68	4749
2026-01-15 02:29:24.84	206.80	24.70	-50.6	-52.3	15.2	6.03e-01	0	28	0	1000341504	68	4790
2026-01-15 02:29:25.84	206.80	24.52	-50.6	-52.3	15.1	6.03e-01	0	28	0	1001914368	68	4807
2026-01-15 02:29:26.84	206.80	24.34	-50.6	-52.3	15.2	6.03e-01	0	28	0	1004011520	68	4788
2026-01-15 02:29:27.84	206.80	24.16	-50.6	-52.3	15.3	6.03e-01	0	28	0	1006108672	69	4535
2026-01-15 02:29:28.84	206.80	23.99	-50.6	-52.4	15.3	6.03e-01	0	28	0	1007681536	69	4553
2026-01-15 02:29:29.83	206.80	23.82	-50.7	-52.4	15.2	6.01e-01	0	28	0	1009778688	69	4581
2026-01-15 02:29:30.82	206.80	23.65	-50.7	-52.4	15.3	6.05e-01	0	28	0	1011351552	69	4576
2026-01-15 02:29:31.82	206.80	23.48	-50.6	-52.4	15.2	6.02e-01	0	28	0	1013448704	69	4562
2026-01-15 02:29:32.82	206.80	23.31	-50.6	-52.3	15.3	6.02e-01	0	28	0	1015021568	69	4530
2026-01-15 02:29:33.81	206.80	23.14	-50.6	-52.3	15.2	6.05e-01	0	28	0	1017118720	69	4534
2026-01-15 02:29:34.81	206.80	22.97	-50.5	-52.2	15.3	6.04e-01	0	28	0	1019215872	69	4460
2026-01-15 02:29:35.80	206.80	22.81	-50.5	-52.2	15.3	6.01e-01	0	28	0	1020788736	69	4483
2026-01-15 02:29:36.79	206.80	22.64	-50.4	-52.1	15.3	6.02e-01	0	28	0	1022885888	69	4440
2026-01-15 02:29:37.79	206.80	22.48	-50.5	-52.2	15.3	6.01e-01	0	28	0	1024458752	69	4454
2026-01-15 02:29:38.78	206.80	22.32	-50.5	-52.2	15.3	6.03e-01	0	28	0	1026555904	69	4489
2026-01-15 02:29:39.78	206.80	22.16	-50.4	-52.1	15.3	6.01e-01	0	28	0	1028128768	69	4436
2026-01-15 02:29:40.78	206.80	21.99	-50.4	-52.1	15.3	6.02e-01	0	27	0	1030225920	69	4414
2026-01-15 02:29:41.78	206.80	21.83	-50.4	-52.0	15.2	6.03e-01	0	28	0	1031798784	69	4391
2026-01-15 02:29:42.78	206.80	21.68	-50.3	-52.0	15.3	6.03e-01	0	28	0	1033895936	69	4359
2026-01-15 02:29:43.78	206.80	21.52	-50.3	-52.0	15.3	6.04e-01	0	28	0	1035993088	69	4352
2026-01-15 02:29:44.78	206.80	21.36	-50.3	-51.9	15.3	6.03e-01	0	28	0	1037565952	69	4336
2026-01-15 02:29:45.78	206.80	21.21	-50.3	-52.0	15.4	6.03e-01	0	28	0	1039663104	69	4365
2026-01-15 02:29:46.79	206.80	21.05	-50.2	-51.9	15.4	6.00e-01	0	28	0	1041235968	69	4313
2026-01-15 02:29:47.78	206.80	20.90	-50.3	-52.0	15.3	6.01e-01	0	28	0	1043333120	69	4357
2026-01-15 02:29:48.77	206.80	20.75	-50.3	-52.0	15.4	6.04e-01	0	28	0	1044905984	69	4365
2026-01-15 02:29:49.77	206.80	20.60	-50.3	-52.0	15.4	6.02e-01	0	28	0	1047003136	69	4373
2026-01-15 02:29:50.77	206.81	20.45	-50.3	-52.0	15.3	6.04e-01	0	27	0	1049100288	69	4385
2026-01-15 02:29:51.78	206.81	20.30	-50.3	-52.0	15.4	6.03e-01	0	28	0	1050673152	69	4341
2026-01-15 02:29:52.78	206.81	20.15	-50.3	-52.0	15.4	6.02e-01	0	28	0	1052770304	69	4349
2026-01-15 02:29:53.78	206.81	20.00	-50.4	-52.1	15.3	6.03e-01	0	28	0	1054343168	69	4430
2026-01-15 02:29:54.78	206.81	19.85	-50.3	-52.0	15.3	6.04e-01	0	27	0	1056440320	69	4391
2026-01-15 02:29:55.77	206.81	19.71	-50.3	-52.0	15.4	6.03e-01	0	28	0	1058013184	69	4374
2026-01-15 02:29:56.77	206.81	19.57	-50.3	-52.1	15.3	6.03e-01	0	28	0	1060110336	69	4392
2026-01-15 02:29:57.77	206.81	19.42	-50.3	-52.0	15.3	6.03e-01	0	28	0	1062207488	69	4381
2026-01-15 02:29:58.76	206.81	19.28	-50.4	-52.2	15.3	6.03e-01	0	28	0	1063780352	69	4460
2026-01-15 02:29:59.76	206.81	19.14	-50.4	-52.1	15.3	6.02e-01	0	28	0	1065877504	69	4441
2026-01-15 02:30:00.76	206.81	19.00	-50.4	-52.1	15.3	6.05e-01	0	27	0	1067450368	69	4433
2026-01-15 02:30:01.75	206.81	18.86	-50.5	-52.2	15.3	6.02e-01	0	28	0	1069547520	69	4490
2026-01-15 02:30:02.76	206.81	18.72	-50.4	-52.2	15.3	6.04e-01	0	28	0	1071120384	69	4457
2026-01-15 02:30:03.75	206.81	18.58	-50.6	-52.3	15.3	6.03e-01	0	27	0	1073217536	69	4537
2026-01-15 02:30:04.75	206.82	18.44	-50.5	-52.2	15.3	6.00e-01	0	28	0	1074790400	69	4485
2026-01-15 02:30:05.75	206.82	18.31	-50.4	-52.2	15.3	6.02e-01	0	28	0	1076887552	69	4463
2026-01-15 02:30:06.75	206.82	18.17	-50.6	-52.3	15.3	6.02e-01	0	28	0	1078984704	69	4545
2026-01-15 02:30:07.76	206.82	18.03	-50.5	-52.3	15.3	6.04e-01	0	27	0	1080557568	69	4519
2026-01-15 02:30:08.76	206.82	17.90	-50.5	-52.2	15.3	6.03e-01	0	27	0	1082654720	69	4488
2026-01-15 02:30:09.76	206.82	17.77	-50.5	-52.3	15.3	6.04e-01	0	28	0	1084751872	69	4508
2026-01-15 02:30:10.76	206.82	17.63	-50.5	-52.3	15.3	6.02e-01	0	28	0	1086324736	69	4507
2026-01-15 02:30:11.76	206.82	17.50	-50.5	-52.3	15.3	6.01e-01	0	28	0	1088421888	69	4506
2026-01-15 02:30:12.76	206.82	17.37	-50.5	-52.2	15.3	6.03e-01	0	28	0	1089994752	69	4477
2026-01-15 02:30:13.76	206.82	17.24	-50.5	-52.2	15.2	6.02e-01	0	28	0	1092091904	69	4489
2026-01-15 02:30:14.75	206.83	17.11	-50.5	-52.2	15.3	6.03e-01	0	28	0	1093664768	69	4486
2026-01-15 02:30:15.75	206.83	16.98	-50.4	-52.2	15.3	6.02e-01	0	28	0	1095761920	69	4469
2026-01-15 02:30:16.74	206.83	16.86	-50.5	-52.3	15.3	6.03e-01	0	28	0	1097334784	69	4497
2026-01-15 02:30:17.74	206.83	16.73	-50.4	-52.2	15.3	6.03e-01	0	28	0	1099431936	69	4454
2026-01-15 02:30:18.74	206.83	16.60	-50.5	-52.2	15.3	6.05e-01	0	27	0	1101529088	69	4489
2026-01-15 02:30:19.74	206.83	16.48	-50.4	-52.2	15.3	6.02e-01	0	28	0	1103101952	69	4453
2026-01-15 02:30:20.73	206.83	16.35	-50.5	-52.3	15.3	6.03e-01	0	28	0	1105199104	69	4496
2026-01-15 02:30:21.73	206.83	16.23	-50.3	-52.0	15.3	6.02e-01	0	28	0	1106771968	69	4389
2026-01-15 02:30:22.73	206.84	16.11	-50.4	-52.2	15.3	6.03e-01	0	27	0	1108869120	69	4455
2026-01-15 02:30:23.72	206.84	15.98	-50.2	-52.0	15.3	6.02e-01	0	28	0	1110441984	69	4341
2026-01-15 02:30:24.72	206.84	15.86	-50.3	-52.0	15.3	6.04e-01	0	28	0	1112539136	69	4382
2026-01-15 02:30:25.72	206.84	15.74	-50.3	-52.1	15.3	6.03e-01	0	28	0	1114636288	69	4397
2026-01-15 02:30:26.71	206.84	15.62	-50.2	-51.9	15.4	6.03e-01	0	28	0	1116209152	69	4325
2026-01-15 02:30:27.71	206.84	15.50	-50.2	-51.9	15.3	6.02e-01	0	28	0	1118306304	69	4339
2026-01-15 02:30:28.70	206.84	15.38	-50.2	-52.0	15.3	6.01e-01	0	28	0	1119879168	69	4349
2026-01-15 02:30:29.70	206.85	15.26	-50.2	-51.9	15.4	6.04e-01	0	28	0	1121976320	69	4309
2026-01-15 02:30:30.70	206.85	15.14	-50.2	-51.9	15.4	6.03e-01	0	28	0	1123549184	69	4307
2026-01-15 02:30:31.69	206.85	15.03	-50.2	-51.9	15.4	6.04e-01	0	27	0	1125646336	69	4314
2026-01-15 02:30:32.69	206.85	14.91	-50.2	-51.8	15.4	6.02e-01	0	28	0	1127219200	69	4288
2026-01-15 02:30:33.69	206.85	14.79	-50.1	-51.8	15.4	6.02e-01	0	27	0	1129316352	69	4288
2026-01-15 02:30:34.68	206.85	14.68	-50.2	-51.9	15.4	6.04e-01	0	28	0	1131413504	69	4295
2026-01-15 02:30:35.68	206.85	14.56	-50.1	-51.8	15.4	6.02e-01	0	28	0	1132986368	69	4269
2026-01-15 02:30:36.68	206.86	14.45	-50.2	-51.9	15.4	6.03e-01	0	28	0	1135083520	69	4301
2026-01-15 02:30:37.67	206.86	14.33	-50.2	-51.9	15.4	6.05e-01	0	28	0	1136656384	69	4293
2026-01-15 02:30:38.67	206.86	14.22	-50.2	-52.0	15.3	6.04e-01	0	28	0	1138753536	69	4342
2026-01-15 02:30:39.67	206.86	14.11	-50.0	-51.7	15.4	6.04e-01	0	28	0	1140326400	69	4226
2026-01-15 02:30:40.66	206.86	14.00	-50.2	-51.9	15.4	6.04e-01	0	27	0	1142423552	69	4295
2026-01-15 02:30:41.66	206.86	13.88	-50.2	-51.9	15.4	6.03e-01	0	27	0	1143996416	69	4295
2026-01-15 02:30:42.66	206.87	13.77	-50.2	-51.9	15.4	6.04e-01	0	28	0	1146093568	69	4340
2026-01-15 02:30:43.66	206.87	13.66	-50.1	-51.8	15.4	6.02e-01	0	28	0	1148190720	69	4252
2026-01-15 02:30:44.66	206.87	13.55	-50.1	-51.8	15.4	6.04e-01	0	27	0	1149763584	69	4282
2026-01-15 02:30:45.66	206.87	13.44	-50.2	-51.9	15.4	6.04e-01	0	27	0	1151860736	69	4307
2026-01-15 02:30:46.66	206.87	13.33	-50.2	-51.9	15.4	6.02e-01	0	28	0	1153433600	69	4324
2026-01-15 02:30:47.66	206.87	13.22	-50.1	-51.8	15.4	6.04e-01	0	28	0	1155530752	69	4283
2026-01-15 02:30:48.66	206.88	13.12	-50.1	-51.8	15.4	6.03e-01	0	28	0	1157627904	69	4282
2026-01-15 02:30:49.65	206.88	13.01	-50.1	-51.9	15.4	6.04e-01	0	28	0	1159200768	69	4295
2026-01-15 02:30:50.65	206.88	12.90	-50.1	-51.8	15.4	6.04e-01	0	27	0	1161297920	69	4274
2026-01-15 02:30:51.64	206.88	12.80	-50.1	-51.8	15.4	6.00e-01	0	28	0	1162870784	69	4268
2026-01-15 02:30:52.64	206.88	12.69	-50.1	-51.8	15.4	6.01e-01	0	28	0	1164967936	69	4261
2026-01-15 02:30:53.64	206.88	12.59	-50.1	-51.8	15.4	6.03e-01	0	27	0	1166540800	69	4290
2026-01-15 02:30:54.64	206.89	12.48	-50.2	-51.9	15.4	6.03e-01	0	27	0	1168637952	69	4310
2026-01-15 02:30:55.63	206.89	12.38	-50.1	-51.8	15.4	6.07e-01	0	28	0	1170210816	69	4248
2026-01-15 02:30:56.62	206.89	12.28	-50.0	-51.7	15.4	6.01e-01	0	27	0	1172307968	69	4235
2026-01-15 02:30:57.61	206.89	12.17	-50.1	-51.8	15.4	6.04e-01	0	27	0	1173880832	69	4283
2026-01-15 02:30:58.60	206.89	12.07	-50.0	-51.7	15.4	6.01e-01	0	28	0	1175977984	69	4212
2026-01-15 02:30:59.58	206.90	11.97	-50.2	-51.9	15.4	6.03e-01	0	27	0	1178075136	69	4310
2026-01-15 02:31:00.58	206.90	11.87	-50.1	-51.8	15.4	6.04e-01	0	28	0	1179648000	69	4265
2026-01-15 02:31:01.57	206.90	11.77	-50.2	-51.9	15.4	6.03e-01	0	27	0	1181745152	69	4312
2026-01-15 02:31:02.57	206.90	11.67	-50.1	-51.8	15.4	6.02e-01	0	27	0	1183318016	69	4276
2026-01-15 02:31:03.56	206.90	11.57	-50.1	-51.9	15.4	6.04e-01	0	27	0	1185415168	69	4293
2026-01-15 02:31:04.56	206.90	11.47	-50.2	-51.9	15.4	6.03e-01	0	28	0	1187512320	69	4298
2026-01-15 02:31:05.56	206.91	11.37	-50.2	-51.9	15.4	6.01e-01	0	28	0	1189085184	69	4297
2026-01-15 02:31:06.56	206.91	11.27	-50.2	-51.9	15.4	6.04e-01	0	28	0	1190658048	69	4294
2026-01-15 02:31:07.56	206.91	11.17	-50.2	-51.9	15.4	6.03e-01	0	28	0	1192755200	69	4308
2026-01-15 02:31:08.56	206.91	11.07	-50.2	-51.9	15.4	6.03e-01	0	28	0	1194852352	69	4321
2026-01-15 02:31:09.56	206.91	10.97	-50.3	-52.0	15.3	6.03e-01	0	27	0	1196425216	69	4370
2026-01-15 02:31:10.56	206.92	10.88	-50.3	-52.0	15.4	6.04e-01	0	27	0	1198522368	69	4359
2026-01-15 02:31:11.55	206.92	10.78	-50.2	-51.9	15.3	6.03e-01	0	28	0	1200095232	69	4336
2026-01-15 02:31:12.54	206.92	10.68	-50.2	-51.9	15.4	6.02e-01	0	28	0	1202192384	69	4331
2026-01-15 02:31:13.54	206.92	10.59	-50.3	-52.0	15.3	6.05e-01	0	27	0	1204289536	69	4389
2026-01-15 02:31:14.54	206.92	10.49	-50.4	-52.2	15.3	6.04e-01	0	28	0	1205862400	69	4443
2026-01-15 02:31:15.53	206.93	10.40	-50.4	-52.1	15.3	6.03e-01	0	27	0	1207959552	69	4438
2026-01-15 02:31:16.52	206.93	10.30	-50.3	-52.1	15.3	6.03e-01	0	28	0	1209532416	69	4406
2026-01-15 02:31:17.53	206.93	10.21	-50.4	-52.2	15.3	6.04e-01	0	27	0	1211629568	69	4470
2026-01-15 02:31:18.53	206.93	10.11	-50.5	-52.2	15.3	6.01e-01	0	28	0	1213202432	69	4487
2026-01-15 02:31:19.52	206.93	10.02	-50.4	-52.2	15.3	6.02e-01	0	28	0	1215299584	69	4448
2026-01-15 02:31:20.52	206.94	9.93	-50.5	-52.3	15.2	6.04e-01	0	27	0	1217396736	69	4511
2026-01-15 02:31:21.52	206.94	9.83	-50.4	-52.2	15.3	6.02e-01	0	27	0	1218969600	69	4465
2026-01-15 02:31:22.52	206.94	9.74	-50.5	-52.3	15.3	6.02e-01	0	28	0	1221066752	69	4500
2026-01-15 02:31:23.52	206.94	9.65	-50.5	-52.3	15.2	6.01e-01	0	28	0	1222639616	69	4543
2026-01-15 02:31:24.53	206.95	9.56	-50.5	-52.3	15.2	6.03e-01	0	28	0	1224736768	69	4526
2026-01-15 02:31:25.53	206.95	9.46	-50.6	-52.4	15.3	6.02e-01	0	27	0	1226309632	69	4573
2026-01-15 02:31:26.52	206.95	9.37	-50.7	-52.5	15.2	6.02e-01	0	27	0	1228406784	69	4648
2026-01-15 02:31:27.52	206.95	9.28	-50.6	-52.4	15.2	6.04e-01	0	27	0	1230503936	69	4592
2026-01-15 02:31:28.51	206.95	9.19	-50.6	-52.4	15.2	6.04e-01	0	28	0	1232076800	69	4583
2026-01-15 02:31:29.50	206.96	9.11	-50.7	-52.5	15.2	6.04e-01	0	27	0	1234173952	69	4630
2026-01-15 02:31:30.50	206.96	9.02	-50.7	-52.5	15.2	6.05e-01	0	28	0	1235746816	69	4624
2026-01-15 02:31:31.49	206.96	8.93	-50.7	-52.5	15.2	6.02e-01	0	28	0	1237843968	69	4641
2026-01-15 02:31:32.49	206.96	8.84	-50.8	-52.7	15.1	6.02e-01	0	27	0	1239416832	69	4726
2026-01-15 02:31:33.48	206.97	8.75	-50.8	-52.7	15.1	6.04e-01	0	27	0	1241513984	69	4759
2026-01-15 02:31:34.48	206.97	8.66	-50.9	-52.8	15.1	6.02e-01	0	28	0	1243086848	69	4783
2026-01-15 02:31:35.48	206.97	8.57	-50.8	-52.6	15.2	6.03e-01	0	28	0	1245184000	69	4694
2026-01-15 02:31:36.47	206.97	8.49	-50.9	-52.8	15.1	6.03e-01	0	28	0	1247281152	69	4786
2026-01-15 02:31:37.48	206.97	8.40	-50.9	-52.8	15.1	6.01e-01	0	28	0	1248854016	69	4789
2026-01-15 02:31:38.47	206.98	8.31	-51.0	-53.0	15.1	6.02e-01	0	28	0	1250951168	69	4887
