passes_logs/2026/01/15/R3.2S_Murmansk/R3.2S_Murmansk__20260115_214955_KANOPUS-V_5_rec.log

#Pass ID: 20260115_214955_KANOPUS-V 5
#Satellite: KANOPUS-V 5
#Configuration: KANOPUS-V_8320
#almurnet v.1.7.20251203
#Start time: 2026-01-15 21:49:56

#Version: 2.2.20231116
#Station: R3.2S_Murmansk
#Location: 33.079688 lon 68.888172 lat
#TLE: 1 43876U 18111A   26015.49905314  .00001973  00000+0  85765-4 0  9993
#TLE: 2 43876  97.3687 284.0041 0001787  87.7096 272.4345 15.23439440391543

#Time	Az	El	Level	Level2	SNR	BER	BlckErr	Temp	State	Recorded	gain1	gain2
2026-01-15 21:49:56.43	20.84	2.07	-57.4	-66.3	3.8	7.44e-01	0	42	0	0	86	9962
2026-01-15 21:49:57.44	20.87	2.14	-57.4	-66.3	3.8	7.46e-01	0	42	104	0	85	10577
2026-01-15 21:49:58.45	20.89	2.21	-57.4	-66.3	3.8	7.45e-01	0	42	104	0	85	10544
2026-01-15 21:49:59.46	20.92	2.28	-57.4	-66.3	3.8	7.45e-01	0	42	104	0	85	10562
2026-01-15 21:50:00.47	20.95	2.35	-57.4	-66.2	3.8	7.46e-01	0	42	104	0	85	10488
2026-01-15 21:50:01.48	20.97	2.42	-57.4	-66.2	3.8	7.46e-01	0	42	104	0	85	10492
2026-01-15 21:50:02.49	21.00	2.49	-57.4	-66.2	3.8	7.44e-01	0	42	104	0	85	10498
2026-01-15 21:50:03.50	21.02	2.57	-57.4	-66.2	3.8	7.47e-01	0	42	104	0	85	10485
2026-01-15 21:50:04.51	21.05	2.64	-57.4	-66.2	3.8	7.46e-01	0	42	104	0	85	10532
2026-01-15 21:50:05.52	21.08	2.71	-57.4	-66.2	3.8	7.44e-01	0	43	104	0	85	10518
2026-01-15 21:50:06.53	21.11	2.78	-57.4	-66.2	3.8	7.46e-01	0	43	104	0	85	10497
2026-01-15 21:50:07.54	21.13	2.85	-57.4	-66.2	3.8	7.46e-01	0	43	104	0	85	10493
2026-01-15 21:50:08.55	21.16	2.93	-57.4	-66.2	3.8	7.47e-01	0	42	104	0	85	10500
2026-01-15 21:50:09.56	21.19	3.00	-57.3	-66.2	3.8	7.44e-01	0	43	104	0	85	10492
2026-01-15 21:50:10.57	21.22	3.07	-57.3	-66.2	3.8	7.45e-01	0	43	104	0	85	10496
2026-01-15 21:50:11.58	21.24	3.15	-57.3	-66.2	3.8	7.45e-01	0	43	104	0	85	10489
2026-01-15 21:50:12.59	21.27	3.22	-57.3	-66.2	3.8	7.46e-01	0	43	104	0	85	10476
2026-01-15 21:50:13.60	21.30	3.29	-57.3	-66.2	3.8	7.46e-01	0	43	104	0	85	10490
2026-01-15 21:50:14.61	21.33	3.37	-57.3	-66.2	3.8	7.46e-01	0	43	104	0	85	10475
2026-01-15 21:50:15.62	21.36	3.44	-57.3	-66.2	3.8	7.46e-01	0	43	104	0	85	10505
2026-01-15 21:50:16.63	21.38	3.52	-57.2	-66.2	3.8	7.45e-01	0	43	104	0	85	10505
2026-01-15 21:50:17.64	21.41	3.59	-57.2	-66.2	3.8	7.45e-01	0	43	104	0	85	10493
2026-01-15 21:50:18.65	21.44	3.67	-57.3	-66.2	3.8	7.47e-01	0	43	104	0	85	10481
2026-01-15 21:50:19.66	21.47	3.74	-57.3	-66.2	3.8	7.44e-01	0	43	104	0	85	10510
2026-01-15 21:50:20.67	21.50	3.82	-57.3	-66.2	3.8	7.46e-01	0	43	104	0	85	10458
2026-01-15 21:50:21.68	21.53	3.89	-57.3	-66.2	3.8	7.45e-01	0	43	104	0	85	10491
2026-01-15 21:50:22.69	21.56	3.97	-57.3	-66.2	3.8	7.44e-01	0	43	104	0	85	10488
2026-01-15 21:50:23.70	21.59	4.05	-57.3	-66.2	3.8	7.45e-01	0	43	104	0	85	10491
2026-01-15 21:50:24.71	21.62	4.12	-57.3	-66.2	3.8	7.46e-01	0	43	104	0	85	10467
2026-01-15 21:50:25.72	21.65	4.20	-57.3	-66.2	3.8	7.46e-01	0	44	104	0	85	10471
2026-01-15 21:50:26.73	21.68	4.28	-57.3	-66.2	3.8	7.44e-01	0	44	104	0	85	10489
2026-01-15 21:50:27.74	21.71	4.36	-57.3	-66.2	3.8	7.45e-01	0	44	104	0	85	10500
2026-01-15 21:50:28.75	21.74	4.44	-57.4	-66.2	3.8	7.44e-01	0	44	104	0	85	10507
2026-01-15 21:50:29.76	21.77	4.51	-57.4	-66.2	3.8	7.44e-01	0	44	104	0	85	10501
2026-01-15 21:50:30.77	21.80	4.59	-57.4	-66.2	3.8	7.45e-01	0	44	104	0	85	10507
2026-01-15 21:50:31.78	21.83	4.67	-57.3	-66.2	3.8	7.44e-01	0	44	104	0	85	10479
2026-01-15 21:50:32.79	21.86	4.75	-57.3	-66.2	3.8	7.45e-01	0	44	104	0	85	10490
2026-01-15 21:50:33.80	21.90	4.83	-57.4	-66.2	3.8	7.46e-01	0	44	104	0	85	10520
2026-01-15 21:50:34.81	21.93	4.91	-57.4	-66.2	3.8	7.46e-01	0	44	104	0	85	10490
2026-01-15 21:50:35.82	21.96	4.99	-57.4	-66.2	3.8	7.44e-01	0	44	104	0	85	10522
2026-01-15 21:50:36.83	21.99	5.07	-57.4	-66.2	3.8	7.44e-01	0	44	104	0	85	10523
2026-01-15 21:50:37.84	22.02	5.15	-57.5	-66.4	3.8	7.46e-01	0	44	104	0	85	10679
2026-01-15 21:50:38.85	22.06	5.23	-57.3	-66.2	3.8	7.46e-01	0	44	104	0	85	10455
2026-01-15 21:50:39.86	22.09	5.32	-57.3	-66.2	3.8	7.44e-01	0	44	104	0	85	10506
2026-01-15 21:50:40.87	22.12	5.40	-57.5	-66.4	3.8	7.46e-01	0	44	104	0	85	10681
2026-01-15 21:50:41.88	22.15	5.48	-57.5	-66.4	3.8	7.46e-01	0	44	104	0	85	10749
2026-01-15 21:50:42.89	22.19	5.56	-57.4	-66.2	3.8	7.44e-01	0	44	104	0	85	10515
2026-01-15 21:50:43.90	22.22	5.65	-57.4	-66.3	3.8	7.46e-01	0	44	104	0	85	10562
2026-01-15 21:50:44.91	22.25	5.73	-57.5	-66.4	3.8	7.46e-01	0	44	104	0	85	10746
2026-01-15 21:50:45.92	22.29	5.81	-57.6	-66.5	3.8	7.44e-01	0	44	104	0	85	10784
2026-01-15 21:50:46.93	22.32	5.90	-57.4	-66.3	3.8	7.47e-01	0	45	104	0	85	10593
2026-01-15 21:50:47.94	22.36	5.98	-57.5	-66.3	3.8	7.45e-01	0	44	104	0	85	10607
2026-01-15 21:50:48.95	22.39	6.07	-57.6	-66.4	3.8	7.44e-01	0	45	104	0	85	10753
2026-01-15 21:50:49.96	22.43	6.15	-57.6	-66.5	3.8	7.45e-01	0	45	104	0	85	10808
2026-01-15 21:50:50.97	22.46	6.24	-57.5	-66.4	3.8	7.45e-01	0	45	104	0	85	10678
2026-01-15 21:50:51.98	22.50	6.32	-57.5	-66.4	3.8	7.46e-01	0	45	104	0	85	10675
2026-01-15 21:50:52.99	22.53	6.41	-57.6	-66.5	3.8	7.47e-01	0	45	104	0	85	10850
2026-01-15 21:50:54.00	22.57	6.49	-57.7	-66.5	3.8	7.45e-01	0	45	104	0	85	10843
2026-01-15 21:50:55.01	22.60	6.58	-57.5	-66.4	3.8	7.45e-01	0	45	104	0	85	10706
2026-01-15 21:50:56.02	22.64	6.67	-57.6	-66.4	3.8	7.46e-01	0	45	104	0	85	10732
2026-01-15 21:50:57.03	22.68	6.76	-57.7	-66.5	3.8	7.45e-01	0	45	104	0	85	10864
2026-01-15 21:50:58.03	22.71	6.84	-57.7	-66.6	3.8	7.44e-01	0	45	104	0	85	10927
2026-01-15 21:50:59.04	22.75	6.93	-57.6	-66.4	3.8	7.46e-01	0	45	104	0	85	10767
2026-01-15 21:51:00.05	22.79	7.02	-57.6	-66.4	3.8	7.46e-01	0	45	104	0	85	10768
2026-01-15 21:51:01.06	22.82	7.11	-57.7	-66.6	3.8	7.45e-01	0	45	104	0	85	10924
2026-01-15 21:51:02.07	22.86	7.20	-57.8	-66.6	3.8	7.44e-01	0	45	104	0	86	10335
2026-01-15 21:51:03.08	22.90	7.29	-57.6	-66.5	3.8	7.46e-01	0	45	104	0	86	10215
2026-01-15 21:51:04.09	22.94	7.38	-57.6	-66.5	3.8	7.46e-01	0	45	104	0	86	10276
2026-01-15 21:51:05.10	22.98	7.47	-57.7	-66.6	3.8	7.46e-01	0	45	104	0	86	10350
2026-01-15 21:51:06.11	23.01	7.57	-57.8	-66.7	3.8	7.44e-01	0	45	104	0	86	10423
2026-01-15 21:51:07.12	23.05	7.66	-57.7	-66.6	3.8	7.47e-01	0	45	104	0	86	10309
2026-01-15 21:51:08.13	23.09	7.75	-57.7	-66.5	3.8	7.46e-01	0	45	104	0	86	10272
2026-01-15 21:51:09.14	23.13	7.84	-57.8	-66.6	3.8	7.45e-01	0	45	104	0	86	10408
2026-01-15 21:51:10.15	23.17	7.94	-57.8	-66.7	3.8	7.45e-01	0	45	104	0	86	10435
2026-01-15 21:51:11.16	23.21	8.03	-57.7	-66.6	3.8	7.44e-01	0	45	104	0	86	10340
2026-01-15 21:51:12.17	23.25	8.12	-57.7	-66.6	3.8	7.45e-01	0	45	104	0	86	10340
2026-01-15 21:51:13.18	23.29	8.22	-57.8	-66.7	3.8	7.46e-01	0	45	104	0	86	10486
2026-01-15 21:51:14.19	23.33	8.31	-57.9	-66.7	3.8	7.45e-01	0	45	104	0	86	10496
2026-01-15 21:51:15.19	23.38	8.41	-57.8	-66.6	3.8	7.45e-01	0	46	104	0	86	10383
2026-01-15 21:51:16.20	23.42	8.50	-57.8	-66.7	3.8	7.47e-01	0	46	104	0	86	10418
2026-01-15 21:51:17.21	23.46	8.60	-57.9	-66.7	3.8	7.45e-01	0	46	104	0	86	10511
2026-01-15 21:51:18.22	23.50	8.70	-57.9	-66.8	3.8	7.43e-01	0	46	104	0	86	10554
2026-01-15 21:51:19.23	23.54	8.80	-57.8	-66.7	3.8	7.44e-01	0	46	104	0	86	10426
2026-01-15 21:51:20.24	23.59	8.89	-57.8	-66.7	3.8	7.46e-01	0	46	104	0	86	10455
2026-01-15 21:51:21.25	23.63	8.99	-57.9	-66.8	3.8	7.45e-01	0	46	104	0	86	10569
2026-01-15 21:51:22.26	23.67	9.09	-57.9	-66.8	3.8	7.44e-01	0	46	104	0	86	10551
2026-01-15 21:51:23.27	23.72	9.19	-57.8	-66.7	3.8	7.45e-01	0	46	104	0	86	10455
2026-01-15 21:51:24.28	23.76	9.29	-57.9	-66.7	3.8	7.45e-01	0	46	104	0	86	10472
2026-01-15 21:51:25.29	23.81	9.39	-57.9	-66.8	3.8	7.45e-01	0	46	104	0	86	10615
2026-01-15 21:51:26.30	23.85	9.49	-57.9	-66.8	3.8	7.46e-01	0	46	104	0	86	10567
2026-01-15 21:51:27.31	23.90	9.60	-57.9	-66.7	3.8	7.46e-01	0	46	104	0	86	10518
2026-01-15 21:51:28.32	23.94	9.70	-57.9	-66.7	3.8	7.44e-01	0	46	104	0	86	10510
2026-01-15 21:51:29.33	23.99	9.80	-58.0	-66.8	3.8	7.44e-01	0	46	104	0	86	10602
2026-01-15 21:51:30.34	24.03	9.90	-58.0	-66.8	3.8	7.45e-01	0	46	104	0	86	10609
2026-01-15 21:51:31.35	24.08	10.01	-57.9	-66.8	3.8	7.46e-01	0	46	104	0	86	10550
2026-01-15 21:51:32.36	24.13	10.11	-57.9	-66.8	3.8	7.46e-01	0	46	104	0	86	10587
2026-01-15 21:51:33.37	24.17	10.22	-58.0	-66.9	3.8	7.46e-01	0	46	104	0	86	10689
2026-01-15 21:51:34.38	24.22	10.32	-58.0	-66.9	3.8	7.45e-01	0	46	104	0	86	10666
2026-01-15 21:51:35.39	24.27	10.43	-57.9	-66.8	3.8	7.45e-01	0	46	104	0	86	10570
2026-01-15 21:51:36.40	24.32	10.54	-57.9	-66.8	3.8	7.45e-01	0	46	104	0	86	10620
2026-01-15 21:51:37.41	24.37	10.65	-58.0	-66.9	3.8	7.44e-01	0	46	104	0	86	10685
2026-01-15 21:51:38.42	24.42	10.75	-58.0	-66.8	3.8	7.46e-01	0	46	104	0	86	10648
2026-01-15 21:51:39.43	24.47	10.86	-58.0	-66.8	3.8	7.45e-01	0	46	104	0	86	10567
2026-01-15 21:51:40.43	24.52	10.97	-58.0	-66.8	3.8	7.45e-01	0	46	104	0	86	10647
2026-01-15 21:51:41.44	24.57	11.08	-58.0	-66.9	3.8	7.47e-01	0	46	104	0	86	10695
2026-01-15 21:51:42.45	24.62	11.19	-58.0	-66.8	3.8	7.46e-01	0	46	104	0	86	10646
2026-01-15 21:51:43.46	24.67	11.30	-58.0	-66.8	3.8	7.46e-01	0	46	104	0	86	10653
2026-01-15 21:51:44.47	24.72	11.42	-58.0	-66.9	3.8	7.44e-01	0	46	104	0	86	10670
2026-01-15 21:51:45.48	24.77	11.53	-58.1	-66.9	3.8	7.43e-01	0	46	104	0	86	10728
2026-01-15 21:51:46.49	24.83	11.64	-58.0	-66.9	3.8	7.45e-01	0	46	104	0	86	10712
2026-01-15 21:51:47.50	24.88	11.76	-58.0	-66.9	3.8	7.43e-01	0	46	104	0	86	10658
2026-01-15 21:51:48.51	24.93	11.87	-58.0	-66.9	3.8	7.44e-01	0	46	104	0	86	10735
2026-01-15 21:51:49.52	24.99	11.99	-58.1	-67.0	3.8	7.45e-01	0	46	104	0	86	10794
2026-01-15 21:51:50.53	25.04	12.10	-58.1	-66.9	3.8	7.46e-01	0	46	104	0	86	10750
2026-01-15 21:51:51.54	25.10	12.22	-58.0	-66.9	3.8	7.44e-01	0	47	104	0	86	10703
2026-01-15 21:51:52.55	25.15	12.34	-58.1	-66.9	3.8	7.46e-01	0	46	104	0	86	10767
2026-01-15 21:51:53.56	25.21	12.46	-58.1	-67.0	3.8	7.45e-01	0	46	104	0	86	10814
2026-01-15 21:51:54.57	25.27	12.57	-58.1	-66.9	3.8	7.44e-01	0	46	104	0	86	10755
2026-01-15 21:51:55.58	25.32	12.69	-58.1	-66.9	3.8	7.47e-01	0	46	104	0	86	10736
2026-01-15 21:51:56.59	25.38	12.82	-58.1	-67.0	3.8	7.46e-01	0	47	104	0	86	10789
2026-01-15 21:51:57.60	25.44	12.94	-58.1	-67.0	3.8	7.45e-01	0	46	104	0	86	10850
2026-01-15 21:51:58.61	25.50	13.06	-58.1	-67.0	3.8	7.44e-01	0	47	104	0	86	10799
2026-01-15 21:51:59.62	25.56	13.18	-58.1	-66.9	3.8	7.45e-01	0	47	104	0	86	10765
2026-01-15 21:52:00.63	25.62	13.31	-58.1	-67.0	3.8	7.44e-01	0	47	104	0	86	10866
2026-01-15 21:52:01.64	25.68	13.43	-58.2	-67.1	3.8	7.47e-01	0	47	104	0	86	10930
2026-01-15 21:52:02.65	25.74	13.56	-58.1	-67.0	3.8	7.46e-01	0	47	104	0	86	10833
2026-01-15 21:52:03.65	25.80	13.68	-58.1	-67.0	3.8	7.45e-01	0	47	104	0	86	10813
2026-01-15 21:52:04.66	25.86	13.81	-58.2	-67.0	3.8	7.44e-01	0	47	104	0	86	10856
2026-01-15 21:52:05.67	25.92	13.94	-58.2	-67.1	3.8	7.45e-01	0	47	104	0	86	10933
2026-01-15 21:52:06.68	25.99	14.07	-58.2	-67.0	3.8	7.46e-01	0	47	104	0	86	10857
2026-01-15 21:52:07.69	26.05	14.20	-58.1	-67.0	3.8	7.46e-01	0	47	104	0	86	10796
2026-01-15 21:52:08.70	26.12	14.33	-58.2	-67.0	3.8	7.45e-01	0	47	104	0	86	10879
2026-01-15 21:52:09.71	26.18	14.46	-58.2	-67.1	3.8	7.47e-01	0	47	104	0	86	10916
2026-01-15 21:52:10.72	26.25	14.59	-58.2	-67.1	3.8	7.42e-01	0	47	104	0	86	10915
2026-01-15 21:52:11.73	26.31	14.72	-58.2	-67.0	3.8	7.44e-01	0	47	104	0	86	10860
2026-01-15 21:52:12.74	26.38	14.86	-58.2	-67.1	3.8	7.46e-01	0	47	104	0	86	10927
2026-01-15 21:52:13.75	26.45	14.99	-58.2	-67.1	3.8	7.45e-01	0	47	104	0	87	10334
2026-01-15 21:52:14.76	26.52	15.13	-58.2	-67.0	3.8	7.45e-01	0	47	104	0	87	10270
2026-01-15 21:52:15.77	26.59	15.27	-58.2	-67.0	3.8	7.45e-01	0	47	104	0	87	10291
2026-01-15 21:52:16.78	26.66	15.41	-58.2	-67.1	3.8	7.43e-01	0	47	104	0	87	10334
2026-01-15 21:52:17.79	26.73	15.55	-58.3	-67.1	3.8	7.46e-01	0	47	104	0	87	10384
2026-01-15 21:52:18.80	26.80	15.69	-58.2	-67.1	3.8	7.44e-01	0	47	104	0	87	10349
2026-01-15 21:52:19.81	26.87	15.83	-58.2	-67.1	3.8	7.45e-01	0	47	104	0	87	10314
2026-01-15 21:52:20.82	26.94	15.97	-58.3	-67.1	3.8	7.48e-01	0	47	104	0	87	10336
2026-01-15 21:52:21.83	27.02	16.11	-58.3	-67.2	3.8	7.46e-01	0	47	104	0	87	10434
2026-01-15 21:52:22.84	27.09	16.26	-58.2	-67.1	3.8	7.47e-01	0	47	104	0	87	10369
2026-01-15 21:52:23.85	27.17	16.40	-58.2	-67.1	3.8	7.45e-01	0	47	104	0	87	10351
2026-01-15 21:52:24.86	27.24	16.55	-58.3	-67.1	3.8	7.45e-01	0	47	104	0	87	10379
2026-01-15 21:52:25.87	27.32	16.70	-58.3	-67.2	3.8	7.45e-01	0	47	104	0	87	10436
2026-01-15 21:52:26.88	27.40	16.85	-58.3	-67.1	3.8	7.45e-01	0	47	104	0	87	10377
2026-01-15 21:52:27.89	27.48	17.00	-58.3	-67.1	3.8	7.46e-01	0	47	104	0	87	10370
2026-01-15 21:52:28.90	27.56	17.15	-58.3	-67.2	3.8	7.45e-01	0	47	104	0	87	10514
2026-01-15 21:52:29.91	27.64	17.30	-58.3	-67.2	3.8	7.47e-01	0	47	104	0	87	10432
2026-01-15 21:52:30.92	27.72	17.45	-58.3	-67.2	3.8	7.47e-01	0	47	104	0	87	10417
2026-01-15 21:52:31.93	27.80	17.61	-58.3	-67.2	3.8	7.46e-01	0	47	104	0	87	10445
2026-01-15 21:52:32.94	27.88	17.76	-58.3	-67.2	3.8	7.45e-01	0	47	104	0	87	10449
2026-01-15 21:52:33.95	27.97	17.92	-58.3	-67.2	3.8	7.45e-01	0	47	104	0	87	10474
2026-01-15 21:52:34.96	28.05	18.08	-58.3	-67.1	3.8	7.44e-01	0	47	104	0	87	10407
2026-01-15 21:52:35.97	28.14	18.24	-58.3	-67.2	3.8	7.46e-01	0	47	104	0	87	10424
2026-01-15 21:52:36.98	28.23	18.40	-58.3	-67.2	3.8	7.45e-01	0	47	104	0	87	10477
2026-01-15 21:52:37.98	28.31	18.56	-58.4	-67.2	3.8	7.45e-01	0	47	104	0	87	10517
2026-01-15 21:52:39.00	28.40	18.73	-58.3	-67.2	3.8	7.46e-01	0	47	104	0	87	10464
2026-01-15 21:52:40.01	28.49	18.89	-58.3	-67.2	3.8	7.45e-01	0	48	104	0	87	10482
2026-01-15 21:52:41.01	28.58	19.06	-58.4	-67.2	3.8	7.46e-01	0	47	104	0	87	10525
2026-01-15 21:52:42.02	28.68	19.23	-58.4	-67.2	3.8	7.44e-01	0	47	104	0	87	10519
2026-01-15 21:52:43.03	28.77	19.39	-58.3	-67.2	3.8	7.46e-01	0	47	104	0	87	10483
2026-01-15 21:52:44.04	28.87	19.56	-58.4	-67.2	3.8	7.45e-01	0	48	104	0	87	10506
2026-01-15 21:52:45.05	28.96	19.74	-58.4	-67.3	3.8	7.46e-01	0	48	104	0	87	10584
2026-01-15 21:52:46.06	29.06	19.91	-58.4	-67.3	3.8	7.44e-01	0	47	104	0	87	10545
2026-01-15 21:52:47.07	29.16	20.09	-58.4	-67.2	3.8	7.45e-01	0	48	104	0	87	10467
2026-01-15 21:52:48.08	29.26	20.26	-58.4	-67.2	3.8	7.46e-01	0	47	104	0	87	10493
2026-01-15 21:52:49.09	29.36	20.44	-58.4	-67.2	3.8	7.45e-01	0	47	104	0	87	10516
2026-01-15 21:52:50.10	29.46	20.62	-58.4	-67.3	3.8	7.44e-01	0	48	104	0	87	10563
2026-01-15 21:52:51.11	29.56	20.80	-58.4	-67.2	3.8	7.47e-01	0	48	104	0	87	10518
2026-01-15 21:52:52.12	29.67	20.98	-58.4	-67.2	3.8	7.46e-01	0	48	104	0	87	10531
2026-01-15 21:52:53.13	29.77	21.17	-58.4	-67.3	3.8	7.45e-01	0	48	104	0	87	10602
2026-01-15 21:52:54.14	29.88	21.35	-58.4	-67.3	3.8	7.45e-01	0	48	104	0	87	10607
2026-01-15 21:52:55.15	29.99	21.54	-58.4	-67.3	3.8	7.45e-01	0	48	104	0	87	10561
2026-01-15 21:52:56.15	30.10	21.73	-58.4	-67.3	3.8	7.45e-01	0	47	104	0	87	10552
2026-01-15 21:52:57.17	30.21	21.92	-58.4	-67.3	3.8	7.44e-01	0	48	104	0	87	10614
2026-01-15 21:52:58.18	30.33	22.11	-58.4	-67.3	3.8	7.46e-01	0	48	104	0	87	10621
2026-01-15 21:52:59.18	30.44	22.31	-58.4	-67.3	3.8	7.47e-01	0	48	104	0	87	10585
2026-01-15 21:53:00.19	30.56	22.50	-58.4	-67.3	3.8	7.46e-01	0	48	104	0	87	10564
2026-01-15 21:53:01.20	30.68	22.70	-58.5	-67.3	3.8	7.44e-01	0	48	104	0	87	10621
2026-01-15 21:53:02.21	30.80	22.90	-58.5	-67.4	3.8	7.45e-01	0	48	104	0	87	10664
2026-01-15 21:53:03.22	30.92	23.10	-58.4	-67.3	3.8	7.45e-01	0	48	104	0	87	10623
2026-01-15 21:53:04.23	31.04	23.30	-58.4	-67.3	3.8	7.44e-01	0	48	104	0	87	10589
2026-01-15 21:53:05.24	31.16	23.51	-58.5	-67.3	3.8	7.46e-01	0	48	104	0	87	10645
2026-01-15 21:53:06.25	31.29	23.72	-58.5	-67.3	3.8	7.47e-01	0	48	104	0	87	10655
2026-01-15 21:53:07.26	31.42	23.93	-58.5	-67.3	3.8	7.46e-01	0	48	104	0	87	10652
2026-01-15 21:53:08.27	31.55	24.14	-58.5	-67.3	3.8	7.45e-01	0	48	104	0	87	10566
2026-01-15 21:53:09.28	31.68	24.35	-58.5	-67.4	3.8	7.45e-01	0	48	104	0	87	10679
2026-01-15 21:53:10.29	31.82	24.56	-58.5	-67.4	3.8	7.45e-01	0	48	104	0	87	10670
2026-01-15 21:53:11.30	31.95	24.78	-58.5	-67.3	3.8	7.45e-01	0	48	104	0	87	10638
2026-01-15 21:53:12.31	32.09	25.00	-58.5	-67.4	3.8	7.46e-01	0	48	104	0	87	10656
2026-01-15 21:53:13.32	32.23	25.22	-58.5	-67.4	3.8	7.45e-01	0	48	104	0	87	10704
2026-01-15 21:53:14.33	32.38	25.45	-58.5	-67.4	3.8	7.45e-01	0	48	104	0	87	10676
2026-01-15 21:53:15.34	32.52	25.67	-58.5	-67.4	3.8	7.46e-01	0	48	104	0	87	10676
2026-01-15 21:53:16.35	32.67	25.90	-58.5	-67.4	3.8	7.46e-01	0	48	104	0	87	10722
2026-01-15 21:53:17.35	32.82	26.13	-58.5	-67.4	3.8	7.45e-01	0	48	104	0	87	10747
2026-01-15 21:53:18.36	32.97	26.36	-58.5	-67.4	3.8	7.45e-01	0	48	104	0	87	10687
2026-01-15 21:53:19.37	33.12	26.59	-58.5	-67.4	3.8	7.46e-01	0	48	104	0	87	10663
2026-01-15 21:53:20.38	33.28	26.83	-58.5	-67.4	3.8	7.46e-01	0	48	104	0	87	10710
2026-01-15 21:53:21.39	33.44	27.07	-58.5	-67.4	3.8	7.45e-01	0	48	104	0	87	10722
2026-01-15 21:53:22.40	33.60	27.31	-58.6	-67.4	3.8	7.44e-01	0	48	104	0	87	10767
2026-01-15 21:53:23.41	33.76	27.55	-58.5	-67.4	3.8	7.47e-01	0	48	104	0	87	10696
2026-01-15 21:53:24.42	33.93	27.80	-58.5	-67.4	3.8	7.44e-01	0	48	104	0	87	10729
2026-01-15 21:53:25.43	34.10	28.05	-58.6	-67.5	3.8	7.46e-01	0	48	104	0	87	10789
2026-01-15 21:53:26.44	34.27	28.30	-58.6	-67.4	3.8	7.46e-01	0	48	104	0	87	10746
2026-01-15 21:53:27.45	34.45	28.55	-58.5	-67.4	3.8	7.46e-01	0	48	104	0	87	10744
2026-01-15 21:53:28.46	34.63	28.81	-58.6	-67.4	3.8	7.46e-01	0	48	104	0	87	10738
2026-01-15 21:53:29.47	34.81	29.07	-58.6	-67.5	3.8	7.46e-01	0	48	104	0	87	10802
2026-01-15 21:53:30.48	34.99	29.33	-58.6	-67.5	3.8	7.45e-01	0	48	104	0	87	10781
2026-01-15 21:53:31.49	35.18	29.59	-58.6	-67.4	3.8	7.45e-01	0	48	104	0	87	10752
2026-01-15 21:53:32.50	35.37	29.86	-58.6	-67.5	3.8	7.46e-01	0	48	104	0	87	10803
2026-01-15 21:53:33.51	35.57	30.13	-58.6	-67.5	3.8	7.46e-01	0	48	104	0	87	10788
2026-01-15 21:53:34.52	35.77	30.40	-58.6	-67.4	3.8	7.45e-01	0	48	104	0	87	10775
2026-01-15 21:53:35.53	35.97	30.68	-58.6	-67.4	3.8	7.45e-01	0	48	104	0	87	10769
2026-01-15 21:53:36.54	36.18	30.96	-58.6	-67.5	3.8	7.44e-01	0	48	104	0	87	10821
2026-01-15 21:53:37.55	36.38	31.24	-58.6	-67.5	3.8	7.45e-01	0	48	104	0	87	10836
2026-01-15 21:53:38.56	36.60	31.52	-58.6	-67.5	3.8	7.43e-01	0	48	104	0	87	10780
2026-01-15 21:53:39.56	36.81	31.80	-58.6	-67.5	3.8	7.46e-01	0	48	104	0	87	10819
2026-01-15 21:53:40.57	37.03	32.09	-58.6	-67.5	3.8	7.44e-01	0	48	104	0	87	10849
2026-01-15 21:53:41.59	37.26	32.39	-58.6	-67.5	3.8	7.46e-01	0	48	104	0	87	10883
2026-01-15 21:53:42.60	37.49	32.68	-58.6	-67.5	3.8	7.45e-01	0	48	104	0	87	10854
2026-01-15 21:53:43.61	37.73	32.98	-58.6	-67.5	3.8	7.45e-01	0	48	104	0	87	10821
2026-01-15 21:53:44.61	37.96	33.28	-58.7	-67.5	3.8	7.45e-01	0	48	104	0	87	10839
2026-01-15 21:53:45.62	38.21	33.58	-58.7	-67.5	3.8	7.46e-01	0	48	104	0	87	10843
2026-01-15 21:53:46.63	38.46	33.89	-58.7	-67.5	3.8	7.44e-01	0	48	104	0	87	10864
2026-01-15 21:53:47.64	38.71	34.20	-58.6	-67.5	3.8	7.46e-01	0	48	104	0	87	10873
2026-01-15 21:53:48.65	38.97	34.51	-58.7	-67.5	3.8	7.45e-01	0	48	104	0	87	10894
2026-01-15 21:53:49.66	39.23	34.83	-58.7	-67.6	3.8	7.45e-01	0	48	104	0	87	10911
2026-01-15 21:53:50.67	39.50	35.14	-58.7	-67.5	3.8	7.44e-01	0	48	104	0	87	10877
2026-01-15 21:53:51.68	39.78	35.47	-58.7	-67.5	3.8	7.46e-01	0	48	104	0	87	10870
2026-01-15 21:53:52.69	40.06	35.79	-58.7	-67.5	3.8	7.47e-01	0	48	104	0	87	10884
2026-01-15 21:53:53.70	40.34	36.12	-58.7	-67.6	3.8	7.44e-01	0	48	104	0	87	10936
2026-01-15 21:53:54.71	40.64	36.45	-58.7	-67.6	3.8	7.43e-01	0	48	104	0	87	10940
2026-01-15 21:53:55.72	40.94	36.79	-58.7	-67.6	3.8	7.45e-01	0	49	104	0	87	10915
2026-01-15 21:53:56.73	41.24	37.13	-58.7	-67.6	3.8	7.44e-01	0	48	104	0	88	10300
2026-01-15 21:53:57.74	41.55	37.47	-58.7	-67.6	3.8	7.46e-01	0	48	104	0	88	10343
2026-01-15 21:53:58.75	41.87	37.81	-58.7	-67.6	3.8	7.44e-01	0	48	104	0	88	10298
2026-01-15 21:53:59.75	42.20	38.16	-58.7	-67.5	3.8	7.44e-01	0	48	104	0	88	10283
2026-01-15 21:54:00.76	42.53	38.51	-58.7	-67.6	3.8	7.45e-01	0	48	104	0	88	10307
2026-01-15 21:54:01.77	42.87	38.86	-58.7	-67.6	3.8	7.45e-01	0	48	104	0	88	10332
2026-01-15 21:54:02.78	43.22	39.22	-58.7	-67.6	3.8	7.46e-01	0	48	104	0	88	10342
2026-01-15 21:54:03.80	43.58	39.58	-58.7	-67.6	3.8	7.46e-01	0	49	104	0	88	10313
2026-01-15 21:54:04.81	43.95	39.94	-58.7	-67.6	3.8	7.44e-01	0	48	104	0	88	10373
2026-01-15 21:54:05.82	44.32	40.31	-58.7	-67.6	3.8	7.46e-01	0	48	104	0	88	10407
2026-01-15 21:54:06.83	44.71	40.68	-58.7	-67.6	3.8	7.46e-01	0	48	104	0	88	10358
2026-01-15 21:54:07.84	45.10	41.05	-58.7	-67.6	3.8	7.46e-01	0	48	104	0	88	10328
2026-01-15 21:54:08.85	45.50	41.43	-58.7	-67.6	3.8	7.45e-01	0	48	104	0	88	10389
2026-01-15 21:54:09.86	45.91	41.81	-58.8	-67.6	3.8	7.46e-01	0	48	104	0	88	10383
2026-01-15 21:54:10.87	46.33	42.19	-58.7	-67.6	3.8	7.45e-01	0	48	104	0	88	10339
2026-01-15 21:54:11.88	46.77	42.57	-58.7	-67.6	3.8	7.45e-01	0	48	104	0	88	10382
2026-01-15 21:54:12.89	47.21	42.96	-58.8	-67.6	3.8	7.45e-01	0	48	104	0	88	10412
2026-01-15 21:54:13.89	47.66	43.34	-58.8	-67.6	3.8	7.46e-01	0	48	104	0	88	10403
2026-01-15 21:54:14.91	48.13	43.74	-58.7	-67.6	3.8	7.46e-01	0	48	104	0	88	10387
2026-01-15 21:54:15.91	48.60	44.13	-58.7	-67.6	3.8	7.44e-01	0	48	104	0	88	10411
2026-01-15 21:54:16.92	49.09	44.53	-58.8	-67.6	3.8	7.45e-01	0	48	104	0	88	10398
2026-01-15 21:54:17.93	49.60	44.93	-58.8	-67.6	3.8	7.43e-01	0	48	104	0	88	10387
2026-01-15 21:54:18.94	50.11	45.33	-58.8	-67.7	3.8	7.45e-01	0	48	104	0	88	10434
2026-01-15 21:54:19.95	50.64	45.73	-58.8	-67.6	3.8	7.46e-01	0	49	104	0	88	10387
2026-01-15 21:54:20.96	51.19	46.14	-58.8	-67.7	3.8	7.45e-01	0	48	104	0	88	10420
2026-01-15 21:54:21.97	51.74	46.54	-58.8	-67.7	3.8	7.45e-01	0	48	104	0	88	10438
2026-01-15 21:54:22.98	52.32	46.95	-58.8	-67.7	3.8	7.45e-01	0	48	104	0	88	10438
2026-01-15 21:54:23.99	52.91	47.36	-58.8	-67.7	3.8	7.45e-01	0	48	104	0	88	10436
2026-01-15 21:54:25.00	53.51	47.77	-58.8	-67.7	3.8	7.45e-01	0	49	104	0	88	10473
2026-01-15 21:54:26.01	54.13	48.19	-58.8	-67.7	3.8	7.46e-01	0	49	104	0	88	10458
2026-01-15 21:54:27.02	54.77	48.60	-58.8	-67.7	3.8	7.45e-01	0	49	104	0	88	10458
2026-01-15 21:54:28.03	55.43	49.01	-58.8	-67.7	3.8	7.46e-01	0	48	104	0	88	10440
2026-01-15 21:54:29.04	56.11	49.43	-58.8	-67.7	3.8	7.48e-01	0	48	104	0	88	10452
2026-01-15 21:54:30.05	56.80	49.84	-58.8	-67.7	3.8	7.46e-01	0	49	104	0	88	10449
2026-01-15 21:54:31.06	57.51	50.26	-58.8	-67.7	3.8	7.45e-01	0	48	104	0	88	10428
2026-01-15 21:54:32.07	58.25	50.67	-58.8	-67.7	3.8	7.44e-01	0	49	104	0	88	10483
2026-01-15 21:54:33.08	59.00	51.08	-58.8	-67.7	3.8	7.45e-01	0	49	104	0	88	10458
2026-01-15 21:54:34.09	59.78	51.49	-58.8	-67.7	3.8	7.46e-01	0	48	104	0	88	10500
2026-01-15 21:54:35.10	60.58	51.90	-58.8	-67.7	3.8	7.45e-01	0	49	104	0	88	10445
2026-01-15 21:54:36.11	61.40	52.31	-58.8	-67.7	3.8	7.45e-01	0	49	104	0	88	10459
2026-01-15 21:54:37.12	62.24	52.72	-58.8	-67.7	3.8	7.46e-01	0	49	104	0	88	10466
2026-01-15 21:54:38.13	63.11	53.12	-58.8	-67.7	3.8	7.46e-01	0	49	104	0	88	10474
2026-01-15 21:54:39.14	64.00	53.52	-58.8	-67.7	3.8	7.47e-01	0	49	104	0	88	10512
2026-01-15 21:54:40.14	64.91	53.91	-58.8	-67.7	3.8	7.46e-01	0	49	104	0	88	10471
2026-01-15 21:54:41.15	65.86	54.31	-58.8	-67.7	3.8	7.47e-01	0	49	104	0	88	10505
2026-01-15 21:54:42.16	66.83	54.69	-58.8	-67.7	3.8	7.45e-01	0	49	104	0	88	10510
2026-01-15 21:54:43.17	67.82	55.08	-58.8	-67.7	3.8	7.45e-01	0	49	104	0	88	10489
2026-01-15 21:54:44.18	68.85	55.45	-58.8	-67.7	3.8	7.45e-01	0	49	104	0	88	10513
2026-01-15 21:54:45.19	69.90	55.83	-58.8	-67.7	3.8	7.46e-01	0	49	104	0	88	10525
2026-01-15 21:54:46.20	70.98	56.19	-58.8	-67.7	3.8	7.44e-01	0	49	104	0	88	10515
2026-01-15 21:54:47.21	72.09	56.55	-58.8	-67.7	3.8	7.46e-01	0	49	104	0	88	10496
2026-01-15 21:54:48.22	73.23	56.90	-58.8	-67.7	3.8	7.46e-01	0	49	104	0	88	10462
2026-01-15 21:54:49.23	74.40	57.24	-58.8	-67.7	3.8	7.44e-01	0	49	104	0	88	10510
2026-01-15 21:54:50.24	75.60	57.57	-58.8	-67.7	3.8	7.47e-01	0	49	104	0	88	10493
2026-01-15 21:54:51.25	76.83	57.89	-58.8	-67.7	3.8	7.44e-01	0	48	104	0	88	10482
2026-01-15 21:54:52.26	78.08	58.20	-58.8	-67.7	3.8	7.44e-01	0	49	104	0	88	10527
2026-01-15 21:54:53.27	79.37	58.50	-58.9	-67.7	3.8	7.45e-01	0	49	104	0	88	10502
2026-01-15 21:54:54.28	80.69	58.79	-58.8	-67.7	3.8	7.44e-01	0	49	104	0	88	10500
2026-01-15 21:54:55.29	82.03	59.07	-58.8	-67.7	3.8	7.45e-01	0	48	104	0	88	10460
2026-01-15 21:54:56.30	83.41	59.33	-58.8	-67.8	3.8	7.45e-01	0	49	104	0	88	10539
2026-01-15 21:54:57.31	84.81	59.58	-58.9	-67.7	3.8	7.45e-01	0	48	104	0	88	10514
2026-01-15 21:54:58.32	86.23	59.81	-58.8	-67.7	3.8	7.46e-01	0	49	104	0	88	10526
2026-01-15 21:54:59.33	87.69	60.03	-58.8	-67.7	3.8	7.45e-01	0	49	104	0	88	10481
2026-01-15 21:55:00.34	89.16	60.24	-58.8	-67.7	3.8	7.46e-01	0	49	104	0	88	10523
2026-01-15 21:55:01.35	90.66	60.42	-58.9	-67.8	3.8	7.46e-01	0	49	104	0	88	10546
2026-01-15 21:55:02.35	92.17	60.59	-58.8	-67.7	3.8	7.46e-01	0	49	104	0	88	10491
2026-01-15 21:55:03.36	93.71	60.75	-58.8	-67.7	3.8	7.46e-01	0	49	104	0	88	10501
2026-01-15 21:55:04.37	95.27	60.88	-58.9	-67.7	3.8	7.46e-01	0	49	104	0	88	10521
2026-01-15 21:55:05.38	96.85	61.00	-58.9	-67.7	3.8	7.45e-01	0	49	104	0	88	10500
2026-01-15 21:55:06.39	98.44	61.10	-58.8	-67.7	3.8	7.45e-01	0	49	104	0	88	10490
2026-01-15 21:55:07.40	100.04	61.18	-58.8	-67.8	3.8	7.45e-01	0	49	104	0	88	10539
2026-01-15 21:55:08.41	101.65	61.24	-58.9	-67.7	3.8	7.47e-01	0	49	104	0	88	10518
2026-01-15 21:55:09.42	103.26	61.28	-58.9	-67.8	3.8	7.46e-01	0	49	104	0	88	10559
2026-01-15 21:55:10.43	104.88	61.30	-58.9	-67.7	3.8	7.46e-01	0	49	104	0	88	10497
2026-01-15 21:55:11.44	106.51	61.30	-58.8	-67.8	3.8	7.45e-01	0	49	104	0	88	10550
2026-01-15 21:55:12.45	108.13	61.29	-58.9	-67.8	3.8	7.45e-01	0	49	104	0	88	10551
2026-01-15 21:55:13.46	109.75	61.25	-58.9	-67.8	3.8	7.44e-01	0	49	104	0	88	10549
2026-01-15 21:55:14.46	111.34	61.19	-58.9	-67.8	3.8	7.46e-01	0	49	104	0	88	10553
2026-01-15 21:55:15.47	112.95	61.12	-58.9	-67.8	3.8	7.46e-01	0	49	104	0	88	10559
2026-01-15 21:55:16.48	114.54	61.02	-58.8	-67.7	3.8	7.44e-01	0	49	104	0	88	10500
2026-01-15 21:55:17.49	116.12	60.91	-58.9	-67.7	3.8	7.46e-01	0	49	104	0	88	10518
2026-01-15 21:55:18.50	117.68	60.78	-58.8	-67.7	3.8	7.46e-01	0	49	104	0	88	10499
2026-01-15 21:55:19.51	119.23	60.63	-58.8	-67.7	3.8	7.45e-01	0	49	104	0	88	10502
2026-01-15 21:55:20.52	120.75	60.46	-58.9	-67.7	3.8	7.45e-01	0	49	104	0	88	10510
2026-01-15 21:55:21.53	122.26	60.28	-58.9	-67.8	3.8	7.45e-01	0	49	104	0	88	10554
2026-01-15 21:55:22.54	123.74	60.07	-58.8	-67.7	3.8	7.46e-01	0	49	104	0	88	10522
2026-01-15 21:55:23.55	125.20	59.86	-58.8	-67.7	3.8	7.45e-01	0	49	104	0	88	10531
2026-01-15 21:55:24.56	126.64	59.63	-58.9	-67.7	3.8	7.45e-01	0	49	104	0	88	10503
2026-01-15 21:55:25.57	128.04	59.38	-58.9	-67.7	3.8	7.46e-01	0	49	104	0	88	10522
2026-01-15 21:55:26.58	129.42	59.12	-58.8	-67.7	3.8	7.46e-01	0	49	104	0	88	10457
2026-01-15 21:55:27.59	130.78	58.84	-58.8	-67.7	3.8	7.46e-01	0	49	104	0	88	10525
2026-01-15 21:55:28.60	132.10	58.56	-58.9	-67.7	3.8	7.45e-01	0	49	104	0	88	10521
2026-01-15 21:55:29.61	133.39	58.26	-58.9	-67.8	3.8	7.44e-01	0	49	104	0	88	10556
2026-01-15 21:55:30.62	134.66	57.95	-58.8	-67.7	3.8	7.45e-01	0	49	104	0	88	10501
2026-01-15 21:55:31.62	135.88	57.63	-58.8	-67.7	3.8	7.46e-01	0	49	104	0	88	10518
2026-01-15 21:55:32.64	137.10	57.30	-58.8	-67.7	3.8	7.46e-01	0	49	104	0	88	10506
2026-01-15 21:55:33.64	138.26	56.96	-58.8	-67.7	3.8	7.44e-01	0	49	104	0	88	10496
2026-01-15 21:55:34.65	139.41	56.61	-58.8	-67.7	3.8	7.45e-01	0	49	104	0	88	10470
2026-01-15 21:55:35.66	140.53	56.26	-58.8	-67.7	3.8	7.45e-01	0	49	104	0	88	10505
2026-01-15 21:55:36.67	141.62	55.89	-58.8	-67.7	3.8	7.46e-01	0	49	104	0	88	10516
2026-01-15 21:55:37.68	142.68	55.52	-58.8	-67.7	3.8	7.46e-01	0	49	104	0	88	10513
2026-01-15 21:55:38.69	143.71	55.15	-58.8	-67.7	3.8	7.44e-01	0	49	104	0	88	10470
2026-01-15 21:55:39.70	144.71	54.76	-58.8	-67.7	3.8	7.45e-01	0	49	104	0	88	10508
2026-01-15 21:55:40.71	145.69	54.37	-58.8	-67.7	3.8	7.45e-01	0	49	104	0	88	10497
2026-01-15 21:55:41.72	146.64	53.98	-58.8	-67.7	3.8	7.44e-01	0	49	104	0	88	10482
2026-01-15 21:55:42.73	147.57	53.58	-58.8	-67.7	3.8	7.47e-01	0	49	104	0	88	10492
2026-01-15 21:55:43.74	148.46	53.18	-58.8	-67.7	3.8	7.44e-01	0	49	104	0	88	10468
2026-01-15 21:55:44.75	149.34	52.78	-58.8	-67.8	3.8	7.45e-01	0	49	104	0	88	10537
2026-01-15 21:55:45.76	150.19	52.37	-58.8	-67.7	3.8	7.46e-01	0	49	104	0	88	10491
2026-01-15 21:55:46.77	151.01	51.96	-58.8	-67.7	3.8	7.46e-01	0	49	104	0	88	10483
2026-01-15 21:55:47.78	151.82	51.55	-58.8	-67.7	3.8	7.46e-01	0	49	104	0	88	10519
2026-01-15 21:55:48.79	152.60	51.14	-58.8	-67.7	3.8	7.43e-01	0	49	104	0	88	10521
2026-01-15 21:55:49.80	153.36	50.73	-58.8	-67.7	3.8	7.46e-01	0	49	104	0	88	10508
2026-01-15 21:55:50.81	154.10	50.31	-58.8	-67.7	3.8	7.45e-01	0	49	104	0	88	10469
2026-01-15 21:55:51.82	154.82	49.90	-58.8	-67.7	3.8	7.45e-01	0	49	104	0	88	10470
2026-01-15 21:55:52.83	155.52	49.48	-58.8	-67.7	3.8	7.45e-01	0	49	104	0	88	10476
2026-01-15 21:55:53.84	156.20	49.07	-58.8	-67.7	3.8	7.44e-01	0	49	104	0	88	10469
2026-01-15 21:55:54.85	156.86	48.65	-58.8	-67.7	3.8	7.46e-01	0	49	104	0	88	10456
2026-01-15 21:55:55.86	157.50	48.24	-58.8	-67.7	3.8	7.45e-01	0	49	104	0	88	10464
2026-01-15 21:55:56.86	158.12	47.83	-58.8	-67.7	3.8	7.45e-01	0	49	104	0	88	10456
2026-01-15 21:55:57.87	158.73	47.41	-58.8	-67.7	3.8	7.46e-01	0	49	104	0	88	10493
2026-01-15 21:55:58.88	159.32	47.00	-58.8	-67.7	3.8	7.47e-01	0	49	104	0	88	10439
2026-01-15 21:55:59.89	159.90	46.59	-58.8	-67.7	3.8	7.45e-01	0	49	104	0	88	10460
2026-01-15 21:56:00.90	160.46	46.18	-58.8	-67.7	3.8	7.47e-01	0	49	104	0	88	10445
2026-01-15 21:56:01.91	161.01	45.78	-58.8	-67.7	3.8	7.44e-01	0	49	104	0	88	10441
2026-01-15 21:56:02.92	161.54	45.37	-58.8	-67.7	3.8	7.46e-01	0	49	104	0	88	10416
2026-01-15 21:56:03.93	162.06	44.97	-58.8	-67.7	3.8	7.46e-01	0	49	104	0	88	10432
2026-01-15 21:56:04.94	162.57	44.57	-58.8	-67.7	3.8	7.44e-01	0	49	104	0	88	10460
2026-01-15 21:56:05.95	163.06	44.17	-58.8	-67.7	3.8	7.44e-01	0	49	104	0	88	10419
2026-01-15 21:56:06.96	163.54	43.77	-58.8	-67.6	3.8	7.46e-01	0	49	104	0	88	10385
2026-01-15 21:56:07.97	164.01	43.38	-58.8	-67.6	3.8	7.45e-01	0	49	104	0	88	10380
2026-01-15 21:56:08.98	164.47	42.99	-58.8	-67.7	3.8	7.44e-01	0	49	104	0	88	10425
2026-01-15 21:56:09.99	164.91	42.60	-58.8	-67.6	3.8	7.45e-01	0	49	104	0	88	10402
2026-01-15 21:56:10.99	165.35	42.22	-58.8	-67.7	3.8	7.45e-01	0	49	104	0	88	10421
2026-01-15 21:56:12.00	165.77	41.83	-58.8	-67.6	3.8	7.44e-01	0	49	104	0	88	10387
2026-01-15 21:56:13.01	166.18	41.45	-58.8	-67.7	3.8	7.47e-01	0	49	104	0	88	10433
2026-01-15 21:56:14.02	166.59	41.08	-58.8	-67.7	3.8	7.47e-01	0	49	104	0	88	10445
2026-01-15 21:56:15.03	166.98	40.70	-58.7	-67.6	3.8	7.46e-01	0	49	104	0	88	10412
2026-01-15 21:56:16.04	167.37	40.33	-58.7	-67.7	3.8	7.44e-01	0	49	104	0	88	10414
2026-01-15 21:56:17.05	167.74	39.96	-58.7	-67.6	3.8	7.45e-01	0	49	104	0	88	10403
2026-01-15 21:56:18.06	168.11	39.60	-58.7	-67.7	3.8	7.49e-01	0	49	104	0	88	10422
2026-01-15 21:56:19.07	168.47	39.23	-58.7	-67.6	3.8	7.44e-01	0	49	104	0	88	10352
2026-01-15 21:56:20.08	168.82	38.88	-58.7	-67.6	3.8	7.46e-01	0	49	104	0	88	10332
2026-01-15 21:56:21.09	169.17	38.52	-58.7	-67.6	3.8	7.46e-01	0	49	104	0	88	10386
2026-01-15 21:56:22.10	169.50	38.17	-58.7	-67.6	3.8	7.44e-01	0	49	104	0	88	10358
2026-01-15 21:56:23.11	169.83	37.82	-58.7	-67.6	3.8	7.45e-01	0	49	104	0	88	10326
2026-01-15 21:56:24.12	170.15	37.47	-58.7	-67.6	3.8	7.46e-01	0	49	104	0	88	10330
2026-01-15 21:56:25.13	170.47	37.13	-58.7	-67.6	3.8	7.45e-01	0	49	104	0	88	10326
2026-01-15 21:56:26.14	170.77	36.79	-58.7	-67.6	3.8	7.46e-01	0	49	104	0	88	10337
2026-01-15 21:56:27.15	171.07	36.45	-58.7	-67.6	3.8	7.45e-01	0	49	104	0	88	10344
2026-01-15 21:56:28.16	171.37	36.12	-58.7	-67.5	3.8	7.45e-01	0	49	104	0	88	10292
2026-01-15 21:56:29.17	171.66	35.79	-58.7	-67.5	3.8	7.46e-01	0	49	104	0	88	10288
2026-01-15 21:56:30.18	171.94	35.46	-58.7	-67.6	3.8	7.45e-01	0	49	104	0	88	10332
2026-01-15 21:56:31.19	172.21	35.14	-58.7	-67.5	3.8	7.46e-01	0	49	104	0	88	10285
2026-01-15 21:56:32.20	172.49	34.82	-58.7	-67.5	3.8	7.45e-01	0	49	104	0	88	10286
2026-01-15 21:56:33.21	172.75	34.50	-58.7	-67.5	3.8	7.45e-01	0	49	104	0	88	10247
2026-01-15 21:56:34.22	173.01	34.18	-58.7	-67.5	3.8	7.44e-01	0	49	104	0	88	10283
2026-01-15 21:56:35.23	173.27	33.87	-58.6	-67.5	3.8	7.45e-01	0	49	104	0	88	10232
2026-01-15 21:56:36.24	173.51	33.56	-58.6	-67.5	3.8	7.45e-01	0	49	104	0	88	10289
2026-01-15 21:56:37.25	173.76	33.26	-58.6	-67.5	3.8	7.45e-01	0	49	104	0	88	10256
2026-01-15 21:56:38.26	174.00	32.96	-58.6	-67.5	3.8	7.45e-01	0	49	104	0	88	10230
2026-01-15 21:56:39.27	174.24	32.66	-58.6	-67.5	3.8	7.46e-01	0	49	104	0	88	10288
2026-01-15 21:56:40.28	174.47	32.36	-58.6	-67.5	3.8	7.45e-01	0	49	104	0	88	10232
2026-01-15 21:56:41.28	174.69	32.07	-58.6	-67.5	3.8	7.46e-01	0	49	104	0	88	10210
2026-01-15 21:56:42.29	174.91	31.78	-58.6	-67.5	3.8	7.46e-01	0	49	104	0	88	10243
2026-01-15 21:56:43.30	175.13	31.49	-58.6	-67.5	3.8	7.48e-01	0	49	104	0	88	10219
2026-01-15 21:56:44.31	175.35	31.21	-58.6	-67.5	3.8	7.45e-01	0	49	104	0	88	10210
2026-01-15 21:56:45.32	175.56	30.92	-58.6	-67.5	3.8	7.45e-01	0	49	104	0	88	10226
2026-01-15 21:56:46.33	175.76	30.64	-58.6	-67.5	3.8	7.45e-01	0	49	104	0	88	10227
2026-01-15 21:56:47.34	175.96	30.37	-58.6	-67.5	3.8	7.46e-01	0	49	104	0	88	10200
2026-01-15 21:56:48.35	176.16	30.10	-58.6	-67.5	3.8	7.44e-01	0	49	104	0	88	10194
2026-01-15 21:56:49.36	176.36	29.82	-58.6	-67.5	3.8	7.45e-01	0	49	104	0	88	10187
2026-01-15 21:56:50.37	176.55	29.56	-58.6	-67.4	3.8	7.45e-01	0	49	104	0	88	10167
2026-01-15 21:56:51.38	176.74	29.29	-58.6	-67.4	3.8	7.45e-01	0	49	104	0	88	10171
2026-01-15 21:56:52.39	176.93	29.03	-58.6	-67.4	3.8	7.44e-01	0	49	104	0	88	10151
2026-01-15 21:56:53.40	177.11	28.77	-58.6	-67.5	3.8	7.45e-01	0	49	104	0	88	10193
2026-01-15 21:56:54.41	177.29	28.51	-58.6	-67.4	3.8	7.46e-01	0	49	104	0	88	10158
2026-01-15 21:56:55.42	177.46	28.26	-58.5	-67.4	3.8	7.44e-01	0	49	104	0	88	10173
2026-01-15 21:56:56.43	177.64	28.00	-58.5	-67.4	3.8	7.45e-01	0	49	104	0	88	10164
2026-01-15 21:56:57.44	177.81	27.75	-58.5	-67.4	3.8	7.44e-01	0	49	104	0	88	10141
2026-01-15 21:56:58.45	177.97	27.51	-58.5	-67.4	3.8	7.42e-01	0	49	104	0	88	10108
2026-01-15 21:56:59.46	178.14	27.26	-58.5	-67.4	3.8	7.45e-01	0	49	104	0	88	10122
2026-01-15 21:57:00.47	178.30	27.02	-58.5	-67.4	3.8	7.46e-01	0	49	104	0	88	10109
2026-01-15 21:57:01.48	178.46	26.78	-58.5	-67.4	3.8	7.45e-01	0	49	104	0	88	10103
2026-01-15 21:57:02.49	178.62	26.54	-58.5	-67.4	3.8	7.43e-01	0	49	104	0	88	10096
2026-01-15 21:57:03.50	178.77	26.30	-58.5	-67.4	3.8	7.46e-01	0	49	104	0	88	10081
2026-01-15 21:57:04.50	178.92	26.07	-58.5	-67.4	3.8	7.45e-01	0	49	104	0	88	10104
2026-01-15 21:57:05.51	179.07	25.84	-58.5	-67.4	3.8	7.47e-01	0	49	104	0	88	10076
2026-01-15 21:57:06.52	179.22	25.61	-58.5	-67.4	3.8	7.45e-01	0	49	104	0	88	10100
2026-01-15 21:57:07.53	179.37	25.39	-58.5	-67.4	3.8	7.43e-01	0	49	104	0	88	10085
2026-01-15 21:57:08.54	179.51	25.16	-58.5	-67.3	3.8	7.46e-01	0	49	104	0	88	10036
2026-01-15 21:57:09.55	179.65	24.94	-58.5	-67.3	3.8	7.45e-01	0	49	104	0	88	10056
2026-01-15 21:57:10.56	179.79	24.72	-58.5	-67.3	3.8	7.45e-01	0	49	104	0	88	10057
2026-01-15 21:57:11.57	179.93	24.50	-58.4	-67.3	3.8	7.46e-01	0	49	104	0	88	10034
2026-01-15 21:57:12.58	180.06	24.28	-58.5	-67.3	3.8	7.45e-01	0	49	104	0	88	10039
2026-01-15 21:57:13.59	180.19	24.07	-58.5	-67.3	3.8	7.45e-01	0	49	104	0	88	10026
2026-01-15 21:57:14.60	180.32	23.86	-58.5	-67.4	3.8	7.46e-01	0	49	104	0	88	10065
2026-01-15 21:57:15.61	180.45	23.65	-58.4	-67.3	3.8	7.46e-01	0	49	104	0	88	9997
2026-01-15 21:57:16.62	180.58	23.44	-58.4	-67.3	3.8	7.45e-01	0	49	104	0	88	10034
2026-01-15 21:57:17.63	180.70	23.23	-58.4	-67.3	3.8	7.45e-01	0	49	104	0	88	10010
2026-01-15 21:57:18.64	180.83	23.03	-58.4	-67.3	3.8	7.46e-01	0	49	104	0	88	10036
2026-01-15 21:57:19.65	180.95	22.83	-58.4	-67.3	3.8	7.46e-01	0	49	104	0	88	9979
2026-01-15 21:57:20.66	181.07	22.63	-58.4	-67.3	3.8	7.45e-01	0	49	104	0	88	9986
2026-01-15 21:57:21.67	181.19	22.43	-58.4	-67.3	3.8	7.45e-01	0	49	104	0	88	10012
2026-01-15 21:57:22.68	181.30	22.23	-58.4	-67.3	3.8	7.44e-01	0	49	104	0	88	9981
2026-01-15 21:57:23.68	181.42	22.04	-58.4	-67.2	3.8	7.46e-01	0	49	104	0	88	9926
2026-01-15 21:57:24.69	181.53	21.84	-58.4	-67.3	3.8	7.45e-01	0	49	104	0	88	9980
2026-01-15 21:57:25.70	181.64	21.65	-58.4	-67.3	3.8	7.45e-01	0	49	104	0	88	9986
2026-01-15 21:57:26.71	181.75	21.46	-58.4	-67.3	3.8	7.45e-01	0	49	104	0	88	9961
2026-01-15 21:57:27.72	181.86	21.27	-58.4	-67.3	3.8	7.46e-01	0	49	104	0	88	9948
2026-01-15 21:57:28.73	181.97	21.09	-58.4	-67.2	3.8	7.45e-01	0	49	104	0	88	9900
2026-01-15 21:57:29.74	182.08	20.90	-58.4	-67.2	3.8	7.46e-01	0	49	104	0	88	9920
2026-01-15 21:57:30.75	182.18	20.72	-58.4	-67.2	3.8	7.45e-01	0	49	104	0	88	9941
2026-01-15 21:57:31.76	182.29	20.54	-58.3	-67.2	3.8	7.45e-01	0	49	104	0	88	9900
2026-01-15 21:57:32.77	182.39	20.36	-58.4	-67.2	3.8	7.46e-01	0	49	104	0	88	9920
2026-01-15 21:57:33.78	182.49	20.18	-58.3	-67.2	3.8	7.46e-01	0	49	104	0	88	9884
2026-01-15 21:57:34.79	182.59	20.00	-58.4	-67.2	3.8	7.47e-01	0	49	104	0	88	9895
2026-01-15 21:57:35.80	182.69	19.82	-58.3	-67.2	3.8	7.45e-01	0	49	104	0	88	9879
2026-01-15 21:57:36.81	182.78	19.65	-58.3	-67.2	3.8	7.47e-01	0	49	104	0	88	9903
2026-01-15 21:57:37.82	182.88	19.48	-58.3	-67.2	3.8	7.47e-01	0	49	104	0	88	9879
2026-01-15 21:57:38.83	182.98	19.31	-58.3	-67.2	3.8	7.45e-01	0	49	104	0	88	9908
2026-01-15 21:57:39.84	183.07	19.14	-58.3	-67.2	3.8	7.44e-01	0	49	104	0	88	9880
2026-01-15 21:57:40.85	183.16	18.97	-58.3	-67.2	3.8	7.44e-01	0	49	104	0	88	9868
2026-01-15 21:57:41.86	183.25	18.80	-58.3	-67.2	3.8	7.45e-01	0	49	104	0	88	9873
2026-01-15 21:57:42.87	183.34	18.64	-58.3	-67.2	3.8	7.45e-01	0	49	104	0	88	9857
2026-01-15 21:57:43.88	183.43	18.47	-58.3	-67.2	3.8	7.46e-01	0	49	104	0	88	9841
2026-01-15 21:57:44.89	183.52	18.31	-58.3	-67.2	3.8	7.45e-01	0	49	104	0	88	9850
2026-01-15 21:57:45.90	183.61	18.15	-58.3	-67.1	3.8	7.47e-01	0	50	104	0	88	9823
2026-01-15 21:57:46.91	183.69	17.99	-58.3	-67.2	3.8	7.46e-01	0	49	104	0	88	9868
2026-01-15 21:57:47.91	183.78	17.83	-58.3	-67.1	3.8	7.45e-01	0	49	104	0	88	9812
2026-01-15 21:57:48.92	183.86	17.67	-58.3	-67.1	3.8	7.43e-01	0	49	104	0	88	9787
2026-01-15 21:57:49.93	183.94	17.51	-58.2	-67.1	3.8	7.45e-01	0	50	104	0	88	9783
2026-01-15 21:57:50.94	184.03	17.36	-58.3	-67.2	3.8	7.46e-01	0	49	104	0	88	9832
2026-01-15 21:57:51.95	184.11	17.20	-58.2	-67.1	3.8	7.45e-01	0	49	104	0	88	9794
2026-01-15 21:57:52.96	184.19	17.05	-58.3	-67.1	3.8	7.45e-01	0	49	104	0	88	9775
2026-01-15 21:57:53.97	184.27	16.90	-58.2	-67.1	3.8	7.45e-01	0	49	104	0	88	9762
2026-01-15 21:57:54.98	184.35	16.75	-58.2	-67.1	3.8	7.45e-01	0	49	104	0	88	9788
2026-01-15 21:57:55.99	184.42	16.60	-58.2	-67.1	3.8	7.45e-01	0	49	104	0	88	9736
2026-01-15 21:57:57.00	184.50	16.45	-58.2	-67.1	3.8	7.46e-01	0	49	104	0	88	9790
2026-01-15 21:57:58.01	184.58	16.30	-58.2	-67.1	3.8	7.43e-01	0	49	104	0	88	9742
2026-01-15 21:57:59.02	184.65	16.16	-58.2	-67.1	3.8	7.45e-01	0	49	104	0	88	9794
2026-01-15 21:58:00.03	184.73	16.01	-58.2	-67.1	3.8	7.46e-01	0	49	104	0	88	9748
2026-01-15 21:58:01.04	184.80	15.87	-58.2	-67.1	3.8	7.45e-01	0	49	104	0	88	9777
2026-01-15 21:58:02.05	184.87	15.73	-58.2	-67.0	3.8	7.45e-01	0	49	104	0	88	9693
2026-01-15 21:58:03.06	184.95	15.58	-58.2	-67.1	3.8	7.46e-01	0	50	104	0	88	9747
2026-01-15 21:58:04.06	185.02	15.44	-58.2	-67.1	3.8	7.43e-01	0	49	104	0	88	9731
2026-01-15 21:58:05.07	185.09	15.30	-58.2	-67.0	3.8	7.45e-01	0	49	104	0	88	9710
2026-01-15 21:58:06.08	185.16	15.17	-58.2	-67.0	3.8	7.45e-01	0	50	104	0	88	9676
2026-01-15 21:58:07.09	185.23	15.03	-58.2	-67.1	3.8	7.43e-01	0	49	104	0	88	9738
2026-01-15 21:58:08.10	185.29	14.89	-58.1	-67.0	3.8	7.44e-01	0	50	104	0	88	9695
2026-01-15 21:58:09.11	185.36	14.75	-58.2	-67.0	3.8	7.44e-01	0	49	104	0	88	9710
2026-01-15 21:58:10.12	185.43	14.62	-58.1	-67.0	3.8	7.46e-01	0	49	104	0	88	9671
2026-01-15 21:58:11.13	185.49	14.49	-58.2	-67.0	3.8	7.46e-01	0	49	104	0	88	9710
2026-01-15 21:58:12.14	185.56	14.35	-58.1	-67.0	3.8	7.46e-01	0	50	104	0	88	9661
2026-01-15 21:58:13.15	185.63	14.22	-58.1	-67.0	3.8	7.45e-01	0	49	104	0	88	9664
2026-01-15 21:58:14.16	185.69	14.09	-58.1	-67.0	3.8	7.44e-01	0	50	104	0	88	9646
2026-01-15 21:58:15.17	185.75	13.96	-58.1	-67.0	3.8	7.46e-01	0	49	104	0	88	9678
2026-01-15 21:58:16.18	185.82	13.83	-58.1	-66.9	3.8	7.45e-01	0	49	104	0	88	9604
2026-01-15 21:58:17.19	185.88	13.70	-58.1	-67.0	3.8	7.45e-01	0	49	104	0	88	9633
2026-01-15 21:58:18.20	185.94	13.57	-58.1	-67.0	3.8	7.45e-01	0	49	104	0	88	9615
2026-01-15 21:58:19.21	186.00	13.45	-58.1	-67.0	3.8	7.45e-01	0	50	104	0	88	9646
2026-01-15 21:58:20.22	186.06	13.32	-58.1	-67.0	3.8	7.45e-01	0	49	104	0	88	9616
2026-01-15 21:58:21.23	186.12	13.20	-58.1	-67.0	3.8	7.46e-01	0	49	104	0	88	9616
2026-01-15 21:58:22.24	186.18	13.07	-58.1	-67.0	3.8	7.46e-01	0	49	104	0	88	9608
2026-01-15 21:58:23.25	186.24	12.95	-58.1	-67.0	3.8	7.44e-01	0	49	104	0	88	9637
2026-01-15 21:58:24.26	186.30	12.82	-58.1	-66.9	3.8	7.44e-01	0	49	104	0	88	9545
2026-01-15 21:58:25.26	186.36	12.70	-58.1	-66.9	3.8	7.46e-01	0	49	104	0	88	9572
2026-01-15 21:58:26.27	186.41	12.58	-58.0	-66.9	3.8	7.46e-01	0	49	104	0	88	9575
2026-01-15 21:58:27.28	186.47	12.46	-58.1	-66.9	3.8	7.46e-01	0	49	104	0	88	9581
2026-01-15 21:58:28.29	186.53	12.34	-58.0	-66.9	3.8	7.44e-01	0	50	104	0	88	9519
2026-01-15 21:58:29.30	186.58	12.22	-58.0	-67.0	3.8	7.45e-01	0	49	104	0	88	9611
2026-01-15 21:58:30.31	186.64	12.11	-58.0	-66.9	3.8	7.45e-01	0	49	104	0	88	9552
2026-01-15 21:58:31.32	186.69	11.99	-58.0	-66.9	3.8	7.45e-01	0	49	104	0	88	9554
2026-01-15 21:58:32.33	186.75	11.87	-58.0	-66.9	3.8	7.45e-01	0	49	104	0	88	9550
2026-01-15 21:58:33.34	186.80	11.76	-58.0	-66.8	3.8	7.44e-01	0	49	104	0	88	9473
2026-01-15 21:58:34.35	186.86	11.64	-58.0	-66.9	3.8	7.46e-01	0	49	104	0	88	9566
2026-01-15 21:58:35.36	186.91	11.53	-58.0	-66.9	3.8	7.46e-01	0	49	104	0	88	9517
2026-01-15 21:58:36.37	186.96	11.41	-58.0	-66.9	3.8	7.44e-01	0	49	104	0	87	10092
2026-01-15 21:58:37.38	187.01	11.30	-58.0	-66.9	3.8	7.45e-01	0	49	104	0	87	10105
2026-01-15 21:58:38.38	187.06	11.19	-58.0	-66.9	3.8	7.45e-01	0	49	104	0	87	10062
2026-01-15 21:58:39.40	187.12	11.07	-58.0	-66.9	3.8	7.46e-01	0	50	104	0	87	10088
2026-01-15 21:58:40.41	187.17	10.96	-58.0	-66.8	3.8	7.44e-01	0	49	104	0	87	10042
2026-01-15 21:58:41.42	187.22	10.85	-58.0	-66.9	3.8	7.46e-01	0	49	104	0	87	10108
2026-01-15 21:58:42.43	187.27	10.74	-58.0	-66.9	3.8	7.46e-01	0	49	104	0	87	10061
2026-01-15 21:58:43.44	187.32	10.63	-58.0	-66.8	3.8	7.45e-01	0	49	104	0	87	10043
2026-01-15 21:58:44.45	187.36	10.53	-58.0	-66.8	3.8	7.45e-01	0	49	104	0	87	10004
2026-01-15 21:58:45.46	187.41	10.42	-57.9	-66.8	3.8	7.45e-01	0	49	104	0	87	9996
2026-01-15 21:58:46.47	187.46	10.31	-58.0	-66.8	3.8	7.46e-01	0	50	104	0	87	9992
2026-01-15 21:58:47.48	187.51	10.20	-57.9	-66.8	3.8	7.44e-01	0	49	104	0	87	10047
2026-01-15 21:58:48.49	187.56	10.10	-57.9	-66.8	3.8	7.45e-01	0	49	104	0	87	9995
2026-01-15 21:58:49.50	187.60	9.99	-57.9	-66.8	3.8	7.45e-01	0	49	104	0	87	9980
2026-01-15 21:58:50.51	187.65	9.89	-57.9	-66.8	3.8	7.45e-01	0	49	104	0	87	10000
2026-01-15 21:58:51.52	187.70	9.78	-57.9	-66.8	3.8	7.46e-01	0	49	104	0	87	9958
2026-01-15 21:58:52.53	187.74	9.68	-57.9	-66.8	3.8	7.44e-01	0	49	104	0	87	9965
2026-01-15 21:58:53.54	187.79	9.57	-57.9	-66.7	3.8	7.46e-01	0	49	104	0	87	9940
2026-01-15 21:58:54.55	187.83	9.47	-57.9	-66.8	3.8	7.47e-01	0	49	104	0	87	9971
2026-01-15 21:58:55.55	187.88	9.37	-57.9	-66.7	3.8	7.44e-01	0	49	104	0	87	9900
2026-01-15 21:58:56.56	187.92	9.27	-57.9	-66.7	3.8	7.47e-01	0	49	104	0	87	9905
2026-01-15 21:58:57.57	187.97	9.17	-57.8	-66.7	3.8	7.44e-01	0	49	104	0	87	9868
2026-01-15 21:58:58.58	188.01	9.07	-57.9	-66.7	3.8	7.46e-01	0	49	104	0	87	9934
2026-01-15 21:58:59.59	188.05	8.97	-57.8	-66.7	3.8	7.47e-01	0	49	104	0	87	9852
2026-01-15 21:59:00.60	188.10	8.87	-57.8	-66.7	3.8	7.45e-01	0	49	104	0	87	9877
2026-01-15 21:59:01.61	188.14	8.77	-57.8	-66.7	3.8	7.45e-01	0	49	104	0	87	9879
2026-01-15 21:59:02.62	188.18	8.67	-57.8	-66.7	3.8	7.45e-01	0	50	104	0	87	9879
2026-01-15 21:59:03.63	188.22	8.57	-57.8	-66.7	3.8	7.45e-01	0	50	104	0	87	9835
2026-01-15 21:59:04.64	188.26	8.48	-57.8	-66.7	3.8	7.45e-01	0	50	104	0	87	9878
2026-01-15 21:59:05.65	188.31	8.38	-57.8	-66.6	3.8	7.45e-01	0	49	104	0	87	9816
2026-01-15 21:59:06.66	188.35	8.28	-57.8	-66.7	3.8	7.46e-01	0	49	104	0	87	9844
2026-01-15 21:59:07.68	188.39	8.19	-57.8	-66.6	3.8	7.45e-01	0	49	104	0	87	9797
2026-01-15 21:59:08.69	188.43	8.09	-57.8	-66.7	3.8	7.45e-01	0	50	104	0	87	9831
2026-01-15 21:59:09.69	188.47	8.00	-57.7	-66.6	3.8	7.45e-01	0	49	104	0	87	9768
2026-01-15 21:59:10.70	188.51	7.90	-57.8	-66.7	3.8	7.44e-01	0	50	104	0	87	9856
2026-01-15 21:59:11.72	188.55	7.81	-57.7	-66.6	3.8	7.45e-01	0	49	104	0	87	9791
2026-01-15 21:59:12.72	188.59	7.71	-57.7	-66.6	3.8	7.45e-01	0	50	104	0	87	9767
2026-01-15 21:59:13.74	188.63	7.62	-57.7	-66.6	3.8	7.45e-01	0	50	104	0	87	9734
2026-01-15 21:59:14.74	188.67	7.53	-57.8	-66.6	3.8	7.44e-01	0	49	104	0	87	9749
2026-01-15 21:59:15.76	188.70	7.43	-57.7	-66.5	3.8	7.45e-01	0	49	104	0	87	9713
2026-01-15 21:59:16.77	188.74	7.34	-57.7	-66.5	3.8	7.47e-01	0	50	104	0	87	9713
2026-01-15 21:59:17.78	188.78	7.25	-57.6	-66.5	3.8	7.44e-01	0	49	104	0	87	9648
2026-01-15 21:59:18.78	188.82	7.16	-57.7	-66.6	3.8	7.45e-01	0	49	104	0	87	9736
2026-01-15 21:59:19.80	188.86	7.07	-57.6	-66.5	3.8	7.46e-01	0	49	104	0	87	9659
2026-01-15 21:59:20.81	188.89	6.98	-57.7	-66.5	3.8	7.45e-01	0	49	104	0	87	9693
2026-01-15 21:59:21.82	188.93	6.89	-57.6	-66.4	3.8	7.44e-01	0	50	104	0	87	9563
2026-01-15 21:59:22.82	188.97	6.80	-57.7	-66.5	3.8	7.46e-01	0	49	104	0	87	9675
2026-01-15 21:59:23.83	189.00	6.71	-57.6	-66.4	3.8	7.47e-01	0	49	104	0	87	9560
2026-01-15 21:59:24.84	189.04	6.62	-57.6	-66.5	3.8	7.46e-01	0	50	104	0	87	9657
2026-01-15 21:59:25.85	189.07	6.54	-57.5	-66.4	3.8	7.46e-01	0	50	104	0	87	9536
2026-01-15 21:59:26.86	189.11	6.45	-57.6	-66.5	3.8	7.45e-01	0	49	104	0	87	9648
2026-01-15 21:59:27.87	189.15	6.36	-57.5	-66.4	3.8	7.45e-01	0	50	104	0	87	9534
2026-01-15 21:59:28.88	189.18	6.28	-57.6	-66.5	3.8	7.44e-01	0	49	104	0	87	9624
2026-01-15 21:59:29.89	189.22	6.19	-57.5	-66.3	3.8	7.45e-01	0	50	104	0	86	10024
2026-01-15 21:59:30.90	189.25	6.10	-57.6	-66.5	3.8	7.46e-01	0	50	104	0	86	10195
2026-01-15 21:59:31.91	189.29	6.02	-57.5	-66.3	3.8	7.45e-01	0	50	104	0	86	9999
2026-01-15 21:59:32.92	189.32	5.93	-57.5	-66.4	3.8	7.44e-01	0	50	104	0	86	10100
2026-01-15 21:59:33.93	189.35	5.85	-57.4	-66.3	3.8	7.44e-01	0	50	104	0	86	9974
2026-01-15 21:59:34.94	189.39	5.76	-57.5	-66.4	3.8	7.45e-01	0	50	104	0	86	10107
2026-01-15 21:59:35.95	189.42	5.68	-57.4	-66.3	3.8	7.45e-01	0	50	104	0	86	9969
2026-01-15 21:59:36.96	189.45	5.59	-57.5	-66.3	3.8	7.45e-01	0	49	104	0	86	10029
2026-01-15 21:59:37.97	189.49	5.51	-57.3	-66.2	3.8	7.45e-01	0	49	104	0	86	9903
2026-01-15 21:59:38.98	189.52	5.43	-57.5	-66.4	3.8	7.44e-01	0	49	104	0	86	10081
2026-01-15 21:59:39.99	189.55	5.34	-57.4	-66.2	3.8	7.45e-01	0	49	104	0	86	9922
2026-01-15 21:59:41.00	189.59	5.26	-57.4	-66.3	3.8	7.45e-01	0	50	104	0	86	10008
2026-01-15 21:59:42.01	189.62	5.18	-57.3	-66.1	3.8	7.44e-01	0	50	104	0	86	9821
2026-01-15 21:59:43.02	189.65	5.10	-57.4	-66.3	3.8	7.43e-01	0	50	104	0	86	9978
2026-01-15 21:59:44.03	189.68	5.02	-57.3	-66.2	3.8	7.47e-01	0	49	104	0	86	9832
2026-01-15 21:59:45.04	189.71	4.93	-57.6	-66.5	3.8	7.45e-01	0	49	104	0	86	10222
2026-01-15 21:59:46.05	189.75	4.85	-58.0	-66.9	3.8	7.45e-01	0	49	104	0	86	10681
2026-01-15 21:59:47.06	189.78	4.77	-58.2	-67.1	3.8	7.45e-01	0	50	104	0	87	10379
2026-01-15 21:59:48.07	189.81	4.69	-58.4	-67.3	3.8	7.46e-01	0	50	104	0	87	10550
2026-01-15 21:59:49.08	189.84	4.61	-58.5	-67.4	3.8	7.46e-01	0	50	104	0	87	10740
2026-01-15 21:59:50.09	189.87	4.53	-58.6	-67.5	3.8	7.45e-01	0	49	104	0	87	10840
2026-01-15 21:59:51.10	189.90	4.45	-58.7	-67.6	3.8	7.45e-01	0	50	104	0	88	10304
2026-01-15 21:59:52.11	189.93	4.38	-58.8	-67.6	3.8	7.47e-01	0	49	104	0	88	10412
2026-01-15 21:59:53.12	189.96	4.30	-58.8	-67.7	3.8	7.45e-01	0	50	104	0	88	10453
2026-01-15 21:59:54.13	189.99	4.22	-58.9	-67.7	3.8	7.47e-01	0	50	104	0	88	10513
2026-01-15 21:59:55.14	190.02	4.14	-58.9	-67.8	3.8	7.45e-01	0	49	104	0	88	10618
2026-01-15 21:59:56.15	190.05	4.06	-58.9	-67.8	3.8	7.45e-01	0	49	104	0	88	10639
2026-01-15 21:59:57.16	190.08	3.99	-59.0	-67.9	3.8	7.45e-01	0	49	104	0	88	10691
2026-01-15 21:59:58.17	190.11	3.91	-59.0	-67.9	3.8	7.46e-01	0	49	104	0	88	10688
2026-01-15 21:59:59.18	190.14	3.83	-59.0	-67.9	3.8	7.44e-01	0	50	104	0	88	10749
2026-01-15 22:00:00.19	190.17	3.75	-59.1	-67.9	3.8	7.46e-01	0	50	104	0	88	10746
2026-01-15 22:00:01.20	190.20	3.68	-59.1	-68.0	3.8	7.46e-01	0	50	104	0	88	10785
2026-01-15 22:00:02.22	190.22	3.60	-59.1	-68.0	3.8	7.45e-01	0	50	104	0	88	10862
2026-01-15 22:00:03.23	190.25	3.53	-59.1	-68.0	3.8	7.45e-01	0	49	104	0	88	10842
2026-01-15 22:00:04.24	190.28	3.45	-59.1	-68.0	3.8	7.46e-01	0	49	104	0	88	10815
2026-01-15 22:00:05.25	190.31	3.38	-59.1	-68.0	3.8	7.46e-01	0	49	104	0	88	10804
2026-01-15 22:00:06.26	190.34	3.30	-59.1	-68.0	3.8	7.44e-01	0	49	104	0	88	10810
2026-01-15 22:00:07.27	190.36	3.23	-59.1	-68.0	3.8	7.44e-01	0	49	104	0	88	10815
2026-01-15 22:00:08.28	190.39	3.15	-59.1	-68.0	3.8	7.45e-01	0	50	104	0	88	10784
2026-01-15 22:00:09.29	190.42	3.08	-59.0	-67.9	3.8	7.46e-01	0	50	104	0	88	10749
2026-01-15 22:00:10.30	190.45	3.00	-59.0	-68.0	3.8	7.45e-01	0	49	104	0	88	10782
2026-01-15 22:00:11.31	190.47	2.93	-59.0	-67.9	3.8	7.45e-01	0	49	104	0	88	10770
2026-01-15 22:00:12.32	190.50	2.86	-59.0	-67.9	3.8	7.43e-01	0	49	104	0	88	10736
2026-01-15 22:00:13.33	190.53	2.78	-59.0	-67.9	3.8	7.45e-01	0	49	104	0	88	10715
2026-01-15 22:00:14.34	190.56	2.71	-59.0	-67.9	3.8	7.46e-01	0	50	104	0	88	10721
2026-01-15 22:00:15.35	190.58	2.64	-59.0	-67.9	3.8	7.46e-01	0	49	104	0	88	10705
2026-01-15 22:00:16.36	190.61	2.57	-59.0	-67.9	3.8	7.47e-01	0	49	104	0	88	10714
2026-01-15 22:00:17.37	190.63	2.49	-59.0	-67.9	3.8	7.44e-01	0	49	104	0	88	10728
2026-01-15 22:00:18.38	190.66	2.42	-59.0	-67.9	3.8	7.46e-01	0	49	104	0	88	10684
2026-01-15 22:00:19.39	190.69	2.35	-59.0	-67.9	3.8	7.45e-01	0	50	104	0	88	10689
2026-01-15 22:00:20.40	190.71	2.28	-59.0	-67.9	3.8	7.44e-01	0	49	104	0	88	10676
2026-01-15 22:00:21.41	190.74	2.21	-59.0	-67.9	3.8	7.46e-01	0	49	104	0	88	10704
2026-01-15 22:00:22.42	190.76	2.14	-59.0	-67.9	3.8	7.45e-01	0	49	104	0	88	10696
2026-01-15 22:00:23.43	190.79	2.07	-59.0	-67.9	3.8	7.45e-01	0	49	104	0	88	10664
2026-01-15 22:00:24.44	190.81	2.00	-59.0	-67.9	3.8	7.45e-01	0	49	104	0	88	10668
2026-01-15 22:00:25.45	190.84	1.92	-59.0	-67.9	3.8	7.44e-01	0	49	104	0	88	10699

#Closed at: 2026-01-15 22:00:25
#Recorded file [0 MB]: D:/lorett/data/31041_260116_004956.dat