passes_logs/2026/01/15/R3.2S_Murmansk/R3.2S_Murmansk__20260115_013210_NOAA_20_JPSS-1_rec.log

#Pass ID: 20260115_013210_NOAA 20 (JPSS-1)
#Satellite: NOAA 20 (JPSS-1)
#Configuration: NOAA 20
#almurnet v.1.7.20251203
#Start time: 2026-01-15 01:32:11

#Version: 2.2.20231116
#Station: R3.2S_Murmansk
#Location: 33.079688 lon 68.888172 lat
#TLE: 1 43013U 17073A   26014.55467351  .00000038  00000+0  38801-4 0  9992
#TLE: 2 43013  98.7635 315.4987 0001517  39.9279 320.2008 14.19535859422677

#Time	Az	El	Level	Level2	SNR	BER	BlckErr	Temp	State	Recorded	gain1	gain2
2026-01-15 01:32:11.79	28.19	2.11	-57.9	-73.9	3.8	1.49e+00	0	26	0	0	82	22153
2026-01-15 01:32:12.79	28.18	2.18	-57.9	-73.8	3.8	1.49e+00	0	26	104	0	80	24646
2026-01-15 01:32:13.78	28.16	2.24	-57.8	-73.8	3.8	1.49e+00	0	26	104	0	80	24626
2026-01-15 01:32:14.77	28.14	2.30	-57.9	-73.9	3.8	1.49e+00	0	26	104	0	80	24720
2026-01-15 01:32:15.77	28.12	2.37	-57.8	-73.8	3.8	1.49e+00	0	26	104	0	80	24644
2026-01-15 01:32:16.77	28.11	2.43	-57.8	-73.8	3.8	1.49e+00	0	26	104	0	80	24688
2026-01-15 01:32:17.77	28.09	2.50	-57.9	-73.9	3.8	1.49e+00	0	26	104	0	80	24722
2026-01-15 01:32:18.77	28.07	2.56	-57.9	-73.9	3.8	1.49e+00	0	26	104	0	80	24737
2026-01-15 01:32:19.77	28.05	2.63	-57.9	-73.8	3.8	1.49e+00	0	26	104	0	80	24648
2026-01-15 01:32:20.77	28.03	2.69	-57.9	-73.8	3.8	1.49e+00	0	26	104	0	80	24517
2026-01-15 01:32:21.77	28.01	2.76	-57.9	-73.8	3.8	1.49e+00	0	26	104	0	80	24438
2026-01-15 01:32:22.76	27.99	2.82	-57.9	-73.8	3.8	1.49e+00	0	27	104	0	80	24430
2026-01-15 01:32:23.75	27.98	2.88	-57.9	-73.6	3.8	1.49e+00	0	27	104	0	80	24099
2026-01-15 01:32:24.76	27.96	2.95	-57.8	-73.6	3.8	1.49e+00	0	27	104	0	80	23974
2026-01-15 01:32:25.76	27.94	3.02	-57.9	-73.5	3.8	1.49e+00	0	26	104	0	80	23696
2026-01-15 01:32:26.75	27.92	3.08	-57.8	-73.3	3.8	1.49e+00	0	27	104	0	80	23082
2026-01-15 01:32:27.75	27.90	3.15	-57.8	-72.9	3.8	1.49e+00	0	27	104	0	80	22258
2026-01-15 01:32:28.75	27.88	3.21	-57.8	-72.3	3.8	1.49e+00	0	27	104	0	80	20634
2026-01-15 01:32:29.74	27.86	3.28	-57.8	-72.2	3.8	1.49e+00	0	27	104	0	80	20500
2026-01-15 01:32:30.74	27.84	3.34	-57.8	-72.1	3.8	1.49e+00	0	27	104	0	80	20183
2026-01-15 01:32:31.75	27.82	3.41	-57.8	-72.3	3.8	1.49e+00	0	27	104	0	80	20675
2026-01-15 01:32:32.75	27.80	3.48	-57.8	-72.7	3.8	1.49e+00	0	27	104	0	80	21598
2026-01-15 01:32:33.74	27.78	3.54	-57.8	-73.1	3.8	1.49e+00	0	27	104	0	80	22557
2026-01-15 01:32:34.74	27.76	3.61	-57.8	-73.2	3.8	1.49e+00	0	27	104	0	80	23038
2026-01-15 01:32:35.74	27.74	3.68	-57.8	-73.3	3.8	1.49e+00	0	27	104	0	80	23274
2026-01-15 01:32:36.73	27.72	3.74	-57.8	-73.0	3.8	1.49e+00	0	27	104	0	80	22455
2026-01-15 01:32:37.73	27.70	3.81	-57.8	-72.3	3.8	1.49e+00	0	27	104	0	80	20646
2026-01-15 01:32:38.73	27.68	3.88	-57.7	-70.8	4.1	1.48e+00	0	27	104	0	80	17372
2026-01-15 01:32:39.72	27.66	3.95	-57.6	-69.4	4.5	1.37e+00	10	27	0	0	80	14801
2026-01-15 01:32:40.72	27.64	4.01	-57.6	-68.6	4.8	1.02e+00	0	27	0	2097152	80	13562
2026-01-15 01:32:41.72	27.62	4.08	-57.5	-67.5	5.3	5.54e-01	0	27	0	4194304	80	11937
2026-01-15 01:32:42.72	27.60	4.15	-57.3	-66.1	6.2	3.24e-01	0	27	0	5242880	80	10148
2026-01-15 01:32:43.72	27.58	4.22	-57.2	-65.5	6.6	2.13e-01	0	27	0	7340032	80	9472
2026-01-15 01:32:44.71	27.55	4.29	-57.2	-65.1	6.9	1.42e-01	0	27	0	9437184	80	9069
2026-01-15 01:32:45.71	27.53	4.35	-56.9	-63.9	8.0	4.59e-02	0	27	0	11534336	80	7817
2026-01-15 01:32:46.70	27.51	4.42	-56.8	-63.6	8.2	4.80e-02	0	27	0	13631488	80	7624
2026-01-15 01:32:47.70	27.49	4.49	-56.8	-63.4	8.5	3.45e-02	0	27	0	14680064	80	7423
2026-01-15 01:32:48.70	27.47	4.56	-56.8	-63.2	8.6	1.37e-02	0	27	0	16777216	80	7276
2026-01-15 01:32:49.70	27.45	4.63	-56.8	-63.5	8.3	1.75e-02	0	27	0	18874368	80	7516
2026-01-15 01:32:50.69	27.43	4.70	-56.8	-63.5	8.3	2.15e-02	0	27	0	20971520	80	7515
2026-01-15 01:32:51.69	27.40	4.77	-56.8	-63.6	8.3	2.46e-02	0	27	0	22020096	80	7556
2026-01-15 01:32:52.69	27.38	4.84	-57.0	-64.3	7.7	4.52e-02	0	27	0	24117248	80	8216
2026-01-15 01:32:53.69	27.36	4.91	-57.0	-64.3	7.6	6.47e-02	0	27	0	26214400	80	8269
2026-01-15 01:32:54.68	27.34	4.98	-57.0	-64.4	7.6	6.16e-02	0	27	0	28311552	80	8347
2026-01-15 01:32:55.68	27.31	5.05	-56.6	-61.9	10.0	3.43e-02	0	27	0	30408704	79	6623
2026-01-15 01:32:56.67	27.29	5.12	-57.0	-63.0	9.1	1.53e-03	0	27	0	31457280	79	7531
2026-01-15 01:32:57.68	27.27	5.19	-57.3	-66.5	6.1	1.33e-02	0	27	0	33554432	79	11251
2026-01-15 01:32:58.68	27.25	5.26	-55.9	-60.1	11.1	2.19e-01	0	27	0	35651584	78	5718
2026-01-15 01:32:59.67	27.22	5.33	-57.4	-65.0	7.5	5.31e-04	0	27	0	37748736	79	9426
2026-01-15 01:33:00.65	27.20	5.40	-56.1	-60.5	11.0	2.45e-01	0	27	0	38797312	78	5931
2026-01-15 01:33:01.64	27.18	5.47	-54.3	-57.2	13.2	7.00e-07	0	27	0	40894464	75	4832
2026-01-15 01:33:02.63	27.15	5.54	-53.8	-56.3	13.6	0.00e+00	0	27	0	42991616	74	4627
2026-01-15 01:33:03.63	27.13	5.61	-54.0	-56.6	13.5	0.00e+00	0	27	0	45088768	74	4786
2026-01-15 01:33:04.62	27.11	5.69	-54.0	-56.6	13.5	0.00e+00	0	27	0	46137344	74	4790
2026-01-15 01:33:05.62	27.08	5.76	-53.9	-56.4	13.6	0.00e+00	0	27	0	48234496	74	4678
2026-01-15 01:33:06.61	27.06	5.83	-53.8	-56.4	13.7	0.00e+00	0	27	0	50331648	74	4655
2026-01-15 01:33:07.61	27.03	5.90	-53.8	-56.3	13.7	0.00e+00	0	27	0	52428800	74	4642
2026-01-15 01:33:08.61	27.01	5.98	-53.9	-56.5	13.6	0.00e+00	0	27	0	54525952	74	4717
2026-01-15 01:33:09.61	26.99	6.05	-53.7	-56.1	13.8	0.00e+00	0	27	0	55574528	74	4542
2026-01-15 01:33:10.61	26.96	6.12	-53.9	-56.4	13.6	0.00e+00	0	27	0	57671680	74	4653
2026-01-15 01:33:11.61	26.94	6.20	-53.8	-56.3	13.7	0.00e+00	0	27	0	59768832	74	4608
2026-01-15 01:33:12.61	26.91	6.27	-53.8	-56.2	13.7	0.00e+00	0	27	0	61865984	74	4578
2026-01-15 01:33:13.60	26.89	6.34	-53.5	-55.9	13.8	0.00e+00	0	27	0	63963136	73	4689
2026-01-15 01:33:14.60	26.86	6.42	-53.7	-56.1	13.7	0.00e+00	0	27	0	65011712	73	4772
2026-01-15 01:33:15.59	26.84	6.49	-53.7	-56.1	13.7	0.00e+00	0	27	0	67108864	73	4774
2026-01-15 01:33:16.58	26.81	6.56	-53.6	-56.0	13.7	0.00e+00	0	27	0	69206016	73	4753
2026-01-15 01:33:17.58	26.79	6.64	-53.5	-55.8	13.9	0.00e+00	0	27	0	71303168	73	4620
2026-01-15 01:33:18.58	26.76	6.71	-53.6	-56.0	13.7	0.00e+00	0	27	0	72351744	73	4735
2026-01-15 01:33:19.58	26.73	6.79	-53.6	-55.9	13.8	0.00e+00	0	27	0	74448896	73	4702
2026-01-15 01:33:20.57	26.71	6.86	-53.6	-55.9	13.8	0.00e+00	0	27	0	76546048	73	4676
2026-01-15 01:33:21.57	26.68	6.94	-53.5	-55.8	13.9	0.00e+00	0	27	0	78643200	73	4608
2026-01-15 01:33:22.56	26.66	7.01	-53.5	-55.8	13.9	0.00e+00	0	27	0	80740352	73	4623
2026-01-15 01:33:23.56	26.63	7.09	-53.5	-55.8	13.9	0.00e+00	0	27	0	81788928	73	4610
2026-01-15 01:33:24.57	26.60	7.17	-53.4	-55.7	14.0	0.00e+00	0	27	0	83886080	73	4558
2026-01-15 01:33:25.57	26.58	7.24	-53.4	-55.6	14.0	0.00e+00	0	27	0	85983232	73	4533
2026-01-15 01:33:26.57	26.55	7.32	-53.4	-55.7	14.0	0.00e+00	0	27	0	88080384	73	4567
2026-01-15 01:33:27.57	26.52	7.40	-53.4	-55.6	14.0	0.00e+00	0	27	0	89128960	73	4518
2026-01-15 01:33:28.56	26.49	7.47	-53.3	-55.5	14.0	0.00e+00	0	27	0	91226112	73	4485
2026-01-15 01:33:29.57	26.47	7.55	-53.3	-55.5	14.1	0.00e+00	0	27	0	93323264	73	4469
2026-01-15 01:33:30.57	26.44	7.63	-53.3	-55.5	14.0	0.00e+00	0	27	0	95420416	73	4488
2026-01-15 01:33:31.57	26.41	7.71	-53.4	-55.6	14.0	0.00e+00	0	28	0	97517568	73	4532
2026-01-15 01:33:32.56	26.38	7.78	-53.2	-55.4	14.1	0.00e+00	0	27	0	98566144	73	4414
2026-01-15 01:33:33.56	26.35	7.86	-53.3	-55.5	14.1	0.00e+00	0	27	0	100663296	73	4444
2026-01-15 01:33:34.55	26.33	7.94	-53.2	-55.4	14.1	0.00e+00	0	27	0	102760448	73	4400
2026-01-15 01:33:35.56	26.30	8.02	-53.3	-55.5	14.1	0.00e+00	0	27	0	104857600	73	4442
2026-01-15 01:33:36.56	26.27	8.10	-53.4	-55.6	14.1	0.00e+00	0	27	0	106954752	73	4496
2026-01-15 01:33:37.55	26.24	8.17	-53.3	-55.4	14.1	0.00e+00	0	27	0	108003328	73	4437
2026-01-15 01:33:38.55	26.21	8.25	-53.2	-55.3	14.2	0.00e+00	0	28	0	110100480	73	4389
2026-01-15 01:33:39.55	26.18	8.33	-53.1	-55.2	14.1	0.00e+00	0	28	0	112197632	72	4579
2026-01-15 01:33:40.55	26.15	8.41	-53.1	-55.2	14.1	0.00e+00	0	27	0	114294784	72	4598
2026-01-15 01:33:41.55	26.12	8.49	-53.0	-55.1	14.2	0.00e+00	0	28	0	115343360	72	4519
2026-01-15 01:33:42.55	26.09	8.57	-53.1	-55.1	14.1	0.00e+00	0	28	0	117440512	72	4537
2026-01-15 01:33:43.55	26.06	8.65	-53.2	-55.3	14.1	0.00e+00	0	28	0	119537664	72	4619
2026-01-15 01:33:44.55	26.03	8.74	-53.0	-55.1	14.2	0.00e+00	0	28	0	121634816	72	4519
2026-01-15 01:33:45.54	26.00	8.82	-52.9	-55.0	14.2	0.00e+00	0	28	0	123731968	72	4455
2026-01-15 01:33:46.54	25.97	8.90	-52.9	-55.0	14.2	0.00e+00	0	27	0	124780544	72	4451
2026-01-15 01:33:47.54	25.94	8.98	-52.9	-54.9	14.2	0.00e+00	0	28	0	126877696	72	4439
2026-01-15 01:33:48.54	25.91	9.06	-52.9	-54.9	14.3	0.00e+00	0	28	0	128974848	72	4402
2026-01-15 01:33:49.54	25.88	9.14	-52.8	-54.8	14.3	0.00e+00	0	28	0	131072000	72	4373
2026-01-15 01:33:50.53	25.85	9.22	-52.8	-54.8	14.4	0.00e+00	0	28	0	133169152	72	4346
2026-01-15 01:33:51.53	25.82	9.31	-52.8	-54.8	14.3	0.00e+00	0	28	0	134217728	72	4364
2026-01-15 01:33:52.54	25.78	9.39	-52.7	-54.7	14.4	0.00e+00	0	27	0	136314880	72	4307
2026-01-15 01:33:53.54	25.75	9.47	-52.8	-54.7	14.4	0.00e+00	0	28	0	138412032	72	4316
2026-01-15 01:33:54.54	25.72	9.56	-52.6	-54.5	14.3	0.00e+00	0	27	0	140509184	71	4488
2026-01-15 01:33:55.54	25.69	9.64	-52.7	-54.6	14.3	0.00e+00	0	28	0	141557760	71	4516
2026-01-15 01:33:56.53	25.65	9.72	-52.6	-54.6	14.3	0.00e+00	0	27	0	143654912	71	4503
2026-01-15 01:33:57.53	25.62	9.81	-52.8	-54.7	14.3	0.00e+00	0	28	0	145752064	71	4585
2026-01-15 01:33:58.53	25.59	9.89	-52.6	-54.5	14.4	0.00e+00	0	28	0	147849216	71	4450
2026-01-15 01:33:59.52	25.56	9.98	-52.6	-54.5	14.4	0.00e+00	0	27	0	149946368	71	4453
2026-01-15 01:34:00.53	25.52	10.06	-52.6	-54.5	14.4	0.00e+00	0	28	0	150994944	71	4469
2026-01-15 01:34:01.53	25.49	10.15	-52.6	-54.6	14.3	0.00e+00	0	28	0	153092096	71	4506
2026-01-15 01:34:02.53	25.45	10.23	-52.6	-54.5	14.3	0.00e+00	0	27	0	155189248	71	4492
2026-01-15 01:34:03.53	25.42	10.32	-52.4	-54.2	14.5	0.00e+00	0	28	0	157286400	71	4340
2026-01-15 01:34:04.53	25.38	10.41	-52.5	-54.4	14.4	0.00e+00	0	28	0	159383552	71	4428
2026-01-15 01:34:05.53	25.35	10.49	-52.4	-54.3	14.5	0.00e+00	0	28	0	160432128	71	4341
2026-01-15 01:34:06.54	25.32	10.58	-52.4	-54.2	14.5	0.00e+00	0	28	0	162529280	71	4330
2026-01-15 01:34:07.54	25.28	10.67	-52.4	-54.2	14.5	0.00e+00	0	28	0	164626432	71	4333
2026-01-15 01:34:08.53	25.25	10.75	-52.4	-54.2	14.5	0.00e+00	0	28	0	166723584	71	4330
2026-01-15 01:34:09.53	25.21	10.84	-52.4	-54.3	14.5	0.00e+00	0	28	0	167772160	71	4347
2026-01-15 01:34:10.52	25.17	10.93	-52.3	-54.2	14.5	0.00e+00	0	28	0	169869312	71	4299
2026-01-15 01:34:11.52	25.14	11.02	-52.4	-54.2	14.5	0.00e+00	0	28	0	171966464	71	4309
2026-01-15 01:34:12.52	25.10	11.11	-52.3	-54.1	14.6	0.00e+00	0	27	0	174063616	71	4277
2026-01-15 01:34:13.52	25.07	11.20	-52.4	-54.2	14.5	0.00e+00	0	28	0	176160768	71	4334
2026-01-15 01:34:14.52	25.03	11.28	-52.4	-54.2	14.5	0.00e+00	0	28	0	177209344	71	4306
2026-01-15 01:34:15.52	24.99	11.37	-52.4	-54.2	14.5	0.00e+00	0	28	0	179306496	71	4320
2026-01-15 01:34:16.52	24.95	11.46	-52.3	-54.1	14.6	0.00e+00	0	28	0	181403648	71	4282
2026-01-15 01:34:17.52	24.92	11.55	-52.3	-54.1	14.6	0.00e+00	0	28	0	183500800	71	4247
2026-01-15 01:34:18.52	24.88	11.64	-52.3	-54.1	14.6	0.00e+00	0	28	0	185597952	71	4267
2026-01-15 01:34:19.53	24.84	11.74	-52.3	-54.1	14.6	0.00e+00	0	28	0	186646528	71	4244
2026-01-15 01:34:20.53	24.80	11.83	-52.4	-54.2	14.5	0.00e+00	0	28	0	188743680	71	4332
2026-01-15 01:34:21.53	24.76	11.92	-52.3	-54.1	14.6	0.00e+00	0	28	0	190840832	71	4268
2026-01-15 01:34:22.53	24.72	12.01	-52.3	-54.0	14.6	0.00e+00	0	28	0	192937984	71	4236
2026-01-15 01:34:23.53	24.69	12.10	-52.2	-54.0	14.6	0.00e+00	0	28	0	195035136	71	4224
2026-01-15 01:34:24.53	24.65	12.20	-52.2	-54.0	14.6	0.00e+00	0	28	0	196083712	71	4224
2026-01-15 01:34:25.54	24.61	12.29	-52.3	-54.1	14.6	0.00e+00	0	28	0	198180864	71	4248
2026-01-15 01:34:26.53	24.57	12.38	-51.7	-53.7	14.7	0.00e+00	0	28	0	200278016	70	4297
2026-01-15 01:34:27.52	24.53	12.47	-52.2	-53.9	14.5	0.00e+00	0	28	0	202375168	70	4423
2026-01-15 01:34:28.52	24.49	12.57	-52.2	-54.0	14.5	0.00e+00	0	28	0	203423744	70	4453
2026-01-15 01:34:29.52	24.45	12.66	-52.2	-53.9	14.5	0.00e+00	0	28	0	205520896	70	4433
2026-01-15 01:34:30.53	24.40	12.76	-52.1	-53.9	14.5	0.00e+00	0	28	0	207618048	70	4410
2026-01-15 01:34:31.54	24.36	12.85	-52.1	-53.9	14.6	0.00e+00	0	28	0	209715200	70	4414
2026-01-15 01:34:32.54	24.32	12.95	-52.2	-54.0	14.5	0.00e+00	0	28	0	211812352	70	4468
2026-01-15 01:34:33.54	24.28	13.04	-52.3	-54.0	14.5	0.00e+00	0	28	0	212860928	70	4481
2026-01-15 01:34:34.53	24.24	13.14	-52.2	-53.9	14.5	0.00e+00	0	28	0	214958080	70	4426
2026-01-15 01:34:35.54	24.19	13.24	-52.0	-53.8	14.6	0.00e+00	0	28	0	217055232	70	4348
2026-01-15 01:34:36.53	24.15	13.33	-52.1	-53.8	14.6	0.00e+00	0	28	0	219152384	70	4389
2026-01-15 01:34:37.54	24.11	13.43	-52.1	-53.8	14.6	0.00e+00	0	28	0	221249536	70	4388
2026-01-15 01:34:38.54	24.06	13.53	-52.1	-53.9	14.6	0.00e+00	0	27	0	222298112	70	4394
2026-01-15 01:34:39.54	24.02	13.63	-52.1	-53.8	14.6	0.00e+00	0	28	0	224395264	70	4380
2026-01-15 01:34:40.54	23.98	13.72	-52.1	-53.8	14.6	0.00e+00	0	28	0	226492416	70	4375
2026-01-15 01:34:41.54	23.93	13.82	-52.0	-53.8	14.6	0.00e+00	0	28	0	228589568	70	4342
2026-01-15 01:34:42.54	23.89	13.92	-52.0	-53.7	14.6	0.00e+00	0	28	0	230686720	70	4325
2026-01-15 01:34:43.54	23.84	14.02	-52.1	-53.9	14.6	0.00e+00	0	28	0	231735296	70	4398
2026-01-15 01:34:44.54	23.80	14.12	-52.0	-53.7	14.7	0.00e+00	0	28	0	233832448	70	4302
2026-01-15 01:34:45.54	23.75	14.22	-52.0	-53.7	14.7	0.00e+00	0	28	0	235929600	70	4316
2026-01-15 01:34:46.54	23.70	14.32	-52.0	-53.7	14.6	0.00e+00	0	28	0	238026752	70	4322
2026-01-15 01:34:47.55	23.66	14.42	-52.0	-53.7	14.6	0.00e+00	0	28	0	240123904	70	4325
2026-01-15 01:34:48.55	23.61	14.52	-52.0	-53.8	14.6	0.00e+00	0	28	0	241172480	70	4347
2026-01-15 01:34:49.56	23.56	14.63	-52.0	-53.7	14.7	0.00e+00	0	28	0	243269632	70	4294
2026-01-15 01:34:50.55	23.52	14.73	-51.9	-53.6	14.7	0.00e+00	0	28	0	245366784	70	4285
2026-01-15 01:34:51.55	23.47	14.83	-51.9	-53.6	14.7	0.00e+00	0	28	0	247463936	70	4270
2026-01-15 01:34:52.54	23.42	14.93	-52.0	-53.7	14.6	0.00e+00	0	28	0	248512512	70	4323
2026-01-15 01:34:53.54	23.37	15.04	-52.0	-53.7	14.6	0.00e+00	0	28	0	250609664	70	4327
2026-01-15 01:34:54.53	23.32	15.14	-52.0	-53.7	14.7	0.00e+00	0	28	0	252706816	70	4300
2026-01-15 01:34:55.53	23.28	15.24	-52.0	-53.7	14.6	0.00e+00	0	28	0	254803968	70	4332
2026-01-15 01:34:56.54	23.22	15.35	-52.1	-53.8	14.6	0.00e+00	0	28	0	256901120	70	4370
2026-01-15 01:34:57.54	23.17	15.45	-52.1	-53.8	14.6	0.00e+00	0	28	0	257949696	70	4383
2026-01-15 01:34:58.53	23.13	15.56	-52.1	-53.8	14.6	0.00e+00	0	28	0	260046848	70	4383
2026-01-15 01:34:59.53	23.07	15.66	-52.1	-53.9	14.6	0.00e+00	0	28	0	262144000	70	4392
2026-01-15 01:35:00.53	23.02	15.77	-52.1	-53.8	14.6	0.00e+00	0	28	0	264241152	70	4359
2026-01-15 01:35:01.53	22.97	15.88	-52.2	-53.9	14.6	0.00e+00	0	28	0	265289728	70	4412
2026-01-15 01:35:02.53	22.92	15.98	-52.1	-53.8	14.6	0.00e+00	0	28	0	267386880	70	4352
2026-01-15 01:35:03.53	22.87	16.09	-52.1	-53.8	14.6	0.00e+00	0	28	0	269484032	70	4356
2026-01-15 01:35:04.52	22.81	16.20	-52.1	-53.8	14.6	0.00e+00	0	28	0	271581184	70	4365
2026-01-15 01:35:05.52	22.76	16.31	-52.1	-53.8	14.6	0.00e+00	0	28	0	273678336	70	4358
2026-01-15 01:35:06.52	22.71	16.42	-52.2	-53.9	14.6	0.00e+00	0	28	0	274726912	70	4419
2026-01-15 01:35:07.51	22.65	16.52	-52.2	-53.9	14.6	0.00e+00	0	28	0	276824064	70	4437
2026-01-15 01:35:08.52	22.60	16.64	-52.1	-53.8	14.6	0.00e+00	0	28	0	278921216	70	4378
2026-01-15 01:35:09.53	22.54	16.75	-52.1	-53.9	14.6	0.00e+00	0	28	0	281018368	70	4397
2026-01-15 01:35:10.53	22.49	16.86	-52.1	-53.8	14.6	0.00e+00	0	27	0	283115520	70	4363
2026-01-15 01:35:11.53	22.43	16.97	-52.1	-53.8	14.6	0.00e+00	0	28	0	284164096	70	4371
2026-01-15 01:35:12.53	22.38	17.08	-52.2	-53.9	14.6	0.00e+00	0	28	0	286261248	70	4402
2026-01-15 01:35:13.53	22.32	17.19	-52.1	-53.8	14.6	0.00e+00	0	28	0	288358400	70	4365
2026-01-15 01:35:14.53	22.26	17.31	-52.0	-53.7	14.7	0.00e+00	0	28	0	290455552	70	4334
2026-01-15 01:35:15.54	22.21	17.42	-52.1	-53.8	14.7	0.00e+00	0	28	0	292552704	70	4347
2026-01-15 01:35:16.54	22.15	17.53	-52.2	-53.9	14.6	0.00e+00	0	28	0	293601280	70	4419
2026-01-15 01:35:17.54	22.09	17.65	-52.2	-53.9	14.6	0.00e+00	0	28	0	295698432	70	4441
2026-01-15 01:35:18.54	22.03	17.76	-52.1	-53.8	14.6	0.00e+00	0	28	0	297795584	70	4391
2026-01-15 01:35:19.55	21.97	17.88	-52.0	-53.7	14.7	0.00e+00	0	28	0	299892736	70	4305
2026-01-15 01:35:20.55	21.91	18.00	-52.1	-53.8	14.7	0.00e+00	0	28	0	301989888	70	4348
2026-01-15 01:35:21.54	21.85	18.11	-52.0	-53.6	14.7	0.00e+00	0	28	0	303038464	70	4287
2026-01-15 01:35:22.54	21.79	18.23	-52.0	-53.7	14.7	0.00e+00	0	28	0	305135616	70	4327
2026-01-15 01:35:23.54	21.73	18.35	-52.0	-53.7	14.7	0.00e+00	0	28	0	307232768	70	4296
2026-01-15 01:35:24.54	21.67	18.46	-52.1	-53.7	14.7	0.00e+00	0	28	0	309329920	70	4340
2026-01-15 01:35:25.54	21.60	18.58	-52.0	-53.7	14.7	0.00e+00	0	28	0	310378496	70	4323
2026-01-15 01:35:26.55	21.54	18.70	-52.0	-53.7	14.7	0.00e+00	0	28	0	312475648	70	4298
2026-01-15 01:35:27.55	21.48	18.82	-52.0	-53.7	14.7	0.00e+00	0	28	0	314572800	70	4323
2026-01-15 01:35:28.55	21.41	18.94	-52.1	-53.7	14.7	0.00e+00	0	28	0	316669952	70	4335
2026-01-15 01:35:29.55	21.35	19.06	-52.0	-53.6	14.7	0.00e+00	0	28	0	318767104	70	4278
2026-01-15 01:35:30.55	21.28	19.18	-52.0	-53.6	14.7	0.00e+00	0	28	0	319815680	70	4270
2026-01-15 01:35:31.54	21.22	19.30	-51.9	-53.6	14.7	0.00e+00	0	28	0	321912832	70	4271
2026-01-15 01:35:32.53	21.15	19.42	-52.0	-53.7	14.7	0.00e+00	0	28	0	324009984	70	4300
2026-01-15 01:35:33.53	21.09	19.55	-52.0	-53.6	14.7	0.00e+00	0	28	0	326107136	70	4288
2026-01-15 01:35:34.53	21.02	19.67	-51.9	-53.5	14.8	0.00e+00	0	28	0	327155712	70	4228
2026-01-15 01:35:35.53	20.95	19.79	-51.9	-53.5	14.8	0.00e+00	0	28	0	329252864	70	4228
2026-01-15 01:35:36.53	20.88	19.92	-52.0	-53.6	14.7	0.00e+00	0	28	0	331350016	70	4277
2026-01-15 01:35:37.52	20.81	20.04	-51.8	-53.5	14.8	0.00e+00	0	28	0	333447168	70	4212
2026-01-15 01:35:38.53	20.74	20.17	-51.9	-53.6	14.8	0.00e+00	0	28	0	335544320	70	4245
2026-01-15 01:35:39.53	20.67	20.30	-51.9	-53.5	14.8	0.00e+00	0	28	0	336592896	70	4209
2026-01-15 01:35:40.52	20.60	20.42	-52.0	-53.6	14.7	0.00e+00	0	28	0	338690048	70	4275
2026-01-15 01:35:41.52	20.53	20.55	-51.9	-53.6	14.8	0.00e+00	0	28	0	340787200	70	4251
2026-01-15 01:35:42.52	20.46	20.68	-51.8	-53.4	14.8	0.00e+00	0	28	0	342884352	70	4184
2026-01-15 01:35:43.53	20.39	20.81	-51.8	-53.5	14.8	0.00e+00	0	28	0	344981504	70	4203
2026-01-15 01:35:44.53	20.31	20.94	-52.0	-53.6	14.7	0.00e+00	0	28	0	346030080	70	4274
2026-01-15 01:35:45.52	20.24	21.06	-51.9	-53.5	14.8	0.00e+00	0	28	0	348127232	70	4221
2026-01-15 01:35:46.51	20.17	21.19	-51.8	-53.4	14.8	0.00e+00	0	28	0	350224384	70	4164
2026-01-15 01:35:47.51	20.09	21.32	-51.8	-53.4	14.8	0.00e+00	0	28	0	352321536	70	4191
2026-01-15 01:35:48.51	20.01	21.46	-51.8	-53.4	14.8	0.00e+00	0	28	0	354418688	70	4156
2026-01-15 01:35:49.51	19.94	21.59	-51.8	-53.5	14.8	0.00e+00	0	28	0	355467264	70	4196
2026-01-15 01:35:50.51	19.86	21.72	-51.8	-53.4	14.8	0.00e+00	0	28	0	357564416	70	4153
2026-01-15 01:35:51.51	19.78	21.86	-51.8	-53.4	14.8	0.00e+00	0	28	0	359661568	70	4183
2026-01-15 01:35:52.51	19.70	21.99	-51.8	-53.5	14.8	0.00e+00	0	28	0	361758720	70	4196
2026-01-15 01:35:53.51	19.62	22.12	-51.8	-53.4	14.8	0.00e+00	0	28	0	362807296	70	4148
2026-01-15 01:35:54.51	19.54	22.26	-51.8	-53.4	14.8	0.00e+00	0	28	0	364904448	70	4172
2026-01-15 01:35:55.50	19.46	22.39	-51.8	-53.4	14.8	0.00e+00	0	28	0	367001600	70	4184
2026-01-15 01:35:56.50	19.38	22.53	-51.8	-53.4	14.8	0.00e+00	0	28	0	369098752	70	4188
2026-01-15 01:35:57.49	19.30	22.67	-52.0	-53.6	14.7	0.00e+00	0	28	0	371195904	70	4290
2026-01-15 01:35:58.49	19.22	22.81	-52.0	-53.6	14.7	0.00e+00	0	28	0	372244480	70	4286
2026-01-15 01:35:59.49	19.13	22.95	-52.0	-53.7	14.7	0.00e+00	0	28	0	374341632	70	4301
2026-01-15 01:36:00.50	19.05	23.09	-52.1	-53.8	14.6	0.00e+00	0	28	0	376438784	70	4380
2026-01-15 01:36:01.49	18.96	23.22	-52.1	-53.8	14.7	0.00e+00	0	28	0	378535936	70	4354
2026-01-15 01:36:02.49	18.87	23.37	-52.2	-53.8	14.6	0.00e+00	0	28	0	380633088	70	4385
2026-01-15 01:36:03.49	18.79	23.51	-52.2	-53.9	14.6	0.00e+00	0	28	0	381681664	70	4407
2026-01-15 01:36:04.49	18.70	23.65	-52.2	-53.9	14.6	0.00e+00	0	28	0	383778816	70	4427
2026-01-15 01:36:05.48	18.61	23.79	-52.2	-53.9	14.6	0.00e+00	0	28	0	385875968	70	4416
2026-01-15 01:36:06.47	18.52	23.93	-52.3	-54.0	14.6	0.00e+00	0	28	0	387973120	70	4468
2026-01-15 01:36:07.47	18.43	24.08	-52.3	-54.0	14.5	0.00e+00	0	28	0	389021696	70	4453
2026-01-15 01:36:08.46	18.34	24.22	-52.4	-54.2	14.5	0.00e+00	0	28	0	391118848	70	4564
2026-01-15 01:36:09.46	18.25	24.37	-52.4	-54.1	14.5	0.00e+00	0	28	0	393216000	70	4520
2026-01-15 01:36:10.46	18.16	24.51	-52.5	-54.2	14.5	0.00e+00	0	28	0	395313152	70	4598
2026-01-15 01:36:11.46	18.06	24.66	-52.6	-54.3	14.4	0.00e+00	0	28	0	397410304	70	4651
2026-01-15 01:36:12.46	17.97	24.81	-52.7	-54.5	14.4	0.00e+00	0	28	0	398458880	70	4720
2026-01-15 01:36:13.45	17.87	24.96	-52.7	-54.5	14.4	0.00e+00	0	28	0	400556032	70	4749
2026-01-15 01:36:14.46	17.77	25.11	-52.7	-54.5	14.4	0.00e+00	0	28	0	402653184	70	4732
2026-01-15 01:36:15.45	17.68	25.26	-52.9	-54.7	14.3	0.00e+00	0	28	0	404750336	70	4852
2026-01-15 01:36:16.45	17.58	25.41	-53.0	-54.8	14.4	0.00e+00	0	28	0	405798912	71	4637
2026-01-15 01:36:17.45	17.48	25.56	-53.0	-54.9	14.3	0.00e+00	0	28	0	407896064	71	4692
2026-01-15 01:36:18.44	17.38	25.71	-53.1	-55.0	14.3	0.00e+00	0	28	0	409993216	71	4715
2026-01-15 01:36:19.45	17.28	25.87	-53.2	-55.1	14.3	0.00e+00	0	28	0	412090368	71	4768
2026-01-15 01:36:20.45	17.17	26.02	-53.3	-55.2	14.2	0.00e+00	0	28	0	414187520	71	4845
2026-01-15 01:36:21.45	17.07	26.18	-53.4	-55.4	14.1	0.00e+00	0	28	0	415236096	72	4688
2026-01-15 01:36:22.45	16.96	26.33	-53.6	-55.6	14.1	0.00e+00	0	28	0	417333248	72	4771
2026-01-15 01:36:23.45	16.86	26.49	-53.7	-55.8	14.1	0.00e+00	0	28	0	419430400	72	4880
2026-01-15 01:36:24.45	16.75	26.65	-53.8	-55.9	14.0	0.00e+00	0	28	0	421527552	72	4957
2026-01-15 01:36:25.45	16.64	26.80	-54.0	-56.1	14.0	0.00e+00	0	28	0	423624704	73	4780
2026-01-15 01:36:26.44	16.53	26.96	-54.1	-56.2	13.9	0.00e+00	0	28	0	424673280	73	4870
2026-01-15 01:36:27.44	16.42	27.12	-54.1	-56.2	13.9	0.00e+00	0	28	0	426770432	73	4864
2026-01-15 01:36:28.44	16.31	27.28	-54.1	-56.3	13.9	0.00e+00	0	28	0	428867584	73	4915
2026-01-15 01:36:29.44	16.20	27.44	-54.2	-56.5	13.8	0.00e+00	0	28	0	430964736	73	5008
2026-01-15 01:36:30.44	16.08	27.61	-54.3	-56.6	13.8	0.00e+00	0	28	0	433061888	73	5051
2026-01-15 01:36:31.44	15.97	27.77	-54.3	-56.6	13.8	0.00e+00	0	28	0	434110464	73	5065
2026-01-15 01:36:32.43	15.85	27.93	-54.3	-56.6	13.8	0.00e+00	0	28	0	436207616	73	5069
2026-01-15 01:36:33.44	15.73	28.10	-54.4	-56.7	13.8	0.00e+00	0	28	0	438304768	74	4859
2026-01-15 01:36:34.44	15.62	28.26	-54.5	-56.8	13.8	0.00e+00	0	28	0	440401920	74	4909
2026-01-15 01:36:35.43	15.50	28.43	-54.5	-56.9	13.7	0.00e+00	0	28	0	441450496	74	4953
2026-01-15 01:36:36.43	15.38	28.60	-54.7	-57.1	13.6	0.00e+00	0	28	0	443547648	74	5099
2026-01-15 01:36:37.43	15.25	28.76	-54.7	-57.1	13.6	0.00e+00	0	28	0	445644800	74	5058
2026-01-15 01:36:38.43	15.13	28.93	-54.7	-57.2	13.6	0.00e+00	0	28	0	447741952	74	5117
2026-01-15 01:36:39.42	15.00	29.10	-54.7	-57.2	13.6	0.00e+00	0	28	0	449839104	74	5120
2026-01-15 01:36:40.41	14.88	29.27	-54.8	-57.3	13.5	0.00e+00	0	28	0	450887680	74	5195
2026-01-15 01:36:41.42	14.75	29.44	-54.8	-57.3	13.6	0.00e+00	0	28	0	452984832	74	5175
2026-01-15 01:36:42.41	14.62	29.62	-54.9	-57.4	13.5	0.00e+00	0	28	0	455081984	74	5244
2026-01-15 01:36:43.40	14.49	29.79	-54.8	-57.3	13.5	0.00e+00	0	28	0	457179136	74	5180
2026-01-15 01:36:44.40	14.36	29.96	-54.9	-57.4	13.6	0.00e+00	0	28	0	458227712	75	4961
2026-01-15 01:36:45.40	14.22	30.14	-55.0	-57.5	13.5	0.00e+00	0	28	0	460324864	75	5005
2026-01-15 01:36:46.40	14.09	30.31	-55.0	-57.5	13.5	0.00e+00	0	28	0	462422016	75	4994
2026-01-15 01:36:47.39	13.95	30.49	-55.0	-57.6	13.5	0.00e+00	0	28	0	464519168	75	5044
2026-01-15 01:36:48.39	13.81	30.67	-55.2	-57.8	13.4	0.00e+00	0	28	0	466616320	75	5179
2026-01-15 01:36:49.38	13.67	30.84	-55.1	-57.7	13.4	0.00e+00	0	28	0	467664896	75	5137
2026-01-15 01:36:50.38	13.53	31.02	-55.1	-57.7	13.4	0.00e+00	0	28	0	469762048	75	5124
2026-01-15 01:36:51.37	13.39	31.20	-55.0	-57.6	13.4	0.00e+00	0	28	0	471859200	75	5074
2026-01-15 01:36:52.37	13.25	31.38	-55.0	-57.4	13.6	0.00e+00	0	28	0	473956352	75	4979
2026-01-15 01:36:53.36	13.10	31.56	-55.0	-57.5	13.5	0.00e+00	0	28	0	475004928	75	5007
2026-01-15 01:36:54.36	12.95	31.75	-55.0	-57.5	13.5	0.00e+00	0	28	0	477102080	75	4984
2026-01-15 01:36:55.35	12.80	31.93	-54.8	-57.3	13.6	0.00e+00	0	28	0	479199232	75	4891
2026-01-15 01:36:56.34	12.65	32.11	-54.8	-57.3	13.6	0.00e+00	0	28	0	481296384	75	4876
2026-01-15 01:36:57.34	12.50	32.30	-54.8	-57.2	13.7	0.00e+00	0	28	0	483393536	75	4856
2026-01-15 01:36:58.34	12.34	32.49	-54.8	-57.2	13.7	0.00e+00	0	28	0	484442112	75	4834
2026-01-15 01:36:59.34	12.19	32.67	-54.8	-57.2	13.7	0.00e+00	0	28	0	486539264	75	4844
2026-01-15 01:37:00.33	12.03	32.86	-54.8	-57.2	13.7	0.00e+00	0	28	0	488636416	75	4864
2026-01-15 01:37:01.33	11.87	33.05	-54.8	-57.2	13.7	0.00e+00	0	28	0	490733568	75	4842
2026-01-15 01:37:02.33	11.70	33.24	-54.9	-57.3	13.6	0.00e+00	0	28	0	491782144	75	4923
2026-01-15 01:37:03.32	11.54	33.43	-54.8	-57.3	13.7	0.00e+00	0	28	0	493879296	75	4888
2026-01-15 01:37:04.32	11.37	33.62	-54.9	-57.4	13.6	0.00e+00	0	28	0	495976448	75	4937
2026-01-15 01:37:05.32	11.21	33.82	-54.9	-57.3	13.7	0.00e+00	0	28	0	498073600	75	4879
2026-01-15 01:37:06.32	11.03	34.01	-54.9	-57.3	13.6	0.00e+00	0	28	0	500170752	75	4923
2026-01-15 01:37:07.32	10.86	34.21	-54.8	-57.2	13.7	0.00e+00	0	28	0	501219328	75	4836
2026-01-15 01:37:08.31	10.69	34.40	-54.9	-57.3	13.7	0.00e+00	0	28	0	503316480	75	4912
2026-01-15 01:37:09.31	10.51	34.60	-55.0	-57.5	13.6	0.00e+00	0	28	0	505413632	75	5003
2026-01-15 01:37:10.30	10.33	34.79	-55.0	-57.5	13.6	0.00e+00	0	28	0	507510784	75	5014
2026-01-15 01:37:11.30	10.15	34.99	-55.1	-57.6	13.5	0.00e+00	0	28	0	509607936	75	5092
2026-01-15 01:37:12.29	9.97	35.19	-55.0	-57.6	13.5	0.00e+00	0	28	0	510656512	75	5061
2026-01-15 01:37:13.29	9.78	35.39	-55.1	-57.6	13.5	0.00e+00	0	28	0	512753664	75	5094
2026-01-15 01:37:14.29	9.59	35.59	-55.2	-57.7	13.4	0.00e+00	0	28	0	514850816	75	5143
2026-01-15 01:37:15.28	9.40	35.79	-55.2	-57.8	13.4	0.00e+00	0	28	0	516947968	75	5190
2026-01-15 01:37:16.28	9.21	36.00	-55.0	-57.5	13.5	0.00e+00	0	28	0	517996544	75	5003
2026-01-15 01:37:17.28	9.01	36.20	-55.0	-57.4	13.6	0.00e+00	0	28	0	520093696	75	4976
2026-01-15 01:37:18.27	8.82	36.41	-54.9	-57.3	13.7	0.00e+00	0	28	0	522190848	75	4885
2026-01-15 01:37:19.27	8.62	36.61	-54.9	-57.4	13.6	0.00e+00	0	28	0	524288000	75	4943
2026-01-15 01:37:20.25	8.42	36.82	-55.1	-57.6	13.5	0.00e+00	0	28	0	526385152	75	5053
2026-01-15 01:37:21.25	8.21	37.02	-55.2	-57.8	13.4	0.00e+00	0	28	0	527433728	75	5169
2026-01-15 01:37:22.24	8.00	37.23	-55.4	-58.1	13.3	0.00e+00	0	28	0	529530880	75	5344
2026-01-15 01:37:23.24	7.79	37.44	-55.6	-58.4	13.2	0.00e+00	0	28	0	531628032	76	5233
2026-01-15 01:37:24.24	7.58	37.65	-55.6	-58.3	13.2	0.00e+00	0	28	0	533725184	76	5205
2026-01-15 01:37:25.23	7.36	37.86	-55.6	-58.3	13.3	0.00e+00	0	28	0	534773760	76	5211
2026-01-15 01:37:26.22	7.14	38.07	-55.6	-58.4	13.2	0.00e+00	0	28	0	536870912	76	5261
2026-01-15 01:37:27.22	6.92	38.28	-55.7	-58.5	13.2	0.00e+00	0	28	0	538968064	76	5282
2026-01-15 01:37:28.22	6.69	38.50	-55.7	-58.5	13.1	0.00e+00	0	28	0	541065216	76	5332
2026-01-15 01:37:29.21	6.47	38.71	-55.9	-58.8	13.0	0.00e+00	0	28	0	543162368	76	5486
2026-01-15 01:37:30.21	6.23	38.93	-56.0	-59.0	13.0	0.00e+00	0	28	0	544210944	77	5282
2026-01-15 01:37:31.20	6.00	39.14	-55.9	-58.9	13.0	0.00e+00	0	28	0	546308096	77	5250
2026-01-15 01:37:32.20	5.76	39.36	-56.0	-58.9	13.0	0.00e+00	0	28	0	548405248	77	5244
2026-01-15 01:37:33.20	5.52	39.58	-56.0	-58.9	13.0	0.00e+00	0	28	0	550502400	77	5244
2026-01-15 01:37:34.19	5.28	39.79	-55.8	-58.6	13.2	0.00e+00	0	28	0	551550976	77	5053
2026-01-15 01:37:35.18	5.03	40.01	-55.7	-58.5	13.2	0.00e+00	0	28	0	553648128	77	5026
2026-01-15 01:37:36.18	4.78	40.23	-55.7	-58.5	13.2	0.00e+00	0	28	0	555745280	77	5017
2026-01-15 01:37:37.17	4.52	40.45	-55.8	-58.6	13.2	0.00e+00	0	28	0	557842432	77	5082
2026-01-15 01:37:38.17	4.27	40.67	-56.0	-58.9	13.0	0.00e+00	0	28	0	559939584	77	5245
2026-01-15 01:37:39.16	4.01	40.89	-55.9	-58.7	13.1	0.00e+00	0	28	0	560988160	77	5116
2026-01-15 01:37:40.17	3.74	41.12	-55.9	-58.7	13.1	0.00e+00	0	28	0	563085312	77	5148
2026-01-15 01:37:41.16	3.47	41.34	-55.9	-58.7	13.2	0.00e+00	0	28	0	565182464	77	5111
2026-01-15 01:37:42.14	3.20	41.56	-55.9	-58.8	13.1	0.00e+00	0	28	0	567279616	77	5179
2026-01-15 01:37:43.13	2.93	41.78	-55.9	-58.8	13.1	0.00e+00	0	28	0	568328192	77	5178
2026-01-15 01:37:44.12	2.65	42.01	-55.9	-58.8	13.1	0.00e+00	0	28	0	570425344	77	5190
2026-01-15 01:37:45.12	2.36	42.23	-55.6	-58.3	13.4	0.00e+00	0	28	0	572522496	77	4896
2026-01-15 01:37:46.12	2.07	42.46	-55.3	-57.8	13.7	0.00e+00	0	28	0	574619648	77	4599
2026-01-15 01:37:47.12	1.78	42.69	-55.1	-57.6	13.7	0.00e+00	0	28	0	576716800	76	4772
2026-01-15 01:37:48.11	1.48	42.91	-55.0	-57.3	13.8	0.00e+00	0	28	0	577765376	76	4613
2026-01-15 01:37:49.11	1.18	43.14	-55.0	-57.4	13.8	0.00e+00	0	28	0	579862528	76	4683
2026-01-15 01:37:50.10	0.88	43.37	-54.8	-57.1	13.9	0.00e+00	0	28	0	581959680	76	4526
2026-01-15 01:37:51.10	0.56	43.60	-54.5	-56.7	14.0	0.00e+00	0	28	0	584056832	75	4596
2026-01-15 01:37:52.09	0.25	43.83	-54.5	-56.6	14.1	0.00e+00	0	28	0	586153984	75	4540
2026-01-15 01:37:53.09	359.93	44.06	-54.5	-56.6	14.0	0.00e+00	0	28	0	587202560	75	4536
2026-01-15 01:37:54.09	359.61	44.29	-54.6	-56.8	14.0	0.00e+00	0	28	0	589299712	75	4629
2026-01-15 01:37:55.09	359.28	44.52	-54.6	-56.8	14.0	0.00e+00	0	28	0	591396864	75	4606
2026-01-15 01:37:56.09	358.94	44.75	-54.4	-56.5	14.1	0.00e+00	0	28	0	593494016	75	4471
2026-01-15 01:37:57.08	358.60	44.98	-54.4	-56.5	14.1	0.00e+00	0	28	0	594542592	75	4478
2026-01-15 01:37:58.08	358.26	45.21	-54.6	-56.9	13.9	0.00e+00	0	28	0	596639744	75	4656
2026-01-15 01:37:59.08	357.91	45.44	-55.0	-57.4	13.7	0.00e+00	0	28	0	598736896	75	4949
2026-01-15 01:38:00.08	357.55	45.67	-55.1	-57.6	13.5	0.00e+00	0	28	0	600834048	75	5091
2026-01-15 01:38:01.07	357.20	45.90	-55.1	-57.6	13.6	0.00e+00	0	28	0	602931200	75	5042
2026-01-15 01:38:02.07	356.83	46.13	-54.9	-57.2	13.8	0.00e+00	0	28	0	603979776	75	4865
2026-01-15 01:38:03.06	356.46	46.36	-54.9	-57.2	13.8	0.00e+00	0	28	0	606076928	75	4860
2026-01-15 01:38:04.05	356.09	46.59	-54.8	-57.1	13.8	0.00e+00	0	28	0	608174080	75	4761
2026-01-15 01:38:05.05	355.71	46.83	-54.7	-57.0	13.9	0.00e+00	0	28	0	610271232	75	4753
2026-01-15 01:38:06.05	355.32	47.06	-54.6	-56.9	13.9	0.00e+00	0	28	0	611319808	75	4672
2026-01-15 01:38:07.05	354.93	47.29	-54.4	-56.6	14.1	0.00e+00	0	28	0	613416960	75	4520
2026-01-15 01:38:08.05	354.53	47.52	-54.4	-56.5	14.1	0.00e+00	0	28	0	615514112	75	4477
2026-01-15 01:38:09.05	354.12	47.75	-54.3	-56.4	14.2	0.00e+00	0	28	0	617611264	75	4394
2026-01-15 01:38:10.03	353.72	47.98	-54.1	-56.1	14.2	0.00e+00	0	28	0	619708416	74	4521
2026-01-15 01:38:11.03	353.30	48.21	-54.2	-56.2	14.2	0.00e+00	0	28	0	620756992	74	4597
2026-01-15 01:38:12.02	352.88	48.43	-54.3	-56.5	14.0	0.00e+00	0	28	0	622854144	74	4719
2026-01-15 01:38:13.01	352.45	48.66	-54.5	-56.7	13.9	0.00e+00	0	28	0	624951296	74	4862
2026-01-15 01:38:14.00	352.02	48.89	-54.6	-56.8	13.9	0.00e+00	0	28	0	627048448	74	4901
2026-01-15 01:38:15.00	351.58	49.11	-54.6	-56.8	13.9	0.00e+00	0	28	0	628097024	74	4913
2026-01-15 01:38:15.99	351.13	49.34	-54.7	-57.0	13.8	0.00e+00	0	28	0	630194176	74	4987
2026-01-15 01:38:16.98	350.68	49.56	-54.8	-57.0	13.8	0.00e+00	0	28	0	632291328	74	5040
2026-01-15 01:38:17.98	350.21	49.79	-54.7	-57.0	13.8	0.00e+00	0	28	0	634388480	74	5007
2026-01-15 01:38:18.97	349.75	50.01	-54.8	-57.1	13.7	0.00e+00	0	28	0	636485632	74	5096
2026-01-15 01:38:19.97	349.27	50.24	-54.7	-57.0	13.9	0.00e+00	0	28	0	637534208	75	4742
2026-01-15 01:38:20.96	348.79	50.46	-54.4	-56.5	14.1	0.00e+00	0	28	0	639631360	75	4469
2026-01-15 01:38:21.95	348.30	50.68	-54.0	-56.0	14.3	0.00e+00	0	28	0	641728512	74	4462
2026-01-15 01:38:22.95	347.80	50.90	-53.5	-55.4	14.4	0.00e+00	0	28	0	643825664	73	4423
2026-01-15 01:38:23.94	347.30	51.11	-53.2	-55.0	14.6	0.00e+00	0	28	0	644874240	73	4235
2026-01-15 01:38:24.94	346.79	51.33	-53.3	-55.1	14.4	0.00e+00	0	28	0	646971392	72	4506
2026-01-15 01:38:25.94	346.27	51.55	-53.2	-55.0	14.5	0.00e+00	0	28	0	649068544	72	4475
2026-01-15 01:38:26.93	345.74	51.76	-53.1	-54.8	14.6	0.00e+00	0	28	0	651165696	72	4373
2026-01-15 01:38:27.92	345.21	51.97	-53.1	-54.9	14.5	0.00e+00	0	28	0	653262848	72	4414
2026-01-15 01:38:28.93	344.66	52.18	-53.2	-55.0	14.5	0.00e+00	0	28	0	654311424	72	4466
2026-01-15 01:38:29.92	344.11	52.39	-52.9	-54.6	14.7	0.00e+00	0	28	0	656408576	72	4267
2026-01-15 01:38:30.91	343.56	52.60	-52.3	-53.9	14.8	0.00e+00	0	28	0	658505728	71	4183
2026-01-15 01:38:31.91	342.99	52.80	-52.0	-53.5	14.9	0.00e+00	0	28	0	660602880	70	4208
2026-01-15 01:38:32.91	342.41	53.00	-51.9	-53.5	14.9	0.00e+00	0	28	0	661651456	70	4200
2026-01-15 01:38:33.89	341.84	53.20	-51.7	-53.2	15.0	0.00e+00	0	28	0	663748608	70	4064
2026-01-15 01:38:34.89	341.25	53.40	-51.3	-52.7	15.0	0.00e+00	0	28	0	665845760	69	4066
2026-01-15 01:38:35.88	340.65	53.59	-51.4	-52.9	14.9	0.00e+00	0	28	0	667942912	68	4413
2026-01-15 01:38:36.87	340.05	53.79	-51.5	-53.0	14.8	0.00e+00	0	28	0	670040064	68	4464
2026-01-15 01:38:37.87	339.43	53.98	-51.7	-53.2	14.8	0.00e+00	0	28	0	671088640	68	4581
2026-01-15 01:38:38.87	338.81	54.17	-51.7	-53.2	14.7	0.00e+00	0	28	0	673185792	68	4588
2026-01-15 01:38:39.86	338.18	54.35	-51.7	-53.3	14.7	0.00e+00	0	28	0	675282944	68	4604
2026-01-15 01:38:40.85	337.55	54.53	-51.9	-53.5	14.8	0.00e+00	0	28	0	677380096	69	4453
2026-01-15 01:38:41.84	336.90	54.71	-52.1	-53.7	14.7	0.00e+00	0	28	0	678428672	69	4568
2026-01-15 01:38:42.84	336.24	54.89	-52.3	-53.9	14.6	0.00e+00	0	28	0	680525824	69	4681
2026-01-15 01:38:43.83	335.59	55.06	-52.5	-54.1	14.6	0.00e+00	0	28	0	682622976	70	4526
2026-01-15 01:38:44.83	334.91	55.23	-52.8	-54.4	14.5	0.00e+00	0	28	0	684720128	70	4702
2026-01-15 01:38:45.82	334.24	55.39	-53.1	-54.9	14.5	0.00e+00	0	28	0	686817280	71	4695
2026-01-15 01:38:46.83	333.54	55.56	-53.3	-55.1	14.4	0.00e+00	0	28	0	687865856	71	4799
2026-01-15 01:38:47.83	332.84	55.72	-53.3	-55.2	14.4	0.00e+00	0	28	0	689963008	71	4824
2026-01-15 01:38:48.82	332.14	55.87	-53.4	-55.2	14.3	0.00e+00	0	28	0	692060160	71	4846
2026-01-15 01:38:49.82	331.43	56.03	-53.2	-55.0	14.4	0.00e+00	0	28	0	694157312	71	4739
2026-01-15 01:38:50.82	330.70	56.17	-53.3	-55.1	14.4	0.00e+00	0	28	0	695205888	71	4777
2026-01-15 01:38:51.82	329.97	56.32	-53.3	-55.1	14.4	0.00e+00	0	28	0	697303040	71	4760
2026-01-15 01:38:52.81	329.24	56.46	-53.2	-55.0	14.4	0.00e+00	0	28	0	699400192	71	4708
2026-01-15 01:38:53.81	328.50	56.59	-53.7	-55.6	14.3	0.00e+00	0	28	0	701497344	72	4778
2026-01-15 01:38:54.81	327.75	56.72	-54.1	-56.2	14.1	0.00e+00	0	28	0	703594496	73	4819
2026-01-15 01:38:55.80	327.00	56.85	-54.5	-56.7	14.0	0.00e+00	0	28	0	704643072	74	4821
2026-01-15 01:38:56.80	326.23	56.97	-54.6	-56.8	13.9	0.00e+00	0	28	0	706740224	74	4906
2026-01-15 01:38:57.80	325.46	57.09	-54.7	-57.0	13.8	0.00e+00	0	28	0	708837376	74	4984
2026-01-15 01:38:58.79	324.69	57.20	-54.8	-57.0	13.8	0.00e+00	0	28	0	710934528	74	5027
2026-01-15 01:38:59.80	323.89	57.31	-54.7	-57.0	13.9	0.00e+00	0	28	0	713031680	75	4725
2026-01-15 01:39:00.80	323.10	57.41	-54.6	-56.8	14.0	0.00e+00	0	28	0	714080256	75	4606
2026-01-15 01:39:01.79	322.31	57.51	-54.4	-56.5	14.2	0.00e+00	0	28	0	716177408	75	4493
2026-01-15 01:39:02.79	321.51	57.60	-54.0	-56.0	14.3	0.00e+00	0	28	0	718274560	74	4465
2026-01-15 01:39:03.78	320.71	57.69	-53.6	-55.4	14.4	0.00e+00	0	28	0	720371712	73	4434
2026-01-15 01:39:04.77	319.90	57.77	-53.4	-55.2	14.6	0.00e+00	0	28	0	721420288	73	4293
2026-01-15 01:39:05.76	319.09	57.84	-53.6	-55.4	14.5	0.00e+00	0	28	0	723517440	73	4426
2026-01-15 01:39:06.76	318.27	57.91	-53.7	-55.5	14.4	0.00e+00	0	28	0	725614592	73	4482
2026-01-15 01:39:07.77	317.44	57.98	-53.6	-55.5	14.4	0.00e+00	0	28	0	727711744	73	4457
2026-01-15 01:39:08.76	316.61	58.04	-53.5	-55.3	14.5	0.00e+00	0	28	0	729808896	73	4356
2026-01-15 01:39:09.76	315.78	58.09	-53.0	-54.7	14.6	0.00e+00	0	28	0	730857472	72	4337
2026-01-15 01:39:10.76	314.94	58.14	-52.8	-54.5	14.7	0.00e+00	0	28	0	732954624	72	4194
2026-01-15 01:39:11.75	314.11	58.18	-52.9	-54.6	14.7	0.00e+00	0	28	0	735051776	72	4247
2026-01-15 01:39:12.76	313.26	58.22	-53.0	-54.7	14.6	0.00e+00	0	28	0	737148928	72	4317
2026-01-15 01:39:13.76	312.41	58.25	-53.0	-54.6	14.6	0.00e+00	0	28	0	739246080	72	4291
2026-01-15 01:39:14.75	311.57	58.28	-52.8	-54.4	14.7	0.00e+00	0	28	0	740294656	72	4189
2026-01-15 01:39:15.74	310.73	58.30	-52.6	-54.2	14.7	0.00e+00	0	28	0	742391808	71	4318
2026-01-15 01:39:16.73	309.89	58.31	-52.4	-54.0	14.8	0.00e+00	0	28	0	744488960	71	4233
2026-01-15 01:39:17.73	309.04	58.32	-52.5	-54.1	14.8	0.00e+00	0	28	0	746586112	71	4254
2026-01-15 01:39:18.72	308.20	58.32	-52.2	-53.7	14.9	0.00e+00	0	28	0	747634688	71	4091
2026-01-15 01:39:19.71	307.36	58.32	-52.3	-53.9	14.8	0.00e+00	0	28	0	749731840	70	4398
2026-01-15 01:39:20.71	306.51	58.31	-52.5	-54.2	14.7	0.00e+00	0	28	0	751828992	70	4549
2026-01-15 01:39:21.71	305.66	58.29	-52.6	-54.3	14.6	0.00e+00	0	28	0	753926144	70	4612
2026-01-15 01:39:22.70	304.82	58.27	-52.7	-54.4	14.6	0.00e+00	0	28	0	756023296	70	4664
2026-01-15 01:39:23.70	303.97	58.24	-52.7	-54.4	14.6	0.00e+00	0	28	0	757071872	70	4668
2026-01-15 01:39:24.70	303.13	58.21	-52.6	-54.2	14.6	0.00e+00	0	28	0	759169024	70	4591
2026-01-15 01:39:25.70	302.29	58.17	-52.6	-54.2	14.6	0.00e+00	0	28	0	761266176	70	4596
2026-01-15 01:39:26.70	301.45	58.13	-52.2	-53.7	14.8	0.00e+00	0	28	0	763363328	70	4311
2026-01-15 01:39:27.70	300.61	58.08	-51.8	-53.3	15.0	0.00e+00	0	28	0	764411904	70	4135
2026-01-15 01:39:28.69	299.78	58.02	-51.8	-53.3	15.0	0.00e+00	0	28	0	766509056	70	4135
2026-01-15 01:39:29.68	298.96	57.96	-51.4	-52.9	15.0	0.00e+00	0	28	0	768606208	69	4153
2026-01-15 01:39:30.68	298.14	57.89	-51.4	-52.8	15.0	0.00e+00	0	28	0	770703360	69	4114
2026-01-15 01:39:31.68	297.31	57.82	-51.5	-52.9	15.0	0.00e+00	0	28	0	772800512	69	4185
2026-01-15 01:39:32.68	296.50	57.74	-51.6	-53.0	14.9	0.00e+00	0	28	0	773849088	69	4240
2026-01-15 01:39:33.68	295.68	57.66	-51.5	-53.0	14.9	0.00e+00	0	28	0	775946240	69	4215
2026-01-15 01:39:34.67	294.89	57.57	-51.8	-53.3	14.8	0.00e+00	0	28	0	778043392	69	4362
2026-01-15 01:39:35.67	294.08	57.48	-51.7	-53.2	14.9	0.00e+00	0	28	0	780140544	69	4293
2026-01-15 01:39:36.67	293.29	57.38	-51.2	-52.7	15.1	0.00e+00	0	28	0	781189120	69	4054
2026-01-15 01:39:37.67	292.50	57.27	-51.0	-52.4	15.0	0.00e+00	0	28	0	783286272	68	4174
2026-01-15 01:39:38.67	291.71	57.17	-51.1	-52.4	15.0	0.00e+00	0	28	0	785383424	68	4193
2026-01-15 01:39:39.67	290.94	57.05	-51.3	-52.7	14.9	0.00e+00	0	28	0	787480576	68	4338
2026-01-15 01:39:40.67	290.17	56.93	-52.0	-53.6	14.7	0.00e+00	0	28	0	789577728	69	4505
2026-01-15 01:39:41.67	289.40	56.81	-52.3	-54.0	14.6	0.00e+00	0	28	0	790626304	69	4708
2026-01-15 01:39:42.67	288.64	56.68	-52.2	-53.8	14.7	0.00e+00	0	28	0	792723456	69	4638
2026-01-15 01:39:43.67	287.89	56.55	-52.1	-53.6	14.7	0.00e+00	0	28	0	794820608	69	4535
2026-01-15 01:39:44.66	287.16	56.41	-51.9	-53.4	14.8	0.00e+00	0	28	0	796917760	69	4425
2026-01-15 01:39:45.66	286.42	56.27	-52.0	-53.5	14.8	0.00e+00	0	28	0	799014912	69	4472
2026-01-15 01:39:46.65	285.70	56.13	-52.0	-53.5	14.8	0.00e+00	0	28	0	800063488	69	4465
2026-01-15 01:39:47.65	284.98	55.98	-52.3	-53.8	14.7	0.00e+00	0	28	0	802160640	69	4647
2026-01-15 01:39:48.64	284.28	55.83	-52.5	-54.1	14.7	0.00e+00	0	28	0	804257792	70	4525
2026-01-15 01:39:49.63	283.58	55.67	-52.9	-54.6	14.6	0.00e+00	0	28	0	806354944	71	4530
2026-01-15 01:39:50.63	282.88	55.51	-53.0	-54.7	14.5	0.00e+00	0	28	0	807403520	71	4588
2026-01-15 01:39:51.63	282.19	55.34	-52.7	-54.3	14.7	0.00e+00	0	28	0	809500672	71	4360
2026-01-15 01:39:52.63	281.51	55.18	-52.3	-53.9	14.8	0.00e+00	0	28	0	811597824	71	4182
2026-01-15 01:39:53.63	280.84	55.00	-51.9	-53.4	14.9	0.00e+00	0	28	0	813694976	70	4179
2026-01-15 01:39:54.63	280.18	54.83	-51.4	-52.8	15.0	0.00e+00	0	28	0	815792128	69	4119
2026-01-15 01:39:55.62	279.53	54.65	-51.7	-53.2	14.9	0.00e+00	0	28	0	816840704	69	4303
2026-01-15 01:39:56.63	278.87	54.47	-52.2	-53.8	14.7	0.00e+00	0	28	0	818937856	69	4600
2026-01-15 01:39:57.63	278.23	54.29	-52.1	-53.6	14.7	0.00e+00	0	28	0	821035008	69	4544
2026-01-15 01:39:58.61	277.61	54.10	-51.8	-53.3	14.8	0.00e+00	0	28	0	823132160	69	4357
2026-01-15 01:39:59.61	276.99	53.91	-51.8	-53.3	14.9	0.00e+00	0	28	0	825229312	69	4354
2026-01-15 01:40:00.60	276.38	53.72	-51.3	-52.8	15.0	0.00e+00	0	28	0	826277888	69	4110
2026-01-15 01:40:01.60	275.78	53.53	-51.2	-52.6	15.0	0.00e+00	0	28	0	828375040	68	4288
2026-01-15 01:40:02.59	275.18	53.33	-51.3	-52.7	14.9	0.00e+00	0	28	0	830472192	68	4340
2026-01-15 01:40:03.59	274.59	53.13	-51.6	-53.1	14.8	0.00e+00	0	28	0	832569344	68	4504
2026-01-15 01:40:04.58	274.02	52.93	-51.8	-53.4	14.7	0.00e+00	0	28	0	833617920	68	4658
2026-01-15 01:40:05.58	273.44	52.73	-52.2	-53.8	14.7	0.00e+00	0	28	0	835715072	69	4607
2026-01-15 01:40:06.58	272.88	52.52	-52.5	-54.1	14.6	0.00e+00	0	28	0	837812224	70	4542
2026-01-15 01:40:07.57	272.32	52.31	-52.5	-54.2	14.6	0.00e+00	0	28	0	839909376	70	4573
2026-01-15 01:40:08.57	271.77	52.10	-52.5	-54.2	14.6	0.00e+00	0	28	0	842006528	70	4553
2026-01-15 01:40:09.57	271.23	51.89	-52.8	-54.5	14.5	0.00e+00	0	28	0	843055104	70	4719
2026-01-15 01:40:10.56	270.70	51.68	-52.9	-54.6	14.5	0.00e+00	0	28	0	845152256	70	4774
2026-01-15 01:40:11.56	270.17	51.46	-53.5	-55.4	14.4	0.00e+00	0	28	0	847249408	72	4657
2026-01-15 01:40:12.56	269.65	51.25	-54.3	-56.5	14.0	0.00e+00	0	28	0	849346560	73	5005
2026-01-15 01:40:13.55	269.14	51.03	-54.7	-56.9	13.9	0.00e+00	0	28	0	850395136	74	4970
2026-01-15 01:40:14.55	268.64	50.81	-54.4	-56.6	14.0	0.00e+00	0	28	0	852492288	74	4762
2026-01-15 01:40:15.55	268.14	50.59	-54.1	-56.2	14.2	0.00e+00	0	28	0	854589440	74	4555
2026-01-15 01:40:16.54	267.66	50.37	-54.1	-56.1	14.2	0.00e+00	0	28	0	856686592	74	4519
2026-01-15 01:40:17.54	267.17	50.15	-54.1	-56.1	14.3	0.00e+00	0	28	0	858783744	74	4518
2026-01-15 01:40:18.54	266.70	49.92	-54.8	-57.1	13.8	0.00e+00	0	28	0	859832320	74	5051
2026-01-15 01:40:19.54	266.23	49.70	-55.8	-58.5	13.2	0.00e+00	0	28	0	861929472	76	5300
2026-01-15 01:40:20.54	265.77	49.47	-56.2	-59.1	12.9	0.00e+00	0	28	0	864026624	77	5379
2026-01-15 01:40:21.54	265.31	49.24	-56.0	-58.8	13.1	0.00e+00	0	28	0	866123776	77	5165
2026-01-15 01:40:22.54	264.86	49.01	-55.8	-58.5	13.3	0.00e+00	0	28	0	867172352	77	5027
2026-01-15 01:40:23.54	264.42	48.79	-55.6	-58.1	13.5	0.00e+00	0	28	0	869269504	77	4804
2026-01-15 01:40:24.54	263.99	48.56	-55.4	-57.8	13.7	0.00e+00	0	28	0	871366656	77	4635
2026-01-15 01:40:25.53	263.56	48.33	-55.5	-58.1	13.5	0.00e+00	0	28	0	873463808	77	4786
2026-01-15 01:40:26.52	263.14	48.10	-55.9	-58.6	13.2	0.00e+00	0	28	0	875560960	77	5087
2026-01-15 01:40:27.51	262.73	47.87	-55.9	-58.7	13.2	0.00e+00	0	28	0	876609536	77	5128
2026-01-15 01:40:28.51	262.32	47.64	-56.0	-58.9	13.1	0.00e+00	0	28	0	878706688	77	5244
2026-01-15 01:40:29.51	261.92	47.41	-55.9	-58.7	13.2	0.00e+00	0	28	0	880803840	77	5134
2026-01-15 01:40:30.51	261.52	47.18	-55.9	-58.7	13.1	0.00e+00	0	28	0	882900992	77	5143
2026-01-15 01:40:31.51	261.13	46.95	-55.7	-58.4	13.3	0.00e+00	0	28	0	884998144	77	4974
2026-01-15 01:40:32.51	260.74	46.71	-55.6	-58.1	13.5	0.00e+00	0	28	0	886046720	77	4803
2026-01-15 01:40:33.50	260.36	46.48	-55.8	-58.6	13.3	0.00e+00	0	28	0	888143872	77	5059
2026-01-15 01:40:34.49	259.99	46.25	-55.9	-58.7	13.2	0.00e+00	0	28	0	890241024	77	5132
2026-01-15 01:40:35.49	259.62	46.02	-55.6	-58.2	13.5	0.00e+00	0	28	0	892338176	77	4830
2026-01-15 01:40:36.48	259.26	45.79	-55.6	-58.2	13.5	0.00e+00	0	28	0	893386752	77	4817
2026-01-15 01:40:37.49	258.90	45.56	-55.5	-58.1	13.6	0.00e+00	0	28	0	895483904	77	4801
2026-01-15 01:40:38.49	258.55	45.32	-55.2	-57.6	13.8	0.00e+00	0	28	0	897581056	77	4542
2026-01-15 01:40:39.49	258.20	45.09	-54.8	-57.0	14.0	0.00e+00	0	28	0	899678208	76	4481
2026-01-15 01:40:40.49	257.85	44.86	-54.5	-56.6	14.1	0.00e+00	0	28	0	901775360	75	4544
2026-01-15 01:40:41.49	257.52	44.63	-54.5	-56.7	14.0	0.00e+00	0	28	0	902823936	75	4596
2026-01-15 01:40:42.49	257.18	44.40	-54.7	-57.0	13.9	0.00e+00	0	28	0	904921088	75	4738
2026-01-15 01:40:43.48	256.86	44.17	-54.9	-57.2	13.8	0.00e+00	0	28	0	907018240	75	4843
2026-01-15 01:40:44.49	256.53	43.93	-54.9	-57.3	13.7	0.00e+00	0	28	0	909115392	75	4894
2026-01-15 01:40:45.48	256.22	43.71	-54.9	-57.3	13.7	0.00e+00	0	28	0	911212544	75	4907
2026-01-15 01:40:46.47	255.90	43.48	-54.8	-57.1	13.8	0.00e+00	0	28	0	912261120	75	4765
2026-01-15 01:40:47.47	255.59	43.25	-54.7	-56.9	13.9	0.00e+00	0	28	0	914358272	75	4690
2026-01-15 01:40:48.47	255.29	43.02	-54.6	-56.8	13.9	0.00e+00	0	28	0	916455424	75	4637
2026-01-15 01:40:49.46	254.99	42.79	-54.7	-56.9	13.9	0.00e+00	0	28	0	918552576	75	4704
2026-01-15 01:40:50.46	254.69	42.56	-54.7	-57.0	13.9	0.00e+00	0	28	0	919601152	75	4717
2026-01-15 01:40:51.47	254.40	42.33	-54.8	-57.2	13.8	0.00e+00	0	28	0	921698304	75	4828
2026-01-15 01:40:52.47	254.11	42.11	-54.7	-57.0	13.9	0.00e+00	0	28	0	923795456	75	4722
2026-01-15 01:40:53.47	253.83	41.88	-54.8	-57.1	13.8	0.00e+00	0	28	0	925892608	75	4801
2026-01-15 01:40:54.47	253.55	41.65	-54.9	-57.2	13.8	0.00e+00	0	28	0	927989760	75	4848
2026-01-15 01:40:55.47	253.27	41.43	-55.2	-57.6	13.6	0.00e+00	0	28	0	929038336	75	5092
2026-01-15 01:40:56.46	253.00	41.21	-55.1	-57.5	13.6	0.00e+00	0	28	0	931135488	75	5040
2026-01-15 01:40:57.46	252.73	40.98	-55.0	-57.5	13.6	0.00e+00	0	28	0	933232640	75	4989
2026-01-15 01:40:58.47	252.46	40.76	-55.0	-57.4	13.7	0.00e+00	0	28	0	935329792	75	4949
2026-01-15 01:40:59.47	252.20	40.53	-55.2	-57.7	13.5	0.00e+00	0	28	0	937426944	75	5157
2026-01-15 01:41:00.47	251.94	40.31	-55.0	-57.4	13.7	0.00e+00	0	28	0	938475520	75	4969
2026-01-15 01:41:01.47	251.69	40.09	-55.0	-57.4	13.7	0.00e+00	0	28	0	940572672	75	4968
2026-01-15 01:41:02.47	251.44	39.87	-55.0	-57.4	13.7	0.00e+00	0	28	0	942669824	75	4936
2026-01-15 01:41:03.48	251.19	39.65	-55.2	-57.7	13.5	0.00e+00	0	28	0	944766976	75	5115
2026-01-15 01:41:04.47	250.95	39.43	-55.1	-57.5	13.6	0.00e+00	0	28	0	945815552	75	5034
2026-01-15 01:41:05.47	250.71	39.21	-55.1	-57.5	13.6	0.00e+00	0	28	0	947912704	75	5017
2026-01-15 01:41:06.46	250.47	39.00	-55.1	-57.6	13.6	0.00e+00	0	28	0	950009856	75	5054
2026-01-15 01:41:07.46	250.24	38.78	-55.5	-58.2	13.3	0.00e+00	0	28	0	952107008	76	5115
2026-01-15 01:41:08.45	250.01	38.57	-55.5	-58.1	13.4	0.00e+00	0	28	0	954204160	76	5095
2026-01-15 01:41:09.45	249.78	38.35	-55.6	-58.3	13.3	0.00e+00	0	28	0	955252736	76	5174
2026-01-15 01:41:10.44	249.56	38.14	-55.5	-58.1	13.4	0.00e+00	0	28	0	957349888	76	5089
2026-01-15 01:41:11.43	249.34	37.93	-55.5	-58.2	13.3	0.00e+00	0	28	0	959447040	76	5106
2026-01-15 01:41:12.43	249.12	37.72	-55.3	-57.8	13.6	0.00e+00	0	28	0	961544192	76	4874
2026-01-15 01:41:13.43	248.90	37.50	-55.2	-57.6	13.6	0.00e+00	0	28	0	962592768	76	4805
2026-01-15 01:41:14.42	248.69	37.30	-55.0	-57.4	13.7	0.00e+00	0	28	0	964689920	76	4698
2026-01-15 01:41:15.42	248.48	37.09	-55.0	-57.3	13.8	0.00e+00	0	28	0	966787072	76	4644
2026-01-15 01:41:16.42	248.27	36.88	-54.7	-57.0	14.0	0.00e+00	0	28	0	968884224	76	4471
2026-01-15 01:41:17.43	248.06	36.67	-54.9	-57.2	13.9	0.00e+00	0	28	0	970981376	76	4551
2026-01-15 01:41:18.43	247.86	36.46	-55.0	-57.3	13.8	0.00e+00	0	28	0	972029952	76	4639
2026-01-15 01:41:19.42	247.66	36.25	-55.1	-57.6	13.7	0.00e+00	0	28	0	974127104	76	4766
2026-01-15 01:41:20.41	247.47	36.05	-55.2	-57.7	13.6	0.00e+00	0	28	0	976224256	76	4836
2026-01-15 01:41:21.41	247.27	35.85	-55.4	-58.0	13.5	0.00e+00	0	28	0	978321408	76	5016
2026-01-15 01:41:22.41	247.08	35.64	-55.5	-58.1	13.4	0.00e+00	0	28	0	980418560	76	5077
2026-01-15 01:41:23.40	246.89	35.44	-55.4	-57.9	13.5	0.00e+00	0	28	0	981467136	76	4962
2026-01-15 01:41:24.39	246.70	35.24	-55.4	-58.0	13.5	0.00e+00	0	28	0	983564288	76	5011
2026-01-15 01:41:25.39	246.52	35.04	-55.4	-57.9	13.5	0.00e+00	0	28	0	985661440	76	4972
2026-01-15 01:41:26.39	246.33	34.84	-55.4	-57.9	13.5	0.00e+00	0	28	0	987758592	76	4976
2026-01-15 01:41:27.39	246.15	34.64	-55.3	-57.8	13.5	0.00e+00	0	28	0	988807168	76	4891
2026-01-15 01:41:28.40	245.97	34.44	-55.2	-57.7	13.6	0.00e+00	0	28	0	990904320	76	4834
2026-01-15 01:41:29.40	245.80	34.25	-55.2	-57.7	13.6	0.00e+00	0	28	0	993001472	76	4848
2026-01-15 01:41:30.40	245.62	34.05	-55.4	-57.9	13.5	0.00e+00	0	28	0	995098624	76	4970
2026-01-15 01:41:31.40	245.45	33.85	-55.3	-57.8	13.5	0.00e+00	0	28	0	997195776	76	4897
2026-01-15 01:41:32.39	245.28	33.66	-55.2	-57.7	13.6	0.00e+00	0	28	0	998244352	76	4865
2026-01-15 01:41:33.40	245.11	33.47	-55.2	-57.7	13.6	0.00e+00	0	28	0	1000341504	76	4841
2026-01-15 01:41:34.39	244.95	33.28	-55.3	-57.8	13.5	0.00e+00	0	28	0	1002438656	76	4886
2026-01-15 01:41:35.39	244.78	33.08	-55.3	-57.9	13.5	0.00e+00	0	28	0	1004535808	76	4928
2026-01-15 01:41:36.39	244.62	32.89	-55.5	-58.1	13.3	0.00e+00	0	28	0	1006632960	76	5093
2026-01-15 01:41:37.39	244.46	32.70	-55.5	-58.2	13.4	0.00e+00	0	28	0	1007681536	76	5115
2026-01-15 01:41:38.39	244.30	32.51	-55.4	-58.0	13.4	0.00e+00	0	28	0	1009778688	76	5041
2026-01-15 01:41:39.39	244.14	32.33	-55.4	-58.0	13.4	0.00e+00	0	28	0	1011875840	76	4989
2026-01-15 01:41:40.38	243.99	32.14	-55.4	-58.1	13.4	0.00e+00	0	28	0	1013972992	76	5046
2026-01-15 01:41:41.38	243.84	31.96	-55.4	-58.0	13.4	0.00e+00	0	28	0	1015021568	76	5028
2026-01-15 01:41:42.38	243.69	31.77	-55.4	-58.0	13.4	0.00e+00	0	28	0	1017118720	76	4997
2026-01-15 01:41:43.38	243.54	31.59	-55.5	-58.1	13.4	0.00e+00	0	28	0	1019215872	76	5069
2026-01-15 01:41:44.38	243.39	31.40	-55.5	-58.1	13.3	0.00e+00	0	28	0	1021313024	76	5067
2026-01-15 01:41:45.38	243.24	31.22	-55.3	-57.8	13.5	0.00e+00	0	28	0	1023410176	76	4926
2026-01-15 01:41:46.39	243.10	31.04	-55.2	-57.6	13.6	0.00e+00	0	28	0	1024458752	76	4801
2026-01-15 01:41:47.39	242.95	30.86	-55.0	-57.4	13.7	0.00e+00	0	28	0	1026555904	76	4694
2026-01-15 01:41:48.39	242.81	30.68	-54.8	-57.2	13.9	0.00e+00	0	28	0	1028653056	76	4548
2026-01-15 01:41:49.39	242.67	30.50	-54.9	-57.3	13.8	0.00e+00	0	28	0	1030750208	76	4632
2026-01-15 01:41:50.38	242.54	30.32	-55.0	-57.4	13.7	0.00e+00	0	28	0	1032847360	76	4671
2026-01-15 01:41:51.39	242.40	30.14	-55.2	-57.7	13.5	0.00e+00	0	28	0	1033895936	76	4869
2026-01-15 01:41:52.39	242.26	29.97	-55.2	-57.8	13.5	0.00e+00	0	28	0	1035993088	76	4899
2026-01-15 01:41:53.40	242.13	29.79	-55.3	-57.8	13.5	0.00e+00	0	28	0	1038090240	76	4908
2026-01-15 01:41:54.40	242.00	29.62	-55.3	-57.8	13.5	0.00e+00	0	28	0	1040187392	76	4918
2026-01-15 01:41:55.40	241.87	29.44	-55.2	-57.7	13.5	0.00e+00	0	28	0	1042284544	76	4863
2026-01-15 01:41:56.41	241.74	29.27	-55.1	-57.6	13.6	0.00e+00	0	28	0	1043333120	76	4769
2026-01-15 01:41:57.41	241.61	29.10	-55.1	-57.6	13.6	0.00e+00	0	28	0	1045430272	76	4770
2026-01-15 01:41:58.41	241.48	28.93	-55.0	-57.4	13.8	0.00e+00	0	28	0	1047527424	76	4658
2026-01-15 01:41:59.42	241.35	28.76	-54.9	-57.3	13.8	0.00e+00	0	28	0	1049624576	76	4622
2026-01-15 01:42:00.42	241.23	28.59	-55.0	-57.4	13.7	0.00e+00	0	28	0	1051721728	76	4697
2026-01-15 01:42:01.42	241.11	28.42	-54.8	-57.2	13.8	0.00e+00	0	28	0	1052770304	76	4568
2026-01-15 01:42:02.42	240.99	28.25	-54.9	-57.3	13.8	0.00e+00	0	28	0	1054867456	76	4608
2026-01-15 01:42:03.42	240.87	28.09	-54.9	-57.4	13.7	0.00e+00	0	28	0	1056964608	76	4655
2026-01-15 01:42:04.42	240.75	27.92	-54.9	-57.3	13.8	0.00e+00	0	28	0	1059061760	76	4632
2026-01-15 01:42:05.42	240.63	27.76	-54.9	-57.4	13.7	0.00e+00	0	28	0	1060110336	76	4671
2026-01-15 01:42:06.42	240.52	27.59	-54.9	-57.4	13.7	0.00e+00	0	28	0	1062207488	76	4680
2026-01-15 01:42:07.42	240.40	27.43	-54.9	-57.4	13.7	0.00e+00	0	28	0	1064304640	76	4652
2026-01-15 01:42:08.42	240.29	27.27	-54.8	-57.1	13.9	0.00e+00	0	28	0	1066401792	76	4522
2026-01-15 01:42:09.42	240.18	27.11	-54.5	-56.8	13.9	0.00e+00	0	28	0	1068498944	75	4637
2026-01-15 01:42:10.43	240.06	26.94	-54.4	-56.7	14.0	0.00e+00	0	28	0	1069547520	75	4560
2026-01-15 01:42:11.43	239.95	26.78	-54.3	-56.6	14.0	0.00e+00	0	28	0	1071644672	75	4499
2026-01-15 01:42:12.43	239.84	26.63	-54.2	-56.3	14.1	0.00e+00	0	28	0	1073741824	75	4378
2026-01-15 01:42:13.43	239.74	26.47	-54.1	-56.2	14.1	0.00e+00	0	28	0	1075838976	74	4558
2026-01-15 01:42:14.43	239.63	26.31	-53.9	-55.9	14.2	0.00e+00	0	28	0	1077936128	74	4422
2026-01-15 01:42:15.42	239.53	26.16	-53.9	-56.0	14.2	0.00e+00	0	28	0	1078984704	74	4453
2026-01-15 01:42:16.43	239.42	26.00	-53.9	-56.0	14.2	0.00e+00	0	28	0	1081081856	74	4484
2026-01-15 01:42:17.43	239.32	25.84	-53.9	-56.0	14.2	0.00e+00	0	28	0	1083179008	74	4484
2026-01-15 01:42:18.43	239.21	25.69	-54.0	-56.1	14.1	0.00e+00	0	28	0	1085276160	74	4539
2026-01-15 01:42:19.42	239.11	25.54	-53.9	-55.9	14.2	0.00e+00	0	28	0	1086324736	74	4441
2026-01-15 01:42:20.42	239.01	25.39	-53.9	-55.9	14.2	0.00e+00	0	28	0	1088421888	74	4435
2026-01-15 01:42:21.41	238.91	25.24	-53.9	-55.9	14.2	0.00e+00	0	28	0	1090519040	74	4441
2026-01-15 01:42:22.42	238.81	25.08	-53.9	-56.0	14.2	0.00e+00	0	28	0	1092616192	74	4443
2026-01-15 01:42:23.42	238.72	24.93	-53.8	-55.8	14.3	0.00e+00	0	28	0	1094713344	74	4374
2026-01-15 01:42:24.42	238.62	24.78	-53.8	-55.8	14.3	0.00e+00	0	28	0	1095761920	74	4355
2026-01-15 01:42:25.42	238.52	24.63	-53.6	-55.6	14.3	0.00e+00	0	28	0	1097859072	73	4509
2026-01-15 01:42:26.42	238.43	24.49	-53.4	-55.3	14.4	0.00e+00	0	28	0	1099956224	73	4358
2026-01-15 01:42:27.42	238.34	24.34	-53.4	-55.3	14.4	0.00e+00	0	28	0	1102053376	73	4389
2026-01-15 01:42:28.41	238.24	24.19	-53.4	-55.3	14.4	0.00e+00	0	28	0	1104150528	73	4351
2026-01-15 01:42:29.41	238.15	24.05	-53.5	-55.5	14.3	0.00e+00	0	28	0	1105199104	73	4445
2026-01-15 01:42:30.40	238.06	23.91	-53.6	-55.6	14.3	0.00e+00	0	28	0	1107296256	73	4502
2026-01-15 01:42:31.40	237.97	23.76	-53.7	-55.7	14.2	0.00e+00	0	28	0	1109393408	73	4594
2026-01-15 01:42:32.41	237.88	23.62	-53.9	-55.9	14.1	0.00e+00	0	28	0	1111490560	73	4697
2026-01-15 01:42:33.41	237.79	23.47	-53.9	-56.0	14.0	0.00e+00	0	28	0	1113587712	73	4755
2026-01-15 01:42:34.41	237.70	23.33	-54.1	-56.3	13.9	0.00e+00	0	28	0	1114636288	73	4893
2026-01-15 01:42:35.41	237.62	23.19	-54.1	-56.3	13.9	0.00e+00	0	28	0	1116733440	73	4879
2026-01-15 01:42:36.40	237.53	23.05	-54.2	-56.4	13.9	0.00e+00	0	28	0	1118830592	73	4946
2026-01-15 01:42:37.40	237.45	22.91	-54.2	-56.4	13.9	0.00e+00	0	28	0	1120927744	73	4953
2026-01-15 01:42:38.40	237.36	22.77	-54.1	-56.3	13.9	0.00e+00	0	28	0	1121976320	73	4919
2026-01-15 01:42:39.40	237.28	22.63	-54.0	-56.2	14.0	0.00e+00	0	28	0	1124073472	73	4841
2026-01-15 01:42:40.40	237.19	22.49	-54.0	-56.1	14.0	0.00e+00	0	28	0	1126170624	73	4813
2026-01-15 01:42:41.41	237.11	22.36	-53.8	-55.9	14.1	0.00e+00	0	28	0	1128267776	73	4699
2026-01-15 01:42:42.41	237.03	22.22	-53.6	-55.7	14.2	0.00e+00	0	28	0	1130364928	73	4548
2026-01-15 01:42:43.40	236.95	22.08	-53.6	-55.7	14.2	0.00e+00	0	28	0	1131413504	73	4568
2026-01-15 01:42:44.40	236.87	21.95	-53.5	-55.5	14.3	0.00e+00	0	28	0	1133510656	73	4461
2026-01-15 01:42:45.40	236.79	21.81	-53.5	-55.5	14.3	0.00e+00	0	28	0	1135607808	73	4490
2026-01-15 01:42:46.39	236.71	21.68	-53.7	-55.7	14.2	0.00e+00	0	28	0	1137704960	73	4581
2026-01-15 01:42:47.39	236.63	21.55	-53.6	-55.6	14.2	0.00e+00	0	28	0	1139802112	73	4535
2026-01-15 01:42:48.38	236.56	21.42	-53.6	-55.6	14.2	0.00e+00	0	28	0	1140850688	73	4538
2026-01-15 01:42:49.39	236.48	21.28	-53.7	-55.7	14.2	0.00e+00	0	28	0	1142947840	73	4598
2026-01-15 01:42:50.38	236.40	21.15	-53.7	-55.8	14.2	0.00e+00	0	28	0	1145044992	73	4605
2026-01-15 01:42:51.39	236.33	21.02	-53.7	-55.7	14.2	0.00e+00	0	28	0	1147142144	73	4576
2026-01-15 01:42:52.39	236.25	20.89	-53.7	-55.8	14.2	0.00e+00	0	28	0	1149239296	73	4604
2026-01-15 01:42:53.38	236.18	20.76	-53.7	-55.8	14.1	0.00e+00	0	28	0	1150287872	73	4623
2026-01-15 01:42:54.39	236.11	20.63	-53.6	-55.6	14.2	0.00e+00	0	28	0	1152385024	73	4533
2026-01-15 01:42:55.40	236.03	20.50	-53.6	-55.6	14.3	0.00e+00	0	28	0	1154482176	73	4500
2026-01-15 01:42:56.40	235.96	20.37	-53.6	-55.6	14.2	0.00e+00	0	28	0	1156579328	73	4541
2026-01-15 01:42:57.40	235.89	20.25	-53.4	-55.4	14.3	0.00e+00	0	28	0	1157627904	73	4424
2026-01-15 01:42:58.40	235.82	20.12	-53.4	-55.4	14.3	0.00e+00	0	28	0	1159725056	73	4396
2026-01-15 01:42:59.40	235.75	19.99	-53.3	-55.2	14.4	0.00e+00	0	28	0	1161822208	73	4333
2026-01-15 01:43:00.39	235.68	19.87	-53.3	-55.3	14.4	0.00e+00	0	28	0	1163919360	73	4348
2026-01-15 01:43:01.40	235.61	19.74	-53.2	-55.1	14.5	0.00e+00	0	28	0	1166016512	73	4276
2026-01-15 01:43:02.40	235.54	19.62	-53.2	-55.1	14.4	0.00e+00	0	28	0	1167065088	72	4506
2026-01-15 01:43:03.40	235.47	19.50	-53.2	-55.1	14.3	0.00e+00	0	28	0	1169162240	72	4544
2026-01-15 01:43:04.39	235.41	19.37	-53.2	-55.1	14.3	0.00e+00	0	28	0	1171259392	72	4510
2026-01-15 01:43:05.39	235.34	19.25	-53.2	-55.1	14.3	0.00e+00	0	28	0	1173356544	72	4505
2026-01-15 01:43:06.39	235.27	19.13	-53.2	-55.1	14.4	0.00e+00	0	28	0	1175453696	72	4518
2026-01-15 01:43:07.39	235.21	19.01	-53.2	-55.1	14.3	0.00e+00	0	28	0	1176502272	72	4516
2026-01-15 01:43:08.38	235.14	18.89	-53.2	-55.1	14.3	0.00e+00	0	28	0	1178599424	72	4541
2026-01-15 01:43:09.38	235.08	18.77	-53.3	-55.3	14.3	0.00e+00	0	28	0	1180696576	72	4611
2026-01-15 01:43:10.38	235.02	18.65	-53.4	-55.4	14.2	0.00e+00	0	28	0	1182793728	72	4697
2026-01-15 01:43:11.39	234.95	18.53	-53.5	-55.6	14.1	0.00e+00	0	28	0	1183842304	72	4763
2026-01-15 01:43:12.38	234.89	18.41	-53.6	-55.7	14.1	0.00e+00	0	28	0	1185939456	72	4844
2026-01-15 01:43:13.38	234.83	18.29	-53.6	-55.7	14.1	0.00e+00	0	28	0	1188036608	72	4818
2026-01-15 01:43:14.38	234.77	18.17	-53.7	-55.8	14.0	0.00e+00	0	28	0	1190133760	72	4889
2026-01-15 01:43:15.37	234.70	18.06	-53.6	-55.7	14.1	0.00e+00	0	28	0	1192230912	72	4858
2026-01-15 01:43:16.37	234.64	17.94	-53.6	-55.7	14.1	0.00e+00	0	28	0	1193279488	72	4818
2026-01-15 01:43:17.36	234.58	17.83	-53.6	-55.7	14.0	0.00e+00	0	28	0	1195376640	72	4847
2026-01-15 01:43:18.36	234.52	17.71	-53.5	-55.6	14.1	0.00e+00	0	28	0	1197473792	72	4785
2026-01-15 01:43:19.36	234.46	17.60	-53.6	-55.7	14.1	0.00e+00	0	28	0	1199570944	72	4818
2026-01-15 01:43:20.36	234.41	17.48	-53.4	-55.3	14.2	0.00e+00	0	28	0	1200619520	72	4646
2026-01-15 01:43:21.36	234.35	17.37	-53.5	-55.5	14.1	0.00e+00	0	28	0	1202716672	72	4754
2026-01-15 01:43:22.36	234.29	17.25	-53.5	-55.5	14.2	0.00e+00	0	28	0	1204813824	72	4718
2026-01-15 01:43:23.35	234.23	17.14	-53.4	-55.4	14.2	0.00e+00	0	28	0	1206910976	72	4699
2026-01-15 01:43:24.34	234.17	17.03	-53.4	-55.4	14.2	0.00e+00	0	28	0	1209008128	72	4680
2026-01-15 01:43:25.34	234.12	16.92	-53.5	-55.5	14.2	0.00e+00	0	28	0	1210056704	72	4721
2026-01-15 01:43:26.34	234.06	16.81	-53.6	-55.6	14.1	0.00e+00	0	28	0	1212153856	72	4809
2026-01-15 01:43:27.33	234.01	16.70	-53.5	-55.5	14.1	0.00e+00	0	28	0	1214251008	72	4746
2026-01-15 01:43:28.33	233.95	16.59	-53.5	-55.5	14.1	0.00e+00	0	28	0	1216348160	72	4743
2026-01-15 01:43:29.33	233.90	16.48	-53.5	-55.5	14.1	0.00e+00	0	28	0	1217396736	72	4753
2026-01-15 01:43:30.33	233.84	16.37	-53.5	-55.6	14.1	0.00e+00	0	28	0	1219493888	72	4787
2026-01-15 01:43:31.32	233.79	16.26	-53.7	-55.8	14.0	0.00e+00	0	28	0	1221591040	72	4881
2026-01-15 01:43:32.32	233.73	16.15	-53.7	-55.8	14.0	0.00e+00	0	28	0	1223688192	72	4913
2026-01-15 01:43:33.32	233.68	16.04	-53.8	-56.0	13.9	0.00e+00	0	28	0	1225785344	72	5001
2026-01-15 01:43:34.32	233.63	15.93	-53.9	-56.0	13.9	0.00e+00	0	28	0	1226833920	72	5040
2026-01-15 01:43:35.32	233.58	15.82	-53.9	-56.0	13.9	0.00e+00	0	28	0	1228931072	72	5029
2026-01-15 01:43:36.32	233.52	15.72	-53.9	-56.1	13.9	0.00e+00	0	28	0	1231028224	73	4810
2026-01-15 01:43:37.32	233.47	15.61	-54.0	-56.3	13.9	0.00e+00	0	28	0	1233125376	73	4875
2026-01-15 01:43:38.33	233.42	15.50	-53.9	-56.0	14.0	0.00e+00	0	28	0	1235222528	73	4759
2026-01-15 01:43:39.32	233.37	15.40	-53.9	-56.1	13.9	0.00e+00	0	28	0	1236271104	73	4805
2026-01-15 01:43:40.33	233.32	15.29	-53.9	-56.1	13.9	0.00e+00	0	28	0	1238368256	73	4793
