passes_logs/2026/01/15/R3.2S_Murmansk/R3.2S_Murmansk__20260115_110933_SUOMI_NPP_rec.log

#Pass ID: 20260115_110933_SUOMI NPP
#Satellite: SUOMI NPP
#Configuration: NPP
#almurnet v.1.7.20251203
#Start time: 2026-01-15 11:09:34

#Version: 2.2.20231116
#Station: R3.2S_Murmansk
#Location: 33.079688 lon 68.888172 lat
#TLE: 1 37849U 11061A   26014.61059675  .00000037  00000+0  38639-4 0  9994
#TLE: 2 37849  98.7810 316.6625 0002460  64.3781 295.7649 14.19525105736658

#Time	Az	El	Level	Level2	SNR	BER	BlckErr	Temp	State	Recorded	gain1	gain2
2026-01-15 11:09:34.22	190.41	2.05	-58.9	-74.9	3.8	1.49e+00	0	26	0	0	84	22108
2026-01-15 11:09:35.21	190.46	2.11	-58.7	-74.7	3.8	1.49e+00	0	26	104	0	82	24240
2026-01-15 11:09:36.20	190.51	2.17	-58.7	-74.7	3.8	1.49e+00	0	26	104	0	82	24138
2026-01-15 11:09:37.19	190.55	2.23	-58.7	-74.7	3.8	1.49e+00	0	27	104	0	82	24188
2026-01-15 11:09:38.18	190.60	2.29	-58.7	-74.7	3.8	1.49e+00	0	26	104	0	82	24212
2026-01-15 11:09:39.17	190.65	2.35	-58.7	-74.7	3.8	1.49e+00	0	26	104	0	82	24177
2026-01-15 11:09:40.15	190.70	2.41	-58.7	-74.7	3.8	1.49e+00	0	27	104	0	82	24176
2026-01-15 11:09:41.13	190.74	2.47	-58.7	-74.7	3.8	1.49e+00	0	27	104	0	82	24310
2026-01-15 11:09:42.13	190.79	2.53	-58.7	-74.7	3.8	1.49e+00	0	26	104	0	82	24260
2026-01-15 11:09:43.12	190.84	2.59	-58.7	-74.6	3.8	1.49e+00	0	27	104	0	82	24094
2026-01-15 11:09:44.11	190.89	2.65	-58.7	-74.6	3.8	1.49e+00	0	27	104	0	82	24108
2026-01-15 11:09:45.11	190.94	2.72	-58.7	-74.6	3.8	1.49e+00	0	27	104	0	82	23995
2026-01-15 11:09:46.10	190.99	2.78	-58.7	-74.6	3.8	1.49e+00	0	27	104	0	82	23868
2026-01-15 11:09:47.09	191.04	2.84	-58.7	-74.5	3.8	1.49e+00	0	27	104	0	82	23824
2026-01-15 11:09:48.07	191.08	2.90	-58.7	-74.5	3.8	1.49e+00	0	27	104	0	82	23828
2026-01-15 11:09:49.06	191.13	2.96	-58.7	-74.6	3.8	1.49e+00	0	27	104	0	82	23884
2026-01-15 11:09:50.05	191.18	3.02	-58.7	-74.6	3.8	1.49e+00	0	27	104	0	82	24100
2026-01-15 11:09:51.04	191.23	3.08	-58.7	-74.6	3.8	1.49e+00	0	27	104	0	82	24061
2026-01-15 11:09:52.03	191.28	3.15	-58.7	-74.7	3.8	1.49e+00	0	27	104	0	82	24341
2026-01-15 11:09:53.03	191.33	3.21	-58.7	-74.6	3.8	1.49e+00	0	27	104	0	82	24098
2026-01-15 11:09:54.02	191.38	3.27	-58.7	-74.6	3.8	1.49e+00	0	27	104	0	82	23932
2026-01-15 11:09:55.01	191.43	3.33	-58.7	-74.5	3.8	1.49e+00	0	27	104	0	82	23760
2026-01-15 11:09:56.00	191.48	3.40	-58.7	-74.5	3.8	1.49e+00	0	27	104	0	82	23754
2026-01-15 11:09:56.98	191.53	3.46	-58.7	-74.6	3.8	1.49e+00	0	27	104	0	82	23855
2026-01-15 11:09:57.97	191.59	3.52	-58.7	-74.7	3.8	1.49e+00	0	27	104	0	82	24157
2026-01-15 11:09:58.96	191.64	3.58	-58.7	-74.7	3.8	1.49e+00	0	27	104	0	82	24306
2026-01-15 11:09:59.95	191.69	3.65	-58.7	-74.7	3.8	1.49e+00	0	27	104	0	82	24340
2026-01-15 11:10:00.95	191.74	3.71	-58.7	-74.5	3.8	1.49e+00	0	27	104	0	82	23589
2026-01-15 11:10:01.93	191.79	3.77	-58.7	-73.9	3.8	1.49e+00	0	27	104	0	82	22222
2026-01-15 11:10:02.93	191.84	3.84	-58.6	-73.2	3.8	1.49e+00	0	27	104	0	82	20435
2026-01-15 11:10:03.92	191.90	3.90	-58.6	-71.9	4.0	1.49e+00	0	27	104	0	82	17599
2026-01-15 11:10:04.92	191.95	3.96	-58.5	-71.0	4.3	1.42e+00	0	27	0	0	82	15850
2026-01-15 11:10:05.92	192.00	4.03	-58.4	-69.9	4.6	1.08e+00	0	27	0	1048576	82	14029
2026-01-15 11:10:06.92	192.06	4.09	-58.5	-70.1	4.5	8.75e-01	0	27	0	3145728	82	14332
2026-01-15 11:10:07.92	192.11	4.16	-58.3	-68.5	5.3	7.62e-01	0	27	0	4194304	82	11824
2026-01-15 11:10:08.92	192.16	4.22	-58.2	-67.8	5.7	3.69e-01	0	27	0	6291456	82	11028
2026-01-15 11:10:09.92	192.22	4.29	-58.1	-66.9	6.2	2.72e-01	0	27	0	8388608	82	9942
2026-01-15 11:10:10.92	192.27	4.35	-57.9	-65.9	7.1	1.77e-01	0	27	0	10485760	82	8793
2026-01-15 11:10:11.90	192.33	4.42	-57.7	-64.7	8.1	6.82e-02	0	27	0	12582912	82	7655
2026-01-15 11:10:12.91	192.38	4.48	-57.4	-63.7	8.8	2.64e-02	0	27	0	13631488	81	7226
2026-01-15 11:10:13.91	192.44	4.55	-57.3	-63.2	9.2	9.29e-03	0	27	0	15728640	81	6876
2026-01-15 11:10:14.89	192.49	4.61	-57.0	-62.3	9.9	4.56e-03	0	27	0	17825792	80	6544
2026-01-15 11:10:15.89	192.55	4.68	-56.6	-61.3	10.8	3.64e-04	0	27	0	19922944	79	6145
2026-01-15 11:10:16.89	192.60	4.74	-56.3	-60.6	11.3	6.86e-05	0	27	0	22020096	79	5680
2026-01-15 11:10:17.88	192.66	4.81	-56.2	-60.4	11.4	2.36e-05	0	27	0	23068672	78	5858
2026-01-15 11:10:18.89	192.71	4.88	-56.0	-59.9	11.7	1.29e-05	0	27	0	25165824	78	5571
2026-01-15 11:10:19.89	192.77	4.94	-55.9	-59.8	11.9	5.30e-06	0	28	0	27262976	78	5465
2026-01-15 11:10:20.89	192.83	5.01	-56.0	-59.9	11.7	6.10e-06	0	27	0	29360128	78	5555
2026-01-15 11:10:21.88	192.88	5.07	-57.0	-62.3	10.0	3.05e-05	0	27	0	30408704	79	6905
2026-01-15 11:10:22.86	192.94	5.14	-57.8	-65.3	7.5	1.79e-03	0	27	0	32505856	80	9247
2026-01-15 11:10:23.85	193.00	5.21	-56.8	-61.6	10.7	2.10e-04	0	27	0	34603008	78	6755
2026-01-15 11:10:24.85	193.05	5.27	-57.0	-62.1	10.3	3.39e-04	0	27	0	36700160	79	6773
2026-01-15 11:10:25.84	193.11	5.34	-56.9	-61.9	10.4	2.20e-04	0	27	0	38797312	78	7021
2026-01-15 11:10:26.84	193.17	5.41	-56.1	-60.1	11.7	1.24e-04	0	27	0	39845888	78	5698
2026-01-15 11:10:27.83	193.23	5.47	-55.8	-59.4	12.1	1.50e-06	0	27	0	41943040	78	5250
2026-01-15 11:10:28.84	193.29	5.54	-55.9	-59.6	12.0	2.20e-06	0	27	0	44040192	78	5396
2026-01-15 11:10:29.84	193.35	5.61	-55.6	-59.1	12.3	7.00e-07	0	28	0	46137344	77	5345
2026-01-15 11:10:30.84	193.41	5.68	-55.8	-59.4	12.1	3.00e-06	0	27	0	47185920	77	5566
2026-01-15 11:10:31.83	193.46	5.75	-55.9	-59.7	11.9	1.50e-06	0	27	0	49283072	77	5739
2026-01-15 11:10:32.83	193.52	5.81	-55.9	-59.5	12.0	7.00e-07	0	27	0	51380224	77	5628
2026-01-15 11:10:33.83	193.58	5.88	-55.8	-59.4	12.1	7.00e-07	0	28	0	53477376	77	5544
2026-01-15 11:10:34.83	193.64	5.95	-55.8	-59.5	12.1	0.00e+00	0	28	0	55574528	77	5617
2026-01-15 11:10:35.83	193.70	6.02	-55.9	-59.7	11.9	3.80e-06	0	27	0	56623104	77	5748
2026-01-15 11:10:36.82	193.76	6.09	-55.8	-59.3	12.2	7.00e-07	0	27	0	58720256	77	5527
2026-01-15 11:10:37.81	193.83	6.16	-55.8	-59.5	12.1	0.00e+00	0	28	0	60817408	77	5598
2026-01-15 11:10:38.81	193.89	6.22	-55.7	-59.2	12.3	0.00e+00	0	27	0	62914560	77	5436
2026-01-15 11:10:39.82	193.95	6.30	-55.7	-59.1	12.3	0.00e+00	0	28	0	63963136	77	5387
2026-01-15 11:10:40.82	194.01	6.36	-55.8	-59.4	12.1	0.00e+00	0	27	0	66060288	77	5567
2026-01-15 11:10:41.81	194.07	6.43	-55.7	-59.2	12.3	7.00e-07	0	27	0	68157440	77	5439
2026-01-15 11:10:42.80	194.13	6.50	-55.6	-58.9	12.5	0.00e+00	0	27	0	70254592	77	5256
2026-01-15 11:10:43.79	194.20	6.57	-55.6	-59.0	12.5	0.00e+00	0	28	0	72351744	77	5292
2026-01-15 11:10:44.78	194.26	6.64	-55.6	-59.0	12.5	1.50e-06	0	28	0	73400320	77	5281
2026-01-15 11:10:45.78	194.32	6.71	-55.8	-59.2	12.3	0.00e+00	0	28	0	75497472	77	5452
2026-01-15 11:10:46.78	194.39	6.78	-55.7	-59.0	12.4	7.00e-07	0	28	0	77594624	77	5329
2026-01-15 11:10:47.77	194.45	6.85	-55.6	-58.8	12.6	0.00e+00	0	28	0	79691776	77	5189
2026-01-15 11:10:48.78	194.51	6.92	-55.6	-59.0	12.5	7.00e-07	0	28	0	81788928	77	5285
2026-01-15 11:10:49.77	194.58	6.99	-55.5	-58.8	12.6	0.00e+00	0	28	0	82837504	77	5165
2026-01-15 11:10:50.78	194.64	7.07	-55.7	-59.0	12.5	0.00e+00	0	28	0	84934656	77	5296
2026-01-15 11:10:51.78	194.71	7.14	-55.7	-59.0	12.5	0.00e+00	0	27	0	87031808	77	5299
2026-01-15 11:10:52.78	194.77	7.21	-55.5	-58.7	12.7	0.00e+00	0	28	0	89128960	77	5145
2026-01-15 11:10:53.78	194.84	7.28	-55.5	-58.7	12.7	0.00e+00	0	28	0	91226112	77	5120
2026-01-15 11:10:54.78	194.90	7.35	-55.7	-59.0	12.5	0.00e+00	0	28	0	92274688	77	5309
2026-01-15 11:10:55.76	194.97	7.42	-55.5	-58.6	12.7	0.00e+00	0	28	0	94371840	77	5078
2026-01-15 11:10:56.76	195.04	7.49	-55.4	-58.6	12.8	0.00e+00	0	28	0	96468992	77	5044
2026-01-15 11:10:57.74	195.10	7.57	-55.4	-58.5	12.8	0.00e+00	0	28	0	98566144	77	5003
2026-01-15 11:10:58.73	195.17	7.64	-55.3	-58.4	12.9	0.00e+00	0	28	0	99614720	77	4950
2026-01-15 11:10:59.72	195.23	7.71	-55.3	-58.3	12.9	0.00e+00	0	28	0	101711872	77	4925
2026-01-15 11:11:00.72	195.30	7.78	-55.3	-58.4	13.0	0.00e+00	0	28	0	103809024	77	4942
2026-01-15 11:11:01.72	195.37	7.86	-55.3	-58.3	13.0	0.00e+00	0	28	0	105906176	77	4901
2026-01-15 11:11:02.73	195.44	7.93	-55.3	-58.3	13.0	0.00e+00	0	28	0	108003328	77	4904
2026-01-15 11:11:03.72	195.51	8.00	-55.1	-57.9	13.1	0.00e+00	0	28	0	109051904	76	4967
2026-01-15 11:11:04.71	195.58	8.07	-55.1	-58.0	13.1	0.00e+00	0	28	0	111149056	76	4990
2026-01-15 11:11:05.71	195.64	8.15	-55.1	-57.9	13.1	0.00e+00	0	28	0	113246208	76	4979
2026-01-15 11:11:06.70	195.71	8.22	-55.1	-57.9	13.2	0.00e+00	0	28	0	115343360	76	4940
2026-01-15 11:11:07.70	195.78	8.30	-55.1	-57.9	13.1	0.00e+00	0	28	0	116391936	76	4981
2026-01-15 11:11:08.68	195.85	8.37	-55.1	-58.0	13.1	0.00e+00	0	28	0	118489088	76	4992
2026-01-15 11:11:09.68	195.92	8.44	-55.0	-57.8	13.2	0.00e+00	0	28	0	120586240	76	4907
2026-01-15 11:11:10.68	195.99	8.52	-54.9	-57.6	13.3	0.00e+00	0	28	0	122683392	76	4766
2026-01-15 11:11:11.69	196.07	8.59	-54.9	-57.7	13.3	0.00e+00	0	28	0	124780544	76	4820
2026-01-15 11:11:12.69	196.14	8.67	-54.9	-57.7	13.3	0.00e+00	0	28	0	125829120	76	4835
2026-01-15 11:11:13.69	196.21	8.74	-54.7	-57.4	13.5	0.00e+00	0	28	0	127926272	76	4653
2026-01-15 11:11:14.68	196.28	8.82	-54.7	-57.3	13.5	0.00e+00	0	28	0	130023424	76	4647
2026-01-15 11:11:15.68	196.36	8.89	-54.6	-57.1	13.5	0.00e+00	0	28	0	132120576	75	4811
2026-01-15 11:11:16.67	196.43	8.97	-54.5	-57.0	13.5	0.00e+00	0	28	0	133169152	75	4739
2026-01-15 11:11:17.67	196.50	9.04	-54.5	-57.0	13.5	0.00e+00	0	28	0	135266304	75	4728
2026-01-15 11:11:18.67	196.58	9.12	-54.5	-57.1	13.5	0.00e+00	0	28	0	137363456	75	4769
2026-01-15 11:11:19.66	196.65	9.20	-54.4	-56.9	13.6	0.00e+00	0	28	0	139460608	75	4693
2026-01-15 11:11:20.67	196.72	9.27	-54.4	-56.9	13.6	0.00e+00	0	28	0	141557760	75	4685
2026-01-15 11:11:21.67	196.80	9.35	-54.4	-56.8	13.6	0.00e+00	0	28	0	142606336	75	4644
2026-01-15 11:11:22.67	196.87	9.43	-54.3	-56.7	13.7	0.00e+00	0	28	0	144703488	75	4581
2026-01-15 11:11:23.67	196.95	9.50	-54.3	-56.8	13.7	0.00e+00	0	28	0	146800640	75	4604
2026-01-15 11:11:24.68	197.03	9.58	-54.2	-56.5	13.8	0.00e+00	0	28	0	148897792	75	4480
2026-01-15 11:11:25.68	197.10	9.66	-54.2	-56.6	13.7	0.00e+00	0	28	0	150994944	74	4779
2026-01-15 11:11:26.67	197.18	9.74	-54.2	-56.6	13.7	0.00e+00	0	28	0	152043520	74	4762
2026-01-15 11:11:27.66	197.26	9.81	-54.0	-56.2	13.9	0.00e+00	0	28	0	154140672	74	4593
2026-01-15 11:11:28.66	197.33	9.89	-54.1	-56.4	13.8	0.00e+00	0	28	0	156237824	74	4689
2026-01-15 11:11:29.65	197.41	9.97	-54.1	-56.4	13.8	0.00e+00	0	28	0	158334976	74	4705
2026-01-15 11:11:30.65	197.49	10.05	-54.1	-56.4	13.8	0.00e+00	0	28	0	159383552	74	4671
2026-01-15 11:11:31.64	197.57	10.13	-54.2	-56.6	13.7	0.00e+00	0	28	0	161480704	74	4770
2026-01-15 11:11:32.63	197.65	10.21	-54.2	-56.5	13.7	0.00e+00	0	28	0	163577856	74	4753
2026-01-15 11:11:33.63	197.73	10.28	-54.0	-56.3	13.9	0.00e+00	0	28	0	165675008	74	4606
2026-01-15 11:11:34.62	197.81	10.36	-54.1	-56.4	13.8	0.00e+00	0	28	0	166723584	74	4659
2026-01-15 11:11:35.62	197.89	10.44	-54.0	-56.3	13.9	0.00e+00	0	28	0	168820736	74	4602
2026-01-15 11:11:36.62	197.97	10.52	-54.1	-56.4	13.8	0.00e+00	0	28	0	170917888	74	4664
2026-01-15 11:11:37.61	198.05	10.60	-54.0	-56.2	13.9	0.00e+00	0	28	0	173015040	74	4598
2026-01-15 11:11:38.60	198.13	10.68	-54.0	-56.3	13.8	0.00e+00	0	28	0	175112192	74	4644
2026-01-15 11:11:39.60	198.21	10.76	-54.1	-56.4	13.8	0.00e+00	0	28	0	176160768	74	4657
2026-01-15 11:11:40.59	198.29	10.84	-53.9	-56.2	13.9	0.00e+00	0	28	0	178257920	74	4547
2026-01-15 11:11:41.59	198.38	10.92	-54.0	-56.3	13.9	0.00e+00	0	28	0	180355072	74	4599
2026-01-15 11:11:42.58	198.46	11.00	-54.0	-56.2	13.9	0.00e+00	0	28	0	182452224	74	4576
2026-01-15 11:11:43.57	198.54	11.08	-54.0	-56.3	13.9	0.00e+00	0	28	0	183500800	74	4606
2026-01-15 11:11:44.57	198.63	11.16	-54.1	-56.4	13.8	0.00e+00	0	28	0	185597952	74	4676
2026-01-15 11:11:45.57	198.71	11.25	-54.0	-56.3	13.9	0.00e+00	0	28	0	187695104	74	4624
2026-01-15 11:11:46.56	198.79	11.33	-54.1	-56.4	13.8	0.00e+00	0	28	0	189792256	74	4693
2026-01-15 11:11:47.56	198.88	11.41	-54.3	-56.7	13.6	0.00e+00	0	28	0	191889408	74	4869
2026-01-15 11:11:48.56	198.97	11.49	-54.1	-56.4	13.8	0.00e+00	0	28	0	192937984	74	4669
2026-01-15 11:11:49.55	199.05	11.57	-54.1	-56.4	13.8	0.00e+00	0	28	0	195035136	74	4659
2026-01-15 11:11:50.55	199.14	11.66	-54.1	-56.5	13.8	0.00e+00	0	28	0	197132288	74	4730
2026-01-15 11:11:51.54	199.23	11.74	-54.1	-56.4	13.8	0.00e+00	0	28	0	199229440	74	4700
2026-01-15 11:11:52.53	199.31	11.82	-54.2	-56.6	13.7	0.00e+00	0	28	0	201326592	74	4763
2026-01-15 11:11:53.53	199.40	11.90	-54.1	-56.5	13.8	0.00e+00	0	28	0	202375168	74	4714
2026-01-15 11:11:54.53	199.49	11.99	-54.2	-56.5	13.8	0.00e+00	0	28	0	204472320	74	4729
2026-01-15 11:11:55.52	199.58	12.07	-54.1	-56.5	13.8	0.00e+00	0	28	0	206569472	74	4712
2026-01-15 11:11:56.52	199.67	12.16	-54.1	-56.4	13.8	0.00e+00	0	28	0	208666624	74	4705
2026-01-15 11:11:57.51	199.76	12.24	-54.0	-56.2	13.9	0.00e+00	0	28	0	209715200	74	4584
2026-01-15 11:11:58.51	199.85	12.32	-53.7	-55.8	14.1	0.00e+00	0	28	0	211812352	74	4388
2026-01-15 11:11:59.50	199.94	12.41	-53.6	-55.7	14.1	0.00e+00	0	28	0	213909504	73	4581
2026-01-15 11:12:00.50	200.03	12.49	-53.7	-55.8	14.0	0.00e+00	0	28	0	216006656	73	4631
2026-01-15 11:12:01.49	200.12	12.58	-57.4	-62.1	10.1	7.80e-04	0	28	0	218103808	80	6408
2026-01-15 11:12:02.48	200.22	12.66	-57.3	-62.0	10.9	2.97e-04	0	28	0	219152384	80	6308
2026-01-15 11:12:03.48	200.31	12.75	-57.1	-61.4	11.0	2.91e-04	0	28	0	221249536	80	5913
2026-01-15 11:12:04.48	200.40	12.83	-57.1	-61.5	11.1	1.87e-04	0	28	0	223346688	80	5967
2026-01-15 11:12:05.47	200.50	12.92	-57.2	-61.8	10.9	3.35e-05	0	28	0	225443840	80	6164
2026-01-15 11:12:06.47	200.59	13.01	-57.4	-62.3	10.6	1.96e-04	0	28	0	226492416	80	6502
2026-01-15 11:12:07.46	200.69	13.09	-56.9	-61.1	11.4	1.01e-04	0	28	0	228589568	80	5683
2026-01-15 11:12:08.45	200.78	13.18	-56.2	-59.6	12.4	1.50e-06	0	28	0	230686720	79	5095
2026-01-15 11:12:09.43	200.88	13.26	-55.5	-58.4	13.0	0.00e+00	0	28	0	232783872	77	4957
2026-01-15 11:12:10.42	200.97	13.35	-55.5	-58.5	12.9	0.00e+00	0	28	0	234881024	77	5011
2026-01-15 11:12:11.42	201.07	13.44	-54.9	-57.5	13.5	0.00e+00	0	28	0	235929600	76	4715
2026-01-15 11:12:12.41	201.17	13.53	-54.8	-57.4	13.5	0.00e+00	0	28	0	238026752	76	4673
2026-01-15 11:12:13.41	201.27	13.61	-54.7	-57.3	13.6	0.00e+00	0	28	0	240123904	76	4602
2026-01-15 11:12:14.40	201.36	13.70	-54.4	-56.9	13.7	0.00e+00	0	28	0	242221056	75	4660
2026-01-15 11:12:15.40	201.46	13.79	-54.1	-56.4	13.8	0.00e+00	0	28	0	243269632	74	4676
2026-01-15 11:12:16.40	201.56	13.88	-53.7	-55.8	14.0	0.00e+00	0	28	0	245366784	73	4626
2026-01-15 11:12:17.40	201.67	13.97	-53.9	-56.1	13.9	0.00e+00	0	28	0	247463936	73	4776
2026-01-15 11:12:18.40	201.77	14.06	-53.5	-55.6	14.1	0.00e+00	0	28	0	249561088	73	4520
2026-01-15 11:12:19.39	201.87	14.15	-53.6	-55.7	14.1	0.00e+00	0	28	0	251658240	73	4588
2026-01-15 11:12:20.38	201.97	14.24	-53.5	-55.6	14.2	0.00e+00	0	28	0	252706816	73	4502
2026-01-15 11:12:21.37	202.07	14.32	-53.6	-55.7	14.1	0.00e+00	0	28	0	254803968	73	4586
2026-01-15 11:12:22.36	202.18	14.41	-53.5	-55.6	14.1	0.00e+00	0	28	0	256901120	73	4519
2026-01-15 11:12:23.35	202.28	14.50	-53.3	-55.3	14.3	0.00e+00	0	28	0	258998272	73	4378
2026-01-15 11:12:24.35	202.39	14.59	-53.4	-55.4	14.3	0.00e+00	0	28	0	260046848	73	4396
2026-01-15 11:12:25.34	202.49	14.69	-53.3	-55.3	14.3	0.00e+00	0	28	0	262144000	73	4346
2026-01-15 11:12:26.33	202.60	14.78	-53.3	-55.3	14.3	0.00e+00	0	28	0	264241152	73	4382
2026-01-15 11:12:27.33	202.70	14.87	-53.4	-55.4	14.2	0.00e+00	0	28	0	266338304	73	4432
2026-01-15 11:12:28.32	202.81	14.96	-53.4	-55.5	14.2	0.00e+00	0	28	0	268435456	73	4449
2026-01-15 11:12:29.32	202.92	15.05	-53.4	-55.4	14.2	0.00e+00	0	28	0	269484032	73	4415
2026-01-15 11:12:30.31	203.03	15.14	-53.3	-55.3	14.3	0.00e+00	0	28	0	271581184	73	4388
2026-01-15 11:12:31.29	203.13	15.23	-53.6	-55.6	14.1	0.00e+00	0	28	0	273678336	73	4537
2026-01-15 11:12:32.30	203.24	15.33	-53.7	-55.8	14.1	0.00e+00	0	28	0	275775488	73	4626
2026-01-15 11:12:33.29	203.35	15.42	-53.4	-55.4	14.2	0.00e+00	0	28	0	276824064	73	4402
2026-01-15 11:12:34.28	203.47	15.51	-53.4	-55.4	14.2	0.00e+00	0	28	0	278921216	73	4428
2026-01-15 11:12:35.28	203.58	15.61	-53.5	-55.6	14.2	0.00e+00	0	28	0	281018368	73	4495
2026-01-15 11:12:36.28	203.69	15.70	-53.4	-55.4	14.2	0.00e+00	0	28	0	283115520	73	4408
2026-01-15 11:12:37.27	203.80	15.79	-53.6	-55.7	14.1	0.00e+00	0	28	0	284164096	73	4571
2026-01-15 11:12:38.26	203.92	15.89	-53.5	-55.5	14.2	0.00e+00	0	28	0	286261248	73	4454
2026-01-15 11:12:39.25	204.03	15.98	-53.5	-55.5	14.2	0.00e+00	0	28	0	288358400	73	4456
2026-01-15 11:12:40.25	204.15	16.08	-53.5	-55.5	14.2	0.00e+00	0	28	0	290455552	73	4492
2026-01-15 11:12:41.24	204.26	16.17	-53.8	-55.9	14.0	0.00e+00	0	28	0	292552704	73	4654
2026-01-15 11:12:42.24	204.38	16.27	-53.7	-55.9	14.0	0.00e+00	0	28	0	293601280	73	4655
2026-01-15 11:12:43.23	204.50	16.36	-53.7	-55.8	14.0	0.00e+00	0	28	0	295698432	73	4645
2026-01-15 11:12:44.23	204.61	16.46	-53.6	-55.7	14.1	0.00e+00	0	28	0	297795584	73	4576
2026-01-15 11:12:45.23	204.73	16.55	-53.8	-55.9	14.0	0.00e+00	0	28	0	299892736	73	4682
2026-01-15 11:12:46.21	204.85	16.65	-53.7	-55.8	14.1	0.00e+00	0	28	0	300941312	73	4618
2026-01-15 11:12:47.20	204.97	16.74	-53.8	-55.9	14.0	0.00e+00	0	28	0	303038464	73	4679
2026-01-15 11:12:48.19	205.09	16.84	-53.8	-56.0	14.0	0.00e+00	0	28	0	305135616	73	4739
2026-01-15 11:12:49.19	205.21	16.94	-53.9	-56.1	13.9	0.00e+00	0	28	0	307232768	73	4791
2026-01-15 11:12:50.18	205.33	17.03	-53.9	-56.0	14.0	0.00e+00	0	28	0	309329920	73	4752
2026-01-15 11:12:51.18	205.46	17.13	-53.7	-55.8	14.1	0.00e+00	0	28	0	310378496	73	4639
2026-01-15 11:12:52.17	205.58	17.23	-53.7	-55.7	14.1	0.00e+00	0	28	0	312475648	73	4590
2026-01-15 11:12:53.17	205.71	17.33	-53.7	-55.9	14.1	0.00e+00	0	28	0	314572800	73	4659
2026-01-15 11:12:54.17	205.83	17.43	-53.7	-55.8	14.1	0.00e+00	0	28	0	316669952	73	4622
2026-01-15 11:12:55.16	205.96	17.52	-53.7	-55.8	14.1	0.00e+00	0	28	0	317718528	73	4650
2026-01-15 11:12:56.16	206.09	17.62	-53.8	-55.9	14.0	0.00e+00	0	28	0	319815680	73	4693
2026-01-15 11:12:57.15	206.21	17.72	-53.6	-55.6	14.2	0.00e+00	0	28	0	321912832	73	4515
2026-01-15 11:12:58.14	206.34	17.82	-53.6	-55.7	14.1	0.00e+00	0	28	0	324009984	73	4560
2026-01-15 11:12:59.13	206.47	17.92	-53.5	-55.5	14.2	0.00e+00	0	28	0	326107136	73	4486
2026-01-15 11:13:00.13	206.60	18.02	-53.5	-55.4	14.3	0.00e+00	0	28	0	327155712	73	4439
2026-01-15 11:13:01.13	206.73	18.12	-53.4	-55.4	14.3	0.00e+00	0	28	0	329252864	73	4434
2026-01-15 11:13:02.11	206.86	18.22	-53.4	-55.4	14.3	0.00e+00	0	28	0	331350016	73	4414
2026-01-15 11:13:03.12	207.00	18.32	-53.5	-55.5	14.2	0.00e+00	0	28	0	333447168	73	4474
2026-01-15 11:13:04.11	207.13	18.42	-53.5	-55.5	14.2	0.00e+00	0	28	0	335544320	73	4449
2026-01-15 11:13:05.10	207.27	18.52	-53.5	-55.6	14.2	0.00e+00	0	28	0	336592896	73	4497
2026-01-15 11:13:06.10	207.40	18.63	-53.7	-55.8	14.1	0.00e+00	0	28	0	338690048	73	4606
2026-01-15 11:13:07.09	207.54	18.73	-53.7	-55.8	14.1	0.00e+00	0	28	0	340787200	73	4605
2026-01-15 11:13:08.09	207.68	18.83	-53.8	-55.9	14.1	0.00e+00	0	28	0	342884352	73	4652
2026-01-15 11:13:09.08	207.81	18.93	-53.8	-56.0	14.0	0.00e+00	0	28	0	343932928	73	4726
2026-01-15 11:13:10.07	207.95	19.03	-53.9	-56.1	14.0	0.00e+00	0	28	0	346030080	73	4769
2026-01-15 11:13:11.07	208.09	19.14	-53.9	-56.1	13.9	0.00e+00	0	28	0	348127232	73	4796
2026-01-15 11:13:12.07	208.23	19.24	-54.1	-56.4	13.8	0.00e+00	0	28	0	350224384	73	4928
2026-01-15 11:13:13.07	208.38	19.34	-54.0	-56.2	13.9	0.00e+00	0	28	0	351272960	73	4822
2026-01-15 11:13:14.06	208.52	19.45	-54.0	-56.2	13.9	0.00e+00	0	28	0	353370112	73	4816
2026-01-15 11:13:15.05	208.66	19.55	-54.0	-56.2	13.9	0.00e+00	0	28	0	355467264	73	4853
2026-01-15 11:13:16.05	208.81	19.65	-54.0	-56.1	14.0	0.00e+00	0	28	0	357564416	73	4809
2026-01-15 11:13:17.04	208.95	19.76	-53.9	-56.1	14.0	0.00e+00	0	28	0	359661568	73	4772
2026-01-15 11:13:18.04	209.10	19.86	-53.9	-56.1	13.9	0.00e+00	0	28	0	360710144	73	4775
2026-01-15 11:13:19.05	209.25	19.97	-54.0	-56.2	13.9	0.00e+00	0	28	0	362807296	73	4847
2026-01-15 11:13:20.05	209.40	20.08	-53.9	-56.0	14.0	0.00e+00	0	28	0	364904448	73	4714
2026-01-15 11:13:21.04	209.55	20.18	-53.9	-56.0	14.0	0.00e+00	0	28	0	367001600	73	4729
2026-01-15 11:13:22.03	209.70	20.29	-53.9	-56.1	14.0	0.00e+00	0	28	0	369098752	73	4760
2026-01-15 11:13:23.02	209.85	20.39	-53.7	-55.8	14.1	0.00e+00	0	28	0	370147328	73	4635
2026-01-15 11:13:24.01	210.00	20.50	-53.7	-55.8	14.1	0.00e+00	0	28	0	372244480	73	4617
2026-01-15 11:13:25.01	210.15	20.60	-53.8	-55.9	14.1	0.00e+00	0	28	0	374341632	73	4654
2026-01-15 11:13:26.00	210.31	20.71	-53.9	-56.0	14.0	0.00e+00	0	28	0	376438784	73	4752
2026-01-15 11:13:26.99	210.46	20.82	-53.9	-56.0	14.0	0.00e+00	0	28	0	377487360	73	4716
2026-01-15 11:13:28.00	210.62	20.92	-53.8	-55.8	14.1	0.00e+00	0	28	0	379584512	73	4645
2026-01-15 11:13:28.99	210.78	21.03	-53.8	-55.9	14.1	0.00e+00	0	28	0	381681664	73	4670
2026-01-15 11:13:29.98	210.94	21.14	-53.7	-55.8	14.1	0.00e+00	0	28	0	383778816	73	4637
2026-01-15 11:13:30.98	211.10	21.25	-54.0	-56.2	13.9	0.00e+00	0	28	0	385875968	73	4833
2026-01-15 11:13:31.97	211.26	21.35	-54.2	-56.4	13.8	0.00e+00	0	28	0	386924544	73	4971
2026-01-15 11:13:32.97	211.42	21.46	-54.0	-56.2	13.9	0.00e+00	0	28	0	389021696	73	4826
2026-01-15 11:13:33.96	211.58	21.57	-54.1	-56.3	13.9	0.00e+00	0	28	0	391118848	73	4915
2026-01-15 11:13:34.96	211.75	21.68	-54.1	-56.3	13.9	0.00e+00	0	28	0	393216000	73	4916
2026-01-15 11:13:35.95	211.91	21.79	-54.0	-56.2	13.9	0.00e+00	0	28	0	394264576	73	4836
2026-01-15 11:13:36.95	212.08	21.90	-54.0	-56.2	14.0	0.00e+00	0	28	0	396361728	73	4828
2026-01-15 11:13:37.95	212.25	22.01	-53.8	-55.8	14.1	0.00e+00	0	28	0	398458880	73	4643
2026-01-15 11:13:38.93	212.41	22.12	-53.8	-55.8	14.1	0.00e+00	0	28	0	400556032	73	4647
2026-01-15 11:13:39.93	212.58	22.23	-53.5	-55.5	14.3	0.00e+00	0	28	0	402653184	73	4461
2026-01-15 11:13:40.93	212.76	22.34	-53.5	-55.4	14.3	0.00e+00	0	28	0	403701760	73	4436
2026-01-15 11:13:41.92	212.93	22.45	-53.4	-55.3	14.3	0.00e+00	0	28	0	405798912	73	4365
2026-01-15 11:13:42.92	213.10	22.56	-53.2	-55.1	14.4	0.00e+00	0	28	0	407896064	73	4253
2026-01-15 11:13:43.90	213.27	22.67	-53.3	-55.2	14.3	0.00e+00	0	28	0	409993216	72	4563
2026-01-15 11:13:44.90	213.45	22.78	-53.3	-55.2	14.3	0.00e+00	0	28	0	411041792	72	4594
2026-01-15 11:13:45.90	213.63	22.89	-53.3	-55.2	14.3	0.00e+00	0	28	0	413138944	72	4574
2026-01-15 11:13:46.90	213.81	23.00	-53.6	-55.6	14.1	0.00e+00	0	28	0	415236096	72	4813
2026-01-15 11:13:47.89	213.99	23.12	-53.6	-55.6	14.1	0.00e+00	0	28	0	417333248	72	4762
2026-01-15 11:13:48.88	214.17	23.23	-53.4	-55.4	14.2	0.00e+00	0	28	0	419430400	72	4683
2026-01-15 11:13:49.89	214.35	23.34	-53.8	-55.9	14.0	0.00e+00	0	28	0	420478976	72	4933
2026-01-15 11:13:50.88	214.54	23.45	-53.4	-55.4	14.2	0.00e+00	0	28	0	422576128	72	4660
2026-01-15 11:13:51.87	214.72	23.56	-53.5	-55.5	14.2	0.00e+00	0	28	0	424673280	72	4709
2026-01-15 11:13:52.86	214.90	23.68	-53.2	-55.1	14.3	0.00e+00	0	28	0	426770432	72	4512
2026-01-15 11:13:53.86	215.09	23.79	-53.0	-54.8	14.5	0.00e+00	0	28	0	427819008	72	4359
2026-01-15 11:13:54.85	215.28	23.90	-52.9	-54.7	14.5	0.00e+00	0	28	0	429916160	72	4300
2026-01-15 11:13:55.85	215.47	24.02	-52.9	-54.7	14.5	0.00e+00	0	28	0	432013312	72	4329
2026-01-15 11:13:56.86	215.67	24.13	-52.9	-54.7	14.5	0.00e+00	0	28	0	434110464	72	4328
2026-01-15 11:13:57.86	215.86	24.24	-53.0	-54.8	14.5	0.00e+00	0	28	0	436207616	72	4366
2026-01-15 11:13:58.86	216.05	24.36	-53.1	-54.9	14.4	0.00e+00	0	28	0	437256192	72	4430
2026-01-15 11:13:59.85	216.25	24.47	-53.3	-55.2	14.3	0.00e+00	0	28	0	439353344	72	4583
2026-01-15 11:14:00.86	216.45	24.59	-53.5	-55.4	14.2	0.00e+00	0	28	0	441450496	72	4700
2026-01-15 11:14:01.85	216.65	24.70	-53.5	-55.5	14.2	0.00e+00	0	28	0	443547648	72	4720
2026-01-15 11:14:02.84	216.84	24.82	-53.8	-55.8	14.0	0.00e+00	0	28	0	445644800	72	4923
2026-01-15 11:14:03.83	217.04	24.93	-53.7	-55.7	14.1	0.00e+00	0	28	0	446693376	72	4839
2026-01-15 11:14:04.81	217.24	25.04	-53.6	-55.6	14.1	0.00e+00	0	28	0	448790528	72	4802
2026-01-15 11:14:05.81	217.45	25.16	-53.4	-55.3	14.3	0.00e+00	0	28	0	450887680	72	4634
2026-01-15 11:14:06.80	217.65	25.27	-53.5	-55.4	14.2	0.00e+00	0	28	0	452984832	72	4694
2026-01-15 11:14:07.80	217.86	25.39	-53.2	-55.1	14.3	0.00e+00	0	28	0	454033408	72	4526
2026-01-15 11:14:08.78	218.06	25.50	-53.1	-55.0	14.4	0.00e+00	0	28	0	456130560	72	4444
2026-01-15 11:14:09.77	218.27	25.61	-53.4	-55.3	14.3	0.00e+00	0	28	0	458227712	72	4621
2026-01-15 11:14:10.77	218.49	25.73	-53.4	-55.4	14.2	0.00e+00	0	28	0	460324864	72	4657
2026-01-15 11:14:11.77	218.70	25.85	-53.5	-55.4	14.2	0.00e+00	0	28	0	461373440	72	4698
2026-01-15 11:14:12.76	218.91	25.96	-53.5	-55.5	14.2	0.00e+00	0	28	0	463470592	72	4752
2026-01-15 11:14:13.76	219.13	26.08	-53.5	-55.5	14.1	0.00e+00	0	28	0	465567744	72	4726
2026-01-15 11:14:14.75	219.35	26.19	-53.5	-55.5	14.2	0.00e+00	0	28	0	467664896	72	4713
2026-01-15 11:14:15.75	219.57	26.31	-53.4	-55.3	14.2	0.00e+00	0	28	0	469762048	72	4635
2026-01-15 11:14:16.75	219.79	26.42	-53.4	-55.4	14.2	0.00e+00	0	28	0	470810624	72	4655
2026-01-15 11:14:17.74	220.01	26.54	-53.5	-55.4	14.2	0.00e+00	0	28	0	472907776	72	4693
2026-01-15 11:14:18.74	220.23	26.66	-53.4	-55.3	14.2	0.00e+00	0	28	0	475004928	72	4633
2026-01-15 11:14:19.73	220.46	26.77	-53.4	-55.3	14.3	0.00e+00	0	28	0	477102080	72	4607
2026-01-15 11:14:20.73	220.68	26.89	-53.3	-55.2	14.3	0.00e+00	0	28	0	479199232	72	4573
2026-01-15 11:14:21.73	220.91	27.00	-53.4	-55.4	14.3	0.00e+00	0	28	0	480247808	72	4663
2026-01-15 11:14:22.72	221.14	27.12	-53.4	-55.3	14.3	0.00e+00	0	28	0	482344960	72	4630
2026-01-15 11:14:23.72	221.38	27.24	-53.2	-55.0	14.4	0.00e+00	0	28	0	484442112	72	4489
2026-01-15 11:14:24.72	221.61	27.35	-53.1	-55.0	14.4	0.00e+00	0	28	0	486539264	72	4465
2026-01-15 11:14:25.71	221.84	27.47	-53.0	-54.8	14.5	0.00e+00	0	28	0	487587840	72	4387
2026-01-15 11:14:26.71	222.08	27.58	-52.9	-54.7	14.5	0.00e+00	0	28	0	489684992	72	4324
2026-01-15 11:14:27.70	222.32	27.70	-52.9	-54.7	14.5	0.00e+00	0	28	0	491782144	72	4319
2026-01-15 11:14:28.70	222.56	27.82	-52.7	-54.4	14.5	0.00e+00	0	28	0	493879296	71	4426
2026-01-15 11:14:29.69	222.80	27.93	-52.6	-54.3	14.6	0.00e+00	0	28	0	495976448	71	4363
2026-01-15 11:14:30.68	223.04	28.05	-52.9	-54.7	14.4	0.00e+00	0	28	0	497025024	71	4581
2026-01-15 11:14:31.67	223.29	28.16	-53.1	-54.9	14.3	0.00e+00	0	28	0	499122176	71	4682
2026-01-15 11:14:32.66	223.53	28.28	-53.0	-54.8	14.4	0.00e+00	0	28	0	501219328	71	4607
2026-01-15 11:14:33.66	223.78	28.39	-53.1	-54.9	14.3	0.00e+00	0	28	0	503316480	71	4702
2026-01-15 11:14:34.65	224.03	28.51	-53.0	-54.9	14.3	0.00e+00	0	28	0	504365056	71	4659
2026-01-15 11:14:35.64	224.28	28.62	-53.2	-55.1	14.3	0.00e+00	0	28	0	506462208	71	4787
2026-01-15 11:14:36.63	224.53	28.74	-53.4	-55.3	14.3	0.00e+00	0	28	0	508559360	72	4644
2026-01-15 11:14:37.62	224.79	28.85	-53.6	-55.5	14.2	0.00e+00	0	28	0	510656512	72	4751
2026-01-15 11:14:38.62	225.05	28.97	-53.6	-55.6	14.2	0.00e+00	0	28	0	511705088	72	4769
2026-01-15 11:14:39.61	225.30	29.08	-53.5	-55.5	14.2	0.00e+00	0	28	0	513802240	72	4726
2026-01-15 11:14:40.61	225.57	29.20	-53.7	-55.7	14.1	0.00e+00	0	28	0	515899392	72	4833
2026-01-15 11:14:41.60	225.83	29.31	-53.8	-55.9	14.0	0.00e+00	0	28	0	517996544	72	4929
2026-01-15 11:14:42.59	226.09	29.42	-54.0	-56.1	14.0	0.00e+00	0	28	0	520093696	73	4780
2026-01-15 11:14:43.58	226.36	29.54	-54.1	-56.2	14.0	0.00e+00	0	28	0	521142272	73	4854
2026-01-15 11:14:44.57	226.62	29.65	-54.3	-56.5	13.8	0.00e+00	0	28	0	523239424	73	5017
2026-01-15 11:14:45.57	226.90	29.76	-54.3	-56.6	13.9	0.00e+00	0	28	0	525336576	74	4760
2026-01-15 11:14:46.56	227.17	29.88	-54.5	-56.7	13.8	0.00e+00	0	28	0	527433728	74	4849
2026-01-15 11:14:47.56	227.44	29.99	-54.4	-56.6	13.9	0.00e+00	0	28	0	528482304	74	4763
2026-01-15 11:14:48.56	227.72	30.10	-54.3	-56.4	14.0	0.00e+00	0	28	0	530579456	74	4694
2026-01-15 11:14:49.56	228.00	30.22	-54.3	-56.5	13.9	0.00e+00	0	28	0	532676608	74	4754
2026-01-15 11:14:50.55	228.28	30.33	-54.6	-56.9	13.7	0.00e+00	0	28	0	534773760	74	4979
2026-01-15 11:14:51.55	228.56	30.44	-54.8	-57.3	13.6	0.00e+00	0	28	0	536870912	75	4873
2026-01-15 11:14:52.55	228.84	30.55	-55.4	-58.0	13.3	0.00e+00	0	28	0	537919488	75	5332
2026-01-15 11:14:53.54	229.13	30.67	-55.2	-57.8	13.3	0.00e+00	0	28	0	540016640	75	5196
2026-01-15 11:14:54.54	229.42	30.78	-55.7	-58.4	13.2	0.00e+00	0	28	0	542113792	76	5254
2026-01-15 11:14:55.54	229.71	30.89	-56.0	-58.9	12.9	0.00e+00	0	28	0	544210944	77	5275
2026-01-15 11:14:56.54	230.00	31.00	-56.2	-59.3	12.8	0.00e+00	0	28	0	546308096	77	5468
2026-01-15 11:14:57.55	230.30	31.11	-56.1	-59.1	12.9	0.00e+00	0	28	0	547356672	77	5358
2026-01-15 11:14:58.55	230.59	31.22	-56.3	-59.4	12.7	0.00e+00	0	28	0	549453824	77	5556
2026-01-15 11:14:59.54	230.89	31.33	-56.4	-59.6	12.6	0.00e+00	0	28	0	551550976	78	5378
2026-01-15 11:15:00.54	231.19	31.44	-56.2	-59.2	12.9	0.00e+00	0	28	0	553648128	78	5146
2026-01-15 11:15:01.53	231.49	31.55	-56.0	-58.9	13.1	0.00e+00	0	28	0	555745280	78	4962
2026-01-15 11:15:02.52	231.79	31.65	-56.5	-59.9	12.5	0.00e+00	0	28	0	556793856	78	5551
2026-01-15 11:15:03.52	232.10	31.76	-56.8	-60.4	12.1	0.00e+00	0	28	0	558891008	78	5910
2026-01-15 11:15:04.52	232.41	31.87	-56.6	-60.0	12.5	0.00e+00	0	28	0	560988160	78	5593
2026-01-15 11:15:05.52	232.72	31.98	-56.5	-59.7	12.6	0.00e+00	0	28	0	563085312	78	5446
2026-01-15 11:15:06.52	233.03	32.08	-56.3	-59.4	12.7	0.00e+00	0	28	0	564133888	78	5272
2026-01-15 11:15:07.52	233.34	32.19	-56.1	-59.1	13.0	0.00e+00	0	28	0	566231040	78	5085
2026-01-15 11:15:08.51	233.66	32.29	-56.0	-58.9	13.1	0.00e+00	0	28	0	568328192	78	4949
2026-01-15 11:15:09.51	233.98	32.40	-56.0	-58.9	13.1	0.00e+00	0	28	0	570425344	78	4943
2026-01-15 11:15:10.51	234.30	32.50	-56.1	-59.1	13.0	0.00e+00	0	28	0	572522496	78	5072
2026-01-15 11:15:11.52	234.62	32.60	-56.4	-59.6	12.6	0.00e+00	0	28	0	573571072	78	5386
2026-01-15 11:15:12.50	234.94	32.70	-56.4	-59.5	12.7	0.00e+00	0	28	0	575668224	78	5335
2026-01-15 11:15:13.50	235.27	32.81	-56.5	-59.8	12.6	0.00e+00	0	28	0	577765376	78	5469
2026-01-15 11:15:14.50	235.60	32.91	-56.7	-60.1	12.4	0.00e+00	0	28	0	579862528	79	5375
2026-01-15 11:15:15.49	235.92	33.01	-56.7	-60.2	12.3	0.00e+00	0	28	0	580911104	79	5415
2026-01-15 11:15:16.49	236.26	33.11	-56.7	-60.0	12.4	7.00e-07	0	28	0	583008256	79	5340
2026-01-15 11:15:17.48	236.59	33.21	-56.5	-59.7	12.6	0.00e+00	0	28	0	585105408	79	5130
2026-01-15 11:15:18.48	236.92	33.30	-56.1	-59.0	13.0	0.00e+00	0	28	0	587202560	78	5015
2026-01-15 11:15:19.48	237.26	33.40	-56.1	-59.0	13.0	0.00e+00	0	28	0	589299712	78	4993
2026-01-15 11:15:20.48	237.60	33.50	-55.9	-58.7	13.2	0.00e+00	0	28	0	590348288	78	4833
2026-01-15 11:15:21.48	237.95	33.60	-56.1	-59.1	13.0	0.00e+00	0	28	0	592445440	78	5045
2026-01-15 11:15:22.47	238.29	33.69	-56.3	-59.4	12.8	0.00e+00	0	28	0	594542592	78	5267
2026-01-15 11:15:23.47	238.63	33.78	-56.4	-59.6	12.7	0.00e+00	0	28	0	596639744	78	5361
2026-01-15 11:15:24.45	238.97	33.88	-56.5	-59.7	12.6	0.00e+00	0	28	0	597688320	78	5456
2026-01-15 11:15:25.44	239.32	33.97	-56.5	-59.7	12.6	0.00e+00	0	28	0	599785472	78	5442
2026-01-15 11:15:26.45	239.68	34.06	-55.8	-58.6	13.2	0.00e+00	0	28	0	601882624	78	4777
2026-01-15 11:15:27.45	240.03	34.15	-55.2	-57.7	13.7	0.00e+00	0	28	0	603979776	76	4825
2026-01-15 11:15:28.44	240.38	34.24	-54.1	-56.2	14.1	0.00e+00	0	28	0	606076928	74	4564
2026-01-15 11:15:29.44	240.74	34.33	-54.3	-56.4	14.0	0.00e+00	0	28	0	607125504	74	4675
2026-01-15 11:15:30.43	241.10	34.42	-54.5	-56.8	13.8	0.00e+00	0	28	0	609222656	74	4890
2026-01-15 11:15:31.42	241.46	34.50	-54.9	-57.4	13.7	0.00e+00	0	28	0	611319808	75	4933
2026-01-15 11:15:32.42	241.82	34.59	-55.6	-58.3	13.3	0.00e+00	0	28	0	613416960	76	5169
2026-01-15 11:15:33.42	242.19	34.67	-56.1	-59.1	12.9	0.00e+00	0	28	0	614465536	77	5366
2026-01-15 11:15:34.41	242.55	34.76	-55.9	-58.8	13.0	0.00e+00	0	28	0	616562688	77	5177
2026-01-15 11:15:35.40	242.92	34.84	-55.4	-58.0	13.5	0.00e+00	0	28	0	618659840	77	4716
2026-01-15 11:15:36.39	243.28	34.92	-54.9	-57.2	13.8	0.00e+00	0	28	0	620756992	76	4568
2026-01-15 11:15:37.39	243.66	35.00	-54.7	-57.0	13.9	0.00e+00	0	28	0	622854144	75	4713
2026-01-15 11:15:38.38	244.03	35.08	-54.1	-56.2	14.1	0.00e+00	0	28	0	623902720	74	4559
2026-01-15 11:15:39.38	244.40	35.16	-53.7	-55.6	14.2	0.00e+00	0	28	0	625999872	73	4535
2026-01-15 11:15:40.37	244.78	35.24	-53.5	-55.4	14.4	0.00e+00	0	28	0	628097024	73	4405
2026-01-15 11:15:41.37	245.16	35.31	-53.5	-55.3	14.4	0.00e+00	0	28	0	630194176	73	4389
2026-01-15 11:15:42.37	245.54	35.39	-53.7	-55.7	14.2	0.00e+00	0	28	0	631242752	73	4566
2026-01-15 11:15:43.37	245.92	35.46	-54.1	-56.2	14.0	0.00e+00	0	28	0	633339904	73	4863
2026-01-15 11:15:44.36	246.31	35.53	-54.2	-56.3	14.0	0.00e+00	0	28	0	635437056	73	4886
2026-01-15 11:15:45.36	246.69	35.60	-54.0	-56.1	14.1	0.00e+00	0	28	0	637534208	73	4771
2026-01-15 11:15:46.36	247.08	35.67	-53.5	-55.4	14.3	0.00e+00	0	28	0	639631360	73	4419
2026-01-15 11:15:47.35	247.47	35.74	-53.3	-55.2	14.4	0.00e+00	0	28	0	640679936	73	4320
2026-01-15 11:15:48.35	247.86	35.81	-53.2	-55.1	14.4	0.00e+00	0	28	0	642777088	72	4502
2026-01-15 11:15:49.35	248.25	35.87	-53.4	-55.3	14.3	0.00e+00	0	28	0	644874240	72	4637
2026-01-15 11:15:50.34	248.64	35.94	-54.0	-56.0	14.1	0.00e+00	0	28	0	646971392	73	4748
2026-01-15 11:15:51.33	249.04	36.00	-54.0	-56.0	14.1	0.00e+00	0	28	0	649068544	73	4755
2026-01-15 11:15:52.33	249.43	36.06	-53.7	-55.7	14.2	0.00e+00	0	28	0	650117120	73	4573
2026-01-15 11:15:53.33	249.83	36.12	-53.5	-55.3	14.4	0.00e+00	0	28	0	652214272	73	4389
2026-01-15 11:15:54.33	250.23	36.18	-53.5	-55.4	14.3	0.00e+00	0	28	0	654311424	72	4658
2026-01-15 11:15:55.33	250.63	36.24	-53.6	-55.6	14.2	0.00e+00	0	28	0	656408576	72	4774
2026-01-15 11:15:56.33	251.04	36.30	-53.8	-55.8	14.1	0.00e+00	0	28	0	658505728	72	4895
2026-01-15 11:15:57.32	251.44	36.35	-53.7	-55.6	14.1	0.00e+00	0	28	0	659554304	72	4799
2026-01-15 11:15:58.31	251.84	36.40	-53.6	-55.5	14.2	0.00e+00	0	28	0	661651456	72	4723
2026-01-15 11:15:59.30	252.24	36.45	-53.1	-54.8	14.5	0.00e+00	0	28	0	663748608	72	4388
2026-01-15 11:16:00.30	252.65	36.51	-53.2	-55.1	14.4	0.00e+00	0	28	0	665845760	72	4499
2026-01-15 11:16:01.28	253.06	36.55	-53.8	-55.8	14.1	0.00e+00	0	28	0	666894336	72	4884
2026-01-15 11:16:02.28	253.47	36.60	-54.1	-56.2	14.0	0.00e+00	0	28	0	668991488	73	4859
2026-01-15 11:16:03.27	253.87	36.65	-54.1	-56.2	14.0	0.00e+00	0	28	0	671088640	73	4847
2026-01-15 11:16:04.27	254.29	36.69	-54.3	-56.4	13.9	0.00e+00	0	28	0	673185792	73	4957
2026-01-15 11:16:05.27	254.70	36.73	-54.2	-56.3	13.9	0.00e+00	0	28	0	674234368	73	4894
2026-01-15 11:16:06.26	255.11	36.77	-54.0	-56.1	14.0	0.00e+00	0	28	0	676331520	73	4782
2026-01-15 11:16:07.26	255.53	36.81	-54.2	-56.3	14.0	0.00e+00	0	28	0	678428672	73	4896
2026-01-15 11:16:08.25	255.94	36.85	-53.8	-55.8	14.2	0.00e+00	0	28	0	680525824	73	4644
2026-01-15 11:16:09.24	256.36	36.88	-53.8	-55.8	14.2	0.00e+00	0	28	0	682622976	73	4617
2026-01-15 11:16:10.24	256.78	36.92	-53.5	-55.3	14.4	0.00e+00	0	28	0	683671552	73	4388
2026-01-15 11:16:11.23	257.19	36.95	-53.5	-55.4	14.4	0.00e+00	0	28	0	685768704	73	4397
2026-01-15 11:16:12.22	257.61	36.98	-53.8	-55.8	14.2	0.00e+00	0	28	0	687865856	73	4617
2026-01-15 11:16:13.22	258.03	37.01	-54.2	-56.3	14.0	0.00e+00	0	28	0	689963008	73	4898
2026-01-15 11:16:14.21	258.45	37.04	-54.4	-56.6	13.9	0.00e+00	0	28	0	691011584	74	4809
2026-01-15 11:16:15.21	258.87	37.07	-54.6	-56.9	13.8	0.00e+00	0	28	0	693108736	74	4943
2026-01-15 11:16:16.20	259.29	37.09	-54.5	-56.7	13.8	0.00e+00	0	28	0	695205888	74	4859
2026-01-15 11:16:17.20	259.71	37.11	-54.6	-56.8	13.8	0.00e+00	0	28	0	697303040	74	4908
2026-01-15 11:16:18.19	260.13	37.13	-54.9	-57.2	13.7	0.00e+00	0	28	0	699400192	74	5154
2026-01-15 11:16:19.18	260.56	37.15	-55.0	-57.4	13.6	0.00e+00	0	28	0	700448768	75	4929
2026-01-15 11:16:20.17	260.98	37.17	-54.6	-56.9	13.9	0.00e+00	0	28	0	702545920	75	4680
2026-01-15 11:16:21.17	261.40	37.19	-54.4	-56.5	14.1	0.00e+00	0	28	0	704643072	75	4485
2026-01-15 11:16:22.16	261.82	37.20	-54.5	-56.7	14.0	0.00e+00	0	28	0	706740224	75	4568
2026-01-15 11:16:23.15	262.25	37.21	-54.6	-56.8	13.9	0.00e+00	0	28	0	707788800	75	4620
2026-01-15 11:16:24.14	262.67	37.22	-54.5	-56.7	14.0	0.00e+00	0	28	0	709885952	75	4594
2026-01-15 11:16:25.14	263.10	37.23	-54.6	-56.8	13.9	0.00e+00	0	28	0	711983104	75	4630
2026-01-15 11:16:26.13	263.52	37.24	-54.5	-56.8	14.0	0.00e+00	0	28	0	714080256	75	4610
2026-01-15 11:16:27.13	263.95	37.24	-55.2	-57.7	13.5	0.00e+00	0	28	0	716177408	75	5155
2026-01-15 11:16:28.13	264.38	37.25	-55.2	-57.7	13.5	0.00e+00	0	28	0	717225984	75	5142
2026-01-15 11:16:29.12	264.80	37.25	-55.1	-57.5	13.5	0.00e+00	0	28	0	719323136	75	5029
2026-01-15 11:16:30.12	265.23	37.25	-54.9	-57.3	13.7	0.00e+00	0	28	0	721420288	75	4920
2026-01-15 11:16:31.11	265.65	37.25	-54.7	-57.0	13.8	0.00e+00	0	28	0	723517440	75	4747
2026-01-15 11:16:32.11	266.08	37.24	-55.0	-57.3	13.7	0.00e+00	0	28	0	724566016	75	4914
2026-01-15 11:16:33.10	266.50	37.24	-55.0	-57.3	13.7	0.00e+00	0	28	0	726663168	75	4905
2026-01-15 11:16:34.10	266.93	37.23	-54.7	-57.0	13.8	0.00e+00	0	28	0	728760320	75	4739
2026-01-15 11:16:35.10	267.36	37.22	-54.9	-57.2	13.7	0.00e+00	0	28	0	730857472	75	4853
2026-01-15 11:16:36.10	267.78	37.21	-55.3	-57.9	13.3	0.00e+00	0	28	0	732954624	75	5237
2026-01-15 11:16:37.10	268.21	37.20	-56.1	-59.1	13.0	0.00e+00	0	28	0	734003200	77	5368
2026-01-15 11:16:38.10	268.64	37.19	-56.7	-60.0	12.4	0.00e+00	0	28	0	736100352	78	5655
2026-01-15 11:16:39.09	269.06	37.17	-56.2	-59.3	12.9	7.00e-07	0	28	0	738197504	78	5179
2026-01-15 11:16:40.09	269.48	37.16	-55.9	-58.7	13.3	0.00e+00	0	28	0	740294656	78	4822
2026-01-15 11:16:41.08	269.91	37.14	-55.1	-57.5	13.7	0.00e+00	0	28	0	742391808	76	4729
2026-01-15 11:16:42.07	270.33	37.12	-54.6	-56.9	13.9	0.00e+00	0	28	0	743440384	75	4663
2026-01-15 11:16:43.07	270.75	37.09	-54.4	-56.5	14.1	0.00e+00	0	28	0	745537536	75	4463
2026-01-15 11:16:44.06	271.17	37.07	-54.2	-56.3	14.1	0.00e+00	0	28	0	747634688	74	4634
2026-01-15 11:16:45.05	271.59	37.05	-54.3	-56.4	14.0	0.00e+00	0	28	0	749731840	74	4680
2026-01-15 11:16:46.05	272.01	37.02	-54.6	-56.8	13.8	0.00e+00	0	28	0	750780416	74	4910
2026-01-15 11:16:47.06	272.43	36.99	-55.0	-57.4	13.7	0.00e+00	0	28	0	752877568	75	4961
2026-01-15 11:16:48.05	272.85	36.96	-55.3	-57.9	13.5	0.00e+00	0	28	0	754974720	75	5241
2026-01-15 11:16:49.05	273.27	36.93	-55.3	-57.9	13.5	0.00e+00	0	28	0	757071872	76	4927
2026-01-15 11:16:50.04	273.69	36.89	-55.0	-57.3	13.8	0.00e+00	0	28	0	759169024	76	4606
2026-01-15 11:16:51.04	274.10	36.86	-54.7	-56.9	13.9	0.00e+00	0	28	0	760217600	75	4687
2026-01-15 11:16:52.03	274.52	36.82	-54.8	-57.1	13.8	0.00e+00	0	28	0	762314752	75	4784
2026-01-15 11:16:53.03	274.93	36.78	-54.9	-57.3	13.7	0.00e+00	0	28	0	764411904	75	4893
2026-01-15 11:16:54.02	275.34	36.74	-54.8	-57.0	13.8	0.00e+00	0	28	0	766509056	75	4747
2026-01-15 11:16:55.01	275.75	36.70	-54.6	-56.7	14.0	0.00e+00	0	28	0	767557632	75	4586
2026-01-15 11:16:56.01	276.17	36.65	-54.7	-56.9	13.9	0.00e+00	0	28	0	769654784	75	4674
2026-01-15 11:16:57.00	276.57	36.61	-55.1	-57.5	13.6	0.00e+00	0	28	0	771751936	75	5030
2026-01-15 11:16:58.00	276.99	36.56	-55.6	-58.2	13.4	0.00e+00	0	28	0	773849088	76	5140
2026-01-15 11:16:59.00	277.39	36.51	-55.6	-58.2	13.3	0.00e+00	0	28	0	775946240	76	5146
2026-01-15 11:17:00.00	277.80	36.46	-55.5	-58.1	13.3	0.00e+00	0	28	0	776994816	76	5092
2026-01-15 11:17:00.99	278.21	36.41	-55.2	-57.6	13.7	0.00e+00	0	28	0	779091968	76	4797
2026-01-15 11:17:01.99	278.61	36.36	-55.6	-58.2	13.3	0.00e+00	0	28	0	781189120	76	5139
2026-01-15 11:17:02.98	279.01	36.31	-56.5	-59.7	12.6	0.00e+00	0	28	0	783286272	78	5428
2026-01-15 11:17:03.98	279.42	36.25	-57.1	-60.7	12.0	7.00e-07	0	28	0	784334848	79	5776
2026-01-15 11:17:04.97	279.81	36.19	-56.9	-60.3	12.3	7.00e-07	0	28	0	786432000	79	5506
2026-01-15 11:17:05.97	280.21	36.14	-56.6	-59.8	12.7	0.00e+00	0	28	0	788529152	79	5171
2026-01-15 11:17:06.96	280.61	36.08	-56.6	-59.9	12.7	0.00e+00	0	28	0	790626304	79	5228
2026-01-15 11:17:07.95	281.00	36.02	-57.0	-60.6	12.1	0.00e+00	0	28	0	792723456	79	5718
2026-01-15 11:17:08.94	281.39	35.95	-57.1	-60.8	12.0	1.50e-06	0	28	0	793772032	79	5840
2026-01-15 11:17:09.93	281.78	35.89	-56.7	-60.0	12.5	7.00e-07	0	28	0	795869184	79	5320
2026-01-15 11:17:10.92	282.17	35.83	-56.1	-59.0	13.1	0.00e+00	0	28	0	797966336	78	4988
2026-01-15 11:17:11.92	282.57	35.76	-55.8	-58.5	13.4	0.00e+00	0	28	0	800063488	78	4742
2026-01-15 11:17:12.91	282.95	35.69	-56.1	-59.0	13.1	0.00e+00	0	28	0	801112064	78	4984
2026-01-15 11:17:13.90	283.34	35.62	-56.9	-60.3	12.2	0.00e+00	0	28	0	803209216	78	5855
2026-01-15 11:17:14.90	283.72	35.55	-57.4	-61.3	11.7	9.10e-06	0	28	0	805306368	80	5840
2026-01-15 11:17:15.90	284.11	35.48	-57.5	-61.6	11.6	4.04e-05	0	28	0	807403520	80	6059
2026-01-15 11:17:16.90	284.49	35.41	-56.8	-60.1	12.5	4.50e-06	0	28	0	809500672	80	5083
2026-01-15 11:17:17.89	284.87	35.33	-56.3	-59.3	13.0	0.00e+00	0	28	0	810549248	79	4877
2026-01-15 11:17:18.88	285.24	35.26	-55.6	-58.2	13.4	0.00e+00	0	28	0	812646400	77	4817
2026-01-15 11:17:19.89	285.63	35.18	-55.8	-58.5	13.3	0.00e+00	0	28	0	814743552	77	4993
2026-01-15 11:17:20.88	286.00	35.10	-55.7	-58.4	13.3	0.00e+00	0	28	0	816840704	77	4954
2026-01-15 11:17:21.87	286.37	35.02	-55.4	-57.9	13.6	0.00e+00	0	28	0	817889280	77	4660
2026-01-15 11:17:22.86	286.74	34.95	-55.0	-57.4	13.8	0.00e+00	0	28	0	819986432	76	4661
2026-01-15 11:17:23.87	287.11	34.86	-54.9	-57.2	13.9	0.00e+00	0	28	0	822083584	76	4548
2026-01-15 11:17:24.86	287.48	34.78	-55.8	-58.4	13.2	0.00e+00	0	28	0	824180736	76	5269
2026-01-15 11:17:25.84	287.84	34.70	-56.9	-60.4	12.3	0.00e+00	0	28	0	826277888	79	5563
2026-01-15 11:17:26.84	288.20	34.61	-57.6	-61.8	11.4	6.10e-06	0	28	0	827326464	80	6162
2026-01-15 11:17:27.82	288.56	34.53	-57.7	-61.9	11.3	2.59e-05	0	28	0	829423616	80	6239
2026-01-15 11:17:28.82	288.92	34.44	-57.5	-61.5	11.6	2.44e-05	0	28	0	831520768	80	5938
2026-01-15 11:17:29.82	289.28	34.36	-56.8	-60.2	12.5	7.00e-07	0	28	0	833617920	80	5108
2026-01-15 11:17:30.82	289.64	34.27	-56.6	-59.7	12.7	0.00e+00	0	28	0	834666496	79	5142
2026-01-15 11:17:31.82	289.99	34.18	-56.4	-59.4	12.9	0.00e+00	0	28	0	836763648	79	4980
2026-01-15 11:17:32.81	290.34	34.09	-56.6	-59.7	12.7	0.00e+00	0	28	0	838860800	79	5158
2026-01-15 11:17:33.81	290.70	34.00	-56.3	-59.3	13.0	0.00e+00	0	28	0	840957952	79	4878
2026-01-15 11:17:34.81	291.05	33.91	-55.8	-58.4	13.4	0.00e+00	0	28	0	843055104	78	4696
2026-01-15 11:17:35.81	291.39	33.81	-55.1	-57.4	13.7	0.00e+00	0	28	0	844103680	76	4676
2026-01-15 11:17:36.81	291.74	33.72	-54.9	-57.2	13.8	0.00e+00	0	28	0	846200832	76	4553
2026-01-15 11:17:37.80	292.08	33.62	-55.0	-57.3	13.8	0.00e+00	0	28	0	848297984	76	4642
2026-01-15 11:17:38.78	292.42	33.53	-55.3	-57.7	13.6	0.00e+00	0	28	0	850395136	76	4853
2026-01-15 11:17:39.79	292.76	33.43	-55.4	-57.8	13.5	0.00e+00	0	28	0	851443712	76	4922
2026-01-15 11:17:40.78	293.09	33.34	-55.1	-57.5	13.7	0.00e+00	0	28	0	853540864	76	4710
2026-01-15 11:17:41.78	293.43	33.24	-54.9	-57.2	13.8	0.00e+00	0	28	0	855638016	76	4577
2026-01-15 11:17:42.77	293.76	33.14	-55.0	-57.3	13.8	0.00e+00	0	28	0	857735168	76	4604
2026-01-15 11:17:43.76	294.09	33.04	-55.0	-57.3	13.8	0.00e+00	0	28	0	859832320	76	4650
2026-01-15 11:17:44.75	294.42	32.94	-55.6	-58.1	13.4	0.00e+00	0	28	0	860880896	76	5083
2026-01-15 11:17:45.75	294.74	32.84	-56.9	-60.3	12.3	0.00e+00	0	28	0	862978048	78	5843
2026-01-15 11:17:46.74	295.07	32.74	-58.3	-63.7	10.2	4.50e-06	0	28	0	865075200	81	7219
2026-01-15 11:17:47.73	295.39	32.64	-58.4	-64.2	9.6	5.67e-03	0	28	0	867172352	82	7233
2026-01-15 11:17:48.72	295.71	32.54	-57.4	-61.6	11.6	3.36e-04	0	28	0	868220928	81	5660
2026-01-15 11:17:49.72	296.03	32.44	-55.5	-58.0	13.5	0.00e+00	0	28	0	870318080	77	4754
2026-01-15 11:17:50.72	296.35	32.33	-53.8	-55.7	14.3	0.00e+00	0	28	0	872415232	74	4318
2026-01-15 11:17:51.72	296.66	32.23	-53.3	-55.1	14.5	0.00e+00	0	28	0	874512384	73	4271
2026-01-15 11:17:52.71	296.97	32.12	-53.7	-55.6	14.3	0.00e+00	0	28	0	876609536	73	4504
2026-01-15 11:17:53.71	297.29	32.02	-54.2	-56.3	14.0	0.00e+00	0	28	0	877658112	73	4910
2026-01-15 11:17:54.70	297.59	31.91	-54.3	-56.5	14.0	0.00e+00	0	28	0	879755264	74	4717
2026-01-15 11:17:55.70	297.90	31.81	-53.8	-55.8	14.4	0.00e+00	0	28	0	881852416	74	4344
2026-01-15 11:17:56.69	298.20	31.70	-53.3	-55.1	14.5	0.00e+00	0	28	0	883949568	73	4273
2026-01-15 11:17:57.69	298.51	31.59	-53.1	-54.9	14.5	0.00e+00	0	28	0	884998144	72	4410
2026-01-15 11:17:58.68	298.81	31.49	-53.3	-55.1	14.4	0.00e+00	0	28	0	887095296	72	4496
2026-01-15 11:17:59.67	299.11	31.38	-53.6	-55.5	14.3	0.00e+00	0	28	0	889192448	72	4727
2026-01-15 11:18:00.67	299.40	31.27	-53.9	-55.9	14.1	0.00e+00	0	28	0	891289600	73	4705
2026-01-15 11:18:01.67	299.70	31.16	-54.0	-56.1	14.1	0.00e+00	0	28	0	893386752	73	4770
2026-01-15 11:18:02.67	299.99	31.05	-53.3	-55.1	14.5	0.00e+00	0	28	0	894435328	73	4284
2026-01-15 11:18:03.65	300.28	30.94	-52.8	-54.5	14.7	0.00e+00	0	28	0	896532480	72	4238
2026-01-15 11:18:04.64	300.57	30.83	-52.4	-54.1	14.7	0.00e+00	0	28	0	898629632	71	4247
2026-01-15 11:18:05.63	300.85	30.72	-52.7	-54.4	14.6	0.00e+00	0	28	0	900726784	71	4408
2026-01-15 11:18:06.63	301.14	30.61	-53.3	-55.2	14.3	0.00e+00	0	28	0	901775360	71	4829
2026-01-15 11:18:07.63	301.43	30.50	-54.4	-56.6	13.9	0.00e+00	0	28	0	903872512	73	5072
2026-01-15 11:18:08.62	301.71	30.39	-54.7	-57.0	13.8	0.00e+00	0	28	0	905969664	74	4997
2026-01-15 11:18:09.61	301.98	30.28	-53.9	-55.8	14.3	0.00e+00	0	28	0	908066816	74	4389
2026-01-15 11:18:10.61	302.26	30.17	-53.1	-54.9	14.5	0.00e+00	0	28	0	910163968	72	4396
2026-01-15 11:18:11.61	302.54	30.05	-52.4	-54.0	14.7	0.00e+00	0	28	0	911212544	71	4232
2026-01-15 11:18:12.59	302.81	29.94	-52.6	-54.3	14.6	0.00e+00	0	28	0	913309696	71	4372
2026-01-15 11:18:13.60	303.09	29.83	-53.7	-55.7	14.2	0.00e+00	0	28	0	915406848	72	4833
2026-01-15 11:18:14.60	303.36	29.71	-54.5	-56.8	13.9	0.00e+00	0	28	0	917504000	74	4890
2026-01-15 11:18:15.59	303.62	29.60	-54.7	-57.0	13.7	0.00e+00	0	28	0	919601152	74	5031
2026-01-15 11:18:16.58	303.89	29.49	-54.3	-56.4	14.0	0.00e+00	0	28	0	920649728	74	4669
2026-01-15 11:18:17.57	304.15	29.38	-53.6	-55.5	14.4	0.00e+00	0	28	0	922746880	73	4475
2026-01-15 11:18:18.57	304.42	29.26	-53.2	-55.0	14.5	0.00e+00	0	28	0	924844032	73	4231
2026-01-15 11:18:19.57	304.68	29.15	-53.5	-55.4	14.3	0.00e+00	0	28	0	926941184	72	4666
2026-01-15 11:18:20.56	304.94	29.03	-54.2	-56.3	14.0	0.00e+00	0	28	0	927989760	73	4918
2026-01-15 11:18:21.56	305.20	28.92	-54.8	-57.1	13.7	0.00e+00	0	28	0	930086912	74	5079
2026-01-15 11:18:22.55	305.45	28.81	-55.0	-57.5	13.6	0.00e+00	0	28	0	932184064	75	4988
2026-01-15 11:18:23.54	305.70	28.69	-54.8	-57.2	13.7	0.00e+00	0	28	0	934281216	75	4840
2026-01-15 11:18:24.55	305.96	28.58	-54.0	-56.0	14.2	0.00e+00	0	28	0	936378368	74	4489
2026-01-15 11:18:25.54	306.21	28.46	-53.6	-55.5	14.3	0.00e+00	0	28	0	937426944	73	4466
2026-01-15 11:18:26.54	306.46	28.35	-53.5	-55.4	14.4	0.00e+00	0	28	0	939524096	73	4395
2026-01-15 11:18:27.53	306.70	28.23	-53.6	-55.5	14.3	0.00e+00	0	28	0	941621248	73	4462
2026-01-15 11:18:28.53	306.95	28.12	-53.7	-55.6	14.3	0.00e+00	0	28	0	943718400	73	4533
2026-01-15 11:18:29.53	307.19	28.00	-54.0	-56.0	14.1	0.00e+00	0	28	0	944766976	73	4740
2026-01-15 11:18:30.52	307.43	27.89	-53.5	-55.4	14.4	0.00e+00	0	28	0	946864128	73	4398
2026-01-15 11:18:31.51	307.67	27.77	-52.6	-54.3	14.6	0.00e+00	0	28	0	948961280	71	4344
2026-01-15 11:18:32.52	307.91	27.65	-52.2	-53.8	14.8	0.00e+00	0	28	0	951058432	71	4130
2026-01-15 11:18:33.51	308.15	27.54	-51.9	-53.4	14.8	0.00e+00	0	28	0	953155584	70	4187
2026-01-15 11:18:34.51	308.38	27.42	-52.4	-54.0	14.6	0.00e+00	0	28	0	954204160	70	4465
2026-01-15 11:18:35.50	308.62	27.31	-53.4	-55.3	14.3	0.00e+00	0	28	0	956301312	71	4900
2026-01-15 11:18:36.50	308.85	27.19	-54.3	-56.4	13.9	0.00e+00	0	28	0	958398464	73	4983
2026-01-15 11:18:37.49	309.08	27.08	-54.8	-57.2	13.7	0.00e+00	0	28	0	960495616	74	5132
2026-01-15 11:18:38.48	309.30	26.96	-54.5	-56.8	13.8	0.00e+00	0	28	0	961544192	74	4887
2026-01-15 11:18:39.48	309.53	26.85	-53.9	-55.9	14.2	0.00e+00	0	28	0	963641344	74	4398
2026-01-15 11:18:40.48	309.76	26.73	-53.4	-55.2	14.4	0.00e+00	0	28	0	965738496	73	4339
2026-01-15 11:18:41.47	309.98	26.62	-53.1	-54.8	14.5	0.00e+00	0	28	0	967835648	72	4389
2026-01-15 11:18:42.47	310.20	26.50	-53.2	-55.0	14.4	0.00e+00	0	28	0	969932800	72	4449
2026-01-15 11:18:43.47	310.43	26.39	-53.5	-55.4	14.2	0.00e+00	0	28	0	970981376	72	4670
2026-01-15 11:18:44.46	310.64	26.27	-54.0	-56.1	14.0	0.00e+00	0	28	0	973078528	73	4801
2026-01-15 11:18:45.45	310.86	26.16	-53.9	-56.0	14.1	0.00e+00	0	28	0	975175680	73	4709
2026-01-15 11:18:46.44	311.07	26.04	-53.3	-55.2	14.5	0.00e+00	0	28	0	977272832	73	4317
2026-01-15 11:18:47.43	311.29	25.93	-52.8	-54.6	14.5	0.00e+00	0	28	0	978321408	72	4268
2026-01-15 11:18:48.43	311.50	25.81	-52.4	-54.1	14.7	0.00e+00	0	28	0	980418560	71	4272
2026-01-15 11:18:49.43	311.71	25.70	-52.1	-53.7	14.7	0.00e+00	0	28	0	982515712	70	4324
2026-01-15 11:18:50.43	311.92	25.58	-51.9	-53.5	14.8	0.00e+00	0	28	0	984612864	70	4219
2026-01-15 11:18:51.43	312.13	25.47	-51.9	-53.5	14.8	0.00e+00	0	28	0	986710016	70	4209
2026-01-15 11:18:52.42	312.34	25.35	-52.4	-54.1	14.6	0.00e+00	0	28	0	987758592	70	4496
2026-01-15 11:18:53.41	312.54	25.24	-52.8	-54.6	14.4	0.00e+00	0	28	0	989855744	70	4769
2026-01-15 11:18:54.41	312.75	25.13	-53.2	-55.1	14.3	0.00e+00	0	28	0	991952896	71	4763
2026-01-15 11:18:55.41	312.95	25.01	-53.2	-55.1	14.3	0.00e+00	0	28	0	994050048	71	4765
2026-01-15 11:18:56.40	313.15	24.90	-53.3	-55.1	14.3	0.00e+00	0	28	0	995098624	71	4797
2026-01-15 11:18:57.39	313.35	24.79	-53.0	-54.7	14.4	0.00e+00	0	28	0	997195776	71	4589
2026-01-15 11:18:58.39	313.55	24.67	-53.0	-54.8	14.4	0.00e+00	0	28	0	999292928	71	4616
2026-01-15 11:18:59.37	313.74	24.56	-52.9	-54.7	14.4	0.00e+00	0	28	0	1001390080	71	4565
2026-01-15 11:19:00.37	313.94	24.45	-52.9	-54.6	14.4	0.00e+00	0	28	0	1003487232	71	4535
2026-01-15 11:19:01.38	314.14	24.33	-53.3	-55.2	14.3	0.00e+00	0	28	0	1004535808	71	4846
2026-01-15 11:19:02.37	314.33	24.22	-53.4	-55.3	14.3	0.00e+00	0	28	0	1006632960	72	4651
2026-01-15 11:19:03.36	314.52	24.11	-53.4	-55.3	14.3	0.00e+00	0	28	0	1008730112	72	4631
2026-01-15 11:19:04.35	314.71	23.99	-53.1	-54.9	14.4	0.00e+00	0	28	0	1010827264	72	4429
2026-01-15 11:19:05.35	314.90	23.88	-52.8	-54.5	14.6	0.00e+00	0	28	0	1011875840	72	4229
2026-01-15 11:19:06.35	315.08	23.77	-52.4	-54.0	14.7	0.00e+00	0	28	0	1013972992	71	4230
2026-01-15 11:19:07.35	315.27	23.66	-52.0	-53.6	14.8	0.00e+00	0	28	0	1016070144	70	4260
2026-01-15 11:19:08.35	315.46	23.54	-51.6	-53.2	14.8	0.00e+00	0	28	0	1018167296	69	4299
2026-01-15 11:19:09.34	315.64	23.43	-51.7	-53.2	14.8	0.00e+00	0	28	0	1020264448	69	4321
2026-01-15 11:19:10.35	315.82	23.32	-51.5	-53.0	14.8	0.00e+00	0	28	0	1021313024	69	4238
2026-01-15 11:19:11.34	316.00	23.21	-51.7	-53.2	14.8	0.00e+00	0	28	0	1023410176	69	4332
2026-01-15 11:19:12.33	316.18	23.10	-52.0	-53.6	14.6	0.00e+00	0	28	0	1025507328	69	4516
2026-01-15 11:19:13.31	316.36	22.99	-52.3	-53.9	14.5	0.00e+00	0	28	0	1027604480	69	4697
2026-01-15 11:19:14.31	316.54	22.88	-52.6	-54.3	14.5	0.00e+00	0	28	0	1028653056	70	4645
2026-01-15 11:19:15.30	316.71	22.77	-52.7	-54.4	14.4	0.00e+00	0	28	0	1030750208	70	4689
2026-01-15 11:19:16.31	316.89	22.66	-52.7	-54.5	14.4	0.00e+00	0	28	0	1032847360	70	4710
2026-01-15 11:19:17.30	317.06	22.55	-52.6	-54.3	14.5	0.00e+00	0	28	0	1034944512	70	4636
2026-01-15 11:19:18.29	317.23	22.44	-52.5	-54.2	14.5	0.00e+00	0	28	0	1037041664	70	4586
2026-01-15 11:19:19.28	317.40	22.33	-52.2	-53.8	14.6	0.00e+00	0	28	0	1038090240	70	4387
2026-01-15 11:19:20.28	317.58	22.22	-52.1	-53.7	14.7	0.00e+00	0	28	0	1040187392	70	4317
2026-01-15 11:19:21.28	317.75	22.11	-52.1	-53.7	14.7	0.00e+00	0	28	0	1042284544	70	4321
2026-01-15 11:19:22.28	317.91	22.00	-52.1	-53.7	14.7	0.00e+00	0	28	0	1044381696	70	4313
2026-01-15 11:19:23.27	318.08	21.89	-52.1	-53.8	14.7	0.00e+00	0	28	0	1046478848	70	4355
2026-01-15 11:19:24.27	318.25	21.78	-52.4	-54.1	14.6	0.00e+00	0	28	0	1047527424	70	4497
2026-01-15 11:19:25.26	318.41	21.67	-52.4	-54.1	14.6	0.00e+00	0	28	0	1049624576	70	4527
2026-01-15 11:19:26.26	318.57	21.57	-52.5	-54.2	14.5	0.00e+00	0	28	0	1051721728	70	4577
2026-01-15 11:19:27.26	318.74	21.46	-52.5	-54.3	14.5	0.00e+00	0	28	0	1053818880	70	4613
2026-01-15 11:19:28.25	318.90	21.35	-52.5	-54.3	14.5	0.00e+00	0	28	0	1054867456	70	4610
2026-01-15 11:19:29.26	319.06	21.24	-52.6	-54.4	14.5	0.00e+00	0	28	0	1056964608	70	4665
2026-01-15 11:19:30.25	319.22	21.13	-52.4	-54.1	14.6	0.00e+00	0	28	0	1059061760	70	4514
2026-01-15 11:19:31.24	319.37	21.03	-52.4	-54.0	14.6	0.00e+00	0	28	0	1061158912	70	4493
2026-01-15 11:19:32.22	319.53	20.92	-52.3	-53.9	14.6	0.00e+00	0	28	0	1063256064	70	4429
2026-01-15 11:19:33.22	319.69	20.82	-52.2	-53.9	14.6	0.00e+00	0	28	0	1064304640	70	4418
2026-01-15 11:19:34.21	319.84	20.71	-52.1	-53.8	14.6	0.00e+00	0	28	0	1066401792	70	4351
2026-01-15 11:19:35.21	319.99	20.60	-52.3	-53.9	14.6	0.00e+00	0	28	0	1068498944	70	4426
2026-01-15 11:19:36.21	320.15	20.50	-52.5	-54.2	14.5	0.00e+00	0	28	0	1070596096	70	4560
2026-01-15 11:19:37.20	320.30	20.39	-52.5	-54.2	14.5	0.00e+00	0	28	0	1071644672	70	4593
2026-01-15 11:19:38.20	320.45	20.29	-52.7	-54.4	14.4	0.00e+00	0	28	0	1073741824	70	4698
2026-01-15 11:19:39.19	320.60	20.18	-52.9	-54.7	14.3	0.00e+00	0	28	0	1075838976	70	4835
2026-01-15 11:19:40.19	320.75	20.08	-52.7	-54.5	14.4	0.00e+00	0	28	0	1077936128	70	4729
2026-01-15 11:19:41.19	320.90	19.97	-52.7	-54.5	14.4	0.00e+00	0	28	0	1080033280	70	4729
2026-01-15 11:19:42.19	321.04	19.87	-52.7	-54.5	14.4	0.00e+00	0	28	0	1081081856	70	4715
2026-01-15 11:19:43.17	321.19	19.77	-52.4	-54.1	14.5	0.00e+00	0	28	0	1083179008	70	4524
2026-01-15 11:19:44.16	321.33	19.66	-52.4	-54.1	14.5	0.00e+00	0	28	0	1085276160	70	4508
2026-01-15 11:19:45.16	321.48	19.56	-52.1	-53.7	14.7	0.00e+00	0	28	0	1087373312	70	4329
2026-01-15 11:19:46.16	321.62	19.46	-52.1	-53.7	14.7	0.00e+00	0	28	0	1088421888	70	4323
2026-01-15 11:19:47.15	321.76	19.35	-52.1	-53.7	14.7	0.00e+00	0	28	0	1090519040	70	4313
2026-01-15 11:19:48.15	321.90	19.25	-52.1	-53.7	14.7	0.00e+00	0	28	0	1092616192	70	4301
2026-01-15 11:19:49.15	322.04	19.15	-52.1	-53.7	14.7	0.00e+00	0	28	0	1094713344	70	4313
2026-01-15 11:19:50.14	322.18	19.05	-52.2	-53.8	14.6	0.00e+00	0	28	0	1096810496	70	4383
2026-01-15 11:19:51.15	322.32	18.94	-52.3	-54.0	14.6	0.00e+00	0	28	0	1097859072	70	4461
2026-01-15 11:19:52.14	322.46	18.84	-52.7	-54.4	14.4	0.00e+00	0	28	0	1099956224	70	4693
2026-01-15 11:19:53.14	322.60	18.74	-52.8	-54.6	14.4	0.00e+00	0	28	0	1102053376	70	4769
2026-01-15 11:19:54.13	322.73	18.64	-53.3	-55.2	14.2	0.00e+00	0	28	0	1104150528	71	4847
2026-01-15 11:19:55.13	322.87	18.54	-53.7	-55.7	14.1	0.00e+00	0	28	0	1106247680	72	4841
2026-01-15 11:19:56.12	323.00	18.44	-54.0	-56.2	13.9	0.00e+00	0	28	0	1107296256	73	4830
2026-01-15 11:19:57.11	323.13	18.34	-54.3	-56.5	13.8	0.00e+00	0	28	0	1109393408	73	5035
2026-01-15 11:19:58.10	323.26	18.24	-54.5	-56.8	13.7	0.00e+00	0	28	0	1111490560	74	4908
2026-01-15 11:19:59.09	323.40	18.14	-54.8	-57.3	13.5	0.00e+00	0	28	0	1113587712	74	5196
2026-01-15 11:20:00.08	323.53	18.04	-54.7	-57.1	13.7	0.00e+00	0	28	0	1114636288	75	4804
2026-01-15 11:20:01.08	323.66	17.94	-54.7	-57.1	13.6	0.00e+00	0	28	0	1116733440	75	4809
2026-01-15 11:20:02.07	323.78	17.84	-54.6	-57.0	13.7	0.00e+00	0	28	0	1118830592	75	4741
2026-01-15 11:20:03.06	323.91	17.75	-54.5	-56.8	13.8	0.00e+00	0	28	0	1120927744	75	4621
2026-01-15 11:20:04.05	324.04	17.65	-54.3	-56.5	13.9	0.00e+00	0	28	0	1121976320	75	4492
2026-01-15 11:20:05.04	324.16	17.55	-54.1	-56.3	14.0	0.00e+00	0	28	0	1124073472	74	4608
2026-01-15 11:20:06.04	324.29	17.45	-53.5	-55.5	14.3	0.00e+00	0	28	0	1126170624	73	4444
2026-01-15 11:20:07.04	324.42	17.35	-53.7	-55.7	14.1	0.00e+00	0	28	0	1128267776	73	4561
2026-01-15 11:20:08.04	324.54	17.26	-53.4	-55.3	14.3	0.00e+00	0	28	0	1130364928	73	4379
2026-01-15 11:20:09.04	324.67	17.16	-53.4	-55.3	14.3	0.00e+00	0	28	0	1131413504	73	4372
2026-01-15 11:20:10.02	324.79	17.06	-53.6	-55.6	14.2	0.00e+00	0	28	0	1133510656	73	4533
2026-01-15 11:20:11.01	324.91	16.97	-53.6	-55.6	14.2	0.00e+00	0	28	0	1135607808	73	4540
2026-01-15 11:20:12.00	325.03	16.87	-53.8	-55.9	14.1	0.00e+00	0	28	0	1137704960	73	4686
2026-01-15 11:20:12.99	325.15	16.78	-53.9	-56.0	14.0	0.00e+00	0	28	0	1138753536	73	4749
2026-01-15 11:20:13.99	325.27	16.68	-53.9	-56.0	14.0	0.00e+00	0	28	0	1140850688	73	4734
2026-01-15 11:20:14.99	325.39	16.58	-54.1	-56.4	13.8	0.00e+00	0	28	0	1142947840	73	4936
2026-01-15 11:20:15.99	325.51	16.49	-53.9	-56.1	14.0	0.00e+00	0	28	0	1145044992	73	4793
2026-01-15 11:20:16.99	325.63	16.39	-53.9	-56.1	14.0	0.00e+00	0	28	0	1147142144	73	4772
2026-01-15 11:20:17.98	325.74	16.30	-54.0	-56.2	13.9	0.00e+00	0	28	0	1148190720	73	4829
2026-01-15 11:20:18.97	325.86	16.21	-53.9	-56.0	14.0	0.00e+00	0	28	0	1150287872	73	4757
2026-01-15 11:20:19.97	325.97	16.11	-53.7	-55.8	14.1	0.00e+00	0	28	0	1152385024	73	4636
2026-01-15 11:20:20.96	326.09	16.02	-53.5	-55.6	14.2	0.00e+00	0	28	0	1154482176	73	4495
2026-01-15 11:20:21.96	326.20	15.92	-53.3	-55.3	14.3	0.00e+00	0	28	0	1155530752	73	4360
2026-01-15 11:20:22.94	326.31	15.83	-53.5	-55.5	14.3	0.00e+00	0	28	0	1157627904	73	4447
2026-01-15 11:20:23.93	326.43	15.74	-53.4	-55.3	14.3	0.00e+00	0	28	0	1159725056	73	4370
2026-01-15 11:20:24.93	326.54	15.65	-53.4	-55.4	14.3	0.00e+00	0	28	0	1161822208	73	4411
2026-01-15 11:20:25.93	326.65	15.55	-53.4	-55.4	14.3	0.00e+00	0	28	0	1163919360	73	4405
2026-01-15 11:20:26.92	326.76	15.46	-53.5	-55.5	14.2	0.00e+00	0	28	0	1164967936	73	4481
2026-01-15 11:20:27.92	326.87	15.37	-53.8	-55.9	14.0	0.00e+00	0	28	0	1167065088	73	4663
2026-01-15 11:20:28.92	326.98	15.28	-53.8	-55.9	14.0	0.00e+00	0	28	0	1169162240	73	4699
2026-01-15 11:20:29.91	327.09	15.18	-53.6	-55.6	14.1	0.00e+00	0	28	0	1171259392	73	4536
2026-01-15 11:20:30.90	327.20	15.09	-53.9	-56.0	14.0	0.00e+00	0	28	0	1172307968	73	4743
2026-01-15 11:20:31.89	327.31	15.00	-53.6	-55.7	14.1	0.00e+00	0	28	0	1174405120	73	4550
2026-01-15 11:20:32.89	327.41	14.91	-53.8	-55.9	14.0	0.00e+00	0	28	0	1176502272	73	4665
2026-01-15 11:20:33.89	327.52	14.82	-53.5	-55.6	14.2	0.00e+00	0	28	0	1178599424	73	4508
2026-01-15 11:20:34.89	327.63	14.73	-53.3	-55.3	14.3	0.00e+00	0	28	0	1180696576	73	4352
2026-01-15 11:20:35.89	327.73	14.64	-53.3	-55.3	14.3	0.00e+00	0	28	0	1181745152	73	4359
2026-01-15 11:20:36.89	327.84	14.55	-53.0	-54.9	14.4	0.00e+00	0	28	0	1183842304	72	4399
2026-01-15 11:20:37.88	327.94	14.46	-52.8	-54.6	14.5	0.00e+00	0	28	0	1185939456	72	4290
2026-01-15 11:20:38.88	328.04	14.37	-53.0	-54.9	14.4	0.00e+00	0	28	0	1188036608	72	4394
2026-01-15 11:20:39.87	328.15	14.28	-52.9	-54.7	14.4	0.00e+00	0	28	0	1190133760	72	4317
2026-01-15 11:20:40.87	328.25	14.19	-53.0	-54.9	14.4	0.00e+00	0	28	0	1191182336	72	4420
2026-01-15 11:20:41.87	328.35	14.10	-53.1	-54.9	14.3	0.00e+00	0	28	0	1193279488	72	4439
2026-01-15 11:20:42.86	328.45	14.02	-52.9	-54.7	14.4	0.00e+00	0	28	0	1195376640	72	4336
2026-01-15 11:20:43.86	328.55	13.93	-53.2	-55.1	14.3	0.00e+00	0	28	0	1197473792	72	4537
2026-01-15 11:20:44.86	328.65	13.84	-53.2	-55.1	14.3	0.00e+00	0	28	0	1198522368	72	4527
2026-01-15 11:20:45.86	328.75	13.75	-53.2	-55.2	14.2	0.00e+00	0	28	0	1200619520	72	4573
2026-01-15 11:20:46.85	328.85	13.66	-53.5	-55.6	14.1	0.00e+00	0	28	0	1202716672	72	4780
2026-01-15 11:20:47.85	328.95	13.58	-53.6	-55.7	14.0	0.00e+00	0	28	0	1204813824	72	4828
2026-01-15 11:20:48.84	329.05	13.49	-53.5	-55.6	14.1	0.00e+00	0	28	0	1206910976	72	4777
2026-01-15 11:20:49.83	329.14	13.40	-53.6	-55.7	14.0	0.00e+00	0	28	0	1207959552	72	4848
2026-01-15 11:20:50.82	329.24	13.32	-53.4	-55.4	14.1	0.00e+00	0	28	0	1210056704	72	4689
2026-01-15 11:20:51.81	329.33	13.23	-53.7	-55.9	13.9	0.00e+00	0	28	0	1212153856	72	4934
2026-01-15 11:20:52.81	329.43	13.15	-53.6	-55.7	14.0	0.00e+00	0	28	0	1214251008	72	4839
2026-01-15 11:20:53.80	329.52	13.06	-53.5	-55.5	14.1	0.00e+00	0	28	0	1215299584	72	4754
2026-01-15 11:20:54.80	329.62	12.97	-53.5	-55.6	14.1	0.00e+00	0	28	0	1217396736	72	4791
2026-01-15 11:20:55.80	329.71	12.89	-53.5	-55.6	14.1	0.00e+00	0	28	0	1219493888	72	4778
2026-01-15 11:20:56.80	329.81	12.80	-53.5	-55.5	14.1	0.00e+00	0	28	0	1221591040	72	4750
