passes_logs/2026/01/15/R3.2S_Murmansk/R3.2S_Murmansk__20260115_120754_FENGYUN_3D_rec.log

#Pass ID: 20260115_120754_FENGYUN 3D
#Satellite: FENGYUN 3D
#Configuration: FENGYUN 3D
#almurnet v.1.7.20251203
#Start time: 2026-01-15 12:07:57

#Version: 2.2.20231116
#Station: R3.2S_Murmansk
#Location: 33.079688 lon 68.888172 lat
#TLE: 1 43010U 17072A   26014.65117763 -.00000217  00000+0 -80772-4 0  9993
#TLE: 2 43010  98.9933 346.4618 0002330 108.4699 251.6730 14.19694700423204

#Time	Az	El	Level	Level2	SNR	BER	BlckErr	Temp	State	Recorded	gain1	gain2
2026-01-15 12:07:57.05	165.37	2.15	-58.6	-71.5	3.8	8.45e-01	0	26	0	0	83	15812
2026-01-15 12:07:58.04	165.39	2.21	-58.5	-71.2	3.8	8.46e-01	0	26	104	0	82	16206
2026-01-15 12:07:59.04	165.41	2.28	-58.5	-71.0	3.8	8.46e-01	0	26	104	0	82	15886
2026-01-15 12:08:00.04	165.42	2.34	-58.5	-71.1	3.8	8.45e-01	0	26	104	0	82	16044
2026-01-15 12:08:01.03	165.44	2.41	-58.5	-70.8	3.8	8.45e-01	0	26	104	0	82	15535
2026-01-15 12:08:02.03	165.46	2.47	-58.5	-70.9	3.8	8.46e-01	0	26	104	0	82	15618
2026-01-15 12:08:03.02	165.48	2.53	-58.5	-70.8	3.8	8.46e-01	0	26	104	0	82	15487
2026-01-15 12:08:04.02	165.50	2.60	-58.5	-70.9	3.8	8.45e-01	0	26	104	0	82	15743
2026-01-15 12:08:05.02	165.52	2.66	-58.5	-71.0	3.8	8.44e-01	0	26	104	0	82	15881
2026-01-15 12:08:06.02	165.54	2.73	-58.5	-70.7	3.8	8.45e-01	0	27	104	0	82	15320
2026-01-15 12:08:07.01	165.56	2.79	-58.5	-70.5	3.8	8.46e-01	0	26	104	0	82	14956
2026-01-15 12:08:08.01	165.58	2.86	-58.5	-70.8	3.8	8.46e-01	0	26	104	0	82	15451
2026-01-15 12:08:09.01	165.60	2.93	-58.5	-70.9	3.8	8.44e-01	0	26	104	0	82	15738
2026-01-15 12:08:10.01	165.62	2.99	-58.5	-70.5	3.8	8.44e-01	0	26	104	0	82	14903
2026-01-15 12:08:11.00	165.64	3.06	-58.5	-70.5	3.8	8.44e-01	0	27	104	0	82	14959
2026-01-15 12:08:12.00	165.66	3.12	-58.5	-70.9	3.8	8.45e-01	0	27	104	0	82	15688
2026-01-15 12:08:12.99	165.68	3.19	-58.6	-71.0	3.8	8.46e-01	0	26	104	0	82	15922
2026-01-15 12:08:13.99	165.70	3.25	-58.6	-71.3	3.8	8.45e-01	0	27	104	0	82	16395
2026-01-15 12:08:14.99	165.72	3.32	-58.6	-71.6	3.8	8.46e-01	0	27	104	0	82	16974
2026-01-15 12:08:15.98	165.74	3.39	-58.6	-71.6	3.8	8.45e-01	0	27	104	0	82	16930
2026-01-15 12:08:16.98	165.77	3.45	-58.5	-71.1	3.8	8.45e-01	0	27	104	0	82	15991
2026-01-15 12:08:17.97	165.79	3.52	-58.4	-69.6	3.8	8.45e-01	0	27	104	0	82	13515
2026-01-15 12:08:18.97	165.81	3.59	-58.3	-67.9	4.2	8.38e-01	0	27	0	0	82	11090
2026-01-15 12:08:19.96	165.83	3.65	-58.1	-66.5	4.8	8.21e-01	0	27	0	0	82	9391
2026-01-15 12:08:20.95	165.85	3.72	-57.8	-65.3	5.3	7.38e-01	0	27	0	0	82	8237
2026-01-15 12:08:21.94	165.87	3.79	-57.5	-64.0	6.2	3.64e-01	0	27	0	3145728	81	7488
2026-01-15 12:08:22.93	165.89	3.86	-57.5	-64.0	6.2	2.39e-01	0	27	0	9437184	81	7483
2026-01-15 12:08:23.93	165.91	3.92	-57.1	-62.7	7.2	1.03e-01	0	27	0	14680064	80	6802
2026-01-15 12:08:24.93	165.93	3.99	-56.7	-61.6	8.1	5.51e-02	0	27	0	19922944	80	5996
2026-01-15 12:08:25.92	165.95	4.06	-56.6	-61.4	8.2	2.21e-02	0	27	0	26214400	79	6219
2026-01-15 12:08:26.92	165.98	4.13	-56.3	-60.6	8.9	2.16e-02	0	27	0	31457280	79	5683
2026-01-15 12:08:27.91	166.00	4.20	-56.1	-60.2	9.3	8.52e-03	0	27	0	36700160	78	5725
2026-01-15 12:08:28.91	166.02	4.27	-55.4	-58.9	10.3	1.64e-03	0	27	0	42991616	77	5255
2026-01-15 12:08:29.89	166.04	4.33	-54.8	-57.8	11.1	2.71e-04	0	27	0	48234496	76	4907
2026-01-15 12:08:30.89	166.06	4.40	-54.5	-57.5	11.2	1.28e-04	0	27	0	53477376	75	5007
2026-01-15 12:08:31.88	166.08	4.47	-53.7	-56.3	12.1	1.10e-06	0	27	0	59768832	74	4609
2026-01-15 12:08:32.87	166.11	4.54	-53.2	-55.5	12.5	0.00e+00	0	27	0	65011712	72	4712
2026-01-15 12:08:33.87	166.13	4.61	-53.0	-55.2	12.6	0.00e+00	0	27	0	70254592	72	4583
2026-01-15 12:08:34.87	166.15	4.68	-52.3	-54.3	13.1	0.00e+00	0	27	0	76546048	71	4388
2026-01-15 12:08:35.86	166.17	4.75	-52.0	-53.9	13.3	0.00e+00	0	27	0	81788928	70	4441
2026-01-15 12:08:36.86	166.19	4.82	-51.6	-53.4	13.5	0.00e+00	0	27	0	87031808	69	4433
2026-01-15 12:08:37.86	166.22	4.89	-51.7	-53.6	13.4	0.00e+00	0	27	0	93323264	69	4503
2026-01-15 12:08:38.85	166.24	4.96	-51.5	-53.3	13.5	0.00e+00	0	27	0	98566144	69	4380
2026-01-15 12:08:39.85	166.26	5.03	-51.4	-53.3	13.6	0.00e+00	0	27	0	103809024	69	4347
2026-01-15 12:08:40.85	166.28	5.10	-52.7	-54.9	12.7	0.00e+00	0	27	0	110100480	70	4959
2026-01-15 12:08:41.84	166.31	5.17	-53.5	-55.9	12.3	0.00e+00	0	27	0	115343360	72	4935
2026-01-15 12:08:42.83	166.33	5.24	-54.2	-57.0	11.5	0.00e+00	0	27	0	120586240	73	5339
2026-01-15 12:08:43.83	166.35	5.31	-56.4	-60.9	8.6	1.76e-03	0	27	0	126877696	77	6613
2026-01-15 12:08:44.82	166.38	5.39	-50.5	-52.1	14.0	1.48e-05	0	27	0	132120576	67	4281
2026-01-15 12:08:45.81	166.40	5.46	-50.5	-52.2	13.9	0.00e+00	0	27	0	137363456	67	4299
2026-01-15 12:08:46.81	166.42	5.53	-50.2	-51.8	14.1	0.00e+00	0	27	0	143654912	67	4108
2026-01-15 12:08:47.80	166.45	5.60	-50.4	-52.0	13.9	0.00e+00	0	27	0	148897792	66	4491
2026-01-15 12:08:48.80	166.47	5.67	-50.3	-51.9	14.0	0.00e+00	0	27	0	154140672	66	4410
2026-01-15 12:08:49.80	166.49	5.75	-50.5	-52.2	13.8	0.00e+00	0	27	0	160432128	66	4555
2026-01-15 12:08:50.79	166.52	5.82	-50.1	-51.7	14.1	0.00e+00	0	27	0	165675008	66	4306
2026-01-15 12:08:51.80	166.54	5.89	-50.1	-51.8	14.1	0.00e+00	0	27	0	170917888	66	4342
2026-01-15 12:08:52.79	166.56	5.97	-50.0	-51.6	14.1	0.00e+00	0	27	0	177209344	66	4269
2026-01-15 12:08:53.78	166.59	6.04	-50.0	-51.6	14.2	0.00e+00	0	27	0	182452224	66	4249
2026-01-15 12:08:54.77	166.61	6.11	-50.0	-51.6	14.1	0.00e+00	0	27	0	187695104	66	4248
2026-01-15 12:08:55.76	166.64	6.18	-50.1	-51.6	14.1	0.00e+00	0	27	0	193986560	66	4276
2026-01-15 12:08:56.75	166.66	6.26	-49.8	-51.3	14.3	0.00e+00	0	27	0	199229440	66	4144
2026-01-15 12:08:57.74	166.68	6.33	-50.1	-51.6	14.1	0.00e+00	0	27	0	204472320	66	4276
2026-01-15 12:08:58.73	166.71	6.41	-50.1	-51.6	14.1	0.00e+00	0	27	0	210763776	66	4276
2026-01-15 12:08:59.72	166.73	6.48	-50.1	-51.7	14.1	0.00e+00	0	27	0	216006656	66	4294
2026-01-15 12:09:00.72	166.76	6.55	-49.9	-51.5	14.2	0.00e+00	0	27	0	221249536	66	4197
2026-01-15 12:09:01.71	166.78	6.63	-49.8	-51.4	14.3	0.00e+00	0	27	0	227540992	66	4162
2026-01-15 12:09:02.71	166.81	6.70	-50.0	-51.6	14.2	0.00e+00	0	27	0	232783872	66	4244
2026-01-15 12:09:03.71	166.83	6.78	-49.8	-51.2	14.3	0.00e+00	0	27	0	238026752	66	4096
2026-01-15 12:09:04.70	166.86	6.86	-50.0	-51.5	14.2	0.00e+00	0	27	0	244318208	66	4227
2026-01-15 12:09:05.70	166.88	6.93	-50.0	-51.5	14.2	0.00e+00	0	27	0	249561088	66	4239
2026-01-15 12:09:06.69	166.91	7.01	-49.8	-51.4	14.3	0.00e+00	0	27	0	254803968	66	4163
2026-01-15 12:09:07.68	166.93	7.08	-49.9	-51.4	14.3	0.00e+00	0	27	0	261095424	66	4171
2026-01-15 12:09:08.68	166.96	7.16	-49.7	-51.2	14.4	0.00e+00	0	27	0	266338304	66	4089
2026-01-15 12:09:09.67	166.98	7.24	-49.8	-51.3	14.3	0.00e+00	0	27	0	271581184	66	4125
2026-01-15 12:09:10.66	167.01	7.31	-49.7	-51.2	14.4	0.00e+00	0	27	0	277872640	66	4085
2026-01-15 12:09:11.65	167.04	7.39	-49.7	-51.2	14.4	0.00e+00	0	28	0	283115520	66	4088
2026-01-15 12:09:12.64	167.06	7.47	-49.7	-51.2	14.4	0.00e+00	0	27	0	288358400	66	4064
2026-01-15 12:09:13.64	167.09	7.54	-50.0	-51.5	14.3	0.00e+00	0	27	0	294649856	66	4214
2026-01-15 12:09:14.63	167.11	7.62	-49.7	-51.2	14.4	0.00e+00	0	27	0	299892736	66	4081
2026-01-15 12:09:15.62	167.14	7.70	-49.9	-51.5	14.3	0.00e+00	0	28	0	305135616	66	4194
2026-01-15 12:09:16.62	167.17	7.78	-50.0	-51.5	14.2	0.00e+00	0	28	0	311427072	66	4229
2026-01-15 12:09:17.61	167.19	7.86	-50.1	-51.7	14.2	0.00e+00	0	28	0	316669952	66	4307
2026-01-15 12:09:18.61	167.22	7.94	-49.6	-51.1	14.3	0.00e+00	0	28	0	321912832	65	4257
2026-01-15 12:09:19.61	167.25	8.01	-49.6	-51.1	14.3	0.00e+00	0	28	0	328204288	65	4246
2026-01-15 12:09:20.61	167.27	8.09	-49.9	-51.4	14.2	0.00e+00	0	28	0	333447168	65	4441
2026-01-15 12:09:21.60	167.30	8.17	-49.9	-51.4	14.2	0.00e+00	0	28	0	338690048	65	4421
2026-01-15 12:09:22.59	167.33	8.25	-50.1	-51.7	14.1	0.00e+00	0	28	0	344981504	65	4547
2026-01-15 12:09:23.59	167.36	8.33	-50.0	-51.5	14.1	0.00e+00	0	28	0	350224384	65	4491
2026-01-15 12:09:24.58	167.38	8.41	-49.5	-51.0	14.4	0.00e+00	0	27	0	355467264	65	4200
2026-01-15 12:09:25.58	167.41	8.49	-49.8	-51.3	14.3	0.00e+00	0	27	0	361758720	65	4348
2026-01-15 12:09:26.58	167.44	8.57	-49.5	-51.0	14.4	0.00e+00	0	28	0	367001600	65	4217
2026-01-15 12:09:27.58	167.47	8.66	-49.5	-51.0	14.4	0.00e+00	0	28	0	372244480	65	4209
2026-01-15 12:09:28.58	167.50	8.74	-49.4	-50.9	14.4	0.00e+00	0	28	0	378535936	65	4169
2026-01-15 12:09:29.56	167.52	8.82	-49.5	-50.9	14.4	0.00e+00	0	28	0	383778816	65	4173
2026-01-15 12:09:30.55	167.55	8.90	-49.4	-50.8	14.5	0.00e+00	0	28	0	389021696	65	4145
2026-01-15 12:09:31.55	167.58	8.98	-49.4	-50.8	14.5	0.00e+00	0	28	0	395313152	65	4140
2026-01-15 12:09:32.54	167.61	9.06	-49.5	-50.9	14.4	0.00e+00	0	27	0	400556032	65	4179
2026-01-15 12:09:33.54	167.64	9.15	-49.3	-50.8	14.5	0.00e+00	0	28	0	405798912	65	4108
2026-01-15 12:09:34.54	167.67	9.23	-49.3	-50.8	14.5	0.00e+00	0	28	0	412090368	65	4104
2026-01-15 12:09:35.54	167.70	9.31	-49.4	-50.8	14.5	0.00e+00	0	28	0	417333248	65	4142
2026-01-15 12:09:36.53	167.72	9.40	-49.2	-50.7	14.6	0.00e+00	0	28	0	422576128	65	4061
2026-01-15 12:09:37.53	167.75	9.48	-49.3	-50.7	14.5	0.00e+00	0	28	0	428867584	65	4082
2026-01-15 12:09:38.53	167.78	9.57	-49.2	-50.6	14.6	0.00e+00	0	28	0	434110464	65	4034
2026-01-15 12:09:39.53	167.81	9.65	-49.2	-50.6	14.6	0.00e+00	0	28	0	439353344	65	4048
2026-01-15 12:09:40.51	167.84	9.73	-49.3	-50.7	14.5	0.00e+00	0	28	0	445644800	65	4085
2026-01-15 12:09:41.51	167.87	9.82	-49.2	-50.7	14.6	0.00e+00	0	28	0	450887680	65	4068
2026-01-15 12:09:42.50	167.90	9.90	-49.4	-50.9	14.5	0.00e+00	0	28	0	457179136	65	4166
2026-01-15 12:09:43.51	167.93	9.99	-49.5	-51.0	14.4	0.00e+00	0	28	0	462422016	65	4201
2026-01-15 12:09:44.52	167.96	10.08	-49.4	-50.9	14.5	0.00e+00	0	27	0	467664896	65	4148
2026-01-15 12:09:45.52	168.00	10.16	-49.2	-50.6	14.6	0.00e+00	0	28	0	473956352	65	4038
2026-01-15 12:09:46.51	168.03	10.25	-49.2	-50.7	14.6	0.00e+00	0	27	0	479199232	65	4059
2026-01-15 12:09:47.51	168.06	10.34	-49.3	-50.8	14.5	0.00e+00	0	28	0	484442112	65	4101
2026-01-15 12:09:48.49	168.09	10.42	-49.3	-50.8	14.5	0.00e+00	0	27	0	489684992	65	4111
2026-01-15 12:09:49.49	168.12	10.51	-49.4	-50.9	14.5	0.00e+00	0	27	0	495976448	65	4147
2026-01-15 12:09:50.49	168.15	10.60	-49.2	-50.7	14.6	0.00e+00	0	28	0	501219328	65	4064
2026-01-15 12:09:51.48	168.18	10.68	-49.3	-50.8	14.5	0.00e+00	0	28	0	507510784	65	4104
2026-01-15 12:09:52.47	168.21	10.77	-49.3	-50.8	14.5	0.00e+00	0	28	0	512753664	65	4115
2026-01-15 12:09:53.47	168.25	10.86	-49.3	-50.8	14.6	0.00e+00	0	28	0	517996544	65	4100
2026-01-15 12:09:54.47	168.28	10.95	-49.3	-50.8	14.5	0.00e+00	0	28	0	524288000	65	4120
2026-01-15 12:09:55.46	168.31	11.04	-49.3	-50.8	14.6	0.00e+00	0	28	0	529530880	65	4101
2026-01-15 12:09:56.46	168.34	11.13	-49.3	-50.7	14.6	0.00e+00	0	28	0	534773760	65	4086
2026-01-15 12:09:57.45	168.37	11.22	-49.3	-50.7	14.6	0.00e+00	0	28	0	541065216	65	4094
2026-01-15 12:09:58.46	168.41	11.31	-49.2	-50.7	14.6	0.00e+00	0	28	0	546308096	65	4054
2026-01-15 12:09:59.46	168.44	11.40	-49.3	-50.8	14.5	0.00e+00	0	28	0	551550976	65	4111
2026-01-15 12:10:00.45	168.47	11.49	-49.4	-50.9	14.5	0.00e+00	0	28	0	557842432	65	4165
2026-01-15 12:10:01.45	168.51	11.58	-49.3	-50.8	14.5	0.00e+00	0	28	0	563085312	65	4139
2026-01-15 12:10:02.45	168.54	11.67	-49.3	-50.7	14.6	0.00e+00	0	27	0	569376768	65	4087
2026-01-15 12:10:03.45	168.58	11.76	-49.2	-50.7	14.6	0.00e+00	0	28	0	574619648	65	4065
2026-01-15 12:10:04.44	168.61	11.86	-49.2	-50.7	14.6	0.00e+00	0	28	0	579862528	65	4073
2026-01-15 12:10:05.44	168.64	11.95	-49.2	-50.7	14.6	0.00e+00	0	28	0	585105408	65	4074
2026-01-15 12:10:06.43	168.68	12.04	-49.1	-50.6	14.5	0.00e+00	0	28	0	591396864	64	4246
2026-01-15 12:10:07.43	168.71	12.13	-49.2	-50.6	14.5	0.00e+00	0	28	0	596639744	64	4281
2026-01-15 12:10:08.43	168.75	12.23	-49.1	-50.5	14.5	0.00e+00	0	28	0	601882624	64	4231
2026-01-15 12:10:09.43	168.78	12.32	-49.0	-50.4	14.6	0.00e+00	0	28	0	608174080	64	4175
2026-01-15 12:10:10.42	168.82	12.42	-49.0	-50.4	14.6	0.00e+00	0	28	0	613416960	64	4165
2026-01-15 12:10:11.42	168.85	12.51	-49.0	-50.4	14.6	0.00e+00	0	28	0	619708416	64	4170
2026-01-15 12:10:12.41	168.89	12.61	-49.0	-50.4	14.6	0.00e+00	0	28	0	624951296	64	4163
2026-01-15 12:10:13.40	168.92	12.70	-48.9	-50.3	14.7	0.00e+00	0	28	0	630194176	64	4131
2026-01-15 12:10:14.39	168.96	12.79	-49.0	-50.4	14.6	0.00e+00	0	28	0	635437056	64	4179
2026-01-15 12:10:15.39	168.99	12.89	-48.8	-50.2	14.7	0.00e+00	0	28	0	641728512	64	4091
2026-01-15 12:10:16.37	169.03	12.99	-48.8	-50.2	14.7	0.00e+00	0	28	0	646971392	64	4071
2026-01-15 12:10:17.36	169.07	13.08	-48.8	-50.2	14.7	0.00e+00	0	28	0	653262848	64	4056
2026-01-15 12:10:18.36	169.10	13.18	-48.8	-50.2	14.6	0.00e+00	0	28	0	658505728	63	4316
2026-01-15 12:10:19.35	169.14	13.28	-48.7	-50.1	14.6	0.00e+00	0	28	0	663748608	63	4282
2026-01-15 12:10:20.35	169.18	13.37	-48.8	-50.2	14.6	0.00e+00	0	28	0	670040064	63	4316
2026-01-15 12:10:21.35	169.22	13.47	-48.7	-50.1	14.7	0.00e+00	0	28	0	675282944	63	4254
2026-01-15 12:10:22.35	169.25	13.57	-48.5	-49.9	14.7	0.00e+00	0	28	0	680525824	63	4174
2026-01-15 12:10:23.35	169.29	13.67	-48.4	-49.7	14.8	0.00e+00	0	28	0	686817280	63	4084
2026-01-15 12:10:24.34	169.33	13.77	-48.4	-49.8	14.8	0.00e+00	0	28	0	692060160	63	4115
2026-01-15 12:10:25.33	169.37	13.87	-48.3	-49.7	14.8	0.00e+00	0	28	0	697303040	63	4056
2026-01-15 12:10:26.33	169.41	13.97	-48.5	-49.8	14.7	0.00e+00	0	28	0	703594496	63	4140
2026-01-15 12:10:27.32	169.44	14.07	-48.4	-49.7	14.8	0.00e+00	0	28	0	708837376	63	4071
2026-01-15 12:10:28.33	169.48	14.17	-48.4	-49.7	14.8	0.00e+00	0	28	0	714080256	63	4074
2026-01-15 12:10:29.31	169.52	14.27	-48.3	-49.6	14.8	0.00e+00	0	28	0	720371712	63	4030
2026-01-15 12:10:30.29	169.56	14.37	-48.3	-49.6	14.8	0.00e+00	0	28	0	725614592	63	4026
2026-01-15 12:10:31.28	169.60	14.47	-48.3	-49.6	14.8	0.00e+00	0	28	0	730857472	63	4035
2026-01-15 12:10:32.28	169.64	14.58	-48.2	-49.6	14.9	0.00e+00	0	28	0	736100352	63	4006
2026-01-15 12:10:33.27	169.68	14.68	-48.2	-49.5	14.9	0.00e+00	0	28	0	742391808	63	3990
2026-01-15 12:10:34.26	169.72	14.78	-48.0	-49.3	14.8	0.00e+00	0	28	0	747634688	62	4135
2026-01-15 12:10:35.26	169.76	14.89	-48.0	-49.3	14.8	0.00e+00	0	28	0	753926144	62	4131
2026-01-15 12:10:36.25	169.80	14.99	-47.9	-49.2	14.9	0.00e+00	0	28	0	759169024	62	4075
2026-01-15 12:10:37.24	169.84	15.10	-48.0	-49.3	14.9	0.00e+00	0	28	0	764411904	62	4104
2026-01-15 12:10:38.23	169.89	15.20	-47.9	-49.2	14.9	0.00e+00	0	28	0	769654784	62	4071
2026-01-15 12:10:39.24	169.93	15.31	-47.9	-49.2	14.9	0.00e+00	0	28	0	775946240	62	4076
2026-01-15 12:10:40.24	169.97	15.41	-47.9	-49.2	14.9	0.00e+00	0	28	0	781189120	62	4080
2026-01-15 12:10:41.24	170.01	15.52	-47.8	-49.1	14.9	0.00e+00	0	28	0	786432000	62	4023
2026-01-15 12:10:42.23	170.05	15.63	-47.7	-49.0	15.0	0.00e+00	0	28	0	792723456	62	3980
2026-01-15 12:10:43.22	170.10	15.73	-47.8	-49.0	14.9	0.00e+00	0	28	0	797966336	62	3992
2026-01-15 12:10:44.22	170.14	15.84	-47.7	-49.0	15.0	0.00e+00	0	28	0	804257792	62	3966
2026-01-15 12:10:45.21	170.18	15.95	-47.7	-49.0	15.0	0.00e+00	0	28	0	809500672	62	3992
2026-01-15 12:10:46.21	170.23	16.06	-47.7	-49.0	15.0	0.00e+00	0	28	0	814743552	62	3979
2026-01-15 12:10:47.20	170.27	16.17	-47.6	-48.9	14.9	0.00e+00	0	28	0	821035008	61	4152
2026-01-15 12:10:48.20	170.32	16.28	-47.7	-48.9	14.9	0.00e+00	0	28	0	826277888	61	4182
2026-01-15 12:10:49.19	170.36	16.39	-47.6	-48.9	14.9	0.00e+00	0	28	0	831520768	61	4178
2026-01-15 12:10:50.19	170.41	16.50	-47.7	-48.9	14.9	0.00e+00	0	28	0	836763648	61	4184
2026-01-15 12:10:51.18	170.45	16.61	-47.5	-48.8	14.9	0.00e+00	0	28	0	843055104	61	4103
2026-01-15 12:10:52.18	170.50	16.72	-47.6	-48.8	14.9	0.00e+00	0	28	0	848297984	61	4145
2026-01-15 12:10:53.18	170.54	16.84	-47.5	-48.8	14.9	0.00e+00	0	28	0	854589440	61	4129
2026-01-15 12:10:54.16	170.59	16.95	-47.5	-48.8	14.9	0.00e+00	0	28	0	859832320	61	4106
2026-01-15 12:10:55.16	170.64	17.06	-47.5	-48.8	14.9	0.00e+00	0	28	0	865075200	61	4119
2026-01-15 12:10:56.15	170.68	17.17	-47.6	-48.9	14.9	0.00e+00	0	28	0	871366656	61	4154
2026-01-15 12:10:57.14	170.73	17.29	-47.5	-48.8	14.9	0.00e+00	0	28	0	876609536	61	4103
2026-01-15 12:10:58.14	170.78	17.40	-47.4	-48.7	15.0	0.00e+00	0	28	0	881852416	61	4070
2026-01-15 12:10:59.13	170.82	17.52	-47.5	-48.7	14.9	0.00e+00	0	28	0	887095296	61	4091
2026-01-15 12:11:00.12	170.87	17.63	-47.5	-48.7	14.9	0.00e+00	0	28	0	893386752	61	4084
2026-01-15 12:11:01.12	170.92	17.75	-47.5	-48.8	14.9	0.00e+00	0	28	0	898629632	61	4108
2026-01-15 12:11:02.11	170.97	17.87	-47.5	-48.8	14.9	0.00e+00	0	28	0	904921088	61	4108
2026-01-15 12:11:03.11	171.02	17.98	-47.5	-48.8	14.9	0.00e+00	0	28	0	910163968	61	4107
2026-01-15 12:11:04.10	171.07	18.10	-47.5	-48.8	14.9	0.00e+00	0	28	0	915406848	61	4114
2026-01-15 12:11:05.09	171.12	18.22	-47.4	-48.7	15.0	0.00e+00	0	28	0	920649728	61	4062
2026-01-15 12:11:06.10	171.17	18.34	-47.5	-48.8	14.9	0.00e+00	0	28	0	926941184	61	4113
2026-01-15 12:11:07.09	171.22	18.46	-47.6	-48.8	14.9	0.00e+00	0	28	0	932184064	61	4136
2026-01-15 12:11:08.09	171.27	18.58	-47.4	-48.7	15.0	0.00e+00	0	28	0	937426944	61	4078
2026-01-15 12:11:09.08	171.32	18.70	-47.3	-48.6	15.0	0.00e+00	0	28	0	943718400	61	4013
2026-01-15 12:11:10.07	171.37	18.82	-47.3	-48.5	15.0	0.00e+00	0	28	0	948961280	61	3992
2026-01-15 12:11:11.06	171.42	18.94	-47.2	-48.5	15.0	0.00e+00	0	28	0	955252736	61	3970
2026-01-15 12:11:12.06	171.48	19.06	-47.2	-48.5	15.0	0.00e+00	0	28	0	960495616	61	3979
2026-01-15 12:11:13.05	171.53	19.19	-47.2	-48.4	14.9	0.00e+00	0	28	0	965738496	60	4191
2026-01-15 12:11:14.05	171.58	19.31	-47.1	-48.4	14.9	0.00e+00	0	28	0	972029952	60	4151
2026-01-15 12:11:15.05	171.64	19.44	-47.2	-48.4	14.9	0.00e+00	0	28	0	977272832	60	4169
2026-01-15 12:11:16.05	171.69	19.56	-47.2	-48.4	14.9	0.00e+00	0	28	0	982515712	60	4193
2026-01-15 12:11:17.05	171.75	19.69	-47.1	-48.3	15.0	0.00e+00	0	28	0	988807168	60	4130
2026-01-15 12:11:18.05	171.80	19.81	-47.1	-48.3	15.0	0.00e+00	0	28	0	994050048	60	4139
2026-01-15 12:11:19.05	171.86	19.94	-47.0	-48.3	15.0	0.00e+00	0	28	0	999292928	60	4117
2026-01-15 12:11:20.04	171.91	20.07	-47.1	-48.4	14.9	0.00e+00	0	28	0	1005584384	60	4149
2026-01-15 12:11:21.03	171.97	20.20	-47.0	-48.3	15.0	0.00e+00	0	28	0	1010827264	60	4123
2026-01-15 12:11:22.03	172.03	20.33	-47.2	-48.4	14.9	0.00e+00	0	28	0	1016070144	60	4192
2026-01-15 12:11:23.03	172.08	20.46	-47.1	-48.3	14.9	0.00e+00	0	28	0	1022361600	60	4140
2026-01-15 12:11:24.02	172.14	20.58	-47.1	-48.3	15.0	0.00e+00	0	28	0	1027604480	60	4136
2026-01-15 12:11:25.01	172.20	20.71	-47.0	-48.3	15.0	0.00e+00	0	28	0	1032847360	60	4106
2026-01-15 12:11:26.00	172.26	20.85	-47.0	-48.2	15.0	0.00e+00	0	28	0	1039138816	60	4081
2026-01-15 12:11:27.00	172.32	20.98	-46.9	-48.2	15.0	0.00e+00	0	28	0	1044381696	60	4056
2026-01-15 12:11:28.00	172.37	21.11	-46.8	-48.1	15.1	0.00e+00	0	28	0	1049624576	60	4019
2026-01-15 12:11:28.99	172.43	21.24	-46.9	-48.2	15.0	0.00e+00	0	28	0	1055916032	60	4054
2026-01-15 12:11:29.98	172.49	21.38	-46.7	-47.9	15.1	0.00e+00	0	28	0	1061158912	60	3945
2026-01-15 12:11:30.98	172.56	21.51	-47.0	-48.2	14.9	0.00e+00	0	28	0	1066401792	59	4330
2026-01-15 12:11:31.98	172.62	21.65	-47.0	-48.3	14.9	0.00e+00	0	28	0	1072693248	59	4350
2026-01-15 12:11:32.97	172.68	21.78	-46.9	-48.1	14.9	0.00e+00	0	28	0	1077936128	59	4288
2026-01-15 12:11:33.97	172.74	21.92	-46.9	-48.1	14.9	0.00e+00	0	28	0	1083179008	59	4287
2026-01-15 12:11:34.97	172.80	22.06	-46.9	-48.2	14.9	0.00e+00	0	28	0	1089470464	59	4293
2026-01-15 12:11:35.97	172.87	22.20	-46.8	-48.0	15.0	0.00e+00	0	28	0	1094713344	59	4242
2026-01-15 12:11:36.97	172.93	22.34	-46.8	-48.1	15.0	0.00e+00	0	28	0	1101004800	59	4260
2026-01-15 12:11:37.97	173.00	22.48	-46.8	-48.1	15.0	0.00e+00	0	28	0	1106247680	59	4256
2026-01-15 12:11:38.96	173.06	22.62	-46.7	-48.0	15.0	0.00e+00	0	28	0	1111490560	59	4204
2026-01-15 12:11:39.95	173.13	22.76	-46.8	-48.0	15.0	0.00e+00	0	28	0	1117782016	59	4235
2026-01-15 12:11:40.95	173.19	22.90	-46.8	-48.1	14.9	0.00e+00	0	28	0	1123024896	59	4248
2026-01-15 12:11:41.94	173.26	23.04	-46.7	-47.9	15.0	0.00e+00	0	28	0	1128267776	59	4170
2026-01-15 12:11:42.93	173.33	23.18	-46.7	-47.9	15.0	0.00e+00	0	28	0	1133510656	59	4163
2026-01-15 12:11:43.93	173.40	23.33	-46.7	-47.9	15.0	0.00e+00	0	28	0	1139802112	59	4190
2026-01-15 12:11:44.93	173.46	23.47	-46.6	-47.8	15.1	0.00e+00	0	28	0	1145044992	59	4119
2026-01-15 12:11:45.92	173.53	23.62	-46.6	-47.9	15.0	0.00e+00	0	28	0	1151336448	59	4150
2026-01-15 12:11:46.92	173.60	23.77	-46.5	-47.8	15.1	0.00e+00	0	28	0	1156579328	59	4111
2026-01-15 12:11:47.91	173.67	23.91	-46.6	-47.8	15.0	0.00e+00	0	28	0	1161822208	59	4144
2026-01-15 12:11:48.91	173.74	24.06	-46.5	-47.7	15.1	0.00e+00	0	28	0	1168113664	59	4080
2026-01-15 12:11:49.90	173.82	24.21	-46.5	-47.8	15.1	0.00e+00	0	28	0	1173356544	59	4103
2026-01-15 12:11:50.89	173.89	24.36	-46.5	-47.8	15.1	0.00e+00	0	28	0	1178599424	59	4104
2026-01-15 12:11:51.89	173.96	24.51	-46.6	-47.8	15.1	0.00e+00	0	28	0	1183842304	59	4124
2026-01-15 12:11:52.89	174.03	24.66	-46.6	-47.8	15.1	0.00e+00	0	28	0	1190133760	59	4118
2026-01-15 12:11:53.88	174.11	24.81	-46.6	-47.8	15.0	0.00e+00	0	28	0	1195376640	59	4145
2026-01-15 12:11:54.88	174.18	24.97	-46.6	-47.8	15.1	0.00e+00	0	28	0	1201668096	59	4115
2026-01-15 12:11:55.87	174.26	25.12	-46.5	-47.8	15.1	0.00e+00	0	28	0	1206910976	59	4104
2026-01-15 12:11:56.86	174.33	25.27	-46.5	-47.7	15.1	0.00e+00	0	28	0	1212153856	59	4066
2026-01-15 12:11:57.85	174.41	25.43	-46.4	-47.6	15.1	0.00e+00	0	28	0	1218445312	59	4028
2026-01-15 12:11:58.85	174.49	25.58	-46.4	-47.6	15.2	0.00e+00	0	28	0	1223688192	59	4020
2026-01-15 12:11:59.83	174.57	25.74	-46.3	-47.5	15.2	0.00e+00	0	28	0	1228931072	59	3987
2026-01-15 12:12:00.83	174.65	25.90	-46.3	-47.5	15.2	0.00e+00	0	28	0	1234173952	59	3970
2026-01-15 12:12:01.83	174.73	26.06	-46.3	-47.5	15.2	0.00e+00	0	28	0	1240465408	59	3990
2026-01-15 12:12:02.82	174.81	26.22	-46.3	-47.5	15.2	0.00e+00	0	28	0	1245708288	59	3996
2026-01-15 12:12:03.81	174.89	26.38	-46.2	-47.4	15.2	0.00e+00	0	28	0	1251999744	59	3917
2026-01-15 12:12:04.80	174.97	26.54	-46.1	-47.3	15.1	0.00e+00	0	28	0	1257242624	58	4107
2026-01-15 12:12:05.79	175.05	26.70	-46.1	-47.2	15.1	0.00e+00	0	28	0	1262485504	58	4084
2026-01-15 12:12:06.78	175.14	26.86	-46.1	-47.3	15.1	0.00e+00	0	28	0	1267728384	58	4110
2026-01-15 12:12:07.78	175.22	27.03	-46.2	-47.4	15.1	0.00e+00	0	28	0	1274019840	58	4153
2026-01-15 12:12:08.78	175.31	27.19	-46.3	-47.5	15.1	0.00e+00	0	28	0	1279262720	58	4213
2026-01-15 12:12:09.78	175.39	27.36	-46.5	-47.7	15.0	0.00e+00	0	28	0	1284505600	58	4313
2026-01-15 12:12:10.78	175.48	27.53	-46.5	-47.8	15.0	0.00e+00	0	28	0	1290797056	58	4350
2026-01-15 12:12:11.77	175.57	27.70	-46.5	-47.8	15.0	0.00e+00	0	28	0	1296039936	58	4358
2026-01-15 12:12:12.78	175.66	27.87	-46.6	-47.9	14.9	0.00e+00	0	28	0	1302331392	58	4410
2026-01-15 12:12:13.78	175.75	28.04	-46.6	-47.8	14.9	0.00e+00	0	28	0	1307574272	58	4381
2026-01-15 12:12:14.79	175.84	28.21	-46.5	-47.7	15.0	0.00e+00	0	28	0	1312817152	58	4319
2026-01-15 12:12:15.78	175.93	28.38	-46.5	-47.7	15.0	0.00e+00	0	28	0	1319108608	58	4314
2026-01-15 12:12:16.77	176.03	28.56	-46.4	-47.6	15.0	0.00e+00	0	28	0	1324351488	58	4289
2026-01-15 12:12:17.76	176.12	28.73	-46.1	-47.4	15.1	0.00e+00	0	28	0	1329594368	58	4148
2026-01-15 12:12:18.75	176.21	28.90	-46.2	-47.4	15.1	0.00e+00	0	28	0	1335885824	58	4157
2026-01-15 12:12:19.75	176.31	29.08	-46.2	-47.4	15.1	0.00e+00	0	28	0	1341128704	58	4176
2026-01-15 12:12:20.75	176.41	29.26	-46.1	-47.3	15.1	0.00e+00	0	28	0	1346371584	58	4108
2026-01-15 12:12:21.75	176.50	29.44	-46.0	-47.2	15.1	0.00e+00	0	28	0	1352663040	58	4086
2026-01-15 12:12:22.74	176.60	29.62	-46.1	-47.3	15.1	0.00e+00	0	28	0	1357905920	58	4115
2026-01-15 12:12:23.74	176.70	29.80	-46.2	-47.4	15.1	0.00e+00	0	28	0	1363148800	58	4163
2026-01-15 12:12:24.73	176.80	29.98	-46.2	-47.4	15.1	0.00e+00	0	28	0	1369440256	58	4175
2026-01-15 12:12:25.73	176.91	30.16	-46.0	-47.2	15.1	0.00e+00	0	28	0	1374683136	58	4088
2026-01-15 12:12:26.72	177.01	30.34	-45.9	-47.1	15.2	0.00e+00	0	28	0	1379926016	58	4034
2026-01-15 12:12:27.71	177.11	30.53	-46.0	-47.1	15.2	0.00e+00	0	28	0	1386217472	58	4051
2026-01-15 12:12:28.71	177.22	30.71	-45.9	-47.1	15.2	0.00e+00	0	28	0	1391460352	58	4036
2026-01-15 12:12:29.71	177.33	30.90	-45.9	-47.1	15.2	0.00e+00	0	28	0	1396703232	58	4037
2026-01-15 12:12:30.70	177.43	31.09	-46.0	-47.2	15.2	0.00e+00	0	28	0	1402994688	58	4057
2026-01-15 12:12:31.70	177.54	31.28	-46.0	-47.2	15.1	0.00e+00	0	28	0	1408237568	58	4082
2026-01-15 12:12:32.69	177.65	31.47	-46.2	-47.4	15.1	0.00e+00	0	28	0	1413480448	58	4159
2026-01-15 12:12:33.68	177.76	31.66	-46.1	-47.4	15.1	0.00e+00	0	28	0	1419771904	58	4152
2026-01-15 12:12:34.67	177.87	31.85	-46.0	-47.3	15.1	0.00e+00	0	28	0	1425014784	58	4100
2026-01-15 12:12:35.68	177.99	32.05	-46.1	-47.3	15.1	0.00e+00	0	28	0	1430257664	58	4110
2026-01-15 12:12:36.67	178.11	32.24	-46.1	-47.3	15.1	0.00e+00	0	28	0	1436549120	58	4118
2026-01-15 12:12:37.66	178.22	32.43	-46.1	-47.4	15.1	0.00e+00	0	28	0	1441792000	58	4146
2026-01-15 12:12:38.66	178.34	32.63	-46.2	-47.4	15.1	0.00e+00	0	28	0	1448083456	58	4154
2026-01-15 12:12:39.65	178.46	32.83	-46.2	-47.4	15.1	0.00e+00	0	28	0	1453326336	58	4154
2026-01-15 12:12:40.64	178.58	33.03	-46.2	-47.5	15.1	0.00e+00	0	28	0	1458569216	58	4202
2026-01-15 12:12:41.63	178.70	33.23	-46.3	-47.5	15.0	0.00e+00	0	28	0	1463812096	58	4236
2026-01-15 12:12:42.63	178.83	33.43	-46.4	-47.5	15.1	0.00e+00	0	28	0	1470103552	58	4199
2026-01-15 12:12:43.62	178.95	33.63	-46.2	-47.3	15.1	0.00e+00	0	28	0	1475346432	58	4100
2026-01-15 12:12:44.61	179.08	33.83	-46.2	-47.2	15.1	0.00e+00	0	28	0	1480589312	58	4093
2026-01-15 12:12:45.61	179.20	34.04	-46.1	-47.2	15.1	0.00e+00	0	28	0	1486880768	58	4077
2026-01-15 12:12:46.59	179.33	34.24	-46.1	-47.2	15.1	0.00e+00	0	28	0	1492123648	58	4082
2026-01-15 12:12:47.59	179.46	34.45	-46.0	-47.1	15.2	0.00e+00	0	28	0	1497366528	58	4011
2026-01-15 12:12:48.59	179.60	34.66	-45.8	-46.9	15.3	0.00e+00	0	28	0	1503657984	58	3927
2026-01-15 12:12:49.58	179.73	34.87	-45.8	-46.9	15.3	0.00e+00	0	28	0	1508900864	58	3915
2026-01-15 12:12:50.59	179.87	35.09	-45.7	-46.7	15.3	0.00e+00	0	28	0	1514143744	58	3850
2026-01-15 12:12:51.59	180.01	35.30	-45.5	-46.6	15.2	0.00e+00	0	28	0	1520435200	57	4019
2026-01-15 12:12:52.59	180.15	35.51	-45.7	-46.7	15.2	0.00e+00	0	28	0	1525678080	57	4082
2026-01-15 12:12:53.58	180.29	35.73	-45.6	-46.7	15.2	0.00e+00	0	28	0	1530920960	57	4064
2026-01-15 12:12:54.58	180.44	35.95	-45.7	-46.7	15.2	0.00e+00	0	28	0	1537212416	57	4084
2026-01-15 12:12:55.58	180.58	36.17	-45.7	-46.7	15.2	0.00e+00	0	28	0	1542455296	57	4078
2026-01-15 12:12:56.57	180.73	36.38	-45.7	-46.7	15.1	0.00e+00	0	28	0	1548746752	57	4089
2026-01-15 12:12:57.57	180.88	36.60	-45.7	-46.7	15.1	0.00e+00	0	28	0	1553989632	57	4092
2026-01-15 12:12:58.57	181.03	36.83	-45.7	-46.7	15.2	0.00e+00	0	28	0	1559232512	57	4090
2026-01-15 12:12:59.56	181.18	37.05	-45.8	-46.9	15.1	0.00e+00	0	28	0	1565523968	57	4157
2026-01-15 12:13:00.56	181.34	37.27	-46.0	-47.1	15.1	0.00e+00	0	28	0	1570766848	57	4252
2026-01-15 12:13:01.55	181.50	37.50	-46.0	-47.1	15.1	0.00e+00	0	28	0	1576009728	57	4273
2026-01-15 12:13:02.55	181.66	37.73	-46.0	-47.1	15.1	0.00e+00	0	28	0	1582301184	57	4266
2026-01-15 12:13:03.55	181.82	37.96	-45.9	-47.0	15.1	0.00e+00	0	28	0	1587544064	57	4234
2026-01-15 12:13:04.54	181.98	38.18	-46.0	-47.0	15.1	0.00e+00	0	28	0	1592786944	57	4241
2026-01-15 12:13:05.54	182.15	38.42	-45.8	-46.8	15.1	0.00e+00	0	28	0	1599078400	57	4128
2026-01-15 12:13:06.54	182.32	38.65	-45.7	-46.7	15.2	0.00e+00	0	28	0	1604321280	57	4086
2026-01-15 12:13:07.53	182.49	38.88	-45.7	-46.7	15.1	0.00e+00	0	28	0	1609564160	57	4088
2026-01-15 12:13:08.53	182.66	39.12	-45.7	-46.8	15.1	0.00e+00	0	28	0	1615855616	57	4103
2026-01-15 12:13:09.53	182.84	39.35	-46.0	-47.0	15.1	0.00e+00	0	28	0	1621098496	57	4236
2026-01-15 12:13:10.51	183.02	39.59	-46.2	-47.3	15.0	0.00e+00	0	28	0	1626341376	57	4363
2026-01-15 12:13:11.51	183.20	39.83	-46.3	-47.4	15.0	0.00e+00	0	28	0	1632632832	57	4400
2026-01-15 12:13:12.50	183.38	40.07	-46.2	-47.3	15.0	0.00e+00	0	28	0	1637875712	57	4371
2026-01-15 12:13:13.50	183.57	40.31	-46.2	-47.3	15.0	0.00e+00	0	28	0	1643118592	57	4363
2026-01-15 12:13:14.49	183.76	40.55	-46.0	-47.0	15.1	0.00e+00	0	28	0	1649410048	57	4239
2026-01-15 12:13:15.49	183.95	40.80	-46.0	-47.0	15.1	0.00e+00	0	28	0	1654652928	57	4227
2026-01-15 12:13:16.48	184.14	41.04	-45.9	-47.0	15.1	0.00e+00	0	28	0	1659895808	57	4197
2026-01-15 12:13:17.48	184.34	41.29	-45.9	-46.9	15.1	0.00e+00	0	28	0	1666187264	57	4193
2026-01-15 12:13:18.48	184.54	41.54	-46.0	-47.1	15.1	0.00e+00	0	28	0	1671430144	57	4247
2026-01-15 12:13:19.48	184.75	41.79	-46.1	-47.1	15.1	0.00e+00	0	28	0	1676673024	57	4281
2026-01-15 12:13:20.49	184.96	42.04	-46.2	-47.3	15.0	0.00e+00	0	28	0	1682964480	57	4374
2026-01-15 12:13:21.49	185.17	42.30	-46.3	-47.4	15.0	0.00e+00	0	28	0	1688207360	57	4421
2026-01-15 12:13:22.49	185.38	42.55	-46.4	-47.5	15.1	0.00e+00	0	28	0	1693450240	58	4231
2026-01-15 12:13:23.48	185.60	42.80	-46.4	-47.5	15.1	0.00e+00	0	28	0	1699741696	58	4203
2026-01-15 12:13:24.47	185.82	43.06	-46.3	-47.4	15.1	0.00e+00	0	28	0	1704984576	58	4169
2026-01-15 12:13:25.47	186.04	43.32	-46.2	-47.3	15.1	0.00e+00	0	28	0	1711276032	58	4100
2026-01-15 12:13:26.45	186.27	43.57	-46.0	-47.1	15.2	0.00e+00	0	28	0	1716518912	58	4028
2026-01-15 12:13:27.45	186.50	43.83	-46.3	-47.4	15.1	0.00e+00	0	28	0	1721761792	58	4177
2026-01-15 12:13:28.45	186.73	44.09	-46.4	-47.5	15.0	0.00e+00	0	28	0	1727004672	58	4216
2026-01-15 12:13:29.44	186.97	44.35	-46.5	-47.6	15.0	0.00e+00	0	28	0	1733296128	58	4258
2026-01-15 12:13:30.43	187.21	44.61	-46.7	-47.8	15.0	0.00e+00	0	28	0	1738539008	58	4348
2026-01-15 12:13:31.43	187.46	44.88	-46.8	-47.9	15.0	0.00e+00	0	28	0	1743781888	58	4399
2026-01-15 12:13:32.43	187.71	45.15	-46.9	-48.0	15.0	0.00e+00	0	28	0	1750073344	58	4456
2026-01-15 12:13:33.43	187.96	45.42	-46.6	-47.7	15.0	0.00e+00	0	28	0	1755316224	58	4303
2026-01-15 12:13:34.42	188.22	45.68	-46.3	-47.4	15.1	0.00e+00	0	28	0	1761607680	58	4176
2026-01-15 12:13:35.41	188.48	45.95	-46.4	-47.5	15.1	0.00e+00	0	28	0	1766850560	58	4207
2026-01-15 12:13:36.41	188.75	46.22	-46.3	-47.4	15.1	0.00e+00	0	28	0	1772093440	58	4181
2026-01-15 12:13:37.40	189.02	46.49	-46.6	-47.7	15.0	0.00e+00	0	28	0	1778384896	58	4300
2026-01-15 12:13:38.40	189.30	46.77	-46.7	-47.8	15.0	0.00e+00	0	28	0	1783627776	58	4352
2026-01-15 12:13:39.39	189.58	47.04	-46.4	-47.5	15.1	0.00e+00	0	28	0	1788870656	58	4211
2026-01-15 12:13:40.39	189.87	47.31	-46.3	-47.4	15.1	0.00e+00	0	28	0	1795162112	58	4150
2026-01-15 12:13:41.39	190.16	47.59	-46.3	-47.4	15.1	0.00e+00	0	28	0	1800404992	58	4154
2026-01-15 12:13:42.38	190.45	47.87	-46.5	-47.6	15.0	0.00e+00	0	28	0	1805647872	58	4272
2026-01-15 12:13:43.38	190.76	48.14	-46.5	-47.6	15.0	0.00e+00	0	28	0	1811939328	58	4251
2026-01-15 12:13:44.37	191.06	48.42	-46.4	-47.4	15.1	0.00e+00	0	28	0	1817182208	58	4184
2026-01-15 12:13:45.36	191.37	48.70	-46.4	-47.5	15.1	0.00e+00	0	28	0	1822425088	58	4218
2026-01-15 12:13:46.35	191.69	48.98	-46.7	-47.8	15.0	0.00e+00	0	28	0	1828716544	58	4343
2026-01-15 12:13:47.35	192.01	49.26	-46.8	-47.9	15.0	0.00e+00	0	28	0	1833959424	58	4408
2026-01-15 12:13:48.35	192.34	49.54	-46.7	-47.8	15.0	0.00e+00	0	28	0	1839202304	58	4362
2026-01-15 12:13:49.35	192.68	49.83	-46.5	-47.6	15.1	0.00e+00	0	28	0	1845493760	58	4252
2026-01-15 12:13:50.35	193.03	50.11	-46.5	-47.6	15.0	0.00e+00	0	28	0	1850736640	58	4261
2026-01-15 12:13:51.34	193.37	50.40	-46.7	-47.8	15.0	0.00e+00	0	28	0	1855979520	58	4347
2026-01-15 12:13:52.34	193.73	50.68	-46.9	-48.0	15.0	0.00e+00	0	28	0	1862270976	59	4227
2026-01-15 12:13:53.33	194.09	50.97	-46.8	-47.9	15.1	0.00e+00	0	28	0	1867513856	59	4167
2026-01-15 12:13:54.32	194.46	51.25	-46.7	-47.7	15.1	0.00e+00	0	28	0	1872756736	59	4092
2026-01-15 12:13:55.32	194.83	51.54	-46.7	-47.8	15.1	0.00e+00	0	28	0	1879048192	59	4104
2026-01-15 12:13:56.31	195.21	51.82	-46.9	-48.0	15.0	0.00e+00	0	28	0	1884291072	59	4225
2026-01-15 12:13:57.31	195.60	52.11	-46.9	-48.0	15.0	0.00e+00	0	28	0	1889533952	59	4237
2026-01-15 12:13:58.31	196.00	52.40	-47.0	-48.1	15.0	0.00e+00	0	28	0	1895825408	59	4288
2026-01-15 12:13:59.30	196.41	52.69	-47.2	-48.3	15.0	0.00e+00	0	28	0	1901068288	59	4369
2026-01-15 12:14:00.29	196.82	52.97	-47.2	-48.3	15.0	0.00e+00	0	28	0	1906311168	59	4355
2026-01-15 12:14:01.29	197.24	53.26	-47.1	-48.2	15.0	0.00e+00	0	28	0	1912602624	59	4337
2026-01-15 12:14:02.28	197.67	53.55	-47.2	-48.3	15.0	0.00e+00	0	28	0	1917845504	59	4370
2026-01-15 12:14:03.27	198.11	53.84	-47.3	-48.5	14.9	0.00e+00	0	28	0	1923088384	59	4461
2026-01-15 12:14:04.26	198.55	54.12	-47.3	-48.5	14.9	0.00e+00	0	28	0	1929379840	59	4459
2026-01-15 12:14:05.25	199.00	54.41	-47.1	-48.2	15.0	0.00e+00	0	28	0	1934622720	60	4088
2026-01-15 12:14:06.25	199.47	54.70	-46.8	-47.8	15.2	0.00e+00	0	28	0	1939865600	60	3902
2026-01-15 12:14:07.26	199.95	54.99	-46.8	-47.9	15.2	0.00e+00	0	28	0	1946157056	60	3932
2026-01-15 12:14:08.26	200.44	55.28	-47.2	-48.4	15.0	0.00e+00	0	28	0	1951399936	60	4156
2026-01-15 12:14:09.26	200.93	55.57	-47.2	-48.3	15.0	0.00e+00	0	28	0	1957691392	60	4129
2026-01-15 12:14:10.26	201.44	55.86	-47.0	-48.0	15.1	0.00e+00	0	28	0	1962934272	60	3999
2026-01-15 12:14:11.25	201.95	56.14	-46.9	-48.0	15.1	0.00e+00	0	28	0	1968177152	60	3990
2026-01-15 12:14:12.25	202.48	56.43	-47.0	-48.1	15.0	0.00e+00	0	28	0	1973420032	59	4291
2026-01-15 12:14:13.24	203.01	56.71	-47.3	-48.4	14.9	0.00e+00	0	28	0	1979711488	59	4412
2026-01-15 12:14:14.25	203.57	57.00	-46.9	-48.0	15.1	0.00e+00	0	28	0	1984954368	60	4002
2026-01-15 12:14:15.25	204.13	57.28	-46.9	-48.0	15.1	0.00e+00	0	28	0	1991245824	60	3994
2026-01-15 12:14:16.25	204.70	57.56	-46.7	-47.8	15.2	0.00e+00	0	28	0	1996488704	60	3895
2026-01-15 12:14:17.24	205.28	57.84	-46.8	-47.9	15.1	0.00e+00	0	28	0	2001731584	59	4174
2026-01-15 12:14:18.25	205.88	58.12	-46.8	-47.9	15.1	0.00e+00	0	28	0	2008023040	59	4148
2026-01-15 12:14:19.24	206.49	58.40	-46.7	-47.8	15.1	0.00e+00	0	28	0	2013265920	59	4104
2026-01-15 12:14:20.24	207.11	58.67	-46.7	-47.8	15.1	0.00e+00	0	28	0	2018508800	59	4120
2026-01-15 12:14:21.23	207.74	58.94	-46.7	-47.8	15.1	0.00e+00	0	28	0	2024800256	59	4129
2026-01-15 12:14:22.23	208.38	59.21	-46.7	-47.7	15.1	0.00e+00	0	28	0	2030043136	59	4092
2026-01-15 12:14:23.23	209.04	59.48	-46.5	-47.6	15.2	0.00e+00	0	28	0	2035286016	59	4029
2026-01-15 12:14:24.23	209.72	59.75	-46.2	-47.3	15.3	0.00e+00	0	28	0	2041577472	59	3871
2026-01-15 12:14:25.23	210.41	60.02	-46.1	-47.2	15.2	0.00e+00	0	28	0	2046820352	58	4066
2026-01-15 12:14:26.22	211.10	60.28	-46.3	-47.4	15.1	0.00e+00	0	28	0	2052063232	58	4179
2026-01-15 12:14:27.22	211.82	60.54	-46.1	-47.2	15.2	0.00e+00	0	28	0	2058354688	58	4069
2026-01-15 12:14:28.21	212.54	60.79	-46.2	-47.2	15.1	0.00e+00	0	28	0	2063597568	58	4094
2026-01-15 12:14:29.20	213.28	61.04	-46.0	-47.0	15.2	0.00e+00	0	28	0	2069889024	58	4000
2026-01-15 12:14:30.20	214.04	61.29	-45.7	-46.7	15.3	0.00e+00	0	28	0	2075131904	58	3858
2026-01-15 12:14:31.19	214.81	61.54	-45.8	-46.8	15.3	0.00e+00	0	28	0	2080374784	58	3898
2026-01-15 12:14:32.19	215.60	61.78	-46.1	-47.2	15.1	0.00e+00	0	28	0	2085617664	58	4080
2026-01-15 12:14:33.19	216.41	62.02	-46.2	-47.3	15.1	0.00e+00	0	28	0	2091909120	58	4105
2026-01-15 12:14:34.18	217.22	62.25	-46.1	-47.2	15.2	0.00e+00	0	28	0	2097152000	58	4056
2026-01-15 12:14:35.18	218.06	62.48	-46.0	-47.0	15.2	0.00e+00	0	28	0	2102394880	58	3989
2026-01-15 12:14:36.18	218.92	62.71	-45.7	-46.7	15.3	0.00e+00	0	28	0	2108686336	58	3865
2026-01-15 12:14:37.18	219.79	62.93	-45.9	-47.0	15.2	0.00e+00	0	28	0	2113929216	58	3964
2026-01-15 12:14:38.18	220.67	63.15	-46.2	-47.2	15.2	0.00e+00	0	28	0	2120220672	58	4094
2026-01-15 12:14:39.18	221.58	63.36	-46.0	-47.1	15.2	0.00e+00	0	28	0	2125463552	58	4019
2026-01-15 12:14:40.17	222.49	63.56	-45.8	-46.8	15.3	0.00e+00	0	28	0	2130706432	58	3913
2026-01-15 12:14:41.16	223.41	63.76	-45.9	-47.0	15.2	0.00e+00	0	28	0	2136997888	58	3983
2026-01-15 12:14:42.17	224.37	63.96	-46.0	-47.0	15.2	0.00e+00	0	28	0	2142240768	58	3984
2026-01-15 12:14:43.17	225.34	64.15	-45.9	-46.9	15.2	0.00e+00	0	28	0	2147483648	58	3956
2026-01-15 12:14:44.16	226.31	64.33	-45.9	-47.0	15.2	0.00e+00	0	28	0	2153775104	58	3960
2026-01-15 12:14:45.15	227.29	64.51	-45.8	-46.8	15.3	0.00e+00	0	28	0	2159017984	58	3896
2026-01-15 12:14:46.14	228.30	64.67	-45.8	-46.9	15.3	0.00e+00	0	28	0	2164260864	58	3915
2026-01-15 12:14:47.13	229.31	64.84	-45.9	-47.0	15.2	0.00e+00	0	28	0	2170552320	58	3982
2026-01-15 12:14:48.12	230.34	64.99	-46.0	-47.0	15.2	0.00e+00	0	28	0	2175795200	58	3977
2026-01-15 12:14:49.12	231.40	65.14	-45.7	-46.7	15.3	0.00e+00	0	28	0	2181038080	58	3860
2026-01-15 12:14:50.11	232.46	65.28	-46.0	-47.0	15.2	0.00e+00	0	28	0	2187329536	58	3994
2026-01-15 12:14:51.11	233.54	65.42	-45.7	-46.8	15.3	0.00e+00	0	28	0	2192572416	58	3869
2026-01-15 12:14:52.11	234.63	65.55	-45.6	-46.6	15.2	0.00e+00	0	28	0	2197815296	57	4012
2026-01-15 12:14:53.11	235.74	65.67	-45.7	-46.8	15.1	0.00e+00	0	28	0	2204106752	57	4125
2026-01-15 12:14:54.11	236.86	65.78	-45.8	-46.9	15.1	0.00e+00	0	28	0	2209349632	57	4169
2026-01-15 12:14:55.10	237.98	65.88	-45.7	-46.7	15.2	0.00e+00	0	28	0	2214592512	57	4076
2026-01-15 12:14:56.10	239.12	65.97	-45.7	-46.7	15.2	0.00e+00	0	28	0	2220883968	57	4077
2026-01-15 12:14:57.10	240.27	66.06	-45.8	-46.8	15.2	0.00e+00	0	28	0	2226126848	57	4140
2026-01-15 12:14:58.09	241.41	66.14	-46.0	-47.0	15.1	0.00e+00	0	28	0	2231369728	57	4227
2026-01-15 12:14:59.09	242.58	66.21	-45.8	-46.9	15.1	0.00e+00	0	28	0	2237661184	57	4176
2026-01-15 12:15:00.08	243.74	66.27	-45.8	-46.8	15.2	0.00e+00	0	28	0	2242904064	57	4138
2026-01-15 12:15:01.08	244.92	66.32	-45.9	-47.0	15.1	0.00e+00	0	28	0	2248146944	57	4196
2026-01-15 12:15:02.08	246.10	66.36	-45.6	-46.7	15.2	0.00e+00	0	28	0	2254438400	57	4071
2026-01-15 12:15:03.07	247.28	66.39	-45.5	-46.5	15.2	0.00e+00	0	28	0	2259681280	57	3964
2026-01-15 12:15:04.07	248.47	66.42	-45.6	-46.6	15.2	0.00e+00	0	28	0	2265972736	57	4039
2026-01-15 12:15:05.07	249.66	66.43	-45.6	-46.7	15.2	0.00e+00	0	28	0	2271215616	57	4056
2026-01-15 12:15:06.07	250.86	66.44	-45.8	-46.9	15.1	0.00e+00	0	28	0	2276458496	57	4154
2026-01-15 12:15:07.08	252.06	66.43	-45.8	-46.8	15.2	0.00e+00	0	28	0	2282749952	57	4126
2026-01-15 12:15:08.08	253.26	66.42	-45.7	-46.7	15.2	0.00e+00	0	28	0	2287992832	57	4085
2026-01-15 12:15:09.07	254.44	66.40	-45.5	-46.5	15.2	0.00e+00	0	28	0	2293235712	57	3982
2026-01-15 12:15:10.07	255.63	66.37	-45.7	-46.7	15.2	0.00e+00	0	28	0	2299527168	57	4083
2026-01-15 12:15:11.08	256.82	66.33	-45.8	-46.9	15.1	0.00e+00	0	28	0	2304770048	57	4175
2026-01-15 12:15:12.07	257.99	66.28	-45.8	-46.9	15.1	0.00e+00	0	28	0	2310012928	57	4160
2026-01-15 12:15:13.07	259.16	66.22	-45.8	-46.8	15.1	0.00e+00	0	28	0	2316304384	57	4137
2026-01-15 12:15:14.08	260.34	66.15	-45.8	-46.8	15.1	0.00e+00	0	28	0	2321547264	57	4127
2026-01-15 12:15:15.08	261.50	66.08	-45.7	-46.8	15.2	0.00e+00	0	28	0	2327838720	57	4112
2026-01-15 12:15:16.07	262.64	65.99	-45.7	-46.8	15.2	0.00e+00	0	28	0	2333081600	57	4106
2026-01-15 12:15:17.06	263.77	65.90	-45.5	-46.5	15.2	0.00e+00	0	28	0	2338324480	57	3981
2026-01-15 12:15:18.06	264.90	65.80	-45.7	-46.7	15.2	0.00e+00	0	28	0	2344615936	57	4096
2026-01-15 12:15:19.05	266.01	65.69	-46.1	-47.2	15.1	0.00e+00	0	28	0	2349858816	57	4293
2026-01-15 12:15:20.05	267.12	65.57	-45.8	-46.9	15.1	0.00e+00	0	28	0	2355101696	57	4152
2026-01-15 12:15:21.03	268.20	65.45	-45.8	-46.8	15.1	0.00e+00	0	28	0	2360344576	57	4137
2026-01-15 12:15:22.03	269.28	65.32	-45.8	-46.8	15.2	0.00e+00	0	28	0	2366636032	57	4134
2026-01-15 12:15:23.03	270.35	65.17	-46.0	-47.1	15.2	0.00e+00	0	28	0	2371878912	57	4278
2026-01-15 12:15:24.01	271.39	65.03	-45.9	-47.1	15.2	0.00e+00	0	28	0	2378170368	57	4265
2026-01-15 12:15:25.01	272.43	64.87	-46.0	-47.1	15.1	0.00e+00	0	28	0	2383413248	57	4270
2026-01-15 12:15:26.01	273.46	64.71	-46.0	-47.1	15.1	0.00e+00	0	28	0	2388656128	57	4243
2026-01-15 12:15:27.00	274.47	64.54	-46.3	-47.4	15.0	0.00e+00	0	28	0	2393899008	57	4400
2026-01-15 12:15:27.99	275.45	64.37	-45.9	-47.0	15.1	0.00e+00	0	28	0	2400190464	57	4208
2026-01-15 12:15:28.99	276.44	64.19	-45.8	-46.8	15.1	0.00e+00	0	28	0	2405433344	57	4128
2026-01-15 12:15:29.99	277.41	64.00	-45.8	-46.9	15.1	0.00e+00	0	28	0	2410676224	57	4153
2026-01-15 12:15:30.99	278.36	63.81	-46.0	-47.1	15.1	0.00e+00	0	28	0	2416967680	57	4254
2026-01-15 12:15:31.99	279.30	63.61	-46.0	-47.1	15.1	0.00e+00	0	28	0	2422210560	57	4260
2026-01-15 12:15:32.98	280.21	63.40	-45.9	-46.9	15.1	0.00e+00	0	28	0	2428502016	57	4176
2026-01-15 12:15:33.98	281.11	63.19	-45.7	-46.7	15.2	0.00e+00	0	28	0	2433744896	57	4081
2026-01-15 12:15:34.97	281.99	62.98	-45.8	-46.9	15.1	0.00e+00	0	28	0	2438987776	57	4150
2026-01-15 12:15:35.96	282.86	62.76	-46.0	-47.1	15.1	0.00e+00	0	28	0	2445279232	57	4258
2026-01-15 12:15:36.96	283.71	62.54	-46.0	-47.1	15.1	0.00e+00	0	28	0	2450522112	57	4255
2026-01-15 12:15:37.96	284.56	62.31	-46.0	-47.0	15.1	0.00e+00	0	28	0	2455764992	57	4227
2026-01-15 12:15:38.95	285.37	62.08	-46.3	-47.3	15.0	0.00e+00	0	28	0	2462056448	57	4384
2026-01-15 12:15:39.94	286.18	61.84	-46.1	-47.2	15.1	0.00e+00	0	28	0	2467299328	57	4300
2026-01-15 12:15:40.93	286.96	61.60	-46.2	-47.3	15.1	0.00e+00	0	28	0	2472542208	57	4344
2026-01-15 12:15:41.92	287.73	61.36	-46.1	-47.2	15.1	0.00e+00	0	28	0	2478833664	57	4319
2026-01-15 12:15:42.93	288.51	61.11	-45.9	-47.0	15.1	0.00e+00	0	28	0	2484076544	57	4203
2026-01-15 12:15:43.93	289.25	60.86	-46.1	-47.1	15.1	0.00e+00	0	28	0	2489319424	57	4286
2026-01-15 12:15:44.92	289.98	60.60	-46.5	-47.6	15.1	0.00e+00	0	28	0	2495610880	58	4243
2026-01-15 12:15:45.92	290.70	60.34	-46.5	-47.6	15.0	0.00e+00	0	28	0	2500853760	58	4270
2026-01-15 12:15:46.92	291.41	60.08	-46.5	-47.6	15.0	0.00e+00	0	28	0	2506096640	58	4260
2026-01-15 12:15:47.93	292.10	59.82	-46.5	-47.6	15.1	0.00e+00	0	28	0	2512388096	58	4248
2026-01-15 12:15:48.92	292.77	59.55	-46.3	-47.4	15.1	0.00e+00	0	28	0	2517630976	58	4168
2026-01-15 12:15:49.91	293.43	59.29	-46.4	-47.4	15.1	0.00e+00	0	28	0	2522873856	58	4183
2026-01-15 12:15:50.91	294.08	59.02	-46.5	-47.5	15.1	0.00e+00	0	28	0	2529165312	58	4236
2026-01-15 12:15:51.90	294.71	58.75	-46.9	-48.0	15.1	0.00e+00	0	28	0	2534408192	59	4239
2026-01-15 12:15:52.90	295.33	58.47	-47.1	-48.2	15.0	0.00e+00	0	28	0	2540699648	59	4340
2026-01-15 12:15:53.90	295.95	58.19	-46.9	-48.0	15.1	0.00e+00	0	28	0	2545942528	59	4208
2026-01-15 12:15:54.90	296.54	57.92	-47.0	-48.1	15.0	0.00e+00	0	28	0	2551185408	59	4263
2026-01-15 12:15:55.89	297.13	57.64	-47.0	-48.1	15.0	0.00e+00	0	28	0	2556428288	59	4267
2026-01-15 12:15:56.90	297.71	57.36	-47.3	-48.5	14.9	0.00e+00	0	28	0	2562719744	59	4467
2026-01-15 12:15:57.89	298.26	57.08	-47.3	-48.5	14.9	0.00e+00	0	28	0	2567962624	59	4452
2026-01-15 12:15:58.89	298.82	56.79	-47.2	-48.4	15.0	0.00e+00	0	28	0	2573205504	59	4399
2026-01-15 12:15:59.89	299.36	56.51	-47.3	-48.4	14.9	0.00e+00	0	28	0	2579496960	59	4428
2026-01-15 12:16:00.88	299.88	56.23	-47.4	-48.5	14.9	0.00e+00	0	28	0	2584739840	59	4449
2026-01-15 12:16:01.88	300.40	55.94	-47.4	-48.5	14.9	0.00e+00	0	28	0	2591031296	59	4465
2026-01-15 12:16:02.87	300.90	55.66	-47.2	-48.3	15.1	0.00e+00	0	28	0	2596274176	60	4104
2026-01-15 12:16:03.86	301.40	55.37	-47.1	-48.2	15.1	0.00e+00	0	28	0	2601517056	60	4068
2026-01-15 12:16:04.85	301.88	55.09	-47.2	-48.3	15.0	0.00e+00	0	28	0	2607808512	60	4125
2026-01-15 12:16:05.86	302.36	54.80	-47.2	-48.3	15.0	0.00e+00	0	28	0	2613051392	60	4131
2026-01-15 12:16:06.85	302.83	54.51	-47.2	-48.4	15.0	0.00e+00	0	28	0	2618294272	60	4148
2026-01-15 12:16:07.85	303.29	54.22	-47.3	-48.4	15.0	0.00e+00	0	28	0	2624585728	60	4154
2026-01-15 12:16:08.84	303.73	53.94	-47.2	-48.4	15.0	0.00e+00	0	28	0	2629828608	60	4149
2026-01-15 12:16:09.84	304.18	53.65	-47.3	-48.5	15.0	0.00e+00	0	28	0	2635071488	60	4194
2026-01-15 12:16:10.84	304.61	53.36	-47.2	-48.3	15.0	0.00e+00	0	28	0	2641362944	60	4124
2026-01-15 12:16:11.84	305.03	53.07	-47.2	-48.3	15.1	0.00e+00	0	28	0	2646605824	60	4100
2026-01-15 12:16:12.84	305.45	52.78	-47.2	-48.3	15.0	0.00e+00	0	28	0	2651848704	60	4106
2026-01-15 12:16:13.84	305.86	52.49	-46.8	-47.9	15.2	0.00e+00	0	28	0	2658140160	60	3915
2026-01-15 12:16:14.84	306.26	52.20	-47.0	-48.1	15.0	0.00e+00	0	28	0	2663383040	59	4255
2026-01-15 12:16:15.83	306.65	51.92	-46.9	-48.0	15.0	0.00e+00	0	28	0	2668625920	59	4215
2026-01-15 12:16:16.82	307.03	51.63	-47.1	-48.2	15.0	0.00e+00	0	28	0	2674917376	59	4312
2026-01-15 12:16:17.80	307.40	51.35	-47.1	-48.2	15.0	0.00e+00	0	28	0	2680160256	59	4303
2026-01-15 12:16:18.80	307.78	51.07	-47.1	-48.2	15.0	0.00e+00	0	28	0	2685403136	59	4306
2026-01-15 12:16:19.80	308.14	50.78	-47.0	-48.1	15.0	0.00e+00	0	28	0	2691694592	59	4253
2026-01-15 12:16:20.79	308.49	50.50	-46.9	-48.0	15.1	0.00e+00	0	28	0	2696937472	59	4194
2026-01-15 12:16:21.79	308.85	50.21	-46.9	-48.0	15.0	0.00e+00	0	28	0	2702180352	59	4235
2026-01-15 12:16:22.78	309.19	49.93	-46.9	-48.0	15.1	0.00e+00	0	28	0	2708471808	59	4198
2026-01-15 12:16:23.78	309.53	49.65	-47.0	-48.1	15.0	0.00e+00	0	28	0	2713714688	59	4278
2026-01-15 12:16:24.77	309.86	49.37	-46.8	-47.8	15.1	0.00e+00	0	28	0	2718957568	59	4145
2026-01-15 12:16:25.76	310.18	49.09	-46.8	-47.8	15.1	0.00e+00	0	28	0	2725249024	59	4139
2026-01-15 12:16:26.76	310.50	48.81	-46.8	-47.9	15.1	0.00e+00	0	28	0	2730491904	59	4177
2026-01-15 12:16:27.75	310.81	48.53	-46.7	-47.8	15.1	0.00e+00	0	28	0	2735734784	59	4122
2026-01-15 12:16:28.75	311.12	48.25	-46.7	-47.8	15.1	0.00e+00	0	28	0	2742026240	59	4121
2026-01-15 12:16:29.74	311.42	47.97	-46.7	-47.8	15.1	0.00e+00	0	28	0	2747269120	59	4126
2026-01-15 12:16:30.74	311.72	47.70	-46.6	-47.6	15.1	0.00e+00	0	28	0	2752512000	59	4051
2026-01-15 12:16:31.74	312.01	47.42	-46.4	-47.5	15.2	0.00e+00	0	28	0	2758803456	59	3984
2026-01-15 12:16:32.73	312.30	47.15	-46.5	-47.6	15.1	0.00e+00	0	28	0	2764046336	59	4030
2026-01-15 12:16:33.73	312.58	46.87	-46.8	-47.9	15.1	0.00e+00	0	28	0	2769289216	59	4171
2026-01-15 12:16:34.72	312.86	46.60	-46.9	-48.0	15.1	0.00e+00	0	28	0	2775580672	59	4213
2026-01-15 12:16:35.72	313.13	46.33	-46.9	-48.0	15.0	0.00e+00	0	28	0	2780823552	59	4240
2026-01-15 12:16:36.72	313.40	46.06	-46.7	-47.8	15.1	0.00e+00	0	28	0	2787115008	59	4125
2026-01-15 12:16:37.72	313.67	45.79	-46.4	-47.4	15.2	0.00e+00	0	28	0	2792357888	59	3935
2026-01-15 12:16:38.71	313.93	45.52	-46.0	-47.0	15.2	0.00e+00	0	28	0	2797600768	58	4000
2026-01-15 12:16:39.70	314.18	45.26	-46.1	-47.1	15.2	0.00e+00	0	28	0	2803892224	58	4034
2026-01-15 12:16:40.70	314.43	44.99	-46.3	-47.3	15.1	0.00e+00	0	28	0	2809135104	58	4143
2026-01-15 12:16:41.69	314.68	44.73	-46.5	-47.6	15.1	0.00e+00	0	28	0	2814377984	58	4258
2026-01-15 12:16:42.68	314.92	44.47	-46.6	-47.7	15.1	0.00e+00	0	28	0	2819620864	58	4292
2026-01-15 12:16:43.68	315.16	44.21	-46.5	-47.6	15.1	0.00e+00	0	28	0	2825912320	58	4290
2026-01-15 12:16:44.67	315.39	43.95	-46.4	-47.5	15.1	0.00e+00	0	28	0	2831155200	58	4225
2026-01-15 12:16:45.67	315.63	43.69	-46.4	-47.5	15.1	0.00e+00	0	28	0	2837446656	58	4218
2026-01-15 12:16:46.66	315.85	43.43	-46.5	-47.5	15.0	0.00e+00	0	28	0	2842689536	58	4222
2026-01-15 12:16:47.65	316.08	43.17	-46.5	-47.6	15.0	0.00e+00	0	28	0	2847932416	58	4246
2026-01-15 12:16:48.64	316.30	42.92	-46.3	-47.3	15.1	0.00e+00	0	28	0	2853175296	58	4133
2026-01-15 12:16:49.63	316.51	42.67	-46.3	-47.3	15.1	0.00e+00	0	28	0	2859466752	58	4130
2026-01-15 12:16:50.63	316.73	42.41	-46.3	-47.3	15.1	0.00e+00	0	28	0	2864709632	58	4135
2026-01-15 12:16:51.63	316.94	42.16	-46.2	-47.3	15.1	0.00e+00	0	28	0	2869952512	58	4127
2026-01-15 12:16:52.64	317.15	41.91	-46.3	-47.3	15.1	0.00e+00	0	28	0	2876243968	58	4140
2026-01-15 12:16:53.64	317.36	41.66	-46.3	-47.3	15.1	0.00e+00	0	28	0	2881486848	58	4124
2026-01-15 12:16:54.64	317.56	41.41	-46.1	-47.1	15.2	0.00e+00	0	28	0	2887778304	58	4050
2026-01-15 12:16:55.63	317.76	41.16	-46.1	-47.1	15.2	0.00e+00	0	28	0	2893021184	58	4025
2026-01-15 12:16:56.62	317.95	40.92	-46.1	-47.1	15.2	0.00e+00	0	28	0	2898264064	58	4018
2026-01-15 12:16:57.62	318.14	40.68	-46.1	-47.1	15.2	0.00e+00	0	28	0	2904555520	58	4036
2026-01-15 12:16:58.61	318.33	40.43	-46.1	-47.2	15.2	0.00e+00	0	28	0	2909798400	58	4071
2026-01-15 12:16:59.60	318.52	40.20	-46.2	-47.3	15.1	0.00e+00	0	28	0	2915041280	58	4102
2026-01-15 12:17:00.60	318.70	39.95	-46.1	-47.2	15.1	0.00e+00	0	28	0	2921332736	58	4069
2026-01-15 12:17:01.59	318.88	39.72	-46.2	-47.2	15.1	0.00e+00	0	28	0	2926575616	58	4090
2026-01-15 12:17:02.58	319.06	39.48	-46.2	-47.3	15.1	0.00e+00	0	28	0	2931818496	58	4103
2026-01-15 12:17:03.58	319.24	39.24	-46.2	-47.3	15.2	0.00e+00	0	28	0	2938109952	58	4102
2026-01-15 12:17:04.58	319.42	39.01	-46.3	-47.4	15.1	0.00e+00	0	28	0	2943352832	58	4165
2026-01-15 12:17:05.58	319.59	38.77	-46.2	-47.3	15.2	0.00e+00	0	28	0	2948595712	58	4103
2026-01-15 12:17:06.57	319.76	38.54	-46.2	-47.3	15.1	0.00e+00	0	28	0	2954887168	58	4112
2026-01-15 12:17:07.56	319.92	38.31	-46.1	-47.1	15.2	0.00e+00	0	28	0	2960130048	58	4036
2026-01-15 12:17:08.55	320.09	38.09	-46.1	-47.2	15.2	0.00e+00	0	28	0	2965372928	58	4061
2026-01-15 12:17:09.55	320.25	37.86	-45.8	-46.9	15.3	0.00e+00	0	28	0	2971664384	58	3919
2026-01-15 12:17:10.53	320.41	37.64	-45.6	-46.6	15.2	0.00e+00	0	28	0	2976907264	57	4029
2026-01-15 12:17:11.52	320.57	37.41	-45.6	-46.6	15.2	0.00e+00	0	28	0	2982150144	57	4046
2026-01-15 12:17:12.52	320.72	37.19	-45.7	-46.7	15.2	0.00e+00	0	28	0	2988441600	57	4091
2026-01-15 12:17:13.52	320.88	36.96	-45.7	-46.7	15.2	0.00e+00	0	28	0	2993684480	57	4067
2026-01-15 12:17:14.51	321.03	36.74	-45.7	-46.7	15.2	0.00e+00	0	28	0	2998927360	57	4092
2026-01-15 12:17:15.51	321.18	36.52	-45.7	-46.7	15.2	0.00e+00	0	28	0	3005218816	57	4087
2026-01-15 12:17:16.51	321.33	36.30	-45.8	-46.8	15.1	0.00e+00	0	28	0	3010461696	57	4123
2026-01-15 12:17:17.51	321.47	36.08	-45.9	-46.9	15.1	0.00e+00	0	28	0	3015704576	57	4190
2026-01-15 12:17:18.50	321.62	35.87	-45.9	-47.0	15.1	0.00e+00	0	28	0	3021996032	57	4198
2026-01-15 12:17:19.50	321.76	35.65	-46.0	-47.1	15.1	0.00e+00	0	28	0	3027238912	57	4252
2026-01-15 12:17:20.50	321.90	35.44	-45.9	-47.0	15.1	0.00e+00	0	28	0	3032481792	57	4211
2026-01-15 12:17:21.49	322.04	35.23	-46.0	-47.0	15.1	0.00e+00	0	28	0	3038773248	57	4240
2026-01-15 12:17:22.49	322.18	35.01	-46.0	-47.0	15.1	0.00e+00	0	28	0	3044016128	57	4230
2026-01-15 12:17:23.47	322.31	34.81	-46.0	-47.1	15.1	0.00e+00	0	28	0	3049259008	57	4251
2026-01-15 12:17:24.47	322.45	34.60	-46.2	-47.2	15.1	0.00e+00	0	28	0	3055550464	57	4330
2026-01-15 12:17:25.46	322.58	34.39	-46.1	-47.2	15.1	0.00e+00	0	28	0	3060793344	57	4295
2026-01-15 12:17:26.45	322.71	34.18	-46.2	-47.3	15.0	0.00e+00	0	28	0	3066036224	57	4363
2026-01-15 12:17:27.45	322.84	33.98	-46.3	-47.4	15.0	0.00e+00	0	28	0	3072327680	57	4396
2026-01-15 12:17:28.45	322.97	33.77	-46.3	-47.3	15.0	0.00e+00	0	28	0	3077570560	57	4386
2026-01-15 12:17:29.45	323.09	33.57	-46.4	-47.5	15.0	0.00e+00	0	28	0	3082813440	57	4450
2026-01-15 12:17:30.45	323.22	33.37	-46.3	-47.4	15.0	0.00e+00	0	28	0	3089104896	57	4393
2026-01-15 12:17:31.44	323.34	33.17	-46.2	-47.2	15.1	0.00e+00	0	28	0	3094347776	57	4340
2026-01-15 12:17:32.44	323.46	32.97	-46.2	-47.3	15.0	0.00e+00	0	28	0	3099590656	57	4379
2026-01-15 12:17:33.45	323.58	32.77	-46.2	-47.3	15.0	0.00e+00	0	28	0	3105882112	57	4345
2026-01-15 12:17:34.46	323.70	32.57	-46.1	-47.1	15.1	0.00e+00	0	28	0	3111124992	57	4288
2026-01-15 12:17:35.45	323.82	32.37	-46.2	-47.2	15.0	0.00e+00	0	28	0	3117416448	57	4327
2026-01-15 12:17:36.45	323.94	32.18	-46.2	-47.3	15.0	0.00e+00	0	28	0	3122659328	57	4350
2026-01-15 12:17:37.44	324.05	31.99	-46.1	-47.1	15.1	0.00e+00	0	28	0	3127902208	57	4290
2026-01-15 12:17:38.43	324.16	31.79	-46.2	-47.3	15.0	0.00e+00	0	28	0	3133145088	57	4365
2026-01-15 12:17:39.42	324.28	31.60	-46.2	-47.3	15.0	0.00e+00	0	28	0	3139436544	57	4374
2026-01-15 12:17:40.42	324.39	31.41	-46.2	-47.3	15.0	0.00e+00	0	28	0	3144679424	57	4366
2026-01-15 12:17:41.42	324.50	31.22	-46.3	-47.3	15.0	0.00e+00	0	28	0	3150970880	57	4388
2026-01-15 12:17:42.42	324.61	31.04	-46.3	-47.4	15.0	0.00e+00	0	28	0	3156213760	57	4401
2026-01-15 12:17:43.41	324.71	30.85	-46.3	-47.4	15.0	0.00e+00	0	28	0	3161456640	57	4409
2026-01-15 12:17:44.41	324.82	30.66	-46.4	-47.5	15.1	0.00e+00	0	28	0	3167748096	58	4223
2026-01-15 12:17:45.41	324.92	30.48	-46.5	-47.5	15.1	0.00e+00	0	28	0	3172990976	58	4234
2026-01-15 12:17:46.42	325.03	30.29	-46.3	-47.4	15.1	0.00e+00	0	28	0	3178233856	58	4189
2026-01-15 12:17:47.40	325.13	30.11	-46.3	-47.4	15.1	0.00e+00	0	28	0	3184525312	58	4172
2026-01-15 12:17:48.40	325.23	29.93	-46.3	-47.4	15.1	0.00e+00	0	28	0	3189768192	58	4167
2026-01-15 12:17:49.39	325.33	29.75	-46.3	-47.3	15.1	0.00e+00	0	28	0	3195011072	58	4137
2026-01-15 12:17:50.38	325.43	29.57	-46.1	-47.2	15.1	0.00e+00	0	28	0	3201302528	58	4064
2026-01-15 12:17:51.38	325.53	29.40	-46.2	-47.3	15.1	0.00e+00	0	28	0	3206545408	58	4111
2026-01-15 12:17:52.38	325.63	29.22	-46.3	-47.4	15.1	0.00e+00	0	28	0	3211788288	58	4155
2026-01-15 12:17:53.38	325.72	29.04	-46.2	-47.3	15.1	0.00e+00	0	28	0	3218079744	58	4099
2026-01-15 12:17:54.36	325.82	28.87	-46.1	-47.2	15.1	0.00e+00	0	28	0	3223322624	58	4064
2026-01-15 12:17:55.37	325.91	28.69	-46.2	-47.3	15.1	0.00e+00	0	28	0	3228565504	58	4113
2026-01-15 12:17:56.36	326.01	28.52	-46.3	-47.4	15.1	0.00e+00	0	28	0	3234856960	58	4163
2026-01-15 12:17:57.36	326.10	28.35	-46.4	-47.4	15.1	0.00e+00	0	28	0	3240099840	58	4193
2026-01-15 12:17:58.36	326.19	28.18	-46.4	-47.5	15.1	0.00e+00	0	28	0	3246391296	58	4200
2026-01-15 12:17:59.36	326.28	28.00	-46.4	-47.5	15.1	0.00e+00	0	28	0	3251634176	58	4233
2026-01-15 12:18:00.35	326.37	27.84	-46.4	-47.4	15.1	0.00e+00	0	28	0	3256877056	58	4193
2026-01-15 12:18:01.34	326.46	27.67	-46.4	-47.5	15.1	0.00e+00	0	28	0	3262119936	58	4197
2026-01-15 12:18:02.33	326.55	27.50	-46.4	-47.5	15.1	0.00e+00	0	28	0	3268411392	58	4208
2026-01-15 12:18:03.33	326.63	27.34	-46.3	-47.4	15.1	0.00e+00	0	28	0	3273654272	58	4153
2026-01-15 12:18:04.32	326.72	27.17	-46.2	-47.3	15.1	0.00e+00	0	28	0	3278897152	58	4117
2026-01-15 12:18:05.31	326.80	27.01	-46.3	-47.3	15.1	0.00e+00	0	28	0	3285188608	58	4141
2026-01-15 12:18:06.31	326.89	26.84	-46.3	-47.4	15.1	0.00e+00	0	28	0	3290431488	58	4159
2026-01-15 12:18:07.31	326.97	26.68	-46.2	-47.3	15.1	0.00e+00	0	28	0	3296722944	58	4110
2026-01-15 12:18:08.30	327.05	26.52	-46.0	-47.1	15.2	0.00e+00	0	28	0	3301965824	58	4014
2026-01-15 12:18:09.29	327.14	26.36	-46.1	-47.1	15.2	0.00e+00	0	28	0	3307208704	58	4044
2026-01-15 12:18:10.30	327.22	26.20	-46.2	-47.2	15.1	0.00e+00	0	28	0	3313500160	58	4087
2026-01-15 12:18:11.29	327.30	26.04	-46.1	-47.1	15.1	0.00e+00	0	28	0	3318743040	58	4048
2026-01-15 12:18:12.30	327.38	25.88	-46.1	-47.1	15.2	0.00e+00	0	28	0	3323985920	58	4043
2026-01-15 12:18:13.30	327.46	25.72	-46.1	-47.2	15.1	0.00e+00	0	28	0	3330277376	58	4064
2026-01-15 12:18:14.29	327.54	25.57	-46.2	-47.3	15.1	0.00e+00	0	28	0	3335520256	58	4110
2026-01-15 12:18:15.28	327.61	25.41	-46.3	-47.4	15.1	0.00e+00	0	28	0	3340763136	58	4162
2026-01-15 12:18:16.28	327.69	25.26	-46.3	-47.3	15.1	0.00e+00	0	28	0	3347054592	58	4141
2026-01-15 12:18:17.28	327.77	25.10	-46.4	-47.5	15.0	0.00e+00	0	28	0	3352297472	58	4222
2026-01-15 12:18:18.26	327.84	24.95	-46.4	-47.5	15.1	0.00e+00	0	28	0	3357540352	58	4222
2026-01-15 12:18:19.26	327.92	24.80	-46.5	-47.5	15.0	0.00e+00	0	28	0	3363831808	58	4232
2026-01-15 12:18:20.25	327.99	24.65	-46.6	-47.6	15.0	0.00e+00	0	28	0	3369074688	58	4288
2026-01-15 12:18:21.24	328.06	24.50	-46.5	-47.6	15.0	0.00e+00	0	28	0	3374317568	58	4282
2026-01-15 12:18:22.23	328.14	24.35	-46.6	-47.7	15.0	0.00e+00	0	28	0	3379560448	58	4298
2026-01-15 12:18:23.23	328.21	24.20	-46.6	-47.7	15.0	0.00e+00	0	28	0	3385851904	58	4314
2026-01-15 12:18:24.23	328.28	24.06	-46.7	-47.8	15.0	0.00e+00	0	28	0	3391094784	58	4379
2026-01-15 12:18:25.23	328.35	23.91	-46.7	-47.8	15.0	0.00e+00	0	28	0	3397386240	58	4369
2026-01-15 12:18:26.23	328.42	23.76	-46.7	-47.8	15.0	0.00e+00	0	28	0	3402629120	58	4350
2026-01-15 12:18:27.23	328.49	23.61	-46.8	-47.9	15.0	0.00e+00	0	28	0	3407872000	58	4408
2026-01-15 12:18:28.22	328.56	23.47	-46.8	-47.9	15.0	0.00e+00	0	28	0	3414163456	58	4403
2026-01-15 12:18:29.23	328.63	23.32	-46.9	-48.0	15.0	0.00e+00	0	28	0	3419406336	59	4225
2026-01-15 12:18:30.22	328.70	23.18	-46.9	-48.1	15.0	0.00e+00	0	28	0	3424649216	59	4243
2026-01-15 12:18:31.22	328.76	23.04	-47.0	-48.1	15.0	0.00e+00	0	28	0	3430940672	59	4257
2026-01-15 12:18:32.21	328.83	22.90	-47.1	-48.2	15.0	0.00e+00	0	28	0	3436183552	59	4293
2026-01-15 12:18:33.20	328.90	22.76	-47.1	-48.2	15.0	0.00e+00	0	28	0	3441426432	59	4326
2026-01-15 12:18:34.20	328.96	22.62	-47.1	-48.3	14.9	0.00e+00	0	28	0	3447717888	59	4345
2026-01-15 12:18:35.20	329.03	22.48	-47.3	-48.4	14.9	0.00e+00	0	28	0	3452960768	59	4411
2026-01-15 12:18:36.20	329.09	22.34	-47.3	-48.4	14.9	0.00e+00	0	28	0	3459252224	59	4429
2026-01-15 12:18:37.19	329.16	22.20	-47.3	-48.5	14.9	0.00e+00	0	28	0	3464495104	59	4454
2026-01-15 12:18:38.20	329.22	22.06	-47.3	-48.4	14.9	0.00e+00	0	28	0	3469737984	59	4434
2026-01-15 12:18:39.20	329.28	21.92	-47.4	-48.5	14.9	0.00e+00	0	28	0	3476029440	59	4467
2026-01-15 12:18:40.20	329.35	21.79	-47.3	-48.5	14.9	0.00e+00	0	28	0	3481272320	59	4453
2026-01-15 12:18:41.19	329.41	21.65	-47.4	-48.5	14.9	0.00e+00	0	28	0	3486515200	59	4489
2026-01-15 12:18:42.18	329.47	21.52	-47.2	-48.3	15.0	0.00e+00	0	28	0	3491758080	60	4127
2026-01-15 12:18:43.17	329.53	21.39	-47.1	-48.2	15.0	0.00e+00	0	28	0	3498049536	60	4079
2026-01-15 12:18:44.16	329.59	21.25	-47.0	-48.1	15.1	0.00e+00	0	28	0	3503292416	60	4043
2026-01-15 12:18:45.16	329.65	21.12	-47.2	-48.3	15.0	0.00e+00	0	28	0	3509583872	60	4124
2026-01-15 12:18:46.16	329.71	20.99	-47.1	-48.3	15.0	0.00e+00	0	28	0	3514826752	60	4100
2026-01-15 12:18:47.16	329.77	20.86	-47.0	-48.1	15.1	0.00e+00	0	28	0	3520069632	60	4037
2026-01-15 12:18:48.15	329.83	20.73	-47.1	-48.2	15.0	0.00e+00	0	28	0	3526361088	60	4078
2026-01-15 12:18:49.14	329.89	20.60	-47.2	-48.3	15.0	0.00e+00	0	28	0	3531603968	60	4115
2026-01-15 12:18:50.13	329.94	20.47	-47.1	-48.2	15.0	0.00e+00	0	28	0	3536846848	60	4056
2026-01-15 12:18:51.13	330.00	20.34	-47.1	-48.2	15.0	0.00e+00	0	28	0	3542089728	60	4068
2026-01-15 12:18:52.12	330.06	20.21	-46.9	-48.0	15.1	0.00e+00	0	28	0	3548381184	60	3997
2026-01-15 12:18:53.12	330.11	20.09	-46.9	-48.0	15.1	0.00e+00	0	28	0	3553624064	60	3991
2026-01-15 12:18:54.11	330.17	19.96	-47.0	-48.1	15.1	0.00e+00	0	28	0	3559915520	60	4019
2026-01-15 12:18:55.10	330.22	19.83	-47.0	-48.1	15.0	0.00e+00	0	28	0	3565158400	60	4031
2026-01-15 12:18:56.10	330.28	19.71	-47.0	-48.1	15.0	0.00e+00	0	28	0	3570401280	60	4044
2026-01-15 12:18:57.10	330.33	19.58	-47.0	-48.1	15.1	0.00e+00	0	28	0	3575644160	60	4022
2026-01-15 12:18:58.09	330.39	19.46	-47.1	-48.1	15.0	0.00e+00	0	28	0	3581935616	60	4050
2026-01-15 12:18:59.09	330.44	19.34	-47.0	-48.1	15.0	0.00e+00	0	28	0	3587178496	60	4039
2026-01-15 12:19:00.09	330.50	19.21	-47.2	-48.3	15.0	0.00e+00	0	28	0	3592421376	60	4126
2026-01-15 12:19:01.08	330.55	19.09	-47.3	-48.4	15.0	0.00e+00	0	28	0	3598712832	60	4151
2026-01-15 12:19:02.07	330.60	18.97	-47.3	-48.4	14.9	0.00e+00	0	28	0	3603955712	60	4183
2026-01-15 12:19:03.06	330.65	18.85	-47.4	-48.5	14.9	0.00e+00	0	28	0	3610247168	60	4231
2026-01-15 12:19:04.06	330.70	18.73	-47.4	-48.5	14.9	0.00e+00	0	28	0	3615490048	60	4240
2026-01-15 12:19:05.06	330.76	18.61	-47.4	-48.5	14.9	0.00e+00	0	28	0	3620732928	60	4208
2026-01-15 12:19:06.06	330.81	18.49	-47.4	-48.5	14.9	0.00e+00	0	28	0	3627024384	60	4239
2026-01-15 12:19:07.06	330.86	18.37	-47.5	-48.6	14.9	0.00e+00	0	28	0	3632267264	60	4287
2026-01-15 12:19:08.05	330.91	18.25	-47.6	-48.7	14.9	0.00e+00	0	28	0	3637510144	60	4310
2026-01-15 12:19:09.04	330.96	18.13	-47.6	-48.8	14.8	0.00e+00	0	28	0	3642753024	60	4355
2026-01-15 12:19:10.03	331.01	18.02	-47.7	-48.8	14.8	0.00e+00	0	28	0	3649044480	60	4382
2026-01-15 12:19:11.03	331.06	17.90	-47.7	-48.8	14.8	0.00e+00	0	28	0	3654287360	60	4379
2026-01-15 12:19:12.03	331.11	17.78	-47.7	-48.9	14.8	0.00e+00	0	28	0	3660578816	60	4407
2026-01-15 12:19:13.03	331.16	17.67	-47.8	-48.9	14.8	0.00e+00	0	28	0	3665821696	60	4418
2026-01-15 12:19:14.02	331.20	17.55	-47.8	-49.0	14.8	0.00e+00	0	28	0	3671064576	60	4470
2026-01-15 12:19:15.02	331.25	17.44	-47.9	-49.0	14.8	0.00e+00	0	28	0	3677356032	60	4484
