passes_logs/2026/01/15/R3.2S_Murmansk/R3.2S_Murmansk__20260115_083227_2024-110A_rec.log

#Pass ID: 20260115_083227_2024-110A
#Satellite: 2024-110A
#Configuration: 01B_900M
#almurnet v.1.7.20251203
#Start time: 2026-01-15 08:32:29

#Version: 2.2.20231116
#Station: R3.2S_Murmansk
#Location: 33.079688 lon 68.888172 lat
#TLE: 1 60012U 24110A   26014.61020317  .00004527  00000+0  27571-3 0  9992
#TLE: 2 60012  97.5746 107.6203 0010233  68.3028 291.9290 15.10856151 88702

#Time	Az	El	Level	Level2	SNR	BER	BlckErr	Temp	State	Recorded	gain1	gain2
2026-01-15 08:32:29.41	23.49	2.10	-57.5	-60.8	6.1	0.00e+00	0	29	0	0	80	22690
2026-01-15 08:32:30.43	23.59	2.16	-57.6	-60.9	6.2	0.00e+00	0	28	104	0	82	20452
2026-01-15 08:32:31.43	23.69	2.21	-57.6	-60.8	6.1	0.00e+00	0	28	104	0	82	20356
2026-01-15 08:32:32.44	23.79	2.27	-57.6	-60.8	6.1	0.00e+00	0	28	104	0	81	21437
2026-01-15 08:32:33.44	23.89	2.33	-57.6	-60.8	6.1	0.00e+00	0	28	104	0	81	21424
2026-01-15 08:32:34.45	24.00	2.39	-57.6	-60.8	6.2	0.00e+00	0	28	104	0	81	21443
2026-01-15 08:32:35.46	24.10	2.45	-57.6	-60.8	6.2	0.00e+00	0	28	104	0	81	21472
2026-01-15 08:32:36.47	24.20	2.51	-57.6	-60.8	6.2	0.00e+00	0	28	104	0	81	21412
2026-01-15 08:32:37.48	24.31	2.57	-57.6	-60.8	6.1	0.00e+00	0	28	104	0	80	22688
2026-01-15 08:32:38.48	24.41	2.62	-57.6	-60.8	6.1	0.00e+00	0	29	104	0	80	22752
2026-01-15 08:32:39.49	24.52	2.68	-57.6	-60.8	6.2	0.00e+00	0	29	104	0	80	22792
2026-01-15 08:32:40.50	24.62	2.74	-57.6	-60.8	6.1	0.00e+00	0	29	104	0	80	22753
2026-01-15 08:32:41.51	24.73	2.80	-57.6	-60.8	6.1	0.00e+00	0	29	104	0	80	22797
2026-01-15 08:32:42.52	24.84	2.86	-57.6	-60.8	6.1	0.00e+00	0	29	104	0	80	22768
2026-01-15 08:32:43.52	24.94	2.92	-57.6	-60.8	6.1	0.00e+00	0	29	104	0	80	22827
2026-01-15 08:32:44.53	25.05	2.98	-57.6	-60.8	6.1	0.00e+00	0	29	104	0	80	22746
2026-01-15 08:32:45.54	25.16	3.04	-57.6	-60.8	6.1	0.00e+00	0	29	104	0	80	22776
2026-01-15 08:32:46.55	25.27	3.10	-57.6	-60.8	6.2	0.00e+00	0	29	104	0	80	22714
2026-01-15 08:32:47.56	25.37	3.16	-57.6	-60.8	6.2	0.00e+00	0	29	104	0	80	22755
2026-01-15 08:32:48.56	25.48	3.22	-57.6	-60.8	6.1	0.00e+00	0	29	104	0	80	22700
2026-01-15 08:32:49.57	25.59	3.28	-57.6	-60.8	6.1	0.00e+00	0	29	104	0	80	22737
2026-01-15 08:32:50.58	25.70	3.34	-57.6	-60.8	6.1	0.00e+00	0	29	104	0	80	22764
2026-01-15 08:32:51.59	25.82	3.40	-57.6	-60.8	6.2	0.00e+00	0	29	104	0	80	22680
2026-01-15 08:32:52.60	25.93	3.46	-57.6	-60.8	6.1	0.00e+00	0	29	104	0	80	22819
2026-01-15 08:32:53.61	26.04	3.52	-57.6	-60.8	6.2	0.00e+00	0	29	104	0	80	22756
2026-01-15 08:32:54.62	26.15	3.58	-57.6	-60.8	6.1	0.00e+00	0	29	104	0	80	22826
2026-01-15 08:32:55.63	26.27	3.64	-57.6	-60.8	6.2	0.00e+00	0	29	104	0	80	22695
2026-01-15 08:32:56.64	26.38	3.70	-57.6	-60.8	6.1	0.00e+00	0	29	104	0	80	22824
2026-01-15 08:32:57.65	26.50	3.76	-57.6	-60.8	6.1	0.00e+00	0	29	104	0	80	22771
2026-01-15 08:32:58.66	26.61	3.82	-57.6	-60.8	6.2	0.00e+00	0	29	104	0	80	22848
2026-01-15 08:32:59.67	26.73	3.88	-57.6	-60.8	6.2	0.00e+00	0	29	104	0	80	22713
2026-01-15 08:33:00.68	26.84	3.95	-57.6	-60.8	6.2	0.00e+00	0	29	104	0	80	22819
2026-01-15 08:33:01.68	26.96	4.01	-57.6	-60.8	6.1	0.00e+00	0	29	104	0	80	22793
2026-01-15 08:33:02.69	27.08	4.07	-57.6	-60.8	6.2	0.00e+00	0	29	104	0	80	22821
2026-01-15 08:33:03.69	27.19	4.13	-57.6	-60.8	6.1	0.00e+00	0	29	104	0	80	22659
2026-01-15 08:33:04.70	27.31	4.19	-57.6	-60.8	6.2	0.00e+00	0	29	104	0	80	22829
2026-01-15 08:33:05.71	27.43	4.25	-57.6	-60.8	6.1	0.00e+00	0	29	104	0	80	22837
2026-01-15 08:33:06.72	27.55	4.31	-57.6	-60.8	6.2	0.00e+00	0	29	104	0	80	22782
2026-01-15 08:33:07.73	27.67	4.38	-57.6	-60.8	6.2	0.00e+00	0	29	104	0	80	22857
2026-01-15 08:33:08.74	27.79	4.44	-57.6	-60.8	6.2	0.00e+00	0	29	104	0	80	22809
2026-01-15 08:33:09.75	27.91	4.50	-57.6	-60.8	6.1	0.00e+00	0	29	104	0	80	22757
2026-01-15 08:33:10.75	28.04	4.56	-57.6	-60.8	6.1	0.00e+00	0	29	104	0	80	22802
2026-01-15 08:33:11.76	28.16	4.62	-57.5	-60.8	6.1	0.00e+00	0	29	104	0	80	22746
2026-01-15 08:33:12.76	28.28	4.68	-57.5	-60.8	6.2	0.00e+00	0	29	104	0	80	22644
2026-01-15 08:33:13.77	28.41	4.75	-57.5	-60.8	6.1	0.00e+00	0	29	104	0	80	22655
2026-01-15 08:33:14.78	28.53	4.81	-57.5	-60.8	6.2	0.00e+00	0	29	104	0	80	22666
2026-01-15 08:33:15.79	28.66	4.87	-57.6	-60.8	6.2	0.00e+00	0	29	104	0	80	22690
2026-01-15 08:33:16.80	28.78	4.93	-57.5	-60.7	6.1	0.00e+00	0	29	104	0	80	22616
2026-01-15 08:33:17.81	28.91	5.00	-57.6	-60.8	6.2	0.00e+00	0	29	104	0	80	22685
2026-01-15 08:33:18.81	29.03	5.06	-58.2	-61.4	6.2	0.00e+00	0	29	104	0	82	21766
2026-01-15 08:33:19.82	29.16	5.12	-57.8	-61.0	6.2	0.00e+00	0	30	104	0	82	20717
2026-01-15 08:33:20.83	29.29	5.19	-57.6	-60.9	6.2	0.00e+00	0	29	104	0	81	21665
2026-01-15 08:33:21.84	29.42	5.25	-57.4	-60.6	6.2	0.00e+00	0	29	104	0	81	20907
2026-01-15 08:33:22.85	29.55	5.31	-57.9	-61.0	6.1	0.00e+00	0	30	104	0	81	22071
2026-01-15 08:33:23.85	29.68	5.37	-57.8	-61.0	6.2	0.00e+00	0	29	104	0	81	21909
2026-01-15 08:33:24.86	29.81	5.44	-57.7	-60.9	6.1	0.00e+00	0	29	104	0	81	21824
2026-01-15 08:33:25.87	29.94	5.50	-57.4	-60.7	6.2	0.00e+00	0	30	104	0	81	21177
2026-01-15 08:33:26.88	30.08	5.56	-57.9	-61.1	6.1	0.00e+00	0	30	104	0	81	22177
2026-01-15 08:33:27.89	30.21	5.63	-57.8	-61.0	6.1	0.00e+00	0	30	104	0	81	22019
2026-01-15 08:33:28.89	30.34	5.69	-57.8	-61.0	6.1	0.00e+00	0	30	104	0	81	21944
2026-01-15 08:33:29.90	30.48	5.76	-57.6	-60.8	6.2	0.00e+00	0	29	104	0	81	21578
2026-01-15 08:33:30.91	30.61	5.82	-57.9	-61.1	6.1	0.00e+00	0	30	104	0	81	22214
2026-01-15 08:33:31.92	30.75	5.88	-57.8	-61.0	6.1	0.00e+00	0	30	104	0	81	22044
2026-01-15 08:33:32.93	30.89	5.95	-57.8	-61.0	6.1	0.00e+00	0	30	104	0	81	21972
2026-01-15 08:33:33.93	31.02	6.01	-57.7	-60.9	6.2	0.00e+00	0	30	104	0	81	21782
2026-01-15 08:33:34.94	31.16	6.08	-57.9	-61.1	6.1	0.00e+00	0	30	104	0	81	22288
2026-01-15 08:33:35.95	31.30	6.14	-57.9	-61.1	6.1	0.00e+00	0	30	104	0	81	22307
2026-01-15 08:33:36.96	31.44	6.20	-57.9	-61.1	6.2	0.00e+00	0	30	104	0	81	22206
2026-01-15 08:33:37.97	31.58	6.27	-57.8	-61.0	6.2	0.00e+00	0	30	104	0	81	21963
2026-01-15 08:33:38.98	31.72	6.33	-58.0	-61.2	6.1	0.00e+00	0	30	104	0	81	22454
2026-01-15 08:33:39.98	31.86	6.40	-58.0	-61.2	6.1	0.00e+00	0	30	104	0	81	22467
2026-01-15 08:33:40.99	32.00	6.46	-57.9	-61.1	6.1	0.00e+00	0	30	104	0	81	22359
2026-01-15 08:33:42.00	32.15	6.53	-57.9	-61.1	6.2	0.00e+00	0	30	104	0	81	22259
2026-01-15 08:33:43.01	32.29	6.59	-58.1	-61.3	6.1	0.00e+00	0	30	104	0	81	22675
2026-01-15 08:33:44.02	32.44	6.66	-58.0	-61.3	6.1	0.00e+00	0	30	104	0	81	22742
2026-01-15 08:33:45.03	32.58	6.72	-58.0	-61.2	6.2	0.00e+00	0	30	104	0	81	22531
2026-01-15 08:33:46.04	32.73	6.79	-57.9	-61.2	6.2	0.00e+00	0	30	104	0	81	22434
2026-01-15 08:33:47.05	32.88	6.85	-58.2	-61.4	6.2	0.00e+00	0	30	104	0	82	21702
2026-01-15 08:33:48.06	33.02	6.92	-58.1	-61.4	6.1	0.00e+00	0	30	104	0	82	21733
2026-01-15 08:33:49.06	33.17	6.98	-58.1	-61.3	6.1	0.00e+00	0	30	104	0	82	21521
2026-01-15 08:33:50.06	33.32	7.05	-58.0	-61.3	6.2	0.00e+00	0	30	104	0	82	21407
2026-01-15 08:33:51.07	33.47	7.11	-58.3	-61.5	6.1	0.00e+00	0	30	104	0	82	22002
2026-01-15 08:33:52.08	33.62	7.18	-58.2	-61.4	6.2	0.00e+00	0	30	104	0	82	21818
2026-01-15 08:33:53.09	33.77	7.24	-58.1	-61.4	6.2	0.00e+00	0	30	104	0	82	21650
2026-01-15 08:33:54.10	33.93	7.31	-58.1	-61.3	6.1	0.00e+00	0	30	104	0	82	21597
2026-01-15 08:33:55.11	34.08	7.38	-58.3	-61.5	6.2	0.00e+00	0	30	104	0	82	21912
2026-01-15 08:33:56.11	34.23	7.44	-58.2	-61.5	6.1	0.00e+00	0	30	104	0	82	21864
2026-01-15 08:33:57.12	34.39	7.51	-58.2	-61.4	6.2	0.00e+00	0	30	104	0	82	21795
2026-01-15 08:33:58.12	34.54	7.57	-58.1	-61.3	6.2	0.00e+00	0	30	104	0	82	21605
2026-01-15 08:33:59.13	34.70	7.64	-58.3	-61.6	6.1	0.00e+00	0	30	104	0	82	22169
2026-01-15 08:34:00.13	34.86	7.70	-58.3	-61.5	6.2	0.00e+00	0	30	104	0	82	21997
2026-01-15 08:34:01.14	35.02	7.77	-58.3	-61.5	6.1	0.00e+00	0	30	104	0	82	21942
2026-01-15 08:34:02.15	35.18	7.84	-58.2	-61.5	6.1	0.00e+00	0	30	104	0	82	21886
2026-01-15 08:34:03.16	35.34	7.90	-58.4	-61.5	6.1	0.00e+00	0	30	104	0	82	22106
2026-01-15 08:34:04.16	35.50	7.97	-58.3	-61.5	6.2	0.00e+00	0	30	104	0	82	22002
2026-01-15 08:34:05.17	35.66	8.04	-58.3	-61.5	6.2	0.00e+00	0	30	104	0	82	22037
2026-01-15 08:34:06.18	35.82	8.10	-58.3	-61.5	6.1	0.00e+00	0	30	104	0	82	21942
2026-01-15 08:34:07.19	35.98	8.17	-58.4	-61.6	6.2	0.00e+00	0	30	104	0	82	22306
2026-01-15 08:34:08.20	36.15	8.24	-58.3	-61.5	6.1	0.00e+00	0	30	104	0	82	22036
2026-01-15 08:34:09.20	36.31	8.30	-58.3	-61.6	6.2	0.00e+00	0	30	104	0	82	22178
2026-01-15 08:34:10.21	36.48	8.37	-58.3	-61.5	6.2	0.00e+00	0	30	104	0	82	22013
2026-01-15 08:34:11.22	36.65	8.44	-58.4	-61.7	6.2	0.00e+00	0	30	104	0	82	22395
2026-01-15 08:34:12.23	36.82	8.50	-58.3	-61.5	6.1	0.00e+00	0	30	104	0	82	22076
2026-01-15 08:34:13.24	36.99	8.57	-58.3	-61.6	6.1	0.00e+00	0	30	104	0	82	22168
2026-01-15 08:34:14.24	37.15	8.64	-58.3	-61.6	6.1	0.00e+00	0	30	104	0	82	22114
2026-01-15 08:34:15.25	37.32	8.70	-58.5	-61.7	6.2	0.00e+00	0	30	104	0	82	22445
2026-01-15 08:34:16.26	37.50	8.77	-58.4	-61.6	6.2	0.00e+00	0	30	104	0	82	22207
2026-01-15 08:34:17.27	37.67	8.84	-58.4	-61.6	6.1	0.00e+00	0	30	104	0	82	22214
2026-01-15 08:34:18.27	37.84	8.90	-58.3	-61.6	6.1	0.00e+00	0	30	104	0	82	22155
2026-01-15 08:34:19.28	38.02	8.97	-58.4	-61.6	6.2	0.00e+00	0	30	104	0	82	22317
2026-01-15 08:34:20.29	38.19	9.04	-58.4	-61.6	6.2	0.00e+00	0	30	104	0	82	22297
2026-01-15 08:34:21.30	38.37	9.11	-58.4	-61.6	6.1	0.00e+00	0	30	104	0	82	22292
2026-01-15 08:34:22.31	38.55	9.17	-58.4	-61.6	6.1	0.00e+00	0	30	104	0	82	22246
2026-01-15 08:34:23.31	38.72	9.24	-58.5	-61.7	6.1	0.00e+00	0	30	104	0	82	22383
2026-01-15 08:34:24.32	38.90	9.31	-58.4	-61.7	6.2	0.00e+00	0	30	104	0	82	22392
2026-01-15 08:34:25.33	39.08	9.37	-58.5	-61.7	6.1	0.00e+00	0	30	104	0	82	22409
2026-01-15 08:34:26.34	39.27	9.44	-58.4	-61.6	6.1	0.00e+00	0	30	104	0	82	22312
2026-01-15 08:34:27.35	39.45	9.51	-58.5	-61.7	6.1	0.00e+00	0	30	104	0	82	22526
2026-01-15 08:34:28.35	39.63	9.58	-58.5	-61.6	6.1	0.00e+00	0	30	104	0	82	22308
2026-01-15 08:34:29.36	39.81	9.64	-58.5	-61.7	6.2	0.00e+00	0	30	104	0	82	22497
2026-01-15 08:34:30.37	40.00	9.71	-58.5	-61.7	6.1	0.00e+00	0	30	104	0	82	22416
2026-01-15 08:34:31.37	40.19	9.78	-58.5	-61.7	6.1	0.00e+00	0	30	104	0	82	22445
2026-01-15 08:34:32.37	40.37	9.84	-58.5	-61.6	6.1	0.00e+00	0	30	104	0	82	22186
2026-01-15 08:34:33.38	40.56	9.91	-58.5	-61.7	6.2	0.00e+00	0	31	104	0	82	22534
2026-01-15 08:34:34.39	40.75	9.98	-58.4	-61.6	6.1	0.00e+00	0	30	104	0	82	22217
2026-01-15 08:34:35.40	40.94	10.05	-58.5	-61.7	6.1	0.00e+00	0	30	104	0	82	22366
2026-01-15 08:34:36.41	41.13	10.11	-58.5	-61.6	6.1	0.00e+00	0	30	104	0	82	22306
2026-01-15 08:34:37.42	41.32	10.18	-58.5	-61.7	6.1	0.00e+00	0	30	104	0	82	22494
2026-01-15 08:34:38.43	41.52	10.25	-58.5	-61.6	6.2	0.00e+00	0	30	104	0	82	22357
2026-01-15 08:34:39.43	41.71	10.31	-58.5	-61.7	6.1	0.00e+00	0	30	104	0	82	22618
2026-01-15 08:34:40.44	41.91	10.38	-58.5	-61.7	6.1	0.00e+00	0	30	104	0	82	22436
2026-01-15 08:34:41.45	42.10	10.45	-58.5	-61.7	6.2	0.00e+00	0	30	104	0	82	22526
2026-01-15 08:34:42.45	42.30	10.52	-58.5	-61.7	6.1	0.00e+00	0	30	104	0	82	22463
2026-01-15 08:34:43.46	42.50	10.58	-58.6	-61.8	6.1	0.00e+00	0	30	104	0	82	22683
2026-01-15 08:34:44.46	42.70	10.65	-58.6	-61.7	6.1	0.00e+00	0	30	104	0	82	22552
2026-01-15 08:34:45.47	42.90	10.72	-58.5	-61.7	6.1	0.00e+00	0	30	104	0	82	22481
2026-01-15 08:34:46.48	43.10	10.78	-58.5	-61.7	6.2	0.00e+00	0	30	104	0	82	22564
2026-01-15 08:34:47.49	43.30	10.85	-58.6	-61.9	6.2	0.00e+00	0	30	104	0	83	21645
2026-01-15 08:34:48.49	43.51	10.92	-58.6	-61.8	6.2	0.00e+00	0	30	104	0	83	21423
2026-01-15 08:34:49.50	43.71	10.98	-58.6	-61.7	6.1	0.00e+00	0	31	104	0	83	21241
2026-01-15 08:34:50.51	43.92	11.05	-58.6	-61.8	6.1	0.00e+00	0	30	104	0	83	21434
2026-01-15 08:34:51.52	44.13	11.12	-58.7	-61.9	6.2	0.00e+00	0	30	104	0	83	21660
2026-01-15 08:34:52.53	44.33	11.19	-58.6	-61.8	6.2	0.00e+00	0	31	104	0	83	21433
2026-01-15 08:34:53.54	44.54	11.25	-58.6	-61.7	6.2	0.00e+00	0	30	104	0	83	21358
2026-01-15 08:34:54.54	44.75	11.32	-58.6	-61.8	6.1	0.00e+00	0	30	104	0	83	21507
2026-01-15 08:34:55.55	44.96	11.39	-58.7	-61.9	6.2	0.00e+00	0	31	104	0	83	21649
2026-01-15 08:34:56.56	45.18	11.45	-58.6	-61.8	6.2	0.00e+00	0	30	104	0	83	21456
2026-01-15 08:34:57.57	45.39	11.52	-58.6	-61.8	6.2	0.00e+00	0	30	104	0	83	21446
2026-01-15 08:34:58.58	45.61	11.58	-58.6	-61.9	6.2	0.00e+00	0	30	104	0	83	21616
2026-01-15 08:34:59.58	45.82	11.65	-58.7	-61.9	6.1	0.00e+00	0	31	104	0	83	21670
2026-01-15 08:35:00.59	46.04	11.72	-58.6	-61.8	6.2	0.00e+00	0	30	104	0	83	21565
2026-01-15 08:35:01.60	46.26	11.78	-58.6	-61.8	6.2	0.00e+00	0	30	104	0	83	21583
2026-01-15 08:35:02.61	46.48	11.85	-58.7	-61.9	6.1	0.00e+00	0	31	104	0	83	21708
2026-01-15 08:35:03.62	46.70	11.92	-58.7	-61.9	6.2	0.00e+00	0	30	104	0	83	21710
2026-01-15 08:35:04.63	46.92	11.98	-58.6	-61.9	6.2	0.00e+00	0	30	104	0	83	21635
2026-01-15 08:35:05.64	47.15	12.05	-58.7	-61.9	6.1	0.00e+00	0	31	104	0	83	21680
2026-01-15 08:35:06.65	47.37	12.11	-58.7	-61.9	6.2	0.00e+00	0	30	104	0	83	21759
2026-01-15 08:35:07.65	47.59	12.18	-58.7	-61.9	6.2	0.00e+00	0	30	104	0	83	21772
2026-01-15 08:35:08.66	47.82	12.24	-58.7	-61.9	6.2	0.00e+00	0	31	104	0	83	21767
2026-01-15 08:35:09.67	48.05	12.31	-58.7	-61.9	6.1	0.00e+00	0	30	104	0	83	21743
2026-01-15 08:35:10.67	48.28	12.37	-58.7	-62.0	6.1	0.00e+00	0	30	104	0	83	21864
2026-01-15 08:35:11.68	48.51	12.44	-58.7	-61.9	6.2	0.00e+00	0	30	104	0	83	21781
2026-01-15 08:35:12.69	48.74	12.50	-58.7	-61.9	6.1	0.00e+00	0	30	104	0	83	21814
2026-01-15 08:35:13.70	48.97	12.57	-58.7	-61.9	6.2	0.00e+00	0	30	104	0	83	21781
2026-01-15 08:35:14.71	49.21	12.63	-58.7	-62.0	6.2	0.00e+00	0	31	104	0	83	21867
2026-01-15 08:35:15.72	49.44	12.70	-58.7	-61.9	6.2	0.00e+00	0	30	104	0	83	21689
2026-01-15 08:35:16.73	49.68	12.76	-58.7	-61.9	6.2	0.00e+00	0	31	104	0	83	21806
2026-01-15 08:35:17.74	49.91	12.82	-58.7	-61.9	6.2	0.00e+00	0	30	104	0	83	21710
2026-01-15 08:35:18.75	50.15	12.89	-58.8	-62.0	6.2	0.00e+00	0	31	104	0	83	21934
2026-01-15 08:35:19.75	50.39	12.95	-58.7	-61.9	6.2	0.00e+00	0	30	104	0	83	21834
2026-01-15 08:35:20.76	50.63	13.01	-58.7	-61.9	6.2	0.00e+00	0	30	104	0	83	21791
2026-01-15 08:35:21.77	50.87	13.08	-58.7	-62.0	6.2	0.00e+00	0	30	104	0	83	21871
2026-01-15 08:35:22.78	51.12	13.14	-58.8	-62.0	6.2	0.00e+00	0	30	104	0	83	21888
2026-01-15 08:35:23.79	51.36	13.20	-58.8	-62.0	6.1	0.00e+00	0	31	104	0	83	22000
2026-01-15 08:35:24.80	51.61	13.27	-58.7	-61.9	6.2	0.00e+00	0	30	104	0	83	21823
2026-01-15 08:35:25.80	51.85	13.33	-58.8	-62.0	6.2	0.00e+00	0	31	104	0	83	21971
2026-01-15 08:35:26.81	52.10	13.39	-58.8	-62.0	6.1	0.00e+00	0	30	104	0	83	22024
2026-01-15 08:35:27.81	52.35	13.45	-58.8	-62.0	6.2	0.00e+00	0	30	104	0	83	22072
2026-01-15 08:35:28.82	52.60	13.51	-58.8	-62.0	6.1	0.00e+00	0	31	104	0	83	22072
2026-01-15 08:35:29.82	52.85	13.57	-58.8	-62.0	6.2	0.00e+00	0	31	104	0	83	21940
2026-01-15 08:35:30.83	53.10	13.63	-58.8	-62.1	6.1	0.00e+00	0	31	104	0	83	22128
2026-01-15 08:35:31.84	53.36	13.69	-58.8	-62.1	6.2	0.00e+00	0	31	104	0	83	22131
2026-01-15 08:35:32.85	53.61	13.76	-58.8	-62.0	6.2	0.00e+00	0	30	104	0	83	21984
2026-01-15 08:35:33.86	53.87	13.82	-58.8	-62.0	6.2	0.00e+00	0	31	104	0	83	22044
2026-01-15 08:35:34.86	54.12	13.87	-58.9	-62.1	6.2	0.00e+00	0	31	104	0	83	22225
2026-01-15 08:35:35.87	54.38	13.93	-58.8	-62.1	6.2	0.00e+00	0	31	104	0	83	22202
2026-01-15 08:35:36.88	54.64	13.99	-58.8	-62.0	6.1	0.00e+00	0	31	104	0	83	22080
2026-01-15 08:35:37.88	54.90	14.05	-58.8	-62.0	6.2	0.00e+00	0	30	104	0	83	22079
2026-01-15 08:35:38.89	55.17	14.11	-58.9	-62.1	6.1	0.00e+00	0	30	104	0	83	22273
2026-01-15 08:35:39.90	55.43	14.17	-58.8	-62.1	6.2	0.00e+00	0	31	104	0	83	22196
2026-01-15 08:35:40.91	55.70	14.23	-58.8	-62.1	6.1	0.00e+00	0	31	104	0	83	22169
2026-01-15 08:35:41.92	55.96	14.29	-58.8	-62.1	6.2	0.00e+00	0	31	104	0	83	22118
2026-01-15 08:35:42.93	56.23	14.34	-58.9	-62.1	6.1	0.00e+00	0	30	104	0	83	22276
2026-01-15 08:35:43.94	56.50	14.40	-58.9	-62.1	6.1	0.00e+00	0	30	104	0	83	22177
2026-01-15 08:35:44.95	56.77	14.46	-58.8	-62.1	6.2	0.00e+00	0	31	104	0	83	22137
2026-01-15 08:35:45.95	57.04	14.51	-58.8	-62.1	6.1	0.00e+00	0	31	104	0	83	22142
2026-01-15 08:35:46.96	57.31	14.57	-58.9	-62.1	6.1	0.00e+00	0	31	104	0	83	22344
2026-01-15 08:35:47.97	57.58	14.63	-58.8	-62.1	6.1	0.00e+00	0	31	104	0	83	22198
2026-01-15 08:35:48.98	57.86	14.68	-58.8	-62.1	6.1	0.00e+00	0	31	104	0	83	22132
2026-01-15 08:35:49.98	58.13	14.74	-58.8	-62.1	6.2	0.00e+00	0	31	104	0	83	22176
2026-01-15 08:35:50.99	58.41	14.79	-58.9	-62.1	6.1	0.00e+00	0	31	104	0	83	22231
2026-01-15 08:35:52.00	58.68	14.84	-58.8	-62.1	6.2	0.00e+00	0	31	104	0	83	22187
2026-01-15 08:35:53.01	58.96	14.90	-58.8	-62.1	6.1	0.00e+00	0	31	104	0	83	22201
2026-01-15 08:35:54.01	59.24	14.95	-58.8	-62.1	6.2	0.00e+00	0	30	104	0	83	22155
2026-01-15 08:35:55.02	59.52	15.00	-58.9	-62.1	6.2	0.00e+00	0	31	104	0	83	22341
2026-01-15 08:35:56.03	59.80	15.06	-58.9	-62.1	6.2	0.00e+00	0	31	104	0	83	22312
2026-01-15 08:35:57.04	60.09	15.11	-58.9	-62.1	6.2	0.00e+00	0	31	104	0	83	22307
2026-01-15 08:35:58.05	60.37	15.16	-58.9	-62.0	6.1	0.00e+00	0	30	104	0	83	22096
2026-01-15 08:35:59.06	60.66	15.21	-58.9	-62.1	6.1	0.00e+00	0	31	104	0	83	22361
2026-01-15 08:36:00.07	60.95	15.26	-58.9	-62.2	6.1	0.00e+00	0	31	104	0	83	22366
2026-01-15 08:36:01.08	61.24	15.31	-58.9	-62.1	6.2	0.00e+00	0	31	104	0	83	22225
2026-01-15 08:36:02.08	61.52	15.36	-58.9	-62.1	6.1	0.00e+00	0	31	104	0	83	22155
2026-01-15 08:36:03.09	61.81	15.41	-58.9	-62.2	6.1	0.00e+00	0	31	104	0	83	22429
2026-01-15 08:36:04.10	62.10	15.46	-58.9	-62.1	6.2	0.00e+00	0	31	104	0	83	22342
2026-01-15 08:36:05.10	62.39	15.51	-58.9	-62.1	6.1	0.00e+00	0	31	104	0	83	22220
2026-01-15 08:36:06.12	62.69	15.55	-58.9	-62.1	6.1	0.00e+00	0	31	104	0	83	22140
2026-01-15 08:36:07.12	62.98	15.60	-58.9	-62.2	6.1	0.00e+00	0	31	104	0	83	22460
2026-01-15 08:36:08.14	63.28	15.65	-58.9	-62.2	6.1	0.00e+00	0	31	104	0	83	22383
2026-01-15 08:36:09.14	63.57	15.69	-58.9	-62.1	6.1	0.00e+00	0	31	104	0	83	22274
2026-01-15 08:36:10.15	63.87	15.74	-58.9	-62.1	6.1	0.00e+00	0	31	104	0	83	22290
2026-01-15 08:36:11.15	64.17	15.78	-58.9	-62.1	6.1	0.00e+00	0	31	104	0	83	22360
2026-01-15 08:36:12.16	64.47	15.83	-58.9	-62.1	6.2	0.00e+00	0	31	104	0	83	22321
2026-01-15 08:36:13.17	64.77	15.87	-58.9	-62.1	6.1	0.00e+00	0	31	104	0	83	22223
2026-01-15 08:36:14.17	65.07	15.92	-58.9	-62.1	6.1	0.00e+00	0	30	104	0	83	22280
2026-01-15 08:36:15.18	65.37	15.96	-58.9	-62.1	6.1	0.00e+00	0	31	104	0	83	22336
2026-01-15 08:36:16.19	65.67	16.00	-58.9	-62.2	6.1	0.00e+00	0	31	104	0	83	22414
2026-01-15 08:36:17.19	65.98	16.04	-58.9	-62.1	6.1	0.00e+00	0	31	104	0	83	22228
2026-01-15 08:36:18.20	66.28	16.08	-58.9	-62.1	6.2	0.00e+00	0	31	104	0	83	22227
2026-01-15 08:36:19.21	66.59	16.12	-59.0	-62.2	6.1	0.00e+00	0	31	104	0	83	22485
2026-01-15 08:36:20.21	66.89	16.16	-59.0	-62.2	6.2	0.00e+00	0	31	104	0	83	22446
2026-01-15 08:36:21.22	67.20	16.20	-58.9	-62.1	6.2	0.00e+00	0	31	104	0	83	22206
2026-01-15 08:36:22.23	67.51	16.24	-58.9	-62.1	6.1	0.00e+00	0	31	104	0	83	22301
2026-01-15 08:36:23.24	67.82	16.28	-59.0	-62.2	6.2	0.00e+00	0	31	104	0	83	22622
2026-01-15 08:36:24.24	68.13	16.31	-58.9	-62.2	6.1	0.00e+00	0	31	104	0	83	22424
2026-01-15 08:36:25.25	68.44	16.35	-58.9	-62.1	6.2	0.00e+00	0	31	104	0	83	22114
2026-01-15 08:36:26.26	68.76	16.39	-58.9	-62.1	6.2	0.00e+00	0	31	104	0	83	22201
2026-01-15 08:36:27.27	69.07	16.42	-59.0	-62.2	6.1	0.00e+00	0	30	104	0	83	22485
2026-01-15 08:36:28.27	69.38	16.46	-58.9	-62.2	6.2	0.00e+00	0	31	104	0	83	22382
2026-01-15 08:36:29.28	69.70	16.49	-58.9	-62.1	6.2	0.00e+00	0	31	104	0	83	22179
2026-01-15 08:36:30.29	70.01	16.52	-58.9	-62.1	6.2	0.00e+00	0	31	104	0	83	22298
2026-01-15 08:36:31.29	70.33	16.56	-59.0	-62.2	6.2	0.00e+00	0	31	104	0	83	22474
2026-01-15 08:36:32.30	70.65	16.59	-59.0	-62.2	6.1	0.00e+00	0	30	104	0	83	22475
2026-01-15 08:36:33.31	70.96	16.62	-58.9	-62.1	6.1	0.00e+00	0	31	104	0	83	22253
2026-01-15 08:36:34.32	71.28	16.65	-58.9	-62.2	6.1	0.00e+00	0	31	104	0	83	22384
2026-01-15 08:36:35.33	71.60	16.68	-58.9	-62.2	6.1	0.00e+00	0	31	104	0	83	22452
2026-01-15 08:36:36.34	71.92	16.71	-59.0	-62.2	6.1	0.00e+00	0	30	104	0	83	22506
2026-01-15 08:36:37.35	72.25	16.74	-58.9	-62.1	6.1	0.00e+00	0	31	104	0	83	22331
2026-01-15 08:36:38.36	72.57	16.76	-58.9	-62.1	6.2	0.00e+00	0	31	104	0	83	22350
2026-01-15 08:36:39.37	72.89	16.79	-59.0	-62.2	6.1	0.00e+00	0	31	104	0	83	22537
2026-01-15 08:36:40.37	73.21	16.82	-59.0	-62.2	6.1	0.00e+00	0	31	104	0	83	22474
2026-01-15 08:36:41.38	73.54	16.84	-59.0	-62.2	6.1	0.00e+00	0	31	104	0	83	22456
2026-01-15 08:36:42.39	73.86	16.87	-58.9	-62.1	6.2	0.00e+00	0	31	104	0	83	22336
2026-01-15 08:36:43.40	74.19	16.89	-59.0	-62.2	6.1	0.00e+00	0	31	104	0	83	22422
2026-01-15 08:36:44.41	74.51	16.91	-59.0	-62.2	6.1	0.00e+00	0	31	104	0	83	22409
2026-01-15 08:36:45.41	74.83	16.93	-59.0	-62.2	6.2	0.00e+00	0	31	104	0	83	22504
2026-01-15 08:36:46.42	75.16	16.96	-59.0	-62.2	6.1	0.00e+00	0	31	104	0	83	22458
2026-01-15 08:36:47.43	75.49	16.98	-59.0	-62.2	6.1	0.00e+00	0	31	104	0	83	22563
2026-01-15 08:36:48.44	75.82	17.00	-59.0	-62.2	6.2	0.00e+00	0	31	104	0	83	22509
2026-01-15 08:36:49.44	76.14	17.01	-59.0	-62.2	6.2	0.00e+00	0	31	104	0	83	22574
2026-01-15 08:36:50.45	76.47	17.03	-59.0	-62.2	6.2	0.00e+00	0	31	104	0	83	22491
2026-01-15 08:36:51.45	76.80	17.05	-59.0	-62.2	6.2	0.00e+00	0	31	104	0	83	22508
2026-01-15 08:36:52.46	77.13	17.07	-59.0	-62.2	6.2	0.00e+00	0	31	104	0	83	22535
2026-01-15 08:36:53.47	77.46	17.08	-59.0	-62.2	6.1	0.00e+00	0	31	104	0	83	22423
2026-01-15 08:36:54.47	77.79	17.10	-59.0	-62.3	6.2	0.00e+00	0	31	104	0	83	22646
2026-01-15 08:36:55.48	78.12	17.11	-59.0	-62.2	6.1	0.00e+00	0	31	104	0	83	22558
2026-01-15 08:36:56.49	78.45	17.12	-59.0	-62.2	6.1	0.00e+00	0	31	104	0	83	22608
2026-01-15 08:36:57.49	78.78	17.14	-59.0	-62.2	6.2	0.00e+00	0	31	104	0	83	22517
2026-01-15 08:36:58.49	79.10	17.15	-59.0	-62.2	6.2	0.00e+00	0	31	104	0	83	22560
2026-01-15 08:36:59.50	79.44	17.16	-59.0	-62.2	6.2	0.00e+00	0	31	104	0	83	22578
2026-01-15 08:37:00.51	79.77	17.17	-59.0	-62.2	6.1	0.00e+00	0	31	104	0	83	22450
2026-01-15 08:37:01.51	80.10	17.18	-59.0	-62.2	6.1	0.00e+00	0	31	104	0	83	22510
2026-01-15 08:37:02.52	80.43	17.19	-59.0	-62.2	6.2	0.00e+00	0	31	104	0	83	22421
2026-01-15 08:37:03.53	80.76	17.20	-59.0	-62.2	6.2	0.00e+00	0	31	104	0	83	22542
2026-01-15 08:37:04.54	81.10	17.20	-59.0	-62.2	6.1	0.00e+00	0	31	104	0	83	22473
2026-01-15 08:37:05.54	81.43	17.21	-59.0	-62.2	6.1	0.00e+00	0	31	104	0	83	22546
2026-01-15 08:37:06.55	81.76	17.21	-59.0	-62.2	6.2	0.00e+00	0	31	104	0	83	22504
2026-01-15 08:37:07.55	82.09	17.22	-58.9	-62.2	6.2	0.00e+00	0	31	104	0	83	22443
2026-01-15 08:37:08.56	82.43	17.22	-59.0	-62.2	6.2	0.00e+00	0	31	104	0	83	22448
2026-01-15 08:37:09.57	82.76	17.22	-59.0	-62.2	6.1	0.00e+00	0	31	104	0	83	22583
2026-01-15 08:37:10.58	83.09	17.22	-59.0	-62.2	6.1	0.00e+00	0	31	104	0	83	22548
2026-01-15 08:37:11.59	83.43	17.23	-59.0	-62.2	6.2	0.00e+00	0	31	104	0	83	22549
2026-01-15 08:37:12.60	83.76	17.23	-59.0	-62.2	6.1	0.00e+00	0	31	104	0	83	22525
2026-01-15 08:37:13.61	84.10	17.22	-59.0	-62.2	6.1	0.00e+00	0	31	104	0	83	22449
2026-01-15 08:37:14.62	84.43	17.22	-59.0	-62.2	6.1	0.00e+00	0	31	104	0	83	22624
2026-01-15 08:37:15.63	84.76	17.22	-59.0	-62.2	6.1	0.00e+00	0	31	104	0	83	22555
2026-01-15 08:37:16.64	85.10	17.22	-59.0	-62.2	6.1	0.00e+00	0	31	104	0	83	22484
2026-01-15 08:37:17.64	85.43	17.21	-59.0	-62.2	6.1	0.00e+00	0	31	104	0	83	22372
2026-01-15 08:37:18.65	85.76	17.21	-59.0	-62.2	6.1	0.00e+00	0	31	104	0	83	22607
2026-01-15 08:37:19.66	86.10	17.20	-59.0	-62.2	6.2	0.00e+00	0	31	104	0	83	22572
2026-01-15 08:37:20.66	86.43	17.20	-59.0	-62.2	6.1	0.00e+00	0	31	104	0	83	22579
2026-01-15 08:37:21.67	86.76	17.19	-59.0	-62.2	6.1	0.00e+00	0	31	104	0	83	22494
2026-01-15 08:37:22.67	87.09	17.18	-59.0	-62.2	6.1	0.00e+00	0	31	104	0	83	22603
2026-01-15 08:37:23.68	87.42	17.17	-59.0	-62.2	6.2	0.00e+00	0	31	104	0	83	22490
2026-01-15 08:37:24.69	87.76	17.16	-59.0	-62.2	6.1	0.00e+00	0	31	104	0	83	22519
2026-01-15 08:37:25.69	88.08	17.15	-59.0	-62.2	6.2	0.00e+00	0	31	104	0	83	22514
2026-01-15 08:37:26.70	88.42	17.14	-59.0	-62.2	6.2	0.00e+00	0	31	104	0	83	22532
2026-01-15 08:37:27.71	88.75	17.13	-59.0	-62.2	6.1	0.00e+00	0	31	104	0	83	22497
2026-01-15 08:37:28.72	89.08	17.11	-59.0	-62.2	6.2	0.00e+00	0	31	104	0	83	22533
2026-01-15 08:37:29.73	89.41	17.10	-59.0	-62.2	6.2	0.00e+00	0	31	104	0	83	22391
2026-01-15 08:37:30.74	89.74	17.08	-59.0	-62.2	6.1	0.00e+00	0	30	104	0	83	22562
2026-01-15 08:37:31.75	90.07	17.07	-58.9	-62.2	6.1	0.00e+00	0	31	104	0	83	22410
2026-01-15 08:37:32.76	90.40	17.05	-59.0	-62.2	6.2	0.00e+00	0	31	104	0	83	22528
2026-01-15 08:37:33.77	90.73	17.03	-58.9	-62.2	6.2	0.00e+00	0	31	104	0	83	22419
2026-01-15 08:37:34.78	91.06	17.02	-59.0	-62.2	6.2	0.00e+00	0	31	104	0	83	22449
2026-01-15 08:37:35.78	91.39	17.00	-58.9	-62.2	6.1	0.00e+00	0	31	104	0	83	22392
2026-01-15 08:37:36.79	91.72	16.98	-59.0	-62.2	6.2	0.00e+00	0	31	104	0	83	22501
2026-01-15 08:37:37.80	92.04	16.96	-58.9	-62.1	6.2	0.00e+00	0	31	104	0	83	22352
2026-01-15 08:37:38.81	92.37	16.93	-58.9	-62.2	6.2	0.00e+00	0	31	104	0	83	22405
2026-01-15 08:37:39.82	92.70	16.91	-58.9	-62.2	6.2	0.00e+00	0	31	104	0	83	22410
2026-01-15 08:37:40.83	93.02	16.89	-59.0	-62.2	6.2	0.00e+00	0	31	104	0	83	22471
2026-01-15 08:37:41.83	93.35	16.87	-58.9	-62.2	6.2	0.00e+00	0	31	104	0	83	22474
2026-01-15 08:37:42.84	93.67	16.84	-59.0	-62.2	6.2	0.00e+00	0	31	104	0	83	22542
2026-01-15 08:37:43.84	93.99	16.82	-59.0	-62.2	6.2	0.00e+00	0	31	104	0	83	22497
2026-01-15 08:37:44.85	94.32	16.79	-59.0	-62.2	6.1	0.00e+00	0	31	104	0	83	22606
2026-01-15 08:37:45.86	94.64	16.76	-58.9	-62.2	6.2	0.00e+00	0	31	104	0	83	22439
2026-01-15 08:37:46.87	94.96	16.74	-59.0	-62.2	6.2	0.00e+00	0	31	104	0	83	22565
2026-01-15 08:37:47.88	95.28	16.71	-58.9	-62.2	6.2	0.00e+00	0	31	104	0	83	22401
2026-01-15 08:37:48.89	95.60	16.68	-59.0	-62.2	6.1	0.00e+00	0	31	104	0	83	22516
2026-01-15 08:37:49.90	95.93	16.65	-58.9	-62.2	6.1	0.00e+00	0	31	104	0	83	22395
2026-01-15 08:37:50.90	96.24	16.62	-58.9	-62.2	6.2	0.00e+00	0	31	104	0	83	22460
2026-01-15 08:37:51.91	96.56	16.59	-59.0	-62.2	6.2	0.00e+00	0	31	104	0	83	22453
2026-01-15 08:37:52.92	96.88	16.56	-59.0	-62.2	6.1	0.00e+00	0	31	104	0	83	22466
2026-01-15 08:37:53.93	97.20	16.52	-58.9	-62.1	6.2	0.00e+00	0	31	104	0	83	22320
2026-01-15 08:37:54.94	97.51	16.49	-59.0	-62.2	6.1	0.00e+00	0	31	104	0	83	22549
2026-01-15 08:37:55.94	97.83	16.46	-59.0	-62.2	6.1	0.00e+00	0	31	104	0	83	22495
2026-01-15 08:37:56.95	98.14	16.42	-59.0	-62.2	6.1	0.00e+00	0	31	104	0	83	22502
2026-01-15 08:37:57.97	98.46	16.39	-58.9	-62.2	6.2	0.00e+00	0	31	104	0	83	22443
2026-01-15 08:37:58.97	98.77	16.35	-59.0	-62.2	6.2	0.00e+00	0	31	104	0	83	22544
2026-01-15 08:37:59.98	99.08	16.32	-59.0	-62.2	6.2	0.00e+00	0	31	104	0	83	22536
2026-01-15 08:38:00.99	99.39	16.28	-59.0	-62.2	6.2	0.00e+00	0	31	104	0	83	22496
2026-01-15 08:38:02.00	99.70	16.24	-59.0	-62.2	6.1	0.00e+00	0	31	104	0	83	22430
2026-01-15 08:38:03.01	100.01	16.20	-59.0	-62.2	6.1	0.00e+00	0	31	104	0	83	22588
2026-01-15 08:38:04.02	100.32	16.16	-59.0	-62.2	6.2	0.00e+00	0	31	104	0	83	22504
2026-01-15 08:38:05.03	100.63	16.12	-59.0	-62.2	6.1	0.00e+00	0	31	104	0	83	22616
2026-01-15 08:38:06.03	100.94	16.08	-59.0	-62.2	6.2	0.00e+00	0	31	104	0	83	22505
2026-01-15 08:38:07.04	101.24	16.04	-59.0	-62.2	6.2	0.00e+00	0	31	104	0	83	22601
2026-01-15 08:38:08.05	101.55	16.00	-59.0	-62.2	6.2	0.00e+00	0	31	104	0	83	22615
2026-01-15 08:38:09.06	101.85	15.96	-59.0	-62.2	6.1	0.00e+00	0	31	104	0	83	22597
2026-01-15 08:38:10.07	102.16	15.91	-59.0	-62.2	6.2	0.00e+00	0	31	104	0	83	22431
2026-01-15 08:38:11.08	102.46	15.87	-59.0	-62.2	6.1	0.00e+00	0	31	104	0	83	22531
2026-01-15 08:38:12.08	102.76	15.83	-59.0	-62.2	6.2	0.00e+00	0	31	104	0	83	22515
2026-01-15 08:38:13.09	103.06	15.78	-59.0	-62.2	6.1	0.00e+00	0	31	104	0	83	22522
2026-01-15 08:38:14.10	103.36	15.74	-59.0	-62.2	6.1	0.00e+00	0	31	104	0	83	22540
2026-01-15 08:38:15.10	103.65	15.69	-59.0	-62.3	6.1	0.00e+00	0	31	104	0	83	22637
2026-01-15 08:38:16.11	103.95	15.65	-59.0	-62.2	6.2	0.00e+00	0	31	104	0	83	22574
2026-01-15 08:38:17.12	104.25	15.60	-59.0	-62.2	6.1	0.00e+00	0	31	104	0	83	22513
2026-01-15 08:38:18.13	104.54	15.55	-58.9	-62.2	6.2	0.00e+00	0	31	104	0	83	22473
2026-01-15 08:38:19.14	104.84	15.50	-59.0	-62.3	6.1	0.00e+00	0	31	104	0	83	22664
2026-01-15 08:38:20.14	105.13	15.46	-59.0	-62.2	6.2	0.00e+00	0	31	104	0	83	22569
2026-01-15 08:38:21.15	105.42	15.41	-59.0	-62.2	6.1	0.00e+00	0	31	104	0	83	22603
2026-01-15 08:38:22.16	105.71	15.36	-59.0	-62.2	6.1	0.00e+00	0	31	104	0	83	22576
2026-01-15 08:38:23.17	106.00	15.31	-59.0	-62.3	6.2	0.00e+00	0	31	104	0	83	22643
2026-01-15 08:38:24.18	106.29	15.26	-59.0	-62.2	6.1	0.00e+00	0	31	104	0	83	22505
2026-01-15 08:38:25.19	106.58	15.21	-59.0	-62.2	6.2	0.00e+00	0	31	104	0	83	22582
2026-01-15 08:38:26.19	106.86	15.16	-59.0	-62.2	6.2	0.00e+00	0	31	104	0	83	22567
2026-01-15 08:38:27.19	107.14	15.11	-59.0	-62.2	6.2	0.00e+00	0	31	104	0	83	22619
2026-01-15 08:38:28.20	107.43	15.05	-59.0	-62.2	6.2	0.00e+00	0	31	104	0	83	22614
2026-01-15 08:38:29.21	107.71	15.00	-59.0	-62.2	6.2	0.00e+00	0	31	104	0	83	22608
2026-01-15 08:38:30.22	107.99	14.95	-59.0	-62.2	6.1	0.00e+00	0	31	104	0	83	22513
2026-01-15 08:38:31.23	108.27	14.89	-59.0	-62.3	6.1	0.00e+00	0	31	104	0	83	22683
2026-01-15 08:38:32.24	108.55	14.84	-59.0	-62.2	6.2	0.00e+00	0	31	104	0	83	22601
2026-01-15 08:38:33.24	108.83	14.79	-59.0	-62.3	6.1	0.00e+00	0	31	104	0	83	22635
2026-01-15 08:38:34.25	109.11	14.73	-59.0	-62.2	6.1	0.00e+00	0	31	104	0	83	22505
2026-01-15 08:38:35.26	109.38	14.68	-59.0	-62.2	6.1	0.00e+00	0	31	104	0	83	22586
2026-01-15 08:38:36.27	109.66	14.62	-59.0	-62.2	6.1	0.00e+00	0	31	104	0	83	22533
2026-01-15 08:38:37.28	109.93	14.57	-59.0	-62.2	6.2	0.00e+00	0	31	104	0	83	22554
2026-01-15 08:38:38.28	110.20	14.51	-59.0	-62.2	6.2	0.00e+00	0	31	104	0	83	22575
2026-01-15 08:38:39.29	110.47	14.45	-59.0	-62.2	6.2	0.00e+00	0	31	104	0	83	22617
2026-01-15 08:38:40.30	110.74	14.40	-59.0	-62.3	6.2	0.00e+00	0	31	104	0	83	22664
2026-01-15 08:38:41.31	111.01	14.34	-59.0	-62.3	6.2	0.00e+00	0	31	104	0	83	22652
2026-01-15 08:38:42.32	111.28	14.28	-59.0	-62.2	6.1	0.00e+00	0	31	104	0	83	22575
2026-01-15 08:38:43.33	111.55	14.22	-59.0	-62.3	6.1	0.00e+00	0	31	104	0	83	22653
2026-01-15 08:38:44.34	111.81	14.16	-59.0	-62.2	6.2	0.00e+00	0	31	104	0	83	22525
2026-01-15 08:38:45.34	112.07	14.11	-59.0	-62.3	6.2	0.00e+00	0	31	104	0	83	22648
2026-01-15 08:38:46.35	112.34	14.05	-59.0	-62.2	6.1	0.00e+00	0	31	104	0	83	22582
2026-01-15 08:38:47.36	112.60	13.99	-59.0	-62.2	6.1	0.00e+00	0	31	104	0	83	22601
2026-01-15 08:38:48.37	112.86	13.93	-59.1	-62.3	6.2	0.00e+00	0	31	104	0	83	22843
2026-01-15 08:38:49.37	113.12	13.87	-59.1	-62.3	6.2	0.00e+00	0	31	104	0	83	22798
2026-01-15 08:38:50.39	113.38	13.81	-59.0	-62.2	6.2	0.00e+00	0	31	104	0	83	22601
2026-01-15 08:38:51.39	113.63	13.75	-59.0	-62.3	6.2	0.00e+00	0	31	104	0	83	22804
2026-01-15 08:38:52.40	113.89	13.69	-59.0	-62.3	6.2	0.00e+00	0	31	104	0	83	22693
2026-01-15 08:38:53.41	114.14	13.63	-59.0	-62.3	6.1	0.00e+00	0	31	104	0	83	22765
2026-01-15 08:38:54.42	114.40	13.56	-59.0	-62.2	6.2	0.00e+00	0	31	104	0	83	22557
2026-01-15 08:38:55.43	114.65	13.50	-59.0	-62.2	6.1	0.00e+00	0	31	104	0	83	22541
2026-01-15 08:38:56.43	114.90	13.44	-59.0	-62.2	6.2	0.00e+00	0	31	104	0	83	22570
2026-01-15 08:38:57.44	115.15	13.38	-59.0	-62.2	6.1	0.00e+00	0	31	104	0	83	22603
2026-01-15 08:38:58.45	115.40	13.32	-58.9	-62.2	6.1	0.00e+00	0	31	104	0	83	22503
2026-01-15 08:38:59.46	115.65	13.25	-58.9	-62.2	6.2	0.00e+00	0	31	104	0	83	22440
2026-01-15 08:39:00.46	115.89	13.19	-58.9	-62.2	6.1	0.00e+00	0	31	104	0	83	22486
2026-01-15 08:39:01.47	116.14	13.13	-59.0	-62.2	6.1	0.00e+00	0	31	104	0	83	22515
2026-01-15 08:39:02.48	116.38	13.07	-58.9	-62.2	6.2	0.00e+00	0	31	104	0	83	22475
2026-01-15 08:39:03.49	116.62	13.00	-58.9	-62.2	6.1	0.00e+00	0	31	104	0	83	22444
2026-01-15 08:39:04.50	116.86	12.94	-58.9	-62.2	6.2	0.00e+00	0	31	104	0	83	22463
2026-01-15 08:39:05.50	117.10	12.88	-59.0	-62.2	6.2	0.00e+00	0	31	104	0	83	22537
2026-01-15 08:39:06.51	117.34	12.81	-58.9	-62.2	6.1	0.00e+00	0	31	104	0	83	22463
2026-01-15 08:39:07.52	117.58	12.75	-58.9	-62.2	6.1	0.00e+00	0	31	104	0	83	22486
2026-01-15 08:39:08.52	117.81	12.68	-59.0	-62.2	6.1	0.00e+00	0	31	104	0	83	22444
2026-01-15 08:39:09.53	118.05	12.62	-58.9	-62.2	6.2	0.00e+00	0	31	104	0	83	22389
2026-01-15 08:39:10.54	118.28	12.55	-58.9	-62.1	6.2	0.00e+00	0	31	104	0	83	22341
2026-01-15 08:39:11.55	118.52	12.49	-58.9	-62.1	6.2	0.00e+00	0	31	104	0	83	22324
2026-01-15 08:39:12.55	118.75	12.43	-58.9	-62.1	6.1	0.00e+00	0	31	104	0	83	22222
2026-01-15 08:39:13.55	118.98	12.36	-58.9	-62.1	6.2	0.00e+00	0	31	104	0	83	22205
2026-01-15 08:39:14.55	119.20	12.30	-58.9	-62.1	6.2	0.00e+00	0	31	104	0	83	22275
2026-01-15 08:39:15.56	119.43	12.23	-58.8	-62.1	6.2	0.00e+00	0	31	104	0	83	22123
2026-01-15 08:39:16.57	119.66	12.17	-58.8	-62.1	6.1	0.00e+00	0	31	104	0	83	22147
2026-01-15 08:39:17.58	119.89	12.10	-58.8	-62.0	6.2	0.00e+00	0	31	104	0	83	22016
2026-01-15 08:39:18.59	120.11	12.03	-58.8	-62.1	6.2	0.00e+00	0	31	104	0	83	22112
2026-01-15 08:39:19.60	120.34	11.97	-58.8	-62.0	6.1	0.00e+00	0	31	104	0	83	22015
2026-01-15 08:39:20.61	120.56	11.90	-58.8	-62.0	6.2	0.00e+00	0	31	104	0	83	21925
2026-01-15 08:39:21.61	120.78	11.84	-58.7	-61.9	6.1	0.00e+00	0	31	104	0	83	21852
2026-01-15 08:39:22.62	121.00	11.77	-58.7	-62.0	6.2	0.00e+00	0	31	104	0	83	21905
2026-01-15 08:39:23.63	121.22	11.70	-58.7	-62.0	6.2	0.00e+00	0	31	104	0	83	21983
2026-01-15 08:39:24.64	121.44	11.64	-58.7	-61.9	6.1	0.00e+00	0	31	104	0	83	21834
2026-01-15 08:39:25.64	121.65	11.57	-58.7	-61.9	6.1	0.00e+00	0	31	104	0	83	21817
2026-01-15 08:39:26.65	121.87	11.50	-58.7	-62.0	6.1	0.00e+00	0	31	104	0	83	21977
2026-01-15 08:39:27.66	122.08	11.44	-58.7	-62.0	6.2	0.00e+00	0	31	104	0	83	21909
2026-01-15 08:39:28.67	122.29	11.37	-58.7	-62.0	6.1	0.00e+00	0	31	104	0	83	21940
2026-01-15 08:39:29.67	122.51	11.30	-58.7	-61.9	6.2	0.00e+00	0	31	104	0	83	21805
2026-01-15 08:39:30.68	122.72	11.24	-58.7	-62.0	6.1	0.00e+00	0	31	104	0	83	21964
2026-01-15 08:39:31.69	122.93	11.17	-58.6	-61.9	6.1	0.00e+00	0	31	104	0	83	21793
2026-01-15 08:39:32.69	123.13	11.10	-58.7	-61.9	6.2	0.00e+00	0	31	104	0	83	21804
2026-01-15 08:39:33.70	123.34	11.04	-58.7	-61.9	6.2	0.00e+00	0	31	104	0	83	21746
2026-01-15 08:39:34.71	123.55	10.97	-58.7	-62.0	6.2	0.00e+00	0	31	104	0	83	21885
2026-01-15 08:39:35.72	123.76	10.90	-58.7	-61.9	6.1	0.00e+00	0	31	104	0	83	21751
2026-01-15 08:39:36.73	123.96	10.83	-58.7	-61.9	6.2	0.00e+00	0	31	104	0	83	21693
2026-01-15 08:39:37.74	124.16	10.77	-58.6	-61.9	6.2	0.00e+00	0	31	104	0	83	21667
2026-01-15 08:39:38.75	124.37	10.70	-58.7	-61.9	6.1	0.00e+00	0	31	104	0	83	21715
2026-01-15 08:39:39.76	124.57	10.63	-58.6	-61.9	6.2	0.00e+00	0	31	104	0	83	21637
2026-01-15 08:39:40.77	124.77	10.56	-58.6	-61.8	6.2	0.00e+00	0	31	104	0	83	21599
2026-01-15 08:39:41.78	124.97	10.50	-58.6	-61.9	6.1	0.00e+00	0	31	104	0	83	21671
2026-01-15 08:39:42.79	125.17	10.43	-58.6	-61.9	6.2	0.00e+00	0	31	104	0	83	21639
2026-01-15 08:39:43.79	125.36	10.36	-58.6	-61.8	6.2	0.00e+00	0	31	104	0	83	21540
2026-01-15 08:39:44.80	125.56	10.29	-58.6	-61.9	6.2	0.00e+00	0	31	104	0	83	21607
2026-01-15 08:39:45.81	125.75	10.23	-58.6	-61.8	6.1	0.00e+00	0	31	104	0	83	21505
2026-01-15 08:39:46.81	125.94	10.16	-58.6	-61.9	6.2	0.00e+00	0	31	104	0	83	21618
2026-01-15 08:39:47.82	126.14	10.09	-58.5	-61.8	6.2	0.00e+00	0	31	104	0	83	21478
2026-01-15 08:39:48.83	126.33	10.02	-58.6	-61.8	6.2	0.00e+00	0	31	104	0	83	21421
2026-01-15 08:39:49.84	126.52	9.96	-58.5	-61.7	6.2	0.00e+00	0	31	104	0	83	21316
2026-01-15 08:39:50.85	126.71	9.89	-58.6	-61.8	6.1	0.00e+00	0	31	104	0	83	21574
2026-01-15 08:39:51.85	126.90	9.82	-58.5	-61.8	6.2	0.00e+00	0	31	104	0	83	21367
2026-01-15 08:39:52.86	127.09	9.75	-58.5	-61.8	6.1	0.00e+00	0	31	104	0	83	21382
2026-01-15 08:39:53.87	127.27	9.69	-58.5	-61.7	6.1	0.00e+00	0	31	104	0	83	21256
2026-01-15 08:39:54.88	127.46	9.62	-58.6	-61.8	6.1	0.00e+00	0	31	104	0	83	21507
2026-01-15 08:39:55.89	127.64	9.55	-58.5	-61.7	6.1	0.00e+00	0	31	104	0	83	21291
2026-01-15 08:39:56.90	127.83	9.48	-58.5	-61.7	6.1	0.00e+00	0	31	104	0	83	21351
2026-01-15 08:39:57.90	128.01	9.42	-58.4	-61.7	6.2	0.00e+00	0	31	104	0	83	21141
2026-01-15 08:39:58.91	128.19	9.35	-58.5	-61.8	6.2	0.00e+00	0	31	104	0	83	21381
2026-01-15 08:39:59.92	128.37	9.28	-58.5	-61.7	6.2	0.00e+00	0	31	104	0	83	21266
2026-01-15 08:40:00.93	128.55	9.21	-58.5	-61.7	6.2	0.00e+00	0	31	104	0	83	21328
2026-01-15 08:40:01.94	128.73	9.15	-58.4	-61.7	6.2	0.00e+00	0	31	104	0	83	21144
2026-01-15 08:40:02.95	128.91	9.08	-58.5	-61.7	6.2	0.00e+00	0	31	104	0	83	21358
2026-01-15 08:40:03.95	129.08	9.01	-58.4	-61.7	6.2	0.00e+00	0	31	104	0	83	21252
2026-01-15 08:40:04.96	129.26	8.94	-58.5	-61.7	6.2	0.00e+00	0	31	104	0	83	21307
2026-01-15 08:40:05.97	129.43	8.88	-58.4	-61.7	6.2	0.00e+00	0	31	104	0	83	21115
2026-01-15 08:40:06.97	129.61	8.81	-58.5	-61.7	6.1	0.00e+00	0	31	104	0	83	21314
2026-01-15 08:40:07.98	129.78	8.74	-58.4	-61.6	6.1	0.00e+00	0	31	104	0	83	21088
2026-01-15 08:40:08.99	129.95	8.67	-58.4	-61.7	6.2	0.00e+00	0	31	104	0	83	21188
2026-01-15 08:40:10.00	130.12	8.61	-58.4	-61.6	6.1	0.00e+00	0	31	104	0	83	21014
2026-01-15 08:40:11.01	130.29	8.54	-58.5	-61.7	6.1	0.00e+00	0	31	104	0	83	21228
2026-01-15 08:40:12.01	130.46	8.47	-58.4	-61.6	6.2	0.00e+00	0	31	104	0	83	20973
2026-01-15 08:40:13.02	130.63	8.41	-58.4	-61.6	6.1	0.00e+00	0	31	104	0	83	21074
2026-01-15 08:40:14.03	130.80	8.34	-58.3	-61.6	6.1	0.00e+00	0	31	104	0	83	20914
2026-01-15 08:40:15.05	130.97	8.27	-58.4	-61.7	6.2	0.00e+00	0	31	104	0	83	21180
2026-01-15 08:40:16.05	131.13	8.20	-58.3	-61.6	6.1	0.00e+00	0	31	104	0	83	20939
2026-01-15 08:40:17.06	131.29	8.14	-58.4	-61.6	6.1	0.00e+00	0	31	104	0	83	21018
2026-01-15 08:40:18.07	131.46	8.07	-58.3	-61.6	6.2	0.00e+00	0	31	104	0	83	20880
2026-01-15 08:40:19.08	131.62	8.00	-58.4	-61.6	6.2	0.00e+00	0	31	104	0	83	21089
2026-01-15 08:40:20.09	131.78	7.94	-58.3	-61.6	6.1	0.00e+00	0	31	104	0	83	20873
2026-01-15 08:40:21.09	131.94	7.87	-58.3	-61.6	6.1	0.00e+00	0	31	104	0	83	20894
2026-01-15 08:40:22.10	132.10	7.80	-58.3	-61.5	6.2	0.00e+00	0	31	104	0	83	20712
2026-01-15 08:40:23.11	132.26	7.74	-58.4	-61.6	6.1	0.00e+00	0	31	104	0	83	21013
2026-01-15 08:40:24.12	132.42	7.67	-58.3	-61.5	6.1	0.00e+00	0	31	104	0	83	20769
2026-01-15 08:40:25.13	132.58	7.60	-58.3	-61.5	6.1	0.00e+00	0	31	104	0	83	20823
2026-01-15 08:40:26.13	132.74	7.54	-58.2	-61.5	6.2	0.00e+00	0	31	104	0	83	20727
2026-01-15 08:40:27.15	132.89	7.47	-58.4	-61.6	6.1	0.00e+00	0	31	104	0	83	20955
2026-01-15 08:40:28.15	133.05	7.41	-58.2	-61.5	6.2	0.00e+00	0	31	104	0	83	20679
2026-01-15 08:40:29.16	133.20	7.34	-58.3	-61.5	6.2	0.00e+00	0	31	104	0	83	20745
2026-01-15 08:40:30.17	133.36	7.27	-58.2	-61.5	6.2	0.00e+00	0	31	104	0	83	20654
2026-01-15 08:40:31.18	133.51	7.21	-58.3	-61.5	6.2	0.00e+00	0	31	104	0	83	20852
2026-01-15 08:40:32.19	133.66	7.14	-58.2	-61.5	6.2	0.00e+00	0	31	104	0	83	20635
2026-01-15 08:40:33.20	133.81	7.08	-58.2	-61.4	6.2	0.00e+00	0	31	104	0	83	20613
2026-01-15 08:40:34.20	133.96	7.01	-58.2	-61.4	6.2	0.00e+00	0	31	104	0	83	20510
2026-01-15 08:40:35.21	134.11	6.94	-58.3	-61.5	6.2	0.00e+00	0	31	104	0	83	20840
2026-01-15 08:40:36.22	134.26	6.88	-58.2	-61.4	6.2	0.00e+00	0	31	104	0	83	20569
2026-01-15 08:40:37.23	134.41	6.81	-58.2	-61.4	6.2	0.00e+00	0	31	104	0	83	20591
2026-01-15 08:40:38.24	134.56	6.75	-58.1	-61.4	6.1	0.00e+00	0	31	104	0	83	20484
2026-01-15 08:40:39.24	134.70	6.68	-58.3	-61.5	6.2	0.00e+00	0	31	104	0	83	20758
2026-01-15 08:40:40.25	134.85	6.62	-58.1	-61.4	6.2	0.00e+00	0	31	104	0	83	20505
2026-01-15 08:40:41.25	134.99	6.55	-58.2	-61.4	6.2	0.00e+00	0	31	104	0	83	20516
2026-01-15 08:40:42.26	135.13	6.49	-58.1	-61.3	6.2	0.00e+00	0	31	104	0	83	20387
2026-01-15 08:40:43.27	135.28	6.42	-58.2	-61.4	6.1	0.00e+00	0	31	104	0	83	20590
2026-01-15 08:40:44.28	135.42	6.36	-58.1	-61.3	6.2	0.00e+00	0	31	104	0	83	20397
2026-01-15 08:40:45.29	135.56	6.29	-58.1	-61.3	6.2	0.00e+00	0	31	104	0	83	20290
2026-01-15 08:40:46.30	135.70	6.23	-58.0	-61.3	6.2	0.00e+00	0	31	104	0	83	20288
2026-01-15 08:40:47.31	135.84	6.16	-58.1	-61.4	6.2	0.00e+00	0	31	104	0	83	20472
2026-01-15 08:40:48.32	135.98	6.10	-58.0	-61.3	6.2	0.00e+00	0	31	104	0	83	20175
2026-01-15 08:40:49.33	136.12	6.03	-58.0	-61.3	6.1	0.00e+00	0	31	104	0	83	20255
2026-01-15 08:40:50.34	136.26	5.97	-58.0	-61.3	6.2	0.00e+00	0	31	104	0	83	20257
2026-01-15 08:40:51.35	136.40	5.90	-58.1	-61.3	6.1	0.00e+00	0	31	104	0	83	20362
2026-01-15 08:40:52.36	136.54	5.84	-58.0	-61.3	6.1	0.00e+00	0	31	104	0	83	20180
2026-01-15 08:40:53.36	136.67	5.78	-58.0	-61.2	6.2	0.00e+00	0	31	104	0	83	20149
2026-01-15 08:40:54.36	136.80	5.71	-58.0	-61.2	6.2	0.00e+00	0	31	104	0	83	20154
2026-01-15 08:40:55.37	136.94	5.65	-58.0	-61.3	6.1	0.00e+00	0	31	104	0	83	20269
2026-01-15 08:40:56.38	137.07	5.58	-58.0	-61.2	6.1	0.00e+00	0	31	104	0	83	20082
2026-01-15 08:40:57.39	137.21	5.52	-57.9	-61.2	6.1	0.00e+00	0	31	104	0	83	20056
2026-01-15 08:40:58.39	137.34	5.46	-57.9	-61.1	6.1	0.00e+00	0	31	104	0	82	21108
2026-01-15 08:40:59.40	137.47	5.39	-58.0	-61.2	6.1	0.00e+00	0	31	104	0	82	21296
2026-01-15 08:41:00.41	137.60	5.33	-57.9	-61.1	6.1	0.00e+00	0	31	104	0	82	20992
2026-01-15 08:41:01.42	137.73	5.27	-57.8	-61.0	6.2	0.00e+00	0	31	104	0	82	20864
2026-01-15 08:41:02.43	137.86	5.20	-57.9	-61.1	6.2	0.00e+00	0	31	104	0	82	20988
2026-01-15 08:41:03.44	137.99	5.14	-57.9	-61.1	6.2	0.00e+00	0	31	104	0	82	21094
2026-01-15 08:41:04.45	138.12	5.08	-57.3	-60.5	6.1	0.00e+00	0	31	104	0	81	20812
2026-01-15 08:41:05.45	138.25	5.01	-57.4	-60.7	6.2	0.00e+00	0	31	104	0	81	21145
2026-01-15 08:41:06.46	138.37	4.95	-58.2	-61.4	6.1	0.00e+00	0	31	104	0	82	21694
2026-01-15 08:41:07.47	138.50	4.89	-58.5	-61.8	6.1	0.00e+00	0	31	104	0	82	22650
2026-01-15 08:41:08.48	138.63	4.82	-58.8	-62.0	6.1	0.00e+00	0	31	104	0	83	22094
2026-01-15 08:41:09.48	138.75	4.76	-59.0	-62.2	6.1	0.00e+00	0	31	104	0	83	22479
2026-01-15 08:41:10.49	138.87	4.70	-59.3	-62.5	6.2	0.00e+00	0	31	104	0	84	22022
2026-01-15 08:41:11.50	139.00	4.64	-59.4	-62.7	6.2	0.00e+00	0	31	104	0	84	22433
2026-01-15 08:41:12.51	139.12	4.57	-59.5	-62.7	6.2	0.00e+00	0	31	104	0	84	22595
2026-01-15 08:41:13.52	139.24	4.51	-59.7	-62.9	6.1	0.00e+00	0	31	104	0	85	21745
2026-01-15 08:41:14.52	139.37	4.45	-59.7	-63.0	6.2	0.00e+00	0	31	104	0	85	21936
2026-01-15 08:41:15.53	139.49	4.39	-59.8	-63.0	6.2	0.00e+00	0	31	104	0	85	22044
2026-01-15 08:41:16.54	139.61	4.33	-59.8	-63.1	6.2	0.00e+00	0	31	104	0	85	22175
2026-01-15 08:41:17.55	139.73	4.26	-59.9	-63.1	6.2	0.00e+00	0	31	104	0	85	22331
2026-01-15 08:41:18.56	139.85	4.20	-59.9	-63.2	6.2	0.00e+00	0	31	104	0	85	22370
2026-01-15 08:41:19.57	139.97	4.14	-60.0	-63.2	6.2	0.00e+00	0	31	104	0	85	22461
2026-01-15 08:41:20.58	140.09	4.08	-60.0	-63.2	6.1	0.00e+00	0	31	104	0	85	22517
2026-01-15 08:41:21.59	140.20	4.02	-60.0	-63.2	6.1	0.00e+00	0	31	104	0	85	22622
2026-01-15 08:41:22.59	140.32	3.96	-60.0	-63.3	6.2	0.00e+00	0	31	104	0	85	22785
2026-01-15 08:41:23.60	140.44	3.89	-60.1	-63.3	6.2	0.00e+00	0	31	104	0	85	22885
2026-01-15 08:41:24.61	140.55	3.83	-60.1	-63.3	6.2	0.00e+00	0	31	104	0	85	22884
2026-01-15 08:41:25.62	140.67	3.77	-60.2	-63.4	6.2	0.00e+00	0	31	104	0	86	21775
2026-01-15 08:41:26.63	140.78	3.71	-60.2	-63.4	6.2	0.00e+00	0	31	104	0	86	21749
2026-01-15 08:41:27.63	140.90	3.65	-60.2	-63.4	6.1	0.00e+00	0	31	104	0	86	21790
2026-01-15 08:41:28.64	141.01	3.59	-60.2	-63.4	6.2	0.00e+00	0	31	104	0	86	21713
2026-01-15 08:41:29.65	141.12	3.53	-60.1	-63.4	6.2	0.00e+00	0	31	104	0	86	21706
2026-01-15 08:41:30.66	141.24	3.47	-60.1	-63.4	6.2	0.00e+00	0	31	104	0	86	21611
2026-01-15 08:41:31.67	141.35	3.41	-60.1	-63.3	6.2	0.00e+00	0	31	104	0	86	21565
2026-01-15 08:41:32.68	141.46	3.35	-60.1	-63.4	6.2	0.00e+00	0	31	104	0	86	21651
2026-01-15 08:41:33.69	141.57	3.28	-60.1	-63.3	6.2	0.00e+00	0	31	104	0	86	21543
2026-01-15 08:41:34.69	141.68	3.22	-60.2	-63.4	6.2	0.00e+00	0	31	104	0	86	21776
2026-01-15 08:41:35.70	141.79	3.16	-60.1	-63.3	6.1	0.00e+00	0	31	104	0	86	21586
2026-01-15 08:41:36.71	141.90	3.10	-60.1	-63.3	6.1	0.00e+00	0	31	104	0	86	21529
2026-01-15 08:41:37.72	142.01	3.04	-60.0	-63.2	6.2	0.00e+00	0	31	104	0	86	21343
2026-01-15 08:41:38.73	142.12	2.98	-60.0	-63.2	6.2	0.00e+00	0	31	104	0	86	21305
2026-01-15 08:41:39.74	142.23	2.92	-60.0	-63.2	6.2	0.00e+00	0	31	104	0	86	21338
2026-01-15 08:41:40.74	142.33	2.86	-60.1	-63.3	6.2	0.00e+00	0	31	104	0	86	21491
2026-01-15 08:41:41.75	142.44	2.81	-60.0	-63.3	6.1	0.00e+00	0	31	104	0	86	21418
2026-01-15 08:41:42.76	142.54	2.75	-60.0	-63.2	6.2	0.00e+00	0	31	104	0	86	21353
2026-01-15 08:41:43.77	142.65	2.69	-60.0	-63.2	6.2	0.00e+00	0	31	104	0	86	21253
2026-01-15 08:41:44.78	142.76	2.63	-60.0	-63.2	6.2	0.00e+00	0	31	104	0	86	21342
2026-01-15 08:41:45.79	142.86	2.57	-60.0	-63.2	6.2	0.00e+00	0	31	104	0	86	21288
2026-01-15 08:41:46.80	142.97	2.51	-60.0	-63.2	6.2	0.00e+00	0	31	104	0	86	21328
2026-01-15 08:41:47.81	143.07	2.45	-60.0	-63.2	6.2	0.00e+00	0	31	104	0	86	21314
2026-01-15 08:41:48.82	143.17	2.39	-60.0	-63.2	6.2	0.00e+00	0	31	104	0	86	21207
2026-01-15 08:41:49.82	143.27	2.33	-60.0	-63.2	6.1	0.00e+00	0	31	104	0	86	21213
2026-01-15 08:41:50.83	143.38	2.27	-60.0	-63.2	6.1	0.00e+00	0	31	104	0	86	21282
2026-01-15 08:41:51.84	143.48	2.21	-60.0	-63.2	6.2	0.00e+00	0	31	104	0	86	21239
2026-01-15 08:41:52.84	143.58	2.16	-60.0	-63.2	6.1	0.00e+00	0	31	104	0	86	21221
2026-01-15 08:41:53.84	143.68	2.10	-60.0	-63.2	6.2	0.00e+00	0	31	104	0	86	21252
2026-01-15 08:41:54.85	143.78	2.04	-60.0	-63.2	6.2	0.00e+00	0	31	104	0	86	21268
2026-01-15 08:41:55.86	143.88	1.98	-60.0	-63.2	6.1	0.00e+00	0	31	104	0	86	21251
2026-01-15 08:41:56.87	143.98	1.92	-60.0	-63.2	6.1	0.00e+00	0	31	104	0	86	21241
2026-01-15 08:41:57.87	144.08	1.86	-59.9	-63.2	6.1	0.00e+00	0	31	104	0	86	21164

#Closed at: 2026-01-15 08:41:58
#Recorded file [0 MB]: D:/lorett/data/31004_260115_113229.dat