passes_logs/2026/01/15/R3.2S_Murmansk/R3.2S_Murmansk__20260115_131428_NOAA_20_JPSS-1_rec.log

#Pass ID: 20260115_131428_NOAA 20 (JPSS-1)
#Satellite: NOAA 20 (JPSS-1)
#Configuration: NOAA 20
#almurnet v.1.7.20251203
#Start time: 2026-01-15 13:14:29

#Version: 2.2.20231116
#Station: R3.2S_Murmansk
#Location: 33.079688 lon 68.888172 lat
#TLE: 1 43013U 17073A   26014.55467351  .00000038  00000+0  38801-4 0  9992
#TLE: 2 43013  98.7635 315.4987 0001517  39.9279 320.2008 14.19535859422677

#Time	Az	El	Level	Level2	SNR	BER	BlckErr	Temp	State	Recorded	gain1	gain2
2026-01-15 13:14:29.86	250.03	2.05	-59.0	-75.0	3.8	1.49e+00	0	26	0	0	84	22484
2026-01-15 13:14:30.86	250.13	2.10	-58.8	-74.8	3.8	1.49e+00	0	26	104	0	82	24565
2026-01-15 13:14:31.87	250.24	2.14	-58.8	-74.8	3.8	1.49e+00	0	26	104	0	82	24556
2026-01-15 13:14:32.87	250.35	2.18	-58.8	-74.8	3.8	1.49e+00	0	26	104	0	82	24666
2026-01-15 13:14:33.87	250.45	2.22	-58.8	-74.8	3.8	1.49e+00	0	26	104	0	82	24613
2026-01-15 13:14:34.87	250.56	2.26	-58.7	-74.8	3.8	1.49e+00	0	26	104	0	82	24590
2026-01-15 13:14:35.88	250.67	2.30	-58.8	-74.8	3.8	1.49e+00	0	26	104	0	82	24653
2026-01-15 13:14:36.88	250.77	2.35	-58.8	-74.8	3.8	1.49e+00	0	26	104	0	82	24628
2026-01-15 13:14:37.87	250.88	2.39	-58.8	-74.8	3.8	1.49e+00	0	26	104	0	82	24635
2026-01-15 13:14:38.87	250.98	2.43	-58.8	-74.8	3.8	1.49e+00	0	26	104	0	82	24649
2026-01-15 13:14:39.87	251.09	2.47	-58.8	-74.8	3.8	1.49e+00	0	26	104	0	82	24620
2026-01-15 13:14:40.87	251.20	2.51	-58.8	-74.9	3.8	1.49e+00	0	26	104	0	82	24729
2026-01-15 13:14:41.87	251.31	2.55	-58.8	-74.9	3.8	1.49e+00	0	26	104	0	82	24695
2026-01-15 13:14:42.88	251.42	2.59	-58.8	-74.8	3.8	1.49e+00	0	26	104	0	82	24672
2026-01-15 13:14:43.87	251.52	2.64	-58.8	-74.8	3.8	1.49e+00	0	26	104	0	82	24638
2026-01-15 13:14:44.86	251.63	2.68	-58.8	-74.8	3.8	1.49e+00	0	26	104	0	82	24648
2026-01-15 13:14:45.86	251.74	2.72	-58.8	-74.8	3.8	1.49e+00	0	26	104	0	82	24572
2026-01-15 13:14:46.85	251.85	2.76	-58.8	-74.8	3.8	1.49e+00	0	26	104	0	82	24559
2026-01-15 13:14:47.85	251.96	2.80	-58.8	-74.8	3.8	1.49e+00	0	26	104	0	82	24554
2026-01-15 13:14:48.85	252.07	2.84	-58.8	-74.8	3.8	1.49e+00	0	27	104	0	82	24532
2026-01-15 13:14:49.86	252.18	2.88	-58.8	-74.8	3.8	1.49e+00	0	27	104	0	82	24589
2026-01-15 13:14:50.85	252.29	2.92	-58.8	-74.8	3.8	1.49e+00	0	26	104	0	82	24636
2026-01-15 13:14:51.85	252.40	2.96	-58.8	-74.8	3.8	1.49e+00	0	27	104	0	82	24599
2026-01-15 13:14:52.85	252.51	3.01	-58.8	-74.8	3.8	1.49e+00	0	27	104	0	82	24608
2026-01-15 13:14:53.86	252.63	3.05	-58.8	-74.8	3.8	1.49e+00	0	27	104	0	82	24527
2026-01-15 13:14:54.86	252.74	3.09	-58.8	-74.8	3.8	1.49e+00	0	27	104	0	82	24522
2026-01-15 13:14:55.86	252.85	3.13	-58.8	-74.8	3.8	1.49e+00	0	27	104	0	82	24641
2026-01-15 13:14:56.86	252.96	3.17	-58.8	-74.8	3.8	1.49e+00	0	27	104	0	82	24548
2026-01-15 13:14:57.86	253.07	3.21	-58.8	-74.8	3.8	1.49e+00	0	27	104	0	82	24628
2026-01-15 13:14:58.86	253.19	3.25	-58.8	-74.8	3.8	1.49e+00	0	27	104	0	82	24579
2026-01-15 13:14:59.86	253.30	3.29	-58.8	-74.8	3.8	1.49e+00	0	27	104	0	82	24476
2026-01-15 13:15:00.86	253.41	3.33	-58.7	-74.8	3.8	1.49e+00	0	27	104	0	82	24447
2026-01-15 13:15:01.85	253.53	3.37	-58.8	-74.8	3.8	1.49e+00	0	27	104	0	82	24503
2026-01-15 13:15:02.85	253.64	3.41	-58.8	-74.8	3.8	1.49e+00	0	27	104	0	82	24461
2026-01-15 13:15:03.85	253.76	3.46	-58.8	-74.8	3.8	1.49e+00	0	27	104	0	82	24557
2026-01-15 13:15:04.85	253.87	3.50	-58.8	-74.8	3.8	1.49e+00	0	27	104	0	82	24492
2026-01-15 13:15:05.85	253.99	3.54	-58.8	-74.8	3.8	1.49e+00	0	27	104	0	82	24450
2026-01-15 13:15:06.84	254.10	3.58	-58.8	-74.8	3.8	1.49e+00	0	27	104	0	82	24440
2026-01-15 13:15:07.84	254.22	3.62	-58.8	-74.7	3.8	1.49e+00	0	27	104	0	82	24326
2026-01-15 13:15:08.84	254.33	3.66	-58.8	-74.8	3.8	1.49e+00	0	27	104	0	82	24453
2026-01-15 13:15:09.83	254.45	3.70	-58.8	-74.8	3.8	1.49e+00	0	27	104	0	82	24413
2026-01-15 13:15:10.83	254.56	3.74	-58.8	-74.8	3.8	1.49e+00	0	27	104	0	82	24540
2026-01-15 13:15:11.83	254.68	3.78	-58.8	-74.8	3.8	1.49e+00	0	27	104	0	82	24519
2026-01-15 13:15:12.83	254.80	3.82	-58.8	-74.7	3.8	1.49e+00	0	27	104	0	82	24400
2026-01-15 13:15:13.82	254.92	3.86	-58.8	-74.8	3.8	1.49e+00	0	27	104	0	82	24413
2026-01-15 13:15:14.82	255.03	3.90	-58.8	-74.8	3.8	1.49e+00	0	27	104	0	82	24459
2026-01-15 13:15:15.82	255.15	3.94	-58.8	-74.8	3.8	1.49e+00	0	27	104	0	82	24567
2026-01-15 13:15:16.82	255.27	3.98	-58.8	-74.8	3.8	1.49e+00	0	27	104	0	82	24621
2026-01-15 13:15:17.83	255.39	4.02	-58.8	-74.8	3.8	1.49e+00	0	27	104	0	82	24637
2026-01-15 13:15:18.82	255.51	4.06	-58.8	-74.8	3.8	1.49e+00	0	27	104	0	82	24633
2026-01-15 13:15:19.82	255.63	4.10	-58.8	-74.9	3.8	1.49e+00	0	27	104	0	82	24701
2026-01-15 13:15:20.81	255.75	4.14	-58.8	-74.8	3.8	1.49e+00	0	27	104	0	82	24611
2026-01-15 13:15:21.80	255.86	4.18	-58.8	-74.8	3.8	1.49e+00	0	27	104	0	82	24515
2026-01-15 13:15:22.79	255.98	4.22	-58.8	-74.8	3.8	1.49e+00	0	27	104	0	82	24508
2026-01-15 13:15:23.79	256.10	4.26	-58.8	-74.8	3.8	1.49e+00	0	27	104	0	82	24424
2026-01-15 13:15:24.79	256.23	4.30	-58.8	-74.7	3.8	1.49e+00	0	27	104	0	82	24309
2026-01-15 13:15:25.79	256.35	4.34	-58.8	-74.7	3.8	1.49e+00	0	27	104	0	82	24410
2026-01-15 13:15:26.80	256.47	4.38	-58.8	-74.8	3.8	1.49e+00	0	27	104	0	82	24442
2026-01-15 13:15:27.80	256.59	4.42	-58.8	-74.6	3.8	1.49e+00	0	27	104	0	82	24049
2026-01-15 13:15:28.80	256.71	4.46	-58.8	-74.5	3.8	1.49e+00	0	27	104	0	82	23732
2026-01-15 13:15:29.79	256.84	4.50	-58.8	-74.5	3.8	1.49e+00	0	27	104	0	82	23694
2026-01-15 13:15:30.79	256.96	4.54	-58.8	-74.8	3.8	1.49e+00	0	27	104	0	82	24437
2026-01-15 13:15:31.80	257.08	4.58	-58.8	-74.8	3.8	1.49e+00	0	27	104	0	82	24672
2026-01-15 13:15:32.80	257.21	4.62	-58.8	-74.6	3.8	1.49e+00	0	27	104	0	82	23941
2026-01-15 13:15:33.79	257.33	4.66	-58.7	-73.2	3.8	1.49e+00	0	27	104	0	82	20428
2026-01-15 13:15:34.79	257.45	4.70	-58.7	-71.7	4.1	1.49e+00	0	27	104	0	82	17234
2026-01-15 13:15:35.80	257.58	4.74	-58.5	-69.4	4.9	1.01e+00	0	27	0	1048576	82	13177
2026-01-15 13:15:36.80	257.70	4.78	-58.4	-68.3	5.5	5.92e-01	0	27	0	2097152	82	11608
2026-01-15 13:15:37.80	257.83	4.82	-58.1	-66.4	6.7	1.78e-01	0	27	0	4194304	82	9303
2026-01-15 13:15:38.80	257.96	4.86	-58.0	-65.4	7.5	9.84e-02	0	27	0	6291456	82	8323
2026-01-15 13:15:39.80	258.08	4.90	-57.5	-63.5	9.2	1.43e-02	0	27	0	8388608	81	7074
2026-01-15 13:15:40.78	258.20	4.93	-56.9	-61.8	10.5	2.87e-03	0	27	0	10485760	80	6158
2026-01-15 13:15:41.78	258.33	4.97	-56.4	-60.7	11.4	2.59e-05	0	27	0	11534336	79	5723
2026-01-15 13:15:42.77	258.46	5.01	-55.7	-59.2	12.4	0.00e+00	0	27	0	13631488	78	5116
2026-01-15 13:15:43.77	258.58	5.05	-56.3	-60.5	11.4	7.00e-07	0	27	0	15728640	77	6292
2026-01-15 13:15:44.77	258.71	5.09	-57.4	-63.4	9.3	1.24e-03	0	27	0	17825792	79	7811
2026-01-15 13:15:45.77	258.84	5.13	-54.9	-57.8	13.1	2.72e-04	0	27	0	19922944	76	4911
2026-01-15 13:15:46.77	258.97	5.17	-56.0	-59.9	11.8	0.00e+00	0	27	0	20971520	77	5907
2026-01-15 13:15:47.77	259.10	5.21	-57.5	-63.5	9.5	2.89e-05	0	27	0	23068672	80	7464
2026-01-15 13:15:48.78	259.23	5.25	-55.4	-58.7	12.6	6.33e-03	0	27	0	25165824	77	5134
2026-01-15 13:15:49.77	259.35	5.28	-55.3	-58.4	12.8	0.00e+00	0	27	0	27262976	77	4954
2026-01-15 13:15:50.77	259.48	5.32	-54.9	-57.8	13.0	0.00e+00	0	27	0	29360128	76	4924
2026-01-15 13:15:51.77	259.61	5.36	-55.0	-57.9	13.0	0.00e+00	0	27	0	30408704	76	4983
2026-01-15 13:15:52.78	259.74	5.40	-55.1	-58.1	12.9	0.00e+00	0	28	0	32505856	76	5089
2026-01-15 13:15:53.78	259.87	5.44	-54.9	-57.8	13.1	0.00e+00	0	27	0	34603008	76	4914
2026-01-15 13:15:54.78	260.00	5.48	-54.9	-57.7	13.1	0.00e+00	0	28	0	36700160	76	4859
2026-01-15 13:15:55.79	260.14	5.52	-55.0	-57.9	13.1	0.00e+00	0	27	0	37748736	76	4954
2026-01-15 13:15:56.79	260.27	5.55	-54.7	-57.5	13.3	0.00e+00	0	27	0	39845888	76	4754
2026-01-15 13:15:57.78	260.40	5.59	-54.5	-57.2	13.3	0.00e+00	0	27	0	41943040	75	4833
2026-01-15 13:15:58.78	260.53	5.63	-54.6	-57.3	13.3	0.00e+00	0	28	0	44040192	75	4922
2026-01-15 13:15:59.77	260.66	5.67	-54.7	-57.5	13.2	0.00e+00	0	27	0	46137344	75	5016
2026-01-15 13:16:00.77	260.79	5.71	-54.7	-57.5	13.1	0.00e+00	0	27	0	47185920	75	5029
2026-01-15 13:16:01.77	260.93	5.74	-54.6	-57.3	13.3	0.00e+00	0	27	0	49283072	75	4913
2026-01-15 13:16:02.77	261.06	5.78	-54.6	-57.4	13.3	0.00e+00	0	28	0	51380224	75	4956
2026-01-15 13:16:03.76	261.19	5.82	-54.6	-57.4	13.2	0.00e+00	0	27	0	53477376	75	4970
2026-01-15 13:16:04.76	261.33	5.86	-54.7	-57.5	13.2	0.00e+00	0	27	0	54525952	75	5021
2026-01-15 13:16:05.76	261.46	5.89	-54.8	-57.6	13.1	0.00e+00	0	27	0	56623104	75	5097
2026-01-15 13:16:06.75	261.60	5.93	-54.6	-57.4	13.3	0.00e+00	0	27	0	58720256	75	4941
2026-01-15 13:16:07.75	261.73	5.97	-54.7	-57.5	13.1	0.00e+00	0	28	0	60817408	75	5034
2026-01-15 13:16:08.74	261.86	6.01	-54.8	-57.6	13.1	0.00e+00	0	28	0	62914560	75	5092
2026-01-15 13:16:09.74	262.00	6.04	-54.9	-57.8	13.0	0.00e+00	0	27	0	63963136	75	5215
2026-01-15 13:16:10.73	262.13	6.08	-55.0	-57.9	12.9	0.00e+00	0	28	0	66060288	75	5242
2026-01-15 13:16:11.73	262.27	6.12	-54.6	-57.4	13.3	0.00e+00	0	27	0	68157440	75	4947
2026-01-15 13:16:12.73	262.41	6.15	-54.5	-57.2	13.3	0.00e+00	0	28	0	70254592	75	4868
2026-01-15 13:16:13.74	262.55	6.19	-54.7	-57.5	13.2	0.00e+00	0	28	0	72351744	75	5006
2026-01-15 13:16:14.74	262.68	6.23	-54.8	-57.7	13.1	0.00e+00	0	28	0	73400320	75	5106
2026-01-15 13:16:15.73	262.82	6.26	-54.6	-57.3	13.3	0.00e+00	0	28	0	75497472	75	4898
2026-01-15 13:16:16.73	262.96	6.30	-54.9	-57.9	13.0	0.00e+00	0	27	0	77594624	75	5245
2026-01-15 13:16:17.73	263.10	6.34	-54.8	-57.7	13.1	0.00e+00	0	27	0	79691776	75	5155
2026-01-15 13:16:18.73	263.23	6.37	-54.9	-57.7	13.1	0.00e+00	0	27	0	80740352	75	5154
2026-01-15 13:16:19.73	263.37	6.41	-55.0	-58.0	12.9	0.00e+00	0	28	0	82837504	75	5299
2026-01-15 13:16:20.73	263.51	6.45	-55.1	-58.2	12.8	0.00e+00	0	28	0	84934656	75	5415
2026-01-15 13:16:21.74	263.65	6.48	-55.1	-58.2	12.8	0.00e+00	0	28	0	87031808	75	5420
2026-01-15 13:16:22.74	263.79	6.52	-55.0	-57.9	12.9	0.00e+00	0	28	0	89128960	75	5277
2026-01-15 13:16:23.74	263.93	6.56	-54.9	-57.8	13.0	0.00e+00	0	28	0	90177536	75	5167
2026-01-15 13:16:24.74	264.08	6.59	-55.0	-57.9	13.0	0.00e+00	0	28	0	92274688	75	5269
2026-01-15 13:16:25.75	264.22	6.63	-54.9	-57.9	13.0	0.00e+00	0	28	0	94371840	75	5236
2026-01-15 13:16:26.75	264.36	6.66	-54.9	-57.8	13.0	0.00e+00	0	28	0	96468992	75	5200
2026-01-15 13:16:27.76	264.50	6.70	-55.0	-57.9	13.0	0.00e+00	0	28	0	98566144	75	5253
2026-01-15 13:16:28.75	264.64	6.73	-54.8	-57.7	13.1	0.00e+00	0	27	0	99614720	75	5132
2026-01-15 13:16:29.76	264.79	6.77	-54.8	-57.7	13.1	0.00e+00	0	28	0	101711872	75	5135
2026-01-15 13:16:30.76	264.93	6.81	-54.8	-57.7	13.1	0.00e+00	0	28	0	103809024	75	5120
2026-01-15 13:16:31.76	265.07	6.84	-54.8	-57.7	13.1	0.00e+00	0	28	0	105906176	75	5110
2026-01-15 13:16:32.77	265.22	6.88	-54.9	-57.8	13.0	0.00e+00	0	27	0	108003328	75	5200
2026-01-15 13:16:33.76	265.36	6.91	-54.8	-57.6	13.2	0.00e+00	0	28	0	109051904	75	5077
2026-01-15 13:16:34.76	265.50	6.95	-54.7	-57.5	13.3	0.00e+00	0	28	0	111149056	75	4989
2026-01-15 13:16:35.76	265.65	6.98	-54.8	-57.7	13.1	0.00e+00	0	28	0	113246208	75	5103
2026-01-15 13:16:36.76	265.79	7.02	-54.9	-57.8	13.1	0.00e+00	0	28	0	115343360	75	5172
2026-01-15 13:16:37.75	265.94	7.05	-54.8	-57.6	13.1	0.00e+00	0	28	0	116391936	75	5087
2026-01-15 13:16:38.76	266.08	7.08	-55.0	-58.0	12.9	0.00e+00	0	28	0	118489088	75	5285
2026-01-15 13:16:39.76	266.23	7.12	-54.8	-57.6	13.1	0.00e+00	0	28	0	120586240	75	5076
2026-01-15 13:16:40.76	266.37	7.15	-54.6	-57.4	13.2	0.00e+00	0	28	0	122683392	75	4975
2026-01-15 13:16:41.76	266.52	7.19	-54.6	-57.4	13.2	0.00e+00	0	28	0	124780544	75	4979
2026-01-15 13:16:42.77	266.67	7.22	-54.5	-57.2	13.4	0.00e+00	0	28	0	125829120	75	4852
2026-01-15 13:16:43.77	266.82	7.26	-54.5	-57.2	13.3	0.00e+00	0	28	0	127926272	75	4840
2026-01-15 13:16:44.78	266.96	7.29	-54.5	-57.2	13.3	0.00e+00	0	28	0	130023424	75	4844
2026-01-15 13:16:45.77	267.11	7.32	-54.5	-57.3	13.2	0.00e+00	0	28	0	132120576	75	4891
2026-01-15 13:16:46.77	267.26	7.36	-54.6	-57.5	13.1	0.00e+00	0	28	0	134217728	75	4999
2026-01-15 13:16:47.77	267.41	7.39	-55.0	-58.1	12.7	0.00e+00	0	28	0	135266304	75	5396
2026-01-15 13:16:48.77	267.56	7.42	-55.1	-58.5	12.4	0.00e+00	0	28	0	137363456	75	5637
2026-01-15 13:16:49.77	267.70	7.46	-55.7	-59.7	11.7	2.20e-06	0	28	0	139460608	76	6089
2026-01-15 13:16:50.77	267.85	7.49	-56.1	-60.5	11.1	5.18e-05	0	28	0	141557760	77	6342
2026-01-15 13:16:51.77	268.00	7.52	-56.3	-61.1	10.5	2.39e-04	0	28	0	143654912	77	6789
2026-01-15 13:16:52.77	268.15	7.56	-56.6	-61.9	9.9	1.07e-03	0	28	0	144703488	78	7023
2026-01-15 13:16:53.77	268.30	7.59	-56.7	-62.5	9.3	4.20e-03	0	28	0	146800640	78	7507
2026-01-15 13:16:54.76	268.45	7.62	-56.8	-63.1	8.8	9.39e-03	0	28	0	148897792	78	8048
2026-01-15 13:16:55.76	268.60	7.65	-56.9	-63.4	8.5	1.19e-02	0	28	0	150994944	78	8331
2026-01-15 13:16:56.75	268.75	7.69	-56.9	-63.9	8.1	2.22e-02	0	28	0	152043520	79	8275
2026-01-15 13:16:57.75	268.90	7.72	-57.0	-64.4	7.6	4.66e-02	0	28	0	154140672	79	8830
2026-01-15 13:16:58.75	269.06	7.75	-57.1	-64.7	7.3	7.42e-02	0	28	0	156237824	79	9136
2026-01-15 13:16:59.75	269.21	7.78	-57.1	-64.9	7.1	8.60e-02	0	28	0	158334976	79	9386
2026-01-15 13:17:00.74	269.36	7.81	-57.1	-65.0	7.1	9.41e-02	0	28	0	160432128	79	9435
2026-01-15 13:17:01.74	269.51	7.85	-57.1	-64.5	7.5	7.32e-02	0	28	0	161480704	79	8945
2026-01-15 13:17:02.73	269.66	7.88	-57.0	-64.3	7.8	5.32e-02	0	28	0	163577856	79	8689
2026-01-15 13:17:03.73	269.82	7.91	-58.1	-67.8	5.6	3.40e-02	0	28	0	165675008	81	11594
2026-01-15 13:17:04.73	269.97	7.94	-57.2	-63.2	9.3	4.78e-02	0	28	0	167772160	81	6816
2026-01-15 13:17:05.72	270.12	7.97	-58.0	-68.7	5.2	1.67e-03	0	28	0	169869312	81	12879
2026-01-15 13:17:06.72	270.28	8.00	-56.3	-60.6	11.1	1.08e+00	0	28	0	169869312	79	5682
2026-01-15 13:17:07.72	270.43	8.03	-56.1	-60.1	11.7	2.13e-05	0	28	0	171966464	78	5666
2026-01-15 13:17:08.72	270.59	8.06	-55.7	-59.3	12.2	3.00e-06	0	28	0	173015040	78	5194
2026-01-15 13:17:09.71	270.74	8.09	-55.9	-59.6	12.0	1.50e-06	0	28	0	175112192	78	5378
2026-01-15 13:17:10.70	270.90	8.12	-55.6	-59.1	12.3	0.00e+00	0	28	0	177209344	77	5363
2026-01-15 13:17:11.69	271.05	8.15	-55.3	-58.4	12.9	0.00e+00	0	28	0	179306496	77	4946
2026-01-15 13:17:12.69	271.21	8.19	-55.2	-58.2	13.0	0.00e+00	0	28	0	180355072	77	4827
2026-01-15 13:17:13.69	271.36	8.22	-55.0	-57.9	13.1	0.00e+00	0	28	0	182452224	76	4941
2026-01-15 13:17:14.69	271.52	8.25	-54.8	-57.5	13.4	0.00e+00	0	28	0	184549376	76	4707
2026-01-15 13:17:15.69	271.68	8.27	-54.6	-57.3	13.4	0.00e+00	0	28	0	186646528	75	4898
2026-01-15 13:17:16.69	271.83	8.30	-54.7	-57.4	13.4	0.00e+00	0	28	0	188743680	75	4932
2026-01-15 13:17:17.69	271.99	8.33	-54.8	-57.5	13.2	0.00e+00	0	28	0	189792256	75	5003
2026-01-15 13:17:18.69	272.15	8.36	-54.8	-57.6	13.2	0.00e+00	0	28	0	191889408	75	5068
2026-01-15 13:17:19.69	272.31	8.39	-54.9	-57.6	13.2	0.00e+00	0	28	0	193986560	75	5100
2026-01-15 13:17:20.69	272.47	8.42	-54.9	-57.7	13.2	0.00e+00	0	28	0	196083712	75	5106
2026-01-15 13:17:21.68	272.62	8.45	-54.9	-57.7	13.1	0.00e+00	0	28	0	197132288	75	5148
2026-01-15 13:17:22.69	272.79	8.48	-54.9	-57.8	13.1	0.00e+00	0	28	0	199229440	75	5164
2026-01-15 13:17:23.68	272.94	8.51	-55.1	-58.0	13.0	0.00e+00	0	28	0	201326592	75	5281
2026-01-15 13:17:24.68	273.10	8.54	-55.2	-58.2	12.9	0.00e+00	0	28	0	203423744	75	5404
2026-01-15 13:17:25.68	273.26	8.56	-55.1	-58.0	12.9	0.00e+00	0	28	0	205520896	75	5320
2026-01-15 13:17:26.68	273.42	8.59	-55.1	-58.0	13.0	0.00e+00	0	28	0	206569472	75	5315
2026-01-15 13:17:27.69	273.59	8.62	-55.1	-58.0	12.9	0.00e+00	0	28	0	208666624	75	5329
2026-01-15 13:17:28.68	273.75	8.65	-55.1	-58.0	13.0	0.00e+00	0	28	0	210763776	75	5313
2026-01-15 13:17:29.68	273.91	8.68	-55.0	-57.9	13.1	0.00e+00	0	28	0	212860928	75	5238
2026-01-15 13:17:30.68	274.07	8.70	-55.0	-57.8	13.0	0.00e+00	0	28	0	214958080	75	5210
2026-01-15 13:17:31.67	274.23	8.73	-54.9	-57.7	13.2	0.00e+00	0	28	0	216006656	75	5126
2026-01-15 13:17:32.66	274.39	8.76	-54.9	-57.7	13.2	0.00e+00	0	28	0	218103808	75	5145
2026-01-15 13:17:33.66	274.55	8.78	-54.9	-57.7	13.2	0.00e+00	0	28	0	220200960	75	5122
2026-01-15 13:17:34.66	274.72	8.81	-54.9	-57.6	13.2	0.00e+00	0	28	0	222298112	75	5078
2026-01-15 13:17:35.66	274.88	8.84	-55.0	-57.8	13.2	0.00e+00	0	28	0	223346688	75	5170
2026-01-15 13:17:36.67	275.04	8.86	-54.9	-57.7	13.2	0.00e+00	0	28	0	225443840	75	5114
2026-01-15 13:17:37.66	275.21	8.89	-55.0	-57.8	13.1	0.00e+00	0	28	0	227540992	75	5174
2026-01-15 13:17:38.66	275.37	8.92	-54.9	-57.6	13.2	0.00e+00	0	28	0	229638144	75	5072
2026-01-15 13:17:39.66	275.53	8.94	-54.9	-57.7	13.2	0.00e+00	0	28	0	231735296	75	5124
2026-01-15 13:17:40.65	275.70	8.97	-54.9	-57.6	13.2	0.00e+00	0	28	0	232783872	75	5100
2026-01-15 13:17:41.65	275.86	8.99	-55.0	-57.8	13.2	0.00e+00	0	28	0	234881024	75	5181
2026-01-15 13:17:42.65	276.03	9.02	-55.0	-57.8	13.2	0.00e+00	0	28	0	236978176	75	5182
2026-01-15 13:17:43.65	276.19	9.04	-54.9	-57.6	13.2	0.00e+00	0	28	0	239075328	75	5086
2026-01-15 13:17:44.65	276.36	9.07	-55.0	-57.8	13.1	0.00e+00	0	28	0	241172480	75	5201
2026-01-15 13:17:45.65	276.52	9.09	-55.1	-58.1	13.0	0.00e+00	0	28	0	242221056	75	5341
2026-01-15 13:17:46.65	276.69	9.12	-55.1	-58.0	13.0	0.00e+00	0	28	0	244318208	75	5310
2026-01-15 13:17:47.65	276.86	9.14	-55.3	-58.3	12.9	0.00e+00	0	28	0	246415360	75	5465
2026-01-15 13:17:48.65	277.02	9.17	-55.2	-58.2	12.9	0.00e+00	0	28	0	248512512	75	5430
2026-01-15 13:17:49.65	277.19	9.19	-55.1	-58.0	13.0	0.00e+00	0	28	0	249561088	75	5314
2026-01-15 13:17:50.63	277.35	9.21	-55.2	-58.1	12.9	0.00e+00	0	28	0	251658240	75	5402
2026-01-15 13:17:51.63	277.52	9.24	-55.1	-58.0	13.0	0.00e+00	0	28	0	253755392	75	5311
2026-01-15 13:17:52.63	277.69	9.26	-55.1	-58.0	13.0	0.00e+00	0	28	0	255852544	75	5305
2026-01-15 13:17:53.63	277.86	9.28	-54.9	-57.7	13.2	0.00e+00	0	28	0	257949696	75	5136
2026-01-15 13:17:54.63	278.03	9.31	-54.9	-57.7	13.2	0.00e+00	0	28	0	258998272	75	5102
2026-01-15 13:17:55.63	278.19	9.33	-55.0	-57.7	13.2	0.00e+00	0	28	0	261095424	75	5145
2026-01-15 13:17:56.63	278.36	9.35	-54.8	-57.5	13.3	0.00e+00	0	28	0	263192576	75	5009
2026-01-15 13:17:57.61	278.53	9.38	-54.8	-57.5	13.3	0.00e+00	0	28	0	265289728	75	5028
2026-01-15 13:17:58.61	278.70	9.40	-54.8	-57.5	13.3	0.00e+00	0	28	0	267386880	75	5012
2026-01-15 13:17:59.61	278.87	9.42	-54.8	-57.5	13.3	0.00e+00	0	28	0	268435456	75	5040
2026-01-15 13:18:00.61	279.04	9.44	-54.8	-57.5	13.3	0.00e+00	0	28	0	270532608	75	4986
2026-01-15 13:18:01.61	279.21	9.46	-54.8	-57.5	13.3	0.00e+00	0	28	0	272629760	75	4990
2026-01-15 13:18:02.61	279.38	9.49	-54.7	-57.4	13.4	0.00e+00	0	28	0	274726912	75	4942
2026-01-15 13:18:03.61	279.55	9.51	-54.9	-57.6	13.3	0.00e+00	0	28	0	275775488	75	5057
2026-01-15 13:18:04.61	279.72	9.53	-54.9	-57.6	13.2	0.00e+00	0	28	0	277872640	75	5065
2026-01-15 13:18:05.61	279.89	9.55	-54.8	-57.5	13.3	0.00e+00	0	28	0	279969792	75	4994
2026-01-15 13:18:06.60	280.06	9.57	-54.9	-57.6	13.3	0.00e+00	0	28	0	282066944	75	5068
2026-01-15 13:18:07.60	280.23	9.59	-54.9	-57.7	13.2	0.00e+00	0	28	0	284164096	75	5114
2026-01-15 13:18:08.59	280.40	9.61	-54.9	-57.7	13.3	0.00e+00	0	28	0	285212672	75	5119
2026-01-15 13:18:09.59	280.57	9.63	-54.9	-57.7	13.2	0.00e+00	0	28	0	287309824	75	5106
2026-01-15 13:18:10.58	280.74	9.65	-54.9	-57.6	13.3	0.00e+00	0	28	0	289406976	75	5068
2026-01-15 13:18:11.58	280.91	9.67	-54.8	-57.5	13.3	0.00e+00	0	28	0	291504128	75	5013
2026-01-15 13:18:12.58	281.09	9.69	-54.7	-57.4	13.4	0.00e+00	0	28	0	293601280	75	4928
2026-01-15 13:18:13.58	281.26	9.71	-54.7	-57.3	13.4	0.00e+00	0	28	0	294649856	75	4917
2026-01-15 13:18:14.58	281.43	9.73	-54.8	-57.4	13.4	0.00e+00	0	28	0	296747008	75	4955
2026-01-15 13:18:15.58	281.61	9.75	-54.8	-57.4	13.4	0.00e+00	0	28	0	298844160	75	4969
2026-01-15 13:18:16.57	281.78	9.76	-54.8	-57.4	13.4	0.00e+00	0	28	0	300941312	75	4932
2026-01-15 13:18:17.57	281.95	9.78	-54.7	-57.4	13.4	0.00e+00	0	28	0	301989888	75	4928
2026-01-15 13:18:18.57	282.13	9.80	-54.7	-57.3	13.4	0.00e+00	0	28	0	304087040	75	4907
2026-01-15 13:18:19.56	282.30	9.82	-54.7	-57.3	13.5	0.00e+00	0	28	0	306184192	75	4909
2026-01-15 13:18:20.56	282.47	9.84	-54.6	-57.2	13.5	0.00e+00	0	28	0	308281344	75	4840
2026-01-15 13:18:21.56	282.65	9.85	-54.8	-57.4	13.4	0.00e+00	0	28	0	310378496	75	4928
2026-01-15 13:18:22.56	282.82	9.87	-54.8	-57.4	13.4	0.00e+00	0	28	0	311427072	75	4946
2026-01-15 13:18:23.56	283.00	9.89	-54.8	-57.4	13.5	0.00e+00	0	28	0	313524224	75	4930
2026-01-15 13:18:24.57	283.17	9.91	-54.8	-57.4	13.4	0.00e+00	0	28	0	315621376	75	4974
2026-01-15 13:18:25.56	283.35	9.92	-54.8	-57.3	13.5	0.00e+00	0	28	0	317718528	75	4923
2026-01-15 13:18:26.56	283.52	9.94	-54.8	-57.4	13.4	0.00e+00	0	28	0	318767104	75	4948
2026-01-15 13:18:27.56	283.70	9.96	-54.9	-57.5	13.4	0.00e+00	0	28	0	320864256	75	5015
2026-01-15 13:18:28.56	283.87	9.97	-55.0	-57.7	13.3	0.00e+00	0	28	0	322961408	75	5102
2026-01-15 13:18:29.56	284.05	9.99	-55.0	-57.7	13.3	0.00e+00	0	28	0	325058560	75	5109
2026-01-15 13:18:30.55	284.22	10.00	-54.9	-57.6	13.3	0.00e+00	0	28	0	327155712	75	5088
2026-01-15 13:18:31.55	284.40	10.02	-54.9	-57.6	13.3	0.00e+00	0	28	0	328204288	75	5064
2026-01-15 13:18:32.55	284.58	10.03	-55.0	-57.6	13.3	0.00e+00	0	28	0	330301440	75	5091
2026-01-15 13:18:33.55	284.75	10.05	-55.0	-57.7	13.3	0.00e+00	0	28	0	332398592	75	5132
2026-01-15 13:18:34.55	284.93	10.06	-55.1	-57.9	13.2	0.00e+00	0	28	0	334495744	75	5232
2026-01-15 13:18:35.55	285.11	10.08	-55.1	-57.8	13.2	0.00e+00	0	28	0	336592896	75	5210
2026-01-15 13:18:36.54	285.28	10.09	-55.0	-57.8	13.2	0.00e+00	0	28	0	337641472	75	5176
2026-01-15 13:18:37.54	285.46	10.11	-55.1	-57.8	13.2	0.00e+00	0	28	0	339738624	75	5203
2026-01-15 13:18:38.54	285.64	10.12	-55.1	-57.9	13.2	0.00e+00	0	28	0	341835776	75	5240
2026-01-15 13:18:39.54	285.81	10.13	-55.2	-58.0	13.1	0.00e+00	0	28	0	343932928	75	5307
2026-01-15 13:18:40.54	285.99	10.15	-55.2	-58.0	13.1	0.00e+00	0	28	0	344981504	75	5312
2026-01-15 13:18:41.53	286.17	10.16	-55.2	-58.1	13.1	0.00e+00	0	28	0	347078656	75	5356
2026-01-15 13:18:42.53	286.35	10.17	-55.3	-58.2	13.0	0.00e+00	0	28	0	349175808	75	5446
2026-01-15 13:18:43.53	286.52	10.18	-55.6	-58.5	12.9	0.00e+00	0	28	0	351272960	76	5335
2026-01-15 13:18:44.52	286.70	10.20	-55.7	-58.8	12.8	0.00e+00	0	28	0	353370112	76	5474
2026-01-15 13:18:45.51	286.88	10.21	-55.7	-58.8	12.8	7.00e-07	0	28	0	354418688	76	5481
2026-01-15 13:18:46.51	287.06	10.22	-55.7	-58.8	12.8	0.00e+00	0	28	0	356515840	76	5470
2026-01-15 13:18:47.51	287.24	10.23	-55.6	-58.6	12.9	0.00e+00	0	28	0	358612992	76	5387
2026-01-15 13:18:48.50	287.41	10.24	-55.8	-58.8	12.8	0.00e+00	0	28	0	360710144	76	5522
2026-01-15 13:18:49.50	287.59	10.25	-55.7	-58.7	12.8	0.00e+00	0	28	0	361758720	76	5459
2026-01-15 13:18:50.50	287.77	10.27	-55.8	-58.9	12.7	0.00e+00	0	28	0	363855872	76	5536
2026-01-15 13:18:51.51	287.95	10.28	-55.8	-59.0	12.7	0.00e+00	0	28	0	365953024	76	5605
2026-01-15 13:18:52.51	288.13	10.29	-56.0	-59.2	12.6	0.00e+00	0	28	0	368050176	77	5453
2026-01-15 13:18:53.51	288.31	10.30	-56.1	-59.4	12.5	0.00e+00	0	28	0	370147328	77	5553
2026-01-15 13:18:54.50	288.49	10.31	-56.0	-59.3	12.6	0.00e+00	0	28	0	371195904	77	5482
2026-01-15 13:18:55.50	288.67	10.32	-56.1	-59.3	12.5	0.00e+00	0	28	0	373293056	77	5525
2026-01-15 13:18:56.50	288.85	10.33	-56.2	-59.5	12.4	0.00e+00	0	28	0	375390208	77	5629
2026-01-15 13:18:57.50	289.03	10.33	-56.0	-59.3	12.6	0.00e+00	0	28	0	377487360	77	5477
2026-01-15 13:18:58.50	289.21	10.34	-56.0	-59.1	12.6	0.00e+00	0	28	0	379584512	77	5397
2026-01-15 13:18:59.50	289.39	10.35	-56.0	-59.3	12.6	0.00e+00	0	28	0	380633088	77	5470
2026-01-15 13:19:00.50	289.57	10.36	-55.9	-59.0	12.7	0.00e+00	0	28	0	382730240	77	5327
2026-01-15 13:19:01.50	289.75	10.37	-55.9	-59.0	12.8	0.00e+00	0	28	0	384827392	77	5324
2026-01-15 13:19:02.50	289.93	10.38	-55.7	-58.7	12.9	0.00e+00	0	28	0	386924544	77	5153
2026-01-15 13:19:03.50	290.11	10.38	-55.8	-58.8	12.9	0.00e+00	0	28	0	389021696	77	5190
2026-01-15 13:19:04.50	290.29	10.39	-55.8	-58.8	12.9	0.00e+00	0	28	0	390070272	77	5215
2026-01-15 13:19:05.50	290.47	10.40	-55.8	-58.8	12.9	0.00e+00	0	28	0	392167424	77	5166
2026-01-15 13:19:06.49	290.65	10.41	-55.6	-58.5	13.1	0.00e+00	0	28	0	394264576	77	5027
2026-01-15 13:19:07.50	290.83	10.41	-55.6	-58.5	13.1	0.00e+00	0	28	0	396361728	77	5023
2026-01-15 13:19:08.50	291.02	10.42	-55.7	-58.7	13.0	0.00e+00	0	28	0	397410304	77	5114
2026-01-15 13:19:09.49	291.19	10.43	-55.7	-58.7	13.0	0.00e+00	0	28	0	399507456	77	5136
2026-01-15 13:19:10.48	291.37	10.43	-55.6	-58.5	13.1	0.00e+00	0	28	0	401604608	77	5033
2026-01-15 13:19:11.48	291.56	10.44	-55.7	-58.7	13.0	0.00e+00	0	28	0	403701760	77	5103
2026-01-15 13:19:12.48	291.74	10.44	-55.7	-58.7	13.0	0.00e+00	0	28	0	405798912	77	5125
2026-01-15 13:19:13.47	291.92	10.45	-55.7	-58.6	13.0	0.00e+00	0	28	0	406847488	77	5085
2026-01-15 13:19:14.47	292.10	10.45	-55.7	-58.7	13.0	0.00e+00	0	28	0	408944640	77	5101
2026-01-15 13:19:15.47	292.28	10.46	-55.6	-58.5	13.1	0.00e+00	0	28	0	411041792	77	5013
2026-01-15 13:19:16.48	292.46	10.46	-55.6	-58.4	13.2	0.00e+00	0	28	0	413138944	77	4981
2026-01-15 13:19:17.49	292.65	10.47	-55.5	-58.3	13.2	0.00e+00	0	28	0	415236096	77	4909
2026-01-15 13:19:18.49	292.83	10.47	-55.5	-58.2	13.3	0.00e+00	0	28	0	416284672	77	4861
2026-01-15 13:19:19.49	293.01	10.47	-55.5	-58.3	13.2	0.00e+00	0	28	0	418381824	77	4883
2026-01-15 13:19:20.49	293.19	10.48	-55.5	-58.3	13.2	0.00e+00	0	28	0	420478976	77	4895
2026-01-15 13:19:21.49	293.37	10.48	-55.5	-58.2	13.2	0.00e+00	0	28	0	422576128	77	4869
2026-01-15 13:19:22.49	293.55	10.48	-55.6	-58.4	13.2	0.00e+00	0	28	0	423624704	77	4957
2026-01-15 13:19:23.49	293.74	10.49	-55.6	-58.5	13.2	0.00e+00	0	28	0	425721856	77	4998
2026-01-15 13:19:24.49	293.92	10.49	-55.7	-58.5	13.1	0.00e+00	0	28	0	427819008	77	5040
2026-01-15 13:19:25.49	294.10	10.49	-55.4	-58.1	13.3	0.00e+00	0	28	0	429916160	77	4812
2026-01-15 13:19:26.49	294.28	10.49	-55.3	-58.0	13.4	0.00e+00	0	28	0	432013312	77	4753
2026-01-15 13:19:27.50	294.47	10.50	-55.5	-58.2	13.3	0.00e+00	0	28	0	433061888	77	4853
2026-01-15 13:19:28.51	294.65	10.50	-55.4	-58.2	13.3	0.00e+00	0	28	0	435159040	77	4840
2026-01-15 13:19:29.51	294.83	10.50	-55.3	-58.1	13.4	0.00e+00	0	28	0	437256192	77	4761
2026-01-15 13:19:30.51	295.01	10.50	-55.5	-58.3	13.2	0.00e+00	0	28	0	439353344	77	4881
2026-01-15 13:19:31.51	295.19	10.50	-55.5	-58.3	13.2	0.00e+00	0	28	0	441450496	77	4882
2026-01-15 13:19:32.51	295.38	10.50	-55.5	-58.3	13.3	0.00e+00	0	28	0	442499072	77	4898
2026-01-15 13:19:33.51	295.56	10.50	-55.4	-58.2	13.3	0.00e+00	0	28	0	444596224	77	4833
2026-01-15 13:19:34.51	295.74	10.50	-55.3	-58.0	13.4	0.00e+00	0	28	0	446693376	77	4728
2026-01-15 13:19:35.52	295.92	10.50	-55.4	-58.1	13.3	0.00e+00	0	28	0	448790528	77	4807
2026-01-15 13:19:36.51	296.10	10.50	-55.2	-57.8	13.4	0.00e+00	0	28	0	450887680	76	4892
2026-01-15 13:19:37.51	296.29	10.50	-55.1	-57.7	13.4	0.00e+00	0	28	0	451936256	76	4860
2026-01-15 13:19:38.51	296.47	10.50	-54.9	-57.5	13.6	0.00e+00	0	28	0	454033408	76	4723
2026-01-15 13:19:39.51	296.65	10.50	-54.9	-57.4	13.6	0.00e+00	0	28	0	456130560	76	4690
2026-01-15 13:19:40.52	296.83	10.49	-55.0	-57.6	13.5	0.00e+00	0	28	0	458227712	76	4783
2026-01-15 13:19:41.51	297.01	10.49	-54.8	-57.3	13.7	0.00e+00	0	28	0	459276288	76	4613
2026-01-15 13:19:42.51	297.20	10.49	-54.7	-57.2	13.8	0.00e+00	0	28	0	461373440	76	4546
2026-01-15 13:19:43.52	297.38	10.49	-54.8	-57.2	13.7	0.00e+00	0	28	0	463470592	76	4570
2026-01-15 13:19:44.52	297.56	10.49	-54.8	-57.2	13.7	0.00e+00	0	28	0	465567744	76	4584
2026-01-15 13:19:45.52	297.74	10.48	-54.5	-56.9	13.8	0.00e+00	0	28	0	467664896	75	4688
2026-01-15 13:19:46.52	297.92	10.48	-54.6	-57.0	13.7	0.00e+00	0	28	0	468713472	75	4717
2026-01-15 13:19:47.52	298.11	10.48	-54.7	-57.1	13.6	0.00e+00	0	28	0	470810624	75	4802
2026-01-15 13:19:48.52	298.29	10.47	-54.7	-57.2	13.6	0.00e+00	0	28	0	472907776	75	4837
2026-01-15 13:19:49.52	298.47	10.47	-54.7	-57.1	13.7	0.00e+00	0	28	0	475004928	75	4789
2026-01-15 13:19:50.51	298.65	10.46	-54.6	-57.0	13.7	0.00e+00	0	28	0	477102080	75	4749
2026-01-15 13:19:51.51	298.83	10.46	-54.5	-56.9	13.8	0.00e+00	0	28	0	478150656	75	4703
2026-01-15 13:19:52.51	299.01	10.46	-54.4	-56.8	13.8	0.00e+00	0	28	0	480247808	75	4604
2026-01-15 13:19:53.52	299.20	10.45	-54.5	-56.9	13.8	0.00e+00	0	28	0	482344960	75	4666
2026-01-15 13:19:54.52	299.38	10.45	-54.4	-56.7	13.9	0.00e+00	0	28	0	484442112	75	4553
2026-01-15 13:19:55.53	299.56	10.44	-54.2	-56.5	13.9	0.00e+00	0	28	0	486539264	74	4728
2026-01-15 13:19:56.53	299.74	10.43	-54.2	-56.5	13.9	0.00e+00	0	28	0	487587840	74	4707
2026-01-15 13:19:57.53	299.92	10.43	-54.1	-56.3	14.0	0.00e+00	0	28	0	489684992	74	4647
2026-01-15 13:19:58.54	300.10	10.42	-54.2	-56.5	13.9	0.00e+00	0	28	0	491782144	74	4727
2026-01-15 13:19:59.54	300.29	10.42	-54.3	-56.6	13.8	0.00e+00	0	28	0	493879296	74	4797
2026-01-15 13:20:00.53	300.46	10.41	-54.3	-56.7	13.8	0.00e+00	0	28	0	495976448	74	4827
2026-01-15 13:20:01.54	300.65	10.40	-54.3	-56.6	13.8	0.00e+00	0	28	0	497025024	74	4809
2026-01-15 13:20:02.54	300.83	10.40	-54.3	-56.7	13.8	0.00e+00	0	28	0	499122176	74	4828
2026-01-15 13:20:03.55	301.01	10.39	-54.3	-56.6	13.8	0.00e+00	0	28	0	501219328	74	4786
2026-01-15 13:20:04.55	301.19	10.38	-54.2	-56.5	13.9	0.00e+00	0	28	0	503316480	74	4715
2026-01-15 13:20:05.55	301.37	10.37	-54.3	-56.6	13.8	0.00e+00	0	28	0	504365056	74	4772
2026-01-15 13:20:06.55	301.55	10.36	-54.1	-56.3	14.0	0.00e+00	0	28	0	506462208	74	4641
2026-01-15 13:20:07.55	301.73	10.36	-54.2	-56.5	13.9	0.00e+00	0	28	0	508559360	74	4715
2026-01-15 13:20:08.55	301.91	10.35	-54.3	-56.6	13.8	0.00e+00	0	28	0	510656512	74	4795
2026-01-15 13:20:09.54	302.09	10.34	-54.2	-56.5	13.8	0.00e+00	0	28	0	512753664	74	4724
2026-01-15 13:20:10.54	302.27	10.33	-54.1	-56.3	14.0	0.00e+00	0	28	0	513802240	74	4623
2026-01-15 13:20:11.55	302.45	10.32	-54.1	-56.3	14.0	0.00e+00	0	28	0	515899392	74	4636
2026-01-15 13:20:12.55	302.63	10.31	-54.2	-56.4	13.9	0.00e+00	0	28	0	517996544	74	4691
2026-01-15 13:20:13.55	302.81	10.30	-54.2	-56.5	13.9	0.00e+00	0	28	0	520093696	74	4750
2026-01-15 13:20:14.56	302.99	10.29	-54.2	-56.5	13.9	0.00e+00	0	28	0	522190848	74	4708
2026-01-15 13:20:15.56	303.17	10.28	-54.3	-56.6	13.8	0.00e+00	0	28	0	523239424	74	4794
2026-01-15 13:20:16.55	303.35	10.27	-54.4	-56.8	13.7	0.00e+00	0	28	0	525336576	74	4888
2026-01-15 13:20:17.55	303.53	10.26	-54.4	-56.7	13.7	0.00e+00	0	28	0	527433728	74	4854
2026-01-15 13:20:18.55	303.71	10.25	-54.3	-56.6	13.8	0.00e+00	0	28	0	529530880	74	4780
2026-01-15 13:20:19.55	303.88	10.24	-54.5	-56.8	13.7	0.00e+00	0	28	0	531628032	74	4920
2026-01-15 13:20:20.55	304.06	10.23	-54.4	-56.8	13.7	0.00e+00	0	28	0	532676608	74	4885
2026-01-15 13:20:21.56	304.24	10.21	-54.3	-56.6	13.8	0.00e+00	0	28	0	534773760	74	4785
2026-01-15 13:20:22.56	304.42	10.20	-54.4	-56.7	13.8	0.00e+00	0	28	0	536870912	74	4830
2026-01-15 13:20:23.56	304.60	10.19	-54.2	-56.4	13.9	0.00e+00	0	28	0	538968064	74	4695
2026-01-15 13:20:24.56	304.78	10.18	-54.2	-56.5	13.8	0.00e+00	0	28	0	540016640	74	4750
2026-01-15 13:20:25.56	304.96	10.16	-54.1	-56.3	13.9	0.00e+00	0	28	0	542113792	74	4641
2026-01-15 13:20:26.57	305.13	10.15	-54.2	-56.5	13.9	0.00e+00	0	28	0	544210944	74	4711
2026-01-15 13:20:27.57	305.31	10.14	-54.3	-56.7	13.8	0.00e+00	0	28	0	546308096	74	4815
2026-01-15 13:20:28.57	305.49	10.12	-54.2	-56.5	13.8	0.00e+00	0	28	0	548405248	74	4758
2026-01-15 13:20:29.57	305.67	10.11	-54.3	-56.6	13.8	0.00e+00	0	28	0	549453824	74	4787
2026-01-15 13:20:30.58	305.85	10.10	-54.3	-56.6	13.8	0.00e+00	0	28	0	551550976	74	4784
2026-01-15 13:20:31.59	306.02	10.08	-54.4	-56.8	13.7	0.00e+00	0	28	0	553648128	74	4897
2026-01-15 13:20:32.59	306.20	10.07	-54.5	-56.9	13.6	0.00e+00	0	28	0	555745280	74	4976
2026-01-15 13:20:33.60	306.38	10.05	-54.5	-56.9	13.6	0.00e+00	0	28	0	557842432	74	4952
2026-01-15 13:20:34.60	306.56	10.04	-54.4	-56.8	13.7	0.00e+00	0	28	0	558891008	74	4908
2026-01-15 13:20:35.61	306.73	10.02	-54.5	-57.0	13.6	0.00e+00	0	28	0	560988160	74	4992
2026-01-15 13:20:36.61	306.91	10.01	-54.7	-57.2	13.5	0.00e+00	0	28	0	563085312	74	5145
2026-01-15 13:20:37.61	307.09	9.99	-54.5	-57.0	13.6	0.00e+00	0	28	0	565182464	74	4998
2026-01-15 13:20:38.62	307.26	9.98	-54.6	-57.1	13.5	0.00e+00	0	28	0	567279616	74	5066
2026-01-15 13:20:39.62	307.44	9.96	-54.7	-57.3	13.5	0.00e+00	0	28	0	568328192	74	5172
2026-01-15 13:20:40.63	307.62	9.94	-54.5	-56.9	13.6	0.00e+00	0	28	0	570425344	74	4967
2026-01-15 13:20:41.63	307.79	9.93	-54.7	-57.3	13.4	0.00e+00	0	28	0	572522496	74	5176
2026-01-15 13:20:42.63	307.97	9.91	-54.6	-57.2	13.5	0.00e+00	0	28	0	574619648	74	5116
2026-01-15 13:20:43.63	308.14	9.90	-54.6	-57.2	13.5	0.00e+00	0	28	0	576716800	74	5115
2026-01-15 13:20:44.63	308.32	9.88	-54.4	-56.9	13.6	0.00e+00	0	28	0	577765376	74	4932
2026-01-15 13:20:45.64	308.49	9.86	-54.2	-56.7	13.7	0.00e+00	0	28	0	579862528	74	4854
2026-01-15 13:20:46.65	308.67	9.84	-54.2	-56.6	13.8	0.00e+00	0	28	0	581959680	74	4802
2026-01-15 13:20:47.65	308.84	9.83	-54.2	-56.6	13.8	0.00e+00	0	28	0	584056832	74	4770
2026-01-15 13:20:48.65	309.01	9.81	-54.3	-56.6	13.8	0.00e+00	0	28	0	586153984	74	4809
2026-01-15 13:20:49.65	309.19	9.79	-54.2	-56.5	13.8	0.00e+00	0	28	0	587202560	74	4738
2026-01-15 13:20:50.66	309.36	9.77	-54.2	-56.5	13.8	0.00e+00	0	28	0	589299712	74	4751
2026-01-15 13:20:51.67	309.54	9.75	-54.3	-56.7	13.7	0.00e+00	0	28	0	591396864	74	4828
2026-01-15 13:20:52.68	309.71	9.73	-54.2	-56.5	13.9	0.00e+00	0	28	0	593494016	74	4714
2026-01-15 13:20:53.68	309.89	9.71	-54.3	-56.7	13.7	0.00e+00	0	28	0	595591168	74	4827
2026-01-15 13:20:54.69	310.06	9.69	-54.4	-56.7	13.7	0.00e+00	0	28	0	596639744	74	4870
2026-01-15 13:20:55.69	310.23	9.68	-54.3	-56.7	13.7	0.00e+00	0	28	0	598736896	74	4838
2026-01-15 13:20:56.69	310.40	9.66	-54.4	-56.8	13.7	0.00e+00	0	28	0	600834048	74	4901
2026-01-15 13:20:57.70	310.58	9.64	-54.4	-56.8	13.7	0.00e+00	0	28	0	602931200	74	4887
2026-01-15 13:20:58.70	310.75	9.62	-54.3	-56.6	13.7	0.00e+00	0	28	0	605028352	74	4804
2026-01-15 13:20:59.70	310.92	9.60	-54.3	-56.6	13.8	0.00e+00	0	28	0	606076928	74	4812
2026-01-15 13:21:00.69	311.09	9.58	-54.3	-56.7	13.7	0.00e+00	0	28	0	608174080	74	4823
2026-01-15 13:21:01.70	311.26	9.55	-54.2	-56.5	13.8	0.00e+00	0	28	0	610271232	74	4726
2026-01-15 13:21:02.70	311.43	9.53	-54.1	-56.4	13.8	0.00e+00	0	28	0	612368384	74	4668
2026-01-15 13:21:03.70	311.60	9.51	-54.1	-56.4	13.9	0.00e+00	0	28	0	613416960	74	4660
2026-01-15 13:21:04.70	311.77	9.49	-53.9	-56.1	14.0	0.00e+00	0	28	0	615514112	74	4545
2026-01-15 13:21:05.69	311.94	9.47	-53.8	-56.0	14.1	0.00e+00	0	28	0	617611264	74	4463
2026-01-15 13:21:06.70	312.11	9.45	-53.8	-56.0	14.0	0.00e+00	0	28	0	619708416	74	4488
2026-01-15 13:21:07.70	312.28	9.43	-53.9	-56.2	14.0	0.00e+00	0	28	0	621805568	74	4548
2026-01-15 13:21:08.69	312.45	9.40	-54.0	-56.3	13.9	0.00e+00	0	28	0	622854144	74	4632
2026-01-15 13:21:09.69	312.62	9.38	-54.0	-56.2	13.9	0.00e+00	0	28	0	624951296	74	4573
2026-01-15 13:21:10.69	312.79	9.36	-53.9	-56.1	14.0	0.00e+00	0	28	0	627048448	74	4509
2026-01-15 13:21:11.70	312.96	9.34	-53.8	-56.0	14.0	0.00e+00	0	28	0	629145600	74	4483
2026-01-15 13:21:12.69	313.12	9.31	-54.0	-56.3	13.9	0.00e+00	0	28	0	631242752	74	4629
2026-01-15 13:21:13.70	313.29	9.29	-54.0	-56.3	13.9	0.00e+00	0	28	0	632291328	74	4636
2026-01-15 13:21:14.70	313.46	9.27	-54.1	-56.4	13.9	0.00e+00	0	28	0	634388480	74	4656
2026-01-15 13:21:15.69	313.62	9.24	-54.3	-56.7	13.7	0.00e+00	0	28	0	636485632	74	4841
2026-01-15 13:21:16.69	313.79	9.22	-54.3	-56.6	13.7	0.00e+00	0	28	0	638582784	74	4807
2026-01-15 13:21:17.69	313.96	9.20	-54.1	-56.4	13.8	0.00e+00	0	28	0	639631360	74	4701
2026-01-15 13:21:18.68	314.12	9.17	-54.2	-56.5	13.8	0.00e+00	0	28	0	641728512	74	4728
2026-01-15 13:21:19.69	314.29	9.15	-54.2	-56.5	13.8	0.00e+00	0	28	0	643825664	74	4757
2026-01-15 13:21:20.68	314.46	9.13	-54.2	-56.6	13.7	0.00e+00	0	28	0	645922816	74	4783
2026-01-15 13:21:21.68	314.62	9.10	-54.2	-56.5	13.8	0.00e+00	0	28	0	648019968	74	4742
2026-01-15 13:21:22.68	314.79	9.08	-54.1	-56.5	13.8	0.00e+00	0	28	0	649068544	74	4708
2026-01-15 13:21:23.68	314.95	9.05	-54.2	-56.6	13.7	0.00e+00	0	28	0	651165696	74	4792
2026-01-15 13:21:24.67	315.12	9.03	-54.3	-56.7	13.7	0.00e+00	0	28	0	653262848	74	4836
2026-01-15 13:21:25.67	315.28	9.00	-54.2	-56.6	13.7	0.00e+00	0	28	0	655360000	74	4769
2026-01-15 13:21:26.68	315.45	8.98	-54.4	-56.8	13.6	0.00e+00	0	28	0	657457152	74	4909
2026-01-15 13:21:27.67	315.61	8.95	-54.4	-56.8	13.6	0.00e+00	0	28	0	658505728	74	4905
2026-01-15 13:21:28.67	315.77	8.92	-54.3	-56.8	13.6	0.00e+00	0	28	0	660602880	74	4889
2026-01-15 13:21:29.66	315.93	8.90	-54.1	-56.5	13.8	0.00e+00	0	28	0	662700032	74	4711
2026-01-15 13:21:30.65	316.10	8.87	-54.2	-56.5	13.8	0.00e+00	0	28	0	664797184	74	4738
2026-01-15 13:21:31.65	316.26	8.85	-54.1	-56.4	13.8	0.00e+00	0	28	0	665845760	74	4699
2026-01-15 13:21:32.64	316.42	8.82	-53.9	-56.2	13.9	0.00e+00	0	28	0	667942912	74	4573
2026-01-15 13:21:33.63	316.58	8.79	-53.9	-56.2	13.9	0.00e+00	0	28	0	670040064	74	4563
2026-01-15 13:21:34.63	316.74	8.77	-53.9	-56.1	14.0	0.00e+00	0	28	0	672137216	74	4539
2026-01-15 13:21:35.63	316.90	8.74	-54.0	-56.2	13.9	0.00e+00	0	28	0	674234368	74	4588
2026-01-15 13:21:36.62	317.06	8.71	-54.1	-56.4	13.8	0.00e+00	0	28	0	675282944	74	4682
2026-01-15 13:21:37.62	317.23	8.69	-54.3	-56.7	13.7	0.00e+00	0	28	0	677380096	74	4864
2026-01-15 13:21:38.61	317.38	8.66	-54.4	-56.9	13.5	0.00e+00	0	28	0	679477248	74	4959
2026-01-15 13:21:39.59	317.54	8.63	-54.3	-56.8	13.6	0.00e+00	0	28	0	681574400	74	4876
2026-01-15 13:21:40.59	317.70	8.61	-54.8	-57.5	13.2	0.00e+00	0	28	0	682622976	74	5306
2026-01-15 13:21:41.59	317.86	8.58	-54.6	-57.2	13.4	0.00e+00	0	28	0	684720128	74	5142
2026-01-15 13:21:42.58	318.02	8.55	-54.6	-57.2	13.4	0.00e+00	0	28	0	686817280	74	5155
2026-01-15 13:21:43.58	318.18	8.52	-54.8	-57.5	13.2	0.00e+00	0	28	0	688914432	74	5293
2026-01-15 13:21:44.58	318.34	8.49	-54.7	-57.3	13.4	0.00e+00	0	28	0	691011584	75	4877
2026-01-15 13:21:45.58	318.50	8.46	-54.5	-57.0	13.6	0.00e+00	0	28	0	692060160	75	4712
2026-01-15 13:21:46.58	318.66	8.44	-54.6	-57.2	13.4	0.00e+00	0	28	0	694157312	75	4864
2026-01-15 13:21:47.58	318.81	8.41	-54.6	-57.1	13.5	0.00e+00	0	28	0	696254464	75	4812
2026-01-15 13:21:48.58	318.97	8.38	-54.5	-57.1	13.6	0.00e+00	0	28	0	698351616	75	4764
2026-01-15 13:21:49.57	319.13	8.35	-54.4	-56.9	13.6	0.00e+00	0	28	0	700448768	75	4662
2026-01-15 13:21:50.56	319.28	8.32	-54.5	-57.0	13.6	0.00e+00	0	28	0	701497344	75	4742
2026-01-15 13:21:51.57	319.44	8.29	-54.6	-57.2	13.4	0.00e+00	0	28	0	703594496	75	4865
2026-01-15 13:21:52.56	319.60	8.26	-54.5	-57.0	13.6	0.00e+00	0	28	0	705691648	75	4742
2026-01-15 13:21:53.56	319.75	8.23	-54.6	-57.2	13.5	0.00e+00	0	28	0	707788800	75	4833
2026-01-15 13:21:54.56	319.91	8.20	-54.6	-57.2	13.4	0.00e+00	0	28	0	708837376	75	4848
2026-01-15 13:21:55.56	320.07	8.17	-54.8	-57.5	13.3	0.00e+00	0	28	0	710934528	75	5013
2026-01-15 13:21:56.55	320.22	8.14	-54.7	-57.3	13.4	0.00e+00	0	28	0	713031680	75	4924
2026-01-15 13:21:57.55	320.38	8.11	-54.8	-57.5	13.3	0.00e+00	0	28	0	715128832	75	5040
2026-01-15 13:21:58.54	320.53	8.08	-54.9	-57.7	13.2	0.00e+00	0	28	0	717225984	75	5124
2026-01-15 13:21:59.54	320.68	8.05	-55.1	-57.9	13.1	0.00e+00	0	28	0	718274560	75	5279
2026-01-15 13:22:00.53	320.84	8.02	-55.1	-57.9	13.1	0.00e+00	0	28	0	720371712	75	5252
2026-01-15 13:22:01.53	320.99	7.99	-55.1	-57.9	13.0	0.00e+00	0	28	0	722468864	75	5275
2026-01-15 13:22:02.53	321.14	7.96	-55.3	-58.3	12.9	0.00e+00	0	28	0	724566016	75	5473
2026-01-15 13:22:03.52	321.30	7.93	-55.6	-58.7	12.7	0.00e+00	0	28	0	725614592	76	5451
2026-01-15 13:22:04.51	321.45	7.90	-55.7	-59.0	12.5	0.00e+00	0	28	0	727711744	76	5602
2026-01-15 13:22:05.51	321.60	7.87	-55.8	-59.0	12.5	0.00e+00	0	28	0	729808896	76	5650
2026-01-15 13:22:06.50	321.75	7.83	-55.9	-59.2	12.4	0.00e+00	0	28	0	731906048	76	5766
2026-01-15 13:22:07.50	321.90	7.80	-55.9	-59.2	12.4	0.00e+00	0	28	0	734003200	76	5769
2026-01-15 13:22:08.49	322.05	7.77	-55.7	-59.0	12.5	0.00e+00	0	28	0	735051776	76	5626
2026-01-15 13:22:09.48	322.20	7.74	-55.9	-59.3	12.3	0.00e+00	0	28	0	737148928	76	5834
2026-01-15 13:22:10.48	322.35	7.71	-55.9	-59.4	12.3	0.00e+00	0	28	0	739246080	77	5548
2026-01-15 13:22:11.48	322.50	7.68	-55.9	-59.3	12.3	0.00e+00	0	28	0	741343232	77	5492
2026-01-15 13:22:12.47	322.65	7.64	-55.6	-58.8	12.7	0.00e+00	0	28	0	742391808	77	5164
2026-01-15 13:22:13.47	322.80	7.61	-55.7	-59.0	12.6	0.00e+00	0	28	0	744488960	77	5283
2026-01-15 13:22:14.48	322.95	7.58	-55.7	-58.9	12.5	0.00e+00	0	28	0	746586112	77	5278
2026-01-15 13:22:15.48	323.10	7.55	-55.7	-58.9	12.6	0.00e+00	0	28	0	748683264	77	5234
2026-01-15 13:22:16.48	323.25	7.51	-55.5	-58.7	12.8	0.00e+00	0	28	0	750780416	77	5112
2026-01-15 13:22:17.47	323.40	7.48	-55.6	-58.8	12.7	0.00e+00	0	28	0	751828992	77	5177
2026-01-15 13:22:18.46	323.55	7.45	-55.7	-59.0	12.5	0.00e+00	0	28	0	753926144	77	5299
2026-01-15 13:22:19.47	323.70	7.41	-55.5	-58.6	12.7	0.00e+00	0	28	0	756023296	77	5069
2026-01-15 13:22:20.47	323.84	7.38	-55.7	-59.0	12.5	0.00e+00	0	28	0	758120448	77	5281
2026-01-15 13:22:21.46	323.99	7.35	-55.7	-59.0	12.4	0.00e+00	0	28	0	759169024	77	5301
2026-01-15 13:22:22.46	324.14	7.31	-55.7	-59.1	12.4	0.00e+00	0	28	0	761266176	77	5356
2026-01-15 13:22:23.45	324.28	7.28	-55.8	-59.1	12.4	7.00e-07	0	28	0	763363328	77	5373
2026-01-15 13:22:24.45	324.43	7.25	-56.0	-59.5	12.2	0.00e+00	0	28	0	765460480	77	5603
2026-01-15 13:22:25.44	324.57	7.21	-55.9	-59.3	12.3	0.00e+00	0	28	0	767557632	77	5519
2026-01-15 13:22:26.43	324.72	7.18	-56.1	-59.8	12.0	1.50e-06	0	28	0	768606208	77	5822
2026-01-15 13:22:27.43	324.86	7.15	-56.2	-60.0	11.8	1.50e-06	0	28	0	770703360	77	5987
2026-01-15 13:22:28.42	325.01	7.11	-56.4	-60.4	11.5	6.10e-06	0	28	0	772800512	77	6234
2026-01-15 13:22:29.42	325.15	7.08	-56.4	-60.3	11.6	1.37e-05	0	28	0	774897664	78	5855
2026-01-15 13:22:30.41	325.30	7.04	-56.3	-60.3	11.8	1.52e-05	0	28	0	775946240	78	5792
2026-01-15 13:22:31.41	325.44	7.01	-56.6	-60.9	11.3	1.67e-05	0	28	0	778043392	78	6211
2026-01-15 13:22:32.40	325.58	6.98	-56.7	-61.1	11.1	5.56e-05	0	28	0	780140544	78	6382
2026-01-15 13:22:33.40	325.73	6.94	-56.8	-61.4	10.9	7.70e-05	0	28	0	782237696	78	6590
2026-01-15 13:22:34.40	325.87	6.91	-56.6	-60.8	11.3	8.69e-05	0	28	0	784334848	78	6194
2026-01-15 13:22:35.40	326.01	6.87	-56.5	-60.7	11.3	3.12e-05	0	28	0	785383424	78	6092
2026-01-15 13:22:36.40	326.16	6.84	-56.3	-60.3	11.7	1.22e-05	0	28	0	787480576	78	5790
2026-01-15 13:22:37.39	326.30	6.80	-56.4	-60.5	11.5	2.28e-05	0	28	0	789577728	78	5939
2026-01-15 13:22:38.39	326.44	6.77	-56.5	-60.6	11.4	1.29e-05	0	28	0	791674880	78	6033
2026-01-15 13:22:39.38	326.58	6.73	-56.7	-61.1	11.1	3.35e-05	0	28	0	793772032	78	6365
2026-01-15 13:22:40.38	326.72	6.70	-56.3	-60.3	11.7	1.06e-05	0	28	0	794820608	78	5794
2026-01-15 13:22:41.38	326.86	6.66	-56.3	-60.2	11.8	5.30e-06	0	28	0	796917760	78	5739
2026-01-15 13:22:42.38	327.00	6.63	-56.4	-60.5	11.5	9.10e-06	0	28	0	799014912	78	5932
2026-01-15 13:22:43.38	327.14	6.59	-56.2	-60.0	11.8	6.80e-06	0	28	0	801112064	78	5653
2026-01-15 13:22:44.37	327.28	6.55	-56.2	-60.0	11.8	2.20e-06	0	28	0	803209216	78	5647
2026-01-15 13:22:45.36	327.42	6.52	-56.1	-59.9	11.9	2.20e-06	0	28	0	804257792	78	5560
2026-01-15 13:22:46.35	327.56	6.48	-56.2	-60.1	11.7	5.30e-06	0	28	0	806354944	78	5718
2026-01-15 13:22:47.36	327.70	6.45	-56.3	-60.3	11.6	3.80e-06	0	28	0	808452096	78	5846
2026-01-15 13:22:48.35	327.83	6.41	-56.3	-60.3	11.7	1.44e-05	0	28	0	810549248	78	5802
2026-01-15 13:22:49.34	327.97	6.38	-56.4	-60.5	11.5	1.06e-05	0	28	0	811597824	78	5990
2026-01-15 13:22:50.34	328.11	6.34	-56.5	-60.6	11.4	2.59e-05	0	28	0	813694976	78	6023
2026-01-15 13:22:51.34	328.25	6.30	-56.2	-60.1	11.8	1.22e-05	0	28	0	815792128	78	5664
2026-01-15 13:22:52.34	328.38	6.27	-56.3	-60.2	11.7	4.50e-06	0	28	0	817889280	78	5757
2026-01-15 13:22:53.32	328.52	6.23	-56.3	-60.3	11.6	1.50e-06	0	28	0	819986432	78	5843
2026-01-15 13:22:54.32	328.65	6.19	-56.2	-60.1	11.8	9.10e-06	0	28	0	821035008	78	5700
2026-01-15 13:22:55.31	328.79	6.16	-56.1	-59.9	11.9	2.20e-06	0	28	0	823132160	78	5561
2026-01-15 13:22:56.31	328.93	6.12	-56.1	-59.9	11.9	2.20e-06	0	28	0	825229312	78	5585
2026-01-15 13:22:57.31	329.06	6.08	-56.0	-59.6	12.1	0.00e+00	0	28	0	827326464	78	5361
2026-01-15 13:22:58.30	329.20	6.05	-55.7	-59.1	12.4	0.00e+00	0	28	0	828375040	78	5078
2026-01-15 13:22:59.30	329.33	6.01	-55.7	-59.2	12.3	0.00e+00	0	28	0	830472192	77	5411
2026-01-15 13:23:00.31	329.47	5.97	-56.1	-60.0	11.7	1.50e-06	0	28	0	832569344	77	5934
2026-01-15 13:23:01.31	329.60	5.94	-55.9	-59.6	12.0	7.00e-07	0	28	0	834666496	77	5663
2026-01-15 13:23:02.31	329.73	5.90	-56.1	-59.9	11.7	7.00e-07	0	28	0	836763648	77	5917
2026-01-15 13:23:03.31	329.87	5.86	-56.3	-60.4	11.5	3.00e-06	0	28	0	837812224	77	6212
2026-01-15 13:23:04.32	330.00	5.82	-56.7	-61.2	11.0	3.58e-05	0	28	0	839909376	78	6456
2026-01-15 13:23:05.31	330.13	5.79	-56.1	-59.9	11.9	3.35e-05	0	28	0	842006528	78	5530
2026-01-15 13:23:06.31	330.27	5.75	-56.4	-60.6	11.3	1.50e-06	0	28	0	844103680	78	6055
2026-01-15 13:23:07.31	330.40	5.71	-56.5	-60.9	11.1	8.08e-05	0	28	0	845152256	78	6230
2026-01-15 13:23:08.31	330.53	5.67	-56.4	-60.6	11.4	3.58e-05	0	28	0	847249408	78	5995
2026-01-15 13:23:09.31	330.66	5.64	-56.2	-60.3	11.5	3.20e-05	0	28	0	849346560	78	5814
2026-01-15 13:23:10.31	330.80	5.60	-56.2	-60.3	11.5	8.30e-06	0	28	0	851443712	78	5824
2026-01-15 13:23:11.31	330.93	5.56	-56.0	-59.7	12.0	7.00e-07	0	28	0	853540864	78	5423
2026-01-15 13:23:12.30	331.06	5.52	-55.9	-59.5	12.1	6.80e-06	0	28	0	854589440	78	5320
2026-01-15 13:23:13.29	331.18	5.49	-55.8	-59.3	12.3	2.20e-06	0	28	0	856686592	78	5183
2026-01-15 13:23:14.29	331.31	5.45	-55.6	-59.0	12.3	0.00e+00	0	28	0	858783744	77	5338
2026-01-15 13:23:15.29	331.44	5.41	-55.5	-58.9	12.5	7.00e-07	0	28	0	860880896	77	5242
2026-01-15 13:23:16.29	331.57	5.37	-55.5	-58.9	12.5	0.00e+00	0	28	0	862978048	77	5226
2026-01-15 13:23:17.30	331.70	5.33	-55.5	-58.9	12.4	0.00e+00	0	28	0	864026624	77	5247
2026-01-15 13:23:18.29	331.83	5.29	-55.7	-59.3	12.2	1.50e-06	0	28	0	866123776	77	5488
2026-01-15 13:23:19.28	331.96	5.26	-55.5	-58.8	12.5	1.50e-06	0	28	0	868220928	77	5201
2026-01-15 13:23:20.29	332.09	5.22	-55.4	-58.8	12.6	7.00e-07	0	28	0	870318080	77	5173
2026-01-15 13:23:21.28	332.22	5.18	-55.7	-59.3	12.1	0.00e+00	0	28	0	872415232	77	5510
2026-01-15 13:23:22.27	332.34	5.14	-55.8	-59.4	12.1	2.20e-06	0	28	0	873463808	77	5550
2026-01-15 13:23:23.27	332.47	5.10	-55.6	-59.1	12.3	0.00e+00	0	28	0	875560960	77	5370
2026-01-15 13:23:24.27	332.60	5.06	-55.3	-58.6	12.6	7.00e-07	0	28	0	877658112	77	5059
2026-01-15 13:23:25.27	332.72	5.02	-55.7	-59.2	12.3	1.50e-06	0	28	0	879755264	77	5427
2026-01-15 13:23:26.27	332.85	4.99	-59.1	-74.5	3.8	7.69e-01	0	28	104	880803840	83	22411
2026-01-15 13:23:27.27	332.97	4.95	-59.7	-75.7	3.8	1.49e+00	0	28	104	880803840	84	24345
2026-01-15 13:23:28.27	333.10	4.91	-59.9	-75.9	3.8	1.49e+00	0	28	104	880803840	84	24921
2026-01-15 13:23:29.27	333.22	4.87	-60.0	-76.1	3.8	1.49e+00	0	28	104	880803840	85	24013
2026-01-15 13:23:30.27	333.35	4.83	-60.2	-76.2	3.8	1.49e+00	0	28	104	880803840	85	24392
2026-01-15 13:23:31.28	333.48	4.79	-60.3	-76.3	3.8	1.49e+00	0	28	104	880803840	85	24604
2026-01-15 13:23:32.27	333.60	4.75	-60.4	-76.4	3.8	1.49e+00	0	28	104	880803840	85	24962
2026-01-15 13:23:33.27	333.72	4.71	-60.5	-76.5	3.8	1.49e+00	0	28	104	880803840	86	23833
2026-01-15 13:23:34.27	333.85	4.67	-60.5	-76.6	3.8	1.49e+00	0	28	104	880803840	86	24002
2026-01-15 13:23:35.27	333.97	4.63	-60.6	-76.7	3.8	1.49e+00	0	28	104	880803840	86	24198
2026-01-15 13:23:36.28	334.09	4.59	-60.6	-76.7	3.8	1.49e+00	0	28	104	880803840	86	24240
2026-01-15 13:23:37.28	334.22	4.56	-60.6	-76.7	3.8	1.49e+00	0	28	104	880803840	86	24373
2026-01-15 13:23:38.28	334.34	4.52	-60.7	-76.8	3.8	1.49e+00	0	28	104	880803840	86	24425
2026-01-15 13:23:39.28	334.46	4.48	-60.7	-76.8	3.8	1.49e+00	0	28	104	880803840	86	24425
2026-01-15 13:23:40.28	334.58	4.44	-60.7	-76.7	3.8	1.49e+00	0	28	104	880803840	86	24373
2026-01-15 13:23:41.27	334.70	4.40	-60.7	-76.8	3.8	1.49e+00	0	28	104	880803840	86	24423
2026-01-15 13:23:42.27	334.82	4.36	-60.7	-76.8	3.8	1.49e+00	0	28	104	880803840	86	24472
2026-01-15 13:23:43.27	334.95	4.32	-60.7	-76.8	3.8	1.49e+00	0	28	104	880803840	86	24550
2026-01-15 13:23:44.27	335.07	4.28	-60.7	-76.8	3.8	1.49e+00	0	28	104	880803840	86	24569
2026-01-15 13:23:45.26	335.18	4.24	-60.7	-76.8	3.8	1.49e+00	0	28	104	880803840	86	24458
2026-01-15 13:23:46.26	335.30	4.20	-60.7	-76.7	3.8	1.49e+00	0	28	104	880803840	86	24410
2026-01-15 13:23:47.26	335.42	4.16	-60.6	-76.8	3.8	1.49e+00	0	28	104	880803840	86	24447
2026-01-15 13:23:48.25	335.54	4.12	-60.6	-76.7	3.8	1.49e+00	0	28	104	880803840	86	24323
2026-01-15 13:23:49.25	335.66	4.08	-60.6	-76.7	3.8	1.49e+00	0	28	104	880803840	86	24238
2026-01-15 13:23:50.25	335.78	4.04	-60.6	-76.7	3.9	1.49e+00	0	28	104	880803840	86	24242
2026-01-15 13:23:51.24	335.90	4.00	-60.6	-76.7	3.8	1.49e+00	0	28	104	880803840	86	24137
2026-01-15 13:23:52.25	336.02	3.96	-60.6	-76.7	3.8	1.49e+00	0	28	104	880803840	86	24155
2026-01-15 13:23:53.25	336.13	3.92	-60.5	-76.6	3.8	1.49e+00	0	28	104	880803840	86	24123
2026-01-15 13:23:54.25	336.25	3.88	-60.5	-76.6	3.8	1.49e+00	0	28	104	880803840	86	24076
2026-01-15 13:23:55.25	336.37	3.84	-60.5	-76.6	3.8	1.49e+00	0	28	104	880803840	86	23976
2026-01-15 13:23:56.25	336.49	3.80	-60.5	-76.6	3.8	1.49e+00	0	28	104	880803840	86	23959
2026-01-15 13:23:57.25	336.60	3.76	-60.5	-76.6	3.8	1.49e+00	0	28	104	880803840	86	23957
2026-01-15 13:23:58.25	336.72	3.72	-60.5	-76.6	3.8	1.49e+00	0	28	104	880803840	86	24014
2026-01-15 13:23:59.25	336.83	3.68	-60.5	-76.6	3.8	1.49e+00	0	28	104	880803840	86	24074
2026-01-15 13:24:00.25	336.95	3.64	-60.5	-76.6	3.8	1.49e+00	0	28	104	880803840	86	24036
2026-01-15 13:24:01.24	337.06	3.60	-60.5	-76.6	3.8	1.49e+00	0	28	104	880803840	86	23957
2026-01-15 13:24:02.24	337.18	3.56	-60.5	-76.6	3.8	1.49e+00	0	28	104	880803840	86	23937
2026-01-15 13:24:03.23	337.29	3.52	-60.5	-76.6	3.8	1.49e+00	0	28	104	880803840	86	23915
2026-01-15 13:24:04.23	337.41	3.48	-60.5	-76.6	3.8	1.49e+00	0	28	104	880803840	86	23912
2026-01-15 13:24:05.23	337.52	3.44	-60.5	-76.6	3.8	1.49e+00	0	28	104	880803840	86	23915
2026-01-15 13:24:06.23	337.63	3.40	-60.5	-76.6	3.8	1.49e+00	0	28	104	880803840	86	23927
2026-01-15 13:24:07.23	337.75	3.36	-60.5	-76.5	3.8	1.49e+00	0	28	104	880803840	86	23841
2026-01-15 13:24:08.22	337.86	3.32	-60.5	-76.5	3.8	1.49e+00	0	28	104	880803840	86	23854
2026-01-15 13:24:09.22	337.97	3.28	-60.5	-76.5	3.9	1.49e+00	0	28	104	880803840	86	23850
2026-01-15 13:24:10.21	338.08	3.24	-60.5	-76.6	3.8	1.49e+00	0	28	104	880803840	86	23860
2026-01-15 13:24:11.21	338.20	3.20	-60.4	-76.5	3.8	1.49e+00	0	28	104	880803840	86	23795
2026-01-15 13:24:12.21	338.31	3.16	-60.4	-76.5	3.8	1.49e+00	0	28	104	880803840	86	23807
2026-01-15 13:24:13.20	338.42	3.12	-60.5	-76.6	3.8	1.49e+00	0	28	104	880803840	86	23863
2026-01-15 13:24:14.19	338.53	3.08	-60.4	-76.5	3.8	1.49e+00	0	28	104	880803840	86	23790
2026-01-15 13:24:15.19	338.64	3.03	-60.4	-76.5	3.8	1.49e+00	0	28	104	880803840	86	23803
2026-01-15 13:24:16.19	338.75	2.99	-60.4	-76.5	3.8	1.49e+00	0	28	104	880803840	86	23760
2026-01-15 13:24:17.19	338.86	2.95	-60.4	-76.5	3.8	1.49e+00	0	28	104	880803840	86	23783
2026-01-15 13:24:18.19	338.97	2.91	-60.4	-76.5	3.8	1.49e+00	0	28	104	880803840	86	23746
2026-01-15 13:24:19.18	339.08	2.87	-60.4	-76.5	3.8	1.49e+00	0	28	104	880803840	86	23770
2026-01-15 13:24:20.18	339.19	2.83	-60.4	-76.5	3.8	1.49e+00	0	28	104	880803840	86	23808
2026-01-15 13:24:21.18	339.30	2.79	-60.4	-76.5	3.8	1.49e+00	0	28	104	880803840	86	23794
2026-01-15 13:24:22.18	339.41	2.75	-60.4	-76.5	3.8	1.49e+00	0	28	104	880803840	86	23778
2026-01-15 13:24:23.17	339.52	2.71	-60.4	-76.5	3.8	1.49e+00	0	28	104	880803840	86	23772
2026-01-15 13:24:24.17	339.63	2.67	-60.4	-76.5	3.8	1.49e+00	0	28	104	880803840	86	23661
2026-01-15 13:24:25.17	339.73	2.63	-60.4	-76.5	3.8	1.49e+00	0	28	104	880803840	86	23733
2026-01-15 13:24:26.17	339.84	2.59	-60.4	-76.5	3.8	1.49e+00	0	28	104	880803840	86	23748
2026-01-15 13:24:27.17	339.95	2.55	-60.4	-76.5	3.8	1.49e+00	0	28	104	880803840	86	23760
2026-01-15 13:24:28.17	340.06	2.50	-60.4	-76.5	3.8	1.49e+00	0	28	104	880803840	86	23679
2026-01-15 13:24:29.15	340.16	2.46	-60.4	-76.5	3.8	1.49e+00	0	28	104	880803840	86	23717
2026-01-15 13:24:30.15	340.27	2.42	-60.4	-76.5	3.8	1.49e+00	0	28	104	880803840	86	23720
2026-01-15 13:24:31.15	340.38	2.38	-60.4	-76.5	3.8	1.49e+00	0	28	104	880803840	86	23744
2026-01-15 13:24:32.16	340.48	2.34	-60.4	-76.5	3.8	1.49e+00	0	28	104	880803840	86	23657
2026-01-15 13:24:33.16	340.59	2.30	-60.4	-76.5	3.8	1.49e+00	0	28	104	880803840	86	23648
2026-01-15 13:24:34.16	340.69	2.26	-60.4	-76.5	3.8	1.49e+00	0	28	104	880803840	86	23695
2026-01-15 13:24:35.16	340.80	2.22	-60.4	-76.5	3.8	1.49e+00	0	28	104	880803840	86	23632
2026-01-15 13:24:36.17	340.91	2.18	-60.4	-76.5	3.8	1.49e+00	0	28	104	880803840	86	23588
2026-01-15 13:24:37.17	341.01	2.13	-60.4	-76.5	3.8	1.49e+00	0	28	104	880803840	86	23738
2026-01-15 13:24:38.17	341.12	2.09	-60.4	-76.5	3.8	1.49e+00	0	28	104	880803840	86	23631
2026-01-15 13:24:39.18	341.22	2.05	-60.4	-76.5	3.8	1.49e+00	0	28	104	880803840	86	23611
2026-01-15 13:24:40.19	341.33	2.01	-60.4	-76.5	3.8	1.49e+00	0	28	104	880803840	86	23595

#Closed at: 2026-01-15 13:24:41
#Recorded file [880 MB]: D:/lorett/data/31004_260115_161429.dat