passes_logs/2026/01/15/R3.2S_Murmansk/R3.2S_Murmansk__20260115_031212_NOAA_20_JPSS-1_rec.log

#Pass ID: 20260115_031212_NOAA 20 (JPSS-1)
#Satellite: NOAA 20 (JPSS-1)
#Configuration: NOAA 20
#almurnet v.1.7.20251203
#Start time: 2026-01-15 03:12:14

#Version: 2.2.20231116
#Station: R3.2S_Murmansk
#Location: 33.079688 lon 68.888172 lat
#TLE: 1 43013U 17073A   26014.55467351  .00000038  00000+0  38801-4 0  9992
#TLE: 2 43013  98.7635 315.4987 0001517  39.9279 320.2008 14.19535859422677

#Time	Az	El	Level	Level2	SNR	BER	BlckErr	Temp	State	Recorded	gain1	gain2
2026-01-15 03:12:14.12	39.27	2.09	-58.2	-74.2	3.8	1.49e+00	0	26	0	0	82	22893
2026-01-15 03:12:15.11	39.22	2.15	-58.2	-74.2	3.8	1.49e+00	0	26	104	0	81	24213
2026-01-15 03:12:16.12	39.17	2.21	-58.2	-74.2	3.8	1.49e+00	0	26	104	0	81	24172
2026-01-15 03:12:17.11	39.12	2.27	-58.1	-74.2	3.8	1.49e+00	0	26	104	0	81	24206
2026-01-15 03:12:18.11	39.06	2.33	-58.2	-74.2	3.8	1.49e+00	0	26	104	0	81	24137
2026-01-15 03:12:19.11	39.01	2.39	-58.2	-74.2	3.8	1.49e+00	0	26	104	0	81	24196
2026-01-15 03:12:20.11	38.96	2.45	-58.2	-74.2	3.8	1.49e+00	0	26	104	0	81	24195
2026-01-15 03:12:21.10	38.91	2.51	-58.2	-74.2	3.8	1.49e+00	0	26	104	0	81	24163
2026-01-15 03:12:22.10	38.86	2.57	-58.2	-74.2	3.8	1.49e+00	0	26	104	0	81	24262
2026-01-15 03:12:23.10	38.81	2.63	-58.2	-74.2	3.8	1.49e+00	0	26	104	0	81	24229
2026-01-15 03:12:24.10	38.76	2.69	-58.2	-74.2	3.8	1.49e+00	0	26	104	0	81	24193
2026-01-15 03:12:25.09	38.70	2.75	-58.2	-74.2	3.8	1.49e+00	0	26	104	0	81	24168
2026-01-15 03:12:26.09	38.65	2.81	-58.2	-74.2	3.8	1.49e+00	0	26	104	0	81	24135
2026-01-15 03:12:27.09	38.60	2.87	-58.2	-74.2	3.8	1.49e+00	0	26	104	0	81	24133
2026-01-15 03:12:28.09	38.55	2.93	-58.2	-74.1	3.8	1.49e+00	0	26	104	0	81	24107
2026-01-15 03:12:29.10	38.49	2.99	-58.2	-74.1	3.8	1.49e+00	0	26	104	0	81	24112
2026-01-15 03:12:30.10	38.44	3.05	-58.2	-74.1	3.8	1.49e+00	0	26	104	0	81	24062
2026-01-15 03:12:31.10	38.39	3.12	-58.2	-74.2	3.8	1.49e+00	0	26	104	0	81	24238
2026-01-15 03:12:32.09	38.33	3.18	-58.2	-74.2	3.8	1.49e+00	0	26	104	0	81	24202
2026-01-15 03:12:33.09	38.28	3.24	-58.2	-74.2	3.8	1.49e+00	0	27	104	0	81	24317
2026-01-15 03:12:34.09	38.22	3.30	-58.2	-74.2	3.8	1.49e+00	0	26	104	0	81	24256
2026-01-15 03:12:35.09	38.17	3.36	-58.2	-74.2	3.9	1.49e+00	0	26	104	0	81	24173
2026-01-15 03:12:36.10	38.11	3.43	-58.2	-74.1	3.8	1.49e+00	0	27	104	0	81	24079
2026-01-15 03:12:37.09	38.06	3.49	-58.2	-74.1	3.8	1.49e+00	0	27	104	0	81	24047
2026-01-15 03:12:38.10	38.00	3.55	-58.2	-74.1	3.8	1.49e+00	0	27	104	0	81	24094
2026-01-15 03:12:39.10	37.95	3.61	-58.2	-74.1	3.8	1.49e+00	0	27	104	0	81	24064
2026-01-15 03:12:40.09	37.89	3.67	-58.2	-74.1	3.8	1.49e+00	0	27	104	0	81	24103
2026-01-15 03:12:41.09	37.84	3.74	-58.2	-74.1	3.8	1.49e+00	0	27	104	0	81	24072
2026-01-15 03:12:42.09	37.78	3.80	-58.2	-74.1	3.8	1.49e+00	0	27	104	0	81	24011
2026-01-15 03:12:43.08	37.72	3.86	-58.2	-74.0	3.8	1.49e+00	0	27	104	0	81	23711
2026-01-15 03:12:44.09	37.67	3.92	-58.2	-73.9	3.8	1.49e+00	0	27	104	0	81	23364
2026-01-15 03:12:45.09	37.61	3.99	-58.2	-73.7	3.8	1.49e+00	0	27	104	0	81	22888
2026-01-15 03:12:46.10	37.55	4.05	-58.2	-73.3	3.8	1.49e+00	0	27	104	0	81	21958
2026-01-15 03:12:47.10	37.49	4.11	-58.1	-72.9	3.8	1.49e+00	0	27	104	0	81	20792
2026-01-15 03:12:48.10	37.43	4.18	-58.1	-72.6	3.8	1.49e+00	0	27	104	0	81	20135
2026-01-15 03:12:49.10	37.38	4.24	-58.1	-72.0	3.8	1.49e+00	0	27	104	0	81	18802
2026-01-15 03:12:50.10	37.32	4.30	-58.1	-71.4	4.0	1.48e+00	0	27	104	0	81	17525
2026-01-15 03:12:51.10	37.26	4.37	-58.0	-70.6	4.2	1.42e+00	0	27	0	0	81	16010
2026-01-15 03:12:52.11	37.20	4.43	-58.0	-69.7	4.5	1.35e+00	19	27	0	0	81	14521
2026-01-15 03:12:53.11	37.14	4.50	-57.9	-68.9	4.8	9.38e-01	0	27	0	2097152	81	13232
2026-01-15 03:12:54.11	37.08	4.56	-57.8	-68.0	5.2	6.28e-01	0	27	0	4194304	81	11892
2026-01-15 03:12:55.11	37.02	4.63	-57.7	-67.2	5.7	3.96e-01	0	27	0	5242880	81	10877
2026-01-15 03:12:56.11	36.96	4.69	-57.7	-66.8	6.0	2.99e-01	0	27	0	7340032	81	10316
2026-01-15 03:12:57.11	36.90	4.75	-57.6	-65.9	6.6	1.71e-01	0	27	0	9437184	81	9362
2026-01-15 03:12:58.11	36.84	4.82	-57.6	-65.9	6.6	1.64e-01	0	27	0	11534336	81	9370
2026-01-15 03:12:59.10	36.78	4.88	-57.5	-65.8	6.7	1.50e-01	0	27	0	13631488	81	9207
2026-01-15 03:13:00.11	36.72	4.95	-57.5	-65.7	6.8	1.34e-01	0	27	0	14680064	81	9126
2026-01-15 03:13:01.11	36.66	5.01	-57.6	-66.5	6.2	2.13e-01	0	27	0	16777216	81	9969
2026-01-15 03:13:02.11	36.59	5.08	-57.6	-65.6	6.9	1.31e-01	0	27	0	18874368	81	9042
2026-01-15 03:13:03.10	36.53	5.14	-57.8	-66.7	6.2	1.77e-01	0	27	0	20971520	81	10255
2026-01-15 03:13:04.11	36.47	5.21	-57.9	-69.2	4.6	6.29e-01	0	27	0	22020096	81	13641
2026-01-15 03:13:05.11	36.41	5.27	-56.0	-60.1	11.6	2.92e-03	0	27	0	24117248	78	5671
2026-01-15 03:13:06.11	36.34	5.34	-58.0	-70.9	4.1	3.67e-01	0	27	0	26214400	81	16657
2026-01-15 03:13:07.11	36.28	5.41	-56.1	-60.4	11.3	4.15e-04	0	27	0	27262976	78	5890
2026-01-15 03:13:08.11	36.22	5.47	-55.8	-59.6	11.9	5.30e-06	0	27	0	29360128	78	5377
2026-01-15 03:13:09.11	36.15	5.54	-55.7	-59.5	12.0	5.30e-06	0	27	0	31457280	78	5292
2026-01-15 03:13:10.11	36.09	5.60	-55.4	-58.9	12.3	1.50e-06	0	27	0	33554432	77	5273
2026-01-15 03:13:11.09	36.02	5.67	-55.4	-58.9	12.3	0.00e+00	0	27	0	34603008	77	5273
2026-01-15 03:13:12.08	35.96	5.73	-55.4	-58.9	12.3	0.00e+00	0	27	0	36700160	77	5266
2026-01-15 03:13:13.08	35.89	5.80	-55.4	-58.9	12.4	0.00e+00	0	27	0	38797312	77	5239
2026-01-15 03:13:14.08	35.83	5.87	-55.4	-58.8	12.4	0.00e+00	0	27	0	40894464	77	5168
2026-01-15 03:13:15.09	35.76	5.93	-55.4	-58.9	12.4	0.00e+00	0	27	0	42991616	77	5231
2026-01-15 03:13:16.08	35.70	6.00	-55.1	-58.3	12.7	0.00e+00	0	27	0	44040192	76	5204
2026-01-15 03:13:17.08	35.63	6.07	-55.2	-58.4	12.6	7.00e-07	0	27	0	46137344	76	5244
2026-01-15 03:13:18.08	35.56	6.14	-54.9	-58.0	12.9	0.00e+00	0	27	0	48234496	76	4999
2026-01-15 03:13:19.08	35.50	6.20	-55.0	-58.2	12.8	0.00e+00	0	27	0	50331648	76	5110
2026-01-15 03:13:20.07	35.43	6.27	-55.1	-58.3	12.7	0.00e+00	0	27	0	52428800	76	5167
2026-01-15 03:13:21.07	35.36	6.34	-55.0	-58.0	12.9	0.00e+00	0	27	0	53477376	76	5030
2026-01-15 03:13:22.07	35.29	6.40	-55.0	-58.1	12.9	0.00e+00	0	27	0	55574528	76	5069
2026-01-15 03:13:23.07	35.23	6.47	-55.0	-58.0	12.9	0.00e+00	0	27	0	57671680	76	5024
2026-01-15 03:13:24.08	35.16	6.54	-55.0	-58.0	12.9	0.00e+00	0	27	0	59768832	76	5019
2026-01-15 03:13:25.08	35.09	6.61	-55.0	-58.0	13.0	0.00e+00	0	27	0	61865984	76	5008
2026-01-15 03:13:26.08	35.02	6.68	-55.0	-58.0	13.0	0.00e+00	0	27	0	62914560	76	4998
2026-01-15 03:13:27.07	34.95	6.74	-54.9	-57.9	13.0	0.00e+00	0	27	0	65011712	76	4939
2026-01-15 03:13:28.06	34.88	6.81	-55.1	-58.1	12.9	0.00e+00	0	27	0	67108864	76	5075
2026-01-15 03:13:29.06	34.81	6.88	-55.1	-58.2	12.9	0.00e+00	0	27	0	69206016	76	5105
2026-01-15 03:13:30.06	34.74	6.95	-55.0	-57.9	13.0	0.00e+00	0	27	0	70254592	76	4968
2026-01-15 03:13:31.06	34.67	7.02	-55.1	-58.2	12.9	0.00e+00	0	27	0	72351744	76	5114
2026-01-15 03:13:32.05	34.60	7.09	-55.0	-58.0	13.0	0.00e+00	0	27	0	74448896	76	4993
2026-01-15 03:13:33.05	34.52	7.16	-55.0	-58.1	12.9	0.00e+00	0	27	0	76546048	76	5049
2026-01-15 03:13:34.05	34.45	7.23	-55.1	-58.0	12.9	0.00e+00	0	27	0	78643200	76	5037
2026-01-15 03:13:35.04	34.38	7.30	-55.0	-58.0	13.0	0.00e+00	0	27	0	79691776	76	5002
2026-01-15 03:13:36.04	34.31	7.36	-55.1	-58.1	13.0	0.00e+00	0	27	0	81788928	76	5043
2026-01-15 03:13:37.03	34.23	7.43	-54.9	-57.8	13.1	0.00e+00	0	27	0	83886080	76	4895
2026-01-15 03:13:38.03	34.16	7.50	-55.1	-58.0	13.0	0.00e+00	0	27	0	85983232	76	5026
2026-01-15 03:13:39.03	34.09	7.57	-55.3	-58.4	12.7	0.00e+00	0	27	0	87031808	76	5257
2026-01-15 03:13:40.02	34.01	7.64	-55.0	-57.9	13.1	0.00e+00	0	28	0	89128960	76	4958
2026-01-15 03:13:41.02	33.94	7.71	-55.0	-57.9	13.0	0.00e+00	0	27	0	91226112	76	4970
2026-01-15 03:13:42.02	33.86	7.78	-54.8	-57.6	13.3	0.00e+00	0	27	0	93323264	76	4764
2026-01-15 03:13:43.01	33.79	7.85	-54.9	-57.8	13.1	0.00e+00	0	27	0	95420416	76	4876
2026-01-15 03:13:44.01	33.71	7.93	-54.8	-57.5	13.3	0.00e+00	0	27	0	96468992	76	4755
2026-01-15 03:13:45.01	33.63	8.00	-54.8	-57.5	13.3	0.00e+00	0	27	0	98566144	76	4746
2026-01-15 03:13:46.00	33.56	8.07	-54.8	-57.7	13.2	0.00e+00	0	27	0	100663296	76	4830
2026-01-15 03:13:47.00	33.48	8.14	-54.8	-57.6	13.3	0.00e+00	0	27	0	102760448	76	4777
2026-01-15 03:13:48.01	33.40	8.21	-54.7	-57.4	13.4	0.00e+00	0	27	0	103809024	76	4688
2026-01-15 03:13:49.01	33.32	8.28	-54.7	-57.4	13.4	0.00e+00	0	28	0	105906176	76	4693
2026-01-15 03:13:50.01	33.25	8.35	-54.5	-57.1	13.4	0.00e+00	0	27	0	108003328	75	4793
2026-01-15 03:13:51.00	33.17	8.42	-54.6	-57.3	13.3	0.00e+00	0	27	0	110100480	75	4876
2026-01-15 03:13:52.01	33.09	8.50	-54.4	-57.0	13.5	0.00e+00	0	28	0	112197632	75	4748
2026-01-15 03:13:53.01	33.01	8.57	-54.5	-57.2	13.4	0.00e+00	0	27	0	113246208	75	4858
2026-01-15 03:13:54.01	32.93	8.64	-54.6	-57.3	13.3	0.00e+00	0	27	0	115343360	75	4877
2026-01-15 03:13:55.01	32.85	8.71	-54.6	-57.3	13.4	0.00e+00	0	27	0	117440512	75	4887
2026-01-15 03:13:56.01	32.77	8.79	-54.6	-57.2	13.4	0.00e+00	0	27	0	119537664	75	4865
2026-01-15 03:13:57.01	32.69	8.86	-54.6	-57.4	13.3	0.00e+00	0	28	0	121634816	75	4927
2026-01-15 03:13:58.01	32.60	8.93	-54.6	-57.2	13.4	0.00e+00	0	27	0	122683392	75	4863
2026-01-15 03:13:59.01	32.52	9.01	-54.5	-57.1	13.4	0.00e+00	0	28	0	124780544	75	4797
2026-01-15 03:14:00.01	32.44	9.08	-54.4	-56.9	13.6	0.00e+00	0	27	0	126877696	75	4669
2026-01-15 03:14:01.01	32.36	9.15	-54.3	-56.8	13.6	0.00e+00	0	27	0	128974848	75	4636
2026-01-15 03:14:02.01	32.27	9.23	-54.4	-57.0	13.5	0.00e+00	0	27	0	130023424	75	4706
2026-01-15 03:14:03.00	32.19	9.30	-54.3	-56.8	13.6	0.00e+00	0	27	0	132120576	75	4601
2026-01-15 03:14:04.00	32.11	9.37	-54.3	-56.8	13.6	0.00e+00	0	28	0	134217728	75	4613
2026-01-15 03:14:05.01	32.02	9.45	-54.3	-56.7	13.7	0.00e+00	0	27	0	136314880	75	4587
2026-01-15 03:14:06.00	31.94	9.52	-54.2	-56.6	13.8	0.00e+00	0	27	0	138412032	75	4529
2026-01-15 03:14:07.01	31.85	9.60	-54.2	-56.7	13.6	0.00e+00	0	27	0	139460608	74	4846
2026-01-15 03:14:08.01	31.76	9.67	-54.3	-56.8	13.6	0.00e+00	0	27	0	141557760	74	4873
2026-01-15 03:14:09.01	31.68	9.74	-54.1	-56.5	13.7	0.00e+00	0	27	0	143654912	74	4749
2026-01-15 03:14:10.01	31.59	9.82	-54.2	-56.7	13.6	0.00e+00	0	27	0	145752064	74	4821
2026-01-15 03:14:11.00	31.50	9.89	-54.1	-56.5	13.7	0.00e+00	0	27	0	147849216	74	4756
2026-01-15 03:14:12.00	31.41	9.97	-54.1	-56.5	13.7	0.00e+00	0	27	0	148897792	74	4725
2026-01-15 03:14:13.01	31.32	10.04	-54.1	-56.5	13.7	0.00e+00	0	27	0	150994944	74	4747
2026-01-15 03:14:14.01	31.24	10.12	-54.1	-56.6	13.7	0.00e+00	0	27	0	153092096	74	4774
2026-01-15 03:14:15.00	31.15	10.20	-54.2	-56.7	13.6	0.00e+00	0	28	0	155189248	74	4837
2026-01-15 03:14:16.00	31.06	10.27	-54.2	-56.6	13.6	0.00e+00	0	28	0	157286400	74	4806
2026-01-15 03:14:16.99	30.97	10.35	-54.2	-56.6	13.7	0.00e+00	0	27	0	158334976	74	4782
2026-01-15 03:14:17.99	30.88	10.42	-54.2	-56.6	13.7	0.00e+00	0	27	0	160432128	74	4791
2026-01-15 03:14:18.99	30.79	10.50	-54.2	-56.6	13.7	0.00e+00	0	27	0	162529280	74	4805
2026-01-15 03:14:19.99	30.69	10.58	-54.2	-56.7	13.6	0.00e+00	0	28	0	164626432	74	4827
2026-01-15 03:14:20.98	30.60	10.65	-54.1	-56.6	13.7	0.00e+00	0	27	0	165675008	74	4767
2026-01-15 03:14:21.98	30.51	10.73	-54.2	-56.6	13.7	0.00e+00	0	27	0	167772160	74	4799
2026-01-15 03:14:22.97	30.42	10.80	-54.2	-56.6	13.7	0.00e+00	0	28	0	169869312	74	4798
2026-01-15 03:14:23.97	30.32	10.88	-54.1	-56.5	13.7	0.00e+00	0	27	0	171966464	74	4730
2026-01-15 03:14:24.96	30.23	10.96	-54.1	-56.5	13.7	0.00e+00	0	27	0	174063616	74	4744
2026-01-15 03:14:25.96	30.13	11.03	-54.2	-56.6	13.7	0.00e+00	0	28	0	175112192	74	4767
2026-01-15 03:14:26.95	30.04	11.11	-54.0	-56.4	13.8	0.00e+00	0	27	0	177209344	74	4670
2026-01-15 03:14:27.95	29.94	11.19	-54.1	-56.4	13.8	0.00e+00	0	27	0	179306496	74	4669
2026-01-15 03:14:28.95	29.85	11.27	-54.1	-56.4	13.8	0.00e+00	0	27	0	181403648	74	4675
2026-01-15 03:14:29.94	29.75	11.34	-54.0	-56.3	13.8	0.00e+00	0	27	0	182452224	74	4617
2026-01-15 03:14:30.94	29.65	11.42	-53.9	-56.2	13.9	0.00e+00	0	27	0	184549376	74	4585
2026-01-15 03:14:31.94	29.56	11.50	-54.0	-56.3	13.9	0.00e+00	0	27	0	186646528	74	4623
2026-01-15 03:14:32.93	29.46	11.58	-54.0	-56.3	13.9	0.00e+00	0	27	0	188743680	74	4611
2026-01-15 03:14:33.93	29.36	11.66	-53.9	-56.1	13.9	0.00e+00	0	28	0	190840832	74	4543
2026-01-15 03:14:34.93	29.26	11.74	-53.8	-56.1	14.0	0.00e+00	0	28	0	191889408	74	4504
2026-01-15 03:14:35.93	29.16	11.82	-53.9	-56.1	14.0	0.00e+00	0	28	0	193986560	74	4520
2026-01-15 03:14:36.93	29.06	11.89	-53.9	-56.2	13.9	0.00e+00	0	28	0	196083712	74	4550
2026-01-15 03:14:37.92	28.96	11.97	-53.8	-56.0	14.0	0.00e+00	0	28	0	198180864	74	4487
2026-01-15 03:14:38.93	28.86	12.05	-53.9	-56.2	13.9	0.00e+00	0	27	0	200278016	74	4550
2026-01-15 03:14:39.92	28.75	12.13	-54.0	-56.2	13.9	0.00e+00	0	27	0	201326592	74	4596
2026-01-15 03:14:40.92	28.65	12.21	-53.9	-56.2	13.9	0.00e+00	0	27	0	203423744	74	4582
2026-01-15 03:14:41.91	28.55	12.29	-54.0	-56.3	13.9	0.00e+00	0	28	0	205520896	74	4612
2026-01-15 03:14:42.91	28.44	12.37	-53.9	-56.2	13.9	0.00e+00	0	28	0	207618048	74	4582
2026-01-15 03:14:43.90	28.34	12.45	-54.0	-56.3	13.9	0.00e+00	0	28	0	208666624	74	4599
2026-01-15 03:14:44.90	28.23	12.53	-54.0	-56.3	13.9	0.00e+00	0	28	0	210763776	74	4638
2026-01-15 03:14:45.90	28.13	12.61	-54.0	-56.3	13.9	0.00e+00	0	28	0	212860928	74	4624
2026-01-15 03:14:46.90	28.02	12.69	-54.0	-56.3	13.9	0.00e+00	0	28	0	214958080	74	4606
2026-01-15 03:14:47.90	27.91	12.77	-54.0	-56.3	13.9	0.00e+00	0	28	0	217055232	74	4638
2026-01-15 03:14:48.91	27.81	12.86	-54.0	-56.3	13.9	0.00e+00	0	28	0	218103808	74	4638
2026-01-15 03:14:49.90	27.70	12.94	-54.0	-56.3	13.8	0.00e+00	0	28	0	220200960	74	4637
2026-01-15 03:14:50.90	27.59	13.02	-54.0	-56.3	13.8	0.00e+00	0	28	0	222298112	74	4647
2026-01-15 03:14:51.90	27.48	13.10	-54.0	-56.2	13.9	0.00e+00	0	28	0	224395264	74	4598
2026-01-15 03:14:52.89	27.37	13.18	-54.0	-56.3	13.9	0.00e+00	0	28	0	226492416	74	4633
2026-01-15 03:14:53.89	27.26	13.26	-54.0	-56.3	13.9	0.00e+00	0	28	0	227540992	74	4633
2026-01-15 03:14:54.89	27.15	13.35	-54.1	-56.4	13.8	0.00e+00	0	28	0	229638144	74	4695
2026-01-15 03:14:55.88	27.04	13.43	-54.1	-56.4	13.8	0.00e+00	0	28	0	231735296	74	4698
2026-01-15 03:14:56.88	26.92	13.51	-54.2	-56.6	13.7	0.00e+00	0	28	0	233832448	74	4776
2026-01-15 03:14:57.88	26.81	13.59	-54.1	-56.5	13.8	0.00e+00	0	28	0	234881024	74	4721
2026-01-15 03:14:58.88	26.70	13.68	-54.2	-56.6	13.8	0.00e+00	0	28	0	236978176	74	4772
2026-01-15 03:14:59.87	26.58	13.76	-54.2	-56.5	13.8	0.00e+00	0	27	0	239075328	74	4739
2026-01-15 03:15:00.87	26.47	13.84	-54.1	-56.4	13.9	0.00e+00	0	28	0	241172480	74	4677
2026-01-15 03:15:01.86	26.35	13.92	-54.0	-56.3	13.9	0.00e+00	0	28	0	243269632	74	4616
2026-01-15 03:15:02.85	26.24	14.01	-54.1	-56.4	13.9	0.00e+00	0	28	0	244318208	74	4653
2026-01-15 03:15:03.86	26.12	14.09	-54.1	-56.4	13.8	0.00e+00	0	28	0	246415360	74	4698
2026-01-15 03:15:04.85	26.00	14.17	-54.1	-56.4	13.9	0.00e+00	0	28	0	248512512	74	4669
2026-01-15 03:15:05.85	25.88	14.26	-54.1	-56.4	13.9	0.00e+00	0	28	0	250609664	74	4684
2026-01-15 03:15:06.86	25.76	14.34	-54.1	-56.5	13.8	0.00e+00	0	28	0	251658240	74	4709
2026-01-15 03:15:07.84	25.64	14.43	-54.1	-56.5	13.8	0.00e+00	0	28	0	253755392	74	4708
2026-01-15 03:15:08.84	25.52	14.51	-54.2	-56.5	13.8	0.00e+00	0	28	0	255852544	74	4722
2026-01-15 03:15:09.85	25.40	14.60	-54.1	-56.4	13.9	0.00e+00	0	28	0	257949696	74	4679
2026-01-15 03:15:10.85	25.28	14.68	-54.1	-56.4	13.8	0.00e+00	0	28	0	260046848	74	4685
2026-01-15 03:15:11.85	25.15	14.77	-54.1	-56.4	13.8	0.00e+00	0	28	0	261095424	74	4698
2026-01-15 03:15:12.84	25.03	14.85	-54.1	-56.4	13.8	0.00e+00	0	28	0	263192576	74	4694
2026-01-15 03:15:13.83	24.91	14.93	-54.1	-56.4	13.9	0.00e+00	0	28	0	265289728	74	4673
2026-01-15 03:15:14.84	24.78	15.02	-54.0	-56.3	13.9	0.00e+00	0	28	0	267386880	74	4622
2026-01-15 03:15:15.83	24.66	15.11	-54.0	-56.3	13.9	0.00e+00	0	28	0	269484032	74	4619
2026-01-15 03:15:16.84	24.53	15.19	-54.1	-56.4	13.9	0.00e+00	0	28	0	270532608	74	4673
2026-01-15 03:15:17.83	24.40	15.28	-54.0	-56.3	13.9	0.00e+00	0	28	0	272629760	74	4616
2026-01-15 03:15:18.84	24.27	15.36	-53.9	-56.1	14.0	0.00e+00	0	28	0	274726912	74	4512
2026-01-15 03:15:19.83	24.14	15.45	-53.9	-56.1	14.0	0.00e+00	0	28	0	276824064	74	4513
2026-01-15 03:15:20.83	24.01	15.54	-53.9	-56.1	14.0	0.00e+00	0	28	0	277872640	74	4536
2026-01-15 03:15:21.82	23.88	15.62	-53.9	-56.1	14.0	0.00e+00	0	28	0	279969792	74	4515
2026-01-15 03:15:22.83	23.75	15.71	-53.9	-56.0	14.0	0.00e+00	0	28	0	282066944	74	4492
2026-01-15 03:15:23.82	23.62	15.80	-53.9	-56.1	14.0	0.00e+00	0	28	0	284164096	74	4529
2026-01-15 03:15:24.82	23.49	15.88	-53.9	-56.1	14.0	0.00e+00	0	28	0	286261248	74	4512
2026-01-15 03:15:25.81	23.36	15.97	-53.8	-56.0	14.1	0.00e+00	0	28	0	287309824	74	4458
2026-01-15 03:15:26.80	23.22	16.05	-53.9	-56.0	14.1	0.00e+00	0	28	0	289406976	74	4492
2026-01-15 03:15:27.79	23.09	16.14	-53.9	-56.1	14.0	0.00e+00	0	28	0	291504128	74	4512
2026-01-15 03:15:28.79	22.95	16.23	-54.0	-56.2	14.0	0.00e+00	0	28	0	293601280	74	4563
2026-01-15 03:15:29.78	22.82	16.32	-53.9	-56.1	14.0	0.00e+00	0	28	0	294649856	74	4527
2026-01-15 03:15:30.78	22.68	16.40	-53.9	-56.1	14.0	0.00e+00	0	28	0	296747008	74	4511
2026-01-15 03:15:31.78	22.54	16.49	-54.0	-56.1	14.0	0.00e+00	0	28	0	298844160	74	4532
2026-01-15 03:15:32.78	22.40	16.58	-53.9	-56.0	14.1	0.00e+00	0	28	0	300941312	74	4475
2026-01-15 03:15:33.77	22.26	16.67	-53.8	-55.9	14.1	0.00e+00	0	28	0	303038464	74	4437
2026-01-15 03:15:34.76	22.12	16.76	-53.8	-55.9	14.1	0.00e+00	0	28	0	304087040	74	4435
2026-01-15 03:15:35.75	21.98	16.84	-53.8	-55.9	14.2	0.00e+00	0	28	0	306184192	74	4399
2026-01-15 03:15:36.76	21.84	16.93	-53.7	-55.7	14.1	0.00e+00	0	28	0	308281344	73	4586
2026-01-15 03:15:37.75	21.70	17.02	-53.7	-55.8	14.1	0.00e+00	0	28	0	310378496	73	4604
2026-01-15 03:15:38.74	21.55	17.11	-53.7	-55.7	14.1	0.00e+00	0	28	0	311427072	73	4595
2026-01-15 03:15:39.74	21.41	17.20	-53.7	-55.8	14.1	0.00e+00	0	28	0	313524224	73	4610
2026-01-15 03:15:40.73	21.26	17.29	-53.7	-55.8	14.1	0.00e+00	0	28	0	315621376	73	4643
2026-01-15 03:15:41.73	21.11	17.38	-53.7	-55.8	14.1	0.00e+00	0	28	0	317718528	73	4613
2026-01-15 03:15:42.72	20.97	17.46	-53.6	-55.6	14.2	0.00e+00	0	28	0	319815680	73	4517
2026-01-15 03:15:43.73	20.82	17.55	-53.4	-55.4	14.3	0.00e+00	0	28	0	320864256	73	4438
2026-01-15 03:15:44.73	20.67	17.64	-53.5	-55.5	14.3	0.00e+00	0	28	0	322961408	73	4463
2026-01-15 03:15:45.73	20.52	17.73	-53.4	-55.4	14.3	0.00e+00	0	28	0	325058560	73	4439
2026-01-15 03:15:46.73	20.37	17.82	-53.5	-55.5	14.3	0.00e+00	0	28	0	327155712	73	4446
2026-01-15 03:15:47.72	20.21	17.91	-53.5	-55.5	14.2	0.00e+00	0	28	0	329252864	73	4487
2026-01-15 03:15:48.72	20.06	18.00	-53.5	-55.5	14.2	0.00e+00	0	28	0	330301440	73	4491
2026-01-15 03:15:49.71	19.91	18.09	-53.5	-55.6	14.2	0.00e+00	0	28	0	332398592	73	4495
2026-01-15 03:15:50.71	19.75	18.18	-53.6	-55.6	14.2	0.00e+00	0	28	0	334495744	73	4543
2026-01-15 03:15:51.72	19.59	18.28	-56.4	-59.9	12.4	9.90e-06	0	28	0	336592896	79	5273
2026-01-15 03:15:52.72	19.44	18.37	-56.4	-60.0	12.3	1.50e-06	0	28	0	338690048	79	5285
2026-01-15 03:15:53.71	19.28	18.46	-55.8	-58.9	12.9	0.00e+00	0	28	0	339738624	78	4945
2026-01-15 03:15:54.71	19.12	18.55	-54.7	-57.4	13.5	0.00e+00	0	28	0	341835776	76	4705
2026-01-15 03:15:55.71	18.96	18.64	-54.5	-56.8	13.8	0.00e+00	0	28	0	343932928	75	4651
2026-01-15 03:15:56.71	18.80	18.73	-54.0	-56.2	14.0	0.00e+00	0	28	0	346030080	74	4564
2026-01-15 03:15:57.72	18.64	18.82	-53.7	-55.8	14.2	0.00e+00	0	28	0	347078656	74	4350
2026-01-15 03:15:58.72	18.47	18.91	-53.6	-55.6	14.2	0.00e+00	0	28	0	349175808	73	4540
2026-01-15 03:15:59.71	18.31	19.00	-53.7	-55.8	14.1	0.00e+00	0	28	0	351272960	73	4605
2026-01-15 03:16:00.72	18.14	19.10	-53.8	-55.9	14.1	0.00e+00	0	28	0	353370112	73	4658
2026-01-15 03:16:01.72	17.98	19.19	-53.6	-55.7	14.1	0.00e+00	0	28	0	355467264	73	4567
2026-01-15 03:16:02.71	17.81	19.28	-53.5	-55.5	14.3	0.00e+00	0	28	0	356515840	73	4449
2026-01-15 03:16:03.71	17.64	19.37	-53.3	-55.2	14.4	0.00e+00	0	28	0	358612992	73	4332
2026-01-15 03:16:04.71	17.47	19.46	-53.2	-55.2	14.4	0.00e+00	0	28	0	360710144	73	4292
2026-01-15 03:16:05.70	17.31	19.55	-53.3	-55.2	14.4	0.00e+00	0	28	0	362807296	73	4314
2026-01-15 03:16:06.70	17.13	19.64	-53.2	-55.2	14.4	0.00e+00	0	28	0	363855872	73	4294
2026-01-15 03:16:07.70	16.96	19.74	-53.3	-55.3	14.4	0.00e+00	0	28	0	365953024	73	4343
2026-01-15 03:16:08.70	16.79	19.83	-53.4	-55.4	14.3	0.00e+00	0	28	0	368050176	73	4423
2026-01-15 03:16:09.70	16.61	19.92	-53.5	-55.5	14.3	0.00e+00	0	28	0	370147328	73	4465
2026-01-15 03:16:10.70	16.44	20.01	-53.5	-55.5	14.3	0.00e+00	0	28	0	372244480	73	4464
2026-01-15 03:16:11.70	16.26	20.10	-53.6	-55.6	14.2	0.00e+00	0	28	0	373293056	73	4527
2026-01-15 03:16:12.70	16.08	20.20	-53.6	-55.6	14.2	0.00e+00	0	28	0	375390208	73	4526
2026-01-15 03:16:13.70	15.91	20.29	-53.7	-55.8	14.1	0.00e+00	0	28	0	377487360	73	4638
2026-01-15 03:16:14.71	15.72	20.38	-53.7	-55.8	14.1	0.00e+00	0	28	0	379584512	73	4614
2026-01-15 03:16:15.70	15.54	20.47	-53.8	-55.9	14.1	0.00e+00	0	28	0	381681664	73	4689
2026-01-15 03:16:16.70	15.36	20.57	-53.7	-55.8	14.1	0.00e+00	0	28	0	382730240	73	4630
2026-01-15 03:16:17.70	15.18	20.66	-53.8	-55.9	14.1	0.00e+00	0	28	0	384827392	73	4663
2026-01-15 03:16:18.70	14.99	20.75	-53.9	-56.0	14.0	0.00e+00	0	28	0	386924544	73	4712
2026-01-15 03:16:19.70	14.81	20.84	-53.8	-55.9	14.1	0.00e+00	0	28	0	389021696	73	4683
2026-01-15 03:16:20.70	14.62	20.94	-53.8	-55.9	14.1	0.00e+00	0	28	0	391118848	73	4704
2026-01-15 03:16:21.69	14.44	21.03	-53.8	-55.8	14.1	0.00e+00	0	28	0	392167424	73	4651
2026-01-15 03:16:22.70	14.25	21.12	-53.7	-55.8	14.1	0.00e+00	0	28	0	394264576	73	4637
2026-01-15 03:16:23.69	14.06	21.21	-53.8	-55.9	14.1	0.00e+00	0	28	0	396361728	73	4662
2026-01-15 03:16:24.68	13.87	21.31	-53.8	-55.8	14.1	0.00e+00	0	28	0	398458880	73	4644
2026-01-15 03:16:25.68	13.68	21.40	-53.8	-55.8	14.1	0.00e+00	0	28	0	399507456	73	4647
2026-01-15 03:16:26.67	13.48	21.49	-53.8	-55.9	14.1	0.00e+00	0	28	0	401604608	73	4685
2026-01-15 03:16:27.66	13.29	21.58	-53.7	-55.8	14.1	0.00e+00	0	28	0	403701760	73	4633
2026-01-15 03:16:28.66	13.10	21.67	-53.7	-55.8	14.2	0.00e+00	0	28	0	405798912	73	4600
2026-01-15 03:16:29.65	12.90	21.77	-53.7	-55.7	14.2	0.00e+00	0	28	0	407896064	73	4570
2026-01-15 03:16:30.64	12.70	21.86	-53.5	-55.5	14.3	0.00e+00	0	28	0	408944640	73	4463
2026-01-15 03:16:31.64	12.50	21.95	-53.5	-55.5	14.3	0.00e+00	0	28	0	411041792	73	4453
2026-01-15 03:16:32.63	12.31	22.04	-53.6	-55.6	14.2	0.00e+00	0	28	0	413138944	73	4509
2026-01-15 03:16:33.63	12.10	22.13	-53.5	-55.4	14.3	0.00e+00	0	28	0	415236096	73	4434
2026-01-15 03:16:34.62	11.90	22.22	-53.4	-55.3	14.4	0.00e+00	0	28	0	416284672	73	4383
2026-01-15 03:16:35.62	11.70	22.32	-53.3	-55.3	14.4	0.00e+00	0	28	0	418381824	73	4355
2026-01-15 03:16:36.62	11.49	22.41	-53.2	-55.1	14.5	0.00e+00	0	28	0	420478976	73	4255
2026-01-15 03:16:37.61	11.29	22.50	-53.3	-55.2	14.4	0.00e+00	0	28	0	422576128	73	4305
2026-01-15 03:16:38.60	11.08	22.59	-53.1	-55.0	14.4	0.00e+00	0	28	0	424673280	72	4475
2026-01-15 03:16:39.59	10.87	22.68	-53.1	-55.0	14.4	0.00e+00	0	27	0	425721856	72	4447
2026-01-15 03:16:40.59	10.66	22.77	-53.1	-54.9	14.4	0.00e+00	0	28	0	427819008	72	4440
2026-01-15 03:16:41.59	10.45	22.87	-53.1	-55.0	14.4	0.00e+00	0	28	0	429916160	72	4442
2026-01-15 03:16:42.58	10.24	22.96	-53.1	-54.9	14.4	0.00e+00	0	28	0	432013312	72	4423
2026-01-15 03:16:43.58	10.03	23.05	-53.0	-54.8	14.5	0.00e+00	0	28	0	433061888	72	4385
2026-01-15 03:16:44.58	9.81	23.14	-53.0	-54.8	14.5	0.00e+00	0	28	0	435159040	72	4363
2026-01-15 03:16:45.58	9.59	23.23	-52.9	-54.7	14.6	0.00e+00	0	28	0	437256192	72	4311
2026-01-15 03:16:46.57	9.38	23.32	-52.8	-54.6	14.6	0.00e+00	0	28	0	439353344	72	4256
2026-01-15 03:16:47.57	9.16	23.41	-52.8	-54.5	14.6	0.00e+00	0	28	0	441450496	72	4233
2026-01-15 03:16:48.57	8.94	23.50	-52.6	-54.4	14.5	0.00e+00	0	28	0	442499072	71	4408
2026-01-15 03:16:49.57	8.72	23.59	-52.7	-54.4	14.5	0.00e+00	0	28	0	444596224	71	4437
2026-01-15 03:16:50.57	8.49	23.68	-52.6	-54.4	14.6	0.00e+00	0	28	0	446693376	71	4393
2026-01-15 03:16:51.57	8.27	23.77	-52.7	-54.4	14.5	0.00e+00	0	28	0	448790528	71	4441
2026-01-15 03:16:52.56	8.05	23.86	-52.7	-54.4	14.6	0.00e+00	0	28	0	450887680	71	4423
2026-01-15 03:16:53.57	7.82	23.96	-52.8	-54.6	14.5	0.00e+00	0	28	0	451936256	71	4501
2026-01-15 03:16:54.57	7.59	24.05	-52.7	-54.5	14.5	0.00e+00	0	28	0	454033408	71	4476
2026-01-15 03:16:55.56	7.36	24.13	-52.6	-54.4	14.6	0.00e+00	0	28	0	456130560	71	4408
2026-01-15 03:16:56.56	7.13	24.22	-52.7	-54.4	14.5	0.00e+00	0	28	0	458227712	71	4433
2026-01-15 03:16:57.56	6.90	24.31	-52.6	-54.4	14.6	0.00e+00	0	28	0	459276288	71	4393
2026-01-15 03:16:58.55	6.66	24.40	-52.6	-54.4	14.5	0.00e+00	0	28	0	461373440	71	4407
2026-01-15 03:16:59.56	6.43	24.49	-52.7	-54.4	14.5	0.00e+00	0	28	0	463470592	71	4424
2026-01-15 03:17:00.56	6.19	24.58	-52.4	-54.1	14.7	0.00e+00	0	28	0	465567744	71	4263
2026-01-15 03:17:01.57	5.95	24.67	-52.4	-54.1	14.7	0.00e+00	0	28	0	467664896	71	4251
2026-01-15 03:17:02.56	5.71	24.76	-52.4	-54.1	14.7	0.00e+00	0	28	0	468713472	71	4250
2026-01-15 03:17:03.55	5.47	24.84	-52.4	-54.1	14.7	0.00e+00	0	28	0	470810624	71	4247
2026-01-15 03:17:04.55	5.23	24.93	-52.4	-54.1	14.7	0.00e+00	0	28	0	472907776	71	4264
2026-01-15 03:17:05.55	4.99	25.02	-52.4	-54.1	14.7	0.00e+00	0	28	0	475004928	71	4269
2026-01-15 03:17:06.55	4.74	25.11	-52.4	-54.1	14.7	0.00e+00	0	28	0	476053504	71	4281
2026-01-15 03:17:07.55	4.50	25.19	-52.5	-54.2	14.7	0.00e+00	0	28	0	478150656	71	4308
2026-01-15 03:17:08.55	4.25	25.28	-52.5	-54.2	14.6	0.00e+00	0	28	0	480247808	71	4330
2026-01-15 03:17:09.55	4.00	25.36	-52.5	-54.2	14.6	0.00e+00	0	28	0	482344960	71	4318
2026-01-15 03:17:10.54	3.75	25.45	-52.4	-54.1	14.7	0.00e+00	0	28	0	484442112	71	4269
2026-01-15 03:17:11.54	3.50	25.54	-52.5	-54.2	14.6	0.00e+00	0	28	0	485490688	71	4333
2026-01-15 03:17:12.54	3.25	25.62	-52.7	-54.4	14.6	0.00e+00	0	28	0	487587840	71	4438
2026-01-15 03:17:13.53	3.00	25.70	-52.9	-54.7	14.4	0.00e+00	0	28	0	489684992	71	4558
2026-01-15 03:17:14.53	2.74	25.79	-53.0	-54.8	14.4	0.00e+00	0	28	0	491782144	71	4643
2026-01-15 03:17:15.53	2.48	25.87	-53.0	-54.9	14.3	0.00e+00	0	28	0	493879296	71	4669
2026-01-15 03:17:16.53	2.23	25.96	-53.2	-55.0	14.3	0.00e+00	0	28	0	494927872	71	4752
2026-01-15 03:17:17.53	1.97	26.04	-53.2	-55.1	14.3	0.00e+00	0	28	0	497025024	71	4814
2026-01-15 03:17:18.52	1.71	26.12	-53.1	-55.0	14.3	0.00e+00	0	28	0	499122176	71	4737
2026-01-15 03:17:19.51	1.45	26.20	-53.0	-54.9	14.4	0.00e+00	0	28	0	501219328	71	4673
2026-01-15 03:17:20.50	1.19	26.29	-53.0	-54.9	14.3	0.00e+00	0	28	0	502267904	71	4667
2026-01-15 03:17:21.50	0.92	26.37	-53.0	-54.8	14.4	0.00e+00	0	28	0	504365056	71	4650
2026-01-15 03:17:22.50	0.65	26.45	-53.2	-55.0	14.3	0.00e+00	0	28	0	506462208	71	4755
2026-01-15 03:17:23.50	0.39	26.53	-53.4	-55.3	14.2	0.00e+00	0	28	0	508559360	71	4924
2026-01-15 03:17:24.49	0.12	26.61	-53.5	-55.4	14.2	0.00e+00	0	28	0	510656512	72	4685
2026-01-15 03:17:25.49	359.85	26.69	-53.6	-55.5	14.2	0.00e+00	0	28	0	511705088	72	4758
2026-01-15 03:17:26.49	359.58	26.77	-53.4	-55.3	14.3	0.00e+00	0	28	0	513802240	72	4623
2026-01-15 03:17:27.49	359.30	26.85	-53.4	-55.3	14.3	0.00e+00	0	28	0	515899392	72	4622
2026-01-15 03:17:28.49	359.03	26.93	-53.5	-55.4	14.2	0.00e+00	0	28	0	517996544	72	4672
2026-01-15 03:17:29.49	358.75	27.00	-53.4	-55.4	14.3	0.00e+00	0	28	0	520093696	72	4661
2026-01-15 03:17:30.48	358.48	27.08	-53.6	-55.6	14.1	0.00e+00	0	28	0	521142272	72	4809
2026-01-15 03:17:31.48	358.20	27.16	-53.7	-55.8	14.1	0.00e+00	0	28	0	523239424	72	4879
2026-01-15 03:17:32.48	357.92	27.23	-53.9	-56.0	14.0	0.00e+00	0	28	0	525336576	72	4992
2026-01-15 03:17:33.47	357.64	27.31	-53.8	-55.8	14.1	0.00e+00	0	28	0	527433728	72	4902
2026-01-15 03:17:34.46	357.36	27.38	-53.7	-55.8	14.1	0.00e+00	0	28	0	528482304	72	4871
2026-01-15 03:17:35.45	357.08	27.46	-53.7	-55.7	14.1	0.00e+00	0	28	0	530579456	72	4829
2026-01-15 03:17:36.45	356.79	27.53	-53.8	-55.8	14.1	0.00e+00	0	28	0	532676608	72	4901
2026-01-15 03:17:37.44	356.51	27.60	-53.8	-55.8	14.1	0.00e+00	0	28	0	534773760	72	4897
2026-01-15 03:17:38.44	356.22	27.68	-54.0	-56.0	14.1	0.00e+00	0	28	0	536870912	73	4748
2026-01-15 03:17:39.43	355.93	27.75	-53.8	-55.9	14.2	0.00e+00	0	28	0	537919488	73	4656
2026-01-15 03:17:40.42	355.64	27.82	-53.7	-55.7	14.2	0.00e+00	0	28	0	540016640	73	4584
2026-01-15 03:17:41.43	355.35	27.89	-53.8	-55.8	14.2	0.00e+00	0	28	0	542113792	73	4615
2026-01-15 03:17:42.43	355.05	27.96	-53.8	-55.8	14.2	0.00e+00	0	28	0	544210944	73	4610
2026-01-15 03:17:43.42	354.76	28.03	-53.8	-55.8	14.2	0.00e+00	0	28	0	545259520	73	4621
2026-01-15 03:17:44.42	354.47	28.10	-53.8	-55.8	14.2	0.00e+00	0	28	0	547356672	73	4623
2026-01-15 03:17:45.41	354.17	28.17	-53.7	-55.7	14.2	0.00e+00	0	28	0	549453824	73	4568
2026-01-15 03:17:46.41	353.87	28.24	-53.7	-55.7	14.2	0.00e+00	0	28	0	551550976	73	4569
2026-01-15 03:17:47.40	353.58	28.30	-53.7	-55.7	14.2	0.00e+00	0	28	0	553648128	73	4560
2026-01-15 03:17:48.39	353.28	28.37	-53.7	-55.6	14.3	0.00e+00	0	28	0	554696704	73	4540
2026-01-15 03:17:49.39	352.97	28.43	-53.7	-55.7	14.2	0.00e+00	0	28	0	556793856	73	4588
2026-01-15 03:17:50.39	352.67	28.50	-53.8	-55.8	14.2	0.00e+00	0	28	0	558891008	73	4605
2026-01-15 03:17:51.39	352.37	28.56	-53.9	-56.0	14.1	0.00e+00	0	28	0	560988160	73	4715
2026-01-15 03:17:52.39	352.06	28.62	-53.9	-55.9	14.1	0.00e+00	0	28	0	562036736	73	4700
2026-01-15 03:17:53.39	351.75	28.69	-53.9	-56.0	14.1	0.00e+00	0	28	0	564133888	73	4734
2026-01-15 03:17:54.39	351.44	28.75	-54.0	-56.0	14.1	0.00e+00	0	28	0	566231040	73	4749
2026-01-15 03:17:55.39	351.13	28.81	-54.0	-56.0	14.1	0.00e+00	0	28	0	568328192	73	4755
2026-01-15 03:17:56.39	350.82	28.87	-54.1	-56.3	14.0	0.00e+00	0	28	0	570425344	73	4877
2026-01-15 03:17:57.38	350.51	28.93	-54.2	-56.4	13.9	0.00e+00	0	28	0	571473920	73	4945
2026-01-15 03:17:58.38	350.20	28.99	-54.2	-56.3	14.0	0.00e+00	0	28	0	573571072	73	4922
2026-01-15 03:17:59.38	349.89	29.04	-54.0	-56.2	14.0	0.00e+00	0	28	0	575668224	73	4818
2026-01-15 03:18:00.38	349.57	29.10	-54.0	-56.1	14.0	0.00e+00	0	28	0	577765376	73	4807
2026-01-15 03:18:01.38	349.25	29.16	-53.9	-56.0	14.1	0.00e+00	0	28	0	579862528	73	4737
2026-01-15 03:18:02.37	348.94	29.21	-54.0	-56.1	14.1	0.00e+00	0	28	0	580911104	73	4806
2026-01-15 03:18:03.37	348.62	29.27	-54.2	-56.4	13.9	0.00e+00	0	28	0	583008256	73	4969
2026-01-15 03:18:04.37	348.30	29.32	-54.2	-56.4	13.9	0.00e+00	0	28	0	585105408	73	4946
2026-01-15 03:18:05.37	347.98	29.37	-54.2	-56.3	14.0	0.00e+00	0	28	0	587202560	73	4896
2026-01-15 03:18:06.37	347.66	29.42	-54.1	-56.1	14.0	0.00e+00	0	28	0	589299712	73	4812
2026-01-15 03:18:07.37	347.33	29.47	-54.2	-56.4	14.0	0.00e+00	0	28	0	590348288	73	4928
2026-01-15 03:18:08.36	347.01	29.52	-54.3	-56.5	13.9	0.00e+00	0	28	0	592445440	73	4988
2026-01-15 03:18:09.37	346.68	29.57	-54.5	-56.7	13.9	0.00e+00	0	28	0	594542592	74	4869
2026-01-15 03:18:10.36	346.36	29.62	-54.6	-56.9	13.8	0.00e+00	0	28	0	596639744	74	4971
2026-01-15 03:18:11.35	346.04	29.66	-54.4	-56.6	13.9	0.00e+00	0	28	0	597688320	74	4765
2026-01-15 03:18:12.35	345.71	29.71	-54.3	-56.4	14.0	0.00e+00	0	28	0	599785472	74	4674
2026-01-15 03:18:13.35	345.38	29.75	-54.2	-56.3	14.1	0.00e+00	0	28	0	601882624	74	4625
2026-01-15 03:18:14.35	345.05	29.80	-54.3	-56.4	14.0	0.00e+00	0	28	0	603979776	74	4696
2026-01-15 03:18:15.35	344.72	29.84	-54.4	-56.6	13.9	0.00e+00	0	28	0	606076928	74	4783
2026-01-15 03:18:16.34	344.39	29.88	-54.5	-56.7	13.9	0.00e+00	0	28	0	607125504	74	4839
2026-01-15 03:18:17.34	344.06	29.92	-54.5	-56.7	13.8	0.00e+00	0	28	0	609222656	74	4850
2026-01-15 03:18:18.34	343.73	29.96	-54.4	-56.6	13.9	0.00e+00	0	28	0	611319808	74	4767
2026-01-15 03:18:19.34	343.39	30.00	-54.4	-56.5	13.9	0.00e+00	0	28	0	613416960	74	4758
2026-01-15 03:18:20.34	343.06	30.04	-54.3	-56.4	14.0	0.00e+00	0	28	0	614465536	74	4699
2026-01-15 03:18:21.35	342.72	30.08	-54.3	-56.4	14.0	0.00e+00	0	28	0	616562688	74	4669
2026-01-15 03:18:22.35	342.38	30.11	-54.3	-56.5	14.0	0.00e+00	0	28	0	618659840	74	4730
2026-01-15 03:18:23.35	342.04	30.15	-54.3	-56.5	14.0	0.00e+00	0	28	0	620756992	74	4742
2026-01-15 03:18:24.35	341.71	30.18	-54.3	-56.5	14.0	0.00e+00	0	28	0	622854144	74	4722
2026-01-15 03:18:25.35	341.37	30.21	-54.3	-56.5	14.0	0.00e+00	0	28	0	623902720	74	4709
2026-01-15 03:18:26.34	341.03	30.24	-54.2	-56.4	14.0	0.00e+00	0	28	0	625999872	74	4669
2026-01-15 03:18:27.34	340.69	30.27	-54.2	-56.4	14.1	0.00e+00	0	28	0	628097024	74	4652
2026-01-15 03:18:28.33	340.35	30.30	-54.2	-56.4	14.0	0.00e+00	0	28	0	630194176	74	4652
2026-01-15 03:18:29.33	340.01	30.33	-54.5	-56.7	13.9	0.00e+00	0	28	0	632291328	74	4820
2026-01-15 03:18:30.33	339.67	30.35	-54.6	-56.9	13.8	0.00e+00	0	28	0	633339904	74	4936
2026-01-15 03:18:31.32	339.33	30.38	-54.8	-57.1	13.7	0.00e+00	0	28	0	635437056	74	5060
2026-01-15 03:18:32.32	338.99	30.40	-54.8	-57.2	13.7	0.00e+00	0	28	0	637534208	74	5114
2026-01-15 03:18:33.31	338.65	30.43	-54.9	-57.3	13.6	0.00e+00	0	28	0	639631360	74	5217
2026-01-15 03:18:34.30	338.31	30.45	-54.8	-57.1	13.8	0.00e+00	0	28	0	640679936	75	4807
2026-01-15 03:18:35.29	337.97	30.47	-54.6	-56.9	13.9	0.00e+00	0	28	0	642777088	75	4652
2026-01-15 03:18:36.29	337.62	30.49	-54.8	-57.1	13.8	0.00e+00	0	28	0	644874240	75	4777
2026-01-15 03:18:37.29	337.28	30.51	-54.8	-57.1	13.8	0.00e+00	0	28	0	646971392	75	4776
2026-01-15 03:18:38.29	336.93	30.53	-54.7	-57.0	13.8	0.00e+00	0	28	0	649068544	75	4757
2026-01-15 03:18:39.28	336.59	30.54	-54.8	-57.2	13.7	0.00e+00	0	28	0	650117120	75	4826
2026-01-15 03:18:40.27	336.25	30.56	-54.9	-57.2	13.7	0.00e+00	0	28	0	652214272	75	4866
2026-01-15 03:18:41.26	335.91	30.57	-55.0	-57.4	13.6	0.00e+00	0	28	0	654311424	75	4957
2026-01-15 03:18:42.25	335.56	30.58	-55.0	-57.4	13.6	0.00e+00	0	28	0	656408576	75	4975
2026-01-15 03:18:43.24	335.22	30.60	-55.0	-57.5	13.6	0.00e+00	0	28	0	657457152	75	4997
2026-01-15 03:18:44.24	334.87	30.61	-55.1	-57.5	13.6	0.00e+00	0	28	0	659554304	75	5020
2026-01-15 03:18:45.23	334.53	30.62	-55.2	-57.7	13.5	0.00e+00	0	28	0	661651456	75	5104
2026-01-15 03:18:46.23	334.18	30.62	-55.4	-58.0	13.4	0.00e+00	0	28	0	663748608	75	5299
2026-01-15 03:18:47.23	333.83	30.63	-55.5	-58.1	13.4	0.00e+00	0	28	0	665845760	76	5089
2026-01-15 03:18:48.23	333.48	30.64	-55.5	-58.1	13.4	0.00e+00	0	28	0	666894336	76	5052
2026-01-15 03:18:49.23	333.14	30.64	-55.4	-58.0	13.5	0.00e+00	0	28	0	668991488	76	4989
2026-01-15 03:18:50.23	332.79	30.64	-55.4	-57.9	13.5	0.00e+00	0	28	0	671088640	76	4982
2026-01-15 03:18:51.23	332.44	30.65	-55.5	-58.1	13.4	0.00e+00	0	28	0	673185792	76	5097
2026-01-15 03:18:52.23	332.09	30.65	-55.6	-58.3	13.3	0.00e+00	0	28	0	675282944	76	5196
2026-01-15 03:18:53.23	331.74	30.65	-55.7	-58.4	13.2	0.00e+00	0	28	0	676331520	76	5263
2026-01-15 03:18:54.23	331.39	30.65	-55.6	-58.3	13.3	0.00e+00	0	28	0	678428672	76	5172
2026-01-15 03:18:55.22	331.05	30.64	-55.6	-58.3	13.3	0.00e+00	0	28	0	680525824	76	5205
2026-01-15 03:18:56.22	330.70	30.64	-55.5	-58.1	13.4	0.00e+00	0	28	0	682622976	76	5067
2026-01-15 03:18:57.21	330.36	30.64	-55.3	-57.8	13.5	0.00e+00	0	28	0	683671552	76	4911
2026-01-15 03:18:58.22	330.00	30.63	-55.0	-57.4	13.8	0.00e+00	0	28	0	685768704	76	4671
2026-01-15 03:18:59.21	329.66	30.62	-54.8	-57.1	13.9	0.00e+00	0	28	0	687865856	76	4524
2026-01-15 03:19:00.22	329.31	30.61	-54.8	-57.1	13.9	0.00e+00	0	28	0	689963008	76	4523
2026-01-15 03:19:01.23	328.96	30.60	-55.0	-57.3	13.8	0.00e+00	0	28	0	692060160	76	4643
2026-01-15 03:19:02.22	328.61	30.59	-55.0	-57.3	13.8	0.00e+00	0	28	0	693108736	76	4621
2026-01-15 03:19:03.22	328.27	30.58	-54.9	-57.3	13.8	0.00e+00	0	28	0	695205888	76	4602
2026-01-15 03:19:04.22	327.92	30.57	-54.9	-57.1	13.9	0.00e+00	0	28	0	697303040	76	4545
2026-01-15 03:19:05.22	327.57	30.55	-54.6	-56.9	13.9	0.00e+00	0	28	0	699400192	75	4685
2026-01-15 03:19:06.22	327.23	30.54	-54.6	-56.9	13.9	0.00e+00	0	28	0	701497344	75	4654
2026-01-15 03:19:07.21	326.88	30.52	-54.4	-56.6	14.1	0.00e+00	0	28	0	702545920	75	4502
2026-01-15 03:19:08.20	326.54	30.50	-54.4	-56.5	14.1	0.00e+00	0	28	0	704643072	75	4462
2026-01-15 03:19:09.20	326.20	30.48	-54.3	-56.4	14.1	0.00e+00	0	28	0	706740224	75	4438
2026-01-15 03:19:10.20	325.85	30.46	-54.3	-56.5	14.1	0.00e+00	0	28	0	708837376	75	4442
2026-01-15 03:19:11.21	325.50	30.44	-54.3	-56.5	14.1	0.00e+00	0	28	0	709885952	75	4445
2026-01-15 03:19:12.20	325.16	30.42	-54.5	-56.7	14.0	0.00e+00	0	28	0	711983104	75	4556
2026-01-15 03:19:13.20	324.82	30.40	-54.7	-56.9	13.9	0.00e+00	0	28	0	714080256	75	4691
2026-01-15 03:19:14.20	324.48	30.37	-54.6	-56.9	13.9	0.00e+00	0	28	0	716177408	75	4673
2026-01-15 03:19:15.20	324.14	30.35	-54.5	-56.7	14.0	0.00e+00	0	28	0	718274560	75	4552
2026-01-15 03:19:16.19	323.80	30.32	-54.6	-56.8	13.9	0.00e+00	0	28	0	719323136	75	4624
2026-01-15 03:19:17.19	323.46	30.29	-54.7	-57.0	13.9	0.00e+00	0	28	0	721420288	75	4716
2026-01-15 03:19:18.20	323.11	30.26	-54.5	-56.7	14.0	0.00e+00	0	28	0	723517440	75	4575
2026-01-15 03:19:19.20	322.77	30.23	-54.3	-56.5	14.1	0.00e+00	0	28	0	725614592	75	4467
2026-01-15 03:19:20.20	322.43	30.20	-54.4	-56.6	14.0	0.00e+00	0	28	0	726663168	75	4525
2026-01-15 03:19:21.20	322.10	30.17	-54.4	-56.6	14.1	0.00e+00	0	28	0	728760320	75	4503
2026-01-15 03:19:22.20	321.76	30.13	-54.4	-56.6	14.1	0.00e+00	0	28	0	730857472	75	4519
2026-01-15 03:19:23.20	321.42	30.10	-54.4	-56.6	14.1	0.00e+00	0	28	0	732954624	75	4511
2026-01-15 03:19:24.19	321.09	30.06	-54.4	-56.6	14.0	0.00e+00	0	28	0	735051776	75	4530
2026-01-15 03:19:25.20	320.75	30.03	-54.4	-56.5	14.1	0.00e+00	0	28	0	736100352	75	4461
2026-01-15 03:19:26.19	320.42	29.99	-54.4	-56.6	14.1	0.00e+00	0	28	0	738197504	75	4517
2026-01-15 03:19:27.20	320.08	29.95	-54.4	-56.6	14.1	0.00e+00	0	28	0	740294656	75	4500
2026-01-15 03:19:28.20	319.75	29.91	-54.4	-56.6	14.0	0.00e+00	0	28	0	742391808	75	4532
2026-01-15 03:19:29.20	319.41	29.87	-54.4	-56.6	14.1	0.00e+00	0	28	0	744488960	75	4499
2026-01-15 03:19:30.19	319.09	29.83	-54.3	-56.4	14.2	0.00e+00	0	28	0	745537536	75	4401
2026-01-15 03:19:31.19	318.75	29.78	-54.2	-56.2	14.1	0.00e+00	0	28	0	747634688	74	4584
2026-01-15 03:19:32.19	318.43	29.74	-54.0	-56.0	14.2	0.00e+00	0	28	0	749731840	74	4477
2026-01-15 03:19:33.18	318.10	29.70	-54.1	-56.2	14.1	0.00e+00	0	28	0	751828992	74	4569
2026-01-15 03:19:34.18	317.77	29.65	-54.2	-56.3	14.1	0.00e+00	0	28	0	753926144	74	4602
2026-01-15 03:19:35.17	317.45	29.60	-54.3	-56.5	14.0	0.00e+00	0	28	0	754974720	74	4722
2026-01-15 03:19:36.17	317.12	29.56	-54.4	-56.6	14.0	0.00e+00	0	28	0	757071872	74	4762
2026-01-15 03:19:37.17	316.80	29.51	-54.4	-56.6	14.0	0.00e+00	0	28	0	759169024	74	4784
2026-01-15 03:19:38.16	316.48	29.46	-54.5	-56.7	13.9	0.00e+00	0	28	0	761266176	74	4828
2026-01-15 03:19:39.16	316.15	29.41	-54.5	-56.8	13.9	0.00e+00	0	28	0	762314752	74	4875
2026-01-15 03:19:40.15	315.83	29.35	-54.6	-56.8	13.9	0.00e+00	0	28	0	764411904	74	4894
2026-01-15 03:19:41.16	315.51	29.30	-54.6	-56.8	13.8	0.00e+00	0	28	0	766509056	74	4911
2026-01-15 03:19:42.16	315.19	29.25	-54.6	-56.9	13.8	0.00e+00	0	28	0	768606208	74	4937
2026-01-15 03:19:43.16	314.87	29.19	-54.7	-57.1	13.7	0.00e+00	0	28	0	770703360	74	5047
2026-01-15 03:19:44.16	314.55	29.14	-54.8	-57.2	13.6	0.00e+00	0	28	0	771751936	74	5136
2026-01-15 03:19:45.16	314.24	29.08	-54.8	-57.2	13.7	0.00e+00	0	28	0	773849088	74	5121
2026-01-15 03:19:46.16	313.92	29.03	-54.9	-57.3	13.7	0.00e+00	0	28	0	775946240	75	4871
2026-01-15 03:19:47.16	313.61	28.97	-54.8	-57.1	13.8	0.00e+00	0	28	0	778043392	75	4768
2026-01-15 03:19:48.16	313.29	28.91	-54.7	-57.0	13.8	0.00e+00	0	28	0	779091968	75	4727
2026-01-15 03:19:49.16	312.98	28.85	-54.8	-57.1	13.8	0.00e+00	0	28	0	781189120	75	4805
2026-01-15 03:19:50.16	312.67	28.79	-54.8	-57.1	13.8	0.00e+00	0	28	0	783286272	75	4792
2026-01-15 03:19:51.15	312.36	28.73	-54.9	-57.2	13.7	0.00e+00	0	28	0	785383424	75	4860
2026-01-15 03:19:52.14	312.06	28.67	-54.8	-57.2	13.8	0.00e+00	0	28	0	787480576	75	4846
2026-01-15 03:19:53.14	311.75	28.60	-54.8	-57.1	13.8	0.00e+00	0	28	0	788529152	75	4813
2026-01-15 03:19:54.13	311.45	28.54	-54.9	-57.3	13.7	0.00e+00	0	28	0	790626304	75	4879
2026-01-15 03:19:55.12	311.15	28.48	-54.9	-57.3	13.7	0.00e+00	0	28	0	792723456	75	4888
2026-01-15 03:19:56.12	310.84	28.41	-55.1	-57.6	13.6	0.00e+00	0	28	0	794820608	75	5044
2026-01-15 03:19:57.13	310.54	28.35	-55.2	-57.7	13.5	0.00e+00	0	28	0	796917760	75	5128
2026-01-15 03:19:58.12	310.24	28.28	-55.2	-57.8	13.5	0.00e+00	0	28	0	797966336	75	5186
2026-01-15 03:19:59.13	309.94	28.21	-55.3	-57.8	13.4	0.00e+00	0	28	0	800063488	75	5217
2026-01-15 03:20:00.13	309.64	28.14	-55.2	-57.7	13.5	0.00e+00	0	28	0	802160640	75	5104
2026-01-15 03:20:01.12	309.34	28.08	-55.0	-57.4	13.7	0.00e+00	0	28	0	804257792	75	4937
2026-01-15 03:20:02.12	309.05	28.01	-54.8	-57.2	13.8	0.00e+00	0	28	0	805306368	75	4823
2026-01-15 03:20:03.12	308.75	27.94	-54.9	-57.2	13.7	0.00e+00	0	28	0	807403520	75	4859
2026-01-15 03:20:04.12	308.46	27.87	-54.7	-57.0	13.9	0.00e+00	0	28	0	809500672	75	4733
2026-01-15 03:20:05.12	308.17	27.80	-54.5	-56.6	14.0	0.00e+00	0	28	0	811597824	75	4533
2026-01-15 03:20:06.12	307.88	27.72	-54.5	-56.7	14.0	0.00e+00	0	28	0	813694976	75	4587
2026-01-15 03:20:07.12	307.59	27.65	-54.5	-56.8	14.0	0.00e+00	0	28	0	814743552	75	4606
2026-01-15 03:20:08.13	307.29	27.58	-54.6	-56.9	13.9	0.00e+00	0	28	0	816840704	75	4658
2026-01-15 03:20:09.12	307.01	27.50	-54.6	-56.8	14.0	0.00e+00	0	28	0	818937856	75	4631
2026-01-15 03:20:10.12	306.72	27.43	-54.5	-56.7	14.0	0.00e+00	0	28	0	821035008	75	4583
2026-01-15 03:20:11.12	306.44	27.35	-54.7	-57.0	13.9	0.00e+00	0	28	0	823132160	75	4710
2026-01-15 03:20:12.12	306.16	27.28	-54.6	-56.8	13.9	0.00e+00	0	28	0	824180736	75	4639
2026-01-15 03:20:13.12	305.88	27.20	-54.6	-56.8	13.9	0.00e+00	0	28	0	826277888	75	4639
2026-01-15 03:20:14.12	305.60	27.13	-54.5	-56.7	14.0	0.00e+00	0	28	0	828375040	75	4574
2026-01-15 03:20:15.12	305.32	27.05	-54.5	-56.7	14.0	0.00e+00	0	28	0	830472192	75	4575
2026-01-15 03:20:16.12	305.04	26.97	-54.2	-56.3	14.2	0.00e+00	0	28	0	832569344	75	4360
2026-01-15 03:20:17.12	304.76	26.89	-54.1	-56.1	14.2	0.00e+00	0	28	0	833617920	74	4518
2026-01-15 03:20:18.12	304.49	26.81	-54.0	-56.0	14.2	0.00e+00	0	28	0	835715072	74	4483
2026-01-15 03:20:19.12	304.22	26.73	-54.1	-56.2	14.2	0.00e+00	0	28	0	837812224	74	4556
2026-01-15 03:20:20.13	303.94	26.65	-54.1	-56.1	14.2	0.00e+00	0	28	0	839909376	74	4545
2026-01-15 03:20:21.13	303.67	26.57	-54.2	-56.3	14.1	0.00e+00	0	28	0	840957952	74	4631
2026-01-15 03:20:22.13	303.40	26.49	-54.3	-56.4	14.0	0.00e+00	0	28	0	843055104	74	4705
2026-01-15 03:20:23.14	303.13	26.41	-54.3	-56.5	14.0	0.00e+00	0	28	0	845152256	74	4723
2026-01-15 03:20:24.13	302.87	26.33	-54.2	-56.3	14.1	0.00e+00	0	28	0	847249408	74	4631
2026-01-15 03:20:25.13	302.60	26.25	-54.1	-56.1	14.2	0.00e+00	0	28	0	849346560	74	4526
2026-01-15 03:20:26.13	302.34	26.17	-53.9	-55.8	14.3	0.00e+00	0	28	0	850395136	74	4384
2026-01-15 03:20:27.14	302.07	26.08	-53.9	-55.9	14.3	0.00e+00	0	28	0	852492288	74	4407
2026-01-15 03:20:28.14	301.81	26.00	-53.7	-55.7	14.4	0.00e+00	0	28	0	854589440	74	4296
2026-01-15 03:20:29.14	301.55	25.92	-53.7	-55.6	14.4	0.00e+00	0	28	0	856686592	74	4280
2026-01-15 03:20:30.13	301.30	25.83	-53.7	-55.6	14.4	0.00e+00	0	28	0	858783744	74	4252
2026-01-15 03:20:31.13	301.04	25.75	-53.5	-55.4	14.4	0.00e+00	0	28	0	859832320	73	4426
2026-01-15 03:20:32.13	300.78	25.66	-53.6	-55.6	14.3	0.00e+00	0	28	0	861929472	73	4497
2026-01-15 03:20:33.12	300.53	25.58	-53.5	-55.4	14.4	0.00e+00	0	28	0	864026624	73	4431
2026-01-15 03:20:34.12	300.28	25.49	-53.6	-55.5	14.4	0.00e+00	0	28	0	866123776	73	4489
2026-01-15 03:20:35.12	300.03	25.41	-53.5	-55.4	14.4	0.00e+00	0	28	0	868220928	73	4409
2026-01-15 03:20:36.12	299.78	25.32	-53.4	-55.2	14.5	0.00e+00	0	28	0	869269504	73	4330
2026-01-15 03:20:37.11	299.53	25.24	-53.3	-55.1	14.5	0.00e+00	0	28	0	871366656	73	4277
2026-01-15 03:20:38.11	299.28	25.15	-53.3	-55.1	14.5	0.00e+00	0	28	0	873463808	73	4273
2026-01-15 03:20:39.11	299.04	25.06	-53.4	-55.2	14.5	0.00e+00	0	28	0	875560960	73	4330
2026-01-15 03:20:40.10	298.80	24.98	-53.3	-55.1	14.5	0.00e+00	0	28	0	876609536	73	4285
2026-01-15 03:20:41.09	298.56	24.89	-53.3	-55.1	14.5	0.00e+00	0	28	0	878706688	73	4264
2026-01-15 03:20:42.09	298.31	24.80	-53.3	-55.1	14.6	0.00e+00	0	28	0	880803840	73	4255
2026-01-15 03:20:43.08	298.08	24.71	-53.0	-54.8	14.6	0.00e+00	0	28	0	882900992	72	4369
2026-01-15 03:20:44.08	297.84	24.62	-53.0	-54.8	14.6	0.00e+00	0	28	0	884998144	72	4371
2026-01-15 03:20:45.07	297.60	24.54	-53.0	-54.7	14.6	0.00e+00	0	28	0	886046720	72	4332
2026-01-15 03:20:46.06	297.37	24.45	-52.8	-54.5	14.7	0.00e+00	0	28	0	888143872	72	4207
2026-01-15 03:20:47.06	297.13	24.36	-52.7	-54.4	14.6	0.00e+00	0	28	0	890241024	71	4416
2026-01-15 03:20:48.05	296.90	24.27	-52.6	-54.3	14.6	0.00e+00	0	28	0	892338176	71	4363
2026-01-15 03:20:49.05	296.67	24.18	-52.5	-54.2	14.7	0.00e+00	0	28	0	893386752	71	4311
2026-01-15 03:20:50.05	296.44	24.09	-52.6	-54.3	14.7	0.00e+00	0	28	0	895483904	71	4349
2026-01-15 03:20:51.05	296.21	24.00	-52.6	-54.3	14.7	0.00e+00	0	28	0	897581056	71	4364
2026-01-15 03:20:52.05	295.98	23.91	-52.6	-54.3	14.7	0.00e+00	0	28	0	899678208	71	4342
2026-01-15 03:20:53.05	295.75	23.82	-52.6	-54.3	14.7	0.00e+00	0	28	0	901775360	71	4349
2026-01-15 03:20:54.06	295.52	23.73	-52.6	-54.2	14.7	0.00e+00	0	28	0	902823936	71	4334
2026-01-15 03:20:55.06	295.30	23.64	-52.3	-53.9	14.8	0.00e+00	0	28	0	904921088	71	4178
2026-01-15 03:20:56.06	295.08	23.55	-52.2	-53.8	14.9	0.00e+00	0	28	0	907018240	71	4121
2026-01-15 03:20:57.06	294.85	23.46	-52.1	-53.7	14.7	0.00e+00	0	28	0	909115392	70	4325
2026-01-15 03:20:58.05	294.64	23.37	-52.2	-53.8	14.8	0.00e+00	0	28	0	910163968	70	4349
2026-01-15 03:20:59.06	294.42	23.28	-52.2	-53.9	14.7	0.00e+00	0	28	0	912261120	70	4396
2026-01-15 03:21:00.06	294.20	23.18	-52.3	-53.9	14.7	0.00e+00	0	28	0	914358272	70	4418
2026-01-15 03:21:01.06	293.98	23.09	-52.1	-53.7	14.8	0.00e+00	0	28	0	916455424	70	4340
2026-01-15 03:21:02.06	293.76	23.00	-52.1	-53.7	14.8	0.00e+00	0	28	0	918552576	70	4312
2026-01-15 03:21:03.06	293.55	22.91	-52.0	-53.6	14.8	0.00e+00	0	28	0	919601152	70	4272
2026-01-15 03:21:04.05	293.34	22.82	-51.9	-53.4	14.9	0.00e+00	0	28	0	921698304	70	4179
2026-01-15 03:21:05.06	293.13	22.73	-51.6	-53.1	14.9	0.00e+00	0	28	0	923795456	69	4256
2026-01-15 03:21:06.06	292.92	22.63	-51.4	-52.9	15.0	0.00e+00	0	28	0	925892608	69	4160
2026-01-15 03:21:07.05	292.71	22.54	-51.4	-52.9	15.0	0.00e+00	0	28	0	927989760	69	4156
2026-01-15 03:21:08.05	292.50	22.45	-51.5	-53.0	14.9	0.00e+00	0	28	0	929038336	69	4214
2026-01-15 03:21:09.05	292.29	22.36	-51.5	-52.9	14.9	0.00e+00	0	28	0	931135488	69	4193
2026-01-15 03:21:10.04	292.09	22.27	-51.5	-53.0	14.9	0.00e+00	0	28	0	933232640	69	4196
2026-01-15 03:21:11.04	291.89	22.17	-51.6	-53.1	14.9	0.00e+00	0	28	0	935329792	69	4269
2026-01-15 03:21:12.04	291.68	22.08	-51.7	-53.3	14.8	0.00e+00	0	28	0	936378368	69	4341
2026-01-15 03:21:13.04	291.48	21.99	-51.7	-53.2	14.8	0.00e+00	0	28	0	938475520	69	4306
2026-01-15 03:21:14.05	291.28	21.90	-51.7	-53.2	14.8	0.00e+00	0	28	0	940572672	69	4335
2026-01-15 03:21:15.06	291.08	21.80	-51.6	-53.1	14.9	0.00e+00	0	28	0	942669824	69	4286
2026-01-15 03:21:16.05	290.88	21.71	-51.4	-52.8	15.0	0.00e+00	0	28	0	944766976	69	4143
2026-01-15 03:21:17.05	290.69	21.62	-51.3	-52.8	15.0	0.00e+00	0	28	0	945815552	69	4128
2026-01-15 03:21:18.05	290.49	21.52	-51.4	-52.9	14.9	0.00e+00	0	28	0	947912704	69	4161
2026-01-15 03:21:19.05	290.30	21.43	-51.5	-53.0	14.9	0.00e+00	0	28	0	950009856	69	4206
2026-01-15 03:21:20.05	290.10	21.34	-51.6	-53.1	14.9	0.00e+00	0	28	0	952107008	69	4256
2026-01-15 03:21:21.05	289.91	21.25	-51.6	-53.1	14.9	0.00e+00	0	28	0	954204160	69	4270
2026-01-15 03:21:22.05	289.72	21.15	-51.7	-53.3	14.8	0.00e+00	0	28	0	955252736	69	4343
2026-01-15 03:21:23.04	289.53	21.06	-51.8	-53.3	14.8	0.00e+00	0	28	0	957349888	69	4386
2026-01-15 03:21:24.05	289.34	20.97	-51.9	-53.4	14.8	0.00e+00	0	28	0	959447040	69	4432
2026-01-15 03:21:25.04	289.15	20.88	-51.9	-53.5	14.7	0.00e+00	0	28	0	961544192	69	4454
2026-01-15 03:21:26.03	288.97	20.79	-51.8	-53.4	14.8	0.00e+00	0	28	0	963641344	69	4402
2026-01-15 03:21:27.04	288.78	20.69	-51.8	-53.3	14.8	0.00e+00	0	28	0	964689920	69	4373
2026-01-15 03:21:28.03	288.60	20.60	-51.8	-53.3	14.8	0.00e+00	0	28	0	966787072	69	4381
2026-01-15 03:21:29.03	288.42	20.51	-51.8	-53.3	14.8	0.00e+00	0	28	0	968884224	69	4391
2026-01-15 03:21:30.03	288.24	20.41	-51.8	-53.4	14.8	0.00e+00	0	28	0	970981376	69	4415
2026-01-15 03:21:31.02	288.06	20.32	-52.0	-53.5	14.7	0.00e+00	0	28	0	972029952	69	4492
2026-01-15 03:21:32.02	287.88	20.23	-51.9	-53.5	14.7	0.00e+00	0	28	0	974127104	69	4467
2026-01-15 03:21:33.02	287.70	20.14	-52.0	-53.6	14.7	0.00e+00	0	28	0	976224256	69	4533
2026-01-15 03:21:34.02	287.52	20.05	-52.0	-53.6	14.7	0.00e+00	0	28	0	978321408	69	4528
2026-01-15 03:21:35.01	287.35	19.95	-52.0	-53.6	14.7	0.00e+00	0	28	0	980418560	69	4538
2026-01-15 03:21:36.00	287.17	19.86	-52.0	-53.6	14.7	0.00e+00	0	28	0	981467136	69	4528
2026-01-15 03:21:37.00	287.00	19.77	-52.1	-53.7	14.6	0.00e+00	0	28	0	983564288	69	4574
2026-01-15 03:21:37.99	286.83	19.68	-52.0	-53.6	14.7	0.00e+00	0	28	0	985661440	69	4537
2026-01-15 03:21:38.98	286.66	19.59	-52.1	-53.8	14.6	0.00e+00	0	28	0	987758592	69	4604
2026-01-15 03:21:39.98	286.48	19.50	-52.3	-54.0	14.6	0.00e+00	0	28	0	988807168	69	4714
2026-01-15 03:21:40.98	286.31	19.40	-52.3	-54.0	14.5	0.00e+00	0	28	0	990904320	69	4743
2026-01-15 03:21:41.98	286.15	19.31	-52.5	-54.3	14.5	0.00e+00	0	28	0	993001472	70	4607
2026-01-15 03:21:42.97	285.98	19.22	-52.6	-54.3	14.5	0.00e+00	0	28	0	995098624	70	4613
2026-01-15 03:21:43.97	285.81	19.13	-52.6	-54.4	14.5	0.00e+00	0	28	0	997195776	70	4665
2026-01-15 03:21:44.96	285.65	19.04	-52.6	-54.4	14.5	0.00e+00	0	28	0	998244352	70	4676
2026-01-15 03:21:45.96	285.48	18.95	-52.7	-54.5	14.5	0.00e+00	0	28	0	1000341504	70	4706
2026-01-15 03:21:46.95	285.32	18.86	-52.7	-54.5	14.5	0.00e+00	0	28	0	1002438656	70	4723
2026-01-15 03:21:47.95	285.16	18.77	-52.7	-54.4	14.5	0.00e+00	0	28	0	1004535808	70	4698
2026-01-15 03:21:48.95	284.99	18.67	-52.8	-54.6	14.4	0.00e+00	0	28	0	1005584384	70	4766
2026-01-15 03:21:49.94	284.83	18.58	-52.8	-54.6	14.4	0.00e+00	0	28	0	1007681536	70	4775
2026-01-15 03:21:50.93	284.68	18.49	-52.8	-54.6	14.4	0.00e+00	0	28	0	1009778688	70	4776
2026-01-15 03:21:51.93	284.52	18.40	-52.8	-54.6	14.4	0.00e+00	0	28	0	1011875840	70	4781
2026-01-15 03:21:52.93	284.36	18.31	-52.8	-54.6	14.4	0.00e+00	0	28	0	1013972992	70	4777
2026-01-15 03:21:53.93	284.20	18.22	-52.8	-54.6	14.4	0.00e+00	0	28	0	1015021568	70	4784
2026-01-15 03:21:54.92	284.05	18.13	-52.9	-54.7	14.4	0.00e+00	0	28	0	1017118720	71	4592
2026-01-15 03:21:55.93	283.89	18.04	-52.8	-54.6	14.5	0.00e+00	0	28	0	1019215872	71	4506
2026-01-15 03:21:56.92	283.74	17.95	-52.9	-54.7	14.4	0.00e+00	0	28	0	1021313024	71	4586
2026-01-15 03:21:57.92	283.58	17.86	-52.8	-54.6	14.5	0.00e+00	0	28	0	1023410176	71	4537
2026-01-15 03:21:58.91	283.43	17.77	-52.9	-54.7	14.5	0.00e+00	0	28	0	1024458752	71	4549
2026-01-15 03:21:59.91	283.28	17.68	-52.9	-54.8	14.4	0.00e+00	0	28	0	1026555904	71	4604
2026-01-15 03:22:00.90	283.13	17.59	-53.0	-54.9	14.4	0.00e+00	0	28	0	1028653056	71	4653
2026-01-15 03:22:01.90	282.98	17.50	-53.1	-54.9	14.4	0.00e+00	0	28	0	1030750208	71	4704
2026-01-15 03:22:02.90	282.83	17.41	-53.2	-55.1	14.3	0.00e+00	0	28	0	1031798784	71	4766
2026-01-15 03:22:03.90	282.68	17.32	-53.3	-55.2	14.2	0.00e+00	0	28	0	1033895936	71	4852
2026-01-15 03:22:04.90	282.54	17.23	-53.2	-55.1	14.3	0.00e+00	0	28	0	1035993088	71	4781
2026-01-15 03:22:05.90	282.39	17.14	-53.2	-55.1	14.3	0.00e+00	0	28	0	1038090240	71	4766
2026-01-15 03:22:06.90	282.25	17.05	-53.2	-55.1	14.3	0.00e+00	0	28	0	1040187392	71	4796
2026-01-15 03:22:07.91	282.10	16.96	-53.2	-55.2	14.2	0.00e+00	0	28	0	1041235968	71	4821
2026-01-15 03:22:08.91	281.96	16.87	-53.2	-55.1	14.3	0.00e+00	0	28	0	1043333120	71	4788
2026-01-15 03:22:09.90	281.81	16.79	-53.3	-55.2	14.2	0.00e+00	0	28	0	1045430272	71	4827
2026-01-15 03:22:10.91	281.67	16.70	-53.3	-55.2	14.2	0.00e+00	0	28	0	1047527424	71	4869
2026-01-15 03:22:11.91	281.53	16.61	-53.3	-55.2	14.2	0.00e+00	0	28	0	1049624576	71	4829
2026-01-15 03:22:12.90	281.39	16.52	-53.3	-55.2	14.3	0.00e+00	0	28	0	1050673152	71	4825
2026-01-15 03:22:13.90	281.25	16.43	-53.4	-55.3	14.2	0.00e+00	0	28	0	1052770304	71	4926
2026-01-15 03:22:14.90	281.11	16.34	-53.5	-55.4	14.3	0.00e+00	0	28	0	1054867456	72	4689
2026-01-15 03:22:15.90	280.98	16.26	-53.5	-55.5	14.2	0.00e+00	0	28	0	1056964608	72	4717
2026-01-15 03:22:16.90	280.84	16.17	-53.4	-55.3	14.2	0.00e+00	0	28	0	1058013184	72	4650
2026-01-15 03:22:17.89	280.70	16.08	-53.6	-55.6	14.2	0.00e+00	0	28	0	1060110336	72	4791
2026-01-15 03:22:18.89	280.57	15.99	-53.7	-55.7	14.1	0.00e+00	0	28	0	1062207488	72	4869
2026-01-15 03:22:19.90	280.43	15.91	-53.6	-55.6	14.2	0.00e+00	0	28	0	1064304640	72	4772
2026-01-15 03:22:20.90	280.30	15.82	-53.5	-55.5	14.2	0.00e+00	0	28	0	1066401792	72	4754
2026-01-15 03:22:21.90	280.17	15.73	-53.5	-55.5	14.2	0.00e+00	0	28	0	1067450368	72	4741
2026-01-15 03:22:22.89	280.04	15.65	-53.5	-55.5	14.2	0.00e+00	0	28	0	1069547520	72	4747
2026-01-15 03:22:23.89	279.90	15.56	-53.5	-55.5	14.2	0.00e+00	0	28	0	1071644672	72	4724
2026-01-15 03:22:24.89	279.77	15.47	-53.5	-55.6	14.2	0.00e+00	0	28	0	1073741824	72	4767
2026-01-15 03:22:25.89	279.64	15.39	-53.6	-55.6	14.2	0.00e+00	0	28	0	1075838976	72	4763
2026-01-15 03:22:26.89	279.51	15.30	-53.7	-55.7	14.1	0.00e+00	0	28	0	1076887552	72	4861
2026-01-15 03:22:27.88	279.39	15.21	-53.7	-55.8	14.1	0.00e+00	0	28	0	1078984704	72	4892
2026-01-15 03:22:28.87	279.26	15.13	-53.8	-55.9	14.0	0.00e+00	0	28	0	1081081856	72	4957
2026-01-15 03:22:29.87	279.13	15.04	-53.9	-56.0	14.0	0.00e+00	0	28	0	1083179008	72	5014
2026-01-15 03:22:30.87	279.01	14.96	-53.9	-56.1	13.9	0.00e+00	0	28	0	1084227584	72	5044
2026-01-15 03:22:31.88	278.88	14.87	-53.9	-56.1	14.0	0.00e+00	0	28	0	1086324736	73	4766
2026-01-15 03:22:32.88	278.76	14.79	-54.0	-56.1	14.0	0.00e+00	0	28	0	1088421888	73	4790
2026-01-15 03:22:33.88	278.63	14.70	-54.1	-56.3	13.9	0.00e+00	0	28	0	1090519040	73	4883
2026-01-15 03:22:34.89	278.51	14.61	-54.1	-56.2	13.9	0.00e+00	0	28	0	1092616192	73	4862
2026-01-15 03:22:35.88	278.39	14.53	-54.1	-56.3	13.9	0.00e+00	0	28	0	1093664768	73	4889
2026-01-15 03:22:36.88	278.27	14.45	-54.0	-56.2	13.9	0.00e+00	0	28	0	1095761920	73	4839
2026-01-15 03:22:37.88	278.15	14.36	-54.1	-56.4	13.9	0.00e+00	0	28	0	1097859072	73	4929
2026-01-15 03:22:38.87	278.03	14.28	-54.1	-56.3	13.9	0.00e+00	0	28	0	1099956224	73	4901
2026-01-15 03:22:39.87	277.91	14.19	-54.1	-56.3	13.9	0.00e+00	0	28	0	1102053376	73	4908
2026-01-15 03:22:40.87	277.79	14.11	-54.2	-56.4	13.9	0.00e+00	0	28	0	1103101952	73	4962
2026-01-15 03:22:41.88	277.67	14.02	-54.2	-56.4	13.8	0.00e+00	0	28	0	1105199104	73	4982
2026-01-15 03:22:42.87	277.55	13.94	-54.1	-56.3	13.9	0.00e+00	0	28	0	1107296256	73	4923
2026-01-15 03:22:43.87	277.44	13.86	-54.2	-56.4	13.9	0.00e+00	0	28	0	1109393408	73	4960
2026-01-15 03:22:44.87	277.32	13.78	-54.2	-56.4	13.8	0.00e+00	0	28	0	1111490560	73	4965
2026-01-15 03:22:45.86	277.20	13.69	-54.2	-56.5	13.8	0.00e+00	0	28	0	1112539136	73	5009
2026-01-15 03:22:46.87	277.09	13.61	-54.3	-56.5	13.8	0.00e+00	0	28	0	1114636288	73	5031
2026-01-15 03:22:47.86	276.98	13.53	-54.2	-56.4	13.8	0.00e+00	0	28	0	1116733440	73	4964
2026-01-15 03:22:48.85	276.86	13.44	-54.1	-56.4	13.9	0.00e+00	0	28	0	1118830592	73	4939
2026-01-15 03:22:49.86	276.75	13.36	-54.1	-56.3	13.9	0.00e+00	0	28	0	1119879168	73	4919
2026-01-15 03:22:50.85	276.64	13.28	-54.1	-56.4	13.9	0.00e+00	0	28	0	1121976320	73	4927
2026-01-15 03:22:51.86	276.53	13.20	-54.1	-56.3	13.9	0.00e+00	0	28	0	1124073472	73	4905
2026-01-15 03:22:52.85	276.42	13.12	-54.1	-56.4	13.9	0.00e+00	0	28	0	1126170624	73	4927
2026-01-15 03:22:53.86	276.30	13.03	-54.1	-56.3	13.9	0.00e+00	0	28	0	1128267776	73	4884
2026-01-15 03:22:54.85	276.20	12.95	-54.1	-56.3	13.9	0.00e+00	0	28	0	1129316352	73	4908
2026-01-15 03:22:55.83	276.09	12.87	-54.2	-56.5	13.8	0.00e+00	0	28	0	1131413504	73	5011
2026-01-15 03:22:56.82	275.98	12.79	-54.2	-56.4	13.8	0.00e+00	0	28	0	1133510656	73	4951
2026-01-15 03:22:57.81	275.87	12.71	-54.2	-56.4	13.8	0.00e+00	0	28	0	1135607808	73	4961
2026-01-15 03:22:58.81	275.77	12.63	-54.3	-56.6	13.8	0.00e+00	0	28	0	1136656384	73	5055
2026-01-15 03:22:59.81	275.66	12.55	-54.2	-56.5	13.8	0.00e+00	0	28	0	1138753536	73	5025
2026-01-15 03:23:00.81	275.55	12.47	-54.3	-56.6	13.7	0.00e+00	0	28	0	1140850688	73	5099
2026-01-15 03:23:01.81	275.45	12.39	-54.2	-56.5	13.8	0.00e+00	0	28	0	1142947840	73	5005
2026-01-15 03:23:02.81	275.34	12.31	-54.3	-56.6	13.7	0.00e+00	0	28	0	1145044992	73	5089
2026-01-15 03:23:03.81	275.24	12.23	-54.3	-56.6	13.7	0.00e+00	0	28	0	1146093568	73	5100
2026-01-15 03:23:04.81	275.14	12.15	-54.3	-56.6	13.7	0.00e+00	0	28	0	1148190720	73	5076
2026-01-15 03:23:05.82	275.03	12.07	-54.3	-56.6	13.7	0.00e+00	0	28	0	1150287872	73	5059
2026-01-15 03:23:06.82	274.93	11.99	-54.3	-56.7	13.7	0.00e+00	0	28	0	1152385024	73	5122
2026-01-15 03:23:07.82	274.83	11.91	-54.3	-56.7	13.7	0.00e+00	0	28	0	1154482176	73	5114
2026-01-15 03:23:08.82	274.73	11.83	-54.4	-56.7	13.7	0.00e+00	0	28	0	1155530752	73	5153
2026-01-15 03:23:09.81	274.63	11.75	-54.5	-56.8	13.7	0.00e+00	0	28	0	1157627904	74	4921
2026-01-15 03:23:10.81	274.52	11.67	-54.5	-56.9	13.7	0.00e+00	0	28	0	1159725056	74	4968
2026-01-15 03:23:11.81	274.43	11.59	-54.5	-56.9	13.7	0.00e+00	0	28	0	1161822208	74	4930
2026-01-15 03:23:12.81	274.33	11.51	-54.6	-57.0	13.6	0.00e+00	0	28	0	1162870784	74	4993
2026-01-15 03:23:13.81	274.23	11.43	-54.6	-57.1	13.6	0.00e+00	0	28	0	1164967936	74	5071
2026-01-15 03:23:14.81	274.13	11.36	-54.5	-57.0	13.6	0.00e+00	0	28	0	1167065088	74	4998
2026-01-15 03:23:15.81	274.03	11.28	-54.6	-57.1	13.5	0.00e+00	0	28	0	1169162240	74	5072
2026-01-15 03:23:16.81	273.93	11.20	-54.7	-57.2	13.4	0.00e+00	0	28	0	1171259392	74	5158
2026-01-15 03:23:17.79	273.84	11.12	-54.6	-57.1	13.6	0.00e+00	0	28	0	1172307968	74	5047
2026-01-15 03:23:18.79	273.74	11.05	-54.6	-57.1	13.5	0.00e+00	0	28	0	1174405120	74	5065
2026-01-15 03:23:19.79	273.65	10.97	-54.7	-57.2	13.5	0.00e+00	0	28	0	1176502272	74	5115
2026-01-15 03:23:20.79	273.55	10.89	-54.6	-57.1	13.5	0.00e+00	0	28	0	1178599424	74	5093
2026-01-15 03:23:21.79	273.46	10.81	-54.7	-57.2	13.5	0.00e+00	0	28	0	1179648000	74	5139
2026-01-15 03:23:22.80	273.36	10.74	-54.7	-57.3	13.5	0.00e+00	0	28	0	1181745152	74	5162
2026-01-15 03:23:23.80	273.27	10.66	-54.8	-57.3	13.4	0.00e+00	0	28	0	1183842304	74	5201
2026-01-15 03:23:24.81	273.18	10.58	-54.9	-57.5	13.3	0.00e+00	0	28	0	1185939456	74	5303
2026-01-15 03:23:25.80	273.08	10.50	-54.9	-57.5	13.4	0.00e+00	0	28	0	1188036608	75	5041
2026-01-15 03:23:26.81	272.99	10.43	-54.9	-57.5	13.4	0.00e+00	0	28	0	1189085184	75	5031
2026-01-15 03:23:27.80	272.90	10.35	-55.0	-57.6	13.3	0.00e+00	0	28	0	1191182336	75	5091
2026-01-15 03:23:28.81	272.81	10.28	-55.0	-57.7	13.3	0.00e+00	0	28	0	1193279488	75	5143
2026-01-15 03:23:29.82	272.72	10.20	-54.9	-57.6	13.3	0.00e+00	0	28	0	1195376640	75	5053
2026-01-15 03:23:30.81	272.63	10.12	-55.0	-57.8	13.3	0.00e+00	0	28	0	1197473792	75	5161
2026-01-15 03:23:31.81	272.54	10.05	-54.9	-57.6	13.4	0.00e+00	0	28	0	1198522368	75	5042
2026-01-15 03:23:32.80	272.45	9.97	-55.0	-57.6	13.3	0.00e+00	0	28	0	1200619520	75	5095
2026-01-15 03:23:33.80	272.36	9.90	-55.0	-57.7	13.3	0.00e+00	0	28	0	1202716672	75	5121
2026-01-15 03:23:34.80	272.27	9.82	-55.0	-57.6	13.3	0.00e+00	0	28	0	1204813824	75	5099
2026-01-15 03:23:35.79	272.19	9.75	-54.9	-57.5	13.4	0.00e+00	0	28	0	1206910976	75	5030
2026-01-15 03:23:36.78	272.10	9.67	-54.6	-57.2	13.6	0.00e+00	0	28	0	1207959552	75	4821
2026-01-15 03:23:37.78	272.01	9.60	-54.7	-57.3	13.5	0.00e+00	0	28	0	1210056704	75	4902
2026-01-15 03:23:38.77	271.93	9.53	-54.6	-57.2	13.5	0.00e+00	0	28	0	1212153856	75	4817
2026-01-15 03:23:39.77	271.84	9.45	-54.7	-57.2	13.5	0.00e+00	0	28	0	1214251008	75	4868
2026-01-15 03:23:40.77	271.76	9.38	-54.6	-57.1	13.6	0.00e+00	0	28	0	1215299584	75	4766
2026-01-15 03:23:41.77	271.67	9.30	-54.6	-57.1	13.6	0.00e+00	0	28	0	1217396736	75	4776
2026-01-15 03:23:42.77	271.59	9.23	-54.6	-57.2	13.5	0.00e+00	0	28	0	1219493888	75	4844
