passes_logs/2026/01/15/R3.2S_Murmansk/R3.2S_Murmansk__20260115_092831_SUOMI_NPP_rec.log

#Pass ID: 20260115_092831_SUOMI NPP
#Satellite: SUOMI NPP
#Configuration: NPP
#almurnet v.1.7.20251203
#Start time: 2026-01-15 09:28:32

#Version: 2.2.20231116
#Station: R3.2S_Murmansk
#Location: 33.079688 lon 68.888172 lat
#TLE: 1 37849U 11061A   26014.61059675  .00000037  00000+0  38639-4 0  9994
#TLE: 2 37849  98.7810 316.6625 0002460  64.3781 295.7649 14.19525105736658

#Time	Az	El	Level	Level2	SNR	BER	BlckErr	Temp	State	Recorded	gain1	gain2
2026-01-15 09:28:32.61	148.75	2.09	-58.2	-74.2	3.8	1.49e+00	0	26	0	0	82	22909
2026-01-15 09:28:33.62	148.75	2.15	-58.2	-74.2	3.8	1.49e+00	0	26	104	0	81	24232
2026-01-15 09:28:34.63	148.75	2.22	-58.2	-74.2	3.8	1.49e+00	0	26	104	0	81	24206
2026-01-15 09:28:35.64	148.74	2.29	-58.2	-74.2	3.8	1.49e+00	0	26	104	0	81	24180
2026-01-15 09:28:36.65	148.74	2.35	-58.2	-74.2	3.8	1.49e+00	0	26	104	0	81	24192
2026-01-15 09:28:37.66	148.74	2.42	-58.2	-74.2	3.8	1.49e+00	0	26	104	0	81	24282
2026-01-15 09:28:38.67	148.74	2.48	-58.2	-74.2	3.8	1.49e+00	0	26	104	0	81	24270
2026-01-15 09:28:39.68	148.74	2.55	-58.2	-74.2	3.8	1.49e+00	0	26	104	0	81	24172
2026-01-15 09:28:40.68	148.74	2.61	-58.2	-74.2	3.8	1.49e+00	0	26	104	0	81	24197
2026-01-15 09:28:41.70	148.74	2.68	-58.2	-74.2	3.8	1.49e+00	0	26	104	0	81	24214
2026-01-15 09:28:42.71	148.74	2.75	-58.2	-74.2	3.8	1.49e+00	0	26	104	0	81	24195
2026-01-15 09:28:43.71	148.74	2.81	-58.2	-74.2	3.8	1.49e+00	0	26	104	0	81	24162
2026-01-15 09:28:44.72	148.74	2.88	-58.2	-74.2	3.8	1.49e+00	0	26	104	0	81	24202
2026-01-15 09:28:45.73	148.74	2.95	-58.2	-74.2	3.8	1.49e+00	0	26	104	0	81	24194
2026-01-15 09:28:46.74	148.74	3.02	-58.2	-74.2	3.8	1.49e+00	0	26	104	0	81	24183
2026-01-15 09:28:47.75	148.74	3.08	-58.2	-74.2	3.8	1.49e+00	0	26	104	0	81	24182
2026-01-15 09:28:48.75	148.74	3.15	-58.2	-74.2	3.8	1.49e+00	0	26	104	0	81	24151
2026-01-15 09:28:49.76	148.74	3.22	-58.2	-74.1	3.8	1.49e+00	0	26	104	0	81	24087
2026-01-15 09:28:50.77	148.74	3.28	-58.2	-74.1	3.8	1.49e+00	0	26	104	0	81	24002
2026-01-15 09:28:51.78	148.74	3.35	-58.2	-73.9	3.8	1.49e+00	0	26	104	0	81	23572
2026-01-15 09:28:52.79	148.74	3.42	-58.2	-73.8	3.8	1.49e+00	0	26	104	0	81	23155
2026-01-15 09:28:53.80	148.74	3.49	-58.2	-73.5	3.8	1.49e+00	0	26	104	0	81	22488
2026-01-15 09:28:54.81	148.73	3.56	-58.2	-73.3	3.8	1.49e+00	0	26	104	0	81	21985
2026-01-15 09:28:55.82	148.73	3.63	-58.2	-72.9	3.8	1.49e+00	0	26	104	0	81	20808
2026-01-15 09:28:56.82	148.73	3.69	-58.1	-72.3	3.8	1.49e+00	0	27	104	0	81	19485
2026-01-15 09:28:57.83	148.73	3.76	-58.1	-71.5	3.9	1.49e+00	0	26	104	0	81	17818
2026-01-15 09:28:58.84	148.73	3.83	-58.0	-70.7	4.2	1.47e+00	0	27	0	0	81	16166
2026-01-15 09:28:59.85	148.73	3.90	-58.0	-70.3	4.3	1.37e+00	0	27	0	0	81	15521
2026-01-15 09:29:00.85	148.73	3.97	-57.9	-69.0	4.7	9.45e-01	0	27	0	1048576	81	13409
2026-01-15 09:29:01.86	148.73	4.04	-57.9	-68.2	5.1	7.96e-01	0	27	0	3145728	81	12202
2026-01-15 09:29:02.88	148.73	4.11	-57.8	-67.5	5.5	4.95e-01	0	27	0	5242880	81	11197
2026-01-15 09:29:03.88	148.73	4.18	-57.7	-66.8	6.0	3.18e-01	0	27	0	6291456	81	10318
2026-01-15 09:29:04.89	148.73	4.25	-57.5	-65.4	7.1	1.08e-01	0	27	0	8388608	81	8772
2026-01-15 09:29:05.90	148.73	4.32	-57.4	-64.9	7.5	9.66e-02	0	27	0	10485760	81	8295
2026-01-15 09:29:06.91	148.72	4.39	-57.1	-63.8	8.4	3.62e-02	0	27	0	12582912	80	7745
2026-01-15 09:29:07.92	148.72	4.46	-56.9	-63.2	8.9	1.73e-02	0	27	0	14680064	80	7247
2026-01-15 09:29:08.93	148.72	4.53	-56.8	-62.6	9.4	8.68e-03	0	27	0	15728640	80	6779
2026-01-15 09:29:09.94	148.72	4.61	-56.6	-61.9	9.9	4.37e-03	0	27	0	17825792	79	6635
2026-01-15 09:29:10.95	148.72	4.68	-56.3	-61.2	10.6	8.62e-04	0	27	0	19922944	79	6073
2026-01-15 09:29:11.96	148.72	4.75	-56.3	-61.2	10.6	6.58e-04	0	27	0	22020096	79	6091
2026-01-15 09:29:12.97	148.72	4.82	-56.0	-60.5	11.0	2.90e-04	0	27	0	24117248	78	5969
2026-01-15 09:29:13.98	148.72	4.89	-56.1	-60.7	10.9	2.46e-04	0	27	0	25165824	78	6111
2026-01-15 09:29:14.99	148.72	4.96	-55.9	-60.3	11.2	6.17e-05	0	27	0	27262976	78	5810
2026-01-15 09:29:16.00	148.72	5.04	-55.9	-60.3	11.2	3.89e-05	0	27	0	29360128	78	5837
2026-01-15 09:29:17.01	148.71	5.11	-57.0	-63.0	9.2	3.00e-03	0	27	0	31457280	79	7517
2026-01-15 09:29:18.01	148.71	5.18	-57.6	-65.7	6.9	5.35e-03	0	27	0	33554432	80	9657
2026-01-15 09:29:19.02	148.71	5.25	-56.3	-61.1	10.5	8.81e-03	0	27	0	34603008	78	6391
2026-01-15 09:29:20.03	148.71	5.33	-57.3	-64.1	8.3	7.32e-03	0	27	0	36700160	79	8469
2026-01-15 09:29:21.04	148.71	5.40	-57.4	-65.9	6.6	1.96e-03	0	27	0	38797312	79	10473
2026-01-15 09:29:22.04	148.71	5.47	-55.8	-59.8	11.7	1.20e-02	0	27	0	40894464	78	5485
2026-01-15 09:29:23.05	148.71	5.55	-55.8	-59.8	11.6	1.83e-05	0	27	0	42991616	77	5819
2026-01-15 09:29:24.06	148.71	5.62	-55.8	-59.9	11.5	2.13e-05	0	27	0	44040192	77	5866
2026-01-15 09:29:25.07	148.70	5.70	-55.6	-59.5	11.8	7.60e-06	0	27	0	46137344	77	5624
2026-01-15 09:29:26.07	148.70	5.77	-55.7	-59.5	11.8	1.50e-06	0	27	0	48234496	77	5628
2026-01-15 09:29:27.08	148.70	5.84	-55.7	-59.5	11.8	9.10e-06	0	27	0	50331648	77	5645
2026-01-15 09:29:28.09	148.70	5.92	-55.7	-59.4	11.9	7.00e-07	0	27	0	52428800	77	5591
2026-01-15 09:29:29.10	148.70	5.99	-55.6	-59.3	12.0	3.80e-06	0	27	0	53477376	77	5522
2026-01-15 09:29:30.10	148.70	6.07	-55.8	-59.7	11.8	5.30e-06	0	27	0	55574528	77	5736
2026-01-15 09:29:31.11	148.70	6.14	-55.6	-59.3	12.0	3.00e-06	0	27	0	57671680	77	5469
2026-01-15 09:29:32.12	148.69	6.22	-55.6	-59.3	12.0	2.20e-06	0	27	0	59768832	77	5510
2026-01-15 09:29:33.13	148.69	6.30	-55.6	-59.3	12.0	7.00e-07	0	27	0	61865984	77	5510
2026-01-15 09:29:34.13	148.69	6.37	-55.6	-59.4	12.0	7.00e-07	0	27	0	62914560	77	5554
2026-01-15 09:29:35.14	148.69	6.45	-55.6	-59.4	12.0	4.50e-06	0	27	0	65011712	77	5531
2026-01-15 09:29:36.15	148.69	6.52	-55.6	-59.2	12.1	3.80e-06	0	27	0	67108864	77	5442
2026-01-15 09:29:37.15	148.69	6.60	-55.6	-59.3	12.1	4.50e-06	0	27	0	69206016	77	5481
2026-01-15 09:29:38.16	148.69	6.68	-55.6	-59.3	12.1	0.00e+00	0	27	0	71303168	77	5487
2026-01-15 09:29:39.16	148.68	6.75	-55.7	-59.4	12.0	1.50e-06	0	27	0	72351744	77	5563
2026-01-15 09:29:40.17	148.68	6.83	-55.7	-59.5	11.9	4.50e-06	0	27	0	74448896	77	5652
2026-01-15 09:29:41.17	148.68	6.91	-55.6	-59.3	12.1	2.20e-06	0	27	0	76546048	77	5494
2026-01-15 09:29:42.18	148.68	6.99	-55.7	-59.4	12.0	3.00e-06	0	27	0	78643200	77	5553
2026-01-15 09:29:43.19	148.68	7.07	-55.5	-59.1	12.2	0.00e+00	0	27	0	80740352	77	5359
2026-01-15 09:29:44.20	148.67	7.14	-55.5	-59.0	12.4	1.50e-06	0	27	0	81788928	77	5288
2026-01-15 09:29:45.21	148.67	7.22	-55.5	-58.9	12.3	1.50e-06	0	27	0	83886080	77	5276
2026-01-15 09:29:46.21	148.67	7.30	-55.5	-58.9	12.4	0.00e+00	0	27	0	85983232	77	5236
2026-01-15 09:29:47.21	148.67	7.38	-55.5	-58.9	12.4	0.00e+00	0	27	0	88080384	77	5250
2026-01-15 09:29:48.22	148.67	7.46	-55.4	-58.7	12.5	1.50e-06	0	27	0	90177536	77	5148
2026-01-15 09:29:49.22	148.67	7.54	-55.4	-58.8	12.5	0.00e+00	0	27	0	91226112	77	5187
2026-01-15 09:29:50.23	148.66	7.62	-55.2	-58.4	12.7	0.00e+00	0	27	0	93323264	77	4952
2026-01-15 09:29:51.24	148.66	7.70	-55.2	-58.4	12.8	0.00e+00	0	27	0	95420416	77	4944
2026-01-15 09:29:52.25	148.66	7.78	-55.3	-58.5	12.7	0.00e+00	0	27	0	97517568	77	5024
2026-01-15 09:29:53.25	148.66	7.86	-55.2	-58.4	12.8	0.00e+00	0	27	0	99614720	77	4932
2026-01-15 09:29:54.25	148.66	7.94	-55.3	-58.5	12.7	0.00e+00	0	27	0	100663296	77	5006
2026-01-15 09:29:55.26	148.65	8.02	-55.3	-58.4	12.7	0.00e+00	0	27	0	102760448	77	4974
2026-01-15 09:29:56.26	148.65	8.10	-55.2	-58.3	12.7	0.00e+00	0	27	0	104857600	76	5196
2026-01-15 09:29:57.27	148.65	8.18	-55.2	-58.3	12.8	0.00e+00	0	27	0	106954752	76	5186
2026-01-15 09:29:58.28	148.65	8.26	-55.3	-58.4	12.7	0.00e+00	0	27	0	109051904	76	5269
2026-01-15 09:29:59.28	148.64	8.35	-55.4	-58.6	12.6	0.00e+00	0	27	0	110100480	76	5393
2026-01-15 09:30:00.29	148.64	8.43	-55.3	-58.4	12.7	0.00e+00	0	27	0	112197632	76	5268
2026-01-15 09:30:01.30	148.64	8.51	-55.3	-58.4	12.7	0.00e+00	0	27	0	114294784	76	5262
2026-01-15 09:30:02.31	148.64	8.59	-55.2	-58.4	12.8	0.00e+00	0	27	0	116391936	76	5231
2026-01-15 09:30:03.32	148.63	8.68	-55.2	-58.2	12.8	0.00e+00	0	27	0	118489088	76	5140
2026-01-15 09:30:04.32	148.63	8.76	-55.2	-58.2	12.8	0.00e+00	0	27	0	119537664	76	5153
2026-01-15 09:30:05.33	148.63	8.84	-55.2	-58.3	12.8	0.00e+00	0	27	0	121634816	76	5191
2026-01-15 09:30:06.34	148.63	8.93	-55.2	-58.2	12.8	0.00e+00	0	27	0	123731968	76	5155
2026-01-15 09:30:07.34	148.62	9.01	-55.2	-58.4	12.8	0.00e+00	0	27	0	125829120	76	5226
2026-01-15 09:30:08.35	148.62	9.10	-55.1	-58.1	13.0	0.00e+00	0	27	0	127926272	76	5046
2026-01-15 09:30:09.36	148.62	9.18	-55.0	-57.9	13.0	0.00e+00	0	27	0	128974848	76	4979
2026-01-15 09:30:10.37	148.62	9.27	-55.1	-58.0	13.0	0.00e+00	0	27	0	131072000	76	5010
2026-01-15 09:30:11.38	148.61	9.35	-55.1	-58.1	13.0	0.00e+00	0	27	0	133169152	76	5059
2026-01-15 09:30:12.39	148.61	9.44	-55.0	-57.9	13.1	0.00e+00	0	27	0	135266304	76	4942
2026-01-15 09:30:13.39	148.61	9.52	-55.0	-57.9	13.1	0.00e+00	0	27	0	137363456	76	4951
2026-01-15 09:30:14.40	148.61	9.61	-54.9	-57.7	13.2	0.00e+00	0	27	0	138412032	76	4863
2026-01-15 09:30:15.40	148.60	9.70	-54.9	-57.7	13.2	0.00e+00	0	27	0	140509184	76	4816
2026-01-15 09:30:16.41	148.60	9.78	-54.9	-57.8	13.2	0.00e+00	0	27	0	142606336	76	4876
2026-01-15 09:30:17.42	148.60	9.87	-54.9	-57.7	13.2	0.00e+00	0	27	0	144703488	76	4836
2026-01-15 09:30:18.42	148.59	9.96	-54.8	-57.6	13.2	0.00e+00	0	27	0	146800640	76	4812
2026-01-15 09:30:19.42	148.59	10.05	-54.8	-57.6	13.2	0.00e+00	0	27	0	147849216	76	4781
2026-01-15 09:30:20.43	148.59	10.13	-54.7	-57.4	13.4	0.00e+00	0	27	0	149946368	76	4695
2026-01-15 09:30:21.44	148.59	10.22	-54.7	-57.4	13.4	0.00e+00	0	27	0	152043520	76	4702
2026-01-15 09:30:22.45	148.58	10.31	-54.5	-57.1	13.4	0.00e+00	0	27	0	154140672	75	4803
2026-01-15 09:30:23.45	148.58	10.40	-54.6	-57.3	13.3	0.00e+00	0	27	0	156237824	75	4872
2026-01-15 09:30:24.46	148.58	10.49	-54.6	-57.3	13.3	0.00e+00	0	27	0	157286400	75	4905
2026-01-15 09:30:25.47	148.57	10.58	-54.6	-57.3	13.3	0.00e+00	0	27	0	159383552	75	4892
2026-01-15 09:30:26.48	148.57	10.67	-54.7	-57.4	13.2	0.00e+00	0	27	0	161480704	75	4977
2026-01-15 09:30:27.49	148.57	10.76	-54.4	-57.0	13.5	0.00e+00	0	27	0	163577856	75	4729
2026-01-15 09:30:28.50	148.56	10.85	-54.4	-57.0	13.5	0.00e+00	0	27	0	165675008	75	4727
2026-01-15 09:30:29.50	148.56	10.94	-54.4	-57.0	13.5	0.00e+00	0	27	0	166723584	75	4721
2026-01-15 09:30:30.51	148.56	11.03	-54.4	-56.9	13.6	0.00e+00	0	27	0	168820736	75	4674
2026-01-15 09:30:31.52	148.55	11.13	-54.3	-56.8	13.6	0.00e+00	0	27	0	170917888	75	4637
2026-01-15 09:30:32.53	148.55	11.22	-54.3	-56.9	13.6	0.00e+00	0	27	0	173015040	75	4652
2026-01-15 09:30:33.53	148.55	11.31	-54.2	-56.7	13.7	0.00e+00	0	27	0	175112192	75	4556
2026-01-15 09:30:34.53	148.54	11.40	-54.2	-56.7	13.7	0.00e+00	0	28	0	176160768	75	4574
2026-01-15 09:30:35.54	148.54	11.50	-54.3	-56.8	13.5	0.00e+00	0	27	0	178257920	74	4875
2026-01-15 09:30:36.55	148.54	11.59	-54.1	-56.6	13.7	0.00e+00	0	27	0	180355072	74	4762
2026-01-15 09:30:37.56	148.53	11.68	-54.1	-56.5	13.7	0.00e+00	0	28	0	182452224	74	4716
2026-01-15 09:30:38.57	148.53	11.78	-54.2	-56.6	13.6	0.00e+00	0	28	0	184549376	74	4791
2026-01-15 09:30:39.57	148.52	11.87	-54.2	-56.7	13.6	0.00e+00	0	27	0	185597952	74	4819
2026-01-15 09:30:40.58	148.52	11.97	-54.1	-56.5	13.7	0.00e+00	0	27	0	187695104	74	4711
2026-01-15 09:30:41.59	148.52	12.06	-54.1	-56.5	13.7	0.00e+00	0	27	0	189792256	74	4736
2026-01-15 09:30:42.60	148.51	12.16	-54.1	-56.5	13.7	0.00e+00	0	27	0	191889408	74	4707
2026-01-15 09:30:43.60	148.51	12.25	-53.9	-56.3	13.8	0.00e+00	0	27	0	193986560	74	4602
2026-01-15 09:30:44.61	148.50	12.35	-53.9	-56.3	13.8	0.00e+00	0	28	0	195035136	74	4609
2026-01-15 09:30:45.61	148.50	12.45	-53.9	-56.2	13.8	0.00e+00	0	27	0	197132288	74	4590
2026-01-15 09:30:46.62	148.50	12.54	-53.9	-56.2	13.8	0.00e+00	0	28	0	199229440	74	4587
2026-01-15 09:30:47.63	148.49	12.64	-53.9	-56.2	13.9	0.00e+00	0	28	0	201326592	74	4559
2026-01-15 09:30:48.64	148.49	12.74	-53.9	-56.2	13.8	0.00e+00	0	28	0	203423744	74	4590
2026-01-15 09:30:49.64	148.48	12.84	-53.8	-56.1	13.9	0.00e+00	0	27	0	204472320	74	4497
2026-01-15 09:30:50.65	148.48	12.94	-53.8	-56.1	13.9	0.00e+00	0	28	0	206569472	74	4501
2026-01-15 09:30:51.66	148.48	13.04	-53.8	-56.0	14.0	0.00e+00	0	27	0	208666624	74	4472
2026-01-15 09:30:52.67	148.47	13.14	-53.8	-56.1	13.9	0.00e+00	0	28	0	210763776	74	4506
2026-01-15 09:30:53.68	148.47	13.24	-53.8	-56.0	14.0	0.00e+00	0	28	0	212860928	74	4482
2026-01-15 09:30:54.68	148.46	13.34	-53.7	-56.0	14.0	0.00e+00	0	28	0	213909504	74	4446
2026-01-15 09:30:55.69	148.46	13.44	-53.8	-56.0	14.0	0.00e+00	0	28	0	216006656	74	4483
2026-01-15 09:30:56.70	148.45	13.54	-53.6	-55.7	14.0	0.00e+00	0	28	0	218103808	73	4595
2026-01-15 09:30:57.70	148.45	13.64	-53.7	-55.9	13.9	0.00e+00	0	27	0	220200960	73	4682
2026-01-15 09:30:58.71	148.44	13.74	-53.7	-55.9	13.9	0.00e+00	0	28	0	222298112	73	4690
2026-01-15 09:30:59.71	148.44	13.85	-53.7	-55.9	13.9	0.00e+00	0	27	0	224395264	73	4680
2026-01-15 09:31:00.72	148.43	13.95	-53.8	-56.1	13.9	0.00e+00	0	28	0	225443840	73	4793
2026-01-15 09:31:01.72	148.43	14.05	-53.7	-55.9	13.9	0.00e+00	0	28	0	227540992	73	4701
2026-01-15 09:31:02.73	148.42	14.16	-53.5	-55.6	14.1	0.00e+00	0	28	0	229638144	73	4501
2026-01-15 09:31:03.73	148.42	14.26	-53.6	-55.7	14.0	0.00e+00	0	28	0	231735296	73	4597
2026-01-15 09:31:04.74	148.41	14.36	-53.4	-55.5	14.1	0.00e+00	0	28	0	232783872	73	4484
2026-01-15 09:31:05.75	148.41	14.47	-53.4	-55.4	14.2	0.00e+00	0	28	0	234881024	73	4433
2026-01-15 09:31:06.76	148.40	14.58	-53.4	-55.5	14.1	0.00e+00	0	28	0	236978176	73	4466
2026-01-15 09:31:07.77	148.40	14.68	-53.2	-55.2	14.3	0.00e+00	0	28	0	239075328	73	4335
2026-01-15 09:31:08.78	148.39	14.79	-53.3	-55.4	14.2	0.00e+00	0	28	0	241172480	73	4398
2026-01-15 09:31:09.78	148.39	14.90	-53.2	-55.2	14.3	0.00e+00	0	27	0	242221056	73	4329
2026-01-15 09:31:10.79	148.38	15.00	-53.2	-55.2	14.2	0.00e+00	0	28	0	244318208	72	4579
2026-01-15 09:31:11.80	148.38	15.11	-53.2	-55.3	14.1	0.00e+00	0	28	0	246415360	72	4611
2026-01-15 09:31:12.81	148.37	15.22	-53.1	-55.1	14.2	0.00e+00	0	27	0	248512512	72	4508
2026-01-15 09:31:13.82	148.36	15.33	-52.7	-55.0	14.3	0.00e+00	0	27	0	250609664	72	4478
2026-01-15 09:31:14.83	148.36	15.44	-52.7	-55.0	14.3	0.00e+00	0	28	0	252706816	72	4447
2026-01-15 09:31:15.84	148.35	15.55	-52.6	-54.9	14.2	0.00e+00	0	28	0	253755392	71	4670
2026-01-15 09:31:16.85	148.35	15.66	-52.7	-55.0	14.2	0.00e+00	0	28	0	255852544	71	4717
2026-01-15 09:31:17.85	148.34	15.77	-52.6	-54.9	14.2	0.00e+00	0	28	0	257949696	71	4676
2026-01-15 09:31:18.86	148.33	15.88	-52.5	-54.8	14.3	0.00e+00	0	28	0	260046848	71	4602
2026-01-15 09:31:19.86	148.33	15.99	-52.6	-54.8	14.2	0.00e+00	0	28	0	262144000	71	4649
2026-01-15 09:31:20.87	148.32	16.11	-52.5	-54.8	14.3	0.00e+00	0	28	0	263192576	71	4614
2026-01-15 09:31:21.88	148.32	16.22	-52.5	-54.7	14.3	0.00e+00	0	27	0	265289728	71	4593
2026-01-15 09:31:22.89	148.31	16.33	-52.4	-54.7	14.3	0.00e+00	0	28	0	267386880	71	4557
2026-01-15 09:31:23.90	148.30	16.45	-52.5	-54.7	14.3	0.00e+00	0	28	0	269484032	71	4566
2026-01-15 09:31:24.91	148.30	16.56	-52.5	-54.7	14.3	0.00e+00	0	27	0	270532608	71	4561
2026-01-15 09:31:25.92	148.29	16.68	-52.5	-54.8	14.3	0.00e+00	0	28	0	272629760	71	4627
2026-01-15 09:31:26.93	148.28	16.80	-52.6	-54.8	14.3	0.00e+00	0	28	0	274726912	71	4636
2026-01-15 09:31:27.94	148.28	16.91	-52.6	-55.0	14.2	0.00e+00	0	28	0	276824064	71	4711
2026-01-15 09:31:28.94	148.27	17.03	-52.5	-54.8	14.3	0.00e+00	0	28	0	278921216	71	4631
2026-01-15 09:31:29.95	148.26	17.15	-52.6	-54.9	14.2	0.00e+00	0	28	0	281018368	71	4668
2026-01-15 09:31:30.96	148.26	17.26	-52.6	-54.9	14.2	0.00e+00	0	28	0	282066944	71	4671
2026-01-15 09:31:31.97	148.25	17.38	-52.7	-55.0	14.2	0.00e+00	0	28	0	284164096	71	4726
2026-01-15 09:31:32.98	148.24	17.50	-52.7	-55.0	14.2	0.00e+00	0	28	0	286261248	71	4732
2026-01-15 09:31:33.98	148.23	17.62	-52.8	-55.2	14.1	0.00e+00	0	28	0	288358400	71	4842
2026-01-15 09:31:34.99	148.23	17.74	-52.8	-55.1	14.1	0.00e+00	0	28	0	290455552	71	4795
2026-01-15 09:31:36.00	148.22	17.86	-52.8	-55.2	14.1	0.00e+00	0	28	0	291504128	71	4841
2026-01-15 09:31:37.01	148.21	17.98	-52.7	-55.1	14.2	0.00e+00	0	28	0	293601280	71	4760
2026-01-15 09:31:38.02	148.21	18.11	-52.6	-54.9	14.2	0.00e+00	0	28	0	295698432	71	4672
2026-01-15 09:31:39.03	148.20	18.23	-52.7	-54.9	14.2	0.00e+00	0	28	0	297795584	71	4696
2026-01-15 09:31:40.03	148.19	18.35	-52.6	-54.9	14.3	0.00e+00	0	28	0	299892736	71	4667
2026-01-15 09:31:41.04	148.18	18.48	-52.6	-55.0	14.2	0.00e+00	0	28	0	300941312	71	4711
2026-01-15 09:31:42.05	148.17	18.60	-52.6	-54.9	14.3	0.00e+00	0	28	0	303038464	71	4660
2026-01-15 09:31:43.05	148.17	18.73	-52.6	-54.9	14.2	0.00e+00	0	28	0	305135616	71	4695
2026-01-15 09:31:44.06	148.16	18.85	-52.6	-54.9	14.2	0.00e+00	0	28	0	307232768	71	4695
2026-01-15 09:31:45.06	148.15	18.98	-52.5	-54.7	14.4	0.00e+00	0	28	0	309329920	71	4559
2026-01-15 09:31:46.07	148.14	19.11	-52.5	-54.8	14.3	0.00e+00	0	28	0	310378496	71	4600
2026-01-15 09:31:47.08	148.13	19.23	-52.5	-54.7	14.3	0.00e+00	0	28	0	312475648	71	4595
2026-01-15 09:31:48.08	148.12	19.36	-52.5	-54.8	14.3	0.00e+00	0	28	0	314572800	71	4625
2026-01-15 09:31:49.09	148.12	19.49	-52.7	-55.0	14.2	0.00e+00	0	28	0	316669952	71	4721
2026-01-15 09:31:50.09	148.11	19.62	-52.6	-54.9	14.2	0.00e+00	0	28	0	318767104	71	4705
2026-01-15 09:31:51.10	148.10	19.75	-52.5	-54.8	14.3	0.00e+00	0	28	0	319815680	71	4612
2026-01-15 09:31:52.11	148.09	19.88	-52.7	-55.1	14.2	0.00e+00	0	28	0	321912832	71	4785
2026-01-15 09:31:53.12	148.08	20.01	-52.7	-55.1	14.1	0.00e+00	0	28	0	324009984	71	4804
2026-01-15 09:31:54.13	148.07	20.15	-52.7	-55.1	14.1	0.00e+00	0	28	0	326107136	71	4785
2026-01-15 09:31:55.14	148.06	20.28	-52.8	-55.2	14.1	0.00e+00	0	28	0	328204288	71	4840
2026-01-15 09:31:56.15	148.05	20.42	-52.9	-55.4	14.0	0.00e+00	0	28	0	329252864	71	4947
2026-01-15 09:31:57.15	148.04	20.55	-53.0	-55.6	14.0	0.00e+00	0	28	0	331350016	71	5048
2026-01-15 09:31:58.16	148.03	20.68	-52.9	-55.4	14.0	0.00e+00	0	28	0	333447168	71	4932
2026-01-15 09:31:59.17	148.02	20.82	-53.0	-55.5	14.0	0.00e+00	0	28	0	335544320	71	5014
2026-01-15 09:32:00.18	148.01	20.96	-53.0	-55.5	14.0	0.00e+00	0	28	0	337641472	71	5008
2026-01-15 09:32:01.19	148.00	21.10	-53.0	-55.4	14.0	0.00e+00	0	28	0	338690048	71	4971
2026-01-15 09:32:02.20	147.99	21.24	-53.0	-55.6	13.9	0.00e+00	0	28	0	340787200	71	5065
2026-01-15 09:32:03.20	147.98	21.37	-52.9	-55.4	14.0	0.00e+00	0	28	0	342884352	71	4950
2026-01-15 09:32:04.21	147.97	21.51	-52.9	-55.3	14.1	0.00e+00	0	28	0	344981504	71	4896
2026-01-15 09:32:05.22	147.96	21.65	-53.0	-55.5	14.0	0.00e+00	0	28	0	347078656	71	5004
2026-01-15 09:32:06.22	147.95	21.80	-53.0	-55.5	14.0	0.00e+00	0	28	0	348127232	71	5014
2026-01-15 09:32:07.23	147.94	21.94	-52.9	-55.4	14.0	0.00e+00	0	28	0	350224384	71	4959
2026-01-15 09:32:08.24	147.93	22.08	-52.9	-55.4	14.0	0.00e+00	0	28	0	352321536	71	4950
2026-01-15 09:32:09.24	147.92	22.22	-53.0	-55.4	14.0	0.00e+00	0	28	0	354418688	71	4955
2026-01-15 09:32:10.25	147.91	22.37	-52.9	-55.3	14.1	0.00e+00	0	28	0	356515840	71	4919
2026-01-15 09:32:11.26	147.90	22.52	-53.0	-55.4	14.0	0.00e+00	0	28	0	357564416	71	4958
2026-01-15 09:32:12.27	147.89	22.66	-53.0	-55.4	14.0	0.00e+00	0	28	0	359661568	71	4961
2026-01-15 09:32:13.28	147.88	22.81	-53.1	-55.5	14.0	0.00e+00	0	28	0	361758720	71	5023
2026-01-15 09:32:14.29	147.86	22.96	-53.0	-55.3	14.1	0.00e+00	0	28	0	363855872	71	4924
2026-01-15 09:32:15.30	147.85	23.11	-52.8	-55.1	14.2	0.00e+00	0	28	0	365953024	71	4812
2026-01-15 09:32:16.31	147.84	23.26	-52.7	-55.0	14.2	0.00e+00	0	28	0	367001600	71	4722
2026-01-15 09:32:17.31	147.83	23.41	-52.7	-54.9	14.3	0.00e+00	0	28	0	369098752	71	4662
2026-01-15 09:32:18.32	147.82	23.56	-52.6	-54.8	14.3	0.00e+00	0	28	0	371195904	71	4616
2026-01-15 09:32:19.33	147.80	23.71	-52.6	-54.8	14.3	0.00e+00	0	28	0	373293056	71	4613
2026-01-15 09:32:20.33	147.79	23.86	-52.6	-54.7	14.3	0.00e+00	0	28	0	375390208	71	4578
2026-01-15 09:32:21.33	147.78	24.02	-52.6	-54.7	14.4	0.00e+00	0	28	0	376438784	71	4565
2026-01-15 09:32:22.34	147.77	24.17	-52.5	-54.6	14.4	0.00e+00	0	28	0	378535936	71	4529
2026-01-15 09:32:23.35	147.75	24.33	-52.5	-54.5	14.4	0.00e+00	0	28	0	380633088	71	4489
2026-01-15 09:32:24.35	147.74	24.49	-52.5	-54.6	14.4	0.00e+00	0	28	0	382730240	71	4523
2026-01-15 09:32:25.36	147.73	24.64	-52.6	-54.8	14.3	0.00e+00	0	28	0	384827392	71	4603
2026-01-15 09:32:26.37	147.71	24.80	-52.6	-54.8	14.3	0.00e+00	0	28	0	385875968	71	4616
2026-01-15 09:32:27.38	147.70	24.96	-52.5	-54.6	14.4	0.00e+00	0	28	0	387973120	71	4503
2026-01-15 09:32:28.38	147.68	25.12	-52.6	-54.7	14.3	0.00e+00	0	28	0	390070272	71	4580
2026-01-15 09:32:29.39	147.67	25.29	-52.7	-54.7	14.3	0.00e+00	0	28	0	392167424	71	4591
2026-01-15 09:32:30.39	147.66	25.45	-52.5	-54.5	14.4	0.00e+00	0	28	0	394264576	71	4471
2026-01-15 09:32:31.40	147.64	25.61	-52.3	-54.3	14.5	0.00e+00	0	28	0	395313152	71	4343
2026-01-15 09:32:32.41	147.63	25.78	-52.2	-54.2	14.5	0.00e+00	0	28	0	397410304	70	4552
2026-01-15 09:32:33.42	147.61	25.94	-52.1	-53.9	14.5	0.00e+00	0	28	0	399507456	70	4440
2026-01-15 09:32:34.43	147.60	26.11	-52.2	-54.1	14.5	0.00e+00	0	28	0	401604608	70	4511
2026-01-15 09:32:35.43	147.58	26.28	-52.2	-54.2	14.5	0.00e+00	0	28	0	403701760	70	4551
2026-01-15 09:32:36.44	147.57	26.45	-52.3	-54.2	14.4	0.00e+00	0	28	0	404750336	70	4588
2026-01-15 09:32:37.45	147.55	26.62	-52.5	-54.5	14.3	0.00e+00	0	28	0	406847488	70	4741
2026-01-15 09:32:38.46	147.54	26.79	-52.7	-54.7	14.2	0.00e+00	0	28	0	408944640	70	4863
2026-01-15 09:32:39.47	147.52	26.96	-52.6	-54.7	14.3	0.00e+00	0	28	0	411041792	70	4833
2026-01-15 09:32:40.48	147.50	27.13	-52.9	-55.0	14.2	0.00e+00	0	28	0	413138944	71	4756
2026-01-15 09:32:41.48	147.49	27.31	-53.1	-55.3	14.1	0.00e+00	0	28	0	414187520	71	4872
2026-01-15 09:32:42.49	147.47	27.48	-53.0	-55.1	14.2	0.00e+00	0	28	0	416284672	71	4787
2026-01-15 09:32:43.49	147.45	27.66	-53.2	-55.5	14.0	0.00e+00	0	28	0	418381824	71	5020
2026-01-15 09:32:44.50	147.44	27.84	-53.2	-55.4	14.0	0.00e+00	0	28	0	420478976	71	4971
2026-01-15 09:32:45.51	147.42	28.02	-53.1	-55.3	14.1	0.00e+00	0	28	0	422576128	71	4926
2026-01-15 09:32:46.52	147.40	28.20	-53.2	-55.5	14.0	0.00e+00	0	28	0	423624704	71	5017
2026-01-15 09:32:47.53	147.38	28.38	-53.2	-55.5	14.0	0.00e+00	0	28	0	425721856	71	5036
2026-01-15 09:32:48.53	147.37	28.56	-53.1	-55.4	14.1	0.00e+00	0	28	0	427819008	71	4953
2026-01-15 09:32:49.54	147.35	28.74	-53.2	-55.6	14.0	0.00e+00	0	28	0	429916160	71	5048
2026-01-15 09:32:50.55	147.33	28.93	-53.1	-55.3	14.2	0.00e+00	0	28	0	432013312	72	4648
2026-01-15 09:32:51.56	147.31	29.12	-53.6	-56.1	13.8	0.00e+00	0	28	0	433061888	72	5085
2026-01-15 09:32:52.57	147.29	29.30	-53.7	-56.3	13.8	0.00e+00	0	28	0	435159040	72	5181
2026-01-15 09:32:53.58	147.27	29.49	-54.0	-56.6	13.7	0.00e+00	0	28	0	437256192	73	5084
2026-01-15 09:32:54.58	147.25	29.68	-54.2	-57.0	13.5	0.00e+00	0	28	0	439353344	73	5332
2026-01-15 09:32:55.59	147.23	29.87	-54.2	-57.0	13.5	0.00e+00	0	28	0	441450496	73	5295
2026-01-15 09:32:56.60	147.21	30.07	-54.3	-57.1	13.5	0.00e+00	0	28	0	442499072	73	5364
2026-01-15 09:32:57.60	147.19	30.26	-54.3	-56.9	13.6	0.00e+00	0	28	0	444596224	74	4966
2026-01-15 09:32:58.61	147.17	30.45	-53.9	-56.4	13.9	0.00e+00	0	28	0	446693376	74	4662
2026-01-15 09:32:59.62	147.15	30.65	-54.3	-56.9	13.7	0.00e+00	0	28	0	448790528	74	4933
2026-01-15 09:33:00.63	147.13	30.85	-54.2	-56.7	13.8	0.00e+00	0	28	0	450887680	74	4838
2026-01-15 09:33:01.64	147.11	31.05	-54.3	-57.0	13.6	0.00e+00	0	28	0	451936256	74	4998
2026-01-15 09:33:02.64	147.08	31.25	-54.5	-57.2	13.5	0.00e+00	0	28	0	454033408	74	5116
2026-01-15 09:33:03.65	147.06	31.45	-54.8	-57.7	13.3	0.00e+00	0	28	0	456130560	75	5130
2026-01-15 09:33:04.67	147.04	31.65	-55.3	-58.5	12.8	0.00e+00	0	28	0	458227712	75	5614
2026-01-15 09:33:05.67	147.02	31.86	-55.6	-59.0	12.6	0.00e+00	0	28	0	460324864	76	5596
2026-01-15 09:33:06.68	146.99	32.06	-55.7	-59.2	12.5	0.00e+00	0	28	0	462422016	76	5778
2026-01-15 09:33:07.69	146.97	32.27	-55.9	-59.6	12.4	0.00e+00	0	28	0	463470592	77	5659
2026-01-15 09:33:08.69	146.95	32.48	-55.8	-59.4	12.4	0.00e+00	0	28	0	465567744	77	5553
2026-01-15 09:33:09.70	146.92	32.69	-56.0	-59.8	12.2	0.00e+00	0	28	0	467664896	77	5849
2026-01-15 09:33:10.71	146.90	32.90	-55.7	-59.2	12.7	0.00e+00	0	28	0	469762048	77	5413
2026-01-15 09:33:11.72	146.87	33.12	-55.6	-59.0	12.8	0.00e+00	0	28	0	471859200	77	5319
2026-01-15 09:33:12.72	146.85	33.33	-55.6	-59.1	12.7	0.00e+00	0	28	0	472907776	77	5394
2026-01-15 09:33:13.73	146.82	33.55	-55.7	-59.1	12.6	0.00e+00	0	28	0	475004928	77	5382
2026-01-15 09:33:14.73	146.79	33.76	-55.6	-59.2	12.7	0.00e+00	0	28	0	477102080	77	5405
2026-01-15 09:33:15.74	146.77	33.98	-55.5	-58.8	12.9	0.00e+00	0	28	0	479199232	77	5187
2026-01-15 09:33:16.75	146.74	34.20	-55.0	-58.0	13.2	0.00e+00	0	28	0	480247808	76	5036
2026-01-15 09:33:17.76	146.71	34.43	-55.0	-58.0	13.3	0.00e+00	0	28	0	482344960	76	5001
2026-01-15 09:33:18.77	146.69	34.65	-54.5	-57.3	13.6	0.00e+00	0	28	0	484442112	75	4926
2026-01-15 09:33:19.78	146.66	34.88	-54.2	-56.9	13.7	0.00e+00	0	28	0	486539264	74	4935
2026-01-15 09:33:20.78	146.63	35.10	-53.5	-55.9	14.1	0.00e+00	0	28	0	488636416	73	4661
2026-01-15 09:33:21.79	146.60	35.33	-53.3	-55.7	14.2	0.00e+00	0	28	0	490733568	73	4559
2026-01-15 09:33:22.80	146.57	35.56	-53.1	-55.4	14.2	0.00e+00	0	28	0	491782144	72	4679
2026-01-15 09:33:23.81	146.54	35.80	-52.9	-55.0	14.4	0.00e+00	0	28	0	493879296	72	4491
2026-01-15 09:33:24.82	146.51	36.03	-52.9	-55.2	14.2	0.00e+00	0	28	0	495976448	71	4830
2026-01-15 09:33:25.83	146.48	36.27	-52.7	-54.9	14.3	0.00e+00	0	28	0	498073600	71	4684
2026-01-15 09:33:26.84	146.45	36.51	-52.6	-54.7	14.4	0.00e+00	0	28	0	500170752	71	4561
2026-01-15 09:33:27.84	146.41	36.74	-52.6	-54.7	14.4	0.00e+00	0	28	0	501219328	71	4554
2026-01-15 09:33:28.85	146.38	36.98	-52.2	-54.1	14.6	0.00e+00	0	28	0	503316480	71	4282
2026-01-15 09:33:29.86	146.35	37.23	-51.8	-53.7	14.7	0.00e+00	0	28	0	505413632	70	4319
2026-01-15 09:33:30.87	146.31	37.47	-51.5	-53.3	14.7	0.00e+00	0	28	0	507510784	69	4364
2026-01-15 09:33:31.88	146.28	37.72	-51.2	-53.0	14.9	0.00e+00	0	28	0	509607936	69	4221
2026-01-15 09:33:32.89	146.24	37.97	-51.6	-53.5	14.6	0.00e+00	0	28	0	510656512	69	4469
2026-01-15 09:33:33.90	146.21	38.22	-51.7	-53.6	14.6	0.00e+00	0	28	0	512753664	69	4519
2026-01-15 09:33:34.90	146.17	38.47	-51.7	-53.7	14.6	0.00e+00	0	28	0	514850816	69	4552
2026-01-15 09:33:35.91	146.14	38.72	-52.0	-54.0	14.5	0.00e+00	0	28	0	516947968	69	4723
2026-01-15 09:33:36.92	146.10	38.98	-52.0	-54.1	14.5	0.00e+00	0	28	0	519045120	69	4779
2026-01-15 09:33:37.93	146.06	39.24	-52.0	-54.0	14.5	0.00e+00	0	28	0	520093696	69	4711
2026-01-15 09:33:38.93	146.02	39.49	-52.0	-53.9	14.5	0.00e+00	0	28	0	522190848	69	4700
2026-01-15 09:33:39.94	145.98	39.76	-51.9	-53.8	14.5	0.00e+00	0	28	0	524288000	69	4630
2026-01-15 09:33:40.94	145.94	40.02	-51.6	-53.5	14.7	0.00e+00	0	28	0	526385152	69	4457
2026-01-15 09:33:41.94	145.90	40.28	-51.5	-53.4	14.7	0.00e+00	0	28	0	528482304	69	4415
2026-01-15 09:33:42.95	145.86	40.55	-51.6	-53.5	14.6	0.00e+00	0	28	0	529530880	69	4492
2026-01-15 09:33:43.96	145.82	40.82	-51.4	-53.4	14.7	0.00e+00	0	28	0	531628032	69	4402
2026-01-15 09:33:44.96	145.77	41.09	-51.9	-54.0	14.4	0.00e+00	0	28	0	533725184	69	4756
2026-01-15 09:33:45.97	145.73	41.36	-52.0	-54.1	14.4	0.00e+00	0	28	0	535822336	69	4787
2026-01-15 09:33:46.98	145.69	41.64	-52.1	-54.3	14.4	0.00e+00	0	28	0	537919488	69	4880
2026-01-15 09:33:48.00	145.64	41.92	-52.4	-54.7	14.3	0.00e+00	0	28	0	538968064	70	4816
2026-01-15 09:33:49.01	145.59	42.20	-52.5	-54.9	14.2	0.00e+00	0	28	0	541065216	70	4942
2026-01-15 09:33:50.02	145.55	42.48	-52.5	-54.8	14.2	0.00e+00	0	28	0	543162368	70	4895
2026-01-15 09:33:51.02	145.50	42.76	-52.4	-54.7	14.3	0.00e+00	0	28	0	545259520	70	4832
2026-01-15 09:33:52.02	145.45	43.04	-52.6	-55.0	14.2	0.00e+00	0	28	0	547356672	70	4986
2026-01-15 09:33:53.03	145.40	43.33	-52.7	-55.1	14.1	0.00e+00	0	28	0	548405248	70	5084
2026-01-15 09:33:54.04	145.35	43.62	-52.7	-55.2	14.1	0.00e+00	0	28	0	550502400	70	5118
2026-01-15 09:33:55.05	145.30	43.91	-53.3	-56.0	13.9	0.00e+00	0	28	0	552599552	71	5312
2026-01-15 09:33:56.06	145.24	44.21	-53.4	-56.2	13.8	0.00e+00	0	28	0	554696704	71	5421
2026-01-15 09:33:57.07	145.19	44.51	-53.4	-56.2	13.9	0.00e+00	0	28	0	556793856	72	5103
2026-01-15 09:33:58.07	145.13	44.80	-53.5	-56.3	13.8	0.00e+00	0	28	0	557842432	72	5214
2026-01-15 09:33:59.08	145.08	45.10	-53.4	-56.0	14.0	0.00e+00	0	28	0	559939584	72	5020
2026-01-15 09:34:00.09	145.02	45.41	-53.4	-55.9	14.0	0.00e+00	0	28	0	562036736	72	4932
2026-01-15 09:34:01.09	144.96	45.71	-53.3	-55.8	14.0	0.00e+00	0	28	0	564133888	72	4896
2026-01-15 09:34:02.10	144.90	46.02	-53.6	-56.2	13.9	0.00e+00	0	28	0	566231040	72	5122
2026-01-15 09:34:03.10	144.84	46.33	-54.2	-57.1	13.5	0.00e+00	0	28	0	567279616	73	5353
2026-01-15 09:34:04.11	144.78	46.64	-54.7	-58.0	13.0	0.00e+00	0	28	0	569376768	74	5633
2026-01-15 09:34:05.12	144.72	46.96	-54.9	-58.8	12.8	0.00e+00	0	28	0	571473920	75	5799
2026-01-15 09:34:06.12	144.65	47.27	-55.0	-58.9	12.6	0.00e+00	0	28	0	573571072	75	5862
2026-01-15 09:34:07.13	144.58	47.59	-54.6	-58.1	13.1	0.00e+00	0	28	0	575668224	75	5379
2026-01-15 09:34:08.13	144.52	47.91	-53.9	-57.1	13.5	0.00e+00	0	28	0	576716800	74	5098
2026-01-15 09:34:09.14	144.45	48.23	-53.7	-56.7	13.8	0.00e+00	0	28	0	578813952	74	4868
2026-01-15 09:34:10.14	144.38	48.56	-54.0	-57.3	13.5	0.00e+00	0	28	0	580911104	73	5506
2026-01-15 09:34:11.15	144.30	48.89	-54.1	-57.4	13.3	0.00e+00	0	28	0	583008256	73	5592
2026-01-15 09:34:12.16	144.23	49.22	-53.8	-56.8	13.6	0.00e+00	0	28	0	585105408	73	5160
2026-01-15 09:34:13.17	144.15	49.55	-52.9	-55.5	14.1	0.00e+00	0	28	0	586153984	72	4740
2026-01-15 09:34:14.18	144.08	49.89	-52.8	-55.3	14.2	0.00e+00	0	28	0	588251136	72	4636
2026-01-15 09:34:15.19	144.00	50.23	-52.4	-54.9	14.3	0.00e+00	0	28	0	590348288	71	4676
2026-01-15 09:34:16.20	143.91	50.57	-52.1	-54.5	14.4	0.00e+00	0	28	0	592445440	70	4710
2026-01-15 09:34:17.20	143.83	50.91	-51.8	-54.2	14.5	0.00e+00	0	28	0	594542592	70	4590
2026-01-15 09:34:18.21	143.75	51.26	-51.9	-54.3	14.4	0.00e+00	0	28	0	595591168	69	4920
2026-01-15 09:34:19.22	143.66	51.61	-51.9	-54.4	14.3	0.00e+00	0	28	0	597688320	69	4933
2026-01-15 09:34:20.23	143.57	51.96	-52.1	-54.5	14.3	0.00e+00	0	28	0	599785472	69	4985
2026-01-15 09:34:21.23	143.48	52.31	-52.7	-55.2	14.1	0.00e+00	0	28	0	601882624	70	5120
2026-01-15 09:34:22.24	143.38	52.67	-52.9	-55.4	14.0	0.00e+00	0	28	0	603979776	70	5233
2026-01-15 09:34:23.24	143.29	53.02	-53.3	-55.8	14.0	0.00e+00	0	28	0	605028352	72	4922
2026-01-15 09:34:24.25	143.19	53.38	-53.5	-56.1	13.9	0.00e+00	0	28	0	607125504	72	5083
2026-01-15 09:34:25.26	143.09	53.75	-53.4	-55.9	14.0	0.00e+00	0	28	0	609222656	72	4959
2026-01-15 09:34:26.27	142.98	54.12	-52.6	-54.7	14.5	0.00e+00	0	28	0	611319808	71	4553
2026-01-15 09:34:27.28	142.87	54.48	-51.7	-53.6	14.7	0.00e+00	0	28	0	613416960	70	4261
2026-01-15 09:34:28.28	142.76	54.85	-51.4	-53.2	14.8	0.00e+00	0	28	0	614465536	69	4297
2026-01-15 09:34:29.30	142.65	55.23	-51.9	-53.9	14.5	0.00e+00	0	28	0	616562688	69	4697
2026-01-15 09:34:30.30	142.53	55.60	-52.6	-54.9	14.3	0.00e+00	0	28	0	618659840	70	4929
2026-01-15 09:34:31.31	142.42	55.98	-52.7	-54.9	14.2	0.00e+00	0	28	0	620756992	70	4977
2026-01-15 09:34:32.31	142.29	56.36	-52.7	-54.8	14.3	0.00e+00	0	28	0	622854144	71	4624
2026-01-15 09:34:33.32	142.17	56.74	-52.3	-54.2	14.5	0.00e+00	0	28	0	623902720	71	4336
2026-01-15 09:34:34.33	142.04	57.13	-52.9	-54.9	14.3	0.00e+00	0	28	0	625999872	71	4688
2026-01-15 09:34:35.33	141.90	57.52	-53.8	-56.2	13.8	0.00e+00	0	28	0	628097024	72	5108
2026-01-15 09:34:36.34	141.77	57.91	-54.9	-57.9	13.2	0.00e+00	0	28	0	630194176	74	5576
2026-01-15 09:34:37.35	141.62	58.30	-54.9	-58.0	13.1	0.00e+00	0	28	0	632291328	75	5312
2026-01-15 09:34:38.36	141.48	58.70	-55.0	-58.0	13.2	0.00e+00	0	28	0	633339904	75	5323
2026-01-15 09:34:39.37	141.32	59.10	-54.7	-57.5	13.4	0.00e+00	0	28	0	635437056	75	5027
2026-01-15 09:34:40.37	141.17	59.49	-54.7	-57.6	13.4	0.00e+00	0	28	0	637534208	75	5043
2026-01-15 09:34:41.37	141.01	59.89	-54.3	-57.0	13.6	0.00e+00	0	28	0	639631360	75	4754
2026-01-15 09:34:42.38	140.84	60.30	-54.3	-57.0	13.6	0.00e+00	0	28	0	641728512	74	5011
2026-01-15 09:34:43.39	140.67	60.71	-54.3	-57.1	13.5	0.00e+00	0	28	0	642777088	74	5099
2026-01-15 09:34:44.39	140.50	61.12	-54.4	-57.5	13.3	0.00e+00	0	28	0	644874240	74	5336
2026-01-15 09:34:45.39	140.31	61.53	-54.6	-58.0	12.9	0.00e+00	0	28	0	646971392	74	5603
2026-01-15 09:34:46.39	140.13	61.94	-53.8	-56.6	13.8	0.00e+00	0	28	0	649068544	74	4785
2026-01-15 09:34:47.39	139.93	62.35	-52.8	-55.1	14.3	0.00e+00	0	28	0	651165696	72	4509
2026-01-15 09:34:48.40	139.73	62.77	-52.1	-54.1	14.4	0.00e+00	0	28	0	652214272	70	4529
2026-01-15 09:34:49.41	139.52	63.19	-51.8	-53.9	14.6	0.00e+00	0	28	0	654311424	70	4418
2026-01-15 09:34:50.42	139.30	63.62	-51.7	-53.8	14.6	0.00e+00	0	28	0	656408576	70	4379
2026-01-15 09:34:51.43	139.07	64.04	-51.1	-52.9	14.7	0.00e+00	0	28	0	658505728	68	4415
2026-01-15 09:34:52.44	138.84	64.47	-51.3	-53.1	14.7	0.00e+00	0	28	0	660602880	68	4497
2026-01-15 09:34:53.45	138.59	64.90	-51.7	-53.5	14.5	0.00e+00	0	28	0	661651456	68	4723
2026-01-15 09:34:54.46	138.34	65.33	-51.8	-53.6	14.5	0.00e+00	0	28	0	663748608	68	4777
2026-01-15 09:34:55.46	138.08	65.76	-52.3	-54.2	14.3	0.00e+00	0	28	0	665845760	69	4840
2026-01-15 09:34:56.47	137.80	66.20	-52.9	-55.0	14.2	0.00e+00	0	28	0	667942912	71	4759
2026-01-15 09:34:57.48	137.51	66.64	-54.4	-57.1	13.5	0.00e+00	0	28	0	670040064	73	5384
2026-01-15 09:34:58.49	137.21	67.08	-54.6	-57.3	13.6	0.00e+00	0	28	0	671088640	75	4898
2026-01-15 09:34:59.50	136.90	67.52	-54.1	-56.5	13.9	0.00e+00	0	28	0	673185792	74	4753
2026-01-15 09:35:00.51	136.58	67.96	-54.5	-57.1	13.6	0.00e+00	0	28	0	675282944	74	5078
2026-01-15 09:35:01.51	136.24	68.40	-55.8	-59.1	12.7	0.00e+00	0	28	0	677380096	76	5713
2026-01-15 09:35:02.52	135.88	68.85	-56.0	-59.5	12.5	0.00e+00	0	28	0	679477248	77	5655
2026-01-15 09:35:03.53	135.51	69.30	-54.7	-57.1	13.8	0.00e+00	0	28	0	680525824	76	4541
2026-01-15 09:35:04.54	135.12	69.75	-53.7	-55.7	14.3	0.00e+00	0	28	0	682622976	74	4328
2026-01-15 09:35:05.54	134.71	70.19	-53.7	-55.9	14.1	0.00e+00	0	28	0	684720128	73	4677
2026-01-15 09:35:06.55	134.28	70.65	-53.8	-56.0	14.0	0.00e+00	0	28	0	686817280	73	4710
2026-01-15 09:35:07.56	133.83	71.10	-53.9	-56.2	14.0	0.00e+00	0	28	0	688914432	73	4815
2026-01-15 09:35:08.57	133.35	71.55	-52.9	-54.7	14.6	0.00e+00	0	28	0	689963008	72	4318
2026-01-15 09:35:09.57	132.86	72.00	-51.6	-53.1	14.8	0.00e+00	0	28	0	692060160	69	4285
2026-01-15 09:35:10.58	132.33	72.45	-51.1	-52.6	14.8	0.00e+00	0	28	0	694157312	68	4281
2026-01-15 09:35:11.59	131.77	72.91	-52.1	-53.9	14.5	0.00e+00	0	28	0	696254464	69	4685
2026-01-15 09:35:12.60	131.17	73.36	-53.5	-55.6	14.1	0.00e+00	0	28	0	698351616	72	4781
2026-01-15 09:35:13.61	130.55	73.82	-52.9	-54.8	14.5	0.00e+00	0	28	0	699400192	72	4361
2026-01-15 09:35:14.62	129.88	74.27	-52.6	-54.4	14.5	0.00e+00	0	28	0	701497344	71	4424
2026-01-15 09:35:15.63	129.17	74.72	-54.1	-56.4	13.9	0.00e+00	0	28	0	703594496	73	4981
2026-01-15 09:35:16.64	128.42	75.18	-55.3	-58.1	13.2	0.00e+00	0	28	0	705691648	76	5070
2026-01-15 09:35:17.65	127.62	75.63	-54.3	-56.6	14.0	0.00e+00	0	28	0	707788800	75	4512
2026-01-15 09:35:18.65	126.77	76.08	-54.1	-56.3	14.0	0.00e+00	0	28	0	708837376	74	4599
2026-01-15 09:35:19.66	125.86	76.52	-55.9	-59.2	12.7	0.00e+00	0	28	0	710934528	76	5754
2026-01-15 09:35:20.67	124.88	76.97	-56.1	-59.6	12.5	3.80e-06	0	28	0	713031680	78	5371
2026-01-15 09:35:21.67	123.84	77.41	-55.3	-58.1	13.3	0.00e+00	0	28	0	715128832	76	5092
2026-01-15 09:35:22.67	122.72	77.85	-55.5	-58.4	13.2	0.00e+00	0	28	0	717225984	76	5276
2026-01-15 09:35:23.68	121.51	78.28	-55.5	-58.6	13.1	0.00e+00	0	28	0	718274560	77	5086
2026-01-15 09:35:24.68	120.21	78.71	-55.0	-58.0	13.3	0.00e+00	0	28	0	720371712	76	5011
2026-01-15 09:35:25.69	118.79	79.14	-55.9	-59.7	12.4	0.00e+00	0	28	0	722468864	76	6110
2026-01-15 09:35:26.70	117.26	79.56	-55.4	-58.7	13.0	0.00e+00	0	28	0	724566016	77	5112
2026-01-15 09:35:27.71	115.59	79.97	-54.5	-57.2	13.5	0.00e+00	0	28	0	726663168	74	5117
2026-01-15 09:35:28.72	113.78	80.38	-55.3	-58.6	12.9	0.00e+00	0	28	0	728760320	75	5669
2026-01-15 09:35:29.73	111.81	80.77	-54.1	-56.6	13.9	0.00e+00	0	28	0	729808896	74	4761
2026-01-15 09:35:30.73	109.69	81.16	-52.1	-53.9	14.6	0.00e+00	0	28	0	731906048	70	4392
2026-01-15 09:35:31.74	107.35	81.53	-52.3	-54.2	14.4	0.00e+00	0	28	0	734003200	70	4587
2026-01-15 09:35:32.74	104.82	81.88	-52.5	-54.5	14.3	0.00e+00	0	28	0	736100352	70	4737
2026-01-15 09:35:33.75	102.04	82.22	-51.8	-53.6	14.7	0.00e+00	0	28	0	737148928	70	4274
2026-01-15 09:35:34.76	99.00	82.55	-52.1	-54.0	14.5	0.00e+00	0	28	0	739246080	69	4718
2026-01-15 09:35:35.77	95.70	82.84	-52.6	-54.5	14.4	0.00e+00	0	28	0	741343232	70	4746
2026-01-15 09:35:36.77	92.16	83.12	-53.0	-55.1	14.3	0.00e+00	0	28	0	743440384	71	4775
2026-01-15 09:35:37.78	88.30	83.36	-53.0	-55.0	14.3	0.00e+00	0	28	0	745537536	71	4721
2026-01-15 09:35:38.79	84.16	83.57	-52.0	-53.7	14.6	0.00e+00	0	27	0	746586112	70	4325
2026-01-15 09:35:39.80	79.76	83.75	-51.9	-53.6	14.7	0.00e+00	0	28	0	748683264	70	4267
2026-01-15 09:35:40.81	75.13	83.89	-52.3	-54.2	14.5	0.00e+00	0	28	0	750780416	70	4551
2026-01-15 09:35:41.82	70.32	83.99	-52.5	-54.4	14.4	0.00e+00	0	28	0	752877568	70	4694
2026-01-15 09:35:42.82	65.43	84.05	-52.0	-53.7	14.7	0.00e+00	0	28	0	754974720	70	4309
2026-01-15 09:35:43.83	60.43	84.06	-52.6	-54.5	14.4	0.00e+00	0	28	0	757071872	70	4729
2026-01-15 09:35:44.84	55.46	84.02	-53.2	-55.2	14.2	0.00e+00	0	28	0	758120448	71	4850
2026-01-15 09:35:45.85	50.58	83.94	-51.7	-53.4	14.8	0.00e+00	0	28	0	760217600	70	4148
2026-01-15 09:35:46.86	45.86	83.82	-51.8	-53.4	14.6	0.00e+00	0	28	0	762314752	69	4431
2026-01-15 09:35:47.86	41.39	83.66	-52.9	-54.8	14.4	0.00e+00	0	28	0	764411904	71	4628
2026-01-15 09:35:48.87	37.13	83.47	-53.4	-55.5	14.2	0.00e+00	0	28	0	766509056	71	5013
2026-01-15 09:35:49.88	33.14	83.23	-53.5	-55.7	14.2	0.00e+00	0	28	0	767557632	72	4825
2026-01-15 09:35:50.89	29.43	82.97	-53.0	-55.0	14.4	0.00e+00	0	28	0	769654784	72	4471
2026-01-15 09:35:51.89	26.04	82.69	-52.5	-54.3	14.6	0.00e+00	0	28	0	771751936	71	4389
2026-01-15 09:35:52.90	22.88	82.38	-52.8	-54.7	14.4	0.00e+00	0	28	0	773849088	71	4585
2026-01-15 09:35:53.91	19.99	82.05	-53.0	-55.0	14.3	0.00e+00	0	28	0	774897664	71	4747
2026-01-15 09:35:54.92	17.33	81.70	-53.9	-56.3	13.9	0.00e+00	0	28	0	776994816	72	5182
2026-01-15 09:35:55.92	14.92	81.33	-54.2	-56.7	13.8	0.00e+00	0	28	0	779091968	74	4854
2026-01-15 09:35:56.93	12.68	80.95	-54.2	-56.7	13.9	0.00e+00	0	28	0	781189120	74	4850
2026-01-15 09:35:57.93	10.65	80.57	-55.7	-59.0	12.8	0.00e+00	0	28	0	783286272	76	5629
2026-01-15 09:35:58.94	8.77	80.17	-56.2	-59.8	12.4	7.00e-07	0	28	0	785383424	78	5522
2026-01-15 09:35:59.95	7.04	79.76	-55.9	-59.2	12.9	0.00e+00	0	28	0	786432000	78	5135
2026-01-15 09:36:00.96	5.45	79.34	-56.5	-60.3	12.3	0.00e+00	0	28	0	788529152	78	5808
2026-01-15 09:36:01.96	3.99	78.92	-55.4	-58.3	13.3	0.00e+00	0	28	0	790626304	77	4905
2026-01-15 09:36:02.97	2.63	78.49	-55.1	-57.8	13.5	0.00e+00	0	28	0	792723456	75	5204
2026-01-15 09:36:03.97	1.39	78.06	-56.9	-61.0	11.9	0.00e+00	0	28	0	794820608	78	6280
2026-01-15 09:36:04.98	0.22	77.62	-57.1	-61.6	11.4	2.89e-05	0	28	0	795869184	79	6376
2026-01-15 09:36:05.99	359.13	77.18	-56.0	-59.3	12.9	3.00e-06	0	28	0	797966336	78	5164
2026-01-15 09:36:06.99	358.13	76.74	-54.8	-57.1	13.8	0.00e+00	0	28	0	800063488	76	4543
2026-01-15 09:36:08.00	357.19	76.29	-54.0	-56.1	14.2	0.00e+00	0	28	0	802160640	74	4498
2026-01-15 09:36:09.01	356.31	75.84	-54.1	-56.3	14.1	0.00e+00	0	28	0	803209216	74	4648
2026-01-15 09:36:10.01	355.49	75.40	-54.7	-57.1	13.6	0.00e+00	0	28	0	805306368	74	5090
2026-01-15 09:36:11.02	354.71	74.94	-54.5	-56.8	13.8	0.00e+00	0	28	0	807403520	74	4885
2026-01-15 09:36:12.03	353.99	74.49	-54.0	-56.1	14.1	0.00e+00	0	28	0	809500672	74	4538
2026-01-15 09:36:13.04	353.30	74.04	-55.0	-57.7	13.5	0.00e+00	0	28	0	811597824	75	5105
2026-01-15 09:36:14.05	352.66	73.58	-55.1	-57.8	13.4	0.00e+00	0	28	0	813694976	75	5212
2026-01-15 09:36:15.05	352.06	73.13	-54.8	-57.3	13.7	0.00e+00	0	28	0	814743552	75	4891
2026-01-15 09:36:16.06	351.48	72.68	-54.8	-57.4	13.6	0.00e+00	0	28	0	816840704	75	4940
2026-01-15 09:36:17.07	350.94	72.23	-53.6	-55.6	14.1	0.00e+00	0	28	0	818937856	73	4532
2026-01-15 09:36:18.08	350.42	71.77	-53.5	-55.5	14.3	0.00e+00	0	28	0	821035008	73	4460
2026-01-15 09:36:19.09	349.93	71.32	-54.2	-56.5	13.9	0.00e+00	0	28	0	823132160	73	5001
2026-01-15 09:36:20.10	349.47	70.87	-54.4	-56.7	13.9	0.00e+00	0	28	0	824180736	74	4841
2026-01-15 09:36:21.11	349.03	70.42	-55.1	-57.7	13.4	0.00e+00	0	28	0	826277888	75	5153
2026-01-15 09:36:22.11	348.61	69.97	-55.7	-58.6	13.2	0.00e+00	0	28	0	828375040	76	5357
2026-01-15 09:36:23.12	348.22	69.52	-54.9	-57.3	13.8	0.00e+00	0	28	0	830472192	76	4622
2026-01-15 09:36:24.12	347.84	69.08	-54.2	-56.4	14.0	0.00e+00	0	28	0	832569344	74	4658
2026-01-15 09:36:25.13	347.47	68.63	-53.6	-55.7	14.3	0.00e+00	0	28	0	833617920	73	4557
2026-01-15 09:36:26.13	347.13	68.19	-54.2	-56.5	13.9	0.00e+00	0	28	0	835715072	73	5021
2026-01-15 09:36:27.14	346.80	67.75	-54.8	-57.4	13.5	0.00e+00	0	28	0	837812224	74	5269
2026-01-15 09:36:28.15	346.48	67.31	-55.4	-58.4	13.2	0.00e+00	0	28	0	839909376	76	5223
2026-01-15 09:36:29.15	346.18	66.87	-55.4	-58.2	13.4	0.00e+00	0	28	0	842006528	76	5149
2026-01-15 09:36:30.16	345.88	66.43	-54.2	-56.6	14.0	0.00e+00	0	28	0	843055104	75	4518
2026-01-15 09:36:31.17	345.60	66.00	-53.6	-55.7	14.2	0.00e+00	0	28	0	845152256	73	4583
2026-01-15 09:36:32.17	345.34	65.57	-54.4	-57.0	13.7	0.00e+00	0	28	0	847249408	74	5034
2026-01-15 09:36:33.18	345.08	65.14	-55.2	-58.3	13.1	0.00e+00	0	28	0	849346560	75	5522
2026-01-15 09:36:34.19	344.83	64.70	-54.9	-57.8	13.3	0.00e+00	0	28	0	851443712	75	5192
2026-01-15 09:36:35.19	344.59	64.28	-55.1	-58.2	13.2	0.00e+00	0	28	0	852492288	75	5417
2026-01-15 09:36:36.20	344.36	63.85	-55.3	-58.4	13.1	0.00e+00	0	28	0	854589440	75	5561
2026-01-15 09:36:37.21	344.14	63.43	-55.3	-58.4	13.1	0.00e+00	0	28	0	856686592	75	5561
2026-01-15 09:36:38.21	343.92	63.01	-54.5	-57.0	13.9	0.00e+00	0	28	0	858783744	75	4755
2026-01-15 09:36:39.22	343.72	62.59	-54.5	-57.1	13.7	0.00e+00	0	28	0	860880896	75	4806
2026-01-15 09:36:40.22	343.52	62.18	-54.2	-56.6	13.9	0.00e+00	0	28	0	861929472	74	4798
2026-01-15 09:36:41.23	343.33	61.76	-53.4	-55.6	14.3	0.00e+00	0	28	0	864026624	73	4504
2026-01-15 09:36:42.23	343.14	61.35	-52.2	-53.9	14.6	0.00e+00	0	28	0	866123776	70	4438
2026-01-15 09:36:43.23	342.96	60.94	-53.1	-55.1	14.2	0.00e+00	0	28	0	868220928	71	4806
2026-01-15 09:36:44.24	342.79	60.54	-52.7	-54.7	14.4	0.00e+00	0	28	0	870318080	71	4575
2026-01-15 09:36:45.25	342.62	60.13	-53.0	-55.0	14.3	0.00e+00	0	28	0	871366656	71	4713
2026-01-15 09:36:46.26	342.46	59.73	-53.1	-55.2	14.2	0.00e+00	0	28	0	873463808	71	4847
2026-01-15 09:36:47.27	342.30	59.32	-52.4	-54.3	14.6	0.00e+00	0	28	0	875560960	71	4356
2026-01-15 09:36:48.28	342.14	58.92	-50.7	-52.3	15.0	0.00e+00	0	28	0	877658112	68	4109
2026-01-15 09:36:49.29	341.99	58.53	-50.5	-52.0	14.8	0.00e+00	0	28	0	879755264	66	4481
2026-01-15 09:36:50.29	341.85	58.14	-52.2	-54.1	14.5	0.00e+00	0	28	0	880803840	69	4760
2026-01-15 09:36:51.30	341.71	57.75	-53.4	-55.8	14.0	0.00e+00	0	28	0	882900992	71	5166
2026-01-15 09:36:52.31	341.58	57.36	-53.9	-56.5	13.8	0.00e+00	0	28	0	884998144	73	5031
2026-01-15 09:36:53.32	341.44	56.97	-53.8	-56.6	13.8	0.00e+00	0	28	0	887095296	73	5052
2026-01-15 09:36:54.33	341.32	56.58	-53.7	-56.3	13.9	0.00e+00	0	28	0	889192448	73	4898
2026-01-15 09:36:55.33	341.19	56.21	-52.9	-55.1	14.4	0.00e+00	0	28	0	890241024	72	4534
2026-01-15 09:36:56.34	341.07	55.83	-52.5	-54.6	14.5	0.00e+00	0	28	0	892338176	71	4515
2026-01-15 09:36:57.35	340.95	55.45	-53.0	-55.3	14.2	0.00e+00	0	28	0	894435328	71	4886
2026-01-15 09:36:58.36	340.84	55.08	-54.0	-56.7	13.7	0.00e+00	0	28	0	896532480	73	5157
2026-01-15 09:36:59.37	340.73	54.70	-53.6	-56.2	13.9	0.00e+00	0	28	0	898629632	73	4838
2026-01-15 09:37:00.38	340.62	54.33	-53.1	-55.2	14.3	0.00e+00	0	28	0	899678208	72	4568
2026-01-15 09:37:01.38	340.51	53.97	-53.1	-55.2	14.3	0.00e+00	0	28	0	901775360	72	4559
2026-01-15 09:37:02.39	340.41	53.61	-53.9	-56.4	13.9	0.00e+00	0	28	0	903872512	73	4957
2026-01-15 09:37:03.40	340.31	53.24	-54.2	-56.8	13.8	0.00e+00	0	28	0	905969664	73	5193
2026-01-15 09:37:04.40	340.21	52.89	-53.1	-55.1	14.3	0.00e+00	0	28	0	908066816	72	4526
2026-01-15 09:37:05.41	340.12	52.53	-52.3	-54.2	14.6	0.00e+00	0	28	0	909115392	71	4294
2026-01-15 09:37:06.42	340.02	52.18	-53.5	-55.9	14.0	0.00e+00	0	28	0	911212544	72	4948
2026-01-15 09:37:07.43	339.93	51.83	-54.5	-57.4	13.4	0.00e+00	0	28	0	913309696	74	5242
2026-01-15 09:37:08.44	339.85	51.48	-54.3	-57.1	13.5	0.00e+00	0	28	0	915406848	74	5075
2026-01-15 09:37:09.44	339.76	51.13	-54.1	-56.9	13.7	0.00e+00	0	28	0	917504000	74	4963
2026-01-15 09:37:10.45	339.68	50.79	-54.5	-57.6	13.3	0.00e+00	0	28	0	918552576	74	5341
2026-01-15 09:37:11.46	339.59	50.45	-55.3	-59.1	12.6	0.00e+00	0	28	0	920649728	75	6015
2026-01-15 09:37:12.47	339.51	50.11	-54.7	-57.8	13.4	0.00e+00	0	28	0	922746880	76	4874
2026-01-15 09:37:13.48	339.43	49.77	-54.3	-57.1	13.7	0.00e+00	0	28	0	924844032	75	4768
2026-01-15 09:37:14.48	339.36	49.44	-54.1	-56.7	13.8	0.00e+00	0	28	0	926941184	74	4833
2026-01-15 09:37:15.49	339.28	49.11	-54.9	-58.1	13.2	0.00e+00	0	28	0	927989760	75	5351
2026-01-15 09:37:16.50	339.21	48.78	-56.1	-60.0	12.2	0.00e+00	0	28	0	930086912	77	5981
2026-01-15 09:37:17.51	339.14	48.45	-56.9	-61.9	11.1	2.82e-05	0	28	0	932184064	78	7015
2026-01-15 09:37:18.51	339.07	48.13	-56.0	-59.8	12.5	1.75e-05	0	28	0	934281216	78	5521
2026-01-15 09:37:19.52	339.00	47.80	-55.7	-59.1	12.9	0.00e+00	0	28	0	936378368	77	5387
2026-01-15 09:37:20.53	338.93	47.48	-54.5	-57.1	13.7	0.00e+00	0	28	0	937426944	75	4812
2026-01-15 09:37:21.54	338.87	47.17	-53.7	-56.1	14.1	0.00e+00	0	28	0	939524096	74	4505
2026-01-15 09:37:22.55	338.80	46.85	-53.3	-55.5	14.3	0.00e+00	0	28	0	941621248	73	4451
2026-01-15 09:37:23.56	338.74	46.54	-53.3	-55.4	14.2	0.00e+00	0	28	0	943718400	72	4683
2026-01-15 09:37:24.57	338.68	46.23	-53.2	-55.2	14.3	0.00e+00	0	28	0	945815552	72	4557
2026-01-15 09:37:25.57	338.62	45.92	-53.4	-55.5	14.2	0.00e+00	0	28	0	946864128	72	4727
2026-01-15 09:37:26.58	338.56	45.61	-54.4	-56.8	13.7	0.00e+00	0	28	0	948961280	73	5206
2026-01-15 09:37:27.59	338.50	45.31	-55.9	-59.3	12.6	0.00e+00	0	28	0	951058432	76	5801
2026-01-15 09:37:28.60	338.45	45.01	-56.8	-61.0	11.6	1.50e-06	0	28	0	953155584	78	6307
2026-01-15 09:37:29.61	338.39	44.71	-56.7	-60.8	11.9	1.50e-06	0	28	0	955252736	78	6164
2026-01-15 09:37:30.62	338.34	44.41	-56.6	-60.5	12.2	1.50e-06	0	28	0	956301312	78	5956
2026-01-15 09:37:31.62	338.28	44.12	-55.7	-58.9	13.0	0.00e+00	0	28	0	958398464	78	4968
2026-01-15 09:37:32.63	338.23	43.83	-55.5	-58.5	13.2	0.00e+00	0	28	0	960495616	77	5007
2026-01-15 09:37:33.63	338.18	43.54	-54.7	-57.2	13.7	0.00e+00	0	28	0	962592768	75	4860
2026-01-15 09:37:34.64	338.13	43.25	-54.8	-57.4	13.6	0.00e+00	0	28	0	964689920	75	4951
2026-01-15 09:37:35.65	338.08	42.96	-53.8	-56.0	14.2	0.00e+00	0	28	0	965738496	74	4488
2026-01-15 09:37:36.66	338.03	42.68	-53.7	-56.0	14.1	0.00e+00	0	28	0	967835648	73	4718
2026-01-15 09:37:37.67	337.98	42.40	-53.9	-56.3	13.9	0.00e+00	0	28	0	969932800	73	4915
2026-01-15 09:37:38.68	337.94	42.12	-54.9	-58.0	13.1	0.00e+00	0	28	0	972029952	74	5647
2026-01-15 09:37:39.69	337.89	41.84	-55.1	-58.4	13.0	0.00e+00	0	28	0	974127104	75	5586
2026-01-15 09:37:40.69	337.85	41.56	-55.7	-59.7	12.4	7.00e-07	0	28	0	975175680	76	6072
2026-01-15 09:37:41.70	337.80	41.29	-55.7	-59.6	12.5	0.00e+00	0	28	0	977272832	77	5657
2026-01-15 09:37:42.71	337.76	41.02	-54.8	-57.9	13.4	0.00e+00	0	28	0	979369984	76	4974
2026-01-15 09:37:43.72	337.72	40.75	-54.2	-57.0	13.7	0.00e+00	0	28	0	981467136	74	5034
2026-01-15 09:37:44.73	337.67	40.48	-54.1	-56.8	13.8	0.00e+00	0	28	0	983564288	74	4911
2026-01-15 09:37:45.73	337.63	40.22	-54.4	-57.4	13.5	0.00e+00	0	28	0	984612864	74	5227
2026-01-15 09:37:46.73	337.59	39.96	-54.1	-56.9	13.8	0.00e+00	0	28	0	986710016	74	4946
2026-01-15 09:37:47.74	337.55	39.69	-54.3	-57.2	13.6	0.00e+00	0	28	0	988807168	74	5137
2026-01-15 09:37:48.74	337.52	39.44	-54.0	-56.6	13.8	0.00e+00	0	28	0	990904320	74	4812
2026-01-15 09:37:49.75	337.48	39.18	-54.2	-57.1	13.6	0.00e+00	0	28	0	993001472	74	5063
2026-01-15 09:37:50.76	337.44	38.92	-54.5	-57.7	13.2	0.00e+00	0	28	0	995098624	74	5429
2026-01-15 09:37:51.77	337.40	38.67	-55.1	-58.9	12.6	0.00e+00	0	28	0	996147200	75	5892
2026-01-15 09:37:52.77	337.37	38.42	-55.2	-59.1	12.4	0.00e+00	0	28	0	998244352	75	6044
2026-01-15 09:37:53.78	337.33	38.17	-55.4	-59.4	12.4	0.00e+00	0	28	0	1000341504	76	5896
2026-01-15 09:37:54.79	337.30	37.92	-55.5	-59.5	12.4	0.00e+00	0	28	0	1002438656	76	5939
2026-01-15 09:37:55.80	337.26	37.67	-55.0	-58.6	12.8	0.00e+00	0	28	0	1003487232	76	5402
2026-01-15 09:37:56.80	337.23	37.43	-54.5	-57.7	13.1	0.00e+00	0	28	0	1005584384	75	5109
2026-01-15 09:37:57.81	337.20	37.18	-54.2	-57.3	13.5	0.00e+00	0	28	0	1007681536	75	4906
2026-01-15 09:37:58.82	337.16	36.94	-54.3	-57.3	13.5	0.00e+00	0	28	0	1009778688	75	4897
2026-01-15 09:37:59.83	337.13	36.70	-54.4	-57.4	13.4	0.00e+00	0	28	0	1011875840	74	5258
2026-01-15 09:38:00.84	337.10	36.47	-54.6	-57.8	13.2	0.00e+00	0	28	0	1012924416	74	5465
2026-01-15 09:38:01.85	337.07	36.23	-54.2	-57.1	13.5	0.00e+00	0	28	0	1015021568	74	5087
2026-01-15 09:38:02.86	337.04	35.99	-53.9	-56.6	13.7	0.00e+00	0	28	0	1017118720	74	4796
2026-01-15 09:38:03.86	337.01	35.76	-53.9	-56.7	13.7	0.00e+00	0	28	0	1019215872	74	4823
2026-01-15 09:38:04.87	336.98	35.53	-53.8	-56.5	13.7	0.00e+00	0	28	0	1021313024	73	5027
2026-01-15 09:38:05.88	336.95	35.30	-53.8	-56.5	13.7	0.00e+00	0	28	0	1023410176	73	5027
2026-01-15 09:38:06.89	336.92	35.07	-54.0	-56.9	13.5	0.00e+00	0	28	0	1024458752	73	5264
2026-01-15 09:38:07.90	336.89	34.85	-54.8	-58.2	13.0	0.00e+00	0	28	0	1026555904	74	5778
2026-01-15 09:38:08.90	336.86	34.63	-55.7	-59.9	12.2	0.00e+00	0	28	0	1028653056	76	6236
2026-01-15 09:38:09.91	336.84	34.40	-56.5	-61.8	11.0	3.00e-06	0	28	0	1030750208	78	6901
2026-01-15 09:38:10.91	336.81	34.18	-57.2	-64.2	9.1	1.06e-03	0	28	0	1032847360	79	8631
2026-01-15 09:38:11.92	336.78	33.96	-57.4	-64.9	8.5	1.21e-02	0	28	0	1033895936	79	9362
2026-01-15 09:38:12.93	336.76	33.74	-57.1	-63.5	9.6	1.88e-02	0	28	0	1035993088	79	7969
2026-01-15 09:38:13.94	336.73	33.53	-57.0	-63.1	9.9	1.74e-03	0	28	0	1038090240	79	7582
2026-01-15 09:38:14.95	336.71	33.31	-56.4	-61.2	11.3	7.93e-05	0	28	0	1040187392	79	6127
2026-01-15 09:38:15.96	336.68	33.10	-55.6	-59.5	12.4	5.30e-06	0	28	0	1041235968	77	5611
2026-01-15 09:38:16.96	336.66	32.89	-54.9	-58.0	13.2	0.00e+00	0	28	0	1043333120	76	5009
2026-01-15 09:38:17.97	336.63	32.68	-54.0	-56.7	13.7	0.00e+00	0	28	0	1045430272	74	4832
2026-01-15 09:38:18.97	336.61	32.47	-53.7	-56.3	13.8	0.00e+00	0	28	0	1047527424	73	4873
2026-01-15 09:38:19.98	336.58	32.26	-53.6	-56.0	14.0	0.00e+00	0	28	0	1049624576	73	4736
2026-01-15 09:38:20.99	336.56	32.05	-53.9	-56.6	13.7	0.00e+00	0	28	0	1051721728	73	5045
2026-01-15 09:38:22.00	336.54	31.85	-54.1	-56.9	13.6	0.00e+00	0	28	0	1052770304	73	5228
2026-01-15 09:38:23.01	336.52	31.65	-54.3	-57.2	13.5	0.00e+00	0	28	0	1054867456	73	5405
2026-01-15 09:38:24.01	336.49	31.44	-54.7	-57.7	13.2	0.00e+00	0	28	0	1056964608	74	5434
2026-01-15 09:38:25.02	336.47	31.24	-54.7	-57.8	13.2	0.00e+00	0	28	0	1059061760	74	5483
2026-01-15 09:38:26.03	336.45	31.04	-54.7	-57.7	13.2	0.00e+00	0	28	0	1061158912	74	5435
2026-01-15 09:38:27.04	336.43	30.85	-54.6	-57.6	13.3	0.00e+00	0	28	0	1062207488	74	5358
2026-01-15 09:38:28.05	336.41	30.65	-54.5	-57.4	13.4	0.00e+00	0	28	0	1064304640	74	5253
2026-01-15 09:38:29.06	336.39	30.45	-54.8	-57.9	13.2	0.00e+00	0	28	0	1066401792	74	5539
2026-01-15 09:38:30.07	336.37	30.26	-55.0	-58.2	13.0	0.00e+00	0	28	0	1068498944	75	5452
2026-01-15 09:38:31.07	336.35	30.07	-55.6	-59.2	12.6	0.00e+00	0	28	0	1070596096	76	5768
2026-01-15 09:38:32.08	336.33	29.88	-56.0	-60.1	12.1	0.00e+00	0	28	0	1071644672	77	6053
2026-01-15 09:38:33.09	336.31	29.69	-56.6	-61.4	11.3	1.06e-05	0	28	0	1073741824	78	6633
2026-01-15 09:38:34.09	336.29	29.50	-56.9	-62.2	10.7	9.84e-05	0	28	0	1075838976	78	7246
2026-01-15 09:38:35.10	336.27	29.31	-57.0	-62.7	10.3	3.14e-04	0	28	0	1077936128	79	7282
2026-01-15 09:38:36.11	336.25	29.12	-57.0	-62.6	10.4	7.53e-04	0	28	0	1080033280	79	7167
2026-01-15 09:38:37.12	336.23	28.94	-56.6	-61.6	11.2	9.38e-05	0	28	0	1081081856	79	6355
2026-01-15 09:38:38.13	336.22	28.75	-56.1	-60.3	12.0	1.14e-05	0	28	0	1083179008	78	5855
2026-01-15 09:38:39.13	336.20	28.57	-55.7	-59.3	12.7	0.00e+00	0	28	0	1085276160	78	5215
2026-01-15 09:38:40.14	336.18	28.39	-55.0	-58.2	13.2	0.00e+00	0	28	0	1087373312	76	5101
2026-01-15 09:38:41.15	336.16	28.21	-54.7	-57.6	13.5	0.00e+00	0	28	0	1089470464	76	4787
2026-01-15 09:38:42.16	336.15	28.03	-54.1	-56.8	13.8	0.00e+00	0	28	0	1090519040	74	4874
2026-01-15 09:38:43.17	336.13	27.85	-53.8	-56.3	14.0	0.00e+00	0	28	0	1092616192	74	4617
2026-01-15 09:38:44.17	336.11	27.68	-53.7	-56.0	14.1	0.00e+00	0	28	0	1094713344	74	4481
2026-01-15 09:38:45.18	336.10	27.50	-53.4	-55.6	14.2	0.00e+00	0	28	0	1096810496	73	4513
2026-01-15 09:38:46.18	336.08	27.33	-53.1	-55.3	14.2	0.00e+00	0	28	0	1098907648	72	4617
2026-01-15 09:38:47.19	336.06	27.15	-53.0	-55.2	14.2	0.00e+00	0	28	0	1099956224	72	4554
2026-01-15 09:38:48.20	336.05	26.98	-53.2	-55.4	14.1	0.00e+00	0	28	0	1102053376	72	4678
2026-01-15 09:38:49.21	336.03	26.81	-53.1	-55.3	14.2	0.00e+00	0	28	0	1104150528	72	4626
2026-01-15 09:38:50.22	336.02	26.64	-53.0	-55.2	14.2	0.00e+00	0	28	0	1106247680	72	4564
2026-01-15 09:38:51.23	336.00	26.47	-53.0	-55.1	14.3	0.00e+00	0	28	0	1108344832	72	4519
2026-01-15 09:38:52.23	335.99	26.30	-52.9	-55.1	14.3	0.00e+00	0	28	0	1109393408	72	4502
2026-01-15 09:38:53.24	335.97	26.13	-53.2	-55.4	14.1	0.00e+00	0	28	0	1111490560	72	4701
2026-01-15 09:38:54.24	335.96	25.97	-53.1	-55.3	14.2	0.00e+00	0	28	0	1113587712	72	4651
2026-01-15 09:38:55.25	335.94	25.80	-53.1	-55.4	14.2	0.00e+00	0	28	0	1115684864	72	4672
2026-01-15 09:38:56.26	335.93	25.64	-53.4	-55.8	13.9	0.00e+00	0	28	0	1117782016	72	4920
2026-01-15 09:38:57.27	335.91	25.48	-53.4	-55.9	13.9	0.00e+00	0	28	0	1118830592	72	4930
2026-01-15 09:38:58.28	335.90	25.31	-53.7	-56.3	13.7	0.00e+00	0	28	0	1120927744	72	5189
2026-01-15 09:38:59.29	335.89	25.15	-53.8	-56.4	13.7	0.00e+00	0	28	0	1123024896	72	5222
2026-01-15 09:39:00.30	335.87	24.99	-53.7	-56.3	13.7	0.00e+00	0	28	0	1125122048	72	5173
2026-01-15 09:39:01.31	335.86	24.83	-53.8	-56.4	13.8	0.00e+00	0	28	0	1127219200	73	4957
2026-01-15 09:39:02.32	335.85	24.68	-53.8	-56.4	13.8	0.00e+00	0	28	0	1128267776	73	4948
2026-01-15 09:39:03.33	335.83	24.52	-54.0	-56.7	13.6	0.00e+00	0	28	0	1130364928	73	5148
2026-01-15 09:39:04.33	335.82	24.36	-53.8	-56.5	13.7	0.00e+00	0	28	0	1132462080	73	4993
2026-01-15 09:39:05.34	335.81	24.21	-53.8	-56.5	13.7	0.00e+00	0	28	0	1134559232	73	5008
2026-01-15 09:39:06.35	335.80	24.05	-53.7	-56.3	13.8	0.00e+00	0	28	0	1136656384	73	4914
2026-01-15 09:39:07.36	335.78	23.90	-53.6	-56.2	13.8	0.00e+00	0	28	0	1137704960	73	4858
2026-01-15 09:39:08.37	335.77	23.75	-53.7	-56.3	13.8	0.00e+00	0	28	0	1139802112	73	4897
2026-01-15 09:39:09.37	335.76	23.59	-53.5	-56.0	13.9	0.00e+00	0	28	0	1141899264	73	4743
2026-01-15 09:39:10.38	335.75	23.44	-53.7	-56.4	13.7	0.00e+00	0	28	0	1143996416	73	4954
2026-01-15 09:39:11.38	335.74	23.30	-53.8	-56.6	13.7	0.00e+00	0	28	0	1146093568	73	5060
2026-01-15 09:39:12.39	335.73	23.15	-53.8	-56.5	13.7	0.00e+00	0	28	0	1147142144	73	4987
2026-01-15 09:39:13.40	335.71	23.00	-53.9	-56.6	13.6	0.00e+00	0	28	0	1149239296	73	5095
2026-01-15 09:39:14.41	335.70	22.85	-54.0	-56.8	13.5	0.00e+00	0	28	0	1151336448	73	5212
2026-01-15 09:39:15.42	335.69	22.70	-53.8	-56.5	13.7	0.00e+00	0	28	0	1153433600	73	5035
2026-01-15 09:39:16.43	335.68	22.56	-53.7	-56.2	13.8	0.00e+00	0	28	0	1155530752	73	4865
2026-01-15 09:39:17.43	335.67	22.41	-53.6	-56.1	13.8	0.00e+00	0	28	0	1156579328	73	4800
2026-01-15 09:39:18.44	335.66	22.27	-53.4	-55.8	14.0	0.00e+00	0	28	0	1158676480	73	4638
2026-01-15 09:39:19.45	335.65	22.12	-53.2	-55.5	14.1	0.00e+00	0	28	0	1160773632	73	4463
2026-01-15 09:39:20.45	335.64	21.98	-53.1	-55.4	14.1	0.00e+00	0	28	0	1162870784	72	4667
2026-01-15 09:39:21.46	335.63	21.84	-52.8	-55.0	14.3	0.00e+00	0	28	0	1164967936	72	4448
2026-01-15 09:39:22.47	335.62	21.70	-52.6	-54.7	14.3	0.00e+00	0	28	0	1166016512	71	4577
2026-01-15 09:39:23.48	335.61	21.56	-52.3	-54.4	14.4	0.00e+00	0	28	0	1168113664	71	4408
2026-01-15 09:39:24.49	335.60	21.42	-52.1	-54.1	14.5	0.00e+00	0	28	0	1170210816	70	4500
2026-01-15 09:39:25.49	335.59	21.28	-52.1	-54.1	14.5	0.00e+00	0	28	0	1172307968	70	4499
2026-01-15 09:39:26.50	335.58	21.14	-52.0	-54.0	14.5	0.00e+00	0	28	0	1174405120	70	4450
2026-01-15 09:39:27.51	335.57	21.01	-52.1	-54.0	14.5	0.00e+00	0	28	0	1175453696	70	4486
2026-01-15 09:39:28.52	335.56	20.87	-52.3	-54.3	14.4	0.00e+00	0	28	0	1177550848	70	4640
2026-01-15 09:39:29.52	335.55	20.74	-52.2	-54.2	14.4	0.00e+00	0	28	0	1179648000	70	4590
2026-01-15 09:39:30.54	335.54	20.60	-52.1	-54.2	14.4	0.00e+00	0	28	0	1181745152	70	4567
2026-01-15 09:39:31.54	335.53	20.47	-52.3	-54.4	14.3	0.00e+00	0	28	0	1183842304	70	4679
2026-01-15 09:39:32.55	335.53	20.33	-52.4	-54.5	14.3	0.00e+00	0	28	0	1184890880	70	4729
2026-01-15 09:39:33.56	335.52	20.20	-52.6	-54.9	14.1	0.00e+00	0	28	0	1186988032	70	4944
2026-01-15 09:39:34.57	335.51	20.07	-52.6	-54.9	14.1	0.00e+00	0	28	0	1189085184	70	4957
2026-01-15 09:39:35.58	335.50	19.94	-52.4	-54.7	14.2	0.00e+00	0	28	0	1191182336	70	4817
2026-01-15 09:39:36.58	335.49	19.81	-52.5	-54.8	14.2	0.00e+00	0	28	0	1193279488	70	4893
2026-01-15 09:39:37.59	335.48	19.68	-52.6	-54.8	14.1	0.00e+00	0	28	0	1194328064	70	4920
2026-01-15 09:39:38.60	335.47	19.55	-52.5	-54.8	14.1	0.00e+00	0	28	0	1196425216	70	4897
2026-01-15 09:39:39.60	335.47	19.42	-52.6	-55.0	14.1	0.00e+00	0	28	0	1198522368	70	4985
2026-01-15 09:39:40.61	335.46	19.29	-52.8	-55.2	14.0	0.00e+00	0	28	0	1200619520	70	5104
2026-01-15 09:39:41.61	335.45	19.17	-52.8	-55.1	14.0	0.00e+00	0	28	0	1202716672	70	5086
2026-01-15 09:39:42.62	335.44	19.04	-52.9	-55.3	14.0	0.00e+00	0	28	0	1204813824	71	4906
2026-01-15 09:39:43.63	335.43	18.91	-52.9	-55.4	14.0	0.00e+00	0	28	0	1205862400	71	4958
2026-01-15 09:39:44.64	335.43	18.79	-53.0	-55.5	13.9	0.00e+00	0	28	0	1207959552	71	5020
2026-01-15 09:39:45.65	335.42	18.66	-53.2	-55.7	13.8	0.00e+00	0	28	0	1210056704	71	5157
2026-01-15 09:39:46.65	335.41	18.54	-53.3	-56.0	13.7	0.00e+00	0	28	0	1212153856	71	5311
2026-01-15 09:39:47.66	335.40	18.41	-53.4	-56.2	13.7	0.00e+00	0	28	0	1213202432	72	5105
2026-01-15 09:39:48.67	335.40	18.29	-53.6	-56.4	13.6	0.00e+00	0	28	0	1215299584	72	5246
2026-01-15 09:39:49.68	335.39	18.17	-53.6	-56.4	13.6	0.00e+00	0	28	0	1217396736	72	5223
2026-01-15 09:39:50.68	335.38	18.05	-53.8	-56.8	13.4	0.00e+00	0	28	0	1219493888	72	5478
2026-01-15 09:39:51.69	335.38	17.93	-54.0	-57.0	13.4	0.00e+00	0	28	0	1221591040	73	5282
2026-01-15 09:39:52.70	335.37	17.81	-54.0	-57.0	13.3	0.00e+00	0	28	0	1222639616	73	5322
2026-01-15 09:39:53.70	335.36	17.69	-54.1	-57.2	13.2	0.00e+00	0	28	0	1224736768	73	5418
2026-01-15 09:39:54.70	335.36	17.57	-54.0	-57.0	13.3	0.00e+00	0	28	0	1226833920	73	5314
2026-01-15 09:39:55.71	335.35	17.45	-53.9	-56.8	13.4	0.00e+00	0	28	0	1228931072	73	5184
2026-01-15 09:39:56.72	335.34	17.33	-54.0	-56.9	13.4	0.00e+00	0	28	0	1231028224	73	5241
2026-01-15 09:39:57.73	335.34	17.21	-53.8	-56.6	13.5	0.00e+00	0	28	0	1233125376	73	5069
2026-01-15 09:39:58.74	335.33	17.10	-53.7	-56.4	13.6	0.00e+00	0	28	0	1234173952	73	4949
2026-01-15 09:39:59.74	335.32	16.98	-53.6	-56.3	13.7	0.00e+00	0	28	0	1236271104	73	4920
2026-01-15 09:40:00.74	335.32	16.87	-53.3	-55.9	13.9	0.00e+00	0	28	0	1238368256	73	4658
2026-01-15 09:40:01.74	335.31	16.75	-53.2	-55.7	14.0	0.00e+00	0	28	0	1240465408	73	4548
2026-01-15 09:40:02.75	335.31	16.64	-53.2	-55.7	13.9	0.00e+00	0	28	0	1241513984	72	4849
2026-01-15 09:40:03.76	335.30	16.52	-52.9	-55.3	14.0	0.00e+00	0	28	0	1243611136	72	4651
