passes_logs/2026/01/15/R3.2S_Murmansk/R3.2S_Murmansk__20260115_085856_NOAA_21_JPSS-2_rec.log

#Pass ID: 20260115_085856_NOAA 21 (JPSS-2)
#Satellite: NOAA 21 (JPSS-2)
#Configuration: NOAA-21
#almurnet v.1.7.20251203
#Start time: 2026-01-15 08:58:57

#Version: 2.2.20231116
#Station: R3.2S_Murmansk
#Location: 33.079688 lon 68.888172 lat
#TLE: 1 54234U 22150A   26014.58979933  .00000039  00000+0  39403-4 0  9998
#TLE: 2 54234  98.7497 315.4945 0000653 294.6373  65.4735 14.19534652164756

#Time	Az	El	Level	Level2	SNR	BER	BlckErr	Temp	State	Recorded	gain1	gain2
2026-01-15 08:58:57.94	138.83	2.11	-58.1	-71.9	3.8	1.49e+00	0	26	0	0	81	18604
2026-01-15 08:58:58.95	138.82	2.17	-58.1	-71.9	3.8	1.49e+00	0	26	104	0	81	18593
2026-01-15 08:58:59.96	138.81	2.24	-58.1	-71.9	3.8	1.49e+00	0	26	104	0	81	18583
2026-01-15 08:59:00.97	138.80	2.30	-58.1	-71.9	3.8	1.49e+00	0	26	104	0	81	18602
2026-01-15 08:59:01.98	138.79	2.37	-58.1	-71.9	3.8	1.49e+00	0	26	104	0	81	18646
2026-01-15 08:59:02.99	138.77	2.43	-58.1	-71.9	3.8	1.49e+00	0	26	104	0	81	18629
2026-01-15 08:59:04.00	138.76	2.50	-58.1	-71.9	3.8	1.49e+00	0	26	104	0	81	18619
2026-01-15 08:59:05.01	138.75	2.57	-58.1	-71.8	3.8	1.49e+00	0	26	104	0	81	18516
2026-01-15 08:59:06.02	138.74	2.63	-58.1	-71.9	3.8	1.49e+00	0	26	104	0	81	18527
2026-01-15 08:59:07.03	138.73	2.70	-58.1	-71.9	3.8	1.49e+00	0	26	104	0	81	18526
2026-01-15 08:59:08.03	138.72	2.76	-58.1	-71.9	3.8	1.49e+00	0	26	104	0	81	18559
2026-01-15 08:59:09.04	138.70	2.83	-58.1	-71.9	3.8	1.49e+00	0	26	104	0	81	18592
2026-01-15 08:59:10.05	138.69	2.90	-58.1	-71.9	3.8	1.49e+00	0	26	104	0	81	18576
2026-01-15 08:59:11.06	138.68	2.96	-58.1	-71.9	3.8	1.49e+00	0	26	104	0	81	18633
2026-01-15 08:59:12.07	138.67	3.03	-58.1	-71.8	3.8	1.49e+00	0	27	104	0	81	18513
2026-01-15 08:59:13.08	138.65	3.10	-58.1	-71.8	3.8	1.49e+00	0	27	104	0	81	18494
2026-01-15 08:59:14.09	138.64	3.16	-58.1	-71.8	3.8	1.49e+00	0	26	104	0	81	18377
2026-01-15 08:59:15.10	138.63	3.23	-58.1	-71.6	3.8	1.49e+00	0	26	104	0	81	18014
2026-01-15 08:59:16.11	138.62	3.30	-58.1	-71.3	3.8	1.49e+00	0	27	104	0	81	17298
2026-01-15 08:59:17.12	138.60	3.37	-58.0	-70.8	3.8	1.49e+00	0	26	104	0	81	16369
2026-01-15 08:59:18.12	138.59	3.43	-57.9	-70.1	3.8	1.49e+00	0	27	104	0	81	15052
2026-01-15 08:59:19.13	138.58	3.50	-57.9	-69.4	3.9	1.49e+00	0	26	104	0	81	13992
2026-01-15 08:59:20.14	138.57	3.57	-57.8	-68.2	4.2	1.47e+00	0	27	104	0	81	12155
2026-01-15 08:59:21.15	138.55	3.64	-57.8	-67.8	4.0	1.43e+00	0	27	104	0	81	11586
2026-01-15 08:59:22.16	138.54	3.71	-57.7	-66.6	4.8	1.05e+00	0	27	104	0	81	10113
2026-01-15 08:59:23.17	138.53	3.78	-57.5	-66.0	5.1	9.53e-01	0	27	0	0	80	10044
2026-01-15 08:59:24.18	138.51	3.85	-57.5	-65.6	5.3	5.84e-01	0	27	0	3145728	80	9514
2026-01-15 08:59:25.19	138.50	3.91	-57.4	-65.2	5.5	4.23e-01	0	27	0	6291456	80	9123
2026-01-15 08:59:26.20	138.49	3.98	-57.4	-65.2	5.6	4.81e-01	0	27	0	9437184	80	9098
2026-01-15 08:59:27.20	138.47	4.05	-57.3	-64.4	6.0	2.86e-01	0	27	0	12582912	80	8332
2026-01-15 08:59:28.21	138.46	4.12	-57.1	-63.6	6.7	1.67e-01	0	26	0	15728640	80	7566
2026-01-15 08:59:29.22	138.45	4.19	-56.8	-62.5	7.5	7.13e-02	0	27	0	18874368	79	7121
2026-01-15 08:59:30.22	138.43	4.26	-56.6	-61.9	8.1	4.77e-02	0	27	0	22020096	79	6588
2026-01-15 08:59:31.23	138.42	4.33	-56.1	-60.6	9.1	1.29e-02	0	27	0	25165824	78	6031
2026-01-15 08:59:32.24	138.41	4.40	-55.4	-59.2	10.3	9.92e-04	0	27	0	28311552	77	5409
2026-01-15 08:59:33.24	138.39	4.47	-55.0	-58.3	10.9	2.59e-04	0	27	0	31457280	76	5198
2026-01-15 08:59:34.25	138.38	4.54	-54.4	-57.4	11.5	2.59e-05	0	27	0	34603008	75	4936
2026-01-15 08:59:35.26	138.36	4.61	-53.9	-56.6	12.1	7.00e-07	0	27	0	37748736	74	4760
2026-01-15 08:59:36.27	138.35	4.68	-53.3	-55.7	12.5	1.50e-06	0	27	0	40894464	73	4589
2026-01-15 08:59:37.28	138.34	4.76	-53.0	-55.2	12.9	0.00e+00	0	27	0	44040192	72	4564
2026-01-15 08:59:38.29	138.32	4.83	-52.9	-55.1	12.8	0.00e+00	0	27	0	47185920	71	4764
2026-01-15 08:59:39.30	138.31	4.90	-52.8	-54.9	12.9	0.00e+00	0	27	0	50331648	71	4701
2026-01-15 08:59:40.30	138.29	4.97	-52.6	-55.2	12.7	0.00e+00	0	27	0	53477376	71	4870
2026-01-15 08:59:41.31	138.28	5.04	-52.7	-54.8	13.0	0.00e+00	0	27	0	56623104	71	4625
2026-01-15 08:59:42.32	138.26	5.11	-55.0	-58.2	11.1	4.96e-03	0	27	0	59768832	76	5158
2026-01-15 08:59:43.33	138.25	5.19	-53.8	-56.4	12.2	1.28e-04	0	27	0	62914560	74	4685
2026-01-15 08:59:44.33	138.24	5.26	-53.2	-55.5	12.7	0.00e+00	0	27	0	66060288	72	4716
2026-01-15 08:59:45.35	138.22	5.33	-53.0	-55.1	12.9	4.27e-05	0	27	0	69206016	72	4529
2026-01-15 08:59:46.35	138.21	5.40	-55.2	-58.8	10.4	1.76e-02	0	27	0	72351744	77	5199
2026-01-15 08:59:47.36	138.19	5.48	-52.9	-55.0	13.0	0.00e+00	0	27	0	75497472	72	4471
2026-01-15 08:59:48.37	138.18	5.55	-52.8	-55.0	12.9	0.00e+00	0	27	0	78643200	71	4708
2026-01-15 08:59:49.38	138.16	5.62	-52.8	-55.0	12.9	0.00e+00	0	27	0	81788928	71	4734
2026-01-15 08:59:50.38	138.14	5.70	-52.5	-54.5	13.2	0.00e+00	0	27	0	84934656	71	4469
2026-01-15 08:59:51.39	138.13	5.77	-52.6	-54.6	13.1	0.00e+00	0	27	0	88080384	71	4535
2026-01-15 08:59:52.40	138.11	5.85	-52.3	-54.3	13.4	0.00e+00	0	27	0	91226112	71	4359
2026-01-15 08:59:53.42	138.10	5.92	-52.4	-54.3	13.4	0.00e+00	0	27	0	94371840	71	4386
2026-01-15 08:59:54.42	138.08	5.99	-52.5	-54.5	13.3	0.00e+00	0	27	0	97517568	71	4454
2026-01-15 08:59:55.43	138.07	6.07	-52.3	-54.3	13.4	0.00e+00	0	27	0	100663296	71	4349
2026-01-15 08:59:56.44	138.05	6.14	-52.2	-54.1	13.5	0.00e+00	0	27	0	103809024	71	4256
2026-01-15 08:59:57.45	138.03	6.22	-52.3	-54.2	13.4	0.00e+00	0	27	0	106954752	70	4561
2026-01-15 08:59:58.46	138.02	6.30	-52.2	-54.1	13.4	0.00e+00	0	27	0	110100480	70	4503
2026-01-15 08:59:59.47	138.00	6.37	-52.1	-54.0	13.5	0.00e+00	0	27	0	113246208	70	4465
2026-01-15 09:00:00.48	137.99	6.45	-52.1	-54.0	13.5	0.00e+00	0	27	0	116391936	70	4474
2026-01-15 09:00:01.49	137.97	6.52	-52.3	-54.2	13.4	0.00e+00	0	27	0	119537664	70	4547
2026-01-15 09:00:02.50	137.95	6.60	-52.2	-54.0	13.5	0.00e+00	0	27	0	122683392	70	4488
2026-01-15 09:00:03.51	137.94	6.68	-52.0	-53.8	13.6	0.00e+00	0	27	0	125829120	70	4390
2026-01-15 09:00:04.51	137.92	6.75	-51.9	-53.7	13.7	0.00e+00	0	27	0	128974848	70	4319
2026-01-15 09:00:05.52	137.90	6.83	-52.2	-54.0	13.5	0.00e+00	0	27	0	132120576	70	4474
2026-01-15 09:00:06.52	137.89	6.91	-52.0	-53.8	13.6	0.00e+00	0	27	0	135266304	70	4350
2026-01-15 09:00:07.53	137.87	6.98	-52.1	-53.9	13.6	0.00e+00	0	27	0	138412032	70	4427
2026-01-15 09:00:08.54	137.85	7.06	-52.0	-53.8	13.6	0.00e+00	0	27	0	141557760	70	4354
2026-01-15 09:00:09.55	137.83	7.14	-52.1	-54.0	13.6	0.00e+00	0	27	0	144703488	70	4445
2026-01-15 09:00:10.56	137.82	7.22	-52.0	-53.7	13.7	0.00e+00	0	27	0	147849216	70	4336
2026-01-15 09:00:11.56	137.80	7.29	-51.9	-53.7	13.7	0.00e+00	0	27	0	150994944	70	4299
2026-01-15 09:00:12.57	137.78	7.37	-51.9	-53.6	13.7	0.00e+00	0	27	0	154140672	70	4283
2026-01-15 09:00:13.58	137.76	7.45	-51.9	-53.7	13.7	0.00e+00	0	27	0	157286400	70	4304
2026-01-15 09:00:14.58	137.75	7.53	-51.7	-53.4	13.9	0.00e+00	0	27	0	160432128	70	4182
2026-01-15 09:00:15.60	137.73	7.61	-51.8	-53.5	13.8	0.00e+00	0	27	0	163577856	70	4208
2026-01-15 09:00:16.60	137.71	7.69	-51.9	-53.6	13.8	0.00e+00	0	27	0	166723584	70	4274
2026-01-15 09:00:17.61	137.69	7.77	-52.0	-53.7	13.7	0.00e+00	0	27	0	169869312	70	4340
2026-01-15 09:00:18.61	137.67	7.85	-51.8	-53.6	13.8	0.00e+00	0	27	0	173015040	70	4244
2026-01-15 09:00:19.61	137.66	7.93	-51.9	-53.7	13.8	0.00e+00	0	27	0	176160768	70	4310
2026-01-15 09:00:20.62	137.64	8.01	-51.9	-53.6	13.8	0.00e+00	0	27	0	179306496	70	4260
2026-01-15 09:00:21.63	137.62	8.09	-52.0	-53.7	13.7	0.00e+00	0	27	0	182452224	70	4340
2026-01-15 09:00:22.64	137.60	8.17	-52.0	-53.7	13.7	0.00e+00	0	27	0	185597952	70	4331
2026-01-15 09:00:23.65	137.58	8.25	-51.9	-53.6	13.8	0.00e+00	0	27	0	188743680	70	4283
2026-01-15 09:00:24.65	137.56	8.33	-51.7	-53.4	13.8	0.00e+00	0	27	0	191889408	69	4400
2026-01-15 09:00:25.66	137.54	8.42	-51.7	-53.4	13.8	0.00e+00	0	27	0	195035136	69	4422
2026-01-15 09:00:26.67	137.52	8.50	-51.7	-53.4	13.8	0.00e+00	0	27	0	198180864	69	4433
2026-01-15 09:00:27.68	137.51	8.58	-51.6	-53.2	13.9	0.00e+00	0	27	0	201326592	69	4337
2026-01-15 09:00:28.69	137.49	8.66	-51.6	-53.3	13.9	0.00e+00	0	27	0	204472320	69	4375
2026-01-15 09:00:29.70	137.47	8.75	-51.5	-53.2	13.9	0.00e+00	0	27	0	207618048	69	4305
2026-01-15 09:00:30.71	137.45	8.83	-51.5	-53.2	14.0	0.00e+00	0	27	0	210763776	69	4299
2026-01-15 09:00:31.72	137.43	8.91	-51.5	-53.1	14.0	0.00e+00	0	28	0	213909504	69	4270
2026-01-15 09:00:32.73	137.41	9.00	-51.5	-53.1	13.9	0.00e+00	0	27	0	217055232	69	4291
2026-01-15 09:00:33.74	137.39	9.08	-51.4	-53.0	14.0	0.00e+00	0	28	0	220200960	69	4233
2026-01-15 09:00:34.74	137.37	9.16	-51.4	-53.0	14.0	0.00e+00	0	27	0	223346688	69	4237
2026-01-15 09:00:35.75	137.35	9.25	-51.5	-53.1	14.0	0.00e+00	0	27	0	226492416	69	4281
2026-01-15 09:00:36.76	137.32	9.33	-51.4	-53.0	14.1	0.00e+00	0	27	0	229638144	69	4194
2026-01-15 09:00:37.76	137.30	9.42	-51.4	-53.0	14.0	0.00e+00	0	28	0	232783872	69	4232
2026-01-15 09:00:38.77	137.28	9.50	-51.4	-53.0	14.1	0.00e+00	0	27	0	235929600	69	4198
2026-01-15 09:00:39.78	137.26	9.59	-51.4	-53.0	14.1	0.00e+00	0	27	0	239075328	69	4209
2026-01-15 09:00:40.79	137.24	9.68	-51.4	-52.9	14.1	0.00e+00	0	27	0	242221056	69	4192
2026-01-15 09:00:41.80	137.22	9.76	-51.3	-52.9	14.1	0.00e+00	0	27	0	245366784	69	4183
2026-01-15 09:00:42.81	137.20	9.85	-51.3	-52.8	14.1	0.00e+00	0	27	0	248512512	69	4135
2026-01-15 09:00:43.82	137.18	9.94	-51.4	-52.9	14.1	0.00e+00	0	27	0	251658240	69	4188
2026-01-15 09:00:44.82	137.16	10.02	-51.1	-52.6	14.1	0.00e+00	0	27	0	254803968	68	4291
2026-01-15 09:00:45.83	137.13	10.11	-51.2	-52.8	14.0	0.00e+00	0	28	0	257949696	68	4370
2026-01-15 09:00:46.84	137.11	10.20	-51.1	-52.7	14.1	0.00e+00	0	27	0	261095424	68	4300
2026-01-15 09:00:47.85	137.09	10.29	-51.2	-52.7	14.1	0.00e+00	0	27	0	264241152	68	4322
2026-01-15 09:00:48.86	137.07	10.37	-51.3	-52.8	14.0	0.00e+00	0	28	0	267386880	68	4375
2026-01-15 09:00:49.87	137.04	10.46	-51.1	-52.6	14.2	0.00e+00	0	27	0	270532608	68	4265
2026-01-15 09:00:50.88	137.02	10.55	-51.1	-52.6	14.1	0.00e+00	0	27	0	273678336	68	4285
2026-01-15 09:00:51.89	137.00	10.64	-51.0	-52.6	14.2	0.00e+00	0	27	0	276824064	68	4243
2026-01-15 09:00:52.89	136.98	10.73	-50.9	-52.4	14.2	0.00e+00	0	27	0	279969792	68	4182
2026-01-15 09:00:53.91	136.95	10.82	-50.9	-52.4	14.3	0.00e+00	0	27	0	283115520	68	4170
2026-01-15 09:00:54.92	136.93	10.91	-51.0	-52.5	14.2	0.00e+00	0	27	0	286261248	68	4207
2026-01-15 09:00:55.92	136.91	11.00	-50.9	-52.4	14.3	0.00e+00	0	28	0	289406976	68	4147
2026-01-15 09:00:56.94	136.88	11.09	-50.9	-52.4	14.2	0.00e+00	0	27	0	292552704	68	4170
2026-01-15 09:00:57.95	136.86	11.18	-50.9	-52.3	14.3	0.00e+00	0	27	0	295698432	68	4139
2026-01-15 09:00:58.95	136.83	11.28	-50.9	-52.4	14.2	0.00e+00	0	27	0	298844160	68	4172
2026-01-15 09:00:59.96	136.81	11.37	-50.8	-52.3	14.3	0.00e+00	0	27	0	301989888	68	4128
2026-01-15 09:01:00.97	136.79	11.46	-50.8	-52.3	14.3	0.00e+00	0	27	0	305135616	68	4114
2026-01-15 09:01:01.98	136.76	11.55	-50.8	-52.3	14.3	0.00e+00	0	27	0	308281344	68	4106
2026-01-15 09:01:02.99	136.74	11.65	-51.0	-52.5	14.2	0.00e+00	0	27	0	312475648	68	4196
2026-01-15 09:01:03.99	136.71	11.74	-50.7	-52.2	14.4	0.00e+00	0	27	0	314572800	68	4056
2026-01-15 09:01:05.00	136.69	11.83	-50.8	-52.2	14.4	0.00e+00	0	27	0	317718528	68	4081
2026-01-15 09:01:06.00	136.66	11.93	-50.5	-51.9	14.3	0.00e+00	0	27	0	320864256	67	4188
2026-01-15 09:01:07.00	136.64	12.02	-50.4	-51.8	14.4	0.00e+00	0	27	0	324009984	67	4115
2026-01-15 09:01:08.01	136.61	12.11	-50.5	-51.9	14.3	0.00e+00	0	28	0	327155712	67	4189
2026-01-15 09:01:09.02	136.59	12.21	-50.4	-51.8	14.4	0.00e+00	0	28	0	330301440	67	4136
2026-01-15 09:01:10.03	136.56	12.30	-50.4	-51.8	14.4	0.00e+00	0	27	0	333447168	67	4108
2026-01-15 09:01:11.04	136.53	12.40	-50.4	-51.8	14.4	0.00e+00	0	27	0	336592896	67	4135
2026-01-15 09:01:12.05	136.51	12.50	-50.4	-51.8	14.4	0.00e+00	0	28	0	339738624	67	4139
2026-01-15 09:01:13.06	136.48	12.59	-50.4	-51.8	14.4	0.00e+00	0	28	0	342884352	67	4107
2026-01-15 09:01:14.06	136.45	12.69	-50.4	-51.8	14.4	0.00e+00	0	28	0	346030080	67	4121
2026-01-15 09:01:15.07	136.43	12.79	-50.1	-51.5	14.4	0.00e+00	0	27	0	349175808	66	4233
2026-01-15 09:01:16.08	136.40	12.89	-50.2	-51.7	14.3	0.00e+00	0	28	0	352321536	66	4293
2026-01-15 09:01:17.09	136.37	12.98	-50.3	-51.7	14.3	0.00e+00	0	28	0	356515840	66	4340
2026-01-15 09:01:18.10	136.34	13.08	-50.2	-51.6	14.4	0.00e+00	0	27	0	359661568	66	4286
2026-01-15 09:01:19.10	136.32	13.18	-50.2	-51.6	14.4	0.00e+00	0	27	0	361758720	66	4271
2026-01-15 09:01:20.11	136.29	13.28	-50.3	-51.7	14.3	0.00e+00	0	28	0	364904448	66	4301
2026-01-15 09:01:21.12	136.26	13.38	-50.2	-51.6	14.4	0.00e+00	0	28	0	368050176	66	4251
2026-01-15 09:01:22.12	136.23	13.48	-50.3	-51.7	14.4	0.00e+00	0	28	0	371195904	66	4293
2026-01-15 09:01:23.14	136.20	13.58	-50.2	-51.6	14.4	0.00e+00	0	27	0	375390208	66	4250
2026-01-15 09:01:24.15	136.18	13.68	-50.2	-51.5	14.4	0.00e+00	0	28	0	378535936	66	4241
2026-01-15 09:01:25.15	136.15	13.78	-50.2	-51.6	14.4	0.00e+00	0	27	0	381681664	66	4258
2026-01-15 09:01:26.16	136.12	13.88	-50.2	-51.6	14.4	0.00e+00	0	27	0	383778816	66	4269
2026-01-15 09:01:27.17	136.09	13.99	-50.2	-51.6	14.4	0.00e+00	0	27	0	386924544	66	4280
2026-01-15 09:01:28.17	136.06	14.09	-50.1	-51.5	14.4	0.00e+00	0	27	0	390070272	66	4216
2026-01-15 09:01:29.18	136.03	14.19	-50.1	-51.5	14.4	0.00e+00	0	28	0	393216000	66	4215
2026-01-15 09:01:30.19	136.00	14.29	-50.1	-51.5	14.4	0.00e+00	0	27	0	397410304	66	4223
2026-01-15 09:01:31.20	135.97	14.40	-50.1	-51.5	14.4	0.00e+00	0	28	0	400556032	66	4220
2026-01-15 09:01:32.20	135.94	14.50	-50.2	-51.5	14.4	0.00e+00	0	27	0	403701760	66	4237
2026-01-15 09:01:33.21	135.91	14.61	-50.1	-51.4	14.5	0.00e+00	0	28	0	406847488	66	4173
2026-01-15 09:01:34.21	135.88	14.71	-50.2	-51.5	14.4	0.00e+00	0	27	0	408944640	66	4242
2026-01-15 09:01:35.21	135.85	14.82	-50.1	-51.5	14.4	0.00e+00	0	27	0	412090368	66	4217
2026-01-15 09:01:36.22	135.81	14.92	-50.1	-51.5	14.4	0.00e+00	0	28	0	415236096	66	4198
2026-01-15 09:01:37.23	135.78	15.03	-50.2	-51.5	14.4	0.00e+00	0	28	0	418381824	66	4240
2026-01-15 09:01:38.24	135.75	15.14	-50.2	-51.6	14.4	0.00e+00	0	28	0	422576128	66	4244
2026-01-15 09:01:39.25	135.72	15.24	-50.1	-51.4	14.4	0.00e+00	0	27	0	425721856	66	4186
2026-01-15 09:01:40.26	135.68	15.35	-50.2	-51.5	14.4	0.00e+00	0	27	0	428867584	66	4230
2026-01-15 09:01:41.27	135.65	15.46	-50.2	-51.5	14.4	0.00e+00	0	28	0	430964736	66	4233
2026-01-15 09:01:42.28	135.62	15.57	-50.1	-51.4	14.4	0.00e+00	0	28	0	434110464	66	4191
2026-01-15 09:01:43.28	135.59	15.68	-50.1	-51.4	14.5	0.00e+00	0	27	0	437256192	66	4181
2026-01-15 09:01:44.28	135.55	15.79	-50.2	-51.5	14.4	0.00e+00	0	27	0	440401920	66	4239
2026-01-15 09:01:45.29	135.52	15.90	-50.2	-51.6	14.4	0.00e+00	0	28	0	444596224	66	4251
2026-01-15 09:01:46.29	135.48	16.01	-50.1	-51.5	14.4	0.00e+00	0	28	0	447741952	66	4198
2026-01-15 09:01:47.30	135.45	16.12	-50.2	-51.6	14.4	0.00e+00	0	28	0	450887680	66	4273
2026-01-15 09:01:48.31	135.41	16.23	-50.2	-51.6	14.4	0.00e+00	0	28	0	454033408	66	4254
2026-01-15 09:01:49.32	135.38	16.34	-50.1	-51.5	14.4	0.00e+00	0	27	0	456130560	66	4207
2026-01-15 09:01:50.33	135.34	16.45	-50.2	-51.6	14.4	0.00e+00	0	28	0	459276288	66	4276
2026-01-15 09:01:51.34	135.31	16.57	-50.2	-51.6	14.4	0.00e+00	0	28	0	463470592	66	4244
2026-01-15 09:01:52.35	135.27	16.68	-50.2	-51.5	14.4	0.00e+00	0	28	0	466616320	66	4227
2026-01-15 09:01:53.36	135.24	16.80	-50.1	-51.5	14.4	0.00e+00	0	28	0	469762048	66	4216
2026-01-15 09:01:54.37	135.20	16.91	-50.2	-51.6	14.4	0.00e+00	0	28	0	472907776	66	4245
2026-01-15 09:01:55.37	135.16	17.03	-50.2	-51.6	14.4	0.00e+00	0	28	0	476053504	66	4255
2026-01-15 09:01:56.38	135.13	17.14	-50.2	-51.5	14.4	0.00e+00	0	28	0	479199232	66	4232
2026-01-15 09:01:57.39	135.09	17.26	-50.2	-51.5	14.4	0.00e+00	0	28	0	482344960	66	4238
2026-01-15 09:01:58.39	135.05	17.37	-50.1	-51.4	14.5	0.00e+00	0	28	0	485490688	66	4163
2026-01-15 09:01:59.40	135.01	17.49	-50.2	-51.5	14.4	0.00e+00	0	27	0	488636416	66	4219
2026-01-15 09:02:00.41	134.97	17.61	-50.2	-51.5	14.4	0.00e+00	0	27	0	491782144	66	4222
2026-01-15 09:02:01.42	134.94	17.73	-50.2	-51.6	14.4	0.00e+00	0	27	0	494927872	66	4256
2026-01-15 09:02:02.43	134.90	17.85	-50.1	-51.4	14.5	0.00e+00	0	28	0	498073600	66	4166
2026-01-15 09:02:03.44	134.86	17.97	-50.1	-51.4	14.5	0.00e+00	0	28	0	501219328	66	4182
2026-01-15 09:02:04.44	134.82	18.09	-50.1	-51.4	14.5	0.00e+00	0	28	0	504365056	66	4171
2026-01-15 09:02:05.45	134.78	18.21	-50.1	-51.4	14.5	0.00e+00	0	28	0	507510784	66	4188
2026-01-15 09:02:06.45	134.74	18.33	-50.1	-51.5	14.5	0.00e+00	0	28	0	510656512	66	4194
2026-01-15 09:02:07.47	134.70	18.45	-50.1	-51.5	14.5	0.00e+00	0	28	0	513802240	66	4214
2026-01-15 09:02:08.48	134.66	18.57	-50.1	-51.4	14.5	0.00e+00	0	28	0	516947968	66	4159
2026-01-15 09:02:09.48	134.61	18.70	-50.1	-51.5	14.5	0.00e+00	0	27	0	520093696	66	4206
2026-01-15 09:02:10.50	134.57	18.82	-50.1	-51.4	14.5	0.00e+00	0	27	0	523239424	66	4190
2026-01-15 09:02:11.50	134.53	18.95	-50.1	-51.4	14.5	0.00e+00	0	28	0	526385152	66	4163
2026-01-15 09:02:12.51	134.49	19.07	-50.2	-51.5	14.5	0.00e+00	0	28	0	529530880	66	4219
2026-01-15 09:02:13.52	134.44	19.20	-50.2	-51.5	14.4	0.00e+00	0	28	0	532676608	66	4229
2026-01-15 09:02:14.53	134.40	19.32	-50.1	-51.5	14.5	0.00e+00	0	28	0	535822336	66	4198
2026-01-15 09:02:15.54	134.36	19.45	-50.0	-51.4	14.5	0.00e+00	0	28	0	538968064	66	4151
2026-01-15 09:02:16.55	134.31	19.58	-50.1	-51.4	14.5	0.00e+00	0	28	0	542113792	66	4173
2026-01-15 09:02:17.56	134.27	19.71	-50.1	-51.4	14.5	0.00e+00	0	28	0	545259520	66	4181
2026-01-15 09:02:18.57	134.22	19.84	-50.0	-51.3	14.5	0.00e+00	0	28	0	548405248	66	4138
2026-01-15 09:02:19.58	134.18	19.96	-50.0	-51.4	14.5	0.00e+00	0	28	0	551550976	66	4156
2026-01-15 09:02:20.59	134.13	20.09	-50.0	-51.3	14.5	0.00e+00	0	28	0	554696704	66	4137
2026-01-15 09:02:21.60	134.09	20.23	-49.9	-51.3	14.6	0.00e+00	0	28	0	557842432	66	4106
2026-01-15 09:02:22.61	134.04	20.36	-49.9	-51.2	14.6	0.00e+00	0	28	0	560988160	66	4090
2026-01-15 09:02:23.62	133.99	20.49	-49.9	-51.2	14.6	0.00e+00	0	28	0	564133888	66	4088
2026-01-15 09:02:24.62	133.95	20.62	-49.8	-51.1	14.6	0.00e+00	0	28	0	567279616	66	4050
2026-01-15 09:02:25.63	133.90	20.76	-49.7	-51.0	14.7	0.00e+00	0	28	0	570425344	66	3997
2026-01-15 09:02:26.64	133.85	20.89	-49.7	-51.0	14.7	0.00e+00	0	28	0	573571072	66	3983
2026-01-15 09:02:27.65	133.80	21.02	-49.6	-50.9	14.6	0.00e+00	0	28	0	576716800	65	4173
2026-01-15 09:02:28.65	133.75	21.16	-49.5	-50.8	14.6	0.00e+00	0	28	0	579862528	65	4126
2026-01-15 09:02:29.66	133.70	21.30	-49.5	-50.8	14.6	0.00e+00	0	28	0	583008256	65	4113
2026-01-15 09:02:30.67	133.65	21.43	-49.4	-50.7	14.7	0.00e+00	0	28	0	586153984	65	4079
2026-01-15 09:02:31.68	133.60	21.57	-49.5	-50.8	14.6	0.00e+00	0	28	0	589299712	65	4111
2026-01-15 09:02:32.69	133.55	21.71	-49.3	-50.6	14.7	0.00e+00	0	28	0	592445440	65	4019
2026-01-15 09:02:33.69	133.50	21.85	-49.2	-50.5	14.8	0.00e+00	0	28	0	595591168	65	3967
2026-01-15 09:02:34.70	133.45	21.99	-49.1	-50.4	14.7	0.00e+00	0	28	0	598736896	64	4156
2026-01-15 09:02:35.71	133.39	22.13	-49.1	-50.3	14.7	0.00e+00	0	28	0	601882624	64	4119
2026-01-15 09:02:36.72	133.34	22.27	-49.0	-50.3	14.7	0.00e+00	0	28	0	605028352	64	4102
2026-01-15 09:02:37.73	133.29	22.41	-48.9	-50.1	14.8	0.00e+00	0	28	0	608174080	64	4033
2026-01-15 09:02:38.74	133.23	22.55	-48.8	-50.0	14.8	0.00e+00	0	28	0	611319808	64	4003
2026-01-15 09:02:39.75	133.18	22.70	-48.8	-50.0	14.8	0.00e+00	0	28	0	614465536	64	3998
2026-01-15 09:02:40.76	133.12	22.84	-48.8	-50.0	14.8	0.00e+00	0	28	0	617611264	64	3968
2026-01-15 09:02:41.76	133.07	22.99	-48.7	-49.8	14.9	0.00e+00	0	28	0	620756992	64	3907
2026-01-15 09:02:42.77	133.01	23.13	-48.6	-49.8	14.8	0.00e+00	0	28	0	623902720	63	4134
2026-01-15 09:02:43.79	132.95	23.28	-48.6	-49.8	14.8	0.00e+00	0	28	0	627048448	63	4122
2026-01-15 09:02:44.79	132.90	23.43	-48.6	-49.8	14.8	0.00e+00	0	28	0	630194176	63	4117
2026-01-15 09:02:45.80	132.84	23.58	-48.6	-49.8	14.8	0.00e+00	0	28	0	633339904	63	4113
2026-01-15 09:02:46.80	132.78	23.72	-48.6	-49.8	14.8	0.00e+00	0	28	0	636485632	63	4108
2026-01-15 09:02:47.81	132.72	23.87	-48.6	-49.7	14.8	0.00e+00	0	28	0	639631360	63	4095
2026-01-15 09:02:48.82	132.66	24.03	-48.6	-49.8	14.8	0.00e+00	0	28	0	642777088	63	4125
2026-01-15 09:02:49.83	132.60	24.18	-48.6	-49.8	14.8	0.00e+00	0	28	0	645922816	63	4130
2026-01-15 09:02:50.84	132.54	24.33	-48.7	-49.9	14.8	0.00e+00	0	28	0	649068544	63	4153
2026-01-15 09:02:51.85	132.48	24.48	-48.8	-50.0	14.7	0.00e+00	0	28	0	652214272	63	4194
2026-01-15 09:02:52.85	132.42	24.64	-48.8	-50.0	14.7	0.00e+00	0	28	0	655360000	63	4211
2026-01-15 09:02:53.86	132.35	24.79	-49.0	-50.2	14.7	0.00e+00	0	28	0	658505728	63	4293
2026-01-15 09:02:54.87	132.29	24.95	-48.9	-50.1	14.7	0.00e+00	0	28	0	661651456	63	4254
2026-01-15 09:02:55.88	132.22	25.11	-49.0	-50.2	14.7	0.00e+00	0	28	0	664797184	63	4293
2026-01-15 09:02:56.89	132.16	25.26	-48.9	-50.1	14.7	0.00e+00	0	28	0	667942912	63	4289
2026-01-15 09:02:57.90	132.09	25.42	-49.0	-50.2	14.7	0.00e+00	0	28	0	671088640	63	4315
2026-01-15 09:02:58.91	132.03	25.58	-49.0	-50.2	14.6	0.00e+00	0	28	0	674234368	63	4329
2026-01-15 09:02:59.92	131.96	25.74	-49.0	-50.3	14.6	0.00e+00	0	28	0	677380096	63	4346
2026-01-15 09:03:00.92	131.89	25.90	-49.1	-50.4	14.6	0.00e+00	0	28	0	680525824	63	4394
2026-01-15 09:03:01.93	131.82	26.07	-49.2	-50.5	14.6	0.00e+00	0	28	0	683671552	63	4442
2026-01-15 09:03:02.94	131.76	26.23	-49.3	-50.6	14.6	0.00e+00	0	28	0	686817280	63	4514
2026-01-15 09:03:03.95	131.69	26.39	-49.4	-50.6	14.5	0.00e+00	0	28	0	689963008	63	4533
2026-01-15 09:03:04.95	131.62	26.56	-49.4	-50.6	14.6	0.00e+00	0	28	0	693108736	64	4277
2026-01-15 09:03:05.96	131.54	26.72	-49.5	-50.8	14.5	0.00e+00	0	28	0	696254464	64	4352
2026-01-15 09:03:06.96	131.47	26.89	-49.6	-50.9	14.5	0.00e+00	0	28	0	699400192	64	4430
2026-01-15 09:03:07.98	131.40	27.06	-49.7	-51.0	14.5	0.00e+00	0	28	0	702545920	64	4447
2026-01-15 09:03:08.98	131.32	27.23	-49.8	-51.1	14.5	0.00e+00	0	28	0	705691648	64	4504
2026-01-15 09:03:09.99	131.25	27.40	-49.8	-51.1	14.4	0.00e+00	0	28	0	708837376	64	4522
2026-01-15 09:03:11.00	131.17	27.57	-49.8	-51.1	14.4	0.00e+00	0	28	0	711983104	64	4534
2026-01-15 09:03:12.01	131.10	27.74	-49.9	-51.3	14.5	0.00e+00	0	28	0	715128832	65	4342
2026-01-15 09:03:13.02	131.02	27.92	-50.0	-51.2	14.5	0.00e+00	0	28	0	718274560	65	4339
2026-01-15 09:03:14.03	130.94	28.09	-50.0	-51.3	14.4	0.00e+00	0	28	0	721420288	65	4390
2026-01-15 09:03:15.02	130.86	28.26	-50.0	-51.3	14.4	0.00e+00	0	28	0	724566016	65	4386
2026-01-15 09:03:16.03	130.78	28.44	-50.1	-51.5	14.4	0.00e+00	0	28	0	727711744	65	4446
2026-01-15 09:03:17.04	130.70	28.62	-50.0	-51.3	14.5	0.00e+00	0	28	0	730857472	65	4379
2026-01-15 09:03:18.05	130.62	28.79	-50.0	-51.4	14.4	0.00e+00	0	28	0	734003200	65	4402
2026-01-15 09:03:19.06	130.54	28.97	-50.0	-51.3	14.5	0.00e+00	0	28	0	737148928	65	4377
2026-01-15 09:03:20.07	130.45	29.16	-50.0	-51.3	14.5	0.00e+00	0	28	0	740294656	65	4347
2026-01-15 09:03:21.08	130.37	29.34	-50.0	-51.3	14.5	0.00e+00	0	28	0	743440384	65	4351
2026-01-15 09:03:22.09	130.28	29.52	-50.0	-51.3	14.5	0.00e+00	0	28	0	746586112	65	4355
2026-01-15 09:03:23.10	130.20	29.70	-49.9	-51.2	14.5	0.00e+00	0	28	0	749731840	65	4296
2026-01-15 09:03:24.11	130.11	29.89	-49.8	-51.1	14.5	0.00e+00	0	28	0	752877568	65	4265
2026-01-15 09:03:25.12	130.02	30.08	-49.8	-51.1	14.6	0.00e+00	0	28	0	756023296	65	4248
2026-01-15 09:03:26.12	129.93	30.26	-49.8	-51.0	14.6	0.00e+00	0	28	0	759169024	65	4229
2026-01-15 09:03:27.13	129.84	30.45	-49.6	-50.8	14.7	0.00e+00	0	28	0	762314752	65	4123
2026-01-15 09:03:28.14	129.75	30.64	-49.5	-50.8	14.7	0.00e+00	0	28	0	765460480	65	4105
2026-01-15 09:03:29.15	129.65	30.83	-49.6	-50.8	14.7	0.00e+00	0	28	0	768606208	65	4123
2026-01-15 09:03:30.16	129.56	31.02	-49.5	-50.7	14.7	0.00e+00	0	28	0	771751936	65	4066
2026-01-15 09:03:31.17	129.46	31.22	-49.4	-50.6	14.7	0.00e+00	0	28	0	774897664	65	4046
2026-01-15 09:03:32.18	129.37	31.41	-49.4	-50.6	14.7	0.00e+00	0	28	0	778043392	65	4021
2026-01-15 09:03:33.19	129.27	31.61	-49.4	-50.6	14.7	0.00e+00	0	28	0	781189120	65	4039
2026-01-15 09:03:34.20	129.17	31.80	-49.4	-50.6	14.7	0.00e+00	0	28	0	784334848	65	4015
2026-01-15 09:03:35.20	129.07	32.00	-49.6	-50.8	14.6	0.00e+00	0	28	0	787480576	65	4126
2026-01-15 09:03:36.21	128.97	32.20	-49.5	-50.7	14.7	0.00e+00	0	28	0	790626304	65	4085
2026-01-15 09:03:37.22	128.87	32.40	-49.6	-50.9	14.6	0.00e+00	0	28	0	793772032	65	4176
2026-01-15 09:03:38.23	128.76	32.60	-49.8	-51.1	14.6	0.00e+00	0	28	0	796917760	65	4247
2026-01-15 09:03:39.24	128.66	32.80	-50.0	-51.3	14.5	0.00e+00	0	28	0	800063488	65	4360
2026-01-15 09:03:40.24	128.55	33.01	-50.1	-51.4	14.4	0.00e+00	0	28	0	803209216	65	4411
2026-01-15 09:03:41.25	128.44	33.21	-50.2	-51.6	14.4	0.00e+00	0	28	0	806354944	65	4510
2026-01-15 09:03:42.27	128.33	33.42	-50.2	-51.5	14.4	0.00e+00	0	28	0	809500672	65	4475
2026-01-15 09:03:43.28	128.22	33.63	-50.2	-51.6	14.4	0.00e+00	0	28	0	812646400	65	4499
2026-01-15 09:03:44.28	128.11	33.84	-50.2	-51.5	14.4	0.00e+00	0	28	0	815792128	65	4461
2026-01-15 09:03:45.29	127.99	34.05	-50.1	-51.5	14.4	0.00e+00	0	28	0	818937856	65	4446
2026-01-15 09:03:46.30	127.88	34.26	-50.2	-51.6	14.4	0.00e+00	0	28	0	822083584	65	4494
2026-01-15 09:03:47.31	127.76	34.47	-50.3	-51.6	14.4	0.00e+00	0	28	0	825229312	65	4514
2026-01-15 09:03:48.32	127.64	34.69	-50.3	-51.7	14.4	0.00e+00	0	28	0	828375040	65	4559
2026-01-15 09:03:49.32	127.52	34.90	-50.6	-52.0	14.3	0.00e+00	0	28	0	831520768	66	4465
2026-01-15 09:03:50.33	127.40	35.12	-50.9	-52.3	14.2	0.00e+00	0	28	0	834666496	66	4619
2026-01-15 09:03:51.34	127.28	35.34	-51.1	-52.6	14.2	0.00e+00	0	28	0	837812224	67	4519
2026-01-15 09:03:52.35	127.15	35.56	-51.4	-52.9	14.0	0.00e+00	0	28	0	840957952	67	4686
2026-01-15 09:03:53.36	127.02	35.78	-51.8	-53.3	14.0	0.00e+00	0	28	0	844103680	68	4643
2026-01-15 09:03:54.37	126.89	36.00	-51.9	-53.5	14.0	0.00e+00	0	28	0	847249408	69	4462
2026-01-15 09:03:55.38	126.76	36.22	-52.1	-53.7	13.9	0.00e+00	0	28	0	850395136	69	4546
2026-01-15 09:03:56.39	126.63	36.45	-52.0	-53.6	14.0	0.00e+00	0	28	0	853540864	69	4530
2026-01-15 09:03:57.39	126.50	36.67	-51.9	-53.5	14.0	0.00e+00	0	28	0	856686592	69	4464
2026-01-15 09:03:58.40	126.36	36.90	-51.9	-53.5	14.0	0.00e+00	0	28	0	859832320	69	4457
2026-01-15 09:03:59.40	126.22	37.13	-52.0	-53.5	14.0	0.00e+00	0	28	0	862978048	69	4484
2026-01-15 09:04:00.41	126.08	37.36	-52.0	-53.6	14.0	0.00e+00	0	28	0	866123776	69	4519
2026-01-15 09:04:01.42	125.94	37.59	-52.0	-53.5	14.0	0.00e+00	0	28	0	869269504	69	4492
2026-01-15 09:04:02.43	125.79	37.83	-52.1	-53.7	13.9	0.00e+00	0	28	0	872415232	69	4569
2026-01-15 09:04:03.44	125.65	38.06	-52.1	-53.7	13.9	0.00e+00	0	28	0	875560960	69	4583
2026-01-15 09:04:04.45	125.50	38.30	-52.1	-53.7	13.9	0.00e+00	0	28	0	878706688	69	4575
2026-01-15 09:04:05.45	125.35	38.53	-51.8	-53.3	14.1	0.00e+00	0	28	0	881852416	69	4384
2026-01-15 09:04:06.46	125.19	38.77	-51.7	-53.2	14.1	0.00e+00	0	28	0	884998144	69	4309
2026-01-15 09:04:07.47	125.04	39.01	-51.6	-53.1	14.2	0.00e+00	0	28	0	888143872	69	4266
2026-01-15 09:04:08.48	124.88	39.26	-51.5	-52.9	14.3	0.00e+00	0	28	0	891289600	69	4173
2026-01-15 09:04:09.48	124.72	39.50	-51.4	-52.8	14.3	0.00e+00	0	28	0	894435328	69	4120
2026-01-15 09:04:10.49	124.56	39.74	-51.4	-52.9	14.3	0.00e+00	0	28	0	897581056	69	4162
2026-01-15 09:04:11.50	124.39	39.99	-51.5	-52.9	14.3	0.00e+00	0	28	0	900726784	69	4186
2026-01-15 09:04:12.51	124.22	40.24	-51.5	-53.0	14.3	0.00e+00	0	28	0	903872512	69	4199
2026-01-15 09:04:13.52	124.05	40.49	-51.5	-52.9	14.3	0.00e+00	0	28	0	907018240	69	4189
2026-01-15 09:04:14.53	123.88	40.74	-51.4	-52.9	14.3	0.00e+00	0	28	0	910163968	69	4163
2026-01-15 09:04:15.54	123.70	40.99	-51.4	-52.9	14.3	0.00e+00	0	28	0	913309696	69	4146
2026-01-15 09:04:16.54	123.52	41.24	-51.2	-52.7	14.4	0.00e+00	0	28	0	916455424	69	4052
2026-01-15 09:04:17.55	123.34	41.50	-51.3	-52.7	14.4	0.00e+00	0	28	0	919601152	69	4079
2026-01-15 09:04:18.56	123.15	41.75	-51.5	-53.0	14.3	0.00e+00	0	28	0	922746880	69	4218
2026-01-15 09:04:19.57	122.97	42.01	-51.6	-53.1	14.2	0.00e+00	0	28	0	925892608	69	4246
2026-01-15 09:04:20.57	122.78	42.27	-51.7	-53.2	14.2	0.00e+00	0	28	0	929038336	69	4294
2026-01-15 09:04:21.58	122.58	42.53	-51.9	-53.4	14.0	0.00e+00	0	28	0	932184064	69	4404
2026-01-15 09:04:22.59	122.39	42.79	-52.0	-53.5	13.9	0.00e+00	0	28	0	935329792	69	4493
2026-01-15 09:04:23.59	122.19	43.05	-52.2	-53.8	13.9	0.00e+00	0	28	0	938475520	69	4601
2026-01-15 09:04:24.60	121.98	43.32	-52.4	-54.0	13.8	0.00e+00	0	28	0	941621248	69	4732
2026-01-15 09:04:25.61	121.77	43.59	-52.6	-54.3	13.7	0.00e+00	0	28	0	944766976	70	4635
2026-01-15 09:04:26.62	121.56	43.86	-52.8	-54.6	13.6	0.00e+00	0	28	0	947912704	70	4784
2026-01-15 09:04:27.63	121.35	44.12	-52.9	-54.6	13.6	0.00e+00	0	28	0	951058432	70	4805
2026-01-15 09:04:28.64	121.13	44.40	-52.9	-54.7	13.7	0.00e+00	0	28	0	954204160	71	4549
2026-01-15 09:04:29.65	120.91	44.67	-53.0	-54.7	13.6	0.00e+00	0	28	0	957349888	71	4598
2026-01-15 09:04:30.65	120.68	44.94	-52.8	-54.5	13.7	0.00e+00	0	28	0	960495616	71	4460
2026-01-15 09:04:31.66	120.45	45.22	-52.7	-54.4	13.8	0.00e+00	0	28	0	963641344	71	4419
2026-01-15 09:04:32.68	120.21	45.49	-52.7	-54.3	13.8	0.00e+00	0	28	0	966787072	71	4368
2026-01-15 09:04:33.68	119.98	45.77	-52.6	-54.2	13.9	0.00e+00	0	28	0	969932800	71	4304
2026-01-15 09:04:34.69	119.73	46.05	-52.3	-53.9	14.0	0.00e+00	0	28	0	973078528	71	4170
2026-01-15 09:04:35.70	119.49	46.33	-52.4	-54.0	14.0	0.00e+00	0	28	0	976224256	71	4201
2026-01-15 09:04:36.71	119.24	46.61	-52.3	-53.9	14.1	0.00e+00	0	28	0	979369984	71	4170
2026-01-15 09:04:37.72	118.98	46.90	-52.3	-53.9	14.1	0.00e+00	0	28	0	982515712	71	4148
2026-01-15 09:04:38.72	118.72	47.18	-52.3	-53.9	14.1	0.00e+00	0	28	0	985661440	71	4174
2026-01-15 09:04:39.73	118.45	47.46	-52.3	-53.8	14.1	0.00e+00	0	28	0	988807168	71	4130
2026-01-15 09:04:40.74	118.18	47.75	-52.2	-53.7	14.0	0.00e+00	0	28	0	991952896	70	4326
2026-01-15 09:04:41.75	117.91	48.04	-52.1	-53.6	14.1	0.00e+00	0	28	0	995098624	70	4278
2026-01-15 09:04:42.76	117.62	48.33	-51.9	-53.4	14.2	0.00e+00	0	28	0	998244352	70	4148
2026-01-15 09:04:43.77	117.34	48.62	-51.5	-53.0	14.3	0.00e+00	0	28	0	1001390080	69	4219
2026-01-15 09:04:44.78	117.04	48.91	-51.3	-52.7	14.4	0.00e+00	0	28	0	1004535808	69	4069
2026-01-15 09:04:45.79	116.75	49.20	-51.2	-52.6	14.4	0.00e+00	0	28	0	1008730112	69	4038
2026-01-15 09:04:46.79	116.45	49.49	-51.5	-52.9	14.3	0.00e+00	0	28	0	1010827264	69	4182
2026-01-15 09:04:47.80	116.14	49.79	-51.8	-53.2	14.1	0.00e+00	0	28	0	1013972992	69	4340
2026-01-15 09:04:48.81	115.82	50.08	-52.0	-53.5	14.0	0.00e+00	0	28	0	1017118720	69	4482
2026-01-15 09:04:49.82	115.50	50.38	-52.1	-53.6	14.0	0.00e+00	0	28	0	1020264448	69	4541
2026-01-15 09:04:50.82	115.17	50.68	-52.0	-53.6	14.0	0.00e+00	0	28	0	1023410176	69	4506
2026-01-15 09:04:51.83	114.84	50.97	-51.8	-53.4	14.1	0.00e+00	0	28	0	1026555904	69	4392
2026-01-15 09:04:52.84	114.49	51.27	-51.6	-53.0	14.3	0.00e+00	0	28	0	1030750208	69	4227
2026-01-15 09:04:53.85	114.14	51.57	-51.2	-52.6	14.4	0.00e+00	0	28	0	1032847360	69	4025
2026-01-15 09:04:54.86	113.79	51.87	-50.8	-52.1	14.5	0.00e+00	0	28	0	1035993088	68	4042
2026-01-15 09:04:55.87	113.43	52.18	-51.0	-52.3	14.4	0.00e+00	0	28	0	1039138816	68	4142
2026-01-15 09:04:56.88	113.05	52.48	-51.2	-52.5	14.3	0.00e+00	0	28	0	1042284544	68	4242
2026-01-15 09:04:57.89	112.67	52.78	-51.4	-52.8	14.2	0.00e+00	0	28	0	1046478848	68	4379
2026-01-15 09:04:58.90	112.29	53.08	-51.4	-52.9	14.2	0.00e+00	0	28	0	1049624576	68	4402
2026-01-15 09:04:59.91	111.89	53.39	-51.4	-52.9	14.2	0.00e+00	0	28	0	1052770304	68	4396
2026-01-15 09:05:00.91	111.49	53.69	-51.3	-52.8	14.3	0.00e+00	0	28	0	1055916032	68	4342
2026-01-15 09:05:01.92	111.08	53.99	-51.5	-53.0	14.2	0.00e+00	0	28	0	1058013184	68	4445
2026-01-15 09:05:02.93	110.66	54.30	-51.2	-52.6	14.3	0.00e+00	0	28	0	1061158912	68	4245
2026-01-15 09:05:03.94	110.23	54.60	-51.1	-52.5	14.4	0.00e+00	0	28	0	1065353216	68	4207
2026-01-15 09:05:04.95	109.79	54.91	-50.9	-52.3	14.5	0.00e+00	0	28	0	1068498944	68	4102
2026-01-15 09:05:05.96	109.34	55.21	-50.5	-51.8	14.5	0.00e+00	0	28	0	1071644672	67	4109
2026-01-15 09:05:06.96	108.89	55.52	-50.5	-51.8	14.5	0.00e+00	0	28	0	1074790400	67	4110
2026-01-15 09:05:07.97	108.42	55.82	-50.2	-51.5	14.6	0.00e+00	0	28	0	1077936128	67	3988
2026-01-15 09:05:08.98	107.94	56.13	-50.0	-51.3	14.6	0.00e+00	0	28	0	1080033280	66	4103
2026-01-15 09:05:09.99	107.45	56.43	-50.1	-51.4	14.5	0.00e+00	0	28	0	1084227584	66	4181
2026-01-15 09:05:11.00	106.95	56.73	-50.0	-51.3	14.6	0.00e+00	0	28	0	1087373312	66	4126
2026-01-15 09:05:12.01	106.44	57.04	-50.1	-51.4	14.5	0.00e+00	0	28	0	1090519040	66	4193
2026-01-15 09:05:13.01	105.92	57.34	-50.0	-51.3	14.6	0.00e+00	0	28	0	1093664768	66	4121
2026-01-15 09:05:14.02	105.38	57.64	-50.0	-51.2	14.6	0.00e+00	0	28	0	1096810496	66	4087
2026-01-15 09:05:15.03	104.84	57.94	-49.9	-51.1	14.7	0.00e+00	0	28	0	1099956224	66	4045
2026-01-15 09:05:16.04	104.28	58.24	-50.0	-51.2	14.6	0.00e+00	0	28	0	1103101952	66	4098
2026-01-15 09:05:17.04	103.71	58.54	-49.9	-51.1	14.7	0.00e+00	0	28	0	1106247680	66	4051
2026-01-15 09:05:18.06	103.12	58.84	-50.2	-51.5	14.5	0.00e+00	0	28	0	1109393408	66	4196
2026-01-15 09:05:19.07	102.52	59.13	-50.0	-51.3	14.6	0.00e+00	0	28	0	1112539136	66	4129
2026-01-15 09:05:20.08	101.91	59.43	-49.5	-50.7	14.7	0.00e+00	0	28	0	1115684864	65	4095
2026-01-15 09:05:21.08	101.28	59.72	-49.3	-50.5	14.8	0.00e+00	0	28	0	1118830592	65	3994
2026-01-15 09:05:22.10	100.64	60.01	-49.2	-50.4	14.8	0.00e+00	0	28	0	1121976320	65	3950
2026-01-15 09:05:23.11	99.98	60.30	-49.3	-50.5	14.8	0.00e+00	0	28	0	1125122048	65	3981
2026-01-15 09:05:24.11	99.32	60.59	-49.5	-50.7	14.7	0.00e+00	0	28	0	1128267776	65	4078
2026-01-15 09:05:25.12	98.63	60.87	-49.5	-50.7	14.7	0.00e+00	0	28	0	1131413504	65	4064
2026-01-15 09:05:26.13	97.93	61.15	-49.2	-50.3	14.9	0.00e+00	0	28	0	1134559232	65	3904
2026-01-15 09:05:27.14	97.21	61.43	-48.8	-49.9	14.9	0.00e+00	0	28	0	1137704960	64	3958
2026-01-15 09:05:28.15	96.48	61.71	-48.4	-49.5	14.9	0.00e+00	0	28	0	1140850688	63	3963
2026-01-15 09:05:29.15	95.73	61.98	-48.6	-49.7	14.9	0.00e+00	0	28	0	1143996416	63	4080
2026-01-15 09:05:30.15	94.97	62.25	-48.9	-50.0	14.8	0.00e+00	0	28	0	1147142144	63	4226
2026-01-15 09:05:31.16	94.19	62.52	-48.8	-49.9	14.8	0.00e+00	0	28	0	1150287872	63	4188
2026-01-15 09:05:32.17	93.39	62.78	-48.9	-50.0	14.7	0.00e+00	0	28	0	1153433600	63	4235
2026-01-15 09:05:33.17	92.58	63.04	-48.9	-50.1	14.7	0.00e+00	0	28	0	1156579328	63	4260
2026-01-15 09:05:34.18	91.74	63.29	-48.9	-50.1	14.8	0.00e+00	0	28	0	1159725056	63	4243
2026-01-15 09:05:35.19	90.88	63.54	-49.0	-50.2	14.7	0.00e+00	0	28	0	1162870784	63	4311
2026-01-15 09:05:36.20	90.01	63.79	-49.0	-50.1	14.7	0.00e+00	0	28	0	1166016512	63	4283
2026-01-15 09:05:37.20	89.12	64.03	-49.3	-50.5	14.7	0.00e+00	0	28	0	1169162240	63	4456
2026-01-15 09:05:38.21	88.21	64.27	-49.5	-50.8	14.6	0.00e+00	0	28	0	1172307968	64	4354
2026-01-15 09:05:39.22	87.28	64.50	-49.5	-50.7	14.7	0.00e+00	0	28	0	1175453696	64	4321
2026-01-15 09:05:40.23	86.33	64.73	-49.2	-50.5	14.7	0.00e+00	0	28	0	1178599424	64	4203
2026-01-15 09:05:41.24	85.37	64.95	-49.2	-50.3	14.8	0.00e+00	0	28	0	1181745152	64	4145
2026-01-15 09:05:42.25	84.38	65.16	-49.2	-50.4	14.7	0.00e+00	0	28	0	1184890880	64	4192
2026-01-15 09:05:43.26	83.37	65.37	-49.6	-50.8	14.6	0.00e+00	0	28	0	1188036608	64	4368
2026-01-15 09:05:44.27	82.35	65.57	-49.4	-50.6	14.7	0.00e+00	0	28	0	1191182336	64	4255
2026-01-15 09:05:45.28	81.30	65.77	-49.3	-50.5	14.7	0.00e+00	0	28	0	1194328064	64	4233
2026-01-15 09:05:46.29	80.24	65.96	-49.3	-50.5	14.7	0.00e+00	0	28	0	1197473792	64	4231
2026-01-15 09:05:47.30	79.16	66.14	-49.2	-50.4	14.7	0.00e+00	0	28	0	1200619520	64	4188
2026-01-15 09:05:48.31	78.07	66.31	-49.2	-50.4	14.7	0.00e+00	0	28	0	1203765248	64	4166
2026-01-15 09:05:49.32	76.95	66.48	-49.1	-50.3	14.8	0.00e+00	0	28	0	1206910976	64	4112
2026-01-15 09:05:50.33	75.82	66.63	-49.2	-50.4	14.7	0.00e+00	0	28	0	1210056704	64	4152
2026-01-15 09:05:51.33	74.68	66.78	-49.2	-50.4	14.7	0.00e+00	0	28	0	1213202432	64	4151
2026-01-15 09:05:52.34	73.52	66.92	-49.2	-50.4	14.8	0.00e+00	0	28	0	1216348160	64	4153
2026-01-15 09:05:53.35	72.34	67.06	-48.9	-50.1	14.8	0.00e+00	0	28	0	1219493888	64	4022
2026-01-15 09:05:54.36	71.14	67.18	-48.6	-49.7	14.8	0.00e+00	0	28	0	1222639616	63	4096
2026-01-15 09:05:55.37	69.93	67.30	-48.6	-49.7	14.9	0.00e+00	0	28	0	1225785344	63	4086
2026-01-15 09:05:56.38	68.71	67.40	-48.8	-49.9	14.8	0.00e+00	0	28	0	1228931072	63	4186
2026-01-15 09:05:57.38	67.49	67.50	-48.8	-50.0	14.8	0.00e+00	0	28	0	1232076800	63	4200
2026-01-15 09:05:58.39	66.25	67.58	-48.8	-49.9	14.8	0.00e+00	0	28	0	1235222528	63	4183
2026-01-15 09:05:59.40	65.00	67.66	-49.0	-50.2	14.7	0.00e+00	0	28	0	1238368256	63	4306
2026-01-15 09:06:00.41	63.73	67.73	-49.2	-50.3	14.7	0.00e+00	0	28	0	1241513984	63	4381
2026-01-15 09:06:01.41	62.48	67.78	-48.9	-50.1	14.7	0.00e+00	0	28	0	1244659712	63	4258
2026-01-15 09:06:02.43	61.19	67.83	-48.9	-50.1	14.7	0.00e+00	0	28	0	1247805440	63	4267
2026-01-15 09:06:03.44	59.90	67.87	-49.2	-50.4	14.7	0.00e+00	0	28	0	1250951168	63	4405
2026-01-15 09:06:04.45	58.62	67.89	-49.1	-50.2	14.7	0.00e+00	0	28	0	1254096896	63	4320
2026-01-15 09:06:05.46	57.33	67.91	-48.8	-49.9	14.8	0.00e+00	0	28	0	1257242624	63	4179
2026-01-15 09:06:06.46	56.05	67.92	-48.9	-50.1	14.7	0.00e+00	0	28	0	1260388352	63	4267
2026-01-15 09:06:07.47	54.76	67.91	-49.4	-50.7	14.7	0.00e+00	0	28	0	1263534080	64	4293
2026-01-15 09:06:08.48	53.47	67.90	-49.6	-50.8	14.6	0.00e+00	0	28	0	1266679808	64	4387
2026-01-15 09:06:09.48	52.20	67.87	-49.4	-50.6	14.7	0.00e+00	0	28	0	1269825536	64	4259
2026-01-15 09:06:10.49	50.92	67.84	-49.3	-50.5	14.7	0.00e+00	0	28	0	1272971264	64	4209
2026-01-15 09:06:11.50	49.64	67.79	-49.0	-50.1	14.8	0.00e+00	0	28	0	1276116992	64	4042
2026-01-15 09:06:12.51	48.37	67.74	-48.7	-49.8	14.9	0.00e+00	0	28	0	1279262720	64	3909
2026-01-15 09:06:13.52	47.11	67.67	-48.6	-49.7	14.9	0.00e+00	0	28	0	1282408448	63	4068
2026-01-15 09:06:14.53	45.85	67.59	-48.8	-50.0	14.8	0.00e+00	0	28	0	1285554176	63	4220
2026-01-15 09:06:15.53	44.62	67.51	-49.0	-50.1	14.7	0.00e+00	0	28	0	1288699904	63	4291
2026-01-15 09:06:16.53	43.40	67.42	-49.0	-50.2	14.7	0.00e+00	0	28	0	1291845632	63	4310
2026-01-15 09:06:17.54	42.18	67.31	-49.0	-50.2	14.7	0.00e+00	0	28	0	1294991360	63	4329
2026-01-15 09:06:18.55	40.97	67.20	-49.1	-50.3	14.7	0.00e+00	0	28	0	1298137088	63	4379
2026-01-15 09:06:19.56	39.77	67.08	-49.4	-50.6	14.6	0.00e+00	0	28	0	1301282816	63	4538
2026-01-15 09:06:20.57	38.59	66.94	-49.8	-51.1	14.5	0.00e+00	0	28	0	1304428544	64	4515
2026-01-15 09:06:21.58	37.42	66.80	-49.9	-51.2	14.6	0.00e+00	0	28	0	1307574272	65	4293
2026-01-15 09:06:22.59	36.27	66.66	-49.4	-50.6	14.8	0.00e+00	0	28	0	1310720000	65	4041
2026-01-15 09:06:23.59	35.15	66.50	-49.2	-50.4	14.9	0.00e+00	0	28	0	1313865728	65	3936
2026-01-15 09:06:24.60	34.03	66.34	-49.5	-50.7	14.7	0.00e+00	0	28	0	1317011456	65	4079
2026-01-15 09:06:25.61	32.94	66.16	-49.5	-50.8	14.7	0.00e+00	0	28	0	1320157184	65	4107
2026-01-15 09:06:26.62	31.85	65.98	-49.3	-50.6	14.8	0.00e+00	0	28	0	1323302912	65	4007
2026-01-15 09:06:27.63	30.79	65.80	-48.6	-49.7	14.9	0.00e+00	0	28	0	1326448640	63	4062
2026-01-15 09:06:28.64	29.74	65.60	-48.7	-49.8	14.8	0.00e+00	0	28	0	1329594368	63	4117
2026-01-15 09:06:29.65	28.72	65.40	-49.1	-50.3	14.6	0.00e+00	0	28	0	1332740096	63	4377
2026-01-15 09:06:30.66	27.71	65.20	-49.2	-50.3	14.7	0.00e+00	0	28	0	1335885824	63	4391
2026-01-15 09:06:31.66	26.73	64.98	-49.1	-50.3	14.7	0.00e+00	0	28	0	1339031552	63	4343
2026-01-15 09:06:32.67	25.76	64.76	-49.5	-50.7	14.7	0.00e+00	0	28	0	1342177280	64	4308
2026-01-15 09:06:33.68	24.81	64.54	-50.2	-51.5	14.4	0.00e+00	0	28	0	1345323008	65	4449
2026-01-15 09:06:34.69	23.88	64.31	-50.0	-51.3	14.4	0.00e+00	0	28	0	1348468736	65	4376
2026-01-15 09:06:35.70	22.96	64.07	-49.8	-51.0	14.6	0.00e+00	0	28	0	1351614464	65	4240
2026-01-15 09:06:36.71	22.07	63.83	-49.7	-50.9	14.6	0.00e+00	0	28	0	1354760192	65	4183
2026-01-15 09:06:37.72	21.19	63.59	-49.9	-51.1	14.6	0.00e+00	0	28	0	1357905920	65	4279
2026-01-15 09:06:38.72	20.34	63.34	-50.2	-51.5	14.5	0.00e+00	0	28	0	1361051648	65	4474
2026-01-15 09:06:39.74	19.50	63.08	-50.2	-51.5	14.5	0.00e+00	0	28	0	1364197376	65	4465
2026-01-15 09:06:40.74	18.68	62.82	-50.1	-51.3	14.5	0.00e+00	0	28	0	1367343104	65	4391
2026-01-15 09:06:41.75	17.88	62.56	-49.8	-51.0	14.5	0.00e+00	0	28	0	1370488832	65	4233
2026-01-15 09:06:42.76	17.09	62.30	-49.5	-50.7	14.7	0.00e+00	0	28	0	1373634560	65	4080
2026-01-15 09:06:43.77	16.32	62.03	-49.5	-50.7	14.7	0.00e+00	0	28	0	1376780288	65	4093
2026-01-15 09:06:44.78	15.57	61.75	-50.0	-51.2	14.5	0.00e+00	0	28	0	1379926016	65	4339
2026-01-15 09:06:45.79	14.84	61.48	-50.5	-51.8	14.4	0.00e+00	0	28	0	1383071744	66	4383
2026-01-15 09:06:46.79	14.12	61.20	-51.0	-52.4	14.3	0.00e+00	0	28	0	1386217472	67	4409
2026-01-15 09:06:47.80	13.42	60.92	-50.6	-52.0	14.4	0.00e+00	0	28	0	1389363200	67	4199
2026-01-15 09:06:48.80	12.74	60.64	-50.1	-51.4	14.6	0.00e+00	0	28	0	1392508928	66	4160
2026-01-15 09:06:49.81	12.07	60.35	-49.2	-50.4	14.9	0.00e+00	0	28	0	1395654656	65	3927
2026-01-15 09:06:50.82	11.41	60.06	-48.9	-50.1	14.8	0.00e+00	0	28	0	1398800384	64	4015
2026-01-15 09:06:51.83	10.77	59.77	-49.6	-50.8	14.6	0.00e+00	0	28	0	1401946112	64	4363
2026-01-15 09:06:52.84	10.14	59.48	-50.7	-52.0	14.3	0.00e+00	0	28	0	1405091840	66	4479
2026-01-15 09:06:53.85	9.52	59.19	-51.9	-53.4	14.1	0.00e+00	0	28	0	1408237568	68	4674
2026-01-15 09:06:54.85	8.93	58.89	-51.1	-52.5	14.3	0.00e+00	0	28	0	1411383296	68	4242
2026-01-15 09:06:55.87	8.34	58.59	-49.9	-51.1	14.6	0.00e+00	0	28	0	1414529024	66	4047
2026-01-15 09:06:56.87	7.77	58.30	-49.4	-50.6	14.7	0.00e+00	0	28	0	1417674752	65	4019
2026-01-15 09:06:57.88	7.21	58.00	-49.5	-50.7	14.7	0.00e+00	0	28	0	1420820480	65	4075
2026-01-15 09:06:58.89	6.66	57.70	-50.0	-51.3	14.5	0.00e+00	0	28	0	1423966208	65	4359
2026-01-15 09:06:59.90	6.12	57.40	-50.5	-51.8	14.4	0.00e+00	0	28	0	1427111936	66	4360
2026-01-15 09:07:00.90	5.60	57.10	-51.1	-52.5	14.1	0.00e+00	0	28	0	1430257664	67	4458
2026-01-15 09:07:01.91	5.09	56.80	-51.8	-53.3	13.9	0.00e+00	0	28	0	1433403392	68	4604
2026-01-15 09:07:02.92	4.59	56.49	-51.6	-53.0	14.1	0.00e+00	0	28	0	1436549120	68	4483
2026-01-15 09:07:03.93	4.10	56.19	-50.4	-51.6	14.5	0.00e+00	0	28	0	1439694848	67	4049
2026-01-15 09:07:04.94	3.62	55.89	-49.4	-50.5	14.8	0.00e+00	0	28	0	1442840576	65	3990
2026-01-15 09:07:05.95	3.15	55.58	-49.3	-50.4	14.8	0.00e+00	0	28	0	1445986304	64	4161
2026-01-15 09:07:06.95	2.69	55.28	-50.2	-51.5	14.5	0.00e+00	0	28	0	1449132032	65	4447
2026-01-15 09:07:07.96	2.24	54.98	-51.0	-52.3	14.3	0.00e+00	0	28	0	1452277760	67	4378
2026-01-15 09:07:08.97	1.80	54.67	-51.8	-53.2	14.1	0.00e+00	0	28	0	1455423488	68	4583
2026-01-15 09:07:09.98	1.37	54.37	-52.2	-53.7	13.9	0.00e+00	0	28	0	1458569216	69	4591
2026-01-15 09:07:10.99	0.95	54.06	-52.3	-53.9	13.8	0.00e+00	0	28	0	1461714944	69	4671
2026-01-15 09:07:12.00	0.54	53.76	-52.1	-53.6	13.9	0.00e+00	0	28	0	1464860672	69	4539
2026-01-15 09:07:13.01	0.13	53.46	-51.6	-53.1	14.2	0.00e+00	0	28	0	1468006400	69	4266
2026-01-15 09:07:14.02	359.74	53.15	-50.9	-52.3	14.5	0.00e+00	0	28	0	1471152128	68	4107
2026-01-15 09:07:15.03	359.35	52.85	-50.8	-52.1	14.6	0.00e+00	0	28	0	1474297856	68	4036
2026-01-15 09:07:16.03	358.97	52.55	-50.9	-52.2	14.4	0.00e+00	0	28	0	1477443584	68	4064
2026-01-15 09:07:17.04	358.60	52.25	-51.5	-52.9	14.1	0.00e+00	0	28	0	1480589312	68	4412
2026-01-15 09:07:18.05	358.24	51.95	-52.3	-53.9	13.8	0.00e+00	0	28	0	1483735040	69	4673
2026-01-15 09:07:19.05	357.88	51.65	-52.4	-54.0	13.9	0.00e+00	0	28	0	1486880768	70	4493
2026-01-15 09:07:20.06	357.53	51.35	-52.1	-53.5	14.2	0.00e+00	0	28	0	1490026496	70	4242
2026-01-15 09:07:21.07	357.19	51.05	-52.1	-53.6	14.2	0.00e+00	0	28	0	1493172224	70	4243
2026-01-15 09:07:22.08	356.85	50.75	-51.5	-52.9	14.3	0.00e+00	0	28	0	1496317952	69	4177
2026-01-15 09:07:23.09	356.52	50.46	-50.9	-52.1	14.5	0.00e+00	0	28	0	1499463680	68	4041
2026-01-15 09:07:24.10	356.20	50.16	-50.6	-51.8	14.5	0.00e+00	0	28	0	1502609408	67	4145
2026-01-15 09:07:25.11	355.89	49.87	-50.5	-51.8	14.6	0.00e+00	0	28	0	1505755136	67	4103
2026-01-15 09:07:26.11	355.58	49.57	-50.6	-51.8	14.5	0.00e+00	0	28	0	1508900864	67	4137
2026-01-15 09:07:27.12	355.27	49.28	-51.1	-52.4	14.3	0.00e+00	0	28	0	1512046592	67	4435
2026-01-15 09:07:28.13	354.97	48.99	-52.1	-53.6	14.0	0.00e+00	0	28	0	1515192320	69	4515
2026-01-15 09:07:29.14	354.68	48.70	-52.7	-54.4	13.7	0.00e+00	0	28	0	1518338048	70	4670
2026-01-15 09:07:30.15	354.39	48.41	-52.6	-54.2	13.7	0.00e+00	0	28	0	1521483776	70	4588
2026-01-15 09:07:31.16	354.11	48.12	-52.1	-53.6	14.1	0.00e+00	0	28	0	1524629504	70	4253
2026-01-15 09:07:32.16	353.84	47.84	-51.9	-53.3	14.3	0.00e+00	0	28	0	1527775232	70	4109
2026-01-15 09:07:33.17	353.57	47.55	-52.0	-53.5	14.2	0.00e+00	0	28	0	1530920960	70	4225
2026-01-15 09:07:34.18	353.30	47.26	-52.2	-53.8	14.0	0.00e+00	0	28	0	1534066688	70	4352
2026-01-15 09:07:35.19	353.04	46.98	-52.3	-53.8	14.0	0.00e+00	0	28	0	1537212416	70	4386
2026-01-15 09:07:36.20	352.78	46.70	-52.4	-54.0	14.0	0.00e+00	0	28	0	1540358144	70	4482
2026-01-15 09:07:37.20	352.53	46.42	-52.6	-54.2	13.9	0.00e+00	0	28	0	1543503872	70	4565
2026-01-15 09:07:38.21	352.28	46.14	-52.5	-54.1	13.9	0.00e+00	0	28	0	1546649600	70	4505
2026-01-15 09:07:39.22	352.04	45.86	-52.5	-54.0	14.0	0.00e+00	0	28	0	1549795328	70	4490
2026-01-15 09:07:40.23	351.80	45.58	-52.8	-54.6	13.7	0.00e+00	0	28	0	1552941056	70	4763
2026-01-15 09:07:41.24	351.57	45.31	-53.7	-55.6	13.4	0.00e+00	0	28	0	1556086784	72	4795
2026-01-15 09:07:42.25	351.33	45.03	-54.2	-56.4	13.0	0.00e+00	0	28	0	1559232512	73	4952
2026-01-15 09:07:43.26	351.11	44.76	-54.0	-56.0	13.3	0.00e+00	0	28	0	1562378240	73	4724
2026-01-15 09:07:44.27	350.89	44.49	-53.3	-55.0	13.8	0.00e+00	0	28	0	1565523968	73	4224
2026-01-15 09:07:45.28	350.67	44.21	-52.7	-54.3	14.0	0.00e+00	0	28	0	1568669696	72	4112
2026-01-15 09:07:46.29	350.45	43.95	-52.4	-53.9	14.1	0.00e+00	0	28	0	1571815424	71	4165
2026-01-15 09:07:47.29	350.24	43.68	-52.2	-53.7	14.2	0.00e+00	0	28	0	1574961152	71	4055
2026-01-15 09:07:48.30	350.03	43.41	-52.0	-53.4	14.2	0.00e+00	0	28	0	1578106880	70	4171
2026-01-15 09:07:49.30	349.83	43.15	-52.2	-53.7	14.1	0.00e+00	0	28	0	1581252608	70	4337
2026-01-15 09:07:50.31	349.63	42.89	-52.6	-54.2	13.9	0.00e+00	0	28	0	1584398336	70	4582
2026-01-15 09:07:51.32	349.43	42.63	-53.2	-54.9	13.6	0.00e+00	0	28	0	1587544064	71	4704
2026-01-15 09:07:52.33	349.24	42.37	-53.4	-55.3	13.5	0.00e+00	0	28	0	1590689792	72	4600
2026-01-15 09:07:53.34	349.05	42.11	-53.5	-55.3	13.5	0.00e+00	0	28	0	1593835520	72	4638
2026-01-15 09:07:54.35	348.86	41.85	-53.2	-55.0	13.7	0.00e+00	0	28	0	1596981248	72	4463
2026-01-15 09:07:55.35	348.67	41.59	-53.0	-54.7	13.8	0.00e+00	0	28	0	1600126976	72	4308
2026-01-15 09:07:56.37	348.49	41.34	-52.6	-54.2	14.0	0.00e+00	0	28	0	1603272704	71	4304
2026-01-15 09:07:57.37	348.31	41.09	-52.4	-54.0	14.0	0.00e+00	0	28	0	1606418432	71	4236
2026-01-15 09:07:58.38	348.13	40.83	-52.3	-53.9	14.0	0.00e+00	0	28	0	1609564160	71	4161
2026-01-15 09:07:59.39	347.96	40.58	-52.1	-53.6	14.0	0.00e+00	0	28	0	1612709888	70	4267
2026-01-15 09:08:00.40	347.79	40.33	-51.8	-53.3	14.2	0.00e+00	0	28	0	1615855616	70	4125
2026-01-15 09:08:01.41	347.62	40.09	-51.6	-53.1	14.2	0.00e+00	0	28	0	1619001344	69	4243
2026-01-15 09:08:02.42	347.46	39.84	-51.4	-52.8	14.4	0.00e+00	0	28	0	1622147072	69	4115
2026-01-15 09:08:03.43	347.29	39.60	-51.0	-52.4	14.4	0.00e+00	0	28	0	1625292800	68	4153
2026-01-15 09:08:04.43	347.13	39.35	-51.3	-52.6	14.3	0.00e+00	0	28	0	1628438528	68	4281
2026-01-15 09:08:05.44	346.97	39.11	-51.6	-53.0	14.1	0.00e+00	0	28	0	1632632832	68	4451
2026-01-15 09:08:06.45	346.82	38.87	-52.0	-53.5	14.1	0.00e+00	0	28	0	1634729984	69	4442
2026-01-15 09:08:07.45	346.67	38.64	-52.3	-53.8	13.9	0.00e+00	0	28	0	1637875712	69	4648
2026-01-15 09:08:08.45	346.52	38.40	-52.6	-54.2	13.8	0.00e+00	0	28	0	1641021440	70	4588
2026-01-15 09:08:09.46	346.37	38.16	-52.6	-54.3	13.8	0.00e+00	0	28	0	1644167168	70	4622
2026-01-15 09:08:10.47	346.22	37.93	-52.7	-54.3	13.8	0.00e+00	0	28	0	1647312896	70	4648
2026-01-15 09:08:11.48	346.07	37.70	-52.3	-53.9	14.0	0.00e+00	0	28	0	1650458624	70	4408
2026-01-15 09:08:12.48	345.93	37.47	-52.0	-53.5	14.2	0.00e+00	0	28	0	1653604352	70	4213
2026-01-15 09:08:13.49	345.79	37.24	-52.0	-53.5	14.2	0.00e+00	0	28	0	1656750080	70	4204
2026-01-15 09:08:14.51	345.65	37.00	-51.8	-53.2	14.3	0.00e+00	0	28	0	1659895808	70	4084
2026-01-15 09:08:15.51	345.52	36.78	-51.8	-53.2	14.3	0.00e+00	0	28	0	1663041536	70	4078
2026-01-15 09:08:16.52	345.38	36.55	-51.3	-52.7	14.4	0.00e+00	0	28	0	1666187264	69	4082
2026-01-15 09:08:17.53	345.25	36.33	-51.2	-52.5	14.5	0.00e+00	0	28	0	1669332992	69	4000
2026-01-15 09:08:18.54	345.12	36.10	-51.3	-52.7	14.4	0.00e+00	0	28	0	1673527296	69	4078
2026-01-15 09:08:19.55	344.99	35.88	-51.2	-52.6	14.4	0.00e+00	0	28	0	1676673024	69	4039
2026-01-15 09:08:20.56	344.86	35.66	-51.3	-52.7	14.4	0.00e+00	0	28	0	1679818752	69	4098
2026-01-15 09:08:21.57	344.74	35.44	-51.0	-52.4	14.4	0.00e+00	0	28	0	1681915904	68	4177
2026-01-15 09:08:22.57	344.61	35.23	-50.8	-52.1	14.5	0.00e+00	0	28	0	1685061632	68	4050
2026-01-15 09:08:23.58	344.49	35.01	-50.7	-52.0	14.6	0.00e+00	0	28	0	1688207360	68	3987
2026-01-15 09:08:24.59	344.37	34.79	-50.7	-52.0	14.6	0.00e+00	0	28	0	1692401664	68	3998
2026-01-15 09:08:25.60	344.25	34.58	-50.6	-52.0	14.4	0.00e+00	0	28	0	1695547392	67	4200
2026-01-15 09:08:26.61	344.13	34.37	-50.8	-52.2	14.4	0.00e+00	0	28	0	1698693120	67	4310
2026-01-15 09:08:27.62	344.02	34.15	-50.9	-52.3	14.4	0.00e+00	0	28	0	1701838848	67	4345
2026-01-15 09:08:28.62	343.91	33.95	-51.1	-52.5	14.2	0.00e+00	0	28	0	1703936000	67	4468
2026-01-15 09:08:29.62	343.79	33.74	-51.1	-52.5	14.2	0.00e+00	0	28	0	1707081728	67	4486
2026-01-15 09:08:30.63	343.68	33.53	-51.2	-52.6	14.2	0.00e+00	0	28	0	1710227456	67	4530
2026-01-15 09:08:31.64	343.57	33.33	-51.2	-52.7	14.2	0.00e+00	0	28	0	1714421760	67	4562
2026-01-15 09:08:32.65	343.46	33.12	-51.1	-52.5	14.2	0.00e+00	0	28	0	1717567488	67	4471
2026-01-15 09:08:33.66	343.36	32.92	-50.7	-52.0	14.4	0.00e+00	0	28	0	1720713216	67	4224
2026-01-15 09:08:34.67	343.25	32.71	-50.3	-51.6	14.6	0.00e+00	0	28	0	1723858944	67	4006
2026-01-15 09:08:35.68	343.15	32.51	-50.0	-51.2	14.7	0.00e+00	0	28	0	1727004672	66	4076
2026-01-15 09:08:36.69	343.04	32.31	-49.6	-50.8	14.7	0.00e+00	0	28	0	1730150400	65	4102
2026-01-15 09:08:37.68	342.94	32.12	-49.4	-50.6	14.8	0.00e+00	0	28	0	1732247552	65	4046
2026-01-15 09:08:38.69	342.84	31.92	-49.4	-50.6	14.8	0.00e+00	0	28	0	1736441856	65	4042
2026-01-15 09:08:39.70	342.74	31.72	-49.5	-50.8	14.7	0.00e+00	0	28	0	1739587584	65	4099
2026-01-15 09:08:40.71	342.65	31.53	-49.6	-50.8	14.7	0.00e+00	0	28	0	1742733312	65	4117
2026-01-15 09:08:41.72	342.55	31.33	-49.7	-51.0	14.6	0.00e+00	0	28	0	1745879040	65	4197
2026-01-15 09:08:42.73	342.45	31.14	-49.8	-51.0	14.6	0.00e+00	0	28	0	1749024768	65	4230
2026-01-15 09:08:43.74	342.36	30.95	-49.9	-51.2	14.6	0.00e+00	0	28	0	1752170496	65	4301
2026-01-15 09:08:44.75	342.27	30.76	-50.0	-51.3	14.5	0.00e+00	0	28	0	1755316224	65	4379
2026-01-15 09:08:45.76	342.18	30.57	-50.2	-51.5	14.4	0.00e+00	0	28	0	1758461952	65	4451
2026-01-15 09:08:46.77	342.08	30.38	-50.1	-51.5	14.5	0.00e+00	0	28	0	1761607680	65	4445
2026-01-15 09:08:47.77	342.00	30.19	-50.3	-51.6	14.4	0.00e+00	0	28	0	1764753408	65	4513
2026-01-15 09:08:48.78	341.91	30.01	-50.2	-51.6	14.4	0.00e+00	0	28	0	1767899136	65	4503
2026-01-15 09:08:49.79	341.82	29.82	-50.3	-51.6	14.4	0.00e+00	0	28	0	1771044864	65	4529
2026-01-15 09:08:50.80	341.73	29.64	-50.3	-51.6	14.4	0.00e+00	0	28	0	1774190592	65	4531
2026-01-15 09:08:51.81	341.65	29.46	-50.3	-51.7	14.4	0.00e+00	0	28	0	1777336320	65	4559
2026-01-15 09:08:52.82	341.56	29.28	-50.3	-51.7	14.4	0.00e+00	0	28	0	1780482048	65	4568
2026-01-15 09:08:53.83	341.48	29.09	-50.3	-51.6	14.4	0.00e+00	0	28	0	1783627776	65	4534
2026-01-15 09:08:54.83	341.40	28.92	-50.2	-51.5	14.4	0.00e+00	0	28	0	1786773504	65	4465
2026-01-15 09:08:55.84	341.31	28.74	-50.1	-51.4	14.4	0.00e+00	0	28	0	1789919232	65	4430
2026-01-15 09:08:56.85	341.23	28.56	-49.9	-51.1	14.5	0.00e+00	0	28	0	1793064960	65	4278
2026-01-15 09:08:57.85	341.15	28.39	-49.8	-51.0	14.6	0.00e+00	0	28	0	1796210688	65	4228
2026-01-15 09:08:58.86	341.08	28.21	-49.7	-50.9	14.6	0.00e+00	0	28	0	1799356416	65	4191
2026-01-15 09:08:59.87	341.00	28.04	-49.5	-50.8	14.7	0.00e+00	0	28	0	1802502144	65	4099
2026-01-15 09:09:00.89	340.92	27.86	-49.5	-50.7	14.7	0.00e+00	0	28	0	1805647872	65	4083
2026-01-15 09:09:01.90	340.84	27.69	-49.5	-50.7	14.7	0.00e+00	0	28	0	1808793600	65	4059
2026-01-15 09:09:02.90	340.77	27.52	-49.1	-50.3	14.7	0.00e+00	0	28	0	1811939328	64	4132
2026-01-15 09:09:03.91	340.69	27.35	-49.0	-50.2	14.7	0.00e+00	0	28	0	1815085056	64	4078
2026-01-15 09:09:04.92	340.62	27.18	-49.0	-50.2	14.8	0.00e+00	0	28	0	1818230784	64	4059
2026-01-15 09:09:05.93	340.55	27.01	-48.8	-49.9	14.9	0.00e+00	0	28	0	1821376512	64	3947
2026-01-15 09:09:06.94	340.47	26.85	-48.9	-50.0	14.8	0.00e+00	0	28	0	1824522240	64	3994
2026-01-15 09:09:07.95	340.40	26.68	-48.9	-50.0	14.8	0.00e+00	0	28	0	1827667968	64	3993
2026-01-15 09:09:08.94	340.33	26.52	-49.0	-50.1	14.8	0.00e+00	0	28	0	1830813696	64	4047
2026-01-15 09:09:09.95	340.26	26.35	-49.1	-50.3	14.7	0.00e+00	0	28	0	1833959424	64	4100
2026-01-15 09:09:10.96	340.20	26.19	-49.2	-50.4	14.7	0.00e+00	0	28	0	1837105152	64	4191
2026-01-15 09:09:11.96	340.13	26.03	-49.4	-50.7	14.6	0.00e+00	0	28	0	1840250880	64	4294
2026-01-15 09:09:12.97	340.06	25.87	-49.5	-50.7	14.6	0.00e+00	0	28	0	1843396608	64	4330
2026-01-15 09:09:13.97	339.99	25.71	-49.4	-50.6	14.6	0.00e+00	0	28	0	1846542336	64	4249
2026-01-15 09:09:14.98	339.93	25.55	-49.5	-50.7	14.6	0.00e+00	0	28	0	1849688064	64	4311
2026-01-15 09:09:15.99	339.86	25.39	-49.5	-50.8	14.6	0.00e+00	0	28	0	1852833792	64	4368
2026-01-15 09:09:17.00	339.80	25.23	-49.6	-50.8	14.6	0.00e+00	0	28	0	1855979520	64	4379
2026-01-15 09:09:18.01	339.73	25.08	-49.6	-50.9	14.5	0.00e+00	0	28	0	1859125248	64	4429
2026-01-15 09:09:19.02	339.67	24.92	-49.7	-51.0	14.5	0.00e+00	0	28	0	1862270976	64	4464
2026-01-15 09:09:20.03	339.61	24.77	-49.7	-51.0	14.5	0.00e+00	0	28	0	1865416704	64	4480
2026-01-15 09:09:21.03	339.55	24.61	-49.9	-51.2	14.4	0.00e+00	0	28	0	1868562432	64	4573
2026-01-15 09:09:22.04	339.48	24.46	-49.9	-51.3	14.5	0.00e+00	0	28	0	1871708160	65	4346
2026-01-15 09:09:23.04	339.42	24.31	-50.1	-51.4	14.5	0.00e+00	0	28	0	1874853888	65	4415
2026-01-15 09:09:24.05	339.36	24.16	-50.0	-51.4	14.5	0.00e+00	0	28	0	1877999616	65	4396
2026-01-15 09:09:25.06	339.30	24.01	-50.1	-51.4	14.4	0.00e+00	0	28	0	1881145344	65	4417
2026-01-15 09:09:26.07	339.24	23.86	-50.1	-51.4	14.4	0.00e+00	0	28	0	1884291072	65	4433
2026-01-15 09:09:27.08	339.19	23.71	-50.0	-51.3	14.5	0.00e+00	0	28	0	1887436800	65	4389
2026-01-15 09:09:28.09	339.13	23.56	-50.0	-51.3	14.5	0.00e+00	0	28	0	1890582528	65	4380
2026-01-15 09:09:29.09	339.07	23.41	-50.1	-51.4	14.4	0.00e+00	0	28	0	1893728256	65	4422
2026-01-15 09:09:30.10	339.02	23.26	-50.1	-51.4	14.4	0.00e+00	0	28	0	1896873984	65	4402
2026-01-15 09:09:31.11	338.96	23.12	-50.1	-51.5	14.4	0.00e+00	0	28	0	1900019712	65	4443
2026-01-15 09:09:32.12	338.90	22.97	-50.1	-51.5	14.4	0.00e+00	0	28	0	1903165440	65	4443
2026-01-15 09:09:33.12	338.85	22.83	-50.0	-51.3	14.5	0.00e+00	0	28	0	1906311168	65	4389
2026-01-15 09:09:34.13	338.79	22.69	-50.1	-51.4	14.4	0.00e+00	0	28	0	1909456896	65	4426
2026-01-15 09:09:35.14	338.74	22.54	-50.1	-51.5	14.4	0.00e+00	0	28	0	1912602624	65	4452
2026-01-15 09:09:36.15	338.69	22.40	-50.0	-51.3	14.5	0.00e+00	0	28	0	1915748352	65	4387
2026-01-15 09:09:37.16	338.63	22.26	-49.9	-51.2	14.5	0.00e+00	0	28	0	1918894080	65	4303
2026-01-15 09:09:38.17	338.58	22.12	-49.8	-51.1	14.6	0.00e+00	0	28	0	1922039808	65	4253
2026-01-15 09:09:39.18	338.53	21.98	-49.8	-51.1	14.5	0.00e+00	0	28	0	1925185536	65	4276
2026-01-15 09:09:40.19	338.48	21.84	-49.9	-51.2	14.5	0.00e+00	0	28	0	1928331264	65	4320
2026-01-15 09:09:41.19	338.43	21.70	-49.9	-51.2	14.5	0.00e+00	0	28	0	1931476992	65	4302
2026-01-15 09:09:42.20	338.38	21.57	-49.8	-51.1	14.5	0.00e+00	0	28	0	1934622720	65	4283
2026-01-15 09:09:43.21	338.33	21.43	-49.8	-51.1	14.5	0.00e+00	0	28	0	1937768448	65	4264
2026-01-15 09:09:44.22	338.28	21.29	-49.8	-51.1	14.5	0.00e+00	0	28	0	1940914176	65	4259
2026-01-15 09:09:45.23	338.23	21.16	-49.8	-51.0	14.5	0.00e+00	0	28	0	1944059904	65	4238
2026-01-15 09:09:46.24	338.18	21.02	-49.7	-51.0	14.6	0.00e+00	0	28	0	1947205632	65	4222
2026-01-15 09:09:47.25	338.13	20.89	-49.7	-51.0	14.6	0.00e+00	0	28	0	1950351360	65	4201
2026-01-15 09:09:48.25	338.09	20.76	-49.6	-50.9	14.6	0.00e+00	0	28	0	1953497088	65	4162
2026-01-15 09:09:49.25	338.04	20.62	-49.7	-51.0	14.6	0.00e+00	0	28	0	1956642816	65	4226
2026-01-15 09:09:50.26	337.99	20.49	-49.6	-50.9	14.6	0.00e+00	0	28	0	1959788544	65	4172
2026-01-15 09:09:51.27	337.95	20.36	-49.6	-50.9	14.6	0.00e+00	0	28	0	1962934272	65	4150
2026-01-15 09:09:52.27	337.90	20.23	-49.5	-50.8	14.7	0.00e+00	0	28	0	1966080000	65	4099
2026-01-15 09:09:53.28	337.86	20.10	-49.6	-50.9	14.6	0.00e+00	0	28	0	1969225728	65	4170
2026-01-15 09:09:54.29	337.81	19.97	-49.7	-50.9	14.6	0.00e+00	0	28	0	1972371456	65	4188
2026-01-15 09:09:55.30	337.77	19.84	-49.5	-50.8	14.7	0.00e+00	0	28	0	1975517184	65	4118
2026-01-15 09:09:56.30	337.72	19.72	-49.5	-50.7	14.7	0.00e+00	0	28	0	1978662912	65	4077
2026-01-15 09:09:57.31	337.68	19.59	-49.6	-50.8	14.6	0.00e+00	0	28	0	1981808640	65	4135
2026-01-15 09:09:58.32	337.63	19.46	-49.5	-50.7	14.7	0.00e+00	0	28	0	1984954368	65	4084
2026-01-15 09:09:59.32	337.59	19.34	-49.4	-50.7	14.7	0.00e+00	0	28	0	1988100096	65	4069
2026-01-15 09:10:00.33	337.55	19.21	-49.4	-50.6	14.7	0.00e+00	0	28	0	1991245824	65	4050
2026-01-15 09:10:01.34	337.51	19.09	-49.5	-50.7	14.7	0.00e+00	0	28	0	1994391552	65	4085
2026-01-15 09:10:02.35	337.46	18.96	-49.5	-50.8	14.6	0.00e+00	0	28	0	1997537280	65	4118
2026-01-15 09:10:03.36	337.42	18.84	-49.4	-50.7	14.7	0.00e+00	0	28	0	2000683008	65	4059
2026-01-15 09:10:04.37	337.38	18.71	-49.5	-50.8	14.7	0.00e+00	0	28	0	2003828736	65	4100
2026-01-15 09:10:05.38	337.34	18.59	-49.5	-50.8	14.6	0.00e+00	0	28	0	2006974464	65	4123
2026-01-15 09:10:06.39	337.30	18.47	-49.6	-50.9	14.6	0.00e+00	0	28	0	2010120192	65	4147
2026-01-15 09:10:07.40	337.26	18.35	-49.5	-50.8	14.6	0.00e+00	0	28	0	2013265920	65	4118
2026-01-15 09:10:08.41	337.22	18.23	-49.5	-50.7	14.6	0.00e+00	0	28	0	2016411648	65	4094
2026-01-15 09:10:09.42	337.18	18.11	-49.6	-50.8	14.6	0.00e+00	0	28	0	2019557376	65	4124
2026-01-15 09:10:10.43	337.14	17.99	-49.6	-50.9	14.6	0.00e+00	0	28	0	2022703104	65	4166
2026-01-15 09:10:11.43	337.10	17.87	-49.7	-50.9	14.6	0.00e+00	0	28	0	2025848832	65	4181
2026-01-15 09:10:12.44	337.07	17.75	-49.7	-51.0	14.6	0.00e+00	0	28	0	2028994560	65	4213
2026-01-15 09:10:13.45	337.03	17.63	-49.7	-51.0	14.6	0.00e+00	0	28	0	2032140288	65	4225
2026-01-15 09:10:14.46	336.99	17.51	-49.8	-51.0	14.5	0.00e+00	0	28	0	2035286016	65	4237
2026-01-15 09:10:15.47	336.95	17.40	-49.8	-51.1	14.5	0.00e+00	0	28	0	2038431744	65	4271
2026-01-15 09:10:16.48	336.92	17.28	-49.9	-51.2	14.5	0.00e+00	0	28	0	2041577472	65	4306
2026-01-15 09:10:17.49	336.88	17.16	-49.9	-51.2	14.5	0.00e+00	0	28	0	2044723200	65	4314
2026-01-15 09:10:18.50	336.84	17.05	-49.9	-51.2	14.5	0.00e+00	0	28	0	2047868928	65	4332
2026-01-15 09:10:19.51	336.81	16.93	-50.0	-51.4	14.4	0.00e+00	0	28	0	2051014656	65	4396
2026-01-15 09:10:20.52	336.77	16.82	-50.1	-51.4	14.4	0.00e+00	0	28	0	2054160384	65	4420
2026-01-15 09:10:21.53	336.73	16.71	-50.1	-51.5	14.4	0.00e+00	0	28	0	2057306112	65	4446
2026-01-15 09:10:22.53	336.70	16.59	-50.2	-51.6	14.3	0.00e+00	0	28	0	2060451840	65	4494
2026-01-15 09:10:23.54	336.66	16.48	-50.2	-51.5	14.4	0.00e+00	0	28	0	2063597568	65	4469
2026-01-15 09:10:24.55	336.63	16.37	-50.3	-51.6	14.3	0.00e+00	0	28	0	2066743296	65	4522
2026-01-15 09:10:25.56	336.60	16.26	-50.3	-51.6	14.3	0.00e+00	0	28	0	2069889024	65	4540
2026-01-15 09:10:26.57	336.56	16.15	-50.3	-51.6	14.3	0.00e+00	0	28	0	2073034752	65	4527
2026-01-15 09:10:27.58	336.53	16.04	-50.4	-51.8	14.3	0.00e+00	0	28	0	2076180480	65	4613
