passes_logs/2026/01/15/R3.2S_Murmansk/R3.2S_Murmansk__20260115_210159_NOAA_21_JPSS-2_rec.log

#Pass ID: 20260115_210159_NOAA 21 (JPSS-2)
#Satellite: NOAA 21 (JPSS-2)
#Configuration: NOAA-21
#almurnet v.1.7.20251203
#Start time: 2026-01-15 21:02:00

#Version: 2.2.20231116
#Station: R3.2S_Murmansk
#Location: 33.079688 lon 68.888172 lat
#TLE: 1 54234U 22150A   26015.43562254  .00000028  00000+0  34201-4 0  9996
#TLE: 2 54234  98.7498 316.3301 0000635 288.4972  71.6135 14.19534768164873

#Time	Az	El	Level	Level2	SNR	BER	BlckErr	Temp	State	Recorded	gain1	gain2
2026-01-15 21:02:00.05	18.59	2.01	-56.1	-68.9	3.8	1.49e+00	0	40	0	0	84	15067
2026-01-15 21:02:01.06	18.69	2.05	-56.0	-68.7	3.8	1.49e+00	0	41	104	0	82	16625
2026-01-15 21:02:02.07	18.80	2.09	-56.0	-68.7	3.8	1.49e+00	0	40	104	0	82	16603
2026-01-15 21:02:03.08	18.90	2.13	-56.0	-68.7	3.8	1.49e+00	0	41	104	0	82	16582
2026-01-15 21:02:04.09	19.01	2.18	-56.0	-68.7	3.8	1.49e+00	0	41	104	0	82	16574
2026-01-15 21:02:05.10	19.11	2.22	-56.0	-68.7	3.8	1.49e+00	0	41	104	0	82	16512
2026-01-15 21:02:06.11	19.22	2.26	-56.0	-68.6	3.8	1.49e+00	0	41	104	0	82	16397
2026-01-15 21:02:07.12	19.33	2.30	-56.0	-68.6	3.8	1.49e+00	0	41	104	0	82	16492
2026-01-15 21:02:08.13	19.43	2.34	-56.0	-68.6	3.8	1.49e+00	0	41	104	0	82	16477
2026-01-15 21:02:09.14	19.54	2.38	-56.0	-68.6	3.8	1.49e+00	0	41	104	0	82	16499
2026-01-15 21:02:10.15	19.65	2.42	-56.0	-68.7	3.8	1.49e+00	0	41	104	0	82	16628
2026-01-15 21:02:11.16	19.76	2.47	-56.0	-68.6	3.8	1.49e+00	0	41	104	0	82	16472
2026-01-15 21:02:12.17	19.87	2.51	-56.0	-68.7	3.8	1.49e+00	0	41	104	0	82	16543
2026-01-15 21:02:13.18	19.97	2.55	-56.0	-68.7	3.8	1.49e+00	0	41	104	0	82	16515
2026-01-15 21:02:14.19	20.08	2.59	-56.0	-68.7	3.8	1.49e+00	0	41	104	0	82	16534
2026-01-15 21:02:15.19	20.19	2.63	-56.0	-68.6	3.8	1.49e+00	0	41	104	0	82	16496
2026-01-15 21:02:16.21	20.30	2.67	-56.0	-68.7	3.8	1.49e+00	0	41	104	0	82	16557
2026-01-15 21:02:17.22	20.41	2.71	-56.0	-68.6	3.8	1.49e+00	0	41	104	0	82	16444
2026-01-15 21:02:18.23	20.52	2.76	-56.0	-68.7	3.8	1.49e+00	0	42	104	0	82	16628
2026-01-15 21:02:19.24	20.63	2.80	-56.0	-68.7	3.8	1.49e+00	0	42	104	0	82	16517
2026-01-15 21:02:20.25	20.74	2.84	-56.0	-68.7	3.8	1.49e+00	0	42	104	0	82	16548
2026-01-15 21:02:21.26	20.85	2.88	-56.0	-68.7	3.8	1.49e+00	0	42	104	0	82	16673
2026-01-15 21:02:22.27	20.96	2.92	-56.0	-68.7	3.8	1.49e+00	0	42	104	0	82	16613
2026-01-15 21:02:23.28	21.07	2.96	-56.0	-68.7	3.8	1.49e+00	0	42	104	0	82	16655
2026-01-15 21:02:24.29	21.19	3.00	-56.0	-68.7	3.8	1.49e+00	0	42	104	0	82	16567
2026-01-15 21:02:25.30	21.30	3.04	-56.0	-68.7	3.8	1.49e+00	0	42	104	0	82	16659
2026-01-15 21:02:26.31	21.41	3.08	-56.0	-68.7	3.8	1.49e+00	0	42	104	0	82	16654
2026-01-15 21:02:27.32	21.52	3.13	-56.0	-68.7	3.8	1.49e+00	0	42	104	0	82	16570
2026-01-15 21:02:28.33	21.64	3.17	-56.0	-68.7	3.8	1.49e+00	0	42	104	0	82	16504
2026-01-15 21:02:29.34	21.75	3.21	-56.0	-68.6	3.8	1.49e+00	0	42	104	0	82	16493
2026-01-15 21:02:30.35	21.86	3.25	-56.0	-68.6	3.8	1.49e+00	0	42	104	0	82	16425
2026-01-15 21:02:31.36	21.98	3.29	-56.0	-68.7	3.8	1.49e+00	0	42	104	0	82	16519
2026-01-15 21:02:32.36	22.09	3.33	-56.0	-68.7	3.8	1.49e+00	0	42	104	0	82	16546
2026-01-15 21:02:33.37	22.20	3.37	-56.0	-68.7	3.8	1.49e+00	0	42	104	0	82	16527
2026-01-15 21:02:34.38	22.32	3.41	-56.0	-68.7	3.8	1.49e+00	0	43	104	0	82	16539
2026-01-15 21:02:35.39	22.43	3.45	-56.0	-68.7	3.8	1.49e+00	0	43	104	0	82	16593
2026-01-15 21:02:36.40	22.55	3.49	-56.0	-68.6	3.8	1.49e+00	0	43	104	0	82	16476
2026-01-15 21:02:37.41	22.66	3.53	-56.0	-68.7	3.8	1.49e+00	0	43	104	0	82	16511
2026-01-15 21:02:38.43	22.78	3.58	-56.0	-68.6	3.8	1.49e+00	0	43	104	0	82	16393
2026-01-15 21:02:39.43	22.90	3.62	-56.0	-68.5	3.8	1.49e+00	0	42	104	0	82	16229
2026-01-15 21:02:40.44	23.01	3.66	-56.0	-68.6	3.8	1.49e+00	0	43	104	0	82	16321
2026-01-15 21:02:41.46	23.13	3.70	-56.0	-68.5	3.8	1.49e+00	0	43	104	0	82	16293
2026-01-15 21:02:42.47	23.25	3.74	-56.0	-68.6	3.8	1.49e+00	0	43	104	0	82	16437
2026-01-15 21:02:43.48	23.36	3.78	-56.0	-68.7	3.8	1.49e+00	0	43	104	0	82	16589
2026-01-15 21:02:44.49	23.48	3.82	-56.0	-68.7	3.8	1.49e+00	0	43	104	0	82	16649
2026-01-15 21:02:45.50	23.60	3.86	-56.0	-68.7	3.8	1.49e+00	0	43	104	0	82	16601
2026-01-15 21:02:46.51	23.72	3.90	-56.0	-68.7	3.8	1.49e+00	0	43	104	0	82	16506
2026-01-15 21:02:47.52	23.84	3.94	-56.0	-68.7	3.8	1.49e+00	0	43	104	0	82	16559
2026-01-15 21:02:48.53	23.96	3.98	-56.0	-68.6	3.8	1.49e+00	0	43	104	0	82	16459
2026-01-15 21:02:49.54	24.08	4.02	-56.0	-68.7	3.8	1.49e+00	0	43	104	0	82	16590
2026-01-15 21:02:50.55	24.19	4.06	-56.0	-68.7	3.8	1.49e+00	0	43	104	0	82	16624
2026-01-15 21:02:51.56	24.31	4.10	-56.0	-68.7	3.8	1.49e+00	0	43	104	0	82	16594
2026-01-15 21:02:52.57	24.44	4.14	-56.0	-68.7	3.8	1.49e+00	0	43	104	0	82	16536
2026-01-15 21:02:53.58	24.56	4.18	-56.0	-68.7	3.8	1.49e+00	0	43	104	0	82	16584
2026-01-15 21:02:54.59	24.68	4.22	-56.0	-68.6	3.8	1.49e+00	0	43	104	0	82	16434
2026-01-15 21:02:55.60	24.80	4.26	-56.0	-68.6	3.8	1.49e+00	0	43	104	0	82	16394
2026-01-15 21:02:56.61	24.92	4.30	-56.0	-68.7	3.8	1.49e+00	0	43	104	0	82	16515
2026-01-15 21:02:57.62	25.04	4.34	-56.0	-68.7	3.8	1.49e+00	0	43	104	0	82	16659
2026-01-15 21:02:58.63	25.16	4.38	-56.0	-68.7	3.8	1.49e+00	0	43	104	0	82	16579
2026-01-15 21:02:59.64	25.29	4.42	-56.0	-68.5	3.8	1.49e+00	0	43	104	0	82	16242
2026-01-15 21:03:00.65	25.41	4.46	-56.0	-68.3	3.8	1.49e+00	0	44	104	0	82	15850
2026-01-15 21:03:01.66	25.53	4.50	-56.0	-68.1	3.8	1.49e+00	0	44	104	0	82	15514
2026-01-15 21:03:02.67	25.65	4.54	-55.9	-67.7	3.8	1.49e+00	0	44	104	0	82	14787
2026-01-15 21:03:03.67	25.78	4.58	-55.9	-67.9	3.8	1.49e+00	0	43	104	0	82	15128
2026-01-15 21:03:04.68	25.90	4.62	-55.9	-68.1	3.8	1.49e+00	0	44	104	0	82	15524
2026-01-15 21:03:05.69	26.03	4.66	-55.9	-67.8	3.8	1.49e+00	0	43	104	0	82	14966
2026-01-15 21:03:06.70	26.15	4.70	-55.8	-66.4	3.9	1.49e+00	0	44	104	0	82	12722
2026-01-15 21:03:07.71	26.28	4.74	-55.6	-64.5	4.4	1.47e+00	0	44	104	0	82	10253
2026-01-15 21:03:08.72	26.40	4.78	-55.4	-63.0	5.1	1.14e+00	0	44	104	0	82	8567
2026-01-15 21:03:09.73	26.53	4.82	-55.1	-61.7	6.0	3.88e-01	0	44	0	2097152	82	7389
2026-01-15 21:03:10.74	26.65	4.86	-54.8	-60.6	6.9	1.85e-01	0	44	0	5242880	81	6885
2026-01-15 21:03:11.75	26.78	4.90	-54.3	-58.9	8.5	6.68e-02	0	44	0	8388608	80	6030
2026-01-15 21:03:12.76	26.91	4.94	-54.3	-59.0	8.3	4.16e-02	0	44	0	11534336	80	6124
2026-01-15 21:03:13.77	27.03	4.98	-54.2	-58.9	8.5	3.65e-02	0	44	0	14680064	80	6015
2026-01-15 21:03:14.78	27.16	5.02	-54.2	-58.9	8.5	4.29e-02	0	44	0	17825792	80	6023
2026-01-15 21:03:15.79	27.29	5.05	-53.8	-57.4	10.4	2.03e-02	0	44	0	20971520	79	5383
2026-01-15 21:03:16.80	27.42	5.09	-55.3	-64.1	4.5	4.65e-01	2	44	0	24117248	81	10359
2026-01-15 21:03:17.81	27.54	5.13	-52.8	-55.4	12.5	2.29e-02	0	44	0	24117248	77	4794
2026-01-15 21:03:18.81	27.67	5.17	-50.6	-52.2	16.0	0.00e+00	0	44	0	27262976	73	4161
2026-01-15 21:03:19.82	27.80	5.21	-54.4	-58.5	9.7	5.30e-06	0	44	0	30408704	79	6112
2026-01-15 21:03:20.83	27.93	5.25	-50.8	-52.5	15.7	3.84e-04	0	44	0	33554432	73	4317
2026-01-15 21:03:21.84	28.06	5.29	-50.8	-52.5	15.8	0.00e+00	0	44	0	36700160	72	4561
2026-01-15 21:03:22.85	28.19	5.33	-50.2	-51.8	16.6	0.00e+00	0	44	0	40894464	72	4195
2026-01-15 21:03:23.86	28.32	5.37	-49.8	-51.2	17.1	0.00e+00	0	44	0	44040192	71	4182
2026-01-15 21:03:24.87	28.45	5.40	-50.5	-52.0	16.3	0.00e+00	0	44	0	47185920	71	4593
2026-01-15 21:03:25.88	28.58	5.44	-50.7	-52.3	16.1	0.00e+00	0	44	0	50331648	71	4739
2026-01-15 21:03:26.89	28.71	5.48	-50.6	-52.3	16.1	0.00e+00	0	44	0	53477376	72	4460
2026-01-15 21:03:27.90	28.84	5.52	-50.2	-51.7	16.7	0.00e+00	0	44	0	56623104	72	4175
2026-01-15 21:03:28.91	28.97	5.56	-50.4	-52.0	16.4	0.00e+00	0	44	0	59768832	72	4302
2026-01-15 21:03:29.92	29.11	5.60	-50.5	-52.1	16.3	0.00e+00	0	44	0	62914560	72	4378
2026-01-15 21:03:30.92	29.24	5.63	-50.4	-52.0	16.4	0.00e+00	0	44	0	66060288	72	4318
2026-01-15 21:03:31.93	29.37	5.67	-50.4	-51.9	16.4	0.00e+00	0	44	0	69206016	72	4282
2026-01-15 21:03:32.94	29.50	5.71	-50.6	-52.2	16.2	0.00e+00	0	45	0	72351744	72	4405
2026-01-15 21:03:33.96	29.64	5.75	-50.1	-51.5	16.9	0.00e+00	0	44	0	75497472	72	4088
2026-01-15 21:03:34.96	29.77	5.79	-50.2	-51.7	16.8	0.00e+00	0	45	0	78643200	71	4414
2026-01-15 21:03:35.97	29.91	5.82	-50.4	-51.9	16.6	0.00e+00	0	45	0	81788928	71	4534
2026-01-15 21:03:36.98	30.04	5.86	-50.2	-51.6	16.9	0.00e+00	0	45	0	84934656	71	4384
2026-01-15 21:03:37.99	30.18	5.90	-50.2	-51.7	16.8	0.00e+00	0	45	0	88080384	71	4414
2026-01-15 21:03:39.00	30.31	5.94	-50.2	-51.6	16.8	0.00e+00	0	44	0	91226112	71	4375
2026-01-15 21:03:40.01	30.45	5.97	-50.3	-51.8	16.7	0.00e+00	0	45	0	94371840	71	4474
2026-01-15 21:03:41.02	30.58	6.01	-50.3	-51.8	16.8	0.00e+00	0	45	0	97517568	71	4464
2026-01-15 21:03:42.03	30.72	6.05	-50.3	-51.7	16.8	0.00e+00	0	45	0	100663296	71	4440
2026-01-15 21:03:43.04	30.86	6.09	-50.2	-51.6	16.9	0.00e+00	0	45	0	103809024	71	4388
2026-01-15 21:03:44.05	30.99	6.12	-50.2	-51.7	16.9	0.00e+00	0	45	0	106954752	71	4417
2026-01-15 21:03:45.06	31.13	6.16	-50.4	-51.9	16.7	0.00e+00	0	45	0	110100480	71	4503
2026-01-15 21:03:46.07	31.27	6.20	-50.2	-51.6	17.0	0.00e+00	0	45	0	113246208	71	4382
2026-01-15 21:03:47.08	31.40	6.23	-49.8	-51.1	17.4	0.00e+00	0	45	0	116391936	71	4134
2026-01-15 21:03:48.09	31.54	6.27	-50.1	-51.5	17.1	0.00e+00	0	45	0	119537664	71	4330
2026-01-15 21:03:49.10	31.68	6.31	-49.9	-51.3	17.3	0.00e+00	0	45	0	122683392	71	4208
2026-01-15 21:03:50.10	31.82	6.34	-50.0	-51.4	17.2	0.00e+00	0	45	0	125829120	71	4249
2026-01-15 21:03:51.11	31.96	6.38	-49.7	-51.0	17.5	0.00e+00	0	45	0	128974848	71	4092
2026-01-15 21:03:52.12	32.10	6.42	-50.0	-51.4	17.2	0.00e+00	0	45	0	132120576	71	4279
2026-01-15 21:03:53.13	32.24	6.45	-50.4	-51.9	16.7	0.00e+00	0	45	0	135266304	71	4515
2026-01-15 21:03:54.14	32.38	6.49	-49.9	-51.3	17.3	0.00e+00	0	45	0	138412032	71	4223
2026-01-15 21:03:55.15	32.52	6.53	-50.0	-51.4	17.2	0.00e+00	0	45	0	141557760	71	4276
2026-01-15 21:03:56.16	32.66	6.56	-49.8	-51.2	17.4	0.00e+00	0	45	0	144703488	71	4156
2026-01-15 21:03:57.17	32.80	6.60	-49.8	-51.2	17.4	0.00e+00	0	45	0	147849216	71	4163
2026-01-15 21:03:58.18	32.94	6.63	-49.8	-51.2	17.4	0.00e+00	0	45	0	150994944	71	4164
2026-01-15 21:03:59.19	33.08	6.67	-49.7	-51.1	17.5	0.00e+00	0	45	0	154140672	71	4116
2026-01-15 21:04:00.20	33.23	6.71	-49.9	-51.3	17.3	0.00e+00	0	45	0	157286400	71	4201
2026-01-15 21:04:01.21	33.37	6.74	-49.6	-50.9	17.7	0.00e+00	0	45	0	160432128	71	4034
2026-01-15 21:04:02.22	33.51	6.78	-49.6	-51.0	17.7	0.00e+00	0	45	0	163577856	71	4054
2026-01-15 21:04:03.23	33.66	6.81	-49.8	-51.1	17.5	0.00e+00	0	45	0	166723584	71	4127
2026-01-15 21:04:04.23	33.80	6.85	-49.7	-51.0	17.6	0.00e+00	0	45	0	169869312	71	4096
2026-01-15 21:04:05.24	33.94	6.88	-49.7	-51.0	17.7	0.00e+00	0	45	0	173015040	71	4067
2026-01-15 21:04:06.25	34.09	6.92	-49.5	-50.8	17.8	0.00e+00	0	45	0	176160768	70	4200
2026-01-15 21:04:07.26	34.23	6.95	-49.8	-51.2	17.5	0.00e+00	0	45	0	179306496	70	4405
2026-01-15 21:04:08.27	34.38	6.99	-49.9	-51.3	17.4	0.00e+00	0	45	0	182452224	70	4450
2026-01-15 21:04:09.28	34.52	7.02	-49.8	-51.2	17.5	0.00e+00	0	45	0	185597952	70	4407
2026-01-15 21:04:10.29	34.67	7.06	-49.4	-50.7	17.9	0.00e+00	0	45	0	188743680	70	4182
2026-01-15 21:04:11.30	34.81	7.09	-49.5	-50.8	17.9	0.00e+00	0	45	0	191889408	70	4198
2026-01-15 21:04:12.31	34.96	7.13	-49.6	-50.9	17.8	0.00e+00	0	45	0	195035136	70	4261
2026-01-15 21:04:13.32	35.11	7.16	-49.6	-50.9	17.8	0.00e+00	0	45	0	198180864	70	4254
2026-01-15 21:04:14.33	35.25	7.20	-49.7	-51.0	17.6	0.00e+00	0	45	0	201326592	70	4331
2026-01-15 21:04:15.34	35.40	7.23	-49.8	-51.2	17.5	0.00e+00	0	45	0	204472320	70	4419
2026-01-15 21:04:16.35	35.55	7.26	-49.8	-51.1	17.6	0.00e+00	0	45	0	207618048	70	4371
2026-01-15 21:04:17.36	35.70	7.30	-49.6	-51.0	17.7	0.00e+00	0	45	0	210763776	70	4295
2026-01-15 21:04:18.38	35.85	7.33	-49.9	-51.2	17.5	0.00e+00	0	45	0	213909504	70	4423
2026-01-15 21:04:19.38	35.99	7.37	-49.6	-50.8	17.8	0.00e+00	0	45	0	217055232	70	4239
2026-01-15 21:04:20.39	36.14	7.40	-49.9	-51.2	17.5	0.00e+00	0	45	0	220200960	70	4433
2026-01-15 21:04:21.40	36.29	7.43	-49.7	-51.0	17.7	0.00e+00	0	45	0	223346688	70	4335
2026-01-15 21:04:22.41	36.44	7.47	-49.7	-51.0	17.7	0.00e+00	0	46	0	226492416	70	4331
2026-01-15 21:04:23.42	36.59	7.50	-49.6	-50.9	17.8	0.00e+00	0	45	0	229638144	70	4284
2026-01-15 21:04:24.43	36.74	7.53	-49.7	-51.0	17.8	0.00e+00	0	46	0	232783872	70	4302
2026-01-15 21:04:25.44	36.89	7.57	-49.7	-51.0	17.7	0.00e+00	0	46	0	235929600	70	4298
2026-01-15 21:04:26.45	37.04	7.60	-49.7	-51.0	17.7	0.00e+00	0	46	0	239075328	70	4316
2026-01-15 21:04:27.46	37.19	7.63	-49.5	-50.7	18.0	0.00e+00	0	46	0	242221056	70	4187
2026-01-15 21:04:28.47	37.35	7.66	-49.5	-50.8	17.9	0.00e+00	0	46	0	245366784	70	4227
2026-01-15 21:04:29.48	37.50	7.70	-49.5	-50.8	18.0	0.00e+00	0	46	0	248512512	70	4203
2026-01-15 21:04:30.49	37.65	7.73	-49.6	-50.9	17.8	0.00e+00	0	46	0	251658240	70	4259
2026-01-15 21:04:31.50	37.80	7.76	-49.6	-50.9	17.8	0.00e+00	0	46	0	254803968	70	4254
2026-01-15 21:04:32.50	37.95	7.79	-49.6	-50.9	17.8	0.00e+00	0	46	0	257949696	70	4283
2026-01-15 21:04:33.51	38.11	7.82	-49.6	-50.9	17.9	0.00e+00	0	46	0	261095424	70	4246
2026-01-15 21:04:34.52	38.26	7.86	-49.5	-50.8	18.0	0.00e+00	0	46	0	264241152	70	4199
2026-01-15 21:04:35.53	38.41	7.89	-49.4	-50.7	18.1	0.00e+00	0	46	0	267386880	70	4147
2026-01-15 21:04:36.54	38.57	7.92	-49.9	-51.2	17.5	0.00e+00	0	46	0	270532608	70	4421
2026-01-15 21:04:37.55	38.72	7.95	-49.7	-51.0	17.7	0.00e+00	0	46	0	273678336	70	4305
2026-01-15 21:04:38.56	38.88	7.98	-49.8	-51.1	17.6	0.00e+00	0	46	0	276824064	70	4361
2026-01-15 21:04:39.57	39.03	8.01	-49.4	-50.7	18.1	0.00e+00	0	46	0	279969792	70	4161
2026-01-15 21:04:40.57	39.19	8.04	-49.3	-50.5	18.3	0.00e+00	0	46	0	283115520	70	4069
2026-01-15 21:04:41.58	39.34	8.07	-49.3	-50.5	18.2	0.00e+00	0	46	0	286261248	70	4097
2026-01-15 21:04:42.59	39.50	8.11	-49.4	-50.7	18.1	0.00e+00	0	46	0	289406976	70	4153
2026-01-15 21:04:43.60	39.66	8.14	-49.3	-50.5	18.2	0.00e+00	0	46	0	292552704	70	4090
2026-01-15 21:04:44.61	39.81	8.17	-49.3	-50.5	18.3	0.00e+00	0	46	0	295698432	70	4064
2026-01-15 21:04:45.62	39.97	8.20	-49.5	-50.7	18.1	0.00e+00	0	46	0	298844160	70	4188
2026-01-15 21:04:46.63	40.13	8.23	-49.5	-50.7	18.0	0.00e+00	0	46	0	301989888	70	4187
2026-01-15 21:04:47.64	40.29	8.26	-49.4	-50.6	18.2	0.00e+00	0	46	0	305135616	70	4126
2026-01-15 21:04:48.64	40.44	8.29	-49.4	-50.7	18.1	0.00e+00	0	46	0	308281344	70	4154
2026-01-15 21:04:49.65	40.60	8.32	-49.6	-50.9	17.9	0.00e+00	0	46	0	311427072	70	4270
2026-01-15 21:04:50.66	40.76	8.35	-49.8	-51.1	17.7	0.00e+00	0	46	0	314572800	70	4387
2026-01-15 21:04:51.67	40.92	8.38	-49.8	-51.1	17.7	0.00e+00	0	46	0	317718528	70	4359
2026-01-15 21:04:52.68	41.08	8.40	-49.6	-50.9	17.9	0.00e+00	0	46	0	320864256	70	4269
2026-01-15 21:04:53.69	41.24	8.43	-49.5	-50.8	18.0	0.00e+00	0	46	0	324009984	70	4204
2026-01-15 21:04:54.69	41.40	8.46	-49.7	-51.0	17.8	0.00e+00	0	46	0	327155712	70	4308
2026-01-15 21:04:55.71	41.56	8.49	-49.5	-50.7	18.0	0.00e+00	0	46	0	330301440	70	4185
2026-01-15 21:04:56.72	41.72	8.52	-49.5	-50.8	18.0	0.00e+00	0	46	0	333447168	70	4222
2026-01-15 21:04:57.72	41.88	8.55	-49.4	-50.6	18.2	0.00e+00	0	46	0	336592896	70	4136
2026-01-15 21:04:58.74	42.04	8.58	-49.3	-50.6	18.2	0.00e+00	0	46	0	339738624	70	4109
2026-01-15 21:04:59.75	42.20	8.61	-49.2	-50.4	18.3	0.00e+00	0	46	0	342884352	70	4038
2026-01-15 21:05:00.76	42.36	8.63	-49.1	-50.3	18.4	0.00e+00	0	46	0	346030080	70	4000
2026-01-15 21:05:01.77	42.52	8.66	-49.2	-50.4	18.3	0.00e+00	0	46	0	349175808	70	4047
2026-01-15 21:05:02.77	42.69	8.69	-49.1	-50.3	18.5	0.00e+00	0	46	0	352321536	70	3997
2026-01-15 21:05:03.78	42.85	8.72	-49.2	-50.4	18.4	0.00e+00	0	46	0	355467264	70	4029
2026-01-15 21:05:04.80	43.01	8.74	-49.3	-50.5	18.3	0.00e+00	0	46	0	358612992	70	4085
2026-01-15 21:05:05.80	43.17	8.77	-49.5	-50.7	18.1	0.00e+00	0	46	0	361758720	70	4183
2026-01-15 21:05:06.81	43.34	8.80	-49.3	-50.5	18.3	0.00e+00	0	46	0	364904448	70	4095
2026-01-15 21:05:07.82	43.50	8.82	-49.2	-50.4	18.4	0.00e+00	0	46	0	368050176	70	4009
2026-01-15 21:05:08.83	43.67	8.85	-49.4	-50.7	18.1	0.00e+00	0	46	0	371195904	70	4149
2026-01-15 21:05:09.84	43.83	8.88	-49.7	-50.9	17.9	0.00e+00	0	46	0	374341632	70	4287
2026-01-15 21:05:10.85	43.99	8.90	-49.4	-50.6	18.2	0.00e+00	0	46	0	378535936	70	4142
2026-01-15 21:05:11.86	44.16	8.93	-49.5	-50.7	18.1	0.00e+00	0	46	0	381681664	70	4184
2026-01-15 21:05:12.87	44.33	8.96	-49.3	-50.6	18.2	0.00e+00	0	46	0	384827392	70	4110
2026-01-15 21:05:13.88	44.49	8.98	-49.4	-50.6	18.2	0.00e+00	0	46	0	387973120	70	4119
2026-01-15 21:05:14.89	44.66	9.01	-49.5	-50.8	18.0	0.00e+00	0	46	0	391118848	70	4218
2026-01-15 21:05:15.90	44.82	9.03	-49.5	-50.7	18.1	0.00e+00	0	47	0	393216000	70	4163
2026-01-15 21:05:16.91	44.99	9.06	-49.4	-50.6	18.2	0.00e+00	0	46	0	396361728	70	4123
2026-01-15 21:05:17.92	45.16	9.08	-49.4	-50.6	18.2	0.00e+00	0	46	0	399507456	70	4132
2026-01-15 21:05:18.93	45.32	9.11	-49.1	-50.3	18.6	0.00e+00	0	46	0	402653184	70	3969
2026-01-15 21:05:19.94	45.49	9.13	-49.3	-50.6	18.3	0.00e+00	0	46	0	405798912	70	4101
2026-01-15 21:05:20.95	45.66	9.16	-49.3	-50.5	18.3	0.00e+00	0	46	0	408944640	70	4061
2026-01-15 21:05:21.95	45.82	9.18	-49.3	-50.5	18.3	0.00e+00	0	46	0	413138944	70	4088
2026-01-15 21:05:22.96	45.99	9.21	-49.3	-50.6	18.2	0.00e+00	0	47	0	416284672	70	4106
2026-01-15 21:05:23.97	46.16	9.23	-49.2	-50.4	18.4	0.00e+00	0	47	0	419430400	70	4041
2026-01-15 21:05:24.98	46.33	9.25	-49.3	-50.5	18.4	0.00e+00	0	47	0	422576128	70	4058
2026-01-15 21:05:25.99	46.50	9.28	-49.3	-50.5	18.3	0.00e+00	0	46	0	425721856	70	4090
2026-01-15 21:05:27.00	46.67	9.30	-49.5	-50.8	18.1	0.00e+00	0	47	0	428867584	70	4197
2026-01-15 21:05:28.01	46.84	9.32	-49.4	-50.6	18.2	0.00e+00	0	46	0	432013312	70	4138
2026-01-15 21:05:29.02	47.01	9.35	-49.7	-51.1	17.8	0.00e+00	0	46	0	435159040	70	4343
2026-01-15 21:05:30.03	47.18	9.37	-49.6	-50.8	18.0	0.00e+00	0	47	0	438304768	70	4231
2026-01-15 21:05:31.04	47.35	9.39	-49.5	-50.8	18.1	0.00e+00	0	46	0	440401920	70	4202
2026-01-15 21:05:32.05	47.52	9.41	-49.5	-50.8	18.1	0.00e+00	0	46	0	444596224	70	4208
2026-01-15 21:05:33.06	47.69	9.44	-49.3	-50.6	18.3	0.00e+00	0	47	0	447741952	70	4113
2026-01-15 21:05:34.07	47.86	9.46	-49.3	-50.5	18.4	0.00e+00	0	46	0	450887680	70	4069
2026-01-15 21:05:35.08	48.03	9.48	-49.3	-50.5	18.4	0.00e+00	0	47	0	454033408	70	4069
2026-01-15 21:05:36.09	48.20	9.50	-49.5	-50.7	18.1	0.00e+00	0	47	0	457179136	70	4192
2026-01-15 21:05:37.10	48.37	9.52	-49.4	-50.6	18.3	0.00e+00	0	47	0	460324864	70	4116
2026-01-15 21:05:38.11	48.54	9.54	-49.1	-50.3	18.5	0.00e+00	0	47	0	463470592	70	3970
2026-01-15 21:05:39.12	48.72	9.56	-49.0	-50.1	18.7	0.00e+00	0	46	0	466616320	69	4143
2026-01-15 21:05:40.13	48.89	9.59	-49.0	-50.1	18.7	0.00e+00	0	47	0	469762048	69	4134
2026-01-15 21:05:41.14	49.06	9.61	-49.1	-50.3	18.5	0.00e+00	0	46	0	472907776	69	4215
2026-01-15 21:05:42.15	49.23	9.63	-49.4	-50.6	18.3	0.00e+00	0	47	0	476053504	69	4361
2026-01-15 21:05:43.16	49.41	9.65	-49.4	-50.6	18.2	0.00e+00	0	47	0	479199232	69	4377
2026-01-15 21:05:44.17	49.58	9.67	-49.4	-50.6	18.3	0.00e+00	0	47	0	482344960	69	4373
2026-01-15 21:05:45.18	49.75	9.69	-49.4	-50.7	18.2	0.00e+00	0	47	0	485490688	69	4405
2026-01-15 21:05:46.19	49.93	9.71	-49.6	-50.9	18.0	0.00e+00	0	47	0	488636416	69	4512
2026-01-15 21:05:47.20	50.10	9.72	-49.5	-50.8	18.1	0.00e+00	0	47	0	491782144	69	4449
2026-01-15 21:05:48.21	50.28	9.74	-49.5	-50.8	18.1	0.00e+00	0	47	0	494927872	69	4446
2026-01-15 21:05:49.22	50.45	9.76	-49.5	-50.8	18.1	0.00e+00	0	47	0	498073600	69	4461
2026-01-15 21:05:50.23	50.62	9.78	-49.3	-50.6	18.3	0.00e+00	0	47	0	501219328	69	4344
2026-01-15 21:05:51.24	50.80	9.80	-49.2	-50.4	18.4	0.00e+00	0	47	0	504365056	69	4280
2026-01-15 21:05:52.25	50.97	9.82	-49.3	-50.5	18.4	0.00e+00	0	47	0	507510784	69	4310
2026-01-15 21:05:53.26	51.15	9.84	-49.3	-50.5	18.3	0.00e+00	0	47	0	510656512	69	4325
2026-01-15 21:05:54.27	51.33	9.85	-49.2	-50.4	18.4	0.00e+00	0	47	0	513802240	69	4287
2026-01-15 21:05:55.28	51.50	9.87	-49.2	-50.4	18.5	0.00e+00	0	47	0	516947968	69	4251
2026-01-15 21:05:56.29	51.68	9.89	-49.4	-50.6	18.3	0.00e+00	0	47	0	520093696	69	4363
2026-01-15 21:05:57.30	51.85	9.91	-49.3	-50.5	18.3	0.00e+00	0	47	0	523239424	69	4326
2026-01-15 21:05:58.31	52.03	9.92	-49.3	-50.5	18.4	0.00e+00	0	47	0	526385152	69	4303
2026-01-15 21:05:59.32	52.21	9.94	-49.2	-50.4	18.5	0.00e+00	0	47	0	529530880	69	4249
2026-01-15 21:06:00.33	52.38	9.96	-49.1	-50.3	18.6	0.00e+00	0	47	0	532676608	69	4195
2026-01-15 21:06:01.34	52.56	9.97	-49.0	-50.2	18.6	0.00e+00	0	47	0	535822336	69	4166
2026-01-15 21:06:02.35	52.74	9.99	-49.1	-50.2	18.6	0.00e+00	0	47	0	538968064	69	4185
2026-01-15 21:06:03.36	52.91	10.00	-49.1	-50.3	18.6	0.00e+00	0	47	0	542113792	69	4204
2026-01-15 21:06:04.37	53.09	10.02	-49.0	-50.2	18.6	0.00e+00	0	47	0	545259520	69	4180
2026-01-15 21:06:05.38	53.27	10.03	-49.1	-50.3	18.6	0.00e+00	0	47	0	548405248	69	4208
2026-01-15 21:06:06.39	53.45	10.05	-49.0	-50.2	18.6	0.00e+00	0	47	0	551550976	69	4162
2026-01-15 21:06:07.40	53.63	10.06	-49.2	-50.4	18.5	0.00e+00	0	47	0	554696704	69	4248
2026-01-15 21:06:08.41	53.80	10.08	-49.2	-50.4	18.5	0.00e+00	0	47	0	557842432	69	4248
2026-01-15 21:06:09.42	53.98	10.09	-49.3	-50.5	18.3	0.00e+00	0	47	0	560988160	69	4332
2026-01-15 21:06:10.43	54.16	10.11	-49.4	-50.6	18.2	0.00e+00	0	47	0	564133888	69	4390
2026-01-15 21:06:11.44	54.34	10.12	-49.3	-50.5	18.4	0.00e+00	0	47	0	567279616	69	4310
2026-01-15 21:06:12.45	54.52	10.13	-49.3	-50.5	18.4	0.00e+00	0	47	0	570425344	69	4318
2026-01-15 21:06:13.46	54.70	10.15	-49.2	-50.4	18.4	0.00e+00	0	47	0	573571072	69	4290
2026-01-15 21:06:14.47	54.88	10.16	-49.0	-50.2	18.7	0.00e+00	0	47	0	576716800	69	4158
2026-01-15 21:06:15.48	55.06	10.17	-49.1	-50.3	18.6	0.00e+00	0	47	0	579862528	69	4210
2026-01-15 21:06:16.49	55.24	10.19	-49.2	-50.4	18.4	0.00e+00	0	47	0	583008256	69	4291
2026-01-15 21:06:17.50	55.42	10.20	-49.3	-50.5	18.3	0.00e+00	0	47	0	586153984	69	4313
2026-01-15 21:06:18.51	55.59	10.21	-49.4	-50.6	18.3	0.00e+00	0	47	0	589299712	69	4360
2026-01-15 21:06:19.52	55.77	10.22	-49.2	-50.4	18.4	0.00e+00	0	47	0	592445440	69	4286
2026-01-15 21:06:20.53	55.96	10.23	-49.3	-50.5	18.4	0.00e+00	0	47	0	595591168	69	4309
2026-01-15 21:06:21.54	56.14	10.25	-49.2	-50.4	18.5	0.00e+00	0	47	0	598736896	69	4256
2026-01-15 21:06:22.55	56.32	10.26	-49.3	-50.5	18.4	0.00e+00	0	47	0	601882624	69	4311
2026-01-15 21:06:23.56	56.50	10.27	-49.3	-50.5	18.3	0.00e+00	0	47	0	605028352	69	4331
2026-01-15 21:06:24.58	56.68	10.28	-49.3	-50.5	18.4	0.00e+00	0	47	0	608174080	69	4321
2026-01-15 21:06:25.59	56.86	10.29	-49.3	-50.6	18.3	0.00e+00	0	47	0	611319808	69	4355
2026-01-15 21:06:26.60	57.04	10.30	-49.2	-50.4	18.5	0.00e+00	0	47	0	614465536	69	4265
2026-01-15 21:06:27.61	57.22	10.31	-49.1	-50.3	18.6	0.00e+00	0	47	0	617611264	69	4196
2026-01-15 21:06:28.62	57.40	10.32	-49.2	-50.3	18.5	0.00e+00	0	47	0	620756992	69	4234
2026-01-15 21:06:29.62	57.58	10.33	-49.2	-50.3	18.5	0.00e+00	0	47	0	623902720	69	4238
2026-01-15 21:06:30.64	57.77	10.34	-49.1	-50.2	18.6	0.00e+00	0	47	0	627048448	69	4188
2026-01-15 21:06:31.65	57.95	10.35	-49.1	-50.3	18.5	0.00e+00	0	47	0	630194176	69	4215
2026-01-15 21:06:32.66	58.13	10.36	-49.1	-50.3	18.5	0.00e+00	0	47	0	633339904	69	4226
2026-01-15 21:06:33.67	58.31	10.36	-49.0	-50.1	18.7	0.00e+00	0	47	0	636485632	69	4126
2026-01-15 21:06:34.68	58.49	10.37	-48.9	-50.1	18.7	0.00e+00	0	47	0	639631360	69	4099
2026-01-15 21:06:35.69	58.67	10.38	-49.0	-50.2	18.6	0.00e+00	0	47	0	642777088	69	4172
2026-01-15 21:06:36.70	58.86	10.39	-49.2	-50.4	18.5	0.00e+00	0	47	0	645922816	69	4253
2026-01-15 21:06:37.71	59.04	10.40	-49.0	-50.2	18.7	0.00e+00	0	47	0	649068544	69	4148
2026-01-15 21:06:38.72	59.22	10.40	-48.8	-49.9	18.9	0.00e+00	0	47	0	652214272	69	4028
2026-01-15 21:06:39.73	59.40	10.41	-48.8	-50.0	18.8	0.00e+00	0	47	0	655360000	69	4063
2026-01-15 21:06:40.74	59.58	10.42	-48.8	-49.9	18.9	0.00e+00	0	47	0	658505728	69	4012
2026-01-15 21:06:41.75	59.77	10.42	-48.8	-49.9	18.9	0.00e+00	0	47	0	661651456	69	4023
2026-01-15 21:06:42.76	59.95	10.43	-48.8	-49.9	18.8	0.00e+00	0	47	0	664797184	69	4051
2026-01-15 21:06:43.77	60.13	10.44	-48.8	-50.0	18.9	0.00e+00	0	47	0	667942912	69	4059
2026-01-15 21:06:44.77	60.31	10.44	-48.8	-49.9	18.9	0.00e+00	0	47	0	671088640	69	4045
2026-01-15 21:06:45.78	60.50	10.45	-48.9	-50.0	18.8	0.00e+00	0	47	0	674234368	69	4094
2026-01-15 21:06:46.80	60.68	10.45	-48.9	-50.1	18.7	0.00e+00	0	48	0	677380096	69	4109
2026-01-15 21:06:47.80	60.86	10.46	-48.9	-50.0	18.8	0.00e+00	0	47	0	680525824	69	4087
2026-01-15 21:06:48.81	61.04	10.46	-49.0	-50.1	18.7	0.00e+00	0	47	0	683671552	69	4143
2026-01-15 21:06:49.82	61.23	10.47	-49.1	-50.2	18.6	0.00e+00	0	47	0	686817280	69	4181
2026-01-15 21:06:50.83	61.41	10.47	-49.1	-50.3	18.5	0.00e+00	0	47	0	689963008	69	4231
2026-01-15 21:06:51.84	61.59	10.47	-49.2	-50.4	18.4	0.00e+00	0	47	0	693108736	69	4243
2026-01-15 21:06:52.85	61.78	10.48	-49.0	-50.2	18.7	0.00e+00	0	47	0	697303040	69	4147
2026-01-15 21:06:53.86	61.96	10.48	-48.9	-50.1	18.7	0.00e+00	0	47	0	700448768	69	4122
2026-01-15 21:06:54.87	62.14	10.48	-48.8	-50.0	18.8	0.00e+00	0	47	0	703594496	69	4069
2026-01-15 21:06:55.88	62.33	10.49	-49.0	-50.2	18.7	0.00e+00	0	47	0	706740224	69	4162
2026-01-15 21:06:56.89	62.51	10.49	-49.0	-50.2	18.7	0.00e+00	0	47	0	708837376	69	4161
2026-01-15 21:06:57.90	62.69	10.49	-49.1	-50.3	18.6	0.00e+00	0	47	0	711983104	69	4201
2026-01-15 21:06:58.91	62.88	10.49	-49.0	-50.2	18.6	0.00e+00	0	47	0	715128832	69	4173
2026-01-15 21:06:59.92	63.06	10.50	-49.0	-50.1	18.7	0.00e+00	0	47	0	718274560	69	4136
2026-01-15 21:07:00.93	63.24	10.50	-49.0	-50.1	18.7	0.00e+00	0	47	0	721420288	69	4138
2026-01-15 21:07:01.94	63.43	10.50	-48.8	-50.0	18.8	0.00e+00	0	47	0	724566016	69	4064
2026-01-15 21:07:02.95	63.61	10.50	-49.0	-50.2	18.6	0.00e+00	0	47	0	728760320	69	4162
2026-01-15 21:07:03.96	63.79	10.50	-49.0	-50.2	18.6	0.00e+00	0	47	0	731906048	69	4161
2026-01-15 21:07:04.97	63.98	10.50	-49.0	-50.2	18.7	0.00e+00	0	47	0	735051776	69	4147
2026-01-15 21:07:05.98	64.16	10.50	-49.0	-50.2	18.6	0.00e+00	0	48	0	738197504	69	4152
2026-01-15 21:07:06.99	64.34	10.50	-48.9	-50.0	18.8	0.00e+00	0	47	0	741343232	69	4086
2026-01-15 21:07:08.00	64.53	10.50	-48.9	-50.1	18.7	0.00e+00	0	48	0	744488960	69	4111
2026-01-15 21:07:09.01	64.71	10.50	-48.9	-50.1	18.7	0.00e+00	0	48	0	747634688	69	4112
2026-01-15 21:07:10.02	64.90	10.50	-48.9	-50.1	18.7	0.00e+00	0	47	0	750780416	69	4116
2026-01-15 21:07:11.03	65.08	10.50	-48.8	-49.9	18.9	0.00e+00	0	48	0	753926144	69	4021
2026-01-15 21:07:12.04	65.26	10.50	-48.8	-50.0	18.9	0.00e+00	0	47	0	756023296	69	4052
2026-01-15 21:07:13.05	65.45	10.50	-48.8	-49.9	18.9	0.00e+00	0	48	0	760217600	69	4045
2026-01-15 21:07:14.07	65.63	10.50	-48.8	-49.9	18.9	0.00e+00	0	48	0	763363328	69	4046
2026-01-15 21:07:15.08	65.81	10.49	-48.8	-49.9	18.9	0.00e+00	0	47	0	766509056	69	4046
2026-01-15 21:07:16.09	66.00	10.49	-48.9	-50.0	18.9	0.00e+00	0	48	0	769654784	69	4061
2026-01-15 21:07:17.10	66.18	10.49	-48.8	-49.9	18.9	0.00e+00	0	47	0	772800512	69	4011
2026-01-15 21:07:18.11	66.37	10.49	-48.8	-49.9	18.9	0.00e+00	0	47	0	775946240	69	4021
2026-01-15 21:07:19.12	66.55	10.48	-48.7	-49.8	19.0	0.00e+00	0	47	0	779091968	69	3993
2026-01-15 21:07:20.13	66.73	10.48	-48.8	-50.0	18.9	0.00e+00	0	47	0	782237696	69	4065
2026-01-15 21:07:21.14	66.92	10.48	-48.9	-50.0	18.8	0.00e+00	0	48	0	785383424	69	4092
2026-01-15 21:07:22.15	67.10	10.47	-49.1	-50.3	18.6	0.00e+00	0	47	0	788529152	69	4205
2026-01-15 21:07:23.16	67.28	10.47	-49.1	-50.2	18.6	0.00e+00	0	48	0	791674880	69	4190
2026-01-15 21:07:24.17	67.46	10.46	-49.0	-50.2	18.7	0.00e+00	0	47	0	794820608	69	4155
2026-01-15 21:07:25.17	67.65	10.46	-49.0	-50.2	18.7	0.00e+00	0	47	0	797966336	69	4158
2026-01-15 21:07:26.19	67.83	10.46	-49.0	-50.1	18.7	0.00e+00	0	47	0	801112064	69	4137
2026-01-15 21:07:27.20	68.01	10.45	-49.0	-50.2	18.6	0.00e+00	0	48	0	804257792	69	4170
2026-01-15 21:07:28.21	68.20	10.44	-48.9	-50.1	18.8	0.00e+00	0	47	0	807403520	69	4099
2026-01-15 21:07:29.21	68.38	10.44	-49.1	-50.2	18.6	0.00e+00	0	47	0	810549248	69	4180
2026-01-15 21:07:30.22	68.56	10.43	-49.0	-50.1	18.7	0.00e+00	0	47	0	813694976	69	4131
2026-01-15 21:07:31.24	68.75	10.43	-48.9	-50.0	18.8	0.00e+00	0	48	0	816840704	69	4093
2026-01-15 21:07:32.25	68.93	10.42	-48.9	-50.1	18.8	0.00e+00	0	48	0	819986432	69	4118
2026-01-15 21:07:33.26	69.11	10.41	-48.9	-50.1	18.8	0.00e+00	0	47	0	823132160	69	4110
2026-01-15 21:07:34.27	69.29	10.41	-49.0	-50.1	18.7	0.00e+00	0	47	0	826277888	69	4125
2026-01-15 21:07:35.28	69.48	10.40	-49.1	-50.3	18.6	0.00e+00	0	47	0	829423616	69	4200
2026-01-15 21:07:36.29	69.66	10.39	-48.9	-50.1	18.8	0.00e+00	0	47	0	832569344	69	4107
2026-01-15 21:07:37.30	69.84	10.39	-49.0	-50.2	18.7	0.00e+00	0	47	0	835715072	69	4162
2026-01-15 21:07:38.31	70.02	10.38	-49.1	-50.3	18.6	0.00e+00	0	47	0	838860800	69	4194
2026-01-15 21:07:39.32	70.20	10.37	-49.1	-50.3	18.6	0.00e+00	0	48	0	842006528	69	4201
2026-01-15 21:07:40.33	70.39	10.36	-49.0	-50.1	18.7	0.00e+00	0	48	0	845152256	69	4141
2026-01-15 21:07:41.34	70.57	10.35	-49.1	-50.3	18.6	0.00e+00	0	47	0	848297984	69	4194
2026-01-15 21:07:42.35	70.75	10.34	-48.9	-50.0	18.8	0.00e+00	0	47	0	851443712	69	4071
2026-01-15 21:07:43.36	70.93	10.33	-48.8	-49.9	18.9	0.00e+00	0	47	0	854589440	69	4032
2026-01-15 21:07:44.37	71.11	10.33	-48.9	-50.1	18.8	0.00e+00	0	47	0	857735168	69	4104
2026-01-15 21:07:45.38	71.29	10.32	-48.9	-50.1	18.7	0.00e+00	0	47	0	860880896	69	4115
2026-01-15 21:07:46.39	71.48	10.31	-48.9	-50.0	18.8	0.00e+00	0	47	0	864026624	69	4072
2026-01-15 21:07:47.40	71.66	10.30	-48.9	-50.1	18.8	0.00e+00	0	47	0	867172352	69	4120
2026-01-15 21:07:48.41	71.84	10.29	-48.9	-50.1	18.7	0.00e+00	0	47	0	870318080	69	4108
2026-01-15 21:07:49.42	72.02	10.27	-48.9	-50.0	18.8	0.00e+00	0	48	0	873463808	69	4087
2026-01-15 21:07:50.43	72.20	10.26	-48.9	-50.1	18.7	0.00e+00	0	47	0	876609536	69	4116
2026-01-15 21:07:51.44	72.38	10.25	-49.0	-50.1	18.7	0.00e+00	0	47	0	879755264	69	4144
2026-01-15 21:07:52.44	72.56	10.24	-49.0	-50.2	18.7	0.00e+00	0	47	0	882900992	69	4155
2026-01-15 21:07:53.45	72.74	10.23	-49.2	-50.4	18.5	0.00e+00	0	48	0	886046720	69	4244
2026-01-15 21:07:54.46	72.92	10.22	-49.2	-50.5	18.4	0.00e+00	0	47	0	889192448	69	4295
2026-01-15 21:07:55.47	73.10	10.21	-49.2	-50.4	18.4	0.00e+00	0	47	0	892338176	69	4276
2026-01-15 21:07:56.48	73.28	10.19	-49.2	-50.4	18.4	0.00e+00	0	48	0	895483904	69	4262
2026-01-15 21:07:57.49	73.46	10.18	-49.0	-50.1	18.7	0.00e+00	0	47	0	898629632	69	4136
2026-01-15 21:07:58.50	73.64	10.17	-49.2	-50.3	18.5	0.00e+00	0	47	0	901775360	69	4241
2026-01-15 21:07:59.51	73.82	10.16	-49.2	-50.4	18.4	0.00e+00	0	48	0	904921088	69	4282
2026-01-15 21:08:00.53	74.00	10.14	-49.2	-50.4	18.4	0.00e+00	0	48	0	908066816	69	4261
2026-01-15 21:08:01.54	74.18	10.13	-49.2	-50.4	18.4	0.00e+00	0	47	0	911212544	69	4281
2026-01-15 21:08:02.55	74.36	10.11	-49.1	-50.3	18.5	0.00e+00	0	48	0	914358272	69	4209
2026-01-15 21:08:03.56	74.54	10.10	-49.2	-50.4	18.4	0.00e+00	0	48	0	917504000	69	4273
2026-01-15 21:08:04.57	74.72	10.09	-49.3	-50.5	18.3	0.00e+00	0	48	0	920649728	69	4319
2026-01-15 21:08:05.58	74.90	10.07	-49.2	-50.4	18.4	0.00e+00	0	48	0	923795456	69	4291
2026-01-15 21:08:06.59	75.07	10.06	-49.2	-50.4	18.4	0.00e+00	0	48	0	926941184	69	4276
2026-01-15 21:08:07.59	75.25	10.04	-49.3	-50.5	18.3	0.00e+00	0	48	0	930086912	69	4321
2026-01-15 21:08:08.60	75.43	10.03	-49.3	-50.6	18.2	0.00e+00	0	48	0	933232640	69	4342
2026-01-15 21:08:09.61	75.61	10.01	-49.3	-50.5	18.2	0.00e+00	0	48	0	936378368	69	4339
2026-01-15 21:08:10.62	75.78	10.00	-49.2	-50.4	18.4	0.00e+00	0	48	0	939524096	69	4243
2026-01-15 21:08:11.63	75.96	9.98	-49.0	-50.2	18.6	0.00e+00	0	47	0	942669824	69	4165
2026-01-15 21:08:12.64	76.14	9.96	-49.1	-50.3	18.5	0.00e+00	0	47	0	945815552	69	4204
2026-01-15 21:08:13.65	76.32	9.95	-49.2	-50.4	18.4	0.00e+00	0	47	0	948961280	69	4264
2026-01-15 21:08:14.66	76.49	9.93	-49.2	-50.4	18.4	0.00e+00	0	47	0	952107008	69	4259
2026-01-15 21:08:15.67	76.67	9.91	-49.0	-50.2	18.6	0.00e+00	0	47	0	955252736	69	4152
2026-01-15 21:08:16.68	76.85	9.90	-49.0	-50.2	18.5	0.00e+00	0	47	0	958398464	69	4181
2026-01-15 21:08:17.69	77.02	9.88	-49.1	-50.3	18.4	0.00e+00	0	47	0	961544192	69	4237
2026-01-15 21:08:18.70	77.20	9.86	-49.2	-50.4	18.4	0.00e+00	0	47	0	964689920	69	4277
2026-01-15 21:08:19.71	77.38	9.85	-49.2	-50.5	18.3	0.00e+00	0	48	0	967835648	69	4299
2026-01-15 21:08:20.72	77.55	9.83	-49.1	-50.3	18.5	0.00e+00	0	48	0	970981376	69	4212
2026-01-15 21:08:21.73	77.73	9.81	-49.1	-50.3	18.5	0.00e+00	0	48	0	974127104	69	4205
2026-01-15 21:08:22.74	77.90	9.79	-49.1	-50.4	18.4	0.00e+00	0	47	0	977272832	69	4246
2026-01-15 21:08:23.75	78.08	9.77	-49.1	-50.3	18.5	0.00e+00	0	48	0	980418560	69	4210
2026-01-15 21:08:24.76	78.25	9.75	-49.1	-50.3	18.4	0.00e+00	0	48	0	983564288	69	4236
2026-01-15 21:08:25.77	78.43	9.73	-48.9	-50.0	18.7	0.00e+00	0	48	0	986710016	69	4097
2026-01-15 21:08:26.78	78.60	9.72	-48.9	-50.1	18.7	0.00e+00	0	47	0	989855744	69	4126
2026-01-15 21:08:27.79	78.78	9.70	-49.0	-50.1	18.6	0.00e+00	0	47	0	993001472	69	4145
2026-01-15 21:08:28.80	78.95	9.68	-49.0	-50.1	18.7	0.00e+00	0	47	0	996147200	69	4143
2026-01-15 21:08:29.81	79.12	9.66	-49.2	-50.3	18.4	0.00e+00	0	48	0	999292928	69	4234
2026-01-15 21:08:30.82	79.30	9.64	-48.8	-50.0	18.8	0.00e+00	0	47	0	1002438656	69	4061
2026-01-15 21:08:31.83	79.47	9.62	-49.0	-50.1	18.7	0.00e+00	0	48	0	1005584384	69	4133
2026-01-15 21:08:32.84	79.64	9.60	-48.8	-50.0	18.8	0.00e+00	0	48	0	1008730112	69	4057
2026-01-15 21:08:33.85	79.82	9.58	-48.8	-49.9	18.8	0.00e+00	0	48	0	1011875840	69	4039
2026-01-15 21:08:34.86	79.99	9.55	-48.9	-50.0	18.7	0.00e+00	0	48	0	1016070144	69	4096
2026-01-15 21:08:35.87	80.16	9.53	-49.0	-50.2	18.6	0.00e+00	0	48	0	1019215872	69	4147
2026-01-15 21:08:36.88	80.33	9.51	-49.1	-50.3	18.5	0.00e+00	0	48	0	1022361600	69	4223
2026-01-15 21:08:37.88	80.50	9.49	-49.1	-50.3	18.5	0.00e+00	0	48	0	1024458752	69	4218
2026-01-15 21:08:38.89	80.68	9.47	-48.9	-50.1	18.7	0.00e+00	0	48	0	1027604480	69	4121
2026-01-15 21:08:39.90	80.85	9.45	-48.8	-50.0	18.8	0.00e+00	0	48	0	1030750208	69	4066
2026-01-15 21:08:40.91	81.02	9.42	-49.0	-50.2	18.6	0.00e+00	0	48	0	1033895936	69	4149
2026-01-15 21:08:41.92	81.19	9.40	-49.1	-50.3	18.5	0.00e+00	0	48	0	1037041664	69	4223
2026-01-15 21:08:42.93	81.36	9.38	-49.1	-50.3	18.5	0.00e+00	0	48	0	1040187392	69	4230
2026-01-15 21:08:43.94	81.53	9.36	-49.0	-50.2	18.6	0.00e+00	0	48	0	1043333120	69	4150
2026-01-15 21:08:44.95	81.70	9.33	-49.0	-50.2	18.6	0.00e+00	0	48	0	1047527424	69	4147
2026-01-15 21:08:45.96	81.87	9.31	-49.0	-50.2	18.6	0.00e+00	0	48	0	1050673152	69	4159
2026-01-15 21:08:46.97	82.04	9.29	-49.1	-50.3	18.5	0.00e+00	0	48	0	1053818880	69	4219
2026-01-15 21:08:47.98	82.21	9.26	-48.8	-50.0	18.8	0.00e+00	0	48	0	1056964608	69	4053
2026-01-15 21:08:48.99	82.38	9.24	-48.9	-50.0	18.8	0.00e+00	0	48	0	1060110336	69	4098
2026-01-15 21:08:50.00	82.55	9.22	-49.0	-50.2	18.5	0.00e+00	0	48	0	1063256064	69	4178
2026-01-15 21:08:51.01	82.72	9.19	-49.1	-50.3	18.5	0.00e+00	0	48	0	1066401792	69	4229
2026-01-15 21:08:52.02	82.89	9.17	-49.0	-50.2	18.5	0.00e+00	0	48	0	1069547520	69	4171
2026-01-15 21:08:53.03	83.05	9.14	-49.0	-50.2	18.6	0.00e+00	0	48	0	1071644672	69	4146
2026-01-15 21:08:54.04	83.22	9.12	-49.0	-50.1	18.6	0.00e+00	0	48	0	1074790400	69	4132
2026-01-15 21:08:55.05	83.39	9.09	-49.2	-50.4	18.4	0.00e+00	0	48	0	1078984704	69	4259
2026-01-15 21:08:56.07	83.56	9.07	-49.2	-50.4	18.4	0.00e+00	0	48	0	1082130432	69	4253
2026-01-15 21:08:57.08	83.73	9.04	-49.0	-50.2	18.5	0.00e+00	0	48	0	1085276160	69	4169
2026-01-15 21:08:58.09	83.89	9.02	-49.0	-50.2	18.5	0.00e+00	0	48	0	1088421888	69	4157
2026-01-15 21:08:59.10	84.06	8.99	-49.1	-50.3	18.4	0.00e+00	0	48	0	1091567616	69	4235
2026-01-15 21:09:00.11	84.23	8.97	-49.1	-50.3	18.4	0.00e+00	0	48	0	1094713344	69	4209
2026-01-15 21:09:01.11	84.39	8.94	-49.2	-50.4	18.3	0.00e+00	0	48	0	1097859072	69	4253
2026-01-15 21:09:02.12	84.56	8.91	-49.1	-50.3	18.4	0.00e+00	0	48	0	1101004800	69	4238
2026-01-15 21:09:03.14	84.72	8.89	-49.2	-50.4	18.4	0.00e+00	0	48	0	1104150528	69	4259
2026-01-15 21:09:04.14	84.89	8.86	-49.2	-50.5	18.3	0.00e+00	0	48	0	1107296256	69	4307
2026-01-15 21:09:05.15	85.05	8.84	-49.2	-50.4	18.3	0.00e+00	0	48	0	1110441984	69	4262
2026-01-15 21:09:06.16	85.22	8.81	-49.2	-50.4	18.3	0.00e+00	0	48	0	1113587712	69	4279
2026-01-15 21:09:07.17	85.38	8.78	-49.0	-50.2	18.5	0.00e+00	0	48	0	1116733440	69	4156
2026-01-15 21:09:08.18	85.54	8.75	-49.0	-50.2	18.5	0.00e+00	0	48	0	1119879168	69	4150
2026-01-15 21:09:09.19	85.71	8.73	-49.1	-50.3	18.4	0.00e+00	0	48	0	1123024896	69	4211
2026-01-15 21:09:10.20	85.87	8.70	-49.4	-50.6	18.1	0.00e+00	0	48	0	1126170624	69	4373
2026-01-15 21:09:11.21	86.03	8.67	-49.2	-50.5	18.2	0.00e+00	0	48	0	1129316352	69	4298
2026-01-15 21:09:12.22	86.20	8.64	-49.2	-50.4	18.3	0.00e+00	0	48	0	1132462080	69	4259
2026-01-15 21:09:13.23	86.36	8.62	-49.1	-50.3	18.4	0.00e+00	0	48	0	1135607808	69	4227
2026-01-15 21:09:14.24	86.52	8.59	-49.1	-50.3	18.4	0.00e+00	0	48	0	1138753536	69	4196
2026-01-15 21:09:15.25	86.68	8.56	-49.0	-50.2	18.5	0.00e+00	0	48	0	1141899264	69	4153
2026-01-15 21:09:16.26	86.84	8.53	-49.2	-50.5	18.3	0.00e+00	0	48	0	1145044992	69	4295
2026-01-15 21:09:17.28	87.01	8.50	-49.2	-50.5	18.2	0.00e+00	0	48	0	1148190720	69	4293
2026-01-15 21:09:18.29	87.17	8.47	-49.1	-50.3	18.3	0.00e+00	0	48	0	1151336448	69	4217
2026-01-15 21:09:19.30	87.33	8.44	-49.0	-50.2	18.5	0.00e+00	0	48	0	1154482176	69	4163
2026-01-15 21:09:20.31	87.49	8.41	-49.1	-50.3	18.4	0.00e+00	0	48	0	1157627904	69	4211
2026-01-15 21:09:21.32	87.65	8.38	-49.0	-50.2	18.5	0.00e+00	0	48	0	1160773632	69	4151
2026-01-15 21:09:22.33	87.81	8.36	-49.2	-50.4	18.3	0.00e+00	0	48	0	1163919360	69	4253
2026-01-15 21:09:23.34	87.97	8.33	-49.3	-50.5	18.2	0.00e+00	0	48	0	1167065088	69	4335
2026-01-15 21:09:24.35	88.13	8.30	-49.3	-50.5	18.2	0.00e+00	0	48	0	1170210816	69	4316
2026-01-15 21:09:25.36	88.29	8.27	-49.1	-50.3	18.3	0.00e+00	0	48	0	1173356544	69	4232
2026-01-15 21:09:26.37	88.44	8.24	-49.3	-50.5	18.1	0.00e+00	0	48	0	1176502272	69	4326
2026-01-15 21:09:27.38	88.60	8.21	-49.4	-50.6	18.0	0.00e+00	0	48	0	1179648000	69	4377
2026-01-15 21:09:28.39	88.76	8.18	-49.4	-50.7	18.1	0.00e+00	0	48	0	1182793728	69	4407
2026-01-15 21:09:29.40	88.92	8.14	-49.3	-50.6	18.1	0.00e+00	0	48	0	1185939456	69	4369
2026-01-15 21:09:30.41	89.07	8.11	-49.5	-50.7	18.0	0.00e+00	0	48	0	1189085184	69	4437
2026-01-15 21:09:31.42	89.23	8.08	-49.5	-50.8	17.9	0.00e+00	0	48	0	1192230912	69	4450
2026-01-15 21:09:32.43	89.39	8.05	-49.4	-50.7	18.0	0.00e+00	0	48	0	1195376640	69	4417
2026-01-15 21:09:33.44	89.54	8.02	-49.2	-50.5	18.2	0.00e+00	0	48	0	1198522368	69	4304
2026-01-15 21:09:34.45	89.70	7.99	-49.4	-50.6	18.0	0.00e+00	0	48	0	1201668096	69	4390
2026-01-15 21:09:35.46	89.86	7.96	-49.3	-50.6	18.1	0.00e+00	0	48	0	1204813824	69	4365
2026-01-15 21:09:36.47	90.01	7.93	-49.3	-50.6	18.0	0.00e+00	0	48	0	1207959552	69	4368
2026-01-15 21:09:37.48	90.17	7.89	-49.5	-50.8	17.8	0.00e+00	0	48	0	1211105280	69	4451
2026-01-15 21:09:38.49	90.32	7.86	-49.3	-50.6	18.1	0.00e+00	0	48	0	1214251008	69	4353
2026-01-15 21:09:39.50	90.47	7.83	-49.5	-50.8	17.8	0.00e+00	0	48	0	1217396736	69	4468
2026-01-15 21:09:40.51	90.63	7.80	-49.4	-50.7	17.9	0.00e+00	0	48	0	1220542464	69	4424
2026-01-15 21:09:41.52	90.78	7.77	-49.1	-50.4	18.3	0.00e+00	0	48	0	1223688192	69	4244
2026-01-15 21:09:42.53	90.94	7.73	-49.3	-50.5	18.1	0.00e+00	0	48	0	1226833920	69	4324
2026-01-15 21:09:43.54	91.09	7.70	-49.3	-50.5	18.1	0.00e+00	0	48	0	1229979648	69	4332
2026-01-15 21:09:44.55	91.24	7.67	-49.3	-50.6	18.0	0.00e+00	0	48	0	1233125376	69	4359
2026-01-15 21:09:45.56	91.39	7.64	-49.4	-50.7	17.9	0.00e+00	0	48	0	1236271104	69	4416
2026-01-15 21:09:46.57	91.55	7.60	-49.4	-50.7	17.9	0.00e+00	0	48	0	1239416832	69	4429
2026-01-15 21:09:47.58	91.70	7.57	-49.5	-50.9	17.8	0.00e+00	0	48	0	1242562560	69	4498
2026-01-15 21:09:48.59	91.85	7.54	-49.6	-50.9	17.7	0.00e+00	0	48	0	1245708288	69	4541
2026-01-15 21:09:49.60	92.00	7.50	-49.8	-51.2	17.5	0.00e+00	0	48	0	1248854016	70	4413
2026-01-15 21:09:50.61	92.15	7.47	-49.8	-51.2	17.5	0.00e+00	0	48	0	1251999744	70	4397
2026-01-15 21:09:51.62	92.30	7.44	-49.7	-51.1	17.6	0.00e+00	0	48	0	1255145472	70	4357
2026-01-15 21:09:52.63	92.45	7.40	-49.9	-51.3	17.3	0.00e+00	0	48	0	1258291200	70	4452
2026-01-15 21:09:53.64	92.60	7.37	-49.8	-51.2	17.4	0.00e+00	0	48	0	1261436928	70	4421
2026-01-15 21:09:54.65	92.75	7.34	-49.7	-51.0	17.6	0.00e+00	0	48	0	1264582656	70	4328
2026-01-15 21:09:55.66	92.90	7.30	-49.6	-50.9	17.7	0.00e+00	0	48	0	1267728384	70	4287
2026-01-15 21:09:56.67	93.05	7.27	-49.8	-51.2	17.4	0.00e+00	0	48	0	1270874112	70	4422
2026-01-15 21:09:57.68	93.20	7.23	-49.9	-51.3	17.3	0.00e+00	0	48	0	1274019840	70	4470
2026-01-15 21:09:58.69	93.34	7.20	-49.8	-51.1	17.5	0.00e+00	0	48	0	1277165568	70	4385
2026-01-15 21:09:59.70	93.49	7.16	-49.5	-50.9	17.7	0.00e+00	0	48	0	1280311296	70	4245
2026-01-15 21:10:00.71	93.64	7.13	-49.8	-51.1	17.5	0.00e+00	0	48	0	1283457024	70	4369
2026-01-15 21:10:01.72	93.79	7.10	-49.6	-51.0	17.6	0.00e+00	0	48	0	1286602752	70	4306
2026-01-15 21:10:02.73	93.93	7.06	-49.5	-50.8	17.7	0.00e+00	0	48	0	1289748480	70	4238
2026-01-15 21:10:03.74	94.08	7.03	-49.8	-51.1	17.5	0.00e+00	0	48	0	1292894208	70	4377
2026-01-15 21:10:04.75	94.22	6.99	-49.6	-50.9	17.6	0.00e+00	0	48	0	1296039936	70	4291
2026-01-15 21:10:05.76	94.37	6.96	-49.7	-51.1	17.4	0.00e+00	0	48	0	1299185664	70	4365
2026-01-15 21:10:06.77	94.52	6.92	-49.9	-51.3	17.3	0.00e+00	0	48	0	1302331392	70	4454
2026-01-15 21:10:07.78	94.66	6.88	-49.9	-51.3	17.3	0.00e+00	0	48	0	1305477120	70	4443
2026-01-15 21:10:08.79	94.81	6.85	-50.3	-51.8	16.8	0.00e+00	0	48	0	1308622848	71	4447
2026-01-15 21:10:09.80	94.95	6.81	-49.9	-51.3	17.3	0.00e+00	0	48	0	1311768576	71	4197
2026-01-15 21:10:10.81	95.09	6.78	-50.1	-51.5	17.0	0.00e+00	0	48	0	1314914304	71	4311
2026-01-15 21:10:11.82	95.24	6.74	-50.1	-51.5	17.0	0.00e+00	0	48	0	1318060032	71	4331
2026-01-15 21:10:12.83	95.38	6.71	-50.0	-51.5	17.1	0.00e+00	0	48	0	1321205760	71	4304
2026-01-15 21:10:13.84	95.52	6.67	-49.8	-51.2	17.3	0.00e+00	0	48	0	1324351488	71	4158
2026-01-15 21:10:14.85	95.67	6.63	-49.8	-51.2	17.3	0.00e+00	0	48	0	1328545792	71	4178
2026-01-15 21:10:15.86	95.81	6.60	-49.7	-51.0	17.5	0.00e+00	0	48	0	1331691520	71	4070
2026-01-15 21:10:16.87	95.95	6.56	-49.8	-51.2	17.3	0.00e+00	0	48	0	1334837248	71	4173
2026-01-15 21:10:17.88	96.09	6.53	-50.1	-51.5	17.0	0.00e+00	0	48	0	1337982976	71	4334
2026-01-15 21:10:18.89	96.23	6.49	-49.8	-51.2	17.3	0.00e+00	0	48	0	1340080128	71	4167
2026-01-15 21:10:19.90	96.37	6.45	-49.7	-51.1	17.3	0.00e+00	0	48	0	1343225856	71	4126
2026-01-15 21:10:20.91	96.51	6.42	-49.7	-51.0	17.4	0.00e+00	0	48	0	1346371584	71	4090
2026-01-15 21:10:21.92	96.65	6.38	-49.9	-51.3	17.2	0.00e+00	0	48	0	1349517312	71	4232
2026-01-15 21:10:22.93	96.79	6.34	-49.8	-51.2	17.3	0.00e+00	0	48	0	1352663040	71	4172
2026-01-15 21:10:23.94	96.93	6.31	-50.1	-51.5	17.0	0.00e+00	0	48	0	1355808768	71	4319
2026-01-15 21:10:24.95	97.07	6.27	-49.9	-51.3	17.2	0.00e+00	0	48	0	1358954496	71	4218
2026-01-15 21:10:25.96	97.21	6.23	-49.8	-51.1	17.3	0.00e+00	0	48	0	1363148800	71	4141
2026-01-15 21:10:26.97	97.35	6.19	-50.1	-51.6	16.9	0.00e+00	0	48	0	1366294528	71	4351
2026-01-15 21:10:27.98	97.49	6.16	-50.2	-51.6	16.9	0.00e+00	0	48	0	1369440256	71	4391
2026-01-15 21:10:28.99	97.63	6.12	-49.9	-51.3	17.2	0.00e+00	0	48	0	1372585984	71	4208
2026-01-15 21:10:30.00	97.76	6.08	-50.0	-51.5	17.0	0.00e+00	0	48	0	1375731712	71	4293
2026-01-15 21:10:31.01	97.90	6.04	-50.0	-51.5	17.0	0.00e+00	0	48	0	1378877440	71	4310
2026-01-15 21:10:32.02	98.04	6.01	-49.8	-51.2	17.3	0.00e+00	0	48	0	1382023168	71	4173
2026-01-15 21:10:33.03	98.18	5.97	-50.0	-51.4	17.0	0.00e+00	0	48	0	1385168896	71	4277
2026-01-15 21:10:34.04	98.31	5.93	-50.1	-51.5	16.9	0.00e+00	0	48	0	1387266048	71	4339
2026-01-15 21:10:35.04	98.45	5.89	-49.9	-51.2	17.2	0.00e+00	0	48	0	1390411776	71	4192
2026-01-15 21:10:36.06	98.58	5.86	-50.0	-51.5	16.9	0.00e+00	0	48	0	1394606080	71	4314
2026-01-15 21:10:37.06	98.72	5.82	-50.1	-51.5	16.9	0.00e+00	0	48	0	1397751808	71	4321
2026-01-15 21:10:38.08	98.85	5.78	-49.7	-51.1	17.3	0.00e+00	0	48	0	1400897536	71	4111
2026-01-15 21:10:39.09	98.99	5.74	-50.4	-51.9	16.5	0.00e+00	0	48	0	1404043264	71	4539
2026-01-15 21:10:40.10	99.12	5.70	-50.5	-52.1	16.4	0.00e+00	0	48	0	1407188992	71	4605
2026-01-15 21:10:41.11	99.26	5.66	-50.1	-51.6	16.8	0.00e+00	0	48	0	1410334720	71	4361
2026-01-15 21:10:42.12	99.39	5.63	-49.8	-51.3	17.1	0.00e+00	0	48	0	1413480448	71	4199
2026-01-15 21:10:43.13	99.52	5.59	-50.1	-51.6	16.8	0.00e+00	0	48	0	1416626176	71	4357
2026-01-15 21:10:44.14	99.65	5.55	-49.9	-51.3	17.0	0.00e+00	0	48	0	1419771904	71	4236
2026-01-15 21:10:45.15	99.79	5.51	-49.7	-51.0	17.3	0.00e+00	0	48	0	1422917632	71	4097
2026-01-15 21:10:46.16	99.92	5.47	-50.2	-51.7	16.8	0.00e+00	0	48	0	1426063360	71	4396
2026-01-15 21:10:47.17	100.05	5.43	-50.4	-51.9	16.4	0.00e+00	0	48	0	1429209088	72	4276
2026-01-15 21:10:48.18	100.18	5.39	-50.3	-51.9	16.5	0.00e+00	0	48	0	1432354816	72	4259
2026-01-15 21:10:49.19	100.31	5.36	-50.5	-52.1	16.3	0.00e+00	0	48	0	1435500544	72	4345
2026-01-15 21:10:50.19	100.44	5.32	-50.6	-52.2	16.1	0.00e+00	0	48	0	1438646272	72	4440
2026-01-15 21:10:51.20	100.57	5.28	-50.3	-51.8	16.5	0.00e+00	0	48	0	1441792000	72	4239
2026-01-15 21:10:52.21	100.70	5.24	-50.3	-51.9	16.4	0.00e+00	0	48	0	1444937728	72	4250
2026-01-15 21:10:53.22	100.83	5.20	-50.4	-52.0	16.3	0.00e+00	0	48	0	1448083456	72	4319
2026-01-15 21:10:54.23	100.96	5.16	-50.5	-52.2	16.1	0.00e+00	0	48	0	1451229184	72	4408
2026-01-15 21:10:55.24	101.09	5.12	-49.9	-51.4	16.9	0.00e+00	0	48	0	1454374912	71	4251
2026-01-15 21:10:56.25	101.22	5.08	-49.8	-51.2	17.1	0.00e+00	0	48	0	1457520640	71	4179
2026-01-15 21:10:57.26	101.35	5.04	-49.5	-50.9	17.4	0.00e+00	0	48	0	1460666368	71	4030
2026-01-15 21:10:58.27	101.48	5.00	-50.4	-52.0	16.4	0.00e+00	0	48	0	1463812096	71	4563
2026-01-15 21:10:59.28	101.61	4.96	-56.9	-69.7	3.8	1.49e+00	0	48	104	1464860672	84	16532
2026-01-15 21:11:00.30	101.73	4.92	-57.2	-69.9	3.8	1.49e+00	0	48	104	1464860672	84	17046
2026-01-15 21:11:01.31	101.86	4.88	-57.4	-70.1	3.8	1.49e+00	0	48	104	1464860672	85	16452
2026-01-15 21:11:02.32	101.99	4.85	-57.5	-70.3	3.8	1.49e+00	0	48	104	1464860672	85	16808
2026-01-15 21:11:03.33	102.12	4.81	-57.7	-70.4	3.8	1.49e+00	0	48	104	1464860672	85	17047
2026-01-15 21:11:04.34	102.24	4.77	-57.8	-70.6	3.8	1.49e+00	0	48	104	1464860672	86	16330
2026-01-15 21:11:05.35	102.37	4.73	-57.9	-70.7	3.8	1.49e+00	0	48	104	1464860672	86	16513
2026-01-15 21:11:06.36	102.49	4.69	-58.0	-70.8	3.8	1.49e+00	0	48	104	1464860672	86	16697
2026-01-15 21:11:07.37	102.62	4.65	-58.1	-70.8	3.8	1.49e+00	0	48	104	1464860672	86	16885
2026-01-15 21:11:08.38	102.74	4.61	-58.1	-70.9	3.8	1.49e+00	0	48	104	1464860672	86	16915
2026-01-15 21:11:09.39	102.87	4.57	-58.1	-70.9	3.8	1.49e+00	0	49	104	1464860672	86	17059
2026-01-15 21:11:10.39	102.99	4.53	-58.2	-71.0	3.8	1.49e+00	0	48	104	1464860672	86	17157
2026-01-15 21:11:11.41	103.12	4.49	-58.2	-71.0	3.8	1.49e+00	0	48	104	1464860672	86	17187
2026-01-15 21:11:12.42	103.24	4.45	-58.2	-71.0	3.8	1.49e+00	0	48	104	1464860672	87	16219
2026-01-15 21:11:13.42	103.36	4.41	-58.3	-71.1	3.8	1.49e+00	0	48	104	1464860672	87	16353
2026-01-15 21:11:14.43	103.48	4.37	-58.3	-71.1	3.8	1.49e+00	0	49	104	1464860672	87	16378
2026-01-15 21:11:15.44	103.61	4.33	-58.3	-71.1	3.8	1.49e+00	0	49	104	1464860672	87	16398
2026-01-15 21:11:16.45	103.73	4.29	-58.3	-71.1	3.8	1.49e+00	0	48	104	1464860672	87	16448
2026-01-15 21:11:17.46	103.85	4.24	-58.4	-71.1	3.8	1.49e+00	0	48	104	1464860672	87	16495
2026-01-15 21:11:18.47	103.97	4.20	-58.4	-71.2	3.8	1.49e+00	0	49	104	1464860672	87	16556
2026-01-15 21:11:19.48	104.09	4.16	-58.4	-71.2	3.8	1.49e+00	0	49	104	1464860672	87	16550
2026-01-15 21:11:20.49	104.21	4.12	-58.4	-71.2	3.8	1.49e+00	0	49	104	1464860672	87	16530
2026-01-15 21:11:21.50	104.34	4.08	-58.4	-71.2	3.8	1.49e+00	0	48	104	1464860672	87	16592
2026-01-15 21:11:22.52	104.46	4.04	-58.4	-71.2	3.8	1.49e+00	0	48	104	1464860672	87	16605
2026-01-15 21:11:23.53	104.58	4.00	-58.4	-71.2	3.8	1.49e+00	0	48	104	1464860672	87	16590
2026-01-15 21:11:24.54	104.70	3.96	-58.4	-71.2	3.8	1.49e+00	0	49	104	1464860672	87	16594
2026-01-15 21:11:25.55	104.82	3.92	-58.4	-71.2	3.8	1.49e+00	0	48	104	1464860672	87	16623
2026-01-15 21:11:26.56	104.94	3.88	-58.4	-71.2	3.8	1.49e+00	0	48	104	1464860672	87	16629
2026-01-15 21:11:27.57	105.05	3.84	-58.4	-71.2	3.8	1.49e+00	0	48	104	1464860672	87	16607
2026-01-15 21:11:28.58	105.17	3.80	-58.4	-71.2	3.8	1.49e+00	0	48	104	1464860672	87	16543
2026-01-15 21:11:29.59	105.29	3.76	-58.4	-71.1	3.8	1.49e+00	0	48	104	1464860672	87	16490
2026-01-15 21:11:30.60	105.41	3.72	-58.3	-71.1	3.8	1.49e+00	0	48	104	1464860672	87	16487
2026-01-15 21:11:31.61	105.53	3.67	-58.3	-71.1	3.8	1.49e+00	0	48	104	1464860672	87	16491
2026-01-15 21:11:32.62	105.64	3.63	-58.3	-71.2	3.8	1.49e+00	0	48	104	1464860672	87	16514
2026-01-15 21:11:33.63	105.76	3.59	-58.3	-71.2	3.8	1.49e+00	0	48	104	1464860672	87	16505
2026-01-15 21:11:34.64	105.88	3.55	-58.3	-71.1	3.8	1.49e+00	0	48	104	1464860672	87	16449
2026-01-15 21:11:35.65	105.99	3.51	-58.3	-71.1	3.8	1.49e+00	0	49	104	1464860672	87	16413
2026-01-15 21:11:36.66	106.11	3.47	-58.3	-71.1	3.8	1.49e+00	0	48	104	1464860672	87	16428
2026-01-15 21:11:37.67	106.22	3.43	-58.3	-71.1	3.8	1.49e+00	0	48	104	1464860672	87	16421
2026-01-15 21:11:38.68	106.34	3.39	-58.3	-71.1	3.8	1.49e+00	0	49	104	1464860672	87	16390
2026-01-15 21:11:39.69	106.46	3.35	-58.3	-71.1	3.8	1.49e+00	0	48	104	1464860672	87	16425
2026-01-15 21:11:40.70	106.57	3.30	-58.3	-71.1	3.8	1.49e+00	0	49	104	1464860672	87	16438
2026-01-15 21:11:41.71	106.68	3.26	-58.3	-71.1	3.8	1.49e+00	0	48	104	1464860672	87	16429
2026-01-15 21:11:42.72	106.80	3.22	-58.3	-71.1	3.8	1.49e+00	0	48	104	1464860672	87	16430
2026-01-15 21:11:43.72	106.91	3.18	-58.3	-71.1	3.8	1.49e+00	0	48	104	1464860672	87	16397
2026-01-15 21:11:44.73	107.02	3.14	-58.3	-71.1	3.8	1.49e+00	0	48	104	1464860672	87	16392
2026-01-15 21:11:45.74	107.14	3.10	-58.3	-71.1	3.8	1.49e+00	0	48	104	1464860672	87	16373
2026-01-15 21:11:46.75	107.25	3.06	-58.3	-71.1	3.8	1.49e+00	0	48	104	1464860672	87	16369
2026-01-15 21:11:47.76	107.36	3.02	-58.3	-71.1	3.8	1.49e+00	0	48	104	1464860672	87	16404
2026-01-15 21:11:48.77	107.48	2.97	-58.3	-71.1	3.8	1.49e+00	0	48	104	1464860672	87	16386
2026-01-15 21:11:49.78	107.59	2.93	-58.3	-71.1	3.8	1.49e+00	0	49	104	1464860672	87	16408
2026-01-15 21:11:50.79	107.70	2.89	-58.3	-71.1	3.8	1.49e+00	0	48	104	1464860672	87	16391
2026-01-15 21:11:51.80	107.81	2.85	-58.3	-71.1	3.8	1.49e+00	0	48	104	1464860672	87	16412
2026-01-15 21:11:52.81	107.92	2.81	-58.3	-71.1	3.8	1.49e+00	0	49	104	1464860672	87	16369
2026-01-15 21:11:53.82	108.03	2.77	-58.3	-71.1	3.8	1.49e+00	0	49	104	1464860672	87	16388
2026-01-15 21:11:54.82	108.14	2.72	-58.3	-71.1	3.8	1.49e+00	0	48	104	1464860672	87	16327
2026-01-15 21:11:55.83	108.25	2.68	-58.3	-71.1	3.8	1.49e+00	0	49	104	1464860672	87	16397
2026-01-15 21:11:56.84	108.36	2.64	-58.3	-71.1	3.8	1.49e+00	0	48	104	1464860672	87	16381
2026-01-15 21:11:57.85	108.47	2.60	-58.3	-71.1	3.8	1.49e+00	0	48	104	1464860672	87	16351
2026-01-15 21:11:58.86	108.58	2.56	-58.3	-71.1	3.8	1.49e+00	0	48	104	1464860672	87	16375
2026-01-15 21:11:59.87	108.69	2.52	-58.3	-71.1	3.8	1.49e+00	0	49	104	1464860672	87	16405
2026-01-15 21:12:00.88	108.80	2.47	-58.3	-71.1	3.8	1.49e+00	0	49	104	1464860672	87	16385
2026-01-15 21:12:01.89	108.91	2.43	-58.3	-71.1	3.8	1.49e+00	0	48	104	1464860672	87	16412
2026-01-15 21:12:02.90	109.02	2.39	-58.3	-71.1	3.8	1.49e+00	0	49	104	1464860672	87	16362
2026-01-15 21:12:03.92	109.12	2.35	-58.3	-71.0	3.8	1.49e+00	0	49	104	1464860672	87	16300
2026-01-15 21:12:04.93	109.23	2.31	-58.3	-71.1	3.8	1.49e+00	0	49	104	1464860672	87	16350
2026-01-15 21:12:05.94	109.34	2.26	-58.3	-71.1	3.8	1.49e+00	0	48	104	1464860672	87	16357
2026-01-15 21:12:06.95	109.45	2.22	-58.3	-71.1	3.8	1.49e+00	0	49	104	1464860672	87	16342
2026-01-15 21:12:07.96	109.55	2.18	-58.3	-71.1	3.8	1.49e+00	0	48	104	1464860672	87	16379
2026-01-15 21:12:08.97	109.66	2.14	-58.3	-71.1	3.8	1.49e+00	0	49	104	1464860672	87	16394
2026-01-15 21:12:09.98	109.77	2.10	-58.3	-71.1	3.8	1.49e+00	0	48	104	1464860672	87	16326
2026-01-15 21:12:10.99	109.87	2.06	-58.3	-71.1	3.8	1.49e+00	0	49	104	1464860672	87	16347
2026-01-15 21:12:12.00	109.98	2.01	-58.3	-71.1	3.8	1.49e+00	0	49	104	1464860672	87	16329
2026-01-15 21:12:13.01	110.08	1.97	-58.3	-71.0	3.8	1.49e+00	0	49	104	1464860672	87	16304

#Closed at: 2026-01-15 21:12:14
#Recorded file [1464 MB]: D:/lorett/data/31041_260116_000159.dat