passes_logs/2026/01/15/R3.2S_Murmansk/R3.2S_Murmansk__20260115_134943_FENGYUN_3D_rec.log

#Pass ID: 20260115_134943_FENGYUN 3D
#Satellite: FENGYUN 3D
#Configuration: FENGYUN 3D
#almurnet v.1.7.20251203
#Start time: 2026-01-15 13:49:44

#Version: 2.2.20231116
#Station: R3.2S_Murmansk
#Location: 33.079688 lon 68.888172 lat
#TLE: 1 43010U 17072A   26014.65117763 -.00000217  00000+0 -80772-4 0  9993
#TLE: 2 43010  98.9933 346.4618 0002330 108.4699 251.6730 14.19694700423204

#Time	Az	El	Level	Level2	SNR	BER	BlckErr	Temp	State	Recorded	gain1	gain2
2026-01-15 13:49:44.97	208.76	2.09	-58.7	-71.7	3.8	8.46e-01	0	26	0	0	82	17127
2026-01-15 13:49:45.97	208.83	2.15	-58.7	-71.7	3.8	8.44e-01	0	26	104	0	82	17140
2026-01-15 13:49:46.97	208.90	2.21	-58.7	-71.6	3.8	8.46e-01	0	26	104	0	82	17014
2026-01-15 13:49:47.97	208.97	2.26	-58.7	-71.7	3.8	8.46e-01	0	26	104	0	82	17130
2026-01-15 13:49:48.97	209.04	2.32	-58.7	-71.7	3.8	8.46e-01	0	26	104	0	82	17150
2026-01-15 13:49:49.96	209.10	2.37	-58.7	-71.7	3.8	8.46e-01	0	26	104	0	82	17180
2026-01-15 13:49:50.97	209.17	2.43	-58.6	-71.6	3.8	8.46e-01	0	26	104	0	82	17027
2026-01-15 13:49:51.97	209.24	2.49	-58.6	-71.6	3.8	8.46e-01	0	26	104	0	82	16933
2026-01-15 13:49:52.95	209.31	2.54	-58.6	-71.6	3.8	8.46e-01	0	26	104	0	82	16980
2026-01-15 13:49:53.95	209.38	2.60	-58.6	-71.7	3.8	8.46e-01	0	26	104	0	82	17084
2026-01-15 13:49:54.95	209.45	2.66	-58.7	-71.6	3.8	8.47e-01	0	26	104	0	82	17076
2026-01-15 13:49:55.94	209.52	2.71	-58.7	-71.7	3.8	8.45e-01	0	26	104	0	82	17145
2026-01-15 13:49:56.94	209.59	2.77	-58.7	-71.7	3.8	8.46e-01	0	26	104	0	82	17178
2026-01-15 13:49:57.94	209.66	2.83	-58.7	-71.7	3.8	8.46e-01	0	26	104	0	82	17172
2026-01-15 13:49:58.94	209.73	2.88	-58.7	-71.6	3.8	8.45e-01	0	26	104	0	82	17034
2026-01-15 13:49:59.94	209.81	2.94	-58.7	-71.6	3.8	8.45e-01	0	26	104	0	82	17029
2026-01-15 13:50:00.90	209.88	3.00	-58.7	-71.5	3.8	8.46e-01	0	26	104	0	82	16768
2026-01-15 13:50:01.90	209.95	3.05	-58.7	-71.5	3.8	8.46e-01	0	26	104	0	82	16824
2026-01-15 13:50:02.90	210.02	3.11	-58.7	-71.5	3.8	8.45e-01	0	26	104	0	82	16845
2026-01-15 13:50:03.89	210.09	3.17	-58.7	-71.5	3.8	8.44e-01	0	27	104	0	82	16759
2026-01-15 13:50:04.89	210.16	3.23	-58.7	-71.5	3.8	8.45e-01	0	27	104	0	82	16767
2026-01-15 13:50:05.89	210.24	3.28	-58.7	-71.5	3.8	8.46e-01	0	27	104	0	82	16795
2026-01-15 13:50:06.88	210.31	3.34	-58.7	-71.4	3.8	8.46e-01	0	27	104	0	82	16656
2026-01-15 13:50:07.87	210.38	3.40	-58.7	-71.4	3.8	8.45e-01	0	27	104	0	82	16686
2026-01-15 13:50:08.88	210.46	3.46	-58.7	-71.5	3.8	8.46e-01	0	26	104	0	82	16698
2026-01-15 13:50:09.88	210.53	3.52	-58.7	-71.5	3.8	8.45e-01	0	27	104	0	82	16697
2026-01-15 13:50:10.88	210.61	3.57	-58.7	-71.7	3.8	8.45e-01	0	27	104	0	82	17104
2026-01-15 13:50:11.88	210.68	3.63	-58.7	-71.6	3.8	8.46e-01	0	27	104	0	82	17010
2026-01-15 13:50:12.87	210.75	3.69	-58.7	-71.6	3.8	8.46e-01	0	27	104	0	82	17024
2026-01-15 13:50:13.87	210.83	3.75	-58.6	-71.4	3.8	8.45e-01	0	27	104	0	82	16620
2026-01-15 13:50:14.87	210.91	3.81	-58.7	-71.3	3.8	8.47e-01	0	27	104	0	82	16396
2026-01-15 13:50:15.88	210.98	3.87	-58.7	-71.2	3.8	8.46e-01	0	27	104	0	82	16272
2026-01-15 13:50:16.88	211.06	3.93	-58.7	-71.2	3.8	8.46e-01	0	27	104	0	82	16136
2026-01-15 13:50:17.88	211.13	3.98	-58.7	-71.4	3.8	8.45e-01	0	27	104	0	82	16663
2026-01-15 13:50:18.89	211.21	4.04	-58.7	-71.7	3.8	8.45e-01	0	27	104	0	82	17240
2026-01-15 13:50:19.89	211.29	4.10	-58.7	-71.6	3.8	8.45e-01	0	27	104	0	82	17043
2026-01-15 13:50:20.89	211.37	4.16	-58.6	-70.5	3.8	8.45e-01	0	27	104	0	82	14945
2026-01-15 13:50:21.90	211.45	4.22	-58.4	-68.7	4.1	8.44e-01	0	27	104	0	82	12185
2026-01-15 13:50:22.90	211.52	4.28	-58.2	-66.8	4.6	8.16e-01	0	27	0	0	82	9768
2026-01-15 13:50:23.90	211.60	4.34	-57.9	-65.2	5.4	7.41e-01	0	27	0	0	82	8153
2026-01-15 13:50:24.90	211.68	4.40	-57.6	-63.9	6.3	3.01e-01	0	27	0	5242880	81	7406
2026-01-15 13:50:25.90	211.76	4.46	-57.4	-63.3	6.7	1.69e-01	0	27	0	10485760	81	6928
2026-01-15 13:50:26.90	211.84	4.52	-57.0	-62.0	7.8	6.72e-02	0	27	0	15728640	80	6335
2026-01-15 13:50:27.90	211.92	4.58	-56.5	-60.8	8.9	1.89e-02	0	27	0	22020096	79	5797
2026-01-15 13:50:28.89	212.00	4.64	-55.6	-59.0	10.3	2.52e-03	0	27	0	27262976	77	5307
2026-01-15 13:50:29.89	212.08	4.70	-54.9	-57.7	11.3	1.19e-04	0	27	0	32505856	76	4851
2026-01-15 13:50:30.90	212.16	4.76	-53.6	-55.9	12.4	6.80e-06	0	27	0	38797312	73	4663
2026-01-15 13:50:31.89	212.24	4.82	-52.7	-55.1	12.8	0.00e+00	0	27	0	44040192	72	4535
2026-01-15 13:50:32.88	212.32	4.88	-52.1	-53.9	13.4	0.00e+00	0	27	0	49283072	70	4423
2026-01-15 13:50:33.89	212.40	4.94	-51.6	-53.3	13.6	0.00e+00	0	27	0	55574528	69	4368
2026-01-15 13:50:34.89	212.48	5.00	-50.6	-52.1	14.0	0.00e+00	0	27	0	60817408	67	4273
2026-01-15 13:50:35.88	212.56	5.06	-58.2	-65.8	5.3	3.62e-02	0	27	0	66060288	81	9227
2026-01-15 13:50:36.88	212.64	5.12	-54.7	-57.3	11.6	1.16e-03	0	27	0	71303168	76	4640
2026-01-15 13:50:37.88	212.73	5.18	-51.5	-53.2	13.6	0.00e+00	0	27	0	76546048	68	4551
2026-01-15 13:50:38.89	212.81	5.24	-53.1	-55.2	12.7	0.00e+00	0	27	0	82837504	71	4830
2026-01-15 13:50:39.88	212.89	5.30	-55.2	-58.2	10.9	0.00e+00	0	27	0	88080384	75	5454
2026-01-15 13:50:40.87	212.98	5.36	-50.8	-52.4	14.0	0.00e+00	0	27	0	93323264	68	4162
2026-01-15 13:50:41.86	213.06	5.42	-50.5	-52.0	14.1	0.00e+00	0	27	0	99614720	67	4202
2026-01-15 13:50:42.86	213.14	5.48	-50.3	-51.7	14.2	0.00e+00	0	27	0	104857600	67	4089
2026-01-15 13:50:43.86	213.23	5.54	-50.5	-52.1	14.0	0.00e+00	0	27	0	110100480	67	4246
2026-01-15 13:50:44.85	213.31	5.60	-50.4	-51.9	14.1	0.00e+00	0	27	0	116391936	67	4191
2026-01-15 13:50:45.85	213.40	5.67	-50.4	-51.9	14.1	0.00e+00	0	27	0	121634816	67	4189
2026-01-15 13:50:46.84	213.48	5.73	-50.5	-52.0	14.1	0.00e+00	0	27	0	126877696	67	4226
2026-01-15 13:50:47.85	213.57	5.79	-50.7	-52.3	13.9	0.00e+00	0	27	0	133169152	67	4345
2026-01-15 13:50:48.85	213.66	5.85	-50.1	-51.5	14.2	0.00e+00	0	27	0	138412032	66	4223
2026-01-15 13:50:49.85	213.74	5.91	-50.6	-52.1	13.9	0.00e+00	0	27	0	143654912	66	4531
2026-01-15 13:50:50.85	213.83	5.97	-50.4	-51.9	14.0	0.00e+00	0	27	0	149946368	66	4416
2026-01-15 13:50:51.85	213.92	6.04	-50.2	-51.7	14.1	0.00e+00	0	27	0	155189248	66	4333
2026-01-15 13:50:52.84	214.00	6.10	-50.3	-51.8	14.1	0.00e+00	0	27	0	161480704	66	4348
2026-01-15 13:50:53.84	214.09	6.16	-50.3	-51.7	14.1	0.00e+00	0	27	0	166723584	66	4336
2026-01-15 13:50:54.83	214.18	6.22	-50.4	-51.9	14.0	0.00e+00	0	27	0	171966464	66	4421
2026-01-15 13:50:55.83	214.27	6.28	-50.4	-51.9	14.0	0.00e+00	0	27	0	178257920	66	4437
2026-01-15 13:50:56.83	214.36	6.35	-50.4	-51.9	14.0	0.00e+00	0	27	0	183500800	66	4430
2026-01-15 13:50:57.83	214.45	6.41	-50.5	-52.0	14.1	0.00e+00	0	27	0	188743680	66	4457
2026-01-15 13:50:58.83	214.54	6.47	-50.5	-52.1	14.0	0.00e+00	0	27	0	195035136	66	4495
2026-01-15 13:50:59.83	214.63	6.53	-50.5	-52.0	14.0	0.00e+00	0	27	0	200278016	66	4447
2026-01-15 13:51:00.82	214.72	6.60	-50.4	-51.9	14.1	0.00e+00	0	27	0	205520896	66	4439
2026-01-15 13:51:01.81	214.81	6.66	-50.4	-51.9	14.0	0.00e+00	0	27	0	211812352	66	4437
2026-01-15 13:51:02.81	214.90	6.72	-50.2	-51.7	14.2	0.00e+00	0	27	0	217055232	66	4305
2026-01-15 13:51:03.80	214.99	6.78	-50.3	-51.8	14.1	0.00e+00	0	27	0	222298112	66	4367
2026-01-15 13:51:04.80	215.08	6.85	-50.1	-51.5	14.3	0.00e+00	0	27	0	228589568	66	4221
2026-01-15 13:51:05.80	215.17	6.91	-50.4	-51.9	14.1	0.00e+00	0	27	0	233832448	66	4436
2026-01-15 13:51:06.79	215.27	6.97	-50.2	-51.6	14.2	0.00e+00	0	27	0	239075328	66	4269
2026-01-15 13:51:07.79	215.36	7.04	-50.1	-51.6	14.2	0.00e+00	0	27	0	245366784	66	4253
2026-01-15 13:51:08.79	215.45	7.10	-49.7	-51.1	14.5	0.00e+00	0	27	0	250609664	66	4025
2026-01-15 13:51:09.79	215.55	7.16	-50.1	-51.5	14.3	0.00e+00	0	27	0	255852544	66	4214
2026-01-15 13:51:10.78	215.64	7.23	-50.2	-51.6	14.2	0.00e+00	0	27	0	262144000	66	4275
2026-01-15 13:51:11.78	215.73	7.29	-50.1	-51.5	14.3	0.00e+00	0	27	0	267386880	66	4209
2026-01-15 13:51:12.78	215.83	7.35	-50.2	-51.6	14.2	0.00e+00	0	27	0	273678336	66	4284
2026-01-15 13:51:13.78	215.93	7.42	-50.3	-51.8	14.2	0.00e+00	0	27	0	278921216	66	4347
2026-01-15 13:51:14.78	216.02	7.48	-49.9	-51.3	14.4	0.00e+00	0	27	0	284164096	66	4108
2026-01-15 13:51:15.77	216.12	7.54	-50.1	-51.6	14.2	0.00e+00	0	27	0	290455552	66	4252
2026-01-15 13:51:16.77	216.21	7.61	-50.1	-51.5	14.3	0.00e+00	0	27	0	295698432	66	4212
2026-01-15 13:51:17.77	216.31	7.67	-50.1	-51.6	14.3	0.00e+00	0	27	0	300941312	66	4250
2026-01-15 13:51:18.77	216.41	7.74	-49.7	-51.1	14.5	0.00e+00	0	28	0	307232768	66	4038
2026-01-15 13:51:19.78	216.51	7.80	-50.1	-51.6	14.3	0.00e+00	0	27	0	312475648	66	4257
2026-01-15 13:51:20.78	216.61	7.87	-49.4	-50.8	14.5	0.00e+00	0	27	0	317718528	65	4102
2026-01-15 13:51:21.79	216.71	7.93	-49.8	-51.2	14.3	0.00e+00	0	27	0	324009984	65	4337
2026-01-15 13:51:22.78	216.80	8.00	-49.8	-51.2	14.3	0.00e+00	0	27	0	329252864	65	4315
2026-01-15 13:51:23.77	216.90	8.06	-49.7	-51.1	14.4	0.00e+00	0	27	0	335544320	65	4263
2026-01-15 13:51:24.77	217.00	8.13	-49.5	-50.9	14.5	0.00e+00	0	27	0	340787200	65	4151
2026-01-15 13:51:25.77	217.10	8.19	-49.7	-51.0	14.4	0.00e+00	0	27	0	346030080	65	4220
2026-01-15 13:51:26.78	217.21	8.26	-49.6	-51.0	14.4	0.00e+00	0	27	0	352321536	65	4227
2026-01-15 13:51:27.77	217.31	8.32	-49.7	-51.1	14.4	0.00e+00	0	28	0	357564416	65	4284
2026-01-15 13:51:28.77	217.41	8.39	-49.5	-50.9	14.5	0.00e+00	0	27	0	362807296	65	4168
2026-01-15 13:51:29.76	217.51	8.45	-49.6	-51.0	14.5	0.00e+00	0	28	0	368050176	65	4198
2026-01-15 13:51:30.77	217.61	8.52	-49.6	-51.0	14.4	0.00e+00	0	27	0	374341632	65	4207
2026-01-15 13:51:31.77	217.72	8.58	-49.5	-50.9	14.5	0.00e+00	0	27	0	379584512	65	4151
2026-01-15 13:51:32.76	217.82	8.65	-49.8	-51.2	14.3	0.00e+00	0	27	0	385875968	65	4313
2026-01-15 13:51:33.77	217.92	8.72	-49.6	-50.9	14.4	0.00e+00	0	28	0	391118848	65	4187
2026-01-15 13:51:34.77	218.03	8.78	-49.8	-51.2	14.3	0.00e+00	0	27	0	397410304	65	4314
2026-01-15 13:51:35.77	218.13	8.85	-49.4	-50.8	14.5	0.00e+00	0	27	0	402653184	65	4111
2026-01-15 13:51:36.77	218.24	8.91	-49.6	-50.9	14.5	0.00e+00	0	27	0	407896064	65	4191
2026-01-15 13:51:37.77	218.34	8.98	-49.9	-51.3	14.3	0.00e+00	0	27	0	414187520	65	4350
2026-01-15 13:51:38.77	218.45	9.05	-50.0	-51.4	14.3	0.00e+00	0	28	0	419430400	65	4408
2026-01-15 13:51:39.77	218.56	9.11	-49.8	-51.2	14.3	0.00e+00	0	27	0	424673280	65	4301
2026-01-15 13:51:40.76	218.66	9.18	-50.1	-51.5	14.2	0.00e+00	0	27	0	429916160	65	4462
2026-01-15 13:51:41.77	218.77	9.25	-49.9	-51.3	14.3	0.00e+00	0	27	0	436207616	65	4364
2026-01-15 13:51:42.77	218.88	9.31	-49.6	-51.0	14.4	0.00e+00	0	27	0	441450496	65	4222
2026-01-15 13:51:43.76	218.99	9.38	-49.8	-51.2	14.3	0.00e+00	0	28	0	447741952	65	4316
2026-01-15 13:51:44.77	219.10	9.45	-50.0	-51.4	14.2	0.00e+00	0	28	0	452984832	65	4440
2026-01-15 13:51:45.76	219.21	9.51	-50.0	-51.5	14.2	0.00e+00	0	27	0	458227712	65	4448
2026-01-15 13:51:46.77	219.32	9.58	-50.3	-51.7	14.1	0.00e+00	0	28	0	464519168	65	4585
2026-01-15 13:51:47.76	219.43	9.65	-50.0	-51.4	14.3	0.00e+00	0	28	0	469762048	65	4409
2026-01-15 13:51:48.77	219.54	9.72	-49.8	-51.1	14.4	0.00e+00	0	28	0	475004928	65	4284
2026-01-15 13:51:49.76	219.65	9.78	-49.4	-50.8	14.5	0.00e+00	0	27	0	481296384	65	4116
2026-01-15 13:51:50.75	219.76	9.85	-49.4	-50.7	14.6	0.00e+00	0	27	0	486539264	65	4078
2026-01-15 13:51:51.75	219.88	9.92	-49.4	-50.7	14.6	0.00e+00	0	28	0	491782144	65	4098
2026-01-15 13:51:52.76	219.99	9.98	-49.4	-50.7	14.6	0.00e+00	0	28	0	498073600	65	4063
2026-01-15 13:51:53.75	220.10	10.05	-49.1	-50.4	14.6	0.00e+00	0	27	0	503316480	64	4177
2026-01-15 13:51:54.75	220.22	10.12	-49.1	-50.4	14.6	0.00e+00	0	28	0	509607936	64	4170
2026-01-15 13:51:55.74	220.33	10.19	-49.3	-50.7	14.5	0.00e+00	0	28	0	514850816	64	4298
2026-01-15 13:51:56.75	220.45	10.26	-49.2	-50.5	14.6	0.00e+00	0	28	0	520093696	64	4199
2026-01-15 13:51:57.75	220.56	10.32	-49.0	-50.3	14.7	0.00e+00	0	28	0	526385152	64	4113
2026-01-15 13:51:58.73	220.68	10.39	-49.0	-50.3	14.7	0.00e+00	0	27	0	531628032	64	4100
2026-01-15 13:51:59.72	220.79	10.46	-49.0	-50.3	14.6	0.00e+00	0	28	0	536870912	64	4120
2026-01-15 13:52:00.73	220.91	10.53	-49.1	-50.4	14.6	0.00e+00	0	27	0	543162368	64	4191
2026-01-15 13:52:01.72	221.03	10.59	-49.2	-50.5	14.6	0.00e+00	0	27	0	548405248	64	4224
2026-01-15 13:52:02.72	221.14	10.66	-49.2	-50.5	14.6	0.00e+00	0	27	0	553648128	64	4212
2026-01-15 13:52:03.72	221.26	10.73	-49.3	-50.6	14.5	0.00e+00	0	28	0	559939584	64	4262
2026-01-15 13:52:04.72	221.38	10.80	-49.1	-50.4	14.6	0.00e+00	0	28	0	565182464	64	4193
2026-01-15 13:52:05.72	221.50	10.87	-49.2	-50.5	14.6	0.00e+00	0	28	0	571473920	64	4207
2026-01-15 13:52:06.72	221.62	10.94	-49.2	-50.6	14.5	0.00e+00	0	28	0	576716800	64	4245
2026-01-15 13:52:07.72	221.74	11.01	-49.0	-50.3	14.7	0.00e+00	0	28	0	581959680	64	4112
2026-01-15 13:52:08.71	221.86	11.07	-48.9	-50.2	14.7	0.00e+00	0	28	0	587202560	64	4075
2026-01-15 13:52:09.71	221.99	11.14	-48.8	-50.1	14.8	0.00e+00	0	27	0	593494016	64	4013
2026-01-15 13:52:10.71	222.11	11.21	-48.8	-50.1	14.8	0.00e+00	0	28	0	598736896	64	4007
2026-01-15 13:52:11.71	222.23	11.28	-48.8	-50.1	14.8	0.00e+00	0	28	0	605028352	64	4018
2026-01-15 13:52:12.71	222.36	11.35	-48.9	-50.2	14.7	0.00e+00	0	28	0	610271232	64	4057
2026-01-15 13:52:13.71	222.48	11.42	-48.8	-50.0	14.7	0.00e+00	0	28	0	615514112	63	4232
2026-01-15 13:52:14.71	222.61	11.49	-48.9	-50.2	14.6	0.00e+00	0	27	0	621805568	63	4298
2026-01-15 13:52:15.71	222.73	11.56	-49.0	-50.3	14.6	0.00e+00	0	27	0	627048448	63	4349
2026-01-15 13:52:16.71	222.86	11.63	-49.0	-50.3	14.6	0.00e+00	0	27	0	632291328	63	4388
2026-01-15 13:52:17.70	222.98	11.70	-48.9	-50.2	14.6	0.00e+00	0	28	0	638582784	63	4327
2026-01-15 13:52:18.70	223.11	11.77	-49.0	-50.3	14.6	0.00e+00	0	27	0	643825664	63	4367
2026-01-15 13:52:19.70	223.24	11.84	-48.8	-50.1	14.7	0.00e+00	0	27	0	649068544	63	4265
2026-01-15 13:52:20.70	223.37	11.91	-48.8	-50.1	14.7	0.00e+00	0	27	0	655360000	63	4267
2026-01-15 13:52:21.70	223.49	11.98	-48.8	-50.1	14.6	0.00e+00	0	28	0	660602880	63	4274
2026-01-15 13:52:22.69	223.62	12.05	-48.9	-50.1	14.6	0.00e+00	0	27	0	666894336	63	4277
2026-01-15 13:52:23.69	223.75	12.12	-48.8	-50.0	14.7	0.00e+00	0	28	0	672137216	63	4219
2026-01-15 13:52:24.69	223.88	12.19	-48.6	-49.9	14.7	0.00e+00	0	28	0	677380096	63	4152
2026-01-15 13:52:25.69	224.01	12.26	-48.8	-50.0	14.7	0.00e+00	0	28	0	683671552	63	4226
2026-01-15 13:52:26.69	224.15	12.33	-48.7	-50.0	14.7	0.00e+00	0	28	0	688914432	63	4215
2026-01-15 13:52:27.69	224.28	12.40	-48.7	-49.9	14.7	0.00e+00	0	28	0	694157312	63	4191
2026-01-15 13:52:28.69	224.41	12.47	-48.7	-49.9	14.7	0.00e+00	0	28	0	700448768	63	4192
2026-01-15 13:52:29.69	224.55	12.54	-48.7	-50.0	14.7	0.00e+00	0	28	0	705691648	63	4217
2026-01-15 13:52:30.68	224.68	12.61	-48.8	-50.0	14.7	0.00e+00	0	28	0	710934528	63	4237
2026-01-15 13:52:31.68	224.81	12.68	-48.8	-50.1	14.7	0.00e+00	0	28	0	717225984	63	4263
2026-01-15 13:52:32.67	224.95	12.75	-48.7	-50.0	14.7	0.00e+00	0	28	0	722468864	63	4206
2026-01-15 13:52:33.67	225.08	12.82	-48.6	-49.8	14.8	0.00e+00	0	28	0	728760320	63	4128
2026-01-15 13:52:34.67	225.22	12.89	-48.6	-49.8	14.8	0.00e+00	0	28	0	734003200	63	4128
2026-01-15 13:52:35.67	225.36	12.96	-48.6	-49.8	14.8	0.00e+00	0	28	0	739246080	63	4128
2026-01-15 13:52:36.67	225.50	13.03	-48.5	-49.7	14.8	0.00e+00	0	28	0	745537536	63	4083
2026-01-15 13:52:37.67	225.64	13.10	-48.5	-49.7	14.8	0.00e+00	0	28	0	750780416	63	4098
2026-01-15 13:52:38.68	225.78	13.18	-48.5	-49.8	14.8	0.00e+00	0	28	0	756023296	63	4103
2026-01-15 13:52:39.67	225.92	13.25	-48.5	-49.7	14.8	0.00e+00	0	28	0	762314752	63	4089
2026-01-15 13:52:40.67	226.06	13.32	-48.6	-49.8	14.8	0.00e+00	0	28	0	767557632	63	4114
2026-01-15 13:52:41.67	226.20	13.39	-48.5	-49.7	14.8	0.00e+00	0	28	0	772800512	63	4083
2026-01-15 13:52:42.67	226.34	13.46	-48.4	-49.6	14.9	0.00e+00	0	28	0	779091968	63	4016
2026-01-15 13:52:43.68	226.48	13.53	-48.4	-49.6	14.8	0.00e+00	0	28	0	784334848	63	4045
2026-01-15 13:52:44.67	226.63	13.60	-48.3	-49.5	14.9	0.00e+00	0	28	0	790626304	63	3964
2026-01-15 13:52:45.67	226.77	13.67	-48.4	-49.6	14.9	0.00e+00	0	28	0	795869184	63	4040
2026-01-15 13:52:46.66	226.91	13.75	-48.3	-49.5	14.9	0.00e+00	0	28	0	801112064	63	3993
2026-01-15 13:52:47.65	227.06	13.82	-48.4	-49.6	14.9	0.00e+00	0	28	0	806354944	63	4012
2026-01-15 13:52:48.66	227.20	13.89	-48.3	-49.5	14.9	0.00e+00	0	28	0	812646400	63	4001
2026-01-15 13:52:49.67	227.35	13.96	-48.4	-49.6	14.9	0.00e+00	0	28	0	817889280	63	4044
2026-01-15 13:52:50.66	227.50	14.03	-48.4	-49.6	14.8	0.00e+00	0	28	0	823132160	63	4051
2026-01-15 13:52:51.66	227.65	14.10	-48.3	-49.5	14.9	0.00e+00	0	28	0	829423616	63	4004
2026-01-15 13:52:52.66	227.80	14.18	-48.4	-49.6	14.9	0.00e+00	0	28	0	834666496	63	4041
2026-01-15 13:52:53.65	227.94	14.25	-48.3	-49.5	14.9	0.00e+00	0	28	0	840957952	63	3968
2026-01-15 13:52:54.65	228.09	14.32	-48.2	-49.4	15.0	0.00e+00	0	28	0	846200832	63	3950
2026-01-15 13:52:55.65	228.24	14.39	-48.1	-49.3	14.9	0.00e+00	0	28	0	851443712	62	4115
2026-01-15 13:52:56.64	228.39	14.46	-48.0	-49.2	14.9	0.00e+00	0	28	0	857735168	62	4066
2026-01-15 13:52:57.64	228.55	14.53	-47.8	-48.9	15.0	0.00e+00	0	28	0	862978048	62	3953
2026-01-15 13:52:58.63	228.70	14.60	-48.1	-49.3	14.9	0.00e+00	0	28	0	868220928	62	4108
2026-01-15 13:52:59.63	228.85	14.68	-47.9	-49.1	15.0	0.00e+00	0	28	0	874512384	62	4005
2026-01-15 13:53:00.62	229.01	14.75	-47.7	-48.9	15.0	0.00e+00	0	28	0	879755264	62	3935
2026-01-15 13:53:01.62	229.16	14.82	-47.9	-49.1	14.9	0.00e+00	0	28	0	884998144	62	4027
2026-01-15 13:53:02.62	229.32	14.89	-47.8	-49.0	15.0	0.00e+00	0	28	0	891289600	62	3992
2026-01-15 13:53:03.61	229.47	14.96	-48.3	-49.5	14.8	0.00e+00	0	28	0	896532480	62	4202
2026-01-15 13:53:04.61	229.63	15.03	-48.1	-49.3	14.9	0.00e+00	0	28	0	901775360	62	4107
2026-01-15 13:53:05.61	229.79	15.11	-48.1	-49.2	14.9	0.00e+00	0	28	0	908066816	62	4098
2026-01-15 13:53:06.60	229.94	15.18	-48.2	-49.4	14.8	0.00e+00	0	28	0	913309696	62	4164
2026-01-15 13:53:07.59	230.10	15.25	-48.0	-49.1	14.9	0.00e+00	0	28	0	918552576	62	4042
2026-01-15 13:53:08.59	230.26	15.32	-48.0	-49.2	14.9	0.00e+00	0	28	0	924844032	62	4060
2026-01-15 13:53:09.58	230.42	15.39	-48.1	-49.3	14.9	0.00e+00	0	28	0	930086912	62	4126
2026-01-15 13:53:10.59	230.59	15.47	-47.9	-49.1	14.9	0.00e+00	0	28	0	935329792	62	4035
2026-01-15 13:53:11.58	230.75	15.54	-48.0	-49.1	14.9	0.00e+00	0	28	0	941621248	62	4037
2026-01-15 13:53:12.58	230.91	15.61	-47.8	-49.0	15.0	0.00e+00	0	28	0	946864128	62	3975
2026-01-15 13:53:13.58	231.07	15.68	-47.8	-48.9	15.0	0.00e+00	0	28	0	953155584	62	3954
2026-01-15 13:53:14.57	231.24	15.75	-47.9	-49.1	14.9	0.00e+00	0	28	0	958398464	62	4027
2026-01-15 13:53:15.57	231.40	15.82	-47.9	-49.1	14.9	0.00e+00	0	28	0	963641344	62	4027
2026-01-15 13:53:16.56	231.57	15.90	-47.8	-49.0	15.0	0.00e+00	0	28	0	968884224	62	3974
2026-01-15 13:53:17.56	231.73	15.97	-47.9	-49.0	15.0	0.00e+00	0	28	0	975175680	62	3992
2026-01-15 13:53:18.55	231.90	16.04	-47.9	-49.1	14.9	0.00e+00	0	28	0	980418560	62	4034
2026-01-15 13:53:19.54	232.07	16.11	-47.7	-48.9	15.0	0.00e+00	0	28	0	985661440	62	3918
2026-01-15 13:53:20.53	232.24	16.18	-47.7	-48.9	15.0	0.00e+00	0	28	0	991952896	62	3919
2026-01-15 13:53:21.53	232.41	16.25	-47.6	-48.7	15.0	0.00e+00	0	28	0	997195776	61	4072
2026-01-15 13:53:22.53	232.58	16.33	-47.5	-48.7	15.0	0.00e+00	0	28	0	1003487232	61	4060
2026-01-15 13:53:23.53	232.75	16.40	-47.5	-48.7	15.0	0.00e+00	0	28	0	1008730112	61	4054
2026-01-15 13:53:24.54	232.92	16.47	-47.6	-48.8	14.9	0.00e+00	0	28	0	1013972992	61	4104
2026-01-15 13:53:25.54	233.10	16.54	-47.7	-48.9	14.9	0.00e+00	0	28	0	1020264448	61	4154
2026-01-15 13:53:26.54	233.27	16.61	-47.7	-48.9	14.9	0.00e+00	0	28	0	1025507328	61	4165
2026-01-15 13:53:27.54	233.45	16.68	-47.7	-48.8	14.9	0.00e+00	0	28	0	1030750208	61	4137
2026-01-15 13:53:28.54	233.62	16.76	-47.6	-48.8	14.9	0.00e+00	0	28	0	1037041664	61	4104
2026-01-15 13:53:29.53	233.80	16.83	-47.7	-48.9	14.9	0.00e+00	0	28	0	1042284544	61	4161
2026-01-15 13:53:30.53	233.97	16.90	-47.7	-48.8	14.9	0.00e+00	0	28	0	1047527424	61	4129
2026-01-15 13:53:31.53	234.15	16.97	-47.6	-48.7	15.0	0.00e+00	0	28	0	1053818880	61	4095
2026-01-15 13:53:32.53	234.33	17.04	-47.4	-48.5	15.0	0.00e+00	0	28	0	1059061760	61	4002
2026-01-15 13:53:33.53	234.51	17.11	-47.4	-48.6	15.0	0.00e+00	0	28	0	1065353216	61	4023
2026-01-15 13:53:34.53	234.69	17.19	-47.5	-48.7	15.0	0.00e+00	0	28	0	1070596096	61	4064
2026-01-15 13:53:35.53	234.87	17.26	-47.4	-48.6	15.0	0.00e+00	0	28	0	1075838976	61	4010
2026-01-15 13:53:36.53	235.06	17.33	-47.4	-48.5	15.0	0.00e+00	0	28	0	1082130432	61	4004
2026-01-15 13:53:37.52	235.24	17.40	-47.5	-48.6	15.0	0.00e+00	0	28	0	1087373312	61	4035
2026-01-15 13:53:38.53	235.42	17.47	-47.4	-48.6	15.0	0.00e+00	0	28	0	1092616192	61	4014
2026-01-15 13:53:39.52	235.61	17.54	-47.5	-48.7	15.0	0.00e+00	0	28	0	1098907648	61	4065
2026-01-15 13:53:40.51	235.79	17.61	-47.5	-48.6	15.0	0.00e+00	0	28	0	1104150528	61	4025
2026-01-15 13:53:41.51	235.98	17.68	-47.4	-48.6	15.0	0.00e+00	0	28	0	1109393408	61	4023
2026-01-15 13:53:42.51	236.17	17.75	-47.5	-48.7	15.0	0.00e+00	0	28	0	1115684864	61	4068
2026-01-15 13:53:43.51	236.35	17.82	-47.5	-48.6	15.0	0.00e+00	0	28	0	1120927744	61	4030
2026-01-15 13:53:44.51	236.54	17.89	-47.4	-48.6	15.0	0.00e+00	0	28	0	1126170624	61	4017
2026-01-15 13:53:45.50	236.73	17.96	-47.4	-48.5	15.0	0.00e+00	0	28	0	1132462080	61	3996
2026-01-15 13:53:46.50	236.92	18.03	-47.3	-48.4	15.1	0.00e+00	0	28	0	1137704960	61	3954
2026-01-15 13:53:47.50	237.11	18.10	-47.3	-48.5	15.1	0.00e+00	0	28	0	1142947840	61	3959
2026-01-15 13:53:48.50	237.31	18.17	-47.4	-48.6	15.0	0.00e+00	0	28	0	1149239296	61	4007
2026-01-15 13:53:49.49	237.50	18.24	-47.5	-48.6	15.0	0.00e+00	0	28	0	1154482176	61	4028
2026-01-15 13:53:50.49	237.69	18.31	-47.4	-48.5	15.0	0.00e+00	0	28	0	1160773632	61	3998
2026-01-15 13:53:51.49	237.89	18.38	-47.3	-48.4	15.1	0.00e+00	0	28	0	1166016512	61	3953
2026-01-15 13:53:52.49	238.08	18.45	-47.1	-48.3	15.0	0.00e+00	0	28	0	1171259392	60	4104
2026-01-15 13:53:53.48	238.28	18.52	-47.1	-48.3	15.0	0.00e+00	0	28	0	1177550848	60	4108
2026-01-15 13:53:54.48	238.48	18.59	-47.1	-48.2	15.0	0.00e+00	0	28	0	1182793728	60	4086
2026-01-15 13:53:55.47	238.67	18.66	-47.0	-48.1	15.1	0.00e+00	0	28	0	1188036608	60	4023
2026-01-15 13:53:56.47	238.87	18.73	-47.0	-48.2	15.1	0.00e+00	0	28	0	1194328064	60	4052
2026-01-15 13:53:57.46	239.07	18.80	-47.2	-48.3	15.0	0.00e+00	0	28	0	1199570944	60	4111
2026-01-15 13:53:58.47	239.28	18.87	-47.1	-48.2	15.0	0.00e+00	0	28	0	1204813824	60	4092
2026-01-15 13:53:59.46	239.48	18.94	-47.0	-48.2	15.0	0.00e+00	0	28	0	1211105280	60	4057
2026-01-15 13:54:00.46	239.68	19.00	-46.9	-48.1	15.1	0.00e+00	0	28	0	1216348160	60	4007
2026-01-15 13:54:01.46	239.88	19.07	-46.8	-47.9	15.1	0.00e+00	0	28	0	1221591040	60	3950
2026-01-15 13:54:02.45	240.09	19.14	-47.0	-48.1	15.1	0.00e+00	0	28	0	1227882496	60	4024
2026-01-15 13:54:03.44	240.29	19.21	-47.0	-48.1	15.1	0.00e+00	0	28	0	1233125376	60	4012
2026-01-15 13:54:04.43	240.50	19.27	-47.0	-48.1	15.1	0.00e+00	0	28	0	1238368256	60	4005
2026-01-15 13:54:05.42	240.70	19.34	-47.1	-48.2	15.0	0.00e+00	0	28	0	1244659712	60	4062
2026-01-15 13:54:06.42	240.91	19.41	-47.2	-48.3	15.0	0.00e+00	0	28	0	1249902592	60	4110
2026-01-15 13:54:07.41	241.12	19.48	-47.2	-48.3	15.0	0.00e+00	0	28	0	1255145472	60	4138
2026-01-15 13:54:08.41	241.33	19.54	-47.2	-48.3	15.0	0.00e+00	0	28	0	1261436928	60	4128
2026-01-15 13:54:09.41	241.54	19.61	-47.1	-48.3	15.0	0.00e+00	0	28	0	1266679808	60	4111
2026-01-15 13:54:10.41	241.75	19.68	-47.0	-48.1	15.0	0.00e+00	0	28	0	1271922688	60	4038
2026-01-15 13:54:11.40	241.96	19.74	-47.1	-48.2	15.0	0.00e+00	0	28	0	1278214144	60	4066
2026-01-15 13:54:12.40	242.17	19.81	-47.0	-48.1	15.1	0.00e+00	0	28	0	1283457024	60	4031
2026-01-15 13:54:13.40	242.39	19.87	-47.1	-48.2	15.0	0.00e+00	0	28	0	1288699904	60	4060
2026-01-15 13:54:14.40	242.61	19.94	-47.1	-48.2	15.0	0.00e+00	0	28	0	1294991360	60	4087
2026-01-15 13:54:15.39	242.82	20.01	-47.0	-48.2	15.0	0.00e+00	0	28	0	1300234240	60	4052
2026-01-15 13:54:16.38	243.03	20.07	-47.1	-48.2	15.0	0.00e+00	0	28	0	1305477120	60	4097
2026-01-15 13:54:17.38	243.25	20.14	-47.1	-48.2	15.0	0.00e+00	0	28	0	1311768576	60	4084
2026-01-15 13:54:18.38	243.47	20.20	-47.1	-48.2	15.0	0.00e+00	0	28	0	1317011456	60	4080
2026-01-15 13:54:19.38	243.69	20.27	-47.1	-48.3	15.0	0.00e+00	0	28	0	1323302912	60	4099
2026-01-15 13:54:20.38	243.91	20.33	-47.1	-48.2	15.0	0.00e+00	0	28	0	1328545792	60	4080
2026-01-15 13:54:21.38	244.14	20.39	-47.0	-48.2	15.0	0.00e+00	0	28	0	1333788672	60	4058
2026-01-15 13:54:22.38	244.36	20.46	-47.0	-48.1	15.1	0.00e+00	0	28	0	1340080128	60	4028
2026-01-15 13:54:23.38	244.58	20.52	-47.0	-48.1	15.1	0.00e+00	0	28	0	1345323008	60	4025
2026-01-15 13:54:24.39	244.81	20.59	-47.0	-48.1	15.1	0.00e+00	0	28	0	1350565888	60	4015
2026-01-15 13:54:25.39	245.03	20.65	-46.8	-47.8	15.2	0.00e+00	0	28	0	1356857344	60	3909
2026-01-15 13:54:26.39	245.26	20.71	-47.0	-48.1	15.0	0.00e+00	0	28	0	1362100224	59	4267
2026-01-15 13:54:27.38	245.49	20.77	-47.1	-48.2	15.0	0.00e+00	0	28	0	1367343104	59	4325
2026-01-15 13:54:28.38	245.71	20.84	-47.2	-48.4	14.9	0.00e+00	0	28	0	1373634560	59	4395
2026-01-15 13:54:29.37	245.94	20.90	-47.3	-48.4	14.9	0.00e+00	0	28	0	1378877440	59	4433
2026-01-15 13:54:30.37	246.17	20.96	-47.4	-48.6	14.9	0.00e+00	0	28	0	1385168896	59	4504
2026-01-15 13:54:31.38	246.41	21.02	-47.4	-48.5	14.9	0.00e+00	0	28	0	1390411776	59	4481
2026-01-15 13:54:32.38	246.64	21.08	-47.3	-48.5	14.9	0.00e+00	0	28	0	1395654656	59	4452
2026-01-15 13:54:33.38	246.87	21.14	-46.8	-47.9	15.1	0.00e+00	0	28	0	1401946112	60	3938
2026-01-15 13:54:34.37	247.10	21.20	-46.8	-47.8	15.0	0.00e+00	0	28	0	1407188992	59	4145
2026-01-15 13:54:35.37	247.34	21.26	-46.7	-47.8	15.0	0.00e+00	0	28	0	1412431872	59	4145
2026-01-15 13:54:36.37	247.57	21.32	-46.7	-47.8	15.1	0.00e+00	0	28	0	1418723328	59	4132
2026-01-15 13:54:37.37	247.81	21.38	-46.7	-47.8	15.1	0.00e+00	0	28	0	1423966208	59	4128
2026-01-15 13:54:38.37	248.04	21.44	-46.9	-48.0	15.0	0.00e+00	0	28	0	1429209088	59	4204
2026-01-15 13:54:39.37	248.28	21.50	-47.0	-48.2	15.0	0.00e+00	0	28	0	1435500544	59	4309
2026-01-15 13:54:40.37	248.52	21.56	-47.1	-48.3	14.9	0.00e+00	0	28	0	1440743424	59	4373
2026-01-15 13:54:41.36	248.76	21.62	-47.3	-48.4	14.9	0.00e+00	0	28	0	1445986304	59	4440
2026-01-15 13:54:42.36	249.00	21.67	-47.2	-48.4	14.9	0.00e+00	0	28	0	1452277760	59	4402
2026-01-15 13:54:43.36	249.24	21.73	-47.0	-48.2	15.0	0.00e+00	0	28	0	1457520640	59	4297
2026-01-15 13:54:44.36	249.48	21.79	-47.0	-48.1	15.0	0.00e+00	0	28	0	1462763520	59	4270
2026-01-15 13:54:45.36	249.73	21.84	-46.9	-48.1	15.0	0.00e+00	0	28	0	1469054976	59	4257
2026-01-15 13:54:46.37	249.97	21.90	-46.9	-48.1	15.0	0.00e+00	0	28	0	1474297856	59	4258
2026-01-15 13:54:47.36	250.22	21.96	-47.0	-48.1	15.0	0.00e+00	0	28	0	1479540736	59	4268
2026-01-15 13:54:48.36	250.46	22.01	-46.9	-48.1	15.0	0.00e+00	0	28	0	1485832192	59	4252
2026-01-15 13:54:49.36	250.71	22.07	-46.8	-47.9	15.0	0.00e+00	0	28	0	1491075072	59	4168
2026-01-15 13:54:50.36	250.96	22.12	-46.8	-47.9	15.0	0.00e+00	0	28	0	1497366528	59	4185
2026-01-15 13:54:51.36	251.20	22.17	-47.0	-48.1	15.0	0.00e+00	0	28	0	1502609408	59	4259
2026-01-15 13:54:52.35	251.45	22.23	-46.9	-48.0	15.0	0.00e+00	0	28	0	1507852288	59	4226
2026-01-15 13:54:53.35	251.70	22.28	-46.9	-48.0	15.0	0.00e+00	0	28	0	1514143744	59	4233
2026-01-15 13:54:54.35	251.95	22.33	-46.9	-48.0	15.0	0.00e+00	0	28	0	1519386624	59	4213
2026-01-15 13:54:55.35	252.20	22.38	-46.8	-48.0	15.0	0.00e+00	0	28	0	1524629504	59	4194
2026-01-15 13:54:56.35	252.46	22.44	-46.6	-47.7	15.1	0.00e+00	0	28	0	1530920960	59	4092
2026-01-15 13:54:57.34	252.71	22.49	-46.6	-47.7	15.1	0.00e+00	0	28	0	1536163840	59	4074
2026-01-15 13:54:58.34	252.96	22.54	-46.6	-47.7	15.1	0.00e+00	0	28	0	1541406720	59	4093
2026-01-15 13:54:59.34	253.22	22.59	-46.7	-47.8	15.1	0.00e+00	0	28	0	1547698176	59	4131
2026-01-15 13:55:00.34	253.47	22.64	-46.8	-47.9	15.0	0.00e+00	0	28	0	1552941056	59	4191
2026-01-15 13:55:01.33	253.73	22.69	-46.7	-47.8	15.1	0.00e+00	0	28	0	1559232512	59	4113
2026-01-15 13:55:02.34	253.99	22.74	-46.6	-47.8	15.1	0.00e+00	0	28	0	1564475392	59	4101
2026-01-15 13:55:03.34	254.24	22.79	-46.7	-47.8	15.1	0.00e+00	0	28	0	1569718272	59	4123
2026-01-15 13:55:04.33	254.50	22.83	-46.7	-47.9	15.1	0.00e+00	0	28	0	1576009728	59	4146
2026-01-15 13:55:05.33	254.76	22.88	-46.8	-48.0	15.0	0.00e+00	0	28	0	1581252608	59	4204
2026-01-15 13:55:06.33	255.02	22.93	-46.7	-47.8	15.1	0.00e+00	0	28	0	1586495488	59	4119
2026-01-15 13:55:07.33	255.28	22.97	-46.7	-47.8	15.1	0.00e+00	0	28	0	1592786944	59	4110
2026-01-15 13:55:08.32	255.54	23.02	-46.5	-47.6	15.1	0.00e+00	0	28	0	1598029824	59	4030
2026-01-15 13:55:09.31	255.80	23.06	-46.6	-47.7	15.1	0.00e+00	0	28	0	1603272704	59	4062
2026-01-15 13:55:10.31	256.06	23.11	-46.6	-47.7	15.1	0.00e+00	0	28	0	1609564160	59	4066
2026-01-15 13:55:11.29	256.32	23.15	-46.8	-47.9	15.0	0.00e+00	0	28	0	1614807040	59	4162
2026-01-15 13:55:12.28	256.59	23.20	-46.7	-47.9	15.1	0.00e+00	0	28	0	1620049920	59	4147
2026-01-15 13:55:13.27	256.85	23.24	-46.8	-48.0	15.0	0.00e+00	0	28	0	1626341376	59	4207
2026-01-15 13:55:14.27	257.11	23.28	-46.6	-47.8	15.1	0.00e+00	0	28	0	1631584256	59	4105
2026-01-15 13:55:15.26	257.38	23.32	-46.6	-47.8	15.1	0.00e+00	0	28	0	1636827136	59	4102
2026-01-15 13:55:16.25	257.64	23.36	-46.5	-47.6	15.1	0.00e+00	0	28	0	1643118592	59	4023
2026-01-15 13:55:17.25	257.91	23.40	-46.5	-47.5	15.2	0.00e+00	0	28	0	1648361472	59	3997
2026-01-15 13:55:18.25	258.18	23.45	-46.5	-47.6	15.1	0.00e+00	0	28	0	1653604352	59	4038
2026-01-15 13:55:19.25	258.45	23.49	-46.7	-47.8	15.1	0.00e+00	0	28	0	1659895808	59	4118
2026-01-15 13:55:20.24	258.72	23.52	-46.7	-47.8	15.1	0.00e+00	0	28	0	1665138688	59	4117
2026-01-15 13:55:21.24	258.99	23.56	-46.6	-47.7	15.1	0.00e+00	0	28	0	1670381568	59	4067
2026-01-15 13:55:22.25	259.26	23.60	-46.5	-47.6	15.1	0.00e+00	0	28	0	1676673024	59	4049
2026-01-15 13:55:23.24	259.53	23.64	-46.5	-47.6	15.1	0.00e+00	0	28	0	1681915904	59	4018
2026-01-15 13:55:24.24	259.81	23.67	-46.4	-47.5	15.2	0.00e+00	0	28	0	1687158784	59	3977
2026-01-15 13:55:25.23	260.08	23.71	-46.5	-47.6	15.1	0.00e+00	0	28	0	1693450240	59	4015
2026-01-15 13:55:26.22	260.35	23.75	-46.4	-47.5	15.2	0.00e+00	0	28	0	1698693120	59	3962
2026-01-15 13:55:27.22	260.62	23.78	-46.4	-47.5	15.2	0.00e+00	0	28	0	1704984576	59	3983
2026-01-15 13:55:28.22	260.90	23.82	-46.5	-47.6	15.1	0.00e+00	0	28	0	1710227456	59	4010
2026-01-15 13:55:29.22	261.17	23.85	-46.4	-47.5	15.2	0.00e+00	0	28	0	1715470336	59	3974
2026-01-15 13:55:30.22	261.45	23.88	-46.4	-47.5	15.2	0.00e+00	0	28	0	1721761792	59	3970
2026-01-15 13:55:31.21	261.72	23.91	-46.4	-47.4	15.2	0.00e+00	0	28	0	1727004672	59	3952
2026-01-15 13:55:32.21	262.00	23.95	-46.4	-47.5	15.2	0.00e+00	0	28	0	1732247552	59	3977
2026-01-15 13:55:33.21	262.28	23.98	-46.6	-47.7	15.1	0.00e+00	0	28	0	1737490432	59	4060
2026-01-15 13:55:34.21	262.56	24.01	-46.6	-47.7	15.1	0.00e+00	0	28	0	1743781888	59	4074
2026-01-15 13:55:35.21	262.84	24.04	-46.6	-47.7	15.1	0.00e+00	0	28	0	1749024768	59	4083
2026-01-15 13:55:36.21	263.12	24.07	-46.6	-47.7	15.1	0.00e+00	0	28	0	1755316224	59	4064
2026-01-15 13:55:37.21	263.40	24.10	-46.4	-47.4	15.2	0.00e+00	0	28	0	1760559104	59	3953
2026-01-15 13:55:38.21	263.68	24.12	-46.3	-47.3	15.2	0.00e+00	0	28	0	1765801984	59	3899
2026-01-15 13:55:39.21	263.96	24.15	-46.3	-47.3	15.2	0.00e+00	0	28	0	1772093440	59	3905
2026-01-15 13:55:40.21	264.24	24.18	-46.3	-47.3	15.2	0.00e+00	0	28	0	1777336320	59	3907
2026-01-15 13:55:41.21	264.52	24.20	-46.2	-47.3	15.2	0.00e+00	0	28	0	1782579200	59	3887
2026-01-15 13:55:42.20	264.80	24.23	-46.3	-47.4	15.2	0.00e+00	0	28	0	1788870656	59	3938
2026-01-15 13:55:43.20	265.09	24.25	-46.3	-47.4	15.2	0.00e+00	0	28	0	1794113536	59	3919
2026-01-15 13:55:44.20	265.37	24.28	-46.2	-47.3	15.2	0.00e+00	0	28	0	1799356416	59	3894
2026-01-15 13:55:45.21	265.66	24.30	-46.2	-47.3	15.2	0.00e+00	0	28	0	1805647872	59	3894
2026-01-15 13:55:46.21	265.94	24.32	-46.2	-47.3	15.2	0.00e+00	0	28	0	1810890752	59	3894
2026-01-15 13:55:47.21	266.23	24.34	-46.3	-47.3	15.2	0.00e+00	0	28	0	1817182208	59	3913
2026-01-15 13:55:48.20	266.51	24.36	-46.3	-47.4	15.2	0.00e+00	0	28	0	1822425088	59	3947
2026-01-15 13:55:49.20	266.79	24.38	-46.4	-47.5	15.2	0.00e+00	0	28	0	1827667968	59	3989
2026-01-15 13:55:50.20	267.08	24.40	-46.4	-47.5	15.2	0.00e+00	0	28	0	1833959424	59	3971
2026-01-15 13:55:51.19	267.36	24.42	-46.3	-47.4	15.2	0.00e+00	0	28	0	1839202304	59	3925
2026-01-15 13:55:52.19	267.65	24.44	-46.3	-47.3	15.2	0.00e+00	0	28	0	1844445184	59	3907
2026-01-15 13:55:53.19	267.93	24.46	-46.1	-47.2	15.1	0.00e+00	0	28	0	1850736640	58	4084
2026-01-15 13:55:54.19	268.22	24.47	-46.4	-47.5	15.1	0.00e+00	0	28	0	1855979520	58	4195
2026-01-15 13:55:55.18	268.51	24.49	-46.5	-47.6	15.0	0.00e+00	0	28	0	1861222400	58	4290
2026-01-15 13:55:56.18	268.79	24.50	-46.6	-47.7	15.0	0.00e+00	0	28	0	1867513856	58	4339
2026-01-15 13:55:57.18	269.08	24.52	-46.7	-47.8	15.0	0.00e+00	0	28	0	1872756736	58	4371
2026-01-15 13:55:58.18	269.37	24.53	-46.5	-47.6	15.0	0.00e+00	0	28	0	1879048192	58	4278
2026-01-15 13:55:59.18	269.66	24.54	-46.4	-47.4	15.1	0.00e+00	0	28	0	1884291072	58	4187
2026-01-15 13:56:00.18	269.94	24.56	-46.3	-47.4	15.1	0.00e+00	0	28	0	1889533952	58	4180
2026-01-15 13:56:01.18	270.23	24.57	-46.3	-47.4	15.1	0.00e+00	0	28	0	1895825408	58	4177
2026-01-15 13:56:02.18	270.52	24.58	-46.4	-47.5	15.0	0.00e+00	0	28	0	1901068288	58	4221
2026-01-15 13:56:03.17	270.81	24.59	-46.4	-47.5	15.1	0.00e+00	0	28	0	1906311168	58	4227
2026-01-15 13:56:04.17	271.10	24.60	-46.6	-47.7	15.0	0.00e+00	0	28	0	1912602624	58	4295
2026-01-15 13:56:05.17	271.39	24.61	-46.6	-47.7	15.0	0.00e+00	0	28	0	1917845504	58	4303
2026-01-15 13:56:06.17	271.68	24.61	-46.5	-47.6	15.0	0.00e+00	0	28	0	1923088384	58	4286
2026-01-15 13:56:07.17	271.97	24.62	-46.5	-47.6	15.0	0.00e+00	0	28	0	1929379840	58	4266
2026-01-15 13:56:08.16	272.25	24.63	-46.5	-47.6	15.0	0.00e+00	0	28	0	1934622720	58	4277
2026-01-15 13:56:09.16	272.54	24.63	-46.4	-47.5	15.0	0.00e+00	0	28	0	1939865600	58	4215
2026-01-15 13:56:10.16	272.83	24.64	-46.3	-47.4	15.1	0.00e+00	0	28	0	1946157056	58	4174
2026-01-15 13:56:11.15	273.12	24.64	-46.3	-47.4	15.1	0.00e+00	0	28	0	1951399936	58	4174
2026-01-15 13:56:12.15	273.41	24.64	-46.3	-47.4	15.1	0.00e+00	0	28	0	1956642816	58	4184
2026-01-15 13:56:13.15	273.70	24.65	-46.5	-47.5	15.0	0.00e+00	0	28	0	1962934272	58	4241
2026-01-15 13:56:14.15	273.99	24.65	-46.5	-47.6	15.0	0.00e+00	0	28	0	1968177152	58	4258
2026-01-15 13:56:15.15	274.28	24.65	-46.4	-47.5	15.1	0.00e+00	0	28	0	1973420032	58	4198
2026-01-15 13:56:16.15	274.57	24.65	-46.4	-47.5	15.1	0.00e+00	0	28	0	1979711488	58	4201
2026-01-15 13:56:17.15	274.86	24.65	-46.4	-47.5	15.1	0.00e+00	0	28	0	1984954368	58	4220
2026-01-15 13:56:18.14	275.15	24.65	-46.4	-47.5	15.0	0.00e+00	0	28	0	1991245824	58	4235
2026-01-15 13:56:19.15	275.44	24.65	-46.4	-47.5	15.1	0.00e+00	0	28	0	1996488704	58	4237
2026-01-15 13:56:20.15	275.73	24.64	-46.4	-47.5	15.1	0.00e+00	0	28	0	2001731584	58	4216
2026-01-15 13:56:21.15	276.02	24.64	-46.4	-47.5	15.0	0.00e+00	0	28	0	2008023040	58	4225
2026-01-15 13:56:22.15	276.31	24.63	-46.5	-47.6	15.0	0.00e+00	0	28	0	2013265920	58	4246
2026-01-15 13:56:23.14	276.60	24.63	-46.4	-47.5	15.0	0.00e+00	0	28	0	2018508800	58	4223
2026-01-15 13:56:24.15	276.89	24.62	-46.5	-47.6	15.0	0.00e+00	0	28	0	2024800256	58	4257
2026-01-15 13:56:25.15	277.18	24.62	-46.6	-47.7	15.0	0.00e+00	0	28	0	2030043136	58	4307
2026-01-15 13:56:26.15	277.47	24.61	-46.5	-47.6	15.0	0.00e+00	0	28	0	2035286016	58	4286
2026-01-15 13:56:27.14	277.75	24.60	-46.4	-47.5	15.0	0.00e+00	0	28	0	2041577472	58	4216
2026-01-15 13:56:28.14	278.04	24.59	-46.5	-47.5	15.0	0.00e+00	0	28	0	2046820352	58	4233
2026-01-15 13:56:29.14	278.33	24.58	-46.4	-47.5	15.1	0.00e+00	0	28	0	2053111808	58	4205
2026-01-15 13:56:30.14	278.62	24.57	-46.3	-47.3	15.1	0.00e+00	0	28	0	2058354688	58	4143
2026-01-15 13:56:31.15	278.91	24.56	-46.3	-47.4	15.1	0.00e+00	0	28	0	2063597568	58	4179
2026-01-15 13:56:32.15	279.20	24.55	-46.4	-47.5	15.1	0.00e+00	0	28	0	2069889024	58	4203
2026-01-15 13:56:33.14	279.48	24.54	-46.4	-47.5	15.0	0.00e+00	0	28	0	2075131904	58	4242
2026-01-15 13:56:34.14	279.77	24.52	-46.5	-47.6	15.0	0.00e+00	0	28	0	2080374784	58	4251
2026-01-15 13:56:35.15	280.06	24.51	-46.6	-47.7	15.0	0.00e+00	0	28	0	2086666240	58	4295
2026-01-15 13:56:36.14	280.35	24.49	-46.5	-47.7	15.0	0.00e+00	0	28	0	2091909120	58	4298
2026-01-15 13:56:37.14	280.63	24.48	-46.5	-47.6	15.0	0.00e+00	0	28	0	2097152000	58	4283
2026-01-15 13:56:38.14	280.92	24.46	-46.7	-47.8	15.0	0.00e+00	0	28	0	2103443456	58	4375
2026-01-15 13:56:39.14	281.21	24.45	-46.7	-47.8	15.0	0.00e+00	0	28	0	2108686336	58	4382
2026-01-15 13:56:40.14	281.49	24.43	-46.5	-47.6	15.0	0.00e+00	0	28	0	2114977792	58	4253
2026-01-15 13:56:41.14	281.78	24.41	-46.5	-47.6	15.0	0.00e+00	0	28	0	2120220672	58	4275
2026-01-15 13:56:42.14	282.07	24.39	-46.5	-47.5	15.0	0.00e+00	0	28	0	2125463552	58	4231
2026-01-15 13:56:43.14	282.35	24.37	-46.5	-47.6	15.0	0.00e+00	0	28	0	2131755008	58	4251
2026-01-15 13:56:44.15	282.64	24.35	-46.5	-47.6	15.0	0.00e+00	0	28	0	2136997888	58	4261
2026-01-15 13:56:45.14	282.92	24.33	-46.6	-47.6	15.0	0.00e+00	0	28	0	2142240768	58	4290
2026-01-15 13:56:46.14	283.20	24.31	-46.5	-47.6	15.0	0.00e+00	0	28	0	2148532224	58	4281
2026-01-15 13:56:47.14	283.49	24.28	-46.5	-47.6	15.0	0.00e+00	0	28	0	2153775104	58	4280
2026-01-15 13:56:48.13	283.77	24.26	-46.6	-47.7	15.0	0.00e+00	0	28	0	2160066560	58	4313
2026-01-15 13:56:49.13	284.05	24.24	-46.5	-47.6	15.0	0.00e+00	0	28	0	2165309440	58	4277
2026-01-15 13:56:50.13	284.33	24.21	-46.5	-47.6	15.0	0.00e+00	0	28	0	2170552320	58	4272
2026-01-15 13:56:51.13	284.61	24.19	-46.6	-47.7	15.0	0.00e+00	0	28	0	2176843776	58	4292
2026-01-15 13:56:52.13	284.90	24.16	-46.6	-47.7	15.0	0.00e+00	0	28	0	2182086656	58	4336
2026-01-15 13:56:53.13	285.18	24.13	-46.6	-47.8	15.0	0.00e+00	0	28	0	2187329536	58	4349
2026-01-15 13:56:54.13	285.46	24.11	-46.6	-47.7	15.0	0.00e+00	0	28	0	2193620992	58	4339
2026-01-15 13:56:55.14	285.74	24.08	-46.5	-47.6	15.0	0.00e+00	0	28	0	2198863872	58	4275
2026-01-15 13:56:56.14	286.02	24.05	-46.4	-47.5	15.0	0.00e+00	0	28	0	2204106752	58	4223
2026-01-15 13:56:57.14	286.30	24.02	-46.5	-47.6	15.0	0.00e+00	0	28	0	2210398208	58	4256
2026-01-15 13:56:58.13	286.57	23.99	-46.5	-47.6	15.0	0.00e+00	0	28	0	2215641088	58	4274
2026-01-15 13:56:59.13	286.85	23.96	-46.6	-47.7	15.0	0.00e+00	0	28	0	2221932544	58	4326
2026-01-15 13:57:00.13	287.13	23.93	-46.7	-47.9	15.0	0.00e+00	0	28	0	2227175424	58	4395
2026-01-15 13:57:01.13	287.41	23.89	-46.8	-47.9	15.0	0.00e+00	0	28	0	2232418304	58	4398
2026-01-15 13:57:02.13	287.68	23.86	-46.7	-47.8	15.0	0.00e+00	0	28	0	2238709760	58	4364
2026-01-15 13:57:03.12	287.95	23.83	-46.7	-47.8	15.0	0.00e+00	0	28	0	2243952640	58	4374
2026-01-15 13:57:04.12	288.23	23.79	-46.8	-47.9	14.9	0.00e+00	0	28	0	2249195520	58	4440
2026-01-15 13:57:05.11	288.50	23.76	-46.9	-48.0	14.9	0.00e+00	0	28	0	2254438400	58	4489
2026-01-15 13:57:06.11	288.78	23.72	-47.0	-48.2	15.0	0.00e+00	0	28	0	2260729856	59	4293
2026-01-15 13:57:07.11	289.05	23.69	-47.1	-48.2	15.0	0.00e+00	0	28	0	2265972736	59	4313
2026-01-15 13:57:08.11	289.32	23.65	-47.0	-48.2	15.0	0.00e+00	0	28	0	2272264192	59	4294
2026-01-15 13:57:09.10	289.59	23.62	-47.0	-48.1	15.0	0.00e+00	0	28	0	2277507072	59	4271
2026-01-15 13:57:10.10	289.86	23.58	-46.9	-48.0	15.0	0.00e+00	0	28	0	2282749952	59	4230
2026-01-15 13:57:11.10	290.13	23.54	-46.9	-48.0	15.0	0.00e+00	0	28	0	2289041408	59	4227
2026-01-15 13:57:12.10	290.40	23.50	-46.8	-47.9	15.0	0.00e+00	0	28	0	2294284288	59	4190
2026-01-15 13:57:13.09	290.67	23.46	-46.8	-47.9	15.0	0.00e+00	0	28	0	2299527168	59	4165
2026-01-15 13:57:14.09	290.94	23.42	-46.9	-48.0	15.0	0.00e+00	0	28	0	2305818624	59	4226
2026-01-15 13:57:15.09	291.21	23.38	-46.8	-47.9	15.0	0.00e+00	0	28	0	2311061504	59	4189
2026-01-15 13:57:16.08	291.47	23.34	-46.9	-48.0	15.0	0.00e+00	0	28	0	2316304384	59	4207
2026-01-15 13:57:17.08	291.74	23.30	-46.8	-47.9	15.1	0.00e+00	0	28	0	2322595840	59	4175
2026-01-15 13:57:18.08	292.00	23.26	-47.0	-48.1	15.0	0.00e+00	0	28	0	2327838720	59	4259
2026-01-15 13:57:19.07	292.27	23.21	-46.9	-48.0	15.0	0.00e+00	0	28	0	2334130176	59	4240
2026-01-15 13:57:20.08	292.53	23.17	-47.0	-48.1	15.0	0.00e+00	0	28	0	2339373056	59	4283
2026-01-15 13:57:21.07	292.79	23.13	-47.1	-48.2	14.9	0.00e+00	0	28	0	2344615936	59	4340
2026-01-15 13:57:22.07	293.06	23.08	-47.0	-48.1	15.0	0.00e+00	0	28	0	2350907392	59	4271
2026-01-15 13:57:23.07	293.32	23.04	-47.0	-48.1	15.0	0.00e+00	0	28	0	2356150272	59	4281
2026-01-15 13:57:24.07	293.58	22.99	-47.0	-48.1	15.0	0.00e+00	0	28	0	2361393152	59	4275
2026-01-15 13:57:25.07	293.84	22.94	-47.1	-48.2	15.0	0.00e+00	0	28	0	2367684608	59	4327
2026-01-15 13:57:26.07	294.10	22.90	-47.2	-48.3	14.9	0.00e+00	0	28	0	2372927488	59	4358
2026-01-15 13:57:27.07	294.36	22.85	-47.2	-48.3	14.9	0.00e+00	0	28	0	2378170368	59	4365
2026-01-15 13:57:28.07	294.62	22.80	-47.2	-48.4	14.9	0.00e+00	0	28	0	2384461824	59	4403
2026-01-15 13:57:29.07	294.88	22.76	-47.0	-48.1	15.0	0.00e+00	0	28	0	2389704704	59	4285
2026-01-15 13:57:30.07	295.13	22.71	-47.1	-48.2	15.0	0.00e+00	0	28	0	2395996160	59	4321
2026-01-15 13:57:31.07	295.39	22.66	-47.2	-48.4	14.9	0.00e+00	0	28	0	2401239040	59	4392
2026-01-15 13:57:32.07	295.65	22.61	-47.1	-48.3	15.0	0.00e+00	0	28	0	2406481920	59	4346
2026-01-15 13:57:33.07	295.90	22.56	-47.2	-48.3	14.9	0.00e+00	0	28	0	2412773376	59	4372
2026-01-15 13:57:34.07	296.15	22.51	-47.2	-48.3	14.9	0.00e+00	0	28	0	2418016256	59	4384
2026-01-15 13:57:35.06	296.40	22.46	-47.3	-48.5	14.9	0.00e+00	0	28	0	2423259136	59	4454
2026-01-15 13:57:36.07	296.66	22.40	-47.4	-48.5	14.9	0.00e+00	0	28	0	2429550592	59	4467
2026-01-15 13:57:37.06	296.91	22.35	-47.2	-48.3	14.9	0.00e+00	0	28	0	2434793472	59	4377
2026-01-15 13:57:38.06	297.16	22.30	-47.1	-48.2	15.0	0.00e+00	0	28	0	2440036352	59	4310
2026-01-15 13:57:39.06	297.41	22.25	-47.2	-48.3	14.9	0.00e+00	0	28	0	2446327808	59	4377
2026-01-15 13:57:40.05	297.65	22.20	-47.3	-48.4	14.9	0.00e+00	0	28	0	2451570688	59	4417
2026-01-15 13:57:41.05	297.90	22.14	-47.4	-48.5	14.9	0.00e+00	0	28	0	2456813568	59	4474
2026-01-15 13:57:42.05	298.15	22.09	-47.4	-48.6	14.9	0.00e+00	0	28	0	2463105024	59	4501
2026-01-15 13:57:43.06	298.40	22.03	-47.1	-48.2	15.1	0.00e+00	0	28	0	2468347904	60	4083
2026-01-15 13:57:44.06	298.64	21.98	-47.1	-48.2	15.0	0.00e+00	0	28	0	2473590784	60	4093
2026-01-15 13:57:45.07	298.89	21.92	-46.9	-48.0	15.1	0.00e+00	0	28	0	2479882240	60	3981
2026-01-15 13:57:46.06	299.13	21.87	-46.9	-48.1	15.1	0.00e+00	0	28	0	2485125120	60	4007
2026-01-15 13:57:47.05	299.37	21.81	-46.9	-48.0	15.1	0.00e+00	0	28	0	2490368000	60	3989
2026-01-15 13:57:48.05	299.61	21.76	-47.0	-48.0	15.1	0.00e+00	0	28	0	2496659456	60	3999
2026-01-15 13:57:49.05	299.86	21.70	-47.0	-48.1	15.1	0.00e+00	0	28	0	2501902336	60	4028
2026-01-15 13:57:50.05	300.10	21.64	-47.1	-48.3	15.0	0.00e+00	0	28	0	2508193792	60	4101
2026-01-15 13:57:51.05	300.34	21.58	-47.0	-48.1	15.1	0.00e+00	0	28	0	2513436672	60	4020
2026-01-15 13:57:52.06	300.58	21.52	-47.1	-48.2	15.1	0.00e+00	0	28	0	2518679552	60	4062
2026-01-15 13:57:53.05	300.81	21.47	-47.1	-48.2	15.1	0.00e+00	0	28	0	2524971008	60	4053
2026-01-15 13:57:54.05	301.05	21.41	-47.0	-48.1	15.1	0.00e+00	0	28	0	2530213888	60	4037
2026-01-15 13:57:55.05	301.28	21.35	-47.0	-48.2	15.1	0.00e+00	0	28	0	2535456768	60	4055
2026-01-15 13:57:56.06	301.52	21.29	-47.2	-48.3	15.0	0.00e+00	0	28	0	2541748224	60	4116
2026-01-15 13:57:57.05	301.75	21.23	-47.2	-48.4	15.0	0.00e+00	0	28	0	2546991104	60	4152
2026-01-15 13:57:58.05	301.99	21.17	-47.2	-48.3	15.0	0.00e+00	0	28	0	2552233984	60	4131
2026-01-15 13:57:59.05	302.22	21.11	-47.2	-48.3	15.0	0.00e+00	0	28	0	2558525440	60	4140
2026-01-15 13:58:00.05	302.45	21.05	-47.2	-48.4	15.0	0.00e+00	0	28	0	2563768320	60	4147
2026-01-15 13:58:01.04	302.68	20.99	-47.1	-48.2	15.0	0.00e+00	0	28	0	2570059776	60	4087
2026-01-15 13:58:02.03	302.91	20.93	-47.2	-48.3	15.0	0.00e+00	0	28	0	2575302656	60	4104
2026-01-15 13:58:03.03	303.13	20.87	-47.0	-48.1	15.1	0.00e+00	0	28	0	2580545536	60	4028
2026-01-15 13:58:04.02	303.36	20.81	-46.9	-47.9	15.1	0.00e+00	0	28	0	2586836992	60	3943
2026-01-15 13:58:05.02	303.59	20.74	-46.9	-48.0	15.1	0.00e+00	0	28	0	2592079872	60	3971
2026-01-15 13:58:06.02	303.81	20.68	-47.0	-48.1	15.1	0.00e+00	0	28	0	2597322752	60	4038
2026-01-15 13:58:07.01	304.04	20.62	-47.1	-48.2	15.0	0.00e+00	0	28	0	2602565632	60	4097
2026-01-15 13:58:08.01	304.26	20.56	-47.3	-48.4	15.0	0.00e+00	0	28	0	2608857088	60	4183
2026-01-15 13:58:09.00	304.48	20.49	-47.3	-48.5	15.0	0.00e+00	0	28	0	2614099968	60	4198
2026-01-15 13:58:10.00	304.70	20.43	-47.4	-48.5	15.0	0.00e+00	0	28	0	2620391424	60	4226
2026-01-15 13:58:10.99	304.92	20.37	-47.4	-48.6	14.9	0.00e+00	0	28	0	2625634304	60	4248
2026-01-15 13:58:11.99	305.14	20.30	-47.4	-48.5	14.9	0.00e+00	0	28	0	2630877184	60	4218
2026-01-15 13:58:12.99	305.36	20.24	-47.3	-48.5	15.0	0.00e+00	0	28	0	2637168640	60	4210
2026-01-15 13:58:13.99	305.58	20.17	-47.3	-48.4	15.0	0.00e+00	0	28	0	2642411520	60	4189
2026-01-15 13:58:14.98	305.80	20.11	-47.3	-48.4	15.0	0.00e+00	0	28	0	2647654400	60	4172
2026-01-15 13:58:15.98	306.02	20.04	-47.3	-48.4	15.0	0.00e+00	0	28	0	2653945856	60	4177
2026-01-15 13:58:16.98	306.23	19.98	-47.4	-48.5	15.0	0.00e+00	0	28	0	2659188736	60	4210
2026-01-15 13:58:17.97	306.45	19.91	-47.4	-48.5	15.0	0.00e+00	0	28	0	2664431616	60	4204
2026-01-15 13:58:18.97	306.66	19.85	-47.5	-48.6	14.9	0.00e+00	0	28	0	2670723072	60	4265
2026-01-15 13:58:19.97	306.87	19.78	-47.3	-48.4	15.0	0.00e+00	0	28	0	2675965952	60	4170
2026-01-15 13:58:20.97	307.09	19.72	-47.2	-48.4	15.0	0.00e+00	0	28	0	2682257408	60	4155
2026-01-15 13:58:21.97	307.30	19.65	-47.4	-48.5	14.9	0.00e+00	0	28	0	2687500288	60	4205
2026-01-15 13:58:22.97	307.51	19.58	-47.3	-48.4	15.0	0.00e+00	0	28	0	2692743168	60	4168
2026-01-15 13:58:23.98	307.72	19.52	-47.4	-48.5	14.9	0.00e+00	0	28	0	2699034624	60	4214
2026-01-15 13:58:24.98	307.93	19.45	-47.4	-48.6	14.9	0.00e+00	0	28	0	2704277504	60	4264
2026-01-15 13:58:25.97	308.14	19.38	-47.6	-48.7	14.9	0.00e+00	0	28	0	2709520384	60	4319
2026-01-15 13:58:26.98	308.35	19.32	-47.6	-48.7	14.9	0.00e+00	0	28	0	2715811840	60	4322
2026-01-15 13:58:27.98	308.55	19.25	-47.6	-48.8	14.9	0.00e+00	0	28	0	2721054720	60	4349
2026-01-15 13:58:28.97	308.76	19.18	-47.6	-48.8	14.9	0.00e+00	0	28	0	2726297600	60	4344
2026-01-15 13:58:29.97	308.96	19.11	-47.5	-48.7	14.9	0.00e+00	0	28	0	2732589056	60	4297
2026-01-15 13:58:30.97	309.16	19.05	-47.5	-48.7	14.9	0.00e+00	0	28	0	2737831936	60	4301
2026-01-15 13:58:31.96	309.36	18.98	-47.6	-48.8	14.8	0.00e+00	0	28	0	2743074816	60	4345
2026-01-15 13:58:32.96	309.57	18.91	-47.7	-48.9	14.8	0.00e+00	0	28	0	2749366272	60	4397
2026-01-15 13:58:33.88	309.75	18.85	-47.8	-49.0	14.8	0.00e+00	0	28	0	2754609152	60	4451
2026-01-15 13:58:34.89	309.95	18.78	-47.8	-49.0	14.8	0.00e+00	0	28	0	2759852032	60	4457
2026-01-15 13:58:35.89	310.15	18.71	-47.9	-49.1	14.9	0.00e+00	0	28	0	2766143488	61	4263
2026-01-15 13:58:36.89	310.35	18.64	-47.8	-49.0	14.9	0.00e+00	0	28	0	2771386368	61	4216
2026-01-15 13:58:37.89	310.55	18.57	-47.8	-48.9	14.9	0.00e+00	0	28	0	2777677824	61	4190
2026-01-15 13:58:38.88	310.74	18.50	-47.8	-49.0	14.9	0.00e+00	0	28	0	2782920704	61	4215
2026-01-15 13:58:39.88	310.94	18.43	-47.9	-49.1	14.9	0.00e+00	0	28	0	2788163584	61	4249
2026-01-15 13:58:40.88	311.14	18.36	-48.0	-49.2	14.8	0.00e+00	0	28	0	2794455040	61	4299
2026-01-15 13:58:41.88	311.33	18.29	-48.1	-49.3	14.8	0.00e+00	0	28	0	2799697920	61	4363
2026-01-15 13:58:42.87	311.52	18.23	-48.1	-49.3	14.8	0.00e+00	0	28	0	2804940800	61	4357
2026-01-15 13:58:43.87	311.71	18.16	-48.0	-49.2	14.8	0.00e+00	0	28	0	2811232256	61	4321
2026-01-15 13:58:44.87	311.90	18.09	-48.0	-49.2	14.8	0.00e+00	0	28	0	2816475136	61	4293
2026-01-15 13:58:45.87	312.10	18.02	-47.9	-49.1	14.9	0.00e+00	0	28	0	2821718016	61	4243
2026-01-15 13:58:46.88	312.29	17.94	-47.8	-48.9	14.9	0.00e+00	0	28	0	2828009472	61	4187
2026-01-15 13:58:47.88	312.48	17.87	-47.8	-48.9	14.9	0.00e+00	0	28	0	2833252352	61	4163
2026-01-15 13:58:48.88	312.66	17.80	-47.8	-48.9	14.9	0.00e+00	0	28	0	2839543808	61	4177
2026-01-15 13:58:49.87	312.85	17.73	-47.8	-49.0	14.9	0.00e+00	0	28	0	2844786688	61	4196
2026-01-15 13:58:50.88	313.04	17.66	-47.9	-49.0	14.9	0.00e+00	0	28	0	2850029568	61	4232
2026-01-15 13:58:51.88	313.22	17.59	-47.9	-49.1	14.8	0.00e+00	0	28	0	2856321024	61	4256
2026-01-15 13:58:52.88	313.41	17.52	-48.1	-49.3	14.8	0.00e+00	0	28	0	2861563904	61	4360
2026-01-15 13:58:53.88	313.59	17.45	-48.2	-49.4	14.8	0.00e+00	0	28	0	2866806784	61	4400
2026-01-15 13:58:54.88	313.78	17.38	-48.1	-49.3	14.8	0.00e+00	0	28	0	2873098240	61	4360
2026-01-15 13:58:55.89	313.96	17.31	-48.1	-49.3	14.8	0.00e+00	0	28	0	2878341120	61	4354
2026-01-15 13:58:56.89	314.14	17.24	-48.0	-49.2	14.8	0.00e+00	0	28	0	2884632576	61	4327
2026-01-15 13:58:57.89	314.32	17.17	-48.0	-49.1	14.8	0.00e+00	0	28	0	2889875456	61	4290
2026-01-15 13:58:58.89	314.50	17.10	-47.9	-49.0	14.9	0.00e+00	0	28	0	2895118336	61	4235
2026-01-15 13:58:59.89	314.68	17.03	-47.8	-49.0	14.9	0.00e+00	0	28	0	2901409792	61	4206
2026-01-15 13:59:00.88	314.86	16.96	-47.9	-49.0	14.8	0.00e+00	0	28	0	2906652672	61	4238
2026-01-15 13:59:01.88	315.03	16.88	-48.0	-49.1	14.8	0.00e+00	0	28	0	2911895552	61	4282
2026-01-15 13:59:02.88	315.21	16.81	-48.1	-49.2	14.8	0.00e+00	0	28	0	2918187008	61	4337
2026-01-15 13:59:03.87	315.38	16.74	-48.2	-49.4	14.7	0.00e+00	0	28	0	2923429888	61	4423
2026-01-15 13:59:04.87	315.56	16.67	-48.4	-49.6	14.7	0.00e+00	0	28	0	2928672768	61	4543
2026-01-15 13:59:05.87	315.73	16.60	-48.5	-49.7	14.7	0.00e+00	0	28	0	2934964224	62	4325
2026-01-15 13:59:06.86	315.91	16.53	-48.5	-49.7	14.8	0.00e+00	0	28	0	2940207104	62	4326
2026-01-15 13:59:07.86	316.08	16.46	-48.5	-49.7	14.7	0.00e+00	0	28	0	2945449984	62	4310
2026-01-15 13:59:08.86	316.25	16.39	-48.5	-49.8	14.7	0.00e+00	0	28	0	2951741440	62	4352
2026-01-15 13:59:09.85	316.42	16.32	-48.5	-49.7	14.7	0.00e+00	0	28	0	2956984320	62	4298
2026-01-15 13:59:10.85	316.59	16.24	-48.4	-49.6	14.8	0.00e+00	0	28	0	2963275776	62	4269
2026-01-15 13:59:11.85	316.76	16.17	-48.3	-49.4	14.8	0.00e+00	0	28	0	2968518656	62	4192
2026-01-15 13:59:12.85	316.93	16.10	-48.4	-49.6	14.8	0.00e+00	0	28	0	2973761536	62	4244
2026-01-15 13:59:13.85	317.09	16.03	-48.4	-49.6	14.8	0.00e+00	0	28	0	2980052992	62	4269
2026-01-15 13:59:14.84	317.26	15.96	-48.3	-49.5	14.8	0.00e+00	0	28	0	2985295872	62	4231
2026-01-15 13:59:15.83	317.42	15.89	-48.5	-49.7	14.7	0.00e+00	0	28	0	2990538752	62	4299
2026-01-15 13:59:16.83	317.59	15.82	-48.4	-49.6	14.8	0.00e+00	0	28	0	2995781632	62	4284
2026-01-15 13:59:17.83	317.75	15.75	-48.4	-49.7	14.7	0.00e+00	0	28	0	3002073088	62	4292
2026-01-15 13:59:18.83	317.92	15.67	-48.5	-49.7	14.7	0.00e+00	0	28	0	3007315968	62	4321
2026-01-15 13:59:19.83	318.08	15.60	-48.5	-49.7	14.7	0.00e+00	0	28	0	3013607424	62	4310
2026-01-15 13:59:20.83	318.24	15.53	-48.5	-49.7	14.7	0.00e+00	0	28	0	3018850304	62	4315
2026-01-15 13:59:21.82	318.40	15.46	-48.4	-49.6	14.8	0.00e+00	0	28	0	3024093184	62	4261
2026-01-15 13:59:22.83	318.57	15.39	-48.3	-49.5	14.8	0.00e+00	0	28	0	3030384640	62	4225
2026-01-15 13:59:23.83	318.73	15.32	-48.5	-49.7	14.7	0.00e+00	0	28	0	3035627520	62	4310
2026-01-15 13:59:24.83	318.89	15.24	-48.5	-49.7	14.7	0.00e+00	0	28	0	3040870400	62	4329
2026-01-15 13:59:25.84	319.05	15.17	-48.5	-49.7	14.7	0.00e+00	0	28	0	3047161856	62	4294
2026-01-15 13:59:26.84	319.20	15.10	-48.4	-49.6	14.8	0.00e+00	0	28	0	3052404736	62	4285
2026-01-15 13:59:27.83	319.36	15.03	-48.4	-49.6	14.8	0.00e+00	0	28	0	3057647616	62	4253
2026-01-15 13:59:28.83	319.52	14.96	-48.3	-49.5	14.8	0.00e+00	0	28	0	3063939072	62	4205
2026-01-15 13:59:29.84	319.67	14.89	-48.4	-49.6	14.8	0.00e+00	0	28	0	3069181952	62	4246
2026-01-15 13:59:30.84	319.83	14.81	-48.5	-49.7	14.7	0.00e+00	0	28	0	3075473408	62	4317
2026-01-15 13:59:31.83	319.98	14.74	-48.5	-49.7	14.7	0.00e+00	0	28	0	3080716288	62	4317
2026-01-15 13:59:32.84	320.14	14.67	-48.6	-49.8	14.7	0.00e+00	0	28	0	3087007744	62	4374
2026-01-15 13:59:33.84	320.29	14.60	-48.6	-49.9	14.7	0.00e+00	0	28	0	3092250624	62	4409
2026-01-15 13:59:34.85	320.44	14.53	-48.7	-49.9	14.6	0.00e+00	0	28	0	3097493504	62	4437
2026-01-15 13:59:35.85	320.60	14.46	-48.6	-49.8	14.7	0.00e+00	0	28	0	3103784960	62	4391
2026-01-15 13:59:36.85	320.75	14.38	-48.7	-50.0	14.6	0.00e+00	0	28	0	3109027840	62	4451
2026-01-15 13:59:37.85	320.90	14.31	-48.7	-49.9	14.7	0.00e+00	0	28	0	3114270720	62	4419
2026-01-15 13:59:38.84	321.04	14.24	-48.6	-49.9	14.7	0.00e+00	0	28	0	3120562176	62	4392
2026-01-15 13:59:39.84	321.19	14.17	-48.4	-49.6	14.7	0.00e+00	0	28	0	3125805056	62	4277
2026-01-15 13:59:40.84	321.34	14.10	-48.5	-49.8	14.7	0.00e+00	0	28	0	3131047936	62	4341
2026-01-15 13:59:41.85	321.49	14.03	-48.4	-49.6	14.7	0.00e+00	0	28	0	3137339392	62	4266
2026-01-15 13:59:42.84	321.64	13.96	-48.6	-49.8	14.7	0.00e+00	0	28	0	3142582272	62	4349
2026-01-15 13:59:43.84	321.78	13.89	-48.4	-49.6	14.7	0.00e+00	0	28	0	3148873728	62	4289
2026-01-15 13:59:44.84	321.93	13.82	-48.3	-49.5	14.8	0.00e+00	0	28	0	3154116608	62	4231
2026-01-15 13:59:45.84	322.07	13.74	-48.5	-49.7	14.7	0.00e+00	0	28	0	3159359488	62	4313
2026-01-15 13:59:46.84	322.21	13.67	-48.6	-49.9	14.7	0.00e+00	0	28	0	3165650944	62	4395
2026-01-15 13:59:47.84	322.36	13.60	-48.7	-50.0	14.6	0.00e+00	0	28	0	3170893824	62	4465
2026-01-15 13:59:48.84	322.50	13.53	-48.7	-49.9	14.6	0.00e+00	0	28	0	3176136704	62	4435
2026-01-15 13:59:49.84	322.64	13.46	-48.7	-50.0	14.6	0.00e+00	0	28	0	3181379584	62	4465
2026-01-15 13:59:50.83	322.78	13.39	-48.8	-50.1	14.6	0.00e+00	0	28	0	3187671040	62	4528
2026-01-15 13:59:51.83	322.92	13.32	-48.9	-50.1	14.6	0.00e+00	0	28	0	3192913920	62	4544
2026-01-15 13:59:52.84	323.06	13.25	-49.0	-50.2	14.6	0.00e+00	0	28	0	3199205376	63	4323
2026-01-15 13:59:53.84	323.20	13.18	-49.0	-50.3	14.6	0.00e+00	0	28	0	3204448256	63	4353
2026-01-15 13:59:54.84	323.34	13.11	-49.1	-50.4	14.5	0.00e+00	0	28	0	3210739712	63	4424
2026-01-15 13:59:55.84	323.48	13.04	-49.1	-50.4	14.6	0.00e+00	0	28	0	3215982592	63	4394
2026-01-15 13:59:56.84	323.62	12.97	-49.1	-50.3	14.6	0.00e+00	0	28	0	3221225472	63	4387
2026-01-15 13:59:57.84	323.76	12.90	-49.0	-50.3	14.6	0.00e+00	0	28	0	3227516928	63	4372
2026-01-15 13:59:58.85	323.89	12.83	-49.0	-50.3	14.6	0.00e+00	0	28	0	3232759808	63	4377
2026-01-15 13:59:59.85	324.03	12.76	-49.1	-50.4	14.5	0.00e+00	0	28	0	3238002688	63	4414
2026-01-15 14:00:00.85	324.16	12.69	-48.9	-50.1	14.7	0.00e+00	0	28	0	3244294144	63	4289
2026-01-15 14:00:01.85	324.30	12.62	-49.2	-50.5	14.5	0.00e+00	0	28	0	3249537024	63	4480
2026-01-15 14:00:02.84	324.43	12.55	-49.1	-50.3	14.6	0.00e+00	0	28	0	3254779904	63	4387
2026-01-15 14:00:03.84	324.56	12.48	-49.2	-50.6	14.5	0.00e+00	0	28	0	3261071360	63	4498
2026-01-15 14:00:04.84	324.70	12.41	-49.0	-50.3	14.6	0.00e+00	0	28	0	3266314240	63	4376
2026-01-15 14:00:05.83	324.83	12.34	-49.1	-50.4	14.5	0.00e+00	0	28	0	3271557120	63	4406
2026-01-15 14:00:06.83	324.96	12.27	-49.2	-50.5	14.5	0.00e+00	0	28	0	3277848576	63	4486
2026-01-15 14:00:07.83	325.09	12.20	-49.1	-50.4	14.5	0.00e+00	0	28	0	3283091456	63	4414
2026-01-15 14:00:08.83	325.22	12.13	-49.3	-50.6	14.5	0.00e+00	0	28	0	3288334336	63	4511
2026-01-15 14:00:09.83	325.35	12.06	-49.1	-50.4	14.5	0.00e+00	0	28	0	3294625792	63	4437
2026-01-15 14:00:10.82	325.48	11.99	-49.1	-50.4	14.5	0.00e+00	0	28	0	3299868672	63	4408
2026-01-15 14:00:11.82	325.60	11.92	-49.2	-50.5	14.5	0.00e+00	0	28	0	3305111552	63	4491
2026-01-15 14:00:12.82	325.73	11.85	-49.1	-50.4	14.5	0.00e+00	0	28	0	3311403008	63	4435
2026-01-15 14:00:13.81	325.86	11.78	-49.2	-50.5	14.5	0.00e+00	0	28	0	3316645888	63	4455
2026-01-15 14:00:14.80	325.98	11.71	-49.1	-50.4	14.5	0.00e+00	0	28	0	3322937344	63	4393
2026-01-15 14:00:15.79	326.11	11.64	-49.1	-50.3	14.6	0.00e+00	0	28	0	3328180224	63	4378
2026-01-15 14:00:16.79	326.23	11.58	-49.1	-50.3	14.6	0.00e+00	0	28	0	3333423104	63	4368
2026-01-15 14:00:17.78	326.36	11.51	-49.1	-50.4	14.5	0.00e+00	0	28	0	3338665984	63	4428
2026-01-15 14:00:18.78	326.48	11.44	-49.2	-50.5	14.5	0.00e+00	0	28	0	3344957440	63	4466
2026-01-15 14:00:19.78	326.61	11.37	-49.0	-50.2	14.6	0.00e+00	0	28	0	3350200320	63	4326
2026-01-15 14:00:20.78	326.73	11.30	-49.1	-50.3	14.5	0.00e+00	0	28	0	3355443200	63	4385
2026-01-15 14:00:21.79	326.85	11.23	-49.3	-50.6	14.5	0.00e+00	0	28	0	3361734656	63	4507
2026-01-15 14:00:22.79	326.98	11.16	-49.3	-50.6	14.5	0.00e+00	0	28	0	3366977536	63	4499
2026-01-15 14:00:23.79	327.10	11.09	-49.3	-50.6	14.4	0.00e+00	0	28	0	3373268992	63	4526
2026-01-15 14:00:24.80	327.22	11.02	-49.4	-50.7	14.5	0.00e+00	0	28	0	3378511872	64	4320
2026-01-15 14:00:25.79	327.34	10.96	-49.5	-50.9	14.4	0.00e+00	0	28	0	3384803328	64	4403
2026-01-15 14:00:26.79	327.46	10.89	-49.5	-50.8	14.4	0.00e+00	0	28	0	3390046208	64	4373
2026-01-15 14:00:27.79	327.58	10.82	-49.6	-51.0	14.4	0.00e+00	0	28	0	3395289088	64	4457
2026-01-15 14:00:28.79	327.70	10.75	-49.5	-50.9	14.4	0.00e+00	0	28	0	3401580544	64	4400
2026-01-15 14:00:29.79	327.82	10.68	-49.7	-51.0	14.4	0.00e+00	0	28	0	3406823424	64	4491
2026-01-15 14:00:30.79	327.93	10.62	-49.5	-50.8	14.4	0.00e+00	0	28	0	3412066304	64	4377
2026-01-15 14:00:31.79	328.05	10.55	-49.5	-50.9	14.4	0.00e+00	0	28	0	3418357760	64	4400
2026-01-15 14:00:32.79	328.17	10.48	-49.4	-50.8	14.4	0.00e+00	0	28	0	3423600640	64	4351
2026-01-15 14:00:33.78	328.28	10.41	-49.4	-50.7	14.5	0.00e+00	0	28	0	3428843520	64	4307
2026-01-15 14:00:34.78	328.40	10.35	-49.4	-50.7	14.5	0.00e+00	0	28	0	3435134976	64	4308
2026-01-15 14:00:35.78	328.51	10.28	-49.4	-50.7	14.5	0.00e+00	0	28	0	3440377856	64	4330
2026-01-15 14:00:36.78	328.63	10.21	-49.2	-50.5	14.5	0.00e+00	0	28	0	3445620736	64	4236
2026-01-15 14:00:37.78	328.74	10.14	-49.3	-50.6	14.5	0.00e+00	0	28	0	3451912192	64	4247
2026-01-15 14:00:38.79	328.86	10.08	-49.3	-50.6	14.5	0.00e+00	0	28	0	3457155072	64	4269
2026-01-15 14:00:39.79	328.97	10.01	-49.3	-50.6	14.5	0.00e+00	0	28	0	3462397952	64	4254
2026-01-15 14:00:40.79	329.08	9.94	-49.3	-50.6	14.5	0.00e+00	0	28	0	3468689408	64	4265
2026-01-15 14:00:41.79	329.20	9.87	-49.4	-50.7	14.5	0.00e+00	0	28	0	3473932288	64	4301
2026-01-15 14:00:42.79	329.31	9.81	-49.4	-50.8	14.4	0.00e+00	0	28	0	3480223744	64	4344
2026-01-15 14:00:43.78	329.42	9.74	-49.5	-50.8	14.4	0.00e+00	0	28	0	3485466624	64	4386
2026-01-15 14:00:44.78	329.53	9.67	-49.2	-50.5	14.5	0.00e+00	0	28	0	3490709504	64	4242
2026-01-15 14:00:45.78	329.64	9.61	-49.4	-50.8	14.4	0.00e+00	0	28	0	3497000960	64	4349
2026-01-15 14:00:46.77	329.75	9.54	-49.4	-50.7	14.5	0.00e+00	0	28	0	3502243840	64	4308
2026-01-15 14:00:47.78	329.86	9.48	-49.5	-50.9	14.4	0.00e+00	0	28	0	3507486720	64	4406
2026-01-15 14:00:48.78	329.97	9.41	-49.5	-50.9	14.4	0.00e+00	0	28	0	3513778176	64	4410
2026-01-15 14:00:49.78	330.08	9.34	-49.7	-51.1	14.3	0.00e+00	0	28	0	3519021056	64	4495
2026-01-15 14:00:50.78	330.18	9.28	-49.6	-51.0	14.3	0.00e+00	0	28	0	3524263936	64	4470
2026-01-15 14:00:51.78	330.29	9.21	-49.6	-50.9	14.4	0.00e+00	0	28	0	3530555392	64	4419
2026-01-15 14:00:52.78	330.40	9.14	-49.5	-50.9	14.4	0.00e+00	0	28	0	3535798272	64	4401
2026-01-15 14:00:53.78	330.51	9.08	-49.9	-51.3	14.2	0.00e+00	0	28	0	3542089728	64	4620
2026-01-15 14:00:54.77	330.61	9.01	-49.8	-51.2	14.2	0.00e+00	0	28	0	3547332608	64	4578
2026-01-15 14:00:55.77	330.72	8.95	-49.9	-51.3	14.3	0.00e+00	0	28	0	3552575488	65	4357
2026-01-15 14:00:56.78	330.82	8.88	-50.1	-51.6	14.2	0.00e+00	0	28	0	3558866944	65	4510
2026-01-15 14:00:57.78	330.93	8.82	-50.0	-51.4	14.3	0.00e+00	0	28	0	3564109824	65	4406
2026-01-15 14:00:58.78	331.03	8.75	-50.2	-51.6	14.2	0.00e+00	0	28	0	3569352704	65	4526
2026-01-15 14:00:59.77	331.13	8.69	-50.1	-51.6	14.2	0.00e+00	0	28	0	3575644160	65	4498
2026-01-15 14:01:00.76	331.24	8.62	-50.2	-51.6	14.1	0.00e+00	0	28	0	3580887040	65	4545
2026-01-15 14:01:01.76	331.34	8.56	-50.1	-51.5	14.2	0.00e+00	0	28	0	3586129920	65	4480
2026-01-15 14:01:02.75	331.44	8.49	-50.2	-51.6	14.2	0.00e+00	0	28	0	3592421376	65	4530
2026-01-15 14:01:03.74	331.54	8.43	-50.3	-51.8	14.1	0.00e+00	0	28	0	3597664256	65	4611
2026-01-15 14:01:04.74	331.64	8.36	-50.4	-51.9	14.1	0.00e+00	0	28	0	3603955712	66	4435
2026-01-15 14:01:05.74	331.75	8.30	-50.4	-51.9	14.1	0.00e+00	0	28	0	3609198592	66	4418
