passes_logs/2026/01/15/R3.2S_Murmansk/R3.2S_Murmansk__20260115_074858_SUOMI_NPP_rec.log

#Pass ID: 20260115_074858_SUOMI NPP
#Satellite: SUOMI NPP
#Configuration: NPP
#almurnet v.1.7.20251203
#Start time: 2026-01-15 07:49:00

#Version: 2.2.20231116
#Station: R3.2S_Murmansk
#Location: 33.079688 lon 68.888172 lat
#TLE: 1 37849U 11061A   26014.61059675  .00000037  00000+0  38639-4 0  9994
#TLE: 2 37849  98.7810 316.6625 0002460  64.3781 295.7649 14.19525105736658

#Time	Az	El	Level	Level2	SNR	BER	BlckErr	Temp	State	Recorded	gain1	gain2
2026-01-15 07:49:00.07	110.63	2.08	-58.3	-74.3	3.8	1.49e+00	0	26	0	0	83	21839
2026-01-15 07:49:01.08	110.59	2.14	-58.2	-74.2	3.8	1.49e+00	0	26	104	0	81	24235
2026-01-15 07:49:02.07	110.55	2.20	-58.2	-74.2	3.8	1.49e+00	0	26	104	0	81	24269
2026-01-15 07:49:03.07	110.51	2.26	-58.2	-74.2	3.8	1.49e+00	0	26	104	0	81	24340
2026-01-15 07:49:04.06	110.48	2.32	-58.2	-74.2	3.8	1.49e+00	0	26	104	0	81	24310
2026-01-15 07:49:05.05	110.44	2.38	-58.2	-74.2	3.8	1.49e+00	0	26	104	0	81	24339
2026-01-15 07:49:06.04	110.40	2.45	-58.2	-74.2	3.8	1.49e+00	0	26	104	0	81	24371
2026-01-15 07:49:07.03	110.36	2.51	-58.2	-74.2	3.8	1.49e+00	0	26	104	0	81	24325
2026-01-15 07:49:08.02	110.32	2.57	-58.2	-74.2	3.8	1.49e+00	0	26	104	0	81	24255
2026-01-15 07:49:09.01	110.28	2.63	-58.2	-74.2	3.8	1.49e+00	0	26	104	0	81	24212
2026-01-15 07:49:10.00	110.24	2.69	-58.2	-74.2	3.8	1.49e+00	0	26	104	0	81	24194
2026-01-15 07:49:10.99	110.20	2.76	-58.2	-74.2	3.8	1.49e+00	0	26	104	0	81	24246
2026-01-15 07:49:11.97	110.16	2.82	-58.2	-74.2	3.8	1.49e+00	0	26	104	0	81	24381
2026-01-15 07:49:12.96	110.12	2.88	-58.2	-74.2	3.8	1.49e+00	0	26	104	0	81	24241
2026-01-15 07:49:13.95	110.08	2.94	-58.2	-74.2	3.8	1.49e+00	0	26	104	0	81	24262
2026-01-15 07:49:14.94	110.04	3.01	-58.2	-74.2	3.8	1.49e+00	0	26	104	0	81	24257
2026-01-15 07:49:15.92	110.00	3.07	-58.2	-74.2	3.8	1.49e+00	0	26	104	0	81	24296
2026-01-15 07:49:16.92	109.95	3.13	-58.2	-74.2	3.8	1.49e+00	0	26	104	0	81	24377
2026-01-15 07:49:17.90	109.91	3.20	-58.2	-74.2	3.8	1.49e+00	0	26	104	0	81	24278
2026-01-15 07:49:18.90	109.87	3.26	-58.2	-74.1	3.8	1.49e+00	0	26	104	0	81	24127
2026-01-15 07:49:19.89	109.83	3.32	-58.2	-74.1	3.8	1.49e+00	0	26	104	0	81	24003
2026-01-15 07:49:20.88	109.79	3.39	-58.2	-74.0	3.8	1.49e+00	0	26	104	0	81	23851
2026-01-15 07:49:21.89	109.74	3.45	-58.2	-74.0	3.8	1.49e+00	0	26	104	0	81	23633
2026-01-15 07:49:22.90	109.70	3.52	-58.2	-74.0	3.8	1.49e+00	0	26	104	0	81	23815
2026-01-15 07:49:23.91	109.66	3.58	-58.2	-74.1	3.8	1.49e+00	0	26	104	0	81	23864
2026-01-15 07:49:24.91	109.61	3.65	-58.2	-74.1	3.8	1.49e+00	0	26	104	0	81	24039
2026-01-15 07:49:25.93	109.57	3.71	-58.2	-74.2	3.8	1.49e+00	0	27	104	0	81	24305
2026-01-15 07:49:26.93	109.53	3.78	-58.2	-74.2	3.8	1.49e+00	0	26	104	0	81	24356
2026-01-15 07:49:27.94	109.48	3.85	-58.3	-74.1	3.9	1.49e+00	0	27	104	0	81	23939
2026-01-15 07:49:28.95	109.44	3.91	-58.2	-73.6	3.8	1.49e+00	0	27	104	0	81	22630
2026-01-15 07:49:29.95	109.39	3.98	-58.2	-73.0	3.8	1.49e+00	0	26	104	0	81	21097
2026-01-15 07:49:30.96	109.35	4.04	-58.1	-71.6	3.9	1.49e+00	0	26	104	0	81	18079
2026-01-15 07:49:31.96	109.30	4.11	-58.1	-71.1	4.1	1.47e+00	0	26	0	0	81	16929
2026-01-15 07:49:32.97	109.26	4.18	-58.0	-69.9	4.4	1.38e+00	37	26	0	0	81	14789
2026-01-15 07:49:33.97	109.21	4.24	-58.0	-69.2	4.7	9.17e-01	0	26	0	2097152	81	13631
2026-01-15 07:49:34.98	109.17	4.31	-57.9	-68.1	5.2	7.54e-01	0	27	0	4194304	81	12083
2026-01-15 07:49:35.99	109.12	4.38	-57.8	-67.8	5.4	4.61e-01	0	26	0	5242880	81	11667
2026-01-15 07:49:37.00	109.08	4.44	-57.8	-67.3	5.7	3.56e-01	0	27	0	7340032	81	10924
2026-01-15 07:49:38.00	109.03	4.51	-57.6	-66.1	6.5	2.83e-01	0	26	0	9437184	81	9525
2026-01-15 07:49:39.01	108.98	4.58	-57.6	-66.0	6.5	1.71e-01	0	27	0	11534336	81	9447
2026-01-15 07:49:40.00	108.94	4.64	-57.5	-65.6	6.9	1.18e-01	0	27	0	13631488	81	8967
2026-01-15 07:49:41.01	108.89	4.71	-57.5	-65.3	7.1	9.40e-02	0	27	0	14680064	81	8724
2026-01-15 07:49:42.01	108.84	4.78	-57.4	-65.0	7.4	6.85e-02	0	27	0	16777216	81	8370
2026-01-15 07:49:43.02	108.79	4.85	-57.3	-64.6	7.8	3.04e-02	0	27	0	18874368	81	7997
2026-01-15 07:49:44.03	108.75	4.92	-57.2	-64.0	8.2	2.73e-02	0	27	0	20971520	81	7522
2026-01-15 07:49:45.04	108.70	4.98	-57.2	-64.0	8.3	2.52e-02	0	27	0	23068672	80	7936
2026-01-15 07:49:46.04	108.65	5.05	-57.2	-63.9	8.2	2.78e-02	0	27	0	24117248	80	7898
2026-01-15 07:49:47.04	108.60	5.12	-57.2	-63.7	8.5	1.63e-02	0	27	0	26214400	80	7693
2026-01-15 07:49:48.05	108.55	5.19	-55.9	-59.9	11.7	2.09e-04	0	27	0	28311552	78	5542
2026-01-15 07:49:49.05	108.50	5.26	-58.3	-71.9	3.9	2.49e-01	0	27	104	29360128	81	18655
2026-01-15 07:49:50.06	108.46	5.33	-58.0	-66.7	6.4	8.69e-02	0	27	0	29360128	81	10286
2026-01-15 07:49:51.07	108.41	5.40	-55.9	-59.9	11.6	6.80e-06	0	27	0	31457280	77	5895
2026-01-15 07:49:52.07	108.36	5.47	-55.5	-59.2	12.1	7.00e-07	0	27	0	33554432	77	5410
2026-01-15 07:49:53.08	108.31	5.54	-55.5	-59.0	12.2	7.00e-07	0	27	0	35651584	77	5340
2026-01-15 07:49:54.08	108.26	5.60	-55.4	-59.0	12.2	1.50e-06	0	27	0	37748736	77	5302
2026-01-15 07:49:55.08	108.21	5.67	-55.4	-58.8	12.4	0.00e+00	0	27	0	38797312	77	5198
2026-01-15 07:49:56.08	108.16	5.74	-55.3	-58.6	12.5	7.00e-07	0	27	0	40894464	77	5087
2026-01-15 07:49:57.08	108.11	5.81	-55.4	-58.8	12.4	0.00e+00	0	27	0	42991616	77	5213
2026-01-15 07:49:58.09	108.05	5.88	-55.1	-58.3	12.6	0.00e+00	0	27	0	45088768	76	5179
2026-01-15 07:49:59.09	108.00	5.95	-55.0	-58.2	12.7	0.00e+00	0	27	0	47185920	76	5147
2026-01-15 07:50:00.10	107.95	6.02	-55.3	-58.7	12.4	0.00e+00	0	27	0	48234496	76	5414
2026-01-15 07:50:01.09	107.90	6.09	-55.2	-58.5	12.5	0.00e+00	0	27	0	50331648	76	5288
2026-01-15 07:50:02.09	107.85	6.16	-55.2	-58.6	12.4	0.00e+00	0	27	0	52428800	76	5382
2026-01-15 07:50:03.10	107.80	6.24	-55.3	-58.8	12.3	0.00e+00	0	27	0	54525952	76	5492
2026-01-15 07:50:04.11	107.74	6.31	-55.3	-58.7	12.4	0.00e+00	0	27	0	56623104	76	5432
2026-01-15 07:50:05.11	107.69	6.38	-55.2	-58.6	12.4	0.00e+00	0	27	0	57671680	76	5394
2026-01-15 07:50:06.11	107.64	6.45	-55.2	-58.5	12.5	0.00e+00	0	27	0	59768832	76	5326
2026-01-15 07:50:07.11	107.58	6.52	-55.3	-58.7	12.4	0.00e+00	0	27	0	61865984	76	5403
2026-01-15 07:50:08.11	107.53	6.59	-55.1	-58.3	12.6	0.00e+00	0	27	0	63963136	76	5187
2026-01-15 07:50:09.12	107.47	6.67	-55.0	-58.2	12.7	0.00e+00	0	27	0	65011712	76	5121
2026-01-15 07:50:10.12	107.42	6.74	-55.0	-58.2	12.7	0.00e+00	0	27	0	67108864	76	5115
2026-01-15 07:50:11.13	107.37	6.81	-55.1	-58.4	12.6	0.00e+00	0	27	0	69206016	76	5244
2026-01-15 07:50:12.13	107.31	6.88	-55.0	-58.1	12.8	0.00e+00	0	27	0	71303168	76	5082
2026-01-15 07:50:13.13	107.26	6.96	-55.1	-58.4	12.6	0.00e+00	0	27	0	73400320	76	5223
2026-01-15 07:50:14.14	107.20	7.03	-55.1	-58.2	12.7	0.00e+00	0	27	0	74448896	76	5156
2026-01-15 07:50:15.14	107.14	7.10	-55.1	-58.4	12.6	0.00e+00	0	27	0	76546048	76	5229
2026-01-15 07:50:16.14	107.09	7.17	-55.2	-58.5	12.5	0.00e+00	0	27	0	78643200	76	5287
2026-01-15 07:50:17.15	107.03	7.25	-55.1	-58.3	12.6	0.00e+00	0	27	0	80740352	76	5177
2026-01-15 07:50:18.15	106.98	7.32	-55.1	-58.2	12.7	0.00e+00	0	27	0	82837504	76	5154
2026-01-15 07:50:19.16	106.92	7.40	-55.4	-58.8	12.4	0.00e+00	0	27	0	83886080	76	5476
2026-01-15 07:50:20.16	106.86	7.47	-55.1	-58.3	12.7	0.00e+00	0	27	0	85983232	76	5191
2026-01-15 07:50:21.17	106.80	7.54	-55.1	-58.2	12.7	0.00e+00	0	27	0	88080384	76	5132
2026-01-15 07:50:22.17	106.75	7.62	-54.9	-57.9	12.9	0.00e+00	0	27	0	90177536	76	4982
2026-01-15 07:50:23.18	106.69	7.69	-54.7	-57.6	13.2	0.00e+00	0	27	0	92274688	76	4803
2026-01-15 07:50:24.19	106.63	7.77	-54.7	-57.6	13.2	0.00e+00	0	27	0	93323264	76	4788
2026-01-15 07:50:25.19	106.57	7.84	-54.7	-57.5	13.2	0.00e+00	0	27	0	95420416	76	4751
2026-01-15 07:50:26.19	106.51	7.92	-54.8	-57.8	13.0	0.00e+00	0	27	0	97517568	76	4881
2026-01-15 07:50:27.20	106.45	7.99	-54.8	-57.8	13.1	0.00e+00	0	27	0	99614720	76	4874
2026-01-15 07:50:28.21	106.39	8.07	-54.9	-57.8	13.0	0.00e+00	0	27	0	101711872	76	4897
2026-01-15 07:50:29.21	106.33	8.15	-55.0	-58.0	13.0	0.00e+00	0	27	0	102760448	76	4994
2026-01-15 07:50:30.21	106.27	8.22	-54.9	-57.9	13.0	0.00e+00	0	27	0	104857600	76	4976
2026-01-15 07:50:31.21	106.21	8.30	-54.8	-57.7	13.1	0.00e+00	0	27	0	106954752	76	4847
2026-01-15 07:50:32.21	106.15	8.37	-55.0	-58.1	12.9	0.00e+00	0	27	0	109051904	76	5071
2026-01-15 07:50:33.20	106.09	8.45	-55.0	-57.9	12.9	0.00e+00	0	27	0	111149056	76	4981
2026-01-15 07:50:34.20	106.03	8.52	-54.8	-57.6	13.2	0.00e+00	0	27	0	112197632	76	4801
2026-01-15 07:50:35.21	105.96	8.60	-54.9	-57.8	13.0	0.00e+00	0	27	0	114294784	76	4926
2026-01-15 07:50:36.22	105.90	8.68	-54.7	-57.5	13.2	0.00e+00	0	27	0	116391936	76	4740
2026-01-15 07:50:37.23	105.84	8.76	-54.3	-56.9	13.4	0.00e+00	0	27	0	118489088	75	4697
2026-01-15 07:50:38.23	105.77	8.83	-54.1	-56.7	13.5	0.00e+00	0	27	0	120586240	74	4839
2026-01-15 07:50:39.24	105.71	8.91	-54.3	-57.0	13.3	0.00e+00	0	27	0	121634816	74	5008
2026-01-15 07:50:40.24	105.65	8.99	-54.1	-56.6	13.5	0.00e+00	0	27	0	123731968	74	4800
2026-01-15 07:50:41.25	105.58	9.07	-54.2	-56.8	13.4	0.00e+00	0	27	0	125829120	74	4889
2026-01-15 07:50:42.25	105.52	9.15	-54.1	-56.6	13.5	0.00e+00	0	27	0	127926272	74	4809
2026-01-15 07:50:43.26	105.45	9.23	-54.1	-56.6	13.5	0.00e+00	0	27	0	130023424	74	4803
2026-01-15 07:50:44.26	105.39	9.30	-54.1	-56.6	13.5	0.00e+00	0	27	0	131072000	74	4776
2026-01-15 07:50:45.26	105.32	9.38	-54.1	-56.6	13.5	0.00e+00	0	27	0	133169152	74	4784
2026-01-15 07:50:46.26	105.26	9.46	-54.2	-56.7	13.5	0.00e+00	0	27	0	135266304	74	4855
2026-01-15 07:50:47.25	105.19	9.54	-54.0	-56.5	13.6	0.00e+00	0	27	0	137363456	74	4712
2026-01-15 07:50:48.25	105.12	9.62	-54.0	-56.5	13.6	0.00e+00	0	27	0	138412032	74	4741
2026-01-15 07:50:49.25	105.06	9.70	-53.7	-56.4	13.7	0.00e+00	0	27	0	140509184	74	4667
2026-01-15 07:50:50.25	104.99	9.78	-53.6	-56.3	13.6	0.00e+00	0	27	0	142606336	73	4875
2026-01-15 07:50:51.25	104.92	9.86	-53.7	-56.3	13.6	0.00e+00	0	27	0	144703488	73	4897
2026-01-15 07:50:52.26	104.85	9.94	-53.5	-56.1	13.7	0.00e+00	0	27	0	146800640	73	4777
2026-01-15 07:50:53.27	104.78	10.02	-53.6	-56.3	13.6	0.00e+00	0	27	0	147849216	73	4877
2026-01-15 07:50:54.28	104.71	10.10	-53.7	-56.4	13.6	0.00e+00	0	27	0	149946368	73	4952
2026-01-15 07:50:55.27	104.64	10.18	-53.9	-56.6	13.4	0.00e+00	0	27	0	152043520	73	5078
2026-01-15 07:50:56.28	104.57	10.26	-53.9	-56.7	13.4	0.00e+00	0	27	0	154140672	73	5101
2026-01-15 07:50:57.27	104.50	10.34	-53.8	-56.6	13.5	0.00e+00	0	27	0	156237824	73	5049
2026-01-15 07:50:58.27	104.43	10.43	-53.9	-56.7	13.4	0.00e+00	0	27	0	157286400	73	5104
2026-01-15 07:50:59.27	104.36	10.51	-54.0	-56.8	13.4	0.00e+00	0	27	0	159383552	73	5170
2026-01-15 07:51:00.27	104.29	10.59	-53.9	-56.7	13.4	0.00e+00	0	27	0	161480704	73	5136
2026-01-15 07:51:01.28	104.22	10.67	-53.9	-56.6	13.5	0.00e+00	0	27	0	163577856	73	5086
2026-01-15 07:51:02.28	104.15	10.76	-53.9	-56.6	13.5	0.00e+00	0	27	0	165675008	73	5079
2026-01-15 07:51:03.28	104.07	10.84	-53.8	-56.5	13.5	0.00e+00	0	27	0	166723584	73	5021
2026-01-15 07:51:04.28	104.00	10.92	-53.8	-56.6	13.5	0.00e+00	0	27	0	168820736	73	5048
2026-01-15 07:51:05.29	103.93	11.01	-53.7	-56.4	13.6	0.00e+00	0	27	0	170917888	73	4955
2026-01-15 07:51:06.29	103.85	11.09	-53.6	-56.3	13.6	0.00e+00	0	27	0	173015040	73	4902
2026-01-15 07:51:07.29	103.78	11.17	-53.9	-56.7	13.4	0.00e+00	0	27	0	175112192	73	5108
2026-01-15 07:51:08.30	103.70	11.26	-53.7	-56.4	13.6	0.00e+00	0	27	0	176160768	73	4951
2026-01-15 07:51:09.30	103.63	11.34	-53.8	-56.6	13.5	0.00e+00	0	27	0	178257920	73	5085
2026-01-15 07:51:10.31	103.55	11.43	-53.9	-56.7	13.4	0.00e+00	0	28	0	180355072	73	5148
2026-01-15 07:51:11.31	103.47	11.51	-53.9	-56.8	13.4	0.00e+00	0	27	0	182452224	73	5193
2026-01-15 07:51:12.31	103.40	11.60	-53.7	-56.5	13.5	0.00e+00	0	27	0	183500800	73	5018
2026-01-15 07:51:13.32	103.32	11.68	-53.6	-56.3	13.7	0.00e+00	0	27	0	185597952	73	4898
2026-01-15 07:51:14.33	103.24	11.77	-53.5	-56.1	13.7	0.00e+00	0	27	0	187695104	73	4812
2026-01-15 07:51:15.33	103.16	11.85	-53.5	-56.2	13.7	0.00e+00	0	27	0	189792256	73	4826
2026-01-15 07:51:16.34	103.08	11.94	-53.5	-56.2	13.7	0.00e+00	0	27	0	191889408	73	4855
2026-01-15 07:51:17.35	103.00	12.03	-53.4	-56.1	13.8	0.00e+00	0	27	0	192937984	73	4763
2026-01-15 07:51:18.35	102.92	12.11	-53.4	-55.9	13.8	0.00e+00	0	27	0	195035136	73	4697
2026-01-15 07:51:19.36	102.84	12.20	-53.4	-55.9	13.9	0.00e+00	0	27	0	197132288	73	4690
2026-01-15 07:51:20.37	102.76	12.29	-53.3	-55.9	13.8	0.00e+00	0	27	0	199229440	72	4955
2026-01-15 07:51:21.37	102.68	12.37	-53.2	-55.7	13.8	0.00e+00	0	27	0	201326592	72	4864
2026-01-15 07:51:22.38	102.60	12.46	-52.9	-55.3	14.1	0.00e+00	0	27	0	203423744	72	4603
2026-01-15 07:51:23.39	102.52	12.55	-53.3	-55.9	13.8	0.00e+00	0	27	0	204472320	72	4948
2026-01-15 07:51:24.40	102.43	12.64	-53.4	-55.9	13.8	0.00e+00	0	27	0	206569472	72	4979
2026-01-15 07:51:25.41	102.35	12.73	-53.2	-55.7	13.9	0.00e+00	0	27	0	208666624	72	4850
2026-01-15 07:51:26.41	102.26	12.82	-53.3	-55.8	13.8	0.00e+00	0	27	0	210763776	72	4891
2026-01-15 07:51:27.42	102.18	12.91	-53.2	-55.6	13.9	0.00e+00	0	28	0	212860928	72	4809
2026-01-15 07:51:28.43	102.09	13.00	-53.4	-55.9	13.8	0.00e+00	0	27	0	213909504	72	4954
2026-01-15 07:51:29.43	102.01	13.09	-53.2	-55.7	13.8	0.00e+00	0	27	0	216006656	72	4858
2026-01-15 07:51:30.44	101.92	13.18	-53.0	-55.4	14.0	0.00e+00	0	27	0	218103808	72	4655
2026-01-15 07:51:31.45	101.83	13.27	-53.2	-55.6	13.9	0.00e+00	0	27	0	220200960	72	4798
2026-01-15 07:51:32.46	101.75	13.36	-53.0	-55.4	14.0	0.00e+00	0	27	0	221249536	72	4688
2026-01-15 07:51:33.47	101.66	13.45	-53.0	-55.3	14.1	0.00e+00	0	27	0	223346688	72	4631
2026-01-15 07:51:34.47	101.57	13.54	-53.0	-55.3	14.1	0.00e+00	0	27	0	225443840	72	4612
2026-01-15 07:51:35.47	101.48	13.63	-53.0	-55.3	14.1	0.00e+00	0	27	0	227540992	72	4614
2026-01-15 07:51:36.48	101.39	13.72	-53.0	-55.3	14.0	0.00e+00	0	27	0	229638144	72	4633
2026-01-15 07:51:37.48	101.30	13.81	-53.0	-55.3	14.1	0.00e+00	0	28	0	231735296	72	4609
2026-01-15 07:51:38.49	101.21	13.90	-53.0	-55.3	14.0	0.00e+00	0	27	0	232783872	72	4637
2026-01-15 07:51:39.49	101.12	14.00	-53.1	-55.5	14.0	0.00e+00	0	28	0	234881024	72	4711
2026-01-15 07:51:40.49	101.03	14.09	-53.2	-55.5	13.9	0.00e+00	0	27	0	236978176	72	4742
2026-01-15 07:51:41.50	100.94	14.18	-53.3	-55.7	13.9	0.00e+00	0	27	0	239075328	72	4826
2026-01-15 07:51:42.51	100.84	14.28	-53.3	-55.7	13.9	0.00e+00	0	27	0	240123904	72	4820
2026-01-15 07:51:43.51	100.75	14.37	-53.2	-55.5	13.9	0.00e+00	0	28	0	242221056	72	4731
2026-01-15 07:51:44.52	100.66	14.46	-53.4	-55.9	13.8	0.00e+00	0	27	0	244318208	72	4936
2026-01-15 07:51:45.53	100.56	14.56	-53.3	-55.7	13.9	0.00e+00	0	28	0	246415360	72	4833
2026-01-15 07:51:46.54	100.46	14.65	-53.0	-55.3	14.1	0.00e+00	0	27	0	248512512	72	4622
2026-01-15 07:51:47.55	100.37	14.75	-53.3	-55.6	13.9	0.00e+00	0	27	0	249561088	72	4800
2026-01-15 07:51:48.55	100.27	14.84	-53.5	-56.0	13.8	0.00e+00	0	28	0	251658240	72	4995
2026-01-15 07:51:49.56	100.17	14.94	-53.4	-55.8	13.8	0.00e+00	0	28	0	253755392	72	4897
2026-01-15 07:51:50.55	100.08	15.03	-53.6	-56.2	13.6	0.00e+00	0	28	0	255852544	72	5108
2026-01-15 07:51:51.56	99.98	15.13	-53.6	-56.1	13.6	0.00e+00	0	28	0	257949696	72	5100
2026-01-15 07:51:52.56	99.88	15.22	-53.9	-56.6	13.5	0.00e+00	0	28	0	258998272	73	5069
2026-01-15 07:51:53.57	99.78	15.32	-53.7	-56.3	13.7	0.00e+00	0	27	0	261095424	73	4891
2026-01-15 07:51:54.57	99.68	15.41	-53.6	-56.2	13.8	0.00e+00	0	28	0	263192576	73	4836
2026-01-15 07:51:55.57	99.58	15.51	-53.6	-56.1	13.8	0.00e+00	0	28	0	265289728	73	4789
2026-01-15 07:51:56.57	99.48	15.61	-53.6	-56.1	13.8	0.00e+00	0	27	0	267386880	73	4814
2026-01-15 07:51:57.58	99.37	15.70	-53.6	-56.1	13.8	0.00e+00	0	28	0	268435456	73	4786
2026-01-15 07:51:58.58	99.27	15.80	-53.7	-56.3	13.7	0.00e+00	0	28	0	270532608	73	4902
2026-01-15 07:51:59.59	99.17	15.90	-53.7	-56.3	13.7	0.00e+00	0	28	0	272629760	73	4897
2026-01-15 07:52:00.59	99.06	16.00	-53.9	-56.5	13.6	0.00e+00	0	28	0	274726912	73	5031
2026-01-15 07:52:01.60	98.96	16.10	-53.8	-56.5	13.6	0.00e+00	0	27	0	276824064	73	5015
2026-01-15 07:52:02.60	98.85	16.20	-53.7	-56.2	13.8	0.00e+00	0	28	0	277872640	73	4856
2026-01-15 07:52:03.61	98.74	16.30	-53.6	-56.1	13.8	0.00e+00	0	27	0	279969792	73	4795
2026-01-15 07:52:04.61	98.63	16.39	-53.5	-56.0	13.9	0.00e+00	0	27	0	282066944	73	4724
2026-01-15 07:52:05.62	98.53	16.49	-53.3	-55.6	14.1	0.00e+00	0	27	0	284164096	73	4512
2026-01-15 07:52:06.62	98.42	16.59	-53.4	-55.8	14.0	0.00e+00	0	28	0	286261248	73	4605
2026-01-15 07:52:07.63	98.31	16.69	-53.1	-55.3	14.1	0.00e+00	0	27	0	287309824	72	4622
2026-01-15 07:52:08.63	98.20	16.79	-53.3	-55.6	14.0	0.00e+00	0	28	0	289406976	72	4806
2026-01-15 07:52:09.64	98.09	16.90	-53.3	-55.6	14.0	0.00e+00	0	28	0	291504128	72	4763
2026-01-15 07:52:10.64	97.97	17.00	-53.3	-55.5	14.0	0.00e+00	0	28	0	293601280	72	4750
2026-01-15 07:52:11.64	97.86	17.10	-53.0	-55.2	14.1	0.00e+00	0	27	0	295698432	72	4560
2026-01-15 07:52:12.64	97.75	17.20	-52.8	-54.9	14.3	0.00e+00	0	27	0	296747008	72	4414
2026-01-15 07:52:13.64	97.63	17.30	-52.8	-54.8	14.3	0.00e+00	0	28	0	298844160	72	4356
2026-01-15 07:52:14.65	97.52	17.40	-52.6	-54.6	14.3	0.00e+00	0	28	0	300941312	71	4505
2026-01-15 07:52:15.65	97.40	17.51	-52.5	-54.5	14.3	0.00e+00	0	27	0	303038464	71	4480
2026-01-15 07:52:16.66	97.29	17.61	-52.8	-54.8	14.2	0.00e+00	0	28	0	305135616	71	4648
2026-01-15 07:52:17.67	97.17	17.71	-52.7	-54.8	14.2	0.00e+00	0	27	0	306184192	71	4610
2026-01-15 07:52:18.68	97.05	17.82	-52.7	-54.7	14.3	0.00e+00	0	27	0	308281344	71	4560
2026-01-15 07:52:19.69	96.93	17.92	-52.8	-54.8	14.2	0.00e+00	0	27	0	310378496	71	4650
2026-01-15 07:52:20.69	96.81	18.03	-52.8	-54.8	14.2	0.00e+00	0	27	0	312475648	71	4649
2026-01-15 07:52:21.69	96.69	18.13	-52.9	-55.0	14.1	0.00e+00	0	27	0	314572800	71	4736
2026-01-15 07:52:22.69	96.57	18.23	-53.0	-55.1	14.1	0.00e+00	0	28	0	315621376	71	4810
2026-01-15 07:52:23.70	96.44	18.34	-53.1	-55.2	14.1	0.00e+00	0	27	0	317718528	71	4859
2026-01-15 07:52:24.71	96.32	18.45	-53.3	-55.5	13.9	0.00e+00	0	28	0	319815680	71	5001
2026-01-15 07:52:25.71	96.19	18.55	-53.3	-55.5	13.9	0.00e+00	0	28	0	321912832	71	5018
2026-01-15 07:52:26.71	96.07	18.66	-53.4	-55.7	13.9	0.00e+00	0	27	0	322961408	72	4841
2026-01-15 07:52:27.72	95.94	18.76	-53.4	-55.7	13.9	0.00e+00	0	27	0	325058560	72	4832
2026-01-15 07:52:28.72	95.82	18.87	-53.4	-55.7	13.9	0.00e+00	0	28	0	327155712	72	4836
2026-01-15 07:52:29.73	95.69	18.98	-53.3	-55.6	14.0	0.00e+00	0	27	0	329252864	72	4782
2026-01-15 07:52:30.73	95.56	19.08	-53.3	-55.5	14.0	0.00e+00	0	27	0	331350016	72	4757
2026-01-15 07:52:31.73	95.43	19.19	-53.3	-55.6	14.0	0.00e+00	0	28	0	333447168	72	4785
2026-01-15 07:52:32.74	95.30	19.30	-53.1	-55.3	14.1	0.00e+00	0	28	0	334495744	72	4619
2026-01-15 07:52:33.74	95.17	19.41	-53.0	-55.2	14.2	0.00e+00	0	28	0	336592896	72	4596
2026-01-15 07:52:34.75	95.03	19.52	-53.2	-55.5	14.0	0.00e+00	0	28	0	338690048	72	4731
2026-01-15 07:52:35.75	94.90	19.63	-53.2	-55.5	14.0	0.00e+00	0	28	0	340787200	72	4727
2026-01-15 07:52:36.76	94.76	19.74	-53.3	-55.6	14.0	0.00e+00	0	28	0	341835776	72	4766
2026-01-15 07:52:37.77	94.63	19.85	-53.4	-55.9	13.9	0.00e+00	0	28	0	343932928	72	4927
2026-01-15 07:52:38.77	94.49	19.96	-53.6	-56.0	13.8	0.00e+00	0	27	0	346030080	72	5013
2026-01-15 07:52:39.77	94.35	20.06	-53.7	-56.2	13.7	0.00e+00	0	28	0	348127232	72	5128
2026-01-15 07:52:40.77	94.22	20.17	-53.6	-56.1	13.8	0.00e+00	0	28	0	350224384	72	5065
2026-01-15 07:52:41.77	94.08	20.29	-53.4	-55.8	13.9	0.00e+00	0	28	0	351272960	72	4878
2026-01-15 07:52:42.78	93.94	20.40	-53.5	-55.9	13.9	0.00e+00	0	28	0	353370112	72	4956
2026-01-15 07:52:43.78	93.79	20.51	-53.6	-56.1	13.8	0.00e+00	0	28	0	355467264	72	5045
2026-01-15 07:52:44.79	93.65	20.62	-53.8	-56.4	13.7	0.00e+00	0	27	0	357564416	72	5267
2026-01-15 07:52:45.79	93.51	20.73	-53.8	-56.4	13.7	0.00e+00	0	28	0	359661568	73	4953
2026-01-15 07:52:46.80	93.36	20.84	-54.0	-56.5	13.6	0.00e+00	0	27	0	360710144	73	5041
2026-01-15 07:52:47.81	93.22	20.96	-54.2	-57.0	13.4	0.00e+00	0	27	0	362807296	73	5292
2026-01-15 07:52:48.81	93.07	21.07	-54.0	-56.6	13.7	0.00e+00	0	28	0	364904448	73	5042
2026-01-15 07:52:49.82	92.92	21.18	-53.9	-56.5	13.7	0.00e+00	0	27	0	367001600	73	4987
2026-01-15 07:52:50.82	92.77	21.30	-53.9	-56.4	13.7	0.00e+00	0	28	0	369098752	73	4949
2026-01-15 07:52:51.82	92.62	21.41	-53.9	-56.4	13.7	0.00e+00	0	28	0	370147328	73	4955
2026-01-15 07:52:52.82	92.47	21.52	-54.1	-56.7	13.6	0.00e+00	0	27	0	372244480	73	5117
2026-01-15 07:52:53.82	92.32	21.64	-54.0	-56.6	13.6	0.00e+00	0	27	0	374341632	73	5061
2026-01-15 07:52:54.83	92.16	21.75	-54.2	-56.8	13.6	0.00e+00	0	28	0	376438784	73	5200
2026-01-15 07:52:55.83	92.01	21.87	-54.4	-57.2	13.4	0.00e+00	0	28	0	378535936	74	5134
2026-01-15 07:52:56.83	91.85	21.98	-54.3	-57.0	13.5	0.00e+00	0	27	0	379584512	74	4989
2026-01-15 07:52:57.83	91.70	22.10	-54.1	-56.6	13.7	0.00e+00	0	28	0	381681664	74	4797
2026-01-15 07:52:58.83	91.54	22.21	-53.8	-56.3	13.8	0.00e+00	0	28	0	383778816	74	4635
2026-01-15 07:52:59.84	91.38	22.33	-53.8	-56.3	13.9	0.00e+00	0	27	0	385875968	74	4636
2026-01-15 07:53:00.84	91.22	22.44	-53.6	-56.0	13.8	0.00e+00	0	28	0	387973120	73	4733
2026-01-15 07:53:01.84	91.06	22.56	-53.4	-55.7	14.1	0.00e+00	0	28	0	389021696	73	4586
2026-01-15 07:53:02.85	90.89	22.68	-53.3	-55.6	14.2	0.00e+00	0	28	0	391118848	73	4529
2026-01-15 07:53:03.85	90.73	22.80	-53.3	-55.6	14.1	0.00e+00	0	27	0	393216000	73	4538
2026-01-15 07:53:04.85	90.56	22.91	-53.2	-55.4	14.2	0.00e+00	0	28	0	395313152	73	4439
2026-01-15 07:53:05.86	90.39	23.03	-52.9	-55.1	14.3	0.00e+00	0	27	0	396361728	72	4505
2026-01-15 07:53:06.86	90.23	23.15	-53.0	-55.2	14.2	0.00e+00	0	28	0	398458880	72	4562
2026-01-15 07:53:07.87	90.06	23.27	-53.1	-55.3	14.2	0.00e+00	0	28	0	400556032	72	4617
2026-01-15 07:53:08.88	89.88	23.39	-53.0	-55.2	14.2	0.00e+00	0	28	0	402653184	72	4570
2026-01-15 07:53:09.88	89.71	23.50	-53.0	-55.3	14.2	0.00e+00	0	28	0	404750336	72	4612
2026-01-15 07:53:10.88	89.54	23.62	-53.0	-55.2	14.2	0.00e+00	0	28	0	406847488	72	4591
2026-01-15 07:53:11.88	89.36	23.74	-53.0	-55.3	14.2	0.00e+00	0	28	0	407896064	72	4620
2026-01-15 07:53:12.88	89.19	23.86	-52.8	-55.0	14.3	0.00e+00	0	28	0	409993216	72	4454
2026-01-15 07:53:13.88	89.01	23.98	-53.0	-55.2	14.2	0.00e+00	0	28	0	412090368	72	4575
2026-01-15 07:53:14.89	88.83	24.10	-52.9	-55.1	14.3	0.00e+00	0	28	0	414187520	72	4494
2026-01-15 07:53:15.88	88.65	24.22	-52.9	-55.0	14.3	0.00e+00	0	28	0	415236096	72	4446
2026-01-15 07:53:16.89	88.47	24.34	-52.9	-55.0	14.4	0.00e+00	0	28	0	417333248	72	4470
2026-01-15 07:53:17.90	88.28	24.46	-53.0	-55.0	14.3	0.00e+00	0	28	0	419430400	72	4487
2026-01-15 07:53:18.90	88.10	24.58	-53.1	-55.2	14.2	0.00e+00	0	28	0	421527552	72	4581
2026-01-15 07:53:19.90	87.91	24.70	-53.4	-55.6	14.0	0.00e+00	0	28	0	423624704	72	4790
2026-01-15 07:53:20.91	87.73	24.83	-53.5	-55.8	13.9	0.00e+00	0	28	0	424673280	72	4882
2026-01-15 07:53:21.91	87.54	24.95	-53.8	-56.3	13.8	0.00e+00	0	28	0	426770432	72	5179
2026-01-15 07:53:22.91	87.35	25.07	-54.0	-56.6	13.7	0.00e+00	0	28	0	428867584	73	5075
2026-01-15 07:53:23.91	87.16	25.19	-54.0	-56.5	13.7	0.00e+00	0	28	0	430964736	73	5035
2026-01-15 07:53:24.91	86.96	25.31	-54.0	-56.5	13.8	0.00e+00	0	28	0	433061888	73	5028
2026-01-15 07:53:25.91	86.77	25.43	-54.3	-57.1	13.4	0.00e+00	0	28	0	434110464	73	5370
2026-01-15 07:53:26.91	86.57	25.56	-54.2	-57.0	13.6	0.00e+00	0	28	0	436207616	74	4997
2026-01-15 07:53:27.92	86.37	25.68	-54.5	-57.3	13.4	0.00e+00	0	28	0	438304768	74	5192
2026-01-15 07:53:28.92	86.17	25.80	-54.6	-57.5	13.3	0.00e+00	0	28	0	440401920	74	5319
2026-01-15 07:53:29.93	85.97	25.93	-54.7	-57.7	13.2	0.00e+00	0	28	0	442499072	74	5424
2026-01-15 07:53:30.92	85.77	26.05	-54.7	-57.7	13.2	0.00e+00	0	28	0	443547648	74	5434
2026-01-15 07:53:31.93	85.56	26.17	-54.7	-57.8	13.1	0.00e+00	0	28	0	445644800	74	5506
2026-01-15 07:53:32.94	85.36	26.30	-54.7	-57.9	13.0	0.00e+00	0	28	0	447741952	74	5530
2026-01-15 07:53:33.94	85.15	26.42	-54.8	-58.0	13.1	0.00e+00	0	28	0	449839104	75	5316
2026-01-15 07:53:34.95	84.94	26.54	-55.0	-58.3	12.9	0.00e+00	0	28	0	451936256	75	5487
2026-01-15 07:53:35.95	84.73	26.67	-55.0	-58.3	13.0	0.00e+00	0	28	0	452984832	75	5485
2026-01-15 07:53:36.95	84.52	26.79	-55.0	-58.3	12.9	0.00e+00	0	28	0	455081984	75	5493
2026-01-15 07:53:37.95	84.30	26.92	-54.8	-58.1	13.1	0.00e+00	0	28	0	457179136	75	5355
2026-01-15 07:53:38.96	84.09	27.04	-54.7	-57.9	13.2	0.00e+00	0	28	0	459276288	75	5243
2026-01-15 07:53:39.97	83.87	27.17	-54.6	-57.8	13.2	0.00e+00	0	28	0	460324864	75	5196
2026-01-15 07:53:40.97	83.65	27.29	-54.3	-57.2	13.5	0.00e+00	0	28	0	462422016	75	4827
2026-01-15 07:53:41.97	83.43	27.42	-54.3	-57.2	13.5	0.00e+00	0	28	0	464519168	74	5154
2026-01-15 07:53:42.98	83.20	27.54	-54.1	-56.9	13.6	0.00e+00	0	28	0	466616320	74	4959
2026-01-15 07:53:43.98	82.98	27.67	-53.9	-56.6	13.7	0.00e+00	0	28	0	468713472	73	5061
2026-01-15 07:53:44.98	82.75	27.79	-53.6	-56.2	13.9	0.00e+00	0	28	0	470810624	73	4829
2026-01-15 07:53:45.98	82.52	27.91	-53.6	-56.0	14.0	0.00e+00	0	28	0	471859200	73	4730
2026-01-15 07:53:46.98	82.29	28.04	-53.7	-56.2	13.9	0.00e+00	0	28	0	473956352	73	4846
2026-01-15 07:53:47.99	82.06	28.17	-53.9	-56.5	13.7	0.00e+00	0	28	0	476053504	73	4997
2026-01-15 07:53:48.99	81.83	28.29	-53.8	-56.3	13.8	0.00e+00	0	28	0	478150656	73	4890
2026-01-15 07:53:49.99	81.59	28.41	-53.9	-56.4	13.8	0.00e+00	0	28	0	479199232	73	4970
2026-01-15 07:53:50.99	81.36	28.54	-54.0	-56.6	13.7	0.00e+00	0	28	0	481296384	73	5069
2026-01-15 07:53:51.99	81.12	28.66	-54.1	-56.7	13.6	0.00e+00	0	28	0	483393536	73	5145
2026-01-15 07:53:53.00	80.87	28.79	-54.0	-56.6	13.7	0.00e+00	0	28	0	485490688	73	5095
2026-01-15 07:53:54.00	80.63	28.92	-54.0	-56.7	13.6	0.00e+00	0	27	0	487587840	73	5102
2026-01-15 07:53:55.00	80.39	29.04	-54.0	-56.6	13.7	0.00e+00	0	28	0	488636416	73	5077
2026-01-15 07:53:56.01	80.14	29.17	-53.8	-56.3	13.8	0.00e+00	0	28	0	490733568	73	4889
2026-01-15 07:53:57.01	79.89	29.29	-53.7	-56.2	13.9	0.00e+00	0	28	0	492830720	73	4840
2026-01-15 07:53:58.01	79.64	29.41	-54.2	-56.9	13.5	0.00e+00	0	28	0	494927872	73	5250
2026-01-15 07:53:59.02	79.39	29.54	-54.2	-57.1	13.4	0.00e+00	0	28	0	497025024	73	5374
2026-01-15 07:54:00.03	79.13	29.67	-54.5	-57.6	13.3	0.00e+00	0	28	0	498073600	74	5372
2026-01-15 07:54:01.03	78.87	29.79	-54.4	-57.4	13.4	0.00e+00	0	28	0	500170752	74	5260
2026-01-15 07:54:02.03	78.61	29.91	-54.4	-57.3	13.4	0.00e+00	0	28	0	502267904	74	5193
2026-01-15 07:54:03.03	78.35	30.04	-54.4	-57.2	13.5	0.00e+00	0	28	0	504365056	74	5105
2026-01-15 07:54:04.04	78.09	30.16	-54.2	-56.8	13.7	0.00e+00	0	28	0	506462208	74	4918
2026-01-15 07:54:05.04	77.82	30.29	-54.4	-57.2	13.5	0.00e+00	0	28	0	507510784	74	5147
2026-01-15 07:54:06.05	77.56	30.41	-54.6	-57.5	13.3	0.00e+00	0	28	0	509607936	74	5290
2026-01-15 07:54:07.05	77.29	30.54	-54.5	-57.3	13.5	0.00e+00	0	28	0	511705088	74	5167
2026-01-15 07:54:08.06	77.01	30.66	-54.0	-56.5	13.8	0.00e+00	0	28	0	513802240	74	4735
2026-01-15 07:54:09.06	76.74	30.78	-54.3	-57.0	13.6	0.00e+00	0	28	0	515899392	74	5016
2026-01-15 07:54:10.06	76.47	30.91	-54.3	-57.0	13.6	0.00e+00	0	28	0	516947968	74	5039
2026-01-15 07:54:11.06	76.19	31.03	-54.4	-57.2	13.5	0.00e+00	0	28	0	519045120	74	5108
2026-01-15 07:54:12.07	75.91	31.15	-54.5	-57.5	13.3	0.00e+00	0	28	0	521142272	74	5309
2026-01-15 07:54:13.07	75.63	31.27	-54.5	-57.4	13.4	0.00e+00	0	28	0	523239424	74	5244
2026-01-15 07:54:14.08	75.34	31.40	-54.5	-57.4	13.4	0.00e+00	0	28	0	525336576	74	5245
2026-01-15 07:54:15.09	75.05	31.52	-54.5	-57.4	13.4	0.00e+00	0	28	0	526385152	74	5263
2026-01-15 07:54:16.09	74.77	31.64	-54.7	-57.9	13.1	0.00e+00	0	28	0	528482304	74	5564
2026-01-15 07:54:17.09	74.48	31.76	-54.8	-58.2	13.0	0.00e+00	0	28	0	530579456	74	5730
2026-01-15 07:54:18.10	74.18	31.88	-55.0	-58.6	12.7	0.00e+00	0	28	0	532676608	75	5669
2026-01-15 07:54:19.10	73.89	32.00	-55.2	-58.9	12.4	0.00e+00	0	28	0	533725184	75	5879
2026-01-15 07:54:20.10	73.59	32.12	-55.1	-58.8	12.5	0.00e+00	0	28	0	535822336	75	5826
2026-01-15 07:54:21.10	73.29	32.24	-55.1	-58.9	12.4	0.00e+00	0	28	0	537919488	75	5903
2026-01-15 07:54:22.10	72.99	32.36	-55.0	-58.6	12.6	0.00e+00	0	28	0	540016640	75	5705
2026-01-15 07:54:23.10	72.69	32.48	-54.9	-58.5	12.7	0.00e+00	0	28	0	542113792	75	5655
2026-01-15 07:54:24.11	72.38	32.60	-55.0	-58.8	12.5	0.00e+00	0	28	0	543162368	75	5840
2026-01-15 07:54:25.12	72.07	32.72	-55.3	-59.4	12.2	0.00e+00	0	28	0	545259520	75	6246
2026-01-15 07:54:26.12	71.76	32.84	-55.4	-59.5	12.2	7.00e-07	0	28	0	547356672	75	6276
2026-01-15 07:54:27.12	71.45	32.95	-55.4	-59.3	12.4	0.00e+00	0	28	0	549453824	76	5822
2026-01-15 07:54:28.13	71.13	33.07	-55.4	-59.3	12.3	0.00e+00	0	28	0	551550976	76	5847
2026-01-15 07:54:29.13	70.81	33.19	-55.4	-59.3	12.4	0.00e+00	0	28	0	552599552	76	5805
2026-01-15 07:54:30.14	70.49	33.30	-55.8	-59.9	12.0	0.00e+00	0	28	0	554696704	76	6226
2026-01-15 07:54:31.14	70.17	33.42	-56.1	-60.5	11.6	5.30e-06	0	28	0	556793856	77	6321
2026-01-15 07:54:32.15	69.84	33.53	-56.3	-61.0	11.4	1.52e-05	0	28	0	558891008	77	6677
2026-01-15 07:54:33.15	69.52	33.64	-56.4	-61.4	11.1	3.66e-05	0	28	0	560988160	78	6630
2026-01-15 07:54:34.16	69.19	33.76	-56.6	-62.2	10.3	1.51e-04	0	28	0	562036736	78	7255
2026-01-15 07:54:35.16	68.86	33.87	-56.7	-62.3	10.5	1.26e-03	0	28	0	564133888	79	6895
2026-01-15 07:54:36.16	68.53	33.98	-56.8	-62.6	10.2	6.42e-04	0	28	0	566231040	79	7196
2026-01-15 07:54:37.16	68.19	34.09	-56.4	-61.4	11.0	1.63e-04	0	28	0	568328192	79	6248
2026-01-15 07:54:38.17	67.85	34.20	-55.6	-59.6	12.2	0.00e+00	0	28	0	570425344	77	5691
2026-01-15 07:54:39.18	67.51	34.31	-55.2	-58.9	12.6	0.00e+00	0	28	0	571473920	76	5536
2026-01-15 07:54:40.19	67.16	34.42	-54.8	-58.3	12.8	0.00e+00	0	28	0	573571072	75	5471
2026-01-15 07:54:41.19	66.82	34.53	-54.9	-58.4	12.8	0.00e+00	0	28	0	575668224	75	5566
2026-01-15 07:54:42.19	66.47	34.63	-54.8	-58.4	12.7	0.00e+00	0	28	0	577765376	75	5551
2026-01-15 07:54:43.19	66.12	34.74	-55.4	-59.6	12.1	0.00e+00	0	28	0	579862528	75	6351
2026-01-15 07:54:44.20	65.77	34.85	-55.7	-60.1	11.9	7.00e-07	0	28	0	580911104	76	6390
2026-01-15 07:54:45.21	65.41	34.95	-55.6	-60.0	11.9	7.00e-07	0	28	0	583008256	76	6337
2026-01-15 07:54:46.21	65.06	35.05	-55.7	-60.3	11.7	7.00e-07	0	28	0	585105408	76	6507
2026-01-15 07:54:47.22	64.70	35.16	-55.6	-59.8	12.1	0.00e+00	0	28	0	587202560	76	6167
2026-01-15 07:54:48.22	64.34	35.26	-55.4	-59.5	12.3	4.50e-06	0	28	0	589299712	76	5960
2026-01-15 07:54:49.23	63.97	35.36	-55.5	-59.7	12.1	0.00e+00	0	28	0	590348288	76	6117
2026-01-15 07:54:50.23	63.61	35.46	-56.0	-60.6	11.6	7.00e-07	0	28	0	592445440	77	6381
2026-01-15 07:54:51.24	63.24	35.56	-55.7	-60.1	12.0	0.00e+00	0	28	0	594542592	77	5993
2026-01-15 07:54:52.24	62.87	35.65	-55.8	-60.2	11.9	6.10e-06	0	28	0	596639744	77	6098
2026-01-15 07:54:53.25	62.49	35.75	-55.7	-59.7	12.2	0.00e+00	0	28	0	598736896	77	5763
2026-01-15 07:54:54.26	62.12	35.85	-55.4	-59.1	12.6	0.00e+00	0	28	0	599785472	77	5392
2026-01-15 07:54:55.26	61.74	35.94	-54.8	-58.1	13.1	0.00e+00	0	28	0	601882624	76	5065
2026-01-15 07:54:56.27	61.36	36.03	-54.5	-57.6	13.2	0.00e+00	0	28	0	603979776	75	5092
2026-01-15 07:54:57.28	60.98	36.13	-54.3	-57.4	13.3	0.00e+00	0	28	0	606076928	75	4938
2026-01-15 07:54:58.28	60.59	36.22	-54.1	-57.1	13.4	0.00e+00	0	28	0	608174080	74	5100
2026-01-15 07:54:59.28	60.21	36.30	-53.8	-56.8	13.6	0.00e+00	0	28	0	609222656	74	4881
2026-01-15 07:55:00.28	59.82	36.39	-53.6	-56.5	13.6	0.00e+00	0	28	0	611319808	73	5012
2026-01-15 07:55:01.29	59.43	36.48	-53.5	-56.4	13.7	0.00e+00	0	28	0	613416960	73	4941
2026-01-15 07:55:02.30	59.04	36.56	-53.7	-56.7	13.5	0.00e+00	0	28	0	615514112	73	5116
2026-01-15 07:55:03.30	58.65	36.65	-53.7	-56.6	13.6	0.00e+00	0	28	0	617611264	73	5069
2026-01-15 07:55:04.31	58.25	36.73	-53.8	-56.7	13.6	0.00e+00	0	28	0	618659840	73	5115
2026-01-15 07:55:05.30	57.86	36.81	-53.4	-56.1	13.9	0.00e+00	0	28	0	620756992	73	4788
2026-01-15 07:55:06.31	57.45	36.89	-53.4	-56.2	13.7	0.00e+00	0	28	0	622854144	72	5119
2026-01-15 07:55:07.32	57.05	36.97	-53.1	-55.7	14.0	0.00e+00	0	28	0	624951296	72	4837
2026-01-15 07:55:08.32	56.65	37.05	-52.9	-55.3	14.2	0.00e+00	0	28	0	627048448	72	4630
2026-01-15 07:55:09.33	56.24	37.12	-52.9	-55.3	14.2	0.00e+00	0	28	0	628097024	72	4601
2026-01-15 07:55:10.33	55.83	37.20	-53.1	-55.6	14.0	0.00e+00	0	28	0	630194176	72	4775
2026-01-15 07:55:11.33	55.43	37.27	-53.2	-55.8	13.9	0.00e+00	0	28	0	632291328	72	4904
2026-01-15 07:55:12.33	55.02	37.34	-53.2	-55.8	13.9	0.00e+00	0	28	0	634388480	72	4889
2026-01-15 07:55:13.34	54.60	37.41	-53.1	-55.7	13.9	0.00e+00	0	28	0	635437056	72	4858
2026-01-15 07:55:14.34	54.19	37.48	-53.1	-55.7	13.9	0.00e+00	0	28	0	637534208	72	4844
2026-01-15 07:55:15.35	53.77	37.55	-53.6	-56.4	13.6	0.00e+00	0	28	0	639631360	72	5267
2026-01-15 07:55:16.36	53.35	37.61	-53.5	-56.5	13.6	0.00e+00	0	28	0	641728512	72	5306
2026-01-15 07:55:17.36	52.93	37.68	-53.4	-56.3	13.6	0.00e+00	0	28	0	643825664	72	5187
2026-01-15 07:55:18.36	52.51	37.74	-53.0	-55.6	14.0	0.00e+00	0	28	0	644874240	72	4783
2026-01-15 07:55:19.36	52.09	37.80	-52.6	-54.9	14.2	0.00e+00	0	28	0	646971392	71	4690
2026-01-15 07:55:20.37	51.66	37.86	-51.7	-53.7	14.6	0.00e+00	0	28	0	649068544	70	4306
2026-01-15 07:55:21.38	51.24	37.91	-51.1	-52.9	14.7	0.00e+00	0	28	0	651165696	68	4393
2026-01-15 07:55:22.38	50.81	37.97	-51.1	-52.9	14.7	0.00e+00	0	28	0	653262848	68	4404
2026-01-15 07:55:23.38	50.38	38.02	-51.4	-53.3	14.5	0.00e+00	0	28	0	654311424	68	4651
2026-01-15 07:55:24.39	49.95	38.07	-51.8	-53.7	14.4	0.00e+00	0	28	0	656408576	68	4852
2026-01-15 07:55:25.40	49.52	38.12	-51.6	-53.4	14.6	0.00e+00	0	28	0	658505728	69	4441
2026-01-15 07:55:26.40	49.08	38.17	-51.6	-53.5	14.6	0.00e+00	0	28	0	660602880	69	4460
2026-01-15 07:55:27.40	48.65	38.21	-51.9	-53.8	14.5	0.00e+00	0	28	0	662700032	69	4647
2026-01-15 07:55:28.40	48.22	38.26	-52.2	-54.1	14.4	0.00e+00	0	28	0	663748608	69	4810
2026-01-15 07:55:29.41	47.78	38.30	-52.5	-54.6	14.3	0.00e+00	0	28	0	665845760	70	4763
2026-01-15 07:55:30.40	47.35	38.34	-52.7	-54.8	14.2	0.00e+00	0	28	0	667942912	70	4892
2026-01-15 07:55:31.41	46.91	38.38	-52.6	-54.6	14.3	0.00e+00	0	28	0	670040064	70	4794
2026-01-15 07:55:32.41	46.47	38.42	-52.5	-54.6	14.3	0.00e+00	0	28	0	672137216	70	4767
2026-01-15 07:55:33.42	46.03	38.45	-52.3	-54.3	14.4	0.00e+00	0	28	0	673185792	70	4635
2026-01-15 07:55:34.43	45.58	38.48	-52.2	-54.1	14.5	0.00e+00	0	28	0	675282944	70	4543
2026-01-15 07:55:35.42	45.15	38.52	-52.0	-53.9	14.6	0.00e+00	0	28	0	677380096	70	4431
2026-01-15 07:55:36.43	44.70	38.54	-52.0	-53.9	14.6	0.00e+00	0	28	0	679477248	70	4394
2026-01-15 07:55:37.44	44.25	38.57	-52.3	-54.2	14.4	0.00e+00	0	28	0	681574400	70	4572
2026-01-15 07:55:38.44	43.81	38.60	-52.4	-54.4	14.4	0.00e+00	0	28	0	682622976	70	4677
2026-01-15 07:55:39.43	43.37	38.62	-52.6	-54.6	14.3	0.00e+00	0	28	0	684720128	70	4764
2026-01-15 07:55:40.43	42.93	38.64	-52.3	-54.2	14.5	0.00e+00	0	28	0	686817280	70	4548
2026-01-15 07:55:41.43	42.48	38.66	-52.2	-54.1	14.5	0.00e+00	0	28	0	688914432	70	4494
2026-01-15 07:55:42.43	42.04	38.68	-52.1	-54.0	14.6	0.00e+00	0	28	0	691011584	70	4447
2026-01-15 07:55:43.43	41.59	38.69	-52.0	-53.9	14.6	0.00e+00	0	28	0	692060160	70	4427
2026-01-15 07:55:44.44	41.14	38.71	-52.4	-54.4	14.4	0.00e+00	0	28	0	694157312	70	4666
2026-01-15 07:55:45.45	40.69	38.72	-53.0	-55.2	14.1	0.00e+00	0	28	0	696254464	71	4829
2026-01-15 07:55:46.46	40.24	38.73	-53.3	-55.6	13.9	0.00e+00	0	28	0	698351616	71	5093
2026-01-15 07:55:47.46	39.79	38.74	-53.6	-56.1	13.8	0.00e+00	0	28	0	699400192	72	5064
2026-01-15 07:55:48.47	39.34	38.74	-53.5	-56.0	13.9	0.00e+00	0	28	0	701497344	72	5015
2026-01-15 07:55:49.48	38.89	38.74	-53.7	-56.3	13.8	0.00e+00	0	28	0	703594496	72	5208
2026-01-15 07:55:50.48	38.44	38.75	-53.9	-56.7	13.6	0.00e+00	0	28	0	705691648	72	5407
2026-01-15 07:55:51.48	38.00	38.75	-54.0	-56.8	13.5	0.00e+00	0	28	0	707788800	73	5180
2026-01-15 07:55:52.48	37.55	38.74	-53.8	-56.3	13.8	0.00e+00	0	28	0	708837376	73	4913
2026-01-15 07:55:53.49	37.10	38.74	-53.8	-56.3	13.8	0.00e+00	0	28	0	710934528	73	4909
2026-01-15 07:55:54.50	36.65	38.73	-53.9	-56.5	13.7	0.00e+00	0	28	0	713031680	73	5021
2026-01-15 07:55:55.50	36.20	38.72	-53.8	-56.4	13.7	0.00e+00	0	28	0	715128832	73	4960
2026-01-15 07:55:56.51	35.75	38.71	-53.8	-56.4	13.7	0.00e+00	0	28	0	717225984	73	4944
2026-01-15 07:55:57.51	35.30	38.70	-53.8	-56.4	13.8	0.00e+00	0	28	0	718274560	73	4940
2026-01-15 07:55:58.52	34.85	38.69	-54.2	-57.0	13.5	0.00e+00	0	28	0	720371712	73	5318
2026-01-15 07:55:59.52	34.41	38.67	-54.1	-56.9	13.5	0.00e+00	0	28	0	722468864	73	5254
2026-01-15 07:56:00.52	33.96	38.65	-54.2	-57.1	13.5	0.00e+00	0	28	0	724566016	73	5371
2026-01-15 07:56:01.53	33.51	38.63	-54.5	-57.6	13.2	0.00e+00	0	28	0	726663168	74	5384
2026-01-15 07:56:02.53	33.07	38.61	-55.0	-58.5	12.9	0.00e+00	0	28	0	727711744	75	5654
2026-01-15 07:56:03.54	32.62	38.58	-55.1	-58.7	12.7	0.00e+00	0	28	0	729808896	75	5766
2026-01-15 07:56:04.54	32.18	38.56	-55.3	-59.0	12.5	0.00e+00	0	28	0	731906048	75	5992
2026-01-15 07:56:05.54	31.74	38.53	-55.1	-58.8	12.5	0.00e+00	0	28	0	734003200	75	5793
2026-01-15 07:56:06.54	31.30	38.50	-55.1	-58.8	12.6	0.00e+00	0	28	0	736100352	75	5802
2026-01-15 07:56:07.55	30.85	38.47	-54.8	-58.3	12.9	0.00e+00	0	28	0	737148928	75	5475
2026-01-15 07:56:08.56	30.41	38.43	-54.9	-58.5	12.8	0.00e+00	0	28	0	739246080	75	5639
2026-01-15 07:56:09.56	29.97	38.40	-55.1	-59.0	12.5	0.00e+00	0	28	0	741343232	75	5990
2026-01-15 07:56:10.57	29.53	38.36	-55.6	-60.1	12.0	7.00e-07	0	28	0	743440384	76	6414
2026-01-15 07:56:11.57	29.10	38.32	-55.5	-59.7	12.1	0.00e+00	0	28	0	745537536	76	6115
2026-01-15 07:56:12.56	28.66	38.28	-55.1	-59.0	12.6	0.00e+00	0	28	0	746586112	76	5630
2026-01-15 07:56:13.56	28.23	38.23	-55.0	-58.8	12.7	0.00e+00	0	28	0	748683264	76	5499
2026-01-15 07:56:14.56	27.80	38.19	-54.9	-58.6	12.8	0.00e+00	0	28	0	750780416	76	5347
2026-01-15 07:56:15.56	27.37	38.14	-54.9	-58.6	12.8	0.00e+00	0	28	0	752877568	76	5385
2026-01-15 07:56:16.56	26.94	38.09	-55.0	-58.9	12.4	7.00e-07	0	28	0	753926144	75	5919
2026-01-15 07:56:17.56	26.51	38.04	-54.7	-58.5	12.7	0.00e+00	0	28	0	756023296	75	5624
2026-01-15 07:56:18.56	26.08	37.99	-54.2	-57.6	13.1	0.00e+00	0	28	0	758120448	74	5370
2026-01-15 07:56:19.56	25.66	37.94	-54.1	-57.5	13.3	0.00e+00	0	28	0	760217600	74	5287
2026-01-15 07:56:20.57	25.23	37.88	-54.6	-58.5	12.7	0.00e+00	0	28	0	762314752	74	5968
2026-01-15 07:56:21.58	24.80	37.82	-55.7	-61.1	11.1	9.10e-06	0	28	0	764411904	76	7159
2026-01-15 07:56:22.58	24.38	37.76	-56.2	-62.6	10.0	2.48e-04	0	28	0	765460480	77	8051
2026-01-15 07:56:23.58	23.96	37.70	-55.7	-60.9	11.1	1.40e-03	0	28	0	767557632	77	6609
2026-01-15 07:56:24.58	23.54	37.64	-54.9	-59.0	12.4	3.00e-06	0	28	0	769654784	76	5612
2026-01-15 07:56:25.59	23.12	37.58	-54.1	-57.5	13.2	0.00e+00	0	28	0	771751936	74	5322
2026-01-15 07:56:26.60	22.70	37.51	-54.0	-57.4	13.2	0.00e+00	0	28	0	772800512	74	5227
2026-01-15 07:56:27.60	22.29	37.44	-53.8	-57.0	13.5	0.00e+00	0	28	0	774897664	74	5013
2026-01-15 07:56:28.61	21.87	37.37	-53.9	-57.2	13.4	0.00e+00	0	28	0	776994816	74	5103
2026-01-15 07:56:29.61	21.46	37.30	-53.9	-57.2	13.3	0.00e+00	0	28	0	779091968	74	5123
2026-01-15 07:56:30.62	21.05	37.23	-54.2	-57.7	13.0	0.00e+00	0	28	0	781189120	74	5455
2026-01-15 07:56:31.63	20.64	37.16	-54.0	-57.2	13.4	0.00e+00	0	28	0	782237696	74	5105
2026-01-15 07:56:32.62	20.24	37.08	-53.6	-56.4	13.6	0.00e+00	0	28	0	784334848	73	4982
2026-01-15 07:56:33.63	19.83	37.01	-52.5	-54.8	14.2	0.00e+00	0	28	0	786432000	71	4645
2026-01-15 07:56:34.63	19.43	36.93	-52.1	-54.1	14.4	0.00e+00	0	28	0	788529152	70	4538
2026-01-15 07:56:35.64	19.03	36.85	-52.1	-54.2	14.4	0.00e+00	0	28	0	790626304	70	4562
2026-01-15 07:56:36.64	18.63	36.77	-52.0	-54.1	14.4	0.00e+00	0	28	0	791674880	70	4519
2026-01-15 07:56:37.65	18.23	36.69	-51.9	-53.9	14.5	0.00e+00	0	28	0	793772032	70	4422
2026-01-15 07:56:38.66	17.84	36.60	-52.0	-54.0	14.5	0.00e+00	0	28	0	795869184	70	4486
2026-01-15 07:56:39.67	17.44	36.52	-52.1	-54.2	14.4	0.00e+00	0	28	0	797966336	70	4592
2026-01-15 07:56:40.67	17.05	36.43	-52.4	-54.7	14.2	0.00e+00	0	28	0	800063488	70	4852
2026-01-15 07:56:41.67	16.67	36.35	-52.6	-55.0	14.1	0.00e+00	0	28	0	801112064	70	4987
2026-01-15 07:56:42.68	16.28	36.26	-52.6	-55.1	14.1	0.00e+00	0	28	0	803209216	70	5042
2026-01-15 07:56:43.68	15.90	36.17	-52.5	-54.8	14.2	0.00e+00	0	28	0	805306368	70	4921
2026-01-15 07:56:44.68	15.52	36.08	-52.1	-54.3	14.4	0.00e+00	0	28	0	807403520	70	4609
2026-01-15 07:56:45.69	15.14	35.98	-52.2	-54.2	14.4	0.00e+00	0	28	0	809500672	70	4593
2026-01-15 07:56:46.69	14.76	35.89	-52.3	-54.5	14.3	0.00e+00	0	28	0	810549248	70	4733
2026-01-15 07:56:47.70	14.38	35.80	-53.3	-56.0	13.8	0.00e+00	0	28	0	812646400	71	5292
2026-01-15 07:56:48.70	14.01	35.70	-53.9	-57.0	13.4	0.00e+00	0	28	0	814743552	72	5597
2026-01-15 07:56:49.70	13.64	35.60	-53.8	-56.8	13.6	0.00e+00	0	28	0	816840704	73	5169
2026-01-15 07:56:50.71	13.27	35.51	-53.7	-56.5	13.7	0.00e+00	0	28	0	818937856	73	5041
2026-01-15 07:56:51.72	12.90	35.41	-53.7	-56.4	13.8	0.00e+00	0	28	0	819986432	73	4966
2026-01-15 07:56:52.71	12.55	35.31	-53.7	-56.4	13.8	0.00e+00	0	28	0	822083584	73	4927
2026-01-15 07:56:53.72	12.18	35.21	-53.4	-55.9	14.0	0.00e+00	0	28	0	824180736	73	4702
2026-01-15 07:56:54.72	11.82	35.10	-53.1	-55.4	14.1	0.00e+00	0	28	0	826277888	72	4675
2026-01-15 07:56:55.73	11.46	35.00	-53.6	-56.1	13.8	0.00e+00	0	28	0	828375040	72	5096
2026-01-15 07:56:56.73	11.11	34.90	-53.6	-56.1	13.8	0.00e+00	0	28	0	829423616	72	5098
2026-01-15 07:56:57.73	10.76	34.79	-53.5	-55.9	13.9	0.00e+00	0	28	0	831520768	72	4943
2026-01-15 07:56:58.73	10.41	34.69	-53.3	-55.7	14.0	0.00e+00	0	28	0	833617920	72	4834
2026-01-15 07:56:59.62	10.10	34.60	-53.6	-56.1	13.9	0.00e+00	0	28	0	835715072	72	5085
2026-01-15 07:57:00.72	9.72	34.48	-54.0	-56.7	13.5	0.00e+00	0	28	0	837812224	73	5146
2026-01-15 07:57:01.58	9.43	34.39	-53.8	-56.3	13.7	0.00e+00	0	28	0	838860800	73	4925
2026-01-15 07:57:02.72	9.04	34.26	-52.9	-55.1	14.2	0.00e+00	0	28	0	840957952	72	4505
2026-01-15 07:57:03.58	8.75	34.17	-52.9	-55.0	14.3	0.00e+00	0	28	0	843055104	72	4485
2026-01-15 07:57:04.73	8.37	34.04	-52.7	-54.8	14.3	0.00e+00	0	28	0	845152256	71	4645
2026-01-15 07:57:05.59	8.08	33.95	-53.4	-55.7	13.9	0.00e+00	0	28	0	846200832	71	5148
2026-01-15 07:57:06.74	7.70	33.82	-53.8	-56.3	13.7	0.00e+00	0	28	0	848297984	72	5201
2026-01-15 07:57:07.60	7.42	33.72	-54.1	-56.7	13.6	0.00e+00	0	28	0	850395136	73	5156
2026-01-15 07:57:08.75	7.04	33.59	-54.0	-56.5	13.7	0.00e+00	0	28	0	852492288	73	5012
2026-01-15 07:57:09.60	6.77	33.50	-53.8	-56.3	13.8	0.00e+00	0	28	0	854589440	73	4911
2026-01-15 07:57:10.74	6.40	33.37	-53.3	-55.6	14.2	0.00e+00	0	28	0	856686592	73	4537
2026-01-15 07:57:11.61	6.12	33.27	-53.6	-56.1	13.9	0.00e+00	0	28	0	857735168	73	4790
2026-01-15 07:57:12.75	5.76	33.14	-53.5	-55.9	14.0	0.00e+00	0	28	0	859832320	73	4662
2026-01-15 07:57:13.61	5.49	33.04	-54.0	-56.6	13.7	0.00e+00	0	28	0	861929472	73	5050
2026-01-15 07:57:14.77	5.13	32.90	-54.3	-57.1	13.4	0.00e+00	0	28	0	864026624	73	5401
2026-01-15 07:57:15.63	4.86	32.80	-54.6	-57.7	13.2	0.00e+00	0	28	0	865075200	74	5405
2026-01-15 07:57:16.77	4.51	32.67	-54.4	-57.3	13.4	0.00e+00	0	28	0	867172352	74	5193
2026-01-15 07:57:17.64	4.24	32.57	-54.3	-57.1	13.5	0.00e+00	0	28	0	869269504	74	5083
2026-01-15 07:57:18.79	3.89	32.43	-54.5	-57.4	13.4	0.00e+00	0	28	0	871366656	74	5238
2026-01-15 07:57:19.65	3.63	32.33	-55.1	-58.3	12.9	0.00e+00	0	28	0	873463808	75	5492
2026-01-15 07:57:20.80	3.29	32.19	-54.9	-58.0	13.1	0.00e+00	0	28	0	875560960	75	5306
2026-01-15 07:57:21.66	3.03	32.09	-54.9	-57.9	13.1	0.00e+00	0	28	0	876609536	75	5255
2026-01-15 07:57:22.81	2.69	31.95	-54.6	-57.4	13.5	0.00e+00	0	28	0	878706688	75	4939
2026-01-15 07:57:23.67	2.44	31.85	-54.7	-57.7	13.3	0.00e+00	0	28	0	880803840	75	5103
2026-01-15 07:57:24.82	2.11	31.71	-55.0	-58.1	13.0	0.00e+00	0	28	0	882900992	75	5359
2026-01-15 07:57:25.68	1.86	31.61	-55.4	-58.8	12.6	0.00e+00	0	28	0	883949568	75	5834
2026-01-15 07:57:26.84	1.53	31.47	-55.4	-58.6	12.9	0.00e+00	0	28	0	886046720	76	5384
2026-01-15 07:57:27.69	1.29	31.37	-55.0	-58.0	13.2	0.00e+00	0	28	0	888143872	76	4989
2026-01-15 07:57:28.84	0.96	31.23	-53.7	-56.0	14.0	0.00e+00	0	28	0	890241024	74	4488
2026-01-15 07:57:29.70	0.72	31.12	-53.3	-55.5	14.2	0.00e+00	0	28	0	891289600	73	4459
2026-01-15 07:57:30.85	0.41	30.98	-53.2	-55.3	14.2	0.00e+00	0	28	0	894435328	72	4608
2026-01-15 07:57:31.71	0.17	30.87	-53.0	-55.0	14.3	0.00e+00	0	28	0	895483904	72	4493
2026-01-15 07:57:32.86	359.85	30.73	-52.9	-54.9	14.4	0.00e+00	0	28	0	897581056	72	4427
2026-01-15 07:57:33.73	359.62	30.63	-52.7	-54.6	14.4	0.00e+00	0	28	0	899678208	71	4516
2026-01-15 07:57:34.88	359.31	30.49	-52.9	-54.9	14.3	0.00e+00	0	28	0	901775360	71	4703
2026-01-15 07:57:35.74	359.08	30.38	-53.1	-55.2	14.1	0.00e+00	0	28	0	902823936	71	4853
2026-01-15 07:57:36.88	358.78	30.24	-53.7	-55.9	14.0	0.00e+00	0	28	0	904921088	72	4975
2026-01-15 07:57:37.74	358.55	30.13	-53.9	-56.3	13.8	0.00e+00	0	28	0	907018240	72	5184
2026-01-15 07:57:38.89	358.25	29.99	-54.4	-57.1	13.6	0.00e+00	0	28	0	909115392	74	5045
2026-01-15 07:57:39.75	358.03	29.88	-54.9	-57.8	13.2	0.00e+00	0	28	0	910163968	74	5494
2026-01-15 07:57:40.90	357.74	29.74	-55.2	-58.4	13.0	0.00e+00	0	28	0	912261120	75	5563
2026-01-15 07:57:41.76	357.52	29.63	-55.5	-58.8	12.8	0.00e+00	0	28	0	914358272	76	5490
2026-01-15 07:57:42.91	357.23	29.49	-55.5	-58.9	12.7	0.00e+00	0	28	0	916455424	76	5574
2026-01-15 07:57:43.77	357.01	29.39	-55.3	-58.6	12.9	0.00e+00	0	28	0	918552576	76	5349
2026-01-15 07:57:44.92	356.72	29.24	-55.0	-57.9	13.3	0.00e+00	0	28	0	920649728	76	4969
2026-01-15 07:57:45.78	356.51	29.14	-55.0	-57.9	13.3	0.00e+00	0	28	0	921698304	76	4952
2026-01-15 07:57:46.94	356.23	28.99	-54.6	-57.4	13.5	0.00e+00	0	28	0	923795456	75	4944
2026-01-15 07:57:47.80	356.02	28.88	-54.7	-57.6	13.4	0.00e+00	0	28	0	925892608	75	5049
2026-01-15 07:57:48.95	355.74	28.74	-54.6	-57.3	13.5	0.00e+00	0	28	0	927989760	75	4920
2026-01-15 07:57:49.81	355.54	28.63	-54.3	-57.0	13.7	0.00e+00	0	28	0	929038336	75	4730
2026-01-15 07:57:50.96	355.26	28.49	-53.9	-56.4	13.9	0.00e+00	0	28	0	931135488	74	4662
2026-01-15 07:57:51.82	355.06	28.38	-53.9	-56.4	13.9	0.00e+00	0	28	0	933232640	74	4676
2026-01-15 07:57:52.97	354.79	28.24	-53.7	-56.2	13.9	0.00e+00	0	28	0	935329792	73	4829
2026-01-15 07:57:53.83	354.59	28.13	-53.8	-56.2	13.8	0.00e+00	0	28	0	937426944	73	4869
2026-01-15 07:57:54.98	354.33	27.99	-53.4	-55.7	14.1	0.00e+00	0	28	0	939524096	73	4573
2026-01-15 07:57:55.84	354.13	27.88	-53.2	-55.3	14.3	0.00e+00	0	28	0	940572672	73	4382
2026-01-15 07:57:56.99	353.87	27.74	-52.6	-54.6	14.4	0.00e+00	0	28	0	942669824	71	4506
2026-01-15 07:57:57.86	353.68	27.63	-52.7	-54.7	14.4	0.00e+00	0	28	0	944766976	71	4569
2026-01-15 07:57:59.00	353.42	27.49	-52.7	-54.7	14.3	0.00e+00	0	28	0	946864128	71	4577
2026-01-15 07:57:59.86	353.23	27.38	-53.3	-55.5	14.0	0.00e+00	0	28	0	947912704	71	4989
2026-01-15 07:58:01.01	352.98	27.24	-53.6	-55.9	13.9	0.00e+00	0	28	0	950009856	72	4934
2026-01-15 07:58:01.87	352.79	27.14	-53.8	-56.3	13.7	0.00e+00	0	28	0	952107008	72	5180
2026-01-15 07:58:03.02	352.55	26.99	-54.3	-57.0	13.5	0.00e+00	0	28	0	954204160	73	5288
2026-01-15 07:58:03.89	352.36	26.89	-54.5	-57.2	13.5	0.00e+00	0	28	0	956301312	74	5113
2026-01-15 07:58:05.03	352.12	26.75	-54.4	-57.0	13.5	0.00e+00	0	28	0	958398464	74	5036
2026-01-15 07:58:05.88	351.94	26.64	-54.2	-56.8	13.7	0.00e+00	0	28	0	959447040	74	4875
2026-01-15 07:58:07.02	351.70	26.50	-54.0	-56.5	13.8	0.00e+00	0	28	0	961544192	74	4709
2026-01-15 07:58:07.89	351.52	26.39	-53.7	-56.0	13.9	0.00e+00	0	28	0	963641344	73	4753
2026-01-15 07:58:09.04	351.28	26.25	-53.4	-55.6	14.1	0.00e+00	0	28	0	965738496	73	4535
2026-01-15 07:58:09.90	351.11	26.15	-53.2	-55.4	14.2	0.00e+00	0	28	0	966787072	72	4663
2026-01-15 07:58:11.05	350.88	26.00	-52.9	-54.9	14.3	0.00e+00	0	28	0	968884224	72	4423
2026-01-15 07:58:11.91	350.70	25.90	-52.8	-54.8	14.4	0.00e+00	0	28	0	970981376	72	4375
2026-01-15 07:58:13.06	350.47	25.76	-53.1	-55.2	14.2	0.00e+00	0	28	0	973078528	72	4579
2026-01-15 07:58:13.92	350.30	25.65	-52.9	-54.9	14.4	0.00e+00	0	28	0	975175680	72	4439
2026-01-15 07:58:15.07	350.08	25.51	-53.0	-55.1	14.3	0.00e+00	0	28	0	977272832	72	4506
2026-01-15 07:58:15.93	349.91	25.41	-52.9	-55.0	14.3	0.00e+00	0	28	0	978321408	72	4451
2026-01-15 07:58:17.08	349.69	25.27	-53.2	-55.4	14.2	0.00e+00	0	28	0	980418560	72	4661
2026-01-15 07:58:17.94	349.52	25.16	-53.2	-55.4	14.2	0.00e+00	0	28	0	982515712	72	4676
2026-01-15 07:58:19.09	349.30	25.03	-53.4	-55.7	14.0	0.00e+00	0	28	0	984612864	72	4847
2026-01-15 07:58:19.95	349.14	24.92	-53.5	-55.8	14.0	0.00e+00	0	28	0	985661440	72	4912
2026-01-15 07:58:21.10	348.93	24.78	-54.0	-56.6	13.7	0.00e+00	0	28	0	987758592	73	5046
2026-01-15 07:58:21.95	348.77	24.68	-53.8	-56.3	13.8	0.00e+00	0	28	0	989855744	73	4886
2026-01-15 07:58:23.10	348.56	24.54	-53.7	-56.1	13.9	0.00e+00	0	28	0	991952896	73	4807
2026-01-15 07:58:23.97	348.40	24.44	-54.1	-56.7	13.6	0.00e+00	0	28	0	993001472	73	5135
2026-01-15 07:58:25.12	348.19	24.30	-54.1	-56.7	13.6	0.00e+00	0	28	0	996147200	73	5117
2026-01-15 07:58:25.98	348.03	24.20	-54.0	-56.6	13.7	0.00e+00	0	28	0	997195776	73	5063
2026-01-15 07:58:27.13	347.83	24.06	-54.5	-57.2	13.5	0.00e+00	0	28	0	999292928	74	5132
2026-01-15 07:58:27.99	347.68	23.96	-54.6	-57.5	13.3	0.00e+00	0	28	0	1001390080	74	5313
2026-01-15 07:58:29.13	347.48	23.82	-54.7	-57.5	13.3	0.00e+00	0	28	0	1003487232	74	5330
2026-01-15 07:58:29.99	347.33	23.72	-54.7	-57.6	13.2	0.00e+00	0	28	0	1004535808	74	5360
2026-01-15 07:58:31.15	347.13	23.58	-54.5	-57.3	13.3	0.00e+00	0	28	0	1006632960	74	5204
2026-01-15 07:58:32.01	346.98	23.48	-54.3	-57.1	13.6	0.00e+00	0	28	0	1008730112	74	5043
2026-01-15 07:58:33.15	346.78	23.35	-54.3	-56.9	13.6	0.00e+00	0	28	0	1010827264	74	4958
2026-01-15 07:58:34.01	346.64	23.25	-54.0	-56.5	13.8	0.00e+00	0	28	0	1011875840	74	4753
2026-01-15 07:58:35.16	346.44	23.11	-53.9	-56.3	14.0	0.00e+00	0	28	0	1015021568	74	4622
2026-01-15 07:58:36.02	346.30	23.01	-53.4	-55.7	14.1	0.00e+00	0	28	0	1016070144	73	4546
2026-01-15 07:58:37.17	346.11	22.88	-53.1	-55.2	14.3	0.00e+00	0	28	0	1018167296	72	4575
2026-01-15 07:58:38.03	345.97	22.78	-53.1	-55.2	14.2	0.00e+00	0	28	0	1020264448	72	4556
2026-01-15 07:58:39.18	345.78	22.64	-53.2	-55.3	14.2	0.00e+00	0	28	0	1022361600	72	4635
2026-01-15 07:58:40.04	345.64	22.54	-53.0	-55.0	14.3	0.00e+00	0	28	0	1023410176	72	4486
2026-01-15 07:58:41.19	345.46	22.41	-53.4	-55.6	14.0	0.00e+00	0	28	0	1025507328	72	4781
2026-01-15 07:58:42.04	345.32	22.31	-53.7	-55.9	13.9	0.00e+00	0	28	0	1027604480	72	4973
2026-01-15 07:58:43.19	345.14	22.18	-53.7	-55.9	13.8	0.00e+00	0	28	0	1029701632	72	4983
2026-01-15 07:58:44.05	345.01	22.08	-53.7	-55.9	13.9	0.00e+00	0	28	0	1030750208	72	4978
2026-01-15 07:58:45.20	344.83	21.95	-53.5	-55.7	14.0	0.00e+00	0	28	0	1032847360	72	4841
2026-01-15 07:58:46.06	344.70	21.85	-53.1	-55.1	14.2	0.00e+00	0	28	0	1034944512	72	4544
2026-01-15 07:58:47.20	344.52	21.72	-53.0	-55.0	14.3	0.00e+00	0	28	0	1037041664	72	4485
2026-01-15 07:58:48.06	344.39	21.62	-53.1	-55.2	14.2	0.00e+00	0	28	0	1039138816	72	4574
2026-01-15 07:58:49.21	344.22	21.49	-52.9	-55.0	14.3	0.00e+00	0	28	0	1041235968	72	4472
2026-01-15 07:58:50.07	344.09	21.39	-53.1	-55.2	14.2	0.00e+00	0	28	0	1042284544	72	4594
2026-01-15 07:58:51.22	343.92	21.26	-53.6	-56.0	13.9	0.00e+00	0	28	0	1044381696	72	5014
2026-01-15 07:58:52.08	343.79	21.17	-53.9	-56.3	13.7	0.00e+00	0	28	0	1046478848	72	5208
2026-01-15 07:58:53.23	343.62	21.04	-54.5	-57.2	13.4	0.00e+00	0	28	0	1048576000	74	5136
2026-01-15 07:58:54.09	343.50	20.94	-54.9	-57.9	13.1	0.00e+00	0	28	0	1049624576	74	5531
2026-01-15 07:58:55.24	343.33	20.81	-55.0	-58.1	13.1	0.00e+00	0	28	0	1051721728	75	5367
2026-01-15 07:58:56.10	343.21	20.72	-55.0	-58.0	13.2	0.00e+00	0	28	0	1053818880	75	5292
2026-01-15 07:58:57.25	343.04	20.59	-54.9	-57.9	13.1	0.00e+00	0	28	0	1055916032	75	5275
2026-01-15 07:58:58.12	342.92	20.49	-54.9	-57.9	13.2	0.00e+00	0	28	0	1058013184	75	5241
2026-01-15 07:58:59.26	342.76	20.37	-54.8	-57.7	13.3	0.00e+00	0	28	0	1060110336	75	5128
2026-01-15 07:59:00.13	342.64	20.27	-54.6	-57.3	13.5	0.00e+00	0	28	0	1061158912	75	4915
2026-01-15 07:59:01.28	342.48	20.15	-54.6	-57.3	13.5	0.00e+00	0	28	0	1063256064	75	4899
2026-01-15 07:59:02.15	342.36	20.05	-54.2	-56.7	13.8	0.00e+00	0	28	0	1065353216	75	4598
2026-01-15 07:59:03.29	342.21	19.93	-53.8	-56.2	13.9	0.00e+00	0	28	0	1067450368	74	4589
2026-01-15 07:59:04.15	342.09	19.83	-53.8	-56.2	13.9	0.00e+00	0	28	0	1068498944	74	4549
2026-01-15 07:59:05.30	341.94	19.71	-53.7	-56.1	13.9	0.00e+00	0	28	0	1070596096	73	4768
2026-01-15 07:59:06.16	341.82	19.62	-53.7	-56.1	13.9	0.00e+00	0	28	0	1072693248	73	4799
2026-01-15 07:59:07.31	341.67	19.49	-53.5	-55.8	14.0	0.00e+00	0	28	0	1074790400	73	4615
2026-01-15 07:59:08.18	341.56	19.40	-53.7	-56.0	13.9	0.00e+00	0	28	0	1076887552	73	4741
2026-01-15 07:59:09.32	341.41	19.28	-53.5	-55.8	14.0	0.00e+00	0	28	0	1078984704	73	4609
2026-01-15 07:59:10.18	341.30	19.18	-53.9	-56.3	13.8	0.00e+00	0	28	0	1080033280	73	4895
2026-01-15 07:59:11.33	341.15	19.06	-53.9	-56.3	13.7	0.00e+00	0	28	0	1082130432	73	4920
2026-01-15 07:59:12.19	341.04	18.97	-54.0	-56.4	13.7	0.00e+00	0	28	0	1084227584	73	4976
2026-01-15 07:59:13.34	340.89	18.85	-53.8	-56.2	13.8	0.00e+00	0	28	0	1086324736	73	4834
2026-01-15 07:59:14.20	340.79	18.76	-53.6	-55.9	14.0	0.00e+00	0	28	0	1087373312	73	4696
2026-01-15 07:59:15.34	340.64	18.64	-53.3	-55.5	14.1	0.00e+00	0	28	0	1089470464	73	4483
2026-01-15 07:59:16.20	340.54	18.55	-53.0	-55.2	14.2	0.00e+00	0	28	0	1091567616	72	4560
2026-01-15 07:59:17.34	340.40	18.43	-52.9	-55.0	14.2	0.00e+00	0	28	0	1093664768	72	4471
2026-01-15 07:59:18.20	340.29	18.34	-52.8	-54.9	14.3	0.00e+00	0	28	0	1094713344	72	4426
2026-01-15 07:59:19.35	340.15	18.22	-52.8	-54.9	14.3	0.00e+00	0	28	0	1097859072	72	4400
2026-01-15 07:59:20.21	340.05	18.13	-53.0	-55.1	14.2	0.00e+00	0	28	0	1098907648	72	4513
2026-01-15 07:59:21.36	339.91	18.01	-53.2	-55.4	14.1	0.00e+00	0	28	0	1101004800	72	4670
2026-01-15 07:59:22.21	339.81	17.92	-53.4	-55.7	13.9	0.00e+00	0	28	0	1103101952	72	4858
2026-01-15 07:59:23.37	339.67	17.80	-53.7	-56.2	13.7	0.00e+00	0	28	0	1105199104	72	5123
2026-01-15 07:59:24.23	339.57	17.71	-54.0	-56.6	13.6	0.00e+00	0	28	0	1106247680	73	5086
2026-01-15 07:59:25.38	339.44	17.59	-54.0	-56.6	13.6	0.00e+00	0	28	0	1108344832	73	5076
2026-01-15 07:59:26.24	339.34	17.51	-54.2	-56.9	13.5	0.00e+00	0	28	0	1110441984	73	5247
2026-01-15 07:59:27.39	339.21	17.39	-54.3	-57.0	13.4	0.00e+00	0	28	0	1112539136	73	5309
2026-01-15 07:59:28.25	339.11	17.30	-54.2	-56.9	13.5	0.00e+00	0	28	0	1113587712	73	5220
2026-01-15 07:59:29.39	338.98	17.19	-54.0	-56.6	13.6	0.00e+00	0	28	0	1116733440	73	5061
2026-01-15 07:59:30.26	338.88	17.10	-54.0	-56.5	13.6	0.00e+00	0	28	0	1117782016	73	5024
2026-01-15 07:59:31.40	338.76	16.98	-54.0	-56.5	13.6	0.00e+00	0	28	0	1119879168	73	4989
2026-01-15 07:59:32.27	338.66	16.90	-54.0	-56.4	13.7	0.00e+00	0	28	0	1121976320	73	4970
2026-01-15 07:59:33.41	338.54	16.78	-54.0	-56.5	13.6	0.00e+00	0	28	0	1124073472	73	5018
2026-01-15 07:59:34.27	338.44	16.70	-54.0	-56.4	13.7	0.00e+00	0	28	0	1125122048	73	4972
2026-01-15 07:59:35.42	338.32	16.58	-53.9	-56.4	13.7	0.00e+00	0	28	0	1127219200	73	4944
2026-01-15 07:59:36.28	338.22	16.50	-53.9	-56.3	13.8	0.00e+00	0	28	0	1129316352	73	4874
2026-01-15 07:59:37.43	338.10	16.38	-53.9	-56.4	13.7	0.00e+00	0	28	0	1131413504	73	4952
2026-01-15 07:59:38.29	338.01	16.30	-54.1	-56.6	13.6	0.00e+00	0	28	0	1132462080	73	5067
2026-01-15 07:59:39.43	337.89	16.19	-54.0	-56.4	13.7	0.00e+00	0	28	0	1134559232	73	4980
2026-01-15 07:59:40.29	337.80	16.10	-54.0	-56.4	13.7	0.00e+00	0	28	0	1136656384	73	4973
2026-01-15 07:59:41.44	337.68	15.99	-54.0	-56.4	13.7	0.00e+00	0	28	0	1138753536	73	4976
2026-01-15 07:59:42.30	337.59	15.91	-54.2	-56.7	13.5	0.00e+00	0	28	0	1140850688	73	5146
2026-01-15 07:59:43.46	337.47	15.79	-54.3	-56.9	13.4	0.00e+00	0	28	0	1142947840	73	5246
2026-01-15 07:59:44.32	337.38	15.71	-54.4	-57.1	13.3	0.00e+00	0	28	0	1143996416	73	5371
2026-01-15 07:59:45.46	337.27	15.60	-54.5	-57.2	13.4	0.00e+00	0	28	0	1146093568	74	5149
2026-01-15 07:59:46.33	337.18	15.52	-54.5	-57.4	13.3	0.00e+00	0	28	0	1148190720	74	5220
2026-01-15 07:59:47.48	337.07	15.41	-54.7	-57.6	13.1	0.00e+00	0	28	0	1150287872	74	5371
2026-01-15 07:59:48.34	336.98	15.32	-54.7	-57.6	13.1	0.00e+00	0	28	0	1151336448	74	5391
2026-01-15 07:59:49.49	336.87	15.22	-54.8	-57.8	13.0	0.00e+00	0	28	0	1153433600	74	5476
2026-01-15 07:59:50.35	336.78	15.13	-54.5	-57.4	13.3	0.00e+00	0	28	0	1155530752	74	5228
2026-01-15 07:59:51.50	336.67	15.02	-54.3	-57.0	13.4	0.00e+00	0	28	0	1157627904	74	5037
2026-01-15 07:59:52.36	336.59	14.94	-54.3	-57.0	13.5	0.00e+00	0	28	0	1159725056	74	5035
2026-01-15 07:59:53.51	336.48	14.84	-54.2	-56.8	13.6	0.00e+00	0	28	0	1161822208	74	4897
2026-01-15 07:59:54.37	336.40	14.75	-53.9	-56.4	13.8	0.00e+00	0	28	0	1162870784	74	4672
2026-01-15 07:59:55.52	336.29	14.65	-53.7	-56.1	13.8	0.00e+00	0	28	0	1164967936	73	4801
2026-01-15 07:59:56.38	336.21	14.57	-53.6	-55.9	13.9	0.00e+00	0	28	0	1167065088	73	4701
2026-01-15 07:59:57.53	336.10	14.46	-53.3	-55.6	14.1	0.00e+00	0	28	0	1169162240	73	4530
2026-01-15 07:59:58.39	336.02	14.38	-53.4	-55.6	14.1	0.00e+00	0	28	0	1170210816	73	4538
2026-01-15 07:59:59.54	335.91	14.27	-53.4	-55.7	14.0	0.00e+00	0	28	0	1172307968	73	4586
2026-01-15 08:00:00.41	335.83	14.19	-53.3	-55.5	14.1	0.00e+00	0	28	0	1174405120	73	4461
2026-01-15 08:00:01.55	335.73	14.09	-53.4	-55.6	14.1	0.00e+00	0	28	0	1176502272	73	4533
2026-01-15 08:00:02.42	335.65	14.01	-53.3	-55.6	14.1	0.00e+00	0	28	0	1178599424	73	4508
2026-01-15 08:00:03.56	335.55	13.90	-53.1	-55.4	14.0	0.00e+00	0	28	0	1180696576	72	4664
2026-01-15 08:00:04.42	335.47	13.83	-53.2	-55.5	14.0	0.00e+00	0	28	0	1181745152	72	4715
2026-01-15 08:00:05.57	335.37	13.72	-53.3	-55.6	13.9	0.00e+00	0	28	0	1183842304	72	4798
2026-01-15 08:00:06.43	335.29	13.64	-53.2	-55.4	13.9	0.00e+00	0	28	0	1185939456	72	4705
2026-01-15 08:00:07.59	335.19	13.54	-53.3	-55.7	13.8	0.00e+00	0	28	0	1188036608	72	4818
2026-01-15 08:00:08.45	335.12	13.46	-53.3	-55.5	13.9	0.00e+00	0	28	0	1189085184	72	4742
2026-01-15 08:00:09.59	335.02	13.36	-53.3	-55.6	13.9	0.00e+00	0	28	0	1191182336	72	4784
2026-01-15 08:00:10.45	334.94	13.28	-53.4	-55.6	13.9	0.00e+00	0	28	0	1193279488	72	4807
2026-01-15 08:00:11.60	334.84	13.18	-53.5	-55.8	13.8	0.00e+00	0	28	0	1195376640	72	4893
2026-01-15 08:00:12.46	334.77	13.10	-53.4	-55.7	13.9	0.00e+00	0	28	0	1196425216	72	4856
2026-01-15 08:00:13.61	334.67	13.00	-53.4	-55.7	13.9	0.00e+00	0	28	0	1199570944	72	4863
2026-01-15 08:00:14.47	334.60	12.92	-53.5	-55.9	13.8	0.00e+00	0	28	0	1200619520	72	4961
2026-01-15 08:00:15.62	334.51	12.82	-53.6	-55.9	13.8	0.00e+00	0	28	0	1202716672	72	4975
2026-01-15 08:00:16.48	334.44	12.75	-53.8	-56.3	13.6	0.00e+00	0	28	0	1204813824	72	5173
2026-01-15 08:00:17.63	334.34	12.65	-53.7	-56.2	13.6	0.00e+00	0	28	0	1206910976	72	5126
2026-01-15 08:00:18.49	334.27	12.57	-53.7	-56.2	13.6	0.00e+00	0	28	0	1207959552	72	5124
2026-01-15 08:00:19.63	334.18	12.47	-54.0	-56.5	13.6	0.00e+00	0	28	0	1210056704	73	5011
2026-01-15 08:00:20.49	334.11	12.40	-54.1	-56.6	13.5	0.00e+00	0	28	0	1212153856	73	5099
2026-01-15 08:00:21.64	334.02	12.30	-54.0	-56.6	13.6	0.00e+00	0	28	0	1214251008	73	5056
2026-01-15 08:00:22.50	333.95	12.22	-54.1	-56.8	13.4	0.00e+00	0	28	0	1215299584	73	5171
2026-01-15 08:00:23.66	333.85	12.12	-54.2	-56.9	13.4	0.00e+00	0	28	0	1218445312	73	5241
2026-01-15 08:00:24.52	333.79	12.05	-54.3	-57.0	13.3	0.00e+00	0	28	0	1219493888	73	5306
2026-01-15 08:00:25.67	333.70	11.95	-54.3	-57.0	13.3	2.20e-06	0	28	0	1221591040	73	5312
2026-01-15 08:00:26.53	333.63	11.88	-54.5	-57.3	13.2	0.00e+00	0	28	0	1223688192	74	5214
2026-01-15 08:00:27.67	333.54	11.78	-54.3	-57.0	13.4	0.00e+00	0	28	0	1225785344	74	4999
2026-01-15 08:00:28.53	333.48	11.71	-54.4	-57.2	13.3	2.20e-06	0	28	0	1226833920	74	5115
2026-01-15 08:00:29.68	333.39	11.61	-54.6	-57.4	13.2	0.00e+00	0	28	0	1228931072	74	5265
2026-01-15 08:00:30.53	333.32	11.54	-54.5	-57.3	13.2	3.00e-06	0	28	0	1231028224	74	5191
2026-01-15 08:00:31.68	333.24	11.44	-54.6	-57.6	13.1	0.00e+00	0	28	0	1233125376	74	5369
2026-01-15 08:00:32.54	333.17	11.37	-54.5	-57.4	13.2	0.00e+00	0	28	0	1234173952	74	5274
