passes_logs/2026/01/15/R3.2S_Murmansk/R3.2S_Murmansk__20260115_011129_SUOMI_NPP_rec.log

#Pass ID: 20260115_011129_SUOMI NPP
#Satellite: SUOMI NPP
#Configuration: NPP
#almurnet v.1.7.20251203
#Start time: 2026-01-15 01:11:29

#Version: 2.2.20231116
#Station: R3.2S_Murmansk
#Location: 33.079688 lon 68.888172 lat
#TLE: 1 37849U 11061A   26014.61059675  .00000037  00000+0  38639-4 0  9994
#TLE: 2 37849  98.7810 316.6625 0002460  64.3781 295.7649 14.19525105736658

#Time	Az	El	Level	Level2	SNR	BER	BlckErr	Temp	State	Recorded	gain1	gain2
2026-01-15 01:11:29.84	26.30	2.01	-58.3	-74.3	3.8	1.49e+00	0	26	0	0	83	21857
2026-01-15 01:11:30.84	26.29	2.07	-58.2	-74.3	3.8	1.49e+00	0	26	104	0	81	24472
2026-01-15 01:11:31.84	26.28	2.13	-58.2	-74.3	3.8	1.49e+00	0	26	104	0	81	24463
2026-01-15 01:11:32.84	26.28	2.20	-58.3	-74.3	3.8	1.49e+00	0	26	104	0	81	24462
2026-01-15 01:11:33.84	26.27	2.26	-58.3	-74.3	3.8	1.49e+00	0	26	104	0	81	24495
2026-01-15 01:11:34.84	26.26	2.33	-58.3	-74.2	3.8	1.49e+00	0	26	104	0	81	24409
2026-01-15 01:11:35.84	26.25	2.39	-58.3	-74.3	3.8	1.49e+00	0	26	104	0	81	24431
2026-01-15 01:11:36.83	26.25	2.45	-58.3	-74.3	3.8	1.49e+00	0	26	104	0	81	24439
2026-01-15 01:11:37.83	26.24	2.52	-58.3	-74.3	3.8	1.49e+00	0	26	104	0	81	24527
2026-01-15 01:11:38.83	26.23	2.58	-58.3	-74.3	3.8	1.49e+00	0	26	104	0	81	24453
2026-01-15 01:11:39.82	26.22	2.65	-58.3	-74.3	3.8	1.49e+00	0	26	104	0	81	24472
2026-01-15 01:11:40.82	26.22	2.71	-58.3	-74.3	3.8	1.49e+00	0	26	104	0	81	24444
2026-01-15 01:11:41.81	26.21	2.78	-58.3	-74.3	3.8	1.49e+00	0	26	104	0	81	24432
2026-01-15 01:11:42.81	26.20	2.84	-58.3	-74.2	3.8	1.49e+00	0	26	104	0	81	24366
2026-01-15 01:11:43.81	26.19	2.91	-58.3	-74.2	3.8	1.49e+00	0	27	104	0	81	24353
2026-01-15 01:11:44.81	26.18	2.98	-58.3	-74.1	3.8	1.49e+00	0	27	104	0	81	24112
2026-01-15 01:11:45.81	26.18	3.04	-58.3	-74.1	3.8	1.49e+00	0	26	104	0	81	24031
2026-01-15 01:11:46.82	26.17	3.11	-58.3	-74.0	3.8	1.49e+00	0	27	104	0	81	23730
2026-01-15 01:11:47.82	26.16	3.18	-58.2	-73.9	3.8	1.49e+00	0	27	104	0	81	23489
2026-01-15 01:11:48.83	26.15	3.24	-58.2	-73.9	3.8	1.49e+00	0	27	104	0	81	23374
2026-01-15 01:11:49.83	26.14	3.31	-58.2	-73.9	3.8	1.49e+00	0	27	104	0	81	23324
2026-01-15 01:11:50.83	26.13	3.38	-58.2	-73.9	3.8	1.49e+00	0	27	104	0	81	23313
2026-01-15 01:11:51.83	26.13	3.44	-58.3	-74.0	3.8	1.49e+00	0	27	104	0	81	23681
2026-01-15 01:11:52.83	26.12	3.51	-58.3	-74.1	3.8	1.49e+00	0	27	104	0	81	23947
2026-01-15 01:11:53.83	26.11	3.58	-58.3	-74.1	3.8	1.49e+00	0	27	104	0	81	24048
2026-01-15 01:11:54.82	26.10	3.64	-58.3	-74.2	3.8	1.49e+00	0	27	104	0	81	24224
2026-01-15 01:11:55.82	26.09	3.71	-58.3	-74.3	3.9	1.49e+00	0	27	104	0	81	24452
2026-01-15 01:11:56.83	26.08	3.78	-58.3	-74.2	3.8	1.49e+00	0	27	104	0	81	24397
2026-01-15 01:11:57.83	26.07	3.85	-58.3	-74.0	3.8	1.49e+00	0	27	104	0	81	23630
2026-01-15 01:11:58.83	26.06	3.92	-58.2	-73.5	3.8	1.49e+00	0	27	104	0	81	22304
2026-01-15 01:11:59.84	26.06	3.99	-58.2	-72.2	3.8	1.49e+00	0	27	104	0	81	19343
2026-01-15 01:12:00.84	26.05	4.05	-58.1	-70.4	4.3	1.44e+00	0	27	0	0	81	15751
2026-01-15 01:12:01.84	26.04	4.12	-58.0	-69.0	4.8	1.16e+00	0	27	0	1048576	81	13384
2026-01-15 01:12:02.84	26.03	4.19	-57.8	-67.5	5.5	5.37e-01	0	27	0	3145728	81	11276
2026-01-15 01:12:03.85	26.02	4.26	-57.6	-66.5	6.2	3.04e-01	0	27	0	4194304	81	10000
2026-01-15 01:12:04.84	26.01	4.33	-57.6	-66.2	6.4	2.30e-01	0	27	0	6291456	81	9654
2026-01-15 01:12:05.85	26.00	4.40	-57.3	-64.8	7.6	5.47e-02	0	27	0	8388608	81	8241
2026-01-15 01:12:06.85	25.99	4.47	-57.2	-64.3	8.0	5.76e-02	0	27	0	10485760	81	7774
2026-01-15 01:12:07.86	25.98	4.54	-57.1	-64.1	8.2	3.60e-02	0	27	0	12582912	80	8011
2026-01-15 01:12:08.86	25.97	4.61	-57.0	-63.6	8.6	1.77e-02	0	27	0	13631488	80	7560
2026-01-15 01:12:09.86	25.96	4.68	-56.8	-62.9	9.2	1.25e-02	0	27	0	15728640	80	7008
2026-01-15 01:12:10.87	25.95	4.75	-56.7	-62.7	9.3	8.43e-03	0	27	0	17825792	80	6870
2026-01-15 01:12:11.87	25.94	4.82	-57.0	-63.5	8.7	8.81e-03	0	27	0	19922944	80	7467
2026-01-15 01:12:12.87	25.93	4.89	-56.9	-63.3	8.9	1.35e-02	0	27	0	22020096	80	7316
2026-01-15 01:12:13.87	25.92	4.96	-56.9	-63.4	8.8	6.69e-03	0	27	0	23068672	80	7387
2026-01-15 01:12:14.87	25.91	5.03	-57.0	-63.6	8.6	1.55e-02	0	27	0	25165824	80	7548
2026-01-15 01:12:15.89	25.90	5.11	-58.1	-69.5	4.6	5.62e-02	0	27	0	27262976	81	14131
2026-01-15 01:12:16.89	25.89	5.18	-56.1	-60.9	10.8	1.17e-01	0	27	0	29360128	78	6221
2026-01-15 01:12:17.89	25.88	5.25	-57.9	-67.8	5.5	1.74e-02	0	27	0	30408704	80	12274
2026-01-15 01:12:18.89	25.87	5.32	-55.9	-60.3	11.4	2.84e-01	0	27	0	32505856	78	5795
2026-01-15 01:12:19.89	25.86	5.39	-57.7	-67.1	5.9	2.86e-02	0	27	0	34603008	80	11410
2026-01-15 01:12:20.89	25.85	5.47	-55.4	-59.4	11.9	7.25e-02	0	27	0	36700160	77	5554
2026-01-15 01:12:21.88	25.84	5.54	-55.0	-58.7	12.3	1.50e-06	0	27	0	38797312	76	5464
2026-01-15 01:12:22.88	25.83	5.61	-55.0	-58.7	12.4	7.00e-07	0	27	0	39845888	76	5419
2026-01-15 01:12:23.88	25.82	5.68	-55.0	-58.7	12.4	0.00e+00	0	27	0	41943040	76	5441
2026-01-15 01:12:24.89	25.81	5.76	-55.0	-58.6	12.4	0.00e+00	0	27	0	44040192	76	5366
2026-01-15 01:12:25.89	25.80	5.83	-54.9	-58.5	12.5	0.00e+00	0	27	0	46137344	76	5327
2026-01-15 01:12:26.89	25.79	5.90	-54.8	-58.3	12.7	0.00e+00	0	27	0	48234496	76	5171
2026-01-15 01:12:27.89	25.78	5.98	-54.7	-58.2	12.7	0.00e+00	0	27	0	49283072	76	5110
2026-01-15 01:12:28.89	25.76	6.05	-55.0	-58.6	12.5	0.00e+00	0	27	0	51380224	76	5377
2026-01-15 01:12:29.89	25.75	6.12	-54.8	-58.3	12.7	0.00e+00	0	27	0	53477376	76	5180
2026-01-15 01:12:30.89	25.74	6.20	-54.7	-58.1	12.8	0.00e+00	0	27	0	55574528	76	5093
2026-01-15 01:12:31.88	25.73	6.27	-54.8	-58.3	12.6	7.00e-07	0	27	0	57671680	76	5212
2026-01-15 01:12:32.88	25.72	6.35	-54.6	-57.9	12.8	0.00e+00	0	27	0	58720256	75	5277
2026-01-15 01:12:33.87	25.71	6.42	-54.7	-58.2	12.6	0.00e+00	0	27	0	60817408	75	5428
2026-01-15 01:12:34.87	25.70	6.50	-54.5	-57.8	12.9	0.00e+00	0	27	0	62914560	75	5163
2026-01-15 01:12:35.88	25.69	6.57	-54.5	-57.8	12.9	0.00e+00	0	27	0	65011712	75	5204
2026-01-15 01:12:36.88	25.67	6.65	-54.5	-57.8	12.9	0.00e+00	0	27	0	66060288	75	5217
2026-01-15 01:12:37.88	25.66	6.72	-54.5	-57.8	12.9	0.00e+00	0	27	0	68157440	75	5184
2026-01-15 01:12:38.88	25.65	6.80	-54.5	-57.8	12.9	0.00e+00	0	27	0	70254592	75	5170
2026-01-15 01:12:39.89	25.64	6.88	-54.4	-57.6	13.0	0.00e+00	0	27	0	72351744	75	5090
2026-01-15 01:12:40.88	25.63	6.95	-54.5	-57.9	12.9	0.00e+00	0	27	0	74448896	75	5241
2026-01-15 01:12:41.88	25.61	7.03	-54.5	-57.8	12.9	0.00e+00	0	28	0	75497472	75	5183
2026-01-15 01:12:42.88	25.60	7.11	-54.4	-57.6	13.1	0.00e+00	0	27	0	77594624	75	5053
2026-01-15 01:12:43.88	25.59	7.18	-54.5	-57.8	12.9	0.00e+00	0	27	0	79691776	75	5178
2026-01-15 01:12:44.87	25.58	7.26	-54.3	-57.5	13.1	0.00e+00	0	27	0	81788928	75	5030
2026-01-15 01:12:45.87	25.57	7.34	-54.4	-57.6	13.0	0.00e+00	0	27	0	83886080	75	5069
2026-01-15 01:12:46.88	25.55	7.42	-54.4	-57.6	13.1	0.00e+00	0	27	0	84934656	75	5050
2026-01-15 01:12:47.87	25.54	7.49	-54.4	-57.6	13.1	0.00e+00	0	27	0	87031808	75	5063
2026-01-15 01:12:48.87	25.53	7.57	-54.4	-57.6	13.0	0.00e+00	0	28	0	89128960	75	5091
2026-01-15 01:12:49.87	25.51	7.65	-54.3	-57.5	13.1	0.00e+00	0	28	0	91226112	75	5007
2026-01-15 01:12:50.87	25.50	7.73	-54.2	-57.3	13.2	0.00e+00	0	27	0	92274688	74	5171
2026-01-15 01:12:51.87	25.49	7.81	-54.3	-57.5	13.0	0.00e+00	0	28	0	94371840	74	5306
2026-01-15 01:12:52.87	25.48	7.89	-54.2	-57.2	13.2	0.00e+00	0	27	0	96468992	74	5142
2026-01-15 01:12:53.87	25.46	7.97	-54.4	-57.5	13.0	0.00e+00	0	27	0	98566144	74	5325
2026-01-15 01:12:54.87	25.45	8.05	-54.2	-57.3	13.2	0.00e+00	0	28	0	100663296	74	5167
2026-01-15 01:12:55.87	25.44	8.13	-54.2	-57.2	13.2	0.00e+00	0	27	0	101711872	74	5142
2026-01-15 01:12:56.87	25.42	8.21	-54.3	-57.4	13.2	0.00e+00	0	27	0	103809024	74	5239
2026-01-15 01:12:57.88	25.41	8.29	-54.1	-57.1	13.3	0.00e+00	0	28	0	105906176	74	5069
2026-01-15 01:12:58.87	25.40	8.37	-54.2	-57.2	13.3	0.00e+00	0	27	0	108003328	74	5105
2026-01-15 01:12:59.87	25.38	8.45	-54.2	-57.3	13.2	0.00e+00	0	27	0	110100480	74	5190
2026-01-15 01:13:00.87	25.37	8.53	-54.1	-57.0	13.3	0.00e+00	0	28	0	111149056	74	5036
2026-01-15 01:13:01.87	25.35	8.61	-54.1	-57.1	13.3	0.00e+00	0	28	0	113246208	74	5044
2026-01-15 01:13:02.86	25.34	8.69	-54.1	-57.1	13.3	0.00e+00	0	28	0	115343360	74	5071
2026-01-15 01:13:03.86	25.33	8.77	-54.0	-56.9	13.4	0.00e+00	0	27	0	117440512	74	4967
2026-01-15 01:13:04.86	25.31	8.86	-54.0	-56.9	13.4	0.00e+00	0	28	0	119537664	74	4940
2026-01-15 01:13:05.87	25.30	8.94	-53.9	-56.8	13.5	0.00e+00	0	28	0	120586240	74	4886
2026-01-15 01:13:06.87	25.28	9.02	-54.0	-56.8	13.5	0.00e+00	0	28	0	122683392	74	4909
2026-01-15 01:13:07.87	25.27	9.11	-54.0	-56.9	13.4	0.00e+00	0	28	0	124780544	74	4942
2026-01-15 01:13:08.87	25.25	9.19	-53.8	-56.7	13.6	0.00e+00	0	28	0	126877696	74	4821
2026-01-15 01:13:09.85	25.24	9.27	-53.8	-56.6	13.6	0.00e+00	0	28	0	127926272	74	4801
2026-01-15 01:13:10.85	25.22	9.35	-53.9	-56.7	13.6	0.00e+00	0	27	0	130023424	74	4847
2026-01-15 01:13:11.85	25.21	9.44	-53.8	-56.5	13.6	0.00e+00	0	28	0	132120576	74	4741
2026-01-15 01:13:12.84	25.19	9.52	-53.8	-56.6	13.6	0.00e+00	0	28	0	134217728	74	4783
2026-01-15 01:13:13.83	25.18	9.61	-53.9	-56.7	13.6	0.00e+00	0	28	0	136314880	74	4867
2026-01-15 01:13:14.83	25.16	9.69	-53.8	-56.5	13.6	0.00e+00	0	28	0	137363456	74	4723
2026-01-15 01:13:15.83	25.15	9.78	-53.9	-56.7	13.5	0.00e+00	0	28	0	139460608	74	4821
2026-01-15 01:13:16.83	25.13	9.86	-54.0	-56.8	13.5	0.00e+00	0	28	0	141557760	74	4881
2026-01-15 01:13:17.82	25.12	9.95	-53.9	-56.7	13.5	0.00e+00	0	28	0	143654912	74	4842
2026-01-15 01:13:18.82	25.10	10.03	-53.9	-56.6	13.5	0.00e+00	0	28	0	144703488	74	4804
2026-01-15 01:13:19.82	25.09	10.12	-53.9	-56.6	13.6	0.00e+00	0	28	0	146800640	74	4766
2026-01-15 01:13:20.82	25.07	10.21	-53.7	-56.4	13.7	0.00e+00	0	28	0	148897792	74	4674
2026-01-15 01:13:21.82	25.05	10.29	-53.7	-56.3	13.6	0.00e+00	0	28	0	150994944	73	4921
2026-01-15 01:13:22.82	25.04	10.38	-53.7	-56.3	13.6	0.00e+00	0	28	0	153092096	73	4904
2026-01-15 01:13:23.82	25.02	10.47	-53.7	-56.3	13.6	0.00e+00	0	28	0	154140672	73	4921
2026-01-15 01:13:24.82	25.00	10.56	-53.6	-56.2	13.7	0.00e+00	0	28	0	156237824	73	4840
2026-01-15 01:13:25.82	24.99	10.65	-53.6	-56.2	13.7	0.00e+00	0	28	0	158334976	73	4818
2026-01-15 01:13:26.82	24.97	10.73	-53.6	-56.2	13.7	0.00e+00	0	28	0	160432128	73	4860
2026-01-15 01:13:27.82	24.95	10.82	-53.5	-56.1	13.7	0.00e+00	0	28	0	162529280	73	4792
2026-01-15 01:13:28.81	24.94	10.91	-53.6	-56.2	13.7	0.00e+00	0	28	0	163577856	73	4826
2026-01-15 01:13:29.81	24.92	11.00	-53.5	-56.1	13.8	0.00e+00	0	28	0	165675008	73	4764
2026-01-15 01:13:30.81	24.90	11.09	-53.5	-56.0	13.8	0.00e+00	0	28	0	167772160	73	4713
2026-01-15 01:13:31.81	24.89	11.18	-53.4	-56.0	13.8	0.00e+00	0	28	0	169869312	73	4713
2026-01-15 01:13:32.80	24.87	11.27	-53.6	-56.2	13.7	0.00e+00	0	28	0	171966464	73	4842
2026-01-15 01:13:33.80	24.85	11.36	-53.5	-56.0	13.8	0.00e+00	0	28	0	173015040	73	4715
2026-01-15 01:13:34.80	24.83	11.45	-53.5	-56.1	13.8	0.00e+00	0	28	0	175112192	73	4772
2026-01-15 01:13:35.79	24.81	11.54	-53.4	-56.0	13.8	0.00e+00	0	28	0	177209344	73	4710
2026-01-15 01:13:36.79	24.80	11.64	-53.4	-55.9	13.9	0.00e+00	0	28	0	179306496	73	4673
2026-01-15 01:13:37.79	24.78	11.73	-53.4	-55.9	13.9	0.00e+00	0	28	0	180355072	73	4694
2026-01-15 01:13:38.79	24.76	11.82	-53.4	-55.9	13.9	0.00e+00	0	28	0	182452224	73	4667
2026-01-15 01:13:39.78	24.74	11.91	-53.4	-55.9	13.9	0.00e+00	0	28	0	184549376	73	4679
2026-01-15 01:13:40.78	24.72	12.01	-53.5	-56.0	13.8	0.00e+00	0	28	0	186646528	73	4711
2026-01-15 01:13:41.79	24.70	12.10	-53.4	-55.9	13.9	0.00e+00	0	28	0	188743680	73	4681
2026-01-15 01:13:42.78	24.68	12.19	-53.3	-55.8	13.9	0.00e+00	0	28	0	189792256	73	4620
2026-01-15 01:13:43.78	24.67	12.29	-53.3	-55.7	14.0	0.00e+00	0	28	0	191889408	73	4592
2026-01-15 01:13:44.78	24.65	12.38	-53.3	-55.6	14.0	0.00e+00	0	28	0	193986560	73	4540
2026-01-15 01:13:45.78	24.63	12.48	-53.2	-55.6	14.0	0.00e+00	0	28	0	196083712	73	4510
2026-01-15 01:13:46.78	24.61	12.57	-53.2	-55.7	14.0	0.00e+00	0	28	0	197132288	73	4546
2026-01-15 01:13:47.78	24.59	12.67	-53.2	-55.6	13.9	0.00e+00	0	28	0	199229440	72	4771
2026-01-15 01:13:48.78	24.57	12.77	-53.1	-55.5	14.0	0.00e+00	0	28	0	201326592	72	4718
2026-01-15 01:13:49.79	24.55	12.86	-53.2	-55.6	13.9	0.00e+00	0	28	0	203423744	72	4792
2026-01-15 01:13:50.79	24.53	12.96	-53.2	-55.6	13.9	0.00e+00	0	28	0	205520896	72	4774
2026-01-15 01:13:51.80	24.51	13.06	-53.2	-55.6	14.0	0.00e+00	0	28	0	206569472	72	4768
2026-01-15 01:13:52.80	24.49	13.16	-53.2	-55.6	13.9	0.00e+00	0	28	0	208666624	72	4791
2026-01-15 01:13:53.79	24.47	13.25	-53.2	-55.6	14.0	0.00e+00	0	28	0	210763776	72	4767
2026-01-15 01:13:54.79	24.45	13.35	-53.2	-55.6	13.9	0.00e+00	0	28	0	212860928	72	4810
2026-01-15 01:13:55.79	24.42	13.45	-53.2	-55.7	13.9	0.00e+00	0	28	0	214958080	72	4815
2026-01-15 01:13:56.79	24.40	13.55	-53.1	-55.5	14.0	0.00e+00	0	28	0	216006656	72	4739
2026-01-15 01:13:57.78	24.38	13.65	-53.2	-55.6	13.9	0.00e+00	0	28	0	218103808	72	4783
2026-01-15 01:13:58.79	24.36	13.75	-53.1	-55.5	14.0	0.00e+00	0	28	0	220200960	72	4753
2026-01-15 01:13:59.79	24.34	13.85	-53.1	-55.5	14.0	0.00e+00	0	28	0	222298112	72	4733
2026-01-15 01:14:00.78	24.32	13.95	-53.1	-55.5	14.0	0.00e+00	0	28	0	223346688	72	4738
2026-01-15 01:14:01.79	24.29	14.05	-53.1	-55.5	14.0	0.00e+00	0	28	0	225443840	72	4712
2026-01-15 01:14:02.78	24.27	14.16	-53.1	-55.5	14.0	0.00e+00	0	28	0	227540992	72	4728
2026-01-15 01:14:03.78	24.25	14.26	-53.1	-55.5	14.0	0.00e+00	0	28	0	229638144	72	4745
2026-01-15 01:14:04.79	24.23	14.36	-53.2	-55.6	13.9	0.00e+00	0	28	0	231735296	72	4791
2026-01-15 01:14:05.78	24.20	14.46	-53.1	-55.5	14.0	0.00e+00	0	28	0	232783872	72	4731
2026-01-15 01:14:06.78	24.18	14.57	-53.1	-55.6	14.0	0.00e+00	0	28	0	234881024	72	4768
2026-01-15 01:14:07.77	24.16	14.67	-53.0	-55.4	14.1	0.00e+00	0	28	0	236978176	72	4669
2026-01-15 01:14:08.78	24.13	14.78	-53.1	-55.5	14.0	0.00e+00	0	28	0	239075328	72	4722
2026-01-15 01:14:09.77	24.11	14.88	-53.1	-55.5	14.0	0.00e+00	0	28	0	241172480	72	4725
2026-01-15 01:14:10.77	24.09	14.98	-53.1	-55.5	14.0	0.00e+00	0	28	0	242221056	72	4734
2026-01-15 01:14:11.77	24.06	15.09	-53.0	-55.3	14.1	0.00e+00	0	28	0	244318208	72	4633
2026-01-15 01:14:12.78	24.04	15.20	-52.9	-55.2	14.1	0.00e+00	0	28	0	246415360	72	4595
2026-01-15 01:14:13.78	24.02	15.30	-52.9	-55.3	14.1	0.00e+00	0	28	0	248512512	72	4604
2026-01-15 01:14:14.77	23.99	15.41	-52.8	-55.1	14.2	0.00e+00	0	28	0	250609664	72	4531
2026-01-15 01:14:15.77	23.97	15.52	-52.7	-55.0	14.2	0.00e+00	0	28	0	251658240	72	4466
2026-01-15 01:14:16.77	23.94	15.63	-52.8	-55.0	14.2	0.00e+00	0	28	0	253755392	72	4482
2026-01-15 01:14:17.78	23.92	15.74	-52.8	-55.0	14.2	0.00e+00	0	28	0	255852544	72	4476
2026-01-15 01:14:18.77	23.89	15.84	-52.8	-55.0	14.2	0.00e+00	0	28	0	257949696	72	4473
2026-01-15 01:14:19.77	23.86	15.95	-52.6	-54.8	14.2	0.00e+00	0	28	0	258998272	71	4621
2026-01-15 01:14:20.76	23.84	16.06	-52.6	-54.7	14.3	0.00e+00	0	28	0	261095424	71	4583
2026-01-15 01:14:21.76	23.81	16.17	-52.5	-54.7	14.3	0.00e+00	0	28	0	263192576	71	4570
2026-01-15 01:14:22.76	23.79	16.28	-52.5	-54.7	14.3	0.00e+00	0	28	0	265289728	71	4547
2026-01-15 01:14:23.75	23.76	16.39	-52.4	-54.5	14.4	0.00e+00	0	28	0	267386880	71	4456
2026-01-15 01:14:24.75	23.73	16.51	-52.5	-54.7	14.3	0.00e+00	0	28	0	268435456	71	4554
2026-01-15 01:14:25.75	23.71	16.62	-52.4	-54.5	14.4	0.00e+00	0	28	0	270532608	71	4444
2026-01-15 01:14:26.74	23.68	16.73	-52.4	-54.5	14.3	0.00e+00	0	28	0	272629760	71	4490
2026-01-15 01:14:27.75	23.65	16.85	-52.3	-54.4	14.4	0.00e+00	0	28	0	274726912	71	4417
2026-01-15 01:14:28.74	23.63	16.96	-52.4	-54.5	14.4	0.00e+00	0	28	0	275775488	71	4478
2026-01-15 01:14:29.73	23.60	17.07	-52.5	-54.6	14.3	0.00e+00	0	28	0	277872640	71	4494
2026-01-15 01:14:30.73	23.57	17.19	-52.3	-54.4	14.4	0.00e+00	0	28	0	279969792	71	4404
2026-01-15 01:14:31.73	23.54	17.30	-52.4	-54.4	14.4	0.00e+00	0	28	0	282066944	71	4434
2026-01-15 01:14:32.72	23.51	17.42	-52.3	-54.4	14.4	0.00e+00	0	28	0	284164096	71	4417
2026-01-15 01:14:33.72	23.48	17.53	-52.4	-54.4	14.4	0.00e+00	0	28	0	285212672	71	4440
2026-01-15 01:14:34.71	23.45	17.65	-52.5	-54.6	14.3	0.00e+00	0	28	0	287309824	71	4510
2026-01-15 01:14:35.72	23.43	17.77	-52.5	-54.5	14.4	0.00e+00	0	28	0	289406976	71	4484
2026-01-15 01:14:36.72	23.40	17.89	-52.4	-54.4	14.4	0.00e+00	0	28	0	291504128	71	4433
2026-01-15 01:14:37.71	23.37	18.01	-52.5	-54.6	14.3	0.00e+00	0	28	0	293601280	71	4520
2026-01-15 01:14:38.70	23.34	18.12	-52.4	-54.5	14.4	0.00e+00	0	28	0	294649856	71	4468
2026-01-15 01:14:39.70	23.31	18.24	-52.3	-54.3	14.5	0.00e+00	0	28	0	296747008	71	4350
2026-01-15 01:14:40.69	23.28	18.36	-52.3	-54.4	14.4	0.00e+00	0	28	0	298844160	71	4401
2026-01-15 01:14:41.69	23.24	18.48	-52.3	-54.3	14.5	0.00e+00	0	28	0	300941312	71	4361
2026-01-15 01:14:42.68	23.21	18.61	-52.3	-54.3	14.5	0.00e+00	0	28	0	301989888	71	4356
2026-01-15 01:14:43.68	23.18	18.73	-52.3	-54.3	14.5	0.00e+00	0	28	0	304087040	71	4345
2026-01-15 01:14:44.67	23.15	18.85	-52.3	-54.3	14.5	0.00e+00	0	28	0	306184192	71	4344
2026-01-15 01:14:45.68	23.12	18.97	-52.3	-54.3	14.5	0.00e+00	0	28	0	308281344	71	4362
2026-01-15 01:14:46.68	23.09	19.10	-52.2	-54.2	14.4	0.00e+00	0	28	0	310378496	70	4580
2026-01-15 01:14:47.67	23.05	19.22	-52.2	-54.1	14.4	0.00e+00	0	28	0	311427072	70	4525
2026-01-15 01:14:48.67	23.02	19.35	-52.1	-54.0	14.5	0.00e+00	0	28	0	313524224	70	4463
2026-01-15 01:14:49.67	22.99	19.47	-52.2	-54.1	14.4	0.00e+00	0	28	0	315621376	70	4529
2026-01-15 01:14:50.66	22.95	19.60	-52.3	-54.2	14.4	0.00e+00	0	28	0	317718528	70	4591
2026-01-15 01:14:51.67	22.92	19.73	-52.1	-54.1	14.5	0.00e+00	0	28	0	319815680	70	4508
2026-01-15 01:14:52.66	22.88	19.86	-52.2	-54.2	14.4	0.00e+00	0	28	0	320864256	70	4556
2026-01-15 01:14:53.66	22.85	19.98	-52.3	-54.3	14.4	0.00e+00	0	28	0	322961408	70	4634
2026-01-15 01:14:54.66	22.81	20.11	-52.2	-54.2	14.4	0.00e+00	0	28	0	325058560	70	4580
2026-01-15 01:14:55.67	22.78	20.24	-52.2	-54.1	14.4	0.00e+00	0	28	0	327155712	70	4539
2026-01-15 01:14:56.68	22.74	20.38	-52.2	-54.1	14.4	0.00e+00	0	28	0	328204288	70	4542
2026-01-15 01:14:57.68	22.71	20.51	-52.3	-54.3	14.4	0.00e+00	0	28	0	330301440	70	4609
2026-01-15 01:14:58.67	22.67	20.64	-52.3	-54.3	14.4	0.00e+00	0	28	0	332398592	70	4635
2026-01-15 01:14:59.67	22.63	20.77	-52.3	-54.3	14.4	0.00e+00	0	28	0	334495744	70	4618
2026-01-15 01:15:00.67	22.60	20.90	-52.1	-54.0	14.5	0.00e+00	0	28	0	336592896	70	4483
2026-01-15 01:15:01.66	22.56	21.04	-52.2	-54.1	14.4	0.00e+00	0	28	0	337641472	70	4540
2026-01-15 01:15:02.66	22.52	21.17	-52.1	-54.1	14.5	0.00e+00	0	28	0	339738624	70	4510
2026-01-15 01:15:03.66	22.49	21.31	-52.1	-54.0	14.5	0.00e+00	0	28	0	341835776	70	4475
2026-01-15 01:15:04.65	22.45	21.44	-52.1	-54.1	14.5	0.00e+00	0	28	0	343932928	70	4518
2026-01-15 01:15:05.65	22.41	21.58	-52.2	-54.2	14.4	0.00e+00	0	28	0	346030080	70	4553
2026-01-15 01:15:06.66	22.37	21.72	-52.2	-54.2	14.4	0.00e+00	0	28	0	347078656	70	4594
2026-01-15 01:15:07.66	22.33	21.86	-52.3	-54.3	14.4	0.00e+00	0	28	0	349175808	70	4621
2026-01-15 01:15:08.66	22.29	22.00	-52.1	-54.0	14.5	0.00e+00	0	28	0	351272960	70	4492
2026-01-15 01:15:09.66	22.25	22.14	-52.2	-54.2	14.4	0.00e+00	0	28	0	353370112	70	4588
2026-01-15 01:15:10.66	22.21	22.28	-52.2	-54.2	14.4	0.00e+00	0	28	0	354418688	70	4560
2026-01-15 01:15:11.65	22.17	22.42	-52.0	-54.0	14.5	0.00e+00	0	28	0	356515840	70	4448
2026-01-15 01:15:12.66	22.12	22.56	-52.1	-54.0	14.5	0.00e+00	0	28	0	358612992	70	4469
2026-01-15 01:15:13.67	22.08	22.70	-52.2	-54.1	14.5	0.00e+00	0	28	0	360710144	70	4525
2026-01-15 01:15:14.66	22.04	22.85	-52.2	-54.2	14.4	0.00e+00	0	28	0	362807296	70	4563
2026-01-15 01:15:15.66	22.00	22.99	-52.1	-54.0	14.5	0.00e+00	0	28	0	363855872	70	4468
2026-01-15 01:15:16.66	21.95	23.14	-52.2	-54.1	14.5	0.00e+00	0	28	0	365953024	70	4498
2026-01-15 01:15:17.65	21.91	23.28	-52.3	-54.2	14.4	0.00e+00	0	28	0	368050176	70	4594
2026-01-15 01:15:18.65	21.87	23.43	-51.9	-53.8	14.6	0.00e+00	0	28	0	370147328	70	4361
2026-01-15 01:15:19.66	21.82	23.58	-51.8	-53.6	14.7	0.00e+00	0	28	0	372244480	70	4252
2026-01-15 01:15:20.65	21.78	23.72	-51.8	-53.6	14.7	0.00e+00	0	28	0	373293056	70	4273
2026-01-15 01:15:21.65	21.73	23.87	-51.8	-53.6	14.7	0.00e+00	0	28	0	375390208	70	4247
2026-01-15 01:15:22.65	21.69	24.02	-52.0	-53.9	14.4	0.00e+00	0	28	0	377487360	69	4675
2026-01-15 01:15:23.66	21.64	24.18	-52.0	-53.8	14.4	0.00e+00	0	28	0	379584512	69	4639
2026-01-15 01:15:24.66	21.59	24.33	-51.9	-53.8	14.5	0.00e+00	0	28	0	381681664	69	4605
2026-01-15 01:15:25.66	21.54	24.48	-52.1	-54.1	14.4	0.00e+00	0	28	0	382730240	69	4772
2026-01-15 01:15:26.65	21.50	24.63	-52.0	-53.9	14.4	0.00e+00	0	28	0	384827392	69	4683
2026-01-15 01:15:27.66	21.45	24.79	-52.3	-54.2	14.3	0.00e+00	0	28	0	386924544	69	4866
2026-01-15 01:15:28.65	21.40	24.94	-52.4	-54.4	14.4	0.00e+00	0	28	0	389021696	70	4668
2026-01-15 01:15:29.65	21.35	25.10	-52.6	-54.6	14.3	0.00e+00	0	28	0	390070272	70	4774
2026-01-15 01:15:30.64	21.30	25.26	-52.7	-54.8	14.2	0.00e+00	0	28	0	392167424	70	4923
2026-01-15 01:15:31.64	21.25	25.41	-52.8	-54.9	14.3	0.00e+00	0	28	0	394264576	71	4658
2026-01-15 01:15:32.64	21.20	25.57	-52.8	-54.9	14.3	0.00e+00	0	28	0	396361728	71	4666
2026-01-15 01:15:33.63	21.15	25.73	-52.9	-55.1	14.2	0.00e+00	0	28	0	398458880	71	4766
2026-01-15 01:15:34.62	21.09	25.89	-52.6	-54.6	14.4	0.00e+00	0	28	0	399507456	71	4508
2026-01-15 01:15:35.62	21.04	26.05	-52.3	-54.1	14.6	0.00e+00	0	28	0	401604608	71	4285
2026-01-15 01:15:36.62	20.99	26.22	-52.1	-54.0	14.6	0.00e+00	0	28	0	403701760	70	4446
2026-01-15 01:15:37.60	20.93	26.38	-52.1	-54.0	14.6	0.00e+00	0	28	0	405798912	70	4453
2026-01-15 01:15:38.60	20.88	26.54	-52.3	-54.1	14.5	0.00e+00	0	28	0	406847488	70	4514
2026-01-15 01:15:39.60	20.82	26.71	-52.0	-53.8	14.6	0.00e+00	0	28	0	408944640	70	4367
2026-01-15 01:15:40.60	20.77	26.87	-52.1	-53.9	14.6	0.00e+00	0	28	0	411041792	70	4423
2026-01-15 01:15:41.61	20.71	27.04	-52.6	-54.5	14.3	0.00e+00	0	28	0	413138944	70	4758
2026-01-15 01:15:42.61	20.65	27.21	-52.5	-54.3	14.4	0.00e+00	0	28	0	415236096	70	4651
2026-01-15 01:15:43.60	20.60	27.38	-52.5	-54.4	14.4	0.00e+00	0	28	0	416284672	70	4685
2026-01-15 01:15:44.60	20.54	27.55	-52.7	-54.6	14.4	0.00e+00	0	28	0	418381824	71	4495
2026-01-15 01:15:45.60	20.48	27.72	-52.9	-54.9	14.3	0.00e+00	0	28	0	420478976	71	4657
2026-01-15 01:15:46.59	20.42	27.89	-53.0	-55.0	14.2	0.00e+00	0	28	0	422576128	71	4716
2026-01-15 01:15:47.59	20.36	28.07	-52.7	-54.7	14.3	0.00e+00	0	28	0	423624704	71	4573
2026-01-15 01:15:48.59	20.30	28.24	-52.6	-54.5	14.4	0.00e+00	0	28	0	425721856	71	4462
2026-01-15 01:15:49.59	20.24	28.42	-53.1	-55.2	14.1	0.00e+00	0	28	0	427819008	71	4844
2026-01-15 01:15:50.59	20.17	28.60	-52.8	-54.9	14.3	0.00e+00	0	28	0	429916160	71	4667
2026-01-15 01:15:51.57	20.11	28.77	-52.7	-54.7	14.4	0.00e+00	0	28	0	432013312	71	4554
2026-01-15 01:15:52.58	20.05	28.95	-52.7	-54.7	14.4	0.00e+00	0	28	0	433061888	71	4586
2026-01-15 01:15:53.58	19.98	29.13	-52.9	-55.0	14.3	0.00e+00	0	28	0	435159040	71	4707
2026-01-15 01:15:54.57	19.92	29.31	-53.1	-55.3	14.1	0.00e+00	0	28	0	437256192	71	4882
2026-01-15 01:15:55.57	19.85	29.49	-53.2	-55.4	14.2	0.00e+00	0	28	0	439353344	72	4684
2026-01-15 01:15:56.56	19.78	29.68	-53.4	-55.6	14.1	0.00e+00	0	28	0	441450496	72	4772
2026-01-15 01:15:57.57	19.71	29.86	-53.9	-56.3	13.8	0.00e+00	0	28	0	442499072	72	5197
2026-01-15 01:15:58.57	19.65	30.05	-54.0	-56.4	13.8	0.00e+00	0	28	0	444596224	73	4971
2026-01-15 01:15:59.57	19.58	30.24	-54.0	-56.5	13.8	0.00e+00	0	28	0	446693376	73	4993
2026-01-15 01:16:00.56	19.51	30.42	-53.9	-56.3	13.8	0.00e+00	0	28	0	448790528	73	4898
2026-01-15 01:16:01.57	19.43	30.61	-54.0	-56.5	13.8	0.00e+00	0	28	0	449839104	73	4986
2026-01-15 01:16:02.57	19.36	30.81	-53.7	-56.1	13.9	0.00e+00	0	28	0	451936256	73	4772
2026-01-15 01:16:03.56	19.29	31.00	-53.4	-55.6	14.2	0.00e+00	0	28	0	454033408	73	4544
2026-01-15 01:16:04.56	19.21	31.19	-53.6	-55.8	14.1	0.00e+00	0	28	0	456130560	73	4630
2026-01-15 01:16:05.57	19.14	31.39	-53.9	-56.3	13.9	0.00e+00	0	28	0	458227712	73	4889
2026-01-15 01:16:06.57	19.06	31.58	-53.8	-56.2	13.9	0.00e+00	0	28	0	459276288	73	4855
2026-01-15 01:16:07.56	18.99	31.78	-54.2	-56.7	13.7	0.00e+00	0	28	0	461373440	73	5138
2026-01-15 01:16:08.57	18.91	31.98	-54.5	-57.1	13.6	0.00e+00	0	28	0	463470592	74	5070
2026-01-15 01:16:09.57	18.83	32.18	-54.9	-57.7	13.2	0.00e+00	0	28	0	465567744	74	5463
2026-01-15 01:16:10.57	18.75	32.38	-55.0	-57.9	13.2	0.00e+00	0	28	0	467664896	75	5250
2026-01-15 01:16:11.57	18.67	32.58	-55.1	-58.0	13.1	0.00e+00	0	28	0	468713472	75	5337
2026-01-15 01:16:12.57	18.58	32.78	-55.3	-58.3	13.2	0.00e+00	0	28	0	470810624	76	5176
2026-01-15 01:16:13.56	18.50	32.99	-55.5	-58.7	12.9	0.00e+00	0	28	0	472907776	76	5419
2026-01-15 01:16:14.56	18.42	33.19	-55.1	-58.0	13.3	0.00e+00	0	28	0	475004928	76	5014
2026-01-15 01:16:15.56	18.33	33.40	-55.2	-58.1	13.2	0.00e+00	0	28	0	477102080	76	5079
2026-01-15 01:16:16.56	18.24	33.61	-55.2	-58.2	13.1	0.00e+00	0	28	0	478150656	76	5129
2026-01-15 01:16:17.56	18.16	33.82	-55.3	-58.4	13.0	0.00e+00	0	28	0	480247808	76	5276
2026-01-15 01:16:18.55	18.07	34.03	-55.4	-58.7	12.9	0.00e+00	0	28	0	482344960	76	5456
2026-01-15 01:16:19.55	17.98	34.24	-55.4	-58.9	12.7	0.00e+00	0	28	0	484442112	76	5537
2026-01-15 01:16:20.56	17.89	34.46	-55.7	-59.3	12.5	7.00e-07	0	28	0	485490688	76	5796
2026-01-15 01:16:21.56	17.79	34.67	-56.0	-59.9	12.3	0.00e+00	0	28	0	487587840	77	5863
2026-01-15 01:16:22.57	17.70	34.89	-55.3	-58.6	13.0	0.00e+00	0	28	0	489684992	77	5094
2026-01-15 01:16:23.56	17.60	35.11	-55.0	-58.0	13.3	0.00e+00	0	28	0	491782144	76	5027
2026-01-15 01:16:24.56	17.51	35.33	-54.9	-57.7	13.4	0.00e+00	0	28	0	493879296	76	4863
2026-01-15 01:16:25.55	17.41	35.55	-54.6	-57.4	13.5	0.00e+00	0	28	0	494927872	75	4948
2026-01-15 01:16:26.55	17.31	35.77	-54.8	-57.7	13.3	0.00e+00	0	28	0	497025024	75	5137
2026-01-15 01:16:27.55	17.21	35.99	-54.8	-57.8	13.3	0.00e+00	0	28	0	499122176	75	5204
2026-01-15 01:16:28.54	17.11	36.22	-54.8	-57.8	13.3	0.00e+00	0	28	0	501219328	75	5213
2026-01-15 01:16:29.54	17.00	36.44	-55.1	-58.4	12.9	0.00e+00	0	28	0	502267904	75	5536
2026-01-15 01:16:30.54	16.90	36.67	-55.0	-58.1	13.1	0.00e+00	0	28	0	504365056	75	5395
2026-01-15 01:16:31.54	16.79	36.90	-54.8	-57.9	13.2	0.00e+00	0	28	0	506462208	75	5221
2026-01-15 01:16:32.53	16.68	37.13	-54.2	-56.9	13.7	0.00e+00	0	28	0	508559360	75	4671
2026-01-15 01:16:33.54	16.57	37.37	-53.8	-56.3	14.0	0.00e+00	0	28	0	510656512	74	4599
2026-01-15 01:16:34.53	16.46	37.60	-53.5	-55.9	14.0	0.00e+00	0	28	0	511705088	73	4658
2026-01-15 01:16:35.52	16.35	37.83	-53.1	-55.3	14.2	0.00e+00	0	28	0	513802240	72	4608
2026-01-15 01:16:36.52	16.23	38.07	-53.2	-55.3	14.2	0.00e+00	0	28	0	515899392	72	4640
2026-01-15 01:16:37.51	16.12	38.31	-52.6	-54.7	14.4	0.00e+00	0	28	0	517996544	71	4570
2026-01-15 01:16:38.51	16.00	38.55	-53.0	-55.2	14.2	0.00e+00	0	28	0	520093696	71	4827
2026-01-15 01:16:39.52	15.88	38.79	-53.3	-55.6	14.0	0.00e+00	0	28	0	521142272	72	4809
2026-01-15 01:16:40.51	15.76	39.03	-53.3	-55.7	14.0	0.00e+00	0	28	0	523239424	72	4843
2026-01-15 01:16:41.51	15.63	39.28	-53.5	-56.0	13.9	0.00e+00	0	28	0	525336576	72	4995
2026-01-15 01:16:42.50	15.51	39.52	-53.8	-56.3	13.8	0.00e+00	0	28	0	527433728	72	5210
2026-01-15 01:16:43.49	15.38	39.77	-53.6	-56.0	13.9	0.00e+00	0	28	0	529530880	72	5036
2026-01-15 01:16:44.49	15.25	40.02	-53.8	-56.3	13.8	0.00e+00	0	28	0	530579456	72	5173
2026-01-15 01:16:45.48	15.12	40.27	-53.4	-55.6	14.1	0.00e+00	0	28	0	532676608	72	4787
2026-01-15 01:16:46.47	14.99	40.52	-53.7	-56.2	13.8	0.00e+00	0	28	0	534773760	72	5148
2026-01-15 01:16:47.48	14.85	40.78	-53.9	-56.5	13.8	0.00e+00	0	28	0	536870912	73	5019
2026-01-15 01:16:48.48	14.71	41.04	-54.1	-56.9	13.6	0.00e+00	0	28	0	537919488	73	5256
2026-01-15 01:16:49.48	14.57	41.29	-54.0	-56.8	13.6	0.00e+00	0	28	0	540016640	73	5195
2026-01-15 01:16:50.47	14.43	41.55	-54.3	-57.2	13.5	0.00e+00	0	28	0	542113792	73	5447
2026-01-15 01:16:51.47	14.28	41.81	-54.1	-57.0	13.5	0.00e+00	0	28	0	544210944	73	5283
2026-01-15 01:16:52.46	14.13	42.07	-53.9	-56.7	13.6	0.00e+00	0	28	0	546308096	73	5146
2026-01-15 01:16:53.46	13.98	42.34	-53.8	-56.6	13.7	0.00e+00	0	28	0	547356672	73	5092
2026-01-15 01:16:54.45	13.83	42.60	-54.1	-57.1	13.4	0.00e+00	0	28	0	549453824	73	5398
2026-01-15 01:16:55.46	13.67	42.87	-54.3	-57.4	13.3	0.00e+00	0	28	0	551550976	74	5226
2026-01-15 01:16:56.46	13.51	43.14	-54.5	-57.7	13.2	0.00e+00	0	28	0	553648128	74	5420
2026-01-15 01:16:57.46	13.35	43.42	-54.7	-58.0	13.1	0.00e+00	0	28	0	554696704	74	5630
2026-01-15 01:16:58.46	13.19	43.69	-54.5	-57.8	13.0	0.00e+00	0	28	0	556793856	74	5511
2026-01-15 01:16:59.46	13.02	43.96	-54.4	-57.6	13.2	0.00e+00	0	28	0	558891008	74	5385
2026-01-15 01:17:00.46	12.85	44.24	-54.1	-57.2	13.4	0.00e+00	0	28	0	560988160	74	5129
2026-01-15 01:17:01.47	12.68	44.52	-54.3	-57.8	13.1	0.00e+00	0	28	0	563085312	74	5491
2026-01-15 01:17:02.48	12.50	44.81	-53.9	-57.0	13.5	0.00e+00	0	28	0	564133888	74	5011
2026-01-15 01:17:03.47	12.32	45.08	-53.4	-56.4	13.7	0.00e+00	0	28	0	566231040	73	4941
2026-01-15 01:17:04.47	12.14	45.37	-53.2	-56.0	13.9	0.00e+00	0	28	0	568328192	73	4728
2026-01-15 01:17:05.46	11.95	45.65	-53.0	-55.7	14.0	0.00e+00	0	28	0	570425344	72	4861
2026-01-15 01:17:06.46	11.76	45.94	-52.9	-55.4	14.1	0.00e+00	0	28	0	572522496	72	4687
2026-01-15 01:17:07.46	11.57	46.23	-53.2	-55.7	14.0	0.00e+00	0	28	0	573571072	72	4861
2026-01-15 01:17:08.46	11.37	46.52	-53.5	-56.3	13.8	0.00e+00	0	28	0	575668224	72	5163
2026-01-15 01:17:09.45	11.17	46.80	-53.9	-56.6	13.7	0.00e+00	0	28	0	577765376	73	5091
2026-01-15 01:17:10.45	10.97	47.10	-53.8	-56.5	13.8	0.00e+00	0	28	0	579862528	73	5013
2026-01-15 01:17:11.45	10.76	47.39	-53.7	-56.3	13.9	0.00e+00	0	28	0	580911104	73	4872
2026-01-15 01:17:12.44	10.55	47.69	-53.3	-55.6	14.1	0.00e+00	0	28	0	583008256	72	4803
2026-01-15 01:17:13.43	10.33	47.98	-53.3	-55.6	14.1	0.00e+00	0	28	0	585105408	72	4784
2026-01-15 01:17:14.43	10.11	48.28	-53.1	-55.3	14.3	0.00e+00	0	28	0	587202560	72	4629
2026-01-15 01:17:15.42	9.89	48.58	-53.1	-55.4	14.1	0.00e+00	0	28	0	589299712	71	4931
2026-01-15 01:17:16.42	9.66	48.88	-53.2	-55.5	14.0	0.00e+00	0	28	0	590348288	71	5034
2026-01-15 01:17:17.43	9.42	49.19	-53.2	-55.6	14.1	0.00e+00	0	28	0	592445440	72	4763
2026-01-15 01:17:18.43	9.18	49.50	-53.1	-55.3	14.2	0.00e+00	0	28	0	594542592	72	4628
2026-01-15 01:17:19.43	8.94	49.81	-52.9	-55.0	14.3	0.00e+00	0	28	0	596639744	72	4487
2026-01-15 01:17:20.43	8.69	50.12	-52.8	-55.0	14.3	0.00e+00	0	28	0	597688320	71	4715
2026-01-15 01:17:21.42	8.44	50.42	-53.0	-55.3	14.2	0.00e+00	0	28	0	599785472	71	4879
2026-01-15 01:17:22.41	8.18	50.73	-52.7	-54.8	14.3	0.00e+00	0	28	0	601882624	71	4650
2026-01-15 01:17:23.41	7.91	51.05	-53.1	-55.4	14.1	0.00e+00	0	28	0	603979776	71	4954
2026-01-15 01:17:24.41	7.64	51.36	-53.0	-55.2	14.2	0.00e+00	0	28	0	606076928	71	4870
2026-01-15 01:17:25.41	7.37	51.68	-53.0	-55.1	14.3	0.00e+00	0	28	0	607125504	71	4806
2026-01-15 01:17:26.41	7.08	52.00	-52.9	-55.1	14.3	0.00e+00	0	28	0	609222656	71	4800
2026-01-15 01:17:27.42	6.79	52.32	-53.2	-55.4	14.1	0.00e+00	0	28	0	611319808	71	4972
2026-01-15 01:17:28.42	6.49	52.64	-53.4	-55.7	14.1	0.00e+00	0	28	0	613416960	72	4868
2026-01-15 01:17:29.41	6.20	52.96	-53.3	-55.7	14.1	0.00e+00	0	28	0	615514112	72	4846
2026-01-15 01:17:30.41	5.89	53.28	-53.4	-55.9	14.1	0.00e+00	0	28	0	616562688	72	4927
2026-01-15 01:17:31.41	5.57	53.61	-52.1	-54.1	14.5	0.00e+00	0	28	0	618659840	70	4510
2026-01-15 01:17:32.41	5.25	53.93	-51.9	-53.8	14.6	0.00e+00	0	28	0	620756992	70	4346
2026-01-15 01:17:33.40	4.92	54.26	-52.3	-54.3	14.5	0.00e+00	0	28	0	622854144	70	4612
2026-01-15 01:17:34.40	4.58	54.58	-52.6	-54.7	14.3	0.00e+00	0	28	0	624951296	70	4848
2026-01-15 01:17:35.40	4.23	54.91	-52.7	-54.9	14.2	0.00e+00	0	28	0	625999872	70	4981
2026-01-15 01:17:36.40	3.88	55.24	-52.6	-54.7	14.3	0.00e+00	0	28	0	628097024	70	4868
2026-01-15 01:17:37.40	3.52	55.57	-51.9	-53.8	14.6	0.00e+00	0	28	0	630194176	70	4353
2026-01-15 01:17:38.40	3.14	55.90	-51.6	-53.5	14.6	0.00e+00	0	28	0	632291328	69	4458
2026-01-15 01:17:39.40	2.76	56.24	-52.7	-54.9	14.1	0.00e+00	0	28	0	633339904	70	4959
2026-01-15 01:17:40.40	2.37	56.57	-53.2	-55.6	14.0	0.00e+00	0	28	0	635437056	71	5081
2026-01-15 01:17:41.40	1.97	56.90	-54.1	-56.8	13.7	0.00e+00	0	28	0	637534208	73	5196
2026-01-15 01:17:42.39	1.57	57.23	-53.5	-55.9	14.1	0.00e+00	0	28	0	639631360	73	4661
2026-01-15 01:17:43.39	1.15	57.57	-53.6	-55.9	14.1	0.00e+00	0	28	0	641728512	73	4704
2026-01-15 01:17:44.38	0.72	57.90	-53.7	-56.2	14.0	0.00e+00	0	28	0	642777088	73	4849
2026-01-15 01:17:45.38	0.28	58.24	-54.0	-56.4	13.9	0.00e+00	0	28	0	644874240	73	4975
2026-01-15 01:17:46.37	359.83	58.57	-53.7	-56.0	14.1	0.00e+00	0	28	0	646971392	73	4750
2026-01-15 01:17:47.36	359.37	58.90	-53.5	-55.7	14.2	0.00e+00	0	28	0	649068544	73	4592
2026-01-15 01:17:48.35	358.90	59.24	-53.1	-55.4	14.2	0.00e+00	0	28	0	650117120	72	4671
2026-01-15 01:17:49.35	358.41	59.57	-53.5	-55.8	14.1	0.00e+00	0	28	0	652214272	72	4912
2026-01-15 01:17:50.35	357.91	59.91	-53.1	-55.4	14.3	0.00e+00	0	28	0	654311424	72	4666
2026-01-15 01:17:51.35	357.39	60.24	-52.7	-54.7	14.4	0.00e+00	0	28	0	656408576	71	4585
2026-01-15 01:17:52.35	356.86	60.58	-52.9	-55.0	14.3	0.00e+00	0	28	0	658505728	71	4706
2026-01-15 01:17:53.35	356.32	60.91	-53.5	-55.8	14.1	0.00e+00	0	28	0	659554304	72	4876
2026-01-15 01:17:54.34	355.77	61.24	-53.6	-56.0	14.0	0.00e+00	0	28	0	661651456	72	5037
2026-01-15 01:17:55.35	355.19	61.58	-53.2	-55.4	14.3	0.00e+00	0	28	0	663748608	72	4698
2026-01-15 01:17:56.35	354.60	61.91	-53.2	-55.4	14.3	0.00e+00	0	28	0	665845760	72	4668
2026-01-15 01:17:57.35	353.99	62.25	-53.4	-55.7	14.1	0.00e+00	0	28	0	667942912	72	4854
2026-01-15 01:17:58.35	353.37	62.58	-53.2	-55.4	14.2	0.00e+00	0	28	0	668991488	72	4683
2026-01-15 01:17:59.36	352.72	62.91	-52.6	-54.7	14.5	0.00e+00	0	28	0	671088640	71	4550
2026-01-15 01:18:00.36	352.07	63.24	-52.0	-53.8	14.7	0.00e+00	0	28	0	673185792	70	4389
2026-01-15 01:18:01.36	351.39	63.56	-51.2	-53.0	14.9	0.00e+00	0	28	0	675282944	69	4196
2026-01-15 01:18:02.36	350.70	63.89	-50.4	-52.0	15.0	0.00e+00	0	28	0	677380096	67	4208
2026-01-15 01:18:03.36	349.98	64.21	-50.8	-52.4	14.8	0.00e+00	0	28	0	678428672	67	4431
2026-01-15 01:18:04.36	349.25	64.53	-51.8	-53.6	14.6	0.00e+00	0	28	0	680525824	68	4795
2026-01-15 01:18:05.35	348.50	64.84	-52.0	-53.9	14.5	0.00e+00	0	28	0	682622976	69	4674
2026-01-15 01:18:06.35	347.72	65.15	-51.4	-53.0	14.9	0.00e+00	0	28	0	684720128	69	4240
2026-01-15 01:18:07.35	346.92	65.47	-51.4	-53.1	14.8	0.00e+00	0	28	0	685768704	69	4271
2026-01-15 01:18:08.34	346.11	65.77	-51.8	-53.6	14.5	0.00e+00	0	28	0	687865856	68	4805
2026-01-15 01:18:09.34	345.26	66.08	-53.1	-55.3	14.3	0.00e+00	0	28	0	689963008	71	4879
2026-01-15 01:18:10.35	344.38	66.38	-54.1	-56.7	13.9	0.00e+00	0	28	0	692060160	73	5112
2026-01-15 01:18:11.35	343.49	66.68	-54.8	-57.5	13.7	0.00e+00	0	28	0	694157312	75	4986
2026-01-15 01:18:12.35	342.57	66.97	-55.5	-58.6	13.1	0.00e+00	0	28	0	695205888	76	5356
2026-01-15 01:18:13.35	341.62	67.26	-56.2	-59.7	12.5	0.00e+00	0	28	0	697303040	77	5779
2026-01-15 01:18:14.35	340.65	67.54	-55.9	-59.4	12.8	0.00e+00	0	28	0	699400192	77	5531
2026-01-15 01:18:15.35	339.65	67.82	-55.5	-58.6	13.2	0.00e+00	0	28	0	701497344	77	5094
2026-01-15 01:18:16.35	338.63	68.09	-55.2	-58.1	13.3	0.00e+00	0	28	0	703594496	76	5054
2026-01-15 01:18:17.35	337.57	68.35	-54.5	-57.0	13.8	0.00e+00	0	28	0	704643072	75	4725
2026-01-15 01:18:18.35	336.49	68.61	-54.2	-56.5	14.0	0.00e+00	0	28	0	706740224	74	4711
2026-01-15 01:18:19.35	335.38	68.87	-54.4	-56.7	13.9	0.00e+00	0	28	0	708837376	74	4867
2026-01-15 01:18:20.35	334.24	69.11	-54.7	-57.3	13.6	0.00e+00	0	28	0	710934528	74	5181
2026-01-15 01:18:21.35	333.07	69.35	-54.5	-56.9	13.9	0.00e+00	0	28	0	711983104	74	4938
2026-01-15 01:18:22.35	331.88	69.59	-53.9	-56.0	14.2	0.00e+00	0	28	0	714080256	74	4453
2026-01-15 01:18:23.35	330.65	69.81	-54.2	-56.6	14.0	0.00e+00	0	28	0	716177408	74	4782
2026-01-15 01:18:24.34	329.41	70.02	-54.7	-57.3	13.7	0.00e+00	0	28	0	718274560	74	5173
2026-01-15 01:18:25.33	328.14	70.23	-54.5	-57.1	13.7	0.00e+00	0	28	0	720371712	75	4766
2026-01-15 01:18:26.33	326.82	70.42	-53.8	-56.0	14.2	0.00e+00	0	28	0	721420288	73	4719
2026-01-15 01:18:27.33	325.48	70.61	-54.0	-56.4	14.0	0.00e+00	0	28	0	723517440	73	4950
2026-01-15 01:18:28.33	324.12	70.79	-54.3	-56.8	13.8	0.00e+00	0	28	0	725614592	73	5197
2026-01-15 01:18:29.33	322.72	70.96	-54.2	-56.5	13.9	0.00e+00	0	28	0	727711744	73	5025
2026-01-15 01:18:30.33	321.30	71.12	-54.2	-56.5	13.9	0.00e+00	0	28	0	728760320	73	5028
2026-01-15 01:18:31.33	319.86	71.26	-54.1	-56.4	14.0	0.00e+00	0	28	0	730857472	73	4966
2026-01-15 01:18:32.33	318.39	71.40	-54.5	-57.0	13.8	0.00e+00	0	28	0	732954624	74	5006
2026-01-15 01:18:33.33	316.90	71.52	-55.2	-58.1	13.4	0.00e+00	0	28	0	735051776	75	5349
2026-01-15 01:18:34.32	315.40	71.63	-56.0	-59.2	12.9	0.00e+00	0	28	0	737148928	77	5422
2026-01-15 01:18:35.32	313.88	71.73	-56.2	-59.7	12.5	0.00e+00	0	28	0	738197504	77	5783
2026-01-15 01:18:36.33	312.32	71.82	-56.3	-60.0	12.5	0.00e+00	0	28	0	740294656	78	5615
2026-01-15 01:18:37.32	310.77	71.89	-55.8	-59.1	12.8	7.00e-07	0	28	0	742391808	78	5087
2026-01-15 01:18:38.32	309.20	71.96	-54.6	-57.0	13.8	0.00e+00	0	28	0	744488960	75	4747
2026-01-15 01:18:39.32	307.62	72.01	-54.4	-56.9	13.8	0.00e+00	0	28	0	746586112	74	4932
2026-01-15 01:18:40.32	306.03	72.04	-54.7	-57.4	13.5	0.00e+00	0	28	0	747634688	74	5274
2026-01-15 01:18:41.32	304.43	72.06	-54.8	-57.5	13.6	0.00e+00	0	28	0	749731840	75	5024
2026-01-15 01:18:42.31	302.85	72.07	-55.0	-57.8	13.4	0.00e+00	0	28	0	751828992	75	5188
2026-01-15 01:18:43.30	301.26	72.07	-54.9	-57.6	13.5	0.00e+00	0	28	0	753926144	75	5095
2026-01-15 01:18:44.30	299.66	72.05	-54.6	-57.3	13.7	0.00e+00	0	28	0	756023296	75	4891
2026-01-15 01:18:45.29	298.09	72.02	-53.5	-55.6	14.3	0.00e+00	0	28	0	757071872	73	4504
2026-01-15 01:18:46.28	296.52	71.98	-53.3	-55.3	14.5	0.00e+00	0	28	0	759169024	73	4344
2026-01-15 01:18:47.27	294.95	71.93	-54.0	-56.3	14.0	0.00e+00	0	28	0	761266176	73	4895
2026-01-15 01:18:48.27	293.39	71.86	-53.4	-55.5	14.4	0.00e+00	0	28	0	763363328	73	4443
2026-01-15 01:18:49.27	291.83	71.78	-53.4	-55.3	14.4	0.00e+00	0	28	0	764411904	73	4375
2026-01-15 01:18:50.27	290.30	71.68	-53.6	-55.7	14.2	0.00e+00	0	28	0	766509056	72	4843
2026-01-15 01:18:51.27	288.78	71.58	-53.6	-55.7	14.2	0.00e+00	0	28	0	768606208	73	4569
2026-01-15 01:18:52.26	287.29	71.46	-54.1	-56.4	14.0	0.00e+00	0	28	0	770703360	73	4933
2026-01-15 01:18:53.26	285.81	71.33	-55.3	-58.0	13.3	0.00e+00	0	28	0	772800512	75	5332
2026-01-15 01:18:54.26	284.36	71.19	-55.7	-58.7	13.2	0.00e+00	0	28	0	773849088	76	5431
2026-01-15 01:18:55.26	282.93	71.03	-54.8	-57.1	13.9	0.00e+00	0	28	0	775946240	76	4529
2026-01-15 01:18:56.26	281.52	70.87	-55.1	-57.7	13.5	0.00e+00	0	28	0	778043392	75	5141
2026-01-15 01:18:57.26	280.14	70.70	-55.4	-58.1	13.5	0.00e+00	0	28	0	780140544	76	5080
2026-01-15 01:18:58.27	278.77	70.51	-55.9	-58.8	13.1	0.00e+00	0	28	0	781189120	77	5215
2026-01-15 01:18:59.27	277.44	70.32	-56.3	-59.7	12.6	0.00e+00	0	28	0	783286272	77	5766
2026-01-15 01:19:00.27	276.15	70.12	-55.4	-58.2	13.5	0.00e+00	0	28	0	785383424	77	4820
2026-01-15 01:19:01.27	274.88	69.90	-56.0	-59.3	12.8	0.00e+00	0	28	0	787480576	77	5483
2026-01-15 01:19:02.27	273.64	69.68	-56.9	-60.9	11.9	7.00e-07	0	28	0	789577728	79	5868
2026-01-15 01:19:03.27	272.43	69.46	-56.2	-59.5	12.9	7.00e-07	0	28	0	790626304	79	4995
2026-01-15 01:19:04.27	271.24	69.22	-55.5	-58.4	13.3	0.00e+00	0	28	0	792723456	77	4956
2026-01-15 01:19:05.27	270.09	68.98	-56.3	-59.5	12.8	0.00e+00	0	28	0	794820608	77	5637
2026-01-15 01:19:06.27	268.97	68.73	-54.5	-56.7	13.9	0.00e+00	0	28	0	796917760	75	4584
2026-01-15 01:19:07.27	267.87	68.47	-53.9	-56.0	14.3	0.00e+00	0	28	0	799014912	74	4478
2026-01-15 01:19:08.27	266.81	68.20	-54.2	-56.4	14.1	0.00e+00	0	28	0	800063488	74	4677
2026-01-15 01:19:09.27	265.77	67.93	-54.9	-57.4	13.6	0.00e+00	0	28	0	802160640	75	4966
2026-01-15 01:19:10.27	264.75	67.66	-55.0	-57.7	13.5	0.00e+00	0	28	0	804257792	75	5134
2026-01-15 01:19:11.27	263.77	67.38	-54.9	-57.4	13.7	0.00e+00	0	28	0	806354944	75	4936
2026-01-15 01:19:12.27	262.81	67.09	-54.1	-56.2	14.2	0.00e+00	0	28	0	807403520	74	4583
2026-01-15 01:19:13.27	261.88	66.80	-53.0	-54.8	14.5	0.00e+00	0	28	0	809500672	72	4386
2026-01-15 01:19:14.27	260.98	66.51	-53.3	-55.4	14.3	0.00e+00	0	28	0	811597824	72	4670
2026-01-15 01:19:15.27	260.09	66.21	-54.0	-56.5	13.9	0.00e+00	0	28	0	813694976	73	4993
2026-01-15 01:19:16.27	259.24	65.90	-54.1	-56.6	13.9	0.00e+00	0	28	0	815792128	73	5083
2026-01-15 01:19:17.27	258.40	65.60	-53.1	-55.2	14.4	0.00e+00	0	28	0	816840704	72	4556
2026-01-15 01:19:18.27	257.59	65.29	-52.9	-54.9	14.5	0.00e+00	0	28	0	818937856	72	4392
2026-01-15 01:19:19.27	256.81	64.97	-53.0	-55.1	14.4	0.00e+00	0	28	0	821035008	72	4501
2026-01-15 01:19:20.27	256.04	64.66	-53.3	-55.5	14.2	0.00e+00	0	28	0	823132160	72	4734
2026-01-15 01:19:21.27	255.30	64.34	-52.6	-54.5	14.5	0.00e+00	0	28	0	825229312	71	4467
2026-01-15 01:19:22.27	254.57	64.02	-52.2	-54.0	14.6	0.00e+00	0	28	0	826277888	70	4467
2026-01-15 01:19:23.27	253.87	63.69	-52.3	-54.1	14.5	0.00e+00	0	28	0	828375040	70	4527
2026-01-15 01:19:24.27	253.18	63.37	-52.3	-54.1	14.6	0.00e+00	0	28	0	830472192	70	4511
2026-01-15 01:19:25.27	252.52	63.04	-52.0	-53.8	14.7	0.00e+00	0	28	0	832569344	70	4352
2026-01-15 01:19:26.27	251.87	62.71	-52.3	-54.2	14.6	0.00e+00	0	28	0	834666496	70	4555
2026-01-15 01:19:27.28	251.23	62.38	-51.9	-53.7	14.8	0.00e+00	0	28	0	835715072	70	4292
2026-01-15 01:19:28.27	250.63	62.05	-52.1	-53.8	14.7	0.00e+00	0	28	0	837812224	70	4378
2026-01-15 01:19:29.26	250.04	61.72	-51.9	-53.6	14.8	0.00e+00	0	28	0	839909376	70	4285
2026-01-15 01:19:30.26	249.46	61.39	-51.6	-53.3	14.8	0.00e+00	0	28	0	842006528	69	4382
2026-01-15 01:19:31.26	248.89	61.05	-51.4	-53.2	14.8	0.00e+00	0	28	0	843055104	69	4297
2026-01-15 01:19:32.27	248.33	60.71	-52.0	-54.0	14.5	0.00e+00	0	28	0	845152256	69	4728
2026-01-15 01:19:33.26	247.80	60.38	-52.6	-54.7	14.4	0.00e+00	0	28	0	847249408	71	4576
2026-01-15 01:19:34.26	247.28	60.05	-53.1	-55.4	14.2	0.00e+00	0	28	0	849346560	71	4981
2026-01-15 01:19:35.26	246.77	59.71	-52.7	-54.9	14.4	0.00e+00	0	28	0	851443712	71	4661
2026-01-15 01:19:36.25	246.28	59.38	-52.9	-55.0	14.3	0.00e+00	0	28	0	852492288	71	4754
2026-01-15 01:19:37.25	245.80	59.04	-53.5	-55.8	14.1	0.00e+00	0	28	0	854589440	72	4922
2026-01-15 01:19:38.26	245.33	58.70	-54.0	-56.6	13.8	0.00e+00	0	28	0	856686592	73	5081
2026-01-15 01:19:39.25	244.87	58.36	-53.5	-55.9	14.2	0.00e+00	0	28	0	858783744	73	4680
2026-01-15 01:19:40.25	244.42	58.03	-53.0	-55.1	14.3	0.00e+00	0	28	0	860880896	72	4543
2026-01-15 01:19:41.25	243.99	57.69	-52.6	-54.6	14.5	0.00e+00	0	28	0	861929472	71	4497
2026-01-15 01:19:42.24	243.57	57.36	-52.5	-54.5	14.6	0.00e+00	0	28	0	864026624	71	4464
2026-01-15 01:19:43.23	243.16	57.03	-52.9	-55.1	14.3	0.00e+00	0	28	0	866123776	71	4766
2026-01-15 01:19:44.22	242.76	56.70	-52.8	-54.9	14.4	0.00e+00	0	28	0	868220928	71	4658
2026-01-15 01:19:45.22	242.36	56.36	-53.1	-55.3	14.1	0.00e+00	0	28	0	869269504	71	4912
2026-01-15 01:19:46.22	241.98	56.03	-52.2	-54.2	14.6	0.00e+00	0	28	0	871366656	71	4310
2026-01-15 01:19:47.22	241.60	55.70	-51.2	-52.9	14.9	0.00e+00	0	28	0	873463808	69	4170
2026-01-15 01:19:48.21	241.24	55.37	-50.4	-52.0	15.0	0.00e+00	0	28	0	875560960	67	4213
2026-01-15 01:19:49.21	240.88	55.04	-51.1	-52.9	14.6	0.00e+00	0	28	0	877658112	67	4672
2026-01-15 01:19:50.20	240.53	54.71	-51.0	-52.8	14.7	0.00e+00	0	28	0	878706688	67	4613
2026-01-15 01:19:51.20	240.19	54.38	-51.2	-53.0	14.6	0.00e+00	0	28	0	880803840	67	4724
2026-01-15 01:19:52.19	239.86	54.06	-52.0	-54.0	14.5	0.00e+00	0	28	0	882900992	69	4739
2026-01-15 01:19:53.19	239.53	53.73	-53.4	-55.8	14.0	0.00e+00	0	28	0	884998144	71	5200
2026-01-15 01:19:54.18	239.21	53.41	-53.3	-55.7	14.1	0.00e+00	0	28	0	886046720	72	4821
2026-01-15 01:19:55.19	238.90	53.08	-53.1	-55.4	14.2	0.00e+00	0	28	0	888143872	72	4677
2026-01-15 01:19:56.19	238.59	52.76	-53.4	-55.9	14.0	0.00e+00	0	28	0	890241024	72	4945
2026-01-15 01:19:57.19	238.29	52.43	-53.7	-56.4	13.7	0.00e+00	0	28	0	892338176	72	5275
2026-01-15 01:19:58.19	238.00	52.11	-53.9	-56.7	13.7	0.00e+00	0	28	0	894435328	73	5151
2026-01-15 01:19:59.18	237.71	51.80	-53.8	-56.6	13.8	0.00e+00	0	28	0	895483904	73	5072
2026-01-15 01:20:00.18	237.43	51.48	-54.2	-57.2	13.5	0.00e+00	0	28	0	897581056	73	5430
2026-01-15 01:20:01.18	237.16	51.16	-54.4	-57.4	13.4	0.00e+00	0	28	0	899678208	74	5273
2026-01-15 01:20:02.17	236.89	50.85	-54.4	-57.4	13.5	0.00e+00	0	28	0	901775360	74	5226
2026-01-15 01:20:03.16	236.63	50.54	-54.2	-57.1	13.6	0.00e+00	0	28	0	903872512	74	5077
2026-01-15 01:20:04.17	236.37	50.23	-54.1	-56.8	13.7	0.00e+00	0	28	0	904921088	73	5211
2026-01-15 01:20:05.17	236.12	49.91	-53.7	-56.2	13.9	0.00e+00	0	28	0	907018240	73	4857
2026-01-15 01:20:06.17	235.87	49.61	-53.1	-55.3	14.3	0.00e+00	0	28	0	909115392	72	4640
2026-01-15 01:20:07.17	235.63	49.30	-52.0	-53.9	14.6	0.00e+00	0	28	0	911212544	70	4409
2026-01-15 01:20:08.17	235.40	48.99	-51.7	-53.5	14.8	0.00e+00	0	28	0	912261120	70	4217
2026-01-15 01:20:09.17	235.16	48.69	-51.7	-53.4	14.7	0.00e+00	0	28	0	914358272	69	4425
2026-01-15 01:20:10.17	234.94	48.38	-51.8	-53.6	14.7	0.00e+00	0	28	0	916455424	69	4505
2026-01-15 01:20:11.17	234.71	48.08	-51.6	-53.3	14.8	0.00e+00	0	28	0	918552576	69	4350
2026-01-15 01:20:12.17	234.49	47.78	-52.3	-54.2	14.5	0.00e+00	0	28	0	920649728	69	4815
2026-01-15 01:20:13.17	234.28	47.48	-52.8	-54.8	14.4	0.00e+00	0	28	0	921698304	71	4630
2026-01-15 01:20:14.17	234.07	47.19	-53.7	-56.0	14.1	0.00e+00	0	28	0	923795456	72	4992
2026-01-15 01:20:15.18	233.86	46.89	-53.6	-55.8	14.1	0.00e+00	0	28	0	925892608	72	4896
2026-01-15 01:20:16.17	233.66	46.60	-53.6	-55.8	14.1	0.00e+00	0	28	0	927989760	72	4895
2026-01-15 01:20:17.16	233.46	46.31	-54.2	-56.6	13.8	0.00e+00	0	28	0	930086912	73	5084
2026-01-15 01:20:18.17	233.26	46.02	-55.4	-58.5	13.1	0.00e+00	0	28	0	931135488	75	5631
2026-01-15 01:20:19.16	233.07	45.73	-55.0	-57.7	13.6	0.00e+00	0	28	0	933232640	76	4864
2026-01-15 01:20:20.16	232.89	45.45	-54.5	-57.0	13.8	0.00e+00	0	28	0	935329792	75	4748
2026-01-15 01:20:21.16	232.70	45.16	-53.6	-55.8	14.1	0.00e+00	0	28	0	937426944	73	4611
2026-01-15 01:20:22.16	232.52	44.88	-54.1	-56.5	13.8	0.00e+00	0	28	0	938475520	73	5026
2026-01-15 01:20:23.17	232.34	44.59	-54.8	-57.6	13.5	0.00e+00	0	28	0	940572672	75	5045
2026-01-15 01:20:24.17	232.17	44.32	-54.7	-57.5	13.5	0.00e+00	0	28	0	942669824	75	5003
2026-01-15 01:20:25.17	231.99	44.04	-54.3	-56.9	13.9	0.00e+00	0	28	0	944766976	75	4663
2026-01-15 01:20:26.17	231.82	43.76	-54.7	-57.5	13.6	0.00e+00	0	28	0	946864128	75	5000
2026-01-15 01:20:27.16	231.66	43.49	-55.8	-59.3	12.7	0.00e+00	0	28	0	947912704	76	5797
2026-01-15 01:20:28.16	231.50	43.22	-56.7	-61.2	11.6	2.20e-06	0	28	0	950009856	78	6435
2026-01-15 01:20:29.15	231.34	42.95	-56.4	-60.3	12.1	9.10e-06	0	28	0	952107008	78	5822
2026-01-15 01:20:30.15	231.18	42.68	-56.1	-59.7	12.5	0.00e+00	0	28	0	954204160	78	5461
2026-01-15 01:20:31.14	231.03	42.41	-56.3	-60.1	12.2	0.00e+00	0	28	0	956301312	78	5716
2026-01-15 01:20:32.15	230.87	42.14	-55.9	-59.6	12.6	0.00e+00	0	28	0	957349888	77	5678
2026-01-15 01:20:33.15	230.72	41.88	-56.0	-59.8	12.4	0.00e+00	0	28	0	959447040	77	5847
2026-01-15 01:20:34.15	230.58	41.62	-55.2	-58.3	13.3	0.00e+00	0	28	0	961544192	77	4898
2026-01-15 01:20:35.15	230.43	41.35	-54.9	-57.9	13.4	0.00e+00	0	28	0	963641344	76	4950
2026-01-15 01:20:36.15	230.29	41.09	-54.0	-56.5	13.9	0.00e+00	0	28	0	965738496	74	4735
2026-01-15 01:20:37.14	230.15	40.84	-53.7	-56.1	13.9	0.00e+00	0	28	0	966787072	74	4526
2026-01-15 01:20:38.13	230.01	40.58	-53.7	-56.1	14.0	0.00e+00	0	28	0	968884224	73	4787
2026-01-15 01:20:39.12	229.88	40.33	-54.3	-57.0	13.6	0.00e+00	0	28	0	970981376	73	5297
2026-01-15 01:20:40.11	229.75	40.08	-54.4	-56.9	13.8	0.00e+00	0	28	0	973078528	74	4978
2026-01-15 01:20:41.11	229.62	39.83	-55.4	-58.6	12.9	0.00e+00	0	28	0	974127104	75	5707
2026-01-15 01:20:42.10	229.49	39.58	-55.5	-58.9	12.9	0.00e+00	0	28	0	976224256	76	5536
2026-01-15 01:20:43.10	229.36	39.33	-55.5	-58.9	12.8	0.00e+00	0	28	0	978321408	76	5530
2026-01-15 01:20:44.09	229.24	39.09	-55.4	-58.7	12.9	0.00e+00	0	28	0	980418560	76	5441
2026-01-15 01:20:45.08	229.11	38.85	-55.4	-58.7	12.8	0.00e+00	0	28	0	981467136	76	5461
2026-01-15 01:20:46.08	228.99	38.60	-55.8	-59.6	12.5	0.00e+00	0	28	0	983564288	77	5659
2026-01-15 01:20:47.06	228.88	38.37	-55.9	-59.7	12.4	0.00e+00	0	28	0	985661440	77	5779
2026-01-15 01:20:48.05	228.76	38.13	-56.0	-60.0	12.2	7.00e-07	0	28	0	987758592	77	5979
2026-01-15 01:20:49.05	228.64	37.89	-56.1	-60.1	12.2	0.00e+00	0	28	0	989855744	77	6000
2026-01-15 01:20:50.05	228.53	37.65	-55.2	-58.3	13.2	0.00e+00	0	28	0	990904320	77	4918
2026-01-15 01:20:51.05	228.41	37.42	-54.0	-56.4	14.0	0.00e+00	0	28	0	993001472	74	4684
2026-01-15 01:20:52.04	228.30	37.18	-53.5	-55.8	14.1	0.00e+00	0	28	0	995098624	73	4641
2026-01-15 01:20:53.05	228.19	36.95	-53.0	-55.1	14.4	0.00e+00	0	28	0	997195776	72	4503
2026-01-15 01:20:54.04	228.09	36.72	-53.0	-55.1	14.3	0.00e+00	0	28	0	998244352	72	4533
2026-01-15 01:20:55.03	227.98	36.49	-52.9	-55.0	14.4	0.00e+00	0	28	0	1000341504	72	4443
2026-01-15 01:20:56.03	227.88	36.26	-52.9	-55.1	14.3	0.00e+00	0	28	0	1002438656	71	4760
2026-01-15 01:20:57.03	227.77	36.04	-52.6	-54.6	14.5	0.00e+00	0	28	0	1004535808	71	4511
2026-01-15 01:20:58.03	227.67	35.81	-52.5	-54.5	14.5	0.00e+00	0	28	0	1006632960	71	4488
2026-01-15 01:20:59.04	227.57	35.59	-53.1	-55.2	14.2	0.00e+00	0	28	0	1007681536	71	4865
2026-01-15 01:21:00.03	227.47	35.37	-53.3	-55.6	14.0	0.00e+00	0	28	0	1009778688	71	5071
2026-01-15 01:21:01.03	227.37	35.14	-54.3	-57.0	13.6	0.00e+00	0	28	0	1011875840	73	5284
2026-01-15 01:21:02.04	227.28	34.92	-55.1	-58.3	13.1	0.00e+00	0	28	0	1013972992	75	5523
2026-01-15 01:21:03.03	227.18	34.71	-56.0	-59.8	12.4	0.00e+00	0	28	0	1016070144	77	5793
2026-01-15 01:21:04.03	227.09	34.49	-56.4	-60.6	11.9	1.50e-06	0	28	0	1017118720	78	6013
2026-01-15 01:21:05.02	227.00	34.28	-56.3	-60.2	12.2	2.20e-06	0	28	0	1019215872	78	5737
2026-01-15 01:21:06.02	226.91	34.06	-55.9	-59.5	12.7	0.00e+00	0	28	0	1021313024	78	5282
2026-01-15 01:21:07.01	226.82	33.85	-55.1	-58.0	13.4	0.00e+00	0	28	0	1023410176	76	4999
2026-01-15 01:21:08.00	226.73	33.64	-55.1	-58.0	13.4	0.00e+00	0	28	0	1024458752	76	5018
2026-01-15 01:21:09.00	226.64	33.43	-55.4	-58.6	13.1	0.00e+00	0	28	0	1026555904	76	5402
2026-01-15 01:21:10.00	226.55	33.23	-55.3	-58.4	13.2	0.00e+00	0	28	0	1028653056	76	5227
2026-01-15 01:21:11.00	226.47	33.02	-55.1	-58.0	13.4	0.00e+00	0	28	0	1030750208	76	5026
2026-01-15 01:21:12.00	226.39	32.81	-54.8	-57.6	13.5	0.00e+00	0	28	0	1032847360	75	5065
2026-01-15 01:21:13.00	226.30	32.61	-54.4	-56.9	13.9	0.00e+00	0	28	0	1033895936	75	4670
2026-01-15 01:21:13.99	226.22	32.41	-54.3	-56.8	13.9	0.00e+00	0	28	0	1035993088	75	4625
2026-01-15 01:21:14.99	226.14	32.20	-54.2	-56.7	13.8	0.00e+00	0	28	0	1038090240	74	4838
2026-01-15 01:21:15.99	226.06	32.00	-54.0	-56.4	14.0	0.00e+00	0	28	0	1040187392	74	4670
2026-01-15 01:21:16.99	225.98	31.81	-54.1	-56.7	13.8	0.00e+00	0	28	0	1041235968	74	4819
2026-01-15 01:21:17.99	225.90	31.61	-54.3	-57.0	13.7	0.00e+00	0	28	0	1043333120	74	4985
2026-01-15 01:21:18.98	225.83	31.41	-54.5	-57.2	13.6	0.00e+00	0	28	0	1045430272	74	5158
2026-01-15 01:21:19.98	225.75	31.22	-54.7	-57.6	13.4	0.00e+00	0	28	0	1047527424	74	5347
2026-01-15 01:21:20.99	225.67	31.02	-55.2	-58.4	13.0	0.00e+00	0	28	0	1049624576	75	5577
2026-01-15 01:21:21.99	225.60	30.83	-55.2	-58.5	12.9	0.00e+00	0	28	0	1050673152	75	5610
2026-01-15 01:21:22.99	225.53	30.64	-55.5	-58.8	12.8	0.00e+00	0	28	0	1052770304	76	5516
2026-01-15 01:21:23.99	225.46	30.44	-55.9	-59.7	12.4	0.00e+00	0	28	0	1054867456	77	5726
2026-01-15 01:21:24.99	225.38	30.26	-56.1	-60.1	12.1	2.20e-06	0	28	0	1056964608	77	5997
2026-01-15 01:21:25.99	225.31	30.07	-56.3	-60.5	11.8	4.50e-06	0	28	0	1059061760	77	6287
2026-01-15 01:21:26.99	225.24	29.88	-56.2	-60.4	11.9	4.50e-06	0	28	0	1060110336	77	6241
2026-01-15 01:21:27.98	225.18	29.70	-56.4	-60.6	11.8	2.20e-06	0	28	0	1062207488	77	6396
2026-01-15 01:21:28.98	225.11	29.51	-56.3	-60.5	11.9	1.22e-05	0	28	0	1064304640	78	5959
2026-01-15 01:21:29.98	225.04	29.33	-56.2	-60.2	12.1	2.20e-06	0	28	0	1066401792	78	5788
2026-01-15 01:21:30.98	224.97	29.15	-56.2	-60.1	12.2	0.00e+00	0	28	0	1068498944	78	5707
2026-01-15 01:21:31.98	224.91	28.96	-55.9	-59.6	12.5	0.00e+00	0	28	0	1069547520	78	5361
2026-01-15 01:21:32.98	224.84	28.78	-56.0	-59.8	12.4	0.00e+00	0	28	0	1071644672	78	5482
2026-01-15 01:21:33.98	224.78	28.60	-55.8	-59.3	12.7	0.00e+00	0	28	0	1073741824	77	5485
2026-01-15 01:21:34.98	224.72	28.43	-55.7	-59.2	12.7	0.00e+00	0	28	0	1075838976	77	5404
2026-01-15 01:21:35.98	224.65	28.25	-55.6	-58.9	12.9	0.00e+00	0	28	0	1076887552	77	5264
2026-01-15 01:21:36.97	224.59	28.08	-55.3	-58.4	13.2	0.00e+00	0	28	0	1078984704	77	4982
2026-01-15 01:21:37.97	224.53	27.90	-55.1	-58.1	13.3	0.00e+00	0	28	0	1081081856	76	5077
2026-01-15 01:21:38.97	224.47	27.73	-54.2	-57.0	13.7	0.00e+00	0	28	0	1083179008	75	4725
2026-01-15 01:21:39.97	224.41	27.55	-54.5	-57.1	13.7	0.00e+00	0	28	0	1085276160	75	4786
2026-01-15 01:21:40.97	224.35	27.38	-54.2	-56.7	13.9	0.00e+00	0	28	0	1086324736	75	4577
2026-01-15 01:21:41.97	224.29	27.21	-53.5	-55.7	14.1	0.00e+00	0	28	0	1088421888	73	4579
2026-01-15 01:21:42.97	224.23	27.04	-53.4	-55.5	14.2	0.00e+00	0	28	0	1090519040	73	4485
2026-01-15 01:21:43.96	224.18	26.88	-53.2	-55.3	14.3	0.00e+00	0	28	0	1092616192	72	4623
2026-01-15 01:21:44.97	224.12	26.71	-52.8	-54.7	14.5	0.00e+00	0	28	0	1094713344	72	4314
2026-01-15 01:21:45.95	224.07	26.54	-52.5	-54.4	14.5	0.00e+00	0	28	0	1095761920	71	4429
2026-01-15 01:21:46.94	224.01	26.38	-52.6	-54.5	14.5	0.00e+00	0	28	0	1097859072	71	4478
2026-01-15 01:21:47.94	223.96	26.21	-52.4	-54.3	14.6	0.00e+00	0	28	0	1099956224	71	4373
2026-01-15 01:21:48.93	223.90	26.05	-52.6	-54.5	14.5	0.00e+00	0	28	0	1102053376	71	4465
2026-01-15 01:21:49.92	223.85	25.89	-53.0	-55.1	14.3	0.00e+00	0	28	0	1103101952	71	4780
2026-01-15 01:21:50.93	223.80	25.73	-53.2	-55.4	14.1	0.00e+00	0	28	0	1105199104	71	4968
2026-01-15 01:21:51.93	223.74	25.57	-53.6	-55.9	14.0	0.00e+00	0	28	0	1107296256	72	4952
2026-01-15 01:21:52.92	223.69	25.41	-54.0	-56.5	13.8	0.00e+00	0	28	0	1109393408	73	4986
2026-01-15 01:21:53.91	223.64	25.25	-54.4	-57.0	13.5	0.00e+00	0	28	0	1111490560	73	5340
2026-01-15 01:21:54.90	223.59	25.10	-55.0	-58.1	13.2	0.00e+00	0	28	0	1112539136	75	5361
2026-01-15 01:21:55.90	223.54	24.94	-55.3	-58.5	12.9	0.00e+00	0	28	0	1114636288	75	5598
2026-01-15 01:21:56.89	223.49	24.78	-55.5	-58.8	12.8	0.00e+00	0	28	0	1116733440	76	5493
2026-01-15 01:21:57.88	223.44	24.63	-56.0	-59.6	12.4	0.00e+00	0	28	0	1118830592	77	5703
2026-01-15 01:21:58.88	223.39	24.48	-55.9	-59.4	12.5	0.00e+00	0	28	0	1119879168	77	5568
2026-01-15 01:21:59.87	223.35	24.32	-55.4	-58.6	13.0	0.00e+00	0	28	0	1121976320	77	5091
2026-01-15 01:22:00.88	223.30	24.17	-55.3	-58.5	13.1	0.00e+00	0	28	0	1124073472	77	4990
2026-01-15 01:22:01.87	223.25	24.02	-55.4	-58.6	13.0	0.00e+00	0	28	0	1126170624	77	5067
2026-01-15 01:22:02.87	223.21	23.87	-55.0	-57.9	13.3	0.00e+00	0	28	0	1128267776	76	4955
2026-01-15 01:22:03.87	223.16	23.72	-54.9	-57.8	13.4	0.00e+00	0	28	0	1129316352	76	4888
2026-01-15 01:22:04.88	223.11	23.57	-54.7	-57.4	13.6	0.00e+00	0	28	0	1131413504	76	4695
2026-01-15 01:22:05.88	223.07	23.42	-54.2	-56.7	13.8	0.00e+00	0	28	0	1133510656	75	4585
2026-01-15 01:22:06.88	223.02	23.27	-54.2	-56.7	13.7	0.00e+00	0	28	0	1135607808	74	4835
2026-01-15 01:22:07.89	222.98	23.12	-54.1	-56.6	13.8	0.00e+00	0	28	0	1136656384	74	4766
2026-01-15 01:22:08.88	222.93	22.98	-54.1	-56.5	13.9	0.00e+00	0	28	0	1138753536	74	4735
2026-01-15 01:22:09.88	222.89	22.83	-53.9	-56.3	14.0	0.00e+00	0	28	0	1140850688	74	4612
2026-01-15 01:22:10.87	222.85	22.69	-53.9	-56.3	14.0	0.00e+00	0	28	0	1142947840	74	4637
2026-01-15 01:22:11.86	222.81	22.55	-53.9	-56.3	13.9	0.00e+00	0	28	0	1145044992	74	4640
2026-01-15 01:22:12.86	222.76	22.40	-53.9	-56.3	14.0	0.00e+00	0	28	0	1146093568	74	4621
2026-01-15 01:22:13.86	222.72	22.26	-53.8	-56.3	14.0	0.00e+00	0	28	0	1148190720	74	4607
2026-01-15 01:22:14.86	222.68	22.12	-53.5	-55.7	14.1	0.00e+00	0	28	0	1150287872	73	4587
2026-01-15 01:22:15.85	222.64	21.98	-53.5	-55.8	14.1	0.00e+00	0	28	0	1152385024	73	4618
2026-01-15 01:22:16.86	222.60	21.84	-53.5	-55.9	14.1	0.00e+00	0	28	0	1154482176	73	4652
2026-01-15 01:22:17.85	222.56	21.70	-53.2	-55.5	14.2	0.00e+00	0	28	0	1155530752	73	4453
2026-01-15 01:22:18.85	222.52	21.56	-53.3	-55.6	14.1	0.00e+00	0	28	0	1157627904	72	4802
2026-01-15 01:22:19.84	222.48	21.43	-53.1	-55.4	14.2	0.00e+00	0	28	0	1159725056	72	4667
2026-01-15 01:22:20.85	222.44	21.29	-53.0	-55.2	14.3	0.00e+00	0	28	0	1161822208	72	4546
2026-01-15 01:22:21.85	222.40	21.15	-53.0	-55.2	14.3	0.00e+00	0	28	0	1163919360	72	4546
2026-01-15 01:22:22.86	222.36	21.02	-53.0	-55.1	14.3	0.00e+00	0	28	0	1164967936	72	4542
2026-01-15 01:22:23.85	222.33	20.88	-53.0	-55.3	14.2	0.00e+00	0	28	0	1167065088	72	4600
2026-01-15 01:22:24.85	222.29	20.75	-53.0	-55.2	14.2	0.00e+00	0	28	0	1169162240	72	4591
2026-01-15 01:22:25.86	222.25	20.62	-53.1	-55.3	14.2	0.00e+00	0	28	0	1171259392	72	4649
2026-01-15 01:22:26.86	222.21	20.48	-53.3	-55.7	14.0	0.00e+00	0	28	0	1172307968	72	4827
2026-01-15 01:22:27.86	222.18	20.35	-53.3	-55.6	14.1	0.00e+00	0	28	0	1174405120	72	4810
2026-01-15 01:22:28.86	222.14	20.22	-53.3	-55.7	14.1	0.00e+00	0	28	0	1176502272	72	4822
2026-01-15 01:22:29.86	222.11	20.09	-53.3	-55.7	14.0	0.00e+00	0	28	0	1178599424	72	4822
2026-01-15 01:22:30.86	222.07	19.96	-53.3	-55.6	14.0	0.00e+00	0	28	0	1180696576	72	4806
2026-01-15 01:22:31.86	222.03	19.83	-53.3	-55.6	14.0	0.00e+00	0	28	0	1181745152	72	4807
2026-01-15 01:22:32.85	222.00	19.70	-53.4	-55.7	14.0	0.00e+00	0	28	0	1183842304	72	4861
2026-01-15 01:22:33.85	221.97	19.57	-53.5	-55.9	13.9	0.00e+00	0	28	0	1185939456	72	4943
2026-01-15 01:22:34.86	221.93	19.45	-53.2	-55.6	14.1	0.00e+00	0	28	0	1188036608	72	4767
2026-01-15 01:22:35.86	221.90	19.32	-53.3	-55.6	14.1	0.00e+00	0	28	0	1190133760	72	4781
2026-01-15 01:22:36.86	221.86	19.19	-53.3	-55.7	14.0	0.00e+00	0	28	0	1191182336	72	4819
2026-01-15 01:22:37.86	221.83	19.07	-53.2	-55.5	14.1	0.00e+00	0	28	0	1193279488	72	4713
2026-01-15 01:22:38.85	221.80	18.94	-53.4	-55.8	14.0	0.00e+00	0	28	0	1195376640	72	4892
2026-01-15 01:22:39.85	221.76	18.82	-53.3	-55.7	14.0	0.00e+00	0	28	0	1197473792	72	4834
2026-01-15 01:22:40.84	221.73	18.70	-53.5	-55.9	13.9	0.00e+00	0	28	0	1198522368	72	4952
2026-01-15 01:22:41.84	221.70	18.58	-53.6	-56.1	13.8	0.00e+00	0	28	0	1200619520	72	5065
2026-01-15 01:22:42.84	221.67	18.45	-53.9	-56.5	13.6	0.00e+00	0	28	0	1202716672	72	5304
2026-01-15 01:22:43.83	221.64	18.33	-54.0	-56.6	13.6	0.00e+00	0	28	0	1204813824	73	5093
2026-01-15 01:22:44.84	221.61	18.21	-54.2	-56.9	13.5	0.00e+00	0	28	0	1206910976	73	5222
2026-01-15 01:22:45.83	221.57	18.09	-54.3	-57.1	13.4	0.00e+00	0	28	0	1207959552	73	5341
2026-01-15 01:22:46.83	221.54	17.97	-54.4	-57.2	13.4	0.00e+00	0	28	0	1210056704	73	5407
2026-01-15 01:22:47.83	221.51	17.85	-54.8	-57.8	13.1	0.00e+00	0	28	0	1212153856	74	5486
2026-01-15 01:22:48.83	221.48	17.73	-55.0	-58.2	13.0	0.00e+00	0	28	0	1214251008	75	5425
2026-01-15 01:22:49.83	221.45	17.61	-54.9	-58.0	13.1	0.00e+00	0	28	0	1215299584	75	5304
2026-01-15 01:22:50.83	221.42	17.50	-55.1	-58.3	12.9	0.00e+00	0	28	0	1217396736	75	5478
2026-01-15 01:22:51.84	221.39	17.38	-54.9	-58.1	13.1	0.00e+00	0	28	0	1219493888	75	5356
2026-01-15 01:22:52.83	221.36	17.26	-54.8	-57.8	13.2	0.00e+00	0	28	0	1221591040	75	5187
2026-01-15 01:22:53.83	221.34	17.15	-54.9	-58.0	13.1	0.00e+00	0	28	0	1223688192	75	5311
2026-01-15 01:22:54.84	221.31	17.03	-54.9	-57.9	13.1	0.00e+00	0	28	0	1224736768	75	5270
2026-01-15 01:22:55.84	221.28	16.91	-54.6	-57.4	13.4	0.00e+00	0	28	0	1226833920	75	4970
2026-01-15 01:22:56.83	221.25	16.80	-54.4	-57.2	13.5	0.00e+00	0	28	0	1228931072	75	4816
2026-01-15 01:22:57.83	221.22	16.69	-54.2	-56.8	13.7	0.00e+00	0	28	0	1231028224	75	4610
2026-01-15 01:22:58.83	221.19	16.57	-54.1	-56.6	13.7	0.00e+00	0	28	0	1233125376	74	4812
2026-01-15 01:22:59.84	221.17	16.46	-53.8	-56.2	14.0	0.00e+00	0	28	0	1234173952	74	4560
