passes_logs/2026/01/15/R3.2S_Murmansk/R3.2S_Murmansk__20260115_103923_TY-42_rec.log

#Pass ID: 20260115_103923_TY-42
#Satellite: TY-42
#Configuration: TY-42_900M
#almurnet v.1.7.20251203
#Start time: 2026-01-15 10:39:24

#Version: 2.2.20231116
#Station: R3.2S_Murmansk
#Location: 33.079688 lon 68.888172 lat
#TLE: 1 64048U 25103A   26014.69425926  .00008005  00000-0  38191-3 0 09997
#TLE: 2 64048 097.4117 090.1174 0001564 091.0855 218.1626 15.19145944 36760

#Time	Az	El	Level	Level2	SNR	BER	BlckErr	Temp	State	Recorded	gain1	gain2
2026-01-15 10:39:24.07	22.39	2.04	-58.0	-61.3	6.1	0.00e+00	0	33	0	0	83	20207
2026-01-15 10:39:25.07	22.34	2.10	-58.0	-61.3	6.2	0.00e+00	0	33	104	0	83	20218
2026-01-15 10:39:26.06	22.29	2.17	-58.0	-61.3	6.2	0.00e+00	0	33	104	0	83	20230
2026-01-15 10:39:27.05	22.24	2.24	-58.0	-61.3	6.2	0.00e+00	0	33	104	0	83	20256
2026-01-15 10:39:28.04	22.19	2.30	-58.0	-61.3	6.2	0.00e+00	0	33	104	0	83	20243
2026-01-15 10:39:29.04	22.14	2.37	-58.1	-61.3	6.2	0.00e+00	0	33	104	0	83	20330
2026-01-15 10:39:30.04	22.09	2.44	-58.0	-61.2	6.2	0.00e+00	0	33	104	0	83	20104
2026-01-15 10:39:31.04	22.04	2.51	-58.0	-61.2	6.1	0.00e+00	0	33	104	0	83	20061
2026-01-15 10:39:32.04	21.99	2.58	-58.0	-61.2	6.2	0.00e+00	0	33	104	0	83	19956
2026-01-15 10:39:33.04	21.94	2.65	-58.0	-61.2	6.2	0.00e+00	0	33	104	0	83	20148
2026-01-15 10:39:34.03	21.89	2.71	-58.0	-61.2	6.2	0.00e+00	0	33	104	0	83	20103
2026-01-15 10:39:35.03	21.83	2.78	-58.1	-61.3	6.2	0.00e+00	0	33	104	0	83	20167
2026-01-15 10:39:36.02	21.78	2.85	-58.0	-61.3	6.2	0.00e+00	0	33	104	0	83	20227
2026-01-15 10:39:37.02	21.73	2.92	-58.1	-61.3	6.1	0.00e+00	0	33	104	0	83	20211
2026-01-15 10:39:38.02	21.68	2.99	-58.1	-61.2	6.2	0.00e+00	0	33	104	0	83	20124
2026-01-15 10:39:39.01	21.62	3.06	-58.1	-61.3	6.2	0.00e+00	0	33	104	0	83	20192
2026-01-15 10:39:40.01	21.57	3.13	-58.1	-61.3	6.2	0.00e+00	0	34	104	0	83	20262
2026-01-15 10:39:41.01	21.51	3.20	-58.1	-61.3	6.2	0.00e+00	0	33	104	0	83	20229
2026-01-15 10:39:42.00	21.46	3.27	-58.1	-61.3	6.2	0.00e+00	0	34	104	0	83	20335
2026-01-15 10:39:43.00	21.40	3.34	-58.1	-61.3	6.2	0.00e+00	0	34	104	0	83	20300
2026-01-15 10:39:43.99	21.35	3.41	-58.1	-61.3	6.2	0.00e+00	0	34	104	0	83	20353
2026-01-15 10:39:44.99	21.29	3.48	-58.1	-61.3	6.2	0.00e+00	0	34	104	0	83	20303
2026-01-15 10:39:45.99	21.24	3.55	-58.1	-61.3	6.1	0.00e+00	0	34	104	0	83	20350
2026-01-15 10:39:46.98	21.18	3.62	-58.1	-61.4	6.2	0.00e+00	0	34	104	0	83	20418
2026-01-15 10:39:47.98	21.12	3.70	-58.1	-61.3	6.2	0.00e+00	0	34	104	0	83	20378
2026-01-15 10:39:48.98	21.07	3.77	-58.1	-61.3	6.2	0.00e+00	0	34	104	0	83	20392
2026-01-15 10:39:49.97	21.01	3.84	-58.1	-61.4	6.2	0.00e+00	0	34	104	0	83	20436
2026-01-15 10:39:50.97	20.95	3.91	-58.1	-61.3	6.2	0.00e+00	0	34	104	0	83	20330
2026-01-15 10:39:51.96	20.89	3.98	-58.1	-61.3	6.2	0.00e+00	0	34	104	0	83	20397
2026-01-15 10:39:52.95	20.84	4.06	-58.1	-61.3	6.2	0.00e+00	0	34	104	0	83	20378
2026-01-15 10:39:53.94	20.78	4.13	-58.1	-61.4	6.2	0.00e+00	0	34	104	0	83	20435
2026-01-15 10:39:54.93	20.72	4.20	-58.1	-61.3	6.1	0.00e+00	0	34	104	0	83	20349
2026-01-15 10:39:55.92	20.66	4.27	-58.1	-61.3	6.2	0.00e+00	0	34	104	0	83	20366
2026-01-15 10:39:56.91	20.60	4.35	-58.2	-61.4	6.2	0.00e+00	0	34	104	0	83	20409
2026-01-15 10:39:57.91	20.54	4.42	-58.2	-61.4	6.1	0.00e+00	0	34	104	0	83	20463
2026-01-15 10:39:58.91	20.48	4.50	-58.2	-61.4	6.2	0.00e+00	0	34	104	0	83	20457
2026-01-15 10:39:59.91	20.41	4.57	-58.2	-61.4	6.2	0.00e+00	0	34	104	0	83	20484
2026-01-15 10:40:00.91	20.35	4.65	-58.2	-61.4	6.1	0.00e+00	0	34	104	0	83	20477
2026-01-15 10:40:01.91	20.29	4.72	-58.2	-61.4	6.2	0.00e+00	0	34	104	0	83	20488
2026-01-15 10:40:02.89	20.23	4.79	-58.2	-61.4	6.2	0.00e+00	0	34	104	0	83	20539
2026-01-15 10:40:03.88	20.16	4.87	-58.2	-61.4	6.2	0.00e+00	0	34	104	0	83	20504
2026-01-15 10:40:04.88	20.10	4.95	-58.2	-61.4	6.2	0.00e+00	0	35	104	0	83	20453
2026-01-15 10:40:05.87	20.04	5.02	-58.2	-61.4	6.2	0.00e+00	0	35	104	0	83	20536
2026-01-15 10:40:06.87	19.97	5.10	-58.3	-61.5	6.2	0.00e+00	0	34	104	0	83	20812
2026-01-15 10:40:07.85	19.91	5.17	-58.3	-61.5	6.1	0.00e+00	0	35	104	0	83	20806
2026-01-15 10:40:08.84	19.84	5.25	-58.2	-61.4	6.2	0.00e+00	0	35	104	0	83	20563
2026-01-15 10:40:09.84	19.78	5.33	-58.4	-61.6	6.2	0.00e+00	0	35	104	0	83	20996
2026-01-15 10:40:10.83	19.71	5.40	-58.2	-61.4	6.2	0.00e+00	0	35	104	0	83	20441
2026-01-15 10:40:11.83	19.64	5.48	-58.4	-61.6	6.1	0.00e+00	0	35	104	0	83	21084
2026-01-15 10:40:12.82	19.58	5.56	-58.2	-61.4	6.2	0.00e+00	0	35	104	0	83	20613
2026-01-15 10:40:13.81	19.51	5.63	-58.4	-61.7	6.2	0.00e+00	0	35	104	0	83	21169
2026-01-15 10:40:14.80	19.44	5.71	-58.3	-61.5	6.1	0.00e+00	0	35	104	0	83	20710
2026-01-15 10:40:15.78	19.37	5.79	-58.4	-61.7	6.2	0.00e+00	0	35	104	0	83	21142
2026-01-15 10:40:16.78	19.30	5.87	-58.3	-61.5	6.2	0.00e+00	0	35	104	0	83	20796
2026-01-15 10:40:17.78	19.23	5.95	-58.5	-61.7	6.2	0.00e+00	0	35	104	0	83	21128
2026-01-15 10:40:18.77	19.16	6.03	-58.3	-61.6	6.2	0.00e+00	0	35	104	0	83	20881
2026-01-15 10:40:19.77	19.09	6.11	-58.5	-61.7	6.2	0.00e+00	0	35	104	0	83	21259
2026-01-15 10:40:20.77	19.02	6.19	-58.4	-61.6	6.2	0.00e+00	0	35	104	0	83	21052
2026-01-15 10:40:21.76	18.95	6.27	-58.5	-61.8	6.2	0.00e+00	0	35	104	0	83	21390
2026-01-15 10:40:22.74	18.88	6.35	-58.4	-61.6	6.2	0.00e+00	0	35	104	0	83	21099
2026-01-15 10:40:23.74	18.80	6.43	-58.5	-61.8	6.1	0.00e+00	0	35	104	0	83	21387
2026-01-15 10:40:24.74	18.73	6.51	-58.5	-61.7	6.2	0.00e+00	0	35	104	0	83	21205
2026-01-15 10:40:25.73	18.66	6.59	-58.6	-61.8	6.2	0.00e+00	0	35	104	0	83	21505
2026-01-15 10:40:26.73	18.58	6.67	-58.5	-61.7	6.1	0.00e+00	0	35	104	0	83	21286
2026-01-15 10:40:27.72	18.51	6.75	-58.6	-61.8	6.1	0.00e+00	0	35	104	0	83	21520
2026-01-15 10:40:28.72	18.43	6.84	-58.5	-61.8	6.2	0.00e+00	0	35	104	0	83	21408
2026-01-15 10:40:29.72	18.35	6.92	-58.6	-61.8	6.2	0.00e+00	0	35	104	0	83	21508
2026-01-15 10:40:30.72	18.28	7.00	-58.6	-61.8	6.2	0.00e+00	0	35	104	0	83	21388
2026-01-15 10:40:31.71	18.20	7.08	-58.6	-61.8	6.1	0.00e+00	0	35	104	0	83	21528
2026-01-15 10:40:32.70	18.12	7.17	-58.6	-61.8	6.2	0.00e+00	0	35	104	0	83	21492
2026-01-15 10:40:33.69	18.05	7.25	-58.6	-61.8	6.2	0.00e+00	0	35	104	0	83	21541
2026-01-15 10:40:34.69	17.97	7.33	-58.6	-61.8	6.2	0.00e+00	0	35	104	0	83	21510
2026-01-15 10:40:35.68	17.89	7.42	-58.6	-61.9	6.1	0.00e+00	0	35	104	0	83	21617
2026-01-15 10:40:36.68	17.81	7.50	-58.6	-61.8	6.2	0.00e+00	0	35	104	0	83	21493
2026-01-15 10:40:37.67	17.73	7.59	-58.7	-61.9	6.2	0.00e+00	0	35	104	0	83	21814
2026-01-15 10:40:38.66	17.64	7.67	-58.6	-61.8	6.2	0.00e+00	0	35	104	0	83	21580
2026-01-15 10:40:39.65	17.56	7.76	-58.7	-61.9	6.2	0.00e+00	0	35	104	0	83	21623
2026-01-15 10:40:40.64	17.48	7.84	-58.6	-61.9	6.2	0.00e+00	0	35	104	0	83	21610
2026-01-15 10:40:41.62	17.40	7.93	-58.7	-61.9	6.1	0.00e+00	0	35	104	0	83	21775
2026-01-15 10:40:42.61	17.32	8.02	-58.7	-61.9	6.1	0.00e+00	0	36	104	0	83	21735
2026-01-15 10:40:43.61	17.23	8.10	-58.7	-61.9	6.1	0.00e+00	0	35	104	0	83	21751
2026-01-15 10:40:44.61	17.14	8.19	-58.7	-61.9	6.2	0.00e+00	0	36	104	0	83	21820
2026-01-15 10:40:45.61	17.06	8.28	-58.7	-62.0	6.2	0.00e+00	0	36	104	0	83	21932
2026-01-15 10:40:46.61	16.97	8.37	-58.7	-61.9	6.2	0.00e+00	0	36	104	0	83	21848
2026-01-15 10:40:47.60	16.88	8.46	-58.7	-62.0	6.2	0.00e+00	0	35	104	0	83	21918
2026-01-15 10:40:48.59	16.80	8.54	-58.7	-61.9	6.2	0.00e+00	0	36	104	0	83	21827
2026-01-15 10:40:49.59	16.71	8.63	-58.8	-62.0	6.1	0.00e+00	0	36	104	0	83	21998
2026-01-15 10:40:50.57	16.62	8.72	-58.8	-61.9	6.2	0.00e+00	0	35	104	0	83	21852
2026-01-15 10:40:51.56	16.53	8.81	-58.8	-62.0	6.2	0.00e+00	0	35	104	0	83	22017
2026-01-15 10:40:52.55	16.44	8.90	-51.9	-52.8	8.6	9.63e-02	5508	37	0	58720256	69	16983
2026-01-15 10:40:53.54	16.35	8.99	-47.8	-48.2	9.6	0.00e+00	0	36	104	58720256	63	14136
2026-01-15 10:40:54.54	16.26	9.08	-50.2	-50.4	9.6	0.00e+00	5506	37	0	117440512	65	16213
2026-01-15 10:40:55.53	16.16	9.17	-48.5	-48.9	9.8	0.00e+00	1665	36	104	150994944	64	14606
2026-01-15 10:40:56.52	16.07	9.26	-44.1	-44.4	12.0	0.00e+00	0	37	0	226492416	55	14607
2026-01-15 10:40:57.52	15.98	9.36	-44.1	-44.5	12.0	0.00e+00	0	37	0	335544320	55	14637
2026-01-15 10:40:58.51	15.88	9.45	-43.9	-44.2	12.0	5.31e-02	0	37	0	452984832	54	15063
2026-01-15 10:40:59.50	15.79	9.54	-43.8	-44.2	12.1	5.31e-02	0	37	0	562036736	54	14987
2026-01-15 10:41:00.50	15.69	9.64	-43.8	-44.2	12.1	5.31e-02	0	37	0	671088640	54	14980
2026-01-15 10:41:01.49	15.59	9.73	-43.8	-44.2	12.1	1.55e-02	0	37	0	788529152	54	14979
2026-01-15 10:41:02.48	15.49	9.82	-43.6	-43.9	12.2	1.55e-02	0	37	0	897581056	54	14516
2026-01-15 10:41:03.48	15.39	9.92	-43.8	-44.1	12.2	1.30e-02	0	37	0	1015021568	54	14849
2026-01-15 10:41:04.48	15.29	10.01	-43.6	-43.9	12.2	1.30e-02	0	37	0	1124073472	54	14606
2026-01-15 10:41:05.48	15.19	10.11	-43.7	-44.0	12.2	1.14e-02	0	37	0	1233125376	54	14724
2026-01-15 10:41:06.47	15.09	10.20	-43.7	-44.0	12.2	1.14e-02	0	37	0	1350565888	54	14693
2026-01-15 10:41:07.47	14.99	10.30	-43.6	-43.9	12.3	1.14e-02	0	37	0	1459617792	54	14462
2026-01-15 10:41:08.45	14.89	10.40	-43.3	-43.7	12.3	1.18e-02	0	37	0	1568669696	53	14949
2026-01-15 10:41:09.45	14.78	10.49	-43.3	-43.6	12.2	1.18e-02	0	37	0	1677721600	53	14937
2026-01-15 10:41:10.45	14.68	10.59	-43.2	-43.5	12.3	1.18e-02	0	37	0	1795162112	53	14757
2026-01-15 10:41:11.44	14.57	10.69	-43.1	-43.5	12.3	1.18e-02	0	38	0	1904214016	53	14622
2026-01-15 10:41:12.43	14.46	10.79	-43.2	-43.5	12.3	1.07e-02	0	37	0	2021654528	53	14654
2026-01-15 10:41:13.43	14.35	10.88	-43.0	-43.3	12.4	1.07e-02	0	37	0	2130706432	53	14397
2026-01-15 10:41:14.42	14.25	10.98	-43.0	-43.3	12.4	1.07e-02	0	37	0	2239758336	53	14322
2026-01-15 10:41:15.42	14.14	11.08	-43.0	-43.3	12.4	8.61e-03	0	38	0	2357198848	53	14355
2026-01-15 10:41:16.42	14.03	11.18	-42.8	-43.2	12.4	8.61e-03	0	38	0	2466250752	52	14986
2026-01-15 10:41:17.41	13.91	11.28	-42.8	-43.1	12.4	7.66e-03	0	38	0	2575302656	52	14894
2026-01-15 10:41:18.41	13.80	11.39	-42.8	-43.1	12.4	7.66e-03	0	38	0	2684354560	52	14825
2026-01-15 10:41:19.40	13.69	11.49	-42.7	-43.0	12.5	7.66e-03	0	38	0	2801795072	52	14723
2026-01-15 10:41:20.39	13.57	11.59	-42.7	-43.0	12.4	7.15e-03	0	38	0	2910846976	52	14772
2026-01-15 10:41:21.38	13.46	11.69	-42.6	-42.9	12.5	7.15e-03	0	38	0	3028287488	52	14569
2026-01-15 10:41:22.38	13.34	11.79	-42.5	-42.8	12.5	6.47e-03	0	38	0	3137339392	52	14379
2026-01-15 10:41:23.37	13.23	11.89	-42.4	-42.7	12.5	6.47e-03	0	38	0	3254779904	51	15058
2026-01-15 10:41:24.36	13.11	12.00	-42.4	-42.7	12.5	6.47e-03	0	38	0	3355443200	51	15080
2026-01-15 10:41:25.37	12.99	12.10	-42.2	-42.5	12.6	5.35e-03	0	38	0	3472883712	51	14776
2026-01-15 10:41:26.36	12.87	12.21	-42.3	-42.6	12.6	5.35e-03	0	38	0	3581935616	51	14877
2026-01-15 10:41:27.36	12.74	12.31	-42.3	-42.7	12.5	5.35e-03	0	38	0	3699376128	51	14995
2026-01-15 10:41:28.36	12.62	12.42	-42.2	-42.5	12.6	4.54e-03	0	38	0	3808428032	51	14751
2026-01-15 10:41:29.35	12.50	12.52	-42.0	-42.3	12.7	4.54e-03	0	38	0	3917479936	51	14362
2026-01-15 10:41:30.35	12.37	12.63	-41.9	-42.3	12.7	3.32e-03	0	38	0	4034920448	51	14286
2026-01-15 10:41:31.35	12.25	12.74	-41.9	-42.3	12.7	3.32e-03	0	38	0	4143972352	51	14275
2026-01-15 10:41:32.33	12.12	12.85	-41.9	-42.2	12.7	3.32e-03	0	38	0	4261412864	50	14996
2026-01-15 10:41:33.33	11.99	12.95	-41.8	-42.1	12.7	2.78e-03	0	38	0	4370464768	50	14806
2026-01-15 10:41:34.33	11.86	13.06	-41.8	-42.1	12.7	2.78e-03	0	38	0	4479516672	50	14887
2026-01-15 10:41:35.32	11.73	13.17	-41.7	-42.0	12.7	2.78e-03	0	38	0	4596957184	50	14719
2026-01-15 10:41:36.33	11.60	13.28	-41.5	-41.8	12.8	2.38e-03	0	38	0	4706009088	50	14362
2026-01-15 10:41:37.32	11.46	13.39	-41.6	-42.0	12.7	2.38e-03	0	38	0	4823449600	50	14622
2026-01-15 10:41:38.32	11.33	13.50	-41.3	-41.6	12.8	1.90e-03	0	38	0	4924112896	49	14834
2026-01-15 10:41:39.30	11.20	13.61	-41.3	-41.6	12.8	1.90e-03	0	39	0	5041553408	49	14893
2026-01-15 10:41:40.29	11.06	13.72	-41.2	-41.5	12.8	1.49e-03	0	38	0	5150605312	49	14685
2026-01-15 10:41:41.28	10.92	13.83	-41.1	-41.4	12.9	1.49e-03	0	39	0	5268045824	49	14550
2026-01-15 10:41:42.28	10.78	13.95	-41.0	-41.3	12.9	1.49e-03	0	39	0	5377097728	49	14422
2026-01-15 10:41:43.28	10.64	14.06	-41.1	-41.4	12.9	1.10e-03	0	39	0	5486149632	49	14447
2026-01-15 10:41:44.27	10.50	14.17	-41.0	-41.3	12.9	1.10e-03	0	39	0	5603590144	49	14380
2026-01-15 10:41:45.27	10.36	14.29	-40.9	-41.2	12.9	1.10e-03	0	39	0	5712642048	49	14205
2026-01-15 10:41:46.26	10.21	14.40	-40.9	-41.2	12.9	1.04e-03	0	39	0	5821693952	48	14956
2026-01-15 10:41:47.26	10.07	14.52	-40.9	-41.2	12.9	1.04e-03	0	38	0	5930745856	48	15022
2026-01-15 10:41:48.25	9.92	14.64	-40.7	-41.0	12.9	1.04e-03	0	39	0	6048186368	48	14730
2026-01-15 10:41:49.24	9.77	14.75	-40.6	-40.9	13.0	1.04e-03	0	39	0	6157238272	48	14552
2026-01-15 10:41:50.23	9.62	14.87	-40.7	-40.9	13.0	7.58e-04	0	39	0	6274678784	48	14588
2026-01-15 10:41:51.23	9.47	14.99	-40.6	-40.9	13.0	7.58e-04	0	39	0	6383730688	48	14460
2026-01-15 10:41:52.22	9.32	15.10	-40.6	-40.9	13.0	7.34e-04	0	39	0	6492782592	48	14453
2026-01-15 10:41:53.21	9.16	15.22	-40.4	-40.7	13.1	7.34e-04	0	39	0	6601834496	48	14186
2026-01-15 10:41:54.21	9.01	15.34	-39.6	-39.9	12.9	7.34e-04	0	39	0	6719275008	46	14592
2026-01-15 10:41:55.20	8.85	15.46	-39.6	-39.9	12.9	7.34e-04	0	39	0	6828326912	46	14455
2026-01-15 10:41:56.18	8.69	15.58	-39.5	-39.8	12.9	9.15e-04	0	38	0	6937378816	46	14434
2026-01-15 10:41:57.18	8.53	15.70	-39.4	-39.7	13.0	9.06e-04	0	39	0	7054819328	46	14215
2026-01-15 10:41:58.17	8.37	15.82	-39.5	-39.8	13.0	9.06e-04	0	39	0	7163871232	46	14377
2026-01-15 10:41:59.15	8.21	15.94	-39.5	-39.8	13.0	9.06e-04	0	39	0	7272923136	46	14383
2026-01-15 10:42:00.14	8.04	16.06	-39.3	-39.6	12.9	9.06e-04	0	39	0	7381975040	45	14853
2026-01-15 10:42:01.13	7.88	16.18	-39.2	-39.5	13.0	8.68e-04	0	39	0	7499415552	45	14683
2026-01-15 10:42:02.13	7.71	16.31	-39.2	-39.5	13.0	8.68e-04	0	39	0	7608467456	45	14643
2026-01-15 10:42:03.12	7.54	16.43	-39.1	-39.4	13.0	7.58e-04	0	39	0	7725907968	45	14498
2026-01-15 10:42:04.11	7.37	16.56	-39.0	-39.3	13.1	7.58e-04	0	39	0	7826571264	45	14318
2026-01-15 10:42:05.10	7.20	16.68	-39.0	-39.3	13.1	7.58e-04	0	39	0	7944011776	45	14387
2026-01-15 10:42:06.09	7.02	16.81	-38.9	-39.2	13.1	5.20e-04	0	39	0	8053063680	45	14210
2026-01-15 10:42:07.08	6.85	16.93	-38.8	-39.1	13.1	5.20e-04	0	39	0	8170504192	44	14857
2026-01-15 10:42:08.06	6.67	17.06	-38.8	-39.1	13.1	4.15e-04	0	39	0	8271167488	44	14858
2026-01-15 10:42:09.06	6.49	17.19	-38.9	-39.1	13.0	4.15e-04	0	39	0	8388608000	44	14947
2026-01-15 10:42:10.05	6.31	17.31	-38.7	-38.9	13.1	4.15e-04	0	39	0	8497659904	44	14595
2026-01-15 10:42:11.04	6.12	17.44	-38.7	-39.0	13.1	3.67e-04	0	39	0	8615100416	44	14613
2026-01-15 10:42:12.03	5.94	17.57	-38.5	-38.8	13.2	3.67e-04	0	39	0	8724152320	44	14410
2026-01-15 10:42:13.02	5.75	17.70	-38.6	-38.9	13.1	3.67e-04	0	39	0	8833204224	44	14494
2026-01-15 10:42:14.01	5.56	17.83	-38.5	-38.8	13.2	1.95e-04	0	39	0	8942256128	44	14347
2026-01-15 10:42:14.99	5.37	17.96	-38.5	-38.8	13.2	1.95e-04	0	39	0	9059696640	44	14283
2026-01-15 10:42:15.97	5.18	18.09	-38.5	-38.8	13.2	1.95e-04	0	39	0	9160359936	44	14295
2026-01-15 10:42:16.96	4.99	18.22	-38.5	-38.8	13.2	2.19e-04	0	39	0	9277800448	44	14292
2026-01-15 10:42:17.95	4.79	18.35	-38.4	-38.7	13.2	2.19e-04	0	39	0	9386852352	44	14186
2026-01-15 10:42:18.93	4.59	18.49	-38.5	-38.8	13.2	2.19e-04	0	39	0	9504292864	44	14277
2026-01-15 10:42:19.92	4.39	18.62	-38.3	-38.6	13.2	1.43e-04	0	39	0	9613344768	43	14807
2026-01-15 10:42:20.91	4.19	18.75	-38.1	-38.4	13.2	1.43e-04	0	39	0	9722396672	43	14561
2026-01-15 10:42:21.91	3.98	18.89	-38.1	-38.4	13.2	1.43e-04	0	39	0	9831448576	43	14489
2026-01-15 10:42:22.90	3.78	19.03	-38.1	-38.4	13.2	1.19e-04	0	39	0	9940500480	43	14532
2026-01-15 10:42:23.89	3.57	19.16	-38.2	-38.4	13.2	1.19e-04	0	39	0	10057940992	43	14579
2026-01-15 10:42:24.88	3.35	19.30	-38.1	-38.3	13.3	1.19e-04	0	39	0	10166992896	43	14414
2026-01-15 10:42:25.87	3.14	19.43	-38.0	-38.2	13.3	1.29e-04	0	39	0	10284433408	43	14272
2026-01-15 10:42:26.86	2.92	19.57	-37.9	-38.2	13.3	1.29e-04	0	39	0	10385096704	43	14205
2026-01-15 10:42:27.85	2.71	19.71	-37.9	-38.2	13.3	1.29e-04	0	39	0	10502537216	43	14161
2026-01-15 10:42:28.85	2.48	19.85	-37.8	-38.1	13.3	6.19e-05	0	39	0	10611589120	42	14832
2026-01-15 10:42:29.84	2.26	19.99	-37.8	-38.1	13.3	6.19e-05	0	39	0	10729029632	42	14820
2026-01-15 10:42:30.83	2.04	20.13	-37.8	-38.1	13.3	6.19e-05	0	39	0	10838081536	42	14864
2026-01-15 10:42:31.83	1.81	20.27	-37.7	-37.9	13.3	6.19e-05	0	39	0	10955522048	42	14600
2026-01-15 10:42:32.82	1.57	20.41	-37.6	-37.9	13.4	8.58e-05	0	39	0	11056185344	42	14448
2026-01-15 10:42:33.81	1.34	20.55	-37.6	-37.8	13.4	8.58e-05	0	39	0	11173625856	42	14414
2026-01-15 10:42:34.80	1.11	20.70	-37.6	-37.8	13.4	8.58e-05	0	39	0	11282677760	42	14438
2026-01-15 10:42:35.80	0.87	20.84	-37.5	-37.8	13.4	9.05e-05	0	39	0	11391729664	42	14367
2026-01-15 10:42:36.79	0.63	20.98	-37.4	-37.7	13.4	9.05e-05	0	39	0	11509170176	42	14187
2026-01-15 10:42:37.78	0.38	21.13	-37.4	-37.7	13.4	2.38e-05	0	39	0	11618222080	42	14182
2026-01-15 10:42:38.78	0.14	21.27	-37.5	-37.8	13.4	2.38e-05	0	39	0	11735662592	42	14301
2026-01-15 10:42:39.77	359.89	21.42	-37.2	-37.5	13.4	2.38e-05	0	39	0	11836325888	41	14686
2026-01-15 10:42:40.76	359.64	21.56	-37.3	-37.5	13.4	3.33e-05	0	39	0	11953766400	41	14728
2026-01-15 10:42:41.75	359.38	21.71	-37.2	-37.5	13.4	3.33e-05	0	39	0	12062818304	41	14617
2026-01-15 10:42:42.74	359.13	21.86	-37.1	-37.3	13.4	3.33e-05	0	39	0	12180258816	41	14372
2026-01-15 10:42:43.74	358.87	22.00	-37.1	-37.3	13.4	4.76e-05	0	39	0	12289310720	41	14440
2026-01-15 10:42:44.72	358.61	22.15	-37.1	-37.4	13.4	4.76e-05	0	39	0	12406751232	41	14512
2026-01-15 10:42:45.71	358.34	22.30	-37.0	-37.3	13.5	4.76e-05	0	39	0	12507414528	41	14297
2026-01-15 10:42:46.70	358.08	22.45	-37.1	-37.3	13.4	4.76e-05	0	39	0	12624855040	41	14372
2026-01-15 10:42:47.69	357.80	22.59	-37.1	-37.3	13.4	9.50e-06	0	39	0	12733906944	41	14423
2026-01-15 10:42:48.68	357.53	22.74	-37.0	-37.3	13.4	9.50e-06	0	39	0	12842958848	41	14349
2026-01-15 10:42:49.66	357.26	22.89	-37.0	-37.3	13.5	9.50e-06	0	39	0	12952010752	41	14303
2026-01-15 10:42:50.64	356.98	23.04	-37.1	-37.3	13.4	1.90e-05	0	39	0	13069451264	41	14385
2026-01-15 10:42:51.64	356.70	23.19	-36.9	-37.2	13.5	1.90e-05	0	40	0	13178503168	41	14125
2026-01-15 10:42:52.62	356.41	23.34	-36.8	-37.1	13.4	1.90e-05	0	39	0	13287555072	40	14816
2026-01-15 10:42:53.62	356.12	23.49	-36.7	-36.9	13.4	1.90e-05	0	39	0	13396606976	40	14571
2026-01-15 10:42:54.61	355.83	23.64	-36.6	-36.8	13.5	1.90e-05	0	39	0	13514047488	40	14340
2026-01-15 10:42:55.60	355.54	23.80	-36.5	-36.8	13.5	1.90e-05	0	39	0	13623099392	40	14352
2026-01-15 10:42:56.58	355.24	23.95	-36.5	-36.8	13.5	1.90e-05	0	39	0	13732151296	40	14386
2026-01-15 10:42:57.58	354.94	24.10	-36.4	-36.7	13.5	1.90e-05	0	39	0	13849591808	40	14164
2026-01-15 10:42:58.58	354.63	24.25	-36.3	-36.6	13.5	1.90e-05	0	39	0	13958643712	39	14855
2026-01-15 10:42:59.57	354.32	24.41	-36.3	-36.5	13.5	9.50e-06	0	39	0	14076084224	39	14739
2026-01-15 10:43:00.57	354.00	24.56	-36.2	-36.5	13.5	9.50e-06	0	39	0	14185136128	39	14685
2026-01-15 10:43:01.57	353.69	24.72	-36.3	-36.6	13.4	9.50e-06	0	39	0	14294188032	39	14802
2026-01-15 10:43:02.56	353.37	24.87	-36.1	-36.4	13.5	0.00e+00	0	39	0	14403239936	39	14459
2026-01-15 10:43:03.55	353.05	25.02	-36.2	-36.4	13.5	0.00e+00	0	39	0	14520680448	39	14571
2026-01-15 10:43:04.54	352.72	25.18	-36.3	-36.6	13.5	0.00e+00	0	40	0	14629732352	39	14794
2026-01-15 10:43:05.53	352.39	25.33	-36.0	-36.3	13.5	0.00e+00	0	40	0	14738784256	39	14381
2026-01-15 10:43:06.52	352.06	25.49	-36.1	-36.4	13.5	0.00e+00	0	39	0	14847836160	39	14481
2026-01-15 10:43:07.51	351.72	25.64	-35.8	-36.0	13.5	0.00e+00	0	39	0	14965276672	38	14753
2026-01-15 10:43:08.51	351.38	25.80	-35.7	-36.0	13.5	0.00e+00	0	39	0	15074328576	38	14644
2026-01-15 10:43:09.50	351.03	25.95	-35.6	-35.9	13.5	0.00e+00	0	39	0	15183380480	38	14502
2026-01-15 10:43:10.49	350.69	26.11	-35.7	-35.9	13.5	9.50e-06	0	39	0	15300820992	38	14552
2026-01-15 10:43:11.47	350.34	26.26	-35.6	-35.8	13.6	9.50e-06	0	39	0	15409872896	38	14429
2026-01-15 10:43:12.45	349.99	26.41	-35.5	-35.8	13.6	9.50e-06	0	39	0	15518924800	38	14327
2026-01-15 10:43:13.44	349.63	26.57	-35.6	-35.8	13.6	4.70e-06	0	39	0	15627976704	38	14377
2026-01-15 10:43:14.43	349.27	26.72	-35.5	-35.8	13.6	4.70e-06	0	40	0	15745417216	38	14334
2026-01-15 10:43:15.42	348.90	26.88	-35.4	-35.6	13.6	4.70e-06	0	40	0	15854469120	38	14087
2026-01-15 10:43:16.41	348.53	27.03	-35.2	-35.5	13.5	4.70e-06	0	39	0	15963521024	37	14683
2026-01-15 10:43:17.40	348.15	27.18	-35.1	-35.4	13.5	4.70e-06	0	39	0	16072572928	37	14460
2026-01-15 10:43:18.39	347.78	27.34	-35.2	-35.5	13.5	0.00e+00	0	40	0	16190013440	37	14635
2026-01-15 10:43:19.38	347.39	27.49	-35.3	-35.5	13.5	0.00e+00	0	40	0	16299065344	37	14746
2026-01-15 10:43:20.38	347.00	27.65	-35.2	-35.5	13.5	0.00e+00	0	39	0	16416505856	37	14647
2026-01-15 10:43:21.38	346.61	27.80	-35.2	-35.4	13.5	0.00e+00	0	40	0	16525557760	37	14560
2026-01-15 10:43:22.38	346.21	27.95	-35.1	-35.3	13.6	0.00e+00	0	39	0	16634609664	37	14413
2026-01-15 10:43:23.38	345.80	28.11	-34.9	-35.1	13.6	0.00e+00	0	40	0	16752050176	37	14080
2026-01-15 10:43:24.38	345.40	28.26	-35.0	-35.3	13.6	4.70e-06	0	39	0	16861102080	37	14291
2026-01-15 10:43:25.37	344.99	28.41	-34.8	-35.1	13.5	4.70e-06	0	39	0	16978542592	36	14792
2026-01-15 10:43:26.37	344.57	28.56	-34.9	-35.1	13.5	4.70e-06	0	39	0	17087594496	36	14917
2026-01-15 10:43:27.37	344.15	28.71	-34.8	-35.1	13.5	4.70e-06	0	40	0	17196646400	36	14808
2026-01-15 10:43:28.36	343.73	28.86	-34.8	-35.0	13.6	0.00e+00	0	40	0	17305698304	36	14708
2026-01-15 10:43:29.35	343.31	29.01	-34.8	-35.0	13.5	0.00e+00	0	39	0	17423138816	36	14728
2026-01-15 10:43:30.34	342.88	29.16	-34.7	-35.0	13.6	0.00e+00	0	39	0	17532190720	36	14661
2026-01-15 10:43:31.32	342.45	29.31	-34.7	-35.0	13.6	0.00e+00	0	39	0	17641242624	36	14633
2026-01-15 10:43:32.31	342.01	29.45	-34.7	-34.9	13.6	0.00e+00	0	39	0	17750294528	36	14574
2026-01-15 10:43:33.30	341.57	29.60	-34.6	-34.9	13.6	0.00e+00	0	39	0	17867735040	36	14496
2026-01-15 10:43:34.30	341.12	29.74	-34.7	-35.0	13.6	0.00e+00	0	39	0	17976786944	36	14609
2026-01-15 10:43:35.30	340.66	29.89	-34.8	-35.0	13.6	0.00e+00	0	40	0	18085838848	36	14666
2026-01-15 10:43:36.29	340.21	30.03	-34.7	-34.9	13.6	0.00e+00	0	39	0	18203279360	36	14510
2026-01-15 10:43:37.28	339.75	30.17	-34.5	-34.8	13.6	0.00e+00	0	40	0	18312331264	36	14362
2026-01-15 10:43:38.28	339.28	30.31	-34.6	-34.8	13.6	0.00e+00	0	39	0	18429771776	36	14372
2026-01-15 10:43:39.27	338.81	30.45	-34.5	-34.8	13.6	0.00e+00	0	39	0	18530435072	36	14313
2026-01-15 10:43:40.26	338.34	30.59	-34.5	-34.8	13.6	0.00e+00	0	39	0	18647875584	36	14309
2026-01-15 10:43:41.24	337.86	30.72	-34.5	-34.7	13.6	0.00e+00	0	39	0	18756927488	36	14196
2026-01-15 10:43:42.24	337.38	30.86	-34.5	-34.7	13.6	0.00e+00	0	40	0	18874368000	36	14239
2026-01-15 10:43:43.23	336.89	30.99	-34.5	-34.8	13.6	0.00e+00	0	40	0	18983419904	36	14292
2026-01-15 10:43:44.23	336.39	31.13	-34.4	-34.7	13.6	0.00e+00	0	40	0	19092471808	36	14136
2026-01-15 10:43:45.23	335.89	31.26	-34.4	-34.7	13.6	0.00e+00	0	40	0	19209912320	36	14200
2026-01-15 10:43:46.22	335.40	31.39	-34.4	-34.6	13.7	0.00e+00	0	39	0	19318964224	36	14070
2026-01-15 10:43:47.22	334.89	31.52	-31.8	-32.0	13.6	0.00e+00	0	40	0	19436404736	30	14763
2026-01-15 10:43:48.22	334.37	31.64	-31.8	-32.0	13.5	0.00e+00	0	39	0	19537068032	30	14749
2026-01-15 10:43:49.20	333.87	31.77	-31.7	-32.0	13.6	0.00e+00	0	39	0	19654508544	30	14612
2026-01-15 10:43:50.20	333.34	31.89	-31.7	-31.9	13.6	0.00e+00	0	39	0	19763560448	30	14567
2026-01-15 10:43:51.19	332.82	32.01	-31.7	-32.0	13.5	0.00e+00	0	39	0	19881000960	30	14614
2026-01-15 10:43:52.18	332.30	32.13	-31.6	-31.8	13.6	0.00e+00	0	40	0	19990052864	30	14416
2026-01-15 10:43:53.18	331.77	32.25	-31.6	-31.8	13.6	0.00e+00	0	40	0	20107493376	30	14384
2026-01-15 10:43:54.17	331.23	32.36	-31.6	-31.8	13.6	0.00e+00	0	39	0	20216545280	30	14375
2026-01-15 10:43:55.17	330.69	32.47	-31.5	-31.7	13.6	0.00e+00	0	39	0	20325597184	30	14265
2026-01-15 10:43:56.18	330.14	32.58	-31.5	-31.7	13.6	0.00e+00	0	39	0	20443037696	30	14261
2026-01-15 10:43:57.17	329.59	32.69	-31.5	-31.7	13.6	0.00e+00	0	40	0	20543700992	30	14253
2026-01-15 10:43:58.16	329.04	32.80	-31.5	-31.7	13.6	0.00e+00	0	39	0	20661141504	30	14234
2026-01-15 10:43:59.15	328.49	32.90	-31.4	-31.7	13.6	0.00e+00	0	39	0	20770193408	30	14161
2026-01-15 10:44:00.14	327.94	33.00	-31.6	-31.8	13.5	0.00e+00	0	40	0	20887633920	30	14412
2026-01-15 10:44:01.14	327.37	33.10	-31.4	-31.7	13.6	0.00e+00	0	39	0	20996685824	30	14165
2026-01-15 10:44:02.14	326.80	33.19	-31.4	-31.6	13.5	0.00e+00	0	40	0	21114126336	29	14906
2026-01-15 10:44:03.13	326.23	33.28	-31.3	-31.6	13.5	4.70e-06	0	40	0	21223178240	29	14823
2026-01-15 10:44:04.12	325.66	33.37	-31.2	-31.4	13.5	4.70e-06	0	39	0	21332230144	29	14602
2026-01-15 10:44:05.11	325.09	33.46	-31.3	-31.5	13.6	4.70e-06	0	40	0	21441282048	29	14710
2026-01-15 10:44:06.10	324.51	33.54	-31.3	-31.5	13.6	0.00e+00	0	39	0	21558722560	29	14732
2026-01-15 10:44:07.10	323.93	33.63	-31.2	-31.5	13.6	0.00e+00	0	40	0	21667774464	29	14675
2026-01-15 10:44:08.10	323.34	33.71	-31.2	-31.5	13.6	0.00e+00	0	40	0	21776826368	29	14670
2026-01-15 10:44:09.09	322.75	33.78	-31.2	-31.4	13.5	1.43e-05	0	40	0	21894266880	29	14534
2026-01-15 10:44:10.09	322.16	33.85	-31.2	-31.4	13.5	1.43e-05	0	39	0	22003318784	29	14565
2026-01-15 10:44:11.09	321.56	33.92	-31.1	-31.4	13.6	1.43e-05	0	39	0	22120759296	29	14492
2026-01-15 10:44:12.08	320.96	33.99	-31.2	-31.4	13.5	0.00e+00	0	40	0	22229811200	29	14576
2026-01-15 10:44:13.07	320.37	34.05	-31.1	-31.4	13.5	0.00e+00	0	40	0	22338863104	29	14547
2026-01-15 10:44:14.07	319.76	34.11	-31.2	-31.4	13.5	0.00e+00	0	40	0	22456303616	29	14586
2026-01-15 10:44:15.07	319.15	34.17	-31.2	-31.4	13.5	0.00e+00	0	39	0	22565355520	29	14583
2026-01-15 10:44:16.06	318.55	34.22	-31.2	-31.5	13.5	0.00e+00	0	39	0	22674407424	29	14664
2026-01-15 10:44:17.06	317.94	34.27	-31.2	-31.4	13.5	9.50e-06	0	40	0	22783459328	29	14582
2026-01-15 10:44:18.05	317.33	34.32	-31.1	-31.4	13.5	9.50e-06	0	40	0	22900899840	29	14541
2026-01-15 10:44:19.05	316.71	34.36	-31.2	-31.4	13.5	9.50e-06	0	40	0	23009951744	29	14570
2026-01-15 10:44:20.05	316.09	34.40	-31.2	-31.4	13.5	9.50e-06	0	40	0	23127392256	29	14596
2026-01-15 10:44:21.05	315.47	34.43	-31.1	-31.3	13.5	9.50e-06	0	39	0	23236444160	29	14418
2026-01-15 10:44:22.04	314.86	34.47	-31.0	-31.3	13.5	4.70e-06	0	40	0	23345496064	29	14335
2026-01-15 10:44:23.03	314.24	34.50	-31.1	-31.4	13.5	4.70e-06	0	40	0	23462936576	29	14450
2026-01-15 10:44:24.02	313.63	34.52	-31.0	-31.2	13.5	4.70e-06	0	40	0	23571988480	29	14231
2026-01-15 10:44:25.02	313.00	34.54	-30.9	-31.2	13.6	4.70e-06	0	40	0	23689428992	29	14195
2026-01-15 10:44:26.01	312.39	34.56	-31.0	-31.2	13.6	4.70e-06	0	40	0	23790092288	29	14191
2026-01-15 10:44:27.00	311.77	34.57	-30.9	-31.2	13.6	4.70e-06	0	40	0	23907532800	29	14190
2026-01-15 10:44:27.99	311.15	34.58	-30.9	-31.2	13.6	4.70e-06	0	40	0	24016584704	29	14130
2026-01-15 10:44:28.98	310.53	34.59	-31.0	-31.3	13.6	0.00e+00	0	40	0	24134025216	29	14309
2026-01-15 10:44:29.97	309.91	34.60	-30.9	-31.2	13.6	0.00e+00	0	40	0	24243077120	29	14193
2026-01-15 10:44:30.97	309.28	34.60	-30.9	-31.2	13.6	0.00e+00	0	40	0	24352129024	29	14206
2026-01-15 10:44:31.96	308.66	34.59	-30.9	-31.2	13.6	0.00e+00	0	40	0	24461180928	29	14182
2026-01-15 10:44:32.95	308.04	34.58	-31.0	-31.3	13.6	0.00e+00	0	40	0	24578621440	29	14275
2026-01-15 10:44:33.94	307.42	34.57	-31.0	-31.2	13.6	0.00e+00	0	40	0	24687673344	29	14231
2026-01-15 10:44:34.94	306.79	34.56	-31.0	-31.2	13.6	0.00e+00	0	40	0	24796725248	29	14272
2026-01-15 10:44:35.94	306.17	34.54	-31.1	-31.3	13.6	0.00e+00	0	39	0	24914165760	29	14431
2026-01-15 10:44:36.93	305.55	34.52	-31.1	-31.4	13.5	0.00e+00	0	40	0	25023217664	29	14461
2026-01-15 10:44:37.93	304.93	34.49	-31.0	-31.3	13.6	4.70e-06	0	40	0	25140658176	29	14307
2026-01-15 10:44:38.92	304.31	34.46	-31.0	-31.3	13.5	4.70e-06	0	40	0	25249710080	29	14376
2026-01-15 10:44:39.92	303.69	34.43	-31.1	-31.3	13.5	4.70e-06	0	40	0	25358761984	29	14426
2026-01-15 10:44:40.91	303.08	34.39	-31.0	-31.3	13.5	4.70e-06	0	40	0	25467813888	29	14367
2026-01-15 10:44:41.90	302.47	34.36	-31.2	-31.4	13.5	4.70e-06	0	40	0	25585254400	29	14592
2026-01-15 10:44:42.89	301.86	34.31	-31.2	-31.4	13.5	4.70e-06	0	40	0	25694306304	29	14557
2026-01-15 10:44:43.89	301.24	34.27	-31.2	-31.5	13.5	4.70e-06	0	40	0	25803358208	29	14637
2026-01-15 10:44:44.89	300.63	34.22	-31.1	-31.4	13.5	0.00e+00	0	40	0	25920798720	29	14556
2026-01-15 10:44:45.89	300.02	34.16	-31.2	-31.5	13.5	0.00e+00	0	40	0	26029850624	29	14662
2026-01-15 10:44:46.89	299.41	34.10	-31.1	-31.4	13.6	0.00e+00	0	40	0	26147291136	29	14540
2026-01-15 10:44:47.88	298.81	34.05	-31.2	-31.5	13.6	0.00e+00	0	40	0	26256343040	29	14672
2026-01-15 10:44:48.88	298.21	33.98	-31.3	-31.5	13.5	0.00e+00	0	40	0	26373783552	29	14755
2026-01-15 10:44:49.87	297.61	33.92	-31.2	-31.5	13.6	0.00e+00	0	40	0	26474446848	29	14675
2026-01-15 10:44:50.87	297.01	33.85	-31.3	-31.5	13.6	0.00e+00	0	40	0	26591887360	29	14776
2026-01-15 10:44:51.87	296.42	33.77	-31.4	-31.6	13.5	0.00e+00	0	40	0	26709327872	29	14940
2026-01-15 10:44:52.87	295.82	33.70	-31.3	-31.6	13.5	0.00e+00	0	40	0	26818379776	29	14787
2026-01-15 10:44:53.87	295.23	33.62	-31.4	-31.7	13.5	4.70e-06	0	40	0	26927431680	29	15019
2026-01-15 10:44:54.86	294.65	33.54	-31.4	-31.7	13.5	4.70e-06	0	40	0	27036483584	29	15019
2026-01-15 10:44:55.86	294.07	33.45	-31.3	-31.6	13.5	4.70e-06	0	40	0	27153924096	29	14897
2026-01-15 10:44:56.86	293.49	33.36	-31.3	-31.5	13.6	4.70e-06	0	40	0	27262976000	29	14769
2026-01-15 10:44:57.85	292.92	33.27	-31.3	-31.6	13.6	4.70e-06	0	40	0	27380416512	29	14797
2026-01-15 10:44:58.85	292.35	33.18	-31.3	-31.6	13.6	4.70e-06	0	40	0	27489468416	29	14838
2026-01-15 10:44:59.84	291.78	33.08	-31.4	-31.7	13.5	3.33e-05	0	40	0	27598520320	29	14989
2026-01-15 10:45:00.83	291.22	32.99	-31.4	-31.7	13.6	3.33e-05	0	40	0	27715960832	29	15059
2026-01-15 10:45:01.82	290.67	32.89	-31.6	-31.9	13.5	4.70e-06	0	40	0	27825012736	29	15297
2026-01-15 10:45:02.82	290.11	32.78	-31.5	-31.7	13.6	4.70e-06	0	40	0	27934064640	29	15105
2026-01-15 10:45:03.80	289.56	32.68	-31.4	-31.7	13.5	4.70e-06	0	40	0	28043116544	29	15071
2026-01-15 10:45:04.80	289.01	32.57	-31.5	-31.8	13.5	9.50e-06	0	40	0	28160557056	29	15199
2026-01-15 10:45:05.80	288.46	32.46	-31.5	-31.8	13.6	9.50e-06	0	40	0	28269608960	29	15231
2026-01-15 10:45:06.79	287.93	32.34	-31.5	-31.8	13.6	9.50e-06	0	39	0	28387049472	29	15224
2026-01-15 10:45:07.78	287.39	32.23	-31.6	-31.8	13.6	0.00e+00	0	39	0	28496101376	29	15249
2026-01-15 10:45:08.78	286.86	32.11	-31.6	-31.9	13.6	0.00e+00	0	40	0	28605153280	29	15317
2026-01-15 10:45:09.77	286.33	31.99	-31.7	-32.0	13.6	0.00e+00	0	40	0	28722593792	29	15507
2026-01-15 10:45:10.76	285.81	31.87	-31.8	-32.1	13.5	4.70e-06	0	40	0	28831645696	29	15654
2026-01-15 10:45:11.76	285.29	31.75	-31.6	-31.9	13.6	4.70e-06	0	40	0	28940697600	29	15441
2026-01-15 10:45:12.76	284.77	31.62	-31.6	-31.9	13.6	0.00e+00	0	40	0	29049749504	29	15425
2026-01-15 10:45:13.75	284.26	31.50	-31.8	-32.0	13.6	0.00e+00	0	40	0	29167190016	29	15635
2026-01-15 10:45:14.75	283.75	31.37	-31.8	-32.1	13.6	0.00e+00	0	40	0	29276241920	29	15653
2026-01-15 10:45:15.75	283.25	31.24	-31.8	-32.1	13.6	4.70e-06	0	40	0	29393682432	29	15661
2026-01-15 10:45:16.74	282.75	31.11	-31.8	-32.1	13.6	4.70e-06	0	40	0	29502734336	29	15675
2026-01-15 10:45:17.74	282.26	30.97	-31.8	-32.1	13.6	4.70e-06	0	40	0	29611786240	29	15672
2026-01-15 10:45:18.73	281.77	30.84	-31.9	-32.1	13.6	4.70e-06	0	40	0	29729226752	29	15805
2026-01-15 10:45:19.72	281.29	30.70	-31.9	-32.2	13.6	4.70e-06	0	40	0	29838278656	29	15938
2026-01-15 10:45:20.72	280.81	30.57	-32.1	-32.3	13.6	4.70e-06	0	40	0	29947330560	29	16188
2026-01-15 10:45:21.72	280.33	30.43	-32.0	-32.3	13.6	4.70e-06	0	40	0	30056382464	29	16125
2026-01-15 10:45:22.71	279.86	30.29	-31.9	-32.2	13.6	4.70e-06	0	40	0	30173822976	29	15944
2026-01-15 10:45:23.71	279.39	30.14	-31.9	-32.2	13.6	4.70e-06	0	40	0	30282874880	29	15982
2026-01-15 10:45:24.71	278.92	30.00	-32.1	-32.4	13.6	9.50e-06	0	40	0	30400315392	29	16262
2026-01-15 10:45:25.70	278.47	29.86	-32.2	-32.5	13.6	9.50e-06	0	40	0	30509367296	30	15491
2026-01-15 10:45:26.70	278.01	29.71	-32.3	-32.6	13.6	9.50e-06	0	40	0	30618419200	30	15738
2026-01-15 10:45:27.70	277.56	29.57	-32.2	-32.5	13.6	4.70e-06	0	40	0	30735859712	30	15631
2026-01-15 10:45:28.70	277.11	29.42	-32.2	-32.5	13.6	4.70e-06	0	40	0	30844911616	30	15628
2026-01-15 10:45:29.69	276.67	29.27	-32.3	-32.6	13.6	0.00e+00	0	40	0	30962352128	30	15771
2026-01-15 10:45:30.68	276.24	29.12	-32.3	-32.7	13.6	0.00e+00	0	40	0	31071404032	30	15841
2026-01-15 10:45:31.68	275.81	28.97	-32.4	-32.7	13.6	0.00e+00	0	40	0	31180455936	30	15836
2026-01-15 10:45:32.67	275.38	28.82	-32.4	-32.7	13.6	4.70e-06	0	40	0	31297896448	30	15944
2026-01-15 10:45:33.66	274.96	28.67	-32.5	-32.8	13.6	4.70e-06	0	40	0	31406948352	30	16028
2026-01-15 10:45:34.66	274.54	28.52	-32.5	-32.8	13.6	4.70e-06	0	40	0	31516000256	30	16157
2026-01-15 10:45:35.65	274.13	28.37	-32.5	-32.8	13.6	9.50e-06	0	40	0	31625052160	30	16168
2026-01-15 10:45:36.64	273.72	28.22	-32.6	-32.9	13.6	9.50e-06	0	40	0	31742492672	30	16253
2026-01-15 10:45:37.64	273.31	28.07	-32.5	-32.8	13.7	9.50e-06	0	40	0	31851544576	30	16185
2026-01-15 10:45:38.63	272.91	27.91	-32.7	-33.0	13.6	9.50e-06	0	40	0	31968985088	31	15501
2026-01-15 10:45:39.62	272.52	27.76	-32.8	-33.1	13.6	1.90e-05	0	40	0	32078036992	31	15746
2026-01-15 10:45:40.62	272.12	27.61	-32.8	-33.1	13.6	1.90e-05	0	40	0	32187088896	31	15678
2026-01-15 10:45:41.61	271.73	27.45	-32.8	-33.1	13.6	1.90e-05	0	40	0	32296140800	31	15748
2026-01-15 10:45:42.61	271.35	27.30	-33.0	-33.2	13.6	3.33e-05	0	40	0	32413581312	31	15992
2026-01-15 10:45:43.61	270.96	27.14	-32.8	-33.1	13.6	3.33e-05	0	40	0	32522633216	31	15784
2026-01-15 10:45:44.60	270.59	26.99	-32.9	-33.1	13.6	9.50e-06	0	40	0	32631685120	31	15814
2026-01-15 10:45:45.60	270.21	26.83	-32.9	-33.2	13.6	9.50e-06	0	40	0	32749125632	31	15905
2026-01-15 10:45:46.59	269.85	26.68	-33.0	-33.3	13.6	9.50e-06	0	40	0	32858177536	31	16039
2026-01-15 10:45:47.59	269.48	26.52	-33.0	-33.2	13.6	9.50e-06	0	40	0	32975618048	31	16016
2026-01-15 10:45:48.59	269.12	26.36	-33.0	-33.3	13.6	9.50e-06	0	40	0	33084669952	31	16149
2026-01-15 10:45:49.59	268.76	26.21	-33.1	-33.4	13.6	4.70e-06	0	40	0	33202110464	31	16285
2026-01-15 10:45:50.58	268.40	26.05	-33.1	-33.4	13.6	4.70e-06	0	40	0	33311162368	32	15407
2026-01-15 10:45:51.58	268.05	25.89	-33.2	-33.5	13.6	4.70e-06	0	40	0	33420214272	32	15621
2026-01-15 10:45:52.57	267.71	25.74	-33.3	-33.6	13.6	4.70e-06	0	40	0	33537654784	32	15807
2026-01-15 10:45:53.57	267.37	25.58	-33.3	-33.6	13.6	4.70e-06	0	40	0	33646706688	32	15676
2026-01-15 10:45:54.56	267.03	25.43	-33.4	-33.7	13.6	0.00e+00	0	40	0	33755758592	32	15839
2026-01-15 10:45:55.55	266.70	25.27	-33.3	-33.6	13.6	0.00e+00	0	40	0	33864810496	32	15767
2026-01-15 10:45:56.54	266.37	25.12	-33.4	-33.7	13.6	0.00e+00	0	40	0	33982251008	32	15976
2026-01-15 10:45:57.54	266.04	24.96	-33.6	-33.9	13.6	1.43e-05	0	40	0	34091302912	32	16235
2026-01-15 10:45:58.54	265.71	24.81	-33.6	-33.9	13.6	1.43e-05	0	40	0	34208743424	32	16215
2026-01-15 10:45:59.53	265.39	24.65	-33.6	-33.9	13.6	1.43e-05	0	40	0	34317795328	33	15437
2026-01-15 10:46:00.53	265.08	24.50	-33.7	-34.0	13.6	1.90e-05	0	40	0	34426847232	33	15476
2026-01-15 10:46:01.52	264.76	24.34	-33.8	-34.1	13.5	1.90e-05	0	40	0	34535899136	33	15684
2026-01-15 10:46:02.51	264.46	24.19	-33.8	-34.1	13.5	1.90e-05	0	40	0	34653339648	33	15749
2026-01-15 10:46:03.51	264.15	24.03	-34.0	-34.3	13.5	1.90e-05	0	40	0	34762391552	33	16182
2026-01-15 10:46:04.50	263.85	23.88	-33.9	-34.2	13.5	1.90e-05	0	40	0	34871443456	33	15887
2026-01-15 10:46:05.50	263.54	23.73	-33.9	-34.2	13.5	1.90e-05	0	40	0	34988883968	33	15880
2026-01-15 10:46:06.49	263.25	23.57	-34.0	-34.3	13.5	9.50e-06	0	40	0	35097935872	33	16129
2026-01-15 10:46:07.49	262.95	23.42	-34.1	-34.4	13.5	9.50e-06	0	40	0	35215376384	33	16212
2026-01-15 10:46:08.47	262.67	23.27	-34.2	-34.5	13.5	9.50e-06	0	40	0	35324428288	34	15506
2026-01-15 10:46:09.47	262.38	23.12	-34.2	-34.5	13.5	6.19e-05	0	40	0	35433480192	34	15541
2026-01-15 10:46:10.46	262.10	22.97	-34.3	-34.6	13.5	6.19e-05	0	40	0	35542532096	34	15766
2026-01-15 10:46:11.45	261.82	22.82	-34.3	-34.6	13.4	6.19e-05	0	40	0	35659972608	34	15784
2026-01-15 10:46:12.45	261.54	22.67	-34.5	-34.7	13.5	3.81e-05	0	40	0	35769024512	34	16005
2026-01-15 10:46:13.45	261.26	22.51	-34.4	-34.7	13.4	3.81e-05	0	40	0	35878076416	34	15852
2026-01-15 10:46:14.44	260.99	22.37	-34.4	-34.7	13.4	3.81e-05	0	40	0	35995516928	34	15988
2026-01-15 10:46:15.44	260.72	22.22	-34.6	-34.9	13.4	6.19e-05	0	40	0	36104568832	34	16216
2026-01-15 10:46:16.43	260.46	22.07	-34.6	-34.9	13.4	6.19e-05	0	40	0	36222009344	34	16241
2026-01-15 10:46:17.42	260.20	21.92	-34.6	-34.9	13.4	6.19e-05	0	40	0	36331061248	35	15463
2026-01-15 10:46:18.42	259.93	21.77	-34.7	-35.0	13.4	6.67e-05	0	40	0	36440113152	35	15551
2026-01-15 10:46:19.42	259.68	21.62	-34.7	-35.0	13.4	6.67e-05	0	40	0	36549165056	35	15513
2026-01-15 10:46:20.42	259.42	21.48	-34.8	-35.1	13.4	9.05e-05	0	40	0	36666605568	35	15766
2026-01-15 10:46:21.41	259.17	21.33	-35.0	-35.3	13.4	9.05e-05	0	40	0	36775657472	35	16099
2026-01-15 10:46:22.40	258.92	21.18	-35.0	-35.2	13.4	1.81e-04	0	40	0	36884709376	35	15986
2026-01-15 10:46:23.40	258.67	21.04	-34.9	-35.2	13.4	1.81e-04	0	40	0	37002149888	35	15980
2026-01-15 10:46:24.40	258.43	20.89	-34.9	-35.2	13.4	1.81e-04	0	40	0	37111201792	35	15989
2026-01-15 10:46:25.40	258.19	20.75	-35.1	-35.4	13.3	1.48e-04	0	40	0	37228642304	35	16296
2026-01-15 10:46:26.39	257.95	20.60	-37.6	-37.9	13.5	1.48e-04	0	40	0	37337694208	41	15324
2026-01-15 10:46:27.38	257.71	20.46	-37.6	-37.9	13.5	7.15e-05	0	40	0	37446746112	41	15325
2026-01-15 10:46:28.37	257.48	20.32	-37.7	-37.9	13.5	7.15e-05	0	40	0	37564186624	41	15427
2026-01-15 10:46:29.37	257.25	20.18	-37.8	-38.1	13.5	7.15e-05	0	40	0	37673238528	41	15734
2026-01-15 10:46:30.36	257.02	20.04	-37.8	-38.1	13.4	7.62e-05	0	40	0	37782290432	41	15799
2026-01-15 10:46:31.35	256.79	19.90	-38.0	-38.3	13.4	7.62e-05	0	40	0	37891342336	41	16028
2026-01-15 10:46:32.34	256.57	19.76	-38.0	-38.3	13.4	7.62e-05	0	40	0	38008782848	41	16155
2026-01-15 10:46:33.34	256.35	19.62	-38.1	-38.3	13.4	9.53e-05	0	40	0	38117834752	41	16196
2026-01-15 10:46:34.32	256.13	19.48	-38.2	-38.5	13.4	9.53e-05	0	40	0	38235275264	42	15570
2026-01-15 10:46:35.31	255.92	19.34	-38.4	-38.7	13.4	9.53e-05	0	40	0	38335938560	42	15854
2026-01-15 10:46:36.30	255.70	19.20	-38.3	-38.6	13.4	1.24e-04	0	40	0	38453379072	42	15748
2026-01-15 10:46:37.30	255.49	19.07	-38.4	-38.7	13.4	1.24e-04	0	40	0	38562430976	42	15891
2026-01-15 10:46:38.30	255.28	18.93	-38.5	-38.8	13.4	1.24e-04	0	40	0	38679871488	42	16056
2026-01-15 10:46:39.29	255.07	18.79	-38.5	-38.8	13.3	1.76e-04	0	40	0	38788923392	42	16159
2026-01-15 10:46:40.29	254.86	18.66	-38.6	-38.9	13.4	1.76e-04	0	40	0	38897975296	43	15335
2026-01-15 10:46:41.29	254.66	18.52	-38.7	-38.9	13.4	1.76e-04	0	40	0	39015415808	43	15459
2026-01-15 10:46:42.29	254.46	18.39	-38.7	-39.0	13.4	1.57e-04	0	40	0	39124467712	43	15514
2026-01-15 10:46:43.28	254.26	18.25	-38.9	-39.1	13.3	1.57e-04	0	40	0	39241908224	43	15787
2026-01-15 10:46:44.28	254.06	18.12	-38.9	-39.2	13.3	2.29e-04	0	40	0	39350960128	43	15848
2026-01-15 10:46:45.27	253.86	17.99	-38.9	-39.2	13.3	2.29e-04	0	40	0	39468400640	43	15834
2026-01-15 10:46:46.26	253.67	17.85	-39.0	-39.2	13.3	2.29e-04	0	40	0	39569063936	43	15971
2026-01-15 10:46:47.25	253.48	17.72	-39.0	-39.3	13.3	2.34e-04	0	40	0	39686504448	43	16147
2026-01-15 10:46:48.25	253.29	17.59	-39.0	-39.3	13.3	2.34e-04	0	40	0	39795556352	43	16167
2026-01-15 10:46:49.24	253.10	17.46	-39.1	-39.4	13.3	2.34e-04	0	40	0	39904608256	44	15311
2026-01-15 10:46:50.24	252.91	17.33	-39.2	-39.4	13.3	2.86e-04	0	40	0	40022048768	44	15427
2026-01-15 10:46:51.23	252.73	17.20	-39.2	-39.5	13.3	2.86e-04	0	40	0	40131100672	44	15534
2026-01-15 10:46:52.22	252.55	17.08	-39.4	-39.7	13.2	2.86e-04	0	40	0	40248541184	44	15871
2026-01-15 10:46:53.21	252.37	16.95	-39.4	-39.6	13.2	2.86e-04	0	40	0	40349204480	44	15811
2026-01-15 10:46:54.20	252.19	16.82	-39.3	-39.6	13.2	3.86e-04	0	40	0	40466644992	44	15812
2026-01-15 10:46:55.19	252.02	16.70	-39.5	-39.8	13.2	3.86e-04	0	40	0	40575696896	44	16023
2026-01-15 10:46:56.18	251.84	16.57	-39.3	-39.6	13.2	3.67e-04	0	40	0	40693137408	44	15797
2026-01-15 10:46:57.17	251.67	16.44	-39.6	-39.8	13.2	3.67e-04	0	40	0	40793800704	44	16194
2026-01-15 10:46:58.16	251.50	16.32	-39.4	-39.7	13.2	3.67e-04	0	40	0	40911241216	44	15939
2026-01-15 10:46:59.15	251.33	16.20	-39.6	-39.8	13.2	5.34e-04	0	40	0	41020293120	44	16192
2026-01-15 10:47:00.15	251.16	16.07	-39.6	-39.9	13.3	5.34e-04	0	40	0	41137733632	45	15391
2026-01-15 10:47:01.15	250.99	15.95	-39.7	-40.0	13.3	5.34e-04	0	40	0	41246785536	45	15503
2026-01-15 10:47:02.15	250.83	15.83	-39.6	-39.9	13.3	1.25e-03	0	40	0	41355837440	45	15365
2026-01-15 10:47:03.14	250.66	15.70	-39.9	-40.2	13.2	1.25e-03	0	40	0	41473277952	45	15844
2026-01-15 10:47:04.15	250.50	15.58	-40.0	-40.2	13.2	1.25e-03	0	40	0	41582329856	45	15952
2026-01-15 10:47:05.14	250.34	15.46	-40.0	-40.2	13.2	1.40e-03	0	40	0	41699770368	45	15998
2026-01-15 10:47:06.13	250.18	15.34	-39.9	-40.2	13.2	1.40e-03	0	40	0	41808822272	45	15944
2026-01-15 10:47:07.12	250.02	15.22	-40.1	-40.3	13.2	1.40e-03	0	40	0	41926262784	46	15273
2026-01-15 10:47:08.12	249.87	15.10	-40.3	-40.6	13.1	1.86e-03	0	40	0	42026926080	46	15733
2026-01-15 10:47:09.11	249.71	14.98	-59.8	-63.1	6.2	1.86e-03	0	40	104	42060480512	85	22206
2026-01-15 10:47:10.10	249.56	14.87	-59.8	-63.1	6.2	1.86e-03	0	40	104	42060480512	85	22192
2026-01-15 10:47:11.10	249.41	14.75	-59.8	-63.1	6.2	1.86e-03	0	40	104	42060480512	85	22136
2026-01-15 10:47:12.09	249.26	14.63	-59.8	-63.0	6.2	1.86e-03	0	39	104	42060480512	85	22081
2026-01-15 10:47:13.09	249.11	14.51	-59.8	-63.1	6.2	1.86e-03	0	39	104	42060480512	85	22133
2026-01-15 10:47:14.09	248.96	14.40	-59.8	-63.1	6.2	1.86e-03	0	39	104	42060480512	85	22185
2026-01-15 10:47:15.09	248.82	14.28	-59.8	-63.0	6.2	1.86e-03	0	39	104	42060480512	85	22095
2026-01-15 10:47:16.09	248.67	14.17	-59.8	-63.0	6.2	1.86e-03	0	39	104	42060480512	85	21998
2026-01-15 10:47:17.08	248.53	14.05	-59.8	-63.0	6.2	1.86e-03	0	39	104	42060480512	85	22044
2026-01-15 10:47:18.07	248.39	13.94	-59.8	-63.1	6.2	1.86e-03	0	39	104	42060480512	85	22125
2026-01-15 10:47:19.07	248.25	13.82	-59.8	-63.0	6.2	1.86e-03	0	39	104	42060480512	85	22084
2026-01-15 10:47:20.06	248.11	13.71	-59.8	-63.0	6.2	3.34e-04	0	39	104	42060480512	85	22030
2026-01-15 10:47:21.06	247.97	13.60	-59.8	-63.1	6.2	3.34e-04	0	39	104	42060480512	85	22172
2026-01-15 10:47:22.07	247.83	13.49	-59.8	-63.0	6.2	3.34e-04	0	39	104	42060480512	85	22081
2026-01-15 10:47:23.06	247.70	13.38	-59.8	-63.0	6.2	3.34e-04	0	39	104	42060480512	85	21912
2026-01-15 10:47:24.06	247.56	13.26	-59.7	-63.0	6.2	3.34e-04	0	39	104	42060480512	85	21929
2026-01-15 10:47:25.04	247.43	13.16	-59.8	-63.0	6.2	3.34e-04	0	39	104	42060480512	85	22078
2026-01-15 10:47:26.03	247.30	13.05	-59.8	-63.0	6.2	3.34e-04	0	39	104	42060480512	85	21977
2026-01-15 10:47:27.02	247.17	12.94	-59.7	-63.0	6.2	3.34e-04	0	39	104	42060480512	85	21873
2026-01-15 10:47:28.02	247.04	12.83	-59.7	-63.0	6.2	3.34e-04	0	39	104	42060480512	85	21982
2026-01-15 10:47:29.01	246.91	12.72	-59.7	-63.0	6.2	3.34e-04	0	39	104	42060480512	85	21921
2026-01-15 10:47:30.01	246.78	12.61	-59.7	-63.0	6.2	3.34e-04	0	39	104	42060480512	85	21953
2026-01-15 10:47:31.01	246.66	12.51	-59.7	-63.0	6.2	3.34e-04	0	39	104	42060480512	85	21937
2026-01-15 10:47:32.01	246.53	12.40	-59.7	-63.0	6.2	0.00e+00	0	39	104	42060480512	85	21871
2026-01-15 10:47:33.00	246.41	12.29	-59.7	-62.9	6.2	0.00e+00	0	39	104	42060480512	85	21837
2026-01-15 10:47:33.99	246.28	12.19	-59.7	-62.9	6.2	0.00e+00	0	39	104	42060480512	85	21782
2026-01-15 10:47:34.99	246.16	12.08	-59.7	-62.9	6.2	0.00e+00	0	39	104	42060480512	85	21752
2026-01-15 10:47:35.99	246.04	11.98	-59.7	-62.9	6.1	0.00e+00	0	39	104	42060480512	85	21838
2026-01-15 10:47:36.98	245.92	11.87	-59.7	-63.0	6.2	0.00e+00	0	39	104	42060480512	85	21869
2026-01-15 10:47:37.98	245.80	11.77	-59.7	-62.9	6.2	0.00e+00	0	39	104	42060480512	85	21847
2026-01-15 10:47:38.98	245.68	11.67	-59.7	-62.9	6.1	0.00e+00	0	38	104	42060480512	85	21773
2026-01-15 10:47:39.97	245.57	11.56	-59.7	-62.9	6.2	0.00e+00	0	38	104	42060480512	85	21791
2026-01-15 10:47:40.97	245.45	11.46	-59.7	-62.9	6.2	0.00e+00	0	38	104	42060480512	85	21781
2026-01-15 10:47:41.97	245.34	11.36	-59.7	-62.9	6.2	0.00e+00	0	38	104	42060480512	85	21811
2026-01-15 10:47:42.96	245.22	11.26	-59.7	-62.9	6.2	0.00e+00	0	38	104	42060480512	85	21691
2026-01-15 10:47:43.96	245.11	11.16	-59.6	-62.9	6.2	0.00e+00	0	38	104	42060480512	85	21681
2026-01-15 10:47:44.95	245.00	11.06	-59.7	-62.9	6.2	0.00e+00	0	38	104	42060480512	85	21710
2026-01-15 10:47:45.95	244.89	10.96	-59.7	-62.9	6.2	0.00e+00	0	38	104	42060480512	85	21818
2026-01-15 10:47:46.94	244.78	10.86	-59.6	-62.9	6.2	0.00e+00	0	38	104	42060480512	85	21656
2026-01-15 10:47:47.94	244.67	10.76	-59.6	-62.8	6.2	0.00e+00	0	38	104	42060480512	85	21593
2026-01-15 10:47:48.93	244.56	10.66	-59.6	-62.9	6.2	0.00e+00	0	38	104	42060480512	85	21729
2026-01-15 10:47:49.93	244.46	10.56	-59.7	-62.9	6.2	0.00e+00	0	38	104	42060480512	85	21713
2026-01-15 10:47:50.93	244.35	10.46	-59.6	-62.8	6.2	0.00e+00	0	38	104	42060480512	85	21523
2026-01-15 10:47:51.92	244.24	10.36	-59.6	-62.8	6.2	0.00e+00	0	38	104	42060480512	85	21561
2026-01-15 10:47:52.91	244.14	10.27	-59.6	-62.8	6.2	0.00e+00	0	38	104	42060480512	85	21598
2026-01-15 10:47:53.91	244.04	10.17	-59.6	-62.9	6.2	0.00e+00	0	38	104	42060480512	85	21651
2026-01-15 10:47:54.91	243.93	10.07	-59.5	-62.8	6.2	0.00e+00	0	38	104	42060480512	85	21465
2026-01-15 10:47:55.90	243.83	9.98	-59.5	-62.8	6.2	0.00e+00	0	38	104	42060480512	85	21394
2026-01-15 10:47:56.89	243.73	9.88	-59.6	-62.8	6.2	0.00e+00	0	38	104	42060480512	85	21537
2026-01-15 10:47:57.88	243.63	9.79	-59.6	-62.8	6.2	0.00e+00	0	38	104	42060480512	85	21526
2026-01-15 10:47:58.88	243.53	9.70	-59.5	-62.7	6.2	0.00e+00	0	38	104	42060480512	85	21253
2026-01-15 10:47:59.88	243.43	9.60	-59.5	-62.7	6.2	0.00e+00	0	38	104	42060480512	85	21201
2026-01-15 10:48:00.87	243.34	9.51	-59.5	-62.8	6.2	0.00e+00	0	38	104	42060480512	85	21374
2026-01-15 10:48:01.87	243.24	9.41	-59.5	-62.8	6.2	0.00e+00	0	38	104	42060480512	85	21411
2026-01-15 10:48:02.86	243.14	9.32	-59.5	-62.7	6.2	0.00e+00	0	38	104	42060480512	85	21197
2026-01-15 10:48:03.85	243.05	9.23	-59.4	-62.6	6.2	0.00e+00	0	38	104	42060480512	85	21086
2026-01-15 10:48:04.84	242.95	9.14	-59.5	-62.7	6.2	0.00e+00	0	38	104	42060480512	85	21286
2026-01-15 10:48:05.83	242.86	9.05	-59.5	-62.7	6.2	0.00e+00	0	38	104	42060480512	85	21299
2026-01-15 10:48:06.83	242.77	8.95	-59.4	-62.6	6.2	0.00e+00	0	38	104	42060480512	85	21028
2026-01-15 10:48:07.82	242.68	8.86	-59.4	-62.6	6.2	0.00e+00	0	38	104	42060480512	85	21072
2026-01-15 10:48:08.81	242.58	8.77	-59.4	-62.7	6.2	0.00e+00	0	38	104	42060480512	85	21138
2026-01-15 10:48:09.80	242.49	8.68	-59.4	-62.7	6.2	0.00e+00	0	38	104	42060480512	85	21147
2026-01-15 10:48:10.80	242.40	8.59	-59.4	-62.6	6.2	0.00e+00	0	38	104	42060480512	85	20996
2026-01-15 10:48:11.79	242.31	8.50	-59.3	-62.6	6.2	0.00e+00	0	38	104	42060480512	85	20978
2026-01-15 10:48:12.79	242.22	8.41	-59.4	-62.6	6.2	0.00e+00	0	38	104	42060480512	85	21022
2026-01-15 10:48:13.79	242.14	8.32	-59.4	-62.6	6.2	0.00e+00	0	38	104	42060480512	85	20993
2026-01-15 10:48:14.77	242.05	8.24	-59.3	-62.6	6.2	0.00e+00	0	38	104	42060480512	85	20895
2026-01-15 10:48:15.77	241.96	8.15	-59.3	-62.5	6.2	0.00e+00	0	38	104	42060480512	85	20846
2026-01-15 10:48:16.76	241.88	8.06	-59.3	-62.6	6.2	0.00e+00	0	38	104	42060480512	85	20886
2026-01-15 10:48:17.75	241.79	7.98	-59.3	-62.6	6.2	0.00e+00	0	38	104	42060480512	85	20934
2026-01-15 10:48:18.74	241.71	7.89	-59.3	-62.5	6.2	0.00e+00	0	38	104	42060480512	85	20708
2026-01-15 10:48:19.74	241.62	7.80	-59.2	-62.5	6.2	0.00e+00	0	38	104	42060480512	85	20697
2026-01-15 10:48:20.73	241.54	7.72	-59.3	-62.5	6.2	0.00e+00	0	38	104	42060480512	85	20785
2026-01-15 10:48:21.72	241.46	7.63	-59.3	-62.6	6.2	0.00e+00	0	38	104	42060480512	85	20883
2026-01-15 10:48:22.72	241.37	7.54	-59.2	-62.4	6.2	0.00e+00	0	38	104	42060480512	85	20523
2026-01-15 10:48:23.71	241.29	7.46	-59.2	-62.4	6.2	0.00e+00	0	38	104	42060480512	85	20497
2026-01-15 10:48:24.70	241.21	7.37	-59.3	-62.5	6.2	0.00e+00	0	38	104	42060480512	85	20684
2026-01-15 10:48:25.69	241.13	7.29	-59.3	-62.5	6.2	0.00e+00	0	38	104	42060480512	85	20769
2026-01-15 10:48:26.69	241.05	7.20	-59.1	-62.3	6.2	0.00e+00	0	38	104	42060480512	85	20392
2026-01-15 10:48:27.69	240.97	7.12	-59.1	-62.3	6.2	0.00e+00	0	38	104	42060480512	85	20363
2026-01-15 10:48:28.69	240.89	7.04	-59.2	-62.5	6.2	0.00e+00	0	38	104	42060480512	85	20650
2026-01-15 10:48:29.69	240.82	6.95	-59.2	-62.4	6.2	0.00e+00	0	38	104	42060480512	85	20609
2026-01-15 10:48:30.68	240.74	6.87	-59.1	-62.3	6.2	0.00e+00	0	38	104	42060480512	85	20274
2026-01-15 10:48:31.67	240.66	6.79	-59.1	-62.3	6.2	0.00e+00	0	38	104	42060480512	85	20229
2026-01-15 10:48:32.66	240.59	6.71	-59.2	-62.4	6.2	0.00e+00	0	38	104	42060480512	85	20444
2026-01-15 10:48:33.66	240.51	6.62	-59.1	-62.4	6.2	0.00e+00	0	38	104	42060480512	85	20467
2026-01-15 10:48:34.65	240.43	6.54	-59.0	-62.2	6.2	0.00e+00	0	38	104	42060480512	85	20129
2026-01-15 10:48:35.64	240.36	6.46	-59.0	-62.3	6.2	0.00e+00	0	38	104	42060480512	85	20184
2026-01-15 10:48:36.63	240.29	6.38	-59.1	-62.3	6.2	0.00e+00	0	38	104	42060480512	85	20302
2026-01-15 10:48:37.63	240.21	6.30	-59.1	-62.3	6.2	0.00e+00	0	38	104	42060480512	85	20315
2026-01-15 10:48:38.63	240.14	6.22	-59.0	-62.2	6.2	0.00e+00	0	38	104	42060480512	85	20084
2026-01-15 10:48:39.63	240.07	6.14	-59.0	-62.2	6.2	0.00e+00	0	38	104	42060480512	85	20026
2026-01-15 10:48:40.62	239.99	6.06	-59.0	-62.3	6.2	0.00e+00	0	38	104	42060480512	85	20179
2026-01-15 10:48:41.62	239.92	5.98	-59.1	-62.3	6.2	0.00e+00	0	38	104	42060480512	85	20319
2026-01-15 10:48:42.61	239.85	5.90	-59.0	-62.3	6.2	0.00e+00	0	38	104	42060480512	85	20180
2026-01-15 10:48:43.60	239.78	5.82	-59.0	-62.2	6.2	0.00e+00	0	38	104	42060480512	85	20035
2026-01-15 10:48:44.59	239.71	5.74	-59.0	-62.3	6.2	0.00e+00	0	38	104	42060480512	85	20232
2026-01-15 10:48:45.59	239.64	5.66	-59.0	-62.3	6.2	0.00e+00	0	38	104	42060480512	85	20285
2026-01-15 10:48:46.59	239.57	5.58	-58.9	-62.1	6.2	0.00e+00	0	38	104	42060480512	85	19922
2026-01-15 10:48:47.59	239.50	5.50	-58.9	-62.1	6.2	0.00e+00	0	38	104	42060480512	85	19837
2026-01-15 10:48:48.59	239.44	5.42	-58.9	-62.2	6.2	0.00e+00	0	38	104	42060480512	84	21187
2026-01-15 10:48:49.59	239.37	5.35	-59.0	-62.2	6.2	0.00e+00	0	38	104	42060480512	84	21337
2026-01-15 10:48:50.57	239.30	5.27	-58.9	-62.1	6.2	0.00e+00	0	38	104	42060480512	84	20950
2026-01-15 10:48:51.56	239.23	5.19	-58.8	-62.1	6.2	0.00e+00	0	38	104	42060480512	84	20922
2026-01-15 10:48:52.56	239.17	5.12	-58.9	-62.1	6.2	0.00e+00	0	38	104	42060480512	84	21008
2026-01-15 10:48:53.55	239.10	5.04	-58.9	-62.2	6.2	0.00e+00	0	37	104	42060480512	84	21122
2026-01-15 10:48:54.55	239.04	4.96	-59.0	-62.2	6.2	0.00e+00	0	38	104	42060480512	84	21293
2026-01-15 10:48:55.54	238.97	4.89	-59.4	-62.6	6.2	0.00e+00	0	38	104	42060480512	84	22322
2026-01-15 10:48:56.53	238.91	4.81	-59.8	-63.0	6.2	0.00e+00	0	38	104	42060480512	85	22032
2026-01-15 10:48:57.52	238.85	4.74	-59.9	-63.2	6.2	0.00e+00	0	38	104	42060480512	85	22403
2026-01-15 10:48:58.52	238.78	4.66	-60.1	-63.3	6.2	0.00e+00	0	38	104	42060480512	85	22772
2026-01-15 10:48:59.52	238.72	4.59	-60.2	-63.5	6.2	0.00e+00	0	37	104	42060480512	86	21864
2026-01-15 10:49:00.49	238.66	4.51	-60.3	-63.5	6.2	0.00e+00	0	37	104	42060480512	86	22024
2026-01-15 10:49:01.48	238.59	4.44	-60.3	-63.6	6.2	0.00e+00	0	38	104	42060480512	86	22145
2026-01-15 10:49:02.47	238.53	4.37	-60.4	-63.6	6.2	0.00e+00	0	38	104	42060480512	86	22296
2026-01-15 10:49:03.47	238.47	4.29	-60.4	-63.7	6.2	0.00e+00	0	38	104	42060480512	86	22447
2026-01-15 10:49:04.47	238.41	4.22	-60.5	-63.7	6.2	0.00e+00	0	38	104	42060480512	86	22501
2026-01-15 10:49:05.46	238.35	4.14	-60.5	-63.7	6.2	0.00e+00	0	38	104	42060480512	86	22570
2026-01-15 10:49:06.44	238.29	4.07	-60.5	-63.8	6.2	0.00e+00	0	38	104	42060480512	86	22628
2026-01-15 10:49:07.44	238.23	4.00	-60.5	-63.8	6.2	0.00e+00	0	37	104	42060480512	86	22651
2026-01-15 10:49:08.44	238.17	3.93	-60.6	-63.8	6.2	0.00e+00	0	38	104	42060480512	86	22743
2026-01-15 10:49:09.43	238.11	3.85	-60.6	-63.8	6.2	0.00e+00	0	38	104	42060480512	86	22706
2026-01-15 10:49:10.43	238.05	3.78	-60.6	-63.8	6.2	0.00e+00	0	38	104	42060480512	86	22717
2026-01-15 10:49:11.42	237.99	3.71	-60.6	-63.8	6.2	0.00e+00	0	37	104	42060480512	86	22765
2026-01-15 10:49:12.41	237.94	3.64	-60.6	-63.9	6.2	0.00e+00	0	38	104	42060480512	86	22902
2026-01-15 10:49:13.42	237.88	3.56	-60.6	-63.9	6.2	0.00e+00	0	37	104	42060480512	87	21661
2026-01-15 10:49:14.41	237.82	3.49	-60.6	-63.8	6.2	0.00e+00	0	37	104	42060480512	87	21600
2026-01-15 10:49:15.41	237.76	3.42	-60.7	-63.9	6.2	0.00e+00	0	38	104	42060480512	87	21808
2026-01-15 10:49:16.41	237.71	3.35	-60.7	-64.0	6.2	0.00e+00	0	37	104	42060480512	87	21881
2026-01-15 10:49:17.40	237.65	3.28	-60.6	-63.9	6.2	0.00e+00	0	38	104	42060480512	87	21660
2026-01-15 10:49:18.39	237.60	3.21	-60.6	-63.9	6.2	0.00e+00	0	37	104	42060480512	87	21616
2026-01-15 10:49:19.38	237.54	3.14	-60.6	-63.8	6.2	0.00e+00	0	37	104	42060480512	87	21605
2026-01-15 10:49:20.37	237.49	3.07	-60.7	-63.9	6.2	0.00e+00	0	38	104	42060480512	87	21760
2026-01-15 10:49:21.36	237.43	3.00	-60.7	-63.9	6.2	0.00e+00	0	38	104	42060480512	87	21763
2026-01-15 10:49:22.35	237.38	2.93	-60.6	-63.9	6.2	0.00e+00	0	38	104	42060480512	87	21624
2026-01-15 10:49:23.33	237.33	2.86	-60.5	-63.8	6.2	0.00e+00	0	37	104	42060480512	87	21517
2026-01-15 10:49:24.32	237.27	2.79	-60.5	-63.7	6.2	0.00e+00	0	37	104	42060480512	87	21312
2026-01-15 10:49:25.31	237.22	2.72	-60.5	-63.7	6.2	0.00e+00	0	38	104	42060480512	87	21245
2026-01-15 10:49:26.30	237.17	2.66	-60.5	-63.7	6.2	0.00e+00	0	37	104	42060480512	87	21331
2026-01-15 10:49:27.29	237.11	2.59	-60.5	-63.8	6.2	0.00e+00	0	38	104	42060480512	87	21359
2026-01-15 10:49:28.28	237.06	2.52	-60.5	-63.7	6.2	0.00e+00	0	37	104	42060480512	87	21247
2026-01-15 10:49:29.27	237.01	2.45	-60.5	-63.7	6.2	0.00e+00	0	37	104	42060480512	87	21325
2026-01-15 10:49:30.27	236.96	2.38	-60.5	-63.7	6.2	0.00e+00	0	38	104	42060480512	87	21276
2026-01-15 10:49:31.26	236.91	2.31	-60.5	-63.7	6.2	0.00e+00	0	37	104	42060480512	87	21262
2026-01-15 10:49:32.26	236.86	2.25	-60.4	-63.7	6.2	0.00e+00	0	38	104	42060480512	87	21223
2026-01-15 10:49:33.24	236.81	2.18	-60.4	-63.7	6.2	0.00e+00	0	37	104	42060480512	87	21186
2026-01-15 10:49:34.23	236.76	2.11	-60.4	-63.7	6.2	0.00e+00	0	37	104	42060480512	87	21145
2026-01-15 10:49:35.23	236.71	2.05	-60.4	-63.7	6.2	0.00e+00	0	37	104	42060480512	87	21184
2026-01-15 10:49:36.22	236.66	1.98	-60.4	-63.7	6.2	0.00e+00	0	37	104	42060480512	87	21151
2026-01-15 10:49:37.21	236.61	1.91	-60.4	-63.7	6.2	0.00e+00	0	37	104	42060480512	87	21178

#Closed at: 2026-01-15 10:49:37
#Recorded file [42060 MB]: D:/lorett/data/31004_260115_133923.dat