passes_logs/2026/01/15/R3.2S_Murmansk/R3.2S_Murmansk__20260115_233254_NOAA_20_JPSS-1_rec.log

#Pass ID: 20260115_233254_NOAA 20 (JPSS-1)
#Satellite: NOAA 20 (JPSS-1)
#Configuration: NOAA 20
#almurnet v.1.7.20251203
#Start time: 2026-01-15 23:32:55

#Version: 2.2.20231116
#Station: R3.2S_Murmansk
#Location: 33.079688 lon 68.888172 lat
#TLE: 1 43013U 17073A   26015.47098083  .00000029  00000+0  34851-4 0  9997
#TLE: 2 43013  98.7636 316.4053 0001479  38.6686 321.4595 14.19536048422808

#Time	Az	El	Level	Level2	SNR	BER	BlckErr	Temp	State	Recorded	gain1	gain2
2026-01-15 23:32:55.13	21.02	2.07	-56.6	-71.2	3.8	1.49e+00	0	41	0	0	85	18634
2026-01-15 23:32:56.14	21.05	2.13	-56.5	-70.9	3.8	1.49e+00	0	41	104	0	83	20257
2026-01-15 23:32:57.15	21.09	2.19	-56.5	-70.8	3.8	1.49e+00	0	41	104	0	83	19852
2026-01-15 23:32:58.16	21.12	2.25	-56.4	-70.3	3.8	1.49e+00	0	41	104	0	83	18839
2026-01-15 23:32:59.17	21.16	2.32	-56.4	-70.2	3.8	1.49e+00	0	41	104	0	83	18613
2026-01-15 23:33:00.18	21.20	2.38	-56.4	-70.3	3.8	1.49e+00	0	41	104	0	83	18813
2026-01-15 23:33:01.18	21.23	2.44	-56.4	-70.5	3.8	1.49e+00	0	41	104	0	83	19171
2026-01-15 23:33:02.19	21.27	2.50	-56.4	-70.5	3.8	1.49e+00	0	41	104	0	83	19313
2026-01-15 23:33:03.20	21.31	2.57	-56.4	-70.2	3.8	1.49e+00	0	41	104	0	83	18560
2026-01-15 23:33:04.21	21.34	2.63	-56.4	-70.3	3.8	1.49e+00	0	41	104	0	83	18765
2026-01-15 23:33:05.22	21.38	2.69	-56.4	-70.5	3.8	1.49e+00	0	41	104	0	83	19169
2026-01-15 23:33:06.23	21.42	2.76	-56.4	-69.1	3.9	1.49e+00	0	42	104	0	83	16335
2026-01-15 23:33:07.24	21.46	2.82	-56.4	-69.8	3.8	1.49e+00	0	42	104	0	83	17859
2026-01-15 23:33:08.25	21.49	2.89	-56.4	-68.9	3.9	1.47e+00	0	42	104	0	83	16087
2026-01-15 23:33:09.26	21.53	2.95	-56.2	-67.0	4.5	1.44e+00	65	42	0	0	83	12959
2026-01-15 23:33:10.27	21.57	3.01	-56.3	-68.1	4.1	1.39e+00	0	42	0	0	83	14592
2026-01-15 23:33:11.28	21.61	3.08	-56.1	-66.1	4.9	1.03e+00	0	42	0	1048576	83	11599
2026-01-15 23:33:12.29	21.64	3.14	-56.1	-65.6	5.2	6.15e-01	0	42	0	3145728	83	11004
2026-01-15 23:33:13.30	21.68	3.21	-56.1	-65.6	5.1	8.51e-01	0	42	0	5242880	83	11024
2026-01-15 23:33:14.31	21.72	3.27	-56.1	-66.2	4.9	5.55e-01	0	42	0	7340032	83	11703
2026-01-15 23:33:15.32	21.76	3.34	-56.1	-66.0	5.0	9.39e-01	0	42	0	9437184	83	11427
2026-01-15 23:33:16.33	21.80	3.40	-56.1	-65.9	5.0	5.53e-01	0	42	0	11534336	83	11328
2026-01-15 23:33:17.34	21.84	3.47	-56.0	-64.8	5.7	5.43e-01	0	42	0	12582912	83	10009
2026-01-15 23:33:18.35	21.88	3.53	-55.9	-64.6	5.8	3.70e-01	0	42	0	14680064	83	9780
2026-01-15 23:33:19.36	21.92	3.60	-55.8	-64.0	6.3	2.69e-01	0	43	0	16777216	83	9082
2026-01-15 23:33:20.37	21.95	3.67	-55.5	-62.4	7.8	1.60e-01	0	43	0	18874368	83	7562
2026-01-15 23:33:21.38	21.99	3.73	-55.7	-63.3	7.0	1.11e-01	0	42	0	19922944	82	8866
2026-01-15 23:33:22.39	22.03	3.80	-55.3	-61.5	8.5	9.67e-02	0	43	0	22020096	82	7268
2026-01-15 23:33:23.40	22.07	3.86	-55.0	-60.5	9.7	7.15e-03	0	43	0	24117248	81	6827
2026-01-15 23:33:24.41	22.11	3.93	-54.5	-59.1	11.2	4.35e-03	0	43	0	26214400	81	5846
2026-01-15 23:33:25.42	22.15	4.00	-54.2	-58.2	12.1	4.90e-04	0	43	0	28311552	80	5575
2026-01-15 23:33:26.43	22.19	4.06	-54.0	-57.8	12.7	8.23e-05	0	43	0	30408704	79	5631
2026-01-15 23:33:27.43	22.23	4.13	-53.6	-57.0	13.5	8.31e-05	0	43	0	31457280	79	5134
2026-01-15 23:33:28.44	22.27	4.20	-53.6	-57.0	13.4	3.81e-05	0	43	0	33554432	79	5146
2026-01-15 23:33:29.45	22.32	4.26	-53.4	-56.7	13.8	6.10e-06	0	43	0	35651584	78	5222
2026-01-15 23:33:30.46	22.36	4.33	-53.4	-56.5	13.9	7.60e-06	0	43	0	37748736	78	5139
2026-01-15 23:33:31.47	22.40	4.40	-53.5	-56.8	13.8	7.60e-06	0	43	0	39845888	78	5285
2026-01-15 23:33:32.48	22.44	4.47	-53.3	-56.5	14.1	1.50e-06	0	43	0	40894464	78	5127
2026-01-15 23:33:33.49	22.48	4.53	-53.5	-56.7	13.8	8.30e-06	0	43	0	42991616	78	5263
2026-01-15 23:33:34.50	22.52	4.60	-54.1	-58.1	12.4	1.60e-04	0	43	0	45088768	78	6136
2026-01-15 23:33:35.51	22.56	4.67	-54.3	-58.5	12.0	1.35e-04	0	43	0	47185920	79	6096
2026-01-15 23:33:36.52	22.61	4.74	-54.3	-58.5	11.9	2.78e-04	0	43	0	48234496	79	6126
2026-01-15 23:33:37.53	22.65	4.81	-55.1	-60.9	9.4	2.07e-03	0	43	0	50331648	80	7603
2026-01-15 23:33:38.54	22.69	4.87	-55.1	-60.8	9.4	1.99e-02	0	43	0	52428800	81	7110
2026-01-15 23:33:39.55	22.73	4.94	-55.4	-62.1	8.1	3.52e-02	0	43	0	54525952	81	8178
2026-01-15 23:33:40.56	22.77	5.01	-55.5	-62.3	7.8	8.47e-02	0	43	0	56623104	81	8407
2026-01-15 23:33:41.57	22.82	5.08	-55.0	-60.3	9.7	9.81e-02	0	43	0	58720256	81	6714
2026-01-15 23:33:42.58	22.86	5.15	-56.0	-65.3	5.6	4.27e-02	0	43	0	59768832	82	11175
2026-01-15 23:33:43.59	22.90	5.22	-55.5	-61.9	8.0	8.05e-01	0	43	0	61865984	82	7604
2026-01-15 23:33:44.60	22.95	5.29	-54.5	-58.7	11.5	2.83e-02	0	43	0	63963136	81	5565
2026-01-15 23:33:45.61	22.99	5.36	-55.5	-61.9	8.8	2.93e-03	0	43	0	66060288	81	8039
2026-01-15 23:33:46.62	23.03	5.43	-55.2	-60.6	9.3	5.15e-01	0	44	0	68157440	82	6522
2026-01-15 23:33:47.63	23.08	5.50	-53.5	-56.6	14.1	3.00e-06	0	43	0	69206016	78	5179
2026-01-15 23:33:48.64	23.12	5.57	-53.1	-55.9	14.8	7.00e-07	0	44	0	71303168	78	4804
2026-01-15 23:33:49.65	23.17	5.64	-53.3	-56.2	14.6	0.00e+00	0	44	0	73400320	78	4958
2026-01-15 23:33:50.66	23.21	5.71	-53.2	-56.0	14.8	1.50e-06	0	44	0	75497472	78	4838
2026-01-15 23:33:51.67	23.26	5.78	-53.1	-55.8	15.0	1.50e-06	0	44	0	77594624	78	4743
2026-01-15 23:33:52.67	23.30	5.85	-53.5	-56.6	14.2	1.50e-06	0	44	0	78643200	78	5182
2026-01-15 23:33:53.68	23.35	5.92	-53.4	-56.3	14.5	7.00e-07	0	44	0	80740352	78	5021
2026-01-15 23:33:54.69	23.39	5.99	-53.2	-56.0	14.9	0.00e+00	0	44	0	82837504	77	5108
2026-01-15 23:33:55.70	23.44	6.07	-52.9	-55.6	15.2	0.00e+00	0	44	0	84934656	77	4895
2026-01-15 23:33:56.71	23.48	6.14	-52.9	-55.6	15.3	0.00e+00	0	44	0	87031808	77	4890
2026-01-15 23:33:57.72	23.53	6.21	-52.8	-55.4	15.5	0.00e+00	0	44	0	88080384	77	4788
2026-01-15 23:33:58.73	23.57	6.28	-52.9	-55.5	15.3	0.00e+00	0	44	0	90177536	77	4865
2026-01-15 23:33:59.74	23.62	6.35	-52.8	-55.4	15.4	0.00e+00	0	44	0	92274688	77	4804
2026-01-15 23:34:00.75	23.67	6.43	-52.7	-55.2	15.6	0.00e+00	0	44	0	94371840	77	4705
2026-01-15 23:34:01.76	23.71	6.50	-52.6	-55.1	15.8	0.00e+00	0	44	0	96468992	77	4617
2026-01-15 23:34:02.77	23.76	6.57	-52.7	-55.2	15.7	0.00e+00	0	44	0	97517568	77	4653
2026-01-15 23:34:03.77	23.81	6.64	-52.8	-55.3	15.7	0.00e+00	0	44	0	99614720	76	5002
2026-01-15 23:34:04.78	23.85	6.72	-52.6	-55.0	15.9	0.00e+00	0	44	0	101711872	76	4847
2026-01-15 23:34:05.79	23.90	6.79	-52.7	-55.2	15.8	0.00e+00	0	44	0	103809024	76	4953
2026-01-15 23:34:06.80	23.95	6.86	-52.6	-55.0	16.0	0.00e+00	0	44	0	105906176	76	4828
2026-01-15 23:34:07.82	24.00	6.94	-52.5	-54.9	16.0	0.00e+00	0	44	0	106954752	76	4793
2026-01-15 23:34:08.83	24.05	7.01	-52.5	-54.8	16.2	0.00e+00	0	44	0	109051904	76	4723
2026-01-15 23:34:09.83	24.09	7.09	-52.4	-54.7	16.2	0.00e+00	0	44	0	111149056	76	4705
2026-01-15 23:34:10.84	24.14	7.16	-52.5	-54.8	16.2	0.00e+00	0	44	0	113246208	76	4728
2026-01-15 23:34:11.85	24.19	7.24	-52.2	-54.4	16.6	0.00e+00	0	44	0	115343360	76	4531
2026-01-15 23:34:12.86	24.24	7.31	-52.5	-54.8	16.2	0.00e+00	0	44	0	117440512	76	4725
2026-01-15 23:34:13.87	24.29	7.39	-52.6	-54.9	16.1	0.00e+00	0	44	0	118489088	76	4800
2026-01-15 23:34:14.88	24.34	7.46	-52.3	-54.5	16.5	0.00e+00	0	44	0	120586240	76	4598
2026-01-15 23:34:15.88	24.39	7.54	-52.2	-54.4	16.6	0.00e+00	0	45	0	122683392	76	4527
2026-01-15 23:34:16.89	24.44	7.61	-52.3	-54.5	16.5	0.00e+00	0	44	0	124780544	76	4588
2026-01-15 23:34:17.90	24.49	7.69	-52.2	-54.4	16.6	0.00e+00	0	45	0	125829120	76	4541
2026-01-15 23:34:18.91	24.54	7.76	-52.4	-54.6	16.5	0.00e+00	0	45	0	127926272	76	4622
2026-01-15 23:34:19.92	24.59	7.84	-52.2	-54.3	16.7	0.00e+00	0	44	0	130023424	76	4487
2026-01-15 23:34:20.92	24.64	7.92	-52.2	-54.4	16.7	0.00e+00	0	45	0	132120576	76	4505
2026-01-15 23:34:21.93	24.69	7.99	-52.3	-54.5	16.6	0.00e+00	0	45	0	134217728	76	4563
2026-01-15 23:34:22.94	24.74	8.07	-52.2	-54.3	16.7	0.00e+00	0	45	0	136314880	76	4485
2026-01-15 23:34:23.95	24.79	8.15	-52.2	-54.3	16.8	0.00e+00	0	45	0	137363456	76	4475
2026-01-15 23:34:24.96	24.85	8.22	-52.1	-54.2	16.9	0.00e+00	0	45	0	139460608	75	4671
2026-01-15 23:34:25.97	24.90	8.30	-52.1	-54.2	16.9	0.00e+00	0	45	0	141557760	75	4658
2026-01-15 23:34:26.98	24.95	8.38	-52.1	-54.2	16.9	0.00e+00	0	45	0	143654912	75	4661
2026-01-15 23:34:27.99	25.00	8.46	-52.0	-54.1	17.0	0.00e+00	0	45	0	145752064	75	4617
2026-01-15 23:34:29.00	25.06	8.53	-52.0	-54.1	17.0	0.00e+00	0	45	0	146800640	75	4615
2026-01-15 23:34:30.00	25.11	8.61	-52.0	-54.1	17.1	0.00e+00	0	45	0	148897792	75	4603
2026-01-15 23:34:31.01	25.16	8.69	-51.9	-53.9	17.2	0.00e+00	0	45	0	150994944	75	4543
2026-01-15 23:34:32.02	25.22	8.77	-52.0	-54.0	17.2	0.00e+00	0	45	0	153092096	75	4564
2026-01-15 23:34:33.03	25.27	8.85	-51.9	-53.9	17.2	0.00e+00	0	45	0	155189248	75	4528
2026-01-15 23:34:34.04	25.32	8.93	-51.8	-53.7	17.4	0.00e+00	0	45	0	156237824	75	4436
2026-01-15 23:34:35.04	25.38	9.01	-52.0	-54.0	17.2	0.00e+00	0	45	0	158334976	75	4560
2026-01-15 23:34:36.05	25.43	9.09	-51.7	-53.6	17.6	0.00e+00	0	45	0	160432128	75	4358
2026-01-15 23:34:37.06	25.49	9.17	-51.8	-53.8	17.4	0.00e+00	0	45	0	162529280	75	4463
2026-01-15 23:34:38.07	25.54	9.25	-51.7	-53.6	17.6	0.00e+00	0	45	0	164626432	75	4346
2026-01-15 23:34:39.08	25.60	9.33	-51.6	-53.5	17.6	0.00e+00	0	45	0	165675008	75	4333
2026-01-15 23:34:40.09	25.66	9.41	-51.6	-53.5	17.7	0.00e+00	0	45	0	167772160	75	4309
2026-01-15 23:34:41.10	25.71	9.49	-51.5	-53.4	17.8	0.00e+00	0	45	0	169869312	75	4252
2026-01-15 23:34:42.11	25.77	9.57	-51.5	-53.3	17.9	0.00e+00	0	45	0	171966464	75	4239
2026-01-15 23:34:43.12	25.83	9.65	-51.7	-53.6	17.6	0.00e+00	0	45	0	174063616	75	4367
2026-01-15 23:34:44.12	25.88	9.73	-51.7	-53.6	17.6	0.00e+00	0	45	0	175112192	75	4345
2026-01-15 23:34:45.13	25.94	9.82	-51.5	-53.4	17.9	0.00e+00	0	45	0	177209344	74	4507
2026-01-15 23:34:46.14	26.00	9.90	-51.5	-53.3	17.9	0.00e+00	0	45	0	179306496	74	4464
2026-01-15 23:34:47.15	26.05	9.98	-51.4	-53.2	18.0	0.00e+00	0	45	0	181403648	74	4434
2026-01-15 23:34:48.16	26.11	10.06	-51.4	-53.2	18.1	0.00e+00	0	45	0	183500800	74	4407
2026-01-15 23:34:49.17	26.17	10.15	-51.5	-53.3	17.9	0.00e+00	0	45	0	184549376	74	4472
2026-01-15 23:34:50.17	26.23	10.23	-51.5	-53.3	17.9	0.00e+00	0	46	0	186646528	74	4460
2026-01-15 23:34:51.19	26.29	10.31	-51.4	-53.2	18.0	0.00e+00	0	45	0	188743680	74	4425
2026-01-15 23:34:52.19	26.35	10.40	-51.4	-53.2	18.1	0.00e+00	0	45	0	190840832	74	4403
2026-01-15 23:34:53.20	26.41	10.48	-51.4	-53.2	18.0	0.00e+00	0	45	0	192937984	74	4436
2026-01-15 23:34:54.21	26.47	10.56	-51.4	-53.2	18.1	0.00e+00	0	45	0	193986560	74	4397
2026-01-15 23:34:55.22	26.53	10.65	-51.4	-53.2	18.1	0.00e+00	0	45	0	196083712	74	4392
2026-01-15 23:34:56.23	26.59	10.73	-51.5	-53.3	18.0	0.00e+00	0	46	0	198180864	74	4470
2026-01-15 23:34:57.24	26.65	10.82	-51.5	-53.3	18.1	0.00e+00	0	45	0	200278016	74	4451
2026-01-15 23:34:58.25	26.71	10.91	-51.5	-53.3	18.0	0.00e+00	0	45	0	202375168	74	4443
2026-01-15 23:34:59.26	26.77	10.99	-51.4	-53.2	18.1	0.00e+00	0	45	0	204472320	74	4406
2026-01-15 23:35:00.27	26.84	11.08	-51.4	-53.2	18.1	0.00e+00	0	46	0	205520896	74	4392
2026-01-15 23:35:01.27	26.90	11.16	-51.4	-53.2	18.1	0.00e+00	0	46	0	207618048	74	4408
2026-01-15 23:35:02.28	26.96	11.25	-51.4	-53.2	18.1	0.00e+00	0	46	0	209715200	74	4416
2026-01-15 23:35:03.29	27.02	11.34	-51.5	-53.3	18.0	0.00e+00	0	46	0	211812352	74	4448
2026-01-15 23:35:04.30	27.09	11.42	-51.4	-53.1	18.2	0.00e+00	0	46	0	212860928	74	4363
2026-01-15 23:35:05.31	27.15	11.51	-51.5	-53.2	18.1	0.00e+00	0	46	0	214958080	74	4439
2026-01-15 23:35:06.32	27.21	11.60	-51.5	-53.2	18.1	0.00e+00	0	45	0	217055232	74	4434
2026-01-15 23:35:07.33	27.28	11.69	-51.4	-53.1	18.2	0.00e+00	0	46	0	219152384	74	4374
2026-01-15 23:35:08.33	27.34	11.77	-51.3	-53.1	18.3	0.00e+00	0	46	0	221249536	74	4344
2026-01-15 23:35:09.35	27.41	11.86	-51.3	-53.0	18.4	0.00e+00	0	46	0	223346688	74	4309
2026-01-15 23:35:10.36	27.48	11.95	-51.2	-52.9	18.4	0.00e+00	0	46	0	224395264	74	4278
2026-01-15 23:35:11.37	27.54	12.04	-51.3	-53.0	18.3	0.00e+00	0	46	0	226492416	74	4324
2026-01-15 23:35:12.38	27.61	12.13	-51.3	-53.0	18.3	0.00e+00	0	46	0	228589568	74	4316
2026-01-15 23:35:13.38	27.67	12.22	-51.1	-52.7	18.6	0.00e+00	0	46	0	230686720	74	4186
2026-01-15 23:35:14.39	27.74	12.31	-51.1	-52.8	18.6	0.00e+00	0	46	0	232783872	74	4197
2026-01-15 23:35:15.40	27.81	12.40	-51.0	-52.7	18.7	0.00e+00	0	46	0	233832448	74	4161
2026-01-15 23:35:16.41	27.88	12.49	-51.0	-52.7	18.7	0.00e+00	0	46	0	235929600	74	4155
2026-01-15 23:35:17.42	27.94	12.58	-51.1	-52.8	18.6	0.00e+00	0	46	0	238026752	74	4207
2026-01-15 23:35:18.43	28.01	12.67	-51.0	-52.6	18.8	0.00e+00	0	46	0	240123904	73	4360
2026-01-15 23:35:19.44	28.08	12.76	-50.9	-52.4	18.9	0.00e+00	0	46	0	242221056	73	4283
2026-01-15 23:35:20.45	28.15	12.85	-50.9	-52.4	18.9	0.00e+00	0	46	0	243269632	73	4286
2026-01-15 23:35:21.46	28.22	12.95	-50.8	-52.3	19.1	0.00e+00	0	46	0	245366784	73	4233
2026-01-15 23:35:22.47	28.29	13.04	-50.7	-52.3	19.1	0.00e+00	0	46	0	247463936	73	4203
2026-01-15 23:35:23.48	28.36	13.13	-50.9	-52.5	18.9	0.00e+00	0	46	0	249561088	73	4300
2026-01-15 23:35:24.49	28.43	13.22	-50.8	-52.3	19.1	0.00e+00	0	46	0	251658240	73	4228
2026-01-15 23:35:25.50	28.50	13.32	-50.7	-52.3	19.1	0.00e+00	0	46	0	252706816	73	4211
2026-01-15 23:35:26.51	28.58	13.41	-50.7	-52.2	19.2	0.00e+00	0	46	0	254803968	73	4180
2026-01-15 23:35:27.52	28.65	13.51	-50.7	-52.2	19.2	0.00e+00	0	46	0	256901120	73	4175
2026-01-15 23:35:28.53	28.72	13.60	-50.7	-52.2	19.2	0.00e+00	0	46	0	258998272	73	4189
2026-01-15 23:35:29.54	28.79	13.69	-50.7	-52.2	19.2	0.00e+00	0	46	0	261095424	73	4176
2026-01-15 23:35:30.55	28.87	13.79	-50.6	-52.1	19.3	0.00e+00	0	46	0	262144000	73	4131
2026-01-15 23:35:31.56	28.94	13.89	-50.5	-52.0	19.4	0.00e+00	0	46	0	264241152	73	4084
2026-01-15 23:35:32.57	29.02	13.98	-50.6	-52.1	19.3	0.00e+00	0	46	0	266338304	73	4108
2026-01-15 23:35:33.58	29.09	14.08	-50.6	-52.2	19.3	0.00e+00	0	46	0	268435456	73	4154
2026-01-15 23:35:34.59	29.17	14.17	-50.6	-52.0	19.4	0.00e+00	0	46	0	270532608	73	4098
2026-01-15 23:35:35.60	29.24	14.27	-50.5	-52.0	19.4	0.00e+00	0	46	0	271581184	73	4074
2026-01-15 23:35:36.61	29.32	14.37	-50.6	-52.1	19.4	0.00e+00	0	46	0	273678336	73	4099
2026-01-15 23:35:37.61	29.40	14.46	-50.5	-52.0	19.4	0.00e+00	0	46	0	275775488	73	4088
2026-01-15 23:35:38.63	29.47	14.56	-50.5	-52.0	19.4	0.00e+00	0	46	0	277872640	73	4090
2026-01-15 23:35:39.64	29.55	14.66	-50.4	-51.9	19.6	0.00e+00	0	46	0	279969792	72	4259
2026-01-15 23:35:40.64	29.63	14.76	-50.5	-51.9	19.5	0.00e+00	0	46	0	282066944	72	4288
2026-01-15 23:35:41.65	29.71	14.86	-50.5	-52.0	19.4	0.00e+00	0	46	0	283115520	72	4312
2026-01-15 23:35:42.66	29.79	14.96	-50.6	-52.1	19.3	0.00e+00	0	46	0	285212672	72	4390
2026-01-15 23:35:43.67	29.87	15.06	-50.5	-52.0	19.5	0.00e+00	0	46	0	287309824	72	4293
2026-01-15 23:35:44.68	29.95	15.15	-50.5	-52.0	19.5	0.00e+00	0	46	0	289406976	72	4297
2026-01-15 23:35:45.69	30.03	15.26	-50.6	-52.1	19.4	0.00e+00	0	46	0	290455552	72	4347
2026-01-15 23:35:46.70	30.11	15.36	-50.5	-51.9	19.5	0.00e+00	0	46	0	292552704	72	4291
2026-01-15 23:35:47.71	30.19	15.46	-50.5	-52.0	19.5	0.00e+00	0	46	0	294649856	72	4296
2026-01-15 23:35:48.72	30.27	15.56	-50.5	-52.0	19.5	0.00e+00	0	46	0	296747008	72	4325
2026-01-15 23:35:49.73	30.36	15.66	-50.5	-52.0	19.5	0.00e+00	0	46	0	298844160	72	4302
2026-01-15 23:35:50.74	30.44	15.76	-50.5	-51.9	19.6	0.00e+00	0	46	0	300941312	72	4277
2026-01-15 23:35:51.75	30.52	15.86	-50.5	-52.0	19.4	0.00e+00	0	46	0	301989888	72	4322
2026-01-15 23:35:52.76	30.61	15.97	-50.6	-52.1	19.4	0.00e+00	0	46	0	304087040	72	4382
2026-01-15 23:35:53.77	30.69	16.07	-50.6	-52.1	19.4	0.00e+00	0	46	0	306184192	72	4365
2026-01-15 23:35:54.77	30.78	16.17	-50.6	-52.1	19.4	0.00e+00	0	47	0	308281344	72	4352
2026-01-15 23:35:55.78	30.86	16.28	-50.6	-52.1	19.4	0.00e+00	0	46	0	310378496	72	4367
2026-01-15 23:35:56.79	30.95	16.38	-50.6	-52.1	19.4	0.00e+00	0	46	0	311427072	72	4355
2026-01-15 23:35:57.80	31.04	16.49	-50.6	-52.0	19.5	0.00e+00	0	47	0	313524224	72	4331
2026-01-15 23:35:58.81	31.13	16.59	-50.4	-51.9	19.6	0.00e+00	0	46	0	315621376	72	4248
2026-01-15 23:35:59.82	31.21	16.70	-50.4	-51.9	19.7	0.00e+00	0	47	0	317718528	72	4247
2026-01-15 23:36:00.83	31.30	16.80	-50.5	-52.0	19.5	0.00e+00	0	46	0	319815680	72	4301
2026-01-15 23:36:01.84	31.39	16.91	-50.4	-51.9	19.7	0.00e+00	0	47	0	320864256	72	4246
2026-01-15 23:36:02.85	31.48	17.02	-50.5	-51.9	19.6	0.00e+00	0	46	0	322961408	72	4280
2026-01-15 23:36:03.86	31.57	17.12	-50.5	-52.0	19.5	0.00e+00	0	47	0	325058560	72	4322
2026-01-15 23:36:04.87	31.67	17.23	-50.5	-51.9	19.6	0.00e+00	0	46	0	327155712	72	4280
2026-01-15 23:36:05.88	31.76	17.34	-50.5	-52.0	19.5	0.00e+00	0	47	0	329252864	72	4320
2026-01-15 23:36:06.89	31.85	17.45	-50.6	-52.1	19.4	0.00e+00	0	47	0	330301440	72	4354
2026-01-15 23:36:07.90	31.94	17.56	-50.6	-52.1	19.5	0.00e+00	0	47	0	332398592	72	4351
2026-01-15 23:36:08.91	32.04	17.67	-50.7	-52.2	19.3	0.00e+00	0	46	0	334495744	72	4414
2026-01-15 23:36:09.92	32.13	17.77	-50.8	-52.3	19.3	0.00e+00	0	47	0	336592896	72	4458
2026-01-15 23:36:10.93	32.23	17.88	-50.8	-52.3	19.2	0.00e+00	0	46	0	338690048	72	4486
2026-01-15 23:36:11.93	32.32	17.99	-50.9	-52.5	19.1	0.00e+00	0	47	0	340787200	72	4550
2026-01-15 23:36:12.94	32.42	18.11	-50.9	-52.4	19.1	0.00e+00	0	47	0	341835776	72	4539
2026-01-15 23:36:13.95	32.52	18.22	-51.0	-52.6	19.0	0.00e+00	0	47	0	343932928	72	4617
2026-01-15 23:36:14.96	32.61	18.33	-51.0	-52.6	19.0	0.00e+00	0	47	0	346030080	72	4620
2026-01-15 23:36:15.97	32.71	18.44	-51.0	-52.6	19.0	0.00e+00	0	47	0	348127232	72	4637
2026-01-15 23:36:16.98	32.81	18.55	-51.1	-52.7	18.9	0.00e+00	0	47	0	349175808	72	4664
2026-01-15 23:36:17.99	32.91	18.67	-51.0	-52.5	19.0	0.00e+00	0	47	0	351272960	72	4590
2026-01-15 23:36:19.00	33.01	18.78	-51.0	-52.6	19.0	0.00e+00	0	47	0	353370112	72	4634
2026-01-15 23:36:20.01	33.11	18.89	-50.9	-52.4	19.2	0.00e+00	0	47	0	355467264	72	4528
2026-01-15 23:36:21.02	33.22	19.01	-51.0	-52.6	19.0	0.00e+00	0	47	0	357564416	72	4599
2026-01-15 23:36:22.03	33.32	19.12	-50.9	-52.4	19.2	0.00e+00	0	47	0	359661568	72	4524
2026-01-15 23:36:23.04	33.42	19.24	-50.9	-52.4	19.2	0.00e+00	0	47	0	360710144	72	4530
2026-01-15 23:36:24.05	33.53	19.35	-50.9	-52.4	19.2	0.00e+00	0	47	0	362807296	72	4545
2026-01-15 23:36:25.06	33.63	19.47	-50.9	-52.5	19.1	0.00e+00	0	47	0	364904448	72	4565
2026-01-15 23:36:26.07	33.74	19.59	-50.9	-52.4	19.2	0.00e+00	0	47	0	367001600	72	4515
2026-01-15 23:36:27.08	33.85	19.70	-51.0	-52.6	19.0	0.00e+00	0	47	0	369098752	72	4606
2026-01-15 23:36:28.09	33.95	19.82	-51.0	-52.5	19.1	0.00e+00	0	47	0	370147328	72	4579
2026-01-15 23:36:29.10	34.06	19.94	-51.0	-52.6	19.0	0.00e+00	0	47	0	372244480	72	4602
2026-01-15 23:36:30.11	34.17	20.06	-51.0	-52.6	19.0	0.00e+00	0	47	0	374341632	72	4611
2026-01-15 23:36:31.12	34.28	20.18	-51.1	-52.7	19.0	0.00e+00	0	47	0	376438784	72	4654
2026-01-15 23:36:32.14	34.39	20.30	-51.0	-52.6	19.0	0.00e+00	0	47	0	378535936	72	4607
2026-01-15 23:36:33.15	34.50	20.42	-51.1	-52.7	19.0	0.00e+00	0	47	0	379584512	72	4653
2026-01-15 23:36:34.15	34.61	20.54	-51.1	-52.6	19.0	0.00e+00	0	47	0	381681664	72	4643
2026-01-15 23:36:35.16	34.73	20.66	-51.0	-52.6	19.1	0.00e+00	0	47	0	383778816	72	4601
2026-01-15 23:36:36.17	34.84	20.78	-51.0	-52.5	19.1	0.00e+00	0	47	0	385875968	72	4579
2026-01-15 23:36:37.18	34.96	20.90	-50.9	-52.4	19.2	0.00e+00	0	47	0	387973120	72	4537
2026-01-15 23:36:38.19	35.07	21.02	-50.9	-52.5	19.1	0.00e+00	0	47	0	389021696	72	4575
2026-01-15 23:36:39.20	35.19	21.15	-50.9	-52.5	19.2	0.00e+00	0	47	0	391118848	72	4560
2026-01-15 23:36:40.21	35.31	21.27	-50.8	-52.3	19.3	0.00e+00	0	47	0	393216000	72	4475
2026-01-15 23:36:41.22	35.43	21.39	-50.7	-52.2	19.4	0.00e+00	0	47	0	395313152	72	4412
2026-01-15 23:36:42.23	35.54	21.52	-50.7	-52.1	19.5	0.00e+00	0	47	0	397410304	72	4379
2026-01-15 23:36:43.24	35.67	21.64	-50.6	-52.1	19.5	0.00e+00	0	47	0	398458880	72	4362
2026-01-15 23:36:44.25	35.79	21.77	-50.6	-52.1	19.5	0.00e+00	0	47	0	400556032	72	4359
2026-01-15 23:36:45.26	35.91	21.89	-50.7	-52.2	19.5	0.00e+00	0	47	0	402653184	72	4401
2026-01-15 23:36:46.26	36.03	22.02	-50.6	-52.1	19.6	0.00e+00	0	47	0	404750336	72	4350
2026-01-15 23:36:47.27	36.15	22.14	-50.7	-52.2	19.5	0.00e+00	0	47	0	406847488	72	4417
2026-01-15 23:36:48.29	36.28	22.27	-50.7	-52.2	19.5	0.00e+00	0	47	0	407896064	72	4408
2026-01-15 23:36:49.30	36.41	22.40	-50.8	-52.3	19.4	0.00e+00	0	47	0	409993216	72	4468
2026-01-15 23:36:50.31	36.53	22.53	-50.8	-52.3	19.3	0.00e+00	0	47	0	412090368	72	4489
2026-01-15 23:36:51.31	36.66	22.66	-50.9	-52.4	19.2	0.00e+00	0	47	0	414187520	72	4529
2026-01-15 23:36:52.32	36.79	22.79	-50.9	-52.5	19.2	0.00e+00	0	47	0	416284672	72	4559
2026-01-15 23:36:53.33	36.92	22.92	-51.1	-52.6	19.0	0.00e+00	0	47	0	418381824	72	4643
2026-01-15 23:36:54.34	37.05	23.05	-51.0	-52.5	19.1	0.00e+00	0	47	0	419430400	72	4588
2026-01-15 23:36:55.35	37.18	23.18	-51.1	-52.7	19.0	0.00e+00	0	47	0	421527552	72	4656
2026-01-15 23:36:56.37	37.32	23.31	-51.1	-52.7	19.0	0.00e+00	0	47	0	423624704	72	4673
2026-01-15 23:36:57.38	37.45	23.44	-51.0	-52.5	19.1	0.00e+00	0	47	0	425721856	72	4592
2026-01-15 23:36:58.39	37.59	23.57	-51.0	-52.6	19.1	0.00e+00	0	47	0	426770432	72	4618
2026-01-15 23:36:59.40	37.73	23.71	-50.9	-52.4	19.3	0.00e+00	0	47	0	428867584	72	4507
2026-01-15 23:37:00.41	37.86	23.84	-50.9	-52.4	19.4	0.00e+00	0	47	0	430964736	72	4503
2026-01-15 23:37:01.42	38.00	23.97	-50.7	-52.2	19.5	0.00e+00	0	47	0	433061888	72	4393
2026-01-15 23:37:02.43	38.14	24.11	-50.7	-52.2	19.4	0.00e+00	0	47	0	435159040	72	4424
2026-01-15 23:37:03.44	38.28	24.24	-50.6	-52.0	19.7	0.00e+00	0	47	0	437256192	72	4334
2026-01-15 23:37:04.44	38.43	24.38	-50.6	-52.1	19.6	0.00e+00	0	47	0	438304768	72	4347
2026-01-15 23:37:05.45	38.57	24.51	-50.5	-51.9	19.8	0.00e+00	0	47	0	440401920	72	4259
2026-01-15 23:37:06.46	38.71	24.65	-50.6	-52.1	19.6	0.00e+00	0	47	0	442499072	72	4349
2026-01-15 23:37:07.47	38.86	24.79	-50.6	-52.0	19.6	0.00e+00	0	47	0	444596224	72	4340
2026-01-15 23:37:08.48	39.01	24.93	-50.7	-52.1	19.5	0.00e+00	0	47	0	446693376	72	4385
2026-01-15 23:37:09.49	39.16	25.06	-50.8	-52.3	19.4	0.00e+00	0	47	0	447741952	72	4466
2026-01-15 23:37:10.50	39.31	25.20	-50.9	-52.4	19.3	0.00e+00	0	47	0	449839104	72	4510
2026-01-15 23:37:11.51	39.46	25.34	-50.9	-52.4	19.3	0.00e+00	0	47	0	451936256	72	4523
2026-01-15 23:37:12.52	39.61	25.48	-51.0	-52.5	19.2	0.00e+00	0	47	0	454033408	72	4593
2026-01-15 23:37:13.53	39.76	25.62	-51.0	-52.5	19.2	0.00e+00	0	47	0	456130560	72	4588
2026-01-15 23:37:14.54	39.92	25.76	-51.0	-52.5	19.2	0.00e+00	0	47	0	457179136	72	4588
2026-01-15 23:37:15.55	40.07	25.90	-51.0	-52.5	19.2	0.00e+00	0	47	0	459276288	72	4559
2026-01-15 23:37:16.56	40.23	26.05	-50.9	-52.4	19.3	0.00e+00	0	48	0	461373440	72	4515
2026-01-15 23:37:17.57	40.39	26.19	-50.9	-52.4	19.3	0.00e+00	0	47	0	463470592	72	4523
2026-01-15 23:37:18.58	40.55	26.33	-50.9	-52.4	19.3	0.00e+00	0	47	0	465567744	72	4536
2026-01-15 23:37:19.59	40.71	26.47	-50.9	-52.4	19.3	0.00e+00	0	47	0	466616320	72	4519
2026-01-15 23:37:20.60	40.88	26.62	-50.9	-52.4	19.3	0.00e+00	0	47	0	468713472	72	4544
2026-01-15 23:37:21.61	41.04	26.76	-51.0	-52.5	19.2	0.00e+00	0	47	0	470810624	72	4576
2026-01-15 23:37:22.61	41.21	26.91	-51.1	-52.7	19.1	0.00e+00	0	47	0	472907776	72	4668
2026-01-15 23:37:23.62	41.37	27.05	-51.3	-52.9	18.9	0.00e+00	0	47	0	475004928	73	4499
2026-01-15 23:37:24.63	41.54	27.20	-51.5	-53.2	18.6	0.00e+00	0	47	0	477102080	73	4663
2026-01-15 23:37:25.64	41.71	27.35	-51.7	-53.4	18.4	0.00e+00	0	48	0	478150656	73	4773
2026-01-15 23:37:26.65	41.89	27.49	-51.8	-53.6	18.2	0.00e+00	0	48	0	480247808	74	4611
2026-01-15 23:37:27.66	42.06	27.64	-52.0	-53.7	18.0	0.00e+00	0	48	0	482344960	74	4705
2026-01-15 23:37:28.67	42.24	27.79	-52.0	-53.8	18.0	0.00e+00	0	47	0	484442112	74	4746
2026-01-15 23:37:29.68	42.41	27.94	-52.1	-53.9	17.9	0.00e+00	0	48	0	485490688	74	4805
2026-01-15 23:37:30.69	42.59	28.09	-52.0	-53.8	18.0	0.00e+00	0	48	0	487587840	74	4732
2026-01-15 23:37:31.70	42.77	28.24	-52.0	-53.9	17.9	0.00e+00	0	48	0	489684992	74	4766
2026-01-15 23:37:32.71	42.95	28.39	-51.9	-53.7	18.1	0.00e+00	0	48	0	491782144	74	4679
2026-01-15 23:37:33.72	43.14	28.54	-51.9	-53.7	18.1	0.00e+00	0	48	0	493879296	74	4685
2026-01-15 23:37:34.73	43.32	28.69	-52.0	-53.9	18.0	0.00e+00	0	48	0	495976448	74	4761
2026-01-15 23:37:35.74	43.51	28.84	-52.0	-53.8	18.0	0.00e+00	0	48	0	497025024	74	4735
2026-01-15 23:37:36.75	43.70	28.99	-52.3	-54.2	17.7	0.00e+00	0	47	0	499122176	75	4658
2026-01-15 23:37:37.76	43.89	29.15	-52.5	-54.4	17.4	0.00e+00	0	48	0	501219328	75	4807
2026-01-15 23:37:38.77	44.08	29.30	-52.6	-54.7	17.2	0.00e+00	0	47	0	503316480	75	4934
2026-01-15 23:37:39.78	44.27	29.45	-52.7	-54.8	17.1	0.00e+00	0	48	0	505413632	76	4709
2026-01-15 23:37:40.79	44.47	29.61	-52.7	-54.7	17.1	0.00e+00	0	48	0	506462208	76	4684
2026-01-15 23:37:41.79	44.67	29.76	-52.8	-54.8	17.1	0.00e+00	0	48	0	508559360	76	4736
2026-01-15 23:37:42.80	44.87	29.92	-52.8	-54.8	17.0	0.00e+00	0	47	0	510656512	76	4735
2026-01-15 23:37:43.81	45.07	30.07	-52.9	-55.0	16.9	0.00e+00	0	47	0	512753664	76	4829
2026-01-15 23:37:44.82	45.27	30.23	-52.8	-54.8	17.0	0.00e+00	0	47	0	513802240	76	4756
2026-01-15 23:37:45.83	45.48	30.39	-52.9	-55.0	16.9	0.00e+00	0	47	0	515899392	76	4865
2026-01-15 23:37:46.84	45.68	30.54	-53.0	-55.1	16.8	0.00e+00	0	48	0	517996544	76	4892
2026-01-15 23:37:47.85	45.89	30.70	-52.8	-54.9	17.0	0.00e+00	0	47	0	520093696	76	4775
2026-01-15 23:37:48.86	46.10	30.86	-52.9	-54.9	16.9	0.00e+00	0	48	0	522190848	76	4806
2026-01-15 23:37:49.87	46.32	31.02	-52.6	-54.6	17.3	0.00e+00	0	48	0	524288000	76	4637
2026-01-15 23:37:50.88	46.53	31.18	-52.4	-54.3	17.6	0.00e+00	0	47	0	525336576	76	4463
2026-01-15 23:37:51.89	46.75	31.34	-52.0	-53.8	18.1	0.00e+00	0	48	0	527433728	76	4224
2026-01-15 23:37:52.90	46.97	31.50	-51.9	-53.6	18.3	0.00e+00	0	48	0	529530880	75	4354
2026-01-15 23:37:53.91	47.19	31.66	-51.9	-53.6	18.3	0.00e+00	0	47	0	531628032	75	4362
2026-01-15 23:37:54.91	47.41	31.82	-51.9	-53.6	18.3	0.00e+00	0	48	0	533725184	75	4377
2026-01-15 23:37:55.92	47.64	31.98	-52.1	-53.9	18.0	0.00e+00	0	48	0	534773760	75	4520
2026-01-15 23:37:56.93	47.87	32.14	-51.9	-53.7	18.2	0.00e+00	0	48	0	536870912	75	4419
2026-01-15 23:37:57.94	48.10	32.30	-52.1	-53.9	18.0	0.00e+00	0	48	0	538968064	75	4504
2026-01-15 23:37:58.95	48.33	32.46	-52.1	-53.9	18.0	0.00e+00	0	48	0	541065216	75	4513
2026-01-15 23:37:59.96	48.56	32.63	-51.9	-53.6	18.3	0.00e+00	0	48	0	543162368	75	4373
2026-01-15 23:38:00.97	48.80	32.79	-51.7	-53.4	18.5	0.00e+00	0	48	0	544210944	75	4250
2026-01-15 23:38:01.98	49.04	32.95	-51.5	-53.1	18.8	0.00e+00	0	48	0	546308096	74	4350
2026-01-15 23:38:02.99	49.28	33.12	-51.4	-53.0	18.9	0.00e+00	0	48	0	548405248	74	4315
2026-01-15 23:38:04.00	49.53	33.28	-51.4	-53.0	18.9	0.00e+00	0	48	0	550502400	74	4309
2026-01-15 23:38:05.01	49.77	33.44	-51.4	-53.0	18.9	0.00e+00	0	47	0	552599552	74	4317
2026-01-15 23:38:06.02	50.02	33.61	-51.6	-53.2	18.7	0.00e+00	0	48	0	553648128	74	4422
2026-01-15 23:38:07.03	50.28	33.77	-51.8	-53.5	18.4	0.00e+00	0	48	0	555745280	74	4558
2026-01-15 23:38:08.04	50.53	33.94	-52.0	-53.7	18.2	0.00e+00	0	48	0	557842432	74	4691
2026-01-15 23:38:09.05	50.79	34.11	-51.9	-53.7	18.2	0.00e+00	0	48	0	559939584	74	4656
2026-01-15 23:38:10.06	51.05	34.27	-51.8	-53.5	18.5	0.00e+00	0	48	0	562036736	74	4548
2026-01-15 23:38:11.07	51.31	34.44	-51.8	-53.5	18.4	0.00e+00	0	48	0	563085312	74	4548
2026-01-15 23:38:12.07	51.57	34.60	-51.7	-53.4	18.6	0.00e+00	0	48	0	565182464	74	4502
2026-01-15 23:38:13.08	51.84	34.77	-51.7	-53.3	18.6	0.00e+00	0	48	0	567279616	74	4479
2026-01-15 23:38:14.09	52.11	34.94	-51.6	-53.3	18.7	0.00e+00	0	48	0	569376768	74	4442
2026-01-15 23:38:15.10	52.38	35.10	-51.8	-53.5	18.5	0.00e+00	0	48	0	571473920	74	4547
2026-01-15 23:38:16.11	52.66	35.27	-51.7	-53.3	18.6	0.00e+00	0	48	0	572522496	74	4481
2026-01-15 23:38:17.12	52.93	35.44	-51.7	-53.4	18.5	0.00e+00	0	48	0	574619648	74	4521
2026-01-15 23:38:18.14	53.22	35.61	-51.9	-53.6	18.3	0.00e+00	0	48	0	576716800	74	4626
2026-01-15 23:38:19.14	53.50	35.77	-51.9	-53.7	18.3	0.00e+00	0	47	0	578813952	74	4669
2026-01-15 23:38:20.15	53.79	35.94	-51.8	-53.5	18.4	0.00e+00	0	48	0	580911104	74	4581
2026-01-15 23:38:21.16	54.08	36.11	-51.7	-53.3	18.6	0.00e+00	0	48	0	583008256	74	4468
2026-01-15 23:38:22.17	54.37	36.28	-51.5	-53.1	18.8	0.00e+00	0	48	0	584056832	74	4380
2026-01-15 23:38:23.18	54.66	36.44	-51.4	-53.0	19.0	0.00e+00	0	48	0	586153984	74	4300
2026-01-15 23:38:24.19	54.96	36.61	-51.2	-52.7	19.2	0.00e+00	0	48	0	588251136	74	4177
2026-01-15 23:38:25.20	55.26	36.78	-50.9	-52.3	19.6	0.00e+00	0	48	0	590348288	73	4217
2026-01-15 23:38:26.21	55.57	36.95	-50.7	-52.1	19.8	0.00e+00	0	48	0	591396864	73	4117
2026-01-15 23:38:27.22	55.88	37.12	-50.6	-52.1	19.8	0.00e+00	0	48	0	593494016	73	4102
2026-01-15 23:38:28.23	56.19	37.28	-50.8	-52.3	19.6	0.00e+00	0	48	0	595591168	73	4214
2026-01-15 23:38:29.24	56.50	37.45	-51.0	-52.5	19.5	0.00e+00	0	48	0	597688320	73	4295
2026-01-15 23:38:30.24	56.82	37.62	-51.0	-52.5	19.4	0.00e+00	0	48	0	599785472	73	4315
2026-01-15 23:38:31.25	57.14	37.79	-51.1	-52.6	19.3	0.00e+00	0	48	0	601882624	73	4376
2026-01-15 23:38:32.26	57.46	37.95	-51.3	-52.8	19.1	0.00e+00	0	48	0	602931200	73	4483
2026-01-15 23:38:33.27	57.79	38.12	-51.3	-52.9	19.0	0.00e+00	0	48	0	605028352	73	4507
2026-01-15 23:38:34.28	58.12	38.29	-51.4	-52.9	19.0	0.00e+00	0	48	0	607125504	73	4528
2026-01-15 23:38:35.29	58.45	38.45	-51.4	-52.9	19.0	0.00e+00	0	48	0	609222656	73	4535
2026-01-15 23:38:36.30	58.79	38.62	-51.3	-52.9	19.1	0.00e+00	0	48	0	611319808	73	4494
2026-01-15 23:38:37.31	59.13	38.79	-51.1	-52.6	19.3	0.00e+00	0	48	0	612368384	73	4390
2026-01-15 23:38:38.32	59.48	38.95	-50.8	-52.2	19.7	0.00e+00	0	48	0	614465536	73	4188
2026-01-15 23:38:39.33	59.82	39.12	-50.9	-52.3	19.6	0.00e+00	0	48	0	616562688	73	4235
2026-01-15 23:38:40.34	60.17	39.28	-51.1	-52.6	19.3	0.00e+00	0	48	0	618659840	73	4369
2026-01-15 23:38:41.35	60.53	39.45	-51.4	-53.0	18.9	0.00e+00	0	48	0	620756992	73	4591
2026-01-15 23:38:42.36	60.89	39.61	-51.9	-53.6	18.4	0.00e+00	0	48	0	621805568	74	4638
2026-01-15 23:38:43.37	61.25	39.78	-52.1	-53.8	18.1	0.00e+00	0	48	0	623902720	74	4750
2026-01-15 23:38:44.38	61.61	39.94	-52.2	-54.0	18.0	0.00e+00	0	48	0	625999872	75	4573
2026-01-15 23:38:45.39	61.98	40.10	-51.8	-53.5	18.5	0.00e+00	0	48	0	628097024	75	4306
2026-01-15 23:38:46.40	62.36	40.27	-51.6	-53.2	18.7	0.00e+00	0	48	0	630194176	75	4188
2026-01-15 23:38:47.41	62.73	40.43	-51.2	-52.7	19.2	0.00e+00	0	48	0	631242752	74	4182
2026-01-15 23:38:48.42	63.11	40.59	-51.0	-52.4	19.5	0.00e+00	0	48	0	633339904	74	4050
2026-01-15 23:38:49.43	63.50	40.75	-51.0	-52.5	19.4	0.00e+00	0	48	0	635437056	74	4086
2026-01-15 23:38:50.44	63.88	40.91	-51.2	-52.7	19.3	0.00e+00	0	48	0	637534208	74	4177
2026-01-15 23:38:51.45	64.28	41.07	-51.3	-52.8	19.1	0.00e+00	0	48	0	639631360	74	4230
2026-01-15 23:38:52.46	64.67	41.23	-51.3	-52.8	19.1	0.00e+00	0	48	0	641728512	74	4229
2026-01-15 23:38:53.47	65.07	41.38	-51.1	-52.6	19.3	0.00e+00	0	48	0	642777088	74	4135
2026-01-15 23:38:54.47	65.47	41.54	-50.9	-52.3	19.6	0.00e+00	0	48	0	644874240	73	4239
2026-01-15 23:38:55.48	65.88	41.70	-50.5	-51.9	20.0	0.00e+00	0	48	0	646971392	73	4027
2026-01-15 23:38:56.49	66.29	41.85	-50.4	-51.8	20.1	0.00e+00	0	48	0	649068544	72	4197
2026-01-15 23:38:57.50	66.70	42.00	-50.7	-52.1	19.8	0.00e+00	0	48	0	650117120	72	4350
2026-01-15 23:38:58.51	67.12	42.16	-50.9	-52.4	19.6	0.00e+00	0	48	0	652214272	72	4523
2026-01-15 23:38:59.52	67.54	42.31	-51.3	-52.9	19.1	0.00e+00	0	48	0	654311424	73	4502
2026-01-15 23:39:00.53	67.97	42.46	-51.4	-53.0	19.0	0.00e+00	0	48	0	656408576	73	4563
2026-01-15 23:39:01.54	68.40	42.61	-51.2	-52.7	19.2	0.00e+00	0	48	0	658505728	73	4435
2026-01-15 23:39:02.55	68.83	42.76	-51.1	-52.6	19.4	0.00e+00	0	48	0	660602880	73	4360
2026-01-15 23:39:03.56	69.27	42.91	-51.0	-52.4	19.5	0.00e+00	0	48	0	661651456	73	4283
2026-01-15 23:39:04.57	69.72	43.05	-51.1	-52.7	19.3	0.00e+00	0	48	0	663748608	73	4393
2026-01-15 23:39:05.58	70.16	43.20	-51.6	-53.2	18.8	0.00e+00	0	48	0	665845760	73	4668
2026-01-15 23:39:06.59	70.61	43.34	-52.1	-53.8	18.2	0.00e+00	0	48	0	667942912	74	4736
2026-01-15 23:39:07.60	71.07	43.48	-52.5	-54.4	17.7	0.00e+00	0	48	0	670040064	75	4778
2026-01-15 23:39:08.61	71.52	43.62	-52.5	-54.4	17.6	0.00e+00	0	48	0	671088640	75	4797
2026-01-15 23:39:09.62	71.99	43.76	-52.4	-54.3	17.8	0.00e+00	0	48	0	673185792	75	4709
2026-01-15 23:39:10.62	72.45	43.90	-52.2	-54.0	18.0	0.00e+00	0	48	0	675282944	75	4564
2026-01-15 23:39:11.64	72.92	44.03	-51.8	-53.4	18.6	0.00e+00	0	48	0	677380096	75	4277
2026-01-15 23:39:12.65	73.40	44.17	-51.8	-53.4	18.6	0.00e+00	0	48	0	679477248	75	4283
2026-01-15 23:39:13.65	73.87	44.30	-52.2	-54.0	17.9	0.00e+00	0	48	0	680525824	75	4589
2026-01-15 23:39:14.66	74.35	44.43	-52.8	-54.8	17.3	0.00e+00	0	48	0	682622976	76	4745
2026-01-15 23:39:15.67	74.84	44.56	-53.0	-55.1	16.9	0.00e+00	0	48	0	684720128	76	4878
2026-01-15 23:39:16.68	75.33	44.69	-52.7	-54.7	17.4	0.00e+00	0	48	0	686817280	76	4657
2026-01-15 23:39:17.69	75.82	44.81	-52.1	-53.8	18.2	0.00e+00	0	48	0	688914432	76	4242
2026-01-15 23:39:18.70	76.32	44.93	-51.7	-53.4	18.6	0.00e+00	0	48	0	689963008	75	4266
2026-01-15 23:39:19.71	76.82	45.05	-51.7	-53.4	18.7	0.00e+00	0	48	0	692060160	75	4260
2026-01-15 23:39:20.72	77.33	45.17	-51.8	-53.5	18.6	0.00e+00	0	48	0	694157312	75	4293
2026-01-15 23:39:21.73	77.83	45.29	-52.1	-53.9	18.1	0.00e+00	0	48	0	696254464	75	4530
2026-01-15 23:39:22.74	78.35	45.41	-52.8	-54.8	17.3	0.00e+00	0	48	0	698351616	76	4710
2026-01-15 23:39:23.75	78.86	45.52	-53.4	-55.6	16.4	0.00e+00	0	48	0	699400192	77	4908
2026-01-15 23:39:24.76	79.38	45.63	-53.3	-55.5	16.6	0.00e+00	0	48	0	701497344	77	4832
2026-01-15 23:39:25.77	79.91	45.74	-52.8	-54.8	17.3	0.00e+00	0	48	0	703594496	77	4451
2026-01-15 23:39:26.78	80.43	45.84	-52.2	-53.9	18.1	0.00e+00	0	48	0	705691648	76	4276
2026-01-15 23:39:27.79	80.96	45.95	-52.3	-54.1	17.9	0.00e+00	0	48	0	707788800	76	4379
2026-01-15 23:39:28.80	81.50	46.05	-52.2	-54.1	17.9	0.00e+00	0	48	0	708837376	76	4345
2026-01-15 23:39:29.81	82.04	46.15	-52.0	-53.8	18.2	0.00e+00	0	48	0	710934528	76	4211
2026-01-15 23:39:30.82	82.58	46.25	-52.0	-53.7	18.3	0.00e+00	0	48	0	713031680	75	4434
2026-01-15 23:39:31.83	83.12	46.34	-52.6	-54.6	17.5	0.00e+00	0	48	0	715128832	75	4878
2026-01-15 23:39:32.84	83.67	46.43	-53.2	-55.4	16.7	0.00e+00	0	48	0	717225984	76	5073
2026-01-15 23:39:33.85	84.22	46.52	-53.2	-55.4	16.6	0.00e+00	0	48	0	719323136	77	4806
2026-01-15 23:39:34.86	84.77	46.61	-52.7	-54.6	17.4	0.00e+00	0	48	0	720371712	77	4391
2026-01-15 23:39:35.87	85.33	46.69	-52.3	-54.1	18.0	0.00e+00	0	48	0	722468864	76	4353
2026-01-15 23:39:36.88	85.89	46.77	-52.2	-54.0	18.0	0.00e+00	0	48	0	724566016	76	4319
2026-01-15 23:39:37.88	86.44	46.85	-51.7	-53.4	18.7	0.00e+00	0	48	0	726663168	75	4243
2026-01-15 23:39:38.89	87.01	46.92	-51.6	-53.2	18.7	0.00e+00	0	48	0	727711744	75	4189
2026-01-15 23:39:39.90	87.58	46.99	-52.1	-53.8	18.2	0.00e+00	0	48	0	729808896	75	4477
2026-01-15 23:39:40.91	88.15	47.06	-52.3	-54.2	17.9	0.00e+00	0	48	0	731906048	75	4671
2026-01-15 23:39:41.92	88.72	47.13	-52.6	-54.6	17.5	0.00e+00	0	48	0	734003200	75	4889
2026-01-15 23:39:42.93	89.29	47.19	-52.6	-54.6	17.4	0.00e+00	0	48	0	736100352	75	4890
2026-01-15 23:39:43.94	89.87	47.25	-52.9	-55.0	17.1	0.00e+00	0	48	0	738197504	76	4823
2026-01-15 23:39:44.95	90.45	47.31	-53.1	-55.2	16.8	0.00e+00	0	48	0	739246080	76	4979
2026-01-15 23:39:45.96	91.03	47.37	-52.5	-54.4	17.5	0.00e+00	0	48	0	741343232	76	4511
2026-01-15 23:39:46.97	91.61	47.42	-51.7	-53.3	18.7	0.00e+00	0	48	0	743440384	75	4237
2026-01-15 23:39:47.98	92.20	47.47	-51.5	-53.1	18.9	0.00e+00	0	48	0	745537536	74	4369
2026-01-15 23:39:48.99	92.79	47.51	-51.9	-53.6	18.4	0.00e+00	0	48	0	747634688	74	4645
2026-01-15 23:39:50.00	93.37	47.55	-52.7	-54.7	17.3	0.00e+00	0	48	0	748683264	76	4684
2026-01-15 23:39:51.01	93.96	47.59	-53.1	-55.3	16.7	0.00e+00	0	48	0	750780416	76	4993
2026-01-15 23:39:52.02	94.56	47.63	-53.1	-55.2	16.9	0.00e+00	0	48	0	752877568	77	4669
2026-01-15 23:39:53.03	95.15	47.66	-52.2	-54.0	18.0	0.00e+00	0	48	0	754974720	76	4320
2026-01-15 23:39:54.04	95.74	47.69	-51.5	-53.1	18.9	0.00e+00	0	48	0	757071872	75	4101
2026-01-15 23:39:55.05	96.34	47.71	-51.1	-52.6	19.4	0.00e+00	0	48	0	758120448	74	4110
2026-01-15 23:39:56.06	96.93	47.74	-51.1	-52.5	19.5	0.00e+00	0	48	0	760217600	74	4087
2026-01-15 23:39:57.07	97.53	47.76	-51.2	-52.7	19.2	0.00e+00	0	48	0	762314752	74	4163
2026-01-15 23:39:58.08	98.13	47.77	-51.5	-53.1	18.8	0.00e+00	0	48	0	764411904	74	4364
2026-01-15 23:39:59.09	98.73	47.78	-52.2	-54.0	18.0	0.00e+00	0	48	0	766509056	74	4855
2026-01-15 23:40:00.10	99.32	47.79	-52.5	-54.5	17.6	0.00e+00	0	48	0	767557632	75	4821
2026-01-15 23:40:01.11	99.92	47.80	-52.6	-54.5	17.4	0.00e+00	0	48	0	769654784	75	4861
2026-01-15 23:40:02.12	100.52	47.80	-52.8	-54.9	17.1	0.00e+00	0	48	0	771751936	76	4776
2026-01-15 23:40:03.13	101.12	47.80	-52.6	-54.6	17.4	0.00e+00	0	48	0	773849088	76	4627
2026-01-15 23:40:04.14	101.72	47.80	-52.7	-54.7	17.4	0.00e+00	0	48	0	775946240	76	4668
2026-01-15 23:40:05.15	102.32	47.79	-52.5	-54.4	17.6	0.00e+00	0	48	0	778043392	76	4510
2026-01-15 23:40:06.15	102.91	47.78	-52.3	-54.1	17.8	0.00e+00	0	48	0	779091968	76	4376
2026-01-15 23:40:07.16	103.51	47.77	-52.5	-54.4	17.6	0.00e+00	0	48	0	781189120	76	4533
2026-01-15 23:40:08.17	104.11	47.75	-52.5	-54.4	17.6	0.00e+00	0	48	0	783286272	76	4503
2026-01-15 23:40:09.18	104.70	47.73	-52.9	-54.9	17.2	0.00e+00	0	48	0	785383424	76	4814
2026-01-15 23:40:10.19	105.30	47.70	-53.1	-55.3	16.8	0.00e+00	0	48	0	786432000	76	5024
2026-01-15 23:40:11.20	105.89	47.68	-53.1	-55.3	16.7	0.00e+00	0	48	0	788529152	76	4991
2026-01-15 23:40:12.21	106.49	47.65	-53.3	-55.5	16.6	0.00e+00	0	48	0	790626304	77	4833
2026-01-15 23:40:13.22	107.08	47.61	-53.3	-55.5	16.5	0.00e+00	0	48	0	792723456	77	4834
2026-01-15 23:40:14.23	107.67	47.58	-52.7	-54.7	17.4	0.00e+00	0	48	0	794820608	77	4405
2026-01-15 23:40:15.24	108.26	47.54	-52.2	-54.0	18.1	0.00e+00	0	48	0	796917760	76	4298
2026-01-15 23:40:16.25	108.85	47.49	-51.6	-53.2	18.8	0.00e+00	0	48	0	797966336	75	4160
2026-01-15 23:40:17.26	109.44	47.45	-51.4	-53.0	19.0	0.00e+00	0	48	0	800063488	74	4317
2026-01-15 23:40:18.27	110.02	47.40	-51.7	-53.3	18.7	0.00e+00	0	48	0	802160640	74	4470
2026-01-15 23:40:19.28	110.60	47.35	-52.1	-53.9	18.2	0.00e+00	0	48	0	804257792	74	4784
2026-01-15 23:40:20.29	111.18	47.29	-52.2	-53.9	18.1	0.00e+00	0	48	0	806354944	75	4544
2026-01-15 23:40:21.30	111.76	47.23	-52.2	-54.0	17.9	0.00e+00	0	48	0	807403520	75	4579
2026-01-15 23:40:22.31	112.34	47.17	-52.4	-54.3	17.7	0.00e+00	0	48	0	809500672	75	4719
2026-01-15 23:40:23.32	112.91	47.10	-52.8	-54.8	17.2	0.00e+00	0	48	0	811597824	76	4736
2026-01-15 23:40:24.33	113.49	47.04	-53.5	-55.9	16.0	0.00e+00	0	48	0	813694976	77	5096
2026-01-15 23:40:25.34	114.06	46.97	-53.4	-55.7	16.3	0.00e+00	0	48	0	815792128	77	4980
2026-01-15 23:40:26.35	114.62	46.89	-53.1	-55.2	16.8	0.00e+00	0	49	0	816840704	77	4675
2026-01-15 23:40:27.36	115.19	46.82	-52.6	-54.6	17.4	0.00e+00	0	48	0	818937856	77	4349
2026-01-15 23:40:28.37	115.75	46.74	-52.8	-54.7	17.3	0.00e+00	0	48	0	821035008	77	4438
2026-01-15 23:40:29.38	116.31	46.66	-53.2	-55.4	16.6	0.00e+00	0	48	0	823132160	77	4784
2026-01-15 23:40:30.39	116.86	46.57	-53.7	-56.1	15.8	0.00e+00	0	48	0	825229312	78	4924
2026-01-15 23:40:31.39	117.41	46.48	-53.7	-56.2	15.8	0.00e+00	0	48	0	826277888	78	4955
2026-01-15 23:40:32.40	117.96	46.39	-53.4	-55.7	16.3	0.00e+00	0	48	0	828375040	78	4688
2026-01-15 23:40:33.41	118.51	46.30	-53.4	-55.7	16.4	0.00e+00	0	48	0	830472192	78	4682
2026-01-15 23:40:34.42	119.05	46.21	-53.4	-55.7	16.3	0.00e+00	0	48	0	832569344	78	4668
2026-01-15 23:40:35.43	119.59	46.11	-53.9	-56.4	15.6	0.00e+00	0	48	0	834666496	78	5076
2026-01-15 23:40:36.44	120.13	46.01	-53.9	-56.4	15.5	0.00e+00	0	48	0	835715072	78	5099
2026-01-15 23:40:37.45	120.66	45.91	-53.6	-56.0	16.0	0.00e+00	0	48	0	837812224	78	4820
2026-01-15 23:40:38.46	121.19	45.80	-53.1	-55.2	16.8	0.00e+00	0	48	0	839909376	78	4431
2026-01-15 23:40:39.47	121.72	45.69	-53.2	-55.4	16.6	0.00e+00	0	48	0	842006528	78	4518
2026-01-15 23:40:40.48	122.24	45.58	-53.9	-56.5	15.6	0.00e+00	0	48	0	844103680	78	5136
2026-01-15 23:40:41.49	122.76	45.47	-54.0	-56.7	15.3	7.00e-07	0	48	0	845152256	78	5246
2026-01-15 23:40:42.50	123.27	45.36	-53.0	-55.1	16.9	0.00e+00	0	48	0	847249408	78	4379
2026-01-15 23:40:43.51	123.79	45.24	-51.8	-53.5	18.4	0.00e+00	0	48	0	849346560	75	4319
2026-01-15 23:40:44.52	124.29	45.12	-51.6	-53.2	18.8	0.00e+00	0	48	0	851443712	75	4154
2026-01-15 23:40:45.53	124.80	45.00	-51.4	-53.0	19.0	0.00e+00	0	48	0	853540864	74	4306
2026-01-15 23:40:46.54	125.30	44.88	-51.7	-53.3	18.7	0.00e+00	0	48	0	855638016	74	4465
2026-01-15 23:40:47.55	125.80	44.76	-51.1	-52.6	19.3	0.00e+00	0	48	0	856686592	74	4145
2026-01-15 23:40:48.55	126.28	44.63	-50.7	-52.1	19.8	0.00e+00	0	48	0	858783744	73	4141
2026-01-15 23:40:49.56	126.77	44.50	-50.7	-52.1	19.8	0.00e+00	0	48	0	860880896	73	4113
2026-01-15 23:40:50.57	127.26	44.37	-50.9	-52.3	19.6	0.00e+00	0	48	0	862978048	73	4227
2026-01-15 23:40:51.58	127.74	44.24	-51.3	-52.9	19.1	0.00e+00	0	48	0	864026624	73	4502
2026-01-15 23:40:52.59	128.22	44.11	-51.3	-52.8	19.1	0.00e+00	0	48	0	866123776	73	4475
2026-01-15 23:40:53.60	128.69	43.97	-50.9	-52.4	19.6	0.00e+00	0	48	0	868220928	73	4245
2026-01-15 23:40:54.61	129.16	43.84	-50.8	-52.3	19.7	0.00e+00	0	48	0	870318080	73	4195
2026-01-15 23:40:55.62	129.62	43.70	-50.7	-52.1	19.7	0.00e+00	0	48	0	872415232	73	4142
2026-01-15 23:40:56.63	130.09	43.56	-50.5	-51.9	20.0	0.00e+00	0	48	0	874512384	73	4021
2026-01-15 23:40:57.64	130.54	43.42	-50.1	-51.4	20.5	0.00e+00	0	48	0	875560960	72	4026
2026-01-15 23:40:58.65	131.00	43.27	-50.0	-51.2	20.7	0.00e+00	0	48	0	877658112	71	4189
2026-01-15 23:40:59.66	131.45	43.13	-50.1	-51.4	20.5	0.00e+00	0	48	0	879755264	71	4284
2026-01-15 23:41:00.67	131.89	42.98	-50.6	-52.0	20.0	0.00e+00	0	48	0	881852416	71	4553
2026-01-15 23:41:01.68	132.33	42.84	-50.4	-51.8	20.2	0.00e+00	0	48	0	883949568	71	4452
2026-01-15 23:41:02.69	132.77	42.69	-50.0	-51.3	20.7	0.00e+00	0	48	0	884998144	71	4203
2026-01-15 23:41:03.70	133.20	42.54	-50.1	-51.4	20.6	0.00e+00	0	48	0	887095296	71	4261
2026-01-15 23:41:04.71	133.63	42.39	-50.4	-51.7	20.3	0.00e+00	0	48	0	889192448	71	4419
2026-01-15 23:41:05.72	134.06	42.24	-50.6	-52.0	19.9	0.00e+00	0	48	0	891289600	72	4314
2026-01-15 23:41:06.73	134.48	42.09	-50.7	-52.1	19.7	0.00e+00	0	48	0	893386752	72	4384
2026-01-15 23:41:07.74	134.90	41.93	-50.5	-51.9	20.0	0.00e+00	0	48	0	894435328	72	4281
2026-01-15 23:41:08.75	135.31	41.78	-50.0	-51.3	20.5	0.00e+00	0	48	0	896532480	72	3971
2026-01-15 23:41:09.76	135.72	41.62	-49.9	-51.1	20.8	0.00e+00	0	49	0	898629632	71	4114
2026-01-15 23:41:10.76	136.13	41.47	-50.4	-51.8	20.2	0.00e+00	0	48	0	900726784	71	4445
2026-01-15 23:41:11.78	136.53	41.31	-51.4	-53.0	19.0	0.00e+00	0	48	0	902823936	73	4551
2026-01-15 23:41:12.78	136.93	41.15	-51.5	-53.1	18.9	0.00e+00	0	48	0	903872512	73	4607
2026-01-15 23:41:13.79	137.32	40.99	-50.8	-52.3	19.6	0.00e+00	0	48	0	905969664	73	4206
2026-01-15 23:41:14.80	137.71	40.83	-50.5	-51.9	20.1	0.00e+00	0	48	0	908066816	73	4032
2026-01-15 23:41:15.81	138.10	40.67	-50.5	-51.9	20.0	0.00e+00	0	48	0	910163968	73	4017
2026-01-15 23:41:16.82	138.48	40.51	-51.3	-52.9	19.1	0.00e+00	0	48	0	912261120	73	4496
2026-01-15 23:41:17.83	138.86	40.35	-52.4	-54.3	17.7	0.00e+00	0	48	0	914358272	75	4730
2026-01-15 23:41:18.84	139.24	40.18	-52.4	-54.3	17.7	0.00e+00	0	48	0	915406848	75	4714
2026-01-15 23:41:19.85	139.61	40.02	-51.5	-53.2	18.8	0.00e+00	0	48	0	917504000	75	4151
2026-01-15 23:41:20.86	139.98	39.86	-51.3	-52.9	19.1	0.00e+00	0	48	0	919601152	74	4256
2026-01-15 23:41:21.87	140.34	39.69	-51.2	-52.7	19.3	0.00e+00	0	48	0	921698304	74	4159
2026-01-15 23:41:22.88	140.70	39.53	-51.9	-53.7	18.3	0.00e+00	0	48	0	922746880	74	4675
2026-01-15 23:41:23.89	141.06	39.36	-52.7	-54.7	17.3	0.00e+00	0	48	0	924844032	75	4973
2026-01-15 23:41:24.90	141.41	39.20	-52.6	-54.6	17.3	0.00e+00	0	48	0	926941184	76	4645
2026-01-15 23:41:25.91	141.76	39.03	-51.6	-53.3	18.6	0.00e+00	0	48	0	929038336	75	4212
2026-01-15 23:41:26.92	142.11	38.86	-51.0	-52.5	19.4	0.00e+00	0	48	0	931135488	74	4070
2026-01-15 23:41:27.93	142.45	38.70	-51.1	-52.6	19.2	0.00e+00	0	48	0	933232640	73	4385
2026-01-15 23:41:28.94	142.79	38.53	-52.0	-53.8	18.1	0.00e+00	0	48	0	934281216	74	4721
2026-01-15 23:41:29.94	143.13	38.36	-53.7	-56.3	15.7	0.00e+00	0	48	0	936378368	77	5304
2026-01-15 23:41:30.95	143.46	38.20	-54.1	-56.8	15.1	7.00e-07	0	48	0	938475520	79	5035
2026-01-15 23:41:31.96	143.79	38.03	-53.3	-55.5	16.4	0.00e+00	0	48	0	940572672	78	4582
2026-01-15 23:41:32.97	144.12	37.86	-52.4	-54.3	17.6	0.00e+00	0	49	0	942669824	76	4452
2026-01-15 23:41:33.99	144.44	37.69	-52.2	-54.0	18.0	0.00e+00	0	48	0	943718400	76	4305
2026-01-15 23:41:35.00	144.76	37.52	-52.4	-54.2	17.7	0.00e+00	0	48	0	945815552	76	4441
2026-01-15 23:41:36.01	145.08	37.35	-53.3	-55.6	16.4	0.00e+00	0	48	0	947912704	77	4918
2026-01-15 23:41:37.02	145.39	37.19	-54.1	-56.9	15.1	0.00e+00	0	49	0	950009856	78	5392
2026-01-15 23:41:38.02	145.70	37.02	-53.9	-56.6	15.4	0.00e+00	0	48	0	951058432	79	4877
2026-01-15 23:41:39.03	146.01	36.85	-53.4	-55.8	16.1	0.00e+00	0	48	0	953155584	78	4723
2026-01-15 23:41:40.04	146.31	36.68	-53.1	-55.3	16.6	0.00e+00	0	48	0	955252736	78	4465
2026-01-15 23:41:41.06	146.62	36.51	-52.9	-54.9	16.9	0.00e+00	0	48	0	957349888	77	4545
2026-01-15 23:41:42.06	146.91	36.34	-52.3	-54.1	17.8	0.00e+00	0	48	0	959447040	76	4383
2026-01-15 23:41:43.07	147.21	36.18	-52.8	-54.9	17.1	0.00e+00	0	48	0	961544192	76	4775
2026-01-15 23:41:44.09	147.50	36.01	-53.9	-56.5	15.3	0.00e+00	0	48	0	962592768	78	5142
2026-01-15 23:41:45.10	147.79	35.84	-54.2	-57.1	14.8	0.00e+00	0	49	0	964689920	79	5195
2026-01-15 23:41:46.11	148.08	35.67	-53.9	-56.5	15.4	0.00e+00	0	48	0	966787072	79	4841
2026-01-15 23:41:47.12	148.36	35.50	-53.0	-55.1	16.8	0.00e+00	0	48	0	968884224	78	4367
2026-01-15 23:41:48.13	148.64	35.33	-52.5	-54.4	17.5	0.00e+00	0	48	0	970981376	77	4274
2026-01-15 23:41:49.14	148.92	35.16	-52.3	-54.2	17.7	0.00e+00	0	49	0	972029952	76	4392
2026-01-15 23:41:50.15	149.19	35.00	-52.6	-54.5	17.4	0.00e+00	0	49	0	974127104	76	4571
2026-01-15 23:41:51.16	149.46	34.83	-53.2	-55.5	16.4	0.00e+00	0	48	0	976224256	76	5101
2026-01-15 23:41:52.17	149.73	34.66	-54.1	-56.8	15.1	0.00e+00	0	48	0	978321408	78	5316
2026-01-15 23:41:53.18	150.00	34.49	-54.5	-57.5	14.3	7.00e-07	0	49	0	980418560	79	5462
2026-01-15 23:41:54.19	150.26	34.33	-54.0	-56.8	15.1	1.50e-06	0	48	0	981467136	79	5009
2026-01-15 23:41:55.20	150.53	34.16	-52.9	-55.0	16.8	0.00e+00	0	48	0	983564288	77	4559
2026-01-15 23:41:56.21	150.78	33.99	-51.8	-53.4	18.4	0.00e+00	0	49	0	985661440	75	4288
2026-01-15 23:41:57.22	151.04	33.83	-51.2	-52.8	19.1	0.00e+00	0	48	0	987758592	74	4206
2026-01-15 23:41:58.22	151.29	33.66	-51.2	-52.7	19.1	0.00e+00	0	49	0	989855744	74	4183
2026-01-15 23:41:59.23	151.54	33.50	-51.4	-53.0	18.8	0.00e+00	0	49	0	991952896	74	4334
2026-01-15 23:42:00.24	151.79	33.33	-52.3	-54.2	17.7	0.00e+00	0	48	0	993001472	75	4680
2026-01-15 23:42:01.25	152.04	33.17	-53.4	-55.8	16.1	0.00e+00	0	49	0	995098624	77	5032
2026-01-15 23:42:02.26	152.28	33.00	-54.3	-57.3	14.6	0.00e+00	0	48	0	997195776	79	5306
2026-01-15 23:42:03.27	152.52	32.84	-54.4	-57.5	14.3	7.00e-07	0	48	0	999292928	79	5417
2026-01-15 23:42:04.28	152.76	32.67	-53.6	-56.1	15.7	0.00e+00	0	48	0	1000341504	79	4647
2026-01-15 23:42:05.29	153.00	32.51	-52.6	-54.6	17.2	0.00e+00	0	49	0	1002438656	77	4382
2026-01-15 23:42:06.30	153.23	32.35	-51.8	-53.5	18.3	0.00e+00	0	48	0	1004535808	75	4319
2026-01-15 23:42:07.31	153.46	32.18	-51.5	-53.1	18.7	0.00e+00	0	48	0	1006632960	74	4362
2026-01-15 23:42:08.32	153.69	32.02	-51.7	-53.3	18.5	0.00e+00	0	48	0	1008730112	74	4476
2026-01-15 23:42:09.33	153.92	31.86	-52.3	-54.1	17.7	0.00e+00	0	48	0	1010827264	75	4650
2026-01-15 23:42:10.34	154.15	31.70	-52.9	-55.0	16.9	0.00e+00	0	48	0	1011875840	76	4830
2026-01-15 23:42:11.35	154.37	31.54	-53.3	-55.6	16.2	0.00e+00	0	48	0	1013972992	77	4918
2026-01-15 23:42:12.36	154.59	31.38	-53.4	-55.8	16.1	0.00e+00	0	48	0	1016070144	77	5010
2026-01-15 23:42:13.37	154.81	31.22	-53.0	-55.2	16.6	0.00e+00	0	48	0	1018167296	77	4681
2026-01-15 23:42:14.38	155.03	31.06	-52.8	-54.9	16.9	0.00e+00	0	49	0	1020264448	77	4537
2026-01-15 23:42:15.39	155.24	30.90	-52.9	-55.0	16.8	0.00e+00	0	49	0	1021313024	77	4582
2026-01-15 23:42:16.39	155.45	30.74	-52.8	-54.9	17.0	0.00e+00	0	48	0	1023410176	77	4508
2026-01-15 23:42:17.40	155.66	30.58	-52.1	-53.9	17.9	0.00e+00	0	49	0	1025507328	76	4276
2026-01-15 23:42:18.41	155.87	30.42	-52.2	-54.0	17.9	0.00e+00	0	48	0	1027604480	75	4581
2026-01-15 23:42:19.43	156.08	30.26	-52.6	-54.6	17.2	0.00e+00	0	49	0	1029701632	75	4907
2026-01-15 23:42:20.44	156.28	30.10	-53.2	-55.5	16.3	0.00e+00	0	49	0	1030750208	76	5132
2026-01-15 23:42:21.45	156.49	29.95	-53.8	-56.4	15.4	0.00e+00	0	48	0	1032847360	78	5076
2026-01-15 23:42:22.46	156.69	29.79	-53.7	-56.3	15.6	0.00e+00	0	49	0	1034944512	78	5002
2026-01-15 23:42:23.46	156.88	29.64	-53.3	-55.6	16.2	0.00e+00	0	48	0	1037041664	78	4618
2026-01-15 23:42:24.47	157.08	29.48	-52.6	-54.7	17.1	0.00e+00	0	48	0	1039138816	77	4400
2026-01-15 23:42:25.48	157.28	29.33	-52.1	-53.9	17.8	0.00e+00	0	48	0	1040187392	76	4291
2026-01-15 23:42:26.49	157.47	29.17	-52.2	-54.0	17.8	0.00e+00	0	49	0	1042284544	76	4306
2026-01-15 23:42:27.51	157.66	29.02	-51.6	-53.2	18.6	0.00e+00	0	48	0	1044381696	75	4168
2026-01-15 23:42:28.52	157.85	28.86	-51.5	-53.1	18.6	0.00e+00	0	48	0	1046478848	74	4370
2026-01-15 23:42:29.53	158.04	28.71	-51.3	-52.9	18.8	0.00e+00	0	49	0	1048576000	74	4291
2026-01-15 23:42:30.53	158.23	28.56	-51.6	-53.3	18.5	0.00e+00	0	49	0	1050673152	74	4474
2026-01-15 23:42:31.54	158.41	28.41	-52.1	-54.0	17.8	0.00e+00	0	48	0	1051721728	74	4855
2026-01-15 23:42:32.55	158.59	28.26	-52.6	-54.7	17.1	0.00e+00	0	49	0	1053818880	75	4957
2026-01-15 23:42:33.56	158.77	28.11	-52.7	-54.9	16.9	0.00e+00	0	48	0	1055916032	76	4776
2026-01-15 23:42:34.57	158.95	27.96	-52.7	-54.8	17.1	0.00e+00	0	48	0	1058013184	76	4712
2026-01-15 23:42:35.59	159.13	27.81	-52.5	-54.5	17.2	0.00e+00	0	48	0	1059061760	76	4580
2026-01-15 23:42:36.59	159.31	27.66	-52.1	-53.9	17.9	0.00e+00	0	48	0	1061158912	76	4273
2026-01-15 23:42:37.60	159.48	27.51	-51.7	-53.5	18.3	0.00e+00	0	48	0	1063256064	75	4295
2026-01-15 23:42:38.61	159.66	27.36	-51.5	-53.2	18.6	0.00e+00	0	48	0	1065353216	75	4147
2026-01-15 23:42:39.62	159.83	27.21	-50.9	-52.4	19.3	0.00e+00	0	48	0	1067450368	73	4261
2026-01-15 23:42:40.63	160.00	27.07	-50.9	-52.3	19.3	0.00e+00	0	48	0	1069547520	73	4235
2026-01-15 23:42:41.64	160.17	26.92	-50.8	-52.3	19.4	0.00e+00	0	49	0	1070596096	73	4229
2026-01-15 23:42:42.66	160.34	26.77	-50.8	-52.2	19.4	0.00e+00	0	48	0	1072693248	73	4184
2026-01-15 23:42:43.67	160.50	26.63	-51.0	-52.5	19.2	0.00e+00	0	48	0	1074790400	73	4321
2026-01-15 23:42:44.68	160.67	26.48	-51.0	-52.6	19.1	0.00e+00	0	48	0	1076887552	73	4363
2026-01-15 23:42:45.69	160.83	26.34	-51.1	-52.7	19.0	0.00e+00	0	49	0	1078984704	73	4406
2026-01-15 23:42:46.70	160.99	26.19	-51.3	-52.9	18.8	0.00e+00	0	48	0	1080033280	73	4533
2026-01-15 23:42:47.71	161.15	26.05	-51.4	-53.0	18.7	0.00e+00	0	48	0	1082130432	73	4598
2026-01-15 23:42:48.72	161.31	25.91	-51.5	-53.2	18.5	0.00e+00	0	49	0	1084227584	73	4688
2026-01-15 23:42:49.73	161.47	25.76	-51.7	-53.5	18.2	0.00e+00	0	49	0	1086324736	73	4823
2026-01-15 23:42:50.74	161.62	25.62	-51.9	-53.7	18.0	0.00e+00	0	48	0	1088421888	74	4678
2026-01-15 23:42:51.75	161.78	25.48	-51.8	-53.6	18.1	0.00e+00	0	49	0	1089470464	74	4629
2026-01-15 23:42:52.76	161.93	25.34	-51.8	-53.6	18.1	0.00e+00	0	48	0	1091567616	74	4607
2026-01-15 23:42:53.77	162.08	25.20	-51.6	-53.3	18.3	0.00e+00	0	48	0	1093664768	74	4487
2026-01-15 23:42:54.78	162.23	25.06	-51.4	-53.1	18.6	0.00e+00	0	48	0	1095761920	74	4371
2026-01-15 23:42:55.79	162.38	24.92	-51.5	-53.1	18.5	0.00e+00	0	48	0	1097859072	74	4383
2026-01-15 23:42:56.80	162.53	24.78	-51.1	-52.7	19.0	0.00e+00	0	48	0	1098907648	74	4167
2026-01-15 23:42:57.81	162.67	24.65	-51.2	-52.7	19.0	0.00e+00	0	48	0	1101004800	74	4191
2026-01-15 23:42:58.82	162.82	24.51	-51.4	-53.0	18.7	0.00e+00	0	48	0	1103101952	74	4321
2026-01-15 23:42:59.83	162.96	24.37	-51.3	-52.9	18.8	0.00e+00	0	49	0	1105199104	74	4254
2026-01-15 23:43:00.84	163.11	24.24	-51.5	-53.2	18.5	0.00e+00	0	49	0	1107296256	74	4401
2026-01-15 23:43:01.85	163.25	24.10	-51.6	-53.3	18.3	0.00e+00	0	48	0	1108344832	74	4491
2026-01-15 23:43:02.86	163.39	23.96	-51.8	-53.6	18.1	0.00e+00	0	49	0	1110441984	74	4607
2026-01-15 23:43:03.87	163.53	23.83	-51.8	-53.6	18.1	0.00e+00	0	48	0	1112539136	74	4609
2026-01-15 23:43:04.88	163.67	23.70	-51.7	-53.4	18.2	0.00e+00	0	48	0	1114636288	74	4530
2026-01-15 23:43:05.88	163.80	23.56	-51.6	-53.3	18.3	0.00e+00	0	48	0	1116733440	74	4476
2026-01-15 23:43:06.89	163.94	23.43	-51.6	-53.3	18.4	0.00e+00	0	49	0	1117782016	74	4456
2026-01-15 23:43:07.90	164.07	23.30	-51.5	-53.2	18.4	0.00e+00	0	49	0	1119879168	74	4416
2026-01-15 23:43:08.91	164.21	23.16	-51.4	-53.1	18.5	0.00e+00	0	48	0	1121976320	74	4361
2026-01-15 23:43:09.92	164.34	23.03	-51.2	-52.8	18.8	0.00e+00	0	48	0	1124073472	74	4231
2026-01-15 23:43:10.92	164.47	22.90	-50.8	-52.3	19.2	0.00e+00	0	49	0	1126170624	73	4229
2026-01-15 23:43:11.93	164.60	22.77	-50.7	-52.2	19.4	0.00e+00	0	49	0	1128267776	73	4162
2026-01-15 23:43:12.94	164.73	22.64	-50.6	-52.1	19.5	0.00e+00	0	49	0	1129316352	73	4125
2026-01-15 23:43:13.95	164.86	22.51	-50.7	-52.2	19.4	0.00e+00	0	49	0	1131413504	73	4158
2026-01-15 23:43:14.96	164.99	22.38	-50.7	-52.2	19.4	0.00e+00	0	48	0	1133510656	73	4185
2026-01-15 23:43:15.97	165.11	22.26	-50.7	-52.2	19.5	0.00e+00	0	49	0	1135607808	73	4148
2026-01-15 23:43:16.98	165.24	22.13	-50.8	-52.3	19.3	0.00e+00	0	48	0	1136656384	73	4235
2026-01-15 23:43:17.99	165.36	22.00	-50.8	-52.3	19.3	0.00e+00	0	48	0	1138753536	73	4222
2026-01-15 23:43:19.00	165.49	21.87	-50.9	-52.4	19.1	0.00e+00	0	49	0	1140850688	73	4285
2026-01-15 23:43:20.01	165.61	21.75	-50.9	-52.5	19.1	0.00e+00	0	49	0	1142947840	73	4304
2026-01-15 23:43:21.02	165.73	21.62	-51.1	-52.7	18.9	0.00e+00	0	49	0	1145044992	73	4393
2026-01-15 23:43:22.02	165.85	21.50	-51.1	-52.7	18.8	0.00e+00	0	48	0	1147142144	73	4433
2026-01-15 23:43:23.03	165.97	21.37	-51.3	-52.9	18.7	0.00e+00	0	49	0	1148190720	73	4523
2026-01-15 23:43:24.04	166.09	21.25	-51.3	-52.9	18.6	0.00e+00	0	49	0	1150287872	73	4540
2026-01-15 23:43:25.05	166.21	21.12	-51.3	-53.0	18.6	0.00e+00	0	49	0	1152385024	73	4546
2026-01-15 23:43:26.06	166.33	21.00	-51.4	-53.0	18.5	0.00e+00	0	49	0	1154482176	73	4589
2026-01-15 23:43:27.07	166.44	20.88	-51.4	-53.1	18.5	0.00e+00	0	49	0	1156579328	73	4611
2026-01-15 23:43:28.08	166.56	20.75	-51.2	-52.9	18.7	0.00e+00	0	48	0	1157627904	73	4502
2026-01-15 23:43:29.10	166.67	20.63	-51.1	-52.7	18.8	0.00e+00	0	49	0	1159725056	73	4410
2026-01-15 23:43:30.10	166.78	20.51	-51.0	-52.6	18.9	0.00e+00	0	48	0	1161822208	73	4373
2026-01-15 23:43:31.11	166.90	20.39	-51.0	-52.6	19.0	0.00e+00	0	49	0	1163919360	73	4359
2026-01-15 23:43:32.12	167.01	20.27	-51.1	-52.6	18.9	0.00e+00	0	49	0	1164967936	73	4389
2026-01-15 23:43:33.13	167.12	20.15	-51.1	-52.6	18.9	0.00e+00	0	48	0	1167065088	73	4391
2026-01-15 23:43:34.14	167.23	20.03	-51.1	-52.7	18.8	0.00e+00	0	48	0	1169162240	73	4423
2026-01-15 23:43:35.15	167.34	19.91	-51.0	-52.6	18.9	0.00e+00	0	48	0	1171259392	73	4378
2026-01-15 23:43:36.16	167.45	19.79	-51.0	-52.6	18.9	0.00e+00	0	49	0	1173356544	73	4379
2026-01-15 23:43:37.16	167.55	19.67	-51.2	-52.8	18.8	0.00e+00	0	48	0	1175453696	73	4453
2026-01-15 23:43:38.17	167.66	19.55	-51.2	-52.9	18.6	0.00e+00	0	48	0	1176502272	73	4516
2026-01-15 23:43:39.18	167.77	19.44	-51.4	-53.1	18.4	0.00e+00	0	49	0	1178599424	73	4639
2026-01-15 23:43:40.19	167.87	19.32	-51.5	-53.3	18.3	0.00e+00	0	48	0	1180696576	73	4706
2026-01-15 23:43:41.20	167.98	19.20	-51.5	-53.3	18.2	0.00e+00	0	48	0	1182793728	73	4721
2026-01-15 23:43:42.21	168.08	19.09	-51.7	-53.5	18.0	0.00e+00	0	49	0	1184890880	73	4853
2026-01-15 23:43:43.22	168.18	18.97	-51.7	-53.5	18.1	0.00e+00	0	48	0	1185939456	73	4819
2026-01-15 23:43:44.23	168.29	18.86	-51.7	-53.5	18.0	0.00e+00	0	49	0	1188036608	73	4843
2026-01-15 23:43:45.24	168.39	18.74	-51.7	-53.5	18.0	0.00e+00	0	49	0	1190133760	73	4846
2026-01-15 23:43:46.25	168.49	18.63	-51.7	-53.5	18.0	0.00e+00	0	49	0	1192230912	74	4580
2026-01-15 23:43:47.26	168.59	18.51	-51.7	-53.6	17.9	0.00e+00	0	48	0	1194328064	74	4613
2026-01-15 23:43:48.27	168.69	18.40	-51.4	-53.2	18.3	0.00e+00	0	48	0	1195376640	74	4400
2026-01-15 23:43:49.28	168.79	18.29	-51.3	-53.0	18.5	0.00e+00	0	49	0	1197473792	74	4335
2026-01-15 23:43:50.28	168.88	18.18	-51.1	-52.8	18.7	0.00e+00	0	48	0	1199570944	74	4197
2026-01-15 23:43:51.29	168.98	18.06	-51.0	-52.6	18.9	0.00e+00	0	48	0	1201668096	74	4141
2026-01-15 23:43:52.31	169.08	17.95	-50.8	-52.3	19.1	0.00e+00	0	48	0	1203765248	73	4221
2026-01-15 23:43:53.32	169.18	17.84	-50.8	-52.3	19.2	0.00e+00	0	48	0	1204813824	73	4206
2026-01-15 23:43:54.33	169.27	17.73	-50.7	-52.2	19.3	0.00e+00	0	48	0	1206910976	73	4148
2026-01-15 23:43:55.34	169.37	17.62	-50.6	-52.1	19.4	0.00e+00	0	49	0	1209008128	73	4109
2026-01-15 23:43:56.35	169.46	17.51	-50.5	-51.9	19.5	0.00e+00	0	49	0	1211105280	73	4040
2026-01-15 23:43:57.36	169.55	17.40	-50.5	-52.0	19.5	0.00e+00	0	49	0	1213202432	72	4294
2026-01-15 23:43:58.36	169.64	17.29	-50.5	-52.0	19.5	0.00e+00	0	49	0	1215299584	72	4305
2026-01-15 23:43:59.37	169.74	17.18	-50.6	-52.0	19.4	0.00e+00	0	49	0	1216348160	72	4335
2026-01-15 23:44:00.38	169.83	17.08	-50.6	-52.1	19.4	0.00e+00	0	49	0	1218445312	72	4348
2026-01-15 23:44:01.39	169.92	16.97	-50.6	-52.2	19.3	0.00e+00	0	49	0	1220542464	72	4392
2026-01-15 23:44:02.40	170.01	16.86	-50.8	-52.3	19.1	0.00e+00	0	49	0	1222639616	72	4461
2026-01-15 23:44:03.41	170.10	16.75	-50.8	-52.4	19.0	0.00e+00	0	49	0	1223688192	72	4518
2026-01-15 23:44:04.42	170.19	16.65	-50.9	-52.5	18.9	0.00e+00	0	49	0	1225785344	72	4558
2026-01-15 23:44:05.43	170.28	16.54	-51.0	-52.6	18.8	0.00e+00	0	49	0	1227882496	72	4621
2026-01-15 23:44:06.44	170.36	16.44	-51.1	-52.7	18.7	0.00e+00	0	48	0	1229979648	72	4685
2026-01-15 23:44:07.45	170.45	16.33	-51.0	-52.7	18.7	0.00e+00	0	48	0	1232076800	72	4664
2026-01-15 23:44:08.46	170.54	16.22	-51.0	-52.7	18.7	0.00e+00	0	49	0	1234173952	72	4664
2026-01-15 23:44:09.47	170.62	16.12	-51.1	-52.7	18.7	0.00e+00	0	48	0	1235222528	72	4697
2026-01-15 23:44:10.48	170.71	16.02	-51.0	-52.7	18.7	0.00e+00	0	49	0	1237319680	72	4666
2026-01-15 23:44:11.49	170.79	15.91	-51.1	-52.7	18.7	0.00e+00	0	49	0	1239416832	72	4686
2026-01-15 23:44:12.50	170.88	15.81	-51.0	-52.6	18.8	0.00e+00	0	49	0	1241513984	72	4606
2026-01-15 23:44:13.51	170.96	15.71	-50.9	-52.5	18.9	0.00e+00	0	49	0	1243611136	72	4598
2026-01-15 23:44:14.52	171.05	15.60	-50.8	-52.4	19.0	0.00e+00	0	49	0	1244659712	72	4529
2026-01-15 23:44:15.53	171.13	15.50	-50.8	-52.3	19.0	0.00e+00	0	49	0	1246756864	72	4484
2026-01-15 23:44:16.54	171.21	15.40	-50.7	-52.3	19.1	0.00e+00	0	49	0	1248854016	72	4444
2026-01-15 23:44:17.55	171.29	15.30	-50.7	-52.2	19.2	0.00e+00	0	49	0	1250951168	72	4421
2026-01-15 23:44:18.56	171.37	15.20	-50.7	-52.3	19.1	0.00e+00	0	49	0	1253048320	72	4447
2026-01-15 23:44:19.56	171.45	15.10	-50.7	-52.3	19.1	0.00e+00	0	49	0	1254096896	72	4449
2026-01-15 23:44:20.57	171.53	15.00	-50.8	-52.3	19.0	0.00e+00	0	48	0	1256194048	72	4487
2026-01-15 23:44:21.58	171.61	14.90	-50.8	-52.3	19.0	0.00e+00	0	48	0	1258291200	72	4485
2026-01-15 23:44:22.59	171.69	14.80	-50.8	-52.4	19.0	0.00e+00	0	49	0	1260388352	72	4510
2026-01-15 23:44:23.60	171.77	14.70	-50.9	-52.5	18.9	0.00e+00	0	49	0	1262485504	72	4552
2026-01-15 23:44:24.61	171.85	14.60	-51.0	-52.6	18.8	0.00e+00	0	49	0	1263534080	72	4624
2026-01-15 23:44:25.62	171.93	14.50	-51.0	-52.6	18.8	0.00e+00	0	48	0	1265631232	72	4605
2026-01-15 23:44:26.63	172.00	14.40	-51.1	-52.7	18.6	0.00e+00	0	49	0	1267728384	72	4699
2026-01-15 23:44:27.64	172.08	14.30	-51.1	-52.8	18.5	0.00e+00	0	49	0	1269825536	72	4726
2026-01-15 23:44:28.65	172.16	14.21	-51.2	-52.9	18.4	0.00e+00	0	49	0	1271922688	72	4802
2026-01-15 23:44:29.66	172.23	14.11	-51.3	-53.0	18.3	0.00e+00	0	49	0	1272971264	73	4586
2026-01-15 23:44:30.67	172.31	14.01	-51.4	-53.1	18.2	0.00e+00	0	49	0	1275068416	73	4632
