passes_logs/2026/01/15/R3.2S_Murmansk/R3.2S_Murmansk__20260115_063027_NOAA_20_JPSS-1_rec.log

#Pass ID: 20260115_063027_NOAA 20 (JPSS-1)
#Satellite: NOAA 20 (JPSS-1)
#Configuration: NOAA 20
#almurnet v.1.7.20251203
#Start time: 2026-01-15 06:30:28

#Version: 2.2.20231116
#Station: R3.2S_Murmansk
#Location: 33.079688 lon 68.888172 lat
#TLE: 1 43013U 17073A   26014.55467351  .00000038  00000+0  38801-4 0  9992
#TLE: 2 43013  98.7635 315.4987 0001517  39.9279 320.2008 14.19535859422677

#Time	Az	El	Level	Level2	SNR	BER	BlckErr	Temp	State	Recorded	gain1	gain2
2026-01-15 06:30:28.18	85.13	2.07	-58.1	-74.1	3.8	1.49e+00	0	26	0	0	82	22739
2026-01-15 06:30:29.19	85.07	2.13	-58.1	-74.1	3.8	1.49e+00	0	26	104	0	81	23995
2026-01-15 06:30:30.18	85.01	2.18	-58.1	-74.1	3.8	1.49e+00	0	26	104	0	81	24032
2026-01-15 06:30:31.18	84.95	2.24	-58.1	-74.1	3.8	1.49e+00	0	26	104	0	81	24020
2026-01-15 06:30:32.17	84.90	2.30	-58.1	-74.1	3.8	1.49e+00	0	26	104	0	81	23952
2026-01-15 06:30:33.17	84.84	2.36	-58.1	-74.1	3.8	1.49e+00	0	26	104	0	81	24009
2026-01-15 06:30:34.17	84.78	2.42	-58.1	-74.1	3.8	1.49e+00	0	26	104	0	81	23973
2026-01-15 06:30:35.17	84.72	2.48	-58.1	-74.1	3.8	1.49e+00	0	26	104	0	81	23989
2026-01-15 06:30:36.16	84.66	2.54	-58.1	-74.1	3.8	1.49e+00	0	26	104	0	81	23968
2026-01-15 06:30:37.16	84.61	2.59	-58.1	-74.1	3.8	1.49e+00	0	26	104	0	81	23941
2026-01-15 06:30:38.16	84.55	2.65	-58.1	-74.1	3.8	1.49e+00	0	26	104	0	81	24002
2026-01-15 06:30:39.15	84.49	2.71	-58.1	-74.1	3.8	1.49e+00	0	26	104	0	81	23964
2026-01-15 06:30:40.14	84.43	2.77	-58.1	-74.1	3.9	1.49e+00	0	26	104	0	81	24003
2026-01-15 06:30:41.13	84.37	2.83	-58.1	-74.1	3.8	1.49e+00	0	26	104	0	81	23958
2026-01-15 06:30:42.13	84.31	2.89	-58.1	-74.1	3.8	1.49e+00	0	26	104	0	81	23993
2026-01-15 06:30:43.13	84.25	2.95	-58.1	-74.1	3.8	1.49e+00	0	27	104	0	81	24063
2026-01-15 06:30:44.13	84.19	3.01	-58.1	-74.1	3.8	1.49e+00	0	27	104	0	81	24028
2026-01-15 06:30:45.12	84.13	3.07	-58.1	-74.1	3.8	1.49e+00	0	27	104	0	81	23988
2026-01-15 06:30:46.11	84.07	3.13	-58.1	-74.1	3.8	1.49e+00	0	27	104	0	81	23924
2026-01-15 06:30:47.10	84.01	3.19	-58.1	-74.1	3.8	1.49e+00	0	27	104	0	81	23947
2026-01-15 06:30:48.10	83.94	3.25	-58.1	-74.1	3.8	1.49e+00	0	27	104	0	81	23982
2026-01-15 06:30:49.09	83.88	3.31	-58.1	-74.1	3.8	1.49e+00	0	26	104	0	81	24010
2026-01-15 06:30:50.07	83.82	3.37	-58.1	-74.1	3.8	1.49e+00	0	27	104	0	81	24076
2026-01-15 06:30:51.07	83.76	3.43	-58.1	-74.1	3.8	1.49e+00	0	27	104	0	81	24050
2026-01-15 06:30:52.07	83.70	3.49	-58.1	-74.1	3.8	1.49e+00	0	27	104	0	81	24025
2026-01-15 06:30:53.06	83.63	3.55	-58.1	-74.1	3.8	1.49e+00	0	27	104	0	81	23924
2026-01-15 06:30:54.05	83.57	3.61	-58.1	-74.1	3.8	1.49e+00	0	27	104	0	81	23870
2026-01-15 06:30:55.04	83.51	3.67	-58.1	-74.0	3.8	1.49e+00	0	27	104	0	81	23842
2026-01-15 06:30:56.04	83.44	3.73	-58.1	-74.0	3.8	1.49e+00	0	27	104	0	81	23767
2026-01-15 06:30:57.04	83.38	3.79	-58.1	-74.0	3.8	1.49e+00	0	27	104	0	81	23850
2026-01-15 06:30:58.04	83.32	3.85	-58.1	-74.1	3.8	1.49e+00	0	27	104	0	81	23907
2026-01-15 06:30:59.04	83.25	3.91	-58.1	-74.1	3.8	1.49e+00	0	27	104	0	81	24029
2026-01-15 06:31:00.03	83.19	3.98	-58.1	-74.1	3.8	1.49e+00	0	27	104	0	81	23977
2026-01-15 06:31:01.02	83.12	4.04	-58.1	-74.0	3.8	1.49e+00	0	27	104	0	81	23818
2026-01-15 06:31:02.02	83.06	4.10	-58.1	-73.9	3.8	1.49e+00	0	27	104	0	81	23373
2026-01-15 06:31:03.02	82.99	4.16	-58.1	-73.5	3.8	1.49e+00	0	27	104	0	81	22341
2026-01-15 06:31:04.01	82.92	4.22	-58.1	-73.0	3.8	1.49e+00	0	27	104	0	81	21047
2026-01-15 06:31:05.01	82.86	4.28	-58.0	-72.5	3.8	1.49e+00	0	27	104	0	81	20045
2026-01-15 06:31:06.01	82.79	4.35	-58.0	-71.8	3.8	1.49e+00	0	27	104	0	81	18435
2026-01-15 06:31:07.01	82.72	4.41	-58.0	-71.5	3.9	1.48e+00	0	27	104	0	81	17775
2026-01-15 06:31:08.00	82.66	4.47	-57.9	-70.5	4.2	1.34e+00	0	27	0	0	81	15869
2026-01-15 06:31:09.00	82.59	4.53	-57.9	-69.5	4.5	1.05e+00	2	27	0	0	81	14196
2026-01-15 06:31:10.01	82.52	4.60	-57.8	-68.9	4.8	8.00e-01	0	27	0	2097152	81	13157
2026-01-15 06:31:11.00	82.45	4.66	-57.7	-67.6	5.4	7.33e-01	0	27	0	4194304	81	11368
2026-01-15 06:31:11.99	82.39	4.72	-57.7	-67.9	5.3	4.90e-01	0	27	0	6291456	81	11731
2026-01-15 06:31:12.99	82.32	4.78	-57.7	-67.4	5.5	5.36e-01	0	27	0	8388608	81	11152
2026-01-15 06:31:13.99	82.25	4.85	-57.5	-66.0	6.4	2.75e-01	0	27	0	9437184	81	9468
2026-01-15 06:31:14.99	82.18	4.91	-57.5	-66.3	6.2	1.92e-01	0	27	0	11534336	81	9790
2026-01-15 06:31:15.99	82.11	4.97	-57.5	-66.4	6.2	2.13e-01	0	27	0	13631488	81	9871
2026-01-15 06:31:16.99	82.04	5.03	-57.5	-66.3	6.3	2.24e-01	0	27	0	15728640	81	9785
2026-01-15 06:31:17.98	81.97	5.10	-57.7	-66.8	6.0	2.67e-01	0	27	0	16777216	81	10385
2026-01-15 06:31:18.98	81.90	5.16	-57.8	-67.5	5.6	3.20e-01	0	27	0	18874368	81	11238
2026-01-15 06:31:19.98	81.83	5.22	-57.9	-69.8	4.4	5.45e-01	28	27	0	20971520	81	14641
2026-01-15 06:31:20.99	81.75	5.29	-56.0	-60.3	11.3	1.05e-01	0	27	0	23068672	78	5821
2026-01-15 06:31:21.99	81.68	5.35	-58.0	-72.1	3.8	1.48e-01	0	27	104	24117248	81	19106
2026-01-15 06:31:22.99	81.61	5.42	-56.3	-60.9	10.9	2.24e-02	0	27	0	24117248	79	5874
2026-01-15 06:31:23.98	81.54	5.48	-56.1	-60.6	11.1	1.23e-04	0	27	0	26214400	78	6019
2026-01-15 06:31:24.98	81.46	5.54	-56.2	-60.8	10.9	1.40e-04	0	27	0	28311552	78	6187
2026-01-15 06:31:25.98	81.39	5.61	-56.0	-60.3	11.4	3.50e-05	0	27	0	30408704	78	5793
2026-01-15 06:31:26.98	81.32	5.67	-55.7	-59.6	11.8	1.29e-05	0	27	0	32505856	78	5388
2026-01-15 06:31:27.98	81.24	5.74	-56.0	-60.1	11.5	1.52e-05	0	27	0	33554432	78	5699
2026-01-15 06:31:28.98	81.17	5.80	-55.8	-59.8	11.7	2.82e-05	0	27	0	35651584	78	5498
2026-01-15 06:31:29.98	81.10	5.87	-56.2	-60.6	11.1	5.72e-05	0	27	0	37748736	78	6004
2026-01-15 06:31:30.98	81.02	5.93	-55.8	-59.7	11.7	1.98e-05	0	27	0	39845888	78	5460
2026-01-15 06:31:31.96	80.95	6.00	-55.9	-59.9	11.6	1.22e-05	0	27	0	40894464	78	5584
2026-01-15 06:31:32.97	80.87	6.06	-55.8	-59.7	11.8	1.83e-05	0	27	0	42991616	78	5452
2026-01-15 06:31:33.96	80.80	6.13	-55.5	-59.1	12.2	1.50e-06	0	27	0	45088768	77	5386
2026-01-15 06:31:34.95	80.72	6.19	-55.7	-59.5	11.9	3.00e-06	0	27	0	47185920	77	5609
2026-01-15 06:31:35.95	80.64	6.26	-55.7	-59.4	12.0	2.20e-06	0	28	0	49283072	77	5553
2026-01-15 06:31:36.93	80.57	6.32	-55.6	-59.4	12.0	3.00e-06	0	27	0	50331648	77	5530
2026-01-15 06:31:37.92	80.49	6.39	-55.4	-58.9	12.4	7.00e-07	0	27	0	52428800	77	5238
2026-01-15 06:31:38.92	80.41	6.45	-55.2	-58.5	12.7	0.00e+00	0	27	0	54525952	77	4994
2026-01-15 06:31:39.91	80.34	6.52	-55.3	-58.6	12.6	0.00e+00	0	27	0	56623104	77	5048
2026-01-15 06:31:40.91	80.26	6.58	-55.3	-58.6	12.5	0.00e+00	0	27	0	57671680	76	5390
2026-01-15 06:31:41.91	80.18	6.65	-55.3	-58.6	12.4	0.00e+00	0	27	0	59768832	76	5401
2026-01-15 06:31:42.90	80.10	6.71	-55.0	-58.2	12.8	0.00e+00	0	27	0	61865984	76	5112
2026-01-15 06:31:43.89	80.02	6.78	-55.2	-58.4	12.7	0.00e+00	0	28	0	63963136	76	5238
2026-01-15 06:31:44.89	79.94	6.85	-54.9	-57.9	13.0	0.00e+00	0	27	0	66060288	76	4941
2026-01-15 06:31:45.89	79.86	6.91	-55.2	-58.4	12.7	0.00e+00	0	27	0	67108864	76	5227
2026-01-15 06:31:46.88	79.78	6.98	-55.1	-58.3	12.7	0.00e+00	0	27	0	69206016	76	5193
2026-01-15 06:31:47.86	79.70	7.04	-55.1	-58.2	12.8	0.00e+00	0	27	0	71303168	76	5128
2026-01-15 06:31:48.87	79.62	7.11	-55.0	-58.0	12.9	0.00e+00	0	27	0	73400320	76	5038
2026-01-15 06:31:49.86	79.54	7.18	-55.0	-58.0	12.9	0.00e+00	0	28	0	74448896	76	5027
2026-01-15 06:31:50.87	79.46	7.25	-55.0	-58.1	12.9	0.00e+00	0	27	0	76546048	76	5068
2026-01-15 06:31:51.87	79.37	7.31	-55.1	-58.2	12.8	0.00e+00	0	27	0	78643200	76	5133
2026-01-15 06:31:52.87	79.29	7.38	-55.1	-58.2	12.8	0.00e+00	0	27	0	80740352	76	5136
2026-01-15 06:31:53.87	79.21	7.45	-55.0	-58.0	12.9	0.00e+00	0	27	0	82837504	76	5035
2026-01-15 06:31:54.88	79.12	7.52	-55.1	-58.1	12.8	0.00e+00	0	27	0	83886080	76	5098
2026-01-15 06:31:55.88	79.04	7.58	-55.0	-58.1	12.8	0.00e+00	0	28	0	85983232	76	5083
2026-01-15 06:31:56.88	78.95	7.65	-54.9	-57.9	13.0	0.00e+00	0	28	0	88080384	76	4945
2026-01-15 06:31:57.88	78.87	7.72	-54.9	-57.9	13.0	0.00e+00	0	28	0	90177536	76	4958
2026-01-15 06:31:58.88	78.78	7.79	-54.9	-57.9	13.0	0.00e+00	0	27	0	92274688	76	4961
2026-01-15 06:31:59.88	78.70	7.86	-54.8	-57.8	13.1	0.00e+00	0	28	0	93323264	76	4896
2026-01-15 06:32:00.88	78.61	7.93	-54.9	-57.8	13.1	0.00e+00	0	28	0	95420416	76	4895
2026-01-15 06:32:01.88	78.53	7.99	-55.0	-58.1	12.9	0.00e+00	0	28	0	97517568	76	5048
2026-01-15 06:32:02.88	78.44	8.06	-54.9	-57.9	13.0	0.00e+00	0	27	0	99614720	76	4945
2026-01-15 06:32:03.88	78.35	8.13	-54.8	-57.7	13.1	0.00e+00	0	28	0	101711872	76	4867
2026-01-15 06:32:04.88	78.26	8.20	-54.9	-57.9	13.0	0.00e+00	0	28	0	102760448	76	4961
2026-01-15 06:32:05.89	78.17	8.27	-54.8	-57.7	13.1	0.00e+00	0	28	0	104857600	76	4869
2026-01-15 06:32:06.88	78.09	8.34	-54.9	-57.8	13.0	0.00e+00	0	28	0	106954752	76	4923
2026-01-15 06:32:07.88	78.00	8.41	-54.8	-57.7	13.1	0.00e+00	0	28	0	109051904	76	4851
2026-01-15 06:32:08.88	77.91	8.48	-55.0	-57.9	13.0	0.00e+00	0	28	0	111149056	76	4982
2026-01-15 06:32:09.88	77.82	8.55	-54.8	-57.7	13.2	0.00e+00	0	27	0	112197632	76	4860
2026-01-15 06:32:10.87	77.73	8.61	-54.9	-57.9	13.1	0.00e+00	0	28	0	114294784	76	4928
2026-01-15 06:32:11.87	77.64	8.68	-54.9	-57.7	13.1	0.00e+00	0	28	0	116391936	76	4869
2026-01-15 06:32:12.87	77.54	8.75	-54.8	-57.7	13.2	0.00e+00	0	28	0	118489088	76	4836
2026-01-15 06:32:13.87	77.45	8.82	-54.9	-57.9	13.0	0.00e+00	0	28	0	119537664	76	4951
2026-01-15 06:32:14.87	77.36	8.89	-55.0	-58.0	13.0	0.00e+00	0	27	0	121634816	76	5014
2026-01-15 06:32:15.87	77.27	8.96	-54.9	-57.8	13.1	0.00e+00	0	28	0	123731968	76	4893
2026-01-15 06:32:16.87	77.17	9.03	-55.0	-58.0	13.0	0.00e+00	0	28	0	125829120	76	5016
2026-01-15 06:32:17.87	77.08	9.11	-54.9	-57.8	13.1	0.00e+00	0	28	0	127926272	76	4926
2026-01-15 06:32:18.86	76.99	9.18	-54.8	-57.7	13.2	0.00e+00	0	28	0	128974848	76	4844
2026-01-15 06:32:19.86	76.89	9.25	-54.6	-57.3	13.3	0.00e+00	0	27	0	131072000	75	4903
2026-01-15 06:32:20.86	76.80	9.32	-54.7	-57.5	13.2	0.00e+00	0	28	0	133169152	75	5019
2026-01-15 06:32:21.86	76.70	9.39	-54.8	-57.6	13.1	0.00e+00	0	28	0	135266304	75	5074
2026-01-15 06:32:22.86	76.61	9.46	-54.8	-57.8	13.0	0.00e+00	0	28	0	136314880	75	5178
2026-01-15 06:32:23.86	76.51	9.53	-54.8	-57.6	13.1	0.00e+00	0	28	0	138412032	75	5095
2026-01-15 06:32:24.86	76.41	9.60	-54.8	-57.7	13.0	0.00e+00	0	28	0	140509184	75	5135
2026-01-15 06:32:25.86	76.31	9.67	-54.7	-57.6	13.1	0.00e+00	0	28	0	142606336	75	5062
2026-01-15 06:32:26.85	76.22	9.74	-54.7	-57.6	13.2	0.00e+00	0	28	0	144703488	75	5054
2026-01-15 06:32:27.86	76.12	9.82	-54.6	-57.3	13.3	0.00e+00	0	28	0	145752064	75	4900
2026-01-15 06:32:28.86	76.02	9.89	-54.6	-57.4	13.3	0.00e+00	0	28	0	147849216	75	4934
2026-01-15 06:32:29.86	75.92	9.96	-54.6	-57.3	13.3	0.00e+00	0	28	0	149946368	75	4874
2026-01-15 06:32:30.86	75.82	10.03	-54.7	-57.5	13.2	0.00e+00	0	27	0	152043520	75	4995
2026-01-15 06:32:31.86	75.72	10.10	-54.8	-57.6	13.1	0.00e+00	0	28	0	154140672	75	5079
2026-01-15 06:32:32.86	75.62	10.18	-54.6	-57.4	13.3	0.00e+00	0	27	0	155189248	75	4934
2026-01-15 06:32:33.87	75.51	10.25	-54.6	-57.4	13.3	0.00e+00	0	28	0	157286400	75	4942
2026-01-15 06:32:34.87	75.41	10.32	-54.6	-57.4	13.3	0.00e+00	0	28	0	159383552	75	4963
2026-01-15 06:32:35.88	75.31	10.40	-54.7	-57.6	13.2	0.00e+00	0	28	0	161480704	75	5048
2026-01-15 06:32:36.88	75.20	10.47	-54.8	-57.6	13.2	0.00e+00	0	28	0	163577856	75	5075
2026-01-15 06:32:37.88	75.10	10.54	-54.6	-57.3	13.4	0.00e+00	0	28	0	164626432	75	4890
2026-01-15 06:32:38.89	75.00	10.61	-54.7	-57.4	13.3	0.00e+00	0	28	0	166723584	75	4969
2026-01-15 06:32:39.90	74.89	10.69	-54.6	-57.4	13.3	0.00e+00	0	28	0	168820736	75	4934
2026-01-15 06:32:40.90	74.78	10.76	-54.6	-57.4	13.3	0.00e+00	0	28	0	170917888	75	4934
2026-01-15 06:32:41.89	74.68	10.83	-54.6	-57.2	13.4	0.00e+00	0	28	0	173015040	75	4849
2026-01-15 06:32:42.89	74.57	10.91	-54.5	-57.2	13.4	0.00e+00	0	28	0	174063616	75	4824
2026-01-15 06:32:43.90	74.46	10.98	-54.5	-57.2	13.4	0.00e+00	0	27	0	176160768	75	4855
2026-01-15 06:32:44.90	74.36	11.06	-54.4	-56.9	13.5	0.00e+00	0	28	0	178257920	75	4697
2026-01-15 06:32:45.89	74.25	11.13	-54.5	-57.1	13.5	0.00e+00	0	28	0	180355072	75	4760
2026-01-15 06:32:46.89	74.14	11.20	-54.4	-57.0	13.5	0.00e+00	0	28	0	181403648	75	4716
2026-01-15 06:32:47.88	74.03	11.28	-54.3	-56.9	13.6	0.00e+00	0	28	0	183500800	75	4652
2026-01-15 06:32:48.88	73.92	11.35	-54.3	-56.9	13.6	0.00e+00	0	28	0	185597952	75	4665
2026-01-15 06:32:49.89	73.81	11.43	-54.4	-56.9	13.6	0.00e+00	0	28	0	187695104	75	4683
2026-01-15 06:32:50.89	73.70	11.50	-54.4	-56.9	13.6	0.00e+00	0	28	0	189792256	75	4688
2026-01-15 06:32:51.89	73.59	11.58	-54.2	-56.7	13.7	0.00e+00	0	28	0	190840832	75	4593
2026-01-15 06:32:52.89	73.48	11.65	-54.3	-56.9	13.6	0.00e+00	0	28	0	192937984	75	4664
2026-01-15 06:32:53.89	73.36	11.72	-54.4	-56.9	13.6	0.00e+00	0	28	0	195035136	75	4699
2026-01-15 06:32:54.89	73.25	11.80	-54.3	-56.8	13.6	0.00e+00	0	28	0	197132288	75	4650
2026-01-15 06:32:55.88	73.14	11.87	-54.3	-56.8	13.6	0.00e+00	0	28	0	199229440	75	4649
2026-01-15 06:32:56.89	73.02	11.95	-54.3	-56.9	13.6	0.00e+00	0	28	0	200278016	75	4669
2026-01-15 06:32:57.88	72.91	12.02	-54.4	-56.9	13.6	0.00e+00	0	28	0	202375168	75	4696
2026-01-15 06:32:58.88	72.79	12.10	-54.4	-56.9	13.6	0.00e+00	0	28	0	204472320	75	4700
2026-01-15 06:32:59.89	72.68	12.18	-54.3	-56.8	13.6	0.00e+00	0	28	0	206569472	75	4649
2026-01-15 06:33:00.89	72.56	12.25	-54.3	-56.9	13.6	0.00e+00	0	28	0	208666624	75	4676
2026-01-15 06:33:01.89	72.44	12.33	-54.5	-57.2	13.5	0.00e+00	0	28	0	209715200	75	4815
2026-01-15 06:33:02.90	72.32	12.40	-54.6	-57.2	13.4	0.00e+00	0	28	0	211812352	75	4867
2026-01-15 06:33:03.89	72.20	12.48	-54.6	-57.2	13.4	0.00e+00	0	28	0	213909504	75	4849
2026-01-15 06:33:04.89	72.08	12.56	-54.6	-57.3	13.4	0.00e+00	0	28	0	216006656	75	4883
2026-01-15 06:33:05.89	71.96	12.63	-54.5	-57.0	13.6	0.00e+00	0	28	0	217055232	75	4745
2026-01-15 06:33:06.89	71.84	12.71	-54.4	-56.9	13.6	0.00e+00	0	28	0	219152384	75	4687
2026-01-15 06:33:07.89	71.72	12.78	-54.3	-56.7	13.7	0.00e+00	0	28	0	221249536	75	4590
2026-01-15 06:33:08.89	71.60	12.86	-54.3	-56.8	13.7	0.00e+00	0	28	0	223346688	75	4607
2026-01-15 06:33:09.89	71.48	12.94	-54.2	-56.6	13.8	0.00e+00	0	28	0	225443840	75	4541
2026-01-15 06:33:10.89	71.35	13.01	-54.2	-56.6	13.8	0.00e+00	0	28	0	226492416	75	4531
2026-01-15 06:33:11.88	71.23	13.09	-54.2	-56.6	13.8	0.00e+00	0	28	0	228589568	75	4525
2026-01-15 06:33:12.89	71.11	13.17	-54.2	-56.6	13.8	0.00e+00	0	28	0	230686720	75	4538
2026-01-15 06:33:13.89	70.98	13.25	-54.1	-56.5	13.7	0.00e+00	0	28	0	232783872	74	4754
2026-01-15 06:33:14.89	70.85	13.32	-53.9	-56.2	13.9	0.00e+00	0	28	0	234881024	74	4582
2026-01-15 06:33:15.89	70.73	13.40	-54.1	-56.4	13.8	0.00e+00	0	28	0	235929600	74	4685
2026-01-15 06:33:16.89	70.60	13.48	-53.9	-56.2	13.9	0.00e+00	0	28	0	238026752	74	4592
2026-01-15 06:33:17.89	70.47	13.56	-54.0	-56.4	13.8	0.00e+00	0	28	0	240123904	74	4664
2026-01-15 06:33:18.88	70.35	13.63	-54.1	-56.5	13.7	0.00e+00	0	28	0	242221056	74	4735
2026-01-15 06:33:19.87	70.22	13.71	-54.0	-56.3	13.8	0.00e+00	0	28	0	243269632	74	4651
2026-01-15 06:33:20.87	70.09	13.79	-54.0	-56.4	13.8	0.00e+00	0	28	0	245366784	74	4676
2026-01-15 06:33:21.87	69.96	13.86	-54.0	-56.3	13.8	0.00e+00	0	28	0	247463936	74	4629
2026-01-15 06:33:22.86	69.83	13.94	-53.9	-56.3	13.9	0.00e+00	0	28	0	249561088	74	4600
2026-01-15 06:33:23.85	69.70	14.02	-53.9	-56.2	13.9	0.00e+00	0	28	0	251658240	74	4580
2026-01-15 06:33:24.85	69.56	14.10	-54.0	-56.3	13.8	0.00e+00	0	28	0	252706816	74	4637
2026-01-15 06:33:25.85	69.43	14.18	-54.0	-56.3	13.9	0.00e+00	0	28	0	254803968	74	4616
2026-01-15 06:33:26.84	69.30	14.25	-53.9	-56.2	13.9	0.00e+00	0	28	0	256901120	74	4575
2026-01-15 06:33:27.84	69.16	14.33	-54.0	-56.3	13.9	0.00e+00	0	28	0	258998272	74	4610
2026-01-15 06:33:28.84	69.03	14.41	-53.8	-56.0	14.0	0.00e+00	0	28	0	261095424	74	4482
2026-01-15 06:33:29.83	68.89	14.49	-53.8	-56.0	14.0	0.00e+00	0	28	0	262144000	74	4491
2026-01-15 06:33:30.83	68.75	14.57	-53.8	-56.0	14.0	0.00e+00	0	28	0	264241152	74	4466
2026-01-15 06:33:31.83	68.61	14.65	-53.8	-56.0	14.0	0.00e+00	0	28	0	266338304	74	4469
2026-01-15 06:33:32.83	68.48	14.72	-53.7	-55.9	14.0	0.00e+00	0	28	0	268435456	74	4428
2026-01-15 06:33:33.82	68.34	14.80	-53.7	-55.9	14.0	0.00e+00	0	28	0	269484032	73	4669
2026-01-15 06:33:34.82	68.20	14.88	-53.7	-55.9	14.0	0.00e+00	0	28	0	271581184	73	4704
2026-01-15 06:33:35.82	68.06	14.96	-53.7	-56.0	13.9	0.00e+00	0	28	0	273678336	73	4711
2026-01-15 06:33:36.82	67.92	15.04	-53.7	-55.9	13.9	0.00e+00	0	28	0	275775488	73	4694
2026-01-15 06:33:37.82	67.77	15.12	-53.8	-56.0	14.0	0.00e+00	0	28	0	277872640	73	4715
2026-01-15 06:33:38.82	67.63	15.20	-53.7	-55.9	13.9	0.00e+00	0	28	0	278921216	73	4691
2026-01-15 06:33:39.82	67.49	15.28	-53.8	-56.0	13.9	0.00e+00	0	28	0	281018368	73	4722
2026-01-15 06:33:40.82	67.34	15.36	-53.8	-56.0	13.9	0.00e+00	0	28	0	283115520	73	4739
2026-01-15 06:33:41.83	67.19	15.44	-53.8	-56.1	13.9	0.00e+00	0	28	0	285212672	73	4775
2026-01-15 06:33:42.82	67.05	15.52	-53.8	-56.0	13.9	0.00e+00	0	28	0	286261248	73	4715
2026-01-15 06:33:43.82	66.90	15.60	-53.7	-55.9	14.0	0.00e+00	0	28	0	288358400	73	4688
2026-01-15 06:33:44.83	66.75	15.68	-53.8	-56.1	13.9	0.00e+00	0	28	0	290455552	73	4792
2026-01-15 06:33:45.83	66.60	15.76	-53.8	-56.0	13.9	0.00e+00	0	28	0	292552704	73	4733
2026-01-15 06:33:46.83	66.45	15.84	-53.8	-56.1	13.9	0.00e+00	0	28	0	294649856	73	4784
2026-01-15 06:33:47.83	66.30	15.92	-53.7	-55.9	13.9	0.00e+00	0	28	0	295698432	73	4703
2026-01-15 06:33:48.83	66.15	16.00	-53.5	-55.7	14.1	0.00e+00	0	28	0	297795584	73	4561
2026-01-15 06:33:49.82	66.00	16.08	-53.6	-55.8	14.0	0.00e+00	0	28	0	299892736	73	4634
2026-01-15 06:33:50.82	65.85	16.16	-53.6	-55.8	14.0	0.00e+00	0	28	0	301989888	73	4630
2026-01-15 06:33:51.82	65.69	16.24	-53.6	-55.8	14.1	0.00e+00	0	28	0	304087040	73	4601
2026-01-15 06:33:52.82	65.54	16.32	-53.6	-55.8	14.0	0.00e+00	0	28	0	305135616	73	4626
2026-01-15 06:33:53.82	65.38	16.40	-53.6	-55.8	14.1	0.00e+00	0	28	0	307232768	73	4599
2026-01-15 06:33:54.82	65.23	16.48	-53.6	-55.8	14.0	0.00e+00	0	28	0	309329920	73	4623
2026-01-15 06:33:55.82	65.07	16.56	-53.6	-55.8	14.0	0.00e+00	0	28	0	311427072	73	4619
2026-01-15 06:33:56.83	64.91	16.64	-53.7	-55.9	14.0	0.00e+00	0	28	0	312475648	73	4657
2026-01-15 06:33:57.82	64.75	16.72	-53.7	-55.8	14.0	0.00e+00	0	28	0	314572800	73	4649
2026-01-15 06:33:58.82	64.59	16.80	-53.7	-55.9	14.0	0.00e+00	0	28	0	316669952	73	4657
2026-01-15 06:33:59.82	64.43	16.88	-53.8	-56.0	13.9	0.00e+00	0	28	0	318767104	73	4724
2026-01-15 06:34:00.82	64.27	16.96	-53.7	-55.9	14.0	0.00e+00	0	28	0	320864256	73	4701
2026-01-15 06:34:01.82	64.11	17.04	-53.8	-55.9	14.0	0.00e+00	0	28	0	321912832	73	4700
2026-01-15 06:34:02.82	63.95	17.12	-53.8	-56.1	13.9	0.00e+00	0	28	0	324009984	73	4776
2026-01-15 06:34:03.82	63.78	17.20	-53.9	-56.1	13.9	0.00e+00	0	28	0	326107136	73	4785
2026-01-15 06:34:04.82	63.62	17.28	-53.8	-56.1	13.9	0.00e+00	0	28	0	328204288	73	4771
2026-01-15 06:34:05.82	63.45	17.37	-53.8	-56.1	13.9	0.00e+00	0	28	0	330301440	73	4768
2026-01-15 06:34:06.82	63.28	17.45	-53.9	-56.1	13.9	0.00e+00	0	28	0	331350016	73	4809
2026-01-15 06:34:07.82	63.12	17.53	-53.9	-56.1	13.9	0.00e+00	0	28	0	333447168	73	4811
2026-01-15 06:34:08.82	62.95	17.61	-53.9	-56.1	13.9	0.00e+00	0	28	0	335544320	73	4798
2026-01-15 06:34:09.82	62.78	17.69	-54.0	-56.2	13.8	0.00e+00	0	28	0	337641472	73	4864
2026-01-15 06:34:10.81	62.61	17.77	-53.9	-56.1	13.9	0.00e+00	0	28	0	339738624	73	4790
2026-01-15 06:34:11.81	62.44	17.85	-53.9	-56.1	13.9	0.00e+00	0	28	0	340787200	73	4798
2026-01-15 06:34:12.80	62.27	17.93	-53.9	-56.2	13.8	0.00e+00	0	28	0	342884352	73	4815
2026-01-15 06:34:13.79	62.10	18.01	-53.9	-56.2	13.9	0.00e+00	0	28	0	344981504	73	4821
2026-01-15 06:34:14.80	61.92	18.09	-53.9	-56.1	13.9	0.00e+00	0	28	0	347078656	73	4797
2026-01-15 06:34:15.80	61.75	18.17	-53.7	-55.9	14.0	0.00e+00	0	28	0	348127232	73	4687
2026-01-15 06:34:16.79	61.57	18.25	-53.7	-55.9	14.0	0.00e+00	0	28	0	350224384	73	4689
2026-01-15 06:34:17.78	61.40	18.33	-53.8	-56.0	14.0	0.00e+00	0	28	0	352321536	73	4706
2026-01-15 06:34:18.77	61.22	18.41	-53.7	-55.9	14.0	0.00e+00	0	28	0	354418688	73	4679
2026-01-15 06:34:19.77	61.04	18.49	-53.8	-55.9	14.0	0.00e+00	0	28	0	356515840	73	4700
2026-01-15 06:34:20.77	60.86	18.57	-53.8	-55.9	14.0	0.00e+00	0	28	0	357564416	73	4695
2026-01-15 06:34:21.76	60.68	18.65	-53.8	-56.0	14.0	0.00e+00	0	28	0	359661568	73	4721
2026-01-15 06:34:22.76	60.50	18.73	-53.9	-56.1	13.9	0.00e+00	0	28	0	361758720	73	4809
2026-01-15 06:34:23.77	60.32	18.81	-53.9	-56.2	13.9	0.00e+00	0	28	0	363855872	73	4819
2026-01-15 06:34:24.76	60.13	18.89	-54.0	-56.3	13.8	0.00e+00	0	28	0	364904448	73	4885
2026-01-15 06:34:25.76	59.95	18.97	-54.1	-56.4	13.8	0.00e+00	0	28	0	367001600	73	4940
2026-01-15 06:34:26.76	59.76	19.05	-54.0	-56.3	13.8	0.00e+00	0	28	0	369098752	73	4897
2026-01-15 06:34:27.76	59.58	19.13	-54.0	-56.3	13.8	0.00e+00	0	28	0	371195904	73	4919
2026-01-15 06:34:28.76	59.39	19.21	-54.0	-56.2	13.8	0.00e+00	0	28	0	373293056	73	4860
2026-01-15 06:34:29.75	59.20	19.29	-53.9	-56.2	13.9	0.00e+00	0	28	0	374341632	73	4839
2026-01-15 06:34:30.75	59.01	19.37	-53.8	-56.0	14.0	0.00e+00	0	28	0	376438784	73	4741
2026-01-15 06:34:31.75	58.82	19.45	-53.6	-55.8	14.1	0.00e+00	0	28	0	378535936	73	4603
2026-01-15 06:34:32.76	58.63	19.53	-53.6	-55.8	14.1	0.00e+00	0	28	0	380633088	73	4599
2026-01-15 06:34:33.75	58.44	19.61	-53.6	-55.7	14.1	0.00e+00	0	28	0	382730240	73	4574
2026-01-15 06:34:34.74	58.25	19.69	-53.6	-55.7	14.1	0.00e+00	0	28	0	383778816	73	4588
2026-01-15 06:34:35.73	58.05	19.77	-53.5	-55.6	14.2	0.00e+00	0	28	0	385875968	73	4504
2026-01-15 06:34:36.73	57.86	19.85	-53.5	-55.5	14.2	0.00e+00	0	28	0	387973120	73	4478
2026-01-15 06:34:37.72	57.66	19.93	-53.5	-55.6	14.2	0.00e+00	0	28	0	390070272	73	4500
2026-01-15 06:34:38.72	57.46	20.01	-53.5	-55.5	14.2	0.00e+00	0	28	0	391118848	73	4490
2026-01-15 06:34:39.72	57.27	20.09	-53.4	-55.4	14.3	0.00e+00	0	28	0	393216000	73	4434
2026-01-15 06:34:40.71	57.07	20.17	-53.3	-55.3	14.3	0.00e+00	0	28	0	395313152	73	4366
2026-01-15 06:34:41.70	56.87	20.24	-53.4	-55.4	14.3	0.00e+00	0	28	0	397410304	73	4427
2026-01-15 06:34:42.69	56.67	20.32	-53.4	-55.4	14.2	0.00e+00	0	28	0	399507456	73	4424
2026-01-15 06:34:43.69	56.47	20.40	-53.3	-55.3	14.3	0.00e+00	0	28	0	400556032	73	4375
2026-01-15 06:34:44.69	56.26	20.48	-53.3	-55.2	14.3	0.00e+00	0	28	0	402653184	73	4333
2026-01-15 06:34:45.69	56.06	20.56	-53.1	-55.0	14.3	0.00e+00	0	28	0	404750336	72	4463
2026-01-15 06:34:46.68	55.85	20.64	-53.0	-54.9	14.4	0.00e+00	0	28	0	406847488	72	4420
2026-01-15 06:34:47.68	55.64	20.71	-53.0	-55.0	14.3	0.00e+00	0	28	0	408944640	72	4448
2026-01-15 06:34:48.68	55.44	20.79	-53.0	-54.9	14.4	0.00e+00	0	28	0	409993216	72	4395
2026-01-15 06:34:49.68	55.23	20.87	-52.9	-54.8	14.4	0.00e+00	0	28	0	412090368	72	4383
2026-01-15 06:34:50.68	55.02	20.95	-52.9	-54.8	14.4	0.00e+00	0	28	0	414187520	72	4374
2026-01-15 06:34:51.67	54.81	21.02	-52.8	-54.7	14.5	0.00e+00	0	28	0	416284672	72	4328
2026-01-15 06:34:52.67	54.59	21.10	-52.8	-54.6	14.5	0.00e+00	0	28	0	417333248	72	4260
2026-01-15 06:34:53.66	54.38	21.18	-52.8	-54.7	14.5	0.00e+00	0	28	0	419430400	72	4297
2026-01-15 06:34:54.66	54.17	21.26	-52.6	-54.5	14.5	0.00e+00	0	28	0	421527552	71	4453
2026-01-15 06:34:55.66	53.95	21.33	-52.4	-54.2	14.6	0.00e+00	0	28	0	423624704	71	4320
2026-01-15 06:34:56.65	53.74	21.41	-52.4	-54.1	14.6	0.00e+00	0	28	0	425721856	71	4282
2026-01-15 06:34:57.65	53.52	21.48	-52.4	-54.1	14.6	0.00e+00	0	28	0	426770432	71	4286
2026-01-15 06:34:58.65	53.30	21.56	-52.3	-54.1	14.6	0.00e+00	0	28	0	428867584	71	4256
2026-01-15 06:34:59.65	53.08	21.64	-52.1	-53.8	14.6	0.00e+00	0	28	0	430964736	70	4382
2026-01-15 06:35:00.65	52.86	21.71	-52.1	-53.8	14.6	0.00e+00	0	28	0	433061888	70	4369
2026-01-15 06:35:01.65	52.64	21.79	-52.2	-53.9	14.6	0.00e+00	0	28	0	434110464	70	4396
2026-01-15 06:35:02.65	52.41	21.86	-52.1	-53.8	14.6	0.00e+00	0	28	0	436207616	70	4363
2026-01-15 06:35:03.64	52.19	21.94	-52.1	-53.9	14.6	0.00e+00	0	28	0	438304768	70	4393
2026-01-15 06:35:04.64	51.97	22.01	-52.2	-53.9	14.6	0.00e+00	0	28	0	440401920	70	4400
2026-01-15 06:35:05.64	51.74	22.09	-52.3	-54.0	14.6	0.00e+00	0	28	0	442499072	70	4458
2026-01-15 06:35:06.63	51.51	22.16	-52.3	-54.0	14.6	0.00e+00	0	28	0	443547648	70	4461
2026-01-15 06:35:07.63	51.28	22.23	-52.2	-53.9	14.6	0.00e+00	0	28	0	445644800	70	4402
2026-01-15 06:35:08.62	51.06	22.31	-52.2	-53.9	14.6	0.00e+00	0	28	0	447741952	70	4410
2026-01-15 06:35:09.62	50.83	22.38	-52.3	-54.0	14.6	0.00e+00	0	28	0	449839104	70	4466
2026-01-15 06:35:10.61	50.60	22.45	-52.4	-54.1	14.5	0.00e+00	0	28	0	450887680	70	4526
2026-01-15 06:35:11.60	50.36	22.52	-52.2	-53.9	14.6	0.00e+00	0	28	0	452984832	70	4441
2026-01-15 06:35:12.59	50.13	22.60	-52.1	-53.8	14.6	0.00e+00	0	28	0	455081984	70	4363
2026-01-15 06:35:13.59	49.90	22.67	-52.2	-53.9	14.6	0.00e+00	0	28	0	457179136	70	4394
2026-01-15 06:35:14.58	49.66	22.74	-52.1	-53.8	14.6	0.00e+00	0	28	0	459276288	70	4388
2026-01-15 06:35:15.58	49.43	22.81	-52.2	-53.9	14.6	0.00e+00	0	28	0	460324864	70	4401
2026-01-15 06:35:16.57	49.19	22.88	-52.1	-53.8	14.6	0.00e+00	0	28	0	462422016	70	4370
2026-01-15 06:35:17.57	48.95	22.95	-52.2	-53.9	14.6	0.00e+00	0	28	0	464519168	70	4399
2026-01-15 06:35:18.56	48.71	23.02	-52.1	-53.9	14.6	0.00e+00	0	28	0	466616320	70	4394
2026-01-15 06:35:19.54	48.47	23.09	-52.1	-53.8	14.6	0.00e+00	0	28	0	467664896	70	4375
2026-01-15 06:35:20.53	48.23	23.16	-52.0	-53.6	14.7	0.00e+00	0	28	0	469762048	70	4287
2026-01-15 06:35:21.53	47.99	23.23	-52.0	-53.6	14.7	0.00e+00	0	28	0	471859200	70	4268
2026-01-15 06:35:22.52	47.75	23.30	-52.0	-53.7	14.7	0.00e+00	0	28	0	473956352	70	4316
2026-01-15 06:35:23.51	47.50	23.36	-52.1	-53.7	14.7	0.00e+00	0	28	0	476053504	70	4339
2026-01-15 06:35:24.51	47.25	23.43	-52.3	-54.0	14.6	0.00e+00	0	28	0	477102080	70	4462
2026-01-15 06:35:25.51	47.01	23.50	-52.3	-54.1	14.5	0.00e+00	0	28	0	479199232	70	4506
2026-01-15 06:35:26.50	46.76	23.57	-52.3	-54.0	14.6	0.00e+00	0	28	0	481296384	70	4466
2026-01-15 06:35:27.50	46.51	23.63	-52.4	-54.1	14.5	0.00e+00	0	28	0	483393536	70	4527
2026-01-15 06:35:28.49	46.26	23.70	-52.3	-54.1	14.5	0.00e+00	0	28	0	484442112	70	4513
2026-01-15 06:35:29.48	46.01	23.77	-52.4	-54.1	14.5	0.00e+00	0	28	0	486539264	70	4545
2026-01-15 06:35:30.48	45.75	23.83	-52.4	-54.2	14.5	0.00e+00	0	28	0	488636416	70	4577
2026-01-15 06:35:31.47	45.50	23.90	-52.4	-54.2	14.5	0.00e+00	0	28	0	490733568	70	4567
2026-01-15 06:35:32.47	45.25	23.96	-52.3	-54.1	14.5	0.00e+00	0	28	0	492830720	70	4502
2026-01-15 06:35:33.48	44.99	24.03	-52.4	-54.1	14.5	0.00e+00	0	28	0	493879296	70	4538
2026-01-15 06:35:34.48	44.73	24.09	-52.5	-54.3	14.4	0.00e+00	0	28	0	495976448	70	4634
2026-01-15 06:35:35.47	44.47	24.15	-52.5	-54.3	14.5	0.00e+00	0	28	0	498073600	70	4602
2026-01-15 06:35:36.47	44.21	24.21	-52.2	-54.0	14.6	0.00e+00	0	28	0	500170752	70	4448
2026-01-15 06:35:37.47	43.95	24.28	-52.2	-53.8	14.6	0.00e+00	0	28	0	501219328	70	4390
2026-01-15 06:35:38.46	43.69	24.34	-52.3	-54.0	14.6	0.00e+00	0	28	0	503316480	70	4458
2026-01-15 06:35:39.47	43.43	24.40	-52.2	-53.9	14.6	0.00e+00	0	28	0	505413632	70	4399
2026-01-15 06:35:40.46	43.16	24.46	-52.2	-53.9	14.6	0.00e+00	0	28	0	507510784	70	4438
2026-01-15 06:35:41.47	42.90	24.52	-52.1	-53.8	14.6	0.00e+00	0	28	0	509607936	70	4382
2026-01-15 06:35:42.47	42.63	24.58	-52.1	-53.7	14.7	0.00e+00	0	28	0	510656512	70	4325
2026-01-15 06:35:43.47	42.36	24.64	-52.1	-53.8	14.7	0.00e+00	0	28	0	512753664	70	4356
2026-01-15 06:35:44.47	42.09	24.70	-52.1	-53.8	14.7	0.00e+00	0	28	0	514850816	70	4367
2026-01-15 06:35:45.47	41.82	24.76	-52.1	-53.8	14.6	0.00e+00	0	28	0	516947968	70	4375
2026-01-15 06:35:46.46	41.56	24.81	-52.1	-53.8	14.7	0.00e+00	0	28	0	519045120	70	4352
2026-01-15 06:35:47.45	41.29	24.87	-52.1	-53.8	14.6	0.00e+00	0	28	0	520093696	70	4374
2026-01-15 06:35:48.46	41.01	24.93	-52.0	-53.6	14.7	0.00e+00	0	28	0	522190848	70	4277
2026-01-15 06:35:49.46	40.74	24.98	-52.0	-53.6	14.7	0.00e+00	0	28	0	524288000	70	4271
2026-01-15 06:35:50.45	40.47	25.04	-52.0	-53.6	14.7	0.00e+00	0	28	0	526385152	70	4271
2026-01-15 06:35:51.45	40.19	25.09	-51.9	-53.5	14.8	0.00e+00	0	28	0	528482304	70	4215
2026-01-15 06:35:52.44	39.92	25.15	-51.8	-53.4	14.8	0.00e+00	0	28	0	529530880	70	4161
2026-01-15 06:35:53.44	39.64	25.20	-51.8	-53.4	14.8	0.00e+00	0	28	0	531628032	70	4178
2026-01-15 06:35:54.44	39.36	25.25	-51.7	-53.3	14.9	0.00e+00	0	28	0	533725184	70	4143
2026-01-15 06:35:55.44	39.08	25.30	-51.8	-53.4	14.8	0.00e+00	0	28	0	535822336	70	4190
2026-01-15 06:35:56.43	38.81	25.36	-52.0	-53.6	14.7	0.00e+00	0	28	0	536870912	70	4269
2026-01-15 06:35:57.44	38.52	25.41	-52.0	-53.7	14.7	0.00e+00	0	28	0	538968064	70	4311
2026-01-15 06:35:58.43	38.24	25.46	-52.1	-53.8	14.7	0.00e+00	0	28	0	541065216	70	4343
2026-01-15 06:35:59.43	37.96	25.51	-52.1	-53.8	14.6	0.00e+00	0	28	0	543162368	70	4378
2026-01-15 06:36:00.43	37.68	25.55	-52.3	-54.0	14.6	0.00e+00	0	28	0	545259520	70	4471
2026-01-15 06:36:01.42	37.40	25.60	-52.3	-54.1	14.6	0.00e+00	0	28	0	546308096	70	4510
2026-01-15 06:36:02.42	37.11	25.65	-52.5	-54.2	14.5	0.00e+00	0	28	0	548405248	70	4577
2026-01-15 06:36:03.42	36.83	25.70	-52.4	-54.1	14.5	0.00e+00	0	28	0	550502400	70	4528
2026-01-15 06:36:04.42	36.54	25.74	-52.5	-54.3	14.4	0.00e+00	0	28	0	552599552	70	4631
2026-01-15 06:36:05.42	36.25	25.79	-52.6	-54.4	14.4	0.00e+00	0	28	0	553648128	70	4698
2026-01-15 06:36:06.42	35.96	25.83	-52.7	-54.5	14.4	0.00e+00	0	28	0	555745280	70	4716
2026-01-15 06:36:07.41	35.68	25.88	-52.7	-54.5	14.4	0.00e+00	0	28	0	557842432	70	4718
2026-01-15 06:36:08.41	35.39	25.92	-52.7	-54.6	14.4	0.00e+00	0	28	0	559939584	70	4766
2026-01-15 06:36:09.41	35.09	25.96	-52.8	-54.6	14.3	0.00e+00	0	28	0	562036736	70	4787
2026-01-15 06:36:10.41	34.80	26.00	-53.0	-54.9	14.3	0.00e+00	0	28	0	563085312	71	4682
2026-01-15 06:36:11.41	34.51	26.04	-53.2	-55.2	14.1	0.00e+00	0	28	0	565182464	71	4840
2026-01-15 06:36:12.41	34.22	26.08	-53.2	-55.2	14.2	0.00e+00	0	28	0	567279616	71	4823
2026-01-15 06:36:13.40	33.93	26.12	-53.2	-55.2	14.2	0.00e+00	0	28	0	569376768	71	4815
2026-01-15 06:36:14.40	33.63	26.16	-53.1	-55.0	14.2	0.00e+00	0	28	0	571473920	71	4757
2026-01-15 06:36:15.39	33.34	26.20	-53.1	-55.0	14.3	0.00e+00	0	28	0	572522496	71	4734
2026-01-15 06:36:16.39	33.04	26.24	-53.2	-55.1	14.2	0.00e+00	0	28	0	574619648	71	4799
2026-01-15 06:36:17.39	32.75	26.27	-53.2	-55.2	14.2	0.00e+00	0	28	0	576716800	71	4836
2026-01-15 06:36:18.39	32.45	26.31	-53.3	-55.3	14.1	0.00e+00	0	28	0	578813952	71	4878
2026-01-15 06:36:19.38	32.15	26.34	-53.3	-55.3	14.2	0.00e+00	0	28	0	579862528	71	4880
2026-01-15 06:36:20.38	31.85	26.38	-53.3	-55.2	14.2	0.00e+00	0	28	0	581959680	71	4850
2026-01-15 06:36:21.38	31.55	26.41	-53.4	-55.4	14.1	0.00e+00	0	28	0	584056832	71	4930
2026-01-15 06:36:22.39	31.25	26.44	-53.5	-55.5	14.1	0.00e+00	0	28	0	586153984	72	4726
2026-01-15 06:36:23.38	30.95	26.47	-53.6	-55.7	14.0	0.00e+00	0	28	0	588251136	72	4837
2026-01-15 06:36:24.37	30.66	26.50	-53.5	-55.5	14.1	0.00e+00	0	28	0	589299712	72	4743
2026-01-15 06:36:25.37	30.35	26.53	-53.5	-55.5	14.1	0.00e+00	0	28	0	591396864	72	4736
2026-01-15 06:36:26.37	30.05	26.56	-53.5	-55.5	14.2	0.00e+00	0	28	0	593494016	72	4757
2026-01-15 06:36:27.37	29.75	26.59	-53.5	-55.5	14.1	0.00e+00	0	28	0	595591168	72	4759
2026-01-15 06:36:28.36	29.45	26.61	-53.7	-55.8	14.0	0.00e+00	0	28	0	596639744	72	4882
2026-01-15 06:36:29.36	29.14	26.64	-53.7	-55.7	14.0	0.00e+00	0	28	0	598736896	72	4864
2026-01-15 06:36:30.35	28.84	26.67	-53.5	-55.6	14.1	0.00e+00	0	28	0	600834048	72	4771
2026-01-15 06:36:31.35	28.54	26.69	-53.5	-55.5	14.1	0.00e+00	0	28	0	602931200	72	4738
2026-01-15 06:36:32.34	28.24	26.71	-53.6	-55.6	14.1	0.00e+00	0	28	0	605028352	72	4802
2026-01-15 06:36:33.34	27.93	26.74	-53.8	-55.9	14.0	0.00e+00	0	28	0	606076928	72	4943
2026-01-15 06:36:34.34	27.62	26.76	-54.0	-56.1	13.9	0.00e+00	0	28	0	608174080	73	4801
2026-01-15 06:36:35.34	27.32	26.78	-53.9	-56.1	14.0	0.00e+00	0	28	0	610271232	73	4786
2026-01-15 06:36:36.35	27.01	26.80	-53.9	-56.0	14.0	0.00e+00	0	28	0	612368384	73	4758
2026-01-15 06:36:37.35	26.70	26.82	-53.8	-55.9	14.1	0.00e+00	0	28	0	614465536	73	4692
2026-01-15 06:36:38.35	26.39	26.84	-53.9	-56.0	14.0	0.00e+00	0	28	0	615514112	73	4753
2026-01-15 06:36:39.35	26.08	26.85	-54.0	-56.1	14.0	0.00e+00	0	28	0	617611264	73	4808
2026-01-15 06:36:40.35	25.77	26.87	-54.0	-56.2	13.9	0.00e+00	0	28	0	619708416	73	4865
2026-01-15 06:36:41.36	25.46	26.89	-54.1	-56.3	13.9	0.00e+00	0	28	0	621805568	73	4911
2026-01-15 06:36:42.35	25.16	26.90	-54.0	-56.2	14.0	0.00e+00	0	28	0	623902720	73	4827
2026-01-15 06:36:43.35	24.85	26.91	-53.9	-56.1	14.0	0.00e+00	0	28	0	624951296	73	4765
2026-01-15 06:36:44.35	24.54	26.93	-54.1	-56.3	13.9	0.00e+00	0	28	0	627048448	73	4891
2026-01-15 06:36:45.35	24.23	26.94	-54.2	-56.5	13.8	0.00e+00	0	28	0	629145600	73	5000
2026-01-15 06:36:46.35	23.92	26.95	-54.3	-56.6	13.7	0.00e+00	0	28	0	631242752	73	5089
2026-01-15 06:36:47.36	23.60	26.96	-54.1	-56.3	13.9	0.00e+00	0	28	0	632291328	73	4902
2026-01-15 06:36:48.36	23.29	26.97	-53.8	-55.9	14.1	0.00e+00	0	28	0	634388480	73	4703
2026-01-15 06:36:49.35	22.99	26.98	-53.7	-55.7	14.2	0.00e+00	0	28	0	636485632	73	4596
2026-01-15 06:36:50.35	22.68	26.99	-53.7	-55.7	14.2	0.00e+00	0	28	0	638582784	73	4575
2026-01-15 06:36:51.34	22.37	26.99	-53.7	-55.8	14.1	0.00e+00	0	28	0	640679936	73	4629
2026-01-15 06:36:52.34	22.06	27.00	-53.7	-55.8	14.1	0.00e+00	0	28	0	641728512	73	4620
2026-01-15 06:36:53.34	21.75	27.00	-53.5	-55.5	14.3	0.00e+00	0	28	0	643825664	73	4475
2026-01-15 06:36:54.33	21.44	27.00	-53.4	-55.4	14.3	0.00e+00	0	28	0	645922816	73	4411
2026-01-15 06:36:55.33	21.13	27.01	-53.3	-55.3	14.4	0.00e+00	0	28	0	648019968	73	4358
2026-01-15 06:36:56.33	20.82	27.01	-53.4	-55.4	14.3	0.00e+00	0	28	0	649068544	73	4412
2026-01-15 06:36:57.33	20.50	27.01	-53.4	-55.3	14.4	0.00e+00	0	28	0	651165696	73	4368
2026-01-15 06:36:58.33	20.19	27.01	-53.3	-55.3	14.4	0.00e+00	0	28	0	653262848	73	4350
2026-01-15 06:36:59.33	19.88	27.01	-53.2	-55.1	14.5	0.00e+00	0	28	0	655360000	73	4270
2026-01-15 06:37:00.33	19.57	27.01	-53.1	-55.0	14.4	0.00e+00	0	28	0	657457152	72	4455
2026-01-15 06:37:01.33	19.26	27.00	-53.0	-54.9	14.4	0.00e+00	0	28	0	658505728	72	4406
2026-01-15 06:37:02.33	18.95	27.00	-53.0	-54.9	14.4	0.00e+00	0	28	0	660602880	72	4398
2026-01-15 06:37:03.33	18.64	26.99	-52.8	-54.6	14.6	0.00e+00	0	28	0	662700032	72	4279
2026-01-15 06:37:04.34	18.32	26.99	-52.8	-54.6	14.6	0.00e+00	0	28	0	664797184	72	4265
2026-01-15 06:37:05.34	18.01	26.98	-52.9	-54.7	14.5	0.00e+00	0	28	0	666894336	72	4303
2026-01-15 06:37:06.34	17.70	26.97	-52.9	-54.7	14.5	0.00e+00	0	28	0	667942912	72	4319
2026-01-15 06:37:07.33	17.39	26.97	-52.9	-54.8	14.5	0.00e+00	0	28	0	670040064	72	4355
2026-01-15 06:37:08.32	17.09	26.96	-52.9	-54.7	14.5	0.00e+00	0	28	0	672137216	72	4328
2026-01-15 06:37:09.32	16.78	26.95	-52.9	-54.8	14.5	0.00e+00	0	28	0	674234368	72	4351
2026-01-15 06:37:10.31	16.47	26.93	-52.9	-54.7	14.5	0.00e+00	0	28	0	675282944	72	4338
2026-01-15 06:37:11.32	16.16	26.92	-52.9	-54.7	14.5	0.00e+00	0	28	0	677380096	72	4335
2026-01-15 06:37:12.32	15.85	26.91	-52.8	-54.6	14.5	0.00e+00	0	28	0	679477248	72	4284
2026-01-15 06:37:13.31	15.54	26.89	-52.6	-54.3	14.6	0.00e+00	0	28	0	681574400	71	4374
2026-01-15 06:37:14.30	15.24	26.88	-52.5	-54.3	14.6	0.00e+00	0	28	0	683671552	71	4356
2026-01-15 06:37:15.30	14.93	26.86	-52.6	-54.4	14.5	0.00e+00	0	28	0	684720128	71	4394
2026-01-15 06:37:16.30	14.62	26.85	-52.3	-54.0	14.7	0.00e+00	0	28	0	686817280	71	4218
2026-01-15 06:37:17.30	14.31	26.83	-52.4	-54.1	14.7	0.00e+00	0	28	0	688914432	71	4250
2026-01-15 06:37:18.30	14.00	26.81	-52.4	-54.1	14.7	0.00e+00	0	28	0	691011584	71	4261
2026-01-15 06:37:19.29	13.70	26.79	-52.2	-53.9	14.7	0.00e+00	0	28	0	693108736	71	4163
2026-01-15 06:37:20.29	13.39	26.77	-52.2	-53.9	14.6	0.00e+00	0	28	0	694157312	70	4432
2026-01-15 06:37:21.29	13.09	26.75	-52.2	-53.9	14.6	0.00e+00	0	28	0	696254464	70	4415
2026-01-15 06:37:22.29	12.78	26.73	-52.3	-54.0	14.6	0.00e+00	0	28	0	698351616	70	4461
2026-01-15 06:37:23.29	12.48	26.70	-52.1	-53.8	14.7	0.00e+00	0	28	0	700448768	70	4361
2026-01-15 06:37:24.29	12.17	26.68	-52.1	-53.8	14.7	0.00e+00	0	28	0	702545920	70	4371
2026-01-15 06:37:25.29	11.87	26.65	-52.1	-53.7	14.7	0.00e+00	0	28	0	703594496	70	4329
2026-01-15 06:37:26.28	11.57	26.63	-52.1	-53.8	14.7	0.00e+00	0	28	0	705691648	70	4350
2026-01-15 06:37:27.28	11.26	26.60	-52.2	-53.8	14.6	0.00e+00	0	28	0	707788800	70	4390
2026-01-15 06:37:28.27	10.96	26.58	-52.2	-53.9	14.7	0.00e+00	0	28	0	709885952	70	4399
2026-01-15 06:37:29.27	10.66	26.55	-52.3	-54.1	14.6	0.00e+00	0	28	0	710934528	70	4497
2026-01-15 06:37:30.26	10.36	26.52	-52.4	-54.1	14.5	0.00e+00	0	28	0	713031680	70	4527
2026-01-15 06:37:31.26	10.06	26.49	-52.4	-54.1	14.5	0.00e+00	0	28	0	715128832	70	4544
2026-01-15 06:37:32.26	9.76	26.46	-52.4	-54.1	14.5	0.00e+00	0	28	0	717225984	70	4528
2026-01-15 06:37:33.26	9.46	26.43	-52.4	-54.1	14.6	0.00e+00	0	28	0	719323136	70	4505
2026-01-15 06:37:34.26	9.16	26.39	-52.4	-54.1	14.6	0.00e+00	0	28	0	720371712	70	4533
2026-01-15 06:37:35.25	8.86	26.36	-52.3	-54.0	14.6	0.00e+00	0	28	0	722468864	70	4463
2026-01-15 06:37:36.25	8.56	26.33	-52.3	-54.0	14.6	0.00e+00	0	28	0	724566016	70	4463
2026-01-15 06:37:37.25	8.27	26.29	-52.5	-54.2	14.5	0.00e+00	0	28	0	726663168	70	4590
2026-01-15 06:37:38.25	7.97	26.26	-52.5	-54.2	14.5	0.00e+00	0	28	0	727711744	70	4579
2026-01-15 06:37:39.25	7.67	26.22	-52.5	-54.3	14.5	0.00e+00	0	28	0	729808896	70	4627
2026-01-15 06:37:40.26	7.38	26.18	-52.6	-54.4	14.4	0.00e+00	0	28	0	731906048	70	4665
2026-01-15 06:37:41.26	7.08	26.14	-52.6	-54.4	14.4	0.00e+00	0	28	0	734003200	70	4667
2026-01-15 06:37:42.27	6.78	26.10	-52.6	-54.3	14.4	0.00e+00	0	28	0	736100352	70	4641
2026-01-15 06:37:43.27	6.49	26.06	-52.7	-54.5	14.4	0.00e+00	0	28	0	737148928	70	4745
2026-01-15 06:37:44.26	6.20	26.02	-52.9	-54.7	14.3	0.00e+00	0	28	0	739246080	70	4844
2026-01-15 06:37:45.27	5.91	25.98	-52.9	-54.8	14.4	0.00e+00	0	28	0	741343232	71	4616
2026-01-15 06:37:46.27	5.61	25.94	-53.0	-54.8	14.4	0.00e+00	0	28	0	743440384	71	4637
2026-01-15 06:37:47.27	5.32	25.90	-52.9	-54.8	14.4	0.00e+00	0	28	0	745537536	71	4603
2026-01-15 06:37:48.27	5.03	25.85	-53.1	-55.0	14.3	0.00e+00	0	28	0	746586112	71	4710
2026-01-15 06:37:49.27	4.75	25.81	-53.0	-54.9	14.3	0.00e+00	0	28	0	748683264	71	4683
2026-01-15 06:37:50.27	4.46	25.77	-53.1	-54.9	14.3	0.00e+00	0	28	0	750780416	71	4701
2026-01-15 06:37:51.27	4.17	25.72	-53.2	-55.0	14.3	0.00e+00	0	28	0	752877568	71	4759
2026-01-15 06:37:52.27	3.88	25.67	-53.2	-55.1	14.3	0.00e+00	0	28	0	754974720	71	4778
2026-01-15 06:37:53.27	3.60	25.63	-53.3	-55.2	14.2	0.00e+00	0	28	0	756023296	71	4858
2026-01-15 06:37:54.25	3.32	25.58	-53.4	-55.4	14.2	0.00e+00	0	28	0	758120448	72	4688
2026-01-15 06:37:55.25	3.04	25.53	-53.5	-55.6	14.1	0.00e+00	0	28	0	760217600	72	4771
2026-01-15 06:37:56.25	2.75	25.48	-53.6	-55.6	14.1	0.00e+00	0	28	0	762314752	72	4805
2026-01-15 06:37:57.26	2.47	25.43	-53.7	-55.8	14.0	0.00e+00	0	28	0	763363328	72	4902
2026-01-15 06:37:58.25	2.19	25.38	-53.6	-55.6	14.1	0.00e+00	0	28	0	765460480	72	4811
2026-01-15 06:37:59.25	1.91	25.33	-53.7	-55.8	14.0	0.00e+00	0	28	0	767557632	72	4904
2026-01-15 06:38:00.25	1.63	25.28	-53.6	-55.7	14.1	0.00e+00	0	28	0	769654784	72	4822
2026-01-15 06:38:01.26	1.35	25.23	-53.6	-55.7	14.1	0.00e+00	0	28	0	771751936	72	4821
2026-01-15 06:38:02.26	1.07	25.17	-53.5	-55.6	14.1	0.00e+00	0	28	0	772800512	72	4761
2026-01-15 06:38:03.27	0.79	25.12	-53.6	-55.6	14.1	0.00e+00	0	28	0	774897664	72	4790
2026-01-15 06:38:04.28	0.52	25.06	-53.6	-55.6	14.1	0.00e+00	0	28	0	776994816	72	4791
2026-01-15 06:38:05.28	0.24	25.01	-53.7	-55.8	14.0	0.00e+00	0	28	0	779091968	72	4904
2026-01-15 06:38:06.28	359.97	24.95	-53.8	-55.9	14.0	0.00e+00	0	28	0	781189120	72	4938
2026-01-15 06:38:07.29	359.69	24.90	-53.8	-55.9	14.0	0.00e+00	0	28	0	782237696	72	4966
2026-01-15 06:38:08.29	359.42	24.84	-53.8	-55.9	14.0	0.00e+00	0	28	0	784334848	72	4958
2026-01-15 06:38:09.29	359.15	24.78	-53.7	-55.8	14.0	0.00e+00	0	28	0	786432000	72	4888
2026-01-15 06:38:10.30	358.88	24.72	-53.8	-55.9	14.0	0.00e+00	0	28	0	788529152	72	4945
2026-01-15 06:38:11.29	358.61	24.67	-53.8	-55.9	14.0	0.00e+00	0	28	0	790626304	72	4959
2026-01-15 06:38:12.29	358.34	24.61	-53.6	-55.7	14.1	0.00e+00	0	28	0	791674880	72	4833
2026-01-15 06:38:13.29	358.08	24.55	-53.6	-55.6	14.1	0.00e+00	0	28	0	793772032	72	4813
2026-01-15 06:38:14.29	357.81	24.49	-53.6	-55.6	14.1	0.00e+00	0	28	0	795869184	72	4796
2026-01-15 06:38:15.29	357.55	24.43	-53.7	-55.7	14.1	0.00e+00	0	28	0	797966336	72	4846
2026-01-15 06:38:16.28	357.29	24.37	-53.7	-55.7	14.1	0.00e+00	0	28	0	799014912	72	4855
2026-01-15 06:38:17.28	357.03	24.31	-53.7	-55.8	14.0	0.00e+00	0	28	0	801112064	72	4908
2026-01-15 06:38:18.28	356.76	24.24	-53.8	-55.9	13.9	0.00e+00	0	28	0	803209216	72	4983
2026-01-15 06:38:19.27	356.51	24.18	-53.8	-55.9	13.9	0.00e+00	0	28	0	805306368	72	4980
2026-01-15 06:38:20.26	356.25	24.12	-53.7	-55.7	14.0	0.00e+00	0	28	0	807403520	72	4869
2026-01-15 06:38:21.26	355.99	24.06	-53.7	-55.7	14.1	0.00e+00	0	28	0	808452096	72	4844
2026-01-15 06:38:22.25	355.74	23.99	-53.6	-55.7	14.1	0.00e+00	0	28	0	810549248	72	4844
2026-01-15 06:38:23.25	355.48	23.93	-53.6	-55.6	14.1	0.00e+00	0	28	0	812646400	72	4800
2026-01-15 06:38:24.25	355.23	23.86	-53.6	-55.6	14.1	0.00e+00	0	28	0	814743552	72	4796
2026-01-15 06:38:25.24	354.97	23.80	-53.6	-55.6	14.1	0.00e+00	0	28	0	816840704	72	4807
2026-01-15 06:38:26.24	354.72	23.73	-53.7	-55.8	14.0	0.00e+00	0	28	0	817889280	72	4905
2026-01-15 06:38:27.23	354.47	23.67	-53.6	-55.7	14.1	0.00e+00	0	28	0	819986432	72	4847
2026-01-15 06:38:28.22	354.22	23.60	-53.6	-55.7	14.1	0.00e+00	0	28	0	822083584	72	4819
2026-01-15 06:38:29.22	353.97	23.53	-53.5	-55.5	14.2	0.00e+00	0	28	0	824180736	72	4722
2026-01-15 06:38:30.22	353.73	23.47	-53.5	-55.5	14.2	0.00e+00	0	28	0	825229312	72	4714
2026-01-15 06:38:31.21	353.48	23.40	-53.4	-55.4	14.2	0.00e+00	0	28	0	827326464	72	4660
2026-01-15 06:38:32.22	353.23	23.33	-53.2	-55.1	14.3	0.00e+00	0	28	0	829423616	72	4508
2026-01-15 06:38:33.21	352.99	23.26	-53.1	-55.0	14.4	0.00e+00	0	28	0	831520768	72	4478
2026-01-15 06:38:34.21	352.74	23.19	-53.1	-55.0	14.4	0.00e+00	0	28	0	833617920	72	4485
2026-01-15 06:38:35.22	352.50	23.12	-53.1	-54.9	14.4	0.00e+00	0	28	0	834666496	72	4441
2026-01-15 06:38:36.22	352.26	23.05	-53.1	-55.0	14.4	0.00e+00	0	28	0	836763648	72	4447
2026-01-15 06:38:37.23	352.01	22.98	-52.9	-54.8	14.5	0.00e+00	0	28	0	838860800	72	4371
2026-01-15 06:38:38.23	351.77	22.91	-52.9	-54.8	14.5	0.00e+00	0	28	0	840957952	72	4356
2026-01-15 06:38:39.24	351.53	22.84	-52.8	-54.6	14.5	0.00e+00	0	28	0	843055104	72	4262
2026-01-15 06:38:40.24	351.29	22.77	-52.8	-54.6	14.5	0.00e+00	0	28	0	844103680	72	4282
2026-01-15 06:38:41.23	351.06	22.70	-52.6	-54.4	14.4	0.00e+00	0	28	0	846200832	71	4406
2026-01-15 06:38:42.23	350.82	22.63	-52.7	-54.5	14.5	0.00e+00	0	28	0	848297984	71	4476
2026-01-15 06:38:43.23	350.59	22.55	-52.6	-54.4	14.5	0.00e+00	0	28	0	850395136	71	4420
2026-01-15 06:38:44.23	350.36	22.48	-52.6	-54.3	14.6	0.00e+00	0	28	0	851443712	71	4379
2026-01-15 06:38:45.23	350.13	22.41	-52.5	-54.3	14.6	0.00e+00	0	28	0	853540864	71	4359
2026-01-15 06:38:46.23	349.89	22.34	-52.5	-54.2	14.6	0.00e+00	0	28	0	855638016	71	4303
2026-01-15 06:38:47.23	349.66	22.26	-52.5	-54.2	14.6	0.00e+00	0	28	0	857735168	71	4323
2026-01-15 06:38:48.22	349.44	22.19	-52.5	-54.3	14.6	0.00e+00	0	28	0	859832320	71	4355
2026-01-15 06:38:49.22	349.21	22.12	-52.5	-54.3	14.6	0.00e+00	0	28	0	860880896	71	4363
2026-01-15 06:38:50.22	348.98	22.04	-52.5	-54.2	14.6	0.00e+00	0	28	0	862978048	71	4323
2026-01-15 06:38:51.22	348.76	21.97	-52.5	-54.2	14.6	0.00e+00	0	28	0	865075200	71	4307
2026-01-15 06:38:52.21	348.54	21.89	-52.3	-54.0	14.7	0.00e+00	0	28	0	867172352	71	4234
2026-01-15 06:38:53.22	348.31	21.82	-52.5	-54.2	14.6	0.00e+00	0	28	0	868220928	71	4318
2026-01-15 06:38:54.22	348.09	21.74	-52.5	-54.3	14.6	0.00e+00	0	28	0	870318080	71	4341
2026-01-15 06:38:55.22	347.87	21.67	-52.6	-54.4	14.5	0.00e+00	0	28	0	872415232	71	4411
2026-01-15 06:38:56.22	347.65	21.59	-52.6	-54.4	14.5	0.00e+00	0	28	0	874512384	71	4432
2026-01-15 06:38:57.22	347.43	21.51	-52.7	-54.5	14.5	0.00e+00	0	28	0	876609536	71	4466
2026-01-15 06:38:58.22	347.21	21.44	-52.6	-54.3	14.5	0.00e+00	0	28	0	877658112	71	4379
2026-01-15 06:38:59.22	346.99	21.36	-52.5	-54.2	14.6	0.00e+00	0	28	0	879755264	71	4334
2026-01-15 06:39:00.22	346.78	21.29	-52.4	-54.1	14.6	0.00e+00	0	28	0	881852416	71	4278
2026-01-15 06:39:01.21	346.56	21.21	-52.3	-54.0	14.7	0.00e+00	0	28	0	883949568	71	4196
2026-01-15 06:39:02.21	346.35	21.13	-52.2	-53.9	14.7	0.00e+00	0	28	0	886046720	71	4189
2026-01-15 06:39:03.21	346.14	21.06	-52.3	-54.0	14.6	0.00e+00	0	28	0	887095296	70	4446
2026-01-15 06:39:04.22	345.92	20.98	-52.1	-53.8	14.7	0.00e+00	0	28	0	889192448	70	4353
2026-01-15 06:39:05.21	345.72	20.90	-52.0	-53.6	14.7	0.00e+00	0	28	0	891289600	70	4291
2026-01-15 06:39:06.21	345.51	20.82	-52.0	-53.6	14.7	0.00e+00	0	28	0	893386752	70	4282
2026-01-15 06:39:07.21	345.30	20.75	-52.0	-53.6	14.7	0.00e+00	0	28	0	895483904	70	4284
2026-01-15 06:39:08.21	345.09	20.67	-52.0	-53.6	14.7	0.00e+00	0	28	0	896532480	70	4283
2026-01-15 06:39:09.21	344.88	20.59	-51.8	-53.5	14.8	0.00e+00	0	28	0	898629632	70	4204
2026-01-15 06:39:10.20	344.68	20.51	-51.8	-53.4	14.8	0.00e+00	0	28	0	900726784	70	4165
2026-01-15 06:39:11.20	344.48	20.43	-51.8	-53.4	14.8	0.00e+00	0	28	0	902823936	70	4155
2026-01-15 06:39:12.20	344.27	20.35	-51.8	-53.4	14.8	0.00e+00	0	28	0	903872512	70	4151
2026-01-15 06:39:13.21	344.07	20.28	-51.7	-53.3	14.7	0.00e+00	0	28	0	905969664	69	4352
2026-01-15 06:39:14.21	343.87	20.20	-51.7	-53.3	14.7	0.00e+00	0	28	0	908066816	69	4346
2026-01-15 06:39:15.21	343.67	20.12	-51.7	-53.3	14.7	0.00e+00	0	28	0	910163968	69	4353
2026-01-15 06:39:16.21	343.47	20.04	-51.7	-53.3	14.7	0.00e+00	0	28	0	912261120	69	4344
2026-01-15 06:39:17.21	343.27	19.96	-51.6	-53.2	14.8	0.00e+00	0	28	0	913309696	69	4306
2026-01-15 06:39:18.21	343.08	19.88	-51.6	-53.2	14.8	0.00e+00	0	28	0	915406848	69	4311
2026-01-15 06:39:19.21	342.88	19.80	-51.5	-53.0	14.8	0.00e+00	0	28	0	917504000	69	4225
2026-01-15 06:39:20.21	342.69	19.72	-51.5	-53.0	14.8	0.00e+00	0	28	0	919601152	69	4242
2026-01-15 06:39:21.21	342.49	19.64	-51.5	-53.1	14.8	0.00e+00	0	28	0	921698304	69	4263
2026-01-15 06:39:22.20	342.30	19.56	-51.3	-52.9	14.9	0.00e+00	0	28	0	922746880	69	4152
2026-01-15 06:39:23.20	342.11	19.48	-51.5	-53.0	14.8	0.00e+00	0	28	0	924844032	69	4223
2026-01-15 06:39:24.19	341.92	19.40	-51.4	-52.9	14.9	0.00e+00	0	28	0	926941184	69	4180
2026-01-15 06:39:25.19	341.73	19.32	-51.4	-53.0	14.8	0.00e+00	0	28	0	929038336	69	4202
2026-01-15 06:39:26.20	341.54	19.24	-51.4	-52.9	14.9	0.00e+00	0	28	0	931135488	69	4180
2026-01-15 06:39:27.19	341.36	19.16	-51.4	-52.9	14.9	0.00e+00	0	28	0	932184064	69	4184
2026-01-15 06:39:28.18	341.17	19.08	-51.4	-53.0	14.8	0.00e+00	0	28	0	934281216	69	4197
2026-01-15 06:39:29.19	340.98	19.00	-51.3	-52.8	14.9	0.00e+00	0	28	0	936378368	69	4131
2026-01-15 06:39:30.18	340.80	18.92	-51.3	-52.8	14.9	0.00e+00	0	28	0	938475520	69	4124
2026-01-15 06:39:31.17	340.62	18.84	-51.3	-52.8	14.9	0.00e+00	0	28	0	939524096	69	4145
2026-01-15 06:39:32.17	340.44	18.76	-51.3	-52.8	14.9	0.00e+00	0	28	0	941621248	69	4127
2026-01-15 06:39:33.16	340.26	18.68	-51.3	-52.8	14.9	0.00e+00	0	28	0	943718400	69	4136
2026-01-15 06:39:34.16	340.08	18.60	-51.3	-52.9	14.9	0.00e+00	0	28	0	945815552	69	4149
2026-01-15 06:39:35.16	339.90	18.52	-51.4	-53.0	14.9	0.00e+00	0	28	0	947912704	69	4204
2026-01-15 06:39:36.15	339.72	18.44	-51.4	-53.0	14.8	0.00e+00	0	28	0	948961280	69	4204
2026-01-15 06:39:37.15	339.54	18.36	-51.5	-53.0	14.8	0.00e+00	0	28	0	951058432	69	4238
2026-01-15 06:39:38.15	339.37	18.28	-51.5	-53.0	14.8	0.00e+00	0	28	0	953155584	69	4234
2026-01-15 06:39:39.15	339.19	18.20	-51.5	-53.0	14.8	0.00e+00	0	28	0	955252736	69	4225
2026-01-15 06:39:40.15	339.01	18.12	-51.5	-53.1	14.8	0.00e+00	0	28	0	956301312	69	4261
2026-01-15 06:39:41.15	338.84	18.04	-51.6	-53.1	14.8	0.00e+00	0	28	0	958398464	69	4289
2026-01-15 06:39:42.14	338.67	17.96	-51.5	-53.1	14.8	0.00e+00	0	28	0	960495616	69	4263
2026-01-15 06:39:43.14	338.50	17.88	-51.6	-53.2	14.8	0.00e+00	0	28	0	962592768	69	4292
2026-01-15 06:39:44.15	338.32	17.80	-51.5	-53.1	14.8	0.00e+00	0	28	0	964689920	69	4278
2026-01-15 06:39:45.14	338.16	17.72	-51.7	-53.3	14.7	0.00e+00	0	28	0	965738496	69	4391
2026-01-15 06:39:46.14	337.99	17.64	-51.8	-53.5	14.6	0.00e+00	0	28	0	967835648	69	4450
2026-01-15 06:39:47.14	337.82	17.56	-51.9	-53.6	14.6	0.00e+00	0	28	0	969932800	69	4506
2026-01-15 06:39:48.13	337.65	17.48	-51.8	-53.4	14.7	0.00e+00	0	28	0	972029952	69	4415
2026-01-15 06:39:49.13	337.49	17.40	-51.9	-53.5	14.6	0.00e+00	0	28	0	974127104	69	4476
2026-01-15 06:39:50.13	337.32	17.32	-51.8	-53.5	14.6	0.00e+00	0	28	0	975175680	69	4464
2026-01-15 06:39:51.13	337.15	17.24	-51.9	-53.6	14.6	0.00e+00	0	28	0	977272832	69	4520
2026-01-15 06:39:52.14	336.99	17.16	-52.0	-53.7	14.6	0.00e+00	0	28	0	979369984	69	4564
2026-01-15 06:39:53.13	336.83	17.08	-52.0	-53.7	14.6	0.00e+00	0	28	0	981467136	69	4551
2026-01-15 06:39:54.13	336.67	17.00	-52.1	-53.9	14.5	0.00e+00	0	28	0	982515712	69	4653
2026-01-15 06:39:55.13	336.50	16.91	-52.2	-54.0	14.5	0.00e+00	0	28	0	984612864	69	4711
2026-01-15 06:39:56.13	336.34	16.83	-52.3	-54.1	14.4	0.00e+00	0	28	0	986710016	69	4788
2026-01-15 06:39:57.12	336.19	16.75	-52.4	-54.1	14.4	0.00e+00	0	28	0	988807168	69	4796
2026-01-15 06:39:58.11	336.03	16.68	-52.5	-54.2	14.5	0.00e+00	0	28	0	990904320	70	4595
2026-01-15 06:39:59.12	335.87	16.59	-52.6	-54.4	14.4	0.00e+00	0	28	0	991952896	70	4693
2026-01-15 06:40:00.11	335.71	16.51	-52.6	-54.5	14.3	0.00e+00	0	28	0	994050048	70	4712
2026-01-15 06:40:01.11	335.56	16.43	-52.7	-54.5	14.3	0.00e+00	0	28	0	996147200	70	4736
2026-01-15 06:40:02.11	335.40	16.35	-52.5	-54.3	14.4	0.00e+00	0	28	0	998244352	70	4649
2026-01-15 06:40:03.12	335.25	16.27	-52.6	-54.4	14.4	0.00e+00	0	28	0	999292928	70	4704
2026-01-15 06:40:04.12	335.09	16.19	-52.7	-54.6	14.3	0.00e+00	0	28	0	1001390080	70	4768
2026-01-15 06:40:05.11	334.94	16.11	-52.7	-54.6	14.3	0.00e+00	0	28	0	1003487232	70	4785
2026-01-15 06:40:06.11	334.79	16.03	-52.7	-54.6	14.3	0.00e+00	0	28	0	1005584384	70	4779
2026-01-15 06:40:07.11	334.64	15.95	-52.7	-54.5	14.3	0.00e+00	0	28	0	1007681536	70	4747
2026-01-15 06:40:08.10	334.49	15.88	-52.7	-54.6	14.3	0.00e+00	0	28	0	1008730112	70	4783
2026-01-15 06:40:09.11	334.34	15.79	-52.8	-54.6	14.3	0.00e+00	0	28	0	1010827264	70	4801
2026-01-15 06:40:10.12	334.19	15.71	-52.6	-54.4	14.4	0.00e+00	0	28	0	1012924416	70	4679
2026-01-15 06:40:11.12	334.04	15.63	-52.7	-54.6	14.3	0.00e+00	0	28	0	1015021568	70	4788
2026-01-15 06:40:12.12	333.89	15.55	-52.7	-54.5	14.3	0.00e+00	0	28	0	1017118720	70	4741
2026-01-15 06:40:13.12	333.75	15.48	-52.7	-54.5	14.3	0.00e+00	0	28	0	1018167296	70	4730
2026-01-15 06:40:14.11	333.60	15.40	-52.7	-54.6	14.3	0.00e+00	0	28	0	1020264448	70	4763
2026-01-15 06:40:15.10	333.46	15.32	-52.7	-54.6	14.3	7.00e-07	0	28	0	1022361600	70	4798
2026-01-15 06:40:16.10	333.32	15.24	-52.8	-54.7	14.3	0.00e+00	0	28	0	1024458752	70	4828
2026-01-15 06:40:17.09	333.17	15.16	-52.8	-54.7	14.3	0.00e+00	0	28	0	1026555904	70	4838
2026-01-15 06:40:18.09	333.03	15.08	-52.8	-54.7	14.3	0.00e+00	0	28	0	1027604480	70	4833
2026-01-15 06:40:19.09	332.89	15.00	-52.8	-54.7	14.2	0.00e+00	0	28	0	1029701632	70	4865
2026-01-15 06:40:20.09	332.75	14.92	-52.9	-54.8	14.2	0.00e+00	0	28	0	1031798784	70	4904
2026-01-15 06:40:21.08	332.61	14.84	-53.0	-54.9	14.3	0.00e+00	0	28	0	1033895936	71	4688
2026-01-15 06:40:22.09	332.47	14.76	-53.0	-54.9	14.2	0.00e+00	0	28	0	1034944512	71	4689
2026-01-15 06:40:23.09	332.33	14.69	-53.0	-55.0	14.2	0.00e+00	0	28	0	1037041664	71	4721
2026-01-15 06:40:24.09	332.19	14.61	-53.1	-55.1	14.2	0.00e+00	0	28	0	1039138816	71	4779
2026-01-15 06:40:25.08	332.06	14.53	-53.1	-55.1	14.2	0.00e+00	0	28	0	1041235968	71	4793
2026-01-15 06:40:26.07	331.92	14.45	-53.2	-55.2	14.1	0.00e+00	0	28	0	1043333120	71	4837
2026-01-15 06:40:27.06	331.79	14.37	-53.2	-55.2	14.1	0.00e+00	0	28	0	1044381696	71	4832
2026-01-15 06:40:28.06	331.65	14.30	-53.2	-55.2	14.1	0.00e+00	0	28	0	1046478848	71	4859
2026-01-15 06:40:29.05	331.52	14.22	-53.1	-55.1	14.1	0.00e+00	0	28	0	1048576000	71	4806
2026-01-15 06:40:30.04	331.39	14.14	-53.2	-55.2	14.1	0.00e+00	0	28	0	1050673152	71	4845
2026-01-15 06:40:31.03	331.26	14.06	-53.2	-55.2	14.1	0.00e+00	0	28	0	1051721728	71	4838
2026-01-15 06:40:32.03	331.13	13.99	-53.2	-55.2	14.1	0.00e+00	0	28	0	1053818880	71	4863
2026-01-15 06:40:33.04	330.99	13.91	-53.3	-55.3	14.1	0.00e+00	0	28	0	1055916032	71	4907
2026-01-15 06:40:34.04	330.86	13.83	-53.2	-55.2	14.1	0.00e+00	0	28	0	1058013184	71	4866
2026-01-15 06:40:35.04	330.73	13.75	-53.3	-55.3	14.1	0.00e+00	0	28	0	1060110336	71	4917
2026-01-15 06:40:36.04	330.60	13.67	-53.3	-55.3	14.1	0.00e+00	0	28	0	1061158912	71	4911
2026-01-15 06:40:37.04	330.48	13.60	-53.2	-55.3	14.1	0.00e+00	0	28	0	1063256064	71	4894
2026-01-15 06:40:38.03	330.35	13.52	-53.2	-55.2	14.1	0.00e+00	0	28	0	1065353216	71	4861
2026-01-15 06:40:39.03	330.22	13.44	-53.2	-55.3	14.1	0.00e+00	0	28	0	1067450368	71	4887
2026-01-15 06:40:40.03	330.10	13.37	-53.3	-55.4	14.0	0.00e+00	0	28	0	1068498944	71	4954
2026-01-15 06:40:41.02	329.97	13.29	-53.3	-55.4	14.0	0.00e+00	0	28	0	1070596096	71	4946
2026-01-15 06:40:42.02	329.85	13.21	-53.4	-55.5	14.0	0.00e+00	0	28	0	1072693248	71	5025
2026-01-15 06:40:43.02	329.72	13.13	-53.4	-55.5	14.1	0.00e+00	0	28	0	1074790400	72	4722
2026-01-15 06:40:44.02	329.60	13.06	-53.5	-55.6	14.0	0.00e+00	0	28	0	1076887552	72	4791
2026-01-15 06:40:45.02	329.47	12.98	-53.6	-55.8	13.9	0.00e+00	0	28	0	1077936128	72	4879
2026-01-15 06:40:46.01	329.35	12.91	-53.6	-55.7	13.9	0.00e+00	0	28	0	1080033280	72	4869
2026-01-15 06:40:47.01	329.23	12.83	-53.6	-55.8	13.9	0.00e+00	0	28	0	1082130432	72	4882
2026-01-15 06:40:48.01	329.11	12.75	-53.6	-55.8	13.9	0.00e+00	0	28	0	1084227584	72	4885
2026-01-15 06:40:49.02	328.99	12.68	-53.7	-55.9	13.9	0.00e+00	0	28	0	1086324736	72	4932
2026-01-15 06:40:50.01	328.87	12.60	-53.7	-56.0	13.8	0.00e+00	0	28	0	1087373312	72	4998
2026-01-15 06:40:51.01	328.75	12.52	-53.7	-56.0	13.8	0.00e+00	0	28	0	1089470464	72	5009
2026-01-15 06:40:52.01	328.63	12.45	-53.9	-56.1	13.7	0.00e+00	0	28	0	1091567616	72	5100
2026-01-15 06:40:53.00	328.52	12.37	-53.8	-56.1	13.7	0.00e+00	0	28	0	1093664768	72	5094
2026-01-15 06:40:54.00	328.40	12.30	-53.9	-56.2	13.8	0.00e+00	0	28	0	1095761920	73	4842
2026-01-15 06:40:55.00	328.28	12.22	-54.0	-56.3	13.8	0.00e+00	0	28	0	1096810496	73	4896
2026-01-15 06:40:55.99	328.17	12.15	-54.0	-56.3	13.8	0.00e+00	0	28	0	1098907648	73	4905
2026-01-15 06:40:57.00	328.05	12.07	-54.1	-56.4	13.7	0.00e+00	0	28	0	1101004800	73	4971
2026-01-15 06:40:57.99	327.94	12.00	-54.1	-56.5	13.6	0.00e+00	0	28	0	1103101952	73	5027
2026-01-15 06:40:59.00	327.82	11.92	-54.1	-56.5	13.6	0.00e+00	0	28	0	1104150528	73	5041
2026-01-15 06:41:00.00	327.71	11.85	-54.2	-56.6	13.6	0.00e+00	0	28	0	1106247680	73	5075
2026-01-15 06:41:01.00	327.59	11.77	-54.2	-56.7	13.5	0.00e+00	0	28	0	1108344832	73	5134
2026-01-15 06:41:02.00	327.48	11.70	-54.2	-56.6	13.6	0.00e+00	0	28	0	1110441984	73	5067
2026-01-15 06:41:03.00	327.37	11.62	-54.2	-56.7	13.6	0.00e+00	0	28	0	1112539136	73	5106
2026-01-15 06:41:04.01	327.26	11.55	-54.1	-56.6	13.6	0.00e+00	0	28	0	1113587712	73	5042
2026-01-15 06:41:05.01	327.15	11.47	-54.1	-56.5	13.6	0.00e+00	0	28	0	1115684864	73	5017
2026-01-15 06:41:06.02	327.03	11.40	-54.2	-56.7	13.5	0.00e+00	0	28	0	1117782016	73	5106
2026-01-15 06:41:07.02	326.92	11.32	-54.2	-56.7	13.5	0.00e+00	0	28	0	1119879168	73	5110
2026-01-15 06:41:08.01	326.82	11.25	-54.1	-56.6	13.6	0.00e+00	0	28	0	1121976320	73	5059
2026-01-15 06:41:09.01	326.71	11.18	-54.2	-56.6	13.6	0.00e+00	0	28	0	1123024896	73	5084
2026-01-15 06:41:10.01	326.60	11.10	-54.2	-56.7	13.5	0.00e+00	0	28	0	1125122048	73	5114
2026-01-15 06:41:11.00	326.49	11.03	-54.2	-56.6	13.6	0.00e+00	0	28	0	1127219200	73	5067
2026-01-15 06:41:12.01	326.39	10.95	-54.2	-56.6	13.6	0.00e+00	0	28	0	1129316352	73	5069
2026-01-15 06:41:13.00	326.28	10.88	-54.1	-56.6	13.6	0.00e+00	0	28	0	1130364928	73	5042
2026-01-15 06:41:14.00	326.17	10.81	-54.1	-56.6	13.6	0.00e+00	0	28	0	1132462080	73	5053
2026-01-15 06:41:15.00	326.07	10.74	-54.3	-56.8	13.5	0.00e+00	0	28	0	1134559232	73	5204
2026-01-15 06:41:16.00	325.96	10.66	-54.3	-56.8	13.5	0.00e+00	0	28	0	1136656384	73	5194
2026-01-15 06:41:16.98	325.86	10.59	-54.3	-56.8	13.5	0.00e+00	0	28	0	1138753536	73	5195
2026-01-15 06:41:17.97	325.76	10.52	-54.3	-56.8	13.5	0.00e+00	0	28	0	1139802112	73	5191
2026-01-15 06:41:18.97	325.66	10.45	-54.2	-56.7	13.5	0.00e+00	0	28	0	1141899264	73	5104
2026-01-15 06:41:19.96	325.56	10.37	-54.3	-56.8	13.5	0.00e+00	0	28	0	1143996416	73	5163
2026-01-15 06:41:20.95	325.45	10.30	-54.3	-56.8	13.4	0.00e+00	0	28	0	1146093568	73	5193
2026-01-15 06:41:21.95	325.35	10.23	-54.3	-56.9	13.4	0.00e+00	0	28	0	1147142144	73	5242
2026-01-15 06:41:22.95	325.25	10.16	-54.3	-56.9	13.4	0.00e+00	0	28	0	1149239296	73	5229
2026-01-15 06:41:23.94	325.15	10.09	-54.3	-56.8	13.4	0.00e+00	0	28	0	1151336448	73	5201
2026-01-15 06:41:24.93	325.05	10.02	-54.3	-56.9	13.4	0.00e+00	0	28	0	1153433600	73	5243
2026-01-15 06:41:25.94	324.95	9.94	-54.4	-56.9	13.4	0.00e+00	0	28	0	1155530752	73	5268
2026-01-15 06:41:26.94	324.85	9.87	-54.5	-57.1	13.4	0.00e+00	0	28	0	1156579328	74	5063
2026-01-15 06:41:27.93	324.76	9.80	-54.5	-57.2	13.3	0.00e+00	0	28	0	1158676480	74	5102
2026-01-15 06:41:28.92	324.66	9.73	-54.5	-57.1	13.3	0.00e+00	0	28	0	1160773632	74	5070
2026-01-15 06:41:29.92	324.56	9.66	-54.5	-57.1	13.4	0.00e+00	0	28	0	1162870784	74	5068
2026-01-15 06:41:30.91	324.47	9.59	-54.5	-57.1	13.4	0.00e+00	0	28	0	1163919360	74	5074
2026-01-15 06:41:31.91	324.37	9.52	-54.5	-57.2	13.4	0.00e+00	0	28	0	1166016512	74	5101
2026-01-15 06:41:32.90	324.27	9.45	-54.6	-57.2	13.3	0.00e+00	0	28	0	1168113664	74	5149
2026-01-15 06:41:33.90	324.18	9.38	-54.5	-57.1	13.4	0.00e+00	0	28	0	1170210816	74	5079
2026-01-15 06:41:34.91	324.08	9.30	-54.6	-57.3	13.3	0.00e+00	0	28	0	1172307968	74	5175
2026-01-15 06:41:35.90	323.99	9.23	-54.6	-57.4	13.2	0.00e+00	0	28	0	1173356544	74	5219
2026-01-15 06:41:36.90	323.90	9.16	-54.7	-57.5	13.1	0.00e+00	0	28	0	1175453696	74	5335
2026-01-15 06:41:37.89	323.80	9.09	-54.8	-57.7	13.0	0.00e+00	0	28	0	1177550848	74	5427
2026-01-15 06:41:38.89	323.71	9.02	-54.8	-57.7	13.0	0.00e+00	0	28	0	1179648000	74	5430
2026-01-15 06:41:39.89	323.62	8.95	-54.7	-57.5	13.1	0.00e+00	0	28	0	1181745152	74	5325
2026-01-15 06:41:40.88	323.53	8.88	-54.8	-57.7	13.0	0.00e+00	0	28	0	1182793728	74	5452
2026-01-15 06:41:41.88	323.43	8.81	-54.9	-57.8	12.9	0.00e+00	0	28	0	1184890880	74	5481
2026-01-15 06:41:42.87	323.34	8.75	-55.0	-57.9	12.9	0.00e+00	0	28	0	1186988032	75	5248
2026-01-15 06:41:43.87	323.25	8.68	-55.0	-57.9	12.9	0.00e+00	0	28	0	1189085184	75	5249
2026-01-15 06:41:44.87	323.16	8.61	-54.9	-57.8	13.0	0.00e+00	0	28	0	1190133760	75	5188
2026-01-15 06:41:45.87	323.07	8.54	-55.0	-58.0	12.8	0.00e+00	0	28	0	1192230912	75	5338
2026-01-15 06:41:46.86	322.98	8.47	-55.1	-58.2	12.8	0.00e+00	0	28	0	1194328064	75	5429
2026-01-15 06:41:47.86	322.89	8.40	-55.1	-58.2	12.8	0.00e+00	0	28	0	1196425216	75	5433
2026-01-15 06:41:48.87	322.80	8.33	-55.1	-58.2	12.8	0.00e+00	0	28	0	1198522368	75	5423
2026-01-15 06:41:49.87	322.72	8.26	-55.1	-58.1	12.8	0.00e+00	0	28	0	1199570944	75	5395
2026-01-15 06:41:50.87	322.63	8.19	-55.1	-58.2	12.8	0.00e+00	0	28	0	1201668096	75	5406
2026-01-15 06:41:51.86	322.54	8.12	-55.0	-58.0	12.9	0.00e+00	0	28	0	1203765248	75	5329
2026-01-15 06:41:52.86	322.45	8.05	-54.8	-57.8	13.0	0.00e+00	0	28	0	1205862400	75	5165
2026-01-15 06:41:53.85	322.37	7.99	-54.9	-57.9	13.0	0.00e+00	0	28	0	1207959552	75	5220
2026-01-15 06:41:54.84	322.28	7.92	-55.0	-57.9	12.9	0.00e+00	0	28	0	1209008128	75	5274
2026-01-15 06:41:55.84	322.20	7.85	-54.9	-57.8	12.9	0.00e+00	0	28	0	1211105280	75	5214
2026-01-15 06:41:56.83	322.11	7.78	-54.7	-57.5	13.2	0.00e+00	0	28	0	1213202432	75	5023
2026-01-15 06:41:57.83	322.03	7.72	-54.8	-57.7	13.0	0.00e+00	0	28	0	1215299584	75	5136
2026-01-15 06:41:58.82	321.95	7.65	-54.8	-57.7	13.1	0.00e+00	0	28	0	1216348160	75	5101
2026-01-15 06:41:59.81	321.86	7.58	-54.8	-57.6	13.1	0.00e+00	0	28	0	1218445312	75	5091
