passes_logs/2026/01/15/R3.2S_Murmansk/R3.2S_Murmansk__20260115_004149_NOAA_21_JPSS-2_rec.log

#Pass ID: 20260115_004149_NOAA 21 (JPSS-2)
#Satellite: NOAA 21 (JPSS-2)
#Configuration: NOAA-21
#almurnet v.1.7.20251203
#Start time: 2026-01-15 00:41:49

#Version: 2.2.20231116
#Station: R3.2S_Murmansk
#Location: 33.079688 lon 68.888172 lat
#TLE: 1 54234U 22150A   26014.58979933  .00000039  00000+0  39403-4 0  9998
#TLE: 2 54234  98.7497 315.4945 0000653 294.6373  65.4735 14.19534652164756

#Time	Az	El	Level	Level2	SNR	BER	BlckErr	Temp	State	Recorded	gain1	gain2
2026-01-15 00:41:49.64	24.53	2.03	-58.1	-71.9	3.8	1.49e+00	0	26	0	0	82	17514
2026-01-15 00:41:50.64	24.53	2.09	-58.1	-71.8	3.8	1.49e+00	0	26	104	0	81	18383
2026-01-15 00:41:51.64	24.53	2.16	-58.1	-71.8	3.8	1.49e+00	0	26	104	0	81	18412
2026-01-15 00:41:52.63	24.54	2.22	-58.1	-71.7	3.8	1.49e+00	0	26	104	0	81	18264
2026-01-15 00:41:53.62	24.54	2.28	-58.0	-71.7	3.8	1.49e+00	0	26	104	0	81	18131
2026-01-15 00:41:54.61	24.54	2.35	-58.0	-71.6	3.8	1.49e+00	0	26	104	0	81	17996
2026-01-15 00:41:55.61	24.55	2.41	-58.1	-71.5	3.8	1.49e+00	0	26	104	0	81	17761
2026-01-15 00:41:56.60	24.55	2.48	-58.1	-71.5	3.8	1.49e+00	0	26	104	0	81	17861
2026-01-15 00:41:57.58	24.55	2.54	-58.0	-71.3	3.8	1.49e+00	0	26	104	0	81	17400
2026-01-15 00:41:58.58	24.55	2.61	-58.0	-71.5	3.8	1.49e+00	0	26	104	0	81	17808
2026-01-15 00:41:59.58	24.56	2.67	-58.0	-71.0	3.8	1.49e+00	0	26	104	0	81	16729
2026-01-15 00:42:00.57	24.56	2.74	-58.0	-71.3	3.8	1.49e+00	0	26	104	0	81	17455
2026-01-15 00:42:01.57	24.56	2.80	-58.0	-71.0	3.8	1.49e+00	0	26	104	0	81	16741
2026-01-15 00:42:02.58	24.57	2.87	-58.0	-70.8	3.8	1.49e+00	0	26	104	0	81	16330
2026-01-15 00:42:03.57	24.57	2.93	-58.0	-71.0	3.8	1.49e+00	0	26	104	0	81	16697
2026-01-15 00:42:04.56	24.57	3.00	-58.0	-70.9	3.8	1.49e+00	0	26	104	0	81	16534
2026-01-15 00:42:05.57	24.58	3.06	-58.0	-71.1	3.8	1.49e+00	0	26	104	0	81	16951
2026-01-15 00:42:06.57	24.58	3.13	-58.0	-70.7	3.8	1.49e+00	0	26	104	0	81	16238
2026-01-15 00:42:07.56	24.58	3.20	-58.0	-70.9	3.8	1.49e+00	0	26	104	0	81	16586
2026-01-15 00:42:08.57	24.59	3.26	-57.9	-69.8	3.9	1.49e+00	0	26	104	0	81	14668
2026-01-15 00:42:09.58	24.59	3.33	-57.8	-68.8	3.9	1.47e+00	0	26	104	0	81	13077
2026-01-15 00:42:10.58	24.59	3.40	-57.7	-66.9	4.7	1.21e+00	0	26	104	0	81	10440
2026-01-15 00:42:11.59	24.60	3.47	-57.3	-64.5	5.9	3.86e-01	0	26	0	2097152	81	7983
2026-01-15 00:42:12.60	24.60	3.53	-57.4	-65.4	5.5	4.32e-01	0	26	0	5242880	81	8777
2026-01-15 00:42:13.59	24.60	3.60	-56.4	-61.3	8.5	4.35e-02	0	26	0	8388608	79	6182
2026-01-15 00:42:14.59	24.61	3.67	-56.5	-61.9	8.0	1.91e-02	0	26	0	11534336	78	6973
2026-01-15 00:42:15.59	24.61	3.74	-56.2	-61.0	8.8	9.44e-03	0	27	0	14680064	78	6312
2026-01-15 00:42:16.58	24.61	3.80	-55.9	-60.2	9.5	4.79e-03	0	26	0	17825792	78	5775
2026-01-15 00:42:17.59	24.62	3.87	-55.4	-59.2	10.2	1.28e-03	0	27	0	20971520	77	5453
2026-01-15 00:42:18.58	24.62	3.94	-55.0	-58.3	10.9	4.43e-04	0	27	0	24117248	76	5197
2026-01-15 00:42:19.58	24.62	4.01	-54.5	-57.7	11.3	6.79e-05	0	26	0	27262976	75	5111
2026-01-15 00:42:20.58	24.63	4.08	-54.8	-58.1	11.0	1.29e-04	0	27	0	30408704	75	5369
2026-01-15 00:42:21.59	24.63	4.15	-55.0	-58.5	10.6	3.37e-04	0	27	0	33554432	75	5640
2026-01-15 00:42:22.58	24.63	4.21	-54.4	-57.4	11.5	1.37e-05	0	27	0	36700160	75	4951
2026-01-15 00:42:23.58	24.64	4.28	-54.6	-57.8	11.2	4.27e-05	0	27	0	39845888	75	5204
2026-01-15 00:42:24.58	24.64	4.35	-54.8	-58.1	11.0	2.60e-04	0	27	0	42991616	75	5397
2026-01-15 00:42:25.58	24.64	4.42	-55.1	-58.6	10.6	1.89e-04	0	27	0	46137344	75	5711
2026-01-15 00:42:26.58	24.64	4.49	-55.2	-58.8	10.5	1.67e-04	0	27	0	49283072	75	5831
2026-01-15 00:42:27.57	24.65	4.56	-55.4	-59.1	10.3	7.60e-04	0	27	0	52428800	76	5672
2026-01-15 00:42:28.56	24.65	4.63	-55.8	-60.1	9.5	3.16e-03	0	27	0	55574528	76	6365
2026-01-15 00:42:29.56	24.65	4.70	-55.9	-60.2	9.4	3.28e-03	0	27	0	58720256	76	6446
2026-01-15 00:42:30.55	24.66	4.77	-56.0	-60.5	9.2	1.17e-02	0	27	0	61865984	77	6332
2026-01-15 00:42:31.55	24.66	4.84	-56.5	-61.8	8.2	1.42e-02	0	27	0	65011712	78	6892
2026-01-15 00:42:32.55	24.66	4.91	-56.6	-62.0	8.0	3.46e-02	0	27	0	68157440	78	7070
2026-01-15 00:42:33.54	24.67	4.98	-56.9	-63.0	7.1	8.18e-02	0	27	0	70254592	78	7910
2026-01-15 00:42:34.54	24.67	5.05	-55.1	-59.2	10.1	7.80e-02	0	27	0	73400320	77	5431
2026-01-15 00:42:35.54	24.67	5.12	-53.7	-56.1	12.4	0.00e+00	0	27	0	76546048	73	4791
2026-01-15 00:42:36.54	24.68	5.20	-56.9	-62.9	7.4	1.25e-03	0	27	0	79691776	78	7835
2026-01-15 00:42:37.53	24.68	5.27	-57.0	-63.0	5.2	1.47e+00	0	27	104	80740352	80	7092
2026-01-15 00:42:38.52	24.68	5.34	-54.9	-58.0	11.4	0.00e+00	0	27	0	82837504	74	5607
2026-01-15 00:42:39.52	24.68	5.41	-55.1	-58.3	11.0	1.35e-01	0	27	0	85983232	77	4916
2026-01-15 00:42:40.51	24.69	5.48	-53.1	-55.3	12.9	0.00e+00	0	27	0	89128960	72	4606
2026-01-15 00:42:41.51	24.69	5.55	-52.6	-54.6	13.2	0.00e+00	0	27	0	92274688	71	4528
2026-01-15 00:42:42.50	24.69	5.63	-52.1	-54.0	13.5	0.00e+00	0	27	0	95420416	70	4455
2026-01-15 00:42:43.49	24.70	5.70	-52.1	-53.9	13.6	0.00e+00	0	27	0	98566144	70	4439
2026-01-15 00:42:44.49	24.70	5.77	-52.1	-54.0	13.5	0.00e+00	0	27	0	100663296	70	4447
2026-01-15 00:42:45.48	24.70	5.84	-52.2	-54.0	13.5	0.00e+00	0	27	0	103809024	70	4461
2026-01-15 00:42:46.48	24.71	5.92	-52.0	-53.9	13.6	0.00e+00	0	27	0	106954752	70	4394
2026-01-15 00:42:47.47	24.71	5.99	-52.2	-54.0	13.5	0.00e+00	0	27	0	110100480	70	4492
2026-01-15 00:42:48.47	24.71	6.06	-51.9	-53.7	13.7	0.00e+00	0	27	0	113246208	70	4304
2026-01-15 00:42:49.47	24.71	6.14	-52.1	-53.9	13.6	0.00e+00	0	27	0	116391936	70	4402
2026-01-15 00:42:50.46	24.72	6.21	-52.2	-54.0	13.5	0.00e+00	0	27	0	119537664	70	4478
2026-01-15 00:42:51.45	24.72	6.29	-51.9	-53.7	13.7	0.00e+00	0	27	0	122683392	70	4316
2026-01-15 00:42:52.45	24.72	6.36	-51.9	-53.7	13.7	0.00e+00	0	27	0	125829120	70	4314
2026-01-15 00:42:53.44	24.73	6.43	-52.1	-53.8	13.6	0.00e+00	0	27	0	128974848	70	4386
2026-01-15 00:42:54.43	24.73	6.51	-52.0	-53.7	13.7	0.00e+00	0	27	0	132120576	70	4326
2026-01-15 00:42:55.43	24.73	6.58	-51.9	-53.6	13.8	0.00e+00	0	27	0	135266304	70	4278
2026-01-15 00:42:56.44	24.73	6.66	-51.9	-53.7	13.7	0.00e+00	0	27	0	138412032	70	4296
2026-01-15 00:42:57.43	24.74	6.74	-51.8	-53.5	13.8	0.00e+00	0	27	0	141557760	70	4214
2026-01-15 00:42:58.44	24.74	6.81	-51.9	-53.6	13.8	0.00e+00	0	27	0	144703488	70	4279
2026-01-15 00:42:59.43	24.74	6.89	-51.9	-53.6	13.8	0.00e+00	0	27	0	147849216	70	4272
2026-01-15 00:43:00.43	24.75	6.97	-51.7	-53.4	13.9	0.00e+00	0	27	0	150994944	70	4153
2026-01-15 00:43:01.43	24.75	7.04	-51.8	-53.5	13.7	0.00e+00	0	27	0	154140672	69	4478
2026-01-15 00:43:02.42	24.75	7.12	-51.8	-53.5	13.8	0.00e+00	0	27	0	157286400	69	4447
2026-01-15 00:43:03.42	24.75	7.20	-51.6	-53.2	13.9	0.00e+00	0	27	0	160432128	69	4332
2026-01-15 00:43:04.42	24.76	7.27	-51.6	-53.3	13.8	0.00e+00	0	27	0	163577856	69	4381
2026-01-15 00:43:05.42	24.76	7.35	-51.7	-53.4	13.8	0.00e+00	0	27	0	166723584	69	4440
2026-01-15 00:43:06.42	24.76	7.43	-51.7	-53.5	13.8	0.00e+00	0	27	0	169869312	69	4442
2026-01-15 00:43:07.43	24.77	7.51	-51.6	-53.2	13.9	0.00e+00	0	27	0	173015040	69	4324
2026-01-15 00:43:08.43	24.77	7.59	-51.6	-53.3	13.9	0.00e+00	0	27	0	176160768	69	4361
2026-01-15 00:43:09.42	24.77	7.66	-51.5	-53.1	14.0	0.00e+00	0	27	0	179306496	69	4281
2026-01-15 00:43:10.42	24.77	7.74	-51.4	-53.1	14.0	0.00e+00	0	27	0	182452224	69	4255
2026-01-15 00:43:11.42	24.78	7.82	-51.4	-53.0	14.0	0.00e+00	0	27	0	185597952	69	4237
2026-01-15 00:43:12.41	24.78	7.90	-51.4	-53.0	14.0	0.00e+00	0	27	0	188743680	69	4229
2026-01-15 00:43:13.41	24.78	7.98	-51.5	-53.1	14.0	0.00e+00	0	27	0	191889408	69	4274
2026-01-15 00:43:14.42	24.79	8.06	-51.3	-53.0	14.0	0.00e+00	0	27	0	195035136	69	4194
2026-01-15 00:43:15.42	24.79	8.14	-51.3	-52.9	14.1	0.00e+00	0	27	0	198180864	69	4171
2026-01-15 00:43:16.42	24.79	8.22	-51.4	-53.0	14.0	0.00e+00	0	27	0	201326592	69	4237
2026-01-15 00:43:17.42	24.79	8.30	-51.4	-53.0	14.0	0.00e+00	0	27	0	204472320	69	4213
2026-01-15 00:43:18.43	24.80	8.38	-51.3	-52.9	14.1	0.00e+00	0	27	0	207618048	69	4147
2026-01-15 00:43:19.43	24.80	8.46	-51.2	-52.7	14.1	0.00e+00	0	27	0	210763776	68	4329
2026-01-15 00:43:20.42	24.80	8.55	-51.2	-52.8	14.0	0.00e+00	0	27	0	213909504	68	4362
2026-01-15 00:43:21.43	24.80	8.63	-51.3	-52.9	14.0	0.00e+00	0	27	0	217055232	68	4406
2026-01-15 00:43:22.42	24.81	8.71	-51.1	-52.7	14.1	0.00e+00	0	27	0	220200960	68	4299
2026-01-15 00:43:23.43	24.81	8.79	-51.2	-52.7	14.1	0.00e+00	0	27	0	223346688	68	4325
2026-01-15 00:43:24.42	24.81	8.87	-51.2	-52.7	14.1	0.00e+00	0	27	0	226492416	68	4321
2026-01-15 00:43:25.41	24.82	8.96	-51.1	-52.6	14.1	0.00e+00	0	27	0	228589568	68	4266
2026-01-15 00:43:26.41	24.82	9.04	-51.0	-52.6	14.2	0.00e+00	0	27	0	231735296	68	4247
2026-01-15 00:43:27.41	24.82	9.12	-51.2	-52.7	14.1	0.00e+00	0	27	0	234881024	68	4326
2026-01-15 00:43:28.40	24.82	9.20	-51.1	-52.7	14.1	0.00e+00	0	27	0	238026752	68	4305
2026-01-15 00:43:29.40	24.83	9.29	-51.0	-52.5	14.2	0.00e+00	0	27	0	241172480	68	4194
2026-01-15 00:43:30.39	24.83	9.37	-50.9	-52.4	14.2	0.00e+00	0	27	0	244318208	68	4190
2026-01-15 00:43:31.39	24.83	9.46	-50.9	-52.4	14.2	0.00e+00	0	27	0	247463936	68	4183
2026-01-15 00:43:32.39	24.83	9.54	-51.0	-52.5	14.2	0.00e+00	0	27	0	250609664	68	4209
2026-01-15 00:43:33.39	24.84	9.63	-50.8	-52.3	14.3	0.00e+00	0	27	0	253755392	68	4130
2026-01-15 00:43:34.39	24.84	9.71	-50.8	-52.3	14.3	0.00e+00	0	27	0	256901120	68	4120
2026-01-15 00:43:35.39	24.84	9.80	-50.9	-52.3	14.3	0.00e+00	0	27	0	260046848	68	4138
2026-01-15 00:43:36.38	24.84	9.88	-50.8	-52.3	14.3	0.00e+00	0	27	0	263192576	68	4111
2026-01-15 00:43:37.38	24.85	9.97	-50.9	-52.4	14.3	0.00e+00	0	27	0	266338304	68	4151
2026-01-15 00:43:38.38	24.85	10.06	-50.7	-52.2	14.4	0.00e+00	0	27	0	269484032	68	4069
2026-01-15 00:43:39.39	24.85	10.14	-50.8	-52.2	14.3	0.00e+00	0	27	0	272629760	68	4097
2026-01-15 00:43:40.39	24.85	10.23	-50.7	-52.2	14.3	0.00e+00	0	27	0	275775488	68	4068
2026-01-15 00:43:41.39	24.86	10.32	-50.5	-51.9	14.3	0.00e+00	0	27	0	278921216	67	4181
2026-01-15 00:43:42.39	24.86	10.41	-50.5	-51.9	14.3	0.00e+00	0	27	0	282066944	67	4159
2026-01-15 00:43:43.39	24.86	10.49	-50.5	-52.0	14.3	0.00e+00	0	27	0	285212672	67	4200
2026-01-15 00:43:44.38	24.86	10.58	-50.6	-52.0	14.3	0.00e+00	0	27	0	288358400	67	4226
2026-01-15 00:43:45.38	24.87	10.67	-50.5	-51.9	14.3	0.00e+00	0	27	0	291504128	67	4158
2026-01-15 00:43:46.38	24.87	10.76	-50.4	-51.8	14.4	0.00e+00	0	28	0	294649856	67	4144
2026-01-15 00:43:47.38	24.87	10.85	-50.3	-51.8	14.4	0.00e+00	0	27	0	297795584	67	4101
2026-01-15 00:43:48.38	24.87	10.94	-50.4	-51.8	14.4	0.00e+00	0	27	0	300941312	67	4128
2026-01-15 00:43:49.37	24.88	11.03	-50.4	-51.8	14.4	0.00e+00	0	27	0	304087040	67	4137
2026-01-15 00:43:50.37	24.88	11.12	-50.3	-51.7	14.4	0.00e+00	0	27	0	307232768	67	4078
2026-01-15 00:43:51.37	24.88	11.21	-50.3	-51.7	14.4	0.00e+00	0	27	0	310378496	67	4075
2026-01-15 00:43:52.37	24.88	11.30	-50.4	-51.8	14.4	0.00e+00	0	28	0	313524224	67	4136
2026-01-15 00:43:53.36	24.89	11.39	-50.3	-51.7	14.5	0.00e+00	0	28	0	316669952	67	4065
2026-01-15 00:43:54.36	24.89	11.48	-50.3	-51.7	14.4	0.00e+00	0	27	0	319815680	67	4069
2026-01-15 00:43:55.35	24.89	11.57	-50.4	-51.7	14.4	0.00e+00	0	28	0	322961408	67	4097
2026-01-15 00:43:56.36	24.89	11.67	-50.2	-51.5	14.4	0.00e+00	0	27	0	326107136	66	4236
2026-01-15 00:43:57.35	24.89	11.76	-50.1	-51.5	14.4	0.00e+00	0	27	0	329252864	66	4235
2026-01-15 00:43:58.35	24.90	11.85	-50.2	-51.5	14.4	0.00e+00	0	27	0	332398592	66	4242
2026-01-15 00:43:59.35	24.90	11.94	-50.1	-51.5	14.4	0.00e+00	0	27	0	335544320	66	4215
2026-01-15 00:44:00.35	24.90	12.04	-50.1	-51.5	14.4	0.00e+00	0	27	0	338690048	66	4221
2026-01-15 00:44:01.35	24.90	12.13	-50.2	-51.6	14.4	0.00e+00	0	27	0	341835776	66	4246
2026-01-15 00:44:02.34	24.91	12.22	-50.1	-51.5	14.5	0.00e+00	0	27	0	344981504	66	4201
2026-01-15 00:44:03.35	24.91	12.32	-50.1	-51.4	14.4	0.00e+00	0	27	0	348127232	66	4193
2026-01-15 00:44:04.35	24.91	12.42	-50.1	-51.4	14.5	0.00e+00	0	27	0	351272960	66	4179
2026-01-15 00:44:05.35	24.91	12.51	-50.1	-51.5	14.4	0.00e+00	0	28	0	354418688	66	4214
2026-01-15 00:44:06.35	24.91	12.61	-50.0	-51.4	14.5	0.00e+00	0	28	0	357564416	66	4168
2026-01-15 00:44:07.34	24.92	12.70	-50.1	-51.5	14.5	0.00e+00	0	28	0	359661568	66	4199
2026-01-15 00:44:08.34	24.92	12.80	-50.0	-51.4	14.5	0.00e+00	0	28	0	362807296	66	4158
2026-01-15 00:44:09.34	24.92	12.90	-50.0	-51.4	14.5	0.00e+00	0	27	0	365953024	66	4173
2026-01-15 00:44:10.34	24.92	12.99	-50.0	-51.4	14.5	0.00e+00	0	27	0	369098752	66	4170
2026-01-15 00:44:11.34	24.93	13.09	-50.1	-51.5	14.4	0.00e+00	0	27	0	372244480	66	4196
2026-01-15 00:44:12.34	24.93	13.19	-50.0	-51.4	14.5	0.00e+00	0	27	0	375390208	66	4162
2026-01-15 00:44:13.34	24.93	13.29	-50.0	-51.4	14.5	0.00e+00	0	27	0	378535936	66	4146
2026-01-15 00:44:14.34	24.93	13.39	-50.0	-51.3	14.5	0.00e+00	0	27	0	381681664	66	4135
2026-01-15 00:44:15.34	24.93	13.49	-50.0	-51.3	14.5	0.00e+00	0	27	0	384827392	66	4131
2026-01-15 00:44:16.34	24.94	13.59	-50.0	-51.4	14.5	0.00e+00	0	28	0	387973120	66	4163
2026-01-15 00:44:17.34	24.94	13.69	-49.9	-51.3	14.6	0.00e+00	0	27	0	391118848	66	4102
2026-01-15 00:44:18.34	24.94	13.79	-50.0	-51.4	14.5	0.00e+00	0	27	0	394264576	66	4155
2026-01-15 00:44:19.34	24.94	13.89	-49.9	-51.2	14.6	0.00e+00	0	27	0	397410304	66	4082
2026-01-15 00:44:20.33	24.94	13.99	-49.9	-51.3	14.5	0.00e+00	0	28	0	400556032	66	4103
2026-01-15 00:44:21.34	24.95	14.09	-49.9	-51.2	14.6	0.00e+00	0	27	0	403701760	66	4078
2026-01-15 00:44:22.33	24.95	14.20	-49.8	-51.1	14.6	0.00e+00	0	27	0	406847488	66	4033
2026-01-15 00:44:23.33	24.95	14.30	-49.9	-51.2	14.6	0.00e+00	0	27	0	409993216	66	4068
2026-01-15 00:44:24.33	24.95	14.40	-49.9	-51.3	14.5	0.00e+00	0	28	0	413138944	66	4099
2026-01-15 00:44:25.33	24.95	14.51	-49.8	-51.1	14.6	0.00e+00	0	28	0	416284672	66	4047
2026-01-15 00:44:26.33	24.96	14.61	-49.9	-51.2	14.6	0.00e+00	0	27	0	419430400	66	4076
2026-01-15 00:44:27.33	24.96	14.71	-49.8	-51.1	14.6	0.00e+00	0	28	0	422576128	66	4040
2026-01-15 00:44:28.32	24.96	14.82	-49.8	-51.1	14.6	0.00e+00	0	28	0	425721856	66	4016
2026-01-15 00:44:29.31	24.96	14.92	-49.8	-51.1	14.6	0.00e+00	0	28	0	428867584	66	4005
2026-01-15 00:44:30.31	24.96	15.03	-49.7	-51.0	14.7	0.00e+00	0	28	0	432013312	66	3988
2026-01-15 00:44:31.31	24.96	15.14	-49.8	-51.1	14.6	0.00e+00	0	28	0	435159040	66	4014
2026-01-15 00:44:32.31	24.97	15.24	-49.8	-51.0	14.6	0.00e+00	0	27	0	438304768	66	4003
2026-01-15 00:44:33.30	24.97	15.35	-49.8	-51.0	14.7	0.00e+00	0	28	0	441450496	66	4000
2026-01-15 00:44:34.31	24.97	15.46	-49.7	-51.0	14.7	0.00e+00	0	28	0	444596224	66	3999
2026-01-15 00:44:35.31	24.97	15.57	-49.7	-51.0	14.7	0.00e+00	0	27	0	447741952	66	3980
2026-01-15 00:44:36.31	24.97	15.67	-49.8	-51.1	14.6	0.00e+00	0	28	0	450887680	66	4009
2026-01-15 00:44:37.31	24.97	15.78	-49.8	-51.1	14.7	0.00e+00	0	27	0	454033408	66	4016
2026-01-15 00:44:38.31	24.98	15.89	-49.8	-51.1	14.6	0.00e+00	0	28	0	457179136	66	4027
2026-01-15 00:44:39.30	24.98	16.00	-49.9	-51.2	14.6	0.00e+00	0	27	0	460324864	66	4067
2026-01-15 00:44:40.30	24.98	16.11	-49.9	-51.2	14.6	0.00e+00	0	28	0	463470592	66	4053
2026-01-15 00:44:41.29	24.98	16.22	-49.8	-51.1	14.6	0.00e+00	0	28	0	466616320	66	4039
2026-01-15 00:44:42.29	24.98	16.34	-49.9	-51.2	14.6	0.00e+00	0	28	0	469762048	66	4076
2026-01-15 00:44:43.29	24.98	16.45	-49.9	-51.2	14.6	0.00e+00	0	28	0	472907776	66	4078
2026-01-15 00:44:44.29	24.99	16.56	-49.9	-51.2	14.6	0.00e+00	0	28	0	476053504	66	4061
2026-01-15 00:44:45.29	24.99	16.67	-49.9	-51.3	14.6	0.00e+00	0	28	0	479199232	66	4108
2026-01-15 00:44:46.28	24.99	16.79	-49.9	-51.2	14.6	0.00e+00	0	27	0	481296384	66	4090
2026-01-15 00:44:47.28	24.99	16.90	-49.9	-51.3	14.6	0.00e+00	0	28	0	484442112	66	4108
2026-01-15 00:44:48.28	24.99	17.02	-49.9	-51.2	14.6	0.00e+00	0	28	0	487587840	66	4090
2026-01-15 00:44:49.28	24.99	17.13	-49.9	-51.3	14.6	0.00e+00	0	28	0	490733568	66	4109
2026-01-15 00:44:50.27	24.99	17.25	-50.0	-51.3	14.5	0.00e+00	0	27	0	493879296	66	4135
2026-01-15 00:44:51.27	25.00	17.36	-50.0	-51.3	14.5	0.00e+00	0	28	0	497025024	66	4123
2026-01-15 00:44:52.28	25.00	17.48	-50.0	-51.4	14.5	0.00e+00	0	28	0	500170752	66	4151
2026-01-15 00:44:53.28	25.00	17.60	-50.0	-51.3	14.6	0.00e+00	0	28	0	503316480	66	4118
2026-01-15 00:44:54.28	25.00	17.72	-50.0	-51.3	14.5	0.00e+00	0	27	0	506462208	66	4126
2026-01-15 00:44:55.29	25.00	17.84	-49.9	-51.2	14.6	0.00e+00	0	27	0	509607936	66	4092
2026-01-15 00:44:56.28	25.00	17.96	-50.0	-51.3	14.6	0.00e+00	0	27	0	512753664	66	4116
2026-01-15 00:44:57.27	25.00	18.08	-50.0	-51.3	14.6	0.00e+00	0	28	0	515899392	66	4110
2026-01-15 00:44:58.27	25.01	18.20	-49.9	-51.2	14.6	0.00e+00	0	27	0	519045120	66	4094
2026-01-15 00:44:59.27	25.01	18.32	-50.0	-51.4	14.5	0.00e+00	0	28	0	522190848	66	4148
2026-01-15 00:45:00.25	25.01	18.44	-49.9	-51.2	14.6	0.00e+00	0	28	0	525336576	66	4084
2026-01-15 00:45:01.23	25.01	18.56	-49.9	-51.2	14.6	0.00e+00	0	28	0	528482304	66	4086
2026-01-15 00:45:02.23	25.01	18.68	-49.9	-51.3	14.6	0.00e+00	0	28	0	531628032	66	4103
2026-01-15 00:45:03.23	25.01	18.80	-49.8	-51.1	14.6	0.00e+00	0	28	0	534773760	66	4046
2026-01-15 00:45:04.23	25.01	18.93	-49.9	-51.1	14.6	0.00e+00	0	28	0	537919488	66	4050
2026-01-15 00:45:05.23	25.01	19.05	-49.9	-51.1	14.6	0.00e+00	0	28	0	541065216	66	4050
2026-01-15 00:45:06.22	25.01	19.18	-49.9	-51.2	14.6	0.00e+00	0	28	0	544210944	66	4058
2026-01-15 00:45:07.23	25.02	19.31	-49.8	-51.1	14.6	0.00e+00	0	28	0	547356672	66	4041
2026-01-15 00:45:08.22	25.02	19.43	-49.8	-51.1	14.6	0.00e+00	0	27	0	550502400	66	4045
2026-01-15 00:45:09.22	25.02	19.56	-49.8	-51.1	14.7	0.00e+00	0	28	0	553648128	66	4029
2026-01-15 00:45:10.22	25.02	19.69	-49.8	-51.1	14.7	0.00e+00	0	28	0	556793856	66	4007
2026-01-15 00:45:11.22	25.02	19.82	-49.7	-51.0	14.7	0.00e+00	0	28	0	559939584	66	3978
2026-01-15 00:45:12.23	25.02	19.95	-49.7	-51.0	14.7	0.00e+00	0	28	0	563085312	66	3975
2026-01-15 00:45:13.23	25.02	20.08	-49.7	-51.0	14.7	0.00e+00	0	28	0	566231040	66	3998
2026-01-15 00:45:14.23	25.02	20.21	-49.8	-51.1	14.6	0.00e+00	0	28	0	569376768	66	4026
2026-01-15 00:45:15.23	25.02	20.34	-49.8	-51.1	14.6	0.00e+00	0	28	0	572522496	66	4034
2026-01-15 00:45:16.23	25.02	20.47	-49.6	-50.8	14.6	0.00e+00	0	28	0	575668224	65	4139
2026-01-15 00:45:17.23	25.02	20.60	-49.6	-50.9	14.6	0.00e+00	0	28	0	578813952	65	4172
2026-01-15 00:45:18.23	25.02	20.74	-49.6	-50.9	14.6	0.00e+00	0	28	0	581959680	65	4156
2026-01-15 00:45:19.23	25.03	20.87	-49.4	-50.6	14.7	0.00e+00	0	28	0	585105408	65	4042
2026-01-15 00:45:20.23	25.03	21.01	-49.4	-50.6	14.7	0.00e+00	0	28	0	588251136	65	4049
2026-01-15 00:45:21.23	25.03	21.14	-49.3	-50.6	14.7	0.00e+00	0	28	0	591396864	65	4014
2026-01-15 00:45:22.22	25.03	21.28	-49.3	-50.6	14.7	0.00e+00	0	28	0	594542592	65	4017
2026-01-15 00:45:23.21	25.03	21.41	-49.4	-50.6	14.7	0.00e+00	0	28	0	597688320	65	4031
2026-01-15 00:45:24.21	25.03	21.55	-49.2	-50.4	14.8	0.00e+00	0	28	0	600834048	65	3955
2026-01-15 00:45:25.21	25.03	21.69	-48.9	-50.1	14.8	0.00e+00	0	28	0	603979776	64	4038
2026-01-15 00:45:26.21	25.03	21.83	-48.8	-50.0	14.8	0.00e+00	0	28	0	607125504	64	3977
2026-01-15 00:45:27.21	25.03	21.97	-48.8	-50.0	14.8	0.00e+00	0	28	0	609222656	64	3979
2026-01-15 00:45:28.21	25.03	22.11	-48.8	-50.0	14.9	0.00e+00	0	28	0	612368384	64	3959
2026-01-15 00:45:29.21	25.03	22.25	-48.8	-50.0	14.8	0.00e+00	0	27	0	615514112	64	4001
2026-01-15 00:45:30.20	25.03	22.40	-48.7	-49.9	14.9	0.00e+00	0	28	0	618659840	64	3935
2026-01-15 00:45:31.21	25.03	22.54	-48.7	-49.9	14.8	0.00e+00	0	28	0	621805568	63	4162
2026-01-15 00:45:32.21	25.03	22.68	-48.6	-49.7	14.8	0.00e+00	0	28	0	624951296	63	4098
2026-01-15 00:45:33.21	25.03	22.83	-48.6	-49.8	14.8	0.00e+00	0	28	0	628097024	63	4114
2026-01-15 00:45:34.21	25.03	22.98	-48.5	-49.7	14.8	0.00e+00	0	28	0	631242752	63	4067
2026-01-15 00:45:35.21	25.03	23.12	-48.6	-49.8	14.8	0.00e+00	0	28	0	634388480	63	4109
2026-01-15 00:45:36.21	25.03	23.27	-48.5	-49.7	14.8	0.00e+00	0	28	0	637534208	63	4073
2026-01-15 00:45:37.21	25.03	23.42	-48.5	-49.6	14.8	0.00e+00	0	28	0	640679936	63	4041
2026-01-15 00:45:38.21	25.03	23.57	-48.5	-49.6	14.9	0.00e+00	0	27	0	643825664	63	4041
2026-01-15 00:45:39.22	25.03	23.72	-48.6	-49.7	14.8	0.00e+00	0	28	0	646971392	63	4086
2026-01-15 00:45:40.22	25.03	23.87	-48.5	-49.7	14.8	0.00e+00	0	28	0	650117120	63	4073
2026-01-15 00:45:41.22	25.03	24.02	-48.5	-49.7	14.8	0.00e+00	0	28	0	653262848	63	4057
2026-01-15 00:45:42.21	25.03	24.17	-48.4	-49.6	14.9	0.00e+00	0	28	0	656408576	63	4027
2026-01-15 00:45:43.21	25.03	24.33	-48.6	-49.7	14.8	0.00e+00	0	28	0	659554304	63	4080
2026-01-15 00:45:44.21	25.03	24.48	-48.6	-49.7	14.8	0.00e+00	0	28	0	662700032	63	4081
2026-01-15 00:45:45.22	25.03	24.64	-48.6	-49.8	14.8	0.00e+00	0	28	0	665845760	63	4101
2026-01-15 00:45:46.22	25.03	24.80	-48.6	-49.7	14.8	0.00e+00	0	28	0	668991488	63	4098
2026-01-15 00:45:47.22	25.03	24.95	-48.7	-49.8	14.8	0.00e+00	0	28	0	672137216	63	4136
2026-01-15 00:45:48.22	25.03	25.11	-48.7	-49.8	14.8	0.00e+00	0	28	0	675282944	63	4134
2026-01-15 00:45:49.22	25.03	25.27	-48.8	-49.9	14.8	0.00e+00	0	28	0	678428672	63	4180
2026-01-15 00:45:50.21	25.03	25.43	-48.7	-49.9	14.8	0.00e+00	0	28	0	681574400	63	4157
2026-01-15 00:45:51.22	25.03	25.59	-48.8	-49.9	14.8	0.00e+00	0	28	0	684720128	63	4192
2026-01-15 00:45:52.21	25.03	25.75	-48.8	-50.0	14.7	0.00e+00	0	28	0	687865856	63	4200
2026-01-15 00:45:53.22	25.03	25.92	-49.0	-50.2	14.7	0.00e+00	0	28	0	691011584	63	4301
2026-01-15 00:45:54.21	25.03	26.08	-49.0	-50.2	14.7	0.00e+00	0	28	0	694157312	63	4313
2026-01-15 00:45:55.22	25.03	26.25	-49.2	-50.4	14.6	0.00e+00	0	28	0	697303040	63	4411
2026-01-15 00:45:56.22	25.02	26.41	-49.2	-50.4	14.6	0.00e+00	0	28	0	700448768	63	4427
2026-01-15 00:45:57.21	25.02	26.58	-49.3	-50.5	14.6	0.00e+00	0	28	0	703594496	63	4482
2026-01-15 00:45:58.21	25.02	26.75	-49.4	-50.6	14.6	0.00e+00	0	28	0	706740224	63	4514
2026-01-15 00:45:59.21	25.02	26.92	-49.4	-50.7	14.6	0.00e+00	0	28	0	709885952	64	4302
2026-01-15 00:46:00.20	25.02	27.09	-49.5	-50.7	14.6	0.00e+00	0	28	0	713031680	64	4340
2026-01-15 00:46:01.19	25.02	27.26	-49.6	-50.9	14.5	0.00e+00	0	28	0	716177408	64	4418
2026-01-15 00:46:02.18	25.02	27.43	-49.8	-51.0	14.5	0.00e+00	0	28	0	719323136	64	4491
2026-01-15 00:46:03.18	25.02	27.60	-50.0	-51.3	14.5	0.00e+00	0	28	0	722468864	65	4387
2026-01-15 00:46:04.17	25.02	27.78	-49.9	-51.2	14.5	0.00e+00	0	28	0	725614592	65	4328
2026-01-15 00:46:05.18	25.01	27.95	-50.1	-51.4	14.5	0.00e+00	0	28	0	728760320	65	4399
2026-01-15 00:46:06.18	25.01	28.13	-50.1	-51.4	14.5	0.00e+00	0	28	0	731906048	65	4401
2026-01-15 00:46:07.17	25.01	28.31	-50.2	-51.5	14.4	0.00e+00	0	28	0	735051776	65	4464
2026-01-15 00:46:08.17	25.01	28.49	-50.2	-51.6	14.4	0.00e+00	0	28	0	738197504	65	4495
2026-01-15 00:46:09.17	25.01	28.67	-50.4	-51.7	14.3	0.00e+00	0	28	0	741343232	65	4584
2026-01-15 00:46:10.17	25.01	28.85	-50.3	-51.6	14.4	0.00e+00	0	28	0	743440384	65	4527
2026-01-15 00:46:11.17	25.01	29.03	-50.4	-51.7	14.3	0.00e+00	0	28	0	746586112	65	4594
2026-01-15 00:46:12.16	25.00	29.21	-50.3	-51.6	14.4	0.00e+00	0	28	0	749731840	65	4522
2026-01-15 00:46:13.16	25.00	29.40	-50.3	-51.7	14.4	0.00e+00	0	28	0	752877568	65	4559
2026-01-15 00:46:14.16	25.00	29.59	-50.1	-51.5	14.4	0.00e+00	0	28	0	756023296	65	4447
2026-01-15 00:46:15.16	25.00	29.77	-50.1	-51.4	14.5	0.00e+00	0	28	0	759169024	65	4407
2026-01-15 00:46:16.17	25.00	29.96	-50.1	-51.4	14.5	0.00e+00	0	28	0	762314752	65	4413
2026-01-15 00:46:17.17	24.99	30.15	-49.8	-51.1	14.5	0.00e+00	0	28	0	765460480	65	4282
2026-01-15 00:46:18.18	24.99	30.35	-49.8	-51.1	14.6	0.00e+00	0	28	0	768606208	65	4256
2026-01-15 00:46:19.18	24.99	30.54	-49.9	-51.2	14.5	0.00e+00	0	28	0	771751936	65	4319
2026-01-15 00:46:20.19	24.99	30.74	-49.5	-50.8	14.7	0.00e+00	0	28	0	774897664	65	4103
2026-01-15 00:46:21.19	24.98	30.93	-49.4	-50.6	14.7	0.00e+00	0	28	0	778043392	65	4051
2026-01-15 00:46:22.19	24.98	31.13	-49.2	-50.5	14.8	0.00e+00	0	28	0	781189120	65	3960
2026-01-15 00:46:23.19	24.98	31.33	-49.1	-50.3	14.7	0.00e+00	0	28	0	784334848	64	4140
2026-01-15 00:46:24.19	24.98	31.53	-49.2	-50.4	14.7	0.00e+00	0	28	0	787480576	64	4187
2026-01-15 00:46:25.20	24.97	31.73	-49.1	-50.3	14.8	0.00e+00	0	28	0	790626304	64	4133
2026-01-15 00:46:26.19	24.97	31.93	-49.1	-50.3	14.8	0.00e+00	0	28	0	793772032	64	4111
2026-01-15 00:46:27.20	24.97	32.14	-49.2	-50.5	14.7	0.00e+00	0	28	0	796917760	64	4201
2026-01-15 00:46:28.20	24.97	32.34	-49.2	-50.4	14.7	0.00e+00	0	28	0	800063488	64	4162
2026-01-15 00:46:29.19	24.96	32.55	-49.3	-50.5	14.7	0.00e+00	0	28	0	803209216	64	4226
2026-01-15 00:46:30.20	24.96	32.76	-49.4	-50.6	14.7	0.00e+00	0	28	0	806354944	64	4256
2026-01-15 00:46:31.19	24.96	32.96	-49.5	-50.8	14.6	0.00e+00	0	28	0	809500672	64	4345
2026-01-15 00:46:32.19	24.95	33.17	-49.6	-50.9	14.6	0.00e+00	0	28	0	812646400	64	4416
2026-01-15 00:46:33.19	24.95	33.39	-49.8	-51.0	14.5	0.00e+00	0	28	0	815792128	64	4492
2026-01-15 00:46:34.20	24.95	33.60	-50.0	-51.2	14.5	0.00e+00	0	28	0	818937856	65	4335
2026-01-15 00:46:35.20	24.94	33.82	-50.3	-51.6	14.4	0.00e+00	0	28	0	822083584	65	4502
2026-01-15 00:46:36.20	24.94	34.03	-50.4	-51.7	14.4	0.00e+00	0	28	0	825229312	65	4570
2026-01-15 00:46:37.20	24.93	34.25	-50.6	-51.9	14.4	0.00e+00	0	28	0	828375040	66	4421
2026-01-15 00:46:38.20	24.93	34.47	-50.8	-52.2	14.3	0.00e+00	0	28	0	831520768	66	4553
2026-01-15 00:46:39.20	24.93	34.69	-50.9	-52.3	14.2	0.00e+00	0	28	0	834666496	66	4606
2026-01-15 00:46:40.21	24.92	34.92	-51.1	-52.6	14.2	0.00e+00	0	28	0	837812224	67	4498
2026-01-15 00:46:41.21	24.92	35.14	-51.3	-52.8	14.1	0.00e+00	0	28	0	840957952	67	4628
2026-01-15 00:46:42.21	24.91	35.37	-51.7	-53.2	14.1	0.00e+00	0	28	0	844103680	68	4588
2026-01-15 00:46:43.21	24.91	35.60	-52.0	-53.6	14.0	0.00e+00	0	28	0	847249408	69	4532
2026-01-15 00:46:44.20	24.90	35.83	-52.1	-53.7	13.9	0.00e+00	0	28	0	850395136	69	4594
2026-01-15 00:46:45.21	24.90	36.06	-52.2	-53.8	13.9	0.00e+00	0	28	0	853540864	69	4610
2026-01-15 00:46:46.21	24.89	36.29	-52.3	-54.0	13.8	0.00e+00	0	28	0	856686592	69	4736
2026-01-15 00:46:47.20	24.89	36.52	-52.3	-54.0	13.8	0.00e+00	0	28	0	859832320	69	4720
2026-01-15 00:46:48.20	24.88	36.76	-52.3	-53.9	13.9	0.00e+00	0	28	0	862978048	69	4675
2026-01-15 00:46:49.20	24.88	37.00	-52.2	-53.8	13.9	0.00e+00	0	28	0	866123776	69	4629
2026-01-15 00:46:50.20	24.87	37.24	-52.1	-53.6	14.0	0.00e+00	0	28	0	869269504	69	4532
2026-01-15 00:46:51.20	24.87	37.48	-52.2	-53.8	13.9	0.00e+00	0	28	0	872415232	69	4627
2026-01-15 00:46:52.19	24.86	37.72	-51.7	-53.2	14.2	0.00e+00	0	28	0	875560960	69	4325
2026-01-15 00:46:53.19	24.86	37.97	-51.6	-53.0	14.3	0.00e+00	0	28	0	878706688	69	4231
2026-01-15 00:46:54.18	24.85	38.21	-51.3	-52.7	14.4	0.00e+00	0	28	0	881852416	69	4074
2026-01-15 00:46:55.18	24.84	38.46	-51.2	-52.6	14.5	0.00e+00	0	28	0	884998144	69	4036
2026-01-15 00:46:56.17	24.84	38.71	-51.1	-52.5	14.4	0.00e+00	0	28	0	888143872	68	4204
2026-01-15 00:46:57.17	24.83	38.96	-51.1	-52.5	14.4	0.00e+00	0	28	0	891289600	68	4222
2026-01-15 00:46:58.17	24.82	39.21	-51.0	-52.4	14.4	0.00e+00	0	27	0	894435328	68	4163
2026-01-15 00:46:59.17	24.82	39.47	-51.1	-52.5	14.4	0.00e+00	0	28	0	897581056	68	4211
2026-01-15 00:47:00.17	24.81	39.73	-51.1	-52.5	14.4	0.00e+00	0	28	0	899678208	68	4214
2026-01-15 00:47:01.16	24.80	39.99	-51.2	-52.6	14.3	0.00e+00	0	28	0	902823936	68	4251
2026-01-15 00:47:02.17	24.80	40.25	-51.3	-52.7	14.3	0.00e+00	0	28	0	905969664	68	4299
2026-01-15 00:47:03.16	24.79	40.51	-51.4	-52.8	14.2	0.00e+00	0	28	0	909115392	68	4377
2026-01-15 00:47:04.16	24.78	40.78	-51.6	-53.0	14.2	0.00e+00	0	28	0	912261120	68	4479
2026-01-15 00:47:05.15	24.77	41.04	-51.6	-53.0	14.2	0.00e+00	0	28	0	915406848	68	4484
2026-01-15 00:47:06.15	24.76	41.31	-51.8	-53.4	14.0	0.00e+00	0	28	0	918552576	68	4653
2026-01-15 00:47:07.16	24.76	41.59	-52.1	-53.7	14.0	0.00e+00	0	28	0	921698304	69	4564
2026-01-15 00:47:08.15	24.75	41.86	-52.2	-53.9	13.9	0.00e+00	0	28	0	924844032	69	4652
2026-01-15 00:47:09.15	24.74	42.13	-52.3	-53.9	13.9	0.00e+00	0	28	0	927989760	69	4679
2026-01-15 00:47:10.16	24.73	42.41	-52.3	-53.9	13.9	0.00e+00	0	28	0	931135488	69	4693
2026-01-15 00:47:11.16	24.72	42.69	-52.5	-54.1	13.9	0.00e+00	0	28	0	934281216	70	4520
2026-01-15 00:47:12.16	24.71	42.98	-52.5	-54.1	13.9	0.00e+00	0	28	0	937426944	70	4535
2026-01-15 00:47:13.15	24.70	43.26	-52.3	-53.9	14.0	0.00e+00	0	28	0	940572672	70	4414
2026-01-15 00:47:14.15	24.69	43.54	-52.2	-53.8	14.1	0.00e+00	0	28	0	943718400	70	4343
2026-01-15 00:47:15.15	24.68	43.83	-52.3	-53.9	14.0	0.00e+00	0	28	0	946864128	70	4402
2026-01-15 00:47:16.15	24.67	44.12	-52.2	-53.8	14.1	0.00e+00	0	28	0	950009856	70	4361
2026-01-15 00:47:17.15	24.66	44.42	-52.2	-53.8	14.1	0.00e+00	0	28	0	953155584	70	4358
2026-01-15 00:47:18.15	24.65	44.71	-52.5	-54.1	13.9	0.00e+00	0	28	0	956301312	70	4511
2026-01-15 00:47:19.15	24.64	45.01	-52.6	-54.3	13.8	0.00e+00	0	28	0	959447040	70	4608
2026-01-15 00:47:20.15	24.63	45.31	-52.7	-54.5	13.7	0.00e+00	0	28	0	962592768	70	4707
2026-01-15 00:47:21.15	24.61	45.61	-52.9	-54.6	13.7	0.00e+00	0	28	0	965738496	70	4798
2026-01-15 00:47:22.15	24.60	45.92	-53.0	-54.8	13.7	0.00e+00	0	28	0	968884224	71	4615
2026-01-15 00:47:23.16	24.59	46.22	-53.1	-54.9	13.6	0.00e+00	0	28	0	972029952	71	4692
2026-01-15 00:47:24.15	24.58	46.53	-53.0	-54.8	13.7	0.00e+00	0	28	0	975175680	71	4624
2026-01-15 00:47:25.15	24.56	46.84	-52.8	-54.6	13.8	0.00e+00	0	28	0	978321408	71	4499
2026-01-15 00:47:26.16	24.55	47.16	-52.5	-54.1	14.0	0.00e+00	0	28	0	981467136	71	4271
2026-01-15 00:47:27.16	24.54	47.47	-52.1	-53.7	14.1	0.00e+00	0	28	0	984612864	70	4304
2026-01-15 00:47:28.17	24.52	47.80	-51.8	-53.4	14.3	0.00e+00	0	28	0	987758592	70	4146
2026-01-15 00:47:29.17	24.51	48.12	-51.6	-53.1	14.3	0.00e+00	0	28	0	990904320	69	4257
2026-01-15 00:47:30.17	24.49	48.44	-51.6	-53.1	14.3	0.00e+00	0	28	0	994050048	69	4259
2026-01-15 00:47:31.17	24.48	48.76	-51.7	-53.2	14.2	0.00e+00	0	28	0	997195776	69	4329
2026-01-15 00:47:32.17	24.46	49.09	-51.7	-53.1	14.3	0.00e+00	0	28	0	1000341504	69	4287
2026-01-15 00:47:33.18	24.44	49.43	-51.5	-52.9	14.3	0.00e+00	0	28	0	1003487232	69	4164
2026-01-15 00:47:34.18	24.43	49.76	-51.3	-52.7	14.4	0.00e+00	0	28	0	1006632960	69	4087
2026-01-15 00:47:35.18	24.41	50.09	-51.2	-52.6	14.5	0.00e+00	0	28	0	1009778688	69	4023
2026-01-15 00:47:36.18	24.39	50.43	-51.2	-52.6	14.4	0.00e+00	0	28	0	1012924416	68	4247
2026-01-15 00:47:37.19	24.37	50.78	-51.3	-52.7	14.3	0.00e+00	0	28	0	1016070144	68	4297
2026-01-15 00:47:38.18	24.36	51.11	-51.5	-52.9	14.3	0.00e+00	0	28	0	1019215872	68	4415
2026-01-15 00:47:39.19	24.34	51.46	-51.6	-53.1	14.2	0.00e+00	0	28	0	1022361600	68	4497
2026-01-15 00:47:40.19	24.32	51.81	-51.7	-53.2	14.1	0.00e+00	0	28	0	1025507328	68	4558
2026-01-15 00:47:41.19	24.30	52.16	-51.7	-53.2	14.1	0.00e+00	0	28	0	1028653056	68	4598
2026-01-15 00:47:42.19	24.28	52.51	-51.5	-52.9	14.3	0.00e+00	0	28	0	1031798784	68	4406
2026-01-15 00:47:43.19	24.25	52.87	-51.4	-52.8	14.3	0.00e+00	0	28	0	1034944512	68	4381
2026-01-15 00:47:44.20	24.23	53.23	-51.1	-52.5	14.4	0.00e+00	0	28	0	1038090240	68	4226
2026-01-15 00:47:45.20	24.21	53.59	-50.8	-52.1	14.6	0.00e+00	0	28	0	1041235968	68	4025
2026-01-15 00:47:46.20	24.19	53.95	-50.8	-52.1	14.6	0.00e+00	0	28	0	1044381696	68	4042
2026-01-15 00:47:47.21	24.16	54.32	-50.5	-51.7	14.6	0.00e+00	0	28	0	1047527424	67	4096
2026-01-15 00:47:48.21	24.14	54.69	-50.5	-51.8	14.6	0.00e+00	0	28	0	1050673152	67	4108
2026-01-15 00:47:49.21	24.11	55.06	-50.1	-51.3	14.6	0.00e+00	0	28	0	1053818880	66	4134
2026-01-15 00:47:50.21	24.08	55.44	-49.8	-51.0	14.8	0.00e+00	0	28	0	1056964608	66	3973
2026-01-15 00:47:51.21	24.06	55.81	-49.7	-51.0	14.8	0.00e+00	0	28	0	1060110336	66	3961
2026-01-15 00:47:52.22	24.03	56.20	-49.9	-51.1	14.7	0.00e+00	0	28	0	1063256064	66	4043
2026-01-15 00:47:53.22	24.00	56.58	-50.1	-51.4	14.6	0.00e+00	0	28	0	1066401792	66	4164
2026-01-15 00:47:54.22	23.97	56.96	-50.4	-51.7	14.5	0.00e+00	0	28	0	1069547520	66	4322
2026-01-15 00:47:55.22	23.94	57.35	-50.0	-51.3	14.7	0.00e+00	0	28	0	1072693248	66	4111
2026-01-15 00:47:56.21	23.91	57.73	-49.9	-51.1	14.7	0.00e+00	0	28	0	1075838976	66	4050
2026-01-15 00:47:57.21	23.87	58.13	-49.6	-50.8	14.7	0.00e+00	0	28	0	1078984704	65	4125
2026-01-15 00:47:58.21	23.84	58.52	-49.4	-50.6	14.8	0.00e+00	0	28	0	1082130432	65	4031
2026-01-15 00:47:59.21	23.80	58.92	-49.3	-50.5	14.8	0.00e+00	0	28	0	1084227584	65	3974
2026-01-15 00:48:00.19	23.77	59.31	-49.2	-50.4	14.9	0.00e+00	0	28	0	1087373312	65	3950
2026-01-15 00:48:01.19	23.73	59.71	-49.1	-50.3	14.8	0.00e+00	0	28	0	1090519040	64	4136
2026-01-15 00:48:02.19	23.69	60.12	-49.1	-50.3	14.8	0.00e+00	0	28	0	1093664768	64	4105
2026-01-15 00:48:03.19	23.65	60.52	-48.8	-50.0	14.9	0.00e+00	0	28	0	1096810496	64	3973
2026-01-15 00:48:04.19	23.61	60.93	-48.9	-50.1	14.8	0.00e+00	0	28	0	1099956224	64	4019
2026-01-15 00:48:05.19	23.57	61.35	-48.8	-49.9	14.9	0.00e+00	0	28	0	1103101952	64	3933
2026-01-15 00:48:06.18	23.52	61.76	-48.7	-49.8	14.9	0.00e+00	0	28	0	1106247680	64	3908
2026-01-15 00:48:07.18	23.48	62.18	-48.7	-49.9	14.8	0.00e+00	0	28	0	1109393408	63	4166
2026-01-15 00:48:08.18	23.43	62.60	-48.5	-49.6	14.9	0.00e+00	0	28	0	1112539136	63	4040
2026-01-15 00:48:09.18	23.38	63.02	-48.4	-49.5	14.9	0.00e+00	0	28	0	1115684864	63	3965
2026-01-15 00:48:10.17	23.33	63.44	-48.3	-49.5	14.9	0.00e+00	0	28	0	1118830592	63	3959
2026-01-15 00:48:11.17	23.27	63.87	-48.6	-49.7	14.9	0.00e+00	0	28	0	1121976320	63	4086
2026-01-15 00:48:12.17	23.21	64.30	-48.6	-49.8	14.8	0.00e+00	0	28	0	1125122048	63	4115
2026-01-15 00:48:13.17	23.16	64.73	-48.6	-49.8	14.8	0.00e+00	0	28	0	1128267776	63	4111
2026-01-15 00:48:14.17	23.09	65.17	-48.6	-49.8	14.9	0.00e+00	0	28	0	1131413504	63	4101
2026-01-15 00:48:15.17	23.03	65.61	-48.5	-49.7	14.9	0.00e+00	0	28	0	1134559232	63	4056
2026-01-15 00:48:16.17	22.96	66.05	-48.3	-49.5	15.0	0.00e+00	0	28	0	1137704960	63	3969
2026-01-15 00:48:17.17	22.90	66.49	-48.2	-49.3	14.9	0.00e+00	0	28	0	1140850688	62	4119
2026-01-15 00:48:18.17	22.82	66.94	-48.3	-49.4	14.9	0.00e+00	0	28	0	1143996416	62	4170
2026-01-15 00:48:19.17	22.75	67.38	-48.6	-49.7	14.8	0.00e+00	0	28	0	1147142144	62	4329
2026-01-15 00:48:20.17	22.67	67.83	-48.6	-49.8	14.7	0.00e+00	0	28	0	1150287872	62	4353
2026-01-15 00:48:21.18	22.58	68.29	-48.5	-49.6	14.8	0.00e+00	0	28	0	1153433600	62	4284
2026-01-15 00:48:22.18	22.50	68.75	-48.3	-49.4	14.9	0.00e+00	0	28	0	1156579328	62	4162
2026-01-15 00:48:23.19	22.40	69.21	-48.1	-49.2	14.9	0.00e+00	0	28	0	1159725056	62	4084
2026-01-15 00:48:24.18	22.31	69.66	-48.1	-49.2	14.9	0.00e+00	0	28	0	1162870784	62	4076
2026-01-15 00:48:25.18	22.21	70.12	-48.4	-49.5	14.8	0.00e+00	0	28	0	1166016512	62	4214
2026-01-15 00:48:26.17	22.10	70.58	-48.5	-49.6	14.8	0.00e+00	0	28	0	1169162240	62	4278
2026-01-15 00:48:27.18	21.99	71.05	-48.1	-49.2	14.9	0.00e+00	0	28	0	1172307968	62	4086
2026-01-15 00:48:28.18	21.87	71.52	-48.0	-49.1	14.9	0.00e+00	0	28	0	1175453696	62	4043
2026-01-15 00:48:29.19	21.74	71.99	-48.2	-49.4	14.9	0.00e+00	0	28	0	1178599424	62	4152
2026-01-15 00:48:30.19	21.61	72.47	-48.4	-49.6	14.8	0.00e+00	0	28	0	1181745152	62	4255
2026-01-15 00:48:31.19	21.47	72.94	-48.4	-49.5	14.8	0.00e+00	0	28	0	1184890880	62	4238
2026-01-15 00:48:32.19	21.32	73.42	-48.4	-49.5	14.8	0.00e+00	0	28	0	1188036608	62	4221
2026-01-15 00:48:33.19	21.16	73.89	-48.2	-49.3	14.9	0.00e+00	0	28	0	1191182336	62	4130
2026-01-15 00:48:34.19	20.99	74.37	-48.0	-49.1	15.0	0.00e+00	0	28	0	1194328064	62	4026
2026-01-15 00:48:35.19	20.81	74.85	-47.9	-49.0	15.0	0.00e+00	0	28	0	1197473792	62	3984
2026-01-15 00:48:36.19	20.62	75.33	-48.0	-49.1	14.9	0.00e+00	0	28	0	1200619520	62	4026
2026-01-15 00:48:37.19	20.41	75.82	-48.1	-49.1	14.9	0.00e+00	0	28	0	1203765248	62	4048
2026-01-15 00:48:38.18	20.19	76.30	-48.0	-49.1	15.0	0.00e+00	0	28	0	1206910976	62	4028
2026-01-15 00:48:39.18	19.95	76.79	-48.4	-49.5	14.8	0.00e+00	0	28	0	1210056704	62	4222
2026-01-15 00:48:40.19	19.69	77.28	-48.2	-49.3	14.9	0.00e+00	0	28	0	1213202432	62	4110
2026-01-15 00:48:41.20	19.40	77.77	-48.2	-49.3	14.9	0.00e+00	0	28	0	1216348160	62	4135
2026-01-15 00:48:42.20	19.10	78.27	-48.3	-49.4	14.9	0.00e+00	0	28	0	1219493888	62	4168
2026-01-15 00:48:43.20	18.76	78.76	-48.6	-49.7	14.8	0.00e+00	0	28	0	1222639616	62	4321
2026-01-15 00:48:44.21	18.39	79.25	-48.8	-50.0	14.7	0.00e+00	0	28	0	1225785344	62	4464
2026-01-15 00:48:45.21	17.99	79.75	-48.7	-49.9	14.7	0.00e+00	0	28	0	1228931072	62	4392
2026-01-15 00:48:46.21	17.55	80.24	-48.6	-49.8	14.8	0.00e+00	0	28	0	1232076800	62	4343
2026-01-15 00:48:47.21	17.05	80.74	-48.5	-49.6	14.8	0.00e+00	0	28	0	1235222528	62	4286
2026-01-15 00:48:48.21	16.50	81.23	-48.7	-49.9	14.8	0.00e+00	0	28	0	1238368256	62	4414
2026-01-15 00:48:49.20	15.89	81.72	-48.7	-49.9	14.8	0.00e+00	0	28	0	1240465408	62	4403
2026-01-15 00:48:50.21	15.19	82.23	-48.8	-50.0	14.7	0.00e+00	0	28	0	1243611136	62	4474
2026-01-15 00:48:51.21	14.40	82.72	-48.8	-50.0	14.8	0.00e+00	0	28	0	1246756864	63	4222
2026-01-15 00:48:52.21	13.49	83.21	-48.9	-50.1	14.8	0.00e+00	0	28	0	1249902592	63	4263
2026-01-15 00:48:53.22	12.42	83.71	-48.8	-49.9	14.8	0.00e+00	0	28	0	1253048320	63	4192
2026-01-15 00:48:54.22	11.18	84.21	-48.5	-49.7	14.9	0.00e+00	0	28	0	1256194048	63	4053
2026-01-15 00:48:55.21	9.72	84.69	-48.7	-49.8	14.9	0.00e+00	0	28	0	1259339776	63	4117
2026-01-15 00:48:56.20	7.98	85.17	-48.8	-50.0	14.8	0.00e+00	0	28	0	1262485504	63	4217
2026-01-15 00:48:57.20	5.82	85.65	-49.0	-50.2	14.7	0.00e+00	0	28	0	1265631232	63	4322
2026-01-15 00:48:58.19	3.15	86.12	-48.8	-50.0	14.8	0.00e+00	0	28	0	1268776960	63	4216
2026-01-15 00:48:59.19	359.73	86.58	-48.8	-50.0	14.8	0.00e+00	0	28	0	1271922688	63	4214
2026-01-15 00:49:00.19	355.24	87.03	-48.6	-49.7	14.9	0.00e+00	0	28	0	1275068416	63	4064
2026-01-15 00:49:01.19	349.21	87.45	-48.5	-49.7	14.9	0.00e+00	0	28	0	1278214144	63	4058
2026-01-15 00:49:02.19	340.91	87.84	-48.9	-50.1	14.8	0.00e+00	0	28	0	1281359872	63	4279
2026-01-15 00:49:03.19	329.39	88.16	-49.0	-50.2	14.8	0.00e+00	0	28	0	1284505600	64	4057
2026-01-15 00:49:04.18	314.12	88.38	-48.3	-49.4	15.0	0.00e+00	0	28	0	1287651328	63	3930
2026-01-15 00:49:05.18	295.69	88.45	-48.4	-49.6	14.9	0.00e+00	0	28	0	1290797056	63	4009
2026-01-15 00:49:06.18	277.46	88.36	-48.7	-49.8	14.8	0.00e+00	0	28	0	1293942784	63	4131
2026-01-15 00:49:07.19	262.33	88.12	-49.1	-50.3	14.7	0.00e+00	0	28	0	1297088512	63	4386
2026-01-15 00:49:08.19	251.26	87.79	-49.1	-50.4	14.7	0.00e+00	0	28	0	1300234240	63	4393
2026-01-15 00:49:09.19	243.29	87.40	-49.0	-50.1	14.7	0.00e+00	0	28	0	1303379968	63	4286
2026-01-15 00:49:10.19	237.49	86.98	-49.0	-50.1	14.7	0.00e+00	0	28	0	1306525696	63	4276
2026-01-15 00:49:11.19	233.16	86.53	-48.4	-49.5	14.9	0.00e+00	0	28	0	1309671424	63	4003
2026-01-15 00:49:12.19	229.84	86.06	-48.4	-49.5	14.9	0.00e+00	0	28	0	1312817152	63	4001
2026-01-15 00:49:13.19	227.22	85.59	-48.5	-49.6	14.9	0.00e+00	0	28	0	1315962880	63	4015
2026-01-15 00:49:14.19	225.13	85.10	-48.5	-49.6	14.9	0.00e+00	0	28	0	1319108608	63	4048
2026-01-15 00:49:15.19	223.41	84.62	-48.6	-49.7	14.9	0.00e+00	0	28	0	1322254336	63	4080
2026-01-15 00:49:16.19	221.97	84.13	-48.4	-49.6	14.9	0.00e+00	0	28	0	1325400064	63	4016
2026-01-15 00:49:17.19	220.77	83.64	-48.4	-49.5	14.9	0.00e+00	0	28	0	1328545792	63	3998
2026-01-15 00:49:18.20	219.72	83.14	-48.9	-50.1	14.8	0.00e+00	0	28	0	1331691520	63	4270
2026-01-15 00:49:19.19	218.84	82.65	-49.3	-50.5	14.6	0.00e+00	0	28	0	1334837248	63	4487
2026-01-15 00:49:20.19	218.06	82.15	-49.1	-50.3	14.7	0.00e+00	0	28	0	1337982976	63	4359
2026-01-15 00:49:21.18	217.38	81.66	-48.9	-50.0	14.8	0.00e+00	0	28	0	1341128704	63	4233
2026-01-15 00:49:22.17	216.78	81.17	-48.4	-49.5	15.0	0.00e+00	0	28	0	1344274432	63	3962
2026-01-15 00:49:23.17	216.24	80.67	-48.3	-49.4	15.0	0.00e+00	0	28	0	1347420160	63	3923
2026-01-15 00:49:24.17	215.75	80.18	-48.4	-49.5	15.0	0.00e+00	0	28	0	1350565888	63	3998
2026-01-15 00:49:25.17	215.31	79.68	-48.7	-49.9	14.8	0.00e+00	0	28	0	1353711616	63	4153
2026-01-15 00:49:26.17	214.92	79.19	-48.7	-49.8	14.9	0.00e+00	0	28	0	1356857344	63	4141
2026-01-15 00:49:27.17	214.56	78.70	-48.5	-49.6	14.9	0.00e+00	0	28	0	1360003072	63	4025
2026-01-15 00:49:28.18	214.22	78.20	-48.4	-49.5	14.9	0.00e+00	0	28	0	1363148800	63	3987
2026-01-15 00:49:29.17	213.92	77.71	-48.3	-49.4	15.0	0.00e+00	0	28	0	1366294528	63	3927
2026-01-15 00:49:30.16	213.65	77.23	-48.4	-49.5	14.9	0.00e+00	0	28	0	1369440256	63	3963
2026-01-15 00:49:31.16	213.39	76.74	-49.0	-50.2	14.7	0.00e+00	0	28	0	1372585984	63	4298
2026-01-15 00:49:32.15	213.15	76.26	-49.4	-50.6	14.7	0.00e+00	0	28	0	1374683136	64	4276
2026-01-15 00:49:33.14	212.93	75.77	-48.4	-49.6	15.0	0.00e+00	0	28	0	1377828864	63	4005
2026-01-15 00:49:34.15	212.72	75.29	-48.0	-49.1	14.9	0.00e+00	0	28	0	1380974592	62	4032
2026-01-15 00:49:35.14	212.53	74.81	-48.4	-49.6	14.8	0.00e+00	0	28	0	1384120320	62	4252
2026-01-15 00:49:36.13	212.35	74.33	-48.9	-50.1	14.7	0.00e+00	0	28	0	1387266048	62	4515
2026-01-15 00:49:37.13	212.19	73.85	-49.0	-50.2	14.8	0.00e+00	0	28	0	1390411776	63	4315
2026-01-15 00:49:38.13	212.03	73.37	-49.2	-50.4	14.7	0.00e+00	0	28	0	1393557504	63	4400
2026-01-15 00:49:39.13	211.88	72.90	-49.3	-50.5	14.6	0.00e+00	0	28	0	1396703232	63	4475
2026-01-15 00:49:40.13	211.74	72.42	-49.1	-50.3	14.6	0.00e+00	0	28	0	1399848960	63	4361
2026-01-15 00:49:41.12	211.61	71.96	-48.8	-49.9	14.8	0.00e+00	0	28	0	1402994688	63	4172
2026-01-15 00:49:42.12	211.48	71.49	-48.8	-50.0	14.8	0.00e+00	0	28	0	1406140416	63	4204
2026-01-15 00:49:43.12	211.36	71.02	-48.9	-50.1	14.7	0.00e+00	0	28	0	1409286144	63	4264
2026-01-15 00:49:44.13	211.25	70.55	-49.1	-50.3	14.6	0.00e+00	0	28	0	1412431872	63	4362
2026-01-15 00:49:45.12	211.14	70.09	-49.3	-50.6	14.6	0.00e+00	0	28	0	1415577600	64	4251
2026-01-15 00:49:46.12	211.04	69.63	-49.0	-50.2	14.8	0.00e+00	0	28	0	1418723328	64	4056
2026-01-15 00:49:47.11	210.95	69.17	-48.8	-50.0	14.9	0.00e+00	0	28	0	1421869056	64	3960
2026-01-15 00:49:48.11	210.86	68.71	-48.7	-49.8	15.0	0.00e+00	0	28	0	1425014784	64	3898
2026-01-15 00:49:49.11	210.77	68.26	-48.6	-49.7	14.9	0.00e+00	0	28	0	1428160512	63	4055
2026-01-15 00:49:50.10	210.69	67.81	-48.7	-49.8	14.8	0.00e+00	0	28	0	1431306240	63	4143
2026-01-15 00:49:51.10	210.61	67.36	-49.7	-50.9	14.6	0.00e+00	0	28	0	1434451968	64	4437
2026-01-15 00:49:52.10	210.53	66.91	-50.8	-52.2	14.4	0.00e+00	0	28	0	1437597696	66	4568
2026-01-15 00:49:53.10	210.46	66.46	-50.6	-52.0	14.4	0.00e+00	0	28	0	1440743424	66	4444
2026-01-15 00:49:54.10	210.39	66.02	-50.0	-51.3	14.6	0.00e+00	0	28	0	1443889152	66	4102
2026-01-15 00:49:55.10	210.32	65.58	-49.5	-50.8	14.7	0.00e+00	0	28	0	1447034880	65	4100
2026-01-15 00:49:56.10	210.26	65.14	-49.2	-50.3	14.9	0.00e+00	0	28	0	1450180608	65	3903
2026-01-15 00:49:57.10	210.20	64.70	-48.3	-49.3	15.0	0.00e+00	0	28	0	1453326336	63	3912
2026-01-15 00:49:58.09	210.14	64.27	-48.1	-49.2	14.9	0.00e+00	0	28	0	1456472064	62	4053
2026-01-15 00:49:59.09	210.08	63.84	-48.7	-49.9	14.7	0.00e+00	0	28	0	1459617792	62	4403
2026-01-15 00:50:00.08	210.03	63.42	-49.6	-50.8	14.6	0.00e+00	0	28	0	1462763520	64	4362
2026-01-15 00:50:01.08	209.98	62.99	-50.5	-51.9	14.5	0.00e+00	0	28	0	1465909248	66	4402
2026-01-15 00:50:02.08	209.93	62.57	-50.5	-51.9	14.4	0.00e+00	0	28	0	1469054976	66	4402
2026-01-15 00:50:03.07	209.88	62.15	-49.8	-51.0	14.6	0.00e+00	0	28	0	1472200704	66	3983
2026-01-15 00:50:04.06	209.83	61.73	-49.1	-50.3	14.8	0.00e+00	0	28	0	1475346432	64	4101
2026-01-15 00:50:05.06	209.79	61.32	-49.0	-50.1	14.8	0.00e+00	0	28	0	1478492160	64	4035
2026-01-15 00:50:06.06	209.74	60.90	-49.3	-50.5	14.7	0.00e+00	0	28	0	1481637888	64	4209
2026-01-15 00:50:07.06	209.70	60.49	-49.5	-50.7	14.6	0.00e+00	0	28	0	1484783616	64	4332
2026-01-15 00:50:08.05	209.66	60.09	-49.6	-50.8	14.6	0.00e+00	0	28	0	1486880768	64	4343
2026-01-15 00:50:09.05	209.62	59.68	-50.2	-51.4	14.5	0.00e+00	0	28	0	1490026496	65	4441
2026-01-15 00:50:10.04	209.59	59.28	-51.1	-52.5	14.3	0.00e+00	0	28	0	1493172224	67	4455
2026-01-15 00:50:11.04	209.55	58.88	-51.1	-52.6	14.2	0.00e+00	0	28	0	1496317952	67	4518
2026-01-15 00:50:12.04	209.51	58.48	-50.4	-51.7	14.4	0.00e+00	0	28	0	1499463680	67	4084
2026-01-15 00:50:13.04	209.48	58.09	-49.9	-51.2	14.6	0.00e+00	0	28	0	1502609408	66	4057
2026-01-15 00:50:14.04	209.45	57.70	-49.3	-50.5	14.8	0.00e+00	0	28	0	1505755136	65	3960
2026-01-15 00:50:15.03	209.42	57.31	-49.2	-50.4	14.7	0.00e+00	0	28	0	1508900864	64	4151
2026-01-15 00:50:16.03	209.38	56.92	-49.5	-50.6	14.6	0.00e+00	0	28	0	1512046592	64	4280
2026-01-15 00:50:17.02	209.35	56.54	-49.9	-51.2	14.6	0.00e+00	0	28	0	1515192320	65	4303
2026-01-15 00:50:18.02	209.33	56.16	-50.8	-52.1	14.4	0.00e+00	0	28	0	1518338048	66	4537
2026-01-15 00:50:19.02	209.30	55.78	-51.1	-52.5	14.3	0.00e+00	0	28	0	1521483776	67	4446
2026-01-15 00:50:20.01	209.27	55.41	-51.3	-52.7	14.2	0.00e+00	0	28	0	1524629504	67	4569
2026-01-15 00:50:21.02	209.24	55.03	-51.4	-52.9	14.3	0.00e+00	0	28	0	1527775232	68	4394
2026-01-15 00:50:22.02	209.22	54.66	-51.0	-52.4	14.5	0.00e+00	0	28	0	1530920960	68	4162
2026-01-15 00:50:23.02	209.19	54.29	-50.5	-51.8	14.5	0.00e+00	0	28	0	1534066688	67	4127
2026-01-15 00:50:24.03	209.17	53.92	-50.2	-51.5	14.6	0.00e+00	0	28	0	1537212416	67	3962
2026-01-15 00:50:25.02	209.14	53.56	-50.0	-51.2	14.7	0.00e+00	0	28	0	1540358144	66	4080
2026-01-15 00:50:26.02	209.12	53.19	-49.6	-50.8	14.7	0.00e+00	0	28	0	1543503872	65	4119
2026-01-15 00:50:27.02	209.10	52.84	-49.6	-50.8	14.7	0.00e+00	0	28	0	1546649600	65	4135
2026-01-15 00:50:28.02	209.08	52.48	-50.3	-51.5	14.4	0.00e+00	0	28	0	1549795328	65	4489
2026-01-15 00:50:29.02	209.06	52.12	-51.2	-52.7	14.2	0.00e+00	0	28	0	1552941056	67	4556
2026-01-15 00:50:30.02	209.04	51.77	-52.0	-53.5	14.1	0.00e+00	0	28	0	1556086784	69	4483
2026-01-15 00:50:31.02	209.02	51.42	-52.2	-53.8	14.0	0.00e+00	0	28	0	1559232512	69	4601
2026-01-15 00:50:32.02	209.00	51.08	-52.3	-53.8	14.0	0.00e+00	0	28	0	1562378240	69	4643
2026-01-15 00:50:33.02	208.98	50.74	-52.6	-54.2	13.9	0.00e+00	0	28	0	1565523968	70	4551
2026-01-15 00:50:34.02	208.96	50.39	-52.6	-54.2	13.9	0.00e+00	0	28	0	1568669696	70	4552
2026-01-15 00:50:35.02	208.94	50.06	-52.4	-54.0	13.9	0.00e+00	0	28	0	1571815424	70	4482
2026-01-15 00:50:36.02	208.92	49.72	-52.4	-54.0	13.9	0.00e+00	0	28	0	1574961152	70	4448
2026-01-15 00:50:37.02	208.91	49.39	-52.1	-53.7	14.0	0.00e+00	0	28	0	1578106880	70	4308
2026-01-15 00:50:38.01	208.89	49.06	-52.1	-53.6	14.0	0.00e+00	0	28	0	1581252608	70	4291
2026-01-15 00:50:39.02	208.87	48.73	-51.9	-53.3	14.2	0.00e+00	0	28	0	1584398336	70	4142
2026-01-15 00:50:40.01	208.86	48.40	-51.8	-53.3	14.3	0.00e+00	0	28	0	1587544064	70	4112
2026-01-15 00:50:41.01	208.84	48.08	-52.1	-53.6	14.1	0.00e+00	0	28	0	1590689792	70	4276
2026-01-15 00:50:42.00	208.83	47.76	-52.5	-54.1	13.8	0.00e+00	0	28	0	1593835520	70	4538
2026-01-15 00:50:43.00	208.81	47.44	-52.7	-54.3	13.8	0.00e+00	0	28	0	1596981248	70	4633
2026-01-15 00:50:44.00	208.80	47.12	-52.7	-54.4	13.8	0.00e+00	0	28	0	1600126976	70	4676
2026-01-15 00:50:45.00	208.79	46.81	-52.8	-54.5	13.7	0.00e+00	0	28	0	1603272704	70	4706
2026-01-15 00:50:45.99	208.77	46.50	-52.8	-54.4	13.6	0.00e+00	0	28	0	1605369856	70	4690
2026-01-15 00:50:46.98	208.76	46.19	-52.6	-54.2	13.7	0.00e+00	0	28	0	1608515584	70	4590
2026-01-15 00:50:47.97	208.75	45.89	-52.8	-54.4	13.7	0.00e+00	0	28	0	1611661312	70	4705
2026-01-15 00:50:48.97	208.74	45.58	-52.5	-54.1	13.8	0.00e+00	0	28	0	1614807040	70	4538
2026-01-15 00:50:49.97	208.72	45.28	-52.5	-54.1	13.9	0.00e+00	0	28	0	1617952768	70	4507
2026-01-15 00:50:50.97	208.71	44.98	-52.5	-54.1	13.9	0.00e+00	0	28	0	1621098496	70	4513
2026-01-15 00:50:51.97	208.70	44.68	-52.3	-53.9	13.9	0.00e+00	0	28	0	1624244224	70	4397
2026-01-15 00:50:52.96	208.69	44.39	-52.4	-54.0	13.9	0.00e+00	0	28	0	1627389952	70	4456
2026-01-15 00:50:53.97	208.68	44.09	-52.1	-53.7	14.0	0.00e+00	0	28	0	1630535680	70	4296
2026-01-15 00:50:54.96	208.67	43.80	-52.1	-53.6	14.1	0.00e+00	0	28	0	1633681408	70	4253
2026-01-15 00:50:55.96	208.66	43.51	-51.7	-53.1	14.3	0.00e+00	0	28	0	1636827136	70	4035
2026-01-15 00:50:56.96	208.65	43.23	-51.7	-53.1	14.2	0.00e+00	0	28	0	1639972864	69	4273
2026-01-15 00:50:57.95	208.64	42.94	-51.7	-53.2	14.2	0.00e+00	0	28	0	1643118592	69	4303
2026-01-15 00:50:58.95	208.63	42.66	-51.8	-53.2	14.1	0.00e+00	0	28	0	1646264320	69	4327
2026-01-15 00:50:59.95	208.62	42.38	-51.8	-53.3	14.1	0.00e+00	0	28	0	1649410048	69	4371
2026-01-15 00:51:00.95	208.61	42.10	-52.0	-53.5	14.0	0.00e+00	0	28	0	1652555776	69	4472
2026-01-15 00:51:01.95	208.60	41.82	-52.1	-53.6	14.0	0.00e+00	0	28	0	1655701504	69	4540
2026-01-15 00:51:02.95	208.59	41.55	-52.3	-54.0	13.9	0.00e+00	0	28	0	1658847232	69	4714
2026-01-15 00:51:03.94	208.58	41.28	-52.5	-54.2	13.9	0.00e+00	0	28	0	1661992960	70	4550
2026-01-15 00:51:04.94	208.57	41.01	-52.6	-54.2	13.9	0.00e+00	0	28	0	1665138688	70	4585
2026-01-15 00:51:05.94	208.57	40.74	-52.4	-54.0	14.0	0.00e+00	0	28	0	1668284416	70	4454
2026-01-15 00:51:06.95	208.56	40.47	-52.4	-53.9	14.0	0.00e+00	0	28	0	1671430144	70	4440
2026-01-15 00:51:07.94	208.55	40.21	-52.4	-54.0	14.0	0.00e+00	0	28	0	1674575872	70	4447
2026-01-15 00:51:08.94	208.54	39.94	-52.6	-54.2	13.9	0.00e+00	0	28	0	1677721600	70	4564
2026-01-15 00:51:09.94	208.53	39.68	-52.8	-54.4	13.8	0.00e+00	0	28	0	1680867328	70	4704
2026-01-15 00:51:10.94	208.53	39.42	-52.9	-54.6	13.7	0.00e+00	0	28	0	1684013056	70	4797
2026-01-15 00:51:11.95	208.52	39.16	-52.8	-54.5	13.8	0.00e+00	0	28	0	1687158784	71	4459
2026-01-15 00:51:12.94	208.51	38.91	-52.7	-54.4	13.9	0.00e+00	0	28	0	1690304512	71	4402
2026-01-15 00:51:13.95	208.51	38.66	-52.3	-53.9	14.1	0.00e+00	0	28	0	1693450240	71	4187
2026-01-15 00:51:14.94	208.50	38.41	-52.1	-53.7	14.1	0.00e+00	0	28	0	1696595968	70	4296
2026-01-15 00:51:15.94	208.49	38.16	-52.0	-53.6	14.2	0.00e+00	0	28	0	1699741696	70	4254
2026-01-15 00:51:16.93	208.49	37.91	-51.9	-53.4	14.2	0.00e+00	0	28	0	1702887424	70	4187
2026-01-15 00:51:17.93	208.48	37.67	-51.5	-52.9	14.3	0.00e+00	0	28	0	1706033152	69	4170
2026-01-15 00:51:18.93	208.47	37.42	-51.3	-52.7	14.4	0.00e+00	0	28	0	1709178880	69	4082
2026-01-15 00:51:19.93	208.47	37.18	-51.2	-52.6	14.5	0.00e+00	0	28	0	1712324608	69	4034
2026-01-15 00:51:20.93	208.46	36.94	-51.1	-52.5	14.4	0.00e+00	0	28	0	1715470336	68	4224
2026-01-15 00:51:21.93	208.46	36.70	-51.3	-52.7	14.3	0.00e+00	0	28	0	1718616064	68	4318
2026-01-15 00:51:22.93	208.45	36.46	-51.1	-52.5	14.4	0.00e+00	0	28	0	1721761792	68	4207
2026-01-15 00:51:23.93	208.45	36.23	-51.1	-52.5	14.4	0.00e+00	0	28	0	1724907520	68	4216
2026-01-15 00:51:24.93	208.44	35.99	-51.1	-52.5	14.4	0.00e+00	0	28	0	1728053248	68	4225
2026-01-15 00:51:25.93	208.44	35.76	-51.0	-52.3	14.5	0.00e+00	0	28	0	1730150400	68	4128
2026-01-15 00:51:26.93	208.43	35.53	-50.8	-52.1	14.6	0.00e+00	0	28	0	1733296128	68	4014
2026-01-15 00:51:27.93	208.43	35.30	-50.6	-52.0	14.5	0.00e+00	0	28	0	1736441856	67	4195
2026-01-15 00:51:28.93	208.42	35.08	-50.5	-51.9	14.5	0.00e+00	0	28	0	1739587584	67	4148
2026-01-15 00:51:29.93	208.42	34.85	-50.6	-51.9	14.5	0.00e+00	0	28	0	1742733312	67	4193
2026-01-15 00:51:30.93	208.41	34.63	-50.5	-51.8	14.5	0.00e+00	0	28	0	1745879040	67	4123
2026-01-15 00:51:31.94	208.41	34.40	-50.5	-51.8	14.5	0.00e+00	0	28	0	1749024768	67	4132
2026-01-15 00:51:32.94	208.40	34.18	-50.6	-51.9	14.5	0.00e+00	0	28	0	1752170496	67	4177
2026-01-15 00:51:33.94	208.40	33.96	-50.7	-52.1	14.4	0.00e+00	0	28	0	1755316224	67	4248
2026-01-15 00:51:34.94	208.40	33.75	-50.7	-52.1	14.4	0.00e+00	0	28	0	1758461952	67	4265
2026-01-15 00:51:35.94	208.39	33.53	-50.7	-52.1	14.4	0.00e+00	0	28	0	1761607680	67	4277
2026-01-15 00:51:36.93	208.39	33.32	-50.7	-52.1	14.4	0.00e+00	0	28	0	1764753408	67	4262
2026-01-15 00:51:37.93	208.38	33.10	-50.7	-52.1	14.4	0.00e+00	0	28	0	1767899136	67	4273
2026-01-15 00:51:38.94	208.38	32.89	-50.5	-51.8	14.5	0.00e+00	0	28	0	1771044864	67	4129
2026-01-15 00:51:39.94	208.38	32.68	-50.3	-51.6	14.6	0.00e+00	0	28	0	1774190592	67	4005
2026-01-15 00:51:40.94	208.37	32.47	-50.3	-51.6	14.6	0.00e+00	0	28	0	1777336320	67	4043
2026-01-15 00:51:41.94	208.37	32.26	-50.3	-51.5	14.6	0.00e+00	0	28	0	1780482048	67	4000
2026-01-15 00:51:42.95	208.37	32.06	-50.1	-51.4	14.6	0.00e+00	0	28	0	1783627776	66	4159
2026-01-15 00:51:43.95	208.36	31.85	-50.1	-51.3	14.6	0.00e+00	0	28	0	1786773504	66	4139
2026-01-15 00:51:44.95	208.36	31.65	-50.1	-51.4	14.6	0.00e+00	0	28	0	1789919232	66	4177
2026-01-15 00:51:45.95	208.36	31.45	-50.1	-51.4	14.6	0.00e+00	0	28	0	1793064960	66	4184
2026-01-15 00:51:46.94	208.35	31.25	-50.2	-51.5	14.5	0.00e+00	0	28	0	1796210688	66	4212
2026-01-15 00:51:47.94	208.35	31.05	-50.3	-51.6	14.5	0.00e+00	0	28	0	1799356416	66	4279
2026-01-15 00:51:48.94	208.35	30.85	-50.1	-51.4	14.6	0.00e+00	0	28	0	1802502144	66	4185
2026-01-15 00:51:49.94	208.35	30.66	-50.2	-51.5	14.5	0.00e+00	0	28	0	1805647872	66	4205
2026-01-15 00:51:50.93	208.34	30.46	-50.1	-51.4	14.6	0.00e+00	0	28	0	1808793600	66	4184
2026-01-15 00:51:51.93	208.34	30.27	-50.1	-51.4	14.6	0.00e+00	0	28	0	1811939328	66	4184
2026-01-15 00:51:52.93	208.34	30.08	-50.1	-51.4	14.6	0.00e+00	0	28	0	1815085056	66	4147
2026-01-15 00:51:53.94	208.34	29.89	-50.1	-51.4	14.6	0.00e+00	0	28	0	1818230784	66	4166
2026-01-15 00:51:54.94	208.33	29.70	-50.2	-51.6	14.5	0.00e+00	0	28	0	1821376512	66	4252
2026-01-15 00:51:55.94	208.33	29.51	-50.2	-51.5	14.5	0.00e+00	0	28	0	1824522240	66	4214
2026-01-15 00:51:56.94	208.33	29.32	-50.2	-51.5	14.5	0.00e+00	0	28	0	1827667968	66	4219
2026-01-15 00:51:57.94	208.33	29.13	-50.2	-51.5	14.5	0.00e+00	0	28	0	1830813696	66	4224
2026-01-15 00:51:58.93	208.32	28.95	-50.0	-51.3	14.6	0.00e+00	0	28	0	1833959424	66	4110
2026-01-15 00:51:59.94	208.32	28.77	-49.9	-51.2	14.6	0.00e+00	0	28	0	1837105152	66	4087
2026-01-15 00:52:00.94	208.32	28.58	-49.9	-51.2	14.6	0.00e+00	0	28	0	1840250880	66	4063
2026-01-15 00:52:01.94	208.32	28.40	-49.5	-50.8	14.7	0.00e+00	0	28	0	1843396608	65	4105
2026-01-15 00:52:02.94	208.32	28.22	-49.4	-50.7	14.7	0.00e+00	0	28	0	1846542336	65	4058
2026-01-15 00:52:03.93	208.32	28.05	-49.5	-50.7	14.7	0.00e+00	0	28	0	1849688064	65	4070
2026-01-15 00:52:04.92	208.31	27.87	-49.4	-50.6	14.7	0.00e+00	0	28	0	1852833792	65	4016
2026-01-15 00:52:05.92	208.31	27.69	-49.3	-50.4	14.8	0.00e+00	0	28	0	1855979520	65	3955
2026-01-15 00:52:06.91	208.31	27.52	-49.2	-50.4	14.8	0.00e+00	0	28	0	1859125248	65	3924
2026-01-15 00:52:07.90	208.31	27.35	-49.3	-50.5	14.8	0.00e+00	0	28	0	1862270976	65	3961
2026-01-15 00:52:08.90	208.31	27.17	-49.2	-50.3	14.7	0.00e+00	0	28	0	1865416704	64	4143
2026-01-15 00:52:09.89	208.31	27.00	-49.1	-50.3	14.7	0.00e+00	0	28	0	1868562432	64	4113
2026-01-15 00:52:10.89	208.30	26.83	-49.1	-50.3	14.7	0.00e+00	0	28	0	1871708160	64	4135
2026-01-15 00:52:11.90	208.30	26.66	-49.1	-50.3	14.7	0.00e+00	0	28	0	1874853888	64	4120
2026-01-15 00:52:12.90	208.30	26.49	-49.1	-50.3	14.7	0.00e+00	0	28	0	1877999616	64	4129
2026-01-15 00:52:13.90	208.30	26.32	-49.1	-50.3	14.7	0.00e+00	0	28	0	1881145344	64	4144
2026-01-15 00:52:14.89	208.30	26.16	-49.1	-50.2	14.7	0.00e+00	0	28	0	1884291072	64	4093
2026-01-15 00:52:15.88	208.30	25.99	-49.1	-50.3	14.7	0.00e+00	0	28	0	1886388224	64	4107
2026-01-15 00:52:16.89	208.30	25.83	-49.0	-50.2	14.7	0.00e+00	0	28	0	1889533952	64	4059
2026-01-15 00:52:17.89	208.30	25.66	-49.0	-50.2	14.7	0.00e+00	0	28	0	1892679680	64	4094
2026-01-15 00:52:18.89	208.30	25.50	-49.0	-50.2	14.7	0.00e+00	0	28	0	1895825408	64	4068
2026-01-15 00:52:19.90	208.29	25.34	-49.0	-50.1	14.8	0.00e+00	0	28	0	1898971136	64	4050
2026-01-15 00:52:20.90	208.29	25.18	-49.0	-50.2	14.7	0.00e+00	0	28	0	1902116864	64	4067
2026-01-15 00:52:21.90	208.29	25.02	-49.0	-50.2	14.7	0.00e+00	0	28	0	1905262592	64	4077
2026-01-15 00:52:22.90	208.29	24.86	-48.9	-50.1	14.8	0.00e+00	0	28	0	1908408320	64	4037
2026-01-15 00:52:23.90	208.29	24.70	-49.1	-50.3	14.7	0.00e+00	0	28	0	1911554048	64	4099
2026-01-15 00:52:24.90	208.29	24.54	-49.0	-50.1	14.8	0.00e+00	0	28	0	1914699776	64	4045
2026-01-15 00:52:25.90	208.29	24.39	-49.0	-50.2	14.8	0.00e+00	0	28	0	1917845504	64	4052
2026-01-15 00:52:26.90	208.29	24.23	-49.0	-50.1	14.8	0.00e+00	0	28	0	1920991232	64	4040
2026-01-15 00:52:27.91	208.29	24.08	-48.8	-50.0	14.8	0.00e+00	0	28	0	1924136960	64	3988
2026-01-15 00:52:28.92	208.29	23.92	-48.9	-50.0	14.8	0.00e+00	0	28	0	1927282688	64	3994
2026-01-15 00:52:29.91	208.29	23.77	-49.0	-50.2	14.8	0.00e+00	0	28	0	1930428416	64	4062
2026-01-15 00:52:30.92	208.29	23.62	-48.9	-50.1	14.8	0.00e+00	0	28	0	1933574144	64	4007
2026-01-15 00:52:31.92	208.29	23.47	-48.9	-50.0	14.8	0.00e+00	0	28	0	1936719872	64	4001
2026-01-15 00:52:32.93	208.29	23.32	-49.0	-50.2	14.8	0.00e+00	0	28	0	1939865600	64	4078
2026-01-15 00:52:33.92	208.29	23.17	-49.1	-50.2	14.7	0.00e+00	0	28	0	1943011328	64	4094
2026-01-15 00:52:34.92	208.29	23.02	-49.0	-50.2	14.8	0.00e+00	0	28	0	1946157056	64	4071
2026-01-15 00:52:35.92	208.29	22.87	-49.0	-50.2	14.8	0.00e+00	0	28	0	1949302784	64	4058
2026-01-15 00:52:36.92	208.28	22.73	-49.1	-50.2	14.7	0.00e+00	0	28	0	1952448512	64	4094
2026-01-15 00:52:37.91	208.28	22.58	-49.2	-50.4	14.7	0.00e+00	0	28	0	1955594240	64	4172
2026-01-15 00:52:38.91	208.28	22.44	-49.1	-50.3	14.7	0.00e+00	0	28	0	1958739968	64	4115
2026-01-15 00:52:39.91	208.28	22.29	-49.1	-50.3	14.7	0.00e+00	0	28	0	1961885696	64	4139
2026-01-15 00:52:40.90	208.28	22.15	-49.2	-50.4	14.7	0.00e+00	0	28	0	1965031424	64	4172
2026-01-15 00:52:41.89	208.28	22.01	-49.2	-50.4	14.7	0.00e+00	0	28	0	1968177152	64	4183
2026-01-15 00:52:42.89	208.28	21.87	-49.2	-50.4	14.7	0.00e+00	0	28	0	1971322880	64	4187
2026-01-15 00:52:43.89	208.28	21.73	-49.3	-50.5	14.7	0.00e+00	0	28	0	1974468608	64	4212
2026-01-15 00:52:44.89	208.28	21.59	-49.3	-50.6	14.6	0.00e+00	0	28	0	1977614336	64	4263
2026-01-15 00:52:45.89	208.28	21.45	-49.4	-50.6	14.6	0.00e+00	0	28	0	1980760064	64	4277
2026-01-15 00:52:46.90	208.28	21.31	-49.4	-50.6	14.6	0.00e+00	0	28	0	1983905792	64	4277
2026-01-15 00:52:47.90	208.28	21.17	-49.4	-50.7	14.6	0.00e+00	0	28	0	1987051520	64	4301
2026-01-15 00:52:48.90	208.28	21.04	-49.5	-50.8	14.6	0.00e+00	0	28	0	1990197248	64	4355
2026-01-15 00:52:49.90	208.28	20.90	-49.6	-50.8	14.5	0.00e+00	0	28	0	1993342976	64	4382
2026-01-15 00:52:50.90	208.29	20.76	-49.5	-50.8	14.6	0.00e+00	0	28	0	1996488704	64	4362
2026-01-15 00:52:51.90	208.29	20.63	-49.6	-50.8	14.5	0.00e+00	0	28	0	1999634432	64	4391
2026-01-15 00:52:52.90	208.29	20.49	-49.6	-50.9	14.5	0.00e+00	0	28	0	2002780160	64	4435
2026-01-15 00:52:53.89	208.29	20.36	-49.7	-51.0	14.5	0.00e+00	0	28	0	2005925888	64	4447
2026-01-15 00:52:54.89	208.29	20.23	-49.7	-51.0	14.5	0.00e+00	0	28	0	2009071616	64	4480
2026-01-15 00:52:55.89	208.29	20.10	-49.7	-51.0	14.5	0.00e+00	0	28	0	2012217344	64	4450
2026-01-15 00:52:56.89	208.29	19.97	-49.6	-50.9	14.5	0.00e+00	0	28	0	2015363072	64	4422
2026-01-15 00:52:57.89	208.29	19.84	-49.6	-50.9	14.5	0.00e+00	0	28	0	2018508800	64	4419
2026-01-15 00:52:58.89	208.29	19.71	-49.7	-51.0	14.5	0.00e+00	0	28	0	2020605952	64	4445
2026-01-15 00:52:59.89	208.29	19.58	-49.6	-50.9	14.5	0.00e+00	0	28	0	2023751680	64	4432
2026-01-15 00:53:00.89	208.29	19.45	-49.6	-50.9	14.5	0.00e+00	0	28	0	2026897408	64	4427
2026-01-15 00:53:01.89	208.29	19.32	-49.6	-50.9	14.5	0.00e+00	0	28	0	2030043136	64	4434
2026-01-15 00:53:02.89	208.29	19.19	-49.6	-50.9	14.5	0.00e+00	0	28	0	2033188864	64	4434
2026-01-15 00:53:03.88	208.29	19.07	-49.8	-51.1	14.5	0.00e+00	0	28	0	2036334592	64	4498
2026-01-15 00:53:04.87	208.29	18.94	-49.6	-50.9	14.5	0.00e+00	0	28	0	2039480320	64	4412
2026-01-15 00:53:05.87	208.29	18.82	-49.7	-51.0	14.5	0.00e+00	0	28	0	2042626048	64	4457
2026-01-15 00:53:06.86	208.29	18.70	-49.7	-51.0	14.5	0.00e+00	0	28	0	2045771776	64	4478
2026-01-15 00:53:07.86	208.29	18.57	-49.8	-51.1	14.4	0.00e+00	0	28	0	2048917504	64	4510
2026-01-15 00:53:08.85	208.29	18.45	-49.7	-51.0	14.5	0.00e+00	0	28	0	2052063232	64	4465
2026-01-15 00:53:09.84	208.29	18.33	-49.7	-51.0	14.5	0.00e+00	0	28	0	2055208960	64	4472
2026-01-15 00:53:10.84	208.29	18.21	-49.8	-51.1	14.4	0.00e+00	0	28	0	2058354688	64	4516
2026-01-15 00:53:11.84	208.30	18.08	-49.8	-51.1	14.4	0.00e+00	0	28	0	2061500416	64	4524
2026-01-15 00:53:12.83	208.30	17.96	-49.8	-51.1	14.4	0.00e+00	0	28	0	2064646144	64	4528
2026-01-15 00:53:13.83	208.30	17.84	-49.8	-51.1	14.4	0.00e+00	0	28	0	2067791872	64	4531
2026-01-15 00:53:14.82	208.30	17.72	-49.8	-51.1	14.4	0.00e+00	0	28	0	2070937600	64	4529
2026-01-15 00:53:15.83	208.30	17.60	-49.8	-51.1	14.4	0.00e+00	0	28	0	2074083328	64	4545
