passes_logs/2026/01/15/R3.2S_Murmansk/R3.2S_Murmansk__20260115_113042_NOAA_20_JPSS-1_rec.log

#Pass ID: 20260115_113042_NOAA 20 (JPSS-1)
#Satellite: NOAA 20 (JPSS-1)
#Configuration: NOAA 20
#almurnet v.1.7.20251203
#Start time: 2026-01-15 11:30:42

#Version: 2.2.20231116
#Station: R3.2S_Murmansk
#Location: 33.079688 lon 68.888172 lat
#TLE: 1 43013U 17073A   26014.55467351  .00000038  00000+0  38801-4 0  9992
#TLE: 2 43013  98.7635 315.4987 0001517  39.9279 320.2008 14.19535859422677

#Time	Az	El	Level	Level2	SNR	BER	BlckErr	Temp	State	Recorded	gain1	gain2
2026-01-15 11:30:42.58	201.44	2.03	-59.0	-75.0	3.8	1.49e+00	0	26	0	0	84	22377
2026-01-15 11:30:43.57	201.50	2.08	-58.8	-74.8	3.8	1.49e+00	0	26	104	0	82	24510
2026-01-15 11:30:44.56	201.55	2.14	-58.8	-74.8	3.8	1.49e+00	0	26	104	0	82	24422
2026-01-15 11:30:45.55	201.61	2.20	-58.8	-74.8	3.8	1.49e+00	0	27	104	0	82	24430
2026-01-15 11:30:46.55	201.67	2.26	-58.8	-74.8	3.8	1.49e+00	0	26	104	0	82	24447
2026-01-15 11:30:47.55	201.73	2.31	-58.7	-74.8	3.8	1.49e+00	0	27	104	0	82	24514
2026-01-15 11:30:48.55	201.79	2.37	-58.8	-74.8	3.8	1.49e+00	0	27	104	0	82	24498
2026-01-15 11:30:49.54	201.85	2.43	-58.8	-74.8	3.8	1.49e+00	0	27	104	0	82	24576
2026-01-15 11:30:50.53	201.91	2.49	-58.8	-74.8	3.8	1.49e+00	0	27	104	0	82	24516
2026-01-15 11:30:51.51	201.97	2.55	-58.8	-74.8	3.8	1.49e+00	0	27	104	0	82	24595
2026-01-15 11:30:52.51	202.03	2.61	-58.8	-74.8	3.8	1.49e+00	0	27	104	0	82	24533
2026-01-15 11:30:53.50	202.10	2.66	-58.8	-74.8	3.8	1.49e+00	0	27	104	0	82	24445
2026-01-15 11:30:54.49	202.16	2.72	-58.8	-74.8	3.8	1.49e+00	0	27	104	0	82	24412
2026-01-15 11:30:55.48	202.22	2.78	-58.8	-74.8	3.8	1.49e+00	0	27	104	0	82	24434
2026-01-15 11:30:56.48	202.28	2.84	-58.8	-74.8	3.8	1.49e+00	0	27	104	0	82	24492
2026-01-15 11:30:57.47	202.34	2.90	-58.8	-74.8	3.8	1.49e+00	0	27	104	0	82	24415
2026-01-15 11:30:58.46	202.40	2.96	-58.8	-74.7	3.8	1.49e+00	0	27	104	0	82	24326
2026-01-15 11:30:59.45	202.47	3.02	-58.8	-74.8	3.8	1.49e+00	0	27	104	0	82	24447
2026-01-15 11:31:00.45	202.53	3.08	-58.7	-74.7	3.8	1.49e+00	0	27	104	0	82	24323
2026-01-15 11:31:01.44	202.59	3.14	-58.8	-74.7	3.8	1.49e+00	0	27	104	0	82	24301
2026-01-15 11:31:02.43	202.65	3.20	-58.8	-74.7	3.8	1.49e+00	0	27	104	0	82	24183
2026-01-15 11:31:03.42	202.72	3.26	-58.8	-74.7	3.8	1.49e+00	0	27	104	0	82	24134
2026-01-15 11:31:04.41	202.78	3.32	-58.8	-74.7	3.8	1.49e+00	0	27	104	0	82	24244
2026-01-15 11:31:05.41	202.85	3.38	-58.8	-74.7	3.8	1.49e+00	0	27	104	0	82	24288
2026-01-15 11:31:06.40	202.91	3.44	-58.8	-74.7	3.8	1.49e+00	0	27	104	0	82	24381
2026-01-15 11:31:07.38	202.97	3.50	-58.8	-74.8	3.8	1.49e+00	0	27	104	0	82	24466
2026-01-15 11:31:08.37	203.04	3.56	-58.8	-74.8	3.8	1.49e+00	0	27	104	0	82	24422
2026-01-15 11:31:09.36	203.10	3.62	-58.8	-74.7	3.8	1.49e+00	0	27	104	0	82	24342
2026-01-15 11:31:10.35	203.17	3.68	-58.8	-74.6	3.8	1.49e+00	0	27	104	0	82	24086
2026-01-15 11:31:11.34	203.23	3.74	-58.8	-74.7	3.8	1.49e+00	0	27	104	0	82	24135
2026-01-15 11:31:12.33	203.30	3.80	-58.8	-74.6	3.8	1.49e+00	0	27	104	0	82	24054
2026-01-15 11:31:13.33	203.36	3.86	-58.8	-74.7	3.9	1.49e+00	0	27	104	0	82	24231
2026-01-15 11:31:14.32	203.43	3.92	-58.8	-74.8	3.8	1.49e+00	0	27	104	0	82	24514
2026-01-15 11:31:15.31	203.50	3.98	-58.8	-74.8	3.8	1.49e+00	0	27	104	0	82	24545
2026-01-15 11:31:16.29	203.56	4.04	-58.8	-74.7	3.8	1.49e+00	0	27	104	0	82	24229
2026-01-15 11:31:17.27	203.63	4.10	-58.7	-73.7	3.8	1.49e+00	0	27	104	0	82	21507
2026-01-15 11:31:18.27	203.70	4.16	-58.7	-73.1	3.8	1.49e+00	0	27	104	0	82	20257
2026-01-15 11:31:19.26	203.76	4.22	-58.6	-71.7	4.1	1.46e+00	0	27	0	0	82	17085
2026-01-15 11:31:20.27	203.83	4.28	-58.6	-70.8	4.3	1.40e+00	40	27	0	0	82	15443
2026-01-15 11:31:21.26	203.90	4.35	-58.5	-69.1	5.0	8.45e-01	0	27	0	1048576	82	12803
2026-01-15 11:31:22.26	203.97	4.41	-58.4	-69.0	5.1	5.53e-01	0	27	0	3145728	82	12532
2026-01-15 11:31:23.26	204.04	4.47	-58.3	-67.8	5.7	3.95e-01	0	28	0	5242880	82	10944
2026-01-15 11:31:24.25	204.11	4.53	-58.1	-66.2	6.8	3.22e-01	0	27	0	7340032	82	9154
2026-01-15 11:31:25.25	204.18	4.59	-57.9	-65.4	7.5	1.03e-01	0	27	0	8388608	82	8310
2026-01-15 11:31:26.24	204.24	4.66	-57.8	-64.7	8.2	4.43e-02	0	28	0	10485760	82	7636
2026-01-15 11:31:27.24	204.31	4.72	-57.4	-63.3	9.3	1.89e-02	0	27	0	12582912	81	6887
2026-01-15 11:31:28.23	204.38	4.78	-57.1	-62.4	10.0	2.53e-03	0	28	0	14680064	80	6628
2026-01-15 11:31:29.23	204.45	4.84	-56.7	-61.3	10.9	6.36e-04	0	27	0	16777216	80	5836
2026-01-15 11:31:30.23	204.53	4.91	-56.3	-60.4	11.6	1.06e-04	0	27	0	17825792	79	5546
2026-01-15 11:31:31.22	204.60	4.97	-56.0	-59.8	11.9	1.37e-05	0	28	0	19922944	78	5477
2026-01-15 11:31:32.21	204.67	5.03	-56.1	-60.0	11.8	9.90e-06	0	27	0	22020096	78	5633
2026-01-15 11:31:33.20	204.74	5.10	-56.5	-60.8	11.2	5.18e-05	0	28	0	24117248	78	6166
2026-01-15 11:31:34.19	204.81	5.16	-56.9	-61.8	10.5	5.97e-04	0	28	0	25165824	79	6551
2026-01-15 11:31:35.19	204.88	5.22	-56.5	-61.0	11.0	6.56e-05	0	28	0	27262976	78	6296
2026-01-15 11:31:36.18	204.95	5.28	-56.7	-61.5	10.5	1.45e-03	0	28	0	29360128	79	6318
2026-01-15 11:31:37.17	205.03	5.35	-58.0	-65.2	7.6	6.30e-03	0	28	0	31457280	81	8661
2026-01-15 11:31:38.17	205.10	5.41	-55.8	-59.4	12.2	4.78e-04	0	27	0	33554432	78	5222
2026-01-15 11:31:39.16	205.17	5.48	-55.7	-59.2	12.3	7.00e-07	0	28	0	34603008	77	5449
2026-01-15 11:31:40.15	205.25	5.54	-55.7	-59.2	12.3	2.20e-06	0	28	0	36700160	77	5464
2026-01-15 11:31:41.14	205.32	5.60	-55.9	-59.6	12.0	0.00e+00	0	28	0	38797312	77	5692
2026-01-15 11:31:42.14	205.39	5.67	-55.8	-59.4	12.1	3.00e-06	0	28	0	40894464	77	5569
2026-01-15 11:31:43.14	205.47	5.73	-55.8	-59.4	12.1	0.00e+00	0	28	0	41943040	77	5571
2026-01-15 11:31:44.14	205.54	5.80	-55.7	-59.2	12.3	0.00e+00	0	28	0	44040192	77	5425
2026-01-15 11:31:45.13	205.62	5.86	-55.5	-58.8	12.6	0.00e+00	0	28	0	46137344	77	5164
2026-01-15 11:31:46.13	205.69	5.93	-55.5	-58.7	12.6	0.00e+00	0	28	0	48234496	77	5149
2026-01-15 11:31:47.12	205.77	5.99	-55.5	-58.7	12.6	0.00e+00	0	28	0	50331648	77	5140
2026-01-15 11:31:48.11	205.85	6.05	-55.5	-58.8	12.6	0.00e+00	0	28	0	51380224	77	5191
2026-01-15 11:31:49.11	205.92	6.12	-55.4	-58.5	12.7	0.00e+00	0	28	0	53477376	77	5036
2026-01-15 11:31:50.10	206.00	6.18	-55.5	-58.8	12.6	0.00e+00	0	28	0	55574528	77	5163
2026-01-15 11:31:51.08	206.07	6.25	-55.4	-58.6	12.7	0.00e+00	0	28	0	57671680	77	5048
2026-01-15 11:31:52.08	206.15	6.31	-55.4	-58.5	12.8	0.00e+00	0	27	0	59768832	77	5007
2026-01-15 11:31:53.08	206.23	6.38	-55.4	-58.5	12.8	0.00e+00	0	27	0	60817408	77	5023
2026-01-15 11:31:54.07	206.31	6.44	-55.5	-58.7	12.7	0.00e+00	0	28	0	62914560	77	5133
2026-01-15 11:31:55.06	206.39	6.51	-55.2	-58.2	13.0	0.00e+00	0	28	0	65011712	77	4856
2026-01-15 11:31:56.05	206.46	6.58	-55.1	-57.9	13.1	0.00e+00	0	28	0	67108864	76	4978
2026-01-15 11:31:57.04	206.54	6.64	-55.1	-58.0	13.0	0.00e+00	0	28	0	68157440	76	5016
2026-01-15 11:31:58.03	206.62	6.71	-54.9	-57.8	13.2	0.00e+00	0	28	0	70254592	76	4886
2026-01-15 11:31:59.02	206.70	6.77	-54.9	-57.7	13.2	0.00e+00	0	28	0	72351744	76	4859
2026-01-15 11:32:00.02	206.78	6.84	-54.8	-57.5	13.4	0.00e+00	0	28	0	74448896	76	4733
2026-01-15 11:32:01.01	206.86	6.91	-54.9	-57.7	13.3	0.00e+00	0	28	0	75497472	76	4822
2026-01-15 11:32:02.00	206.94	6.97	-54.8	-57.6	13.3	0.00e+00	0	28	0	77594624	76	4772
2026-01-15 11:32:03.00	207.02	7.04	-54.9	-57.6	13.3	0.00e+00	0	28	0	79691776	76	4773
2026-01-15 11:32:03.99	207.10	7.10	-54.8	-57.5	13.4	0.00e+00	0	28	0	81788928	76	4719
2026-01-15 11:32:04.99	207.19	7.17	-54.6	-57.2	13.4	0.00e+00	0	28	0	83886080	75	4826
2026-01-15 11:32:05.98	207.27	7.24	-54.6	-57.2	13.4	0.00e+00	0	28	0	84934656	75	4863
2026-01-15 11:32:06.98	207.35	7.31	-54.6	-57.2	13.4	0.00e+00	0	28	0	87031808	75	4836
2026-01-15 11:32:07.97	207.43	7.37	-54.5	-57.1	13.5	0.00e+00	0	28	0	89128960	75	4767
2026-01-15 11:32:08.97	207.52	7.44	-54.4	-57.0	13.6	0.00e+00	0	28	0	91226112	75	4707
2026-01-15 11:32:09.96	207.60	7.51	-54.4	-56.9	13.6	0.00e+00	0	28	0	92274688	75	4681
2026-01-15 11:32:10.94	207.68	7.58	-54.5	-57.0	13.5	0.00e+00	0	28	0	94371840	75	4759
2026-01-15 11:32:11.93	207.77	7.64	-54.4	-56.9	13.6	0.00e+00	0	28	0	96468992	75	4668
2026-01-15 11:32:12.92	207.85	7.71	-54.4	-56.8	13.6	0.00e+00	0	28	0	98566144	75	4647
2026-01-15 11:32:13.91	207.94	7.78	-54.3	-56.7	13.7	0.00e+00	0	28	0	99614720	75	4593
2026-01-15 11:32:14.91	208.02	7.85	-54.4	-56.9	13.6	0.00e+00	0	28	0	101711872	75	4664
2026-01-15 11:32:15.90	208.11	7.91	-54.3	-56.7	13.7	0.00e+00	0	28	0	103809024	75	4569
2026-01-15 11:32:16.90	208.19	7.98	-54.3	-56.8	13.7	0.00e+00	0	28	0	105906176	75	4601
2026-01-15 11:32:17.89	208.28	8.05	-54.2	-56.6	13.8	0.00e+00	0	28	0	108003328	75	4511
2026-01-15 11:32:18.89	208.37	8.12	-54.1	-56.4	13.8	0.00e+00	0	28	0	109051904	74	4689
2026-01-15 11:32:19.88	208.45	8.19	-54.2	-56.6	13.7	0.00e+00	0	28	0	111149056	74	4787
2026-01-15 11:32:20.88	208.54	8.26	-54.1	-56.5	13.8	0.00e+00	0	28	0	113246208	74	4713
2026-01-15 11:32:21.87	208.63	8.33	-54.1	-56.5	13.8	0.00e+00	0	28	0	115343360	74	4713
2026-01-15 11:32:22.87	208.72	8.40	-54.2	-56.5	13.7	0.00e+00	0	28	0	116391936	74	4756
2026-01-15 11:32:23.86	208.81	8.47	-54.1	-56.5	13.8	0.00e+00	0	28	0	118489088	74	4731
2026-01-15 11:32:24.85	208.90	8.54	-54.2	-56.5	13.7	0.00e+00	0	28	0	120586240	74	4755
2026-01-15 11:32:25.85	208.99	8.61	-54.0	-56.3	13.8	0.00e+00	0	28	0	122683392	74	4650
2026-01-15 11:32:26.84	209.08	8.67	-54.1	-56.4	13.8	0.00e+00	0	28	0	124780544	74	4700
2026-01-15 11:32:27.84	209.17	8.74	-54.1	-56.4	13.8	0.00e+00	0	28	0	125829120	74	4701
2026-01-15 11:32:28.83	209.26	8.81	-54.1	-56.4	13.8	0.00e+00	0	28	0	127926272	74	4677
2026-01-15 11:32:29.83	209.35	8.89	-54.0	-56.3	13.8	0.00e+00	0	28	0	130023424	74	4641
2026-01-15 11:32:30.82	209.44	8.96	-54.0	-56.3	13.9	0.00e+00	0	28	0	132120576	74	4607
2026-01-15 11:32:31.82	209.53	9.03	-54.1	-56.4	13.8	0.00e+00	0	28	0	133169152	74	4682
2026-01-15 11:32:32.82	209.63	9.10	-54.1	-56.4	13.8	0.00e+00	0	28	0	135266304	74	4661
2026-01-15 11:32:33.81	209.72	9.17	-54.1	-56.4	13.8	0.00e+00	0	28	0	137363456	74	4680
2026-01-15 11:32:34.81	209.81	9.24	-54.0	-56.3	13.9	0.00e+00	0	28	0	139460608	74	4631
2026-01-15 11:32:35.80	209.91	9.31	-53.9	-56.1	14.0	0.00e+00	0	28	0	141557760	74	4516
2026-01-15 11:32:36.79	210.00	9.38	-53.8	-56.1	14.0	0.00e+00	0	28	0	142606336	74	4494
2026-01-15 11:32:37.79	210.10	9.45	-53.9	-56.1	14.0	0.00e+00	0	28	0	144703488	74	4539
2026-01-15 11:32:38.78	210.19	9.52	-53.8	-56.1	14.0	0.00e+00	0	28	0	146800640	74	4504
2026-01-15 11:32:39.77	210.29	9.59	-53.9	-56.1	14.0	0.00e+00	0	28	0	148897792	74	4503
2026-01-15 11:32:40.75	210.38	9.66	-53.8	-56.0	14.1	0.00e+00	0	28	0	149946368	74	4445
2026-01-15 11:32:41.75	210.48	9.74	-53.8	-56.1	14.0	0.00e+00	0	28	0	152043520	74	4495
2026-01-15 11:32:42.75	210.58	9.81	-53.8	-56.0	14.0	0.00e+00	0	28	0	154140672	74	4484
2026-01-15 11:32:43.75	210.68	9.88	-53.9	-56.1	14.0	0.00e+00	0	28	0	156237824	74	4504
2026-01-15 11:32:44.75	210.77	9.95	-53.9	-56.1	14.0	0.00e+00	0	28	0	158334976	74	4507
2026-01-15 11:32:45.74	210.87	10.03	-53.7	-55.9	14.1	0.00e+00	0	28	0	159383552	74	4421
2026-01-15 11:32:46.74	210.97	10.10	-53.8	-56.0	14.0	0.00e+00	0	28	0	161480704	74	4459
2026-01-15 11:32:47.73	211.07	10.17	-53.7	-55.9	14.1	0.00e+00	0	28	0	163577856	74	4411
2026-01-15 11:32:48.72	211.17	10.24	-53.8	-56.0	14.1	0.00e+00	0	28	0	165675008	74	4455
2026-01-15 11:32:49.72	211.27	10.32	-53.8	-56.0	14.0	0.00e+00	0	28	0	167772160	74	4485
2026-01-15 11:32:50.72	211.37	10.39	-53.7	-55.9	14.1	0.00e+00	0	28	0	168820736	74	4418
2026-01-15 11:32:51.72	211.47	10.46	-53.8	-56.0	14.1	0.00e+00	0	28	0	170917888	74	4454
2026-01-15 11:32:52.72	211.58	10.54	-53.7	-55.8	14.1	0.00e+00	0	28	0	173015040	73	4614
2026-01-15 11:32:53.72	211.68	10.61	-53.7	-55.8	14.1	0.00e+00	0	28	0	175112192	73	4623
2026-01-15 11:32:54.72	211.78	10.69	-53.7	-55.8	14.0	0.00e+00	0	28	0	176160768	73	4650
2026-01-15 11:32:55.70	211.88	10.76	-53.6	-55.7	14.1	0.00e+00	0	28	0	178257920	73	4557
2026-01-15 11:32:56.69	211.99	10.83	-53.6	-55.7	14.1	0.00e+00	0	28	0	180355072	73	4568
2026-01-15 11:32:57.69	212.09	10.91	-53.7	-55.8	14.1	0.00e+00	0	28	0	182452224	73	4616
2026-01-15 11:32:58.68	212.20	10.98	-53.6	-55.8	14.1	0.00e+00	0	28	0	184549376	73	4603
2026-01-15 11:32:59.67	212.30	11.06	-53.5	-55.6	14.2	0.00e+00	0	28	0	185597952	73	4519
2026-01-15 11:33:00.67	212.41	11.13	-53.5	-55.6	14.2	0.00e+00	0	28	0	187695104	73	4515
2026-01-15 11:33:01.66	212.51	11.20	-53.5	-55.6	14.2	0.00e+00	0	28	0	189792256	73	4524
2026-01-15 11:33:02.66	212.62	11.28	-53.5	-55.5	14.2	0.00e+00	0	28	0	191889408	73	4467
2026-01-15 11:33:03.66	212.73	11.35	-53.5	-55.5	14.2	0.00e+00	0	28	0	192937984	73	4471
2026-01-15 11:33:04.65	212.84	11.43	-53.4	-55.5	14.2	0.00e+00	0	28	0	195035136	73	4445
2026-01-15 11:33:05.65	212.95	11.51	-53.4	-55.4	14.3	0.00e+00	0	28	0	197132288	73	4422
2026-01-15 11:33:06.64	213.05	11.58	-53.5	-55.6	14.2	0.00e+00	0	28	0	199229440	73	4522
2026-01-15 11:33:07.63	213.16	11.66	-53.5	-55.6	14.2	0.00e+00	0	28	0	201326592	73	4498
2026-01-15 11:33:08.62	213.27	11.73	-53.4	-55.5	14.2	0.00e+00	0	28	0	202375168	73	4445
2026-01-15 11:33:09.61	213.38	11.81	-53.4	-55.4	14.2	0.00e+00	0	28	0	204472320	73	4435
2026-01-15 11:33:10.60	213.49	11.88	-53.4	-55.4	14.3	0.00e+00	0	28	0	206569472	73	4430
2026-01-15 11:33:11.59	213.61	11.96	-53.4	-55.4	14.3	0.00e+00	0	28	0	208666624	73	4441
2026-01-15 11:33:12.58	213.72	12.03	-53.5	-55.5	14.2	0.00e+00	0	28	0	209715200	73	4471
2026-01-15 11:33:13.58	213.83	12.11	-53.4	-55.4	14.3	0.00e+00	0	28	0	211812352	73	4431
2026-01-15 11:33:14.57	213.94	12.19	-53.4	-55.4	14.3	0.00e+00	0	28	0	213909504	73	4402
2026-01-15 11:33:15.57	214.06	12.26	-53.4	-55.4	14.3	0.00e+00	0	28	0	216006656	73	4440
2026-01-15 11:33:16.57	214.17	12.34	-53.5	-55.5	14.2	0.00e+00	0	28	0	218103808	73	4475
2026-01-15 11:33:17.57	214.29	12.42	-53.5	-55.5	14.2	0.00e+00	0	28	0	219152384	73	4488
2026-01-15 11:33:18.56	214.40	12.49	-53.6	-55.7	14.2	0.00e+00	0	28	0	221249536	73	4552
2026-01-15 11:33:19.55	214.52	12.57	-53.7	-55.8	14.1	0.00e+00	0	28	0	223346688	73	4631
2026-01-15 11:33:20.54	214.64	12.65	-53.8	-55.9	14.0	0.00e+00	0	28	0	225443840	73	4687
2026-01-15 11:33:21.54	214.75	12.73	-53.8	-55.9	14.1	0.00e+00	0	28	0	226492416	73	4675
2026-01-15 11:33:22.53	214.87	12.80	-53.8	-55.9	14.0	0.00e+00	0	28	0	228589568	73	4689
2026-01-15 11:33:23.52	214.99	12.88	-53.7	-55.8	14.1	0.00e+00	0	28	0	230686720	73	4608
2026-01-15 11:33:24.52	215.11	12.96	-53.7	-55.8	14.1	0.00e+00	0	28	0	232783872	73	4601
2026-01-15 11:33:25.52	215.23	13.04	-53.6	-55.7	14.1	0.00e+00	0	28	0	234881024	73	4594
2026-01-15 11:33:26.51	215.35	13.12	-53.7	-55.8	14.1	0.00e+00	0	28	0	235929600	73	4614
2026-01-15 11:33:27.51	215.47	13.19	-53.6	-55.7	14.1	0.00e+00	0	28	0	238026752	73	4579
2026-01-15 11:33:28.50	215.59	13.27	-53.7	-55.8	14.1	0.00e+00	0	28	0	240123904	73	4610
2026-01-15 11:33:29.50	215.72	13.35	-53.6	-55.7	14.2	0.00e+00	0	28	0	242221056	73	4556
2026-01-15 11:33:30.49	215.84	13.43	-53.6	-55.7	14.1	0.00e+00	0	28	0	243269632	73	4570
2026-01-15 11:33:31.48	215.96	13.51	-53.6	-55.6	14.2	0.00e+00	0	28	0	245366784	73	4541
2026-01-15 11:33:32.47	216.08	13.59	-53.6	-55.6	14.2	0.00e+00	0	28	0	247463936	73	4516
2026-01-15 11:33:33.46	216.21	13.67	-53.5	-55.6	14.2	0.00e+00	0	28	0	249561088	73	4517
2026-01-15 11:33:34.47	216.34	13.75	-53.5	-55.6	14.2	0.00e+00	0	28	0	251658240	73	4497
2026-01-15 11:33:35.45	216.46	13.82	-53.6	-55.6	14.2	0.00e+00	0	28	0	252706816	73	4543
2026-01-15 11:33:36.45	216.59	13.90	-53.5	-55.6	14.2	0.00e+00	0	28	0	254803968	73	4508
2026-01-15 11:33:37.44	216.72	13.98	-53.6	-55.7	14.2	0.00e+00	0	28	0	256901120	73	4547
2026-01-15 11:33:38.44	216.84	14.06	-53.6	-55.7	14.1	0.00e+00	0	28	0	258998272	73	4583
2026-01-15 11:33:39.43	216.97	14.14	-53.6	-55.7	14.2	0.00e+00	0	28	0	260046848	73	4575
2026-01-15 11:33:40.42	217.10	14.22	-53.7	-55.8	14.1	0.00e+00	0	28	0	262144000	73	4623
2026-01-15 11:33:41.41	217.23	14.30	-53.7	-55.7	14.1	0.00e+00	0	28	0	264241152	73	4587
2026-01-15 11:33:42.41	217.36	14.38	-53.8	-55.9	14.1	0.00e+00	0	28	0	266338304	73	4689
2026-01-15 11:33:43.40	217.49	14.46	-53.6	-55.7	14.2	0.00e+00	0	28	0	268435456	73	4555
2026-01-15 11:33:44.39	217.62	14.54	-53.5	-55.6	14.2	0.00e+00	0	28	0	269484032	73	4506
2026-01-15 11:33:45.39	217.76	14.62	-53.5	-55.5	14.3	0.00e+00	0	28	0	271581184	73	4459
2026-01-15 11:33:46.40	217.89	14.71	-53.5	-55.6	14.2	0.00e+00	0	28	0	273678336	73	4505
2026-01-15 11:33:47.39	218.03	14.79	-53.5	-55.6	14.2	0.00e+00	0	28	0	275775488	73	4508
2026-01-15 11:33:48.39	218.16	14.87	-53.5	-55.5	14.3	0.00e+00	0	28	0	276824064	73	4478
2026-01-15 11:33:49.39	218.30	14.95	-53.6	-55.6	14.2	0.00e+00	0	28	0	278921216	73	4545
2026-01-15 11:33:50.38	218.44	15.03	-53.6	-55.7	14.2	0.00e+00	0	28	0	281018368	73	4574
2026-01-15 11:33:51.38	218.57	15.11	-53.7	-55.7	14.1	0.00e+00	0	28	0	283115520	73	4590
2026-01-15 11:33:52.37	218.71	15.19	-53.7	-55.8	14.1	0.00e+00	0	28	0	285212672	73	4636
2026-01-15 11:33:53.36	218.85	15.28	-53.7	-55.8	14.1	0.00e+00	0	28	0	286261248	73	4627
2026-01-15 11:33:54.36	218.99	15.36	-53.7	-55.8	14.1	0.00e+00	0	28	0	288358400	73	4645
2026-01-15 11:33:55.35	219.13	15.44	-53.7	-55.7	14.1	0.00e+00	0	28	0	290455552	73	4595
2026-01-15 11:33:56.35	219.27	15.52	-53.8	-55.9	14.1	0.00e+00	0	28	0	292552704	73	4670
2026-01-15 11:33:57.34	219.41	15.60	-53.7	-55.7	14.2	0.00e+00	0	28	0	293601280	73	4588
2026-01-15 11:33:58.34	219.55	15.69	-53.6	-55.7	14.2	0.00e+00	0	28	0	295698432	73	4560
2026-01-15 11:33:59.33	219.70	15.77	-53.6	-55.7	14.2	0.00e+00	0	28	0	297795584	73	4562
2026-01-15 11:34:00.33	219.84	15.85	-53.5	-55.5	14.3	0.00e+00	0	28	0	299892736	73	4474
2026-01-15 11:34:01.32	219.98	15.93	-53.5	-55.5	14.2	0.00e+00	0	28	0	301989888	73	4475
2026-01-15 11:34:02.32	220.13	16.02	-53.5	-55.5	14.3	0.00e+00	0	28	0	303038464	73	4458
2026-01-15 11:34:03.31	220.28	16.10	-53.4	-55.4	14.3	0.00e+00	0	28	0	305135616	73	4430
2026-01-15 11:34:04.31	220.42	16.18	-53.5	-55.5	14.3	0.00e+00	0	28	0	307232768	73	4453
2026-01-15 11:34:05.30	220.57	16.27	-53.6	-55.6	14.2	0.00e+00	0	28	0	309329920	73	4505
2026-01-15 11:34:06.30	220.72	16.35	-53.6	-55.6	14.2	0.00e+00	0	28	0	310378496	73	4518
2026-01-15 11:34:07.29	220.87	16.43	-53.6	-55.7	14.2	0.00e+00	0	28	0	312475648	73	4557
2026-01-15 11:34:08.28	221.02	16.52	-53.6	-55.6	14.2	0.00e+00	0	28	0	314572800	73	4539
2026-01-15 11:34:09.28	221.17	16.60	-53.7	-55.7	14.2	0.00e+00	0	28	0	316669952	73	4574
2026-01-15 11:34:10.27	221.32	16.68	-53.6	-55.6	14.2	0.00e+00	0	28	0	318767104	73	4526
2026-01-15 11:34:11.27	221.47	16.77	-53.6	-55.6	14.2	0.00e+00	0	28	0	319815680	73	4526
2026-01-15 11:34:12.28	221.63	16.85	-53.6	-55.6	14.2	0.00e+00	0	28	0	321912832	73	4536
2026-01-15 11:34:13.28	221.78	16.94	-53.5	-55.4	14.3	0.00e+00	0	28	0	324009984	73	4436
2026-01-15 11:34:14.26	221.94	17.02	-53.4	-55.3	14.4	0.00e+00	0	28	0	326107136	73	4368
2026-01-15 11:34:15.26	222.09	17.10	-53.4	-55.3	14.3	0.00e+00	0	28	0	327155712	73	4391
2026-01-15 11:34:16.25	222.25	17.19	-53.4	-55.3	14.4	0.00e+00	0	28	0	329252864	73	4361
2026-01-15 11:34:17.24	222.41	17.27	-53.3	-55.3	14.4	0.00e+00	0	28	0	331350016	73	4360
2026-01-15 11:34:18.23	222.56	17.35	-53.3	-55.3	14.4	0.00e+00	0	28	0	333447168	73	4353
2026-01-15 11:34:19.23	222.72	17.44	-53.4	-55.4	14.3	0.00e+00	0	28	0	335544320	73	4399
2026-01-15 11:34:20.23	222.89	17.52	-53.4	-55.4	14.3	0.00e+00	0	28	0	336592896	73	4409
2026-01-15 11:34:21.23	223.05	17.61	-53.3	-55.2	14.4	0.00e+00	0	28	0	338690048	73	4328
2026-01-15 11:34:22.24	223.21	17.69	-53.2	-55.2	14.5	0.00e+00	0	28	0	340787200	73	4292
2026-01-15 11:34:23.23	223.37	17.78	-53.2	-55.0	14.4	0.00e+00	0	28	0	342884352	72	4483
2026-01-15 11:34:24.23	223.54	17.86	-53.1	-54.9	14.4	0.00e+00	0	28	0	344981504	72	4428
2026-01-15 11:34:25.22	223.70	17.95	-53.0	-54.8	14.5	0.00e+00	0	28	0	346030080	72	4351
2026-01-15 11:34:26.20	223.86	18.03	-52.8	-54.6	14.6	0.00e+00	0	28	0	348127232	72	4247
2026-01-15 11:34:27.20	224.03	18.12	-52.8	-54.6	14.6	0.00e+00	0	28	0	350224384	72	4255
2026-01-15 11:34:28.19	224.20	18.20	-52.6	-54.4	14.6	0.00e+00	0	28	0	352321536	71	4412
2026-01-15 11:34:29.18	224.37	18.29	-52.6	-54.3	14.6	0.00e+00	0	28	0	353370112	71	4385
2026-01-15 11:34:30.17	224.53	18.37	-52.5	-54.3	14.6	0.00e+00	0	28	0	355467264	71	4360
2026-01-15 11:34:31.17	224.70	18.46	-52.6	-54.4	14.6	0.00e+00	0	28	0	357564416	71	4398
2026-01-15 11:34:32.18	224.88	18.54	-52.7	-54.4	14.5	0.00e+00	0	28	0	359661568	71	4423
2026-01-15 11:34:33.17	225.05	18.63	-52.7	-54.5	14.5	0.00e+00	0	28	0	361758720	71	4469
2026-01-15 11:34:34.17	225.22	18.71	-52.7	-54.5	14.5	0.00e+00	0	28	0	362807296	71	4455
2026-01-15 11:34:35.17	225.40	18.80	-52.6	-54.3	14.6	0.00e+00	0	28	0	364904448	71	4378
2026-01-15 11:34:36.16	225.57	18.89	-52.6	-54.3	14.6	0.00e+00	0	28	0	367001600	71	4373
2026-01-15 11:34:37.15	225.75	18.97	-52.6	-54.3	14.6	0.00e+00	0	28	0	369098752	71	4382
2026-01-15 11:34:38.15	225.92	19.06	-52.6	-54.4	14.6	0.00e+00	0	28	0	370147328	71	4394
2026-01-15 11:34:39.15	226.10	19.14	-52.5	-54.3	14.6	0.00e+00	0	28	0	372244480	71	4356
2026-01-15 11:34:40.15	226.28	19.23	-52.6	-54.4	14.6	0.00e+00	0	28	0	374341632	71	4397
2026-01-15 11:34:41.15	226.46	19.31	-52.6	-54.4	14.6	0.00e+00	0	28	0	376438784	71	4411
2026-01-15 11:34:42.14	226.64	19.40	-52.6	-54.4	14.5	0.00e+00	0	28	0	378535936	71	4419
2026-01-15 11:34:43.14	226.82	19.49	-52.7	-54.5	14.5	0.00e+00	0	28	0	379584512	71	4444
2026-01-15 11:34:44.13	227.01	19.57	-52.6	-54.4	14.6	0.00e+00	0	28	0	381681664	71	4394
2026-01-15 11:34:45.14	227.19	19.66	-52.5	-54.3	14.6	0.00e+00	0	28	0	383778816	71	4351
2026-01-15 11:34:46.13	227.38	19.74	-52.5	-54.2	14.6	0.00e+00	0	28	0	385875968	71	4316
2026-01-15 11:34:47.13	227.56	19.83	-52.5	-54.2	14.6	0.00e+00	0	28	0	387973120	71	4325
2026-01-15 11:34:48.13	227.75	19.92	-52.5	-54.3	14.6	0.00e+00	0	28	0	389021696	71	4347
2026-01-15 11:34:49.12	227.94	20.00	-52.5	-54.2	14.6	0.00e+00	0	28	0	391118848	71	4323
2026-01-15 11:34:50.12	228.13	20.09	-52.4	-54.1	14.7	0.00e+00	0	28	0	393216000	71	4269
2026-01-15 11:34:51.12	228.32	20.17	-52.4	-54.1	14.7	0.00e+00	0	28	0	395313152	71	4278
2026-01-15 11:34:52.11	228.51	20.26	-52.4	-54.1	14.7	0.00e+00	0	28	0	396361728	71	4263
2026-01-15 11:34:53.10	228.70	20.34	-52.3	-54.0	14.7	0.00e+00	0	28	0	398458880	71	4226
2026-01-15 11:34:54.09	228.89	20.43	-52.3	-54.0	14.8	0.00e+00	0	28	0	400556032	71	4203
2026-01-15 11:34:55.09	229.08	20.51	-52.2	-53.9	14.8	0.00e+00	0	28	0	402653184	71	4157
2026-01-15 11:34:56.09	229.28	20.60	-52.2	-53.8	14.7	0.00e+00	0	28	0	404750336	70	4389
2026-01-15 11:34:57.08	229.47	20.69	-52.1	-53.7	14.7	0.00e+00	0	28	0	405798912	70	4339
2026-01-15 11:34:58.07	229.67	20.77	-52.1	-53.7	14.8	0.00e+00	0	28	0	407896064	70	4305
2026-01-15 11:34:59.07	229.87	20.86	-52.0	-53.6	14.8	0.00e+00	0	28	0	409993216	70	4286
2026-01-15 11:35:00.06	230.07	20.94	-52.0	-53.6	14.8	0.00e+00	0	28	0	412090368	70	4276
2026-01-15 11:35:01.05	230.27	21.03	-52.0	-53.6	14.8	0.00e+00	0	28	0	413138944	70	4266
2026-01-15 11:35:02.05	230.47	21.11	-52.0	-53.5	14.8	0.00e+00	0	28	0	415236096	70	4240
2026-01-15 11:35:03.04	230.67	21.20	-51.9	-53.5	14.8	0.00e+00	0	28	0	417333248	70	4213
2026-01-15 11:35:04.04	230.87	21.28	-51.8	-53.4	14.9	0.00e+00	0	28	0	419430400	70	4174
2026-01-15 11:35:05.03	231.08	21.37	-51.8	-53.4	14.9	0.00e+00	0	28	0	421527552	70	4157
2026-01-15 11:35:06.03	231.28	21.45	-51.7	-53.2	14.9	0.00e+00	0	28	0	422576128	70	4081
2026-01-15 11:35:07.02	231.49	21.54	-51.7	-53.3	14.8	0.00e+00	0	28	0	424673280	69	4344
2026-01-15 11:35:08.02	231.70	21.62	-51.7	-53.2	14.8	0.00e+00	0	28	0	426770432	69	4322
2026-01-15 11:35:09.03	231.91	21.71	-51.6	-53.1	14.8	0.00e+00	0	28	0	428867584	69	4277
2026-01-15 11:35:10.02	232.12	21.79	-51.7	-53.2	14.8	0.00e+00	0	28	0	429916160	69	4322
2026-01-15 11:35:11.01	232.33	21.88	-51.7	-53.3	14.8	0.00e+00	0	28	0	432013312	69	4354
2026-01-15 11:35:12.00	232.54	21.96	-51.8	-53.4	14.8	0.00e+00	0	28	0	434110464	69	4394
2026-01-15 11:35:13.00	232.75	22.04	-51.9	-53.5	14.7	0.00e+00	0	28	0	436207616	69	4467
2026-01-15 11:35:13.99	232.97	22.13	-52.0	-53.6	14.7	0.00e+00	0	28	0	438304768	69	4542
2026-01-15 11:35:14.98	233.18	22.21	-52.1	-53.8	14.6	0.00e+00	0	28	0	439353344	69	4618
2026-01-15 11:35:15.98	233.40	22.30	-52.2	-53.9	14.6	0.00e+00	0	28	0	441450496	69	4677
2026-01-15 11:35:16.98	233.62	22.38	-52.3	-54.0	14.5	0.00e+00	0	28	0	443547648	69	4737
2026-01-15 11:35:17.98	233.84	22.46	-52.4	-54.1	14.5	0.00e+00	0	28	0	445644800	69	4797
2026-01-15 11:35:18.97	234.06	22.55	-52.3	-54.0	14.6	0.00e+00	0	28	0	446693376	70	4477
2026-01-15 11:35:19.96	234.28	22.63	-52.4	-54.1	14.6	0.00e+00	0	28	0	448790528	70	4500
2026-01-15 11:35:20.96	234.50	22.71	-52.4	-54.1	14.6	0.00e+00	0	28	0	450887680	70	4510
2026-01-15 11:35:21.95	234.72	22.80	-52.4	-54.1	14.6	0.00e+00	0	28	0	452984832	70	4510
2026-01-15 11:35:22.94	234.95	22.88	-52.4	-54.1	14.6	0.00e+00	0	28	0	455081984	70	4515
2026-01-15 11:35:23.94	235.17	22.96	-52.5	-54.2	14.6	0.00e+00	0	28	0	456130560	70	4562
2026-01-15 11:35:24.94	235.40	23.04	-52.4	-54.2	14.6	0.00e+00	0	28	0	458227712	70	4551
2026-01-15 11:35:25.93	235.63	23.13	-52.5	-54.2	14.6	0.00e+00	0	28	0	460324864	70	4582
2026-01-15 11:35:26.93	235.86	23.21	-52.5	-54.2	14.6	0.00e+00	0	28	0	462422016	70	4557
2026-01-15 11:35:27.92	236.09	23.29	-52.5	-54.2	14.6	0.00e+00	0	28	0	463470592	70	4552
2026-01-15 11:35:28.92	236.32	23.37	-52.5	-54.1	14.6	0.00e+00	0	28	0	465567744	70	4545
2026-01-15 11:35:29.91	236.55	23.45	-52.5	-54.2	14.6	0.00e+00	0	28	0	467664896	70	4588
2026-01-15 11:35:30.91	236.79	23.53	-52.5	-54.2	14.6	0.00e+00	0	28	0	469762048	70	4576
2026-01-15 11:35:31.91	237.03	23.61	-52.6	-54.3	14.5	0.00e+00	0	28	0	471859200	70	4628
2026-01-15 11:35:32.90	237.26	23.70	-52.7	-54.4	14.5	0.00e+00	0	28	0	472907776	70	4683
2026-01-15 11:35:33.88	237.50	23.77	-52.6	-54.3	14.5	0.00e+00	0	28	0	475004928	70	4651
2026-01-15 11:35:34.87	237.73	23.85	-52.7	-54.5	14.4	0.00e+00	0	28	0	477102080	70	4725
2026-01-15 11:35:35.86	237.97	23.93	-52.8	-54.5	14.4	0.00e+00	0	28	0	479199232	70	4752
2026-01-15 11:35:36.85	238.21	24.01	-52.7	-54.5	14.4	0.00e+00	0	28	0	480247808	70	4725
2026-01-15 11:35:37.85	238.46	24.09	-52.9	-54.7	14.4	0.00e+00	0	28	0	482344960	70	4836
2026-01-15 11:35:38.84	238.70	24.17	-53.0	-54.8	14.4	0.00e+00	0	28	0	484442112	71	4623
2026-01-15 11:35:39.83	238.94	24.25	-53.1	-55.0	14.4	0.00e+00	0	28	0	486539264	71	4732
2026-01-15 11:35:40.82	239.19	24.33	-53.2	-55.0	14.3	0.00e+00	0	28	0	487587840	71	4750
2026-01-15 11:35:41.83	239.44	24.41	-53.1	-55.0	14.4	0.00e+00	0	28	0	489684992	71	4732
2026-01-15 11:35:42.82	239.68	24.48	-53.1	-54.9	14.4	0.00e+00	0	28	0	491782144	71	4701
2026-01-15 11:35:43.82	239.94	24.56	-53.0	-54.8	14.4	0.00e+00	0	28	0	493879296	71	4645
2026-01-15 11:35:44.82	240.19	24.64	-53.1	-54.9	14.4	0.00e+00	0	28	0	495976448	71	4670
2026-01-15 11:35:45.81	240.44	24.72	-53.0	-54.8	14.4	0.00e+00	0	28	0	497025024	71	4632
2026-01-15 11:35:46.80	240.69	24.79	-53.0	-54.8	14.4	0.00e+00	0	28	0	499122176	71	4623
2026-01-15 11:35:47.79	240.94	24.87	-53.0	-54.8	14.4	0.00e+00	0	28	0	501219328	71	4641
2026-01-15 11:35:48.79	241.20	24.94	-53.1	-54.9	14.4	0.00e+00	0	28	0	503316480	71	4687
2026-01-15 11:35:49.78	241.46	25.02	-53.2	-55.1	14.3	0.00e+00	0	28	0	505413632	71	4781
2026-01-15 11:35:50.77	241.71	25.09	-53.1	-55.0	14.3	0.00e+00	0	28	0	506462208	71	4739
2026-01-15 11:35:51.77	241.97	25.17	-53.3	-55.1	14.3	0.00e+00	0	28	0	508559360	71	4812
2026-01-15 11:35:52.77	242.23	25.24	-53.5	-55.4	14.3	0.00e+00	0	28	0	510656512	72	4691
2026-01-15 11:35:53.77	242.50	25.32	-53.5	-55.4	14.2	0.00e+00	0	28	0	512753664	72	4700
2026-01-15 11:35:54.77	242.76	25.39	-53.5	-55.4	14.3	0.00e+00	0	28	0	513802240	72	4689
2026-01-15 11:35:55.77	243.03	25.46	-53.5	-55.4	14.2	0.00e+00	0	28	0	515899392	72	4697
2026-01-15 11:35:56.77	243.29	25.54	-53.6	-55.6	14.2	0.00e+00	0	28	0	517996544	72	4804
2026-01-15 11:35:57.77	243.56	25.61	-53.8	-55.8	14.1	0.00e+00	0	28	0	520093696	72	4925
2026-01-15 11:35:58.76	243.83	25.68	-54.0	-56.1	14.1	0.00e+00	0	28	0	522190848	73	4783
2026-01-15 11:35:59.76	244.10	25.75	-54.1	-56.3	14.0	0.00e+00	0	28	0	523239424	73	4905
2026-01-15 11:36:00.75	244.37	25.82	-54.2	-56.4	13.9	0.00e+00	0	28	0	525336576	73	4975
2026-01-15 11:36:01.74	244.63	25.89	-54.4	-56.6	13.8	0.00e+00	0	28	0	527433728	73	5064
2026-01-15 11:36:02.74	244.91	25.96	-54.3	-56.5	13.9	0.00e+00	0	28	0	529530880	73	5037
2026-01-15 11:36:03.74	245.18	26.03	-54.5	-56.7	13.9	0.00e+00	0	28	0	530579456	74	4858
2026-01-15 11:36:04.73	245.46	26.10	-54.6	-56.8	13.8	0.00e+00	0	28	0	532676608	74	4917
2026-01-15 11:36:05.72	245.73	26.17	-54.7	-57.1	13.7	0.00e+00	0	28	0	534773760	74	5061
2026-01-15 11:36:06.72	246.01	26.24	-54.8	-57.2	13.7	0.00e+00	0	28	0	536870912	74	5123
2026-01-15 11:36:07.71	246.29	26.30	-54.8	-57.3	13.6	0.00e+00	0	28	0	538968064	74	5161
2026-01-15 11:36:08.71	246.57	26.37	-54.8	-57.1	13.7	0.00e+00	0	28	0	540016640	74	5090
2026-01-15 11:36:09.70	246.84	26.44	-54.8	-57.2	13.6	0.00e+00	0	28	0	542113792	74	5127
2026-01-15 11:36:10.70	247.13	26.50	-54.8	-57.2	13.6	0.00e+00	0	28	0	544210944	74	5113
2026-01-15 11:36:11.69	247.41	26.57	-54.9	-57.3	13.6	0.00e+00	0	28	0	546308096	74	5215
2026-01-15 11:36:12.69	247.69	26.63	-54.8	-57.2	13.6	0.00e+00	0	28	0	547356672	74	5138
2026-01-15 11:36:13.69	247.98	26.69	-54.9	-57.4	13.6	0.00e+00	0	28	0	549453824	75	4953
2026-01-15 11:36:14.69	248.27	26.76	-55.0	-57.5	13.6	0.00e+00	0	28	0	551550976	75	5026
2026-01-15 11:36:15.69	248.56	26.82	-55.1	-57.6	13.5	0.00e+00	0	28	0	553648128	75	5063
2026-01-15 11:36:16.69	248.85	26.88	-55.1	-57.6	13.5	0.00e+00	0	28	0	555745280	75	5087
2026-01-15 11:36:17.68	249.13	26.94	-54.9	-57.3	13.7	0.00e+00	0	28	0	556793856	75	4886
2026-01-15 11:36:18.68	249.42	27.00	-54.8	-57.2	13.7	0.00e+00	0	28	0	558891008	75	4842
2026-01-15 11:36:19.67	249.71	27.06	-54.8	-57.2	13.7	0.00e+00	0	28	0	560988160	75	4842
2026-01-15 11:36:20.66	250.01	27.12	-54.7	-57.1	13.8	0.00e+00	0	28	0	563085312	75	4794
2026-01-15 11:36:21.65	250.30	27.18	-54.8	-57.2	13.7	0.00e+00	0	28	0	565182464	75	4824
2026-01-15 11:36:22.65	250.59	27.24	-54.7	-57.1	13.8	0.00e+00	0	28	0	566231040	75	4790
2026-01-15 11:36:23.64	250.89	27.30	-54.7	-57.1	13.8	0.00e+00	0	28	0	568328192	75	4773
2026-01-15 11:36:24.64	251.19	27.35	-54.7	-57.0	13.8	0.00e+00	0	28	0	570425344	75	4715
2026-01-15 11:36:25.63	251.48	27.41	-54.6	-56.9	13.8	0.00e+00	0	28	0	572522496	75	4703
2026-01-15 11:36:26.62	251.78	27.47	-54.7	-57.0	13.9	0.00e+00	0	28	0	573571072	75	4728
2026-01-15 11:36:27.63	252.08	27.52	-54.5	-56.7	14.0	0.00e+00	0	28	0	575668224	75	4563
2026-01-15 11:36:28.61	252.38	27.57	-54.6	-56.8	13.9	0.00e+00	0	28	0	577765376	75	4633
2026-01-15 11:36:29.60	252.68	27.63	-54.5	-56.7	14.0	0.00e+00	0	28	0	579862528	75	4588
2026-01-15 11:36:30.60	252.98	27.68	-54.5	-56.8	14.0	0.00e+00	0	28	0	581959680	75	4606
2026-01-15 11:36:31.60	253.29	27.73	-54.6	-57.0	13.8	0.00e+00	0	28	0	583008256	75	4709
2026-01-15 11:36:32.60	253.59	27.78	-54.7	-57.1	13.8	0.00e+00	0	28	0	585105408	75	4773
2026-01-15 11:36:33.60	253.90	27.83	-54.8	-57.1	13.8	0.00e+00	0	28	0	587202560	75	4813
2026-01-15 11:36:34.60	254.21	27.88	-54.8	-57.2	13.7	0.00e+00	0	28	0	589299712	75	4841
2026-01-15 11:36:35.59	254.51	27.93	-54.7	-57.1	13.8	0.00e+00	0	28	0	590348288	75	4765
2026-01-15 11:36:36.59	254.82	27.98	-54.7	-57.1	13.8	0.00e+00	0	28	0	592445440	75	4774
2026-01-15 11:36:37.58	255.13	28.02	-54.7	-57.1	13.8	0.00e+00	0	28	0	594542592	75	4762
2026-01-15 11:36:38.58	255.44	28.07	-54.9	-57.3	13.7	0.00e+00	0	28	0	596639744	75	4923
2026-01-15 11:36:39.58	255.76	28.12	-55.2	-57.8	13.4	0.00e+00	0	28	0	598736896	75	5183
2026-01-15 11:36:40.56	256.06	28.16	-55.6	-58.4	13.2	0.00e+00	0	28	0	599785472	76	5227
2026-01-15 11:36:41.56	256.38	28.20	-56.0	-58.9	13.0	0.00e+00	0	28	0	601882624	77	5222
2026-01-15 11:36:42.55	256.69	28.25	-56.1	-59.2	12.8	0.00e+00	0	28	0	603979776	77	5432
2026-01-15 11:36:43.54	257.00	28.29	-56.2	-59.4	12.7	0.00e+00	0	28	0	606076928	77	5533
2026-01-15 11:36:44.54	257.32	28.33	-56.3	-59.4	12.7	0.00e+00	0	28	0	607125504	77	5560
2026-01-15 11:36:45.53	257.63	28.37	-56.1	-59.1	12.9	0.00e+00	0	28	0	609222656	77	5385
2026-01-15 11:36:46.53	257.95	28.41	-55.9	-58.8	13.0	0.00e+00	0	28	0	611319808	77	5174
2026-01-15 11:36:47.52	258.26	28.45	-55.8	-58.7	13.1	0.00e+00	0	28	0	613416960	77	5120
2026-01-15 11:36:48.52	258.58	28.49	-55.6	-58.2	13.4	0.00e+00	0	28	0	615514112	77	4868
2026-01-15 11:36:49.51	258.90	28.52	-55.5	-58.1	13.5	0.00e+00	0	28	0	616562688	77	4789
2026-01-15 11:36:50.51	259.22	28.56	-55.4	-58.0	13.5	0.00e+00	0	28	0	618659840	77	4720
2026-01-15 11:36:51.51	259.54	28.59	-55.3	-57.8	13.6	0.00e+00	0	28	0	620756992	77	4642
2026-01-15 11:36:52.51	259.87	28.63	-55.3	-57.8	13.6	0.00e+00	0	28	0	622854144	77	4639
2026-01-15 11:36:53.51	260.19	28.66	-55.3	-57.8	13.6	0.00e+00	0	28	0	623902720	77	4616
2026-01-15 11:36:54.52	260.52	28.69	-55.3	-57.8	13.6	0.00e+00	0	28	0	625999872	77	4615
2026-01-15 11:36:55.51	260.84	28.72	-55.4	-58.0	13.6	0.00e+00	0	28	0	628097024	77	4709
2026-01-15 11:36:56.51	261.16	28.76	-55.5	-58.1	13.5	0.00e+00	0	28	0	630194176	77	4765
2026-01-15 11:36:57.50	261.48	28.78	-55.5	-58.1	13.5	0.00e+00	0	28	0	632291328	77	4786
2026-01-15 11:36:58.49	261.81	28.81	-55.5	-58.1	13.5	0.00e+00	0	28	0	633339904	77	4799
2026-01-15 11:36:59.48	262.13	28.84	-55.6	-58.4	13.3	0.00e+00	0	28	0	635437056	77	4928
2026-01-15 11:37:00.48	262.46	28.87	-55.7	-58.4	13.3	0.00e+00	0	28	0	637534208	77	4981
2026-01-15 11:37:01.47	262.78	28.89	-55.7	-58.5	13.2	0.00e+00	0	28	0	639631360	77	5009
2026-01-15 11:37:02.47	263.11	28.92	-55.8	-58.5	13.2	0.00e+00	0	28	0	641728512	77	5041
2026-01-15 11:37:03.47	263.44	28.94	-55.6	-58.4	13.3	0.00e+00	0	28	0	642777088	77	4945
2026-01-15 11:37:04.46	263.76	28.96	-55.7	-58.5	13.3	0.00e+00	0	28	0	644874240	77	5024
2026-01-15 11:37:05.45	264.09	28.98	-55.6	-58.3	13.4	0.00e+00	0	28	0	646971392	77	4885
2026-01-15 11:37:06.45	264.42	29.01	-55.5	-58.2	13.4	0.00e+00	0	28	0	649068544	77	4839
2026-01-15 11:37:07.43	264.74	29.02	-55.6	-58.2	13.4	0.00e+00	0	28	0	650117120	77	4862
2026-01-15 11:37:08.43	265.07	29.04	-55.4	-58.0	13.5	0.00e+00	0	28	0	652214272	77	4755
2026-01-15 11:37:09.42	265.40	29.06	-55.4	-57.9	13.6	0.00e+00	0	28	0	654311424	77	4685
2026-01-15 11:37:10.42	265.73	29.08	-55.3	-57.8	13.7	0.00e+00	0	28	0	656408576	77	4622
2026-01-15 11:37:11.43	266.07	29.09	-55.1	-57.6	13.7	0.00e+00	0	28	0	658505728	76	4764
2026-01-15 11:37:12.42	266.40	29.11	-55.2	-57.6	13.6	0.00e+00	0	28	0	659554304	76	4807
2026-01-15 11:37:13.42	266.73	29.12	-55.1	-57.5	13.7	0.00e+00	0	28	0	661651456	76	4727
2026-01-15 11:37:14.41	267.06	29.13	-55.1	-57.6	13.7	0.00e+00	0	28	0	663748608	76	4766
2026-01-15 11:37:15.41	267.39	29.15	-55.2	-57.7	13.6	0.00e+00	0	28	0	665845760	76	4831
2026-01-15 11:37:16.41	267.72	29.16	-55.2	-57.7	13.6	0.00e+00	0	28	0	666894336	76	4822
2026-01-15 11:37:17.40	268.05	29.17	-55.3	-57.9	13.5	0.00e+00	0	28	0	668991488	76	4949
2026-01-15 11:37:18.40	268.39	29.18	-55.2	-57.7	13.6	0.00e+00	0	28	0	671088640	76	4852
2026-01-15 11:37:19.40	268.72	29.18	-55.0	-57.4	13.8	0.00e+00	0	28	0	673185792	76	4655
2026-01-15 11:37:20.39	269.05	29.19	-54.5	-56.7	14.0	0.00e+00	0	28	0	675282944	75	4567
2026-01-15 11:37:21.38	269.38	29.19	-54.3	-56.4	14.1	0.00e+00	0	28	0	676331520	75	4423
2026-01-15 11:37:22.37	269.71	29.20	-54.3	-56.5	14.1	0.00e+00	0	28	0	678428672	75	4442
2026-01-15 11:37:23.37	270.05	29.20	-54.5	-56.7	14.0	0.00e+00	0	28	0	680525824	75	4587
2026-01-15 11:37:24.36	270.38	29.21	-54.8	-57.2	13.7	0.00e+00	0	28	0	682622976	75	4855
2026-01-15 11:37:25.36	270.71	29.21	-55.2	-57.8	13.4	0.00e+00	0	28	0	683671552	75	5169
2026-01-15 11:37:26.35	271.04	29.21	-55.4	-58.0	13.3	0.00e+00	0	28	0	685768704	75	5304
2026-01-15 11:37:27.35	271.37	29.21	-55.5	-58.1	13.4	0.00e+00	0	28	0	687865856	76	5095
2026-01-15 11:37:28.36	271.71	29.20	-55.3	-57.9	13.5	0.00e+00	0	28	0	689963008	76	4929
2026-01-15 11:37:29.35	272.04	29.20	-55.3	-57.7	13.6	0.00e+00	0	28	0	692060160	76	4865
2026-01-15 11:37:30.35	272.38	29.20	-55.0	-57.4	13.8	0.00e+00	0	28	0	693108736	76	4693
2026-01-15 11:37:31.34	272.71	29.19	-54.6	-56.8	14.0	0.00e+00	0	28	0	695205888	75	4610
2026-01-15 11:37:32.34	273.04	29.19	-54.2	-56.3	14.2	0.00e+00	0	28	0	697303040	75	4388
2026-01-15 11:37:33.33	273.37	29.18	-54.1	-56.1	14.2	0.00e+00	0	28	0	699400192	74	4530
2026-01-15 11:37:34.32	273.70	29.17	-54.2	-56.3	14.1	0.00e+00	0	28	0	701497344	74	4624
2026-01-15 11:37:35.32	274.03	29.16	-54.3	-56.4	14.1	0.00e+00	0	28	0	702545920	74	4662
2026-01-15 11:37:36.30	274.36	29.15	-54.3	-56.5	14.0	0.00e+00	0	28	0	704643072	74	4730
2026-01-15 11:37:37.30	274.69	29.14	-54.5	-56.7	13.9	0.00e+00	0	28	0	706740224	74	4843
2026-01-15 11:37:38.30	275.03	29.13	-54.6	-56.8	13.8	0.00e+00	0	28	0	708837376	74	4916
2026-01-15 11:37:39.30	275.36	29.12	-54.7	-57.0	13.8	0.00e+00	0	28	0	709885952	74	4997
2026-01-15 11:37:40.30	275.69	29.10	-54.7	-57.0	13.8	0.00e+00	0	28	0	711983104	74	5041
2026-01-15 11:37:41.30	276.02	29.09	-54.6	-56.9	13.8	0.00e+00	0	28	0	714080256	74	4944
2026-01-15 11:37:42.29	276.35	29.07	-54.5	-56.7	13.9	0.00e+00	0	28	0	716177408	74	4853
2026-01-15 11:37:43.28	276.68	29.06	-54.4	-56.6	13.9	0.00e+00	0	28	0	718274560	74	4805
2026-01-15 11:37:44.27	277.00	29.04	-54.7	-56.9	13.8	0.00e+00	0	28	0	719323136	74	4964
2026-01-15 11:37:45.26	277.33	29.02	-54.7	-57.0	13.8	0.00e+00	0	28	0	721420288	74	5035
2026-01-15 11:37:46.26	277.66	29.00	-55.0	-57.4	13.7	0.00e+00	0	28	0	723517440	75	4940
2026-01-15 11:37:47.25	277.99	28.98	-55.2	-57.7	13.5	0.00e+00	0	28	0	725614592	75	5155
2026-01-15 11:37:48.25	278.32	28.96	-55.6	-58.3	13.3	0.00e+00	0	28	0	726663168	76	5183
2026-01-15 11:37:49.24	278.64	28.93	-55.8	-58.5	13.2	0.00e+00	0	28	0	728760320	76	5313
2026-01-15 11:37:50.24	278.97	28.91	-55.6	-58.3	13.3	0.00e+00	0	28	0	730857472	76	5199
2026-01-15 11:37:51.23	279.29	28.89	-55.4	-58.0	13.4	0.00e+00	0	28	0	732954624	76	5013
2026-01-15 11:37:52.22	279.62	28.86	-55.0	-57.3	13.8	0.00e+00	0	28	0	734003200	76	4633
2026-01-15 11:37:53.22	279.94	28.83	-54.6	-56.8	13.9	0.00e+00	0	28	0	736100352	75	4641
2026-01-15 11:37:54.21	280.27	28.81	-54.5	-56.8	14.0	0.00e+00	0	28	0	738197504	75	4601
2026-01-15 11:37:55.21	280.59	28.78	-54.6	-56.9	13.9	0.00e+00	0	28	0	740294656	75	4653
2026-01-15 11:37:56.20	280.91	28.75	-54.9	-57.3	13.7	0.00e+00	0	28	0	742391808	75	4911
2026-01-15 11:37:57.19	281.23	28.72	-55.6	-58.2	13.4	0.00e+00	0	28	0	743440384	76	5134
2026-01-15 11:37:58.18	281.56	28.69	-56.1	-59.1	12.9	0.00e+00	0	28	0	745537536	77	5375
2026-01-15 11:37:59.17	281.88	28.65	-56.5	-59.8	12.6	0.00e+00	0	28	0	747634688	78	5486
2026-01-15 11:38:00.16	282.19	28.62	-56.5	-59.7	12.7	0.00e+00	0	28	0	749731840	78	5427
2026-01-15 11:38:01.16	282.52	28.59	-56.1	-59.0	13.1	0.00e+00	0	28	0	750780416	78	4984
2026-01-15 11:38:02.15	282.83	28.55	-55.7	-58.3	13.5	0.00e+00	0	28	0	752877568	78	4649
2026-01-15 11:38:03.14	283.15	28.52	-55.6	-58.2	13.4	0.00e+00	0	28	0	754974720	77	4856
2026-01-15 11:38:04.14	283.47	28.48	-55.5	-58.1	13.5	0.00e+00	0	28	0	757071872	77	4794
2026-01-15 11:38:05.14	283.79	28.44	-55.4	-58.0	13.6	0.00e+00	0	28	0	759169024	77	4707
2026-01-15 11:38:06.13	284.10	28.40	-55.5	-58.0	13.5	0.00e+00	0	28	0	760217600	77	4759
2026-01-15 11:38:07.12	284.42	28.36	-55.3	-57.8	13.6	0.00e+00	0	28	0	762314752	77	4645
2026-01-15 11:38:08.12	284.73	28.32	-55.3	-57.7	13.7	0.00e+00	0	28	0	764411904	77	4578
2026-01-15 11:38:09.12	285.05	28.28	-55.3	-57.7	13.7	0.00e+00	0	28	0	766509056	77	4598
2026-01-15 11:38:10.13	285.37	28.24	-54.9	-57.3	13.9	0.00e+00	0	28	0	768606208	76	4604
2026-01-15 11:38:11.12	285.68	28.20	-54.8	-57.1	14.0	0.00e+00	0	28	0	769654784	76	4497
2026-01-15 11:38:12.11	285.99	28.15	-54.9	-57.2	13.9	0.00e+00	0	28	0	771751936	76	4553
2026-01-15 11:38:13.11	286.30	28.11	-55.1	-57.4	13.8	0.00e+00	0	28	0	773849088	76	4696
2026-01-15 11:38:14.10	286.61	28.06	-55.2	-57.7	13.7	0.00e+00	0	28	0	775946240	76	4824
2026-01-15 11:38:15.10	286.92	28.02	-55.1	-57.5	13.8	0.00e+00	0	28	0	776994816	76	4726
2026-01-15 11:38:16.10	287.23	27.97	-55.1	-57.5	13.7	0.00e+00	0	28	0	779091968	76	4748
2026-01-15 11:38:17.08	287.53	27.92	-55.0	-57.4	13.8	0.00e+00	0	28	0	781189120	76	4672
2026-01-15 11:38:18.08	287.84	27.87	-54.8	-57.1	14.0	0.00e+00	0	28	0	783286272	76	4515
2026-01-15 11:38:19.08	288.15	27.82	-54.4	-56.6	14.1	0.00e+00	0	28	0	785383424	75	4523
2026-01-15 11:38:20.07	288.45	27.77	-54.3	-56.4	14.2	0.00e+00	0	28	0	786432000	75	4419
2026-01-15 11:38:21.06	288.75	27.72	-53.9	-55.9	14.3	0.00e+00	0	28	0	788529152	74	4409
2026-01-15 11:38:22.07	289.06	27.67	-53.5	-55.4	14.4	0.00e+00	0	28	0	790626304	73	4433
2026-01-15 11:38:23.07	289.36	27.62	-53.5	-55.4	14.4	0.00e+00	0	28	0	792723456	73	4424
2026-01-15 11:38:24.06	289.66	27.56	-53.4	-55.3	14.5	0.00e+00	0	28	0	793772032	73	4364
2026-01-15 11:38:25.06	289.96	27.51	-53.4	-55.3	14.5	0.00e+00	0	28	0	795869184	73	4355
2026-01-15 11:38:26.06	290.26	27.46	-53.5	-55.3	14.5	0.00e+00	0	28	0	797966336	73	4372
2026-01-15 11:38:27.04	290.56	27.40	-53.4	-55.3	14.5	0.00e+00	0	28	0	800063488	73	4346
2026-01-15 11:38:28.04	290.85	27.34	-53.4	-55.2	14.5	0.00e+00	0	28	0	802160640	73	4330
2026-01-15 11:38:29.03	291.15	27.29	-53.6	-55.5	14.4	0.00e+00	0	28	0	803209216	73	4442
2026-01-15 11:38:30.02	291.44	27.23	-53.8	-55.7	14.3	0.00e+00	0	28	0	805306368	73	4594
2026-01-15 11:38:31.02	291.74	27.17	-53.7	-55.7	14.3	0.00e+00	0	28	0	807403520	73	4561
2026-01-15 11:38:32.01	292.03	27.11	-53.7	-55.6	14.3	0.00e+00	0	28	0	809500672	73	4516
2026-01-15 11:38:33.00	292.32	27.06	-53.5	-55.3	14.4	0.00e+00	0	28	0	810549248	73	4391
2026-01-15 11:38:34.00	292.61	27.00	-53.4	-55.2	14.5	0.00e+00	0	28	0	812646400	73	4337
2026-01-15 11:38:35.00	292.90	26.93	-53.4	-55.2	14.5	0.00e+00	0	28	0	814743552	73	4339
2026-01-15 11:38:35.99	293.19	26.87	-53.5	-55.3	14.5	0.00e+00	0	28	0	816840704	73	4379
2026-01-15 11:38:36.98	293.47	26.81	-53.4	-55.3	14.5	0.00e+00	0	28	0	818937856	73	4355
2026-01-15 11:38:37.98	293.76	26.75	-53.4	-55.3	14.5	0.00e+00	0	28	0	819986432	73	4357
2026-01-15 11:38:38.98	294.05	26.69	-53.5	-55.4	14.4	0.00e+00	0	28	0	822083584	73	4410
2026-01-15 11:38:39.97	294.33	26.62	-53.6	-55.5	14.4	0.00e+00	0	28	0	824180736	73	4459
2026-01-15 11:38:40.97	294.61	26.56	-53.7	-55.7	14.3	0.00e+00	0	28	0	826277888	73	4567
2026-01-15 11:38:41.96	294.89	26.49	-53.9	-55.9	14.2	0.00e+00	0	28	0	827326464	73	4666
2026-01-15 11:38:42.96	295.17	26.43	-54.0	-56.0	14.2	0.00e+00	0	28	0	829423616	73	4727
2026-01-15 11:38:43.96	295.45	26.36	-54.0	-56.1	14.1	0.00e+00	0	28	0	831520768	73	4775
2026-01-15 11:38:44.96	295.73	26.30	-53.9	-55.9	14.2	0.00e+00	0	28	0	833617920	73	4691
2026-01-15 11:38:45.95	296.01	26.23	-53.9	-56.0	14.2	0.00e+00	0	28	0	835715072	73	4716
2026-01-15 11:38:46.94	296.28	26.16	-53.9	-55.9	14.2	0.00e+00	0	28	0	836763648	73	4698
2026-01-15 11:38:47.94	296.56	26.09	-54.1	-56.1	14.1	0.00e+00	0	28	0	838860800	73	4803
2026-01-15 11:38:48.94	296.83	26.03	-54.1	-56.2	14.1	0.00e+00	0	28	0	840957952	73	4829
2026-01-15 11:38:49.93	297.11	25.96	-54.2	-56.3	14.0	0.00e+00	0	28	0	843055104	73	4915
2026-01-15 11:38:50.92	297.38	25.89	-54.1	-56.1	14.1	0.00e+00	0	28	0	844103680	73	4793
2026-01-15 11:38:51.91	297.64	25.82	-54.0	-56.0	14.1	0.00e+00	0	28	0	846200832	73	4759
2026-01-15 11:38:52.91	297.91	25.75	-53.9	-55.8	14.2	0.00e+00	0	28	0	848297984	73	4648
2026-01-15 11:38:53.90	298.18	25.68	-53.8	-55.7	14.3	0.00e+00	0	28	0	850395136	73	4581
2026-01-15 11:38:54.90	298.45	25.60	-53.7	-55.6	14.3	0.00e+00	0	28	0	852492288	73	4525
2026-01-15 11:38:55.90	298.71	25.53	-53.4	-55.3	14.5	0.00e+00	0	28	0	853540864	73	4362
2026-01-15 11:38:56.89	298.98	25.46	-53.5	-55.4	14.4	0.00e+00	0	28	0	855638016	73	4435
2026-01-15 11:38:57.90	299.24	25.39	-53.8	-55.8	14.3	0.00e+00	0	28	0	857735168	73	4625
2026-01-15 11:38:58.90	299.51	25.31	-53.9	-55.9	14.2	0.00e+00	0	28	0	859832320	73	4701
2026-01-15 11:38:59.90	299.77	25.24	-54.1	-56.1	14.1	0.00e+00	0	28	0	860880896	73	4813
2026-01-15 11:39:00.89	300.03	25.17	-54.2	-56.3	14.0	0.00e+00	0	28	0	862978048	73	4888
2026-01-15 11:39:01.89	300.29	25.09	-54.2	-56.3	14.0	0.00e+00	0	28	0	865075200	73	4924
2026-01-15 11:39:02.88	300.54	25.02	-54.2	-56.4	14.0	0.00e+00	0	28	0	867172352	73	4927
2026-01-15 11:39:03.87	300.80	24.94	-54.2	-56.3	14.0	0.00e+00	0	28	0	869269504	73	4888
2026-01-15 11:39:04.86	301.05	24.87	-54.2	-56.3	14.0	0.00e+00	0	28	0	870318080	73	4878
2026-01-15 11:39:05.86	301.30	24.79	-54.1	-56.2	14.1	0.00e+00	0	28	0	872415232	73	4853
2026-01-15 11:39:06.86	301.56	24.72	-54.0	-56.0	14.2	0.00e+00	0	28	0	874512384	73	4724
2026-01-15 11:39:07.86	301.81	24.64	-53.7	-55.6	14.3	0.00e+00	0	28	0	876609536	73	4514
2026-01-15 11:39:08.85	302.06	24.56	-53.5	-55.3	14.5	0.00e+00	0	28	0	877658112	73	4387
2026-01-15 11:39:09.85	302.31	24.48	-53.4	-55.3	14.4	0.00e+00	0	28	0	879755264	73	4366
2026-01-15 11:39:10.84	302.55	24.41	-53.5	-55.4	14.4	0.00e+00	0	28	0	881852416	73	4395
2026-01-15 11:39:11.83	302.80	24.33	-53.3	-55.1	14.5	0.00e+00	0	28	0	883949568	73	4271
2026-01-15 11:39:12.83	303.05	24.25	-53.2	-54.9	14.5	0.00e+00	0	28	0	886046720	72	4438
2026-01-15 11:39:13.82	303.29	24.17	-53.1	-54.9	14.5	0.00e+00	0	28	0	887095296	72	4402
2026-01-15 11:39:14.82	303.53	24.09	-53.1	-54.8	14.6	0.00e+00	0	28	0	889192448	72	4379
2026-01-15 11:39:15.82	303.77	24.02	-53.1	-54.8	14.6	0.00e+00	0	28	0	891289600	72	4380
2026-01-15 11:39:16.81	304.01	23.94	-53.3	-55.1	14.5	0.00e+00	0	28	0	893386752	72	4501
2026-01-15 11:39:17.80	304.25	23.86	-53.5	-55.4	14.3	0.00e+00	0	28	0	894435328	72	4679
2026-01-15 11:39:18.80	304.49	23.78	-53.6	-55.6	14.2	0.00e+00	0	28	0	896532480	72	4776
2026-01-15 11:39:19.79	304.73	23.70	-53.8	-55.8	14.1	0.00e+00	0	28	0	898629632	72	4923
2026-01-15 11:39:20.78	304.96	23.62	-53.8	-55.8	14.1	0.00e+00	0	28	0	900726784	72	4892
2026-01-15 11:39:21.78	305.19	23.54	-53.7	-55.7	14.2	0.00e+00	0	28	0	902823936	72	4828
2026-01-15 11:39:22.77	305.43	23.46	-53.3	-55.2	14.4	0.00e+00	0	28	0	903872512	72	4570
2026-01-15 11:39:23.77	305.66	23.38	-53.2	-55.0	14.5	0.00e+00	0	28	0	905969664	72	4442
2026-01-15 11:39:24.76	305.89	23.29	-53.2	-55.0	14.5	0.00e+00	0	28	0	908066816	72	4473
2026-01-15 11:39:25.75	306.12	23.21	-53.3	-55.1	14.4	0.00e+00	0	28	0	910163968	72	4515
2026-01-15 11:39:26.75	306.35	23.13	-53.6	-55.5	14.3	0.00e+00	0	28	0	911212544	72	4740
2026-01-15 11:39:27.74	306.57	23.05	-53.6	-55.5	14.2	0.00e+00	0	28	0	913309696	72	4752
2026-01-15 11:39:28.74	306.80	22.97	-53.6	-55.5	14.3	0.00e+00	0	28	0	915406848	72	4750
2026-01-15 11:39:29.73	307.02	22.89	-53.5	-55.4	14.3	0.00e+00	0	28	0	917504000	72	4700
2026-01-15 11:39:30.73	307.25	22.80	-53.3	-55.2	14.4	0.00e+00	0	28	0	919601152	72	4561
2026-01-15 11:39:31.73	307.47	22.72	-53.3	-55.1	14.4	0.00e+00	0	28	0	920649728	72	4535
2026-01-15 11:39:32.73	307.70	22.64	-53.4	-55.3	14.3	0.00e+00	0	28	0	922746880	72	4629
2026-01-15 11:39:33.71	307.91	22.56	-53.6	-55.6	14.2	0.00e+00	0	28	0	924844032	72	4780
2026-01-15 11:39:34.71	308.13	22.47	-54.1	-56.2	14.1	0.00e+00	0	28	0	926941184	73	4832
2026-01-15 11:39:35.70	308.35	22.39	-54.3	-56.5	13.9	0.00e+00	0	28	0	927989760	73	5011
2026-01-15 11:39:36.70	308.57	22.31	-54.5	-56.8	13.9	0.00e+00	0	28	0	930086912	74	4896
2026-01-15 11:39:37.68	308.78	22.22	-54.5	-56.7	13.9	0.00e+00	0	28	0	932184064	74	4865
2026-01-15 11:39:38.67	308.99	22.14	-54.3	-56.5	14.0	0.00e+00	0	28	0	934281216	74	4714
2026-01-15 11:39:39.68	309.21	22.06	-54.1	-56.1	14.2	0.00e+00	0	28	0	936378368	74	4540
2026-01-15 11:39:40.67	309.42	21.97	-53.9	-55.9	14.2	0.00e+00	0	28	0	937426944	74	4437
2026-01-15 11:39:41.66	309.63	21.89	-54.1	-56.2	14.2	0.00e+00	0	28	0	939524096	74	4588
2026-01-15 11:39:42.66	309.84	21.81	-54.4	-56.6	14.0	0.00e+00	0	28	0	941621248	74	4767
2026-01-15 11:39:43.65	310.05	21.72	-54.8	-57.1	13.7	0.00e+00	0	28	0	943718400	74	5094
2026-01-15 11:39:44.65	310.26	21.64	-54.9	-57.4	13.7	0.00e+00	0	28	0	944766976	75	4927
2026-01-15 11:39:45.65	310.47	21.55	-54.9	-57.3	13.7	0.00e+00	0	28	0	946864128	75	4878
2026-01-15 11:39:46.64	310.67	21.47	-54.7	-56.9	13.9	0.00e+00	0	28	0	948961280	75	4701
2026-01-15 11:39:47.64	310.88	21.38	-54.3	-56.5	14.1	0.00e+00	0	28	0	951058432	75	4461
2026-01-15 11:39:48.64	311.08	21.30	-54.1	-56.2	14.1	0.00e+00	0	28	0	953155584	74	4598
2026-01-15 11:39:49.64	311.29	21.21	-53.9	-55.9	14.2	0.00e+00	0	28	0	954204160	74	4440
2026-01-15 11:39:50.64	311.49	21.13	-54.0	-56.1	14.2	0.00e+00	0	28	0	956301312	74	4513
2026-01-15 11:39:51.63	311.69	21.04	-54.3	-56.5	14.0	0.00e+00	0	28	0	958398464	74	4735
2026-01-15 11:39:52.62	311.89	20.96	-54.5	-56.8	13.9	0.00e+00	0	28	0	960495616	74	4879
2026-01-15 11:39:53.62	312.09	20.88	-54.5	-56.8	13.8	0.00e+00	0	28	0	962592768	74	4909
2026-01-15 11:39:54.62	312.28	20.79	-54.4	-56.6	13.9	0.00e+00	0	28	0	963641344	74	4796
2026-01-15 11:39:55.61	312.48	20.71	-54.0	-56.1	14.2	0.00e+00	0	28	0	965738496	74	4502
2026-01-15 11:39:56.61	312.67	20.62	-53.8	-55.8	14.3	0.00e+00	0	28	0	967835648	74	4372
2026-01-15 11:39:57.60	312.87	20.54	-53.7	-55.7	14.4	0.00e+00	0	28	0	969932800	74	4307
2026-01-15 11:39:58.60	313.06	20.45	-53.6	-55.5	14.3	0.00e+00	0	28	0	970981376	73	4478
2026-01-15 11:39:59.60	313.25	20.37	-53.7	-55.6	14.3	0.00e+00	0	28	0	973078528	73	4541
2026-01-15 11:40:00.59	313.44	20.28	-54.1	-56.2	14.0	0.00e+00	0	28	0	975175680	73	4852
2026-01-15 11:40:01.59	313.63	20.19	-54.4	-56.7	13.8	0.00e+00	0	28	0	977272832	73	5108
2026-01-15 11:40:02.59	313.82	20.11	-54.6	-56.9	13.8	0.00e+00	0	28	0	979369984	74	4927
2026-01-15 11:40:03.59	314.01	20.02	-54.6	-57.0	13.7	0.00e+00	0	28	0	980418560	74	4999
2026-01-15 11:40:04.58	314.20	19.94	-54.4	-56.6	13.9	0.00e+00	0	28	0	982515712	74	4812
2026-01-15 11:40:05.58	314.39	19.85	-54.2	-56.4	14.0	0.00e+00	0	28	0	984612864	74	4659
2026-01-15 11:40:06.58	314.57	19.77	-54.0	-56.1	14.2	0.00e+00	0	28	0	986710016	74	4495
2026-01-15 11:40:07.58	314.76	19.68	-53.8	-55.8	14.3	0.00e+00	0	28	0	988807168	74	4390
2026-01-15 11:40:08.57	314.94	19.60	-53.6	-55.6	14.3	0.00e+00	0	28	0	989855744	73	4518
2026-01-15 11:40:09.57	315.12	19.51	-53.9	-55.9	14.1	0.00e+00	0	28	0	991952896	73	4704
2026-01-15 11:40:10.56	315.30	19.43	-54.1	-56.3	14.0	0.00e+00	0	28	0	994050048	73	4888
2026-01-15 11:40:11.56	315.48	19.34	-54.5	-56.7	13.9	0.00e+00	0	28	0	996147200	74	4851
2026-01-15 11:40:12.55	315.66	19.26	-54.7	-57.0	13.7	0.00e+00	0	28	0	997195776	74	5016
2026-01-15 11:40:13.55	315.84	19.17	-54.6	-56.9	13.7	0.00e+00	0	28	0	999292928	74	4975
2026-01-15 11:40:14.55	316.02	19.09	-54.4	-56.7	13.9	0.00e+00	0	28	0	1001390080	74	4844
2026-01-15 11:40:15.54	316.19	19.00	-54.3	-56.6	13.9	0.00e+00	0	28	0	1003487232	74	4765
2026-01-15 11:40:16.53	316.36	18.92	-54.1	-56.2	14.1	0.00e+00	0	28	0	1005584384	74	4559
2026-01-15 11:40:17.53	316.54	18.83	-54.0	-56.1	14.2	0.00e+00	0	28	0	1006632960	74	4507
2026-01-15 11:40:18.52	316.71	18.75	-53.8	-55.9	14.3	0.00e+00	0	28	0	1008730112	74	4398
2026-01-15 11:40:19.51	316.88	18.66	-53.8	-55.9	14.3	0.00e+00	0	28	0	1010827264	74	4394
2026-01-15 11:40:20.50	317.05	18.58	-53.7	-55.6	14.4	0.00e+00	0	28	0	1012924416	74	4288
2026-01-15 11:40:21.50	317.22	18.49	-53.9	-55.9	14.2	0.00e+00	0	28	0	1013972992	74	4427
2026-01-15 11:40:22.50	317.39	18.41	-53.9	-55.9	14.2	0.00e+00	0	28	0	1016070144	74	4431
2026-01-15 11:40:23.50	317.56	18.32	-53.9	-55.9	14.2	0.00e+00	0	28	0	1018167296	74	4431
2026-01-15 11:40:24.49	317.73	18.24	-53.7	-55.7	14.3	0.00e+00	0	28	0	1020264448	74	4317
2026-01-15 11:40:25.49	317.90	18.16	-53.8	-55.8	14.2	0.00e+00	0	28	0	1022361600	73	4619
2026-01-15 11:40:26.49	318.06	18.07	-53.6	-55.6	14.3	0.00e+00	0	28	0	1023410176	73	4530
2026-01-15 11:40:27.48	318.23	17.99	-53.5	-55.5	14.3	0.00e+00	0	28	0	1025507328	73	4442
2026-01-15 11:40:28.48	318.39	17.90	-53.5	-55.5	14.3	0.00e+00	0	28	0	1027604480	73	4445
2026-01-15 11:40:29.48	318.56	17.82	-53.6	-55.6	14.3	0.00e+00	0	28	0	1029701632	73	4509
2026-01-15 11:40:30.47	318.72	17.73	-53.7	-55.7	14.2	0.00e+00	0	28	0	1030750208	73	4596
2026-01-15 11:40:31.46	318.88	17.65	-53.8	-55.9	14.1	0.00e+00	0	28	0	1032847360	73	4686
2026-01-15 11:40:32.46	319.04	17.57	-53.9	-56.0	14.1	0.00e+00	0	28	0	1034944512	73	4750
2026-01-15 11:40:33.46	319.20	17.48	-54.0	-56.1	14.1	0.00e+00	0	28	0	1037041664	73	4776
2026-01-15 11:40:34.45	319.36	17.40	-53.8	-55.9	14.1	0.00e+00	0	28	0	1039138816	73	4678
2026-01-15 11:40:35.46	319.52	17.31	-53.8	-55.8	14.2	0.00e+00	0	28	0	1040187392	73	4628
2026-01-15 11:40:36.45	319.68	17.23	-53.6	-55.6	14.2	0.00e+00	0	28	0	1042284544	73	4539
2026-01-15 11:40:37.46	319.83	17.15	-53.4	-55.3	14.4	0.00e+00	0	28	0	1044381696	73	4356
2026-01-15 11:40:38.46	319.99	17.06	-53.4	-55.3	14.4	0.00e+00	0	28	0	1046478848	73	4385
2026-01-15 11:40:39.45	320.14	16.98	-53.4	-55.3	14.4	0.00e+00	0	28	0	1047527424	73	4377
2026-01-15 11:40:40.44	320.30	16.90	-53.3	-55.2	14.4	0.00e+00	0	28	0	1049624576	73	4336
2026-01-15 11:40:41.43	320.45	16.81	-53.3	-55.3	14.4	0.00e+00	0	28	0	1051721728	73	4346
2026-01-15 11:40:42.43	320.60	16.73	-53.4	-55.3	14.4	0.00e+00	0	28	0	1053818880	73	4377
2026-01-15 11:40:43.42	320.75	16.65	-53.5	-55.4	14.3	0.00e+00	0	28	0	1055916032	73	4423
2026-01-15 11:40:44.40	320.90	16.57	-53.6	-55.5	14.2	0.00e+00	0	28	0	1056964608	73	4489
2026-01-15 11:40:45.39	321.05	16.48	-53.5	-55.5	14.3	0.00e+00	0	28	0	1059061760	73	4456
2026-01-15 11:40:46.38	321.20	16.40	-53.4	-55.4	14.3	0.00e+00	0	28	0	1061158912	73	4399
2026-01-15 11:40:47.38	321.35	16.32	-53.4	-55.3	14.4	0.00e+00	0	28	0	1063256064	73	4373
2026-01-15 11:40:48.37	321.49	16.24	-53.4	-55.3	14.4	0.00e+00	0	28	0	1064304640	73	4357
2026-01-15 11:40:49.37	321.64	16.15	-53.4	-55.3	14.4	0.00e+00	0	28	0	1066401792	73	4384
2026-01-15 11:40:50.36	321.79	16.07	-53.3	-55.2	14.4	0.00e+00	0	28	0	1068498944	73	4312
2026-01-15 11:40:51.35	321.93	15.99	-53.3	-55.2	14.4	0.00e+00	0	28	0	1070596096	73	4330
2026-01-15 11:40:52.34	322.07	15.91	-53.2	-55.1	14.4	0.00e+00	0	28	0	1072693248	73	4280
2026-01-15 11:40:53.33	322.22	15.83	-53.1	-55.0	14.4	0.00e+00	0	28	0	1073741824	72	4462
2026-01-15 11:40:54.34	322.36	15.74	-53.2	-55.0	14.4	0.00e+00	0	28	0	1075838976	72	4484
2026-01-15 11:40:55.33	322.50	15.66	-53.1	-55.0	14.4	0.00e+00	0	28	0	1077936128	72	4475
2026-01-15 11:40:56.31	322.64	15.58	-53.2	-55.1	14.4	0.00e+00	0	28	0	1080033280	72	4509
2026-01-15 11:40:57.30	322.78	15.50	-53.3	-55.2	14.3	0.00e+00	0	28	0	1081081856	72	4579
2026-01-15 11:40:58.30	322.92	15.42	-53.3	-55.2	14.3	0.00e+00	0	28	0	1083179008	72	4593
2026-01-15 11:40:59.30	323.06	15.34	-53.4	-55.3	14.3	0.00e+00	0	28	0	1085276160	72	4626
2026-01-15 11:41:00.30	323.20	15.26	-53.5	-55.5	14.2	0.00e+00	0	28	0	1087373312	72	4744
2026-01-15 11:41:01.29	323.34	15.17	-53.5	-55.6	14.1	0.00e+00	0	28	0	1089470464	72	4765
2026-01-15 11:41:02.29	323.47	15.09	-53.8	-55.9	14.0	0.00e+00	0	28	0	1090519040	72	4935
2026-01-15 11:41:03.29	323.61	15.01	-53.7	-55.8	14.0	0.00e+00	0	28	0	1092616192	72	4916
2026-01-15 11:41:04.28	323.75	14.93	-53.8	-55.9	14.0	0.00e+00	0	28	0	1094713344	72	4943
2026-01-15 11:41:05.27	323.88	14.85	-53.8	-55.9	14.0	0.00e+00	0	28	0	1096810496	72	4933
2026-01-15 11:41:06.27	324.02	14.77	-53.6	-55.7	14.1	0.00e+00	0	28	0	1097859072	72	4857
2026-01-15 11:41:07.28	324.15	14.69	-53.7	-55.7	14.1	0.00e+00	0	28	0	1099956224	72	4862
2026-01-15 11:41:08.28	324.28	14.61	-53.7	-55.8	14.0	0.00e+00	0	28	0	1102053376	72	4881
2026-01-15 11:41:09.27	324.42	14.53	-53.7	-55.7	14.0	0.00e+00	0	28	0	1104150528	72	4870
2026-01-15 11:41:10.26	324.55	14.45	-53.7	-55.9	14.0	0.00e+00	0	28	0	1106247680	72	4939
2026-01-15 11:41:11.26	324.68	14.37	-53.7	-55.8	14.0	0.00e+00	0	28	0	1107296256	72	4893
2026-01-15 11:41:12.26	324.81	14.29	-53.7	-55.8	14.0	0.00e+00	0	28	0	1109393408	72	4924
2026-01-15 11:41:13.26	324.94	14.21	-53.8	-55.9	14.0	0.00e+00	0	28	0	1111490560	72	4953
2026-01-15 11:41:14.25	325.07	14.13	-53.8	-55.9	14.0	0.00e+00	0	28	0	1113587712	72	4964
2026-01-15 11:41:15.25	325.19	14.05	-53.7	-55.9	14.0	0.00e+00	0	28	0	1114636288	72	4927
2026-01-15 11:41:16.26	325.32	13.97	-53.7	-55.9	14.0	0.00e+00	0	28	0	1116733440	72	4942
2026-01-15 11:41:17.25	325.45	13.89	-53.8	-55.9	14.0	0.00e+00	0	28	0	1118830592	72	4956
2026-01-15 11:41:18.25	325.58	13.81	-53.8	-55.9	14.0	0.00e+00	0	28	0	1120927744	72	4962
2026-01-15 11:41:19.25	325.70	13.73	-53.7	-55.8	14.0	0.00e+00	0	28	0	1123024896	72	4873
2026-01-15 11:41:20.24	325.83	13.66	-53.7	-55.8	14.0	0.00e+00	0	28	0	1124073472	72	4900
2026-01-15 11:41:21.23	325.95	13.58	-53.7	-55.8	14.0	0.00e+00	0	28	0	1126170624	72	4917
2026-01-15 11:41:22.23	326.07	13.50	-53.8	-55.9	13.9	0.00e+00	0	28	0	1128267776	72	4972
2026-01-15 11:41:23.22	326.20	13.42	-53.8	-56.0	13.9	0.00e+00	0	28	0	1130364928	72	4999
2026-01-15 11:41:24.22	326.32	13.34	-54.0	-56.2	13.9	0.00e+00	0	28	0	1132462080	73	4816
2026-01-15 11:41:25.21	326.44	13.27	-54.2	-56.5	13.8	0.00e+00	0	28	0	1133510656	73	4994
2026-01-15 11:41:26.21	326.56	13.19	-54.2	-56.5	13.7	0.00e+00	0	28	0	1135607808	73	5001
2026-01-15 11:41:27.20	326.68	13.11	-54.2	-56.5	13.7	0.00e+00	0	28	0	1137704960	73	5016
2026-01-15 11:41:28.19	326.80	13.03	-54.4	-56.8	13.6	0.00e+00	0	28	0	1139802112	73	5166
2026-01-15 11:41:29.20	326.92	12.95	-54.4	-56.8	13.6	0.00e+00	0	28	0	1140850688	73	5178
2026-01-15 11:41:30.20	327.04	12.88	-54.6	-57.1	13.5	0.00e+00	0	28	0	1142947840	74	5094
2026-01-15 11:41:31.20	327.16	12.80	-54.7	-57.3	13.4	0.00e+00	0	28	0	1145044992	74	5166
2026-01-15 11:41:32.20	327.28	12.72	-54.6	-57.1	13.5	0.00e+00	0	28	0	1147142144	74	5088
2026-01-15 11:41:33.19	327.39	12.65	-54.8	-57.4	13.4	0.00e+00	0	28	0	1149239296	74	5226
2026-01-15 11:41:34.18	327.51	12.57	-54.8	-57.3	13.4	0.00e+00	0	28	0	1150287872	74	5200
2026-01-15 11:41:35.18	327.62	12.49	-54.8	-57.3	13.4	0.00e+00	0	28	0	1152385024	74	5197
2026-01-15 11:41:36.17	327.74	12.42	-54.9	-57.5	13.3	0.00e+00	0	28	0	1154482176	74	5331
2026-01-15 11:41:37.17	327.85	12.34	-54.8	-57.4	13.4	0.00e+00	0	28	0	1156579328	74	5253
2026-01-15 11:41:38.17	327.97	12.26	-54.8	-57.4	13.4	0.00e+00	0	28	0	1158676480	74	5272
2026-01-15 11:41:39.16	328.08	12.19	-54.8	-57.3	13.3	0.00e+00	0	28	0	1159725056	74	5209
2026-01-15 11:41:40.16	328.19	12.11	-54.8	-57.3	13.3	0.00e+00	0	28	0	1161822208	74	5197
2026-01-15 11:41:41.14	328.30	12.04	-54.8	-57.5	13.3	0.00e+00	0	28	0	1163919360	74	5291
2026-01-15 11:41:42.13	328.42	11.96	-54.7	-57.3	13.4	0.00e+00	0	28	0	1166016512	74	5164
2026-01-15 11:41:43.13	328.53	11.89	-54.8	-57.4	13.4	0.00e+00	0	28	0	1167065088	74	5266
2026-01-15 11:41:44.12	328.64	11.81	-54.9	-57.6	13.3	0.00e+00	0	28	0	1169162240	74	5365
2026-01-15 11:41:45.11	328.75	11.74	-54.9	-57.6	13.4	0.00e+00	0	28	0	1171259392	75	5057
2026-01-15 11:41:46.10	328.86	11.66	-55.0	-57.6	13.3	0.00e+00	0	28	0	1173356544	75	5089
2026-01-15 11:41:47.09	328.96	11.59	-54.8	-57.4	13.5	0.00e+00	0	28	0	1174405120	75	4950
2026-01-15 11:41:48.09	329.07	11.51	-54.8	-57.3	13.5	0.00e+00	0	28	0	1176502272	75	4909
2026-01-15 11:41:49.08	329.18	11.44	-54.8	-57.5	13.4	0.00e+00	0	28	0	1178599424	75	4992
2026-01-15 11:41:50.08	329.29	11.36	-54.8	-57.4	13.5	0.00e+00	0	28	0	1180696576	75	4929
2026-01-15 11:41:51.07	329.39	11.29	-54.8	-57.3	13.5	0.00e+00	0	28	0	1182793728	75	4920
2026-01-15 11:41:52.07	329.50	11.21	-54.7	-57.3	13.5	0.00e+00	0	28	0	1183842304	75	4895
2026-01-15 11:41:53.07	329.61	11.14	-54.6	-57.1	13.6	0.00e+00	0	28	0	1185939456	75	4801
2026-01-15 11:41:54.07	329.71	11.07	-54.6	-57.1	13.6	0.00e+00	0	28	0	1188036608	75	4810
2026-01-15 11:41:55.06	329.82	10.99	-54.6	-57.0	13.7	0.00e+00	0	28	0	1190133760	75	4737
2026-01-15 11:41:56.06	329.92	10.92	-54.5	-56.9	13.7	0.00e+00	0	28	0	1191182336	75	4671
2026-01-15 11:41:57.05	330.03	10.85	-54.6	-57.0	13.6	0.00e+00	0	28	0	1193279488	75	4757
2026-01-15 11:41:58.04	330.13	10.77	-54.6	-57.1	13.6	0.00e+00	0	28	0	1195376640	75	4761
2026-01-15 11:41:59.05	330.23	10.70	-54.7	-57.3	13.5	0.00e+00	0	28	0	1197473792	75	4881
2026-01-15 11:42:00.05	330.34	10.62	-54.8	-57.4	13.4	0.00e+00	0	28	0	1199570944	75	4956
2026-01-15 11:42:01.05	330.44	10.55	-54.8	-57.4	13.5	0.00e+00	0	28	0	1200619520	75	4947
2026-01-15 11:42:02.05	330.54	10.48	-54.9	-57.6	13.3	0.00e+00	0	28	0	1202716672	75	5062
2026-01-15 11:42:03.05	330.64	10.41	-54.9	-57.6	13.3	0.00e+00	0	28	0	1204813824	75	5043
2026-01-15 11:42:04.05	330.74	10.33	-54.8	-57.4	13.4	0.00e+00	0	28	0	1206910976	75	4979
2026-01-15 11:42:05.04	330.84	10.26	-55.0	-57.7	13.2	0.00e+00	0	28	0	1209008128	75	5152
