passes_logs/2026/01/15/R3.2S_Murmansk/R3.2S_Murmansk__20260115_025139_SUOMI_NPP_rec.log

#Pass ID: 20260115_025139_SUOMI NPP
#Satellite: SUOMI NPP
#Configuration: NPP
#almurnet v.1.7.20251203
#Start time: 2026-01-15 02:51:41

#Version: 2.2.20231116
#Station: R3.2S_Murmansk
#Location: 33.079688 lon 68.888172 lat
#TLE: 1 37849U 11061A   26014.61059675  .00000037  00000+0  38639-4 0  9994
#TLE: 2 37849  98.7810 316.6625 0002460  64.3781 295.7649 14.19525105736658

#Time	Az	El	Level	Level2	SNR	BER	BlckErr	Temp	State	Recorded	gain1	gain2
2026-01-15 02:51:41.36	35.94	2.10	-58.0	-74.0	3.8	1.49e+00	0	26	0	0	82	22416
2026-01-15 02:51:42.35	35.90	2.16	-58.0	-74.0	3.8	1.49e+00	0	26	104	0	81	23796
2026-01-15 02:51:43.35	35.85	2.23	-58.0	-74.0	3.8	1.49e+00	0	26	104	0	81	23742
2026-01-15 02:51:44.36	35.81	2.29	-58.0	-74.0	3.8	1.49e+00	0	26	104	0	81	23826
2026-01-15 02:51:45.36	35.77	2.35	-58.0	-74.0	3.8	1.49e+00	0	26	104	0	81	23816
2026-01-15 02:51:46.35	35.72	2.41	-58.0	-74.0	3.8	1.49e+00	0	26	104	0	81	23823
2026-01-15 02:51:47.35	35.68	2.47	-58.0	-74.0	3.8	1.49e+00	0	26	104	0	81	23707
2026-01-15 02:51:48.34	35.63	2.53	-58.0	-74.0	3.8	1.49e+00	0	26	104	0	81	23812
2026-01-15 02:51:49.34	35.59	2.59	-58.0	-74.0	3.8	1.49e+00	0	26	104	0	81	23792
2026-01-15 02:51:50.34	35.54	2.65	-58.0	-74.0	3.8	1.49e+00	0	26	104	0	81	23780
2026-01-15 02:51:51.34	35.50	2.72	-58.0	-74.0	3.8	1.49e+00	0	26	104	0	81	23764
2026-01-15 02:51:52.34	35.45	2.78	-58.0	-74.0	3.8	1.49e+00	0	26	104	0	81	23722
2026-01-15 02:51:53.33	35.41	2.84	-58.0	-74.0	3.8	1.49e+00	0	26	104	0	81	23802
2026-01-15 02:51:54.33	35.36	2.90	-58.0	-74.0	3.8	1.49e+00	0	26	104	0	81	23815
2026-01-15 02:51:55.33	35.31	2.96	-58.0	-74.0	3.8	1.49e+00	0	26	104	0	81	23811
2026-01-15 02:51:56.33	35.27	3.03	-58.0	-74.0	3.8	1.49e+00	0	26	104	0	81	23811
2026-01-15 02:51:57.32	35.22	3.09	-58.1	-74.0	3.8	1.49e+00	0	26	104	0	81	23849
2026-01-15 02:51:58.32	35.18	3.15	-58.1	-74.0	3.8	1.49e+00	0	26	104	0	81	23785
2026-01-15 02:51:59.31	35.13	3.21	-58.0	-74.0	3.8	1.49e+00	0	26	104	0	81	23748
2026-01-15 02:52:00.32	35.08	3.28	-58.1	-74.0	3.8	1.49e+00	0	26	104	0	81	23820
2026-01-15 02:52:01.32	35.03	3.34	-58.1	-74.0	3.8	1.49e+00	0	26	104	0	81	23726
2026-01-15 02:52:02.31	34.99	3.40	-58.0	-74.0	3.9	1.49e+00	0	26	104	0	81	23593
2026-01-15 02:52:03.32	34.94	3.47	-58.0	-74.0	3.8	1.49e+00	0	26	104	0	81	23604
2026-01-15 02:52:04.32	34.89	3.53	-58.0	-74.0	3.8	1.49e+00	0	26	104	0	81	23600
2026-01-15 02:52:05.32	34.84	3.59	-58.1	-73.9	3.8	1.49e+00	0	26	104	0	81	23572
2026-01-15 02:52:06.31	34.79	3.66	-58.0	-73.9	3.8	1.49e+00	0	26	104	0	81	23443
2026-01-15 02:52:07.30	34.75	3.72	-58.0	-73.7	3.8	1.49e+00	0	26	104	0	81	22982
2026-01-15 02:52:08.30	34.70	3.78	-58.0	-73.6	3.8	1.49e+00	0	26	104	0	81	22777
2026-01-15 02:52:09.29	34.65	3.85	-58.0	-73.6	3.8	1.49e+00	0	26	104	0	81	22563
2026-01-15 02:52:10.29	34.60	3.91	-58.0	-73.3	3.8	1.49e+00	0	26	104	0	81	21947
2026-01-15 02:52:11.28	34.55	3.98	-58.0	-73.0	3.8	1.49e+00	0	26	104	0	81	21194
2026-01-15 02:52:12.28	34.50	4.04	-58.0	-72.8	3.8	1.49e+00	0	26	104	0	81	20545
2026-01-15 02:52:13.28	34.45	4.11	-58.0	-72.4	3.8	1.49e+00	0	26	104	0	81	19822
2026-01-15 02:52:14.28	34.40	4.17	-58.0	-72.2	3.8	1.49e+00	0	26	104	0	81	19188
2026-01-15 02:52:15.28	34.35	4.23	-58.0	-71.4	4.0	1.48e+00	0	26	104	0	81	17591
2026-01-15 02:52:16.28	34.30	4.30	-57.9	-70.8	4.1	1.47e+00	0	26	104	0	81	16466
2026-01-15 02:52:17.28	34.25	4.37	-57.9	-70.1	4.3	1.37e+00	16	27	0	0	81	15068
2026-01-15 02:52:18.27	34.20	4.43	-57.8	-69.1	4.7	9.36e-01	0	26	0	1048576	81	13489
2026-01-15 02:52:19.27	34.14	4.50	-57.7	-68.2	5.1	6.61e-01	0	27	0	3145728	81	12113
2026-01-15 02:52:20.28	34.09	4.56	-57.6	-67.5	5.4	5.43e-01	0	27	0	5242880	81	11222
2026-01-15 02:52:21.28	34.04	4.63	-57.5	-67.1	5.7	4.01e-01	0	27	0	7340032	81	10662
2026-01-15 02:52:22.27	33.99	4.69	-57.5	-66.4	6.2	2.61e-01	0	27	0	8388608	81	9918
2026-01-15 02:52:23.27	33.93	4.76	-57.4	-66.4	6.1	2.28e-01	0	27	0	10485760	81	9911
2026-01-15 02:52:24.27	33.88	4.82	-57.4	-66.1	6.3	2.39e-01	0	27	0	12582912	81	9543
2026-01-15 02:52:25.27	33.83	4.89	-57.4	-65.9	6.5	1.78e-01	0	27	0	14680064	81	9342
2026-01-15 02:52:26.26	33.78	4.96	-57.4	-66.4	6.2	1.83e-01	0	27	0	16777216	81	9935
2026-01-15 02:52:27.27	33.72	5.02	-57.4	-65.9	6.5	2.69e-01	0	27	0	17825792	81	9288
2026-01-15 02:52:28.27	33.67	5.09	-56.2	-61.2	10.5	1.48e-03	0	27	0	19922944	79	6130
2026-01-15 02:52:29.27	33.61	5.16	-56.7	-62.9	9.2	1.20e-04	0	27	0	22020096	78	7857
2026-01-15 02:52:30.26	33.56	5.22	-57.7	-69.4	4.0	1.09e+00	0	27	104	23068672	80	14836
2026-01-15 02:52:31.26	33.50	5.29	-56.3	-61.4	10.3	8.15e-02	0	27	0	24117248	79	6272
2026-01-15 02:52:32.26	33.45	5.36	-57.4	-65.3	6.9	1.47e-01	0	27	0	26214400	80	9238
2026-01-15 02:52:33.26	33.39	5.43	-56.0	-60.8	10.8	2.56e-04	0	27	0	27262976	78	6199
2026-01-15 02:52:34.26	33.34	5.49	-56.1	-60.9	10.8	2.03e-04	0	27	0	29360128	78	6268
2026-01-15 02:52:35.26	33.28	5.56	-55.7	-60.1	11.3	4.88e-05	0	27	0	31457280	78	5716
2026-01-15 02:52:36.26	33.23	5.63	-55.7	-60.2	11.3	7.60e-06	0	27	0	33554432	77	6101
2026-01-15 02:52:37.26	33.17	5.70	-55.8	-60.2	11.3	3.73e-05	0	27	0	34603008	77	6108
2026-01-15 02:52:38.26	33.11	5.76	-55.4	-59.4	11.8	1.60e-05	0	27	0	36700160	77	5586
2026-01-15 02:52:39.26	33.06	5.83	-55.2	-59.1	12.1	0.00e+00	0	27	0	38797312	77	5366
2026-01-15 02:52:40.26	33.00	5.90	-55.3	-59.3	12.0	1.29e-05	0	27	0	40894464	77	5506
2026-01-15 02:52:41.26	32.94	5.97	-55.0	-58.7	12.3	7.00e-07	0	27	0	42991616	76	5457
2026-01-15 02:52:42.26	32.88	6.04	-55.0	-58.8	12.3	1.50e-06	0	27	0	44040192	76	5474
2026-01-15 02:52:43.26	32.83	6.11	-54.8	-58.4	12.5	7.00e-07	0	27	0	46137344	76	5269
2026-01-15 02:52:44.26	32.77	6.18	-55.1	-58.8	12.3	7.00e-07	0	27	0	48234496	76	5524
2026-01-15 02:52:45.25	32.71	6.24	-55.0	-58.7	12.3	0.00e+00	0	27	0	50331648	76	5414
2026-01-15 02:52:46.25	32.65	6.31	-55.1	-58.8	12.3	0.00e+00	0	27	0	51380224	76	5479
2026-01-15 02:52:47.26	32.59	6.38	-54.8	-58.3	12.6	0.00e+00	0	27	0	53477376	76	5213
2026-01-15 02:52:48.25	32.53	6.45	-54.7	-58.1	12.8	0.00e+00	0	27	0	55574528	76	5069
2026-01-15 02:52:49.25	32.47	6.52	-54.6	-58.1	12.7	0.00e+00	0	27	0	57671680	75	5362
2026-01-15 02:52:50.25	32.41	6.59	-54.6	-58.0	12.7	0.00e+00	0	27	0	59768832	75	5327
2026-01-15 02:52:51.24	32.35	6.66	-54.6	-57.9	12.8	0.00e+00	0	27	0	60817408	75	5248
2026-01-15 02:52:52.24	32.29	6.73	-54.5	-57.9	12.8	0.00e+00	0	27	0	62914560	75	5219
2026-01-15 02:52:53.24	32.23	6.80	-54.6	-58.0	12.7	0.00e+00	0	27	0	65011712	75	5320
2026-01-15 02:52:54.23	32.17	6.87	-54.6	-58.0	12.8	0.00e+00	0	27	0	67108864	75	5293
2026-01-15 02:52:55.23	32.11	6.94	-54.4	-57.7	12.9	0.00e+00	0	27	0	69206016	75	5116
2026-01-15 02:52:56.23	32.05	7.02	-54.6	-57.9	12.8	0.00e+00	0	27	0	70254592	75	5262
2026-01-15 02:52:57.22	31.98	7.09	-54.5	-57.8	12.9	0.00e+00	0	27	0	72351744	75	5165
2026-01-15 02:52:58.21	31.92	7.16	-54.4	-57.6	13.0	0.00e+00	0	27	0	74448896	75	5087
2026-01-15 02:52:59.21	31.86	7.23	-54.6	-58.0	12.7	0.00e+00	0	27	0	76546048	75	5311
2026-01-15 02:53:00.21	31.79	7.30	-54.5	-57.8	12.9	0.00e+00	0	27	0	78643200	75	5177
2026-01-15 02:53:01.21	31.73	7.37	-54.3	-57.4	13.1	0.00e+00	0	27	0	79691776	75	4959
2026-01-15 02:53:02.20	31.67	7.44	-54.5	-57.7	13.0	0.00e+00	0	27	0	81788928	75	5130
2026-01-15 02:53:03.21	31.60	7.51	-54.5	-57.7	12.9	0.00e+00	0	27	0	83886080	75	5158
2026-01-15 02:53:04.20	31.54	7.59	-54.4	-57.5	13.1	7.00e-07	0	27	0	85983232	75	5004
2026-01-15 02:53:05.21	31.47	7.66	-54.1	-57.1	13.3	0.00e+00	0	27	0	87031808	74	5081
2026-01-15 02:53:06.20	31.41	7.73	-54.0	-56.8	13.3	0.00e+00	0	27	0	89128960	74	4911
2026-01-15 02:53:07.19	31.34	7.80	-54.2	-57.2	13.2	0.00e+00	0	27	0	91226112	74	5135
2026-01-15 02:53:08.19	31.28	7.88	-54.1	-57.0	13.3	0.00e+00	0	27	0	93323264	74	5012
2026-01-15 02:53:09.19	31.21	7.95	-54.1	-57.1	13.3	0.00e+00	0	27	0	95420416	74	5052
2026-01-15 02:53:10.19	31.14	8.02	-54.2	-57.1	13.3	0.00e+00	0	27	0	96468992	74	5077
2026-01-15 02:53:11.19	31.08	8.10	-53.9	-56.7	13.4	0.00e+00	0	27	0	98566144	74	4865
2026-01-15 02:53:12.19	31.01	8.17	-53.9	-56.8	13.4	0.00e+00	0	27	0	100663296	74	4882
2026-01-15 02:53:13.19	30.94	8.24	-54.0	-56.8	13.4	0.00e+00	0	27	0	102760448	74	4910
2026-01-15 02:53:14.19	30.87	8.32	-53.9	-56.7	13.5	0.00e+00	0	27	0	103809024	74	4829
2026-01-15 02:53:15.19	30.80	8.39	-54.0	-56.8	13.4	0.00e+00	0	27	0	105906176	74	4907
2026-01-15 02:53:16.19	30.74	8.47	-54.1	-56.9	13.3	0.00e+00	0	27	0	108003328	74	4983
2026-01-15 02:53:17.19	30.67	8.54	-53.9	-56.7	13.5	0.00e+00	0	27	0	110100480	74	4855
2026-01-15 02:53:18.20	30.60	8.62	-54.1	-56.9	13.4	0.00e+00	0	27	0	112197632	74	4970
2026-01-15 02:53:19.19	30.53	8.69	-54.1	-56.9	13.4	0.00e+00	0	27	0	113246208	74	4967
2026-01-15 02:53:20.19	30.46	8.76	-54.1	-56.9	13.4	0.00e+00	0	27	0	115343360	74	4973
2026-01-15 02:53:21.18	30.39	8.84	-54.0	-56.8	13.4	0.00e+00	0	27	0	117440512	74	4876
2026-01-15 02:53:22.17	30.31	8.91	-53.9	-56.6	13.6	0.00e+00	0	27	0	119537664	74	4784
2026-01-15 02:53:23.17	30.24	8.99	-53.8	-56.4	13.7	0.00e+00	0	27	0	121634816	74	4683
2026-01-15 02:53:24.18	30.17	9.07	-53.9	-56.6	13.6	0.00e+00	0	27	0	122683392	74	4790
2026-01-15 02:53:25.18	30.10	9.14	-53.9	-56.6	13.5	0.00e+00	0	27	0	124780544	74	4814
2026-01-15 02:53:26.18	30.03	9.22	-53.8	-56.5	13.6	0.00e+00	0	27	0	126877696	74	4744
2026-01-15 02:53:27.18	29.95	9.29	-53.8	-56.5	13.6	0.00e+00	0	27	0	128974848	74	4715
2026-01-15 02:53:28.18	29.88	9.37	-54.0	-56.8	13.4	0.00e+00	0	27	0	130023424	74	4893
2026-01-15 02:53:29.17	29.81	9.45	-53.9	-56.7	13.5	0.00e+00	0	27	0	132120576	74	4839
2026-01-15 02:53:30.18	29.73	9.52	-53.9	-56.7	13.5	0.00e+00	0	27	0	134217728	74	4837
2026-01-15 02:53:31.17	29.66	9.60	-54.1	-57.0	13.3	0.00e+00	0	27	0	136314880	74	5005
2026-01-15 02:53:32.17	29.58	9.68	-54.0	-56.9	13.4	0.00e+00	0	27	0	138412032	74	4958
2026-01-15 02:53:33.17	29.50	9.76	-53.8	-56.5	13.6	0.00e+00	0	27	0	139460608	74	4750
2026-01-15 02:53:34.17	29.43	9.83	-54.1	-57.1	13.3	0.00e+00	0	27	0	141557760	74	5059
2026-01-15 02:53:35.17	29.35	9.91	-53.9	-56.7	13.5	0.00e+00	0	27	0	143654912	74	4859
2026-01-15 02:53:36.17	29.28	9.99	-54.1	-57.0	13.3	0.00e+00	0	27	0	145752064	74	5041
2026-01-15 02:53:37.16	29.20	10.07	-53.9	-56.8	13.5	0.00e+00	0	27	0	147849216	74	4886
2026-01-15 02:53:38.16	29.12	10.14	-53.9	-56.8	13.4	0.00e+00	0	27	0	148897792	74	4887
2026-01-15 02:53:39.15	29.04	10.22	-53.8	-56.7	13.6	0.00e+00	0	27	0	150994944	74	4817
2026-01-15 02:53:40.16	28.96	10.30	-53.7	-56.5	13.6	0.00e+00	0	27	0	153092096	74	4725
2026-01-15 02:53:41.15	28.89	10.38	-53.6	-56.3	13.6	0.00e+00	0	27	0	155189248	73	4889
2026-01-15 02:53:42.14	28.81	10.46	-53.8	-56.5	13.5	0.00e+00	0	27	0	156237824	73	5007
2026-01-15 02:53:43.13	28.73	10.54	-53.6	-56.3	13.6	0.00e+00	0	27	0	158334976	73	4875
2026-01-15 02:53:44.13	28.65	10.62	-53.6	-56.3	13.6	0.00e+00	0	27	0	160432128	73	4886
2026-01-15 02:53:45.13	28.57	10.70	-53.7	-56.4	13.5	0.00e+00	0	27	0	162529280	73	4960
2026-01-15 02:53:46.13	28.48	10.78	-53.6	-56.3	13.6	0.00e+00	0	27	0	164626432	73	4871
2026-01-15 02:53:47.12	28.40	10.86	-53.6	-56.3	13.6	0.00e+00	0	27	0	165675008	73	4872
2026-01-15 02:53:48.13	28.32	10.94	-53.5	-56.1	13.7	0.00e+00	0	27	0	167772160	73	4805
2026-01-15 02:53:49.13	28.24	11.02	-53.3	-55.8	13.9	0.00e+00	0	27	0	169869312	73	4608
2026-01-15 02:53:50.13	28.15	11.10	-53.4	-55.9	13.8	0.00e+00	0	27	0	171966464	73	4682
2026-01-15 02:53:51.13	28.07	11.18	-53.3	-55.7	13.9	0.00e+00	0	27	0	174063616	73	4579
2026-01-15 02:53:52.13	27.99	11.26	-53.1	-55.4	14.0	0.00e+00	0	27	0	175112192	72	4687
2026-01-15 02:53:53.13	27.90	11.34	-53.2	-55.6	13.9	0.00e+00	0	27	0	177209344	72	4797
2026-01-15 02:53:54.12	27.82	11.42	-52.9	-55.2	14.1	0.00e+00	0	27	0	179306496	72	4573
2026-01-15 02:53:55.12	27.73	11.51	-53.0	-55.3	14.0	0.00e+00	0	27	0	181403648	72	4642
2026-01-15 02:53:56.12	27.64	11.59	-53.0	-55.3	14.0	0.00e+00	0	27	0	182452224	72	4635
2026-01-15 02:53:57.11	27.56	11.67	-53.0	-55.3	14.0	0.00e+00	0	27	0	184549376	72	4622
2026-01-15 02:53:58.11	27.47	11.75	-53.0	-55.4	14.0	0.00e+00	0	27	0	186646528	72	4653
2026-01-15 02:53:59.11	27.38	11.83	-53.1	-55.4	13.9	0.00e+00	0	27	0	188743680	72	4664
2026-01-15 02:54:00.10	27.30	11.92	-53.1	-55.4	14.0	0.00e+00	0	27	0	190840832	72	4673
2026-01-15 02:54:01.10	27.21	12.00	-53.0	-55.3	14.0	0.00e+00	0	27	0	191889408	72	4611
2026-01-15 02:54:02.09	27.12	12.08	-53.1	-55.4	14.0	0.00e+00	0	27	0	193986560	72	4669
2026-01-15 02:54:03.09	27.03	12.16	-53.1	-55.4	14.0	0.00e+00	0	27	0	196083712	72	4693
2026-01-15 02:54:04.08	26.94	12.25	-53.1	-55.4	14.0	0.00e+00	0	27	0	198180864	72	4670
2026-01-15 02:54:05.08	26.85	12.33	-53.0	-55.3	14.0	0.00e+00	0	27	0	199229440	72	4630
2026-01-15 02:54:06.08	26.76	12.42	-53.2	-55.5	14.0	0.00e+00	0	27	0	201326592	72	4739
2026-01-15 02:54:07.08	26.67	12.50	-53.2	-55.5	13.9	0.00e+00	0	27	0	203423744	72	4740
2026-01-15 02:54:08.07	26.57	12.58	-53.1	-55.4	14.0	0.00e+00	0	27	0	205520896	72	4700
2026-01-15 02:54:09.08	26.48	12.67	-53.2	-55.6	13.9	0.00e+00	0	27	0	207618048	72	4763
2026-01-15 02:54:10.07	26.39	12.75	-53.1	-55.3	14.1	0.00e+00	0	28	0	208666624	72	4643
2026-01-15 02:54:11.07	26.29	12.84	-53.1	-55.4	14.0	0.00e+00	0	27	0	210763776	72	4656
2026-01-15 02:54:12.07	26.20	12.92	-53.1	-55.3	14.0	0.00e+00	0	27	0	212860928	72	4651
2026-01-15 02:54:13.07	26.10	13.01	-53.0	-55.3	14.0	0.00e+00	0	28	0	214958080	72	4610
2026-01-15 02:54:14.07	26.01	13.10	-53.1	-55.4	14.0	0.00e+00	0	27	0	217055232	72	4682
2026-01-15 02:54:15.07	25.91	13.18	-53.3	-55.7	13.9	0.00e+00	0	28	0	218103808	72	4829
2026-01-15 02:54:16.07	25.81	13.27	-53.3	-55.6	13.9	0.00e+00	0	27	0	220200960	72	4801
2026-01-15 02:54:17.06	25.72	13.35	-53.4	-55.7	13.8	0.00e+00	0	27	0	222298112	72	4854
2026-01-15 02:54:18.07	25.62	13.44	-53.2	-55.6	13.9	0.00e+00	0	27	0	224395264	72	4770
2026-01-15 02:54:19.06	25.52	13.53	-53.4	-55.9	13.8	0.00e+00	0	27	0	225443840	72	4934
2026-01-15 02:54:20.06	25.42	13.62	-53.2	-55.6	13.9	0.00e+00	0	27	0	227540992	72	4767
2026-01-15 02:54:21.06	25.32	13.70	-53.2	-55.5	14.0	0.00e+00	0	27	0	229638144	72	4722
2026-01-15 02:54:22.05	25.22	13.79	-53.3	-55.6	13.9	0.00e+00	0	27	0	231735296	72	4803
2026-01-15 02:54:23.05	25.12	13.88	-53.2	-55.5	14.0	0.00e+00	0	27	0	233832448	72	4733
2026-01-15 02:54:24.05	25.02	13.97	-53.1	-55.4	14.0	0.00e+00	0	27	0	234881024	72	4667
2026-01-15 02:54:25.05	24.91	14.05	-53.4	-55.7	13.8	0.00e+00	0	28	0	236978176	72	4870
2026-01-15 02:54:26.05	24.81	14.14	-53.3	-55.7	13.8	0.00e+00	0	27	0	239075328	72	4863
2026-01-15 02:54:27.05	24.71	14.23	-53.5	-55.9	13.8	0.00e+00	0	27	0	241172480	72	4952
2026-01-15 02:54:28.05	24.60	14.32	-53.5	-55.9	13.8	0.00e+00	0	27	0	243269632	72	4980
2026-01-15 02:54:29.04	24.50	14.41	-53.5	-55.9	13.8	0.00e+00	0	27	0	244318208	72	4983
2026-01-15 02:54:30.04	24.39	14.50	-53.5	-56.0	13.8	0.00e+00	0	27	0	246415360	72	5001
2026-01-15 02:54:31.04	24.29	14.59	-53.5	-55.9	13.8	0.00e+00	0	27	0	248512512	72	4960
2026-01-15 02:54:32.04	24.18	14.68	-53.3	-55.6	13.9	0.00e+00	0	27	0	250609664	72	4775
2026-01-15 02:54:33.04	24.07	14.77	-53.3	-55.7	13.9	0.00e+00	0	27	0	251658240	72	4835
2026-01-15 02:54:34.03	23.96	14.86	-53.4	-55.8	13.8	0.00e+00	0	27	0	253755392	72	4883
2026-01-15 02:54:35.03	23.85	14.95	-53.3	-55.5	13.9	0.00e+00	0	27	0	255852544	72	4751
2026-01-15 02:54:36.03	23.75	15.04	-53.0	-55.2	14.0	0.00e+00	0	27	0	257949696	72	4590
2026-01-15 02:54:37.02	23.64	15.13	-53.1	-55.3	14.1	0.00e+00	0	27	0	260046848	72	4608
2026-01-15 02:54:38.02	23.52	15.22	-53.0	-55.1	14.2	0.00e+00	0	27	0	261095424	72	4532
2026-01-15 02:54:39.03	23.41	15.31	-52.8	-54.9	14.3	0.00e+00	0	28	0	263192576	72	4392
2026-01-15 02:54:40.02	23.30	15.40	-52.6	-54.5	14.3	0.00e+00	0	27	0	265289728	71	4490
2026-01-15 02:54:41.03	23.19	15.50	-52.7	-54.7	14.3	0.00e+00	0	27	0	267386880	71	4558
2026-01-15 02:54:42.03	23.07	15.59	-52.5	-54.5	14.3	0.00e+00	0	28	0	269484032	71	4460
2026-01-15 02:54:43.03	22.96	15.68	-52.6	-54.6	14.3	0.00e+00	0	27	0	270532608	71	4494
2026-01-15 02:54:44.03	22.84	15.77	-52.6	-54.5	14.3	0.00e+00	0	27	0	272629760	71	4481
2026-01-15 02:54:45.03	22.72	15.87	-52.7	-54.7	14.3	0.00e+00	0	28	0	274726912	71	4554
2026-01-15 02:54:46.03	22.61	15.96	-52.5	-54.4	14.4	0.00e+00	0	28	0	276824064	71	4434
2026-01-15 02:54:47.03	22.49	16.05	-52.5	-54.4	14.4	0.00e+00	0	27	0	277872640	71	4423
2026-01-15 02:54:48.02	22.37	16.15	-52.2	-54.1	14.5	0.00e+00	0	27	0	279969792	71	4263
2026-01-15 02:54:49.02	22.25	16.24	-52.6	-54.5	14.4	0.00e+00	0	27	0	282066944	71	4464
2026-01-15 02:54:50.02	22.13	16.33	-52.5	-54.4	14.4	0.00e+00	0	28	0	284164096	71	4441
2026-01-15 02:54:51.03	22.01	16.43	-52.7	-54.7	14.3	0.00e+00	0	27	0	286261248	71	4571
2026-01-15 02:54:52.02	21.89	16.52	-52.7	-54.7	14.3	0.00e+00	0	27	0	287309824	71	4571
2026-01-15 02:54:53.02	21.77	16.62	-52.9	-55.0	14.2	0.00e+00	0	28	0	289406976	71	4725
2026-01-15 02:54:54.02	21.65	16.71	-53.0	-55.1	14.1	0.00e+00	0	28	0	291504128	71	4762
2026-01-15 02:54:55.02	21.52	16.81	-53.0	-55.1	14.1	0.00e+00	0	28	0	293601280	71	4788
2026-01-15 02:54:56.03	21.39	16.90	-53.0	-55.1	14.1	0.00e+00	0	28	0	295698432	71	4767
2026-01-15 02:54:57.02	21.27	17.00	-53.0	-55.2	14.0	0.00e+00	0	28	0	296747008	71	4824
2026-01-15 02:54:58.02	21.14	17.10	-53.1	-55.3	14.0	0.00e+00	0	28	0	298844160	71	4885
2026-01-15 02:54:59.02	21.02	17.19	-53.2	-55.4	13.9	0.00e+00	0	28	0	300941312	71	4972
2026-01-15 02:55:00.02	20.89	17.29	-52.9	-55.1	14.1	0.00e+00	0	27	0	303038464	71	4777
2026-01-15 02:55:01.03	20.76	17.39	-53.1	-55.3	14.0	0.00e+00	0	28	0	305135616	71	4905
2026-01-15 02:55:02.03	20.63	17.48	-52.9	-55.0	14.1	0.00e+00	0	28	0	306184192	71	4727
2026-01-15 02:55:03.02	20.50	17.58	-52.6	-54.7	14.3	0.00e+00	0	28	0	308281344	71	4563
2026-01-15 02:55:04.02	20.37	17.68	-52.6	-54.6	14.3	0.00e+00	0	28	0	310378496	71	4510
2026-01-15 02:55:05.02	20.24	17.77	-52.8	-54.8	14.2	0.00e+00	0	28	0	312475648	71	4641
2026-01-15 02:55:06.02	20.10	17.87	-52.9	-55.0	14.1	0.00e+00	0	28	0	313524224	71	4736
2026-01-15 02:55:07.02	19.97	17.97	-52.9	-55.0	14.1	0.00e+00	0	28	0	315621376	71	4738
2026-01-15 02:55:08.02	19.83	18.07	-52.9	-55.0	14.1	0.00e+00	0	28	0	317718528	71	4747
2026-01-15 02:55:09.01	19.70	18.16	-53.3	-55.5	13.9	0.00e+00	0	28	0	319815680	71	5025
2026-01-15 02:55:10.01	19.56	18.26	-53.0	-55.1	14.1	0.00e+00	0	28	0	321912832	71	4799
2026-01-15 02:55:11.02	19.42	18.36	-52.9	-55.0	14.1	0.00e+00	0	28	0	322961408	71	4710
2026-01-15 02:55:12.02	19.28	18.46	-52.9	-55.0	14.1	0.00e+00	0	27	0	325058560	71	4724
2026-01-15 02:55:13.01	19.14	18.56	-53.1	-55.3	14.0	0.00e+00	0	27	0	327155712	71	4872
2026-01-15 02:55:14.01	19.00	18.66	-53.1	-55.3	14.0	0.00e+00	0	28	0	329252864	71	4884
2026-01-15 02:55:15.01	18.86	18.76	-53.2	-55.4	14.0	0.00e+00	0	27	0	331350016	71	4951
2026-01-15 02:55:16.00	18.72	18.86	-53.4	-55.6	13.9	0.00e+00	0	28	0	332398592	71	5092
2026-01-15 02:55:17.00	18.58	18.96	-53.7	-56.2	13.7	0.00e+00	0	28	0	334495744	72	5115
2026-01-15 02:55:18.01	18.43	19.06	-53.6	-56.0	13.8	0.00e+00	0	28	0	336592896	72	4986
2026-01-15 02:55:19.00	18.29	19.16	-53.5	-55.8	13.9	0.00e+00	0	27	0	338690048	72	4907
2026-01-15 02:55:20.01	18.14	19.26	-53.6	-55.9	13.9	0.00e+00	0	28	0	339738624	73	4699
2026-01-15 02:55:21.00	17.99	19.36	-53.5	-55.7	14.1	0.00e+00	0	28	0	341835776	73	4560
2026-01-15 02:55:22.01	17.84	19.46	-53.5	-55.7	14.1	0.00e+00	0	28	0	343932928	73	4561
2026-01-15 02:55:23.02	17.69	19.57	-53.5	-55.7	14.1	0.00e+00	0	28	0	346030080	73	4561
2026-01-15 02:55:24.03	17.54	19.67	-53.4	-55.6	14.1	0.00e+00	0	28	0	348127232	73	4511
2026-01-15 02:55:25.03	17.39	19.77	-53.7	-56.1	13.9	0.00e+00	0	27	0	349175808	73	4779
2026-01-15 02:55:26.03	17.24	19.87	-53.4	-55.6	14.1	0.00e+00	0	27	0	351272960	73	4500
2026-01-15 02:55:27.04	17.08	19.98	-53.4	-55.7	14.0	0.00e+00	0	28	0	353370112	73	4571
2026-01-15 02:55:28.04	16.93	20.08	-53.4	-55.6	14.1	0.00e+00	0	28	0	355467264	73	4529
2026-01-15 02:55:29.05	16.77	20.18	-53.5	-55.7	14.0	0.00e+00	0	28	0	357564416	73	4587
2026-01-15 02:55:30.05	16.61	20.29	-53.5	-55.7	14.0	0.00e+00	0	28	0	358612992	73	4583
2026-01-15 02:55:31.05	16.46	20.39	-53.5	-55.7	14.0	0.00e+00	0	28	0	360710144	73	4597
2026-01-15 02:55:32.05	16.30	20.49	-53.4	-55.6	14.1	0.00e+00	0	28	0	362807296	73	4506
2026-01-15 02:55:33.05	16.14	20.60	-53.8	-56.2	13.8	0.00e+00	0	28	0	364904448	73	4845
2026-01-15 02:55:34.04	15.98	20.70	-53.6	-55.9	13.9	0.00e+00	0	28	0	367001600	73	4680
2026-01-15 02:55:35.03	15.82	20.80	-53.3	-55.4	14.2	0.00e+00	0	28	0	368050176	73	4437
2026-01-15 02:55:36.03	15.65	20.90	-53.3	-55.5	14.1	0.00e+00	0	27	0	370147328	73	4456
2026-01-15 02:55:37.04	15.49	21.01	-53.2	-55.4	14.2	0.00e+00	0	28	0	372244480	73	4396
2026-01-15 02:55:38.04	15.32	21.11	-53.2	-55.4	14.2	0.00e+00	0	28	0	374341632	73	4406
2026-01-15 02:55:39.04	15.16	21.22	-53.4	-55.7	14.0	0.00e+00	0	28	0	375390208	73	4572
2026-01-15 02:55:40.04	14.99	21.32	-53.2	-55.3	14.2	0.00e+00	0	28	0	377487360	73	4390
2026-01-15 02:55:41.04	14.82	21.43	-53.4	-55.8	13.9	0.00e+00	0	27	0	379584512	72	4895
2026-01-15 02:55:42.04	14.65	21.53	-53.0	-55.1	14.2	0.00e+00	0	28	0	381681664	72	4544
2026-01-15 02:55:43.04	14.48	21.64	-52.7	-54.8	14.4	0.00e+00	0	27	0	383778816	72	4351
2026-01-15 02:55:44.04	14.31	21.74	-52.9	-55.0	14.3	0.00e+00	0	27	0	384827392	72	4443
2026-01-15 02:55:45.04	14.13	21.85	-52.9	-55.0	14.3	0.00e+00	0	28	0	386924544	72	4443
2026-01-15 02:55:46.03	13.96	21.95	-53.0	-55.1	14.2	0.00e+00	0	27	0	389021696	72	4517
2026-01-15 02:55:47.03	13.78	22.06	-53.1	-55.2	14.2	0.00e+00	0	27	0	391118848	72	4585
2026-01-15 02:55:48.03	13.60	22.17	-53.1	-55.3	14.1	0.00e+00	0	28	0	393216000	72	4620
2026-01-15 02:55:49.02	13.43	22.27	-53.6	-55.9	13.9	0.00e+00	0	28	0	394264576	72	4982
2026-01-15 02:55:50.02	13.25	22.38	-53.2	-55.4	14.1	0.00e+00	0	28	0	396361728	72	4682
2026-01-15 02:55:51.01	13.07	22.48	-53.0	-55.1	14.3	0.00e+00	0	28	0	398458880	72	4520
2026-01-15 02:55:52.01	12.89	22.59	-53.0	-55.1	14.3	0.00e+00	0	27	0	400556032	72	4509
2026-01-15 02:55:53.01	12.70	22.70	-53.3	-55.5	14.1	0.00e+00	0	28	0	401604608	72	4729
2026-01-15 02:55:54.01	12.52	22.80	-53.2	-55.3	14.1	0.00e+00	0	27	0	403701760	72	4628
2026-01-15 02:55:55.01	12.33	22.91	-53.5	-55.8	13.9	0.00e+00	0	28	0	405798912	72	4873
2026-01-15 02:55:56.01	12.14	23.02	-53.7	-56.0	13.8	0.00e+00	0	28	0	407896064	72	4999
2026-01-15 02:55:57.00	11.96	23.12	-54.1	-56.7	13.7	0.00e+00	0	28	0	409993216	73	5105
2026-01-15 02:55:58.00	11.77	23.23	-54.0	-56.4	13.7	0.00e+00	0	28	0	411041792	73	4973
2026-01-15 02:55:59.00	11.58	23.34	-53.9	-56.3	13.8	0.00e+00	0	28	0	413138944	73	4880
2026-01-15 02:56:00.00	11.38	23.44	-53.8	-56.3	13.8	0.00e+00	0	27	0	415236096	73	4872
2026-01-15 02:56:01.00	11.19	23.55	-53.9	-56.4	13.7	0.00e+00	0	28	0	417333248	73	4956
2026-01-15 02:56:01.99	11.00	23.66	-54.1	-56.7	13.5	0.00e+00	0	27	0	418381824	73	5150
2026-01-15 02:56:02.99	10.80	23.76	-54.3	-57.0	13.5	0.00e+00	0	28	0	420478976	74	5031
2026-01-15 02:56:03.99	10.60	23.87	-54.5	-57.3	13.3	0.00e+00	0	28	0	422576128	74	5216
2026-01-15 02:56:04.98	10.40	23.98	-54.6	-57.6	13.2	0.00e+00	0	28	0	424673280	74	5376
2026-01-15 02:56:05.97	10.20	24.09	-54.4	-57.2	13.4	0.00e+00	0	27	0	426770432	74	5157
2026-01-15 02:56:06.98	10.00	24.19	-54.3	-57.1	13.5	0.00e+00	0	28	0	427819008	74	5052
2026-01-15 02:56:07.98	9.80	24.30	-53.9	-56.4	13.8	0.00e+00	0	28	0	429916160	74	4697
2026-01-15 02:56:08.98	9.59	24.41	-53.8	-56.3	13.9	0.00e+00	0	28	0	432013312	74	4613
2026-01-15 02:56:09.97	9.39	24.52	-53.6	-56.1	13.9	0.00e+00	0	28	0	434110464	73	4774
2026-01-15 02:56:10.96	9.18	24.62	-53.7	-56.2	13.9	0.00e+00	0	27	0	436207616	73	4830
2026-01-15 02:56:11.96	8.97	24.73	-53.7	-56.1	13.9	0.00e+00	0	28	0	437256192	73	4789
2026-01-15 02:56:12.96	8.76	24.84	-53.9	-56.4	13.7	0.00e+00	0	28	0	439353344	73	4969
2026-01-15 02:56:13.97	8.54	24.95	-54.0	-56.5	13.7	0.00e+00	0	28	0	441450496	73	5001
2026-01-15 02:56:14.96	8.33	25.06	-53.7	-56.2	13.9	0.00e+00	0	28	0	443547648	73	4826
2026-01-15 02:56:15.96	8.12	25.16	-53.8	-56.3	13.8	0.00e+00	0	28	0	444596224	73	4874
2026-01-15 02:56:16.96	7.90	25.27	-53.8	-56.3	13.8	0.00e+00	0	28	0	446693376	73	4898
2026-01-15 02:56:17.96	7.68	25.38	-53.6	-56.0	13.9	0.00e+00	0	28	0	448790528	73	4733
2026-01-15 02:56:18.97	7.46	25.49	-53.7	-56.1	13.9	0.00e+00	0	28	0	450887680	73	4778
2026-01-15 02:56:19.97	7.24	25.60	-53.7	-56.1	13.9	0.00e+00	0	28	0	452984832	73	4790
2026-01-15 02:56:20.97	7.01	25.71	-53.9	-56.4	13.7	0.00e+00	0	28	0	454033408	73	4959
2026-01-15 02:56:21.97	6.79	25.81	-54.0	-56.5	13.7	0.00e+00	0	28	0	456130560	73	5039
2026-01-15 02:56:22.97	6.56	25.92	-54.3	-56.9	13.5	0.00e+00	0	28	0	458227712	73	5237
2026-01-15 02:56:23.97	6.34	26.03	-54.0	-56.4	13.7	0.00e+00	0	27	0	460324864	73	4977
2026-01-15 02:56:24.97	6.11	26.14	-53.8	-56.2	13.9	0.00e+00	0	27	0	462422016	73	4835
2026-01-15 02:56:25.97	5.88	26.25	-53.6	-55.8	14.0	0.00e+00	0	28	0	463470592	73	4640
2026-01-15 02:56:26.97	5.64	26.35	-53.5	-55.8	14.1	0.00e+00	0	27	0	465567744	73	4606
2026-01-15 02:56:27.96	5.41	26.46	-53.7	-56.0	13.9	0.00e+00	0	28	0	467664896	73	4749
2026-01-15 02:56:28.96	5.18	26.57	-53.7	-56.1	13.9	0.00e+00	0	28	0	469762048	73	4761
2026-01-15 02:56:29.96	4.94	26.67	-53.9	-56.3	13.8	0.00e+00	0	28	0	470810624	73	4898
2026-01-15 02:56:30.95	4.70	26.78	-54.0	-56.5	13.7	0.00e+00	0	28	0	472907776	73	4985
2026-01-15 02:56:31.95	4.46	26.89	-53.7	-56.0	14.0	0.00e+00	0	28	0	475004928	73	4728
2026-01-15 02:56:32.95	4.22	26.99	-53.4	-55.7	14.1	0.00e+00	0	27	0	477102080	73	4547
2026-01-15 02:56:33.95	3.97	27.10	-53.4	-55.5	14.2	0.00e+00	0	28	0	479199232	73	4490
2026-01-15 02:56:34.95	3.73	27.21	-53.5	-55.7	14.0	0.00e+00	0	28	0	480247808	72	4853
2026-01-15 02:56:35.95	3.48	27.31	-53.6	-55.9	13.9	0.00e+00	0	28	0	482344960	72	4942
2026-01-15 02:56:36.95	3.23	27.42	-53.7	-56.0	14.0	0.00e+00	0	28	0	484442112	73	4720
2026-01-15 02:56:37.95	2.98	27.53	-54.1	-56.6	13.7	0.00e+00	0	28	0	486539264	73	5071
2026-01-15 02:56:38.95	2.73	27.63	-54.4	-57.0	13.6	0.00e+00	0	28	0	488636416	74	5003
2026-01-15 02:56:39.95	2.48	27.74	-54.5	-57.2	13.5	0.00e+00	0	28	0	489684992	74	5105
2026-01-15 02:56:40.95	2.22	27.84	-54.0	-56.4	13.9	0.00e+00	0	28	0	491782144	74	4657
2026-01-15 02:56:41.95	1.96	27.95	-53.6	-55.8	14.0	0.00e+00	0	28	0	493879296	73	4638
2026-01-15 02:56:42.94	1.71	28.05	-53.4	-55.5	14.2	0.00e+00	0	28	0	495976448	73	4460
2026-01-15 02:56:43.95	1.44	28.16	-53.2	-55.3	14.2	0.00e+00	0	28	0	498073600	72	4632
2026-01-15 02:56:44.94	1.18	28.26	-53.3	-55.4	14.2	0.00e+00	0	27	0	499122176	72	4675
2026-01-15 02:56:45.94	0.92	28.36	-53.1	-55.2	14.2	0.00e+00	0	28	0	501219328	72	4579
2026-01-15 02:56:46.94	0.65	28.47	-53.0	-55.1	14.2	0.00e+00	0	28	0	503316480	72	4536
2026-01-15 02:56:47.94	0.39	28.57	-52.8	-54.8	14.4	0.00e+00	0	27	0	505413632	72	4349
2026-01-15 02:56:48.93	0.12	28.67	-52.9	-55.0	14.3	0.00e+00	0	28	0	506462208	72	4481
2026-01-15 02:56:49.93	359.85	28.78	-53.1	-55.4	14.1	0.00e+00	0	28	0	508559360	72	4661
2026-01-15 02:56:50.93	359.58	28.88	-53.3	-55.6	14.0	0.00e+00	0	28	0	510656512	72	4810
2026-01-15 02:56:51.92	359.30	28.98	-53.6	-56.1	13.8	0.00e+00	0	27	0	512753664	72	5068
2026-01-15 02:56:52.93	359.02	29.08	-53.6	-56.1	13.8	0.00e+00	0	27	0	514850816	72	5062
2026-01-15 02:56:53.93	358.75	29.18	-53.6	-56.1	13.8	0.00e+00	0	28	0	515899392	72	5061
2026-01-15 02:56:54.92	358.47	29.28	-53.6	-56.0	13.9	0.00e+00	0	28	0	517996544	72	5040
2026-01-15 02:56:55.92	358.19	29.38	-53.7	-56.2	13.8	0.00e+00	0	28	0	520093696	72	5137
2026-01-15 02:56:56.91	357.91	29.48	-54.1	-56.9	13.5	0.00e+00	0	28	0	522190848	73	5221
2026-01-15 02:56:57.91	357.62	29.58	-54.7	-57.9	13.1	0.00e+00	0	28	0	524288000	74	5548
2026-01-15 02:56:58.91	357.33	29.68	-55.4	-59.0	12.5	0.00e+00	0	28	0	525336576	76	5645
2026-01-15 02:56:59.90	357.05	29.78	-55.6	-59.5	12.4	0.00e+00	0	28	0	527433728	76	5933
2026-01-15 02:57:00.90	356.76	29.88	-55.4	-59.0	12.5	0.00e+00	0	28	0	529530880	76	5628
2026-01-15 02:57:01.90	356.47	29.97	-54.9	-58.2	13.1	0.00e+00	0	28	0	531628032	76	5101
2026-01-15 02:57:02.90	356.17	30.07	-54.7	-57.7	13.4	0.00e+00	0	28	0	532676608	76	4825
2026-01-15 02:57:03.89	355.88	30.17	-54.5	-57.4	13.5	7.00e-07	0	28	0	534773760	75	4948
2026-01-15 02:57:04.89	355.58	30.26	-54.6	-57.5	13.4	0.00e+00	0	28	0	536870912	75	5009
2026-01-15 02:57:05.89	355.28	30.36	-54.9	-58.2	13.0	0.00e+00	0	28	0	538968064	75	5409
2026-01-15 02:57:06.88	354.98	30.45	-55.2	-58.6	12.8	0.00e+00	0	28	0	541065216	75	5693
2026-01-15 02:57:07.88	354.68	30.55	-55.3	-58.9	12.5	0.00e+00	0	28	0	542113792	75	5906
2026-01-15 02:57:08.88	354.37	30.64	-55.0	-58.4	12.9	0.00e+00	0	28	0	544210944	75	5565
2026-01-15 02:57:09.88	354.07	30.73	-55.0	-58.5	12.8	0.00e+00	0	28	0	546308096	75	5608
2026-01-15 02:57:10.88	353.76	30.83	-55.0	-58.4	12.8	0.00e+00	0	28	0	548405248	75	5574
2026-01-15 02:57:11.88	353.45	30.92	-55.6	-59.3	12.4	0.00e+00	0	28	0	549453824	76	5855
2026-01-15 02:57:12.88	353.14	31.01	-55.7	-59.6	12.2	0.00e+00	0	28	0	551550976	76	6009
2026-01-15 02:57:13.88	352.82	31.10	-55.9	-60.0	12.1	0.00e+00	0	28	0	553648128	77	5940
2026-01-15 02:57:14.88	352.51	31.19	-56.2	-60.8	11.5	7.60e-06	0	28	0	555745280	77	6517
2026-01-15 02:57:15.89	352.19	31.28	-56.2	-60.7	11.5	1.06e-05	0	28	0	557842432	77	6480
2026-01-15 02:57:16.89	351.87	31.37	-56.1	-60.7	11.5	5.30e-06	0	28	0	558891008	77	6468
2026-01-15 02:57:17.89	351.55	31.46	-55.7	-60.4	11.8	1.06e-05	0	28	0	560988160	77	6236
2026-01-15 02:57:18.90	351.22	31.54	-55.5	-60.3	11.9	7.00e-07	0	28	0	563085312	77	6171
2026-01-15 02:57:19.91	350.89	31.63	-55.7	-60.5	11.8	3.80e-06	0	28	0	565182464	77	6303
2026-01-15 02:57:20.91	350.57	31.72	-55.8	-60.2	11.9	4.50e-06	0	28	0	567279616	77	6122
2026-01-15 02:57:21.91	350.24	31.80	-55.5	-59.3	12.5	0.00e+00	0	28	0	568328192	77	5509
2026-01-15 02:57:22.91	349.91	31.88	-55.2	-58.7	12.8	0.00e+00	0	28	0	570425344	76	5459
2026-01-15 02:57:23.91	349.58	31.97	-55.2	-58.6	12.9	0.00e+00	0	28	0	572522496	76	5353
2026-01-15 02:57:24.91	349.25	32.05	-55.0	-58.3	13.1	0.00e+00	0	28	0	574619648	76	5197
2026-01-15 02:57:25.91	348.91	32.13	-55.4	-59.1	12.5	0.00e+00	0	28	0	576716800	76	5669
2026-01-15 02:57:26.91	348.58	32.21	-55.4	-59.0	12.6	0.00e+00	0	28	0	577765376	76	5638
2026-01-15 02:57:27.91	348.24	32.29	-55.5	-59.3	12.4	0.00e+00	0	28	0	579862528	76	5819
2026-01-15 02:57:28.90	347.90	32.37	-55.2	-58.7	12.7	0.00e+00	0	28	0	581959680	76	5442
2026-01-15 02:57:29.90	347.56	32.44	-55.0	-58.2	13.1	0.00e+00	0	28	0	584056832	76	5134
2026-01-15 02:57:30.90	347.22	32.52	-54.6	-57.7	13.3	0.00e+00	0	28	0	585105408	75	5109
2026-01-15 02:57:31.91	346.87	32.60	-54.7	-57.9	13.2	0.00e+00	0	28	0	587202560	75	5238
2026-01-15 02:57:32.91	346.52	32.67	-55.1	-58.7	12.7	0.00e+00	0	28	0	589299712	75	5723
2026-01-15 02:57:33.91	346.18	32.74	-55.7	-59.8	12.1	0.00e+00	0	28	0	591396864	76	6185
2026-01-15 02:57:34.90	345.83	32.82	-55.6	-59.8	12.0	1.50e-06	0	28	0	593494016	76	6192
2026-01-15 02:57:35.89	345.48	32.89	-55.1	-58.9	12.6	7.00e-07	0	28	0	594542592	76	5553
2026-01-15 02:57:36.89	345.13	32.96	-54.6	-58.0	13.1	0.00e+00	0	28	0	596639744	75	5296
2026-01-15 02:57:37.90	344.77	33.03	-54.2	-57.4	13.4	0.00e+00	0	28	0	598736896	74	5242
2026-01-15 02:57:38.90	344.42	33.09	-54.6	-58.0	13.1	0.00e+00	0	28	0	600834048	74	5632
2026-01-15 02:57:39.90	344.06	33.16	-55.0	-58.6	12.7	0.00e+00	0	28	0	602931200	75	5699
2026-01-15 02:57:40.90	343.70	33.23	-55.5	-59.5	12.3	7.00e-07	0	28	0	603979776	76	5945
2026-01-15 02:57:41.90	343.34	33.29	-55.4	-59.3	12.4	0.00e+00	0	28	0	606076928	76	5797
2026-01-15 02:57:42.90	342.98	33.36	-54.7	-58.0	13.1	0.00e+00	0	28	0	608174080	76	5032
2026-01-15 02:57:43.91	342.61	33.42	-54.3	-57.3	13.4	0.00e+00	0	28	0	610271232	74	5163
2026-01-15 02:57:44.91	342.25	33.48	-53.6	-56.2	13.8	0.00e+00	0	28	0	611319808	73	4824
2026-01-15 02:57:45.91	341.88	33.54	-53.3	-55.7	14.1	0.00e+00	0	28	0	613416960	73	4560
2026-01-15 02:57:46.91	341.52	33.60	-53.1	-55.5	14.1	0.00e+00	0	28	0	615514112	72	4712
2026-01-15 02:57:47.91	341.15	33.66	-52.9	-55.2	14.2	0.00e+00	0	28	0	617611264	72	4558
2026-01-15 02:57:48.92	340.78	33.71	-52.7	-55.0	14.2	0.00e+00	0	28	0	619708416	71	4719
2026-01-15 02:57:49.92	340.41	33.77	-52.4	-54.4	14.4	0.00e+00	0	28	0	621805568	71	4440
2026-01-15 02:57:50.93	340.03	33.82	-52.3	-54.4	14.5	0.00e+00	0	28	0	622854144	71	4413
2026-01-15 02:57:51.92	339.66	33.87	-52.5	-54.6	14.4	0.00e+00	0	28	0	624951296	71	4524
2026-01-15 02:57:52.93	339.28	33.93	-52.9	-55.3	14.1	0.00e+00	0	28	0	627048448	71	4878
2026-01-15 02:57:53.94	338.90	33.98	-53.5	-56.1	13.8	0.00e+00	0	28	0	629145600	72	5068
2026-01-15 02:57:54.94	338.53	34.02	-54.1	-57.0	13.5	0.00e+00	0	28	0	630194176	73	5332
2026-01-15 02:57:55.94	338.15	34.07	-54.0	-56.9	13.5	0.00e+00	0	28	0	632291328	73	5258
2026-01-15 02:57:56.93	337.77	34.12	-53.7	-56.3	13.8	0.00e+00	0	28	0	634388480	73	4918
2026-01-15 02:57:57.93	337.39	34.16	-53.8	-56.5	13.8	0.00e+00	0	28	0	636485632	73	4999
2026-01-15 02:57:58.94	337.01	34.20	-53.7	-56.4	13.8	0.00e+00	0	28	0	638582784	73	4932
2026-01-15 02:57:59.93	336.63	34.25	-53.4	-55.8	14.1	0.00e+00	0	28	0	639631360	73	4633
2026-01-15 02:58:00.92	336.25	34.29	-53.0	-55.2	14.2	0.00e+00	0	28	0	641728512	72	4569
2026-01-15 02:58:01.92	335.87	34.32	-52.8	-54.9	14.4	0.00e+00	0	28	0	643825664	72	4425
2026-01-15 02:58:02.91	335.49	34.36	-52.7	-54.8	14.3	0.00e+00	0	28	0	645922816	71	4618
2026-01-15 02:58:03.91	335.10	34.40	-52.2	-54.2	14.6	0.00e+00	0	28	0	646971392	71	4306
2026-01-15 02:58:04.90	334.72	34.43	-51.9	-53.8	14.5	0.00e+00	0	28	0	649068544	70	4381
2026-01-15 02:58:05.90	334.33	34.47	-52.1	-54.0	14.5	0.00e+00	0	28	0	651165696	70	4484
2026-01-15 02:58:06.90	333.94	34.50	-52.4	-54.4	14.3	0.00e+00	0	28	0	653262848	70	4675
2026-01-15 02:58:07.89	333.56	34.53	-53.0	-55.3	14.0	0.00e+00	0	28	0	655360000	71	4881
2026-01-15 02:58:08.89	333.17	34.56	-53.4	-55.9	13.8	0.00e+00	0	28	0	656408576	71	5221
2026-01-15 02:58:09.88	332.78	34.58	-53.2	-55.7	14.0	0.00e+00	0	28	0	658505728	72	4816
2026-01-15 02:58:10.88	332.39	34.61	-52.6	-54.7	14.4	0.00e+00	0	28	0	660602880	71	4570
2026-01-15 02:58:11.89	331.99	34.63	-52.4	-54.4	14.5	0.00e+00	0	28	0	662700032	71	4405
2026-01-15 02:58:12.89	331.60	34.66	-52.4	-54.3	14.5	0.00e+00	0	28	0	664797184	71	4386
2026-01-15 02:58:13.89	331.21	34.68	-53.2	-55.5	14.0	0.00e+00	0	28	0	665845760	71	5006
2026-01-15 02:58:14.89	330.82	34.70	-53.7	-56.2	13.8	0.00e+00	0	28	0	667942912	72	5132
2026-01-15 02:58:15.88	330.43	34.71	-53.8	-56.3	13.7	0.00e+00	0	28	0	670040064	72	5217
2026-01-15 02:58:16.88	330.03	34.73	-53.5	-55.7	14.0	0.00e+00	0	28	0	672137216	72	4852
2026-01-15 02:58:17.87	329.64	34.75	-53.2	-55.3	14.2	0.00e+00	0	27	0	674234368	72	4642
2026-01-15 02:58:18.87	329.25	34.76	-53.1	-55.1	14.3	0.00e+00	0	28	0	675282944	72	4539
2026-01-15 02:58:19.87	328.85	34.77	-53.2	-55.4	14.2	0.00e+00	0	28	0	677380096	72	4652
2026-01-15 02:58:20.86	328.46	34.78	-53.3	-55.5	14.2	0.00e+00	0	28	0	679477248	72	4732
2026-01-15 02:58:21.86	328.06	34.79	-53.5	-55.7	14.1	0.00e+00	0	28	0	681574400	72	4828
2026-01-15 02:58:22.85	327.67	34.80	-53.5	-55.7	14.1	0.00e+00	0	28	0	682622976	72	4849
2026-01-15 02:58:23.85	327.28	34.80	-53.4	-55.6	14.1	0.00e+00	0	27	0	684720128	72	4762
2026-01-15 02:58:24.86	326.88	34.81	-53.5	-55.7	14.0	0.00e+00	0	28	0	686817280	72	4837
2026-01-15 02:58:25.85	326.48	34.81	-53.4	-55.6	14.1	0.00e+00	0	28	0	688914432	72	4803
2026-01-15 02:58:26.85	326.09	34.81	-53.7	-56.1	13.9	0.00e+00	0	28	0	691011584	72	5060
2026-01-15 02:58:27.85	325.69	34.81	-54.0	-56.5	13.8	0.00e+00	0	28	0	692060160	73	5001
2026-01-15 02:58:28.85	325.30	34.81	-54.3	-56.9	13.6	0.00e+00	0	28	0	694157312	73	5220
2026-01-15 02:58:29.84	324.90	34.81	-54.4	-57.0	13.6	0.00e+00	0	28	0	696254464	73	5301
2026-01-15 02:58:30.84	324.51	34.80	-54.2	-56.7	13.7	0.00e+00	0	28	0	698351616	73	5135
2026-01-15 02:58:31.84	324.11	34.80	-54.2	-56.8	13.6	0.00e+00	0	28	0	699400192	73	5218
2026-01-15 02:58:32.84	323.71	34.79	-54.0	-56.6	13.7	0.00e+00	0	28	0	701497344	73	5093
2026-01-15 02:58:33.85	323.32	34.78	-53.8	-56.3	13.9	0.00e+00	0	28	0	703594496	73	4878
2026-01-15 02:58:34.84	322.92	34.77	-53.6	-55.9	14.0	0.00e+00	0	28	0	705691648	73	4691
2026-01-15 02:58:35.83	322.53	34.75	-53.9	-56.4	13.8	0.00e+00	0	28	0	707788800	73	4963
2026-01-15 02:58:36.83	322.14	34.74	-54.5	-57.4	13.4	0.00e+00	0	28	0	708837376	74	5229
2026-01-15 02:58:37.83	321.74	34.72	-54.8	-58.1	13.0	0.00e+00	0	28	0	710934528	74	5665
2026-01-15 02:58:38.83	321.35	34.71	-54.7	-58.0	13.0	0.00e+00	0	28	0	713031680	74	5613
2026-01-15 02:58:39.82	320.96	34.69	-54.4	-57.5	13.3	0.00e+00	0	28	0	715128832	74	5304
2026-01-15 02:58:40.82	320.57	34.67	-53.7	-56.3	14.0	0.00e+00	0	28	0	717225984	74	4600
2026-01-15 02:58:41.82	320.17	34.64	-53.1	-55.4	14.2	0.00e+00	0	28	0	718274560	72	4697
2026-01-15 02:58:42.82	319.78	34.62	-52.8	-54.9	14.3	0.00e+00	0	28	0	720371712	72	4429
2026-01-15 02:58:43.83	319.39	34.60	-53.4	-55.8	14.0	0.00e+00	0	28	0	722468864	72	4905
2026-01-15 02:58:44.83	319.00	34.57	-54.2	-57.0	13.4	0.00e+00	0	28	0	724566016	73	5332
2026-01-15 02:58:45.83	318.61	34.54	-54.9	-58.3	13.0	0.00e+00	0	28	0	725614592	75	5482
2026-01-15 02:58:46.84	318.21	34.51	-55.2	-58.9	12.6	0.00e+00	0	28	0	727711744	75	5891
2026-01-15 02:58:47.84	317.82	34.48	-55.2	-58.8	12.8	0.00e+00	0	28	0	729808896	75	5814
2026-01-15 02:58:48.84	317.44	34.45	-54.7	-57.7	13.3	0.00e+00	0	28	0	731906048	75	5139
2026-01-15 02:58:49.85	317.05	34.41	-54.6	-57.5	13.4	0.00e+00	0	28	0	734003200	75	5021
2026-01-15 02:58:50.84	316.66	34.38	-54.3	-57.1	13.6	0.00e+00	0	28	0	735051776	75	4781
2026-01-15 02:58:51.85	316.27	34.34	-54.0	-56.8	13.6	0.00e+00	0	28	0	737148928	73	5168
2026-01-15 02:58:52.84	315.89	34.30	-53.8	-56.5	13.7	0.00e+00	0	28	0	739246080	73	5009
2026-01-15 02:58:53.85	315.51	34.26	-54.5	-57.5	13.4	0.00e+00	0	28	0	741343232	74	5298
2026-01-15 02:58:54.84	315.13	34.22	-54.8	-58.0	13.0	0.00e+00	0	28	0	743440384	74	5635
2026-01-15 02:58:55.84	314.74	34.18	-54.8	-58.1	13.1	0.00e+00	0	28	0	744488960	74	5657
2026-01-15 02:58:56.84	314.36	34.14	-54.7	-57.8	13.1	0.00e+00	0	28	0	746586112	74	5519
2026-01-15 02:58:57.83	313.99	34.09	-54.7	-57.9	13.1	0.00e+00	0	28	0	748683264	74	5571
2026-01-15 02:58:58.83	313.61	34.05	-54.2	-57.2	13.4	0.00e+00	0	28	0	750780416	74	5120
2026-01-15 02:58:59.83	313.23	34.00	-53.9	-56.7	13.7	0.00e+00	0	28	0	752877568	74	4850
2026-01-15 02:59:00.82	312.86	33.95	-53.9	-56.6	13.8	0.00e+00	0	28	0	753926144	74	4772
2026-01-15 02:59:01.82	312.48	33.90	-53.9	-56.6	13.8	0.00e+00	0	28	0	756023296	74	4809
2026-01-15 02:59:02.82	312.11	33.85	-53.9	-56.6	13.8	0.00e+00	0	28	0	758120448	74	4814
2026-01-15 02:59:03.82	311.74	33.79	-53.9	-56.5	13.7	0.00e+00	0	28	0	760217600	73	5023
2026-01-15 02:59:04.82	311.37	33.74	-54.2	-57.1	13.4	0.00e+00	0	28	0	761266176	73	5374
2026-01-15 02:59:05.82	311.00	33.68	-54.3	-57.3	13.4	0.00e+00	0	28	0	763363328	74	5217
2026-01-15 02:59:06.82	310.63	33.63	-54.1	-57.0	13.6	0.00e+00	0	28	0	765460480	74	5004
2026-01-15 02:59:07.82	310.26	33.57	-53.8	-56.4	13.9	0.00e+00	0	28	0	767557632	74	4689
2026-01-15 02:59:08.82	309.89	33.51	-53.5	-56.0	14.0	0.00e+00	0	28	0	769654784	73	4731
2026-01-15 02:59:09.82	309.53	33.45	-53.2	-55.6	14.1	0.00e+00	0	28	0	770703360	73	4533
2026-01-15 02:59:10.81	309.17	33.39	-53.1	-55.5	14.1	0.00e+00	0	28	0	772800512	72	4716
2026-01-15 02:59:11.81	308.80	33.32	-52.7	-55.0	14.3	0.00e+00	0	28	0	774897664	72	4442
2026-01-15 02:59:12.80	308.45	33.26	-53.0	-55.4	14.0	0.00e+00	0	28	0	776994816	71	4956
2026-01-15 02:59:13.81	308.08	33.19	-53.3	-55.8	13.8	0.00e+00	0	28	0	778043392	71	5206
2026-01-15 02:59:14.80	307.73	33.13	-53.9	-56.7	13.6	0.00e+00	0	28	0	780140544	72	5425
2026-01-15 02:59:15.80	307.37	33.06	-54.4	-57.6	13.3	0.00e+00	0	28	0	782237696	74	5366
2026-01-15 02:59:16.81	307.01	32.99	-55.0	-58.6	12.7	0.00e+00	0	28	0	784334848	75	5697
2026-01-15 02:59:17.80	306.66	32.92	-55.0	-58.4	12.9	0.00e+00	0	28	0	786432000	75	5591
2026-01-15 02:59:18.79	306.32	32.85	-54.4	-57.2	13.5	0.00e+00	0	28	0	787480576	75	4868
2026-01-15 02:59:19.79	305.97	32.78	-53.5	-55.9	14.0	0.00e+00	0	28	0	789577728	73	4673
2026-01-15 02:59:20.79	305.62	32.71	-53.1	-55.3	14.2	0.00e+00	0	28	0	791674880	72	4606
2026-01-15 02:59:21.80	305.27	32.63	-53.1	-55.4	14.2	0.00e+00	0	28	0	793772032	72	4668
2026-01-15 02:59:22.79	304.92	32.56	-53.4	-55.8	14.0	0.00e+00	0	28	0	795869184	72	4880
2026-01-15 02:59:23.79	304.58	32.48	-53.8	-56.4	13.7	0.00e+00	0	28	0	796917760	72	5254
2026-01-15 02:59:24.79	304.24	32.40	-54.1	-56.8	13.6	0.00e+00	0	28	0	799014912	73	5197
2026-01-15 02:59:25.79	303.90	32.33	-54.4	-57.2	13.4	0.00e+00	0	28	0	801112064	74	5158
2026-01-15 02:59:26.78	303.56	32.25	-54.7	-57.9	13.1	0.00e+00	0	28	0	803209216	74	5579
2026-01-15 02:59:27.78	303.22	32.17	-55.2	-58.8	12.7	0.00e+00	0	28	0	804257792	75	5812
2026-01-15 02:59:28.78	302.89	32.09	-55.3	-59.0	12.6	0.00e+00	0	28	0	806354944	75	5976
2026-01-15 02:59:29.79	302.55	32.01	-55.5	-59.4	12.4	0.00e+00	0	28	0	808452096	76	5884
2026-01-15 02:59:30.79	302.22	31.92	-55.4	-59.0	12.7	0.00e+00	0	28	0	810549248	76	5639
2026-01-15 02:59:31.79	301.89	31.84	-55.2	-58.7	12.8	0.00e+00	0	28	0	812646400	76	5443
2026-01-15 02:59:32.79	301.56	31.76	-55.0	-58.3	13.1	0.00e+00	0	28	0	813694976	76	5190
2026-01-15 02:59:33.79	301.23	31.67	-54.8	-58.0	13.3	0.00e+00	0	28	0	815792128	76	4998
2026-01-15 02:59:34.79	300.90	31.59	-54.9	-58.1	13.2	0.00e+00	0	28	0	817889280	76	5079
2026-01-15 02:59:35.79	300.58	31.50	-55.3	-58.9	12.7	0.00e+00	0	28	0	819986432	76	5566
2026-01-15 02:59:36.78	300.26	31.41	-54.9	-58.2	13.1	0.00e+00	0	28	0	822083584	76	5141
2026-01-15 02:59:37.78	299.94	31.32	-54.6	-57.7	13.2	0.00e+00	0	28	0	823132160	75	5130
2026-01-15 02:59:38.79	299.62	31.23	-54.1	-56.9	13.6	0.00e+00	0	28	0	825229312	74	4930
2026-01-15 02:59:39.79	299.30	31.15	-54.0	-56.8	13.6	0.00e+00	0	28	0	827326464	74	4885
2026-01-15 02:59:40.80	298.98	31.05	-53.8	-56.5	13.8	0.00e+00	0	28	0	829423616	74	4728
2026-01-15 02:59:41.80	298.67	30.96	-53.7	-56.2	13.9	0.00e+00	0	28	0	831520768	73	4847
2026-01-15 02:59:42.80	298.36	30.87	-53.2	-55.5	14.2	0.00e+00	0	28	0	832569344	73	4456
2026-01-15 02:59:43.80	298.05	30.78	-53.0	-55.2	14.2	0.00e+00	0	28	0	834666496	72	4575
2026-01-15 02:59:44.80	297.74	30.69	-52.6	-54.7	14.3	0.00e+00	0	28	0	836763648	71	4576
2026-01-15 02:59:45.80	297.43	30.59	-52.9	-55.1	14.2	0.00e+00	0	28	0	838860800	71	4784
2026-01-15 02:59:46.80	297.13	30.50	-53.6	-56.1	13.8	0.00e+00	0	28	0	839909376	72	5060
2026-01-15 02:59:47.80	296.83	30.40	-54.1	-56.9	13.5	0.00e+00	0	28	0	842006528	73	5260
2026-01-15 02:59:48.80	296.53	30.31	-54.7	-57.9	13.2	0.00e+00	0	28	0	844103680	74	5535
2026-01-15 02:59:49.80	296.23	30.21	-55.0	-58.2	13.0	0.00e+00	0	28	0	846200832	75	5454
2026-01-15 02:59:50.79	295.93	30.12	-54.9	-58.1	13.1	0.00e+00	0	28	0	848297984	75	5378
2026-01-15 02:59:51.80	295.63	30.02	-55.0	-58.2	13.0	0.00e+00	0	28	0	849346560	75	5420
2026-01-15 02:59:52.81	295.34	29.92	-54.2	-56.9	13.8	0.00e+00	0	28	0	851443712	75	4652
2026-01-15 02:59:53.81	295.05	29.82	-53.9	-56.4	13.9	0.00e+00	0	28	0	853540864	74	4662
2026-01-15 02:59:54.81	294.76	29.72	-54.2	-56.8	13.7	0.00e+00	0	28	0	855638016	74	4922
2026-01-15 02:59:55.82	294.46	29.62	-54.8	-57.7	13.3	0.00e+00	0	28	0	857735168	74	5452
2026-01-15 02:59:56.82	294.18	29.52	-55.5	-59.0	12.6	0.00e+00	0	28	0	858783744	76	5620
2026-01-15 02:59:57.82	293.89	29.42	-55.9	-59.8	12.3	0.00e+00	0	28	0	860880896	77	5851
2026-01-15 02:59:58.83	293.61	29.32	-56.0	-59.9	12.2	7.00e-07	0	28	0	862978048	77	5900
2026-01-15 02:59:59.82	293.33	29.22	-55.5	-59.0	12.8	0.00e+00	0	28	0	865075200	77	5285
2026-01-15 03:00:00.82	293.05	29.12	-55.1	-58.2	13.1	0.00e+00	0	28	0	867172352	76	5152
2026-01-15 03:00:01.83	292.77	29.02	-54.7	-57.6	13.5	0.00e+00	0	28	0	868220928	76	4794
2026-01-15 03:00:02.83	292.49	28.92	-54.7	-57.7	13.4	0.00e+00	0	28	0	870318080	75	5109
2026-01-15 03:00:03.84	292.22	28.81	-54.5	-57.2	13.6	0.00e+00	0	28	0	872415232	75	4861
2026-01-15 03:00:04.84	291.94	28.71	-54.5	-57.3	13.6	0.00e+00	0	28	0	874512384	75	4898
2026-01-15 03:00:05.83	291.68	28.61	-54.5	-57.3	13.6	0.00e+00	0	28	0	876609536	75	4900
2026-01-15 03:00:06.83	291.41	28.51	-54.7	-57.6	13.4	0.00e+00	0	28	0	877658112	75	5067
2026-01-15 03:00:07.83	291.14	28.40	-54.9	-57.9	13.2	0.00e+00	0	28	0	879755264	75	5248
2026-01-15 03:00:08.83	290.87	28.30	-55.0	-58.0	13.2	0.00e+00	0	28	0	881852416	75	5322
2026-01-15 03:00:09.83	290.61	28.19	-54.6	-57.4	13.5	0.00e+00	0	28	0	883949568	75	4951
2026-01-15 03:00:10.83	290.35	28.09	-54.2	-56.7	13.9	0.00e+00	0	28	0	884998144	75	4571
2026-01-15 03:00:11.82	290.09	27.98	-53.7	-55.9	14.1	0.00e+00	0	28	0	887095296	74	4431
2026-01-15 03:00:12.82	289.83	27.88	-53.4	-55.5	14.2	0.00e+00	0	28	0	889192448	73	4486
2026-01-15 03:00:13.82	289.58	27.77	-53.3	-55.5	14.2	0.00e+00	0	28	0	891289600	73	4467
2026-01-15 03:00:14.81	289.32	27.67	-53.3	-55.4	14.2	0.00e+00	0	28	0	893386752	73	4437
2026-01-15 03:00:15.81	289.07	27.56	-53.4	-55.6	14.1	0.00e+00	0	28	0	894435328	72	4778
2026-01-15 03:00:16.81	288.82	27.46	-53.6	-55.9	14.0	0.00e+00	0	28	0	896532480	72	4935
2026-01-15 03:00:17.81	288.57	27.35	-53.9	-56.3	13.7	0.00e+00	0	28	0	898629632	72	5203
2026-01-15 03:00:18.81	288.32	27.25	-53.9	-56.3	13.9	0.00e+00	0	28	0	900726784	73	4902
2026-01-15 03:00:19.80	288.08	27.14	-53.9	-56.4	13.8	0.00e+00	0	28	0	901775360	73	4950
2026-01-15 03:00:20.81	287.83	27.03	-53.8	-56.2	13.9	0.00e+00	0	28	0	903872512	73	4848
2026-01-15 03:00:21.81	287.59	26.92	-53.6	-56.0	14.0	0.00e+00	0	28	0	905969664	73	4708
2026-01-15 03:00:22.80	287.35	26.82	-53.3	-55.5	14.2	0.00e+00	0	28	0	908066816	73	4454
2026-01-15 03:00:23.80	287.11	26.71	-53.1	-55.2	14.2	0.00e+00	0	28	0	910163968	72	4593
2026-01-15 03:00:24.80	286.87	26.60	-53.2	-55.3	14.3	0.00e+00	0	28	0	911212544	72	4619
2026-01-15 03:00:25.80	286.63	26.50	-53.3	-55.5	14.1	0.00e+00	0	28	0	913309696	72	4728
2026-01-15 03:00:26.80	286.40	26.39	-53.3	-55.4	14.1	0.00e+00	0	28	0	915406848	72	4693
2026-01-15 03:00:27.80	286.16	26.28	-53.4	-55.6	14.1	0.00e+00	0	28	0	917504000	72	4769
2026-01-15 03:00:28.81	285.93	26.17	-53.2	-55.3	14.2	0.00e+00	0	28	0	919601152	72	4634
2026-01-15 03:00:29.81	285.70	26.06	-53.1	-55.2	14.3	0.00e+00	0	28	0	920649728	72	4551
2026-01-15 03:00:30.82	285.47	25.96	-52.7	-54.7	14.5	0.00e+00	0	28	0	922746880	72	4325
2026-01-15 03:00:31.82	285.24	25.85	-52.3	-54.1	14.6	0.00e+00	0	28	0	924844032	71	4279
2026-01-15 03:00:32.82	285.01	25.74	-52.1	-53.9	14.6	0.00e+00	0	28	0	926941184	70	4416
2026-01-15 03:00:33.82	284.79	25.63	-52.0	-53.8	14.6	0.00e+00	0	28	0	929038336	70	4351
2026-01-15 03:00:34.81	284.57	25.52	-51.8	-53.6	14.7	0.00e+00	0	28	0	930086912	70	4243
2026-01-15 03:00:35.81	284.35	25.42	-51.7	-53.4	14.6	0.00e+00	0	28	0	932184064	69	4441
2026-01-15 03:00:36.82	284.13	25.31	-52.0	-53.8	14.5	0.00e+00	0	28	0	934281216	69	4640
2026-01-15 03:00:37.82	283.91	25.20	-52.2	-54.1	14.4	0.00e+00	0	28	0	936378368	69	4782
2026-01-15 03:00:38.82	283.69	25.09	-52.5	-54.5	14.3	0.00e+00	0	28	0	938475520	70	4729
2026-01-15 03:00:39.83	283.47	24.98	-52.6	-54.6	14.3	0.00e+00	0	28	0	939524096	70	4800
2026-01-15 03:00:40.83	283.26	24.87	-52.7	-54.7	14.2	0.00e+00	0	28	0	941621248	70	4870
2026-01-15 03:00:41.83	283.05	24.76	-52.5	-54.5	14.3	0.00e+00	0	28	0	943718400	70	4707
2026-01-15 03:00:42.83	282.84	24.66	-52.1	-53.9	14.6	0.00e+00	0	28	0	945815552	70	4434
2026-01-15 03:00:43.83	282.63	24.55	-52.2	-54.0	14.6	0.00e+00	0	28	0	946864128	70	4464
2026-01-15 03:00:44.83	282.42	24.44	-52.2	-54.0	14.5	0.00e+00	0	28	0	948961280	70	4446
2026-01-15 03:00:45.83	282.21	24.33	-52.1	-53.9	14.6	0.00e+00	0	28	0	951058432	70	4438
2026-01-15 03:00:46.83	282.01	24.22	-52.2	-54.1	14.5	0.00e+00	0	28	0	953155584	70	4513
2026-01-15 03:00:47.83	281.81	24.11	-52.4	-54.3	14.5	0.00e+00	0	28	0	955252736	70	4608
2026-01-15 03:00:48.83	281.60	24.01	-52.2	-54.1	14.5	0.00e+00	0	27	0	956301312	70	4518
2026-01-15 03:00:49.83	281.40	23.90	-52.3	-54.1	14.5	0.00e+00	0	28	0	958398464	70	4536
2026-01-15 03:00:50.83	281.20	23.79	-52.2	-54.0	14.5	0.00e+00	0	28	0	960495616	70	4490
2026-01-15 03:00:51.83	281.01	23.68	-52.3	-54.2	14.5	0.00e+00	0	28	0	962592768	70	4553
2026-01-15 03:00:52.83	280.81	23.58	-52.1	-54.0	14.5	0.00e+00	0	28	0	964689920	70	4445
2026-01-15 03:00:53.82	280.62	23.47	-52.2	-54.0	14.5	0.00e+00	0	28	0	965738496	70	4462
2026-01-15 03:00:54.82	280.42	23.36	-52.3	-54.2	14.5	0.00e+00	0	28	0	967835648	70	4573
2026-01-15 03:00:55.82	280.23	23.25	-52.0	-53.8	14.6	0.00e+00	0	28	0	969932800	70	4382
2026-01-15 03:00:56.82	280.04	23.15	-52.0	-53.8	14.6	0.00e+00	0	28	0	972029952	70	4344
2026-01-15 03:00:57.82	279.85	23.04	-52.0	-53.8	14.6	0.00e+00	0	28	0	974127104	70	4367
2026-01-15 03:00:58.82	279.66	22.93	-52.0	-53.8	14.6	0.00e+00	0	28	0	975175680	70	4362
2026-01-15 03:00:59.82	279.47	22.82	-52.0	-53.8	14.6	0.00e+00	0	28	0	977272832	70	4364
2026-01-15 03:01:00.81	279.29	22.72	-52.2	-54.1	14.5	0.00e+00	0	28	0	979369984	70	4497
2026-01-15 03:01:01.81	279.10	22.61	-52.4	-54.3	14.4	0.00e+00	0	28	0	981467136	70	4620
2026-01-15 03:01:02.80	278.92	22.51	-52.4	-54.2	14.4	0.00e+00	0	28	0	982515712	70	4587
2026-01-15 03:01:03.81	278.74	22.40	-52.5	-54.4	14.4	0.00e+00	0	28	0	984612864	70	4657
2026-01-15 03:01:04.80	278.56	22.29	-52.4	-54.3	14.4	0.00e+00	0	28	0	986710016	70	4599
2026-01-15 03:01:05.80	278.38	22.19	-52.4	-54.3	14.4	0.00e+00	0	28	0	988807168	70	4613
2026-01-15 03:01:06.80	278.20	22.08	-52.3	-54.1	14.5	0.00e+00	0	28	0	990904320	70	4526
2026-01-15 03:01:07.80	278.03	21.97	-52.5	-54.4	14.3	0.00e+00	0	28	0	991952896	70	4698
2026-01-15 03:01:08.80	277.85	21.87	-52.5	-54.5	14.3	0.00e+00	0	28	0	994050048	70	4739
2026-01-15 03:01:09.79	277.68	21.76	-52.9	-55.0	14.1	0.00e+00	0	27	0	996147200	71	4731
2026-01-15 03:01:10.79	277.50	21.66	-53.0	-55.0	14.2	0.00e+00	0	28	0	998244352	71	4749
2026-01-15 03:01:11.79	277.33	21.55	-53.1	-55.2	14.1	0.00e+00	0	28	0	999292928	71	4854
2026-01-15 03:01:12.78	277.16	21.45	-53.0	-55.0	14.2	0.00e+00	0	28	0	1001390080	71	4747
2026-01-15 03:01:13.79	276.99	21.34	-53.0	-55.0	14.2	0.00e+00	0	28	0	1003487232	71	4744
2026-01-15 03:01:14.79	276.82	21.24	-53.1	-55.2	14.1	0.00e+00	0	28	0	1005584384	71	4861
2026-01-15 03:01:15.78	276.66	21.13	-53.1	-55.3	14.1	0.00e+00	0	28	0	1007681536	71	4874
2026-01-15 03:01:16.78	276.49	21.03	-53.3	-55.4	14.1	0.00e+00	0	28	0	1008730112	71	4942
2026-01-15 03:01:17.78	276.32	20.93	-53.4	-55.6	14.1	0.00e+00	0	28	0	1010827264	72	4788
2026-01-15 03:01:18.78	276.16	20.82	-53.9	-56.2	13.8	0.00e+00	0	28	0	1012924416	72	5148
2026-01-15 03:01:19.78	276.00	20.72	-53.7	-56.0	14.0	0.00e+00	0	28	0	1015021568	73	4710
2026-01-15 03:01:20.79	275.83	20.61	-54.0	-56.5	13.7	0.00e+00	0	28	0	1017118720	73	5025
2026-01-15 03:01:21.79	275.67	20.51	-53.7	-56.1	13.9	0.00e+00	0	28	0	1018167296	73	4791
2026-01-15 03:01:22.80	275.51	20.40	-53.8	-56.2	13.9	0.00e+00	0	28	0	1020264448	73	4841
2026-01-15 03:01:23.80	275.35	20.30	-53.5	-55.7	14.1	0.00e+00	0	28	0	1022361600	73	4573
2026-01-15 03:01:24.80	275.20	20.20	-53.3	-55.4	14.2	0.00e+00	0	28	0	1024458752	73	4440
2026-01-15 03:01:25.81	275.04	20.09	-53.3	-55.5	14.2	0.00e+00	0	28	0	1025507328	73	4468
2026-01-15 03:01:26.80	274.88	19.99	-53.2	-55.4	14.3	0.00e+00	0	28	0	1027604480	73	4396
2026-01-15 03:01:27.80	274.73	19.89	-53.3	-55.5	14.1	0.00e+00	0	28	0	1029701632	72	4728
2026-01-15 03:01:28.80	274.58	19.79	-53.3	-55.5	14.1	0.00e+00	0	28	0	1031798784	72	4744
2026-01-15 03:01:29.80	274.42	19.68	-53.4	-55.7	14.0	0.00e+00	0	28	0	1033895936	72	4844
2026-01-15 03:01:30.80	274.27	19.58	-53.2	-55.3	14.1	0.00e+00	0	28	0	1034944512	72	4640
2026-01-15 03:01:31.80	274.12	19.48	-53.4	-55.6	14.0	0.00e+00	0	28	0	1037041664	72	4804
2026-01-15 03:01:32.79	273.97	19.38	-53.4	-55.6	14.0	0.00e+00	0	28	0	1039138816	72	4782
2026-01-15 03:01:33.79	273.83	19.28	-53.0	-55.1	14.2	0.00e+00	0	28	0	1041235968	72	4527
2026-01-15 03:01:34.79	273.68	19.18	-52.7	-54.7	14.4	0.00e+00	0	28	0	1043333120	72	4310
2026-01-15 03:01:35.79	273.53	19.08	-52.5	-54.5	14.4	0.00e+00	0	28	0	1044381696	71	4465
2026-01-15 03:01:36.80	273.39	18.98	-52.3	-54.2	14.5	0.00e+00	0	28	0	1046478848	71	4332
2026-01-15 03:01:37.79	273.24	18.88	-52.3	-54.2	14.5	0.00e+00	0	28	0	1048576000	71	4340
2026-01-15 03:01:38.80	273.10	18.77	-52.6	-54.6	14.4	0.00e+00	0	28	0	1050673152	71	4500
2026-01-15 03:01:39.79	272.96	18.68	-52.4	-54.3	14.5	0.00e+00	0	28	0	1052770304	71	4386
2026-01-15 03:01:40.80	272.82	18.57	-52.4	-54.3	14.5	0.00e+00	0	28	0	1053818880	71	4383
2026-01-15 03:01:41.80	272.67	18.48	-52.6	-54.5	14.4	0.00e+00	0	28	0	1055916032	71	4475
2026-01-15 03:01:42.80	272.54	18.38	-52.7	-54.6	14.4	0.00e+00	0	28	0	1058013184	71	4539
2026-01-15 03:01:43.80	272.40	18.28	-52.7	-54.6	14.3	0.00e+00	0	28	0	1060110336	71	4541
2026-01-15 03:01:44.80	272.26	18.18	-52.7	-54.6	14.3	0.00e+00	0	28	0	1061158912	71	4545
2026-01-15 03:01:45.80	272.12	18.08	-52.4	-54.3	14.5	0.00e+00	0	28	0	1063256064	71	4352
2026-01-15 03:01:46.79	271.99	17.98	-52.1	-53.9	14.5	0.00e+00	0	28	0	1065353216	70	4429
2026-01-15 03:01:47.79	271.85	17.88	-52.5	-54.3	14.3	0.00e+00	0	28	0	1067450368	70	4651
2026-01-15 03:01:48.78	271.72	17.79	-52.4	-54.3	14.4	0.00e+00	0	28	0	1069547520	70	4619
2026-01-15 03:01:49.78	271.59	17.69	-52.3	-54.2	14.4	0.00e+00	0	28	0	1070596096	70	4578
2026-01-15 03:01:50.77	271.46	17.59	-52.3	-54.2	14.4	0.00e+00	0	28	0	1072693248	70	4571
2026-01-15 03:01:51.78	271.32	17.49	-52.3	-54.2	14.4	0.00e+00	0	28	0	1074790400	70	4551
2026-01-15 03:01:52.78	271.19	17.40	-52.3	-54.1	14.4	0.00e+00	0	28	0	1076887552	70	4543
2026-01-15 03:01:53.78	271.06	17.30	-52.2	-54.1	14.5	0.00e+00	0	28	0	1078984704	70	4521
2026-01-15 03:01:54.78	270.93	17.20	-52.5	-54.5	14.3	0.00e+00	0	28	0	1080033280	70	4713
2026-01-15 03:01:55.78	270.81	17.11	-52.6	-54.6	14.2	0.00e+00	0	28	0	1082130432	70	4793
2026-01-15 03:01:56.77	270.68	17.01	-52.8	-54.9	14.1	0.00e+00	0	28	0	1084227584	70	4962
2026-01-15 03:01:57.77	270.55	16.92	-53.3	-55.5	14.0	0.00e+00	0	28	0	1086324736	71	5016
2026-01-15 03:01:58.78	270.43	16.82	-53.7	-56.1	13.8	0.00e+00	0	28	0	1087373312	72	5093
2026-01-15 03:01:59.78	270.30	16.72	-54.2	-56.9	13.5	0.00e+00	0	28	0	1089470464	73	5232
2026-01-15 03:02:00.78	270.18	16.63	-54.5	-57.2	13.4	0.00e+00	0	28	0	1091567616	74	5143
2026-01-15 03:02:01.78	270.06	16.53	-54.7	-57.7	13.2	0.00e+00	0	28	0	1093664768	74	5412
2026-01-15 03:02:02.78	269.93	16.44	-54.5	-57.2	13.4	0.00e+00	0	28	0	1095761920	74	5154
2026-01-15 03:02:03.78	269.81	16.34	-54.3	-57.0	13.5	0.00e+00	0	28	0	1096810496	74	5024
2026-01-15 03:02:04.78	269.69	16.25	-54.0	-56.4	13.8	0.00e+00	0	28	0	1098907648	74	4697
2026-01-15 03:02:05.77	269.57	16.16	-53.6	-56.0	13.9	0.00e+00	0	28	0	1101004800	73	4711
2026-01-15 03:02:06.77	269.45	16.06	-53.1	-55.2	14.1	0.00e+00	0	28	0	1103101952	72	4597
2026-01-15 03:02:07.76	269.34	15.97	-52.9	-54.9	14.3	0.00e+00	0	28	0	1104150528	72	4440
2026-01-15 03:02:08.76	269.22	15.88	-52.6	-54.5	14.4	0.00e+00	0	28	0	1106247680	71	4483
2026-01-15 03:02:09.76	269.10	15.78	-52.4	-54.4	14.4	0.00e+00	0	28	0	1108344832	71	4395
2026-01-15 03:02:10.76	268.98	15.69	-52.7	-54.7	14.3	0.00e+00	0	28	0	1110441984	71	4555
2026-01-15 03:02:11.76	268.87	15.60	-52.6	-54.7	14.3	0.00e+00	0	28	0	1112539136	71	4546
2026-01-15 03:02:12.76	268.75	15.50	-52.8	-54.9	14.2	0.00e+00	0	28	0	1113587712	71	4684
2026-01-15 03:02:13.76	268.64	15.41	-53.1	-55.4	14.0	0.00e+00	0	28	0	1115684864	71	4933
2026-01-15 03:02:14.76	268.53	15.32	-53.3	-55.6	13.9	0.00e+00	0	28	0	1117782016	71	5067
2026-01-15 03:02:15.76	268.41	15.23	-53.6	-56.0	13.8	0.00e+00	0	28	0	1119879168	72	4996
2026-01-15 03:02:16.76	268.30	15.14	-53.8	-56.3	13.6	0.00e+00	0	28	0	1121976320	72	5211
2026-01-15 03:02:17.76	268.19	15.05	-54.2	-56.8	13.5	0.00e+00	0	28	0	1123024896	73	5200
2026-01-15 03:02:18.76	268.08	14.95	-54.0	-56.5	13.6	0.00e+00	0	28	0	1125122048	73	5038
2026-01-15 03:02:19.76	267.97	14.86	-54.0	-56.6	13.6	0.00e+00	0	28	0	1127219200	73	5086
2026-01-15 03:02:20.76	267.86	14.77	-54.1	-56.7	13.5	0.00e+00	0	28	0	1129316352	73	5144
2026-01-15 03:02:21.76	267.75	14.68	-54.0	-56.5	13.6	0.00e+00	0	28	0	1131413504	73	5033
2026-01-15 03:02:22.76	267.64	14.59	-53.9	-56.4	13.8	0.00e+00	0	28	0	1132462080	73	4932
2026-01-15 03:02:23.76	267.54	14.50	-53.9	-56.4	13.7	0.00e+00	0	28	0	1134559232	73	4961
2026-01-15 03:02:24.75	267.43	14.41	-53.7	-56.1	13.8	0.00e+00	0	28	0	1136656384	73	4794
2026-01-15 03:02:25.75	267.33	14.32	-53.7	-56.1	13.8	0.00e+00	0	28	0	1138753536	73	4808
2026-01-15 03:02:26.75	267.22	14.24	-53.8	-56.3	13.8	0.00e+00	0	28	0	1139802112	73	4876
2026-01-15 03:02:27.75	267.12	14.15	-53.7	-56.2	13.8	0.00e+00	0	28	0	1141899264	73	4830
2026-01-15 03:02:28.75	267.01	14.06	-54.0	-56.5	13.7	0.00e+00	0	28	0	1143996416	73	5023
2026-01-15 03:02:29.75	266.91	13.97	-54.0	-56.6	13.6	0.00e+00	0	28	0	1146093568	73	5087
2026-01-15 03:02:30.76	266.81	13.88	-54.1	-56.7	13.5	0.00e+00	0	28	0	1148190720	73	5106
2026-01-15 03:02:31.77	266.70	13.79	-54.1	-56.7	13.6	0.00e+00	0	28	0	1150287872	73	5112
2026-01-15 03:02:32.77	266.60	13.70	-54.1	-56.7	13.6	0.00e+00	0	28	0	1151336448	73	5108
2026-01-15 03:02:33.77	266.50	13.61	-54.2	-56.8	13.5	0.00e+00	0	28	0	1153433600	73	5179
2026-01-15 03:02:34.77	266.40	13.53	-54.1	-56.7	13.5	0.00e+00	0	28	0	1155530752	73	5103
2026-01-15 03:02:35.77	266.30	13.44	-54.2	-56.8	13.4	0.00e+00	0	28	0	1157627904	73	5213
2026-01-15 03:02:36.78	266.20	13.35	-54.2	-56.8	13.5	0.00e+00	0	28	0	1158676480	73	5206
2026-01-15 03:02:37.78	266.10	13.27	-54.2	-56.9	13.4	0.00e+00	0	28	0	1160773632	73	5228
2026-01-15 03:02:38.78	266.01	13.18	-54.3	-57.0	13.3	0.00e+00	0	28	0	1162870784	73	5323
2026-01-15 03:02:39.78	265.91	13.09	-54.3	-57.1	13.4	0.00e+00	0	28	0	1164967936	74	5058
2026-01-15 03:02:40.78	265.81	13.01	-54.2	-56.9	13.5	0.00e+00	0	28	0	1167065088	74	4945
2026-01-15 03:02:41.78	265.72	12.92	-54.2	-56.8	13.5	0.00e+00	0	28	0	1168113664	74	4903
2026-01-15 03:02:42.78	265.62	12.84	-54.2	-56.8	13.6	0.00e+00	0	28	0	1170210816	74	4886
2026-01-15 03:02:43.78	265.53	12.75	-54.0	-56.5	13.7	0.00e+00	0	27	0	1172307968	74	4734
2026-01-15 03:02:44.78	265.43	12.66	-53.9	-56.4	13.8	0.00e+00	0	28	0	1174405120	74	4652
2026-01-15 03:02:45.79	265.34	12.58	-53.8	-56.2	13.9	0.00e+00	0	28	0	1176502272	74	4562
2026-01-15 03:02:46.79	265.24	12.49	-53.6	-55.9	13.9	0.00e+00	0	28	0	1177550848	73	4700
2026-01-15 03:02:47.79	265.15	12.41	-53.5	-55.8	14.0	0.00e+00	0	28	0	1179648000	73	4604
2026-01-15 03:02:48.79	265.06	12.32	-53.6	-56.0	13.9	0.00e+00	0	28	0	1181745152	73	4719
2026-01-15 03:02:49.79	264.97	12.24	-53.3	-55.4	14.1	0.00e+00	0	28	0	1183842304	73	4441
2026-01-15 03:02:50.79	264.88	12.16	-53.3	-55.5	14.1	0.00e+00	0	28	0	1184890880	73	4465
2026-01-15 03:02:51.80	264.79	12.07	-53.4	-55.6	14.0	0.00e+00	0	28	0	1186988032	73	4531
2026-01-15 03:02:52.80	264.70	11.99	-53.4	-55.7	14.0	0.00e+00	0	28	0	1189085184	73	4582
2026-01-15 03:02:53.80	264.61	11.91	-53.6	-55.9	13.9	0.00e+00	0	28	0	1191182336	73	4700
2026-01-15 03:02:54.80	264.52	11.82	-53.8	-56.2	13.7	0.00e+00	0	28	0	1193279488	73	4857
2026-01-15 03:02:55.81	264.43	11.74	-53.9	-56.4	13.7	0.00e+00	0	28	0	1194328064	73	4928
2026-01-15 03:02:56.81	264.34	11.66	-54.1	-56.7	13.5	0.00e+00	0	28	0	1196425216	73	5141
2026-01-15 03:02:57.82	264.25	11.57	-54.4	-57.2	13.3	0.00e+00	0	28	0	1198522368	73	5423
2026-01-15 03:02:58.82	264.16	11.49	-54.6	-57.4	13.2	0.00e+00	0	28	0	1200619520	74	5251
2026-01-15 03:02:59.82	264.08	11.41	-54.9	-58.0	12.9	0.00e+00	0	28	0	1202716672	74	5626
2026-01-15 03:03:00.82	263.99	11.33	-55.1	-58.3	12.7	0.00e+00	0	28	0	1203765248	75	5522
2026-01-15 03:03:01.83	263.91	11.24	-55.2	-58.6	12.6	0.00e+00	0	28	0	1205862400	75	5680
2026-01-15 03:03:02.83	263.82	11.16	-55.4	-58.8	12.5	0.00e+00	0	28	0	1207959552	75	5833
2026-01-15 03:03:03.83	263.74	11.08	-55.6	-59.1	12.4	0.00e+00	0	28	0	1210056704	76	5683
2026-01-15 03:03:04.82	263.65	11.00	-55.3	-58.7	12.5	0.00e+00	0	28	0	1212153856	76	5412
2026-01-15 03:03:05.82	263.57	10.92	-55.3	-58.7	12.6	0.00e+00	0	28	0	1213202432	76	5408
2026-01-15 03:03:06.81	263.49	10.84	-55.5	-59.1	12.4	0.00e+00	0	28	0	1215299584	76	5679
2026-01-15 03:03:07.81	263.41	10.76	-55.3	-58.6	12.7	0.00e+00	0	28	0	1217396736	76	5387
2026-01-15 03:03:08.80	263.33	10.68	-55.2	-58.4	12.9	0.00e+00	0	28	0	1219493888	76	5229
2026-01-15 03:03:09.80	263.24	10.60	-55.2	-58.4	12.8	0.00e+00	0	28	0	1220542464	76	5243
2026-01-15 03:03:10.80	263.16	10.52	-55.0	-58.1	13.0	0.00e+00	0	28	0	1222639616	76	5078
