passes_logs/2026/01/15/R3.2S_Murmansk/R3.2S_Murmansk__20260115_125241_SUOMI_NPP_rec.log

#Pass ID: 20260115_125241_SUOMI NPP
#Satellite: SUOMI NPP
#Configuration: NPP
#almurnet v.1.7.20251203
#Start time: 2026-01-15 12:52:42

#Version: 2.2.20231116
#Station: R3.2S_Murmansk
#Location: 33.079688 lon 68.888172 lat
#TLE: 1 37849U 11061A   26014.61059675  .00000037  00000+0  38639-4 0  9994
#TLE: 2 37849  98.7810 316.6625 0002460  64.3781 295.7649 14.19525105736658

#Time	Az	El	Level	Level2	SNR	BER	BlckErr	Temp	State	Recorded	gain1	gain2
2026-01-15 12:52:42.29	237.04	2.02	-59.0	-75.0	3.8	1.49e+00	0	26	0	0	84	22464
2026-01-15 12:52:43.29	237.14	2.07	-58.8	-74.8	3.8	1.49e+00	0	26	104	0	82	24500
2026-01-15 12:52:44.29	237.23	2.11	-58.8	-74.8	3.8	1.49e+00	0	26	104	0	82	24529
2026-01-15 12:52:45.29	237.33	2.16	-58.8	-74.8	3.8	1.49e+00	0	26	104	0	82	24542
2026-01-15 12:52:46.29	237.42	2.21	-58.8	-74.8	3.8	1.49e+00	0	26	104	0	82	24658
2026-01-15 12:52:47.29	237.52	2.25	-58.8	-74.9	3.8	1.49e+00	0	26	104	0	82	24710
2026-01-15 12:52:48.29	237.61	2.30	-58.8	-74.8	3.8	1.49e+00	0	26	104	0	82	24596
2026-01-15 12:52:49.30	237.71	2.35	-58.8	-74.8	3.8	1.49e+00	0	26	104	0	82	24618
2026-01-15 12:52:50.30	237.81	2.40	-58.8	-74.8	3.8	1.49e+00	0	26	104	0	82	24563
2026-01-15 12:52:51.31	237.90	2.44	-58.8	-74.8	3.8	1.49e+00	0	26	104	0	82	24659
2026-01-15 12:52:52.31	238.00	2.49	-58.8	-74.8	3.8	1.49e+00	0	26	104	0	82	24617
2026-01-15 12:52:53.31	238.10	2.54	-58.8	-74.8	3.8	1.49e+00	0	27	104	0	82	24663
2026-01-15 12:52:54.32	238.20	2.58	-58.8	-74.8	3.8	1.49e+00	0	26	104	0	82	24668
2026-01-15 12:52:55.32	238.29	2.63	-58.8	-74.8	3.8	1.49e+00	0	26	104	0	82	24651
2026-01-15 12:52:56.32	238.39	2.68	-58.8	-74.9	3.8	1.49e+00	0	26	104	0	82	24694
2026-01-15 12:52:57.32	238.49	2.73	-58.8	-74.8	3.8	1.49e+00	0	26	104	0	82	24604
2026-01-15 12:52:58.32	238.59	2.77	-58.8	-74.8	3.8	1.49e+00	0	26	104	0	82	24516
2026-01-15 12:52:59.31	238.69	2.82	-58.8	-74.8	3.8	1.49e+00	0	27	104	0	82	24581
2026-01-15 12:53:00.31	238.79	2.87	-58.8	-74.8	3.8	1.49e+00	0	27	104	0	82	24629
2026-01-15 12:53:01.31	238.89	2.91	-58.8	-74.8	3.8	1.49e+00	0	26	104	0	82	24656
2026-01-15 12:53:02.31	238.99	2.96	-58.8	-74.8	3.8	1.49e+00	0	26	104	0	82	24608
2026-01-15 12:53:03.31	239.09	3.01	-58.8	-74.8	3.8	1.49e+00	0	27	104	0	82	24567
2026-01-15 12:53:04.31	239.19	3.05	-58.8	-74.8	3.8	1.49e+00	0	27	104	0	82	24515
2026-01-15 12:53:05.32	239.29	3.10	-58.8	-74.8	3.8	1.49e+00	0	27	104	0	82	24499
2026-01-15 12:53:06.32	239.39	3.15	-58.8	-74.8	3.8	1.49e+00	0	27	104	0	82	24458
2026-01-15 12:53:07.31	239.49	3.20	-58.8	-74.8	3.8	1.49e+00	0	27	104	0	82	24434
2026-01-15 12:53:08.31	239.59	3.24	-58.8	-74.8	3.8	1.49e+00	0	27	104	0	82	24462
2026-01-15 12:53:09.31	239.69	3.29	-58.8	-74.8	3.8	1.49e+00	0	27	104	0	82	24562
2026-01-15 12:53:10.30	239.79	3.34	-58.8	-74.8	3.9	1.49e+00	0	27	104	0	82	24565
2026-01-15 12:53:11.30	239.90	3.38	-58.8	-74.8	3.8	1.49e+00	0	27	104	0	82	24524
2026-01-15 12:53:12.29	240.00	3.43	-58.8	-74.8	3.8	1.49e+00	0	27	104	0	82	24666
2026-01-15 12:53:13.29	240.10	3.48	-58.8	-74.8	3.8	1.49e+00	0	27	104	0	82	24590
2026-01-15 12:53:14.30	240.21	3.53	-58.8	-74.8	3.8	1.49e+00	0	27	104	0	82	24577
2026-01-15 12:53:15.30	240.31	3.57	-58.8	-74.8	3.8	1.49e+00	0	27	104	0	82	24583
2026-01-15 12:53:16.30	240.41	3.62	-58.8	-74.8	3.8	1.49e+00	0	27	104	0	82	24668
2026-01-15 12:53:17.30	240.52	3.67	-58.8	-74.9	3.8	1.49e+00	0	27	104	0	82	24765
2026-01-15 12:53:18.30	240.62	3.71	-58.8	-74.9	3.8	1.49e+00	0	27	104	0	82	24752
2026-01-15 12:53:19.30	240.73	3.76	-58.8	-74.9	3.8	1.49e+00	0	27	104	0	82	24727
2026-01-15 12:53:20.31	240.84	3.81	-58.8	-74.9	3.8	1.49e+00	0	27	104	0	82	24741
2026-01-15 12:53:21.31	240.94	3.86	-58.8	-74.9	3.8	1.49e+00	0	27	104	0	82	24770
2026-01-15 12:53:22.31	241.05	3.90	-58.8	-74.9	3.8	1.49e+00	0	27	104	0	82	24701
2026-01-15 12:53:23.31	241.15	3.95	-58.8	-74.8	3.8	1.49e+00	0	27	104	0	82	24587
2026-01-15 12:53:24.31	241.26	4.00	-58.8	-74.8	3.8	1.49e+00	0	27	104	0	82	24474
2026-01-15 12:53:25.31	241.37	4.04	-58.8	-74.7	3.8	1.49e+00	0	27	104	0	82	24353
2026-01-15 12:53:26.30	241.48	4.09	-58.8	-74.7	3.8	1.49e+00	0	27	104	0	82	24245
2026-01-15 12:53:27.29	241.58	4.14	-58.8	-74.7	3.8	1.49e+00	0	27	104	0	82	24172
2026-01-15 12:53:28.29	241.69	4.18	-58.8	-74.6	3.8	1.49e+00	0	27	104	0	82	23972
2026-01-15 12:53:29.29	241.80	4.23	-58.8	-74.5	3.8	1.49e+00	0	27	104	0	82	23769
2026-01-15 12:53:30.29	241.91	4.28	-58.8	-74.5	3.8	1.49e+00	0	27	104	0	82	23808
2026-01-15 12:53:31.29	242.02	4.33	-58.8	-74.6	3.8	1.49e+00	0	27	104	0	82	24062
2026-01-15 12:53:32.29	242.13	4.37	-58.8	-74.8	3.8	1.49e+00	0	27	104	0	82	24510
2026-01-15 12:53:33.28	242.23	4.42	-58.8	-74.9	3.8	1.49e+00	0	27	104	0	82	24768
2026-01-15 12:53:34.28	242.34	4.47	-58.8	-74.4	3.8	1.49e+00	0	27	104	0	82	23418
2026-01-15 12:53:35.27	242.45	4.51	-58.8	-73.5	3.8	1.49e+00	0	27	104	0	82	21021
2026-01-15 12:53:36.27	242.57	4.56	-58.7	-71.7	4.1	1.46e+00	0	27	0	0	82	17135
2026-01-15 12:53:37.27	242.68	4.61	-58.6	-70.6	4.4	1.35e+00	80	27	0	0	82	15113
2026-01-15 12:53:38.26	242.79	4.66	-58.5	-69.5	4.8	9.40e-01	0	27	0	2097152	82	13270
2026-01-15 12:53:39.26	242.90	4.70	-58.4	-68.1	5.5	4.41e-01	0	27	0	3145728	82	11396
2026-01-15 12:53:40.25	243.01	4.75	-58.3	-67.2	6.1	3.35e-01	0	27	0	5242880	82	10278
2026-01-15 12:53:41.25	243.12	4.80	-57.9	-64.9	8.0	8.15e-02	0	27	0	7340032	82	7852
2026-01-15 12:53:42.26	243.24	4.84	-57.4	-63.3	9.2	2.05e-02	0	27	0	9437184	81	6931
2026-01-15 12:53:43.26	243.35	4.89	-56.6	-61.1	11.0	7.35e-04	0	27	0	11534336	79	6001
2026-01-15 12:53:44.27	243.46	4.94	-56.1	-59.9	11.8	4.34e-05	0	27	0	12582912	78	5569
2026-01-15 12:53:45.26	243.58	4.99	-55.5	-58.8	12.5	0.00e+00	0	27	0	14680064	77	5200
2026-01-15 12:53:46.25	243.69	5.03	-55.0	-58.0	12.9	0.00e+00	0	27	0	16777216	76	4984
2026-01-15 12:53:47.25	243.80	5.08	-55.3	-58.4	12.7	0.00e+00	0	27	0	18874368	76	5267
2026-01-15 12:53:48.24	243.92	5.13	-56.2	-60.0	11.7	2.14e-04	0	27	0	20971520	79	5335
2026-01-15 12:53:49.25	244.04	5.17	-55.2	-58.4	12.6	0.00e+00	0	27	0	22020096	75	5555
2026-01-15 12:53:50.25	244.15	5.22	-56.6	-61.2	10.8	7.43e-03	0	27	0	24117248	80	5771
2026-01-15 12:53:51.25	244.27	5.27	-56.6	-61.3	10.9	9.00e-05	0	27	0	26214400	79	6140
2026-01-15 12:53:52.25	244.38	5.31	-54.5	-57.4	13.2	0.00e+00	0	27	0	28311552	75	4966
2026-01-15 12:53:53.25	244.50	5.36	-53.9	-56.6	13.6	0.00e+00	0	27	0	29360128	74	4773
2026-01-15 12:53:54.25	244.62	5.41	-54.6	-57.6	12.9	0.00e+00	0	27	0	31457280	74	5394
2026-01-15 12:53:55.25	244.74	5.46	-54.3	-57.2	13.2	0.00e+00	0	27	0	33554432	74	5117
2026-01-15 12:53:56.24	244.85	5.50	-54.2	-57.1	13.3	0.00e+00	0	27	0	35651584	74	5062
2026-01-15 12:53:57.24	244.97	5.55	-54.2	-57.0	13.4	0.00e+00	0	27	0	37748736	74	5003
2026-01-15 12:53:58.24	245.09	5.60	-54.2	-57.0	13.4	0.00e+00	0	27	0	38797312	74	5000
2026-01-15 12:53:59.24	245.21	5.64	-54.3	-57.1	13.3	0.00e+00	0	27	0	40894464	74	5075
2026-01-15 12:54:00.25	245.33	5.69	-54.2	-57.0	13.4	0.00e+00	0	27	0	42991616	74	5034
2026-01-15 12:54:01.25	245.45	5.74	-54.3	-57.1	13.3	0.00e+00	0	27	0	45088768	74	5058
2026-01-15 12:54:02.25	245.57	5.78	-54.6	-57.5	13.1	0.00e+00	0	27	0	47185920	74	5335
2026-01-15 12:54:03.24	245.69	5.83	-54.5	-57.4	13.2	0.00e+00	0	27	0	48234496	74	5235
2026-01-15 12:54:04.24	245.81	5.88	-54.3	-57.2	13.3	0.00e+00	0	27	0	50331648	74	5102
2026-01-15 12:54:05.24	245.93	5.92	-54.3	-57.2	13.3	0.00e+00	0	27	0	52428800	74	5105
2026-01-15 12:54:06.24	246.05	5.97	-54.7	-57.8	12.9	0.00e+00	0	28	0	54525952	74	5472
2026-01-15 12:54:07.24	246.17	6.02	-54.6	-57.5	13.1	0.00e+00	0	28	0	55574528	74	5334
2026-01-15 12:54:08.24	246.30	6.06	-54.0	-56.8	13.5	0.00e+00	0	27	0	57671680	74	4873
2026-01-15 12:54:09.24	246.42	6.11	-54.4	-57.4	13.2	0.00e+00	0	27	0	59768832	74	5225
2026-01-15 12:54:10.24	246.54	6.16	-54.4	-57.4	13.1	0.00e+00	0	28	0	61865984	74	5246
2026-01-15 12:54:11.24	246.66	6.20	-54.3	-57.2	13.3	0.00e+00	0	27	0	63963136	74	5112
2026-01-15 12:54:12.25	246.79	6.25	-54.6	-57.6	13.0	0.00e+00	0	27	0	65011712	74	5363
2026-01-15 12:54:13.24	246.91	6.30	-54.5	-57.6	13.1	0.00e+00	0	27	0	67108864	74	5346
2026-01-15 12:54:14.24	247.04	6.34	-54.5	-57.4	13.2	0.00e+00	0	27	0	69206016	74	5247
2026-01-15 12:54:15.24	247.16	6.39	-54.6	-57.6	13.0	0.00e+00	0	28	0	71303168	74	5385
2026-01-15 12:54:16.24	247.29	6.44	-54.4	-57.3	13.2	0.00e+00	0	27	0	73400320	74	5206
2026-01-15 12:54:17.25	247.41	6.48	-54.5	-57.5	13.1	0.00e+00	0	27	0	74448896	74	5295
2026-01-15 12:54:18.24	247.54	6.53	-54.4	-57.2	13.3	0.00e+00	0	27	0	76546048	74	5157
2026-01-15 12:54:19.24	247.67	6.58	-54.7	-57.7	13.0	0.00e+00	0	27	0	78643200	74	5448
2026-01-15 12:54:20.24	247.79	6.62	-54.5	-57.4	13.2	0.00e+00	0	27	0	80740352	74	5238
2026-01-15 12:54:21.24	247.92	6.67	-54.6	-57.5	13.1	0.00e+00	0	28	0	82837504	74	5339
2026-01-15 12:54:22.23	248.05	6.72	-54.4	-57.2	13.3	0.00e+00	0	28	0	83886080	74	5151
2026-01-15 12:54:23.23	248.17	6.76	-54.5	-57.4	13.2	0.00e+00	0	28	0	85983232	74	5224
2026-01-15 12:54:24.22	248.30	6.81	-54.5	-57.4	13.2	0.00e+00	0	27	0	88080384	74	5243
2026-01-15 12:54:25.22	248.43	6.85	-54.4	-57.2	13.3	0.00e+00	0	27	0	90177536	74	5144
2026-01-15 12:54:26.22	248.56	6.90	-54.3	-57.2	13.3	0.00e+00	0	28	0	91226112	74	5143
2026-01-15 12:54:27.21	248.69	6.95	-54.1	-56.8	13.5	0.00e+00	0	28	0	93323264	74	4908
2026-01-15 12:54:28.21	248.82	6.99	-54.3	-57.2	13.3	0.00e+00	0	27	0	95420416	74	5104
2026-01-15 12:54:29.21	248.95	7.04	-54.3	-57.1	13.3	0.00e+00	0	27	0	97517568	74	5064
2026-01-15 12:54:30.21	249.08	7.08	-54.2	-57.0	13.4	0.00e+00	0	28	0	99614720	74	5041
2026-01-15 12:54:31.21	249.21	7.13	-54.3	-57.1	13.3	0.00e+00	0	28	0	100663296	74	5094
2026-01-15 12:54:32.21	249.34	7.18	-54.1	-56.9	13.5	0.00e+00	0	27	0	102760448	74	4941
2026-01-15 12:54:33.20	249.47	7.22	-54.3	-57.1	13.4	0.00e+00	0	28	0	104857600	74	5045
2026-01-15 12:54:34.20	249.61	7.27	-54.2	-56.9	13.5	0.00e+00	0	28	0	106954752	74	4951
2026-01-15 12:54:35.20	249.74	7.31	-54.2	-57.0	13.4	0.00e+00	0	27	0	108003328	74	4988
2026-01-15 12:54:36.20	249.87	7.36	-54.0	-56.6	13.6	0.00e+00	0	28	0	110100480	74	4796
2026-01-15 12:54:37.19	250.00	7.40	-54.0	-56.6	13.7	0.00e+00	0	28	0	112197632	74	4768
2026-01-15 12:54:38.20	250.14	7.45	-54.1	-56.8	13.5	0.00e+00	0	28	0	114294784	74	4916
2026-01-15 12:54:39.20	250.27	7.50	-54.0	-56.7	13.6	0.00e+00	0	28	0	116391936	74	4827
2026-01-15 12:54:40.19	250.41	7.54	-54.2	-57.0	13.5	0.00e+00	0	28	0	117440512	74	4986
2026-01-15 12:54:41.19	250.54	7.59	-53.9	-56.5	13.7	0.00e+00	0	28	0	119537664	74	4712
2026-01-15 12:54:42.18	250.68	7.63	-53.8	-56.4	13.7	0.00e+00	0	28	0	121634816	74	4688
2026-01-15 12:54:43.18	250.81	7.68	-54.0	-56.6	13.7	0.00e+00	0	28	0	123731968	74	4779
2026-01-15 12:54:44.18	250.95	7.72	-53.8	-56.3	13.8	0.00e+00	0	28	0	125829120	74	4617
2026-01-15 12:54:45.18	251.09	7.77	-53.6	-56.1	13.8	0.00e+00	0	28	0	126877696	73	4785
2026-01-15 12:54:46.18	251.22	7.81	-53.6	-56.1	13.8	0.00e+00	0	28	0	128974848	73	4798
2026-01-15 12:54:47.17	251.36	7.86	-53.6	-56.1	13.8	0.00e+00	0	28	0	131072000	73	4790
2026-01-15 12:54:48.17	251.50	7.90	-53.5	-55.9	13.9	0.00e+00	0	28	0	133169152	73	4667
2026-01-15 12:54:49.17	251.64	7.95	-53.5	-55.9	13.9	0.00e+00	0	28	0	134217728	73	4681
2026-01-15 12:54:50.17	251.78	7.99	-53.4	-55.8	14.0	0.00e+00	0	27	0	136314880	73	4627
2026-01-15 12:54:51.17	251.91	8.04	-53.4	-55.8	13.9	0.00e+00	0	28	0	138412032	73	4643
2026-01-15 12:54:52.17	252.05	8.08	-53.5	-55.9	13.9	0.00e+00	0	28	0	140509184	73	4705
2026-01-15 12:54:53.17	252.19	8.13	-53.4	-55.8	14.0	0.00e+00	0	28	0	142606336	73	4640
2026-01-15 12:54:54.17	252.34	8.17	-53.7	-56.2	13.8	0.00e+00	0	27	0	143654912	73	4859
2026-01-15 12:54:55.17	252.48	8.22	-53.7	-56.2	13.7	0.00e+00	0	28	0	145752064	73	4856
2026-01-15 12:54:56.17	252.62	8.26	-53.8	-56.4	13.6	0.00e+00	0	28	0	147849216	73	4972
2026-01-15 12:54:57.16	252.76	8.31	-53.8	-56.5	13.6	0.00e+00	0	28	0	149946368	73	4991
2026-01-15 12:54:58.15	252.90	8.35	-53.8	-56.5	13.6	0.00e+00	0	28	0	150994944	73	4996
2026-01-15 12:54:59.15	253.04	8.39	-53.9	-56.5	13.6	0.00e+00	0	28	0	153092096	73	5003
2026-01-15 12:55:00.14	253.18	8.44	-53.7	-56.3	13.7	0.00e+00	0	28	0	155189248	73	4894
2026-01-15 12:55:01.14	253.33	8.48	-53.7	-56.3	13.7	0.00e+00	0	28	0	157286400	73	4899
2026-01-15 12:55:02.14	253.47	8.53	-53.7	-56.3	13.8	0.00e+00	0	28	0	159383552	73	4877
2026-01-15 12:55:03.13	253.61	8.57	-53.7	-56.2	13.8	0.00e+00	0	28	0	160432128	73	4830
2026-01-15 12:55:04.13	253.76	8.61	-53.7	-56.3	13.7	0.00e+00	0	28	0	162529280	73	4883
2026-01-15 12:55:05.13	253.90	8.66	-53.7	-56.2	13.8	0.00e+00	0	28	0	164626432	73	4852
2026-01-15 12:55:06.13	254.05	8.70	-53.8	-56.4	13.7	0.00e+00	0	28	0	166723584	73	4957
2026-01-15 12:55:07.12	254.19	8.75	-53.9	-56.6	13.6	0.00e+00	0	28	0	168820736	73	5044
2026-01-15 12:55:08.12	254.34	8.79	-53.9	-56.5	13.6	0.00e+00	0	28	0	169869312	73	5027
2026-01-15 12:55:09.12	254.49	8.83	-53.9	-56.6	13.6	0.00e+00	0	28	0	171966464	73	5060
2026-01-15 12:55:10.13	254.64	8.88	-54.0	-56.7	13.6	0.00e+00	0	28	0	174063616	73	5107
2026-01-15 12:55:11.12	254.78	8.92	-54.0	-56.8	13.5	0.00e+00	0	28	0	176160768	73	5167
2026-01-15 12:55:12.12	254.93	8.96	-53.9	-56.6	13.6	0.00e+00	0	28	0	177209344	73	5061
2026-01-15 12:55:13.12	255.08	9.01	-54.0	-56.7	13.5	0.00e+00	0	28	0	179306496	73	5120
2026-01-15 12:55:14.13	255.23	9.05	-53.7	-56.3	13.8	0.00e+00	0	28	0	181403648	73	4876
2026-01-15 12:55:15.13	255.38	9.09	-53.8	-56.4	13.7	0.00e+00	0	28	0	183500800	73	4969
2026-01-15 12:55:16.12	255.53	9.14	-53.8	-56.4	13.7	0.00e+00	0	28	0	185597952	73	4954
2026-01-15 12:55:17.11	255.67	9.18	-53.8	-56.3	13.7	0.00e+00	0	28	0	186646528	73	4909
2026-01-15 12:55:18.10	255.82	9.22	-53.9	-56.5	13.6	0.00e+00	0	28	0	188743680	73	5005
2026-01-15 12:55:19.10	255.97	9.26	-53.7	-56.2	13.8	0.00e+00	0	28	0	190840832	73	4846
2026-01-15 12:55:20.10	256.13	9.31	-53.8	-56.4	13.7	0.00e+00	0	28	0	192937984	73	4958
2026-01-15 12:55:21.10	256.28	9.35	-53.8	-56.4	13.7	0.00e+00	0	28	0	195035136	73	4980
2026-01-15 12:55:22.11	256.43	9.39	-53.8	-56.5	13.6	0.00e+00	0	28	0	196083712	73	5016
2026-01-15 12:55:23.11	256.58	9.43	-53.8	-56.4	13.7	0.00e+00	0	28	0	198180864	73	4948
2026-01-15 12:55:24.11	256.74	9.48	-53.7	-56.3	13.8	0.00e+00	0	28	0	200278016	73	4884
2026-01-15 12:55:25.11	256.89	9.52	-53.9	-56.5	13.6	0.00e+00	0	28	0	202375168	73	5020
2026-01-15 12:55:26.10	257.04	9.56	-53.7	-56.2	13.8	0.00e+00	0	28	0	203423744	73	4866
2026-01-15 12:55:27.11	257.20	9.60	-53.7	-56.3	13.8	0.00e+00	0	28	0	205520896	73	4906
2026-01-15 12:55:28.11	257.36	9.64	-53.7	-56.3	13.8	0.00e+00	0	28	0	207618048	73	4883
2026-01-15 12:55:29.11	257.51	9.68	-53.6	-56.1	13.9	0.00e+00	0	28	0	209715200	73	4789
2026-01-15 12:55:30.11	257.67	9.73	-53.7	-56.2	13.8	0.00e+00	0	28	0	211812352	73	4853
2026-01-15 12:55:31.11	257.82	9.77	-53.8	-56.4	13.7	0.00e+00	0	28	0	212860928	73	4972
2026-01-15 12:55:32.10	257.98	9.81	-53.9	-56.5	13.6	0.00e+00	0	28	0	214958080	73	5019
2026-01-15 12:55:33.10	258.13	9.85	-54.0	-56.7	13.5	0.00e+00	0	28	0	217055232	73	5132
2026-01-15 12:55:34.09	258.29	9.89	-54.1	-56.9	13.4	0.00e+00	0	28	0	219152384	73	5263
2026-01-15 12:55:35.07	258.44	9.93	-54.0	-56.7	13.5	0.00e+00	0	28	0	220200960	73	5159
2026-01-15 12:55:36.07	258.60	9.97	-54.1	-56.9	13.5	0.00e+00	0	28	0	222298112	73	5219
2026-01-15 12:55:37.07	258.76	10.01	-54.0	-56.8	13.5	0.00e+00	0	28	0	224395264	73	5167
2026-01-15 12:55:38.06	258.92	10.05	-54.0	-56.6	13.6	0.00e+00	0	28	0	226492416	73	5092
2026-01-15 12:55:39.06	259.08	10.09	-53.8	-56.5	13.7	0.00e+00	0	28	0	228589568	73	4994
2026-01-15 12:55:40.05	259.24	10.13	-53.8	-56.4	13.7	0.00e+00	0	28	0	229638144	73	4944
2026-01-15 12:55:41.04	259.40	10.17	-53.7	-56.3	13.7	0.00e+00	0	28	0	231735296	73	4908
2026-01-15 12:55:42.04	259.56	10.21	-53.9	-56.5	13.6	0.00e+00	0	28	0	233832448	73	5008
2026-01-15 12:55:43.04	259.72	10.25	-53.9	-56.6	13.6	0.00e+00	0	28	0	235929600	73	5057
2026-01-15 12:55:44.03	259.88	10.29	-54.0	-56.7	13.5	0.00e+00	0	28	0	236978176	73	5156
2026-01-15 12:55:45.01	260.04	10.33	-54.0	-56.7	13.5	0.00e+00	0	28	0	239075328	73	5142
2026-01-15 12:55:46.01	260.20	10.37	-54.1	-57.0	13.4	0.00e+00	0	28	0	241172480	73	5289
2026-01-15 12:55:47.01	260.36	10.41	-54.3	-57.2	13.3	0.00e+00	0	28	0	243269632	73	5415
2026-01-15 12:55:48.01	260.53	10.45	-54.2	-57.0	13.4	0.00e+00	0	28	0	245366784	73	5317
2026-01-15 12:55:49.01	260.69	10.49	-54.0	-56.8	13.5	0.00e+00	0	28	0	246415360	73	5209
2026-01-15 12:55:50.01	260.85	10.53	-54.1	-56.9	13.5	0.00e+00	0	28	0	248512512	73	5223
2026-01-15 12:55:51.01	261.02	10.56	-54.1	-56.8	13.5	0.00e+00	0	28	0	250609664	73	5218
2026-01-15 12:55:52.01	261.18	10.60	-54.0	-56.8	13.5	0.00e+00	0	28	0	252706816	73	5161
2026-01-15 12:55:53.01	261.35	10.64	-54.1	-56.9	13.4	0.00e+00	0	28	0	254803968	73	5264
2026-01-15 12:55:54.01	261.51	10.68	-54.0	-56.7	13.6	0.00e+00	0	28	0	255852544	73	5157
2026-01-15 12:55:55.00	261.68	10.72	-54.1	-56.8	13.5	0.00e+00	0	28	0	257949696	73	5192
2026-01-15 12:55:55.99	261.84	10.76	-54.1	-56.9	13.5	0.00e+00	0	28	0	260046848	73	5259
2026-01-15 12:55:56.99	262.01	10.79	-54.2	-57.0	13.4	0.00e+00	0	28	0	262144000	73	5319
2026-01-15 12:55:57.98	262.18	10.83	-54.3	-57.1	13.3	0.00e+00	0	28	0	264241152	73	5369
2026-01-15 12:55:58.98	262.35	10.87	-54.2	-57.0	13.4	0.00e+00	0	28	0	265289728	73	5340
2026-01-15 12:55:59.98	262.51	10.91	-54.2	-57.0	13.4	0.00e+00	0	28	0	267386880	73	5283
2026-01-15 12:56:00.98	262.68	10.94	-54.2	-57.0	13.4	0.00e+00	0	28	0	269484032	73	5332
2026-01-15 12:56:01.98	262.85	10.98	-54.6	-57.6	13.2	0.00e+00	0	28	0	271581184	74	5376
2026-01-15 12:56:02.98	263.02	11.02	-54.6	-57.6	13.2	0.00e+00	0	28	0	272629760	74	5389
2026-01-15 12:56:03.98	263.19	11.05	-54.5	-57.5	13.2	0.00e+00	0	28	0	274726912	74	5332
2026-01-15 12:56:04.98	263.36	11.09	-54.6	-57.6	13.2	0.00e+00	0	28	0	276824064	74	5388
2026-01-15 12:56:05.97	263.53	11.13	-54.6	-57.6	13.2	0.00e+00	0	28	0	278921216	74	5374
2026-01-15 12:56:06.97	263.70	11.16	-54.5	-57.6	13.2	0.00e+00	0	28	0	281018368	74	5351
2026-01-15 12:56:07.96	263.87	11.20	-54.5	-57.5	13.2	0.00e+00	0	28	0	282066944	74	5327
2026-01-15 12:56:08.96	264.04	11.23	-54.5	-57.5	13.2	0.00e+00	0	28	0	284164096	74	5309
2026-01-15 12:56:09.97	264.22	11.27	-54.6	-57.7	13.2	0.00e+00	0	28	0	286261248	74	5403
2026-01-15 12:56:10.96	264.39	11.31	-54.6	-57.7	13.2	0.00e+00	0	28	0	288358400	74	5407
2026-01-15 12:56:11.97	264.56	11.34	-54.7	-57.8	13.1	0.00e+00	0	28	0	289406976	74	5493
2026-01-15 12:56:12.96	264.74	11.38	-54.6	-57.6	13.2	0.00e+00	0	28	0	291504128	74	5393
2026-01-15 12:56:13.96	264.91	11.41	-54.8	-58.0	13.0	0.00e+00	0	28	0	293601280	74	5600
2026-01-15 12:56:14.96	265.08	11.45	-54.7	-57.9	13.0	0.00e+00	0	28	0	295698432	74	5555
2026-01-15 12:56:15.96	265.26	11.48	-54.6	-57.7	13.1	0.00e+00	0	28	0	297795584	74	5447
2026-01-15 12:56:16.96	265.43	11.52	-54.6	-57.7	13.1	0.00e+00	0	28	0	298844160	74	5457
2026-01-15 12:56:17.96	265.61	11.55	-54.6	-57.6	13.2	0.00e+00	0	28	0	300941312	74	5384
2026-01-15 12:56:18.96	265.79	11.58	-54.5	-57.5	13.3	0.00e+00	0	28	0	303038464	74	5299
2026-01-15 12:56:19.97	265.96	11.62	-54.5	-57.4	13.3	0.00e+00	0	28	0	305135616	74	5263
2026-01-15 12:56:20.97	266.14	11.65	-54.5	-57.4	13.3	0.00e+00	0	28	0	307232768	74	5278
2026-01-15 12:56:21.98	266.32	11.69	-54.5	-57.5	13.3	0.00e+00	0	28	0	308281344	74	5314
2026-01-15 12:56:22.97	266.50	11.72	-54.5	-57.6	13.2	0.00e+00	0	28	0	310378496	74	5347
2026-01-15 12:56:23.98	266.68	11.75	-54.5	-57.6	13.2	0.00e+00	0	28	0	312475648	74	5355
2026-01-15 12:56:24.99	266.86	11.78	-54.6	-57.7	13.1	0.00e+00	0	28	0	314572800	74	5416
2026-01-15 12:56:25.99	267.03	11.82	-54.6	-57.7	13.2	0.00e+00	0	28	0	316669952	74	5426
2026-01-15 12:56:26.99	267.21	11.85	-54.5	-57.4	13.3	0.00e+00	0	28	0	317718528	74	5267
2026-01-15 12:56:27.99	267.39	11.88	-54.4	-57.3	13.4	0.00e+00	0	28	0	319815680	74	5174
2026-01-15 12:56:28.99	267.57	11.91	-54.3	-57.2	13.4	0.00e+00	0	28	0	321912832	74	5137
2026-01-15 12:56:29.99	267.75	11.95	-54.4	-57.3	13.3	0.00e+00	0	28	0	324009984	74	5198
2026-01-15 12:56:30.98	267.93	11.98	-54.3	-57.2	13.4	0.00e+00	0	28	0	326107136	74	5114
2026-01-15 12:56:31.99	268.12	12.01	-54.2	-56.9	13.6	0.00e+00	0	28	0	327155712	74	4968
2026-01-15 12:56:32.98	268.30	12.04	-54.2	-57.0	13.5	0.00e+00	0	28	0	329252864	74	5011
2026-01-15 12:56:33.99	268.48	12.07	-54.3	-57.1	13.5	0.00e+00	0	28	0	331350016	74	5073
2026-01-15 12:56:34.98	268.66	12.10	-54.4	-57.3	13.4	0.00e+00	0	28	0	333447168	74	5180
2026-01-15 12:56:35.99	268.84	12.13	-54.3	-57.2	13.4	0.00e+00	0	28	0	334495744	74	5121
2026-01-15 12:56:36.98	269.02	12.16	-54.3	-57.1	13.5	0.00e+00	0	28	0	336592896	74	5099
2026-01-15 12:56:37.98	269.21	12.19	-54.4	-57.3	13.4	0.00e+00	0	28	0	338690048	74	5187
2026-01-15 12:56:38.98	269.39	12.22	-54.3	-57.2	13.4	0.00e+00	0	28	0	340787200	74	5124
2026-01-15 12:56:39.97	269.57	12.25	-54.4	-57.3	13.4	0.00e+00	0	28	0	342884352	74	5162
2026-01-15 12:56:40.97	269.76	12.28	-54.3	-57.2	13.4	0.00e+00	0	28	0	343932928	74	5131
2026-01-15 12:56:41.96	269.94	12.31	-54.4	-57.3	13.4	0.00e+00	0	28	0	346030080	74	5196
2026-01-15 12:56:42.96	270.13	12.34	-54.4	-57.2	13.4	0.00e+00	0	28	0	348127232	74	5128
2026-01-15 12:56:43.95	270.31	12.37	-54.4	-57.2	13.4	0.00e+00	0	28	0	350224384	74	5151
2026-01-15 12:56:44.96	270.50	12.40	-54.4	-57.3	13.4	0.00e+00	0	28	0	351272960	74	5191
2026-01-15 12:56:45.96	270.68	12.42	-54.4	-57.4	13.3	0.00e+00	0	28	0	353370112	74	5223
2026-01-15 12:56:46.95	270.87	12.45	-54.3	-57.1	13.5	0.00e+00	0	28	0	355467264	74	5090
2026-01-15 12:56:47.94	271.05	12.48	-54.2	-57.0	13.5	0.00e+00	0	28	0	357564416	74	5013
2026-01-15 12:56:48.94	271.24	12.51	-54.1	-56.8	13.6	0.00e+00	0	28	0	359661568	74	4901
2026-01-15 12:56:49.93	271.42	12.53	-54.0	-56.6	13.8	0.00e+00	0	28	0	360710144	74	4773
2026-01-15 12:56:50.92	271.61	12.56	-54.0	-56.6	13.7	0.00e+00	0	28	0	362807296	74	4786
2026-01-15 12:56:51.92	271.80	12.59	-53.7	-56.2	13.8	0.00e+00	0	28	0	364904448	73	4841
2026-01-15 12:56:52.93	271.99	12.61	-53.8	-56.4	13.8	0.00e+00	0	28	0	367001600	73	4943
2026-01-15 12:56:53.93	272.18	12.64	-53.8	-56.3	13.8	0.00e+00	0	28	0	369098752	73	4909
2026-01-15 12:56:54.93	272.37	12.67	-53.8	-56.3	13.8	0.00e+00	0	28	0	370147328	73	4910
2026-01-15 12:56:55.93	272.56	12.69	-53.8	-56.3	13.8	0.00e+00	0	28	0	372244480	73	4872
2026-01-15 12:56:56.93	272.75	12.72	-53.6	-56.0	13.9	0.00e+00	0	28	0	374341632	73	4748
2026-01-15 12:56:57.92	272.93	12.74	-53.7	-56.2	13.9	0.00e+00	0	28	0	376438784	73	4821
2026-01-15 12:56:58.93	273.13	12.77	-53.8	-56.3	13.8	0.00e+00	0	28	0	377487360	73	4872
2026-01-15 12:56:59.93	273.32	12.79	-54.0	-56.6	13.6	0.00e+00	0	28	0	379584512	73	5090
2026-01-15 12:57:00.93	273.51	12.82	-53.9	-56.5	13.7	0.00e+00	0	28	0	381681664	73	5016
2026-01-15 12:57:01.93	273.70	12.84	-54.1	-56.7	13.6	0.00e+00	0	28	0	383778816	73	5129
2026-01-15 12:57:02.93	273.89	12.86	-53.9	-56.4	13.7	0.00e+00	0	28	0	385875968	73	4963
2026-01-15 12:57:03.92	274.08	12.89	-53.7	-56.1	13.9	0.00e+00	0	28	0	386924544	73	4773
2026-01-15 12:57:04.93	274.27	12.91	-53.7	-56.0	13.9	0.00e+00	0	28	0	389021696	73	4732
2026-01-15 12:57:05.93	274.47	12.93	-53.6	-55.8	14.0	0.00e+00	0	28	0	391118848	73	4641
2026-01-15 12:57:06.93	274.66	12.96	-53.5	-55.7	14.0	0.00e+00	0	28	0	393216000	73	4588
2026-01-15 12:57:07.93	274.85	12.98	-53.4	-55.7	14.1	0.00e+00	0	28	0	395313152	73	4550
2026-01-15 12:57:08.92	275.04	13.00	-53.7	-56.1	13.9	0.00e+00	0	28	0	396361728	73	4773
2026-01-15 12:57:09.92	275.24	13.02	-53.8	-56.2	13.8	0.00e+00	0	28	0	398458880	73	4868
2026-01-15 12:57:10.93	275.43	13.05	-53.9	-56.4	13.7	0.00e+00	0	28	0	400556032	73	4969
2026-01-15 12:57:11.93	275.63	13.07	-53.9	-56.3	13.7	0.00e+00	0	28	0	402653184	73	4919
2026-01-15 12:57:12.93	275.82	13.09	-53.8	-56.2	13.8	0.00e+00	0	28	0	404750336	73	4859
2026-01-15 12:57:13.93	276.01	13.11	-53.6	-55.9	14.0	0.00e+00	0	28	0	405798912	73	4696
2026-01-15 12:57:14.93	276.21	13.13	-53.5	-55.8	14.0	0.00e+00	0	28	0	407896064	73	4618
2026-01-15 12:57:15.94	276.41	13.15	-53.6	-55.8	14.0	0.00e+00	0	28	0	409993216	73	4650
2026-01-15 12:57:16.94	276.60	13.17	-53.5	-55.7	14.0	0.00e+00	0	28	0	412090368	73	4587
2026-01-15 12:57:17.93	276.80	13.19	-53.7	-56.0	13.9	0.00e+00	0	28	0	413138944	73	4712
2026-01-15 12:57:18.93	276.99	13.21	-53.8	-56.2	13.8	0.00e+00	0	28	0	415236096	73	4852
2026-01-15 12:57:19.93	277.19	13.23	-54.1	-56.6	13.6	0.00e+00	0	28	0	417333248	73	5090
2026-01-15 12:57:20.93	277.38	13.25	-54.3	-57.0	13.4	0.00e+00	0	28	0	419430400	73	5295
2026-01-15 12:57:21.92	277.58	13.27	-54.1	-56.7	13.6	0.00e+00	0	28	0	421527552	73	5130
2026-01-15 12:57:22.93	277.78	13.28	-54.2	-56.7	13.6	0.00e+00	0	28	0	422576128	73	5123
2026-01-15 12:57:23.93	277.97	13.30	-53.9	-56.3	13.7	0.00e+00	0	28	0	424673280	73	4917
2026-01-15 12:57:24.93	278.17	13.32	-53.9	-56.3	13.8	0.00e+00	0	28	0	426770432	73	4913
2026-01-15 12:57:25.91	278.37	13.34	-54.0	-56.4	13.7	0.00e+00	0	28	0	428867584	73	4943
2026-01-15 12:57:26.91	278.56	13.35	-54.3	-56.9	13.5	0.00e+00	0	28	0	429916160	73	5265
2026-01-15 12:57:27.90	278.76	13.37	-54.8	-57.6	13.2	0.00e+00	0	28	0	432013312	74	5399
2026-01-15 12:57:28.89	278.96	13.39	-55.2	-58.3	12.9	0.00e+00	0	28	0	434110464	75	5484
2026-01-15 12:57:29.89	279.15	13.40	-55.5	-58.8	12.6	0.00e+00	0	28	0	436207616	76	5527
2026-01-15 12:57:30.89	279.35	13.42	-55.5	-58.7	12.8	0.00e+00	0	28	0	438304768	76	5444
2026-01-15 12:57:31.87	279.55	13.44	-55.2	-58.2	13.0	0.00e+00	0	28	0	439353344	76	5145
2026-01-15 12:57:32.87	279.75	13.45	-55.1	-58.1	13.1	0.00e+00	0	28	0	441450496	76	5071
2026-01-15 12:57:33.87	279.94	13.47	-55.0	-57.8	13.3	0.00e+00	0	28	0	443547648	76	4899
2026-01-15 12:57:34.87	280.14	13.48	-54.7	-57.4	13.5	0.00e+00	0	28	0	445644800	76	4679
2026-01-15 12:57:35.86	280.34	13.49	-54.5	-57.1	13.6	0.00e+00	0	28	0	446693376	75	4775
2026-01-15 12:57:36.86	280.54	13.51	-54.5	-57.2	13.5	0.00e+00	0	28	0	448790528	75	4854
2026-01-15 12:57:37.86	280.74	13.52	-54.8	-57.6	13.3	0.00e+00	0	28	0	450887680	75	5045
2026-01-15 12:57:38.85	280.94	13.54	-55.0	-57.9	13.2	0.00e+00	0	28	0	452984832	75	5239
2026-01-15 12:57:39.85	281.14	13.55	-54.9	-57.7	13.2	0.00e+00	0	28	0	455081984	75	5158
2026-01-15 12:57:40.85	281.34	13.56	-54.9	-57.7	13.3	0.00e+00	0	28	0	456130560	75	5110
2026-01-15 12:57:41.84	281.54	13.57	-54.8	-57.6	13.3	0.00e+00	0	28	0	458227712	75	5064
2026-01-15 12:57:42.84	281.74	13.59	-54.6	-57.3	13.5	0.00e+00	0	28	0	460324864	75	4916
2026-01-15 12:57:43.83	281.94	13.60	-54.3	-56.7	13.8	0.00e+00	0	28	0	462422016	75	4592
2026-01-15 12:57:44.82	282.14	13.61	-54.5	-57.0	13.6	0.00e+00	0	28	0	464519168	75	4754
2026-01-15 12:57:45.82	282.34	13.62	-54.3	-56.9	13.7	0.00e+00	0	28	0	465567744	75	4682
2026-01-15 12:57:46.81	282.54	13.63	-54.4	-57.1	13.6	0.00e+00	0	28	0	467664896	75	4778
2026-01-15 12:57:47.82	282.74	13.64	-54.5	-57.3	13.5	0.00e+00	0	28	0	469762048	75	4871
2026-01-15 12:57:48.82	282.94	13.65	-54.6	-57.3	13.5	0.00e+00	0	28	0	471859200	75	4911
2026-01-15 12:57:49.83	283.15	13.66	-54.4	-57.0	13.6	0.00e+00	0	28	0	473956352	75	4742
2026-01-15 12:57:50.82	283.35	13.67	-54.1	-56.5	13.8	0.00e+00	0	28	0	475004928	74	4737
2026-01-15 12:57:51.82	283.55	13.68	-53.9	-56.3	13.9	0.00e+00	0	28	0	477102080	74	4629
2026-01-15 12:57:52.81	283.75	13.69	-53.8	-56.1	14.0	0.00e+00	0	28	0	479199232	74	4518
2026-01-15 12:57:53.80	283.95	13.70	-53.8	-56.1	14.0	0.00e+00	0	28	0	481296384	74	4525
2026-01-15 12:57:54.81	284.15	13.71	-53.8	-56.1	14.0	0.00e+00	0	28	0	482344960	74	4526
2026-01-15 12:57:55.81	284.36	13.72	-53.9	-56.2	13.9	0.00e+00	0	28	0	484442112	74	4597
2026-01-15 12:57:56.81	284.56	13.72	-54.1	-56.5	13.8	0.00e+00	0	28	0	486539264	74	4756
2026-01-15 12:57:57.80	284.76	13.73	-54.3	-56.8	13.7	0.00e+00	0	28	0	488636416	74	4884
2026-01-15 12:57:58.80	284.96	13.74	-54.2	-56.8	13.6	0.00e+00	0	28	0	490733568	74	4884
2026-01-15 12:57:59.80	285.16	13.75	-54.0	-56.4	13.9	0.00e+00	0	28	0	491782144	74	4699
2026-01-15 12:58:00.80	285.37	13.75	-53.7	-56.0	14.0	0.00e+00	0	28	0	493879296	74	4490
2026-01-15 12:58:01.80	285.57	13.76	-53.5	-55.7	14.1	0.00e+00	0	28	0	495976448	73	4585
2026-01-15 12:58:02.78	285.77	13.76	-53.3	-55.5	14.2	0.00e+00	0	28	0	498073600	73	4463
2026-01-15 12:58:03.78	285.97	13.77	-53.3	-55.4	14.2	0.00e+00	0	28	0	499122176	73	4419
2026-01-15 12:58:04.77	286.17	13.77	-53.2	-55.3	14.3	0.00e+00	0	28	0	501219328	73	4385
2026-01-15 12:58:05.78	286.38	13.78	-53.3	-55.5	14.1	0.00e+00	0	28	0	503316480	72	4739
2026-01-15 12:58:06.78	286.58	13.78	-53.5	-55.7	14.0	0.00e+00	0	28	0	505413632	72	4862
2026-01-15 12:58:07.78	286.79	13.79	-53.6	-55.9	13.9	0.00e+00	0	28	0	507510784	72	4936
2026-01-15 12:58:08.78	286.99	13.79	-53.5	-55.8	13.9	0.00e+00	0	28	0	508559360	72	4901
2026-01-15 12:58:09.78	287.19	13.79	-53.6	-55.9	13.9	0.00e+00	0	28	0	510656512	72	4975
2026-01-15 12:58:10.77	287.39	13.80	-53.7	-56.1	13.8	0.00e+00	0	28	0	512753664	72	5064
2026-01-15 12:58:11.77	287.60	13.80	-53.8	-56.1	13.8	0.00e+00	0	28	0	514850816	72	5100
2026-01-15 12:58:12.77	287.80	13.80	-53.9	-56.4	13.8	0.00e+00	0	28	0	516947968	73	4965
2026-01-15 12:58:13.76	288.00	13.81	-53.9	-56.4	13.8	0.00e+00	0	28	0	517996544	73	4934
2026-01-15 12:58:14.76	288.21	13.81	-54.0	-56.5	13.7	0.00e+00	0	28	0	520093696	73	4992
2026-01-15 12:58:15.76	288.41	13.81	-53.9	-56.4	13.8	0.00e+00	0	28	0	522190848	73	4940
2026-01-15 12:58:16.76	288.61	13.81	-53.9	-56.3	13.8	0.00e+00	0	28	0	524288000	73	4906
2026-01-15 12:58:17.76	288.82	13.81	-53.7	-56.1	13.9	0.00e+00	0	28	0	525336576	73	4800
2026-01-15 12:58:18.76	289.02	13.81	-53.6	-56.0	14.0	0.00e+00	0	28	0	527433728	73	4711
2026-01-15 12:58:19.76	289.22	13.81	-53.8	-56.1	13.9	0.00e+00	0	28	0	529530880	73	4813
2026-01-15 12:58:20.76	289.43	13.81	-53.8	-56.2	13.9	0.00e+00	0	28	0	531628032	73	4818
2026-01-15 12:58:21.76	289.63	13.81	-53.9	-56.3	13.8	0.00e+00	0	28	0	533725184	73	4890
2026-01-15 12:58:22.76	289.84	13.81	-54.1	-56.6	13.7	0.00e+00	0	28	0	534773760	73	5074
2026-01-15 12:58:23.76	290.04	13.81	-54.1	-56.6	13.7	0.00e+00	0	28	0	536870912	73	5095
2026-01-15 12:58:24.76	290.24	13.81	-54.1	-56.7	13.6	0.00e+00	0	28	0	538968064	73	5125
2026-01-15 12:58:25.76	290.45	13.81	-54.1	-56.7	13.7	0.00e+00	0	28	0	541065216	73	5103
2026-01-15 12:58:26.76	290.65	13.80	-54.0	-56.4	13.7	0.00e+00	0	28	0	543162368	73	4971
2026-01-15 12:58:27.75	290.85	13.80	-53.8	-56.2	13.9	0.00e+00	0	28	0	544210944	73	4843
2026-01-15 12:58:28.76	291.06	13.80	-53.8	-56.2	13.9	0.00e+00	0	28	0	546308096	73	4849
2026-01-15 12:58:29.76	291.26	13.80	-53.9	-56.3	13.8	0.00e+00	0	28	0	548405248	73	4881
2026-01-15 12:58:30.75	291.46	13.79	-53.9	-56.3	13.8	0.00e+00	0	28	0	550502400	73	4910
2026-01-15 12:58:31.75	291.66	13.79	-54.0	-56.5	13.8	0.00e+00	0	28	0	551550976	73	4993
2026-01-15 12:58:32.75	291.87	13.78	-54.2	-56.7	13.6	0.00e+00	0	28	0	553648128	73	5139
2026-01-15 12:58:33.75	292.07	13.78	-54.0	-56.4	13.8	0.00e+00	0	28	0	555745280	73	4950
2026-01-15 12:58:34.75	292.27	13.77	-53.9	-56.4	13.8	0.00e+00	0	28	0	557842432	73	4934
2026-01-15 12:58:35.74	292.48	13.77	-53.8	-56.1	13.9	0.00e+00	0	28	0	559939584	73	4807
2026-01-15 12:58:36.74	292.68	13.76	-53.6	-55.9	14.1	0.00e+00	0	28	0	560988160	73	4671
2026-01-15 12:58:37.74	292.88	13.76	-53.5	-55.7	14.1	0.00e+00	0	28	0	563085312	73	4583
2026-01-15 12:58:38.74	293.08	13.75	-53.6	-55.9	14.0	0.00e+00	0	28	0	565182464	73	4684
2026-01-15 12:58:39.74	293.29	13.75	-53.7	-56.0	14.0	0.00e+00	0	28	0	567279616	73	4756
2026-01-15 12:58:40.73	293.49	13.74	-53.7	-56.1	13.9	0.00e+00	0	28	0	569376768	73	4773
2026-01-15 12:58:41.73	293.69	13.73	-53.7	-56.0	14.0	0.00e+00	0	28	0	570425344	73	4731
2026-01-15 12:58:42.71	293.89	13.73	-53.6	-55.9	14.0	0.00e+00	0	28	0	572522496	73	4654
2026-01-15 12:58:43.71	294.09	13.72	-53.4	-55.6	14.1	0.00e+00	0	28	0	574619648	73	4542
2026-01-15 12:58:44.70	294.29	13.71	-53.2	-55.4	14.2	0.00e+00	0	28	0	576716800	73	4414
2026-01-15 12:58:45.70	294.49	13.70	-53.0	-55.0	14.3	0.00e+00	0	28	0	577765376	72	4472
2026-01-15 12:58:46.70	294.70	13.69	-52.9	-54.9	14.4	0.00e+00	0	28	0	579862528	72	4416
2026-01-15 12:58:47.70	294.90	13.68	-52.9	-55.0	14.4	0.00e+00	0	28	0	581959680	72	4443
2026-01-15 12:58:48.70	295.10	13.67	-53.0	-55.0	14.3	0.00e+00	0	28	0	584056832	72	4492
2026-01-15 12:58:49.70	295.30	13.67	-53.0	-55.0	14.3	0.00e+00	0	28	0	586153984	72	4482
2026-01-15 12:58:50.70	295.50	13.66	-53.1	-55.2	14.3	0.00e+00	0	28	0	587202560	72	4552
2026-01-15 12:58:51.69	295.70	13.64	-53.2	-55.4	14.2	0.00e+00	0	28	0	589299712	72	4666
2026-01-15 12:58:52.69	295.90	13.63	-53.0	-55.1	14.3	0.00e+00	0	28	0	591396864	72	4531
2026-01-15 12:58:53.69	296.10	13.62	-53.1	-55.1	14.3	0.00e+00	0	28	0	593494016	72	4538
2026-01-15 12:58:54.68	296.30	13.61	-52.9	-55.0	14.3	0.00e+00	0	28	0	594542592	72	4452
2026-01-15 12:58:55.68	296.50	13.60	-53.1	-55.2	14.2	0.00e+00	0	28	0	596639744	72	4551
2026-01-15 12:58:56.67	296.70	13.59	-53.1	-55.2	14.2	0.00e+00	0	28	0	598736896	72	4563
2026-01-15 12:58:57.67	296.90	13.58	-53.2	-55.4	14.2	0.00e+00	0	28	0	600834048	72	4658
2026-01-15 12:58:58.66	297.10	13.56	-53.4	-55.6	14.0	0.00e+00	0	28	0	602931200	72	4813
2026-01-15 12:58:59.65	297.30	13.55	-53.6	-55.8	14.0	0.00e+00	0	28	0	603979776	72	4908
2026-01-15 12:59:00.65	297.50	13.54	-53.6	-55.8	14.0	0.00e+00	0	28	0	606076928	72	4903
2026-01-15 12:59:01.64	297.70	13.53	-53.6	-55.8	14.0	0.00e+00	0	28	0	608174080	72	4892
2026-01-15 12:59:02.64	297.90	13.51	-53.4	-55.6	14.0	0.00e+00	0	28	0	610271232	72	4803
2026-01-15 12:59:03.64	298.10	13.50	-53.3	-55.5	14.1	0.00e+00	0	28	0	611319808	72	4717
2026-01-15 12:59:04.64	298.30	13.48	-53.3	-55.4	14.1	0.00e+00	0	28	0	613416960	72	4676
2026-01-15 12:59:05.65	298.50	13.47	-53.2	-55.2	14.2	0.00e+00	0	28	0	615514112	72	4582
2026-01-15 12:59:06.65	298.70	13.45	-53.2	-55.3	14.2	0.00e+00	0	28	0	617611264	72	4627
2026-01-15 12:59:07.65	298.89	13.44	-53.3	-55.4	14.1	0.00e+00	0	28	0	619708416	72	4673
2026-01-15 12:59:08.64	299.09	13.42	-53.4	-55.6	14.1	0.00e+00	0	28	0	620756992	72	4771
2026-01-15 12:59:09.64	299.29	13.41	-53.4	-55.5	14.1	0.00e+00	0	28	0	622854144	72	4751
2026-01-15 12:59:10.64	299.49	13.39	-53.5	-55.7	14.0	0.00e+00	0	28	0	624951296	72	4817
2026-01-15 12:59:11.64	299.69	13.38	-53.5	-55.7	14.0	0.00e+00	0	28	0	627048448	72	4853
2026-01-15 12:59:12.64	299.88	13.36	-53.4	-55.6	14.1	0.00e+00	0	28	0	629145600	72	4792
2026-01-15 12:59:13.64	300.08	13.34	-53.3	-55.5	14.1	0.00e+00	0	28	0	630194176	72	4732
2026-01-15 12:59:14.64	300.28	13.32	-53.3	-55.4	14.1	0.00e+00	0	28	0	632291328	72	4693
2026-01-15 12:59:15.63	300.47	13.31	-53.3	-55.4	14.1	0.00e+00	0	28	0	634388480	72	4703
2026-01-15 12:59:16.62	300.67	13.29	-53.2	-55.3	14.2	0.00e+00	0	28	0	636485632	72	4615
2026-01-15 12:59:17.62	300.86	13.27	-53.1	-55.2	14.3	0.00e+00	0	28	0	638582784	72	4551
2026-01-15 12:59:18.61	301.06	13.25	-53.2	-55.3	14.2	0.00e+00	0	28	0	639631360	72	4614
2026-01-15 12:59:19.60	301.25	13.23	-53.2	-55.3	14.2	0.00e+00	0	28	0	641728512	72	4627
2026-01-15 12:59:20.60	301.45	13.21	-53.2	-55.3	14.2	0.00e+00	0	28	0	643825664	72	4614
2026-01-15 12:59:21.60	301.64	13.20	-53.2	-55.3	14.2	0.00e+00	0	28	0	645922816	72	4619
2026-01-15 12:59:22.61	301.84	13.18	-53.0	-55.1	14.3	0.00e+00	0	28	0	646971392	72	4500
2026-01-15 12:59:23.61	302.04	13.16	-52.9	-54.9	14.4	0.00e+00	0	28	0	649068544	72	4401
2026-01-15 12:59:24.62	302.23	13.14	-52.9	-54.8	14.4	0.00e+00	0	28	0	651165696	72	4379
2026-01-15 12:59:25.61	302.43	13.11	-52.7	-54.7	14.5	0.00e+00	0	28	0	653262848	72	4294
2026-01-15 12:59:26.61	302.62	13.09	-52.8	-54.7	14.5	0.00e+00	0	28	0	655360000	72	4307
2026-01-15 12:59:27.61	302.81	13.07	-52.7	-54.6	14.4	0.00e+00	0	28	0	656408576	71	4507
2026-01-15 12:59:28.61	303.01	13.05	-52.8	-54.8	14.3	0.00e+00	0	28	0	658505728	71	4615
2026-01-15 12:59:29.62	303.20	13.03	-52.7	-54.6	14.4	0.00e+00	0	28	0	660602880	71	4495
2026-01-15 12:59:30.61	303.39	13.01	-52.6	-54.6	14.4	0.00e+00	0	28	0	662700032	71	4495
2026-01-15 12:59:31.61	303.59	12.99	-52.6	-54.5	14.4	0.00e+00	0	28	0	663748608	71	4473
2026-01-15 12:59:32.61	303.78	12.96	-52.6	-54.5	14.4	0.00e+00	0	28	0	665845760	71	4489
2026-01-15 12:59:33.62	303.97	12.94	-52.5	-54.3	14.5	0.00e+00	0	28	0	667942912	71	4370
2026-01-15 12:59:34.61	304.16	12.92	-52.6	-54.4	14.4	0.00e+00	0	28	0	670040064	71	4436
2026-01-15 12:59:35.61	304.35	12.89	-52.5	-54.4	14.5	0.00e+00	0	28	0	672137216	71	4427
2026-01-15 12:59:36.61	304.55	12.87	-52.5	-54.4	14.5	0.00e+00	0	28	0	673185792	71	4410
2026-01-15 12:59:37.60	304.74	12.85	-52.6	-54.5	14.4	0.00e+00	0	28	0	675282944	71	4482
2026-01-15 12:59:38.60	304.93	12.82	-52.8	-54.8	14.3	0.00e+00	0	28	0	677380096	71	4605
2026-01-15 12:59:39.60	305.12	12.80	-53.0	-54.9	14.2	0.00e+00	0	28	0	679477248	71	4695
2026-01-15 12:59:40.59	305.30	12.78	-53.0	-55.0	14.2	0.00e+00	0	28	0	681574400	71	4713
2026-01-15 12:59:41.59	305.49	12.75	-53.1	-55.2	14.1	0.00e+00	0	28	0	682622976	71	4825
2026-01-15 12:59:42.59	305.68	12.73	-53.2	-55.2	14.1	0.00e+00	0	28	0	684720128	71	4858
2026-01-15 12:59:43.57	305.87	12.70	-53.3	-55.4	14.0	0.00e+00	0	28	0	686817280	71	4932
2026-01-15 12:59:44.57	306.06	12.67	-53.0	-55.1	14.2	0.00e+00	0	28	0	688914432	71	4769
2026-01-15 12:59:45.56	306.24	12.65	-52.9	-54.9	14.2	0.00e+00	0	28	0	689963008	71	4663
2026-01-15 12:59:46.56	306.43	12.62	-53.0	-55.0	14.2	0.00e+00	0	28	0	692060160	71	4715
2026-01-15 12:59:47.56	306.62	12.60	-52.8	-54.7	14.3	0.00e+00	0	28	0	694157312	71	4597
2026-01-15 12:59:48.57	306.81	12.57	-52.9	-54.8	14.2	0.00e+00	0	28	0	696254464	71	4643
2026-01-15 12:59:49.57	307.00	12.54	-52.9	-54.8	14.3	0.00e+00	0	28	0	698351616	71	4629
2026-01-15 12:59:50.57	307.18	12.52	-52.9	-54.9	14.2	0.00e+00	0	28	0	699400192	71	4665
2026-01-15 12:59:51.57	307.37	12.49	-52.8	-54.8	14.3	0.00e+00	0	28	0	701497344	71	4625
2026-01-15 12:59:52.57	307.56	12.46	-52.7	-54.7	14.3	0.00e+00	0	28	0	703594496	71	4558
2026-01-15 12:59:53.56	307.74	12.43	-52.7	-54.7	14.3	0.00e+00	0	28	0	705691648	71	4551
2026-01-15 12:59:54.56	307.93	12.41	-52.7	-54.6	14.4	0.00e+00	0	28	0	706740224	71	4517
2026-01-15 12:59:55.55	308.11	12.38	-52.6	-54.5	14.4	0.00e+00	0	28	0	708837376	71	4480
2026-01-15 12:59:56.55	308.30	12.35	-52.4	-54.2	14.5	0.00e+00	0	28	0	710934528	71	4318
2026-01-15 12:59:57.55	308.48	12.32	-52.4	-54.3	14.5	0.00e+00	0	28	0	713031680	71	4360
2026-01-15 12:59:58.55	308.66	12.29	-52.2	-54.0	14.6	0.00e+00	0	28	0	715128832	71	4207
2026-01-15 12:59:59.55	308.85	12.26	-52.2	-54.0	14.5	0.00e+00	0	28	0	716177408	70	4444
2026-01-15 13:00:00.54	309.03	12.23	-52.3	-54.1	14.5	0.00e+00	0	28	0	718274560	70	4509
2026-01-15 13:00:01.55	309.21	12.20	-52.4	-54.2	14.4	0.00e+00	0	28	0	720371712	70	4578
2026-01-15 13:00:02.55	309.40	12.17	-52.4	-54.3	14.4	0.00e+00	0	28	0	722468864	70	4641
2026-01-15 13:00:03.55	309.58	12.14	-52.5	-54.4	14.4	0.00e+00	0	28	0	724566016	70	4652
2026-01-15 13:00:04.56	309.76	12.11	-52.6	-54.5	14.3	0.00e+00	0	28	0	725614592	70	4722
2026-01-15 13:00:05.55	309.94	12.08	-52.5	-54.4	14.3	0.00e+00	0	28	0	727711744	70	4705
2026-01-15 13:00:06.55	310.12	12.05	-52.5	-54.5	14.3	0.00e+00	0	28	0	729808896	70	4709
2026-01-15 13:00:07.55	310.31	12.02	-52.7	-54.7	14.2	0.00e+00	0	28	0	731906048	70	4831
2026-01-15 13:00:08.56	310.49	11.99	-52.6	-54.6	14.3	0.00e+00	0	28	0	734003200	70	4768
2026-01-15 13:00:09.55	310.67	11.96	-52.8	-54.7	14.2	0.00e+00	0	28	0	735051776	70	4858
2026-01-15 13:00:10.56	310.85	11.93	-52.7	-54.7	14.2	0.00e+00	0	28	0	737148928	70	4830
2026-01-15 13:00:11.55	311.03	11.90	-52.6	-54.5	14.3	0.00e+00	0	28	0	739246080	70	4727
2026-01-15 13:00:12.55	311.20	11.86	-52.6	-54.5	14.3	0.00e+00	0	28	0	741343232	70	4712
2026-01-15 13:00:13.54	311.38	11.83	-52.6	-54.5	14.3	0.00e+00	0	28	0	742391808	70	4714
2026-01-15 13:00:14.54	311.56	11.80	-52.6	-54.5	14.3	0.00e+00	0	28	0	744488960	70	4734
2026-01-15 13:00:15.53	311.74	11.77	-52.6	-54.5	14.3	0.00e+00	0	28	0	746586112	70	4753
2026-01-15 13:00:16.52	311.91	11.73	-52.6	-54.5	14.3	0.00e+00	0	28	0	748683264	70	4749
2026-01-15 13:00:17.53	312.09	11.70	-52.7	-54.7	14.2	0.00e+00	0	28	0	750780416	70	4858
2026-01-15 13:00:18.53	312.27	11.67	-52.8	-54.8	14.2	0.00e+00	0	28	0	751828992	70	4900
2026-01-15 13:00:19.53	312.44	11.63	-53.0	-55.1	14.2	0.00e+00	0	28	0	753926144	71	4760
2026-01-15 13:00:20.53	312.62	11.60	-53.0	-55.2	14.1	0.00e+00	0	28	0	756023296	71	4815
2026-01-15 13:00:21.53	312.79	11.57	-52.9	-55.0	14.2	0.00e+00	0	28	0	758120448	71	4709
2026-01-15 13:00:22.53	312.97	11.53	-52.9	-55.0	14.1	0.00e+00	0	28	0	760217600	71	4755
2026-01-15 13:00:23.52	313.14	11.50	-52.9	-55.0	14.1	0.00e+00	0	28	0	761266176	71	4727
2026-01-15 13:00:24.52	313.32	11.46	-53.2	-55.3	14.0	0.00e+00	0	28	0	763363328	71	4912
2026-01-15 13:00:25.52	313.49	11.43	-53.3	-55.5	13.9	0.00e+00	0	28	0	765460480	71	5020
2026-01-15 13:00:26.52	313.67	11.40	-53.4	-55.7	14.0	0.00e+00	0	28	0	767557632	72	4835
2026-01-15 13:00:27.52	313.84	11.36	-53.5	-55.8	13.9	0.00e+00	0	28	0	769654784	72	4924
2026-01-15 13:00:28.52	314.01	11.33	-53.5	-55.9	13.9	0.00e+00	0	28	0	770703360	72	4932
2026-01-15 13:00:29.52	314.18	11.29	-53.8	-56.2	13.7	0.00e+00	0	28	0	772800512	72	5123
2026-01-15 13:00:30.51	314.35	11.25	-53.7	-56.1	13.8	0.00e+00	0	28	0	774897664	72	5075
2026-01-15 13:00:31.51	314.53	11.22	-53.8	-56.2	13.7	0.00e+00	0	28	0	776994816	72	5143
2026-01-15 13:00:32.52	314.70	11.18	-53.7	-56.0	13.8	0.00e+00	0	28	0	778043392	72	5017
2026-01-15 13:00:33.52	314.87	11.15	-53.6	-56.0	13.8	0.00e+00	0	28	0	780140544	72	4994
2026-01-15 13:00:34.52	315.04	11.11	-53.6	-56.0	13.8	0.00e+00	0	28	0	782237696	72	5005
2026-01-15 13:00:35.52	315.21	11.07	-53.6	-55.9	13.9	0.00e+00	0	28	0	784334848	72	4928
2026-01-15 13:00:36.52	315.38	11.04	-53.5	-55.8	13.9	0.00e+00	0	28	0	786432000	72	4878
2026-01-15 13:00:37.51	315.55	11.00	-53.5	-55.7	13.9	0.00e+00	0	28	0	787480576	72	4853
2026-01-15 13:00:38.52	315.72	10.96	-53.4	-55.7	13.9	0.00e+00	0	28	0	789577728	72	4846
2026-01-15 13:00:39.52	315.88	10.93	-53.7	-56.1	13.8	0.00e+00	0	28	0	791674880	72	5048
2026-01-15 13:00:40.52	316.05	10.89	-53.8	-56.3	13.8	0.00e+00	0	28	0	793772032	73	4877
2026-01-15 13:00:41.52	316.22	10.85	-54.2	-56.8	13.5	0.00e+00	0	28	0	795869184	73	5184
2026-01-15 13:00:42.53	316.39	10.82	-54.4	-57.1	13.3	0.00e+00	0	28	0	796917760	73	5401
2026-01-15 13:00:43.53	316.56	10.78	-54.5	-57.4	13.3	0.00e+00	0	28	0	799014912	74	5220
2026-01-15 13:00:44.53	316.72	10.74	-54.7	-57.6	13.1	0.00e+00	0	28	0	801112064	74	5374
2026-01-15 13:00:45.53	316.89	10.70	-54.7	-57.6	13.1	0.00e+00	0	28	0	803209216	74	5381
2026-01-15 13:00:46.52	317.05	10.66	-54.5	-57.3	13.3	0.00e+00	0	28	0	804257792	74	5168
2026-01-15 13:00:47.52	317.22	10.63	-54.4	-57.1	13.4	0.00e+00	0	28	0	806354944	74	5089
2026-01-15 13:00:48.52	317.38	10.59	-54.4	-57.2	13.4	0.00e+00	0	28	0	808452096	74	5137
2026-01-15 13:00:49.51	317.54	10.55	-54.3	-57.0	13.5	0.00e+00	0	28	0	810549248	74	5013
2026-01-15 13:00:50.51	317.71	10.51	-54.4	-57.1	13.4	0.00e+00	0	28	0	812646400	74	5084
2026-01-15 13:00:51.50	317.87	10.47	-54.3	-57.1	13.4	0.00e+00	0	28	0	813694976	74	5061
2026-01-15 13:00:52.49	318.03	10.43	-54.6	-57.5	13.2	0.00e+00	0	28	0	815792128	74	5311
2026-01-15 13:00:53.49	318.19	10.40	-54.6	-57.5	13.2	0.00e+00	0	28	0	817889280	74	5307
2026-01-15 13:00:54.50	318.36	10.36	-54.7	-57.7	13.1	0.00e+00	0	28	0	819986432	74	5456
2026-01-15 13:00:55.49	318.52	10.32	-54.7	-57.7	13.1	0.00e+00	0	28	0	821035008	74	5426
2026-01-15 13:00:56.49	318.68	10.28	-54.8	-57.8	13.0	0.00e+00	0	28	0	823132160	74	5503
2026-01-15 13:00:57.50	318.84	10.24	-54.6	-57.4	13.2	0.00e+00	0	28	0	825229312	74	5264
2026-01-15 13:00:58.49	319.00	10.20	-54.5	-57.2	13.3	0.00e+00	0	28	0	827326464	74	5157
2026-01-15 13:00:59.49	319.16	10.16	-54.3	-57.0	13.5	0.00e+00	0	28	0	829423616	74	5005
2026-01-15 13:01:00.48	319.32	10.12	-54.4	-57.1	13.4	0.00e+00	0	28	0	830472192	74	5079
2026-01-15 13:01:01.47	319.47	10.08	-54.4	-57.2	13.3	0.00e+00	0	28	0	832569344	74	5157
2026-01-15 13:01:02.47	319.63	10.04	-54.5	-57.3	13.3	0.00e+00	0	28	0	834666496	74	5200
2026-01-15 13:01:03.47	319.79	10.00	-54.6	-57.6	13.1	0.00e+00	0	28	0	836763648	74	5343
2026-01-15 13:01:04.46	319.95	9.96	-54.7	-57.7	13.1	0.00e+00	0	28	0	837812224	74	5414
2026-01-15 13:01:05.46	320.10	9.92	-54.9	-58.1	12.8	0.00e+00	0	28	0	839909376	74	5667
2026-01-15 13:01:06.46	320.26	9.88	-54.9	-58.1	12.9	0.00e+00	0	28	0	842006528	75	5367
2026-01-15 13:01:07.45	320.42	9.84	-54.8	-57.8	13.0	0.00e+00	0	28	0	844103680	75	5214
2026-01-15 13:01:08.45	320.57	9.80	-54.8	-57.8	13.0	0.00e+00	0	28	0	846200832	75	5211
2026-01-15 13:01:09.45	320.73	9.75	-54.8	-58.0	13.0	0.00e+00	0	28	0	847249408	75	5296
2026-01-15 13:01:10.44	320.88	9.71	-54.8	-58.0	13.0	0.00e+00	0	28	0	849346560	75	5284
2026-01-15 13:01:11.43	321.03	9.67	-54.6	-57.5	13.2	0.00e+00	0	28	0	851443712	75	5030
2026-01-15 13:01:12.44	321.19	9.63	-54.8	-57.9	13.0	0.00e+00	0	28	0	853540864	75	5279
2026-01-15 13:01:13.45	321.35	9.59	-54.8	-57.9	12.9	0.00e+00	0	28	0	855638016	75	5277
2026-01-15 13:01:14.44	321.50	9.55	-54.7	-57.7	13.1	0.00e+00	0	28	0	856686592	75	5121
2026-01-15 13:01:15.44	321.65	9.51	-54.7	-57.8	13.1	0.00e+00	0	28	0	858783744	75	5168
2026-01-15 13:01:16.44	321.80	9.46	-54.7	-57.8	13.0	0.00e+00	0	28	0	860880896	75	5199
2026-01-15 13:01:17.43	321.95	9.42	-54.7	-57.7	13.1	0.00e+00	0	28	0	862978048	75	5141
2026-01-15 13:01:18.43	322.11	9.38	-54.8	-57.9	13.0	0.00e+00	0	28	0	865075200	75	5247
2026-01-15 13:01:19.42	322.26	9.34	-54.7	-57.9	12.9	0.00e+00	0	28	0	866123776	75	5243
2026-01-15 13:01:20.42	322.41	9.30	-54.7	-57.9	13.0	0.00e+00	0	28	0	868220928	75	5226
2026-01-15 13:01:21.42	322.56	9.25	-54.7	-57.9	13.0	0.00e+00	0	28	0	870318080	75	5238
2026-01-15 13:01:22.42	322.71	9.21	-54.7	-57.9	13.0	0.00e+00	0	28	0	872415232	75	5242
2026-01-15 13:01:23.43	322.86	9.17	-54.8	-57.9	13.0	0.00e+00	0	28	0	873463808	75	5270
2026-01-15 13:01:24.43	323.01	9.13	-54.9	-58.1	12.8	0.00e+00	0	28	0	875560960	75	5376
2026-01-15 13:01:25.42	323.16	9.08	-54.6	-57.7	13.1	0.00e+00	0	28	0	877658112	75	5128
2026-01-15 13:01:26.42	323.30	9.04	-54.5	-57.5	13.2	0.00e+00	0	28	0	879755264	75	5038
2026-01-15 13:01:27.42	323.45	9.00	-54.6	-57.6	13.1	0.00e+00	0	28	0	881852416	75	5075
2026-01-15 13:01:28.42	323.60	8.96	-54.3	-57.1	13.4	0.00e+00	0	28	0	882900992	75	4781
2026-01-15 13:01:29.42	323.75	8.91	-54.2	-57.0	13.5	0.00e+00	0	28	0	884998144	75	4742
2026-01-15 13:01:30.43	323.90	8.87	-54.1	-56.7	13.5	0.00e+00	0	28	0	887095296	74	4860
2026-01-15 13:01:31.42	324.04	8.83	-54.0	-56.6	13.6	0.00e+00	0	28	0	889192448	74	4791
2026-01-15 13:01:32.42	324.19	8.78	-53.9	-56.4	13.7	0.00e+00	0	28	0	891289600	74	4692
2026-01-15 13:01:33.42	324.33	8.74	-53.9	-56.5	13.7	0.00e+00	0	28	0	892338176	74	4725
2026-01-15 13:01:34.42	324.48	8.70	-54.1	-56.7	13.5	0.00e+00	0	28	0	894435328	74	4861
2026-01-15 13:01:35.41	324.62	8.65	-54.2	-56.9	13.5	0.00e+00	0	28	0	896532480	74	4946
2026-01-15 13:01:36.41	324.77	8.61	-54.5	-57.3	13.2	0.00e+00	0	28	0	898629632	74	5199
2026-01-15 13:01:37.40	324.91	8.57	-54.3	-57.1	13.3	0.00e+00	0	28	0	899678208	74	5053
2026-01-15 13:01:38.40	325.05	8.52	-54.5	-57.4	13.2	0.00e+00	0	28	0	901775360	74	5239
2026-01-15 13:01:39.40	325.19	8.48	-54.9	-58.0	12.8	7.00e-07	0	28	0	903872512	74	5643
2026-01-15 13:01:40.40	325.34	8.43	-54.8	-57.9	12.8	0.00e+00	0	28	0	905969664	74	5542
2026-01-15 13:01:41.38	325.48	8.39	-54.8	-57.9	12.9	0.00e+00	0	28	0	908066816	74	5565
2026-01-15 13:01:42.39	325.62	8.35	-54.7	-57.8	13.0	0.00e+00	0	28	0	909115392	75	5210
2026-01-15 13:01:43.38	325.76	8.30	-54.7	-57.7	13.0	0.00e+00	0	28	0	911212544	75	5151
2026-01-15 13:01:44.38	325.90	8.26	-54.7	-57.7	13.1	0.00e+00	0	28	0	913309696	75	5137
2026-01-15 13:01:45.38	326.04	8.21	-54.7	-57.7	13.1	0.00e+00	0	28	0	915406848	75	5134
2026-01-15 13:01:46.38	326.18	8.17	-54.5	-57.4	13.2	0.00e+00	0	28	0	916455424	75	4972
2026-01-15 13:01:47.38	326.32	8.13	-54.4	-57.2	13.3	0.00e+00	0	28	0	918552576	75	4838
2026-01-15 13:01:48.38	326.46	8.08	-54.3	-57.1	13.4	0.00e+00	0	28	0	920649728	75	4780
2026-01-15 13:01:49.38	326.60	8.04	-54.4	-57.2	13.4	0.00e+00	0	28	0	922746880	75	4844
2026-01-15 13:01:50.38	326.74	7.99	-54.3	-57.1	13.4	0.00e+00	0	28	0	924844032	75	4809
2026-01-15 13:01:51.37	326.88	7.95	-54.4	-57.2	13.3	0.00e+00	0	28	0	925892608	75	4845
2026-01-15 13:01:52.37	327.01	7.90	-54.3	-57.2	13.4	0.00e+00	0	28	0	927989760	75	4815
2026-01-15 13:01:53.37	327.15	7.86	-54.2	-57.0	13.5	0.00e+00	0	28	0	930086912	75	4710
2026-01-15 13:01:54.36	327.29	7.81	-54.2	-56.9	13.4	0.00e+00	0	28	0	932184064	74	4958
2026-01-15 13:01:55.35	327.42	7.77	-54.2	-56.9	13.4	0.00e+00	0	28	0	934281216	74	4965
2026-01-15 13:01:56.34	327.56	7.72	-54.3	-57.1	13.3	0.00e+00	0	28	0	935329792	74	5067
2026-01-15 13:01:57.33	327.69	7.68	-54.1	-56.8	13.5	0.00e+00	0	28	0	937426944	74	4921
2026-01-15 13:01:58.33	327.83	7.63	-53.8	-56.3	13.7	0.00e+00	0	28	0	939524096	74	4648
2026-01-15 13:01:59.34	327.96	7.59	-53.9	-56.5	13.6	0.00e+00	0	28	0	941621248	74	4759
2026-01-15 13:02:00.34	328.10	7.54	-53.9	-56.6	13.6	0.00e+00	0	28	0	942669824	74	4772
2026-01-15 13:02:01.34	328.23	7.50	-53.9	-56.5	13.6	0.00e+00	0	28	0	944766976	74	4720
2026-01-15 13:02:02.34	328.36	7.45	-53.9	-56.5	13.6	0.00e+00	0	28	0	946864128	74	4736
2026-01-15 13:02:03.34	328.50	7.41	-53.7	-56.3	13.7	0.00e+00	0	28	0	948961280	73	4879
2026-01-15 13:02:04.33	328.63	7.36	-54.2	-57.0	13.3	0.00e+00	0	28	0	951058432	73	5321
2026-01-15 13:02:05.33	328.76	7.32	-54.1	-56.7	13.4	0.00e+00	0	28	0	952107008	73	5154
2026-01-15 13:02:06.32	328.89	7.27	-54.0	-56.7	13.4	0.00e+00	0	28	0	954204160	73	5119
2026-01-15 13:02:07.32	329.02	7.23	-54.4	-57.2	13.1	0.00e+00	0	28	0	956301312	73	5434
2026-01-15 13:02:08.32	329.16	7.18	-54.0	-56.6	13.4	0.00e+00	0	28	0	958398464	73	5099
2026-01-15 13:02:09.32	329.29	7.14	-54.0	-56.6	13.5	0.00e+00	0	28	0	960495616	73	5071
2026-01-15 13:02:10.32	329.42	7.09	-54.0	-56.7	13.4	0.00e+00	0	28	0	961544192	73	5122
2026-01-15 13:02:11.32	329.55	7.05	-53.4	-55.8	13.9	0.00e+00	0	28	0	963641344	73	4623
2026-01-15 13:02:12.32	329.68	7.00	-53.8	-56.4	13.6	0.00e+00	0	28	0	965738496	73	4945
2026-01-15 13:02:13.32	329.81	6.95	-53.8	-56.3	13.6	0.00e+00	0	28	0	967835648	73	4900
2026-01-15 13:02:14.32	329.94	6.91	-53.8	-56.4	13.6	0.00e+00	0	28	0	968884224	73	4940
2026-01-15 13:02:15.32	330.06	6.86	-53.9	-56.5	13.5	0.00e+00	0	28	0	970981376	73	5028
2026-01-15 13:02:16.32	330.19	6.82	-53.7	-56.2	13.7	0.00e+00	0	28	0	973078528	73	4849
2026-01-15 13:02:17.33	330.32	6.77	-54.1	-56.7	13.4	0.00e+00	0	28	0	975175680	73	5147
2026-01-15 13:02:18.33	330.45	6.72	-54.1	-56.8	13.3	0.00e+00	0	28	0	977272832	73	5217
2026-01-15 13:02:19.33	330.58	6.68	-54.0	-56.7	13.4	0.00e+00	0	28	0	978321408	73	5129
2026-01-15 13:02:20.33	330.70	6.63	-54.0	-56.7	13.4	0.00e+00	0	28	0	980418560	73	5140
2026-01-15 13:02:21.32	330.83	6.59	-54.2	-56.9	13.3	0.00e+00	0	28	0	982515712	73	5277
2026-01-15 13:02:22.32	330.95	6.54	-54.4	-57.2	13.1	0.00e+00	0	28	0	984612864	73	5452
2026-01-15 13:02:23.33	331.08	6.49	-54.0	-56.7	13.4	0.00e+00	0	28	0	986710016	73	5143
2026-01-15 13:02:24.33	331.20	6.45	-54.0	-56.6	13.4	0.00e+00	0	28	0	987758592	73	5100
2026-01-15 13:02:25.33	331.33	6.40	-54.2	-57.0	13.2	0.00e+00	0	28	0	989855744	73	5324
2026-01-15 13:02:26.34	331.46	6.35	-54.5	-57.4	13.1	0.00e+00	0	28	0	991952896	74	5238
2026-01-15 13:02:27.34	331.58	6.31	-54.3	-57.2	13.2	0.00e+00	0	28	0	994050048	74	5109
2026-01-15 13:02:28.35	331.70	6.26	-54.2	-57.0	13.3	0.00e+00	0	28	0	996147200	74	5025
2026-01-15 13:02:29.35	331.83	6.22	-54.5	-57.5	13.0	0.00e+00	0	28	0	997195776	74	5308
2026-01-15 13:02:30.36	331.95	6.17	-54.4	-57.3	13.1	0.00e+00	0	28	0	999292928	74	5204
2026-01-15 13:02:31.36	332.07	6.12	-54.5	-57.5	13.0	0.00e+00	0	28	0	1001390080	74	5330
2026-01-15 13:02:32.37	332.20	6.08	-54.8	-58.0	12.7	0.00e+00	0	28	0	1003487232	74	5627
2026-01-15 13:02:33.37	332.32	6.03	-54.4	-57.4	13.1	0.00e+00	0	28	0	1005584384	75	4950
2026-01-15 13:02:34.37	332.44	5.98	-54.5	-57.5	13.1	0.00e+00	0	28	0	1006632960	75	5020
2026-01-15 13:02:35.38	332.56	5.94	-54.5	-57.6	13.1	0.00e+00	0	28	0	1008730112	75	5057
2026-01-15 13:02:36.38	332.68	5.89	-54.3	-57.2	13.3	0.00e+00	0	28	0	1010827264	75	4858
2026-01-15 13:02:37.38	332.80	5.84	-54.4	-57.4	13.1	0.00e+00	0	28	0	1012924416	75	4966
2026-01-15 13:02:38.38	332.92	5.80	-54.3	-57.2	13.2	0.00e+00	0	28	0	1013972992	75	4869
2026-01-15 13:02:39.39	333.04	5.75	-54.1	-56.9	13.3	0.00e+00	0	28	0	1016070144	74	4939
2026-01-15 13:02:40.39	333.16	5.70	-54.1	-56.9	13.3	0.00e+00	0	28	0	1018167296	74	4933
2026-01-15 13:02:41.38	333.28	5.66	-54.2	-57.1	13.2	0.00e+00	0	28	0	1020264448	74	5069
2026-01-15 13:02:42.38	333.40	5.61	-54.3	-57.2	13.1	0.00e+00	0	28	0	1022361600	74	5115
2026-01-15 13:02:43.38	333.52	5.56	-54.1	-57.0	13.2	0.00e+00	0	28	0	1023410176	74	4990
2026-01-15 13:02:44.39	333.64	5.52	-54.4	-57.4	13.0	0.00e+00	0	28	0	1025507328	74	5259
2026-01-15 13:02:45.38	333.75	5.47	-54.2	-57.1	13.1	0.00e+00	0	28	0	1027604480	74	5074
2026-01-15 13:02:46.38	333.87	5.42	-53.9	-56.6	13.4	0.00e+00	0	28	0	1029701632	74	4810
2026-01-15 13:02:47.38	333.99	5.38	-54.2	-57.2	13.1	0.00e+00	0	28	0	1031798784	74	5111
2026-01-15 13:02:48.39	334.10	5.33	-54.7	-58.0	12.6	0.00e+00	0	28	0	1032847360	74	5601
2026-01-15 13:02:49.40	334.22	5.28	-54.7	-58.1	12.5	0.00e+00	0	28	0	1034944512	74	5657
2026-01-15 13:02:50.40	334.34	5.24	-54.2	-57.3	12.9	0.00e+00	0	28	0	1037041664	74	5204
2026-01-15 13:02:51.40	334.45	5.19	-54.1	-57.3	12.8	0.00e+00	0	28	0	1039138816	74	5215
2026-01-15 13:02:52.40	334.57	5.14	-54.3	-57.6	12.6	0.00e+00	0	28	0	1041235968	74	5392
2026-01-15 13:02:53.39	334.68	5.10	-54.3	-57.7	12.6	7.00e-07	0	28	0	1042284544	74	5460
2026-01-15 13:02:54.39	334.79	5.05	-54.3	-57.7	12.6	0.00e+00	0	28	0	1044381696	74	5441
2026-01-15 13:02:55.39	334.91	5.00	-54.5	-57.8	12.7	0.00e+00	0	28	0	1046478848	74	5513
2026-01-15 13:02:56.38	335.02	4.96	-59.2	-74.9	3.8	1.23e+00	0	28	104	1047527424	83	23561
2026-01-15 13:02:57.39	335.13	4.91	-59.7	-75.7	3.9	1.49e+00	0	28	104	1047527424	84	24386
2026-01-15 13:02:58.39	335.25	4.86	-58.6	-76.0	3.9	1.49e+00	0	28	104	1047527424	82	28127
2026-01-15 13:02:59.39	335.36	4.82	-60.1	-76.2	3.8	1.49e+00	0	28	104	1047527424	85	24142
2026-01-15 13:03:00.38	335.47	4.77	-60.2	-76.2	3.8	1.49e+00	0	28	104	1047527424	85	24402
2026-01-15 13:03:01.37	335.58	4.72	-60.3	-76.4	3.8	1.49e+00	0	28	104	1047527424	85	24771
2026-01-15 13:03:02.37	335.69	4.68	-60.4	-76.5	3.8	1.49e+00	0	28	104	1047527424	85	25018
2026-01-15 13:03:03.37	335.80	4.63	-60.5	-76.6	3.8	1.49e+00	0	28	104	1047527424	86	23978
2026-01-15 13:03:04.37	335.91	4.58	-60.6	-76.7	3.8	1.49e+00	0	28	104	1047527424	86	24142
2026-01-15 13:03:05.36	336.02	4.54	-60.6	-76.7	3.8	1.49e+00	0	28	104	1047527424	86	24222
2026-01-15 13:03:06.36	336.13	4.49	-60.6	-76.7	3.8	1.49e+00	0	28	104	1047527424	86	24308
2026-01-15 13:03:07.36	336.24	4.44	-60.7	-76.7	3.8	1.49e+00	0	28	104	1047527424	86	24367
2026-01-15 13:03:08.36	336.35	4.40	-60.7	-76.7	3.8	1.49e+00	0	28	104	1047527424	86	24399
2026-01-15 13:03:09.36	336.46	4.35	-60.7	-76.8	3.8	1.49e+00	0	28	104	1047527424	86	24452
2026-01-15 13:03:10.36	336.57	4.30	-60.7	-76.8	3.8	1.49e+00	0	28	104	1047527424	86	24463
2026-01-15 13:03:11.36	336.68	4.26	-60.7	-76.8	3.8	1.49e+00	0	28	104	1047527424	86	24451
2026-01-15 13:03:12.36	336.79	4.21	-60.7	-76.8	3.9	1.49e+00	0	28	104	1047527424	86	24472
2026-01-15 13:03:13.36	336.89	4.16	-60.7	-76.8	3.8	1.49e+00	0	28	104	1047527424	86	24444
2026-01-15 13:03:14.37	337.00	4.12	-60.7	-76.8	3.8	1.49e+00	0	28	104	1047527424	86	24491
2026-01-15 13:03:15.37	337.11	4.07	-60.7	-76.7	3.8	1.49e+00	0	28	104	1047527424	86	24393
2026-01-15 13:03:16.38	337.22	4.02	-60.7	-76.7	3.8	1.49e+00	0	28	104	1047527424	86	24356
2026-01-15 13:03:17.38	337.32	3.98	-60.6	-76.7	3.9	1.49e+00	0	28	104	1047527424	86	24369
2026-01-15 13:03:18.38	337.43	3.93	-60.6	-76.7	3.8	1.49e+00	0	28	104	1047527424	86	24207
2026-01-15 13:03:19.38	337.54	3.88	-60.6	-76.7	3.8	1.49e+00	0	28	104	1047527424	86	24217
2026-01-15 13:03:20.38	337.64	3.84	-60.6	-76.7	3.8	1.49e+00	0	28	104	1047527424	86	24194
2026-01-15 13:03:21.37	337.75	3.79	-60.6	-76.7	3.8	1.49e+00	0	28	104	1047527424	86	24229
2026-01-15 13:03:22.37	337.85	3.74	-60.6	-76.7	3.8	1.49e+00	0	28	104	1047527424	86	24182
2026-01-15 13:03:23.38	337.96	3.69	-60.6	-76.7	3.8	1.49e+00	0	28	104	1047527424	86	24186
2026-01-15 13:03:24.37	338.06	3.65	-60.6	-76.7	3.8	1.49e+00	0	28	104	1047527424	86	24159
2026-01-15 13:03:25.38	338.16	3.60	-60.6	-76.6	3.8	1.49e+00	0	28	104	1047527424	86	24107
2026-01-15 13:03:26.38	338.27	3.55	-60.5	-76.6	3.8	1.49e+00	0	28	104	1047527424	86	24112
2026-01-15 13:03:27.38	338.37	3.51	-60.6	-76.6	3.8	1.49e+00	0	28	104	1047527424	86	24071
2026-01-15 13:03:28.38	338.47	3.46	-60.5	-76.6	3.8	1.49e+00	0	28	104	1047527424	86	24047
2026-01-15 13:03:29.38	338.58	3.41	-60.5	-76.6	3.8	1.49e+00	0	28	104	1047527424	86	24059
2026-01-15 13:03:30.37	338.68	3.37	-60.5	-76.6	3.8	1.49e+00	0	28	104	1047527424	86	24047
2026-01-15 13:03:31.37	338.78	3.32	-60.5	-76.6	3.8	1.49e+00	0	28	104	1047527424	86	23935
2026-01-15 13:03:32.37	338.88	3.27	-60.5	-76.6	3.8	1.49e+00	0	28	104	1047527424	86	23996
2026-01-15 13:03:33.37	338.98	3.23	-60.5	-76.6	3.8	1.49e+00	0	28	104	1047527424	86	24029
2026-01-15 13:03:34.37	339.08	3.18	-60.5	-76.6	3.8	1.49e+00	0	28	104	1047527424	86	24010
2026-01-15 13:03:35.37	339.19	3.13	-60.5	-76.6	3.8	1.49e+00	0	28	104	1047527424	86	23935
2026-01-15 13:03:36.36	339.28	3.09	-60.5	-76.6	3.8	1.49e+00	0	28	104	1047527424	86	23960
2026-01-15 13:03:37.36	339.38	3.04	-60.5	-76.6	3.8	1.49e+00	0	28	104	1047527424	86	24002
2026-01-15 13:03:38.36	339.48	3.00	-60.5	-76.6	3.8	1.49e+00	0	28	104	1047527424	86	23973
2026-01-15 13:03:39.37	339.59	2.95	-60.5	-76.6	3.8	1.49e+00	0	28	104	1047527424	86	23963
2026-01-15 13:03:40.36	339.68	2.90	-60.5	-76.6	3.8	1.49e+00	0	28	104	1047527424	86	23925
2026-01-15 13:03:41.37	339.78	2.86	-60.5	-76.6	3.8	1.49e+00	0	28	104	1047527424	86	23859
2026-01-15 13:03:42.36	339.88	2.81	-60.5	-76.6	3.8	1.49e+00	0	28	104	1047527424	86	23901
2026-01-15 13:03:43.36	339.98	2.76	-60.5	-76.6	3.8	1.49e+00	0	28	104	1047527424	86	23891
2026-01-15 13:03:44.36	340.08	2.72	-60.5	-76.6	3.8	1.49e+00	0	28	104	1047527424	86	23931
2026-01-15 13:03:45.36	340.18	2.67	-60.5	-76.6	3.8	1.49e+00	0	28	104	1047527424	86	23939
2026-01-15 13:03:46.36	340.27	2.62	-60.5	-76.6	3.8	1.49e+00	0	28	104	1047527424	86	23967
2026-01-15 13:03:47.35	340.37	2.58	-60.5	-76.6	3.8	1.49e+00	0	28	104	1047527424	86	23980
2026-01-15 13:03:48.35	340.47	2.53	-60.5	-76.6	3.8	1.49e+00	0	28	104	1047527424	86	23914
2026-01-15 13:03:49.35	340.56	2.48	-60.5	-76.6	3.8	1.49e+00	0	28	104	1047527424	86	23911
2026-01-15 13:03:50.35	340.66	2.44	-60.5	-76.6	3.8	1.49e+00	0	28	104	1047527424	86	23859
2026-01-15 13:03:51.35	340.76	2.39	-60.5	-76.6	3.8	1.49e+00	0	28	104	1047527424	86	23899
2026-01-15 13:03:52.35	340.85	2.34	-60.5	-76.5	3.8	1.49e+00	0	29	104	1047527424	86	23848
2026-01-15 13:03:53.35	340.95	2.30	-60.5	-76.6	3.8	1.49e+00	0	28	104	1047527424	86	23858
2026-01-15 13:03:54.34	341.04	2.25	-60.5	-76.6	3.8	1.49e+00	0	28	104	1047527424	86	23965
2026-01-15 13:03:55.33	341.14	2.21	-60.5	-76.6	3.8	1.49e+00	0	28	104	1047527424	86	23888
2026-01-15 13:03:56.32	341.23	2.16	-60.5	-76.6	3.8	1.49e+00	0	28	104	1047527424	86	23921
2026-01-15 13:03:57.33	341.32	2.11	-60.5	-76.6	3.8	1.49e+00	0	28	104	1047527424	86	23937
2026-01-15 13:03:58.32	341.42	2.07	-60.5	-76.6	3.8	1.49e+00	0	28	104	1047527424	86	23855
2026-01-15 13:03:59.33	341.51	2.02	-60.5	-76.5	3.8	1.49e+00	0	29	104	1047527424	86	23850
2026-01-15 13:04:00.33	341.61	1.97	-60.5	-76.6	3.8	1.49e+00	0	28	104	1047527424	86	23886
2026-01-15 13:04:01.32	341.70	1.93	-60.5	-76.6	3.8	1.49e+00	0	28	104	1047527424	86	23875

#Closed at: 2026-01-15 13:04:02
#Recorded file [1047 MB]: D:/lorett/data/31004_260115_155242.dat