passes_logs/2026/01/15/R3.2S_Murmansk/R3.2S_Murmansk__20260115_224227_NOAA_21_JPSS-2_rec.log

#Pass ID: 20260115_224227_NOAA 21 (JPSS-2)
#Satellite: NOAA 21 (JPSS-2)
#Configuration: NOAA-21
#almurnet v.1.7.20251203
#Start time: 2026-01-15 22:42:27

#Version: 2.2.20231116
#Station: R3.2S_Murmansk
#Location: 33.079688 lon 68.888172 lat
#TLE: 1 54234U 22150A   26015.43562254  .00000028  00000+0  34201-4 0  9996
#TLE: 2 54234  98.7498 316.3301 0000635 288.4972  71.6135 14.19534768164873

#Time	Az	El	Level	Level2	SNR	BER	BlckErr	Temp	State	Recorded	gain1	gain2
2026-01-15 22:42:27.55	19.26	2.01	-56.6	-69.3	3.8	1.49e+00	0	40	0	0	85	14914
2026-01-15 22:42:28.56	19.32	2.07	-56.5	-69.3	3.8	1.49e+00	0	41	104	0	83	16725
2026-01-15 22:42:29.56	19.38	2.13	-56.5	-69.3	3.8	1.49e+00	0	41	104	0	83	16741
2026-01-15 22:42:30.57	19.44	2.19	-56.5	-69.2	3.8	1.49e+00	0	41	104	0	83	16686
2026-01-15 22:42:31.58	19.50	2.24	-56.5	-69.2	3.8	1.49e+00	0	41	104	0	83	16680
2026-01-15 22:42:32.59	19.56	2.30	-56.5	-69.2	3.8	1.49e+00	0	41	104	0	83	16641
2026-01-15 22:42:33.60	19.62	2.36	-56.5	-69.2	3.8	1.49e+00	0	41	104	0	83	16553
2026-01-15 22:42:34.60	19.68	2.42	-56.5	-69.2	3.8	1.49e+00	0	41	104	0	83	16640
2026-01-15 22:42:35.62	19.74	2.48	-56.5	-69.2	3.8	1.49e+00	0	41	104	0	83	16572
2026-01-15 22:42:36.63	19.80	2.54	-56.5	-69.2	3.8	1.49e+00	0	41	104	0	83	16640
2026-01-15 22:42:37.63	19.86	2.60	-56.5	-69.2	3.8	1.49e+00	0	41	104	0	83	16611
2026-01-15 22:42:38.64	19.93	2.65	-56.5	-69.2	3.8	1.49e+00	0	41	104	0	83	16619
2026-01-15 22:42:39.65	19.99	2.71	-56.5	-69.2	3.8	1.49e+00	0	41	104	0	83	16594
2026-01-15 22:42:40.66	20.05	2.77	-56.5	-69.0	3.8	1.49e+00	0	41	104	0	83	16234
2026-01-15 22:42:41.67	20.11	2.83	-56.5	-68.8	3.8	1.49e+00	0	41	104	0	83	15786
2026-01-15 22:42:42.68	20.18	2.89	-56.5	-68.7	3.8	1.49e+00	0	42	104	0	83	15658
2026-01-15 22:42:43.69	20.24	2.95	-56.4	-68.3	3.8	1.49e+00	0	42	104	0	83	15042
2026-01-15 22:42:44.70	20.30	3.01	-56.4	-68.0	3.8	1.49e+00	0	42	104	0	83	14503
2026-01-15 22:42:45.71	20.37	3.07	-56.4	-68.4	3.8	1.49e+00	0	42	104	0	83	15140
2026-01-15 22:42:46.72	20.43	3.13	-56.4	-68.2	3.8	1.49e+00	0	42	104	0	83	14709
2026-01-15 22:42:47.73	20.50	3.19	-56.4	-68.4	3.8	1.49e+00	0	42	104	0	83	15089
2026-01-15 22:42:48.74	20.56	3.25	-56.4	-68.1	3.8	1.49e+00	0	42	104	0	83	14691
2026-01-15 22:42:49.75	20.62	3.31	-56.4	-67.8	3.8	1.49e+00	0	42	104	0	83	14141
2026-01-15 22:42:50.76	20.69	3.37	-56.4	-67.8	3.8	1.49e+00	0	42	104	0	83	14146
2026-01-15 22:42:51.77	20.75	3.43	-56.3	-67.1	3.9	1.48e+00	0	42	104	0	83	13001
2026-01-15 22:42:52.78	20.82	3.49	-56.3	-66.7	4.0	1.48e+00	0	42	104	0	83	12406
2026-01-15 22:42:53.79	20.89	3.55	-56.3	-66.4	4.0	1.48e+00	0	42	104	0	83	11993
2026-01-15 22:42:54.80	20.95	3.61	-56.2	-65.7	4.2	1.47e+00	0	42	104	0	83	11057
2026-01-15 22:42:55.81	21.02	3.67	-56.1	-65.2	4.3	1.46e+00	0	42	104	0	83	10520
2026-01-15 22:42:56.82	21.08	3.73	-56.0	-64.2	4.7	1.05e+00	0	42	104	0	83	9354
2026-01-15 22:42:57.83	21.15	3.80	-56.0	-64.4	4.6	1.23e+00	0	42	104	0	83	9588
2026-01-15 22:42:58.84	21.22	3.86	-56.0	-64.6	4.6	1.20e+00	0	42	104	0	83	9776
2026-01-15 22:42:59.85	21.29	3.92	-55.9	-64.1	4.8	1.16e+00	0	42	104	0	83	9180
2026-01-15 22:43:00.86	21.35	3.98	-56.1	-64.7	4.5	1.23e+00	5	42	104	0	83	9895
2026-01-15 22:43:01.87	21.42	4.04	-55.7	-62.6	5.7	5.63e-01	0	42	0	1048576	83	7768
2026-01-15 22:43:02.88	21.49	4.10	-55.4	-61.5	6.5	2.99e-01	0	43	0	3145728	82	7274
2026-01-15 22:43:03.89	21.56	4.16	-54.9	-59.8	8.1	8.04e-02	0	43	0	6291456	81	6333
2026-01-15 22:43:04.90	21.63	4.23	-54.4	-58.6	9.3	2.35e-02	0	43	0	9437184	80	5820
2026-01-15 22:43:05.91	21.69	4.29	-54.1	-57.8	10.2	8.17e-03	0	43	0	12582912	80	5306
2026-01-15 22:43:06.92	21.76	4.35	-53.9	-57.4	10.8	3.15e-03	0	43	0	15728640	79	5345
2026-01-15 22:43:07.93	21.83	4.41	-53.2	-56.0	12.1	4.99e-04	0	43	0	18874368	78	4858
2026-01-15 22:43:08.94	21.90	4.47	-52.6	-55.0	13.2	8.62e-05	0	43	0	22020096	77	4592
2026-01-15 22:43:09.94	21.97	4.53	-52.6	-55.1	13.1	1.83e-05	0	43	0	25165824	76	4892
2026-01-15 22:43:10.95	22.04	4.60	-52.6	-55.1	13.1	3.20e-05	0	43	0	29360128	76	4920
2026-01-15 22:43:11.96	22.11	4.66	-52.9	-55.7	12.5	8.54e-05	0	43	0	32505856	76	5239
2026-01-15 22:43:12.97	22.18	4.72	-53.1	-55.9	12.3	9.91e-05	0	43	0	35651584	76	5364
2026-01-15 22:43:13.98	22.25	4.79	-53.1	-56.0	12.2	1.07e-04	0	43	0	38797312	76	5415
2026-01-15 22:43:14.99	22.33	4.85	-53.6	-56.7	11.4	7.26e-04	0	43	0	41943040	77	5579
2026-01-15 22:43:16.00	22.40	4.91	-53.8	-57.2	11.0	1.53e-03	0	43	0	45088768	78	5529
2026-01-15 22:43:17.01	22.47	4.97	-54.3	-58.2	9.9	8.06e-03	0	43	0	48234496	79	5913
2026-01-15 22:43:18.02	22.54	5.04	-54.6	-59.0	9.1	2.24e-02	0	43	0	51380224	79	6457
2026-01-15 22:43:19.03	22.61	5.10	-50.9	-52.6	15.8	9.10e-06	0	43	0	53477376	73	4366
2026-01-15 22:43:20.04	22.69	5.16	-55.8	-64.0	4.9	2.24e-01	0	43	0	56623104	82	9639
2026-01-15 22:43:21.05	22.76	5.23	-53.1	-55.7	12.7	6.46e-04	0	43	0	58720256	78	4660
2026-01-15 22:43:22.06	22.83	5.29	-50.3	-51.7	16.7	0.00e+00	0	43	0	60817408	72	4192
2026-01-15 22:43:23.07	22.91	5.35	-55.3	-60.8	7.4	4.99e-02	0	43	0	63963136	81	7054
2026-01-15 22:43:24.08	22.98	5.42	-50.2	-51.7	16.7	0.00e+00	0	43	0	67108864	72	4159
2026-01-15 22:43:25.09	23.05	5.48	-50.0	-51.4	17.1	0.00e+00	0	43	0	70254592	71	4257
2026-01-15 22:43:26.10	23.13	5.55	-50.0	-51.4	17.1	0.00e+00	0	43	0	73400320	71	4269
2026-01-15 22:43:27.11	23.20	5.61	-50.3	-51.8	16.8	0.00e+00	0	44	0	76546048	71	4482
2026-01-15 22:43:28.12	23.28	5.68	-50.3	-51.8	16.8	0.00e+00	0	43	0	79691776	71	4465
2026-01-15 22:43:29.13	23.35	5.74	-50.3	-51.8	16.8	0.00e+00	0	43	0	82837504	71	4456
2026-01-15 22:43:30.13	23.43	5.80	-50.2	-51.7	16.9	0.00e+00	0	44	0	85983232	71	4396
2026-01-15 22:43:31.15	23.51	5.87	-50.1	-51.5	17.0	0.00e+00	0	44	0	90177536	71	4338
2026-01-15 22:43:32.15	23.58	5.93	-49.9	-51.3	17.2	0.00e+00	0	44	0	93323264	71	4214
2026-01-15 22:43:33.17	23.66	6.00	-50.0	-51.4	17.2	0.00e+00	0	44	0	96468992	71	4253
2026-01-15 22:43:34.18	23.74	6.06	-50.1	-51.5	17.1	0.00e+00	0	44	0	99614720	71	4318
2026-01-15 22:43:35.19	23.81	6.13	-50.1	-51.5	17.1	0.00e+00	0	44	0	102760448	71	4304
2026-01-15 22:43:36.20	23.89	6.19	-50.1	-51.5	17.0	0.00e+00	0	44	0	105906176	71	4319
2026-01-15 22:43:37.21	23.97	6.26	-50.0	-51.4	17.2	0.00e+00	0	44	0	108003328	71	4257
2026-01-15 22:43:38.22	24.05	6.33	-50.0	-51.4	17.2	0.00e+00	0	44	0	111149056	71	4264
2026-01-15 22:43:39.23	24.13	6.39	-49.8	-51.2	17.4	0.00e+00	0	44	0	114294784	71	4150
2026-01-15 22:43:40.24	24.20	6.46	-49.9	-51.3	17.2	0.00e+00	0	44	0	117440512	71	4241
2026-01-15 22:43:41.25	24.28	6.52	-50.3	-51.7	16.8	0.00e+00	0	44	0	121634816	71	4441
2026-01-15 22:43:42.26	24.36	6.59	-50.1	-51.5	17.1	0.00e+00	0	44	0	124780544	71	4325
2026-01-15 22:43:43.27	24.44	6.66	-50.4	-51.9	16.8	0.00e+00	0	44	0	127926272	71	4502
2026-01-15 22:43:44.28	24.52	6.72	-50.2	-51.6	17.0	0.00e+00	0	44	0	131072000	71	4380
2026-01-15 22:43:45.29	24.61	6.79	-50.1	-51.5	17.1	0.00e+00	0	44	0	134217728	71	4322
2026-01-15 22:43:46.30	24.69	6.86	-50.4	-51.9	16.7	0.00e+00	0	44	0	137363456	71	4524
2026-01-15 22:43:47.31	24.77	6.92	-50.8	-52.5	16.1	0.00e+00	0	44	0	140509184	72	4553
2026-01-15 22:43:48.32	24.85	6.99	-50.0	-51.5	17.1	0.00e+00	0	44	0	143654912	72	4055
2026-01-15 22:43:49.33	24.93	7.06	-50.0	-51.4	17.2	0.00e+00	0	44	0	146800640	72	4024
2026-01-15 22:43:50.34	25.01	7.12	-50.1	-51.6	17.1	0.00e+00	0	44	0	149946368	71	4353
2026-01-15 22:43:51.35	25.10	7.19	-50.2	-51.6	17.0	0.00e+00	0	44	0	153092096	71	4379
2026-01-15 22:43:52.36	25.18	7.26	-50.1	-51.6	17.1	0.00e+00	0	44	0	156237824	71	4354
2026-01-15 22:43:53.37	25.26	7.32	-50.4	-51.9	16.8	0.00e+00	0	44	0	159383552	71	4528
2026-01-15 22:43:54.38	25.35	7.39	-49.8	-51.1	17.6	0.00e+00	0	44	0	162529280	71	4143
2026-01-15 22:43:55.39	25.43	7.46	-49.8	-51.1	17.6	0.00e+00	0	45	0	165675008	71	4143
2026-01-15 22:43:56.40	25.52	7.53	-49.8	-51.1	17.6	0.00e+00	0	44	0	168820736	71	4116
2026-01-15 22:43:57.41	25.60	7.60	-49.8	-51.1	17.6	0.00e+00	0	44	0	171966464	71	4121
2026-01-15 22:43:58.42	25.69	7.66	-49.8	-51.1	17.6	0.00e+00	0	45	0	175112192	71	4131
2026-01-15 22:43:59.43	25.77	7.73	-49.6	-50.9	17.8	0.00e+00	0	45	0	178257920	71	4032
2026-01-15 22:44:00.44	25.86	7.80	-49.6	-50.9	17.9	0.00e+00	0	45	0	181403648	71	4021
2026-01-15 22:44:01.45	25.94	7.87	-49.9	-51.2	17.6	0.00e+00	0	45	0	184549376	71	4171
2026-01-15 22:44:02.46	26.03	7.94	-49.9	-51.3	17.5	0.00e+00	0	45	0	187695104	71	4198
2026-01-15 22:44:03.47	26.12	8.01	-49.8	-51.2	17.6	0.00e+00	0	45	0	190840832	71	4150
2026-01-15 22:44:04.48	26.21	8.08	-49.7	-51.0	17.7	0.00e+00	0	45	0	193986560	71	4098
2026-01-15 22:44:05.49	26.29	8.14	-49.6	-50.9	17.8	0.00e+00	0	45	0	197132288	71	4038
2026-01-15 22:44:06.50	26.38	8.21	-49.6	-50.9	17.9	0.00e+00	0	45	0	200278016	71	4022
2026-01-15 22:44:07.51	26.47	8.28	-49.4	-50.7	18.1	0.00e+00	0	45	0	203423744	70	4161
2026-01-15 22:44:08.52	26.56	8.35	-49.5	-50.8	18.0	0.00e+00	0	45	0	206569472	70	4213
2026-01-15 22:44:09.53	26.65	8.42	-49.6	-50.8	18.0	0.00e+00	0	45	0	209715200	70	4232
2026-01-15 22:44:10.54	26.74	8.49	-49.3	-50.5	18.3	0.00e+00	0	45	0	212860928	70	4077
2026-01-15 22:44:11.55	26.83	8.56	-49.3	-50.6	18.2	0.00e+00	0	45	0	216006656	70	4110
2026-01-15 22:44:12.56	26.92	8.63	-49.3	-50.5	18.3	0.00e+00	0	45	0	219152384	70	4073
2026-01-15 22:44:13.57	27.01	8.70	-49.1	-50.3	18.5	0.00e+00	0	45	0	222298112	70	3992
2026-01-15 22:44:14.58	27.11	8.77	-49.1	-50.3	18.5	0.00e+00	0	45	0	225443840	70	3972
2026-01-15 22:44:15.59	27.20	8.84	-49.1	-50.3	18.6	0.00e+00	0	45	0	228589568	70	3959
2026-01-15 22:44:16.60	27.29	8.91	-49.1	-50.3	18.6	0.00e+00	0	45	0	231735296	70	3960
2026-01-15 22:44:17.61	27.38	8.98	-49.1	-50.3	18.5	0.00e+00	0	45	0	234881024	70	4000
2026-01-15 22:44:18.62	27.48	9.06	-48.9	-50.1	18.7	0.00e+00	0	45	0	238026752	69	4113
2026-01-15 22:44:19.63	27.57	9.13	-49.0	-50.1	18.7	0.00e+00	0	45	0	241172480	69	4130
2026-01-15 22:44:20.64	27.66	9.20	-49.1	-50.3	18.6	0.00e+00	0	45	0	244318208	69	4202
2026-01-15 22:44:21.65	27.76	9.27	-48.9	-50.1	18.8	0.00e+00	0	45	0	247463936	69	4125
2026-01-15 22:44:22.66	27.85	9.34	-48.9	-50.1	18.7	0.00e+00	0	45	0	250609664	69	4118
2026-01-15 22:44:23.67	27.95	9.41	-48.9	-50.0	18.8	0.00e+00	0	45	0	253755392	69	4096
2026-01-15 22:44:24.68	28.05	9.48	-48.9	-50.0	18.8	0.00e+00	0	45	0	256901120	69	4081
2026-01-15 22:44:25.69	28.14	9.56	-48.8	-50.0	18.9	0.00e+00	0	45	0	260046848	69	4058
2026-01-15 22:44:26.70	28.24	9.63	-48.8	-49.9	19.0	0.00e+00	0	45	0	263192576	69	4014
2026-01-15 22:44:27.71	28.34	9.70	-48.7	-49.8	19.0	0.00e+00	0	45	0	266338304	69	3990
2026-01-15 22:44:28.72	28.43	9.77	-48.7	-49.8	19.1	0.00e+00	0	45	0	269484032	69	3987
2026-01-15 22:44:29.72	28.53	9.84	-48.7	-49.8	19.0	0.00e+00	0	45	0	272629760	69	4001
2026-01-15 22:44:30.73	28.63	9.92	-48.8	-49.9	19.0	0.00e+00	0	45	0	275775488	69	4011
2026-01-15 22:44:31.74	28.73	9.99	-48.7	-49.8	19.0	0.00e+00	0	45	0	278921216	69	4004
2026-01-15 22:44:32.75	28.83	10.06	-48.6	-49.7	19.2	0.00e+00	0	45	0	282066944	69	3937
2026-01-15 22:44:33.77	28.93	10.13	-48.6	-49.7	19.2	0.00e+00	0	45	0	285212672	69	3954
2026-01-15 22:44:34.78	29.03	10.21	-48.6	-49.7	19.2	0.00e+00	0	45	0	288358400	69	3951
2026-01-15 22:44:35.79	29.13	10.28	-48.6	-49.7	19.2	0.00e+00	0	45	0	291504128	69	3949
2026-01-15 22:44:36.80	29.23	10.35	-48.6	-49.7	19.2	0.00e+00	0	45	0	294649856	69	3929
2026-01-15 22:44:37.81	29.34	10.43	-48.6	-49.7	19.2	0.00e+00	0	45	0	297795584	69	3928
2026-01-15 22:44:38.82	29.44	10.50	-48.6	-49.7	19.2	0.00e+00	0	45	0	300941312	69	3927
2026-01-15 22:44:39.83	29.54	10.58	-48.4	-49.4	19.4	0.00e+00	0	45	0	304087040	68	4039
2026-01-15 22:44:40.84	29.65	10.65	-48.4	-49.4	19.4	0.00e+00	0	45	0	307232768	68	4051
2026-01-15 22:44:41.85	29.75	10.72	-48.3	-49.4	19.5	0.00e+00	0	45	0	310378496	68	4027
2026-01-15 22:44:42.86	29.85	10.80	-48.3	-49.4	19.5	0.00e+00	0	45	0	313524224	68	4019
2026-01-15 22:44:43.87	29.96	10.87	-48.3	-49.3	19.6	0.00e+00	0	45	0	316669952	68	3988
2026-01-15 22:44:44.88	30.06	10.95	-48.2	-49.3	19.6	0.00e+00	0	45	0	319815680	68	3963
2026-01-15 22:44:45.89	30.17	11.02	-48.4	-49.4	19.5	0.00e+00	0	46	0	322961408	68	4051
2026-01-15 22:44:46.90	30.28	11.10	-48.3	-49.4	19.5	0.00e+00	0	45	0	326107136	68	4019
2026-01-15 22:44:47.91	30.38	11.17	-48.2	-49.2	19.6	0.00e+00	0	46	0	329252864	68	3950
2026-01-15 22:44:48.92	30.49	11.25	-48.4	-49.4	19.5	0.00e+00	0	46	0	332398592	68	4048
2026-01-15 22:44:49.93	30.60	11.32	-48.3	-49.4	19.5	0.00e+00	0	46	0	335544320	68	4006
2026-01-15 22:44:50.94	30.71	11.40	-48.1	-49.2	19.7	0.00e+00	0	46	0	338690048	68	3915
2026-01-15 22:44:51.95	30.82	11.47	-48.2	-49.3	19.6	0.00e+00	0	46	0	341835776	68	3973
2026-01-15 22:44:52.96	30.93	11.55	-48.2	-49.3	19.7	0.00e+00	0	46	0	344981504	68	3961
2026-01-15 22:44:53.97	31.04	11.62	-48.2	-49.3	19.6	0.00e+00	0	45	0	348127232	68	3971
2026-01-15 22:44:54.98	31.15	11.70	-48.0	-49.0	19.9	0.00e+00	0	46	0	351272960	68	3842
2026-01-15 22:44:55.99	31.26	11.78	-48.1	-49.2	19.7	0.00e+00	0	46	0	354418688	68	3918
2026-01-15 22:44:57.00	31.37	11.85	-48.1	-49.1	19.8	0.00e+00	0	46	0	357564416	68	3888
2026-01-15 22:44:58.01	31.49	11.93	-48.1	-49.1	19.8	0.00e+00	0	46	0	360710144	68	3878
2026-01-15 22:44:59.02	31.60	12.01	-48.1	-49.1	19.8	0.00e+00	0	46	0	363855872	68	3911
2026-01-15 22:45:00.03	31.71	12.08	-48.2	-49.2	19.7	0.00e+00	0	46	0	367001600	68	3941
2026-01-15 22:45:01.04	31.83	12.16	-48.2	-49.2	19.7	0.00e+00	0	46	0	370147328	68	3953
2026-01-15 22:45:02.05	31.94	12.24	-48.1	-49.1	19.9	0.00e+00	0	46	0	373293056	68	3879
2026-01-15 22:45:03.06	32.06	12.31	-48.1	-49.1	19.8	0.00e+00	0	46	0	377487360	68	3896
2026-01-15 22:45:04.07	32.17	12.39	-48.0	-49.0	20.0	0.00e+00	0	46	0	379584512	68	3835
2026-01-15 22:45:05.08	32.29	12.47	-47.9	-48.9	20.0	0.00e+00	0	46	0	382730240	67	4006
2026-01-15 22:45:06.09	32.41	12.55	-47.8	-48.8	20.0	0.00e+00	0	46	0	385875968	67	3994
2026-01-15 22:45:07.10	32.52	12.62	-47.8	-48.8	20.1	0.00e+00	0	46	0	389021696	67	3971
2026-01-15 22:45:08.11	32.64	12.70	-48.0	-49.0	19.9	0.00e+00	0	46	0	392167424	67	4058
2026-01-15 22:45:09.12	32.76	12.78	-47.9	-48.9	20.0	0.00e+00	0	46	0	395313152	67	4010
2026-01-15 22:45:10.13	32.88	12.86	-47.9	-48.9	20.0	0.00e+00	0	46	0	398458880	67	4044
2026-01-15 22:45:11.15	33.00	12.94	-47.9	-48.9	19.9	0.00e+00	0	46	0	402653184	67	4049
2026-01-15 22:45:12.16	33.12	13.01	-48.0	-49.0	19.8	0.00e+00	0	46	0	405798912	67	4086
2026-01-15 22:45:13.17	33.24	13.09	-48.0	-49.0	19.9	0.00e+00	0	46	0	408944640	67	4061
2026-01-15 22:45:14.18	33.37	13.17	-47.9	-48.9	19.9	0.00e+00	0	46	0	412090368	67	4043
2026-01-15 22:45:15.19	33.49	13.25	-47.9	-48.9	20.0	0.00e+00	0	46	0	415236096	67	4023
2026-01-15 22:45:16.20	33.61	13.33	-48.0	-49.0	19.9	0.00e+00	0	46	0	418381824	67	4070
2026-01-15 22:45:17.21	33.74	13.41	-47.9	-49.0	19.9	0.00e+00	0	46	0	421527552	67	4052
2026-01-15 22:45:18.22	33.86	13.49	-48.0	-49.0	19.9	0.00e+00	0	46	0	424673280	67	4077
2026-01-15 22:45:19.23	33.99	13.57	-48.1	-49.1	19.8	0.00e+00	0	46	0	426770432	67	4107
2026-01-15 22:45:20.24	34.11	13.65	-47.9	-48.9	20.0	0.00e+00	0	46	0	429916160	67	4020
2026-01-15 22:45:21.25	34.24	13.73	-47.9	-48.9	20.0	0.00e+00	0	46	0	434110464	67	4039
2026-01-15 22:45:22.26	34.37	13.81	-48.0	-49.0	19.9	0.00e+00	0	46	0	437256192	67	4070
2026-01-15 22:45:23.27	34.49	13.89	-48.1	-49.1	19.8	0.00e+00	0	46	0	440401920	67	4121
2026-01-15 22:45:24.28	34.62	13.97	-48.0	-49.0	19.9	0.00e+00	0	46	0	443547648	67	4077
2026-01-15 22:45:25.29	34.75	14.05	-48.1	-49.2	19.8	0.00e+00	0	46	0	446693376	67	4150
2026-01-15 22:45:26.30	34.88	14.13	-48.1	-49.2	19.8	0.00e+00	0	46	0	449839104	67	4146
2026-01-15 22:45:27.31	35.01	14.21	-48.2	-49.2	19.7	0.00e+00	0	46	0	452984832	67	4189
2026-01-15 22:45:28.32	35.14	14.29	-48.3	-49.4	19.6	0.00e+00	0	46	0	456130560	67	4248
2026-01-15 22:45:29.33	35.27	14.37	-48.2	-49.3	19.7	0.00e+00	0	46	0	459276288	67	4209
2026-01-15 22:45:30.34	35.41	14.45	-48.4	-49.4	19.6	0.00e+00	0	46	0	462422016	67	4270
2026-01-15 22:45:31.35	35.54	14.53	-48.4	-49.4	19.6	0.00e+00	0	46	0	465567744	67	4266
2026-01-15 22:45:32.36	35.67	14.61	-48.4	-49.5	19.5	0.00e+00	0	46	0	468713472	67	4307
2026-01-15 22:45:33.37	35.81	14.69	-48.3	-49.3	19.7	0.00e+00	0	46	0	471859200	67	4239
2026-01-15 22:45:34.38	35.94	14.77	-48.3	-49.3	19.7	0.00e+00	0	47	0	475004928	67	4221
2026-01-15 22:45:35.39	36.08	14.86	-48.4	-49.4	19.6	0.00e+00	0	47	0	478150656	67	4286
2026-01-15 22:45:36.40	36.22	14.94	-48.3	-49.3	19.7	0.00e+00	0	46	0	481296384	67	4230
2026-01-15 22:45:37.41	36.35	15.02	-48.2	-49.2	19.8	0.00e+00	0	46	0	484442112	67	4184
2026-01-15 22:45:38.42	36.49	15.10	-48.1	-49.1	19.9	0.00e+00	0	46	0	487587840	67	4127
2026-01-15 22:45:39.44	36.63	15.18	-48.1	-49.1	19.9	0.00e+00	0	47	0	490733568	67	4118
2026-01-15 22:45:40.44	36.77	15.26	-48.1	-49.1	19.9	0.00e+00	0	46	0	493879296	67	4113
2026-01-15 22:45:41.46	36.91	15.35	-48.0	-49.0	20.0	0.00e+00	0	47	0	497025024	67	4073
2026-01-15 22:45:42.46	37.05	15.43	-48.1	-49.1	19.9	0.00e+00	0	46	0	500170752	67	4130
2026-01-15 22:45:43.48	37.20	15.51	-48.1	-49.1	19.9	0.00e+00	0	46	0	503316480	67	4133
2026-01-15 22:45:44.49	37.34	15.60	-48.2	-49.2	19.8	0.00e+00	0	46	0	506462208	67	4173
2026-01-15 22:45:45.50	37.48	15.68	-48.2	-49.3	19.8	0.00e+00	0	46	0	509607936	67	4201
2026-01-15 22:45:46.51	37.63	15.76	-48.2	-49.3	19.8	0.00e+00	0	47	0	512753664	67	4196
2026-01-15 22:45:47.52	37.77	15.84	-48.3	-49.3	19.7	0.00e+00	0	46	0	515899392	67	4238
2026-01-15 22:45:48.52	37.92	15.93	-48.4	-49.4	19.6	0.00e+00	0	47	0	519045120	67	4272
2026-01-15 22:45:49.54	38.06	16.01	-48.3	-49.4	19.6	0.00e+00	0	47	0	522190848	67	4258
2026-01-15 22:45:50.54	38.21	16.09	-48.4	-49.5	19.5	0.00e+00	0	46	0	525336576	67	4302
2026-01-15 22:45:51.56	38.36	16.18	-48.3	-49.3	19.7	0.00e+00	0	47	0	528482304	67	4217
2026-01-15 22:45:52.56	38.51	16.26	-48.2	-49.2	19.8	0.00e+00	0	47	0	531628032	67	4171
2026-01-15 22:45:53.58	38.66	16.34	-48.2	-49.3	19.7	0.00e+00	0	47	0	534773760	67	4202
2026-01-15 22:45:54.59	38.81	16.43	-48.3	-49.3	19.7	0.00e+00	0	47	0	537919488	67	4212
2026-01-15 22:45:55.60	38.96	16.51	-48.3	-49.3	19.7	0.00e+00	0	47	0	541065216	67	4229
2026-01-15 22:45:56.61	39.11	16.60	-48.3	-49.3	19.7	0.00e+00	0	47	0	544210944	67	4232
2026-01-15 22:45:57.62	39.26	16.68	-48.5	-49.6	19.5	0.00e+00	0	46	0	547356672	67	4361
2026-01-15 22:45:58.62	39.42	16.76	-48.6	-49.7	19.4	0.00e+00	0	47	0	550502400	67	4398
2026-01-15 22:45:59.64	39.57	16.85	-48.7	-49.8	19.3	0.00e+00	0	47	0	553648128	68	4216
2026-01-15 22:46:00.65	39.73	16.93	-48.8	-49.9	19.3	0.00e+00	0	47	0	556793856	68	4245
2026-01-15 22:46:01.66	39.88	17.02	-48.8	-49.9	19.3	0.00e+00	0	47	0	559939584	68	4263
2026-01-15 22:46:02.67	40.04	17.10	-48.9	-50.0	19.2	0.00e+00	0	47	0	563085312	68	4297
2026-01-15 22:46:03.68	40.20	17.19	-48.8	-49.9	19.3	0.00e+00	0	47	0	566231040	68	4271
2026-01-15 22:46:04.69	40.36	17.27	-48.7	-49.8	19.4	0.00e+00	0	47	0	569376768	68	4204
2026-01-15 22:46:05.70	40.52	17.36	-48.7	-49.7	19.4	0.00e+00	0	47	0	572522496	68	4192
2026-01-15 22:46:06.71	40.68	17.44	-48.6	-49.7	19.5	0.00e+00	0	47	0	575668224	68	4158
2026-01-15 22:46:07.72	40.84	17.53	-48.6	-49.6	19.5	0.00e+00	0	47	0	578813952	68	4126
2026-01-15 22:46:08.73	41.00	17.61	-48.5	-49.5	19.6	0.00e+00	0	47	0	581959680	68	4091
2026-01-15 22:46:09.74	41.17	17.70	-48.6	-49.6	19.6	0.00e+00	0	47	0	585105408	68	4121
2026-01-15 22:46:10.75	41.33	17.78	-48.5	-49.5	19.6	0.00e+00	0	47	0	588251136	68	4095
2026-01-15 22:46:11.76	41.50	17.87	-48.6	-49.6	19.5	0.00e+00	0	47	0	591396864	68	4134
2026-01-15 22:46:12.77	41.66	17.95	-48.6	-49.7	19.5	0.00e+00	0	47	0	594542592	68	4164
2026-01-15 22:46:13.78	41.83	18.04	-48.7	-49.8	19.5	0.00e+00	0	47	0	597688320	68	4205
2026-01-15 22:46:14.79	42.00	18.12	-48.7	-49.7	19.5	0.00e+00	0	47	0	600834048	68	4176
2026-01-15 22:46:15.80	42.17	18.21	-48.7	-49.8	19.4	0.00e+00	0	47	0	603979776	68	4212
2026-01-15 22:46:16.81	42.34	18.29	-48.6	-49.7	19.5	0.00e+00	0	47	0	607125504	68	4170
2026-01-15 22:46:17.83	42.51	18.38	-48.6	-49.7	19.5	0.00e+00	0	47	0	610271232	68	4158
2026-01-15 22:46:18.84	42.68	18.47	-48.3	-49.3	19.8	0.00e+00	0	47	0	613416960	68	3972
2026-01-15 22:46:19.85	42.85	18.55	-48.2	-49.1	20.0	0.00e+00	0	47	0	616562688	68	3903
2026-01-15 22:46:20.86	43.02	18.64	-48.2	-49.1	20.0	0.00e+00	0	47	0	619708416	68	3903
2026-01-15 22:46:21.87	43.20	18.72	-48.2	-49.1	20.0	0.00e+00	0	47	0	622854144	68	3913
2026-01-15 22:46:22.88	43.37	18.81	-48.1	-49.1	20.1	0.00e+00	0	47	0	625999872	68	3896
2026-01-15 22:46:23.89	43.55	18.90	-48.1	-49.1	20.1	0.00e+00	0	47	0	629145600	68	3890
2026-01-15 22:46:24.90	43.73	18.98	-48.2	-49.2	20.0	0.00e+00	0	47	0	632291328	68	3958
2026-01-15 22:46:25.91	43.91	19.07	-48.3	-49.3	20.0	0.00e+00	0	47	0	635437056	68	3962
2026-01-15 22:46:26.92	44.09	19.15	-48.3	-49.3	19.9	0.00e+00	0	47	0	638582784	68	3980
2026-01-15 22:46:27.93	44.27	19.24	-48.2	-49.2	19.9	0.00e+00	0	47	0	641728512	68	3948
2026-01-15 22:46:28.94	44.45	19.33	-48.1	-49.1	20.0	0.00e+00	0	47	0	644874240	68	3892
2026-01-15 22:46:29.95	44.63	19.41	-47.7	-48.7	20.3	0.00e+00	0	47	0	648019968	67	3926
2026-01-15 22:46:30.95	44.81	19.50	-47.7	-48.7	20.3	0.00e+00	0	47	0	651165696	67	3919
2026-01-15 22:46:31.96	44.99	19.58	-47.5	-48.4	20.6	0.00e+00	0	47	0	654311424	67	3811
2026-01-15 22:46:32.97	45.18	19.67	-47.4	-48.3	20.6	0.00e+00	0	47	0	657457152	66	3999
2026-01-15 22:46:33.98	45.37	19.76	-47.3	-48.2	20.7	0.00e+00	0	47	0	660602880	66	3954
2026-01-15 22:46:34.99	45.55	19.84	-47.4	-48.4	20.6	0.00e+00	0	47	0	663748608	66	4010
2026-01-15 22:46:36.00	45.74	19.93	-47.5	-48.5	20.6	0.00e+00	0	47	0	666894336	66	4057
2026-01-15 22:46:37.01	45.93	20.01	-47.5	-48.5	20.5	0.00e+00	0	47	0	670040064	66	4060
2026-01-15 22:46:38.02	46.12	20.10	-47.7	-48.6	20.4	0.00e+00	0	47	0	673185792	66	4137
2026-01-15 22:46:39.02	46.31	20.19	-47.6	-48.5	20.5	0.00e+00	0	47	0	676331520	66	4085
2026-01-15 22:46:40.03	46.50	20.27	-47.6	-48.5	20.5	0.00e+00	0	47	0	679477248	66	4083
2026-01-15 22:46:41.04	46.70	20.36	-47.6	-48.5	20.5	0.00e+00	0	47	0	682622976	66	4098
2026-01-15 22:46:42.05	46.89	20.44	-47.5	-48.4	20.6	0.00e+00	0	47	0	686817280	66	4044
2026-01-15 22:46:43.06	47.09	20.53	-47.4	-48.3	20.7	0.00e+00	0	47	0	689963008	66	3998
2026-01-15 22:46:44.07	47.28	20.62	-47.4	-48.4	20.6	0.00e+00	0	47	0	693108736	66	4006
2026-01-15 22:46:45.08	47.48	20.70	-47.4	-48.3	20.7	0.00e+00	0	47	0	695205888	66	3966
2026-01-15 22:46:46.09	47.68	20.79	-47.3	-48.2	20.9	0.00e+00	0	47	0	698351616	66	3914
2026-01-15 22:46:47.10	47.88	20.87	-47.2	-48.1	20.9	0.00e+00	0	47	0	701497344	66	3902
2026-01-15 22:46:48.11	48.08	20.96	-47.1	-48.0	21.0	0.00e+00	0	47	0	704643072	66	3834
2026-01-15 22:46:49.12	48.28	21.05	-47.1	-48.0	21.0	0.00e+00	0	47	0	707788800	66	3862
2026-01-15 22:46:50.13	48.49	21.13	-47.1	-48.0	21.0	0.00e+00	0	47	0	710934528	66	3862
2026-01-15 22:46:51.14	48.69	21.22	-47.0	-47.8	21.2	0.00e+00	0	47	0	714080256	66	3779
2026-01-15 22:46:52.14	48.89	21.30	-46.8	-47.7	21.3	0.00e+00	0	47	0	718274560	65	3919
2026-01-15 22:46:53.15	49.10	21.39	-46.8	-47.7	21.3	0.00e+00	0	47	0	721420288	65	3932
2026-01-15 22:46:54.16	49.31	21.47	-46.7	-47.5	21.4	0.00e+00	0	47	0	724566016	65	3852
2026-01-15 22:46:55.17	49.52	21.56	-46.6	-47.5	21.4	0.00e+00	0	47	0	727711744	65	3840
2026-01-15 22:46:56.19	49.73	21.64	-46.6	-47.4	21.5	0.00e+00	0	47	0	730857472	65	3819
2026-01-15 22:46:57.19	49.94	21.73	-46.6	-47.4	21.5	0.00e+00	0	47	0	734003200	65	3812
2026-01-15 22:46:58.20	50.15	21.81	-46.5	-47.3	21.6	0.00e+00	0	47	0	737148928	65	3763
2026-01-15 22:46:59.21	50.36	21.90	-46.5	-47.4	21.5	0.00e+00	0	47	0	740294656	65	3788
2026-01-15 22:47:00.22	50.58	21.98	-46.5	-47.3	21.6	0.00e+00	0	47	0	742391808	64	3976
2026-01-15 22:47:01.23	50.79	22.07	-46.6	-47.4	21.5	0.00e+00	0	47	0	745537536	64	4031
2026-01-15 22:47:02.24	51.01	22.15	-46.6	-47.4	21.5	0.00e+00	0	47	0	748683264	64	4043
2026-01-15 22:47:03.24	51.23	22.24	-46.7	-47.6	21.4	0.00e+00	0	47	0	752877568	64	4103
2026-01-15 22:47:04.25	51.45	22.32	-46.6	-47.4	21.5	0.00e+00	0	48	0	756023296	64	4039
2026-01-15 22:47:05.26	51.67	22.41	-46.6	-47.4	21.5	0.00e+00	0	47	0	759169024	64	4035
2026-01-15 22:47:06.27	51.89	22.49	-46.4	-47.2	21.7	0.00e+00	0	47	0	762314752	64	3951
2026-01-15 22:47:07.28	52.11	22.57	-46.4	-47.2	21.8	0.00e+00	0	47	0	765460480	64	3929
2026-01-15 22:47:08.29	52.33	22.66	-46.4	-47.3	21.7	0.00e+00	0	47	0	768606208	64	3960
2026-01-15 22:47:09.30	52.56	22.74	-46.5	-47.3	21.6	0.00e+00	0	47	0	771751936	64	3988
2026-01-15 22:47:10.31	52.78	22.82	-46.4	-47.2	21.7	0.00e+00	0	47	0	774897664	64	3953
2026-01-15 22:47:11.32	53.01	22.91	-46.5	-47.3	21.7	0.00e+00	0	47	0	778043392	64	4003
2026-01-15 22:47:12.33	53.24	22.99	-46.5	-47.3	21.6	0.00e+00	0	47	0	781189120	64	3991
2026-01-15 22:47:13.34	53.47	23.07	-46.6	-47.4	21.6	0.00e+00	0	47	0	784334848	64	4033
2026-01-15 22:47:14.34	53.70	23.16	-46.6	-47.5	21.5	0.00e+00	0	47	0	787480576	64	4060
2026-01-15 22:47:15.35	53.93	23.24	-46.6	-47.5	21.5	0.00e+00	0	47	0	790626304	64	4074
2026-01-15 22:47:16.36	54.16	23.32	-46.7	-47.6	21.4	0.00e+00	0	47	0	793772032	64	4106
2026-01-15 22:47:17.37	54.40	23.40	-46.7	-47.5	21.5	0.00e+00	0	47	0	796917760	64	4078
2026-01-15 22:47:18.38	54.63	23.48	-46.8	-47.6	21.4	0.00e+00	0	47	0	800063488	64	4140
2026-01-15 22:47:19.38	54.87	23.56	-46.8	-47.7	21.4	0.00e+00	0	47	0	803209216	64	4147
2026-01-15 22:47:20.39	55.11	23.65	-46.9	-47.8	21.3	0.00e+00	0	48	0	806354944	64	4197
2026-01-15 22:47:21.40	55.34	23.73	-46.9	-47.8	21.3	0.00e+00	0	47	0	809500672	64	4199
2026-01-15 22:47:22.42	55.59	23.81	-46.8	-47.7	21.4	0.00e+00	0	47	0	812646400	64	4155
2026-01-15 22:47:23.42	55.83	23.89	-46.8	-47.7	21.3	0.00e+00	0	48	0	815792128	64	4170
2026-01-15 22:47:24.44	56.07	23.97	-46.9	-47.8	21.3	0.00e+00	0	48	0	818937856	64	4194
2026-01-15 22:47:25.44	56.31	24.05	-47.0	-47.8	21.2	0.00e+00	0	47	0	822083584	64	4237
2026-01-15 22:47:26.45	56.56	24.13	-46.9	-47.8	21.2	0.00e+00	0	48	0	825229312	64	4234
2026-01-15 22:47:27.46	56.81	24.21	-47.0	-47.9	21.1	0.00e+00	0	48	0	828375040	64	4270
2026-01-15 22:47:28.47	57.05	24.29	-47.2	-48.1	21.0	0.00e+00	0	48	0	831520768	64	4345
2026-01-15 22:47:29.48	57.30	24.37	-47.1	-48.0	21.1	0.00e+00	0	48	0	834666496	64	4307
2026-01-15 22:47:30.49	57.55	24.44	-47.1	-48.0	21.0	0.00e+00	0	48	0	837812224	64	4309
2026-01-15 22:47:31.50	57.80	24.52	-47.1	-48.0	21.1	0.00e+00	0	48	0	840957952	65	4062
2026-01-15 22:47:32.51	58.06	24.60	-47.0	-47.9	21.2	0.00e+00	0	48	0	844103680	65	4017
2026-01-15 22:47:33.52	58.31	24.68	-47.0	-47.9	21.1	0.00e+00	0	47	0	847249408	65	4016
2026-01-15 22:47:34.53	58.57	24.75	-47.1	-47.9	21.1	0.00e+00	0	48	0	850395136	65	4037
2026-01-15 22:47:35.54	58.82	24.83	-47.2	-48.1	21.0	0.00e+00	0	47	0	853540864	65	4108
2026-01-15 22:47:36.55	59.08	24.91	-47.5	-48.4	20.7	0.00e+00	0	48	0	856686592	65	4256
2026-01-15 22:47:37.56	59.34	24.98	-47.6	-48.6	20.6	0.00e+00	0	47	0	859832320	65	4341
2026-01-15 22:47:38.56	59.60	25.06	-47.8	-48.8	20.4	0.00e+00	0	48	0	862978048	66	4201
2026-01-15 22:47:39.57	59.86	25.13	-47.9	-48.9	20.3	0.00e+00	0	47	0	866123776	66	4265
2026-01-15 22:47:40.58	60.12	25.21	-47.9	-48.9	20.3	0.00e+00	0	48	0	869269504	66	4274
2026-01-15 22:47:41.59	60.38	25.28	-47.7	-48.7	20.5	0.00e+00	0	47	0	872415232	66	4164
2026-01-15 22:47:42.60	60.65	25.36	-47.4	-48.3	20.8	0.00e+00	0	48	0	875560960	66	4001
2026-01-15 22:47:43.61	60.91	25.43	-47.4	-48.3	20.8	0.00e+00	0	48	0	878706688	66	3999
2026-01-15 22:47:44.62	61.18	25.50	-47.4	-48.3	20.8	0.00e+00	0	47	0	881852416	66	3987
2026-01-15 22:47:45.63	61.45	25.58	-47.4	-48.3	20.7	0.00e+00	0	48	0	884998144	66	3975
2026-01-15 22:47:46.64	61.72	25.65	-47.2	-48.1	20.9	0.00e+00	0	48	0	888143872	66	3873
2026-01-15 22:47:47.64	61.99	25.72	-47.2	-48.1	21.0	0.00e+00	0	47	0	891289600	66	3876
2026-01-15 22:47:48.65	62.26	25.79	-47.2	-48.1	21.0	0.00e+00	0	48	0	894435328	66	3880
2026-01-15 22:47:49.66	62.53	25.86	-47.3	-48.2	20.9	0.00e+00	0	47	0	897581056	66	3927
2026-01-15 22:47:50.67	62.81	25.93	-47.3	-48.2	20.9	0.00e+00	0	47	0	900726784	66	3955
2026-01-15 22:47:51.68	63.08	26.00	-47.4	-48.3	20.9	0.00e+00	0	47	0	903872512	66	3968
2026-01-15 22:47:52.69	63.36	26.07	-47.2	-48.1	21.0	0.00e+00	0	47	0	907018240	66	3901
2026-01-15 22:47:53.70	63.64	26.14	-47.3	-48.2	21.0	0.00e+00	0	48	0	910163968	66	3915
2026-01-15 22:47:54.71	63.92	26.21	-47.1	-48.0	21.1	0.00e+00	0	48	0	913309696	66	3839
2026-01-15 22:47:55.72	64.20	26.28	-47.1	-47.9	21.1	0.00e+00	0	48	0	916455424	66	3810
2026-01-15 22:47:56.73	64.48	26.34	-47.1	-48.0	21.1	0.00e+00	0	48	0	919601152	66	3846
2026-01-15 22:47:57.74	64.76	26.41	-47.1	-48.0	21.1	0.00e+00	0	48	0	922746880	66	3845
2026-01-15 22:47:58.75	65.05	26.48	-47.2	-48.0	21.0	0.00e+00	0	47	0	925892608	66	3868
2026-01-15 22:47:59.76	65.33	26.54	-47.1	-48.0	21.1	0.00e+00	0	47	0	929038336	66	3850
2026-01-15 22:48:00.77	65.62	26.61	-47.1	-48.0	21.1	0.00e+00	0	48	0	932184064	66	3843
2026-01-15 22:48:01.78	65.91	26.67	-47.0	-47.9	21.2	0.00e+00	0	48	0	935329792	66	3789
2026-01-15 22:48:02.79	66.20	26.74	-47.1	-48.0	21.2	0.00e+00	0	48	0	938475520	66	3831
2026-01-15 22:48:03.80	66.49	26.80	-47.1	-48.0	21.1	0.00e+00	0	47	0	941621248	66	3850
2026-01-15 22:48:04.81	66.78	26.86	-47.2	-48.1	21.0	0.00e+00	0	48	0	944766976	66	3889
2026-01-15 22:48:05.82	67.07	26.92	-47.3	-48.2	20.9	0.00e+00	0	48	0	947912704	66	3920
2026-01-15 22:48:06.83	67.36	26.98	-47.3	-48.2	20.9	0.00e+00	0	48	0	951058432	66	3944
2026-01-15 22:48:07.84	67.66	27.04	-47.2	-48.1	21.1	0.00e+00	0	48	0	954204160	66	3884
2026-01-15 22:48:08.84	67.95	27.10	-47.0	-47.9	21.2	0.00e+00	0	48	0	957349888	66	3785
2026-01-15 22:48:09.85	68.24	27.16	-47.0	-47.9	21.2	0.00e+00	0	48	0	960495616	65	4020
2026-01-15 22:48:10.86	68.54	27.22	-46.9	-47.7	21.3	0.00e+00	0	48	0	963641344	65	3940
2026-01-15 22:48:11.87	68.84	27.28	-47.0	-47.9	21.2	0.00e+00	0	48	0	966787072	65	4027
2026-01-15 22:48:12.88	69.14	27.34	-47.1	-48.0	21.1	0.00e+00	0	48	0	969932800	65	4077
2026-01-15 22:48:13.89	69.44	27.39	-47.2	-48.1	21.0	0.00e+00	0	48	0	973078528	65	4121
2026-01-15 22:48:14.90	69.74	27.45	-47.3	-48.2	20.9	0.00e+00	0	48	0	976224256	65	4189
2026-01-15 22:48:15.91	70.05	27.50	-47.4	-48.3	20.8	0.00e+00	0	48	0	979369984	65	4215
2026-01-15 22:48:16.92	70.35	27.56	-47.4	-48.4	20.8	0.00e+00	0	48	0	982515712	65	4245
2026-01-15 22:48:17.93	70.65	27.61	-47.3	-48.2	20.9	0.00e+00	0	48	0	985661440	65	4163
2026-01-15 22:48:18.94	70.96	27.66	-47.4	-48.3	20.9	0.00e+00	0	48	0	988807168	65	4196
2026-01-15 22:48:19.95	71.27	27.72	-47.3	-48.2	20.9	0.00e+00	0	48	0	991952896	65	4163
2026-01-15 22:48:20.96	71.57	27.77	-47.3	-48.2	20.9	0.00e+00	0	48	0	995098624	65	4180
2026-01-15 22:48:21.97	71.88	27.82	-47.5	-48.4	20.8	0.00e+00	0	48	0	998244352	65	4248
2026-01-15 22:48:22.98	72.19	27.87	-47.4	-48.3	20.9	0.00e+00	0	48	0	1001390080	65	4204
2026-01-15 22:48:23.99	72.50	27.92	-47.4	-48.3	20.9	0.00e+00	0	48	0	1004535808	65	4209
2026-01-15 22:48:25.00	72.81	27.96	-47.3	-48.2	20.9	0.00e+00	0	48	0	1007681536	65	4186
2026-01-15 22:48:26.01	73.13	28.01	-47.5	-48.4	20.8	0.00e+00	0	48	0	1010827264	65	4265
2026-01-15 22:48:27.02	73.44	28.06	-47.5	-48.4	20.7	0.00e+00	0	48	0	1013972992	65	4285
2026-01-15 22:48:28.03	73.75	28.10	-47.5	-48.4	20.7	0.00e+00	0	48	0	1017118720	65	4278
2026-01-15 22:48:29.04	74.07	28.15	-47.5	-48.4	20.8	0.00e+00	0	48	0	1020264448	65	4274
2026-01-15 22:48:30.05	74.39	28.19	-47.5	-48.4	20.8	0.00e+00	0	48	0	1023410176	65	4247
2026-01-15 22:48:31.06	74.70	28.24	-47.2	-48.1	21.0	0.00e+00	0	48	0	1026555904	65	4120
2026-01-15 22:48:32.07	75.02	28.28	-47.2	-48.1	21.1	0.00e+00	0	48	0	1029701632	65	4120
2026-01-15 22:48:33.08	75.34	28.32	-47.2	-48.1	21.1	0.00e+00	0	48	0	1032847360	65	4100
2026-01-15 22:48:34.09	75.66	28.36	-47.3	-48.2	21.0	0.00e+00	0	48	0	1035993088	65	4163
2026-01-15 22:48:35.10	75.98	28.40	-47.3	-48.2	20.9	0.00e+00	0	48	0	1039138816	65	4190
2026-01-15 22:48:36.11	76.30	28.44	-47.4	-48.3	20.8	0.00e+00	0	48	0	1042284544	65	4227
2026-01-15 22:48:37.12	76.62	28.48	-47.5	-48.5	20.7	0.00e+00	0	48	0	1045430272	65	4292
2026-01-15 22:48:38.13	76.94	28.51	-47.4	-48.3	20.9	0.00e+00	0	48	0	1048576000	65	4228
2026-01-15 22:48:39.14	77.27	28.55	-47.4	-48.3	20.9	0.00e+00	0	48	0	1051721728	65	4208
2026-01-15 22:48:40.15	77.59	28.58	-47.4	-48.3	20.8	0.00e+00	0	48	0	1055916032	65	4228
2026-01-15 22:48:41.16	77.91	28.62	-47.6	-48.5	20.7	0.00e+00	0	48	0	1059061760	65	4317
2026-01-15 22:48:42.17	78.24	28.65	-47.6	-48.6	20.6	0.00e+00	0	48	0	1061158912	65	4353
2026-01-15 22:48:43.18	78.57	28.68	-47.7	-48.6	20.6	0.00e+00	0	48	0	1064304640	66	4132
2026-01-15 22:48:44.19	78.89	28.71	-47.7	-48.6	20.6	0.00e+00	0	48	0	1067450368	66	4110
2026-01-15 22:48:45.20	79.22	28.74	-47.5	-48.4	20.8	0.00e+00	0	48	0	1070596096	66	4013
2026-01-15 22:48:46.22	79.55	28.77	-47.5	-48.4	20.8	0.00e+00	0	48	0	1073741824	66	4011
2026-01-15 22:48:47.23	79.88	28.80	-47.4	-48.3	20.7	0.00e+00	0	48	0	1076887552	66	3998
2026-01-15 22:48:48.24	80.21	28.83	-47.7	-48.6	20.6	0.00e+00	0	48	0	1080033280	66	4116
2026-01-15 22:48:49.24	80.53	28.85	-47.5	-48.5	20.7	0.00e+00	0	48	0	1084227584	66	4058
2026-01-15 22:48:50.25	80.86	28.88	-47.6	-48.5	20.7	0.00e+00	0	48	0	1087373312	66	4066
2026-01-15 22:48:51.26	81.19	28.90	-47.6	-48.5	20.7	0.00e+00	0	48	0	1090519040	66	4077
2026-01-15 22:48:52.27	81.52	28.93	-47.1	-48.0	21.1	0.00e+00	0	48	0	1093664768	66	3848
2026-01-15 22:48:53.28	81.86	28.95	-47.1	-48.0	21.1	0.00e+00	0	48	0	1096810496	66	3847
2026-01-15 22:48:54.29	82.19	28.97	-47.2	-48.1	21.0	0.00e+00	0	48	0	1099956224	66	3881
2026-01-15 22:48:55.30	82.52	28.99	-47.4	-48.3	20.9	0.00e+00	0	48	0	1103101952	66	3988
2026-01-15 22:48:56.31	82.85	29.01	-47.5	-48.4	20.8	0.00e+00	0	48	0	1106247680	66	4040
2026-01-15 22:48:57.32	83.19	29.03	-47.5	-48.4	20.8	0.00e+00	0	48	0	1108344832	66	4051
2026-01-15 22:48:58.33	83.52	29.05	-47.4	-48.3	20.9	0.00e+00	0	48	0	1111490560	66	3998
2026-01-15 22:48:59.34	83.85	29.06	-47.3	-48.2	21.0	0.00e+00	0	48	0	1114636288	66	3949
2026-01-15 22:49:00.35	84.19	29.08	-47.4	-48.3	20.9	0.00e+00	0	48	0	1118830592	66	3980
2026-01-15 22:49:01.36	84.52	29.09	-47.4	-48.3	20.8	0.00e+00	0	48	0	1121976320	66	3988
2026-01-15 22:49:02.37	84.86	29.11	-47.5	-48.4	20.7	0.00e+00	0	48	0	1125122048	66	4050
2026-01-15 22:49:03.38	85.19	29.12	-47.5	-48.4	20.7	0.00e+00	0	48	0	1128267776	66	4050
2026-01-15 22:49:04.39	85.53	29.13	-47.4	-48.3	20.9	0.00e+00	0	48	0	1131413504	66	3979
2026-01-15 22:49:05.40	85.86	29.14	-47.3	-48.2	20.9	0.00e+00	0	48	0	1134559232	66	3955
2026-01-15 22:49:06.41	86.20	29.15	-47.3	-48.2	20.9	0.00e+00	0	48	0	1137704960	66	3938
2026-01-15 22:49:07.41	86.53	29.16	-47.4	-48.2	20.8	0.00e+00	0	48	0	1140850688	66	3955
2026-01-15 22:49:08.42	86.87	29.16	-47.3	-48.2	20.9	0.00e+00	0	48	0	1143996416	66	3925
2026-01-15 22:49:09.43	87.20	29.17	-47.3	-48.1	20.9	0.00e+00	0	48	0	1147142144	66	3906
2026-01-15 22:49:10.45	87.54	29.17	-47.1	-48.0	21.1	0.00e+00	0	48	0	1150287872	66	3832
2026-01-15 22:49:11.45	87.88	29.18	-47.0	-47.9	21.2	0.00e+00	0	48	0	1153433600	66	3802
2026-01-15 22:49:12.46	88.21	29.18	-47.1	-47.9	21.2	0.00e+00	0	48	0	1156579328	66	3817
2026-01-15 22:49:13.47	88.55	29.18	-47.3	-48.2	21.0	0.00e+00	0	48	0	1159725056	66	3922
2026-01-15 22:49:14.48	88.88	29.18	-47.5	-48.4	20.8	0.00e+00	0	48	0	1162870784	66	4017
2026-01-15 22:49:15.49	89.22	29.18	-47.4	-48.3	20.8	0.00e+00	0	48	0	1166016512	66	4000
2026-01-15 22:49:16.50	89.56	29.18	-47.5	-48.4	20.7	0.00e+00	0	48	0	1169162240	66	4046
2026-01-15 22:49:17.51	89.89	29.18	-47.5	-48.4	20.8	0.00e+00	0	48	0	1172307968	66	4050
2026-01-15 22:49:18.52	90.23	29.18	-47.5	-48.4	20.8	0.00e+00	0	48	0	1175453696	66	4024
2026-01-15 22:49:19.53	90.57	29.17	-47.5	-48.5	20.7	0.00e+00	0	48	0	1178599424	66	4058
2026-01-15 22:49:20.54	90.90	29.16	-47.7	-48.6	20.6	0.00e+00	0	48	0	1181745152	66	4136
2026-01-15 22:49:21.55	91.24	29.16	-47.6	-48.6	20.6	0.00e+00	0	48	0	1184890880	66	4112
2026-01-15 22:49:22.56	91.58	29.15	-47.7	-48.7	20.5	0.00e+00	0	48	0	1188036608	66	4152
2026-01-15 22:49:23.57	91.91	29.14	-47.7	-48.6	20.6	0.00e+00	0	48	0	1191182336	66	4128
2026-01-15 22:49:24.58	92.25	29.13	-47.7	-48.7	20.5	0.00e+00	0	48	0	1194328064	66	4155
2026-01-15 22:49:25.58	92.58	29.12	-47.6	-48.5	20.7	0.00e+00	0	48	0	1197473792	66	4072
2026-01-15 22:49:26.59	92.91	29.11	-47.6	-48.5	20.7	0.00e+00	0	48	0	1200619520	66	4089
2026-01-15 22:49:27.61	93.25	29.10	-47.6	-48.5	20.6	0.00e+00	0	48	0	1203765248	66	4098
2026-01-15 22:49:28.62	93.59	29.08	-47.7	-48.6	20.6	0.00e+00	0	48	0	1206910976	66	4141
2026-01-15 22:49:29.63	93.92	29.07	-47.9	-48.8	20.4	0.00e+00	0	48	0	1210056704	66	4230
2026-01-15 22:49:30.64	94.26	29.05	-47.6	-48.5	20.7	0.00e+00	0	48	0	1213202432	66	4092
2026-01-15 22:49:31.65	94.59	29.03	-47.6	-48.5	20.7	0.00e+00	0	48	0	1216348160	66	4090
2026-01-15 22:49:32.66	94.92	29.02	-47.5	-48.4	20.8	0.00e+00	0	48	0	1219493888	66	4039
2026-01-15 22:49:33.67	95.26	29.00	-47.3	-48.2	21.0	0.00e+00	0	48	0	1222639616	66	3944
2026-01-15 22:49:34.68	95.59	28.98	-47.4	-48.3	20.9	0.00e+00	0	48	0	1225785344	66	3995
2026-01-15 22:49:35.69	95.92	28.95	-47.5	-48.4	20.8	0.00e+00	0	48	0	1228931072	66	4043
2026-01-15 22:49:36.70	96.25	28.93	-47.6	-48.5	20.7	0.00e+00	0	48	0	1232076800	66	4071
2026-01-15 22:49:37.71	96.58	28.91	-47.5	-48.4	20.8	0.00e+00	0	48	0	1235222528	66	4032
2026-01-15 22:49:38.72	96.91	28.88	-47.5	-48.4	20.8	0.00e+00	0	48	0	1238368256	66	4027
2026-01-15 22:49:39.72	97.24	28.86	-47.4	-48.3	20.9	0.00e+00	0	48	0	1241513984	66	3985
2026-01-15 22:49:40.73	97.57	28.83	-47.5	-48.4	20.8	0.00e+00	0	48	0	1244659712	66	4037
2026-01-15 22:49:41.75	97.90	28.81	-47.4	-48.3	20.9	0.00e+00	0	48	0	1247805440	66	3962
2026-01-15 22:49:42.76	98.23	28.78	-47.4	-48.3	20.8	0.00e+00	0	48	0	1250951168	66	3994
2026-01-15 22:49:43.76	98.56	28.75	-47.5	-48.4	20.8	0.00e+00	0	48	0	1254096896	66	4027
2026-01-15 22:49:44.78	98.89	28.72	-47.4	-48.3	20.9	0.00e+00	0	48	0	1257242624	66	3968
2026-01-15 22:49:45.78	99.21	28.69	-47.3	-48.2	20.9	0.00e+00	0	48	0	1260388352	66	3938
2026-01-15 22:49:46.79	99.54	28.66	-47.5	-48.4	20.7	0.00e+00	0	48	0	1263534080	66	4036
2026-01-15 22:49:47.80	99.87	28.62	-47.5	-48.4	20.7	0.00e+00	0	48	0	1266679808	66	4047
2026-01-15 22:49:48.81	100.19	28.59	-47.3	-48.2	20.9	0.00e+00	0	48	0	1269825536	66	3956
2026-01-15 22:49:49.82	100.51	28.55	-47.3	-48.2	20.9	0.00e+00	0	48	0	1272971264	66	3928
2026-01-15 22:49:50.84	100.84	28.52	-47.2	-48.1	21.0	0.00e+00	0	48	0	1276116992	66	3884
2026-01-15 22:49:51.84	101.16	28.48	-47.3	-48.2	21.0	0.00e+00	0	48	0	1279262720	66	3915
2026-01-15 22:49:52.85	101.48	28.44	-47.1	-48.0	21.0	0.00e+00	0	48	0	1282408448	66	3858
2026-01-15 22:49:53.86	101.81	28.41	-47.3	-48.2	20.9	0.00e+00	0	48	0	1285554176	66	3923
2026-01-15 22:49:54.87	102.13	28.37	-47.5	-48.4	20.7	0.00e+00	0	48	0	1288699904	66	4032
2026-01-15 22:49:55.88	102.45	28.33	-47.5	-48.4	20.7	0.00e+00	0	48	0	1291845632	66	4017
2026-01-15 22:49:56.89	102.77	28.28	-47.5	-48.4	20.7	0.00e+00	0	48	0	1294991360	66	4020
2026-01-15 22:49:57.90	103.08	28.24	-47.4	-48.3	20.8	0.00e+00	0	48	0	1298137088	66	3988
2026-01-15 22:49:58.91	103.40	28.20	-47.4	-48.3	20.7	0.00e+00	0	48	0	1301282816	66	3984
2026-01-15 22:49:59.92	103.72	28.16	-47.4	-48.3	20.7	0.00e+00	0	48	0	1304428544	66	3997
2026-01-15 22:50:00.93	104.03	28.11	-47.5	-48.4	20.6	0.00e+00	0	48	0	1307574272	66	4049
2026-01-15 22:50:01.94	104.35	28.07	-47.4	-48.4	20.7	0.00e+00	0	48	0	1310720000	66	4012
2026-01-15 22:50:02.95	104.66	28.02	-47.4	-48.3	20.8	0.00e+00	0	48	0	1313865728	66	3967
2026-01-15 22:50:03.96	104.98	27.97	-47.3	-48.2	20.8	0.00e+00	0	48	0	1317011456	66	3938
2026-01-15 22:50:04.97	105.29	27.92	-47.3	-48.2	20.8	0.00e+00	0	48	0	1320157184	66	3958
2026-01-15 22:50:05.98	105.60	27.87	-47.2	-48.1	20.9	0.00e+00	0	48	0	1323302912	66	3901
2026-01-15 22:50:06.99	105.91	27.82	-47.3	-48.2	20.9	0.00e+00	0	48	0	1326448640	66	3926
2026-01-15 22:50:08.00	106.22	27.77	-47.3	-48.2	20.9	0.00e+00	0	48	0	1329594368	66	3925
2026-01-15 22:50:09.01	106.53	27.72	-47.2	-48.0	21.0	0.00e+00	0	48	0	1332740096	66	3861
2026-01-15 22:50:10.02	106.84	27.67	-47.2	-48.0	21.0	0.00e+00	0	48	0	1335885824	66	3866
2026-01-15 22:50:11.03	107.14	27.62	-47.1	-47.9	21.1	0.00e+00	0	48	0	1339031552	66	3811
2026-01-15 22:50:12.04	107.45	27.56	-47.1	-48.0	21.1	0.00e+00	0	48	0	1342177280	66	3834
2026-01-15 22:50:13.05	107.75	27.51	-47.2	-48.1	21.0	0.00e+00	0	48	0	1345323008	66	3888
2026-01-15 22:50:14.06	108.06	27.46	-47.3	-48.1	21.0	0.00e+00	0	48	0	1348468736	66	3911
2026-01-15 22:50:15.07	108.36	27.40	-47.1	-48.0	21.2	0.00e+00	0	48	0	1351614464	66	3836
2026-01-15 22:50:16.08	108.66	27.34	-47.2	-48.1	21.0	0.00e+00	0	48	0	1354760192	66	3890
2026-01-15 22:50:17.09	108.96	27.29	-47.1	-47.9	21.1	0.00e+00	0	48	0	1357905920	66	3822
2026-01-15 22:50:18.10	109.26	27.23	-46.9	-47.8	21.3	0.00e+00	0	48	0	1361051648	65	3975
2026-01-15 22:50:19.11	109.56	27.17	-46.9	-47.8	21.3	0.00e+00	0	48	0	1364197376	65	3977
2026-01-15 22:50:20.12	109.86	27.11	-46.9	-47.8	21.3	0.00e+00	0	48	0	1367343104	65	3972
2026-01-15 22:50:21.13	110.15	27.05	-46.8	-47.7	21.4	0.00e+00	0	48	0	1370488832	65	3915
2026-01-15 22:50:22.14	110.45	26.99	-47.0	-47.9	21.2	0.00e+00	0	48	0	1373634560	65	4021
2026-01-15 22:50:23.15	110.74	26.93	-47.2	-48.1	21.0	0.00e+00	0	48	0	1376780288	65	4104
2026-01-15 22:50:24.16	111.04	26.87	-47.1	-47.9	21.2	0.00e+00	0	48	0	1379926016	65	4044
2026-01-15 22:50:25.17	111.33	26.80	-47.2	-48.1	21.0	0.00e+00	0	48	0	1383071744	65	4128
2026-01-15 22:50:26.18	111.62	26.74	-47.2	-48.1	21.0	0.00e+00	0	48	0	1386217472	65	4134
2026-01-15 22:50:27.19	111.91	26.68	-47.1	-48.0	21.1	0.00e+00	0	48	0	1389363200	65	4074
2026-01-15 22:50:28.20	112.20	26.61	-47.0	-47.9	21.2	0.00e+00	0	48	0	1392508928	65	4028
2026-01-15 22:50:29.21	112.48	26.55	-47.0	-47.8	21.2	0.00e+00	0	48	0	1395654656	65	3999
2026-01-15 22:50:30.22	112.77	26.48	-47.1	-48.0	21.1	0.00e+00	0	48	0	1398800384	65	4074
2026-01-15 22:50:31.23	113.05	26.41	-47.0	-47.9	21.2	0.00e+00	0	48	0	1401946112	65	4013
2026-01-15 22:50:32.24	113.34	26.35	-46.9	-47.7	21.3	0.00e+00	0	48	0	1405091840	65	3948
2026-01-15 22:50:33.25	113.62	26.28	-46.9	-47.8	21.3	0.00e+00	0	48	0	1409286144	65	3978
2026-01-15 22:50:34.26	113.90	26.21	-47.0	-47.8	21.2	0.00e+00	0	48	0	1412431872	65	3989
2026-01-15 22:50:35.27	114.18	26.14	-47.0	-47.8	21.2	0.00e+00	0	48	0	1415577600	65	4001
2026-01-15 22:50:36.28	114.46	26.07	-47.0	-47.9	21.1	0.00e+00	0	48	0	1418723328	65	4025
2026-01-15 22:50:37.29	114.74	26.01	-47.1	-48.0	21.1	0.00e+00	0	48	0	1421869056	65	4086
2026-01-15 22:50:38.30	115.02	25.94	-47.3	-48.2	20.8	0.00e+00	0	48	0	1423966208	65	4180
2026-01-15 22:50:39.31	115.29	25.86	-47.3	-48.2	20.8	0.00e+00	0	48	0	1427111936	65	4190
2026-01-15 22:50:40.32	115.57	25.79	-47.4	-48.3	20.7	0.00e+00	0	48	0	1430257664	65	4225
2026-01-15 22:50:41.33	115.84	25.72	-47.3	-48.3	20.9	0.00e+00	0	48	0	1433403392	65	4195
2026-01-15 22:50:42.34	116.11	25.65	-47.4	-48.3	20.8	0.00e+00	0	48	0	1436549120	65	4236
2026-01-15 22:50:43.34	116.38	25.58	-47.1	-48.0	21.1	0.00e+00	0	48	0	1439694848	65	4089
2026-01-15 22:50:44.35	116.65	25.51	-47.1	-48.0	21.1	0.00e+00	0	48	0	1443889152	65	4053
2026-01-15 22:50:45.36	116.92	25.43	-47.0	-47.9	21.2	0.00e+00	0	48	0	1447034880	65	4028
2026-01-15 22:50:46.37	117.18	25.36	-47.1	-47.9	21.1	0.00e+00	0	48	0	1450180608	65	4049
2026-01-15 22:50:47.38	117.45	25.28	-47.1	-48.0	21.1	0.00e+00	0	48	0	1453326336	65	4088
2026-01-15 22:50:48.39	117.71	25.21	-47.2	-48.1	20.9	0.00e+00	0	48	0	1456472064	65	4137
2026-01-15 22:50:49.40	117.98	25.13	-47.3	-48.2	20.9	0.00e+00	0	48	0	1459617792	65	4190
2026-01-15 22:50:50.41	118.24	25.06	-47.4	-48.3	20.8	0.00e+00	0	48	0	1462763520	65	4218
2026-01-15 22:50:51.42	118.50	24.98	-47.4	-48.3	20.8	0.00e+00	0	48	0	1465909248	65	4236
2026-01-15 22:50:52.43	118.76	24.91	-47.3	-48.3	20.8	0.00e+00	0	48	0	1469054976	65	4198
2026-01-15 22:50:53.44	119.02	24.83	-47.1	-48.0	21.1	0.00e+00	0	48	0	1472200704	65	4064
2026-01-15 22:50:54.45	119.28	24.75	-47.1	-48.0	21.1	0.00e+00	0	48	0	1475346432	65	4071
2026-01-15 22:50:55.46	119.53	24.67	-46.9	-47.8	21.3	0.00e+00	0	48	0	1478492160	65	3979
2026-01-15 22:50:56.47	119.79	24.60	-46.8	-47.6	21.4	0.00e+00	0	48	0	1481637888	65	3899
2026-01-15 22:50:57.48	120.04	24.52	-46.7	-47.6	21.4	0.00e+00	0	48	0	1484783616	65	3877
2026-01-15 22:50:58.49	120.29	24.44	-46.9	-47.7	21.3	0.00e+00	0	48	0	1487929344	65	3945
2026-01-15 22:50:59.50	120.55	24.36	-47.2	-48.1	21.0	0.00e+00	0	48	0	1491075072	65	4099
2026-01-15 22:51:00.51	120.80	24.28	-47.1	-48.0	21.0	0.00e+00	0	48	0	1494220800	65	4096
2026-01-15 22:51:01.52	121.04	24.20	-47.0	-47.9	21.1	0.00e+00	0	48	0	1497366528	65	4044
2026-01-15 22:51:02.53	121.29	24.12	-46.9	-47.8	21.2	0.00e+00	0	48	0	1500512256	65	3979
2026-01-15 22:51:03.54	121.54	24.04	-47.0	-47.9	21.1	0.00e+00	0	48	0	1503657984	65	4017
2026-01-15 22:51:04.55	121.78	23.96	-46.9	-47.8	21.1	0.00e+00	0	48	0	1506803712	65	3990
2026-01-15 22:51:05.56	122.03	23.88	-47.0	-47.9	21.1	0.00e+00	0	48	0	1509949440	65	4019
2026-01-15 22:51:06.57	122.27	23.80	-47.1	-48.0	20.9	0.00e+00	0	48	0	1513095168	65	4094
2026-01-15 22:51:07.58	122.51	23.72	-47.2	-48.1	21.0	0.00e+00	0	48	0	1516240896	65	4110
2026-01-15 22:51:08.59	122.75	23.64	-47.3	-48.2	20.9	0.00e+00	0	48	0	1519386624	65	4159
2026-01-15 22:51:09.60	122.99	23.56	-47.3	-48.3	20.8	0.00e+00	0	48	0	1522532352	65	4198
2026-01-15 22:51:10.61	123.23	23.47	-47.2	-48.1	20.9	0.00e+00	0	48	0	1525678080	65	4129
2026-01-15 22:51:11.62	123.46	23.39	-47.3	-48.2	20.9	0.00e+00	0	48	0	1528823808	65	4164
2026-01-15 22:51:12.63	123.70	23.31	-47.3	-48.2	20.8	0.00e+00	0	48	0	1531969536	65	4184
2026-01-15 22:51:13.64	123.93	23.23	-47.3	-48.3	20.8	0.00e+00	0	48	0	1535115264	65	4195
2026-01-15 22:51:14.65	124.17	23.14	-47.4	-48.3	20.7	0.00e+00	0	48	0	1538260992	65	4229
2026-01-15 22:51:15.66	124.40	23.06	-47.3	-48.2	20.9	0.00e+00	0	48	0	1541406720	65	4155
2026-01-15 22:51:16.67	124.63	22.98	-47.1	-48.0	21.0	0.00e+00	0	48	0	1544552448	65	4075
2026-01-15 22:51:17.68	124.86	22.89	-47.2	-48.1	20.9	0.00e+00	0	48	0	1547698176	65	4112
2026-01-15 22:51:18.69	125.09	22.81	-47.1	-48.0	21.0	0.00e+00	0	48	0	1550843904	65	4097
2026-01-15 22:51:19.70	125.31	22.73	-47.1	-47.9	21.1	0.00e+00	0	48	0	1553989632	65	4049
2026-01-15 22:51:20.71	125.54	22.64	-47.1	-48.0	21.0	0.00e+00	0	48	0	1557135360	65	4092
2026-01-15 22:51:21.72	125.76	22.56	-47.0	-47.9	21.1	0.00e+00	0	48	0	1560281088	65	4025
2026-01-15 22:51:22.73	125.99	22.47	-46.9	-47.8	21.1	0.00e+00	0	48	0	1563426816	65	3986
2026-01-15 22:51:23.74	126.21	22.39	-46.8	-47.6	21.3	0.00e+00	0	48	0	1566572544	65	3906
2026-01-15 22:51:24.75	126.43	22.30	-46.7	-47.6	21.3	0.00e+00	0	48	0	1569718272	65	3888
2026-01-15 22:51:25.76	126.65	22.22	-46.8	-47.6	21.3	0.00e+00	0	48	0	1572864000	65	3912
2026-01-15 22:51:26.77	126.87	22.13	-46.7	-47.5	21.4	0.00e+00	0	48	0	1576009728	65	3860
2026-01-15 22:51:27.78	127.09	22.05	-46.6	-47.4	21.5	0.00e+00	0	48	0	1579155456	65	3817
2026-01-15 22:51:28.79	127.30	21.96	-46.6	-47.5	21.4	0.00e+00	0	48	0	1582301184	65	3831
2026-01-15 22:51:29.80	127.52	21.88	-46.6	-47.5	21.4	0.00e+00	0	48	0	1585446912	65	3826
2026-01-15 22:51:30.81	127.73	21.79	-46.7	-47.6	21.3	0.00e+00	0	48	0	1588592640	65	3883
2026-01-15 22:51:31.82	127.94	21.71	-46.8	-47.7	21.1	0.00e+00	0	48	0	1591738368	65	3936
2026-01-15 22:51:32.83	128.16	21.62	-47.0	-47.9	20.9	0.00e+00	0	48	0	1594884096	65	4041
2026-01-15 22:51:33.84	128.37	21.53	-47.2	-48.1	20.8	0.00e+00	0	48	0	1598029824	65	4123
2026-01-15 22:51:34.85	128.58	21.45	-47.3	-48.2	20.8	0.00e+00	0	48	0	1601175552	65	4162
2026-01-15 22:51:35.86	128.79	21.36	-47.1	-48.1	20.9	0.00e+00	0	48	0	1604321280	65	4100
2026-01-15 22:51:36.87	128.99	21.28	-47.3	-48.2	20.8	0.00e+00	0	48	0	1607467008	65	4152
2026-01-15 22:51:37.88	129.20	21.19	-47.4	-48.3	20.6	0.00e+00	0	48	0	1610612736	65	4217
2026-01-15 22:51:38.89	129.40	21.10	-47.3	-48.2	20.6	0.00e+00	0	48	0	1613758464	65	4193
2026-01-15 22:51:39.90	129.61	21.02	-47.2	-48.1	20.8	0.00e+00	0	48	0	1616904192	65	4131
2026-01-15 22:51:40.91	129.81	20.93	-47.3	-48.2	20.7	0.00e+00	0	48	0	1620049920	65	4178
2026-01-15 22:51:41.93	130.01	20.84	-47.2	-48.1	20.7	0.00e+00	0	48	0	1623195648	65	4131
2026-01-15 22:51:42.94	130.21	20.76	-47.1	-48.0	20.8	0.00e+00	0	48	0	1626341376	65	4084
2026-01-15 22:51:43.95	130.41	20.67	-47.1	-48.0	20.8	0.00e+00	0	48	0	1629487104	65	4081
2026-01-15 22:51:44.95	130.61	20.59	-47.1	-48.1	20.8	0.00e+00	0	48	0	1632632832	65	4101
2026-01-15 22:51:45.96	130.81	20.50	-47.2	-48.1	20.8	0.00e+00	0	48	0	1635778560	65	4115
2026-01-15 22:51:46.97	131.00	20.41	-47.2	-48.1	20.8	0.00e+00	0	48	0	1638924288	65	4124
2026-01-15 22:51:47.99	131.20	20.33	-47.3	-48.2	20.7	0.00e+00	0	48	0	1642070016	65	4174
2026-01-15 22:51:49.00	131.40	20.24	-47.3	-48.2	20.7	0.00e+00	0	48	0	1645215744	65	4156
2026-01-15 22:51:50.01	131.59	20.15	-47.4	-48.3	20.6	0.00e+00	0	48	0	1648361472	65	4235
2026-01-15 22:51:51.02	131.78	20.06	-47.3	-48.2	20.7	0.00e+00	0	48	0	1651507200	65	4159
2026-01-15 22:51:52.03	131.97	19.98	-47.3	-48.2	20.7	0.00e+00	0	48	0	1654652928	65	4158
2026-01-15 22:51:53.04	132.16	19.89	-47.3	-48.2	20.7	0.00e+00	0	48	0	1657798656	65	4173
2026-01-15 22:51:54.05	132.35	19.80	-47.2	-48.1	20.7	0.00e+00	0	48	0	1660944384	65	4141
2026-01-15 22:51:55.06	132.54	19.72	-47.2	-48.1	20.7	0.00e+00	0	48	0	1664090112	65	4121
2026-01-15 22:51:56.07	132.72	19.63	-47.2	-48.1	20.7	0.00e+00	0	48	0	1667235840	65	4139
2026-01-15 22:51:57.08	132.91	19.54	-47.2	-48.1	20.7	0.00e+00	0	48	0	1670381568	65	4132
2026-01-15 22:51:58.09	133.10	19.46	-47.3	-48.2	20.6	0.00e+00	0	48	0	1673527296	65	4172
2026-01-15 22:51:59.10	133.28	19.37	-47.3	-48.2	20.6	0.00e+00	0	48	0	1676673024	65	4167
2026-01-15 22:52:00.11	133.46	19.28	-47.4	-48.3	20.6	0.00e+00	0	48	0	1679818752	65	4221
2026-01-15 22:52:01.12	133.64	19.20	-47.4	-48.3	20.5	0.00e+00	0	48	0	1682964480	65	4238
2026-01-15 22:52:02.13	133.82	19.11	-47.5	-48.4	20.4	0.00e+00	0	48	0	1686110208	65	4286
2026-01-15 22:52:03.14	134.00	19.02	-47.6	-48.6	20.3	0.00e+00	0	48	0	1690304512	65	4367
2026-01-15 22:52:04.15	134.18	18.94	-47.6	-48.5	20.3	0.00e+00	0	48	0	1692401664	65	4325
2026-01-15 22:52:05.17	134.36	18.85	-47.7	-48.7	20.2	0.00e+00	0	48	0	1695547392	65	4397
2026-01-15 22:52:06.18	134.54	18.76	-47.6	-48.6	20.3	0.00e+00	0	48	0	1698693120	66	4129
2026-01-15 22:52:07.19	134.72	18.68	-47.7	-48.7	20.2	0.00e+00	0	48	0	1701838848	66	4169
2026-01-15 22:52:08.20	134.89	18.59	-47.7	-48.7	20.1	0.00e+00	0	48	0	1704984576	66	4190
2026-01-15 22:52:09.21	135.06	18.50	-47.9	-48.9	20.0	0.00e+00	0	48	0	1708130304	66	4268
2026-01-15 22:52:10.22	135.24	18.42	-47.8	-48.7	20.1	0.00e+00	0	48	0	1711276032	66	4193
2026-01-15 22:52:11.23	135.41	18.33	-47.7	-48.7	20.1	0.00e+00	0	48	0	1714421760	66	4183
2026-01-15 22:52:12.24	135.58	18.25	-47.6	-48.6	20.2	0.00e+00	0	48	0	1717567488	66	4137
2026-01-15 22:52:13.25	135.75	18.16	-47.6	-48.5	20.3	0.00e+00	0	48	0	1721761792	66	4097
2026-01-15 22:52:14.26	135.92	18.07	-47.6	-48.6	20.2	0.00e+00	0	48	0	1724907520	66	4099
2026-01-15 22:52:15.27	136.09	17.99	-47.6	-48.6	20.2	0.00e+00	0	48	0	1728053248	66	4117
2026-01-15 22:52:16.28	136.25	17.90	-47.5	-48.5	20.3	0.00e+00	0	48	0	1731198976	66	4077
2026-01-15 22:52:17.29	136.42	17.82	-47.6	-48.5	20.3	0.00e+00	0	48	0	1734344704	66	4093
2026-01-15 22:52:18.30	136.59	17.73	-47.6	-48.6	20.2	0.00e+00	0	48	0	1737490432	66	4124
2026-01-15 22:52:19.31	136.75	17.64	-47.5	-48.5	20.4	0.00e+00	0	48	0	1739587584	66	4055
2026-01-15 22:52:20.32	136.92	17.56	-47.6	-48.5	20.3	0.00e+00	0	48	0	1742733312	66	4087
2026-01-15 22:52:21.33	137.08	17.47	-47.7	-48.6	20.2	0.00e+00	0	48	0	1745879040	66	4137
2026-01-15 22:52:22.35	137.24	17.39	-47.5	-48.4	20.4	0.00e+00	0	48	0	1750073344	66	4049
2026-01-15 22:52:23.36	137.40	17.30	-47.4	-48.3	20.5	0.00e+00	0	48	0	1753219072	66	3970
2026-01-15 22:52:24.36	137.56	17.22	-47.4	-48.4	20.4	0.00e+00	0	48	0	1756364800	66	4009
2026-01-15 22:52:25.38	137.72	17.13	-47.3	-48.2	20.6	0.00e+00	0	48	0	1759510528	66	3917
2026-01-15 22:52:26.39	137.88	17.04	-47.3	-48.2	20.5	0.00e+00	0	48	0	1762656256	66	3955
2026-01-15 22:52:27.40	138.04	16.96	-47.4	-48.3	20.5	0.00e+00	0	48	0	1765801984	66	3978
2026-01-15 22:52:28.41	138.19	16.87	-47.4	-48.3	20.5	0.00e+00	0	48	0	1768947712	66	3979
2026-01-15 22:52:29.42	138.35	16.79	-47.4	-48.4	20.4	0.00e+00	0	49	0	1772093440	66	4013
2026-01-15 22:52:30.43	138.51	16.70	-47.4	-48.4	20.4	0.00e+00	0	48	0	1775239168	66	4013
2026-01-15 22:52:31.44	138.66	16.62	-47.4	-48.3	20.4	0.00e+00	0	48	0	1778384896	66	3986
2026-01-15 22:52:32.45	138.81	16.54	-47.5	-48.4	20.3	0.00e+00	0	48	0	1781530624	66	4026
2026-01-15 22:52:33.46	138.97	16.45	-47.5	-48.5	20.3	0.00e+00	0	48	0	1784676352	66	4065
2026-01-15 22:52:34.47	139.12	16.37	-47.6	-48.6	20.2	0.00e+00	0	48	0	1787822080	66	4111
2026-01-15 22:52:35.48	139.27	16.28	-47.6	-48.5	20.3	0.00e+00	0	48	0	1790967808	66	4092
2026-01-15 22:52:36.49	139.42	16.20	-47.6	-48.5	20.2	0.00e+00	0	48	0	1794113536	66	4088
2026-01-15 22:52:37.50	139.57	16.11	-47.6	-48.6	20.2	0.00e+00	0	48	0	1797259264	66	4113
2026-01-15 22:52:38.51	139.72	16.03	-47.6	-48.5	20.2	0.00e+00	0	48	0	1800404992	66	4086
2026-01-15 22:52:39.52	139.86	15.95	-47.4	-48.4	20.3	0.00e+00	0	48	0	1803550720	66	4019
2026-01-15 22:52:40.53	140.01	15.86	-47.4	-48.4	20.4	0.00e+00	0	48	0	1806696448	66	4006
2026-01-15 22:52:41.54	140.16	15.78	-47.5	-48.4	20.3	0.00e+00	0	48	0	1809842176	66	4041
2026-01-15 22:52:42.55	140.30	15.70	-47.5	-48.5	20.3	0.00e+00	0	48	0	1812987904	66	4055
2026-01-15 22:52:43.56	140.45	15.61	-47.6	-48.6	20.2	0.00e+00	0	48	0	1816133632	66	4102
2026-01-15 22:52:44.57	140.59	15.53	-47.7	-48.7	20.1	0.00e+00	0	48	0	1819279360	66	4152
2026-01-15 22:52:45.59	140.73	15.44	-47.8	-48.7	20.0	0.00e+00	0	48	0	1822425088	66	4187
2026-01-15 22:52:46.59	140.87	15.36	-47.8	-48.8	20.0	0.00e+00	0	48	0	1825570816	66	4210
2026-01-15 22:52:47.60	141.02	15.28	-47.9	-48.9	19.9	0.00e+00	0	48	0	1828716544	66	4263
2026-01-15 22:52:48.62	141.16	15.20	-47.9	-48.9	19.9	0.00e+00	0	48	0	1831862272	66	4253
2026-01-15 22:52:49.63	141.30	15.11	-48.0	-49.0	19.8	0.00e+00	0	48	0	1835008000	66	4302
2026-01-15 22:52:50.64	141.44	15.03	-48.0	-49.0	19.8	0.00e+00	0	48	0	1838153728	66	4301
2026-01-15 22:52:51.65	141.58	14.95	-47.9	-49.0	19.8	0.00e+00	0	49	0	1841299456	66	4294
2026-01-15 22:52:52.66	141.71	14.87	-48.0	-49.0	19.7	0.00e+00	0	48	0	1844445184	66	4337
2026-01-15 22:52:53.67	141.85	14.78	-48.0	-49.0	19.7	0.00e+00	0	48	0	1847590912	66	4326
2026-01-15 22:52:54.68	141.99	14.70	-48.0	-49.0	19.7	0.00e+00	0	48	0	1850736640	66	4329
2026-01-15 22:52:55.69	142.12	14.62	-48.0	-49.0	19.7	0.00e+00	0	48	0	1853882368	66	4317
2026-01-15 22:52:56.70	142.26	14.54	-48.0	-49.0	19.7	0.00e+00	0	48	0	1857028096	66	4339
2026-01-15 22:52:57.71	142.39	14.46	-48.1	-49.1	19.7	0.00e+00	0	48	0	1860173824	66	4354
2026-01-15 22:52:58.71	142.52	14.38	-48.2	-49.2	19.6	0.00e+00	0	48	0	1863319552	66	4412
2026-01-15 22:52:59.72	142.66	14.29	-48.1	-49.2	19.6	0.00e+00	0	48	0	1866465280	67	4157
2026-01-15 22:53:00.73	142.79	14.21	-48.3	-49.3	19.5	0.00e+00	0	48	0	1869611008	67	4219
2026-01-15 22:53:01.74	142.92	14.13	-48.3	-49.4	19.4	0.00e+00	0	48	0	1872756736	67	4262
2026-01-15 22:53:02.75	143.05	14.05	-48.3	-49.3	19.5	0.00e+00	0	48	0	1875902464	67	4226
2026-01-15 22:53:03.76	143.18	13.97	-48.2	-49.2	19.5	0.00e+00	0	48	0	1879048192	67	4186
2026-01-15 22:53:04.77	143.31	13.89	-48.1	-49.2	19.6	0.00e+00	0	48	0	1882193920	67	4160
2026-01-15 22:53:05.78	143.44	13.81	-48.1	-49.1	19.6	0.00e+00	0	48	0	1885339648	67	4144
2026-01-15 22:53:06.79	143.56	13.73	-48.1	-49.2	19.6	0.00e+00	0	48	0	1888485376	67	4156
2026-01-15 22:53:07.80	143.69	13.65	-48.3	-49.4	19.4	0.00e+00	0	48	0	1891631104	67	4253
2026-01-15 22:53:08.81	143.82	13.57	-48.3	-49.4	19.3	0.00e+00	0	48	0	1894776832	67	4268
2026-01-15 22:53:09.82	143.94	13.49	-48.4	-49.4	19.3	0.00e+00	0	48	0	1897922560	67	4291
2026-01-15 22:53:10.83	144.07	13.41	-48.4	-49.5	19.3	0.00e+00	0	48	0	1901068288	67	4297
2026-01-15 22:53:11.84	144.19	13.33	-48.5	-49.6	19.1	0.00e+00	0	48	0	1904214016	67	4368
2026-01-15 22:53:12.85	144.32	13.25	-48.5	-49.6	19.1	0.00e+00	0	48	0	1907359744	67	4371
2026-01-15 22:53:13.86	144.44	13.17	-48.5	-49.6	19.1	0.00e+00	0	48	0	1910505472	67	4388
2026-01-15 22:53:14.87	144.56	13.09	-48.5	-49.6	19.1	0.00e+00	0	48	0	1913651200	67	4380
2026-01-15 22:53:15.88	144.69	13.01	-48.6	-49.7	19.0	0.00e+00	0	48	0	1916796928	67	4417
2026-01-15 22:53:16.90	144.81	12.93	-48.4	-49.5	19.2	0.00e+00	0	49	0	1919942656	67	4315
2026-01-15 22:53:17.91	144.93	12.85	-48.4	-49.5	19.2	0.00e+00	0	48	0	1923088384	67	4311
2026-01-15 22:53:18.91	145.05	12.77	-48.3	-49.4	19.4	0.00e+00	0	48	0	1926234112	67	4253
2026-01-15 22:53:19.93	145.17	12.69	-48.4	-49.4	19.3	0.00e+00	0	48	0	1929379840	67	4285
2026-01-15 22:53:20.94	145.29	12.62	-48.4	-49.4	19.3	0.00e+00	0	48	0	1932525568	67	4278
2026-01-15 22:53:21.94	145.41	12.54	-48.5	-49.6	19.2	0.00e+00	0	48	0	1935671296	67	4341
2026-01-15 22:53:22.95	145.52	12.46	-48.3	-49.3	19.4	0.00e+00	0	48	0	1938817024	67	4215
2026-01-15 22:53:23.96	145.64	12.38	-48.2	-49.3	19.4	0.00e+00	0	48	0	1941962752	67	4201
2026-01-15 22:53:24.97	145.76	12.30	-48.2	-49.2	19.4	0.00e+00	0	48	0	1945108480	67	4183
2026-01-15 22:53:25.98	145.87	12.23	-48.3	-49.4	19.3	0.00e+00	0	48	0	1948254208	67	4248
2026-01-15 22:53:26.99	145.99	12.15	-48.4	-49.5	19.2	0.00e+00	0	48	0	1951399936	67	4313
2026-01-15 22:53:28.00	146.10	12.07	-48.5	-49.5	19.2	0.00e+00	0	48	0	1954545664	67	4340
2026-01-15 22:53:29.01	146.22	11.99	-48.6	-49.7	19.0	0.00e+00	0	48	0	1957691392	67	4411
2026-01-15 22:53:30.02	146.33	11.92	-48.6	-49.7	19.0	0.00e+00	0	48	0	1960837120	67	4420
2026-01-15 22:53:31.03	146.44	11.84	-48.7	-49.8	18.9	0.00e+00	0	48	0	1963982848	67	4458
2026-01-15 22:53:32.04	146.56	11.76	-48.5	-49.6	19.1	0.00e+00	0	48	0	1967128576	67	4375
2026-01-15 22:53:33.05	146.67	11.69	-48.5	-49.6	19.1	0.00e+00	0	48	0	1970274304	67	4343
2026-01-15 22:53:34.06	146.78	11.61	-48.4	-49.5	19.2	0.00e+00	0	48	0	1973420032	67	4305
2026-01-15 22:53:35.07	146.89	11.53	-48.5	-49.6	19.1	0.00e+00	0	49	0	1976565760	67	4342
2026-01-15 22:53:36.08	147.00	11.46	-48.5	-49.5	19.1	0.00e+00	0	48	0	1979711488	67	4336
2026-01-15 22:53:37.09	147.11	11.38	-48.4	-49.5	19.1	0.00e+00	0	48	0	1982857216	67	4324
2026-01-15 22:53:38.10	147.22	11.30	-48.3	-49.4	19.2	0.00e+00	0	48	0	1986002944	67	4273
2026-01-15 22:53:39.10	147.33	11.23	-48.4	-49.5	19.2	0.00e+00	0	49	0	1989148672	67	4314
2026-01-15 22:53:40.11	147.44	11.15	-48.5	-49.6	19.1	0.00e+00	0	48	0	1992294400	67	4351
2026-01-15 22:53:41.12	147.54	11.08	-48.4	-49.5	19.1	0.00e+00	0	49	0	1995440128	67	4323
2026-01-15 22:53:42.13	147.65	11.00	-48.4	-49.5	19.1	0.00e+00	0	48	0	1998585856	67	4329
2026-01-15 22:53:43.14	147.76	10.93	-48.5	-49.6	19.0	0.00e+00	0	48	0	2001731584	67	4384
2026-01-15 22:53:44.15	147.86	10.85	-48.6	-49.8	18.9	0.00e+00	0	48	0	2005925888	67	4452
2026-01-15 22:53:45.16	147.97	10.78	-48.6	-49.7	18.9	0.00e+00	0	49	0	2008023040	67	4418
2026-01-15 22:53:46.17	148.07	10.70	-48.7	-49.8	18.8	0.00e+00	0	48	0	2011168768	67	4471
2026-01-15 22:53:47.18	148.18	10.63	-48.7	-49.8	18.8	0.00e+00	0	48	0	2014314496	67	4463
2026-01-15 22:53:48.19	148.28	10.55	-49.0	-50.2	18.5	0.00e+00	0	48	0	2017460224	68	4422
2026-01-15 22:53:49.20	148.38	10.48	-49.0	-50.1	18.6	0.00e+00	0	48	0	2020605952	68	4378
2026-01-15 22:53:50.21	148.49	10.40	-48.8	-50.0	18.7	0.00e+00	0	48	0	2023751680	68	4314
2026-01-15 22:53:51.22	148.59	10.33	-49.0	-50.2	18.6	0.00e+00	0	48	0	2026897408	68	4408
2026-01-15 22:53:52.23	148.69	10.26	-49.0	-50.1	18.6	0.00e+00	0	48	0	2030043136	68	4387
2026-01-15 22:53:53.24	148.79	10.18	-49.0	-50.1	18.6	0.00e+00	0	48	0	2033188864	68	4379
2026-01-15 22:53:54.25	148.89	10.11	-49.0	-50.2	18.5	0.00e+00	0	48	0	2037383168	68	4432
2026-01-15 22:53:55.26	148.99	10.03	-48.9	-50.1	18.6	0.00e+00	0	48	0	2040528896	68	4362
2026-01-15 22:53:56.27	149.09	9.96	-48.9	-50.1	18.6	0.00e+00	0	48	0	2043674624	68	4376
2026-01-15 22:53:57.28	149.19	9.89	-48.9	-50.1	18.6	0.00e+00	0	49	0	2046820352	68	4362
2026-01-15 22:53:58.29	149.29	9.81	-49.0	-50.2	18.5	0.00e+00	0	48	0	2049966080	68	4432
2026-01-15 22:53:59.30	149.39	9.74	-49.0	-50.2	18.5	0.00e+00	0	48	0	2053111808	68	4424
2026-01-15 22:54:00.31	149.49	9.67	-49.1	-50.3	18.4	0.00e+00	0	48	0	2055208960	68	4481
2026-01-15 22:54:01.32	149.59	9.60	-49.1	-50.3	18.4	0.00e+00	0	48	0	2058354688	68	4474
2026-01-15 22:54:02.33	149.69	9.52	-49.2	-50.4	18.3	0.00e+00	0	48	0	2061500416	68	4521
