passes_logs/2026/01/15/R3.2S_Murmansk/R3.2S_Murmansk__20260115_035051_FENGYUN_3D_rec.log

#Pass ID: 20260115_035051_FENGYUN 3D
#Satellite: FENGYUN 3D
#Configuration: FENGYUN 3D
#almurnet v.1.7.20251203
#Start time: 2026-01-15 03:50:52

#Version: 2.2.20231116
#Station: R3.2S_Murmansk
#Location: 33.079688 lon 68.888172 lat
#TLE: 1 43010U 17072A   26014.65117763 -.00000217  00000+0 -80772-4 0  9993
#TLE: 2 43010  98.9933 346.4618 0002330 108.4699 251.6730 14.19694700423204

#Time	Az	El	Level	Level2	SNR	BER	BlckErr	Temp	State	Recorded	gain1	gain2
2026-01-15 03:50:52.83	30.03	2.10	-58.0	-71.0	3.8	8.45e-01	0	26	0	0	82	15878
2026-01-15 03:50:53.83	30.01	2.16	-58.0	-71.0	3.8	8.45e-01	0	26	104	0	81	16728
2026-01-15 03:50:54.83	29.99	2.22	-58.0	-71.0	3.8	8.47e-01	0	26	104	0	81	16798
2026-01-15 03:50:55.82	29.97	2.28	-57.9	-71.0	3.8	8.46e-01	0	26	104	0	81	16727
2026-01-15 03:50:56.82	29.94	2.35	-58.0	-71.0	3.8	8.45e-01	0	26	104	0	81	16731
2026-01-15 03:50:57.83	29.92	2.41	-58.0	-71.0	3.8	8.46e-01	0	26	104	0	81	16700
2026-01-15 03:50:58.83	29.90	2.48	-58.0	-71.0	3.8	8.45e-01	0	26	104	0	81	16728
2026-01-15 03:50:59.83	29.87	2.54	-58.0	-71.0	3.8	8.45e-01	0	26	104	0	81	16728
2026-01-15 03:51:00.83	29.85	2.60	-58.0	-70.9	3.8	8.45e-01	0	26	104	0	81	16639
2026-01-15 03:51:01.82	29.83	2.67	-58.0	-70.9	3.8	8.45e-01	0	26	104	0	81	16651
2026-01-15 03:51:02.82	29.80	2.73	-57.9	-70.9	3.8	8.46e-01	0	26	104	0	81	16602
2026-01-15 03:51:03.82	29.78	2.80	-57.9	-70.8	3.8	8.46e-01	0	26	104	0	81	16428
2026-01-15 03:51:04.82	29.76	2.86	-58.0	-70.8	3.8	8.46e-01	0	26	104	0	81	16403
2026-01-15 03:51:05.81	29.73	2.93	-58.0	-70.7	3.8	8.45e-01	0	26	104	0	81	16309
2026-01-15 03:51:06.82	29.71	2.99	-58.0	-70.7	3.8	8.46e-01	0	26	104	0	81	16195
2026-01-15 03:51:07.81	29.69	3.06	-58.0	-70.7	3.8	8.45e-01	0	26	104	0	81	16158
2026-01-15 03:51:08.81	29.66	3.12	-57.9	-70.3	3.8	8.46e-01	0	26	104	0	81	15546
2026-01-15 03:51:09.81	29.64	3.19	-57.9	-70.1	3.8	8.46e-01	0	26	104	0	81	15140
2026-01-15 03:51:10.81	29.61	3.25	-57.9	-69.6	3.8	8.46e-01	0	26	104	0	81	14239
2026-01-15 03:51:11.80	29.59	3.32	-57.8	-69.5	3.8	8.46e-01	0	26	104	0	81	14068
2026-01-15 03:51:12.80	29.56	3.39	-57.8	-69.3	3.8	8.45e-01	0	26	104	0	81	13830
2026-01-15 03:51:13.79	29.54	3.45	-57.8	-69.3	3.8	8.45e-01	0	26	104	0	81	13808
2026-01-15 03:51:14.80	29.51	3.52	-57.9	-69.6	3.8	8.45e-01	0	26	104	0	81	14356
2026-01-15 03:51:15.79	29.49	3.58	-57.9	-69.9	3.8	8.45e-01	0	26	104	0	81	14795
2026-01-15 03:51:16.79	29.46	3.65	-57.9	-70.1	3.8	8.45e-01	0	26	104	0	81	15055
2026-01-15 03:51:17.79	29.44	3.72	-57.9	-69.9	3.8	8.44e-01	0	27	104	0	81	14810
2026-01-15 03:51:18.78	29.41	3.78	-57.9	-69.6	3.8	8.46e-01	0	27	104	0	81	14288
2026-01-15 03:51:19.77	29.39	3.85	-57.8	-68.5	4.0	8.43e-01	0	27	104	0	81	12629
2026-01-15 03:51:20.77	29.36	3.92	-57.7	-67.3	4.2	8.36e-01	0	26	0	0	81	10965
2026-01-15 03:51:21.76	29.33	3.98	-57.5	-65.9	4.7	8.07e-01	0	27	0	0	81	9286
2026-01-15 03:51:22.76	29.31	4.05	-57.2	-64.4	5.5	7.08e-01	0	26	0	0	81	7845
2026-01-15 03:51:23.74	29.28	4.12	-57.1	-64.2	5.6	6.19e-01	0	26	0	4194304	80	8123
2026-01-15 03:51:24.74	29.26	4.18	-56.9	-63.2	6.3	2.75e-01	0	27	0	10485760	80	7229
2026-01-15 03:51:25.73	29.23	4.25	-56.6	-62.2	7.1	1.53e-01	0	27	0	15728640	79	6808
2026-01-15 03:51:26.73	29.20	4.32	-56.3	-61.3	7.8	7.73e-02	0	27	0	20971520	79	6195
2026-01-15 03:51:27.73	29.18	4.39	-55.9	-60.2	8.7	2.94e-02	0	27	0	27262976	78	5777
2026-01-15 03:51:28.72	29.15	4.46	-55.8	-60.2	8.8	1.45e-02	0	27	0	32505856	78	5735
2026-01-15 03:51:29.72	29.12	4.53	-55.8	-60.0	9.0	1.16e-02	0	27	0	37748736	78	5617
2026-01-15 03:51:30.72	29.10	4.59	-55.7	-59.8	9.0	1.03e-02	0	27	0	44040192	77	5838
2026-01-15 03:51:31.72	29.07	4.66	-55.5	-59.5	9.3	9.80e-03	0	27	0	49283072	77	5641
2026-01-15 03:51:32.72	29.04	4.73	-55.6	-59.7	9.1	8.87e-03	0	27	0	54525952	77	5762
2026-01-15 03:51:33.72	29.01	4.80	-55.7	-59.8	9.0	1.15e-02	0	27	0	60817408	77	5847
2026-01-15 03:51:34.72	28.98	4.87	-55.8	-60.2	8.7	1.79e-02	0	27	0	66060288	77	6121
2026-01-15 03:51:35.72	28.96	4.94	-56.0	-60.7	8.3	2.59e-02	0	27	0	71303168	77	6436
2026-01-15 03:51:36.71	28.93	5.01	-56.0	-60.7	8.3	3.27e-02	0	27	0	77594624	77	6445
2026-01-15 03:51:37.71	28.90	5.08	-55.5	-59.2	9.8	2.07e-02	0	27	0	82837504	77	5464
2026-01-15 03:51:38.70	28.87	5.15	-55.7	-59.7	9.4	5.40e-03	0	27	0	88080384	77	5726
2026-01-15 03:51:39.70	28.84	5.22	-56.9	-63.5	6.1	1.18e-02	0	27	0	94371840	78	8376
2026-01-15 03:51:40.70	28.82	5.29	-53.8	-56.3	11.9	3.52e-02	0	27	0	97517568	74	4607
2026-01-15 03:51:41.69	28.79	5.36	-56.7	-62.1	7.4	8.72e-04	0	27	0	102760448	78	7154
2026-01-15 03:51:42.69	28.76	5.43	-53.9	-56.4	11.8	8.54e-03	0	27	0	108003328	74	4697
2026-01-15 03:51:43.69	28.73	5.50	-51.7	-53.5	13.5	0.00e+00	0	27	0	113246208	70	4232
2026-01-15 03:51:44.70	28.70	5.57	-50.9	-52.5	13.8	0.00e+00	0	27	0	119537664	68	4239
2026-01-15 03:51:45.70	28.67	5.65	-50.4	-51.9	14.0	0.00e+00	0	27	0	124780544	67	4186
2026-01-15 03:51:46.69	28.64	5.72	-50.6	-52.2	13.9	0.00e+00	0	27	0	131072000	67	4292
2026-01-15 03:51:47.69	28.61	5.79	-50.7	-52.3	13.9	0.00e+00	0	27	0	136314880	67	4374
2026-01-15 03:51:48.68	28.58	5.86	-50.7	-52.3	13.8	0.00e+00	0	27	0	141557760	67	4381
2026-01-15 03:51:49.69	28.55	5.93	-50.7	-52.3	13.8	0.00e+00	0	27	0	147849216	67	4384
2026-01-15 03:51:50.68	28.52	6.01	-50.5	-52.1	14.0	0.00e+00	0	27	0	153092096	67	4258
2026-01-15 03:51:51.68	28.49	6.08	-50.7	-52.2	13.9	0.00e+00	0	27	0	158334976	67	4334
2026-01-15 03:51:52.68	28.46	6.15	-50.7	-52.3	13.9	0.00e+00	0	27	0	163577856	67	4357
2026-01-15 03:51:53.66	28.43	6.22	-50.3	-51.9	14.1	0.00e+00	0	27	0	169869312	67	4166
2026-01-15 03:51:54.66	28.40	6.30	-50.4	-51.9	14.1	0.00e+00	0	27	0	175112192	67	4179
2026-01-15 03:51:55.66	28.36	6.37	-50.2	-51.7	14.2	0.00e+00	0	27	0	181403648	67	4054
2026-01-15 03:51:56.66	28.33	6.44	-50.5	-52.1	13.9	0.00e+00	0	27	0	186646528	66	4506
2026-01-15 03:51:57.66	28.30	6.52	-50.3	-51.8	14.0	0.00e+00	0	27	0	191889408	66	4371
2026-01-15 03:51:58.66	28.27	6.59	-50.4	-51.9	14.0	0.00e+00	0	27	0	198180864	66	4416
2026-01-15 03:51:59.65	28.24	6.66	-50.3	-51.8	14.1	0.00e+00	0	27	0	203423744	66	4354
2026-01-15 03:52:00.65	28.21	6.74	-50.3	-51.8	14.0	0.00e+00	0	27	0	208666624	66	4391
2026-01-15 03:52:01.65	28.17	6.81	-50.2	-51.7	14.1	0.00e+00	0	27	0	214958080	66	4333
2026-01-15 03:52:02.64	28.14	6.89	-50.4	-52.0	14.0	0.00e+00	0	27	0	220200960	66	4452
2026-01-15 03:52:03.64	28.11	6.96	-50.4	-52.0	14.0	0.00e+00	0	27	0	225443840	66	4446
2026-01-15 03:52:04.63	28.07	7.04	-50.2	-51.8	14.1	0.00e+00	0	27	0	231735296	66	4341
2026-01-15 03:52:05.63	28.04	7.11	-50.3	-51.9	14.0	0.00e+00	0	27	0	236978176	66	4394
2026-01-15 03:52:06.63	28.01	7.19	-50.1	-51.6	14.2	0.00e+00	0	27	0	243269632	66	4284
2026-01-15 03:52:07.64	27.97	7.26	-50.1	-51.6	14.2	0.00e+00	0	27	0	248512512	66	4273
2026-01-15 03:52:08.64	27.94	7.34	-50.2	-51.7	14.1	0.00e+00	0	27	0	253755392	66	4332
2026-01-15 03:52:09.63	27.91	7.42	-50.3	-51.8	14.1	0.00e+00	0	27	0	260046848	66	4360
2026-01-15 03:52:10.63	27.87	7.49	-50.2	-51.7	14.1	0.00e+00	0	27	0	265289728	66	4296
2026-01-15 03:52:11.63	27.84	7.57	-50.2	-51.7	14.1	0.00e+00	0	27	0	270532608	66	4320
2026-01-15 03:52:12.63	27.80	7.65	-50.3	-51.7	14.1	0.00e+00	0	27	0	276824064	66	4339
2026-01-15 03:52:13.63	27.77	7.72	-50.2	-51.6	14.2	0.00e+00	0	27	0	282066944	66	4281
2026-01-15 03:52:14.64	27.73	7.80	-50.1	-51.6	14.2	0.00e+00	0	27	0	287309824	66	4271
2026-01-15 03:52:15.64	27.70	7.88	-49.7	-51.1	14.4	0.00e+00	0	27	0	293601280	66	4042
2026-01-15 03:52:16.63	27.66	7.96	-49.7	-51.1	14.4	0.00e+00	0	27	0	298844160	66	4045
2026-01-15 03:52:17.63	27.63	8.04	-49.8	-51.2	14.4	0.00e+00	0	27	0	304087040	66	4073
2026-01-15 03:52:18.62	27.59	8.11	-49.7	-51.1	14.4	0.00e+00	0	27	0	310378496	66	4050
2026-01-15 03:52:19.62	27.56	8.19	-49.9	-51.3	14.3	0.00e+00	0	27	0	315621376	66	4115
2026-01-15 03:52:20.61	27.52	8.27	-49.6	-51.0	14.3	0.00e+00	0	27	0	320864256	65	4229
2026-01-15 03:52:21.61	27.48	8.35	-49.6	-51.0	14.4	0.00e+00	0	27	0	327155712	65	4201
2026-01-15 03:52:22.61	27.45	8.43	-49.6	-51.0	14.3	0.00e+00	0	27	0	332398592	65	4235
2026-01-15 03:52:23.61	27.41	8.51	-49.6	-51.0	14.4	0.00e+00	0	27	0	338690048	65	4212
2026-01-15 03:52:24.61	27.37	8.59	-49.7	-51.2	14.3	0.00e+00	0	27	0	343932928	65	4292
2026-01-15 03:52:25.61	27.34	8.67	-49.5	-50.9	14.4	0.00e+00	0	27	0	349175808	65	4147
2026-01-15 03:52:26.60	27.30	8.75	-49.4	-50.8	14.5	0.00e+00	0	27	0	355467264	65	4102
2026-01-15 03:52:27.60	27.26	8.83	-49.5	-50.8	14.5	0.00e+00	0	27	0	360710144	65	4129
2026-01-15 03:52:28.60	27.22	8.91	-49.5	-50.9	14.4	0.00e+00	0	27	0	365953024	65	4156
2026-01-15 03:52:29.60	27.18	8.99	-49.4	-50.7	14.5	0.00e+00	0	27	0	372244480	65	4090
2026-01-15 03:52:30.59	27.15	9.07	-49.4	-50.7	14.5	0.00e+00	0	27	0	377487360	65	4078
2026-01-15 03:52:31.59	27.11	9.15	-49.4	-50.7	14.5	0.00e+00	0	28	0	382730240	65	4083
2026-01-15 03:52:32.59	27.07	9.23	-49.3	-50.6	14.5	0.00e+00	0	27	0	389021696	65	4050
2026-01-15 03:52:33.58	27.03	9.31	-49.1	-50.5	14.5	0.00e+00	0	27	0	394264576	64	4198
2026-01-15 03:52:34.57	26.99	9.39	-49.3	-50.6	14.4	0.00e+00	0	27	0	399507456	64	4280
2026-01-15 03:52:35.57	26.95	9.48	-49.3	-50.7	14.4	0.00e+00	0	27	0	405798912	64	4299
2026-01-15 03:52:36.56	26.91	9.56	-49.1	-50.4	14.5	0.00e+00	0	27	0	411041792	64	4185
2026-01-15 03:52:37.56	26.87	9.64	-49.0	-50.3	14.6	0.00e+00	0	27	0	416284672	64	4144
2026-01-15 03:52:38.55	26.83	9.72	-49.2	-50.5	14.5	0.00e+00	0	27	0	422576128	64	4214
2026-01-15 03:52:39.56	26.79	9.81	-49.1	-50.4	14.5	0.00e+00	0	27	0	427819008	64	4178
2026-01-15 03:52:40.56	26.75	9.89	-49.2	-50.5	14.5	0.00e+00	0	27	0	433061888	64	4232
2026-01-15 03:52:41.55	26.71	9.98	-49.2	-50.5	14.5	0.00e+00	0	27	0	439353344	64	4238
2026-01-15 03:52:42.56	26.67	10.06	-49.0	-50.3	14.6	0.00e+00	0	27	0	444596224	64	4109
2026-01-15 03:52:43.56	26.62	10.15	-49.0	-50.3	14.6	0.00e+00	0	28	0	450887680	64	4117
2026-01-15 03:52:44.56	26.58	10.23	-49.0	-50.3	14.6	0.00e+00	0	27	0	456130560	64	4137
2026-01-15 03:52:45.56	26.54	10.32	-48.9	-50.2	14.6	0.00e+00	0	27	0	461373440	64	4081
2026-01-15 03:52:46.56	26.50	10.40	-49.0	-50.3	14.6	0.00e+00	0	28	0	467664896	64	4102
2026-01-15 03:52:47.56	26.45	10.49	-48.9	-50.2	14.6	0.00e+00	0	27	0	472907776	64	4077
2026-01-15 03:52:48.55	26.41	10.57	-48.9	-50.2	14.6	0.00e+00	0	27	0	478150656	64	4087
2026-01-15 03:52:49.55	26.37	10.66	-49.0	-50.3	14.6	0.00e+00	0	27	0	484442112	64	4099
2026-01-15 03:52:50.55	26.32	10.74	-48.9	-50.2	14.7	0.00e+00	0	27	0	489684992	64	4064
2026-01-15 03:52:51.55	26.28	10.83	-49.1	-50.4	14.5	0.00e+00	0	27	0	494927872	64	4165
2026-01-15 03:52:52.54	26.24	10.92	-48.9	-50.2	14.6	0.00e+00	0	27	0	501219328	64	4085
2026-01-15 03:52:53.53	26.19	11.00	-48.8	-50.1	14.7	0.00e+00	0	27	0	506462208	64	4031
2026-01-15 03:52:54.54	26.15	11.09	-48.9	-50.2	14.6	0.00e+00	0	27	0	512753664	64	4082
2026-01-15 03:52:55.53	26.10	11.18	-48.9	-50.2	14.7	0.00e+00	0	27	0	517996544	64	4065
2026-01-15 03:52:56.53	26.06	11.27	-48.9	-50.3	14.6	0.00e+00	0	27	0	523239424	64	4099
2026-01-15 03:52:57.53	26.01	11.36	-48.8	-50.1	14.7	0.00e+00	0	27	0	529530880	64	4020
2026-01-15 03:52:58.53	25.96	11.45	-48.8	-50.1	14.7	0.00e+00	0	27	0	534773760	64	4034
2026-01-15 03:52:59.53	25.92	11.54	-48.9	-50.2	14.7	0.00e+00	0	27	0	540016640	64	4072
2026-01-15 03:53:00.53	25.87	11.62	-49.0	-50.2	14.6	0.00e+00	0	28	0	546308096	64	4091
2026-01-15 03:53:01.53	25.82	11.71	-48.9	-50.2	14.7	0.00e+00	0	27	0	551550976	64	4080
2026-01-15 03:53:02.54	25.78	11.81	-48.8	-50.1	14.7	0.00e+00	0	27	0	556793856	64	4017
2026-01-15 03:53:03.54	25.73	11.90	-48.8	-50.0	14.6	0.00e+00	0	27	0	563085312	63	4242
2026-01-15 03:53:04.54	25.68	11.99	-48.8	-50.1	14.6	0.00e+00	0	27	0	568328192	63	4251
2026-01-15 03:53:05.53	25.63	12.08	-48.6	-49.9	14.7	0.00e+00	0	28	0	574619648	63	4178
2026-01-15 03:53:06.54	25.58	12.17	-48.7	-50.0	14.6	0.00e+00	0	27	0	579862528	63	4208
2026-01-15 03:53:07.55	25.54	12.26	-48.8	-50.0	14.6	0.00e+00	0	27	0	585105408	63	4239
2026-01-15 03:53:08.55	25.49	12.35	-48.6	-49.8	14.7	0.00e+00	0	27	0	591396864	63	4130
2026-01-15 03:53:09.55	25.44	12.45	-48.6	-49.9	14.7	0.00e+00	0	27	0	596639744	63	4146
2026-01-15 03:53:10.54	25.39	12.54	-48.5	-49.7	14.7	0.00e+00	0	27	0	601882624	63	4098
2026-01-15 03:53:11.54	25.34	12.63	-48.6	-49.8	14.7	0.00e+00	0	27	0	608174080	63	4126
2026-01-15 03:53:12.54	25.29	12.72	-48.5	-49.8	14.7	0.00e+00	0	27	0	613416960	63	4109
2026-01-15 03:53:13.54	25.24	12.82	-48.6	-49.9	14.7	0.00e+00	0	27	0	618659840	63	4156
2026-01-15 03:53:14.54	25.18	12.91	-48.5	-49.8	14.7	0.00e+00	0	27	0	624951296	63	4111
2026-01-15 03:53:15.54	25.13	13.01	-48.7	-49.9	14.7	0.00e+00	0	27	0	630194176	63	4172
2026-01-15 03:53:16.54	25.08	13.10	-48.6	-49.8	14.7	0.00e+00	0	27	0	636485632	63	4135
2026-01-15 03:53:17.55	25.03	13.20	-48.4	-49.6	14.8	0.00e+00	0	27	0	641728512	63	4017
2026-01-15 03:53:18.54	24.98	13.29	-48.4	-49.6	14.8	0.00e+00	0	27	0	646971392	63	4019
2026-01-15 03:53:19.54	24.92	13.39	-48.4	-49.7	14.8	0.00e+00	0	27	0	653262848	63	4053
2026-01-15 03:53:20.54	24.87	13.48	-48.3	-49.6	14.8	0.00e+00	0	28	0	658505728	63	4008
2026-01-15 03:53:21.54	24.81	13.58	-48.3	-49.5	14.9	0.00e+00	0	27	0	663748608	63	3985
2026-01-15 03:53:22.54	24.76	13.68	-48.4	-49.6	14.8	0.00e+00	0	27	0	670040064	63	4021
2026-01-15 03:53:23.54	24.71	13.77	-48.3	-49.6	14.8	0.00e+00	0	27	0	675282944	63	4010
2026-01-15 03:53:24.54	24.65	13.87	-48.3	-49.5	14.9	0.00e+00	0	27	0	680525824	63	3971
2026-01-15 03:53:25.53	24.60	13.97	-48.2	-49.4	14.9	0.00e+00	0	27	0	686817280	63	3946
2026-01-15 03:53:26.53	24.54	14.07	-48.2	-49.5	14.9	0.00e+00	0	28	0	692060160	63	3959
2026-01-15 03:53:27.54	24.48	14.17	-48.2	-49.4	14.9	0.00e+00	0	27	0	698351616	63	3957
2026-01-15 03:53:28.52	24.43	14.26	-48.3	-49.5	14.9	0.00e+00	0	27	0	703594496	63	3991
2026-01-15 03:53:29.53	24.37	14.36	-48.3	-49.5	14.9	0.00e+00	0	27	0	708837376	63	3978
2026-01-15 03:53:30.53	24.31	14.46	-48.4	-49.6	14.8	0.00e+00	0	27	0	715128832	63	4024
2026-01-15 03:53:31.52	24.26	14.56	-48.2	-49.4	14.9	0.00e+00	0	27	0	720371712	63	3953
2026-01-15 03:53:32.52	24.20	14.66	-48.2	-49.4	14.9	0.00e+00	0	27	0	725614592	63	3958
2026-01-15 03:53:33.52	24.14	14.76	-48.2	-49.4	14.9	0.00e+00	0	27	0	730857472	63	3942
2026-01-15 03:53:34.53	24.08	14.87	-48.3	-49.5	14.9	0.00e+00	0	28	0	737148928	63	3970
2026-01-15 03:53:35.53	24.02	14.97	-48.3	-49.6	14.8	0.00e+00	0	27	0	742391808	63	4009
2026-01-15 03:53:36.53	23.96	15.07	-48.2	-49.4	14.9	0.00e+00	0	27	0	748683264	63	3953
2026-01-15 03:53:37.54	23.90	15.17	-48.3	-49.5	14.9	0.00e+00	0	27	0	753926144	63	3973
2026-01-15 03:53:38.53	23.84	15.28	-48.1	-49.3	14.8	0.00e+00	0	27	0	760217600	62	4111
2026-01-15 03:53:39.53	23.78	15.38	-48.1	-49.3	14.8	0.00e+00	0	27	0	765460480	62	4119
2026-01-15 03:53:40.53	23.72	15.48	-48.2	-49.4	14.8	0.00e+00	0	27	0	770703360	62	4148
2026-01-15 03:53:41.53	23.65	15.59	-48.0	-49.2	14.9	0.00e+00	0	27	0	776994816	62	4069
2026-01-15 03:53:42.54	23.59	15.69	-47.9	-49.1	14.9	0.00e+00	0	27	0	782237696	62	4014
2026-01-15 03:53:43.55	23.53	15.80	-47.9	-49.1	14.9	0.00e+00	0	28	0	787480576	62	4013
2026-01-15 03:53:44.55	23.46	15.90	-47.8	-48.9	15.0	0.00e+00	0	28	0	793772032	62	3943
2026-01-15 03:53:45.56	23.40	16.01	-47.7	-48.9	15.0	0.00e+00	0	28	0	799014912	62	3942
2026-01-15 03:53:46.56	23.33	16.12	-47.8	-48.9	15.0	0.00e+00	0	27	0	804257792	62	3950
2026-01-15 03:53:47.55	23.27	16.22	-47.7	-48.9	15.0	0.00e+00	0	27	0	810549248	62	3914
2026-01-15 03:53:48.55	23.20	16.33	-47.6	-48.8	14.9	0.00e+00	0	27	0	815792128	61	4103
2026-01-15 03:53:49.55	23.14	16.44	-47.3	-48.5	15.0	0.00e+00	0	28	0	822083584	61	3965
2026-01-15 03:53:50.56	23.07	16.55	-47.3	-48.5	15.0	0.00e+00	0	28	0	827326464	61	3962
2026-01-15 03:53:51.55	23.01	16.65	-47.3	-48.4	15.0	0.00e+00	0	27	0	832569344	61	3942
2026-01-15 03:53:52.55	22.94	16.76	-47.2	-48.3	15.1	0.00e+00	0	27	0	838860800	61	3906
2026-01-15 03:53:53.54	22.87	16.87	-47.1	-48.2	14.9	0.00e+00	0	27	0	844103680	60	4072
2026-01-15 03:53:54.54	22.80	16.98	-47.1	-48.2	15.0	0.00e+00	0	28	0	849346560	60	4069
2026-01-15 03:53:55.54	22.73	17.09	-47.1	-48.2	15.0	0.00e+00	0	28	0	855638016	60	4072
2026-01-15 03:53:56.54	22.66	17.20	-47.0	-48.1	15.0	0.00e+00	0	28	0	860880896	60	4011
2026-01-15 03:53:57.54	22.59	17.31	-47.1	-48.2	15.0	0.00e+00	0	28	0	867172352	60	4062
2026-01-15 03:53:58.55	22.52	17.42	-47.0	-48.1	15.0	0.00e+00	0	27	0	872415232	60	4022
2026-01-15 03:53:59.55	22.45	17.54	-47.0	-48.2	15.0	0.00e+00	0	27	0	877658112	60	4057
2026-01-15 03:54:00.55	22.38	17.65	-47.0	-48.1	15.0	0.00e+00	0	28	0	883949568	60	4035
2026-01-15 03:54:01.55	22.31	17.76	-47.0	-48.1	15.0	0.00e+00	0	27	0	889192448	60	4041
2026-01-15 03:54:02.55	22.23	17.88	-47.0	-48.2	15.0	0.00e+00	0	27	0	894435328	60	4056
2026-01-15 03:54:03.55	22.16	17.99	-47.0	-48.2	15.0	0.00e+00	0	28	0	900726784	60	4053
2026-01-15 03:54:04.56	22.08	18.10	-47.1	-48.2	15.0	0.00e+00	0	28	0	905969664	60	4067
2026-01-15 03:54:05.55	22.01	18.22	-47.1	-48.2	15.0	0.00e+00	0	27	0	911212544	60	4091
2026-01-15 03:54:06.56	21.93	18.33	-47.1	-48.2	15.0	0.00e+00	0	28	0	917504000	60	4072
2026-01-15 03:54:07.56	21.86	18.45	-47.0	-48.2	15.0	0.00e+00	0	28	0	922746880	60	4053
2026-01-15 03:54:08.57	21.78	18.57	-47.0	-48.2	15.0	0.00e+00	0	28	0	929038336	60	4056
2026-01-15 03:54:09.57	21.70	18.68	-47.0	-48.2	15.0	0.00e+00	0	28	0	934281216	60	4058
2026-01-15 03:54:10.56	21.63	18.80	-47.1	-48.2	15.0	0.00e+00	0	28	0	939524096	60	4071
2026-01-15 03:54:11.57	21.55	18.92	-47.0	-48.1	15.0	0.00e+00	0	28	0	945815552	60	4019
2026-01-15 03:54:12.57	21.47	19.04	-47.0	-48.1	15.0	0.00e+00	0	27	0	951058432	60	4034
2026-01-15 03:54:13.57	21.39	19.16	-46.9	-48.0	15.0	0.00e+00	0	28	0	956301312	60	4000
2026-01-15 03:54:14.57	21.31	19.28	-46.9	-48.0	15.0	0.00e+00	0	28	0	962592768	60	3998
2026-01-15 03:54:15.58	21.23	19.40	-46.9	-48.0	15.1	0.00e+00	0	28	0	967835648	60	3974
2026-01-15 03:54:16.57	21.15	19.52	-46.9	-48.0	15.0	0.00e+00	0	28	0	973078528	60	4003
2026-01-15 03:54:17.57	21.06	19.64	-46.9	-48.0	15.1	0.00e+00	0	28	0	979369984	60	3968
2026-01-15 03:54:18.57	20.98	19.76	-46.7	-47.9	15.1	0.00e+00	0	27	0	984612864	60	3914
2026-01-15 03:54:19.58	20.90	19.88	-46.8	-47.9	15.1	0.00e+00	0	28	0	990904320	60	3955
2026-01-15 03:54:20.58	20.81	20.00	-46.8	-47.9	15.1	0.00e+00	0	28	0	996147200	60	3943
2026-01-15 03:54:21.59	20.73	20.13	-46.8	-47.9	15.1	0.00e+00	0	28	0	1002438656	60	3957
2026-01-15 03:54:22.58	20.64	20.25	-46.8	-47.9	15.1	0.00e+00	0	28	0	1007681536	60	3922
2026-01-15 03:54:23.58	20.55	20.37	-46.8	-47.9	15.1	0.00e+00	0	28	0	1012924416	60	3958
2026-01-15 03:54:24.57	20.47	20.50	-46.8	-47.9	15.1	0.00e+00	0	28	0	1018167296	60	3932
2026-01-15 03:54:25.58	20.38	20.62	-46.7	-47.8	15.2	0.00e+00	0	28	0	1024458752	60	3898
2026-01-15 03:54:26.57	20.29	20.75	-46.8	-47.9	15.1	0.00e+00	0	28	0	1029701632	60	3918
2026-01-15 03:54:27.57	20.20	20.87	-47.0	-48.2	14.9	0.00e+00	0	28	0	1034944512	59	4299
2026-01-15 03:54:28.57	20.11	21.00	-47.0	-48.1	14.9	0.00e+00	0	28	0	1041235968	59	4263
2026-01-15 03:54:29.57	20.02	21.13	-46.9	-48.1	15.0	0.00e+00	0	27	0	1046478848	59	4247
2026-01-15 03:54:30.57	19.93	21.26	-46.9	-48.0	15.0	0.00e+00	0	28	0	1052770304	59	4228
2026-01-15 03:54:31.57	19.83	21.39	-46.9	-48.0	15.0	0.00e+00	0	28	0	1058013184	59	4219
2026-01-15 03:54:32.57	19.74	21.51	-46.9	-48.0	15.0	0.00e+00	0	28	0	1063256064	59	4214
2026-01-15 03:54:33.56	19.65	21.64	-46.8	-47.9	15.0	0.00e+00	0	28	0	1069547520	59	4152
2026-01-15 03:54:34.57	19.55	21.77	-46.7	-47.8	15.1	0.00e+00	0	28	0	1074790400	59	4125
2026-01-15 03:54:35.57	19.46	21.90	-46.7	-47.8	15.0	0.00e+00	0	28	0	1080033280	59	4114
2026-01-15 03:54:36.57	19.36	22.04	-46.6	-47.7	15.1	0.00e+00	0	28	0	1086324736	59	4096
2026-01-15 03:54:37.57	19.26	22.17	-46.6	-47.8	15.0	0.00e+00	0	28	0	1091567616	59	4099
2026-01-15 03:54:38.57	19.16	22.30	-46.6	-47.7	15.1	0.00e+00	0	28	0	1096810496	59	4097
2026-01-15 03:54:39.57	19.06	22.43	-46.6	-47.7	15.1	0.00e+00	0	28	0	1103101952	59	4085
2026-01-15 03:54:40.58	18.96	22.57	-46.6	-47.7	15.1	0.00e+00	0	28	0	1108344832	59	4078
2026-01-15 03:54:41.57	18.86	22.70	-46.6	-47.7	15.1	0.00e+00	0	27	0	1114636288	59	4076
2026-01-15 03:54:42.58	18.76	22.84	-46.6	-47.7	15.1	0.00e+00	0	28	0	1119879168	59	4070
2026-01-15 03:54:43.57	18.66	22.97	-46.6	-47.7	15.1	0.00e+00	0	28	0	1125122048	59	4085
2026-01-15 03:54:44.56	18.55	23.11	-46.6	-47.7	15.1	0.00e+00	0	28	0	1131413504	59	4075
2026-01-15 03:54:45.56	18.45	23.24	-46.6	-47.7	15.1	0.00e+00	0	28	0	1136656384	59	4076
2026-01-15 03:54:46.55	18.34	23.38	-46.5	-47.6	15.1	0.00e+00	0	28	0	1141899264	59	4013
2026-01-15 03:54:47.55	18.24	23.52	-46.6	-47.7	15.1	0.00e+00	0	27	0	1148190720	59	4070
2026-01-15 03:54:48.55	18.13	23.66	-46.6	-47.7	15.1	0.00e+00	0	28	0	1153433600	59	4065
2026-01-15 03:54:49.55	18.02	23.80	-46.5	-47.6	15.1	0.00e+00	0	27	0	1158676480	59	4014
2026-01-15 03:54:50.55	17.91	23.94	-46.3	-47.4	15.2	0.00e+00	0	27	0	1164967936	59	3943
2026-01-15 03:54:51.56	17.80	24.08	-46.3	-47.4	15.2	0.00e+00	0	27	0	1170210816	59	3948
2026-01-15 03:54:52.57	17.68	24.22	-46.4	-47.5	15.2	0.00e+00	0	27	0	1176502272	59	3964
2026-01-15 03:54:53.57	17.57	24.36	-46.3	-47.4	15.2	0.00e+00	0	27	0	1181745152	59	3943
2026-01-15 03:54:54.57	17.46	24.51	-46.3	-47.4	15.2	0.00e+00	0	28	0	1186988032	59	3929
2026-01-15 03:54:55.57	17.34	24.65	-46.4	-47.4	15.2	0.00e+00	0	28	0	1193279488	59	3952
2026-01-15 03:54:56.57	17.23	24.79	-46.3	-47.4	15.2	0.00e+00	0	27	0	1198522368	59	3955
2026-01-15 03:54:57.57	17.11	24.94	-46.4	-47.5	15.2	0.00e+00	0	28	0	1203765248	59	3962
2026-01-15 03:54:58.57	16.99	25.08	-46.3	-47.4	15.2	0.00e+00	0	28	0	1210056704	59	3917
2026-01-15 03:54:59.57	16.87	25.23	-46.3	-47.4	15.2	0.00e+00	0	28	0	1215299584	59	3926
2026-01-15 03:55:00.57	16.75	25.37	-46.3	-47.4	15.2	0.00e+00	0	27	0	1220542464	59	3947
2026-01-15 03:55:01.56	16.63	25.52	-46.2	-47.3	15.2	0.00e+00	0	28	0	1226833920	59	3892
2026-01-15 03:55:02.56	16.51	25.67	-46.2	-47.3	15.2	0.00e+00	0	28	0	1232076800	59	3888
2026-01-15 03:55:03.57	16.38	25.82	-46.3	-47.3	15.2	0.00e+00	0	28	0	1238368256	59	3905
2026-01-15 03:55:04.57	16.26	25.97	-46.3	-47.4	15.2	0.00e+00	0	28	0	1243611136	59	3951
2026-01-15 03:55:05.58	16.13	26.12	-46.2	-47.3	15.2	0.00e+00	0	28	0	1248854016	59	3888
2026-01-15 03:55:06.58	16.00	26.27	-46.3	-47.3	15.2	0.00e+00	0	28	0	1255145472	59	3906
2026-01-15 03:55:07.58	15.87	26.42	-46.3	-47.3	15.2	0.00e+00	0	28	0	1260388352	59	3911
2026-01-15 03:55:08.58	15.74	26.57	-46.2	-47.3	15.3	0.00e+00	0	28	0	1265631232	59	3872
2026-01-15 03:55:09.57	15.61	26.72	-46.3	-47.3	15.2	0.00e+00	0	28	0	1271922688	59	3913
2026-01-15 03:55:10.57	15.48	26.88	-46.2	-47.3	15.3	0.00e+00	0	28	0	1277165568	59	3880
2026-01-15 03:55:11.57	15.34	27.03	-46.3	-47.3	15.2	0.00e+00	0	28	0	1282408448	59	3910
2026-01-15 03:55:12.57	15.21	27.19	-46.2	-47.3	15.2	0.00e+00	0	28	0	1288699904	59	3894
2026-01-15 03:55:13.56	15.07	27.34	-46.2	-47.3	15.3	0.00e+00	0	28	0	1293942784	59	3872
2026-01-15 03:55:14.56	14.93	27.50	-46.2	-47.2	15.1	0.00e+00	0	28	0	1300234240	58	4087
2026-01-15 03:55:15.57	14.79	27.65	-46.1	-47.2	15.1	0.00e+00	0	28	0	1305477120	58	4072
2026-01-15 03:55:16.57	14.65	27.81	-46.1	-47.1	15.1	0.00e+00	0	28	0	1310720000	58	4051
2026-01-15 03:55:17.58	14.51	27.97	-46.1	-47.1	15.1	0.00e+00	0	28	0	1317011456	58	4050
2026-01-15 03:55:18.58	14.36	28.13	-46.1	-47.1	15.1	0.00e+00	0	28	0	1322254336	58	4041
2026-01-15 03:55:19.59	14.22	28.29	-46.0	-47.1	15.2	0.00e+00	0	28	0	1328545792	58	4027
2026-01-15 03:55:20.59	14.07	28.45	-46.0	-47.1	15.2	0.00e+00	0	28	0	1333788672	58	4041
2026-01-15 03:55:21.59	13.92	28.61	-46.0	-47.1	15.2	0.00e+00	0	28	0	1339031552	58	4028
2026-01-15 03:55:22.59	13.77	28.77	-46.1	-47.2	15.1	0.00e+00	0	28	0	1345323008	58	4085
2026-01-15 03:55:23.59	13.62	28.94	-46.1	-47.2	15.1	0.00e+00	0	28	0	1350565888	58	4080
2026-01-15 03:55:24.59	13.47	29.10	-46.2	-47.2	15.1	0.00e+00	0	28	0	1355808768	58	4097
2026-01-15 03:55:25.58	13.31	29.26	-46.1	-47.2	15.1	0.00e+00	0	27	0	1362100224	58	4080
2026-01-15 03:55:26.58	13.16	29.43	-46.1	-47.1	15.1	0.00e+00	0	28	0	1367343104	58	4050
2026-01-15 03:55:27.59	13.00	29.59	-46.0	-47.0	15.2	0.00e+00	0	28	0	1373634560	58	3993
2026-01-15 03:55:28.59	12.84	29.76	-45.9	-47.0	15.2	0.00e+00	0	27	0	1378877440	58	3968
2026-01-15 03:55:29.59	12.67	29.93	-45.9	-47.0	15.2	0.00e+00	0	28	0	1384120320	58	3969
2026-01-15 03:55:30.59	12.51	30.09	-45.7	-46.7	15.3	0.00e+00	0	28	0	1390411776	58	3866
2026-01-15 03:55:31.59	12.35	30.26	-45.6	-46.7	15.2	0.00e+00	0	28	0	1395654656	57	4059
2026-01-15 03:55:32.60	12.18	30.43	-45.7	-46.8	15.1	0.00e+00	0	28	0	1400897536	57	4101
2026-01-15 03:55:33.60	12.01	30.60	-45.5	-46.6	15.2	0.00e+00	0	28	0	1407188992	57	4012
2026-01-15 03:55:34.60	11.84	30.77	-45.5	-46.6	15.2	0.00e+00	0	28	0	1412431872	57	4019
2026-01-15 03:55:35.59	11.67	30.94	-45.6	-46.6	15.2	0.00e+00	0	28	0	1417674752	57	4036
2026-01-15 03:55:36.59	11.49	31.11	-45.7	-46.8	15.1	0.00e+00	0	28	0	1423966208	57	4120
2026-01-15 03:55:37.59	11.32	31.29	-45.7	-46.8	15.1	0.00e+00	0	28	0	1429209088	57	4102
2026-01-15 03:55:38.59	11.14	31.46	-45.6	-46.7	15.2	0.00e+00	0	28	0	1435500544	57	4073
2026-01-15 03:55:39.59	10.96	31.63	-45.5	-46.6	15.2	0.00e+00	0	27	0	1440743424	57	4012
2026-01-15 03:55:40.59	10.78	31.81	-45.5	-46.6	15.2	0.00e+00	0	28	0	1445986304	57	4019
2026-01-15 03:55:41.59	10.59	31.98	-45.4	-46.5	15.2	0.00e+00	0	28	0	1452277760	57	3964
2026-01-15 03:55:42.59	10.41	32.16	-45.3	-46.3	15.3	0.00e+00	0	28	0	1457520640	57	3901
2026-01-15 03:55:43.60	10.22	32.34	-45.3	-46.3	15.3	0.00e+00	0	28	0	1462763520	57	3910
2026-01-15 03:55:44.60	10.03	32.52	-45.3	-46.4	15.3	0.00e+00	0	27	0	1469054976	57	3924
2026-01-15 03:55:45.60	9.84	32.69	-45.5	-46.5	15.2	0.00e+00	0	28	0	1474297856	57	3979
2026-01-15 03:55:46.61	9.64	32.87	-45.5	-46.6	15.2	0.00e+00	0	28	0	1480589312	57	4023
2026-01-15 03:55:47.60	9.45	33.05	-45.6	-46.7	15.2	0.00e+00	0	28	0	1485832192	57	4075
2026-01-15 03:55:48.61	9.25	33.23	-45.6	-46.7	15.2	0.00e+00	0	28	0	1491075072	57	4078
2026-01-15 03:55:49.60	9.05	33.41	-45.7	-46.7	15.2	0.00e+00	0	28	0	1497366528	57	4086
2026-01-15 03:55:50.61	8.84	33.60	-45.7	-46.7	15.1	0.00e+00	0	28	0	1502609408	57	4084
2026-01-15 03:55:51.61	8.63	33.78	-45.5	-46.6	15.2	0.00e+00	0	28	0	1507852288	57	4005
2026-01-15 03:55:52.61	8.43	33.96	-45.4	-46.5	15.2	0.00e+00	0	28	0	1514143744	57	3960
2026-01-15 03:55:53.60	8.22	34.14	-45.1	-46.2	15.2	0.00e+00	0	28	0	1519386624	56	4064
2026-01-15 03:55:54.61	8.00	34.33	-45.2	-46.3	15.1	0.00e+00	0	28	0	1524629504	56	4105
2026-01-15 03:55:55.61	7.79	34.51	-45.1	-46.1	15.2	0.00e+00	0	27	0	1530920960	56	4036
2026-01-15 03:55:56.62	7.57	34.70	-45.3	-46.4	15.1	0.00e+00	0	28	0	1536163840	56	4173
2026-01-15 03:55:57.62	7.35	34.89	-45.5	-46.5	15.1	0.00e+00	0	28	0	1542455296	56	4234
2026-01-15 03:55:58.62	7.12	35.07	-45.6	-46.7	15.1	0.00e+00	0	28	0	1547698176	56	4307
2026-01-15 03:55:59.61	6.90	35.26	-45.6	-46.6	15.1	0.00e+00	0	28	0	1552941056	56	4275
2026-01-15 03:56:00.61	6.67	35.45	-45.4	-46.5	15.1	0.00e+00	0	28	0	1559232512	56	4214
2026-01-15 03:56:01.60	6.44	35.63	-45.4	-46.4	15.1	0.00e+00	0	28	0	1564475392	56	4166
2026-01-15 03:56:02.60	6.21	35.82	-45.5	-46.5	15.1	0.00e+00	0	28	0	1569718272	56	4223
2026-01-15 03:56:03.62	5.97	36.01	-45.5	-46.6	15.1	0.00e+00	0	28	0	1576009728	56	4251
2026-01-15 03:56:04.61	5.73	36.20	-45.5	-46.5	15.1	0.00e+00	0	28	0	1581252608	56	4225
2026-01-15 03:56:05.61	5.49	36.39	-45.5	-46.6	15.1	0.00e+00	0	28	0	1586495488	56	4249
2026-01-15 03:56:06.61	5.25	36.58	-45.7	-46.7	15.1	0.00e+00	0	28	0	1592786944	56	4327
2026-01-15 03:56:07.61	5.00	36.78	-45.6	-46.7	15.1	0.00e+00	0	28	0	1598029824	56	4318
2026-01-15 03:56:08.62	4.75	36.97	-45.7	-46.7	15.1	0.00e+00	0	28	0	1604321280	56	4329
2026-01-15 03:56:09.61	4.49	37.16	-45.6	-46.6	15.1	0.00e+00	0	27	0	1609564160	56	4289
2026-01-15 03:56:10.61	4.24	37.35	-45.6	-46.6	15.1	0.00e+00	0	28	0	1614807040	56	4276
2026-01-15 03:56:11.61	3.98	37.55	-45.5	-46.5	15.1	0.00e+00	0	28	0	1621098496	56	4220
2026-01-15 03:56:12.62	3.71	37.74	-45.5	-46.6	15.1	0.00e+00	0	28	0	1626341376	56	4272
2026-01-15 03:56:13.62	3.45	37.94	-45.7	-46.7	15.1	0.00e+00	0	28	0	1631584256	56	4322
2026-01-15 03:56:14.62	3.18	38.13	-45.6	-46.7	15.1	0.00e+00	0	28	0	1637875712	56	4316
2026-01-15 03:56:15.63	2.90	38.33	-45.7	-46.7	15.1	0.00e+00	0	27	0	1643118592	56	4322
2026-01-15 03:56:16.63	2.62	38.52	-45.7	-46.7	15.1	0.00e+00	0	28	0	1649410048	56	4315
2026-01-15 03:56:17.64	2.34	38.72	-45.7	-46.7	15.1	0.00e+00	0	27	0	1654652928	56	4322
2026-01-15 03:56:18.64	2.06	38.92	-45.8	-46.9	15.0	0.00e+00	0	28	0	1659895808	56	4409
2026-01-15 03:56:19.64	1.77	39.11	-45.8	-46.8	15.0	0.00e+00	0	28	0	1666187264	56	4374
2026-01-15 03:56:20.65	1.48	39.31	-45.8	-46.9	15.0	0.00e+00	0	28	0	1671430144	56	4411
2026-01-15 03:56:21.65	1.18	39.51	-45.7	-46.8	15.1	0.00e+00	0	28	0	1677721600	56	4343
2026-01-15 03:56:22.64	0.89	39.71	-45.7	-46.8	15.1	0.00e+00	0	28	0	1682964480	56	4347
2026-01-15 03:56:23.65	0.59	39.91	-45.7	-46.8	15.1	0.00e+00	0	27	0	1688207360	56	4346
2026-01-15 03:56:24.64	0.28	40.10	-45.6	-46.7	15.1	0.00e+00	0	28	0	1694498816	56	4320
2026-01-15 03:56:25.64	359.98	40.30	-45.6	-46.6	15.1	0.00e+00	0	28	0	1699741696	56	4286
2026-01-15 03:56:26.65	359.66	40.50	-45.6	-46.7	15.1	0.00e+00	0	28	0	1704984576	56	4311
2026-01-15 03:56:27.66	359.34	40.70	-45.6	-46.7	15.1	0.00e+00	0	28	0	1711276032	56	4314
2026-01-15 03:56:28.66	359.02	40.90	-45.5	-46.5	15.1	0.00e+00	0	28	0	1716518912	56	4230
2026-01-15 03:56:29.65	358.70	41.09	-45.6	-46.7	15.1	0.00e+00	0	28	0	1721761792	56	4295
2026-01-15 03:56:30.66	358.37	41.29	-45.8	-46.8	15.0	0.00e+00	0	28	0	1728053248	56	4372
2026-01-15 03:56:31.66	358.04	41.49	-45.9	-46.9	15.0	0.00e+00	0	28	0	1733296128	56	4434
2026-01-15 03:56:32.65	357.70	41.69	-45.8	-46.8	15.0	0.00e+00	0	28	0	1739587584	56	4375
2026-01-15 03:56:33.65	357.36	41.89	-45.6	-46.6	15.1	0.00e+00	0	28	0	1744830464	56	4266
2026-01-15 03:56:34.65	357.02	42.09	-45.5	-46.6	15.1	0.00e+00	0	28	0	1750073344	56	4255
2026-01-15 03:56:35.65	356.67	42.28	-45.5	-46.6	15.1	0.00e+00	0	28	0	1756364800	56	4251
2026-01-15 03:56:36.64	356.32	42.48	-45.5	-46.6	15.1	0.00e+00	0	28	0	1761607680	56	4244
2026-01-15 03:56:37.65	355.96	42.68	-45.6	-46.7	15.1	0.00e+00	0	28	0	1766850560	56	4294
2026-01-15 03:56:38.64	355.60	42.88	-45.7	-46.7	15.1	0.00e+00	0	28	0	1773142016	56	4322
2026-01-15 03:56:39.65	355.23	43.07	-45.7	-46.8	15.1	0.00e+00	0	28	0	1778384896	56	4349
2026-01-15 03:56:40.65	354.85	43.27	-45.8	-46.9	15.1	0.00e+00	0	28	0	1783627776	56	4395
2026-01-15 03:56:41.65	354.48	43.47	-45.6	-46.7	15.1	0.00e+00	0	28	0	1789919232	56	4295
2026-01-15 03:56:42.65	354.10	43.66	-45.4	-46.5	15.1	0.00e+00	0	28	0	1795162112	56	4205
2026-01-15 03:56:43.65	353.71	43.86	-45.5	-46.6	15.1	0.00e+00	0	28	0	1801453568	56	4251
2026-01-15 03:56:44.65	353.32	44.05	-45.6	-46.7	15.1	0.00e+00	0	28	0	1806696448	56	4304
2026-01-15 03:56:45.66	352.92	44.25	-45.7	-46.8	15.1	0.00e+00	0	28	0	1811939328	56	4355
2026-01-15 03:56:46.66	352.52	44.45	-45.6	-46.7	15.1	0.00e+00	0	28	0	1818230784	56	4300
2026-01-15 03:56:47.66	352.12	44.64	-45.6	-46.7	15.1	0.00e+00	0	28	0	1823473664	56	4317
2026-01-15 03:56:48.66	351.71	44.83	-45.8	-46.8	15.1	0.00e+00	0	28	0	1828716544	56	4384
2026-01-15 03:56:49.67	351.29	45.03	-46.1	-47.1	15.1	0.00e+00	0	28	0	1835008000	57	4287
2026-01-15 03:56:50.67	350.87	45.22	-46.1	-47.2	15.0	0.00e+00	0	28	0	1840250880	57	4301
2026-01-15 03:56:51.67	350.44	45.41	-46.1	-47.2	15.0	0.00e+00	0	28	0	1845493760	57	4322
2026-01-15 03:56:52.67	350.01	45.60	-46.1	-47.1	15.1	0.00e+00	0	28	0	1851785216	57	4285
2026-01-15 03:56:53.67	349.57	45.79	-46.0	-47.1	15.1	0.00e+00	0	28	0	1857028096	57	4244
2026-01-15 03:56:54.67	349.13	45.97	-46.0	-47.1	15.1	0.00e+00	0	28	0	1863319552	57	4250
2026-01-15 03:56:55.67	348.69	46.16	-46.2	-47.3	15.0	0.00e+00	0	28	0	1868562432	57	4382
2026-01-15 03:56:56.67	348.24	46.35	-46.3	-47.3	15.0	0.00e+00	0	28	0	1873805312	57	4382
2026-01-15 03:56:57.66	347.78	46.53	-46.2	-47.3	15.0	0.00e+00	0	28	0	1880096768	57	4341
2026-01-15 03:56:58.67	347.32	46.71	-46.2	-47.3	15.0	0.00e+00	0	28	0	1885339648	57	4348
2026-01-15 03:56:59.66	346.85	46.89	-46.4	-47.5	15.0	0.00e+00	0	28	0	1890582528	57	4451
2026-01-15 03:57:00.65	346.38	47.07	-46.5	-47.6	15.0	0.00e+00	0	28	0	1896873984	58	4263
2026-01-15 03:57:01.65	345.90	47.25	-46.5	-47.6	15.0	0.00e+00	0	28	0	1902116864	58	4278
2026-01-15 03:57:02.66	345.41	47.43	-46.4	-47.4	15.1	0.00e+00	0	28	0	1907359744	58	4190
2026-01-15 03:57:03.66	344.92	47.61	-46.4	-47.4	15.1	0.00e+00	0	28	0	1913651200	58	4193
2026-01-15 03:57:04.66	344.43	47.78	-46.5	-47.6	15.1	0.00e+00	0	28	0	1918894080	58	4245
2026-01-15 03:57:05.66	343.93	47.95	-46.6	-47.7	15.0	0.00e+00	0	28	0	1925185536	58	4337
2026-01-15 03:57:06.66	343.42	48.12	-46.5	-47.7	15.0	0.00e+00	0	28	0	1930428416	58	4292
2026-01-15 03:57:07.67	342.90	48.29	-46.4	-47.5	15.0	0.00e+00	0	28	0	1935671296	58	4219
2026-01-15 03:57:08.68	342.38	48.46	-46.4	-47.5	15.1	0.00e+00	0	28	0	1941962752	58	4196
2026-01-15 03:57:09.67	341.86	48.63	-46.2	-47.3	15.1	0.00e+00	0	28	0	1947205632	58	4126
2026-01-15 03:57:10.67	341.33	48.79	-46.6	-47.7	15.0	0.00e+00	0	28	0	1952448512	58	4311
2026-01-15 03:57:11.67	340.79	48.95	-46.9	-48.0	15.0	0.00e+00	0	28	0	1958739968	58	4484
2026-01-15 03:57:12.67	340.25	49.11	-46.9	-48.0	15.0	0.00e+00	0	28	0	1963982848	59	4237
2026-01-15 03:57:13.67	339.71	49.27	-46.7	-47.8	15.1	0.00e+00	0	28	0	1969225728	59	4124
2026-01-15 03:57:14.67	339.15	49.42	-46.6	-47.7	15.1	0.00e+00	0	28	0	1975517184	59	4058
2026-01-15 03:57:15.68	338.59	49.58	-46.6	-47.6	15.1	0.00e+00	0	28	0	1980760064	59	4051
2026-01-15 03:57:16.68	338.03	49.73	-46.8	-47.9	15.1	0.00e+00	0	28	0	1987051520	59	4180
2026-01-15 03:57:17.69	337.45	49.88	-46.8	-48.0	15.1	0.00e+00	0	28	0	1992294400	59	4194
2026-01-15 03:57:18.69	336.88	50.02	-46.6	-47.7	15.1	0.00e+00	0	28	0	1998585856	59	4084
2026-01-15 03:57:19.69	336.30	50.16	-46.5	-47.6	15.1	0.00e+00	0	28	0	2003828736	59	4025
2026-01-15 03:57:20.69	335.71	50.30	-46.6	-47.7	15.1	0.00e+00	0	28	0	2009071616	59	4081
2026-01-15 03:57:21.69	335.12	50.44	-47.0	-48.1	15.0	0.00e+00	0	28	0	2015363072	59	4252
2026-01-15 03:57:22.68	334.53	50.57	-47.2	-48.3	14.9	0.00e+00	0	28	0	2020605952	59	4388
2026-01-15 03:57:23.68	333.93	50.70	-47.0	-48.1	15.0	0.00e+00	0	28	0	2025848832	59	4281
2026-01-15 03:57:24.67	333.33	50.83	-47.0	-48.2	15.0	0.00e+00	0	28	0	2031091712	59	4297
2026-01-15 03:57:25.67	332.72	50.95	-47.1	-48.2	15.0	0.00e+00	0	28	0	2037383168	59	4302
2026-01-15 03:57:26.67	332.10	51.07	-47.1	-48.2	15.0	0.00e+00	0	28	0	2042626048	59	4314
2026-01-15 03:57:27.67	331.48	51.19	-47.1	-48.2	15.0	0.00e+00	0	28	0	2048917504	59	4333
2026-01-15 03:57:28.67	330.85	51.31	-47.0	-48.1	15.0	0.00e+00	0	28	0	2054160384	59	4289
2026-01-15 03:57:29.67	330.22	51.42	-47.0	-48.1	15.0	0.00e+00	0	28	0	2059403264	59	4251
2026-01-15 03:57:30.67	329.58	51.53	-46.8	-47.9	15.0	0.00e+00	0	28	0	2065694720	59	4181
2026-01-15 03:57:31.67	328.94	51.63	-46.8	-47.9	15.0	0.00e+00	0	28	0	2070937600	59	4157
2026-01-15 03:57:32.67	328.30	51.73	-46.9	-48.0	15.0	0.00e+00	0	28	0	2076180480	59	4205
2026-01-15 03:57:33.66	327.65	51.83	-46.8	-47.9	15.0	0.00e+00	0	28	0	2082471936	59	4186
2026-01-15 03:57:34.66	327.00	51.92	-46.7	-47.8	15.1	0.00e+00	0	28	0	2087714816	59	4123
2026-01-15 03:57:35.66	326.34	52.01	-46.8	-47.9	15.0	0.00e+00	0	28	0	2092957696	59	4184
2026-01-15 03:57:36.66	325.68	52.10	-47.0	-48.2	15.0	0.00e+00	0	28	0	2099249152	59	4295
2026-01-15 03:57:37.65	325.02	52.18	-47.2	-48.3	15.0	0.00e+00	0	28	0	2104492032	59	4373
2026-01-15 03:57:38.65	324.35	52.26	-47.0	-48.1	15.0	0.00e+00	0	28	0	2110783488	59	4274
2026-01-15 03:57:39.66	323.67	52.34	-47.1	-48.2	15.0	0.00e+00	0	28	0	2116026368	59	4303
2026-01-15 03:57:40.66	322.99	52.41	-46.9	-47.9	15.0	0.00e+00	0	28	0	2121269248	59	4192
2026-01-15 03:57:41.66	322.31	52.47	-46.9	-48.0	15.0	0.00e+00	0	28	0	2127560704	59	4205
2026-01-15 03:57:42.65	321.64	52.54	-47.0	-48.1	15.0	0.00e+00	0	28	0	2132803584	59	4263
2026-01-15 03:57:43.66	320.95	52.60	-46.8	-47.9	15.0	0.00e+00	0	28	0	2138046464	59	4176
2026-01-15 03:57:44.66	320.26	52.65	-46.9	-48.0	15.0	0.00e+00	0	28	0	2144337920	59	4228
2026-01-15 03:57:45.66	319.57	52.70	-47.2	-48.3	15.0	0.00e+00	0	28	0	2149580800	59	4389
2026-01-15 03:57:46.66	318.87	52.75	-47.2	-48.3	15.0	0.00e+00	0	28	0	2155872256	59	4363
2026-01-15 03:57:47.66	318.18	52.79	-47.0	-48.1	15.0	0.00e+00	0	28	0	2161115136	59	4245
2026-01-15 03:57:48.66	317.48	52.82	-46.7	-47.8	15.1	0.00e+00	0	28	0	2166358016	59	4119
2026-01-15 03:57:49.65	316.79	52.86	-46.6	-47.6	15.1	0.00e+00	0	28	0	2172649472	59	4046
2026-01-15 03:57:50.66	316.08	52.89	-46.7	-47.8	15.1	0.00e+00	0	28	0	2177892352	59	4129
2026-01-15 03:57:51.65	315.39	52.91	-46.6	-47.7	15.1	0.00e+00	0	28	0	2183135232	59	4068
2026-01-15 03:57:52.65	314.69	52.93	-46.8	-47.8	15.1	0.00e+00	0	28	0	2189426688	59	4133
2026-01-15 03:57:53.65	313.98	52.94	-46.9	-47.9	15.0	0.00e+00	0	28	0	2194669568	59	4192
2026-01-15 03:57:54.65	313.28	52.95	-47.0	-48.1	15.0	0.00e+00	0	28	0	2199912448	59	4287
2026-01-15 03:57:55.66	312.57	52.96	-47.0	-48.1	15.0	0.00e+00	0	28	0	2206203904	59	4258
2026-01-15 03:57:56.66	311.86	52.96	-46.9	-48.0	15.0	0.00e+00	0	28	0	2211446784	59	4202
2026-01-15 03:57:57.66	311.16	52.96	-46.7	-47.8	15.1	0.00e+00	0	28	0	2217738240	59	4136
2026-01-15 03:57:58.66	310.46	52.95	-47.0	-48.1	15.0	0.00e+00	0	28	0	2222981120	59	4249
2026-01-15 03:57:59.65	309.76	52.94	-46.9	-48.0	15.0	0.00e+00	0	28	0	2228224000	59	4237
2026-01-15 03:58:00.65	309.06	52.93	-46.7	-47.8	15.1	0.00e+00	0	28	0	2234515456	59	4119
2026-01-15 03:58:01.65	308.35	52.91	-46.5	-47.6	15.1	0.00e+00	0	28	0	2239758336	59	4013
2026-01-15 03:58:02.64	307.66	52.88	-46.5	-47.5	15.2	0.00e+00	0	28	0	2245001216	59	3988
2026-01-15 03:58:03.65	306.95	52.85	-46.5	-47.6	15.2	0.00e+00	0	28	0	2251292672	59	4018
2026-01-15 03:58:04.64	306.26	52.82	-46.5	-47.6	15.2	0.00e+00	0	28	0	2256535552	59	4018
2026-01-15 03:58:05.64	305.56	52.78	-46.6	-47.7	15.1	0.00e+00	0	28	0	2261778432	59	4062
2026-01-15 03:58:06.65	304.86	52.74	-46.8	-47.9	15.1	0.00e+00	0	28	0	2268069888	59	4172
2026-01-15 03:58:07.66	304.16	52.69	-46.8	-47.9	15.0	0.00e+00	0	28	0	2273312768	59	4189
2026-01-15 03:58:08.65	303.48	52.64	-46.7	-47.7	15.1	0.00e+00	0	28	0	2279604224	59	4097
2026-01-15 03:58:09.65	302.79	52.59	-46.7	-47.8	15.1	0.00e+00	0	28	0	2284847104	59	4100
2026-01-15 03:58:10.65	302.11	52.53	-46.7	-47.8	15.1	0.00e+00	0	28	0	2290089984	59	4134
2026-01-15 03:58:11.65	301.42	52.46	-46.7	-47.7	15.1	0.00e+00	0	28	0	2296381440	59	4096
2026-01-15 03:58:12.65	300.74	52.40	-46.8	-47.9	15.1	0.00e+00	0	28	0	2301624320	59	4165
2026-01-15 03:58:13.65	300.07	52.33	-46.9	-48.0	15.0	0.00e+00	0	28	0	2306867200	59	4209
2026-01-15 03:58:14.65	299.39	52.25	-46.8	-47.9	15.1	0.00e+00	0	28	0	2313158656	59	4173
2026-01-15 03:58:15.65	298.72	52.17	-46.7	-47.8	15.1	0.00e+00	0	28	0	2318401536	59	4128
2026-01-15 03:58:16.65	298.06	52.09	-47.0	-48.1	15.0	0.00e+00	0	28	0	2323644416	59	4249
2026-01-15 03:58:17.65	297.40	52.00	-47.1	-48.3	15.0	0.00e+00	0	28	0	2329935872	59	4356
2026-01-15 03:58:18.66	296.73	51.91	-47.0	-48.1	15.0	0.00e+00	0	28	0	2335178752	59	4284
2026-01-15 03:58:19.65	296.09	51.81	-47.0	-48.0	15.0	0.00e+00	0	28	0	2341470208	59	4241
2026-01-15 03:58:20.65	295.44	51.72	-46.6	-47.7	15.1	0.00e+00	0	28	0	2346713088	59	4058
2026-01-15 03:58:21.65	294.79	51.61	-46.5	-47.6	15.2	0.00e+00	0	28	0	2351955968	59	4019
2026-01-15 03:58:22.65	294.15	51.51	-46.6	-47.6	15.1	0.00e+00	0	28	0	2358247424	59	4051
2026-01-15 03:58:23.66	293.51	51.40	-46.6	-47.6	15.1	0.00e+00	0	28	0	2363490304	59	4043
2026-01-15 03:58:24.66	292.88	51.29	-46.6	-47.7	15.1	0.00e+00	0	28	0	2368733184	59	4061
2026-01-15 03:58:25.65	292.26	51.17	-46.6	-47.6	15.1	0.00e+00	0	28	0	2375024640	59	4051
2026-01-15 03:58:26.64	291.64	51.05	-46.6	-47.7	15.1	0.00e+00	0	28	0	2380267520	59	4052
2026-01-15 03:58:27.64	291.02	50.93	-46.6	-47.7	15.1	0.00e+00	0	28	0	2385510400	59	4067
2026-01-15 03:58:28.63	290.42	50.81	-46.8	-47.9	15.1	0.00e+00	0	28	0	2391801856	59	4171
2026-01-15 03:58:29.63	289.81	50.68	-46.9	-48.0	15.0	0.00e+00	0	28	0	2397044736	59	4219
2026-01-15 03:58:30.62	289.22	50.55	-47.0	-48.1	15.0	0.00e+00	0	28	0	2402287616	59	4248
2026-01-15 03:58:31.62	288.62	50.41	-46.9	-48.0	15.0	0.00e+00	0	28	0	2408579072	59	4216
2026-01-15 03:58:32.62	288.03	50.28	-46.9	-48.0	15.0	0.00e+00	0	28	0	2413821952	59	4197
2026-01-15 03:58:33.61	287.45	50.14	-46.8	-47.9	15.1	0.00e+00	0	28	0	2419064832	59	4168
2026-01-15 03:58:34.61	286.87	50.00	-46.7	-47.8	15.1	0.00e+00	0	28	0	2425356288	59	4141
2026-01-15 03:58:35.60	286.30	49.85	-46.7	-47.8	15.1	0.00e+00	0	28	0	2430599168	59	4100
2026-01-15 03:58:36.61	285.73	49.70	-46.7	-47.8	15.1	0.00e+00	0	28	0	2435842048	59	4131
2026-01-15 03:58:37.62	285.16	49.55	-46.8	-47.9	15.1	0.00e+00	0	28	0	2442133504	59	4177
2026-01-15 03:58:38.61	284.60	49.40	-46.8	-47.9	15.1	0.00e+00	0	28	0	2447376384	59	4159
2026-01-15 03:58:39.61	284.05	49.24	-46.9	-48.0	15.0	0.00e+00	0	28	0	2453667840	59	4194
2026-01-15 03:58:40.61	283.50	49.09	-46.8	-47.9	15.0	0.00e+00	0	28	0	2458910720	59	4181
2026-01-15 03:58:41.60	282.97	48.93	-46.7	-47.8	15.1	0.00e+00	0	28	0	2464153600	59	4108
2026-01-15 03:58:42.60	282.43	48.77	-46.8	-47.9	15.1	0.00e+00	0	28	0	2470445056	59	4170
2026-01-15 03:58:43.60	281.90	48.60	-46.7	-47.8	15.1	0.00e+00	0	28	0	2475687936	59	4121
2026-01-15 03:58:44.60	281.38	48.44	-46.6	-47.7	15.1	0.00e+00	0	28	0	2480930816	59	4083
2026-01-15 03:58:45.60	280.86	48.27	-46.6	-47.7	15.1	0.00e+00	0	28	0	2487222272	59	4065
2026-01-15 03:58:46.59	280.35	48.10	-46.3	-47.4	15.2	0.00e+00	0	28	0	2492465152	59	3932
2026-01-15 03:58:47.59	279.85	47.93	-46.3	-47.3	15.3	0.00e+00	0	28	0	2497708032	59	3894
2026-01-15 03:58:48.59	279.35	47.75	-46.4	-47.5	15.2	0.00e+00	0	28	0	2503999488	59	3963
2026-01-15 03:58:49.59	278.85	47.58	-46.4	-47.4	15.2	0.00e+00	0	28	0	2509242368	59	3951
2026-01-15 03:58:50.59	278.36	47.40	-46.3	-47.4	15.2	0.00e+00	0	28	0	2515533824	59	3938
2026-01-15 03:58:51.60	277.87	47.22	-46.2	-47.3	15.3	0.00e+00	0	27	0	2520776704	59	3879
2026-01-15 03:58:52.60	277.39	47.04	-46.2	-47.3	15.1	0.00e+00	0	28	0	2526019584	58	4101
2026-01-15 03:58:53.60	276.92	46.86	-46.3	-47.4	15.1	0.00e+00	0	28	0	2532311040	58	4182
2026-01-15 03:58:54.60	276.45	46.68	-46.1	-47.2	15.2	0.00e+00	0	28	0	2537553920	58	4061
2026-01-15 03:58:55.59	275.99	46.50	-45.9	-46.9	15.2	0.00e+00	0	28	0	2542796800	58	3947
2026-01-15 03:58:56.59	275.53	46.31	-45.8	-46.8	15.3	0.00e+00	0	28	0	2549088256	58	3884
2026-01-15 03:58:57.59	275.08	46.13	-45.8	-46.8	15.3	0.00e+00	0	28	0	2554331136	58	3911
2026-01-15 03:58:58.59	274.63	45.94	-45.6	-46.6	15.2	0.00e+00	0	28	0	2559574016	57	4049
2026-01-15 03:58:59.59	274.19	45.75	-45.8	-46.8	15.1	0.00e+00	0	28	0	2565865472	57	4142
2026-01-15 03:59:00.60	273.75	45.56	-45.9	-47.0	15.1	0.00e+00	0	28	0	2571108352	57	4201
2026-01-15 03:59:01.60	273.32	45.37	-46.0	-47.1	15.1	0.00e+00	0	28	0	2577399808	57	4248
2026-01-15 03:59:02.60	272.90	45.18	-46.0	-47.1	15.1	0.00e+00	0	28	0	2582642688	57	4274
2026-01-15 03:59:03.60	272.48	44.99	-46.1	-47.1	15.1	0.00e+00	0	28	0	2587885568	57	4278
2026-01-15 03:59:04.60	272.06	44.80	-46.1	-47.1	15.1	0.00e+00	0	28	0	2594177024	57	4285
2026-01-15 03:59:05.59	271.65	44.60	-45.8	-46.9	15.1	0.00e+00	0	28	0	2599419904	57	4163
2026-01-15 03:59:06.59	271.25	44.41	-45.7	-46.8	15.1	0.00e+00	0	28	0	2604662784	57	4121
2026-01-15 03:59:07.59	270.85	44.22	-45.8	-46.8	15.1	0.00e+00	0	28	0	2610954240	57	4124
2026-01-15 03:59:08.59	270.45	44.02	-45.7	-46.8	15.2	0.00e+00	0	28	0	2616197120	57	4104
2026-01-15 03:59:09.58	270.07	43.83	-45.6	-46.6	15.2	0.00e+00	0	28	0	2621440000	57	4032
2026-01-15 03:59:10.59	269.68	43.63	-45.6	-46.6	15.2	0.00e+00	0	28	0	2627731456	57	4042
2026-01-15 03:59:11.59	269.30	43.43	-45.6	-46.6	15.2	0.00e+00	0	28	0	2632974336	57	4048
2026-01-15 03:59:12.59	268.92	43.23	-45.4	-46.4	15.3	0.00e+00	0	28	0	2639265792	57	3949
2026-01-15 03:59:13.58	268.55	43.04	-45.4	-46.5	15.2	0.00e+00	0	28	0	2644508672	57	3970
2026-01-15 03:59:14.58	268.18	42.84	-45.6	-46.6	15.2	0.00e+00	0	28	0	2649751552	57	4035
2026-01-15 03:59:15.59	267.82	42.64	-45.7	-46.8	15.1	0.00e+00	0	28	0	2656043008	57	4111
2026-01-15 03:59:16.59	267.46	42.44	-45.7	-46.7	15.2	0.00e+00	0	28	0	2661285888	57	4098
2026-01-15 03:59:17.59	267.11	42.25	-45.8	-46.9	15.1	0.00e+00	0	28	0	2666528768	57	4169
2026-01-15 03:59:18.60	266.75	42.04	-45.8	-46.8	15.1	0.00e+00	0	28	0	2672820224	57	4142
2026-01-15 03:59:19.60	266.41	41.85	-45.7	-46.8	15.2	0.00e+00	0	28	0	2678063104	57	4117
2026-01-15 03:59:20.60	266.07	41.65	-45.7	-46.7	15.2	0.00e+00	0	27	0	2683305984	57	4085
2026-01-15 03:59:21.60	265.73	41.45	-45.6	-46.7	15.2	0.00e+00	0	28	0	2689597440	57	4054
2026-01-15 03:59:22.59	265.40	41.25	-45.5	-46.5	15.2	0.00e+00	0	28	0	2694840320	57	3997
2026-01-15 03:59:23.60	265.07	41.05	-45.5	-46.5	15.2	0.00e+00	0	28	0	2701131776	57	4002
2026-01-15 03:59:24.60	264.74	40.85	-45.6	-46.6	15.2	0.00e+00	0	28	0	2706374656	57	4030
2026-01-15 03:59:25.60	264.42	40.65	-45.7	-46.7	15.1	0.00e+00	0	28	0	2711617536	57	4076
2026-01-15 03:59:26.60	264.11	40.45	-45.7	-46.7	15.1	0.00e+00	0	28	0	2717908992	57	4083
2026-01-15 03:59:27.60	263.80	40.26	-45.8	-46.9	15.1	0.00e+00	0	28	0	2723151872	57	4153
2026-01-15 03:59:28.60	263.49	40.06	-46.0	-47.1	15.1	0.00e+00	0	28	0	2728394752	57	4259
2026-01-15 03:59:29.60	263.18	39.86	-46.0	-47.1	15.1	0.00e+00	0	28	0	2734686208	57	4254
2026-01-15 03:59:30.60	262.88	39.66	-46.0	-47.0	15.1	0.00e+00	0	28	0	2739929088	57	4238
2026-01-15 03:59:31.59	262.59	39.46	-45.9	-46.9	15.1	0.00e+00	0	28	0	2745171968	57	4179
2026-01-15 03:59:32.59	262.29	39.27	-45.6	-46.7	15.2	0.00e+00	0	28	0	2751463424	57	4069
2026-01-15 03:59:33.59	262.00	39.07	-45.5	-46.5	15.2	0.00e+00	0	28	0	2756706304	57	3984
2026-01-15 03:59:34.59	261.71	38.87	-45.5	-46.6	15.2	0.00e+00	0	28	0	2762997760	57	4006
2026-01-15 03:59:35.58	261.43	38.68	-45.7	-46.7	15.2	0.00e+00	0	28	0	2768240640	57	4075
2026-01-15 03:59:36.58	261.15	38.48	-45.7	-46.7	15.1	0.00e+00	0	28	0	2773483520	57	4091
2026-01-15 03:59:37.58	260.88	38.28	-45.6	-46.7	15.2	0.00e+00	0	28	0	2778726400	57	4052
2026-01-15 03:59:38.59	260.60	38.09	-45.6	-46.7	15.2	0.00e+00	0	28	0	2785017856	57	4066
2026-01-15 03:59:39.59	260.33	37.89	-45.7	-46.8	15.1	0.00e+00	0	28	0	2790260736	57	4127
2026-01-15 03:59:40.59	260.07	37.70	-45.7	-46.8	15.2	0.00e+00	0	28	0	2796552192	57	4103
2026-01-15 03:59:41.59	259.80	37.50	-45.7	-46.7	15.2	0.00e+00	0	28	0	2801795072	57	4098
2026-01-15 03:59:42.59	259.54	37.31	-45.6	-46.6	15.2	0.00e+00	0	28	0	2808086528	57	4051
2026-01-15 03:59:43.59	259.28	37.11	-45.4	-46.4	15.2	0.00e+00	0	28	0	2813329408	57	3940
2026-01-15 03:59:44.60	259.03	36.92	-45.4	-46.4	15.3	0.00e+00	0	28	0	2818572288	57	3921
2026-01-15 03:59:45.60	258.78	36.73	-45.3	-46.3	15.3	0.00e+00	0	28	0	2824863744	57	3882
2026-01-15 03:59:46.60	258.53	36.54	-45.3	-46.4	15.3	0.00e+00	0	28	0	2830106624	57	3915
2026-01-15 03:59:47.60	258.28	36.34	-45.5	-46.5	15.2	0.00e+00	0	28	0	2835349504	57	3993
2026-01-15 03:59:48.59	258.04	36.15	-45.5	-46.6	15.2	0.00e+00	0	28	0	2841640960	57	4026
2026-01-15 03:59:49.59	257.80	35.96	-45.4	-46.4	15.3	0.00e+00	0	28	0	2846883840	57	3953
2026-01-15 03:59:50.59	257.57	35.77	-45.4	-46.4	15.3	0.00e+00	0	28	0	2852126720	57	3929
2026-01-15 03:59:51.59	257.33	35.58	-45.3	-46.4	15.3	0.00e+00	0	28	0	2858418176	57	3927
2026-01-15 03:59:52.59	257.10	35.40	-45.3	-46.4	15.3	0.00e+00	0	28	0	2863661056	57	3931
2026-01-15 03:59:53.59	256.87	35.21	-45.3	-46.3	15.3	0.00e+00	0	28	0	2869952512	57	3888
2026-01-15 03:59:54.58	256.65	35.02	-45.1	-46.1	15.2	0.00e+00	0	28	0	2875195392	56	4027
2026-01-15 03:59:55.59	256.42	34.83	-45.0	-46.0	15.2	0.00e+00	0	28	0	2880438272	56	3990
2026-01-15 03:59:56.59	256.20	34.65	-45.0	-46.0	15.2	0.00e+00	0	28	0	2886729728	56	3984
2026-01-15 03:59:57.59	255.99	34.46	-45.0	-46.0	15.2	0.00e+00	0	28	0	2891972608	56	3986
2026-01-15 03:59:58.59	255.77	34.28	-45.1	-46.1	15.2	0.00e+00	0	28	0	2897215488	56	4033
2026-01-15 03:59:59.59	255.56	34.09	-45.3	-46.4	15.1	0.00e+00	0	28	0	2903506944	56	4169
2026-01-15 04:00:00.59	255.35	33.91	-45.4	-46.5	15.1	0.00e+00	0	28	0	2908749824	56	4203
2026-01-15 04:00:01.58	255.14	33.73	-45.5	-46.5	15.1	0.00e+00	0	28	0	2913992704	56	4238
2026-01-15 04:00:02.58	254.93	33.54	-45.4	-46.5	15.1	0.00e+00	0	28	0	2920284160	56	4197
2026-01-15 04:00:03.58	254.73	33.36	-45.3	-46.4	15.1	0.00e+00	0	28	0	2925527040	56	4167
2026-01-15 04:00:04.57	254.53	33.18	-45.4	-46.4	15.1	0.00e+00	0	28	0	2930769920	56	4176
2026-01-15 04:00:05.57	254.33	33.00	-45.4	-46.4	15.1	0.00e+00	0	28	0	2937061376	56	4174
2026-01-15 04:00:06.57	254.13	32.82	-45.4	-46.5	15.1	0.00e+00	0	28	0	2942304256	56	4203
2026-01-15 04:00:07.57	253.94	32.64	-45.5	-46.6	15.1	0.00e+00	0	28	0	2947547136	56	4263
2026-01-15 04:00:08.57	253.75	32.46	-45.7	-46.8	15.1	0.00e+00	0	28	0	2953838592	56	4341
2026-01-15 04:00:09.57	253.56	32.29	-45.6	-46.7	15.1	0.00e+00	0	28	0	2959081472	56	4307
2026-01-15 04:00:10.56	253.37	32.11	-45.7	-46.8	15.1	0.00e+00	0	28	0	2964324352	56	4363
2026-01-15 04:00:11.56	253.18	31.93	-45.7	-46.8	15.1	0.00e+00	0	28	0	2970615808	56	4358
2026-01-15 04:00:12.56	253.00	31.76	-45.7	-46.7	15.1	0.00e+00	0	28	0	2975858688	56	4340
2026-01-15 04:00:13.56	252.82	31.58	-45.7	-46.8	15.1	0.00e+00	0	28	0	2982150144	56	4344
2026-01-15 04:00:14.56	252.64	31.41	-45.7	-46.7	15.1	0.00e+00	0	28	0	2987393024	56	4331
2026-01-15 04:00:15.56	252.46	31.24	-45.8	-46.9	15.0	0.00e+00	0	28	0	2992635904	56	4405
2026-01-15 04:00:16.56	252.28	31.06	-45.7	-46.8	15.1	0.00e+00	0	28	0	2998927360	56	4365
2026-01-15 04:00:17.57	252.11	30.89	-45.7	-46.8	15.1	0.00e+00	0	28	0	3004170240	56	4354
2026-01-15 04:00:18.57	251.93	30.72	-45.7	-46.8	15.1	0.00e+00	0	28	0	3009413120	56	4357
2026-01-15 04:00:19.57	251.76	30.55	-45.7	-46.7	15.1	0.00e+00	0	28	0	3015704576	56	4337
2026-01-15 04:00:20.57	251.59	30.38	-45.7	-46.7	15.1	0.00e+00	0	28	0	3020947456	56	4335
2026-01-15 04:00:21.57	251.43	30.21	-45.8	-46.8	15.0	0.00e+00	0	28	0	3026190336	56	4378
2026-01-15 04:00:22.57	251.26	30.04	-45.9	-46.9	15.0	0.00e+00	0	28	0	3032481792	56	4439
2026-01-15 04:00:23.58	251.10	29.87	-45.9	-46.9	15.0	0.00e+00	0	28	0	3037724672	56	4436
2026-01-15 04:00:24.57	250.93	29.70	-46.0	-47.0	15.1	0.00e+00	0	28	0	3044016128	57	4233
2026-01-15 04:00:25.57	250.77	29.54	-45.9	-47.0	15.1	0.00e+00	0	28	0	3049259008	57	4209
2026-01-15 04:00:26.57	250.62	29.37	-45.9	-46.9	15.1	0.00e+00	0	28	0	3054501888	57	4189
2026-01-15 04:00:27.57	250.46	29.21	-45.9	-47.0	15.1	0.00e+00	0	28	0	3060793344	57	4207
2026-01-15 04:00:28.57	250.30	29.04	-46.0	-47.0	15.1	0.00e+00	0	28	0	3066036224	57	4232
2026-01-15 04:00:29.56	250.15	28.88	-46.1	-47.2	15.0	0.00e+00	0	28	0	3071279104	57	4304
2026-01-15 04:00:30.56	250.00	28.72	-46.2	-47.3	15.0	0.00e+00	0	28	0	3077570560	57	4346
2026-01-15 04:00:31.55	249.85	28.56	-46.2	-47.3	15.0	0.00e+00	0	28	0	3082813440	57	4391
2026-01-15 04:00:32.54	249.70	28.40	-46.1	-47.2	15.0	0.00e+00	0	28	0	3088056320	57	4317
2026-01-15 04:00:33.53	249.56	28.24	-46.2	-47.3	15.0	0.00e+00	0	28	0	3094347776	57	4349
2026-01-15 04:00:34.53	249.41	28.08	-46.1	-47.2	15.0	0.00e+00	0	28	0	3099590656	57	4321
2026-01-15 04:00:35.52	249.27	27.92	-46.0	-47.1	15.0	0.00e+00	0	28	0	3104833536	57	4280
2026-01-15 04:00:36.52	249.12	27.76	-45.9	-47.0	15.1	0.00e+00	0	28	0	3111124992	57	4203
2026-01-15 04:00:37.52	248.98	27.60	-45.9	-47.0	15.1	0.00e+00	0	28	0	3116367872	57	4207
2026-01-15 04:00:38.52	248.84	27.45	-46.0	-47.1	15.1	0.00e+00	0	28	0	3121610752	57	4254
2026-01-15 04:00:39.52	248.70	27.29	-46.1	-47.2	15.0	0.00e+00	0	28	0	3127902208	57	4309
2026-01-15 04:00:40.52	248.57	27.13	-46.2	-47.2	15.0	0.00e+00	0	28	0	3133145088	57	4336
2026-01-15 04:00:41.52	248.43	26.98	-46.1	-47.2	15.0	0.00e+00	0	28	0	3138387968	57	4321
2026-01-15 04:00:42.52	248.30	26.82	-46.1	-47.2	15.0	0.00e+00	0	28	0	3144679424	57	4324
2026-01-15 04:00:43.53	248.16	26.67	-46.1	-47.2	15.0	0.00e+00	0	28	0	3149922304	57	4318
2026-01-15 04:00:44.51	248.03	26.52	-46.2	-47.2	15.0	0.00e+00	0	28	0	3156213760	57	4338
2026-01-15 04:00:45.52	247.90	26.36	-46.1	-47.2	15.0	0.00e+00	0	28	0	3161456640	57	4321
2026-01-15 04:00:46.52	247.77	26.21	-46.1	-47.1	15.1	0.00e+00	0	28	0	3166699520	57	4285
2026-01-15 04:00:47.51	247.64	26.06	-46.0	-47.1	15.0	0.00e+00	0	28	0	3172990976	57	4276
2026-01-15 04:00:48.51	247.52	25.91	-46.1	-47.2	15.0	0.00e+00	0	28	0	3178233856	57	4306
2026-01-15 04:00:49.51	247.39	25.76	-46.1	-47.2	15.0	0.00e+00	0	28	0	3183476736	57	4317
2026-01-15 04:00:50.52	247.26	25.61	-46.0	-47.1	15.1	0.00e+00	0	28	0	3189768192	57	4279
2026-01-15 04:00:51.51	247.14	25.47	-46.1	-47.1	15.0	0.00e+00	0	28	0	3195011072	57	4284
2026-01-15 04:00:52.51	247.02	25.32	-46.1	-47.2	15.0	0.00e+00	0	28	0	3200253952	57	4330
2026-01-15 04:00:53.51	246.90	25.17	-46.1	-47.2	15.0	0.00e+00	0	28	0	3206545408	57	4329
2026-01-15 04:00:54.50	246.78	25.03	-46.1	-47.2	15.0	0.00e+00	0	28	0	3211788288	57	4332
2026-01-15 04:00:55.50	246.66	24.88	-46.2	-47.3	15.0	0.00e+00	0	28	0	3218079744	57	4355
2026-01-15 04:00:56.49	246.54	24.74	-46.0	-47.1	15.1	0.00e+00	0	28	0	3223322624	57	4249
2026-01-15 04:00:57.48	246.43	24.59	-46.1	-47.1	15.0	0.00e+00	0	28	0	3228565504	57	4279
2026-01-15 04:00:58.49	246.31	24.45	-46.1	-47.2	15.0	0.00e+00	0	28	0	3234856960	57	4332
2026-01-15 04:00:59.48	246.20	24.31	-46.2	-47.3	15.0	0.00e+00	0	28	0	3240099840	57	4341
2026-01-15 04:01:00.47	246.09	24.17	-46.2	-47.3	15.0	0.00e+00	0	28	0	3245342720	57	4342
2026-01-15 04:01:01.48	245.97	24.02	-46.2	-47.3	15.0	0.00e+00	0	28	0	3250585600	57	4376
2026-01-15 04:01:02.48	245.86	23.88	-46.3	-47.4	15.0	0.00e+00	0	28	0	3256877056	57	4402
2026-01-15 04:01:03.48	245.75	23.74	-46.2	-47.3	15.0	0.00e+00	0	28	0	3262119936	57	4356
2026-01-15 04:01:04.48	245.64	23.60	-46.1	-47.2	15.0	0.00e+00	0	28	0	3268411392	57	4329
2026-01-15 04:01:05.48	245.53	23.46	-46.2	-47.3	15.0	0.00e+00	0	28	0	3273654272	57	4361
2026-01-15 04:01:06.48	245.43	23.33	-46.1	-47.2	15.0	0.00e+00	0	28	0	3278897152	57	4301
2026-01-15 04:01:07.48	245.32	23.19	-46.1	-47.1	15.0	0.00e+00	0	28	0	3285188608	57	4288
2026-01-15 04:01:08.49	245.21	23.05	-46.1	-47.1	15.0	0.00e+00	0	28	0	3290431488	57	4284
2026-01-15 04:01:09.49	245.11	22.91	-46.1	-47.1	15.0	0.00e+00	0	28	0	3296722944	57	4287
2026-01-15 04:01:10.49	245.00	22.78	-46.1	-47.2	15.0	0.00e+00	0	28	0	3301965824	57	4299
2026-01-15 04:01:11.49	244.90	22.64	-46.2	-47.3	15.0	0.00e+00	0	28	0	3307208704	57	4360
2026-01-15 04:01:12.49	244.80	22.51	-46.3	-47.3	15.0	0.00e+00	0	28	0	3313500160	57	4378
2026-01-15 04:01:13.50	244.70	22.37	-46.3	-47.4	15.0	0.00e+00	0	28	0	3318743040	57	4408
2026-01-15 04:01:14.50	244.60	22.24	-46.5	-47.6	15.0	0.00e+00	0	28	0	3323985920	58	4253
2026-01-15 04:01:15.50	244.50	22.10	-46.5	-47.6	15.0	0.00e+00	0	28	0	3330277376	58	4262
2026-01-15 04:01:16.50	244.40	21.97	-46.6	-47.7	15.0	0.00e+00	0	28	0	3335520256	58	4301
2026-01-15 04:01:17.50	244.30	21.84	-46.6	-47.7	15.0	0.00e+00	0	28	0	3341811712	58	4325
2026-01-15 04:01:18.50	244.21	21.71	-46.7	-47.8	15.0	0.00e+00	0	28	0	3347054592	58	4361
2026-01-15 04:01:19.50	244.11	21.58	-46.7	-47.8	15.0	0.00e+00	0	28	0	3352297472	58	4383
2026-01-15 04:01:20.51	244.02	21.45	-46.7	-47.9	15.0	0.00e+00	0	28	0	3358588928	58	4399
2026-01-15 04:01:21.51	243.92	21.32	-46.7	-47.9	15.0	0.00e+00	0	28	0	3363831808	58	4401
2026-01-15 04:01:22.51	243.83	21.19	-46.9	-48.0	14.9	0.00e+00	0	28	0	3369074688	58	4469
2026-01-15 04:01:23.50	243.74	21.06	-46.7	-47.9	15.0	0.00e+00	0	28	0	3375366144	59	4148
2026-01-15 04:01:24.50	243.65	20.93	-46.7	-47.9	15.0	0.00e+00	0	28	0	3380609024	59	4147
2026-01-15 04:01:25.50	243.55	20.81	-46.8	-48.0	15.0	0.00e+00	0	28	0	3385851904	59	4197
2026-01-15 04:01:26.49	243.47	20.68	-46.9	-48.0	15.0	0.00e+00	0	28	0	3392143360	59	4199
2026-01-15 04:01:27.48	243.38	20.56	-46.8	-47.9	15.0	0.00e+00	0	28	0	3397386240	59	4179
2026-01-15 04:01:28.49	243.29	20.43	-46.8	-47.9	15.0	0.00e+00	0	28	0	3403677696	59	4151
2026-01-15 04:01:29.49	243.20	20.31	-46.8	-47.9	15.0	0.00e+00	0	28	0	3408920576	59	4178
2026-01-15 04:01:30.49	243.11	20.18	-46.8	-47.9	15.0	0.00e+00	0	28	0	3414163456	59	4193
2026-01-15 04:01:31.49	243.03	20.06	-46.8	-47.9	15.0	0.00e+00	0	28	0	3420454912	59	4191
2026-01-15 04:01:32.49	242.94	19.93	-46.9	-48.0	15.0	0.00e+00	0	28	0	3425697792	59	4201
2026-01-15 04:01:33.48	242.86	19.81	-46.9	-48.0	15.0	0.00e+00	0	28	0	3430940672	59	4240
2026-01-15 04:01:34.47	242.77	19.69	-46.9	-48.0	15.0	0.00e+00	0	28	0	3436183552	59	4224
2026-01-15 04:01:35.47	242.69	19.57	-46.9	-48.0	15.0	0.00e+00	0	28	0	3442475008	59	4242
2026-01-15 04:01:36.47	242.61	19.45	-47.0	-48.1	14.9	0.00e+00	0	28	0	3447717888	59	4283
2026-01-15 04:01:37.46	242.53	19.33	-47.0	-48.2	14.9	0.00e+00	0	28	0	3454009344	59	4293
2026-01-15 04:01:38.46	242.44	19.21	-47.0	-48.2	14.9	0.00e+00	0	28	0	3459252224	59	4299
2026-01-15 04:01:39.46	242.36	19.09	-47.0	-48.1	14.9	0.00e+00	0	28	0	3464495104	59	4275
2026-01-15 04:01:40.45	242.28	18.97	-47.0	-48.1	14.9	0.00e+00	0	28	0	3470786560	59	4290
2026-01-15 04:01:41.45	242.20	18.85	-47.0	-48.1	14.9	0.00e+00	0	28	0	3476029440	59	4284
2026-01-15 04:01:42.44	242.13	18.74	-47.0	-48.2	14.9	0.00e+00	0	28	0	3481272320	59	4301
2026-01-15 04:01:43.44	242.05	18.62	-47.1	-48.3	14.9	0.00e+00	0	28	0	3487563776	59	4348
2026-01-15 04:01:44.44	241.97	18.50	-47.2	-48.3	14.9	0.00e+00	0	28	0	3492806656	59	4377
2026-01-15 04:01:45.43	241.89	18.39	-47.2	-48.3	14.9	0.00e+00	0	28	0	3499098112	59	4372
2026-01-15 04:01:46.43	241.82	18.27	-47.3	-48.4	14.9	0.00e+00	0	28	0	3504340992	59	4431
2026-01-15 04:01:47.43	241.74	18.15	-47.2	-48.4	14.9	0.00e+00	0	28	0	3509583872	59	4399
2026-01-15 04:01:48.42	241.67	18.04	-47.3	-48.5	14.9	0.00e+00	0	28	0	3514826752	59	4453
2026-01-15 04:01:49.42	241.59	17.93	-47.4	-48.5	14.8	0.00e+00	0	28	0	3521118208	59	4481
2026-01-15 04:01:50.43	241.52	17.81	-47.4	-48.5	14.8	0.00e+00	0	28	0	3526361088	59	4474
2026-01-15 04:01:51.42	241.44	17.70	-47.2	-48.3	15.0	0.00e+00	0	28	0	3531603968	60	4121
2026-01-15 04:01:52.41	241.37	17.59	-47.2	-48.4	14.9	0.00e+00	0	28	0	3537895424	60	4147
2026-01-15 04:01:53.41	241.30	17.47	-47.1	-48.3	15.0	0.00e+00	0	28	0	3543138304	60	4102
2026-01-15 04:01:54.42	241.23	17.36	-47.2	-48.3	15.0	0.00e+00	0	28	0	3549429760	60	4142
2026-01-15 04:01:55.42	241.16	17.25	-47.2	-48.4	14.9	0.00e+00	0	28	0	3554672640	60	4160
2026-01-15 04:01:56.42	241.09	17.14	-47.3	-48.5	14.9	0.00e+00	0	28	0	3559915520	60	4195
2026-01-15 04:01:57.42	241.02	17.03	-47.4	-48.5	14.9	0.00e+00	0	28	0	3566206976	60	4230
2026-01-15 04:01:58.42	240.95	16.92	-47.4	-48.6	14.9	0.00e+00	0	28	0	3571449856	60	4245
2026-01-15 04:01:59.42	240.88	16.81	-47.3	-48.5	14.9	0.00e+00	0	28	0	3576692736	60	4227
2026-01-15 04:02:00.43	240.81	16.69	-47.4	-48.5	14.9	0.00e+00	0	28	0	3582984192	60	4227
2026-01-15 04:02:01.42	240.74	16.59	-47.3	-48.5	14.9	0.00e+00	0	28	0	3588227072	60	4202
2026-01-15 04:02:02.42	240.67	16.48	-47.4	-48.6	14.9	0.00e+00	0	28	0	3593469952	60	4255
2026-01-15 04:02:03.42	240.61	16.37	-47.4	-48.6	14.9	0.00e+00	0	28	0	3599761408	60	4259
2026-01-15 04:02:04.42	240.54	16.26	-47.3	-48.5	14.9	0.00e+00	0	28	0	3605004288	60	4220
2026-01-15 04:02:05.42	240.47	16.15	-47.3	-48.5	14.9	0.00e+00	0	28	0	3611295744	60	4209
2026-01-15 04:02:06.42	240.41	16.05	-47.4	-48.5	14.9	0.00e+00	0	28	0	3616538624	60	4228
2026-01-15 04:02:07.43	240.34	15.94	-47.3	-48.5	14.9	0.00e+00	0	28	0	3621781504	60	4210
2026-01-15 04:02:08.42	240.28	15.84	-47.3	-48.4	14.9	0.00e+00	0	28	0	3628072960	60	4172
2026-01-15 04:02:09.43	240.21	15.73	-47.3	-48.5	14.9	0.00e+00	0	28	0	3633315840	60	4201
2026-01-15 04:02:10.43	240.15	15.62	-47.4	-48.5	14.9	0.00e+00	0	28	0	3638558720	60	4237
2026-01-15 04:02:11.43	240.09	15.52	-47.4	-48.6	14.9	0.00e+00	0	28	0	3644850176	60	4246
2026-01-15 04:02:12.43	240.02	15.41	-47.4	-48.6	14.9	0.00e+00	0	28	0	3650093056	60	4254
2026-01-15 04:02:13.43	239.96	15.31	-47.5	-48.7	14.8	0.00e+00	0	28	0	3655335936	60	4295
2026-01-15 04:02:14.43	239.90	15.21	-47.5	-48.6	14.9	0.00e+00	0	28	0	3661627392	60	4274
2026-01-15 04:02:15.43	239.84	15.10	-47.5	-48.6	14.8	0.00e+00	0	28	0	3666870272	60	4287
2026-01-15 04:02:16.43	239.78	15.00	-47.6	-48.8	14.8	0.00e+00	0	28	0	3673161728	60	4347
2026-01-15 04:02:17.42	239.72	14.90	-47.7	-48.8	14.8	0.00e+00	0	28	0	3678404608	60	4378
2026-01-15 04:02:18.42	239.66	14.80	-47.8	-48.9	14.8	0.00e+00	0	28	0	3683647488	60	4437
