passes_logs/2026/01/15/R3.2S_Murmansk/R3.2S_Murmansk__20260115_194603_TY-39_rec.log

#Pass ID: 20260115_194603_TY-39
#Satellite: TY-39
#Configuration: TY-39
#almurnet v.1.7.20251203
#Start time: 2026-01-15 19:46:03

#Version: 2.2.20231116
#Station: R3.2S_Murmansk
#Location: 33.079688 lon 68.888172 lat
#TLE: 1 51832U 22019J   26014.95856198  .00001434  00000-0  70377-4 0  9997
#TLE: 2 51832  97.3654  81.6497 0010051  52.2384 307.9760 15.19636883214527

#Time	Az	El	Level	Level2	SNR	BER	BlckErr	Temp	State	Recorded	gain1	gain2
2026-01-15 19:46:03.02	201.02	1.96	-57.1	-59.3	3.7	0.00e+00	0	46	0	0	86	17836
2026-01-15 19:46:04.04	201.10	2.03	-57.1	-59.3	3.7	0.00e+00	0	47	104	0	85	19005
2026-01-15 19:46:05.05	201.18	2.09	-57.1	-59.3	3.7	0.00e+00	0	47	104	0	85	18827
2026-01-15 19:46:06.06	201.26	2.15	-57.1	-59.3	3.7	0.00e+00	0	47	104	0	85	18856
2026-01-15 19:46:07.07	201.34	2.22	-57.1	-59.2	3.7	0.00e+00	0	47	104	0	85	18798
2026-01-15 19:46:08.08	201.42	2.28	-57.1	-59.2	3.7	0.00e+00	0	47	104	0	85	18747
2026-01-15 19:46:09.09	201.50	2.35	-57.1	-59.2	3.7	0.00e+00	0	47	104	0	85	18817
2026-01-15 19:46:10.10	201.59	2.41	-57.1	-59.2	3.7	0.00e+00	0	47	104	0	85	18791
2026-01-15 19:46:11.11	201.67	2.48	-57.1	-59.2	3.7	0.00e+00	0	47	104	0	85	18807
2026-01-15 19:46:12.12	201.75	2.54	-57.1	-59.2	3.7	0.00e+00	0	47	104	0	85	18765
2026-01-15 19:46:13.13	201.84	2.61	-57.1	-59.2	3.7	0.00e+00	0	47	104	0	85	18784
2026-01-15 19:46:14.14	201.92	2.68	-57.1	-59.2	3.7	0.00e+00	0	48	104	0	85	18780
2026-01-15 19:46:15.15	202.00	2.74	-57.1	-59.3	3.7	0.00e+00	0	48	104	0	85	18823
2026-01-15 19:46:16.16	202.09	2.81	-57.1	-59.2	3.7	0.00e+00	0	48	104	0	85	18757
2026-01-15 19:46:17.17	202.17	2.87	-57.1	-59.2	3.7	0.00e+00	0	48	104	0	85	18767
2026-01-15 19:46:18.18	202.26	2.94	-57.1	-59.3	3.7	0.00e+00	0	48	104	0	85	18819
2026-01-15 19:46:19.19	202.35	3.01	-57.1	-59.2	3.7	0.00e+00	0	48	104	0	85	18778
2026-01-15 19:46:20.20	202.43	3.07	-57.1	-59.2	3.7	0.00e+00	0	48	104	0	85	18773
2026-01-15 19:46:21.21	202.52	3.14	-57.1	-59.2	3.7	0.00e+00	0	49	104	0	85	18771
2026-01-15 19:46:22.23	202.61	3.21	-57.1	-59.2	3.7	0.00e+00	0	48	104	0	85	18770
2026-01-15 19:46:23.24	202.70	3.28	-57.1	-59.2	3.7	0.00e+00	0	48	104	0	85	18798
2026-01-15 19:46:24.25	202.78	3.34	-57.1	-59.2	3.7	0.00e+00	0	48	104	0	85	18812
2026-01-15 19:46:25.26	202.87	3.41	-57.1	-59.2	3.7	0.00e+00	0	49	104	0	85	18753
2026-01-15 19:46:26.27	202.96	3.48	-57.1	-59.2	3.7	0.00e+00	0	49	104	0	85	18777
2026-01-15 19:46:27.28	203.05	3.55	-57.1	-59.2	3.7	0.00e+00	0	49	104	0	85	18798
2026-01-15 19:46:28.29	203.14	3.62	-57.1	-59.2	3.7	0.00e+00	0	49	104	0	85	18784
2026-01-15 19:46:29.30	203.24	3.68	-57.1	-59.2	3.7	0.00e+00	0	49	104	0	85	18807
2026-01-15 19:46:30.31	203.33	3.75	-57.1	-59.2	3.7	0.00e+00	0	49	104	0	85	18766
2026-01-15 19:46:31.32	203.42	3.82	-57.1	-59.2	3.7	0.00e+00	0	49	104	0	85	18804
2026-01-15 19:46:32.33	203.51	3.89	-57.1	-59.3	3.7	0.00e+00	0	49	104	0	85	18830
2026-01-15 19:46:33.34	203.61	3.96	-57.1	-59.2	3.7	0.00e+00	0	49	104	0	85	18765
2026-01-15 19:46:34.35	203.70	4.03	-57.1	-59.2	3.7	0.00e+00	0	49	104	0	85	18778
2026-01-15 19:46:35.36	203.79	4.10	-57.1	-59.2	3.7	0.00e+00	0	49	104	0	85	18815
2026-01-15 19:46:36.37	203.89	4.17	-57.1	-59.2	3.7	0.00e+00	0	49	104	0	85	18771
2026-01-15 19:46:37.38	203.98	4.24	-57.1	-59.2	3.7	0.00e+00	0	50	104	0	85	18776
2026-01-15 19:46:38.39	204.08	4.31	-57.1	-59.2	3.7	0.00e+00	0	49	104	0	85	18748
2026-01-15 19:46:39.40	204.18	4.38	-57.1	-59.2	3.7	0.00e+00	0	50	104	0	85	18774
2026-01-15 19:46:40.41	204.27	4.45	-57.1	-59.2	3.7	0.00e+00	0	50	104	0	85	18779
2026-01-15 19:46:41.42	204.37	4.52	-57.1	-59.2	3.7	0.00e+00	0	50	104	0	85	18738
2026-01-15 19:46:42.44	204.47	4.59	-57.1	-59.2	3.7	0.00e+00	0	50	104	0	85	18760
2026-01-15 19:46:43.45	204.57	4.66	-57.1	-59.2	3.7	0.00e+00	0	50	104	0	85	18783
2026-01-15 19:46:44.46	204.67	4.73	-57.1	-59.2	3.6	0.00e+00	0	50	104	0	85	18802
2026-01-15 19:46:45.47	204.77	4.80	-57.1	-59.2	3.7	0.00e+00	0	50	104	0	85	18777
2026-01-15 19:46:46.48	204.87	4.88	-57.1	-59.2	3.7	0.00e+00	0	50	104	0	85	18744
2026-01-15 19:46:47.49	204.97	4.95	-57.1	-59.2	3.7	0.00e+00	0	50	104	0	85	18727
2026-01-15 19:46:48.50	205.07	5.02	-57.1	-59.2	3.7	0.00e+00	0	50	104	0	85	18777
2026-01-15 19:46:49.51	205.17	5.09	-57.1	-59.3	3.7	0.00e+00	0	50	104	0	85	18835
2026-01-15 19:46:50.52	205.28	5.16	-57.2	-59.3	3.7	0.00e+00	0	51	104	0	85	18936
2026-01-15 19:46:51.53	205.38	5.24	-57.1	-59.3	3.7	0.00e+00	0	51	104	0	85	18873
2026-01-15 19:46:52.54	205.49	5.31	-57.1	-59.2	3.7	0.00e+00	0	51	104	0	85	18771
2026-01-15 19:46:53.55	205.59	5.38	-57.2	-59.3	3.7	0.00e+00	0	51	104	0	85	18923
2026-01-15 19:46:54.56	205.70	5.46	-57.2	-59.3	3.7	0.00e+00	0	51	104	0	85	19022
2026-01-15 19:46:55.57	205.80	5.53	-57.2	-59.3	3.7	0.00e+00	0	51	104	0	85	18966
2026-01-15 19:46:56.58	205.91	5.60	-57.1	-59.2	3.7	0.00e+00	0	51	104	0	85	18806
2026-01-15 19:46:57.59	206.02	5.68	-57.2	-59.3	3.7	0.00e+00	0	51	104	0	85	18927
2026-01-15 19:46:58.60	206.13	5.75	-57.3	-59.4	3.7	0.00e+00	0	51	104	0	85	19181
2026-01-15 19:46:59.60	206.23	5.82	-57.2	-59.3	3.7	0.00e+00	0	51	104	0	85	18979
2026-01-15 19:47:00.61	206.34	5.90	-57.1	-59.3	3.7	0.00e+00	0	51	104	0	85	18868
2026-01-15 19:47:01.62	206.45	5.97	-57.2	-59.4	3.7	0.00e+00	0	51	104	0	85	19136
2026-01-15 19:47:02.63	206.56	6.05	-57.3	-59.4	3.7	0.00e+00	0	52	104	0	85	19215
2026-01-15 19:47:03.64	206.68	6.12	-57.2	-59.3	3.7	0.00e+00	0	52	104	0	85	19033
2026-01-15 19:47:04.65	206.79	6.20	-57.2	-59.3	3.7	0.00e+00	0	52	104	0	85	18984
2026-01-15 19:47:05.66	206.90	6.27	-57.3	-59.4	3.7	0.00e+00	0	52	104	0	85	19152
2026-01-15 19:47:06.67	207.01	6.35	-57.3	-59.4	3.7	0.00e+00	0	52	104	0	85	19218
2026-01-15 19:47:07.68	207.13	6.43	-57.3	-59.4	3.7	0.00e+00	0	52	104	0	85	19130
2026-01-15 19:47:08.69	207.24	6.50	-48.6	-48.7	5.2	0.00e+00	0	52	104	0	67	15695
2026-01-15 19:47:09.70	207.36	6.58	-43.9	-43.7	12.6	1.99e-01	0	53	0	41943040	59	14083
2026-01-15 19:47:10.71	207.48	6.65	-44.2	-44.1	12.6	7.56e-04	0	53	0	117440512	60	13931
2026-01-15 19:47:11.72	207.59	6.73	-44.2	-44.1	12.3	6.24e-05	0	53	0	192937984	59	14746
2026-01-15 19:47:12.73	207.71	6.81	-43.6	-43.5	12.8	4.85e-05	0	53	0	276824064	59	13756
2026-01-15 19:47:13.74	207.83	6.89	-43.4	-43.3	12.9	2.08e-05	0	53	0	352321536	58	14264
2026-01-15 19:47:14.75	207.95	6.96	-43.6	-43.5	12.8	4.16e-05	0	53	0	427819008	58	14559
2026-01-15 19:47:15.75	208.07	7.04	-43.4	-43.4	12.9	3.46e-05	0	53	0	503316480	58	14284
2026-01-15 19:47:16.77	208.19	7.12	-43.3	-43.3	13.0	0.00e+00	0	53	0	578813952	58	14157
2026-01-15 19:47:17.78	208.31	7.20	-43.4	-43.4	12.9	2.08e-05	0	53	0	654311424	58	14290
2026-01-15 19:47:18.78	208.44	7.27	-43.6	-43.5	12.9	2.77e-05	0	53	0	729808896	58	14531
2026-01-15 19:47:19.79	208.56	7.35	-43.4	-43.4	12.9	2.08e-05	0	53	0	805306368	58	14338
2026-01-15 19:47:20.80	208.68	7.43	-43.1	-43.0	13.2	0.00e+00	0	53	0	872415232	58	13713
2026-01-15 19:47:21.81	208.81	7.51	-43.5	-43.5	12.9	1.38e-05	0	54	0	947912704	58	14493
2026-01-15 19:47:22.82	208.93	7.59	-43.1	-43.0	13.2	6.90e-06	0	53	0	1031798784	58	13711
2026-01-15 19:47:23.83	209.06	7.67	-43.5	-43.5	12.9	6.90e-06	0	54	0	1107296256	58	14444
2026-01-15 19:47:24.84	209.19	7.75	-43.2	-43.2	13.1	2.77e-05	0	54	0	1182793728	58	13966
2026-01-15 19:47:25.85	209.32	7.83	-43.5	-43.5	12.9	6.90e-06	0	54	0	1258291200	58	14511
2026-01-15 19:47:26.86	209.45	7.91	-43.0	-43.0	13.2	6.90e-06	0	54	0	1333788672	58	13683
2026-01-15 19:47:27.87	209.58	7.99	-43.2	-43.1	13.2	2.08e-05	0	54	0	1409286144	58	13903
2026-01-15 19:47:28.88	209.71	8.07	-43.1	-43.1	13.2	1.38e-05	0	54	0	1484783616	58	13852
2026-01-15 19:47:29.89	209.84	8.15	-43.2	-43.2	13.1	0.00e+00	0	54	0	1560281088	57	14798
2026-01-15 19:47:30.90	209.97	8.23	-43.4	-43.4	13.0	6.90e-06	0	54	0	1635778560	57	15133
2026-01-15 19:47:31.91	210.11	8.31	-43.2	-43.2	13.1	6.90e-06	0	55	0	1711276032	57	14828
2026-01-15 19:47:32.92	210.24	8.40	-43.0	-42.9	13.3	6.90e-06	0	54	0	1786773504	57	14426
2026-01-15 19:47:33.93	210.38	8.48	-42.9	-42.8	13.4	6.90e-06	0	54	0	1862270976	57	14257
2026-01-15 19:47:34.94	210.51	8.56	-42.9	-42.9	13.3	0.00e+00	0	55	0	1937768448	57	14316
2026-01-15 19:47:35.95	210.65	8.64	-43.0	-42.9	13.3	6.90e-06	0	55	0	2013265920	57	14351
2026-01-15 19:47:36.95	210.79	8.72	-42.7	-42.6	13.5	6.90e-06	0	55	0	2088763392	57	13923
2026-01-15 19:47:37.96	210.93	8.81	-42.6	-42.5	13.6	0.00e+00	0	55	0	2164260864	57	13763
2026-01-15 19:47:38.98	211.07	8.89	-42.7	-42.7	13.5	6.90e-06	0	55	0	2239758336	57	13955
2026-01-15 19:47:39.98	211.21	8.97	-42.8	-42.7	13.5	6.90e-06	0	55	0	2315255808	57	14068
2026-01-15 19:47:40.99	211.35	9.06	-42.9	-42.8	13.4	0.00e+00	0	55	0	2390753280	57	14190
2026-01-15 19:47:42.00	211.49	9.14	-42.8	-42.7	13.5	6.90e-06	0	55	0	2466250752	57	14043
2026-01-15 19:47:43.01	211.64	9.23	-42.9	-42.8	13.4	6.90e-06	0	55	0	2541748224	57	14178
2026-01-15 19:47:44.02	211.78	9.31	-42.9	-42.8	13.4	0.00e+00	0	55	0	2625634304	57	14195
2026-01-15 19:47:45.03	211.93	9.39	-42.8	-42.7	13.4	6.90e-06	0	55	0	2701131776	57	14109
2026-01-15 19:47:46.04	212.08	9.48	-42.7	-42.6	13.5	0.00e+00	0	55	0	2776629248	57	13863
2026-01-15 19:47:47.05	212.22	9.56	-42.8	-42.7	13.5	0.00e+00	0	56	0	2852126720	57	14032
2026-01-15 19:47:48.06	212.37	9.65	-42.6	-42.6	13.6	0.00e+00	0	56	0	2927624192	57	13797
2026-01-15 19:47:49.07	212.52	9.74	-42.4	-42.4	13.7	0.00e+00	0	56	0	2994733056	56	14295
2026-01-15 19:47:50.07	212.67	9.82	-42.4	-42.3	13.7	6.90e-06	0	55	0	3070230528	56	14272
2026-01-15 19:47:51.08	212.83	9.91	-42.3	-42.3	13.7	0.00e+00	0	56	0	3145728000	56	14132
2026-01-15 19:47:52.09	212.98	9.99	-42.3	-42.3	13.7	0.00e+00	0	56	0	3221225472	56	14157
2026-01-15 19:47:53.10	213.13	10.08	-42.5	-42.4	13.7	0.00e+00	0	56	0	3296722944	56	14324
2026-01-15 19:47:54.11	213.29	10.17	-42.5	-42.4	13.7	0.00e+00	0	56	0	3372220416	56	14384
2026-01-15 19:47:55.12	213.45	10.25	-42.6	-42.5	13.6	0.00e+00	0	56	0	3456106496	56	14508
2026-01-15 19:47:56.13	213.60	10.34	-42.6	-42.6	13.6	0.00e+00	0	56	0	3531603968	56	14614
2026-01-15 19:47:57.14	213.76	10.43	-42.4	-42.3	13.8	0.00e+00	0	56	0	3607101440	56	14183
2026-01-15 19:47:58.15	213.92	10.52	-42.4	-42.3	13.8	6.90e-06	0	56	0	3682598912	56	14154
2026-01-15 19:47:59.16	214.08	10.60	-42.4	-42.3	13.7	0.00e+00	0	56	0	3758096384	56	14247
2026-01-15 19:48:00.17	214.25	10.69	-42.4	-42.3	13.8	0.00e+00	0	56	0	3833593856	56	14186
2026-01-15 19:48:01.18	214.41	10.78	-42.4	-42.4	13.7	6.90e-06	0	56	0	3909091328	56	14276
2026-01-15 19:48:02.19	214.57	10.87	-42.2	-42.1	13.9	0.00e+00	0	56	0	3984588800	56	13921
2026-01-15 19:48:03.19	214.74	10.96	-42.3	-42.2	13.8	6.90e-06	0	56	0	4060086272	56	14035
2026-01-15 19:48:04.20	214.91	11.05	-42.3	-42.2	13.8	0.00e+00	0	56	0	4127195136	56	14091
2026-01-15 19:48:05.22	215.08	11.14	-42.1	-42.0	13.9	0.00e+00	0	56	0	4202692608	56	13783
2026-01-15 19:48:06.22	215.24	11.23	-42.2	-42.1	13.9	6.90e-06	0	57	0	4286578688	56	13912
2026-01-15 19:48:07.23	215.41	11.32	-42.1	-42.0	13.9	0.00e+00	0	57	0	4362076160	56	13743
2026-01-15 19:48:08.24	215.59	11.41	-42.0	-42.0	14.0	0.00e+00	0	57	0	4437573632	56	13636
2026-01-15 19:48:09.25	215.76	11.50	-42.1	-42.0	14.0	0.00e+00	0	57	0	4513071104	56	13691
2026-01-15 19:48:10.26	215.93	11.59	-42.1	-42.0	14.0	0.00e+00	0	57	0	4588568576	55	14517
2026-01-15 19:48:11.27	216.11	11.68	-42.1	-42.0	14.0	0.00e+00	0	57	0	4664066048	55	14510
2026-01-15 19:48:12.28	216.29	11.77	-42.1	-42.0	14.0	0.00e+00	0	57	0	4739563520	55	14530
2026-01-15 19:48:13.29	216.46	11.86	-42.0	-41.9	14.0	0.00e+00	0	57	0	4815060992	55	14370
2026-01-15 19:48:14.30	216.64	11.95	-42.1	-42.0	14.0	0.00e+00	0	57	0	4890558464	55	14577
2026-01-15 19:48:15.31	216.82	12.04	-41.9	-41.8	14.1	0.00e+00	0	57	0	4966055936	55	14241
2026-01-15 19:48:16.32	217.01	12.14	-41.8	-41.8	14.2	0.00e+00	0	57	0	5041553408	55	14139
2026-01-15 19:48:17.33	217.19	12.23	-41.8	-41.7	14.2	6.90e-06	0	57	0	5125439488	55	14092
2026-01-15 19:48:18.33	217.37	12.32	-41.8	-41.7	14.2	0.00e+00	0	57	0	5192548352	55	14031
2026-01-15 19:48:19.34	217.56	12.41	-41.9	-41.8	14.2	0.00e+00	0	57	0	5268045824	55	14167
2026-01-15 19:48:20.35	217.75	12.51	-41.8	-41.7	14.2	0.00e+00	0	57	0	5343543296	55	14005
2026-01-15 19:48:21.36	217.94	12.60	-41.7	-41.6	14.3	0.00e+00	0	57	0	5419040768	55	13851
2026-01-15 19:48:22.37	218.13	12.69	-41.7	-41.6	14.2	0.00e+00	0	57	0	5494538240	55	13916
2026-01-15 19:48:23.38	218.32	12.79	-41.8	-41.7	14.2	0.00e+00	0	57	0	5570035712	55	14011
2026-01-15 19:48:24.39	218.51	12.88	-41.6	-41.6	14.3	0.00e+00	0	57	0	5645533184	55	13795
2026-01-15 19:48:25.40	218.71	12.97	-41.6	-41.5	14.3	0.00e+00	0	57	0	5721030656	55	13675
2026-01-15 19:48:26.40	218.90	13.07	-41.6	-41.5	14.3	0.00e+00	0	57	0	5796528128	55	13781
2026-01-15 19:48:27.41	219.10	13.16	-41.5	-41.4	14.3	0.00e+00	0	57	0	5872025600	55	13619
2026-01-15 19:48:28.42	219.30	13.26	-41.4	-41.3	14.4	0.00e+00	0	57	0	5955911680	54	14253
2026-01-15 19:48:29.43	219.50	13.35	-41.5	-41.4	14.4	0.00e+00	0	58	0	6031409152	54	14322
2026-01-15 19:48:30.44	219.70	13.45	-41.4	-41.4	14.4	0.00e+00	0	58	0	6106906624	54	14302
2026-01-15 19:48:31.45	219.91	13.54	-41.4	-41.3	14.4	0.00e+00	0	58	0	6182404096	54	14178
2026-01-15 19:48:32.46	220.11	13.64	-41.4	-41.3	14.4	0.00e+00	0	58	0	6257901568	54	14223
2026-01-15 19:48:33.47	220.32	13.73	-41.4	-41.3	14.4	0.00e+00	0	58	0	6325010432	54	14233
2026-01-15 19:48:34.48	220.53	13.83	-41.4	-41.3	14.4	0.00e+00	0	58	0	6400507904	54	14161
2026-01-15 19:48:35.49	220.74	13.93	-41.3	-41.2	14.5	0.00e+00	0	58	0	6476005376	54	14002
2026-01-15 19:48:36.50	220.95	14.02	-41.1	-41.1	14.5	0.00e+00	0	58	0	6551502848	54	13796
2026-01-15 19:48:37.51	221.16	14.12	-41.3	-41.2	14.5	0.00e+00	0	58	0	6627000320	54	13962
2026-01-15 19:48:38.52	221.38	14.22	-41.1	-41.0	14.5	0.00e+00	0	58	0	6702497792	54	13787
2026-01-15 19:48:39.53	221.59	14.31	-41.1	-41.0	14.5	0.00e+00	0	58	0	6786383872	54	13715
2026-01-15 19:48:40.54	221.81	14.41	-41.0	-41.0	14.6	0.00e+00	0	58	0	6861881344	54	13639
2026-01-15 19:48:41.55	222.03	14.51	-41.1	-41.0	14.5	0.00e+00	0	58	0	6937378816	54	13779
2026-01-15 19:48:42.56	222.25	14.61	-41.2	-41.1	14.5	0.00e+00	0	58	0	7012876288	54	13876
2026-01-15 19:48:43.57	222.48	14.70	-41.0	-40.9	14.6	0.00e+00	0	58	0	7088373760	53	14406
2026-01-15 19:48:44.58	222.70	14.80	-40.9	-40.8	14.7	0.00e+00	0	58	0	7163871232	53	14167
2026-01-15 19:48:45.59	222.93	14.90	-41.0	-40.9	14.6	0.00e+00	0	58	0	7239368704	53	14392
2026-01-15 19:48:46.59	223.15	15.00	-41.0	-40.9	14.6	0.00e+00	0	59	0	7314866176	53	14393
2026-01-15 19:48:47.60	223.38	15.09	-40.8	-40.7	14.7	0.00e+00	0	59	0	7390363648	53	14104
2026-01-15 19:48:48.61	223.61	15.19	-40.9	-40.8	14.7	0.00e+00	0	58	0	7457472512	53	14132
2026-01-15 19:48:49.62	223.85	15.29	-40.9	-40.8	14.7	0.00e+00	0	59	0	7541358592	53	14137
2026-01-15 19:48:50.63	224.08	15.39	-40.8	-40.7	14.7	0.00e+00	0	58	0	7616856064	53	14041
2026-01-15 19:48:51.64	224.32	15.49	-40.9	-40.8	14.7	0.00e+00	0	59	0	7692353536	53	14152
2026-01-15 19:48:52.65	224.56	15.59	-40.7	-40.7	14.8	0.00e+00	0	59	0	7767851008	53	13959
2026-01-15 19:48:53.66	224.80	15.68	-40.7	-40.6	14.8	0.00e+00	0	59	0	7843348480	53	13861
2026-01-15 19:48:54.67	225.04	15.78	-40.8	-40.7	14.8	0.00e+00	0	59	0	7918845952	53	13966
2026-01-15 19:48:55.68	225.29	15.88	-40.6	-40.5	14.8	0.00e+00	0	59	0	7994343424	53	13670
2026-01-15 19:48:56.69	225.53	15.98	-40.7	-40.6	14.8	0.00e+00	0	59	0	8069840896	53	13838
2026-01-15 19:48:57.70	225.78	16.08	-40.7	-40.7	14.8	0.00e+00	0	59	0	8145338368	53	13960
2026-01-15 19:48:58.70	226.03	16.18	-40.7	-40.7	14.8	0.00e+00	0	59	0	8220835840	53	13956
2026-01-15 19:48:59.71	226.28	16.28	-40.5	-40.4	14.9	0.00e+00	0	59	0	8296333312	53	13616
2026-01-15 19:49:00.72	226.53	16.38	-40.4	-40.3	14.9	0.00e+00	0	59	0	8380219392	52	14263
2026-01-15 19:49:01.73	226.79	16.48	-40.4	-40.3	14.9	0.00e+00	0	59	0	8447328256	52	14226
2026-01-15 19:49:02.74	227.05	16.58	-40.5	-40.4	14.9	0.00e+00	0	59	0	8522825728	52	14333
2026-01-15 19:49:03.75	227.31	16.68	-40.4	-40.3	14.9	0.00e+00	0	59	0	8598323200	52	14133
2026-01-15 19:49:04.77	227.57	16.78	-40.4	-40.3	15.0	0.00e+00	0	59	0	8673820672	52	14151
2026-01-15 19:49:05.77	227.83	16.88	-40.4	-40.3	14.9	0.00e+00	0	59	0	8749318144	52	14197
2026-01-15 19:49:06.79	228.10	16.98	-40.3	-40.2	15.0	0.00e+00	0	59	0	8824815616	52	14012
2026-01-15 19:49:07.80	228.37	17.08	-40.2	-40.1	15.0	0.00e+00	0	59	0	8900313088	52	13821
2026-01-15 19:49:08.81	228.64	17.17	-40.2	-40.1	15.0	0.00e+00	0	59	0	8975810560	52	13884
2026-01-15 19:49:09.82	228.91	17.27	-40.2	-40.1	15.0	0.00e+00	0	59	0	9051308032	52	13837
2026-01-15 19:49:10.83	229.18	17.37	-40.1	-40.0	15.1	0.00e+00	0	59	0	9135194112	52	13736
2026-01-15 19:49:11.84	229.46	17.47	-40.1	-40.0	15.1	0.00e+00	0	59	0	9210691584	52	13726
2026-01-15 19:49:12.85	229.74	17.57	-40.0	-39.9	15.1	0.00e+00	0	59	0	9286189056	52	13629
2026-01-15 19:49:13.86	230.02	17.67	-40.0	-39.9	15.1	0.00e+00	0	59	0	9361686528	52	13519
2026-01-15 19:49:14.87	230.30	17.77	-40.1	-40.0	15.1	0.00e+00	0	59	0	9437184000	51	14508
2026-01-15 19:49:15.88	230.58	17.87	-40.2	-40.1	15.1	0.00e+00	0	59	0	9512681472	51	14615
2026-01-15 19:49:16.89	230.87	17.97	-40.1	-40.0	15.1	0.00e+00	0	60	0	9579790336	51	14485
2026-01-15 19:49:17.90	231.16	18.07	-40.1	-39.9	15.1	6.90e-06	0	59	0	9655287808	51	14440
2026-01-15 19:49:18.91	231.45	18.17	-40.0	-39.9	15.1	0.00e+00	0	60	0	9730785280	51	14389
2026-01-15 19:49:19.92	231.74	18.26	-40.0	-39.9	15.1	0.00e+00	0	59	0	9814671360	51	14414
2026-01-15 19:49:20.93	232.04	18.36	-40.0	-39.9	15.1	0.00e+00	0	60	0	9890168832	51	14374
2026-01-15 19:49:21.94	232.33	18.46	-40.0	-39.9	15.2	0.00e+00	0	60	0	9965666304	51	14317
2026-01-15 19:49:22.95	232.63	18.56	-40.0	-39.9	15.1	0.00e+00	0	60	0	10041163776	51	14422
2026-01-15 19:49:23.96	232.93	18.66	-39.9	-39.8	15.2	0.00e+00	0	60	0	10116661248	51	14163
2026-01-15 19:49:24.97	233.24	18.76	-39.9	-39.8	15.2	0.00e+00	0	60	0	10192158720	51	14230
2026-01-15 19:49:25.98	233.54	18.85	-40.0	-39.9	15.2	0.00e+00	0	60	0	10267656192	51	14310
2026-01-15 19:49:26.99	233.85	18.95	-39.9	-39.8	15.2	0.00e+00	0	60	0	10343153664	51	14152
2026-01-15 19:49:28.00	234.16	19.05	-39.7	-39.6	15.2	0.00e+00	0	60	0	10418651136	51	13935
2026-01-15 19:49:29.01	234.47	19.14	-39.7	-39.6	15.3	0.00e+00	0	60	0	10494148608	51	13804
2026-01-15 19:49:30.02	234.79	19.24	-39.8	-39.7	15.3	0.00e+00	0	60	0	10569646080	51	13968
2026-01-15 19:49:31.03	235.10	19.34	-39.7	-39.6	15.3	0.00e+00	0	60	0	10645143552	51	13880
2026-01-15 19:49:32.04	235.42	19.43	-39.8	-39.7	15.3	0.00e+00	0	60	0	10720641024	51	13985
2026-01-15 19:49:33.05	235.74	19.53	-39.7	-39.6	15.3	0.00e+00	0	60	0	10796138496	51	13863
2026-01-15 19:49:34.05	236.06	19.62	-39.7	-39.6	15.3	0.00e+00	0	60	0	10871635968	51	13933
2026-01-15 19:49:35.06	236.39	19.72	-39.6	-39.5	15.3	0.00e+00	0	60	0	10947133440	51	13769
2026-01-15 19:49:36.07	236.72	19.81	-39.7	-39.6	15.3	0.00e+00	0	60	0	11022630912	51	13805
2026-01-15 19:49:37.08	237.05	19.90	-39.6	-39.5	15.3	0.00e+00	0	60	0	11098128384	51	13759
2026-01-15 19:49:38.09	237.38	20.00	-39.5	-39.4	15.4	0.00e+00	0	60	0	11173625856	51	13624
2026-01-15 19:49:39.10	237.72	20.09	-39.4	-39.3	15.4	0.00e+00	0	60	0	11249123328	50	14239
2026-01-15 19:49:40.11	238.05	20.18	-39.5	-39.4	15.4	0.00e+00	0	60	0	11324620800	50	14341
2026-01-15 19:49:41.12	238.39	20.28	-39.5	-39.4	15.3	0.00e+00	0	60	0	11408506880	50	14284
2026-01-15 19:49:42.13	238.74	20.37	-39.5	-39.4	15.4	0.00e+00	0	60	0	11484004352	50	14294
2026-01-15 19:49:43.14	239.08	20.46	-39.4	-39.3	15.4	0.00e+00	0	60	0	11559501824	50	14187
2026-01-15 19:49:44.15	239.43	20.55	-39.5	-39.4	15.4	0.00e+00	0	60	0	11634999296	50	14349
2026-01-15 19:49:45.16	239.77	20.64	-39.4	-39.3	15.4	0.00e+00	0	60	0	11710496768	50	14254
2026-01-15 19:49:46.17	240.12	20.73	-39.3	-39.2	15.5	0.00e+00	0	60	0	11777605632	50	14022
2026-01-15 19:49:47.18	240.48	20.82	-39.2	-39.1	15.5	0.00e+00	0	60	0	11853103104	50	13900
2026-01-15 19:49:48.19	240.83	20.91	-39.3	-39.2	15.4	0.00e+00	0	60	0	11928600576	50	13994
2026-01-15 19:49:49.19	241.19	20.99	-39.4	-39.3	15.4	0.00e+00	0	61	0	12004098048	50	14181
2026-01-15 19:49:50.20	241.55	21.08	-39.2	-39.1	15.5	0.00e+00	0	60	0	12079595520	50	13945
2026-01-15 19:49:51.21	241.91	21.17	-39.2	-39.0	15.5	0.00e+00	0	61	0	12155092992	50	13790
2026-01-15 19:49:52.22	242.27	21.25	-39.3	-39.2	15.5	0.00e+00	0	61	0	12230590464	50	14001
2026-01-15 19:49:53.23	242.64	21.34	-39.3	-39.1	15.5	0.00e+00	0	60	0	12314476544	50	13948
2026-01-15 19:49:54.24	243.01	21.42	-39.1	-39.0	15.5	0.00e+00	0	60	0	12389974016	50	13717
2026-01-15 19:49:55.25	243.38	21.51	-39.1	-39.0	15.5	0.00e+00	0	61	0	12465471488	50	13781
2026-01-15 19:49:56.26	243.75	21.59	-39.1	-39.0	15.5	0.00e+00	0	60	0	12540968960	50	13748
2026-01-15 19:49:57.27	244.13	21.67	-39.0	-38.9	15.6	0.00e+00	0	61	0	12616466432	50	13629
2026-01-15 19:49:58.28	244.51	21.75	-39.1	-39.0	15.5	0.00e+00	0	61	0	12691963904	50	13764
2026-01-15 19:49:59.29	244.89	21.83	-39.0	-38.9	15.6	0.00e+00	0	60	0	12767461376	50	13590
2026-01-15 19:50:00.30	245.27	21.91	-39.0	-38.9	15.5	0.00e+00	0	61	0	12842958848	50	13631
2026-01-15 19:50:01.31	245.65	21.99	-38.9	-38.8	15.6	0.00e+00	0	61	0	12910067712	49	14262
2026-01-15 19:50:02.31	246.04	22.07	-38.9	-38.8	15.6	0.00e+00	0	61	0	12985565184	49	14272
2026-01-15 19:50:03.33	246.43	22.15	-38.9	-38.8	15.6	0.00e+00	0	61	0	13069451264	49	14184
2026-01-15 19:50:04.33	246.82	22.22	-39.0	-38.9	15.5	0.00e+00	0	61	0	13144948736	49	14389
2026-01-15 19:50:05.34	247.21	22.30	-39.0	-38.9	15.6	0.00e+00	0	61	0	13220446208	49	14282
2026-01-15 19:50:06.36	247.61	22.37	-39.0	-38.9	15.6	0.00e+00	0	61	0	13295943680	49	14393
2026-01-15 19:50:07.36	248.00	22.44	-39.0	-38.9	15.6	0.00e+00	0	61	0	13371441152	49	14326
2026-01-15 19:50:08.37	248.40	22.52	-38.8	-38.7	15.6	0.00e+00	0	61	0	13446938624	49	14094
2026-01-15 19:50:09.38	248.80	22.59	-38.8	-38.7	15.6	0.00e+00	0	61	0	13522436096	49	14101
2026-01-15 19:50:10.39	249.20	22.66	-38.8	-38.7	15.6	0.00e+00	0	61	0	13597933568	49	14060
2026-01-15 19:50:11.40	249.61	22.73	-38.7	-38.6	15.7	0.00e+00	0	61	0	13673431040	49	13909
2026-01-15 19:50:12.41	250.01	22.79	-38.7	-38.6	15.7	0.00e+00	0	61	0	13748928512	49	13903
2026-01-15 19:50:13.42	250.42	22.86	-38.8	-38.7	15.6	0.00e+00	0	61	0	13832814592	49	13966
2026-01-15 19:50:14.43	250.83	22.93	-38.8	-38.7	15.6	0.00e+00	0	61	0	13899923456	49	13959
2026-01-15 19:50:15.44	251.25	22.99	-38.8	-38.7	15.6	0.00e+00	0	61	0	13975420928	49	14066
2026-01-15 19:50:16.45	251.66	23.05	-38.8	-38.7	15.6	0.00e+00	0	61	0	14050918400	49	14085
2026-01-15 19:50:17.46	252.08	23.11	-38.7	-38.6	15.7	0.00e+00	0	61	0	14126415872	49	13892
2026-01-15 19:50:18.47	252.50	23.18	-38.7	-38.6	15.7	0.00e+00	0	61	0	14201913344	49	13812
2026-01-15 19:50:19.48	252.92	23.23	-38.7	-38.6	15.7	0.00e+00	0	61	0	14277410816	49	13850
2026-01-15 19:50:20.49	253.34	23.29	-38.7	-38.6	15.7	0.00e+00	0	61	0	14352908288	49	13861
2026-01-15 19:50:21.50	253.76	23.35	-38.7	-38.6	15.7	0.00e+00	0	61	0	14428405760	49	13911
2026-01-15 19:50:22.51	254.19	23.40	-38.7	-38.6	15.7	0.00e+00	0	61	0	14503903232	49	13935
2026-01-15 19:50:23.52	254.61	23.46	-38.9	-38.8	15.6	0.00e+00	0	61	0	14579400704	49	14165
2026-01-15 19:50:24.52	255.04	23.51	-38.8	-38.7	15.6	0.00e+00	0	61	0	14663286784	49	14032
2026-01-15 19:50:25.53	255.47	23.56	-38.8	-38.7	15.6	0.00e+00	0	61	0	14738784256	49	13990
2026-01-15 19:50:26.54	255.90	23.61	-38.9	-38.8	15.6	0.00e+00	0	61	0	14814281728	49	14115
2026-01-15 19:50:27.55	256.33	23.66	-38.9	-38.8	15.6	0.00e+00	0	61	0	14889779200	49	14208
2026-01-15 19:50:28.56	256.76	23.71	-38.6	-38.5	15.7	0.00e+00	0	61	0	14965276672	49	13761
2026-01-15 19:50:29.57	257.20	23.75	-38.6	-38.5	15.7	0.00e+00	0	61	0	15032385536	49	13770
2026-01-15 19:50:30.57	257.63	23.80	-38.6	-38.5	15.7	0.00e+00	0	61	0	15107883008	49	13749
2026-01-15 19:50:31.58	258.07	23.84	-38.6	-38.5	15.7	0.00e+00	0	61	0	15183380480	49	13679
2026-01-15 19:50:32.59	258.51	23.88	-38.6	-38.5	15.7	0.00e+00	0	61	0	15258877952	49	13748
2026-01-15 19:50:33.60	258.95	23.92	-38.5	-38.4	15.8	0.00e+00	0	61	0	15334375424	49	13616
2026-01-15 19:50:34.61	259.39	23.96	-38.6	-38.5	15.8	0.00e+00	0	61	0	15409872896	49	13658
2026-01-15 19:50:35.62	259.83	23.99	-38.6	-38.4	15.7	0.00e+00	0	61	0	15493758976	49	13624
2026-01-15 19:50:36.64	260.28	24.03	-38.4	-38.3	15.8	0.00e+00	0	61	0	15569256448	48	14217
2026-01-15 19:50:37.64	260.72	24.06	-38.5	-38.4	15.7	0.00e+00	0	61	0	15644753920	48	14370
2026-01-15 19:50:38.65	261.17	24.09	-38.4	-38.3	15.8	0.00e+00	0	61	0	15720251392	48	14235
2026-01-15 19:50:39.66	261.62	24.12	-38.5	-38.4	15.7	0.00e+00	0	61	0	15795748864	48	14294
2026-01-15 19:50:40.67	262.06	24.15	-38.4	-38.3	15.8	0.00e+00	0	61	0	15871246336	48	14204
2026-01-15 19:50:41.68	262.51	24.18	-38.4	-38.3	15.7	0.00e+00	0	62	0	15946743808	48	14241
2026-01-15 19:50:42.69	262.96	24.20	-38.6	-38.5	15.8	0.00e+00	0	61	0	16022241280	48	14474
2026-01-15 19:50:43.69	263.41	24.23	-38.5	-38.4	15.8	0.00e+00	0	62	0	16097738752	48	14287
2026-01-15 19:50:44.70	263.86	24.25	-38.4	-38.3	15.8	0.00e+00	0	61	0	16164847616	48	14243
2026-01-15 19:50:45.71	264.31	24.27	-38.5	-38.4	15.8	0.00e+00	0	61	0	16240345088	48	14310
2026-01-15 19:50:46.72	264.76	24.29	-38.4	-38.3	15.8	0.00e+00	0	62	0	16315842560	48	14221
2026-01-15 19:50:47.73	265.22	24.31	-38.5	-38.4	15.8	0.00e+00	0	61	0	16399728640	48	14336
2026-01-15 19:50:48.74	265.67	24.32	-38.4	-38.3	15.8	0.00e+00	0	61	0	16475226112	48	14166
2026-01-15 19:50:49.75	266.12	24.33	-38.4	-38.3	15.8	0.00e+00	0	61	0	16550723584	48	14165
2026-01-15 19:50:50.76	266.58	24.35	-38.4	-38.3	15.8	0.00e+00	0	62	0	16626221056	48	14203
2026-01-15 19:50:51.77	267.03	24.36	-38.4	-38.3	15.8	0.00e+00	0	62	0	16701718528	48	14260
2026-01-15 19:50:52.78	267.49	24.36	-38.4	-38.3	15.8	0.00e+00	0	62	0	16777216000	48	14213
2026-01-15 19:50:53.79	267.94	24.37	-38.4	-38.3	15.8	0.00e+00	0	62	0	16852713472	48	14247
2026-01-15 19:50:54.80	268.40	24.38	-38.4	-38.3	15.8	0.00e+00	0	61	0	16928210944	48	14242
2026-01-15 19:50:55.80	268.85	24.38	-38.5	-38.4	15.7	0.00e+00	0	61	0	17003708416	48	14320
2026-01-15 19:50:56.81	269.30	24.38	-38.4	-38.3	15.8	0.00e+00	0	62	0	17079205888	48	14241
2026-01-15 19:50:57.82	269.76	24.38	-38.6	-38.4	15.7	0.00e+00	0	62	0	17163091968	48	14429
2026-01-15 19:50:58.83	270.21	24.38	-38.5	-38.4	15.7	0.00e+00	0	61	0	17230200832	48	14404
2026-01-15 19:50:59.84	270.67	24.37	-38.4	-38.3	15.8	0.00e+00	0	62	0	17305698304	48	14272
2026-01-15 19:51:00.85	271.12	24.37	-38.5	-38.4	15.8	0.00e+00	0	62	0	17381195776	48	14306
2026-01-15 19:51:01.86	271.58	24.36	-38.6	-38.5	15.7	0.00e+00	0	62	0	17456693248	48	14502
2026-01-15 19:51:02.87	272.03	24.35	-38.6	-38.5	15.7	0.00e+00	0	62	0	17532190720	48	14515
2026-01-15 19:51:03.88	272.49	24.34	-38.6	-38.5	15.7	0.00e+00	0	62	0	17607688192	48	14574
2026-01-15 19:51:04.89	272.94	24.33	-38.5	-38.4	15.8	0.00e+00	0	62	0	17683185664	48	14358
2026-01-15 19:51:05.90	273.39	24.32	-38.5	-38.4	15.8	0.00e+00	0	62	0	17758683136	48	14404
2026-01-15 19:51:06.91	273.85	24.30	-38.5	-38.4	15.7	0.00e+00	0	62	0	17834180608	48	14400
2026-01-15 19:51:07.92	274.30	24.28	-38.6	-38.5	15.7	0.00e+00	0	62	0	17909678080	48	14511
2026-01-15 19:51:08.92	274.75	24.26	-38.7	-38.6	15.7	0.00e+00	0	62	0	17993564160	48	14651
2026-01-15 19:51:09.93	275.20	24.24	-38.6	-38.5	15.7	0.00e+00	0	62	0	18069061632	48	14510
2026-01-15 19:51:10.94	275.65	24.22	-38.7	-38.6	15.7	0.00e+00	0	62	0	18144559104	48	14711
2026-01-15 19:51:11.95	276.10	24.20	-38.6	-38.5	15.7	0.00e+00	0	62	0	18220056576	48	14543
2026-01-15 19:51:12.96	276.55	24.17	-38.7	-38.6	15.7	0.00e+00	0	62	0	18295554048	48	14636
2026-01-15 19:51:13.97	276.99	24.14	-38.8	-38.7	15.7	0.00e+00	0	62	0	18362662912	48	14800
2026-01-15 19:51:14.98	277.44	24.12	-38.6	-38.5	15.8	0.00e+00	0	62	0	18438160384	48	14531
2026-01-15 19:51:15.99	277.89	24.09	-38.7	-38.6	15.7	0.00e+00	0	62	0	18513657856	48	14681
2026-01-15 19:51:17.00	278.33	24.05	-38.7	-38.5	15.7	0.00e+00	0	62	0	18589155328	48	14595
2026-01-15 19:51:18.01	278.78	24.02	-38.7	-38.6	15.7	0.00e+00	0	62	0	18664652800	48	14659
2026-01-15 19:51:19.02	279.22	23.98	-38.7	-38.6	15.7	0.00e+00	0	62	0	18740150272	48	14617
2026-01-15 19:51:20.03	279.66	23.95	-38.7	-38.6	15.7	0.00e+00	0	62	0	18824036352	48	14702
2026-01-15 19:51:21.04	280.10	23.91	-38.7	-38.6	15.7	0.00e+00	0	62	0	18899533824	48	14748
2026-01-15 19:51:22.05	280.54	23.87	-38.8	-38.7	15.7	0.00e+00	0	62	0	18975031296	48	14787
2026-01-15 19:51:23.06	280.98	23.83	-38.7	-38.6	15.7	0.00e+00	0	62	0	19050528768	48	14745
2026-01-15 19:51:24.07	281.42	23.79	-38.7	-38.7	15.7	0.00e+00	0	62	0	19126026240	48	14778
2026-01-15 19:51:25.08	281.85	23.74	-38.8	-38.7	15.7	0.00e+00	0	62	0	19201523712	48	14870
2026-01-15 19:51:26.09	282.28	23.69	-38.9	-38.8	15.6	0.00e+00	0	62	0	19277021184	48	15009
2026-01-15 19:51:27.09	282.71	23.65	-38.9	-38.8	15.6	0.00e+00	0	62	0	19352518656	48	15032
2026-01-15 19:51:28.11	283.15	23.60	-38.7	-38.6	15.7	0.00e+00	0	62	0	19428016128	48	14732
2026-01-15 19:51:29.12	283.58	23.55	-38.8	-38.7	15.7	0.00e+00	0	62	0	19495124992	48	14860
2026-01-15 19:51:30.13	284.01	23.50	-38.8	-38.7	15.7	0.00e+00	0	62	0	19579011072	48	14893
2026-01-15 19:51:31.14	284.43	23.44	-38.8	-38.7	15.7	0.00e+00	0	62	0	19654508544	48	14818
2026-01-15 19:51:32.15	284.86	23.39	-38.9	-38.8	15.7	0.00e+00	0	62	0	19730006016	48	15003
2026-01-15 19:51:33.16	285.28	23.33	-39.0	-38.9	15.6	0.00e+00	0	62	0	19805503488	48	15138
2026-01-15 19:51:34.17	285.70	23.28	-38.9	-38.8	15.6	0.00e+00	0	62	0	19881000960	48	15068
2026-01-15 19:51:35.18	286.12	23.22	-39.0	-38.9	15.6	0.00e+00	0	62	0	19956498432	48	15136
2026-01-15 19:51:36.19	286.54	23.16	-39.0	-38.9	15.6	0.00e+00	0	62	0	20031995904	48	15166
2026-01-15 19:51:37.19	286.95	23.10	-38.9	-38.8	15.6	0.00e+00	0	62	0	20107493376	48	15094
2026-01-15 19:51:38.21	287.37	23.04	-38.9	-38.8	15.6	0.00e+00	0	62	0	20182990848	48	15041
2026-01-15 19:51:39.21	287.78	22.98	-39.0	-38.9	15.6	0.00e+00	0	62	0	20258488320	48	15150
2026-01-15 19:51:40.23	288.19	22.91	-39.0	-38.9	15.6	0.00e+00	0	62	0	20342374400	48	15144
2026-01-15 19:51:41.23	288.60	22.85	-39.0	-38.9	15.6	0.00e+00	0	62	0	20417871872	48	15173
2026-01-15 19:51:42.25	289.01	22.78	-39.0	-38.9	15.6	0.00e+00	0	62	0	20484980736	48	15169
2026-01-15 19:51:43.25	289.41	22.71	-39.2	-39.1	15.5	0.00e+00	0	62	0	20560478208	48	15502
2026-01-15 19:51:44.26	289.81	22.64	-39.1	-39.0	15.6	0.00e+00	0	62	0	20635975680	48	15319
2026-01-15 19:51:45.27	290.21	22.57	-39.2	-39.1	15.5	0.00e+00	0	62	0	20711473152	48	15524
2026-01-15 19:51:46.29	290.62	22.50	-39.1	-39.0	15.6	0.00e+00	0	62	0	20786970624	48	15345
2026-01-15 19:51:47.30	291.01	22.43	-39.1	-39.0	15.6	0.00e+00	0	62	0	20862468096	48	15399
2026-01-15 19:51:48.31	291.41	22.36	-39.2	-39.1	15.5	0.00e+00	0	62	0	20937965568	48	15584
2026-01-15 19:51:49.32	291.80	22.28	-39.1	-39.0	15.6	0.00e+00	0	62	0	21013463040	48	15323
2026-01-15 19:51:50.33	292.19	22.21	-39.2	-39.1	15.5	0.00e+00	0	62	0	21097349120	48	15515
2026-01-15 19:51:51.34	292.58	22.13	-39.3	-39.2	15.5	0.00e+00	0	62	0	21172846592	49	14808
2026-01-15 19:51:52.35	292.96	22.06	-39.2	-39.1	15.6	0.00e+00	0	62	0	21248344064	49	14678
2026-01-15 19:51:53.36	293.35	21.98	-39.3	-39.2	15.5	0.00e+00	0	62	0	21323841536	49	14785
2026-01-15 19:51:54.37	293.73	21.90	-39.3	-39.2	15.5	0.00e+00	0	62	0	21399339008	49	14785
2026-01-15 19:51:55.38	294.11	21.82	-39.3	-39.2	15.5	0.00e+00	0	62	0	21474836480	49	14837
2026-01-15 19:51:56.39	294.49	21.74	-39.4	-39.3	15.5	0.00e+00	0	62	0	21550333952	49	14955
2026-01-15 19:51:57.40	294.86	21.66	-39.3	-39.2	15.5	0.00e+00	0	62	0	21617442816	49	14832
2026-01-15 19:51:58.41	295.24	21.58	-39.4	-39.3	15.5	0.00e+00	0	62	0	21692940288	49	14969
2026-01-15 19:51:59.42	295.61	21.49	-39.4	-39.3	15.5	0.00e+00	0	62	0	21768437760	49	14994
2026-01-15 19:52:00.43	295.98	21.41	-39.5	-39.4	15.4	0.00e+00	0	62	0	21852323840	49	15289
2026-01-15 19:52:01.44	296.34	21.33	-39.4	-39.3	15.5	0.00e+00	0	62	0	21927821312	49	15074
2026-01-15 19:52:02.45	296.71	21.24	-39.5	-39.4	15.5	0.00e+00	0	62	0	22003318784	49	15265
2026-01-15 19:52:03.46	297.07	21.16	-39.6	-39.5	15.5	0.00e+00	0	62	0	22078816256	49	15331
2026-01-15 19:52:04.47	297.43	21.07	-39.5	-39.4	15.5	0.00e+00	0	62	0	22154313728	49	15196
2026-01-15 19:52:05.48	297.79	20.98	-39.6	-39.5	15.4	0.00e+00	0	62	0	22229811200	49	15411
2026-01-15 19:52:06.49	298.14	20.90	-39.7	-39.6	15.4	0.00e+00	0	62	0	22305308672	49	15492
2026-01-15 19:52:07.50	298.50	20.81	-39.6	-39.5	15.4	0.00e+00	0	62	0	22380806144	49	15466
2026-01-15 19:52:08.51	298.85	20.72	-39.6	-39.5	15.4	0.00e+00	0	62	0	22456303616	49	15322
2026-01-15 19:52:09.51	299.19	20.63	-39.6	-39.5	15.5	0.00e+00	0	62	0	22531801088	49	15443
2026-01-15 19:52:10.52	299.54	20.54	-39.7	-39.6	15.4	0.00e+00	0	62	0	22607298560	49	15508
2026-01-15 19:52:11.53	299.88	20.45	-39.6	-39.5	15.4	0.00e+00	0	62	0	22682796032	49	15458
2026-01-15 19:52:12.54	300.22	20.36	-39.7	-39.6	15.4	0.00e+00	0	62	0	22758293504	49	15487
2026-01-15 19:52:13.55	300.56	20.27	-39.8	-39.7	15.4	0.00e+00	0	62	0	22833790976	50	14792
2026-01-15 19:52:14.56	300.90	20.18	-39.8	-39.7	15.4	0.00e+00	0	62	0	22909288448	50	14848
2026-01-15 19:52:15.57	301.23	20.09	-39.8	-39.7	15.4	0.00e+00	0	62	0	22984785920	50	14808
2026-01-15 19:52:16.58	301.57	19.99	-39.8	-39.7	15.4	0.00e+00	0	62	0	23060283392	50	14818
2026-01-15 19:52:17.59	301.90	19.90	-39.8	-39.7	15.4	0.00e+00	0	62	0	23135780864	50	14892
2026-01-15 19:52:18.60	302.22	19.81	-39.9	-39.8	15.3	0.00e+00	0	62	0	23211278336	50	15054
2026-01-15 19:52:19.61	302.55	19.71	-39.9	-39.9	15.3	0.00e+00	0	62	0	23286775808	50	15124
2026-01-15 19:52:20.62	302.87	19.62	-39.9	-39.8	15.3	0.00e+00	0	62	0	23370661888	50	15034
2026-01-15 19:52:21.63	303.19	19.52	-39.9	-39.8	15.3	0.00e+00	0	62	0	23446159360	50	15103
2026-01-15 19:52:22.64	303.51	19.43	-39.9	-39.8	15.3	0.00e+00	0	62	0	23521656832	50	15003
2026-01-15 19:52:23.66	303.83	19.33	-40.0	-39.9	15.3	0.00e+00	0	62	0	23597154304	50	15210
2026-01-15 19:52:24.67	304.15	19.24	-40.0	-39.9	15.3	0.00e+00	0	62	0	23672651776	50	15249
2026-01-15 19:52:25.68	304.46	19.14	-40.1	-40.0	15.2	0.00e+00	0	62	0	23739760640	50	15433
2026-01-15 19:52:26.69	304.77	19.05	-40.2	-40.1	15.2	0.00e+00	0	62	0	23815258112	51	14664
2026-01-15 19:52:27.70	305.08	18.95	-40.1	-40.0	15.2	0.00e+00	0	62	0	23890755584	51	14518
2026-01-15 19:52:28.70	305.38	18.85	-40.1	-40.0	15.2	0.00e+00	0	62	0	23966253056	51	14540
2026-01-15 19:52:29.72	305.69	18.76	-40.2	-40.1	15.2	0.00e+00	0	62	0	24041750528	51	14708
2026-01-15 19:52:30.73	305.99	18.66	-40.1	-40.0	15.2	0.00e+00	0	62	0	24125636608	51	14539
2026-01-15 19:52:31.74	306.29	18.56	-40.2	-40.1	15.2	0.00e+00	0	62	0	24201134080	51	14682
2026-01-15 19:52:32.75	306.58	18.46	-40.2	-40.1	15.2	0.00e+00	0	62	0	24276631552	51	14771
2026-01-15 19:52:33.76	306.88	18.37	-40.3	-40.2	15.2	0.00e+00	0	62	0	24352129024	51	14837
2026-01-15 19:52:34.77	307.17	18.27	-40.4	-40.3	15.1	0.00e+00	0	62	0	24427626496	51	14964
2026-01-15 19:52:35.78	307.46	18.17	-40.4	-40.3	15.1	0.00e+00	0	62	0	24503123968	51	15091
2026-01-15 19:52:36.79	307.75	18.07	-40.6	-40.5	15.1	0.00e+00	0	62	0	24578621440	51	15311
2026-01-15 19:52:37.80	308.04	17.98	-40.5	-40.4	15.1	0.00e+00	0	62	0	24654118912	51	15160
2026-01-15 19:52:38.81	308.32	17.88	-40.5	-40.4	15.1	0.00e+00	0	62	0	24729616384	51	15166
2026-01-15 19:52:39.82	308.60	17.78	-40.5	-40.4	15.1	0.00e+00	0	62	0	24805113856	51	15290
2026-01-15 19:52:40.83	308.88	17.68	-40.4	-40.3	15.1	0.00e+00	0	62	0	24880611328	51	15045
2026-01-15 19:52:41.84	309.16	17.58	-40.6	-40.5	15.0	0.00e+00	0	62	0	24956108800	51	15323
2026-01-15 19:52:42.85	309.44	17.48	-40.6	-40.5	15.0	0.00e+00	0	62	0	25031606272	51	15431
2026-01-15 19:52:43.86	309.71	17.39	-40.6	-40.5	15.0	0.00e+00	0	62	0	25107103744	51	15430
2026-01-15 19:52:44.86	309.98	17.29	-40.6	-40.5	15.0	0.00e+00	0	63	0	25182601216	51	15452
2026-01-15 19:52:45.87	310.25	17.19	-40.7	-40.6	15.0	0.00e+00	0	62	0	25258098688	51	15550
2026-01-15 19:52:46.88	310.51	17.09	-40.6	-40.5	15.0	0.00e+00	0	62	0	25333596160	51	15435
2026-01-15 19:52:47.89	310.78	16.99	-40.6	-40.5	15.0	0.00e+00	0	62	0	25409093632	52	14491
2026-01-15 19:52:48.90	311.04	16.89	-40.7	-40.6	14.9	0.00e+00	0	62	0	25484591104	52	14691
2026-01-15 19:52:49.92	311.31	16.79	-40.7	-40.6	14.9	0.00e+00	0	62	0	25560088576	52	14758
2026-01-15 19:52:50.93	311.57	16.70	-40.6	-40.5	14.9	0.00e+00	0	62	0	25643974656	52	14585
2026-01-15 19:52:51.93	311.82	16.60	-40.7	-40.6	14.9	0.00e+00	0	62	0	25719472128	52	14636
2026-01-15 19:52:52.94	312.08	16.50	-40.8	-40.7	14.9	0.00e+00	0	63	0	25794969600	52	14835
2026-01-15 19:52:53.95	312.33	16.40	-40.9	-40.8	14.9	0.00e+00	0	63	0	25862078464	52	14984
2026-01-15 19:52:54.96	312.58	16.30	-40.7	-40.6	14.9	0.00e+00	0	63	0	25937575936	52	14741
2026-01-15 19:52:55.97	312.83	16.20	-40.7	-40.6	14.9	0.00e+00	0	62	0	26013073408	52	14668
2026-01-15 19:52:56.98	313.08	16.10	-40.8	-40.7	14.9	0.00e+00	0	62	0	26088570880	52	14900
2026-01-15 19:52:57.98	313.33	16.01	-40.8	-40.7	14.9	0.00e+00	0	63	0	26164068352	52	14831
2026-01-15 19:52:58.99	313.57	15.91	-40.9	-40.8	14.8	0.00e+00	0	63	0	26239565824	52	15022
2026-01-15 19:53:00.00	313.81	15.81	-40.9	-40.8	14.8	0.00e+00	0	62	0	26315063296	52	15028
2026-01-15 19:53:01.01	314.05	15.71	-40.9	-40.8	14.8	0.00e+00	0	63	0	26390560768	52	15088
2026-01-15 19:53:02.02	314.29	15.62	-41.0	-40.9	14.8	0.00e+00	0	62	0	26474446848	52	15155
2026-01-15 19:53:03.03	314.53	15.52	-40.9	-40.8	14.8	0.00e+00	0	63	0	26549944320	52	15019
2026-01-15 19:53:04.04	314.77	15.42	-41.0	-40.9	14.7	0.00e+00	0	63	0	26625441792	52	15207
2026-01-15 19:53:05.05	315.00	15.32	-41.0	-40.9	14.7	0.00e+00	0	63	0	26700939264	52	15270
2026-01-15 19:53:06.06	315.23	15.22	-41.0	-40.9	14.7	0.00e+00	0	63	0	26776436736	52	15227
2026-01-15 19:53:07.07	315.46	15.13	-41.0	-41.0	14.7	0.00e+00	0	62	0	26851934208	52	15316
2026-01-15 19:53:08.08	315.69	15.03	-41.1	-41.0	14.7	0.00e+00	0	63	0	26927431680	52	15364
2026-01-15 19:53:09.09	315.92	14.93	-41.2	-41.1	14.6	0.00e+00	0	63	0	27002929152	52	15615
2026-01-15 19:53:10.10	316.14	14.84	-41.2	-41.1	14.6	0.00e+00	0	63	0	27070038016	53	14752
2026-01-15 19:53:11.11	316.36	14.74	-41.2	-41.1	14.7	0.00e+00	0	63	0	27145535488	53	14686
2026-01-15 19:53:12.12	316.59	14.64	-41.1	-41.1	14.7	0.00e+00	0	63	0	27221032960	53	14640
2026-01-15 19:53:13.12	316.80	14.55	-41.2	-41.1	14.6	0.00e+00	0	63	0	27304919040	53	14658
2026-01-15 19:53:14.13	317.02	14.45	-41.2	-41.1	14.7	0.00e+00	0	63	0	27380416512	53	14694
2026-01-15 19:53:15.14	317.24	14.35	-41.3	-41.2	14.6	0.00e+00	0	62	0	27455913984	53	14940
2026-01-15 19:53:16.15	317.45	14.26	-41.3	-41.2	14.6	0.00e+00	0	63	0	27531411456	53	14918
2026-01-15 19:53:17.16	317.67	14.16	-41.3	-41.3	14.6	0.00e+00	0	63	0	27606908928	53	14948
2026-01-15 19:53:18.17	317.88	14.07	-41.5	-41.4	14.5	0.00e+00	0	63	0	27682406400	53	15206
2026-01-15 19:53:19.18	318.09	13.97	-41.4	-41.3	14.5	0.00e+00	0	63	0	27757903872	53	15104
2026-01-15 19:53:20.19	318.30	13.88	-41.4	-41.3	14.5	0.00e+00	0	63	0	27833401344	53	15080
2026-01-15 19:53:21.20	318.50	13.78	-41.5	-41.4	14.5	0.00e+00	0	63	0	27908898816	53	15160
2026-01-15 19:53:22.21	318.71	13.69	-41.4	-41.4	14.5	0.00e+00	0	63	0	27984396288	53	15131
2026-01-15 19:53:23.22	318.91	13.59	-41.5	-41.4	14.5	0.00e+00	0	63	0	28059893760	53	15202
2026-01-15 19:53:24.23	319.12	13.50	-41.5	-41.4	14.5	0.00e+00	0	63	0	28135391232	53	15292
2026-01-15 19:53:25.24	319.32	13.40	-41.7	-41.6	14.3	0.00e+00	0	63	0	28210888704	53	15631
2026-01-15 19:53:26.24	319.51	13.31	-41.7	-41.6	14.4	0.00e+00	0	63	0	28286386176	54	14673
2026-01-15 19:53:27.26	319.71	13.21	-41.7	-41.7	14.3	0.00e+00	0	63	0	28361883648	54	14793
2026-01-15 19:53:28.27	319.91	13.12	-41.7	-41.6	14.4	0.00e+00	0	63	0	28437381120	54	14725
2026-01-15 19:53:29.28	320.10	13.03	-41.7	-41.6	14.3	0.00e+00	0	63	0	28512878592	54	14771
2026-01-15 19:53:30.29	320.30	12.93	-41.8	-41.7	14.3	0.00e+00	0	63	0	28588376064	54	14855
2026-01-15 19:53:31.30	320.49	12.84	-41.7	-41.6	14.3	0.00e+00	0	63	0	28663873536	54	14760
2026-01-15 19:53:32.31	320.68	12.75	-41.8	-41.7	14.3	0.00e+00	0	62	0	28739371008	54	14841
2026-01-15 19:53:33.32	320.87	12.65	-41.8	-41.7	14.3	0.00e+00	0	63	0	28814868480	54	14883
2026-01-15 19:53:34.33	321.06	12.56	-41.9	-41.8	14.2	0.00e+00	0	63	0	28898754560	54	15109
2026-01-15 19:53:35.34	321.25	12.47	-41.9	-41.8	14.2	0.00e+00	0	63	0	28974252032	54	15092
2026-01-15 19:53:36.35	321.43	12.38	-42.0	-41.9	14.2	0.00e+00	0	63	0	29049749504	54	15185
2026-01-15 19:53:37.36	321.61	12.29	-41.9	-41.8	14.2	0.00e+00	0	63	0	29125246976	54	15017
2026-01-15 19:53:38.37	321.80	12.19	-42.0	-42.0	14.1	0.00e+00	0	63	0	29192355840	54	15334
2026-01-15 19:53:39.38	321.98	12.10	-42.0	-41.9	14.2	0.00e+00	0	63	0	29267853312	54	15173
2026-01-15 19:53:40.39	322.16	12.01	-42.1	-42.0	14.1	0.00e+00	0	63	0	29343350784	54	15392
2026-01-15 19:53:41.39	322.33	11.92	-42.2	-42.1	14.1	0.00e+00	0	63	0	29418848256	55	14689
2026-01-15 19:53:42.40	322.51	11.83	-42.0	-42.0	14.1	0.00e+00	0	63	0	29494345728	55	14456
2026-01-15 19:53:43.41	322.69	11.74	-42.2	-42.2	14.0	0.00e+00	0	63	0	29569843200	55	14797
2026-01-15 19:53:44.42	322.86	11.65	-42.2	-42.1	14.0	0.00e+00	0	63	0	29653729280	55	14763
2026-01-15 19:53:45.43	323.04	11.56	-42.2	-42.1	14.0	1.38e-05	0	63	0	29729226752	55	14758
2026-01-15 19:53:46.44	323.21	11.47	-42.2	-42.2	14.0	0.00e+00	0	63	0	29804724224	55	14822
2026-01-15 19:53:47.45	323.38	11.38	-42.4	-42.3	13.9	0.00e+00	0	63	0	29880221696	55	15060
2026-01-15 19:53:48.46	323.55	11.29	-42.5	-42.4	13.9	0.00e+00	0	63	0	29955719168	55	15203
2026-01-15 19:53:49.47	323.72	11.20	-42.4	-42.3	14.0	0.00e+00	0	63	0	30031216640	55	15010
2026-01-15 19:53:50.48	323.88	11.12	-42.4	-42.3	13.9	0.00e+00	0	63	0	30106714112	55	15037
2026-01-15 19:53:51.49	324.05	11.03	-42.3	-42.2	14.0	0.00e+00	0	63	0	30182211584	55	14865
2026-01-15 19:53:52.49	324.21	10.94	-42.4	-42.4	13.9	0.00e+00	0	63	0	30257709056	55	15123
2026-01-15 19:53:53.50	324.38	10.85	-42.3	-42.2	14.0	0.00e+00	0	63	0	30324817920	55	14903
2026-01-15 19:53:54.51	324.54	10.76	-42.4	-42.3	13.9	0.00e+00	0	63	0	30400315392	55	15053
2026-01-15 19:53:55.52	324.70	10.68	-42.5	-42.4	13.9	0.00e+00	0	63	0	30484201472	55	15184
2026-01-15 19:53:56.53	324.86	10.59	-42.6	-42.5	13.8	6.90e-06	0	63	0	30559698944	55	15434
2026-01-15 19:53:57.54	325.02	10.50	-42.6	-42.5	13.8	0.00e+00	0	63	0	30635196416	55	15415
2026-01-15 19:53:58.55	325.18	10.42	-42.5	-42.5	13.8	0.00e+00	0	63	0	30710693888	55	15311
2026-01-15 19:53:59.56	325.34	10.33	-42.6	-42.5	13.8	0.00e+00	0	63	0	30786191360	55	15470
2026-01-15 19:54:00.57	325.49	10.24	-42.6	-42.6	13.8	6.90e-06	0	63	0	30861688832	55	15475
2026-01-15 19:54:01.58	325.65	10.16	-42.7	-42.6	13.7	6.90e-06	0	63	0	30937186304	55	15632
2026-01-15 19:54:02.59	325.80	10.07	-42.7	-42.6	13.6	6.90e-06	0	63	0	31012683776	56	14746
2026-01-15 19:54:03.60	325.95	9.99	-42.8	-42.7	13.6	0.00e+00	0	63	0	31088181248	56	14897
2026-01-15 19:54:04.61	326.10	9.90	-42.7	-42.6	13.6	6.90e-06	0	63	0	31163678720	56	14773
2026-01-15 19:54:05.61	326.25	9.82	-42.6	-42.5	13.7	6.90e-06	0	63	0	31239176192	56	14586
2026-01-15 19:54:06.62	326.40	9.73	-42.6	-42.5	13.7	0.00e+00	0	63	0	31314673664	56	14596
2026-01-15 19:54:07.64	326.55	9.65	-42.7	-42.6	13.6	0.00e+00	0	63	0	31390171136	56	14679
2026-01-15 19:54:08.64	326.70	9.56	-42.7	-42.6	13.6	0.00e+00	0	63	0	31465668608	56	14745
2026-01-15 19:54:09.66	326.85	9.48	-42.6	-42.5	13.7	0.00e+00	0	63	0	31541166080	56	14580
2026-01-15 19:54:10.66	326.99	9.39	-42.8	-42.7	13.5	0.00e+00	0	63	0	31616663552	56	14916
2026-01-15 19:54:11.67	327.13	9.31	-42.9	-42.8	13.5	6.90e-06	0	63	0	31692161024	56	15069
2026-01-15 19:54:12.68	327.28	9.23	-42.9	-42.8	13.5	0.00e+00	0	63	0	31767658496	56	15102
2026-01-15 19:54:13.69	327.42	9.14	-42.9	-42.9	13.5	6.90e-06	0	63	0	31843155968	56	15123
2026-01-15 19:54:14.70	327.56	9.06	-43.0	-43.0	13.4	6.90e-06	0	63	0	31918653440	56	15326
2026-01-15 19:54:15.71	327.70	8.98	-43.0	-42.9	13.4	2.08e-05	0	63	0	31994150912	56	15259
2026-01-15 19:54:16.72	327.84	8.90	-42.9	-42.8	13.5	6.90e-06	0	63	0	32069648384	56	15119
2026-01-15 19:54:17.73	327.98	8.81	-43.0	-43.0	13.4	1.38e-05	0	63	0	32153534464	56	15332
2026-01-15 19:54:18.74	328.12	8.73	-43.2	-43.1	13.3	6.90e-06	0	63	0	32229031936	56	15567
2026-01-15 19:54:19.75	328.25	8.65	-43.0	-42.9	13.4	0.00e+00	0	63	0	32304529408	56	15267
2026-01-15 19:54:20.76	328.39	8.57	-43.2	-43.1	13.3	0.00e+00	0	63	0	32380026880	57	14713
2026-01-15 19:54:21.77	328.53	8.49	-43.3	-43.2	13.2	2.08e-05	0	63	0	32447135744	57	14882
2026-01-15 19:54:22.78	328.66	8.41	-43.3	-43.3	13.2	2.08e-05	0	63	0	32522633216	57	14988
2026-01-15 19:54:23.79	328.79	8.33	-43.4	-43.3	13.1	0.00e+00	0	63	0	32598130688	57	15096
2026-01-15 19:54:24.79	328.92	8.25	-43.4	-43.3	13.2	1.38e-05	0	63	0	32673628160	57	15031
2026-01-15 19:54:25.80	329.06	8.17	-43.3	-43.2	13.2	1.38e-05	0	63	0	32749125632	57	14861
2026-01-15 19:54:26.82	329.19	8.09	-43.5	-43.4	13.1	6.90e-06	0	63	0	32824623104	57	15250
2026-01-15 19:54:27.82	329.32	8.01	-43.3	-43.3	13.2	2.08e-05	0	63	0	32908509184	57	14949
2026-01-15 19:54:28.83	329.44	7.93	-43.7	-43.6	12.9	1.38e-05	0	63	0	32984006656	58	14721
2026-01-15 19:54:29.84	329.57	7.85	-43.8	-43.8	12.9	2.77e-05	0	63	0	33059504128	58	14956
2026-01-15 19:54:30.85	329.70	7.77	-43.8	-43.8	12.8	3.46e-05	0	63	0	33135001600	58	14958
2026-01-15 19:54:31.86	329.83	7.69	-44.1	-44.1	12.6	4.16e-05	0	63	0	33210499072	58	15525
2026-01-15 19:54:32.87	329.95	7.61	-44.1	-44.1	12.6	4.16e-05	0	63	0	33285996544	59	14687
2026-01-15 19:54:33.88	330.08	7.53	-44.5	-44.4	12.4	4.16e-05	0	63	0	33361494016	59	15287
2026-01-15 19:54:34.88	330.20	7.45	-44.6	-44.6	12.2	1.18e-04	0	63	0	33436991488	59	15509
2026-01-15 19:54:35.89	330.32	7.38	-44.2	-44.1	12.6	6.93e-05	0	63	0	33512488960	59	14774
2026-01-15 19:54:36.90	330.44	7.30	-44.1	-44.1	12.6	5.54e-05	0	63	0	33579597824	59	14652
2026-01-15 19:54:37.91	330.57	7.22	-44.1	-44.1	12.6	2.08e-05	0	63	0	33655095296	59	14609
2026-01-15 19:54:38.92	330.69	7.14	-44.0	-44.0	12.7	3.46e-05	0	63	0	33738981376	59	14444
2026-01-15 19:54:39.93	330.81	7.07	-44.1	-44.0	12.6	9.01e-05	0	63	0	33814478848	59	14578
2026-01-15 19:54:40.94	330.93	6.99	-44.0	-44.0	12.6	2.77e-05	0	63	0	33889976320	59	14500
2026-01-15 19:54:41.95	331.04	6.91	-44.2	-44.2	12.5	3.46e-05	0	63	0	33965473792	59	14822
2026-01-15 19:54:42.96	331.16	6.84	-44.1	-44.0	12.6	3.46e-05	0	63	0	34040971264	59	14564
2026-01-15 19:54:43.97	331.28	6.76	-44.2	-44.2	12.5	5.54e-05	0	63	0	34116468736	59	14819
2026-01-15 19:54:44.98	331.40	6.69	-44.0	-43.9	12.7	8.32e-05	0	63	0	34191966208	59	14399
2026-01-15 19:54:45.99	331.51	6.61	-43.8	-43.7	12.8	4.16e-05	0	63	0	34267463680	59	14081
2026-01-15 19:54:47.00	331.63	6.53	-43.8	-43.8	12.8	4.16e-05	0	63	0	34342961152	59	14143
2026-01-15 19:54:48.01	331.74	6.46	-44.3	-44.3	12.4	2.08e-05	0	63	0	34418458624	59	15035
2026-01-15 19:54:49.02	331.85	6.38	-44.0	-44.0	12.6	5.54e-05	0	63	0	34493956096	59	14492
2026-01-15 19:54:50.02	331.97	6.31	-43.8	-43.7	12.8	6.93e-05	0	63	0	34569453568	59	14044
2026-01-15 19:54:51.04	332.08	6.23	-43.9	-43.9	12.7	6.24e-05	0	63	0	34644951040	59	14335
2026-01-15 19:54:52.05	332.19	6.16	-44.3	-44.3	12.3	3.46e-05	0	63	0	34720448512	59	15045
2026-01-15 19:54:53.05	332.30	6.09	-44.5	-44.5	12.2	7.62e-05	0	63	0	34795945984	59	15370
2026-01-15 19:54:54.06	332.41	6.01	-44.2	-44.2	12.4	1.04e-04	0	63	0	34871443456	59	14887
2026-01-15 19:54:55.07	332.52	5.94	-44.6	-44.6	12.1	4.85e-05	0	63	0	34946940928	59	15562
2026-01-15 19:54:56.08	332.63	5.86	-44.1	-44.0	12.8	6.93e-05	0	63	0	35022438400	60	13775
2026-01-15 19:54:57.09	332.74	5.79	-44.7	-44.7	12.3	3.46e-05	0	63	0	35097935872	60	14865
2026-01-15 19:54:58.09	332.84	5.72	-44.2	-44.2	12.4	2.08e-05	0	63	0	35173433344	59	14848
2026-01-15 19:54:59.10	332.95	5.65	-44.5	-44.4	12.2	8.32e-05	0	63	0	35248930816	59	15250
2026-01-15 19:55:00.11	333.05	5.57	-44.4	-44.4	12.2	6.90e-06	0	63	0	35324428288	59	15159
2026-01-15 19:55:01.12	333.16	5.50	-44.5	-44.5	12.5	6.93e-05	0	63	0	35399925760	60	14483
2026-01-15 19:55:02.13	333.26	5.43	-44.2	-44.2	12.3	4.16e-05	0	63	0	35483811840	59	14880
2026-01-15 19:55:03.14	333.37	5.36	-44.7	-44.7	12.0	1.60e-04	0	63	0	35559309312	59	15712
2026-01-15 19:55:04.15	333.47	5.28	-44.6	-44.6	12.3	1.04e-04	0	63	0	35634806784	60	14705
2026-01-15 19:55:05.16	333.57	5.21	-44.5	-44.4	12.4	7.62e-05	0	63	0	35710304256	60	14407
2026-01-15 19:55:06.17	333.68	5.14	-44.5	-44.5	12.4	1.04e-04	0	63	0	35777413120	60	14460
2026-01-15 19:55:07.18	333.78	5.07	-57.1	-59.4	3.7	1.04e-04	0	63	104	35794190336	84	20316
2026-01-15 19:55:08.19	333.88	5.00	-57.1	-59.3	3.7	1.04e-04	0	63	104	35794190336	84	20055
2026-01-15 19:55:09.20	333.98	4.93	-57.5	-59.7	3.7	1.04e-04	0	63	104	35794190336	85	19766
2026-01-15 19:55:10.21	334.08	4.86	-57.9	-60.1	3.7	1.04e-04	0	63	104	35794190336	86	19531
2026-01-15 19:55:11.22	334.18	4.78	-58.1	-60.3	3.7	1.04e-04	0	63	104	35794190336	86	19947
2026-01-15 19:55:12.23	334.28	4.71	-58.3	-60.4	3.7	1.04e-04	0	63	104	35794190336	87	19174
2026-01-15 19:55:13.24	334.38	4.64	-58.4	-60.5	3.7	1.04e-04	0	62	104	35794190336	87	19473
2026-01-15 19:55:14.25	334.47	4.57	-58.5	-60.6	3.7	1.04e-04	0	62	104	35794190336	87	19648
2026-01-15 19:55:15.26	334.57	4.50	-58.6	-60.7	3.7	1.04e-04	0	62	104	35794190336	87	19876
2026-01-15 19:55:16.27	334.67	4.43	-58.6	-60.8	3.7	1.04e-04	0	62	104	35794190336	87	20047
2026-01-15 19:55:17.28	334.76	4.36	-58.7	-60.9	3.6	1.04e-04	0	62	104	35794190336	87	20221
2026-01-15 19:55:18.29	334.86	4.30	-58.7	-60.9	3.7	1.04e-04	0	62	104	35794190336	88	19111
2026-01-15 19:55:19.30	334.95	4.23	-58.8	-60.9	3.7	1.04e-04	0	62	104	35794190336	88	19204
2026-01-15 19:55:20.30	335.05	4.16	-58.8	-61.0	3.7	1.04e-04	0	62	104	35794190336	88	19263
2026-01-15 19:55:21.31	335.14	4.09	-58.8	-60.9	3.7	1.04e-04	0	62	104	35794190336	88	19229
2026-01-15 19:55:22.32	335.23	4.02	-58.8	-61.0	3.7	1.04e-04	0	62	104	35794190336	88	19298
2026-01-15 19:55:23.33	335.33	3.95	-58.8	-61.0	3.7	1.04e-04	0	62	104	35794190336	88	19289
2026-01-15 19:55:24.34	335.42	3.88	-58.8	-61.0	3.7	1.04e-04	0	62	104	35794190336	88	19310
2026-01-15 19:55:25.35	335.51	3.82	-58.8	-61.0	3.7	1.04e-04	0	62	104	35794190336	88	19289
2026-01-15 19:55:26.36	335.60	3.75	-58.8	-60.9	3.7	1.04e-04	0	62	104	35794190336	88	19190
2026-01-15 19:55:27.37	335.69	3.68	-58.8	-60.9	3.7	1.04e-04	0	62	104	35794190336	88	19215
2026-01-15 19:55:28.38	335.78	3.61	-58.8	-60.9	3.7	1.04e-04	0	62	104	35794190336	88	19169
2026-01-15 19:55:29.39	335.87	3.55	-58.7	-60.9	3.7	1.04e-04	0	62	104	35794190336	88	19077
2026-01-15 19:55:30.40	335.96	3.48	-58.7	-60.9	3.7	1.04e-04	0	62	104	35794190336	88	19130
2026-01-15 19:55:31.41	336.05	3.41	-58.7	-60.9	3.7	1.04e-04	0	62	104	35794190336	88	19060
2026-01-15 19:55:32.42	336.14	3.34	-58.7	-60.8	3.7	1.04e-04	0	62	104	35794190336	88	18971
2026-01-15 19:55:33.43	336.23	3.28	-58.7	-60.8	3.7	1.04e-04	0	62	104	35794190336	88	18948
2026-01-15 19:55:34.44	336.31	3.21	-58.7	-60.8	3.7	1.04e-04	0	62	104	35794190336	88	18965
2026-01-15 19:55:35.45	336.40	3.14	-58.6	-60.8	3.7	1.04e-04	0	62	104	35794190336	88	18908
2026-01-15 19:55:36.46	336.49	3.08	-58.6	-60.8	3.7	1.04e-04	0	62	104	35794190336	88	18872
2026-01-15 19:55:37.47	336.57	3.01	-58.6	-60.8	3.7	1.04e-04	0	62	104	35794190336	88	18929
2026-01-15 19:55:38.48	336.66	2.95	-58.6	-60.8	3.7	1.04e-04	0	62	104	35794190336	88	18916
2026-01-15 19:55:39.49	336.74	2.88	-58.6	-60.8	3.7	1.04e-04	0	62	104	35794190336	88	18922
2026-01-15 19:55:40.50	336.83	2.82	-58.6	-60.8	3.7	1.04e-04	0	62	104	35794190336	88	18861
2026-01-15 19:55:41.51	336.91	2.75	-58.6	-60.8	3.7	1.04e-04	0	62	104	35794190336	88	18839
2026-01-15 19:55:42.52	337.00	2.68	-58.6	-60.8	3.7	1.04e-04	0	62	104	35794190336	88	18860
2026-01-15 19:55:43.53	337.08	2.62	-58.6	-60.8	3.7	1.04e-04	0	62	104	35794190336	88	18842
2026-01-15 19:55:44.54	337.16	2.56	-58.6	-60.7	3.7	1.04e-04	0	62	104	35794190336	88	18788
2026-01-15 19:55:45.55	337.24	2.49	-58.6	-60.7	3.7	1.04e-04	0	62	104	35794190336	88	18748
2026-01-15 19:55:46.56	337.33	2.43	-58.6	-60.7	3.7	1.04e-04	0	62	104	35794190336	88	18767
2026-01-15 19:55:47.57	337.41	2.36	-58.6	-60.7	3.7	1.04e-04	0	62	104	35794190336	88	18774
2026-01-15 19:55:48.58	337.49	2.30	-58.6	-60.7	3.7	1.04e-04	0	62	104	35794190336	88	18723
2026-01-15 19:55:49.58	337.57	2.23	-58.6	-60.7	3.7	1.04e-04	0	62	104	35794190336	88	18767
2026-01-15 19:55:50.59	337.65	2.17	-58.6	-60.7	3.7	1.04e-04	0	62	104	35794190336	88	18771
2026-01-15 19:55:51.60	337.73	2.11	-58.6	-60.7	3.7	1.04e-04	0	62	104	35794190336	88	18771
2026-01-15 19:55:52.61	337.81	2.04	-58.6	-60.7	3.7	1.04e-04	0	62	104	35794190336	88	18732
2026-01-15 19:55:53.62	337.89	1.98	-58.6	-60.7	3.7	1.04e-04	0	62	104	35794190336	88	18706
2026-01-15 19:55:54.63	337.96	1.92	-58.6	-60.7	3.7	1.04e-04	0	62	104	35794190336	88	18733
2026-01-15 19:55:55.64	338.04	1.85	-58.6	-60.7	3.7	1.04e-04	0	62	104	35794190336	88	18696

#Closed at: 2026-01-15 19:55:56
#Recorded file [35794 MB]: D:/lorett/data/31041_260115_224602.dat