passes_logs/2026/01/15/R3.2S_Murmansk/R3.2S_Murmansk__20260115_043114_SUOMI_NPP_rec.log

#Pass ID: 20260115_043114_SUOMI NPP
#Satellite: SUOMI NPP
#Configuration: NPP
#almurnet v.1.7.20251203
#Start time: 2026-01-15 04:31:16

#Version: 2.2.20231116
#Station: R3.2S_Murmansk
#Location: 33.079688 lon 68.888172 lat
#TLE: 1 37849U 11061A   26014.61059675  .00000037  00000+0  38639-4 0  9994
#TLE: 2 37849  98.7810 316.6625 0002460  64.3781 295.7649 14.19525105736658

#Time	Az	El	Level	Level2	SNR	BER	BlckErr	Temp	State	Recorded	gain1	gain2
2026-01-15 04:31:16.68	52.25	2.11	-58.2	-74.2	3.8	1.49e+00	0	26	0	0	82	22943
2026-01-15 04:31:17.67	52.18	2.16	-58.2	-74.2	3.8	1.49e+00	0	26	104	0	81	24170
2026-01-15 04:31:18.67	52.12	2.22	-58.2	-74.2	3.8	1.49e+00	0	26	104	0	81	24200
2026-01-15 04:31:19.67	52.06	2.28	-58.2	-74.2	3.8	1.49e+00	0	26	104	0	81	24165
2026-01-15 04:31:20.67	52.00	2.33	-58.2	-74.2	3.8	1.49e+00	0	26	104	0	81	24189
2026-01-15 04:31:21.68	51.93	2.39	-58.2	-74.2	3.8	1.49e+00	0	26	104	0	81	24168
2026-01-15 04:31:22.68	51.87	2.45	-58.2	-74.2	3.8	1.49e+00	0	26	104	0	81	24169
2026-01-15 04:31:23.68	51.80	2.51	-58.2	-74.2	3.8	1.49e+00	0	26	104	0	81	24160
2026-01-15 04:31:24.69	51.74	2.57	-58.2	-74.2	3.8	1.49e+00	0	26	104	0	81	24276
2026-01-15 04:31:25.68	51.67	2.62	-58.2	-74.2	3.8	1.49e+00	0	26	104	0	81	24194
2026-01-15 04:31:26.68	51.61	2.68	-58.2	-74.2	3.8	1.49e+00	0	26	104	0	81	24291
2026-01-15 04:31:27.68	51.54	2.74	-58.2	-74.2	3.8	1.49e+00	0	26	104	0	81	24276
2026-01-15 04:31:28.69	51.48	2.80	-58.2	-74.2	3.8	1.49e+00	0	26	104	0	81	24302
2026-01-15 04:31:29.69	51.41	2.86	-58.2	-74.2	3.8	1.49e+00	0	26	104	0	81	24294
2026-01-15 04:31:30.69	51.35	2.91	-58.2	-74.2	3.8	1.49e+00	0	26	104	0	81	24276
2026-01-15 04:31:31.70	51.28	2.97	-58.2	-74.2	3.8	1.49e+00	0	26	104	0	81	24351
2026-01-15 04:31:32.70	51.21	3.03	-58.2	-74.2	3.8	1.49e+00	0	26	104	0	81	24237
2026-01-15 04:31:33.70	51.15	3.09	-58.2	-74.2	3.8	1.49e+00	0	26	104	0	81	24248
2026-01-15 04:31:34.70	51.08	3.15	-58.2	-74.2	3.8	1.49e+00	0	26	104	0	81	24248
2026-01-15 04:31:35.70	51.01	3.21	-58.2	-74.2	3.8	1.49e+00	0	26	104	0	81	24200
2026-01-15 04:31:36.70	50.94	3.27	-58.2	-74.2	3.8	1.49e+00	0	26	104	0	81	24206
2026-01-15 04:31:37.70	50.88	3.33	-58.2	-74.2	3.8	1.49e+00	0	26	104	0	81	24300
2026-01-15 04:31:38.71	50.81	3.38	-58.2	-74.2	3.8	1.49e+00	0	26	104	0	81	24210
2026-01-15 04:31:39.71	50.74	3.44	-58.2	-74.2	3.8	1.49e+00	0	26	104	0	81	24324
2026-01-15 04:31:40.72	50.67	3.50	-58.2	-74.2	3.8	1.49e+00	0	26	104	0	81	24364
2026-01-15 04:31:41.72	50.60	3.56	-58.2	-74.2	3.8	1.49e+00	0	26	104	0	81	24407
2026-01-15 04:31:42.72	50.53	3.62	-58.2	-74.2	3.8	1.49e+00	0	26	104	0	81	24356
2026-01-15 04:31:43.72	50.46	3.68	-58.2	-74.2	3.8	1.49e+00	0	26	104	0	81	24259
2026-01-15 04:31:44.72	50.39	3.74	-58.2	-74.1	3.8	1.49e+00	0	26	104	0	81	24113
2026-01-15 04:31:45.72	50.32	3.80	-58.2	-74.1	3.8	1.49e+00	0	27	104	0	81	24068
2026-01-15 04:31:46.72	50.25	3.86	-58.2	-74.2	3.8	1.49e+00	0	27	104	0	81	24183
2026-01-15 04:31:47.72	50.18	3.92	-58.2	-74.2	3.8	1.49e+00	0	27	104	0	81	24249
2026-01-15 04:31:48.72	50.11	3.98	-58.2	-74.2	3.8	1.49e+00	0	27	104	0	81	24300
2026-01-15 04:31:49.73	50.04	4.04	-58.2	-74.2	3.8	1.49e+00	0	27	104	0	81	24319
2026-01-15 04:31:50.73	49.97	4.10	-58.2	-74.1	3.8	1.49e+00	0	27	104	0	81	24051
2026-01-15 04:31:51.73	49.89	4.16	-58.2	-73.9	3.8	1.49e+00	0	27	104	0	81	23472
2026-01-15 04:31:52.73	49.82	4.22	-58.2	-73.5	3.8	1.49e+00	0	27	104	0	81	22457
2026-01-15 04:31:53.73	49.75	4.28	-58.2	-73.1	3.8	1.49e+00	0	27	104	0	81	21447
2026-01-15 04:31:54.74	49.67	4.34	-58.1	-72.0	3.8	1.49e+00	0	27	104	0	81	18925
2026-01-15 04:31:55.75	49.60	4.40	-58.1	-72.2	3.8	1.49e+00	0	27	104	0	81	19232
2026-01-15 04:31:56.75	49.53	4.46	-58.1	-71.0	4.1	1.46e+00	0	27	0	0	81	16828
2026-01-15 04:31:57.75	49.45	4.52	-58.0	-70.1	4.4	1.39e+00	92	27	0	0	81	15096
2026-01-15 04:31:58.75	49.38	4.59	-57.9	-69.4	4.6	1.10e+00	0	27	0	1048576	81	13922
2026-01-15 04:31:59.75	49.30	4.65	-57.9	-68.7	4.9	7.45e-01	0	27	0	3145728	81	12906
2026-01-15 04:32:00.75	49.23	4.71	-57.8	-68.0	5.3	6.86e-01	0	27	0	5242880	81	11852
2026-01-15 04:32:01.76	49.15	4.77	-57.8	-67.8	5.4	4.43e-01	0	27	0	7340032	81	11572
2026-01-15 04:32:02.75	49.08	4.83	-57.7	-67.4	5.6	3.98e-01	0	27	0	9437184	81	11139
2026-01-15 04:32:03.75	49.00	4.89	-57.7	-67.1	5.8	3.33e-01	0	27	0	10485760	81	10659
2026-01-15 04:32:04.76	48.92	4.95	-57.6	-66.6	6.2	2.81e-01	0	27	0	12582912	81	10076
2026-01-15 04:32:05.76	48.85	5.01	-57.7	-67.1	5.8	2.40e-01	0	27	0	14680064	81	10736
2026-01-15 04:32:06.76	48.77	5.08	-57.7	-66.7	6.2	2.25e-01	0	27	0	16777216	81	10176
2026-01-15 04:32:07.76	48.69	5.14	-57.9	-67.9	5.4	3.81e-01	0	27	0	18874368	81	11729
2026-01-15 04:32:08.76	48.62	5.20	-57.9	-68.9	4.9	3.30e-01	0	27	0	19922944	81	13140
2026-01-15 04:32:09.76	48.54	5.26	-56.5	-61.9	10.0	2.20e-01	0	27	0	22020096	79	6600
2026-01-15 04:32:10.77	48.46	5.32	-58.1	-71.4	4.1	1.04e-01	0	27	0	24117248	81	17602
2026-01-15 04:32:11.77	48.38	5.38	-57.1	-63.5	8.6	1.48e+00	0	27	104	24117248	80	7505
2026-01-15 04:32:12.76	48.30	5.45	-56.4	-61.5	10.5	9.34e-04	0	27	0	25165824	79	6308
2026-01-15 04:32:13.76	48.22	5.51	-56.6	-62.0	10.1	9.94e-04	0	27	0	27262976	79	6694
2026-01-15 04:32:14.76	48.14	5.57	-56.3	-61.3	10.7	7.00e-04	0	27	0	29360128	79	6146
2026-01-15 04:32:15.76	48.06	5.63	-56.0	-60.5	11.2	1.81e-04	0	27	0	30408704	78	5949
2026-01-15 04:32:16.76	47.98	5.70	-55.8	-60.1	11.5	2.44e-05	0	27	0	32505856	78	5716
2026-01-15 04:32:17.76	47.90	5.76	-55.7	-59.9	11.6	6.10e-06	0	27	0	34603008	77	5901
2026-01-15 04:32:18.77	47.82	5.82	-55.7	-59.9	11.6	4.50e-06	0	27	0	36700160	77	5860
2026-01-15 04:32:19.78	47.74	5.88	-55.5	-59.5	11.9	4.50e-06	0	27	0	38797312	77	5612
2026-01-15 04:32:20.78	47.66	5.95	-55.4	-59.4	12.0	2.20e-06	0	27	0	39845888	77	5536
2026-01-15 04:32:21.78	47.57	6.01	-55.5	-59.4	11.9	7.60e-06	0	27	0	41943040	77	5579
2026-01-15 04:32:22.78	47.49	6.07	-54.9	-58.4	12.6	7.00e-07	0	27	0	44040192	76	5263
2026-01-15 04:32:23.78	47.41	6.14	-55.0	-58.6	12.5	0.00e+00	0	27	0	46137344	76	5348
2026-01-15 04:32:24.77	47.32	6.20	-55.2	-58.9	12.3	7.00e-07	0	27	0	48234496	76	5561
2026-01-15 04:32:25.77	47.24	6.26	-55.1	-58.7	12.4	7.00e-07	0	27	0	49283072	76	5443
2026-01-15 04:32:26.77	47.16	6.33	-55.2	-58.8	12.3	0.00e+00	0	27	0	51380224	76	5499
2026-01-15 04:32:27.77	47.07	6.39	-55.2	-58.7	12.4	7.00e-07	0	27	0	53477376	76	5448
2026-01-15 04:32:28.77	46.99	6.45	-55.2	-58.9	12.2	1.50e-06	0	27	0	55574528	76	5545
2026-01-15 04:32:29.76	46.90	6.52	-55.1	-58.7	12.4	0.00e+00	0	27	0	56623104	76	5430
2026-01-15 04:32:30.76	46.82	6.58	-55.0	-58.4	12.7	0.00e+00	0	27	0	58720256	76	5225
2026-01-15 04:32:31.76	46.73	6.64	-55.0	-58.4	12.6	0.00e+00	0	27	0	60817408	76	5239
2026-01-15 04:32:32.76	46.64	6.71	-54.9	-58.3	12.7	0.00e+00	0	27	0	62914560	76	5174
2026-01-15 04:32:33.76	46.56	6.77	-54.9	-58.2	12.8	0.00e+00	0	27	0	65011712	76	5129
2026-01-15 04:32:34.77	46.47	6.84	-54.8	-58.0	12.8	0.00e+00	0	27	0	66060288	76	5027
2026-01-15 04:32:35.76	46.38	6.90	-54.3	-57.3	13.2	0.00e+00	0	27	0	68157440	75	4921
2026-01-15 04:32:36.76	46.29	6.96	-54.6	-57.7	13.0	0.00e+00	0	27	0	70254592	75	5150
2026-01-15 04:32:37.76	46.21	7.03	-54.6	-57.9	12.8	0.00e+00	0	27	0	72351744	75	5244
2026-01-15 04:32:38.77	46.12	7.09	-54.6	-57.8	12.9	0.00e+00	0	27	0	74448896	75	5196
2026-01-15 04:32:39.77	46.03	7.16	-54.6	-57.7	12.9	0.00e+00	0	27	0	75497472	75	5157
2026-01-15 04:32:40.77	45.94	7.22	-54.7	-58.1	12.7	0.00e+00	0	27	0	77594624	75	5343
2026-01-15 04:32:41.78	45.85	7.29	-54.7	-58.0	12.7	0.00e+00	0	27	0	79691776	75	5300
2026-01-15 04:32:42.78	45.76	7.35	-54.8	-58.2	12.6	0.00e+00	0	27	0	81788928	75	5446
2026-01-15 04:32:43.79	45.66	7.42	-54.9	-58.4	12.5	0.00e+00	0	27	0	83886080	75	5590
2026-01-15 04:32:44.79	45.57	7.48	-54.8	-58.3	12.5	0.00e+00	0	27	0	84934656	75	5527
2026-01-15 04:32:45.80	45.48	7.55	-54.9	-58.5	12.5	0.00e+00	0	27	0	87031808	75	5628
2026-01-15 04:32:46.81	45.39	7.61	-54.7	-58.0	12.8	0.00e+00	0	27	0	89128960	75	5325
2026-01-15 04:32:47.80	45.29	7.68	-54.8	-58.1	12.7	0.00e+00	0	27	0	91226112	75	5398
2026-01-15 04:32:48.81	45.20	7.75	-54.7	-58.2	12.7	0.00e+00	0	27	0	93323264	75	5404
2026-01-15 04:32:49.81	45.11	7.81	-54.8	-58.2	12.7	0.00e+00	0	27	0	94371840	75	5453
2026-01-15 04:32:50.81	45.01	7.88	-54.8	-58.4	12.6	0.00e+00	0	27	0	96468992	75	5541
2026-01-15 04:32:51.81	44.92	7.94	-54.7	-58.1	12.7	0.00e+00	0	27	0	98566144	75	5386
2026-01-15 04:32:52.81	44.82	8.01	-54.9	-58.4	12.5	0.00e+00	0	27	0	100663296	75	5547
2026-01-15 04:32:53.81	44.73	8.07	-54.9	-58.5	12.5	0.00e+00	0	27	0	101711872	75	5620
2026-01-15 04:32:54.80	44.63	8.14	-55.0	-58.6	12.5	0.00e+00	0	27	0	103809024	75	5664
2026-01-15 04:32:55.81	44.54	8.21	-55.0	-58.6	12.4	0.00e+00	0	27	0	105906176	75	5698
2026-01-15 04:32:56.81	44.44	8.27	-54.9	-58.5	12.5	7.00e-07	0	27	0	108003328	75	5637
2026-01-15 04:32:57.82	44.34	8.34	-54.6	-58.0	12.8	0.00e+00	0	27	0	110100480	75	5298
2026-01-15 04:32:58.82	44.24	8.41	-54.6	-58.0	12.9	0.00e+00	0	27	0	112197632	75	5284
2026-01-15 04:32:59.82	44.15	8.47	-54.6	-57.9	12.9	0.00e+00	0	27	0	113246208	75	5262
2026-01-15 04:33:00.83	44.05	8.54	-54.4	-57.5	13.2	0.00e+00	0	27	0	115343360	75	5034
2026-01-15 04:33:01.84	43.95	8.61	-54.4	-57.6	13.1	0.00e+00	0	27	0	117440512	75	5070
2026-01-15 04:33:02.83	43.85	8.67	-54.2	-57.3	13.3	0.00e+00	0	28	0	119537664	75	4884
2026-01-15 04:33:03.84	43.75	8.74	-54.1	-57.1	13.3	0.00e+00	0	27	0	120586240	74	5071
2026-01-15 04:33:04.84	43.65	8.81	-54.2	-57.3	13.2	0.00e+00	0	28	0	122683392	74	5174
2026-01-15 04:33:05.83	43.55	8.87	-54.2	-57.2	13.2	0.00e+00	0	27	0	124780544	74	5121
2026-01-15 04:33:06.83	43.45	8.94	-54.3	-57.3	13.2	0.00e+00	0	27	0	126877696	74	5206
2026-01-15 04:33:07.84	43.34	9.01	-54.1	-57.1	13.3	0.00e+00	0	27	0	128974848	74	5061
2026-01-15 04:33:08.84	43.24	9.08	-54.2	-57.2	13.3	0.00e+00	0	27	0	130023424	74	5155
2026-01-15 04:33:09.85	43.14	9.14	-54.0	-56.8	13.4	0.00e+00	0	27	0	132120576	74	4925
2026-01-15 04:33:10.84	43.03	9.21	-53.9	-56.8	13.5	0.00e+00	0	27	0	134217728	74	4883
2026-01-15 04:33:11.84	42.93	9.28	-54.0	-56.8	13.5	0.00e+00	0	27	0	136314880	74	4905
2026-01-15 04:33:12.84	42.83	9.35	-54.0	-56.9	13.4	0.00e+00	0	27	0	138412032	74	4933
2026-01-15 04:33:13.84	42.72	9.41	-53.9	-56.8	13.5	0.00e+00	0	28	0	139460608	74	4886
2026-01-15 04:33:14.84	42.62	9.48	-54.1	-57.0	13.3	0.00e+00	0	28	0	141557760	74	5039
2026-01-15 04:33:15.83	42.51	9.55	-54.1	-56.9	13.4	0.00e+00	0	27	0	143654912	74	4976
2026-01-15 04:33:16.84	42.40	9.62	-54.1	-57.1	13.4	0.00e+00	0	27	0	145752064	74	5060
2026-01-15 04:33:17.84	42.30	9.69	-54.2	-57.2	13.3	0.00e+00	0	28	0	147849216	74	5133
2026-01-15 04:33:18.84	42.19	9.76	-54.1	-57.0	13.4	0.00e+00	0	28	0	148897792	74	5011
2026-01-15 04:33:19.82	42.08	9.82	-54.3	-57.2	13.2	0.00e+00	0	27	0	150994944	74	5148
2026-01-15 04:33:20.83	41.97	9.89	-54.2	-57.1	13.3	0.00e+00	0	28	0	153092096	74	5071
2026-01-15 04:33:21.82	41.87	9.96	-54.0	-56.7	13.5	0.00e+00	0	28	0	155189248	74	4869
2026-01-15 04:33:22.82	41.76	10.03	-54.1	-57.0	13.4	0.00e+00	0	27	0	156237824	74	4990
2026-01-15 04:33:23.82	41.65	10.10	-54.1	-56.9	13.5	0.00e+00	0	27	0	158334976	74	4956
2026-01-15 04:33:24.81	41.54	10.16	-54.1	-56.9	13.5	0.00e+00	0	28	0	160432128	74	4961
2026-01-15 04:33:25.81	41.43	10.23	-54.1	-57.0	13.4	0.00e+00	0	27	0	162529280	74	4992
2026-01-15 04:33:26.81	41.32	10.30	-54.2	-57.1	13.4	0.00e+00	0	28	0	164626432	74	5055
2026-01-15 04:33:27.80	41.20	10.37	-54.4	-57.3	13.3	0.00e+00	0	28	0	165675008	74	5179
2026-01-15 04:33:28.80	41.09	10.44	-54.2	-57.0	13.4	0.00e+00	0	28	0	167772160	74	5032
2026-01-15 04:33:29.80	40.98	10.51	-54.3	-57.2	13.3	0.00e+00	0	28	0	169869312	74	5117
2026-01-15 04:33:30.80	40.86	10.58	-54.3	-57.1	13.3	0.00e+00	0	27	0	171966464	74	5094
2026-01-15 04:33:31.81	40.75	10.65	-54.2	-57.0	13.4	0.00e+00	0	27	0	173015040	74	5033
2026-01-15 04:33:32.80	40.64	10.72	-54.3	-57.1	13.3	0.00e+00	0	28	0	175112192	74	5089
2026-01-15 04:33:33.80	40.52	10.79	-54.4	-57.3	13.2	0.00e+00	0	28	0	177209344	74	5194
2026-01-15 04:33:34.80	40.40	10.86	-54.3	-57.2	13.3	0.00e+00	0	28	0	179306496	74	5113
2026-01-15 04:33:35.80	40.29	10.93	-54.6	-57.7	13.0	0.00e+00	0	27	0	181403648	74	5433
2026-01-15 04:33:36.79	40.17	10.99	-54.5	-57.5	13.2	0.00e+00	0	27	0	182452224	74	5285
2026-01-15 04:33:37.79	40.05	11.06	-54.5	-57.4	13.2	0.00e+00	0	28	0	184549376	74	5275
2026-01-15 04:33:38.79	39.94	11.13	-54.4	-57.4	13.2	0.00e+00	0	28	0	186646528	74	5227
2026-01-15 04:33:39.80	39.82	11.20	-54.3	-57.2	13.3	0.00e+00	0	28	0	188743680	74	5132
2026-01-15 04:33:40.81	39.69	11.28	-54.3	-57.2	13.3	0.00e+00	0	27	0	190840832	74	5154
2026-01-15 04:33:41.80	39.58	11.35	-54.5	-57.5	13.2	0.00e+00	0	28	0	191889408	74	5285
2026-01-15 04:33:42.80	39.45	11.42	-54.2	-57.0	13.4	0.00e+00	0	28	0	193986560	74	5009
2026-01-15 04:33:43.80	39.33	11.49	-54.1	-57.0	13.4	0.00e+00	0	28	0	196083712	74	4989
2026-01-15 04:33:44.79	39.21	11.56	-54.2	-57.0	13.4	0.00e+00	0	27	0	198180864	74	4992
2026-01-15 04:33:45.80	39.09	11.63	-54.1	-56.9	13.5	0.00e+00	0	28	0	199229440	74	4973
2026-01-15 04:33:46.80	38.97	11.70	-54.0	-56.8	13.5	0.00e+00	0	27	0	201326592	74	4886
2026-01-15 04:33:47.80	38.84	11.77	-54.0	-56.7	13.6	0.00e+00	0	28	0	203423744	74	4823
2026-01-15 04:33:48.79	38.72	11.84	-53.8	-56.5	13.7	0.00e+00	0	28	0	205520896	74	4715
2026-01-15 04:33:49.80	38.59	11.91	-53.7	-56.3	13.8	0.00e+00	0	28	0	207618048	74	4609
2026-01-15 04:33:50.79	38.47	11.98	-53.7	-56.3	13.8	0.00e+00	0	28	0	208666624	74	4607
2026-01-15 04:33:51.79	38.34	12.05	-53.8	-56.3	13.8	0.00e+00	0	27	0	210763776	74	4641
2026-01-15 04:33:52.79	38.22	12.12	-53.9	-56.5	13.7	0.00e+00	0	28	0	212860928	74	4730
2026-01-15 04:33:53.80	38.09	12.19	-53.7	-56.3	13.8	0.00e+00	0	28	0	214958080	74	4639
2026-01-15 04:33:54.79	37.96	12.26	-53.9	-56.6	13.7	0.00e+00	0	28	0	217055232	74	4774
2026-01-15 04:33:55.79	37.83	12.33	-53.6	-56.2	13.8	0.00e+00	0	27	0	218103808	73	4840
2026-01-15 04:33:56.80	37.70	12.41	-53.4	-55.8	13.9	0.00e+00	0	28	0	220200960	73	4636
2026-01-15 04:33:57.80	37.57	12.48	-53.4	-55.9	13.9	0.00e+00	0	28	0	222298112	73	4689
2026-01-15 04:33:58.80	37.44	12.55	-53.4	-55.9	13.9	0.00e+00	0	28	0	224395264	73	4676
2026-01-15 04:33:59.80	37.31	12.62	-53.5	-55.9	13.9	0.00e+00	0	28	0	226492416	73	4700
2026-01-15 04:34:00.81	37.18	12.69	-53.5	-56.0	13.8	0.00e+00	0	28	0	227540992	73	4756
2026-01-15 04:34:01.81	37.04	12.76	-53.5	-55.9	13.9	0.00e+00	0	28	0	229638144	73	4704
2026-01-15 04:34:02.81	36.91	12.83	-53.4	-55.9	13.9	0.00e+00	0	28	0	231735296	73	4665
2026-01-15 04:34:03.81	36.78	12.91	-53.5	-55.9	13.9	0.00e+00	0	28	0	233832448	73	4704
2026-01-15 04:34:04.82	36.64	12.98	-53.6	-56.0	13.9	0.00e+00	0	28	0	234881024	73	4747
2026-01-15 04:34:05.81	36.51	13.05	-53.6	-56.1	13.8	0.00e+00	0	28	0	236978176	73	4811
2026-01-15 04:34:06.82	36.37	13.12	-53.5	-56.0	13.9	0.00e+00	0	28	0	239075328	73	4706
2026-01-15 04:34:07.83	36.23	13.19	-53.4	-55.7	14.0	0.00e+00	0	28	0	241172480	73	4594
2026-01-15 04:34:08.83	36.10	13.27	-53.4	-55.7	14.0	0.00e+00	0	28	0	243269632	73	4572
2026-01-15 04:34:09.83	35.96	13.34	-53.4	-55.8	13.9	0.00e+00	0	28	0	244318208	73	4631
2026-01-15 04:34:10.82	35.82	13.41	-53.4	-55.7	14.0	0.00e+00	0	28	0	246415360	73	4563
2026-01-15 04:34:11.81	35.68	13.48	-53.3	-55.7	14.0	0.00e+00	0	28	0	248512512	73	4555
2026-01-15 04:34:12.81	35.54	13.55	-53.3	-55.7	14.0	0.00e+00	0	28	0	250609664	73	4561
2026-01-15 04:34:13.81	35.40	13.62	-53.4	-55.8	13.9	0.00e+00	0	28	0	252706816	73	4634
2026-01-15 04:34:14.81	35.26	13.70	-53.6	-56.0	13.8	0.00e+00	0	28	0	253755392	73	4742
2026-01-15 04:34:15.81	35.12	13.77	-53.4	-55.8	13.9	0.00e+00	0	28	0	255852544	73	4635
2026-01-15 04:34:16.81	34.98	13.84	-53.3	-55.7	14.0	0.00e+00	0	28	0	257949696	73	4589
2026-01-15 04:34:17.80	34.83	13.91	-53.2	-55.6	14.0	0.00e+00	0	28	0	260046848	73	4510
2026-01-15 04:34:18.79	34.69	13.98	-53.0	-55.3	14.0	0.00e+00	0	28	0	261095424	72	4634
2026-01-15 04:34:19.79	34.55	14.06	-53.1	-55.4	14.0	0.00e+00	0	28	0	263192576	72	4686
2026-01-15 04:34:20.79	34.40	14.13	-53.1	-55.5	14.0	0.00e+00	0	28	0	265289728	72	4733
2026-01-15 04:34:21.79	34.25	14.20	-53.3	-55.7	13.9	0.00e+00	0	28	0	267386880	72	4861
2026-01-15 04:34:22.78	34.11	14.27	-53.4	-55.9	13.7	0.00e+00	0	28	0	269484032	72	4979
2026-01-15 04:34:23.78	33.96	14.35	-53.4	-55.9	13.8	0.00e+00	0	28	0	270532608	72	4978
2026-01-15 04:34:24.77	33.81	14.42	-53.5	-56.1	13.7	0.00e+00	0	28	0	272629760	72	5042
2026-01-15 04:34:25.77	33.66	14.49	-53.5	-56.1	13.7	0.00e+00	0	28	0	274726912	72	5049
2026-01-15 04:34:26.77	33.51	14.56	-53.3	-55.8	13.8	0.00e+00	0	28	0	276824064	72	4900
2026-01-15 04:34:27.76	33.36	14.63	-53.4	-56.0	13.7	0.00e+00	0	28	0	277872640	72	5024
2026-01-15 04:34:28.76	33.21	14.71	-53.6	-56.3	13.6	0.00e+00	0	28	0	279969792	72	5169
2026-01-15 04:34:29.76	33.06	14.78	-53.6	-56.3	13.6	0.00e+00	0	28	0	282066944	72	5181
2026-01-15 04:34:30.76	32.91	14.85	-53.8	-56.6	13.5	0.00e+00	0	28	0	284164096	72	5364
2026-01-15 04:34:31.76	32.75	14.92	-53.9	-56.7	13.5	0.00e+00	0	28	0	286261248	73	5116
2026-01-15 04:34:32.77	32.60	15.00	-53.9	-56.7	13.5	0.00e+00	0	28	0	287309824	73	5120
2026-01-15 04:34:33.77	32.44	15.07	-53.9	-56.6	13.6	0.00e+00	0	28	0	289406976	73	5058
2026-01-15 04:34:34.77	32.29	15.14	-53.7	-56.3	13.7	0.00e+00	0	28	0	291504128	73	4922
2026-01-15 04:34:35.76	32.13	15.21	-53.7	-56.3	13.7	0.00e+00	0	28	0	293601280	73	4917
2026-01-15 04:34:36.76	31.97	15.29	-53.7	-56.4	13.7	0.00e+00	0	28	0	295698432	73	4930
2026-01-15 04:34:37.76	31.82	15.36	-53.8	-56.4	13.6	0.00e+00	0	28	0	296747008	73	4953
2026-01-15 04:34:38.76	31.66	15.43	-53.8	-56.4	13.6	0.00e+00	0	28	0	298844160	73	4955
2026-01-15 04:34:39.76	31.50	15.50	-53.8	-56.5	13.6	0.00e+00	0	28	0	300941312	73	5001
2026-01-15 04:34:40.76	31.34	15.58	-53.7	-56.4	13.7	0.00e+00	0	28	0	303038464	73	4933
2026-01-15 04:34:41.75	31.18	15.65	-53.9	-56.5	13.6	0.00e+00	0	28	0	305135616	73	5023
2026-01-15 04:34:42.76	31.01	15.72	-53.9	-56.6	13.6	0.00e+00	0	28	0	306184192	73	5070
2026-01-15 04:34:43.76	30.85	15.79	-53.8	-56.5	13.6	0.00e+00	0	28	0	308281344	73	5000
2026-01-15 04:34:44.76	30.68	15.86	-53.9	-56.6	13.6	0.00e+00	0	28	0	310378496	73	5047
2026-01-15 04:34:45.76	30.52	15.94	-53.9	-56.6	13.5	0.00e+00	0	28	0	312475648	73	5075
2026-01-15 04:34:46.76	30.35	16.01	-54.0	-56.8	13.4	0.00e+00	0	28	0	313524224	73	5179
2026-01-15 04:34:47.77	30.19	16.08	-54.1	-57.1	13.3	0.00e+00	0	28	0	315621376	73	5355
2026-01-15 04:34:48.76	30.02	16.15	-54.2	-57.1	13.3	0.00e+00	0	28	0	317718528	73	5391
2026-01-15 04:34:49.77	29.85	16.23	-54.1	-57.0	13.3	0.00e+00	0	28	0	319815680	73	5324
2026-01-15 04:34:50.77	29.68	16.30	-53.9	-56.6	13.5	0.00e+00	0	28	0	321912832	73	5094
2026-01-15 04:34:51.77	29.51	16.37	-53.8	-56.5	13.6	0.00e+00	0	28	0	322961408	73	5038
2026-01-15 04:34:52.76	29.34	16.44	-53.8	-56.5	13.6	0.00e+00	0	28	0	325058560	73	4999
2026-01-15 04:34:53.76	29.17	16.51	-53.9	-56.6	13.5	0.00e+00	0	28	0	327155712	73	5095
2026-01-15 04:34:54.76	29.00	16.59	-54.0	-56.7	13.5	0.00e+00	0	28	0	329252864	73	5124
2026-01-15 04:34:55.76	28.83	16.66	-53.8	-56.4	13.6	0.00e+00	0	28	0	331350016	73	4962
2026-01-15 04:34:56.76	28.65	16.73	-53.8	-56.5	13.6	0.00e+00	0	28	0	332398592	73	5021
2026-01-15 04:34:57.76	28.48	16.80	-53.7	-56.3	13.7	0.00e+00	0	28	0	334495744	73	4916
2026-01-15 04:34:58.76	28.30	16.87	-53.7	-56.3	13.7	0.00e+00	0	28	0	336592896	73	4916
2026-01-15 04:34:59.77	28.12	16.95	-53.6	-56.2	13.7	0.00e+00	0	28	0	338690048	73	4848
2026-01-15 04:35:00.77	27.95	17.02	-53.7	-56.3	13.7	0.00e+00	0	28	0	340787200	73	4901
2026-01-15 04:35:01.77	27.77	17.09	-53.7	-56.3	13.7	0.00e+00	0	28	0	341835776	73	4909
2026-01-15 04:35:02.77	27.59	17.16	-53.7	-56.4	13.7	0.00e+00	0	28	0	343932928	73	4954
2026-01-15 04:35:03.76	27.41	17.23	-53.7	-56.4	13.6	0.00e+00	0	28	0	346030080	73	4968
2026-01-15 04:35:04.75	27.23	17.30	-53.6	-56.2	13.7	0.00e+00	0	28	0	348127232	73	4869
2026-01-15 04:35:05.75	27.05	17.37	-53.5	-56.1	13.8	0.00e+00	0	28	0	349175808	73	4774
2026-01-15 04:35:06.75	26.87	17.44	-53.5	-56.0	13.8	0.00e+00	0	28	0	351272960	73	4740
2026-01-15 04:35:07.74	26.69	17.51	-53.6	-56.1	13.8	0.00e+00	0	28	0	353370112	73	4772
2026-01-15 04:35:08.74	26.50	17.58	-53.5	-56.1	13.8	0.00e+00	0	28	0	355467264	73	4760
2026-01-15 04:35:09.74	26.32	17.66	-54.0	-56.8	13.5	0.00e+00	0	28	0	357564416	73	5206
2026-01-15 04:35:10.74	26.13	17.73	-54.1	-56.9	13.4	0.00e+00	0	28	0	358612992	73	5276
2026-01-15 04:35:11.74	25.94	17.80	-54.1	-57.0	13.4	0.00e+00	0	28	0	360710144	73	5286
2026-01-15 04:35:12.74	25.76	17.87	-54.1	-56.9	13.4	0.00e+00	0	28	0	362807296	73	5236
2026-01-15 04:35:13.73	25.57	17.94	-53.8	-56.5	13.6	0.00e+00	0	28	0	364904448	73	5025
2026-01-15 04:35:14.73	25.38	18.01	-53.9	-56.6	13.6	0.00e+00	0	28	0	367001600	73	5059
2026-01-15 04:35:15.73	25.19	18.08	-53.6	-56.2	13.8	0.00e+00	0	28	0	368050176	73	4832
2026-01-15 04:35:16.73	25.00	18.15	-53.6	-56.1	13.8	0.00e+00	0	28	0	370147328	73	4772
2026-01-15 04:35:17.73	24.81	18.22	-53.6	-56.1	13.8	0.00e+00	0	28	0	372244480	73	4787
2026-01-15 04:35:18.73	24.61	18.29	-53.5	-56.0	13.9	0.00e+00	0	28	0	374341632	73	4742
2026-01-15 04:35:19.72	24.42	18.36	-53.5	-55.9	13.9	0.00e+00	0	28	0	375390208	73	4701
2026-01-15 04:35:20.72	24.23	18.42	-53.2	-55.5	14.1	0.00e+00	0	28	0	377487360	72	4715
2026-01-15 04:35:21.72	24.03	18.49	-52.9	-55.1	14.2	0.00e+00	0	28	0	379584512	72	4527
2026-01-15 04:35:22.72	23.83	18.56	-52.9	-55.1	14.2	0.00e+00	0	28	0	381681664	72	4531
2026-01-15 04:35:23.72	23.64	18.63	-53.1	-55.5	14.0	0.00e+00	0	28	0	383778816	72	4740
2026-01-15 04:35:24.72	23.44	18.70	-53.2	-55.7	14.0	0.00e+00	0	28	0	384827392	72	4822
2026-01-15 04:35:25.72	23.24	18.77	-53.3	-55.8	13.9	0.00e+00	0	28	0	386924544	72	4884
2026-01-15 04:35:26.71	23.04	18.84	-53.1	-55.5	14.0	0.00e+00	0	28	0	389021696	72	4758
2026-01-15 04:35:27.71	22.84	18.90	-52.8	-55.2	14.0	0.00e+00	0	28	0	391118848	71	4840
2026-01-15 04:35:28.70	22.64	18.97	-52.7	-55.0	14.1	0.00e+00	0	28	0	392167424	71	4727
2026-01-15 04:35:29.70	22.44	19.04	-52.5	-54.8	14.2	0.00e+00	0	28	0	394264576	71	4628
2026-01-15 04:35:30.69	22.23	19.11	-52.4	-54.6	14.3	0.00e+00	0	28	0	396361728	71	4512
2026-01-15 04:35:31.68	22.03	19.17	-52.4	-54.6	14.3	0.00e+00	0	28	0	398458880	71	4521
2026-01-15 04:35:32.68	21.83	19.24	-52.4	-54.5	14.3	0.00e+00	0	28	0	400556032	71	4490
2026-01-15 04:35:33.69	21.62	19.31	-52.3	-54.4	14.4	0.00e+00	0	28	0	401604608	71	4419
2026-01-15 04:35:34.69	21.41	19.38	-52.3	-54.4	14.4	0.00e+00	0	28	0	403701760	71	4432
2026-01-15 04:35:35.68	21.20	19.44	-52.1	-54.1	14.4	0.00e+00	0	28	0	405798912	70	4537
2026-01-15 04:35:36.68	20.99	19.51	-52.1	-54.1	14.3	0.00e+00	0	28	0	407896064	70	4537
2026-01-15 04:35:37.68	20.78	19.57	-52.3	-54.4	14.3	0.00e+00	0	28	0	409993216	70	4666
2026-01-15 04:35:38.68	20.57	19.64	-52.5	-54.7	14.2	0.00e+00	0	28	0	411041792	70	4841
2026-01-15 04:35:39.67	20.36	19.70	-52.4	-54.6	14.2	0.00e+00	0	28	0	413138944	70	4810
2026-01-15 04:35:40.67	20.15	19.77	-52.4	-54.6	14.2	0.00e+00	0	28	0	415236096	70	4764
2026-01-15 04:35:41.67	19.93	19.84	-52.3	-54.4	14.3	0.00e+00	0	28	0	417333248	70	4684
2026-01-15 04:35:42.67	19.72	19.90	-52.3	-54.4	14.3	0.00e+00	0	28	0	419430400	70	4655
2026-01-15 04:35:43.67	19.50	19.96	-52.1	-54.2	14.4	0.00e+00	0	28	0	420478976	70	4581
2026-01-15 04:35:44.67	19.29	20.03	-52.1	-54.1	14.4	0.00e+00	0	28	0	422576128	70	4541
2026-01-15 04:35:45.68	19.07	20.09	-52.0	-54.1	14.4	0.00e+00	0	28	0	424673280	70	4504
2026-01-15 04:35:46.67	18.85	20.16	-51.9	-53.9	14.5	0.00e+00	0	28	0	426770432	70	4432
2026-01-15 04:35:47.66	18.63	20.22	-52.1	-54.2	14.4	0.00e+00	0	28	0	427819008	70	4577
2026-01-15 04:35:48.66	18.41	20.28	-52.3	-54.4	14.3	0.00e+00	0	28	0	429916160	70	4690
2026-01-15 04:35:49.66	18.19	20.35	-52.2	-54.4	14.3	0.00e+00	0	28	0	432013312	70	4655
2026-01-15 04:35:50.66	17.97	20.41	-52.3	-54.4	14.3	0.00e+00	0	28	0	434110464	70	4690
2026-01-15 04:35:51.66	17.75	20.47	-52.1	-54.2	14.4	0.00e+00	0	28	0	436207616	70	4550
2026-01-15 04:35:52.67	17.52	20.53	-52.3	-54.4	14.3	0.00e+00	0	28	0	437256192	70	4673
2026-01-15 04:35:53.66	17.30	20.60	-52.3	-54.5	14.3	0.00e+00	0	28	0	439353344	70	4707
2026-01-15 04:35:54.67	17.07	20.66	-52.1	-54.1	14.4	0.00e+00	0	28	0	441450496	70	4531
2026-01-15 04:35:55.67	16.84	20.72	-52.1	-54.1	14.4	0.00e+00	0	28	0	443547648	70	4543
2026-01-15 04:35:56.67	16.61	20.78	-51.9	-53.9	14.5	0.00e+00	0	28	0	444596224	70	4398
2026-01-15 04:35:57.66	16.39	20.84	-51.8	-53.8	14.6	0.00e+00	0	28	0	446693376	70	4344
2026-01-15 04:35:58.65	16.16	20.90	-51.7	-53.6	14.6	0.00e+00	0	28	0	448790528	70	4288
2026-01-15 04:35:59.64	15.93	20.96	-51.8	-53.8	14.5	0.00e+00	0	28	0	450887680	69	4600
2026-01-15 04:36:00.65	15.70	21.02	-51.8	-53.7	14.5	0.00e+00	0	28	0	452984832	69	4593
2026-01-15 04:36:01.65	15.47	21.08	-51.9	-53.8	14.4	0.00e+00	0	28	0	454033408	69	4625
2026-01-15 04:36:02.64	15.23	21.14	-51.8	-53.7	14.5	0.00e+00	0	28	0	456130560	69	4557
2026-01-15 04:36:03.63	15.00	21.19	-51.8	-53.7	14.5	0.00e+00	0	28	0	458227712	69	4574
2026-01-15 04:36:04.63	14.77	21.25	-51.6	-53.4	14.6	0.00e+00	0	28	0	460324864	69	4426
2026-01-15 04:36:05.62	14.53	21.31	-51.5	-53.3	14.7	0.00e+00	0	28	0	462422016	69	4359
2026-01-15 04:36:06.62	14.30	21.36	-51.7	-53.5	14.6	0.00e+00	0	28	0	463470592	69	4477
2026-01-15 04:36:07.62	14.06	21.42	-51.8	-53.7	14.5	0.00e+00	0	28	0	465567744	69	4553
2026-01-15 04:36:08.62	13.82	21.48	-51.7	-53.5	14.6	0.00e+00	0	28	0	467664896	69	4473
2026-01-15 04:36:09.62	13.58	21.53	-51.7	-53.5	14.6	0.00e+00	0	28	0	469762048	69	4470
2026-01-15 04:36:10.62	13.34	21.59	-51.5	-53.3	14.7	0.00e+00	0	28	0	470810624	69	4385
2026-01-15 04:36:11.62	13.10	21.64	-51.6	-53.4	14.6	0.00e+00	0	28	0	472907776	69	4396
2026-01-15 04:36:12.62	12.86	21.70	-51.6	-53.4	14.7	0.00e+00	0	28	0	475004928	69	4399
2026-01-15 04:36:13.61	12.62	21.75	-51.6	-53.5	14.6	0.00e+00	0	28	0	477102080	69	4444
2026-01-15 04:36:14.61	12.37	21.81	-51.6	-53.5	14.6	0.00e+00	0	28	0	479199232	69	4443
2026-01-15 04:36:15.60	12.13	21.86	-51.7	-53.5	14.6	0.00e+00	0	28	0	480247808	69	4457
2026-01-15 04:36:16.60	11.89	21.91	-51.5	-53.3	14.7	0.00e+00	0	28	0	482344960	69	4355
2026-01-15 04:36:17.61	11.64	21.97	-51.5	-53.3	14.7	0.00e+00	0	28	0	484442112	69	4369
2026-01-15 04:36:18.61	11.39	22.02	-51.5	-53.3	14.7	0.00e+00	0	28	0	486539264	69	4341
2026-01-15 04:36:19.61	11.14	22.07	-51.6	-53.4	14.7	0.00e+00	0	28	0	487587840	69	4438
2026-01-15 04:36:20.61	10.89	22.12	-52.0	-53.9	14.5	0.00e+00	0	28	0	489684992	69	4652
2026-01-15 04:36:21.60	10.65	22.17	-51.9	-53.8	14.5	0.00e+00	0	28	0	491782144	69	4621
2026-01-15 04:36:22.60	10.40	22.22	-51.8	-53.6	14.5	0.00e+00	0	28	0	493879296	69	4523
2026-01-15 04:36:23.61	10.14	22.27	-51.7	-53.5	14.6	0.00e+00	0	28	0	495976448	69	4464
2026-01-15 04:36:24.60	9.89	22.32	-51.6	-53.4	14.6	0.00e+00	0	28	0	497025024	69	4412
2026-01-15 04:36:25.59	9.64	22.37	-51.7	-53.5	14.6	0.00e+00	0	28	0	499122176	69	4488
2026-01-15 04:36:26.59	9.39	22.42	-51.9	-53.8	14.5	0.00e+00	0	28	0	501219328	69	4616
2026-01-15 04:36:27.59	9.14	22.46	-51.8	-53.7	14.5	0.00e+00	0	28	0	503316480	69	4551
2026-01-15 04:36:28.58	8.88	22.51	-51.7	-53.5	14.6	0.00e+00	0	28	0	505413632	69	4468
2026-01-15 04:36:29.57	8.63	22.56	-51.7	-53.5	14.6	0.00e+00	0	28	0	506462208	69	4472
2026-01-15 04:36:30.57	8.37	22.60	-51.6	-53.4	14.6	0.00e+00	0	28	0	508559360	69	4418
2026-01-15 04:36:31.56	8.12	22.65	-51.9	-53.7	14.5	0.00e+00	0	28	0	510656512	69	4594
2026-01-15 04:36:32.56	7.86	22.69	-51.8	-53.6	14.6	0.00e+00	0	28	0	512753664	69	4519
2026-01-15 04:36:33.56	7.60	22.74	-51.7	-53.5	14.6	0.00e+00	0	28	0	513802240	69	4460
2026-01-15 04:36:34.55	7.34	22.78	-51.6	-53.4	14.6	0.00e+00	0	28	0	515899392	69	4403
2026-01-15 04:36:35.54	7.09	22.82	-51.5	-53.3	14.7	0.00e+00	0	28	0	517996544	69	4351
2026-01-15 04:36:36.54	6.82	22.87	-51.5	-53.2	14.7	0.00e+00	0	28	0	520093696	69	4314
2026-01-15 04:36:37.54	6.56	22.91	-51.5	-53.3	14.7	0.00e+00	0	28	0	522190848	69	4346
2026-01-15 04:36:38.54	6.30	22.95	-51.5	-53.2	14.7	0.00e+00	0	28	0	523239424	69	4325
2026-01-15 04:36:39.54	6.04	22.99	-51.4	-53.1	14.8	0.00e+00	0	28	0	525336576	69	4252
2026-01-15 04:36:40.54	5.77	23.03	-51.5	-53.2	14.7	0.00e+00	0	28	0	527433728	69	4294
2026-01-15 04:36:41.55	5.51	23.07	-51.4	-53.1	14.8	0.00e+00	0	28	0	529530880	69	4244
2026-01-15 04:36:42.54	5.24	23.11	-51.4	-53.1	14.7	0.00e+00	0	28	0	531628032	69	4286
2026-01-15 04:36:43.54	4.98	23.15	-51.5	-53.2	14.7	0.00e+00	0	28	0	532676608	69	4322
2026-01-15 04:36:44.54	4.71	23.19	-51.8	-53.6	14.6	0.00e+00	0	28	0	534773760	69	4506
2026-01-15 04:36:45.54	4.44	23.22	-52.0	-53.8	14.5	0.00e+00	0	28	0	536870912	69	4636
2026-01-15 04:36:46.54	4.17	23.26	-52.2	-54.1	14.4	0.00e+00	0	28	0	538968064	69	4800
2026-01-15 04:36:47.54	3.91	23.30	-52.4	-54.4	14.4	0.00e+00	0	28	0	540016640	70	4652
2026-01-15 04:36:48.54	3.64	23.33	-52.5	-54.5	14.3	0.00e+00	0	28	0	542113792	70	4749
2026-01-15 04:36:49.55	3.36	23.37	-52.6	-54.6	14.3	0.00e+00	0	28	0	544210944	70	4801
2026-01-15 04:36:50.55	3.09	23.40	-53.0	-55.1	14.2	0.00e+00	0	28	0	546308096	71	4810
2026-01-15 04:36:51.54	2.83	23.44	-53.3	-55.6	14.0	0.00e+00	0	28	0	548405248	71	5045
2026-01-15 04:36:52.54	2.55	23.47	-53.5	-55.9	13.9	0.00e+00	0	28	0	549453824	72	4972
2026-01-15 04:36:53.54	2.28	23.50	-53.8	-56.3	13.7	0.00e+00	0	28	0	551550976	72	5189
2026-01-15 04:36:54.54	2.01	23.53	-53.7	-56.1	13.8	0.00e+00	0	28	0	553648128	72	5072
2026-01-15 04:36:55.54	1.74	23.56	-53.4	-55.7	14.0	0.00e+00	0	28	0	555745280	72	4840
2026-01-15 04:36:56.54	1.46	23.59	-53.1	-55.2	14.2	0.00e+00	0	28	0	557842432	72	4592
2026-01-15 04:36:57.53	1.19	23.62	-52.8	-54.9	14.4	0.00e+00	0	28	0	558891008	72	4404
2026-01-15 04:36:58.54	0.91	23.65	-52.6	-54.6	14.4	0.00e+00	0	28	0	560988160	71	4505
2026-01-15 04:36:59.53	0.64	23.68	-52.8	-54.9	14.3	0.00e+00	0	28	0	563085312	71	4674
2026-01-15 04:37:00.53	0.36	23.71	-53.0	-55.2	14.1	0.00e+00	0	28	0	565182464	71	4837
2026-01-15 04:37:01.53	0.09	23.73	-53.0	-55.1	14.2	0.00e+00	0	28	0	567279616	71	4813
2026-01-15 04:37:02.53	359.81	23.76	-52.9	-55.0	14.2	0.00e+00	0	28	0	568328192	71	4736
2026-01-15 04:37:03.53	359.53	23.79	-52.8	-54.9	14.2	0.00e+00	0	28	0	570425344	71	4691
2026-01-15 04:37:04.53	359.26	23.81	-52.5	-54.6	14.4	0.00e+00	0	28	0	572522496	71	4504
2026-01-15 04:37:05.52	358.98	23.84	-52.5	-54.5	14.4	0.00e+00	0	28	0	574619648	71	4487
2026-01-15 04:37:06.52	358.70	23.86	-52.9	-55.1	14.1	0.00e+00	0	28	0	575668224	71	4773
2026-01-15 04:37:07.52	358.42	23.88	-53.1	-55.4	14.0	0.00e+00	0	28	0	577765376	71	4946
2026-01-15 04:37:08.51	358.15	23.90	-53.3	-55.7	13.9	0.00e+00	0	28	0	579862528	71	5151
2026-01-15 04:37:09.51	357.87	23.92	-53.4	-55.8	13.9	0.00e+00	0	28	0	581959680	72	4917
2026-01-15 04:37:10.51	357.59	23.94	-53.1	-55.3	14.1	0.00e+00	0	28	0	584056832	72	4650
2026-01-15 04:37:11.51	357.30	23.96	-53.0	-55.2	14.1	0.00e+00	0	28	0	585105408	72	4585
2026-01-15 04:37:12.52	357.02	23.98	-53.2	-55.5	14.1	0.00e+00	0	28	0	587202560	72	4707
2026-01-15 04:37:13.52	356.74	24.00	-53.3	-55.6	14.0	0.00e+00	0	28	0	589299712	72	4804
2026-01-15 04:37:14.52	356.46	24.02	-53.6	-56.1	13.8	0.00e+00	0	28	0	591396864	72	5043
2026-01-15 04:37:15.52	356.18	24.04	-54.0	-56.6	13.6	0.00e+00	0	28	0	592445440	73	5072
2026-01-15 04:37:16.52	355.89	24.05	-53.9	-56.5	13.6	0.00e+00	0	28	0	594542592	73	5033
2026-01-15 04:37:17.51	355.61	24.07	-53.6	-56.1	13.9	0.00e+00	0	28	0	596639744	73	4800
2026-01-15 04:37:18.51	355.33	24.08	-53.6	-56.0	13.9	0.00e+00	0	28	0	598736896	73	4742
2026-01-15 04:37:19.51	355.05	24.10	-53.2	-55.5	14.2	0.00e+00	0	28	0	600834048	73	4471
2026-01-15 04:37:20.50	354.77	24.11	-53.3	-55.6	14.2	0.00e+00	0	28	0	601882624	73	4526
2026-01-15 04:37:21.49	354.49	24.12	-53.4	-55.7	14.1	0.00e+00	0	28	0	603979776	73	4586
2026-01-15 04:37:22.48	354.21	24.13	-53.7	-56.2	13.9	0.00e+00	0	28	0	606076928	73	4836
2026-01-15 04:37:23.48	353.92	24.14	-53.9	-56.5	13.7	0.00e+00	0	28	0	608174080	73	5035
2026-01-15 04:37:24.49	353.64	24.15	-54.1	-56.8	13.6	0.00e+00	0	28	0	610271232	73	5173
2026-01-15 04:37:25.49	353.35	24.16	-54.0	-56.7	13.6	0.00e+00	0	28	0	611319808	73	5128
2026-01-15 04:37:26.49	353.07	24.17	-53.9	-56.5	13.7	0.00e+00	0	28	0	613416960	73	5038
2026-01-15 04:37:27.49	352.78	24.18	-53.7	-56.2	13.8	0.00e+00	0	28	0	615514112	73	4851
2026-01-15 04:37:28.48	352.50	24.19	-53.7	-56.2	13.9	0.00e+00	0	28	0	617611264	73	4850
2026-01-15 04:37:29.48	352.22	24.19	-53.8	-56.4	13.8	0.00e+00	0	28	0	618659840	73	4928
2026-01-15 04:37:30.47	351.93	24.20	-53.6	-56.2	13.9	0.00e+00	0	28	0	620756992	73	4833
2026-01-15 04:37:31.47	351.65	24.20	-53.5	-56.0	14.0	0.00e+00	0	28	0	622854144	73	4711
2026-01-15 04:37:32.47	351.36	24.21	-53.4	-55.7	14.1	0.00e+00	0	28	0	624951296	73	4589
2026-01-15 04:37:33.47	351.08	24.21	-53.0	-55.2	14.2	0.00e+00	0	28	0	627048448	72	4561
2026-01-15 04:37:34.47	350.79	24.21	-52.6	-54.7	14.3	0.00e+00	0	28	0	628097024	71	4583
2026-01-15 04:37:35.46	350.51	24.21	-52.7	-54.8	14.3	0.00e+00	0	28	0	630194176	71	4643
2026-01-15 04:37:36.46	350.23	24.21	-52.8	-55.0	14.2	0.00e+00	0	28	0	632291328	71	4757
2026-01-15 04:37:37.46	349.94	24.21	-53.1	-55.4	14.0	0.00e+00	0	28	0	634388480	71	4968
2026-01-15 04:37:38.46	349.66	24.21	-53.3	-55.8	13.8	0.00e+00	0	28	0	635437056	71	5210
2026-01-15 04:37:39.46	349.37	24.21	-53.6	-56.2	13.7	0.00e+00	0	28	0	637534208	72	5103
2026-01-15 04:37:40.46	349.08	24.21	-53.6	-56.2	13.7	0.00e+00	0	28	0	639631360	72	5139
2026-01-15 04:37:41.46	348.80	24.21	-53.4	-55.9	13.8	0.00e+00	0	28	0	641728512	72	4979
2026-01-15 04:37:42.46	348.51	24.20	-53.1	-55.5	14.1	0.00e+00	0	28	0	643825664	72	4724
2026-01-15 04:37:43.45	348.23	24.20	-52.9	-55.2	14.2	0.00e+00	0	28	0	644874240	72	4554
2026-01-15 04:37:44.45	347.95	24.19	-52.7	-54.9	14.2	0.00e+00	0	28	0	646971392	71	4687
2026-01-15 04:37:45.45	347.66	24.19	-52.5	-54.7	14.3	0.00e+00	0	28	0	649068544	71	4563
2026-01-15 04:37:46.45	347.38	24.18	-52.5	-54.6	14.4	0.00e+00	0	28	0	651165696	71	4504
2026-01-15 04:37:47.44	347.10	24.17	-52.5	-54.7	14.3	0.00e+00	0	28	0	653262848	71	4559
2026-01-15 04:37:48.44	346.81	24.16	-52.5	-54.7	14.3	0.00e+00	0	28	0	654311424	71	4552
2026-01-15 04:37:49.44	346.53	24.16	-52.4	-54.5	14.4	0.00e+00	0	28	0	656408576	71	4484
2026-01-15 04:37:50.44	346.24	24.15	-52.5	-54.5	14.4	0.00e+00	0	28	0	658505728	71	4490
2026-01-15 04:37:51.44	345.96	24.13	-52.4	-54.4	14.4	0.00e+00	0	28	0	660602880	71	4408
2026-01-15 04:37:52.44	345.68	24.12	-51.9	-53.8	14.6	0.00e+00	0	28	0	662700032	70	4387
2026-01-15 04:37:53.44	345.39	24.11	-52.0	-53.8	14.6	0.00e+00	0	28	0	663748608	70	4374
2026-01-15 04:37:54.44	345.11	24.10	-51.7	-53.5	14.7	0.00e+00	0	28	0	665845760	70	4240
2026-01-15 04:37:55.45	344.82	24.08	-52.1	-54.0	14.5	0.00e+00	0	28	0	667942912	70	4468
2026-01-15 04:37:56.45	344.54	24.07	-52.5	-54.5	14.3	0.00e+00	0	28	0	670040064	70	4721
2026-01-15 04:37:57.44	344.26	24.05	-52.7	-54.8	14.2	0.00e+00	0	28	0	671088640	70	4902
2026-01-15 04:37:58.44	343.98	24.04	-52.5	-54.5	14.3	0.00e+00	0	28	0	673185792	70	4737
2026-01-15 04:37:59.43	343.70	24.02	-52.3	-54.2	14.4	0.00e+00	0	28	0	675282944	70	4598
2026-01-15 04:38:00.43	343.42	24.00	-52.1	-53.9	14.6	0.00e+00	0	28	0	677380096	70	4404
2026-01-15 04:38:01.42	343.14	23.99	-52.1	-53.9	14.6	0.00e+00	0	28	0	679477248	70	4404
2026-01-15 04:38:02.42	342.86	23.97	-52.1	-53.9	14.6	0.00e+00	0	28	0	680525824	70	4407
2026-01-15 04:38:03.42	342.58	23.95	-51.9	-53.7	14.7	0.00e+00	0	28	0	682622976	70	4316
2026-01-15 04:38:04.42	342.30	23.93	-51.6	-53.3	14.7	0.00e+00	0	28	0	684720128	69	4382
2026-01-15 04:38:05.42	342.02	23.91	-51.4	-53.1	14.8	0.00e+00	0	28	0	686817280	69	4252
2026-01-15 04:38:06.42	341.74	23.89	-51.2	-52.8	14.8	0.00e+00	0	28	0	687865856	68	4389
2026-01-15 04:38:07.42	341.46	23.86	-51.2	-52.8	14.8	0.00e+00	0	28	0	689963008	68	4373
2026-01-15 04:38:08.43	341.18	23.84	-51.3	-53.0	14.7	0.00e+00	0	28	0	692060160	68	4457
2026-01-15 04:38:09.44	340.90	23.81	-51.5	-53.3	14.6	0.00e+00	0	28	0	694157312	68	4599
2026-01-15 04:38:10.43	340.62	23.79	-51.7	-53.5	14.5	0.00e+00	0	28	0	696254464	68	4713
2026-01-15 04:38:11.43	340.34	23.77	-51.6	-53.3	14.5	0.00e+00	0	28	0	697303040	68	4651
2026-01-15 04:38:12.43	340.07	23.74	-51.5	-53.1	14.7	0.00e+00	0	28	0	699400192	68	4541
2026-01-15 04:38:13.44	339.79	23.71	-51.6	-53.3	14.6	0.00e+00	0	28	0	701497344	68	4634
2026-01-15 04:38:14.44	339.51	23.68	-51.6	-53.3	14.6	0.00e+00	0	28	0	703594496	68	4617
2026-01-15 04:38:15.43	339.24	23.66	-51.6	-53.3	14.6	0.00e+00	0	28	0	705691648	68	4646
2026-01-15 04:38:16.43	338.96	23.63	-51.9	-53.7	14.6	0.00e+00	0	28	0	706740224	69	4573
2026-01-15 04:38:17.43	338.69	23.60	-52.0	-53.7	14.6	0.00e+00	0	28	0	708837376	69	4586
2026-01-15 04:38:18.42	338.42	23.57	-52.0	-53.8	14.5	0.00e+00	0	28	0	710934528	69	4629
2026-01-15 04:38:19.41	338.15	23.54	-52.2	-54.0	14.4	0.00e+00	0	28	0	713031680	69	4742
2026-01-15 04:38:20.41	337.87	23.51	-52.3	-54.2	14.4	0.00e+00	0	28	0	714080256	69	4826
2026-01-15 04:38:21.41	337.60	23.47	-52.3	-54.1	14.4	0.00e+00	0	28	0	716177408	69	4798
2026-01-15 04:38:22.42	337.33	23.44	-52.0	-53.8	14.5	0.00e+00	0	28	0	718274560	69	4645
2026-01-15 04:38:23.42	337.06	23.41	-51.9	-53.7	14.6	0.00e+00	0	28	0	720371712	69	4550
2026-01-15 04:38:24.42	336.79	23.37	-52.1	-53.9	14.5	0.00e+00	0	28	0	722468864	69	4679
2026-01-15 04:38:25.42	336.52	23.34	-52.3	-54.1	14.4	0.00e+00	0	28	0	724566016	69	4796
2026-01-15 04:38:26.41	336.25	23.30	-52.6	-54.5	14.3	0.00e+00	0	28	0	725614592	70	4747
2026-01-15 04:38:27.41	335.98	23.27	-52.4	-54.3	14.4	0.00e+00	0	28	0	727711744	70	4602
2026-01-15 04:38:28.41	335.71	23.23	-52.4	-54.3	14.4	0.00e+00	0	28	0	729808896	70	4613
2026-01-15 04:38:29.40	335.45	23.19	-51.9	-53.7	14.7	0.00e+00	0	28	0	731906048	70	4300
2026-01-15 04:38:30.40	335.18	23.16	-52.0	-53.7	14.7	0.00e+00	0	28	0	732954624	70	4334
2026-01-15 04:38:31.39	334.92	23.12	-52.3	-54.1	14.5	0.00e+00	0	28	0	735051776	70	4530
2026-01-15 04:38:32.39	334.65	23.08	-52.2	-54.1	14.5	0.00e+00	0	28	0	737148928	70	4501
2026-01-15 04:38:33.39	334.39	23.04	-52.5	-54.4	14.4	0.00e+00	0	28	0	739246080	70	4705
2026-01-15 04:38:34.38	334.12	23.00	-52.8	-54.8	14.2	0.00e+00	0	28	0	741343232	70	4909
2026-01-15 04:38:35.38	333.86	22.96	-52.8	-54.8	14.3	0.00e+00	0	28	0	742391808	71	4637
2026-01-15 04:38:36.38	333.60	22.92	-52.9	-55.0	14.3	0.00e+00	0	28	0	744488960	71	4707
2026-01-15 04:38:37.38	333.34	22.87	-53.0	-55.1	14.2	0.00e+00	0	28	0	746586112	71	4800
2026-01-15 04:38:38.37	333.08	22.83	-52.9	-54.9	14.3	0.00e+00	0	28	0	748683264	71	4693
2026-01-15 04:38:39.38	332.81	22.79	-53.0	-55.1	14.2	0.00e+00	0	28	0	749731840	71	4763
2026-01-15 04:38:40.38	332.55	22.74	-53.0	-55.2	14.1	0.00e+00	0	28	0	751828992	71	4836
2026-01-15 04:38:41.38	332.29	22.70	-53.2	-55.5	14.0	0.00e+00	0	28	0	753926144	71	4994
2026-01-15 04:38:42.37	332.04	22.66	-53.4	-55.7	14.0	0.00e+00	0	28	0	756023296	72	4831
2026-01-15 04:38:43.37	331.78	22.61	-53.3	-55.6	14.0	0.00e+00	0	28	0	758120448	72	4771
2026-01-15 04:38:44.37	331.52	22.56	-53.1	-55.4	14.1	0.00e+00	0	28	0	759169024	72	4660
2026-01-15 04:38:45.37	331.27	22.52	-53.1	-55.4	14.1	0.00e+00	0	28	0	761266176	72	4662
2026-01-15 04:38:46.37	331.01	22.47	-53.0	-55.2	14.2	0.00e+00	0	28	0	763363328	72	4582
2026-01-15 04:38:47.37	330.76	22.42	-52.9	-55.0	14.3	0.00e+00	0	28	0	765460480	72	4479
2026-01-15 04:38:48.37	330.50	22.38	-53.0	-55.2	14.2	0.00e+00	0	28	0	766509056	72	4562
2026-01-15 04:38:49.36	330.25	22.33	-53.0	-55.3	14.2	0.00e+00	0	28	0	768606208	72	4600
2026-01-15 04:38:50.36	330.00	22.28	-53.3	-55.6	14.1	0.00e+00	0	28	0	770703360	72	4810
2026-01-15 04:38:51.36	329.75	22.23	-53.4	-55.9	13.9	0.00e+00	0	28	0	772800512	72	4931
2026-01-15 04:38:52.36	329.50	22.18	-53.6	-56.1	13.8	7.00e-07	0	28	0	774897664	72	5065
2026-01-15 04:38:53.37	329.25	22.13	-53.7	-56.3	13.7	0.00e+00	0	28	0	776994816	72	5171
2026-01-15 04:38:54.37	329.00	22.08	-53.5	-56.0	13.8	0.00e+00	0	28	0	778043392	72	4987
2026-01-15 04:38:55.37	328.75	22.03	-53.3	-55.6	14.0	0.00e+00	0	28	0	780140544	72	4798
2026-01-15 04:38:56.36	328.51	21.97	-53.1	-55.3	14.2	0.00e+00	0	28	0	782237696	72	4644
2026-01-15 04:38:57.37	328.26	21.92	-52.9	-55.1	14.3	0.00e+00	0	28	0	784334848	72	4507
2026-01-15 04:38:58.37	328.01	21.87	-53.0	-55.3	14.2	0.00e+00	0	28	0	785383424	72	4618
2026-01-15 04:38:59.37	327.77	21.81	-52.8	-55.0	14.3	0.00e+00	0	28	0	787480576	72	4485
2026-01-15 04:39:00.37	327.52	21.76	-52.8	-54.9	14.4	0.00e+00	0	28	0	789577728	72	4421
2026-01-15 04:39:01.37	327.28	21.71	-52.8	-54.9	14.3	0.00e+00	0	28	0	791674880	72	4425
2026-01-15 04:39:02.36	327.04	21.65	-52.7	-54.8	14.4	0.00e+00	0	28	0	793772032	72	4389
2026-01-15 04:39:03.36	326.80	21.60	-52.9	-55.1	14.3	0.00e+00	0	28	0	794820608	72	4515
2026-01-15 04:39:04.36	326.56	21.54	-53.2	-55.5	14.1	0.00e+00	0	28	0	796917760	72	4725
2026-01-15 04:39:05.35	326.32	21.49	-53.4	-55.9	13.9	0.00e+00	0	28	0	799014912	72	4934
2026-01-15 04:39:06.35	326.08	21.43	-53.4	-55.8	14.0	0.00e+00	0	28	0	801112064	72	4903
2026-01-15 04:39:07.35	325.84	21.37	-53.6	-56.1	13.8	0.00e+00	0	28	0	802160640	72	5071
2026-01-15 04:39:08.35	325.61	21.32	-53.7	-56.2	13.7	0.00e+00	0	28	0	804257792	72	5155
2026-01-15 04:39:09.35	325.37	21.26	-53.4	-55.9	13.9	0.00e+00	0	28	0	806354944	72	4949
2026-01-15 04:39:10.36	325.13	21.20	-53.3	-55.8	13.9	0.00e+00	0	28	0	808452096	72	4877
2026-01-15 04:39:11.37	324.90	21.14	-53.4	-55.9	13.9	0.00e+00	0	28	0	810549248	72	4955
2026-01-15 04:39:12.37	324.66	21.08	-53.6	-56.2	13.8	0.00e+00	0	28	0	811597824	72	5132
2026-01-15 04:39:13.37	324.43	21.02	-53.8	-56.5	13.6	0.00e+00	0	28	0	813694976	72	5329
2026-01-15 04:39:14.37	324.20	20.96	-54.2	-57.1	13.4	0.00e+00	0	28	0	815792128	73	5382
2026-01-15 04:39:15.37	323.97	20.90	-54.6	-57.8	13.1	0.00e+00	0	28	0	817889280	74	5515
2026-01-15 04:39:16.37	323.74	20.84	-54.8	-58.2	12.9	0.00e+00	0	28	0	819986432	74	5743
2026-01-15 04:39:17.37	323.51	20.78	-54.6	-57.9	13.0	0.00e+00	0	28	0	821035008	74	5569
2026-01-15 04:39:18.37	323.28	20.72	-54.5	-57.8	13.1	0.00e+00	0	28	0	823132160	74	5480
2026-01-15 04:39:19.37	323.06	20.66	-54.2	-57.1	13.5	0.00e+00	0	28	0	825229312	74	5055
2026-01-15 04:39:20.37	322.83	20.60	-54.0	-56.7	13.7	0.00e+00	0	28	0	827326464	74	4851
2026-01-15 04:39:21.38	322.60	20.54	-53.7	-56.3	13.9	0.00e+00	0	28	0	829423616	74	4620
2026-01-15 04:39:22.38	322.38	20.48	-53.5	-55.9	14.0	0.00e+00	0	28	0	830472192	73	4672
2026-01-15 04:39:23.37	322.16	20.41	-53.3	-55.7	14.1	0.00e+00	0	28	0	832569344	73	4561
2026-01-15 04:39:24.37	321.93	20.35	-53.0	-55.3	14.2	0.00e+00	0	28	0	834666496	72	4615
2026-01-15 04:39:25.37	321.71	20.29	-52.9	-55.1	14.3	0.00e+00	0	28	0	836763648	72	4516
2026-01-15 04:39:26.37	321.49	20.23	-52.8	-55.0	14.3	0.00e+00	0	28	0	837812224	72	4460
2026-01-15 04:39:27.37	321.27	20.16	-52.7	-54.8	14.3	0.00e+00	0	28	0	839909376	71	4650
2026-01-15 04:39:28.36	321.05	20.10	-52.4	-54.5	14.4	0.00e+00	0	28	0	842006528	71	4487
2026-01-15 04:39:29.36	320.84	20.03	-52.4	-54.5	14.4	0.00e+00	0	28	0	844103680	71	4489
2026-01-15 04:39:30.36	320.62	19.97	-52.2	-54.2	14.4	0.00e+00	0	28	0	846200832	70	4595
2026-01-15 04:39:31.36	320.40	19.91	-52.1	-54.1	14.4	0.00e+00	0	28	0	847249408	70	4544
2026-01-15 04:39:32.35	320.19	19.84	-52.1	-54.1	14.5	0.00e+00	0	28	0	849346560	70	4502
2026-01-15 04:39:33.35	319.98	19.78	-52.0	-54.0	14.5	0.00e+00	0	28	0	851443712	70	4462
2026-01-15 04:39:34.35	319.76	19.71	-51.8	-53.6	14.6	0.00e+00	0	28	0	853540864	70	4287
2026-01-15 04:39:35.34	319.55	19.65	-51.5	-53.4	14.6	0.00e+00	0	28	0	855638016	69	4412
2026-01-15 04:39:36.33	319.34	19.58	-51.5	-53.4	14.6	0.00e+00	0	28	0	856686592	69	4416
2026-01-15 04:39:37.32	319.14	19.51	-51.6	-53.4	14.6	0.00e+00	0	28	0	858783744	69	4441
2026-01-15 04:39:38.32	318.93	19.45	-51.7	-53.6	14.5	0.00e+00	0	28	0	860880896	69	4533
2026-01-15 04:39:39.32	318.72	19.38	-52.1	-54.2	14.3	0.00e+00	0	28	0	862978048	69	4834
2026-01-15 04:39:40.31	318.51	19.32	-52.4	-54.6	14.2	0.00e+00	0	28	0	864026624	69	5055
2026-01-15 04:39:41.31	318.30	19.25	-52.7	-54.9	14.1	0.00e+00	0	28	0	866123776	70	4943
2026-01-15 04:39:42.31	318.10	19.18	-53.0	-55.4	14.0	0.00e+00	0	28	0	868220928	71	4968
2026-01-15 04:39:43.32	317.89	19.11	-53.2	-55.7	13.9	0.00e+00	0	28	0	870318080	71	5102
2026-01-15 04:39:44.31	317.69	19.05	-53.4	-56.0	13.8	0.00e+00	0	28	0	872415232	72	5026
2026-01-15 04:39:45.32	317.48	18.98	-53.4	-56.0	13.8	0.00e+00	0	28	0	873463808	72	4997
2026-01-15 04:39:46.31	317.28	18.91	-53.5	-56.2	13.7	0.00e+00	0	28	0	875560960	72	5130
2026-01-15 04:39:47.32	317.08	18.84	-53.4	-55.9	13.8	0.00e+00	0	28	0	877658112	72	4979
2026-01-15 04:39:48.33	316.88	18.77	-53.3	-55.8	13.9	0.00e+00	0	28	0	879755264	72	4909
2026-01-15 04:39:49.33	316.68	18.70	-53.1	-55.5	14.0	0.00e+00	0	28	0	881852416	72	4756
2026-01-15 04:39:50.33	316.48	18.64	-52.9	-55.3	14.1	0.00e+00	0	28	0	882900992	72	4603
2026-01-15 04:39:51.33	316.28	18.57	-52.9	-55.3	14.2	0.00e+00	0	28	0	884998144	72	4605
2026-01-15 04:39:52.33	316.08	18.50	-52.7	-55.0	14.1	0.00e+00	0	28	0	887095296	71	4707
2026-01-15 04:39:53.34	315.89	18.43	-52.6	-54.8	14.2	0.00e+00	0	28	0	889192448	71	4641
2026-01-15 04:39:54.35	315.69	18.36	-52.5	-54.7	14.3	0.00e+00	0	28	0	890241024	71	4563
2026-01-15 04:39:55.35	315.50	18.29	-52.1	-54.2	14.5	0.00e+00	0	28	0	892338176	70	4568
2026-01-15 04:39:56.35	315.30	18.22	-51.9	-53.9	14.5	0.00e+00	0	28	0	894435328	70	4429
2026-01-15 04:39:57.35	315.11	18.15	-52.0	-53.9	14.5	0.00e+00	0	28	0	896532480	70	4439
2026-01-15 04:39:58.35	314.92	18.08	-52.0	-54.0	14.5	0.00e+00	0	28	0	898629632	70	4450
2026-01-15 04:39:59.34	314.73	18.01	-52.2	-54.3	14.4	0.00e+00	0	28	0	899678208	70	4624
2026-01-15 04:40:00.34	314.54	17.94	-52.5	-54.7	14.2	0.00e+00	0	28	0	901775360	70	4843
2026-01-15 04:40:01.34	314.35	17.87	-52.8	-55.0	14.1	0.00e+00	0	28	0	903872512	70	5036
2026-01-15 04:40:02.34	314.16	17.80	-52.8	-55.1	14.0	0.00e+00	0	28	0	905969664	70	5086
2026-01-15 04:40:03.35	313.98	17.73	-52.8	-55.0	14.0	0.00e+00	0	28	0	908066816	70	5039
2026-01-15 04:40:04.36	313.79	17.66	-52.7	-54.9	14.1	0.00e+00	0	28	0	909115392	70	4983
2026-01-15 04:40:05.36	313.60	17.59	-52.6	-54.8	14.2	0.00e+00	0	28	0	911212544	70	4875
2026-01-15 04:40:06.36	313.42	17.51	-52.6	-54.9	14.1	0.00e+00	0	28	0	913309696	70	4937
2026-01-15 04:40:07.36	313.23	17.44	-52.7	-54.9	14.1	0.00e+00	0	28	0	915406848	70	4962
2026-01-15 04:40:08.36	313.05	17.37	-52.9	-55.1	14.0	0.00e+00	0	28	0	917504000	70	5096
2026-01-15 04:40:09.36	312.87	17.30	-53.1	-55.5	14.0	0.00e+00	0	28	0	918552576	71	5015
2026-01-15 04:40:10.36	312.69	17.23	-53.1	-55.5	13.9	0.00e+00	0	28	0	920649728	71	5030
2026-01-15 04:40:11.37	312.51	17.16	-53.1	-55.4	14.0	0.00e+00	0	28	0	922746880	71	4972
2026-01-15 04:40:12.37	312.33	17.09	-52.8	-55.1	14.2	0.00e+00	0	28	0	924844032	71	4772
2026-01-15 04:40:13.37	312.15	17.01	-52.8	-55.0	14.2	0.00e+00	0	28	0	925892608	71	4756
2026-01-15 04:40:14.36	311.97	16.94	-52.7	-54.9	14.2	0.00e+00	0	28	0	927989760	71	4662
2026-01-15 04:40:15.36	311.80	16.87	-52.7	-54.9	14.3	0.00e+00	0	28	0	930086912	71	4652
2026-01-15 04:40:16.36	311.62	16.80	-52.6	-54.8	14.3	0.00e+00	0	28	0	932184064	71	4609
2026-01-15 04:40:17.37	311.45	16.73	-52.5	-54.6	14.3	0.00e+00	0	28	0	934281216	71	4513
2026-01-15 04:40:18.37	311.27	16.66	-52.5	-54.5	14.4	0.00e+00	0	28	0	935329792	71	4471
2026-01-15 04:40:19.37	311.10	16.58	-52.2	-54.2	14.5	0.00e+00	0	28	0	937426944	71	4304
2026-01-15 04:40:20.37	310.93	16.51	-52.2	-54.1	14.5	0.00e+00	0	28	0	939524096	70	4536
2026-01-15 04:40:21.37	310.75	16.44	-52.1	-54.1	14.5	0.00e+00	0	28	0	941621248	70	4515
2026-01-15 04:40:22.36	310.59	16.37	-52.3	-54.3	14.4	0.00e+00	0	28	0	943718400	70	4621
2026-01-15 04:40:23.37	310.41	16.30	-52.3	-54.3	14.4	0.00e+00	0	28	0	944766976	70	4644
2026-01-15 04:40:24.37	310.25	16.22	-52.4	-54.4	14.3	0.00e+00	0	28	0	946864128	70	4698
2026-01-15 04:40:25.36	310.08	16.15	-52.5	-54.5	14.3	0.00e+00	0	28	0	948961280	70	4725
2026-01-15 04:40:26.36	309.91	16.08	-52.4	-54.4	14.3	0.00e+00	0	28	0	951058432	70	4694
2026-01-15 04:40:27.36	309.75	16.01	-52.1	-54.0	14.5	0.00e+00	0	28	0	952107008	70	4475
2026-01-15 04:40:28.35	309.58	15.94	-51.9	-53.7	14.6	0.00e+00	0	28	0	954204160	70	4304
2026-01-15 04:40:29.35	309.42	15.86	-51.8	-53.6	14.7	0.00e+00	0	28	0	956301312	70	4273
2026-01-15 04:40:30.34	309.25	15.79	-51.8	-53.6	14.6	0.00e+00	0	28	0	958398464	69	4504
2026-01-15 04:40:31.34	309.09	15.72	-51.6	-53.3	14.7	0.00e+00	0	28	0	960495616	69	4388
2026-01-15 04:40:32.34	308.93	15.65	-51.7	-53.4	14.6	0.00e+00	0	28	0	961544192	69	4440
2026-01-15 04:40:33.33	308.77	15.58	-51.7	-53.5	14.6	0.00e+00	0	28	0	963641344	69	4469
2026-01-15 04:40:34.33	308.61	15.50	-51.8	-53.6	14.6	0.00e+00	0	28	0	965738496	69	4514
2026-01-15 04:40:35.33	308.45	15.43	-51.9	-53.7	14.5	0.00e+00	0	28	0	967835648	69	4569
2026-01-15 04:40:36.34	308.29	15.36	-52.0	-53.8	14.5	0.00e+00	0	28	0	969932800	69	4638
2026-01-15 04:40:37.33	308.13	15.29	-52.0	-53.8	14.5	0.00e+00	0	28	0	970981376	69	4645
2026-01-15 04:40:38.33	307.97	15.21	-52.2	-54.1	14.4	0.00e+00	0	28	0	973078528	69	4760
2026-01-15 04:40:39.33	307.81	15.14	-52.2	-54.1	14.4	0.00e+00	0	28	0	975175680	69	4783
2026-01-15 04:40:40.33	307.66	15.07	-52.3	-54.2	14.3	0.00e+00	0	28	0	977272832	69	4854
2026-01-15 04:40:41.32	307.50	15.00	-52.3	-54.2	14.3	0.00e+00	0	28	0	979369984	69	4850
2026-01-15 04:40:42.33	307.35	14.92	-52.3	-54.2	14.3	0.00e+00	0	28	0	980418560	69	4866
2026-01-15 04:40:43.33	307.19	14.85	-52.2	-54.0	14.4	0.00e+00	0	28	0	982515712	69	4756
2026-01-15 04:40:44.33	307.04	14.78	-52.1	-53.9	14.4	0.00e+00	0	28	0	984612864	69	4689
2026-01-15 04:40:45.33	306.89	14.71	-51.9	-53.8	14.5	0.00e+00	0	28	0	986710016	69	4612
2026-01-15 04:40:46.33	306.74	14.63	-51.7	-53.5	14.6	0.00e+00	0	28	0	987758592	69	4455
2026-01-15 04:40:47.34	306.58	14.56	-51.7	-53.5	14.6	0.00e+00	0	28	0	989855744	69	4451
2026-01-15 04:40:48.34	306.43	14.49	-51.7	-53.5	14.6	0.00e+00	0	28	0	991952896	69	4479
2026-01-15 04:40:49.34	306.28	14.42	-52.0	-53.8	14.5	0.00e+00	0	28	0	994050048	69	4646
2026-01-15 04:40:50.35	306.13	14.34	-52.2	-54.1	14.4	0.00e+00	0	28	0	996147200	69	4788
2026-01-15 04:40:51.34	305.99	14.27	-52.5	-54.5	14.3	0.00e+00	0	28	0	997195776	70	4759
2026-01-15 04:40:52.33	305.84	14.20	-52.9	-55.0	14.1	0.00e+00	0	28	0	999292928	70	5011
2026-01-15 04:40:53.33	305.70	14.13	-52.9	-55.1	14.2	0.00e+00	0	28	0	1001390080	71	4764
2026-01-15 04:40:54.33	305.55	14.05	-53.1	-55.3	14.1	0.00e+00	0	28	0	1003487232	71	4875
2026-01-15 04:40:55.33	305.41	13.98	-52.9	-55.0	14.1	0.00e+00	0	28	0	1005584384	71	4736
2026-01-15 04:40:56.33	305.26	13.91	-52.9	-55.1	14.1	0.00e+00	0	28	0	1006632960	71	4763
2026-01-15 04:40:57.32	305.12	13.84	-52.9	-55.0	14.1	0.00e+00	0	28	0	1008730112	71	4756
2026-01-15 04:40:58.33	304.97	13.77	-52.8	-54.8	14.2	0.00e+00	0	28	0	1010827264	71	4646
2026-01-15 04:40:59.33	304.83	13.69	-52.5	-54.5	14.4	0.00e+00	0	28	0	1012924416	71	4473
2026-01-15 04:41:00.34	304.69	13.62	-52.6	-54.6	14.3	0.00e+00	0	28	0	1015021568	71	4520
2026-01-15 04:41:01.34	304.55	13.55	-52.8	-54.9	14.2	0.00e+00	0	28	0	1016070144	71	4670
2026-01-15 04:41:02.34	304.41	13.48	-52.7	-54.7	14.3	0.00e+00	0	28	0	1018167296	71	4590
2026-01-15 04:41:03.34	304.27	13.40	-52.6	-54.6	14.3	0.00e+00	0	28	0	1020264448	71	4542
2026-01-15 04:41:04.34	304.13	13.33	-52.5	-54.5	14.4	0.00e+00	0	28	0	1022361600	71	4464
2026-01-15 04:41:05.35	303.99	13.26	-52.4	-54.4	14.4	0.00e+00	0	28	0	1023410176	71	4393
2026-01-15 04:41:06.35	303.85	13.19	-52.1	-54.0	14.4	0.00e+00	0	28	0	1025507328	70	4463
2026-01-15 04:41:07.35	303.72	13.12	-52.3	-54.2	14.4	0.00e+00	0	28	0	1027604480	70	4559
2026-01-15 04:41:08.36	303.58	13.04	-52.4	-54.3	14.3	0.00e+00	0	28	0	1029701632	70	4649
2026-01-15 04:41:09.36	303.45	12.97	-52.1	-54.0	14.5	0.00e+00	0	28	0	1031798784	70	4475
2026-01-15 04:41:10.35	303.31	12.90	-52.8	-54.8	14.2	0.00e+00	0	28	0	1032847360	70	4904
2026-01-15 04:41:11.35	303.18	12.83	-53.0	-55.2	14.1	0.00e+00	0	28	0	1034944512	71	4840
2026-01-15 04:41:12.34	303.05	12.76	-53.3	-55.5	14.0	0.00e+00	0	28	0	1037041664	71	4996
2026-01-15 04:41:13.35	302.91	12.69	-53.5	-55.8	13.9	0.00e+00	0	28	0	1039138816	72	4892
2026-01-15 04:41:14.35	302.78	12.62	-53.7	-56.1	13.8	0.00e+00	0	28	0	1041235968	72	5062
2026-01-15 04:41:15.35	302.65	12.54	-53.6	-56.0	13.9	0.00e+00	0	28	0	1042284544	73	4737
2026-01-15 04:41:16.35	302.52	12.47	-53.4	-55.6	14.1	0.00e+00	0	28	0	1044381696	73	4545
2026-01-15 04:41:17.36	302.39	12.40	-53.7	-56.1	13.8	0.00e+00	0	28	0	1046478848	73	4774
2026-01-15 04:41:18.35	302.26	12.33	-53.1	-55.2	14.1	0.00e+00	0	28	0	1048576000	72	4593
2026-01-15 04:41:19.35	302.13	12.26	-52.9	-54.9	14.3	0.00e+00	0	28	0	1049624576	72	4440
2026-01-15 04:41:20.35	302.00	12.19	-52.8	-54.8	14.3	0.00e+00	0	28	0	1051721728	72	4366
2026-01-15 04:41:21.35	301.87	12.12	-52.8	-54.8	14.3	0.00e+00	0	28	0	1053818880	72	4376
2026-01-15 04:41:22.35	301.75	12.05	-52.6	-54.7	14.3	0.00e+00	0	28	0	1055916032	71	4547
2026-01-15 04:41:23.35	301.62	11.98	-52.7	-54.7	14.3	0.00e+00	0	28	0	1058013184	71	4598
2026-01-15 04:41:24.33	301.50	11.91	-52.7	-54.7	14.3	0.00e+00	0	28	0	1059061760	71	4589
2026-01-15 04:41:25.34	301.37	11.83	-52.4	-54.4	14.4	0.00e+00	0	28	0	1061158912	71	4417
2026-01-15 04:41:26.34	301.25	11.76	-52.8	-54.8	14.2	0.00e+00	0	28	0	1063256064	71	4635
2026-01-15 04:41:27.33	301.13	11.69	-52.8	-54.8	14.2	0.00e+00	0	28	0	1065353216	71	4621
2026-01-15 04:41:28.34	301.00	11.62	-52.8	-54.8	14.2	0.00e+00	0	28	0	1067450368	71	4621
2026-01-15 04:41:29.33	300.88	11.55	-52.7	-54.7	14.3	0.00e+00	0	28	0	1068498944	71	4572
2026-01-15 04:41:30.33	300.76	11.48	-52.7	-54.7	14.2	0.00e+00	0	28	0	1070596096	71	4597
2026-01-15 04:41:31.33	300.64	11.41	-52.7	-54.8	14.2	0.00e+00	0	28	0	1072693248	71	4609
2026-01-15 04:41:32.32	300.52	11.34	-52.8	-54.9	14.2	0.00e+00	0	28	0	1074790400	71	4672
2026-01-15 04:41:33.33	300.40	11.27	-53.1	-55.3	14.0	0.00e+00	0	28	0	1076887552	71	4906
2026-01-15 04:41:34.33	300.28	11.20	-52.9	-55.1	14.1	0.00e+00	0	28	0	1077936128	71	4784
2026-01-15 04:41:35.32	300.16	11.13	-53.1	-55.3	14.0	0.00e+00	0	28	0	1080033280	71	4899
2026-01-15 04:41:36.32	300.04	11.06	-53.3	-55.6	13.9	0.00e+00	0	28	0	1082130432	71	5044
2026-01-15 04:41:37.32	299.92	10.99	-53.5	-55.8	13.8	0.00e+00	0	28	0	1084227584	72	4918
2026-01-15 04:41:38.32	299.80	10.92	-53.5	-55.8	13.9	0.00e+00	0	28	0	1085276160	72	4909
2026-01-15 04:41:39.31	299.69	10.85	-53.5	-55.9	13.8	0.00e+00	0	28	0	1087373312	72	4982
2026-01-15 04:41:40.31	299.57	10.78	-53.7	-56.2	13.7	0.00e+00	0	28	0	1089470464	72	5131
2026-01-15 04:41:41.31	299.46	10.71	-53.4	-55.8	13.8	0.00e+00	0	28	0	1091567616	72	4893
2026-01-15 04:41:42.31	299.34	10.65	-53.4	-55.8	13.9	0.00e+00	0	28	0	1093664768	72	4879
2026-01-15 04:41:43.31	299.23	10.58	-53.6	-56.1	13.7	0.00e+00	0	28	0	1094713344	72	5076
2026-01-15 04:41:44.31	299.11	10.51	-53.6	-56.0	13.8	0.00e+00	0	28	0	1096810496	72	5025
2026-01-15 04:41:45.31	299.00	10.44	-53.6	-56.1	13.7	0.00e+00	0	28	0	1098907648	72	5090
2026-01-15 04:41:46.31	298.89	10.37	-53.7	-56.2	13.7	0.00e+00	0	28	0	1101004800	72	5152
2026-01-15 04:41:47.30	298.78	10.30	-53.9	-56.5	13.6	0.00e+00	0	28	0	1102053376	73	5029
2026-01-15 04:41:48.30	298.66	10.23	-54.0	-56.6	13.5	0.00e+00	0	28	0	1104150528	73	5091
2026-01-15 04:41:49.31	298.55	10.16	-54.2	-57.0	13.3	0.00e+00	0	28	0	1106247680	73	5305
2026-01-15 04:41:50.31	298.44	10.09	-54.2	-57.0	13.3	0.00e+00	0	28	0	1108344832	73	5302
2026-01-15 04:41:51.31	298.33	10.02	-54.4	-57.3	13.3	0.00e+00	0	28	0	1110441984	74	5195
2026-01-15 04:41:52.32	298.22	9.95	-54.5	-57.4	13.2	0.00e+00	0	28	0	1111490560	74	5247
2026-01-15 04:41:53.32	298.11	9.89	-54.2	-56.9	13.5	0.00e+00	0	28	0	1113587712	74	4953
2026-01-15 04:41:54.32	298.00	9.82	-54.3	-57.1	13.4	0.00e+00	0	28	0	1115684864	74	5050
2026-01-15 04:41:55.32	297.90	9.75	-54.0	-56.6	13.6	0.00e+00	0	28	0	1117782016	74	4774
2026-01-15 04:41:56.32	297.79	9.68	-53.8	-56.2	13.8	0.00e+00	0	28	0	1119879168	74	4582
2026-01-15 04:41:57.32	297.68	9.61	-53.7	-56.1	13.9	0.00e+00	0	28	0	1120927744	74	4540
2026-01-15 04:41:58.32	297.57	9.54	-53.7	-56.2	13.7	0.00e+00	0	28	0	1123024896	73	4826
2026-01-15 04:41:59.32	297.47	9.48	-53.7	-56.1	13.8	0.00e+00	0	28	0	1125122048	73	4767
2026-01-15 04:42:00.32	297.36	9.41	-53.5	-55.8	13.9	0.00e+00	0	28	0	1127219200	73	4637
2026-01-15 04:42:01.32	297.26	9.34	-53.5	-55.8	13.9	0.00e+00	0	28	0	1128267776	73	4612
2026-01-15 04:42:02.32	297.15	9.27	-53.3	-55.6	14.1	0.00e+00	0	28	0	1130364928	73	4501
2026-01-15 04:42:03.32	297.05	9.21	-53.4	-55.7	13.9	0.00e+00	0	28	0	1132462080	72	4847
2026-01-15 04:42:04.33	296.95	9.14	-53.5	-55.9	13.8	0.00e+00	0	28	0	1134559232	72	4937
2026-01-15 04:42:05.33	296.84	9.07	-53.6	-55.9	13.8	0.00e+00	0	28	0	1136656384	72	4981
2026-01-15 04:42:06.32	296.74	9.00	-53.7	-56.1	13.7	0.00e+00	0	28	0	1138753536	72	5087
2026-01-15 04:42:07.32	296.64	8.94	-54.0	-56.5	13.6	0.00e+00	0	28	0	1139802112	73	5021
2026-01-15 04:42:08.32	296.54	8.87	-54.0	-56.5	13.6	0.00e+00	0	28	0	1141899264	73	5036
2026-01-15 04:42:09.32	296.44	8.80	-54.1	-56.6	13.5	0.00e+00	0	28	0	1143996416	73	5098
2026-01-15 04:42:10.33	296.34	8.73	-53.9	-56.5	13.6	0.00e+00	0	28	0	1146093568	73	4993
2026-01-15 04:42:11.33	296.24	8.67	-53.9	-56.4	13.6	0.00e+00	0	28	0	1147142144	73	4949
2026-01-15 04:42:12.32	296.14	8.60	-54.0	-56.6	13.5	0.00e+00	0	28	0	1149239296	73	5091
2026-01-15 04:42:13.33	296.04	8.53	-54.2	-56.8	13.4	0.00e+00	0	28	0	1151336448	73	5207
2026-01-15 04:42:14.33	295.94	8.47	-54.0	-56.5	13.6	0.00e+00	0	28	0	1153433600	73	4993
2026-01-15 04:42:15.33	295.84	8.40	-53.9	-56.4	13.6	0.00e+00	0	28	0	1155530752	73	4931
2026-01-15 04:42:16.32	295.74	8.34	-53.7	-56.1	13.8	0.00e+00	0	28	0	1156579328	73	4790
2026-01-15 04:42:17.33	295.65	8.27	-53.7	-56.1	13.8	0.00e+00	0	28	0	1158676480	73	4808
2026-01-15 04:42:18.33	295.55	8.20	-53.6	-55.9	13.8	0.00e+00	0	28	0	1160773632	73	4695
2026-01-15 04:42:19.33	295.45	8.14	-53.6	-56.0	13.8	0.00e+00	0	28	0	1162870784	73	4724
2026-01-15 04:42:20.33	295.36	8.07	-53.7	-56.1	13.7	0.00e+00	0	28	0	1164967936	73	4777
2026-01-15 04:42:21.34	295.26	8.00	-53.6	-56.0	13.8	0.00e+00	0	28	0	1166016512	73	4730
2026-01-15 04:42:22.33	295.17	7.94	-53.8	-56.2	13.7	0.00e+00	0	28	0	1168113664	73	4863
2026-01-15 04:42:23.34	295.07	7.87	-53.8	-56.4	13.6	0.00e+00	0	28	0	1170210816	73	4932
2026-01-15 04:42:24.33	294.98	7.81	-53.7	-56.2	13.7	0.00e+00	0	28	0	1172307968	73	4841
2026-01-15 04:42:25.33	294.88	7.74	-53.9	-56.5	13.5	0.00e+00	0	28	0	1173356544	73	4986
2026-01-15 04:42:26.33	294.79	7.68	-54.0	-56.6	13.5	0.00e+00	0	28	0	1175453696	73	5093
2026-01-15 04:42:27.32	294.70	7.61	-54.2	-56.9	13.3	0.00e+00	0	28	0	1177550848	73	5235
2026-01-15 04:42:28.32	294.61	7.55	-54.0	-56.7	13.4	0.00e+00	0	28	0	1179648000	73	5101
2026-01-15 04:42:29.32	294.51	7.48	-54.3	-57.1	13.2	0.00e+00	0	28	0	1181745152	73	5343
2026-01-15 04:42:30.32	294.42	7.42	-54.5	-57.4	13.1	0.00e+00	0	28	0	1182793728	74	5240
2026-01-15 04:42:31.31	294.33	7.35	-54.6	-57.6	13.0	0.00e+00	0	28	0	1184890880	74	5360
2026-01-15 04:42:32.30	294.24	7.29	-54.8	-57.9	12.8	0.00e+00	0	28	0	1186988032	74	5553
2026-01-15 04:42:33.30	294.15	7.22	-55.1	-58.4	12.6	0.00e+00	0	28	0	1189085184	75	5573
2026-01-15 04:42:34.30	294.06	7.16	-55.1	-58.4	12.6	0.00e+00	0	28	0	1190133760	75	5533
2026-01-15 04:42:35.30	293.97	7.09	-55.1	-58.4	12.6	0.00e+00	0	28	0	1192230912	75	5572
2026-01-15 04:42:36.30	293.88	7.03	-55.2	-58.6	12.4	0.00e+00	0	28	0	1194328064	75	5709
2026-01-15 04:42:37.29	293.80	6.96	-55.3	-58.8	12.4	0.00e+00	0	28	0	1196425216	75	5800
2026-01-15 04:42:38.29	293.71	6.90	-55.2	-58.6	12.4	0.00e+00	0	28	0	1198522368	75	5720
2026-01-15 04:42:39.28	293.62	6.84	-55.2	-58.6	12.4	0.00e+00	0	28	0	1199570944	75	5713
2026-01-15 04:42:40.28	293.53	6.77	-55.3	-58.8	12.3	1.50e-06	0	28	0	1201668096	75	5826
2026-01-15 04:42:41.28	293.45	6.71	-55.7	-59.4	12.0	2.20e-06	0	28	0	1203765248	76	5903
2026-01-15 04:42:42.28	293.36	6.64	-55.7	-59.4	12.0	0.00e+00	0	28	0	1205862400	76	5908
2026-01-15 04:42:43.29	293.27	6.58	-55.9	-59.8	11.8	7.00e-07	0	28	0	1207959552	77	5828
2026-01-15 04:42:44.28	293.19	6.52	-55.5	-59.2	12.3	0.00e+00	0	28	0	1209008128	77	5411
2026-01-15 04:42:45.28	293.10	6.45	-55.4	-58.9	12.5	7.00e-07	0	28	0	1211105280	77	5238
2026-01-15 04:42:46.28	293.02	6.39	-55.6	-59.2	12.2	7.00e-07	0	28	0	1213202432	77	5440
2026-01-15 04:42:47.27	292.93	6.33	-55.6	-59.3	12.2	0.00e+00	0	28	0	1215299584	77	5487
2026-01-15 04:42:48.27	292.85	6.26	-55.5	-59.1	12.3	0.00e+00	0	28	0	1217396736	77	5358
