passes_logs/2026/01/15/R3.2S_Murmansk/R3.2S_Murmansk__20260115_055516_KANOPUS-V_5_rec.log

#Pass ID: 20260115_055516_KANOPUS-V 5
#Satellite: KANOPUS-V 5
#Configuration: KANOPUS-V_8320
#almurnet v.1.7.20251203
#Start time: 2026-01-15 05:55:18

#Version: 2.2.20231116
#Station: R3.2S_Murmansk
#Location: 33.079688 lon 68.888172 lat
#TLE: 1 43876U 18111A   26014.64517351  .00002226  00000+0  96418-4 0  9998
#TLE: 2 43876  97.3685 283.1659 0001742  85.8061 274.3376 15.23434183391418

#Time	Az	El	Level	Level2	SNR	BER	BlckErr	Temp	State	Recorded	gain1	gain2
2026-01-15 05:55:18.12	109.63	2.08	-59.2	-68.9	3.8	7.45e-01	0	26	0	0	83	10495
2026-01-15 05:55:19.11	109.55	2.15	-59.2	-68.9	3.8	7.45e-01	0	26	104	0	83	10504
2026-01-15 05:55:20.10	109.48	2.21	-59.2	-68.9	3.8	7.45e-01	0	26	104	0	83	10519
2026-01-15 05:55:21.10	109.41	2.28	-59.2	-69.0	3.8	7.45e-01	0	26	104	0	83	10539
2026-01-15 05:55:22.10	109.34	2.34	-59.2	-68.9	3.8	7.47e-01	0	26	104	0	83	10527
2026-01-15 05:55:23.11	109.26	2.41	-59.2	-69.0	3.8	7.46e-01	0	26	104	0	83	10543
2026-01-15 05:55:24.11	109.19	2.48	-59.2	-68.9	3.8	7.46e-01	0	26	104	0	83	10515
2026-01-15 05:55:25.10	109.11	2.54	-59.2	-69.0	3.8	7.45e-01	0	27	104	0	83	10573
2026-01-15 05:55:26.11	109.04	2.61	-59.2	-69.0	3.8	7.45e-01	0	27	104	0	83	10556
2026-01-15 05:55:27.10	108.96	2.68	-59.2	-69.0	3.8	7.45e-01	0	26	104	0	83	10575
2026-01-15 05:55:28.10	108.89	2.74	-59.2	-68.9	3.8	7.44e-01	0	26	104	0	83	10530
2026-01-15 05:55:29.10	108.81	2.81	-59.2	-69.0	3.8	7.45e-01	0	26	104	0	83	10573
2026-01-15 05:55:30.10	108.74	2.88	-59.2	-68.9	3.8	7.45e-01	0	27	104	0	83	10493
2026-01-15 05:55:31.10	108.66	2.94	-59.2	-69.0	3.8	7.45e-01	0	27	104	0	83	10553
2026-01-15 05:55:32.09	108.58	3.01	-59.2	-69.0	3.8	7.44e-01	0	27	104	0	83	10544
2026-01-15 05:55:33.09	108.50	3.08	-59.2	-69.0	3.8	7.46e-01	0	27	104	0	83	10534
2026-01-15 05:55:34.09	108.42	3.14	-59.2	-68.9	3.8	7.46e-01	0	27	104	0	83	10517
2026-01-15 05:55:35.10	108.34	3.21	-59.2	-69.0	3.8	7.49e-01	0	27	104	0	83	10566
2026-01-15 05:55:36.09	108.27	3.28	-59.2	-69.0	3.8	7.46e-01	0	27	104	0	83	10537
2026-01-15 05:55:37.09	108.18	3.35	-59.2	-69.0	3.8	7.45e-01	0	27	104	0	83	10573
2026-01-15 05:55:38.09	108.10	3.42	-59.3	-69.0	3.8	7.45e-01	0	27	104	0	83	10577
2026-01-15 05:55:39.09	108.02	3.49	-59.2	-69.0	3.8	7.47e-01	0	27	104	0	83	10538
2026-01-15 05:55:40.09	107.94	3.55	-59.2	-69.0	3.8	7.45e-01	0	27	104	0	83	10568
2026-01-15 05:55:41.09	107.86	3.62	-59.2	-69.0	3.8	7.45e-01	0	27	104	0	83	10539
2026-01-15 05:55:42.09	107.78	3.69	-59.2	-68.9	3.8	7.45e-01	0	27	104	0	83	10522
2026-01-15 05:55:43.09	107.69	3.76	-59.3	-68.9	3.8	7.46e-01	0	27	104	0	83	10516
2026-01-15 05:55:44.10	107.61	3.83	-59.2	-68.9	3.8	7.46e-01	0	27	104	0	83	10443
2026-01-15 05:55:45.10	107.52	3.90	-59.2	-68.8	3.8	7.45e-01	0	27	104	0	83	10348
2026-01-15 05:55:46.10	107.44	3.97	-59.2	-68.7	3.8	7.45e-01	0	27	104	0	83	10206
2026-01-15 05:55:47.10	107.35	4.04	-59.2	-68.7	3.8	7.45e-01	0	27	104	0	83	10244
2026-01-15 05:55:48.10	107.27	4.11	-59.2	-68.8	3.8	7.46e-01	0	27	104	0	83	10353
2026-01-15 05:55:49.10	107.18	4.18	-59.2	-68.9	3.8	7.44e-01	0	27	104	0	83	10526
2026-01-15 05:55:50.09	107.10	4.25	-59.3	-69.0	3.8	7.46e-01	0	27	104	0	83	10622
2026-01-15 05:55:51.09	107.01	4.32	-59.2	-68.7	3.8	7.45e-01	0	27	104	0	83	10291
2026-01-15 05:55:52.10	106.92	4.40	-59.0	-67.9	3.8	7.45e-01	0	27	104	0	82	9853
2026-01-15 05:55:53.11	106.83	4.47	-58.7	-66.6	3.9	7.42e-01	0	27	104	0	82	8530
2026-01-15 05:55:54.10	106.74	4.54	-58.3	-65.2	4.2	7.34e-01	0	27	0	4194304	81	7697
2026-01-15 05:55:55.10	106.65	4.61	-58.1	-64.4	4.4	7.25e-01	0	27	0	20971520	80	7452
2026-01-15 05:55:56.10	106.56	4.68	-57.7	-63.5	4.8	7.08e-01	0	27	0	35651584	80	6719
2026-01-15 05:55:57.10	106.47	4.75	-57.6	-63.2	5.0	7.06e-01	0	28	0	50331648	79	6844
2026-01-15 05:55:58.11	106.38	4.83	-57.5	-62.8	5.2	6.99e-01	0	27	0	67108864	79	6531
2026-01-15 05:55:59.11	106.28	4.90	-57.2	-62.4	5.5	6.91e-01	0	27	0	81788928	78	6595
2026-01-15 05:56:00.11	106.19	4.97	-57.1	-62.0	5.7	6.82e-01	0	27	0	96468992	78	6298
2026-01-15 05:56:01.10	106.10	5.04	-57.2	-62.4	5.5	6.91e-01	0	27	0	113246208	78	6574
2026-01-15 05:56:02.10	106.00	5.12	-57.3	-62.4	5.5	6.90e-01	0	27	0	127926272	78	6589
2026-01-15 05:56:03.10	105.91	5.19	-53.9	-56.9	9.7	6.18e-01	0	27	0	142606336	72	4972
2026-01-15 05:56:04.09	105.82	5.26	-58.9	-67.4	3.8	7.45e-01	0	28	104	153092096	81	9848
2026-01-15 05:56:05.09	105.72	5.34	-57.5	-62.4	5.7	6.87e-01	0	27	0	157286400	78	6628
2026-01-15 05:56:06.10	105.62	5.41	-53.6	-56.6	9.8	6.16e-01	0	27	0	171966464	70	5397
2026-01-15 05:56:07.09	105.53	5.49	-52.8	-55.6	10.7	6.12e-01	0	27	0	186646528	70	4809
2026-01-15 05:56:08.10	105.43	5.56	-53.2	-56.1	10.2	6.12e-01	0	27	0	203423744	70	5096
2026-01-15 05:56:09.11	105.33	5.64	-52.8	-55.6	10.7	6.11e-01	0	27	0	218103808	70	4776
2026-01-15 05:56:10.12	105.23	5.71	-53.1	-55.9	10.5	6.12e-01	0	27	0	234881024	70	4957
2026-01-15 05:56:11.12	105.13	5.79	-52.9	-55.7	10.6	6.11e-01	0	27	0	249561088	70	4846
2026-01-15 05:56:12.12	105.03	5.86	-52.7	-55.4	10.9	6.10e-01	0	27	0	264241152	70	4675
2026-01-15 05:56:13.12	104.93	5.94	-53.3	-56.2	10.1	6.15e-01	0	27	0	281018368	69	5459
2026-01-15 05:56:14.11	104.82	6.01	-53.1	-56.0	10.3	6.16e-01	0	27	0	295698432	69	5310
2026-01-15 05:56:15.11	104.72	6.09	-52.9	-55.8	10.5	6.10e-01	0	28	0	310378496	69	5174
2026-01-15 05:56:16.10	104.62	6.16	-53.4	-56.4	10.1	6.12e-01	0	28	0	325058560	70	5239
2026-01-15 05:56:17.11	104.51	6.24	-52.5	-55.3	10.9	6.10e-01	0	28	0	341835776	69	4882
2026-01-15 05:56:18.11	104.41	6.32	-52.6	-55.3	10.8	6.11e-01	0	28	0	356515840	69	4921
2026-01-15 05:56:19.10	104.31	6.39	-52.5	-55.2	10.9	6.13e-01	0	27	0	371195904	69	4849
2026-01-15 05:56:20.10	104.20	6.47	-52.6	-55.3	10.9	6.11e-01	0	28	0	385875968	69	4877
2026-01-15 05:56:21.09	104.09	6.55	-52.5	-55.2	10.9	6.07e-01	0	27	0	402653184	69	4852
2026-01-15 05:56:22.08	103.99	6.62	-52.6	-55.4	10.8	6.11e-01	0	28	0	417333248	69	4934
2026-01-15 05:56:23.08	103.88	6.70	-52.6	-55.3	10.9	6.10e-01	0	28	0	432013312	69	4911
2026-01-15 05:56:24.08	103.77	6.78	-52.5	-55.2	10.9	6.12e-01	0	28	0	448790528	69	4866
2026-01-15 05:56:25.07	103.66	6.86	-52.5	-55.2	10.9	6.12e-01	0	28	0	463470592	69	4868
2026-01-15 05:56:26.07	103.55	6.94	-52.5	-55.2	10.9	6.10e-01	0	28	0	478150656	69	4866
2026-01-15 05:56:27.06	103.44	7.01	-52.3	-55.0	11.2	6.10e-01	0	28	0	492830720	69	4710
2026-01-15 05:56:28.06	103.33	7.09	-52.2	-54.8	11.2	6.10e-01	0	27	0	509607936	68	4903
2026-01-15 05:56:29.05	103.22	7.17	-52.2	-54.8	11.2	6.04e-01	0	28	0	524288000	68	4899
2026-01-15 05:56:30.05	103.10	7.25	-52.1	-54.7	11.2	6.06e-01	0	28	0	538968064	68	4863
2026-01-15 05:56:31.05	102.99	7.33	-52.0	-54.7	11.3	6.09e-01	0	28	0	555745280	67	5118
2026-01-15 05:56:32.04	102.87	7.41	-52.0	-54.6	11.3	6.08e-01	0	28	0	570425344	67	5079
2026-01-15 05:56:33.05	102.76	7.49	-51.6	-54.2	11.7	6.00e-01	0	28	0	585105408	67	4845
2026-01-15 05:56:34.04	102.64	7.57	-51.8	-54.5	11.5	6.06e-01	0	28	0	601882624	67	4986
2026-01-15 05:56:35.04	102.52	7.65	-51.9	-54.6	11.4	6.04e-01	0	28	0	616562688	67	5043
2026-01-15 05:56:36.05	102.40	7.73	-51.6	-54.2	11.6	6.06e-01	0	28	0	631242752	67	4870
2026-01-15 05:56:37.05	102.28	7.81	-51.7	-54.3	11.5	6.05e-01	0	28	0	648019968	67	4920
2026-01-15 05:56:38.04	102.16	7.89	-51.7	-54.4	11.5	6.04e-01	0	28	0	662700032	67	4958
2026-01-15 05:56:39.04	102.04	7.97	-51.5	-54.1	11.7	6.07e-01	0	28	0	677380096	67	4806
2026-01-15 05:56:40.03	101.92	8.06	-51.5	-54.1	11.8	6.04e-01	0	28	0	694157312	67	4773
2026-01-15 05:56:41.03	101.80	8.14	-51.5	-54.1	11.7	6.05e-01	0	28	0	708837376	67	4813
2026-01-15 05:56:42.04	101.67	8.22	-51.5	-54.2	11.7	6.05e-01	0	28	0	723517440	67	4819
2026-01-15 05:56:43.03	101.55	8.30	-51.5	-54.2	11.7	6.08e-01	0	28	0	740294656	67	4819
2026-01-15 05:56:44.04	101.42	8.39	-51.5	-54.1	11.8	6.07e-01	0	28	0	754974720	67	4760
2026-01-15 05:56:45.04	101.30	8.47	-51.4	-54.1	11.8	6.08e-01	0	28	0	769654784	67	4764
2026-01-15 05:56:46.04	101.17	8.55	-51.3	-53.9	11.9	6.06e-01	0	28	0	786432000	67	4658
2026-01-15 05:56:47.05	101.04	8.64	-51.4	-54.0	11.9	6.04e-01	0	28	0	801112064	67	4710
2026-01-15 05:56:48.05	100.91	8.72	-51.6	-54.2	11.7	6.04e-01	0	28	0	815792128	67	4851
2026-01-15 05:56:49.05	100.78	8.81	-51.4	-54.0	11.9	6.06e-01	0	28	0	832569344	67	4727
2026-01-15 05:56:50.05	100.65	8.89	-51.4	-54.0	11.9	6.08e-01	0	28	0	847249408	67	4710
2026-01-15 05:56:50.98	100.52	8.97	-51.3	-53.9	11.9	6.02e-01	0	28	0	861929472	67	4668
2026-01-15 05:56:51.98	100.39	9.05	-51.4	-54.0	11.8	6.03e-01	0	28	0	878706688	67	4728
2026-01-15 05:56:52.97	100.26	9.14	-51.5	-54.1	11.8	6.05e-01	0	28	0	893386752	67	4787
2026-01-15 05:56:53.97	100.12	9.22	-51.1	-53.6	12.0	6.03e-01	0	28	0	908066816	66	4807
2026-01-15 05:56:54.97	99.99	9.31	-51.2	-53.7	11.9	6.05e-01	0	28	0	922746880	66	4869
2026-01-15 05:56:55.96	99.85	9.39	-51.2	-53.8	11.9	6.04e-01	0	28	0	939524096	66	4903
2026-01-15 05:56:56.96	99.71	9.48	-51.1	-53.7	12.0	6.00e-01	0	28	0	954204160	66	4844
2026-01-15 05:56:57.96	99.57	9.57	-51.0	-53.5	12.1	6.05e-01	0	28	0	968884224	66	4754
2026-01-15 05:56:58.96	99.43	9.65	-51.1	-53.7	12.0	6.08e-01	0	28	0	985661440	66	4827
2026-01-15 05:56:59.96	99.29	9.74	-50.9	-53.4	12.2	6.05e-01	0	28	0	1000341504	66	4689
2026-01-15 05:57:00.96	99.15	9.83	-50.8	-53.4	12.2	6.05e-01	0	28	0	1015021568	66	4674
2026-01-15 05:57:01.95	99.01	9.91	-51.0	-53.6	12.1	6.05e-01	0	28	0	1031798784	66	4786
2026-01-15 05:57:02.95	98.86	10.00	-51.0	-53.6	12.2	6.02e-01	0	28	0	1046478848	66	4763
2026-01-15 05:57:03.95	98.72	10.09	-50.7	-53.3	12.3	6.01e-01	0	28	0	1061158912	66	4631
2026-01-15 05:57:04.95	98.57	10.18	-50.7	-53.3	12.3	6.02e-01	0	28	0	1077936128	66	4613
2026-01-15 05:57:05.95	98.42	10.27	-50.8	-53.4	12.3	6.04e-01	0	28	0	1092616192	66	4670
2026-01-15 05:57:06.94	98.27	10.36	-50.6	-53.2	12.3	6.06e-01	0	28	0	1107296256	65	4855
2026-01-15 05:57:07.95	98.12	10.45	-50.6	-53.2	12.3	6.08e-01	0	28	0	1124073472	65	4866
2026-01-15 05:57:08.95	97.97	10.54	-50.5	-53.1	12.4	6.00e-01	0	28	0	1138753536	65	4809
2026-01-15 05:57:09.95	97.82	10.62	-50.6	-53.3	12.3	6.05e-01	0	28	0	1153433600	65	4873
2026-01-15 05:57:10.95	97.66	10.71	-50.5	-53.1	12.4	5.98e-01	0	28	0	1170210816	65	4809
2026-01-15 05:57:11.95	97.51	10.81	-50.5	-53.1	12.4	6.02e-01	0	28	0	1184890880	65	4794
2026-01-15 05:57:12.95	97.35	10.90	-50.6	-53.2	12.3	6.03e-01	0	28	0	1199570944	65	4833
2026-01-15 05:57:13.95	97.20	10.99	-50.6	-53.2	12.3	5.99e-01	0	28	0	1216348160	65	4843
2026-01-15 05:57:14.95	97.04	11.08	-50.5	-53.1	12.4	6.02e-01	0	28	0	1231028224	65	4771
2026-01-15 05:57:15.95	96.88	11.17	-50.6	-53.2	12.4	6.03e-01	0	28	0	1245708288	65	4815
2026-01-15 05:57:16.95	96.72	11.26	-50.4	-52.8	12.6	6.03e-01	0	28	0	1262485504	65	4629
2026-01-15 05:57:17.95	96.55	11.35	-50.3	-52.7	12.6	6.01e-01	0	28	0	1277165568	65	4577
2026-01-15 05:57:18.94	96.39	11.44	-50.3	-52.7	12.6	6.02e-01	0	28	0	1291845632	65	4585
2026-01-15 05:57:19.93	96.23	11.53	-50.3	-52.7	12.6	6.02e-01	0	28	0	1306525696	65	4569
2026-01-15 05:57:20.93	96.06	11.63	-50.2	-52.6	12.7	6.05e-01	0	28	0	1323302912	65	4508
2026-01-15 05:57:21.91	95.90	11.72	-50.2	-52.5	12.7	6.06e-01	0	28	0	1337982976	64	4741
2026-01-15 05:57:22.91	95.73	11.81	-50.0	-52.4	12.8	6.08e-01	0	28	0	1352663040	64	4667
2026-01-15 05:57:23.91	95.56	11.91	-50.0	-52.3	12.7	6.08e-01	0	28	0	1369440256	64	4648
2026-01-15 05:57:24.91	95.39	12.00	-49.9	-52.1	12.9	6.07e-01	0	28	0	1384120320	64	4540
2026-01-15 05:57:25.91	95.22	12.09	-49.8	-52.1	12.9	6.07e-01	0	28	0	1398800384	64	4539
2026-01-15 05:57:26.91	95.04	12.19	-49.8	-52.0	12.9	6.05e-01	0	28	0	1413480448	64	4480
2026-01-15 05:57:27.90	94.87	12.28	-49.7	-52.0	13.0	6.04e-01	0	28	0	1430257664	64	4453
2026-01-15 05:57:28.89	94.69	12.37	-49.6	-51.9	13.0	6.04e-01	0	28	0	1444937728	63	4676
2026-01-15 05:57:29.90	94.51	12.47	-49.7	-52.0	12.9	6.05e-01	0	28	0	1459617792	63	4748
2026-01-15 05:57:30.89	94.34	12.56	-49.8	-52.2	12.8	6.06e-01	0	28	0	1474297856	63	4820
2026-01-15 05:57:31.89	94.16	12.66	-49.5	-51.8	13.0	6.06e-01	0	28	0	1491075072	63	4631
2026-01-15 05:57:32.88	93.97	12.75	-49.5	-51.8	13.0	6.04e-01	0	28	0	1505755136	63	4641
2026-01-15 05:57:33.88	93.79	12.85	-49.5	-51.9	13.0	6.04e-01	0	28	0	1520435200	63	4683
2026-01-15 05:57:34.87	93.61	12.95	-49.5	-51.8	13.0	6.06e-01	0	28	0	1537212416	63	4645
2026-01-15 05:57:35.87	93.42	13.04	-49.5	-51.9	13.0	6.06e-01	0	28	0	1551892480	63	4682
2026-01-15 05:57:36.87	93.23	13.14	-49.6	-52.0	13.0	6.03e-01	0	28	0	1566572544	63	4722
2026-01-15 05:57:37.87	93.04	13.24	-49.5	-51.9	13.0	6.06e-01	0	28	0	1583349760	63	4671
2026-01-15 05:57:38.88	92.85	13.33	-49.4	-51.8	13.1	6.06e-01	0	28	0	1598029824	63	4609
2026-01-15 05:57:39.88	92.66	13.43	-49.4	-51.7	13.1	6.07e-01	0	28	0	1612709888	63	4572
2026-01-15 05:57:40.87	92.46	13.53	-49.4	-51.7	13.1	6.04e-01	0	28	0	1629487104	63	4568
2026-01-15 05:57:41.87	92.27	13.63	-49.3	-51.7	13.2	6.03e-01	0	28	0	1644167168	63	4546
2026-01-15 05:57:42.87	92.07	13.72	-49.3	-51.6	13.2	5.90e-01	0	28	0	1658847232	63	4524
2026-01-15 05:57:43.86	91.87	13.82	-49.2	-51.5	13.3	6.01e-01	0	28	0	1675624448	63	4477
2026-01-15 05:57:44.86	91.67	13.92	-49.3	-51.6	13.2	5.99e-01	0	28	0	1690304512	63	4501
2026-01-15 05:57:45.86	91.47	14.02	-49.3	-51.7	13.2	6.05e-01	0	28	0	1704984576	63	4550
2026-01-15 05:57:46.86	91.27	14.12	-49.1	-51.4	13.2	6.02e-01	0	28	0	1721761792	62	4658
2026-01-15 05:57:47.86	91.06	14.22	-49.1	-51.4	13.2	6.01e-01	0	28	0	1736441856	62	4682
2026-01-15 05:57:48.85	90.85	14.32	-49.0	-51.2	13.3	5.91e-01	0	28	0	1751121920	62	4591
2026-01-15 05:57:49.85	90.64	14.42	-49.0	-51.2	13.3	5.90e-01	0	28	0	1767899136	62	4563
2026-01-15 05:57:50.85	90.43	14.52	-49.0	-51.3	13.3	5.92e-01	0	28	0	1782579200	62	4601
2026-01-15 05:57:51.85	90.22	14.62	-49.0	-51.2	13.3	5.90e-01	0	28	0	1797259264	62	4563
2026-01-15 05:57:52.85	90.01	14.72	-48.9	-51.1	13.4	5.90e-01	0	28	0	1814036480	62	4521
2026-01-15 05:57:53.85	89.79	14.82	-48.8	-51.1	13.4	5.91e-01	0	28	0	1828716544	62	4499
2026-01-15 05:57:54.86	89.57	14.92	-48.8	-51.0	13.4	5.91e-01	0	28	0	1843396608	62	4470
2026-01-15 05:57:55.85	89.35	15.02	-48.8	-51.0	13.4	5.91e-01	0	28	0	1860173824	62	4483
2026-01-15 05:57:56.85	89.13	15.12	-48.7	-51.0	13.3	5.90e-01	0	28	0	1874853888	61	4706
2026-01-15 05:57:57.85	88.91	15.22	-48.6	-50.9	13.4	5.90e-01	0	28	0	1889533952	61	4699
2026-01-15 05:57:58.85	88.68	15.32	-48.6	-50.9	13.4	5.91e-01	0	28	0	1904214016	61	4679
2026-01-15 05:57:59.84	88.46	15.42	-48.6	-50.9	13.4	5.92e-01	0	28	0	1918894080	61	4705
2026-01-15 05:58:00.84	88.23	15.52	-48.4	-50.8	13.5	5.90e-01	0	28	0	1935671296	61	4605
2026-01-15 05:58:01.84	88.00	15.62	-48.5	-50.9	13.4	5.87e-01	0	28	0	1950351360	61	4667
2026-01-15 05:58:02.85	87.77	15.73	-48.6	-50.9	13.4	5.89e-01	0	28	0	1967128576	61	4705
2026-01-15 05:58:03.85	87.53	15.83	-48.4	-50.7	13.5	5.89e-01	0	28	0	1981808640	61	4554
2026-01-15 05:58:04.85	87.30	15.93	-48.5	-50.8	13.5	5.90e-01	0	28	0	1996488704	61	4608
2026-01-15 05:58:05.85	87.06	16.03	-48.4	-50.7	13.5	5.88e-01	0	28	0	2013265920	61	4567
2026-01-15 05:58:06.84	86.82	16.13	-48.4	-50.7	13.5	5.90e-01	0	28	0	2027945984	61	4572
2026-01-15 05:58:07.84	86.58	16.24	-48.5	-50.7	13.5	5.92e-01	0	28	0	2042626048	61	4586
2026-01-15 05:58:08.85	86.33	16.34	-48.4	-50.6	13.6	5.89e-01	0	28	0	2059403264	61	4530
2026-01-15 05:58:09.85	86.09	16.44	-48.4	-50.7	13.5	5.93e-01	0	28	0	2074083328	61	4550
2026-01-15 05:58:10.85	85.84	16.55	-48.3	-50.6	13.6	5.91e-01	0	28	0	2088763392	61	4507
2026-01-15 05:58:11.85	85.59	16.65	-48.3	-50.6	13.6	5.92e-01	0	28	0	2105540608	61	4508
2026-01-15 05:58:12.85	85.34	16.75	-48.2	-50.4	13.7	5.87e-01	0	28	0	2120220672	61	4435
2026-01-15 05:58:13.84	85.08	16.85	-48.1	-50.3	13.6	5.90e-01	0	28	0	2134900736	60	4614
2026-01-15 05:58:14.84	84.83	16.96	-48.1	-50.3	13.6	5.90e-01	0	28	0	2149580800	60	4629
2026-01-15 05:58:15.84	84.57	17.06	-48.0	-50.3	13.6	5.87e-01	0	28	0	2166358016	60	4601
2026-01-15 05:58:16.84	84.31	17.16	-48.0	-50.3	13.7	5.91e-01	0	28	0	2181038080	60	4601
2026-01-15 05:58:17.84	84.05	17.27	-47.9	-50.2	13.7	5.90e-01	0	28	0	2195718144	60	4559
2026-01-15 05:58:18.84	83.78	17.37	-48.0	-50.2	13.7	5.89e-01	0	28	0	2212495360	60	4557
2026-01-15 05:58:19.84	83.52	17.47	-47.9	-50.1	13.8	5.90e-01	0	28	0	2227175424	60	4516
2026-01-15 05:58:20.83	83.25	17.57	-47.8	-50.0	13.8	5.91e-01	0	28	0	2241855488	60	4488
2026-01-15 05:58:21.82	82.98	17.68	-47.8	-50.0	13.8	5.87e-01	0	28	0	2258632704	60	4479
2026-01-15 05:58:22.82	82.71	17.78	-47.8	-50.0	13.7	5.89e-01	0	28	0	2273312768	59	4728
2026-01-15 05:58:23.82	82.43	17.88	-47.9	-50.2	13.6	5.90e-01	0	28	0	2287992832	59	4822
2026-01-15 05:58:24.82	82.16	17.99	-47.9	-50.1	13.6	5.92e-01	0	28	0	2304770048	59	4811
2026-01-15 05:58:25.81	81.88	18.09	-47.9	-50.2	13.6	5.90e-01	0	28	0	2319450112	59	4843
2026-01-15 05:58:26.82	81.60	18.19	-47.9	-50.2	13.6	6.05e-01	0	28	0	2334130176	59	4858
2026-01-15 05:58:27.81	81.31	18.29	-48.0	-50.3	13.5	6.04e-01	0	28	0	2350907392	59	4913
2026-01-15 05:58:28.81	81.03	18.40	-48.0	-50.3	13.6	6.05e-01	0	28	0	2365587456	59	4876
2026-01-15 05:58:29.81	80.74	18.50	-47.9	-50.2	13.6	6.05e-01	0	28	0	2380267520	59	4835
2026-01-15 05:58:30.80	80.45	18.60	-47.9	-50.2	13.6	6.05e-01	0	28	0	2397044736	59	4833
2026-01-15 05:58:31.80	80.16	18.70	-48.0	-50.2	13.6	6.04e-01	0	28	0	2411724800	59	4860
2026-01-15 05:58:32.80	79.86	18.80	-47.9	-50.1	13.6	6.05e-01	0	28	0	2426404864	59	4810
2026-01-15 05:58:33.79	79.57	18.90	-47.9	-50.1	13.6	6.06e-01	0	28	0	2441084928	59	4809
2026-01-15 05:58:34.78	79.27	19.01	-47.8	-50.0	13.7	6.04e-01	0	28	0	2455764992	59	4743
2026-01-15 05:58:35.77	78.97	19.11	-47.9	-50.1	13.6	6.04e-01	0	28	0	2472542208	59	4786
2026-01-15 05:58:36.78	78.66	19.21	-48.0	-50.2	13.6	6.04e-01	0	28	0	2487222272	59	4815
2026-01-15 05:58:37.77	78.36	19.31	-47.9	-50.0	13.7	6.05e-01	0	28	0	2501902336	59	4754
2026-01-15 05:58:38.76	78.05	19.41	-47.9	-50.1	13.6	6.04e-01	0	28	0	2518679552	59	4762
2026-01-15 05:58:39.76	77.74	19.51	-47.8	-50.0	13.7	6.05e-01	0	28	0	2533359616	59	4721
2026-01-15 05:58:40.76	77.43	19.61	-47.9	-50.1	13.7	6.05e-01	0	28	0	2548039680	59	4808
2026-01-15 05:58:41.76	77.11	19.71	-47.8	-50.0	13.7	6.07e-01	0	28	0	2564816896	59	4758
2026-01-15 05:58:42.76	76.79	19.81	-47.7	-50.1	13.7	6.05e-01	0	28	0	2579496960	59	4760
2026-01-15 05:58:43.76	76.47	19.91	-47.7	-50.2	13.7	6.03e-01	0	28	0	2594177024	59	4829
2026-01-15 05:58:44.76	76.15	20.01	-47.8	-50.2	13.7	6.06e-01	0	28	0	2610954240	59	4863
2026-01-15 05:58:45.77	75.82	20.11	-47.6	-49.9	13.8	6.05e-01	0	28	0	2625634304	59	4698
2026-01-15 05:58:46.77	75.49	20.21	-47.4	-49.7	13.9	6.03e-01	0	28	0	2640314368	59	4593
2026-01-15 05:58:47.77	75.16	20.30	-47.4	-49.7	13.9	6.07e-01	0	28	0	2657091584	59	4565
2026-01-15 05:58:48.77	74.83	20.40	-47.3	-49.6	13.9	6.05e-01	0	28	0	2671771648	59	4505
2026-01-15 05:58:49.77	74.49	20.50	-47.4	-49.5	13.9	6.04e-01	0	28	0	2686451712	59	4476
2026-01-15 05:58:50.77	74.15	20.59	-47.3	-49.5	13.9	6.03e-01	0	28	0	2703228928	59	4453
2026-01-15 05:58:51.76	73.81	20.69	-47.4	-49.5	13.9	6.06e-01	0	28	0	2717908992	59	4482
2026-01-15 05:58:52.75	73.47	20.78	-47.4	-49.6	13.9	6.04e-01	0	28	0	2732589056	59	4501
2026-01-15 05:58:53.75	73.13	20.88	-47.6	-49.7	13.8	6.04e-01	0	29	0	2749366272	59	4575
2026-01-15 05:58:54.75	72.78	20.97	-47.5	-49.7	13.9	6.02e-01	0	28	0	2764046336	59	4556
2026-01-15 05:58:55.74	72.43	21.07	-47.7	-49.9	13.8	6.05e-01	0	28	0	2778726400	59	4675
2026-01-15 05:58:56.74	72.08	21.16	-47.6	-49.9	13.8	6.04e-01	0	28	0	2793406464	59	4666
2026-01-15 05:58:57.74	71.73	21.25	-47.7	-50.0	13.7	6.03e-01	0	28	0	2810183680	59	4721
2026-01-15 05:58:58.74	71.37	21.34	-47.7	-50.0	13.7	6.02e-01	0	28	0	2824863744	59	4753
2026-01-15 05:58:59.74	71.01	21.44	-47.7	-50.1	13.7	6.03e-01	0	28	0	2839543808	59	4801
2026-01-15 05:59:00.74	70.65	21.53	-47.7	-50.1	13.8	6.05e-01	0	28	0	2856321024	59	4767
2026-01-15 05:59:01.74	70.28	21.62	-47.8	-50.2	13.6	6.07e-01	0	28	0	2871001088	59	4835
2026-01-15 05:59:02.74	69.91	21.71	-47.6	-49.9	13.8	6.04e-01	0	28	0	2885681152	59	4684
2026-01-15 05:59:03.74	69.54	21.79	-47.6	-50.0	13.8	6.04e-01	0	28	0	2900361216	59	4711
2026-01-15 05:59:04.74	69.17	21.88	-47.5	-49.8	13.8	6.03e-01	0	28	0	2917138432	59	4643
2026-01-15 05:59:05.74	68.80	21.97	-47.4	-49.7	13.9	6.02e-01	0	28	0	2931818496	59	4569
2026-01-15 05:59:06.74	68.42	22.06	-47.5	-49.8	13.9	6.05e-01	0	28	0	2946498560	59	4627
2026-01-15 05:59:07.73	68.05	22.14	-47.4	-49.7	13.9	6.04e-01	0	28	0	2963275776	59	4592
2026-01-15 05:59:08.73	67.66	22.22	-47.5	-49.8	13.8	6.04e-01	0	28	0	2977955840	59	4605
2026-01-15 05:59:09.74	67.28	22.31	-47.4	-49.7	13.9	6.02e-01	0	28	0	2992635904	59	4594
2026-01-15 05:59:10.74	66.89	22.39	-47.6	-49.9	13.8	6.06e-01	0	29	0	3009413120	59	4702
2026-01-15 05:59:11.74	66.50	22.47	-47.6	-49.9	13.8	6.04e-01	0	28	0	3024093184	59	4693
2026-01-15 05:59:12.73	66.11	22.55	-47.6	-50.0	13.8	6.03e-01	0	28	0	3038773248	59	4738
2026-01-15 05:59:13.72	65.72	22.63	-47.6	-50.0	13.7	6.04e-01	0	28	0	3055550464	59	4751
2026-01-15 05:59:14.72	65.33	22.71	-47.6	-49.9	13.8	6.03e-01	0	28	0	3070230528	59	4704
2026-01-15 05:59:15.72	64.93	22.79	-47.7	-50.1	13.7	6.05e-01	0	28	0	3084910592	59	4780
2026-01-15 05:59:16.72	64.53	22.87	-47.6	-49.9	13.8	6.03e-01	0	28	0	3101687808	59	4688
2026-01-15 05:59:17.72	64.13	22.94	-47.3	-49.7	13.9	6.04e-01	0	28	0	3116367872	59	4561
2026-01-15 05:59:18.72	63.72	23.02	-47.3	-49.6	13.9	6.05e-01	0	28	0	3131047936	59	4533
2026-01-15 05:59:19.72	63.32	23.09	-47.4	-49.8	13.9	6.05e-01	0	28	0	3147825152	59	4638
2026-01-15 05:59:20.72	62.91	23.16	-47.4	-49.9	13.9	6.02e-01	0	28	0	3162505216	59	4654
2026-01-15 05:59:21.72	62.50	23.23	-47.4	-49.8	13.9	6.04e-01	0	28	0	3177185280	59	4632
2026-01-15 05:59:22.72	62.09	23.30	-47.4	-49.8	13.9	6.04e-01	0	28	0	3193962496	59	4611
2026-01-15 05:59:23.72	61.67	23.37	-47.4	-49.7	13.9	6.03e-01	0	28	0	3208642560	59	4588
2026-01-15 05:59:24.72	61.25	23.44	-47.4	-49.7	13.9	6.03e-01	0	28	0	3223322624	59	4567
2026-01-15 05:59:25.72	60.84	23.51	-47.4	-49.7	13.9	6.06e-01	0	28	0	3240099840	59	4575
2026-01-15 05:59:26.72	60.41	23.57	-47.4	-49.8	13.9	6.06e-01	0	28	0	3254779904	59	4600
2026-01-15 05:59:27.71	60.00	23.63	-47.5	-49.8	13.9	6.01e-01	0	28	0	3269459968	59	4607
2026-01-15 05:59:28.71	59.57	23.70	-47.5	-49.7	13.9	6.05e-01	0	28	0	3286237184	59	4594
2026-01-15 05:59:29.71	59.14	23.76	-47.6	-49.9	13.8	6.03e-01	0	28	0	3300917248	59	4697
2026-01-15 05:59:30.71	58.72	23.82	-47.6	-50.0	13.8	6.03e-01	0	28	0	3315597312	59	4735
2026-01-15 05:59:31.69	58.29	23.87	-47.6	-50.0	13.8	6.05e-01	0	28	0	3330277376	59	4710
2026-01-15 05:59:32.69	57.86	23.93	-47.6	-49.9	13.8	6.04e-01	0	28	0	3347054592	59	4704
2026-01-15 05:59:33.68	57.43	23.99	-47.6	-50.0	13.8	6.03e-01	0	28	0	3361734656	59	4750
2026-01-15 05:59:34.68	57.00	24.04	-47.7	-50.1	13.8	6.04e-01	0	28	0	3376414720	59	4799
2026-01-15 05:59:35.69	56.56	24.09	-47.8	-50.2	13.7	6.03e-01	0	28	0	3391094784	59	4829
2026-01-15 05:59:36.69	56.12	24.14	-47.7	-50.2	13.7	6.02e-01	0	28	0	3407872000	59	4825
2026-01-15 05:59:37.69	55.68	24.19	-47.7	-50.1	13.7	6.04e-01	0	28	0	3422552064	59	4801
2026-01-15 05:59:38.69	55.24	24.24	-47.7	-50.1	13.7	6.04e-01	0	28	0	3437232128	59	4793
2026-01-15 05:59:39.69	54.79	24.29	-47.7	-50.1	13.7	6.05e-01	0	29	0	3454009344	59	4802
2026-01-15 05:59:40.69	54.35	24.33	-47.8	-50.3	13.6	6.04e-01	0	28	0	3468689408	59	4884
2026-01-15 05:59:41.69	53.90	24.37	-47.8	-50.2	13.7	6.05e-01	0	29	0	3483369472	59	4835
2026-01-15 05:59:42.69	53.45	24.41	-47.8	-50.3	13.7	6.03e-01	0	28	0	3500146688	59	4874
2026-01-15 05:59:43.70	53.00	24.45	-47.8	-50.3	13.7	6.05e-01	0	28	0	3514826752	59	4913
2026-01-15 05:59:44.70	52.55	24.49	-47.9	-50.4	13.6	6.04e-01	0	28	0	3531603968	59	4954
2026-01-15 05:59:45.69	52.10	24.53	-48.0	-50.5	13.6	6.03e-01	0	28	0	3546284032	59	5033
2026-01-15 05:59:46.69	51.65	24.56	-48.0	-50.6	13.6	6.04e-01	0	29	0	3560964096	59	5069
2026-01-15 05:59:47.69	51.20	24.59	-48.0	-50.6	13.6	6.03e-01	0	28	0	3575644160	59	5066
2026-01-15 05:59:48.69	50.74	24.63	-48.1	-50.6	13.5	6.03e-01	0	28	0	3592421376	59	5098
2026-01-15 05:59:49.69	50.29	24.66	-47.9	-50.6	13.6	6.06e-01	0	28	0	3607101440	59	5044
2026-01-15 05:59:50.70	49.83	24.68	-48.0	-50.7	13.5	6.04e-01	0	28	0	3623878656	59	5158
2026-01-15 05:59:51.70	49.37	24.71	-48.2	-50.9	13.4	6.04e-01	0	28	0	3638558720	59	5235
2026-01-15 05:59:52.70	48.91	24.73	-48.2	-50.9	13.4	6.02e-01	0	28	0	3653238784	59	5227
2026-01-15 05:59:53.71	48.45	24.76	-48.3	-51.0	13.4	6.04e-01	0	28	0	3670016000	59	5308
2026-01-15 05:59:54.71	47.99	24.78	-48.3	-51.0	13.4	6.06e-01	0	28	0	3684696064	59	5329
2026-01-15 05:59:55.71	47.53	24.79	-48.1	-50.9	13.4	6.04e-01	0	28	0	3699376128	59	5253
2026-01-15 05:59:56.70	47.08	24.81	-48.2	-51.0	13.4	6.03e-01	0	28	0	3716153344	59	5297
2026-01-15 05:59:57.69	46.62	24.83	-48.2	-51.0	13.4	6.02e-01	0	28	0	3730833408	59	5331
2026-01-15 05:59:58.68	46.16	24.84	-48.3	-51.2	13.3	6.03e-01	0	28	0	3745513472	59	5403
2026-01-15 05:59:59.68	45.70	24.85	-48.4	-51.2	13.4	6.03e-01	0	28	0	3760193536	60	5123
2026-01-15 06:00:00.68	45.24	24.86	-48.4	-51.2	13.4	6.02e-01	0	28	0	3776970752	60	5121
2026-01-15 06:00:01.67	44.78	24.87	-48.1	-50.9	13.5	6.03e-01	0	28	0	3791650816	60	4969
2026-01-15 06:00:02.66	44.32	24.87	-48.2	-51.0	13.5	6.04e-01	0	28	0	3806330880	60	5016
2026-01-15 06:00:03.65	43.87	24.88	-48.0	-50.9	13.6	6.04e-01	0	28	0	3823108096	60	4948
2026-01-15 06:00:04.65	43.40	24.88	-48.1	-50.9	13.5	6.02e-01	0	28	0	3837788160	60	4983
2026-01-15 06:00:05.66	42.94	24.88	-48.2	-51.1	13.5	6.04e-01	0	28	0	3852468224	60	5049
2026-01-15 06:00:06.66	42.47	24.88	-48.1	-51.0	13.5	6.04e-01	0	28	0	3869245440	60	5029
2026-01-15 06:00:07.66	42.01	24.87	-48.3	-51.2	13.4	6.06e-01	0	28	0	3883925504	60	5104
2026-01-15 06:00:08.65	41.55	24.87	-48.1	-50.9	13.6	6.04e-01	0	28	0	3898605568	60	4952
2026-01-15 06:00:09.65	41.09	24.86	-48.2	-51.0	13.5	6.04e-01	0	28	0	3915382784	60	4989
2026-01-15 06:00:10.66	40.62	24.85	-48.2	-51.0	13.5	6.02e-01	0	28	0	3930062848	60	5024
2026-01-15 06:00:11.66	40.16	24.84	-48.2	-51.1	13.5	6.04e-01	0	28	0	3944742912	60	5045
2026-01-15 06:00:12.65	39.70	24.83	-48.3	-51.2	13.4	6.03e-01	0	28	0	3959422976	60	5132
2026-01-15 06:00:13.65	39.24	24.82	-48.3	-51.1	13.4	6.02e-01	0	28	0	3976200192	60	5073
2026-01-15 06:00:14.65	38.78	24.80	-48.4	-51.2	13.4	6.03e-01	0	28	0	3990880256	60	5114
2026-01-15 06:00:15.65	38.32	24.78	-48.3	-51.0	13.5	6.02e-01	0	28	0	4005560320	60	5039
2026-01-15 06:00:16.65	37.86	24.76	-48.2	-51.0	13.5	6.02e-01	0	28	0	4022337536	60	4989
2026-01-15 06:00:17.65	37.41	24.74	-48.3	-51.0	13.5	6.04e-01	0	28	0	4037017600	60	5024
2026-01-15 06:00:18.64	36.95	24.72	-48.4	-51.2	13.4	6.04e-01	0	28	0	4051697664	60	5134
2026-01-15 06:00:19.65	36.49	24.69	-48.4	-51.3	13.4	6.04e-01	0	28	0	4068474880	60	5170
2026-01-15 06:00:20.66	36.03	24.66	-48.3	-51.2	13.4	6.04e-01	0	29	0	4083154944	60	5141
2026-01-15 06:00:21.65	35.58	24.64	-48.4	-51.3	13.4	6.04e-01	0	28	0	4097835008	60	5161
2026-01-15 06:00:22.65	35.13	24.60	-48.4	-51.2	13.4	6.06e-01	0	28	0	4114612224	60	5134
2026-01-15 06:00:23.65	34.67	24.57	-48.2	-51.0	13.5	6.05e-01	0	28	0	4129292288	60	5013
2026-01-15 06:00:24.64	34.23	24.54	-48.3	-51.1	13.4	6.03e-01	0	28	0	4143972352	60	5060
2026-01-15 06:00:25.64	33.77	24.50	-48.5	-51.2	13.4	6.04e-01	0	28	0	4158652416	60	5154
2026-01-15 06:00:26.63	33.33	24.47	-48.5	-51.3	13.3	6.04e-01	0	28	0	4175429632	60	5193
2026-01-15 06:00:27.62	32.89	24.43	-48.5	-51.4	13.3	6.03e-01	0	28	0	4190109696	60	5221
2026-01-15 06:00:28.61	32.44	24.39	-48.4	-51.2	13.4	6.04e-01	0	28	0	4204789760	60	5154
2026-01-15 06:00:29.59	32.01	24.35	-48.4	-51.1	13.4	6.02e-01	0	28	0	4219469824	60	5063
2026-01-15 06:00:30.60	31.56	24.30	-48.4	-51.0	13.5	6.03e-01	0	28	0	4236247040	60	5030
2026-01-15 06:00:31.60	31.11	24.26	-48.3	-51.0	13.5	6.04e-01	0	28	0	4250927104	60	4988
2026-01-15 06:00:32.60	30.67	24.21	-48.3	-50.9	13.5	6.04e-01	0	29	0	4267704320	60	4929
2026-01-15 06:00:33.60	30.23	24.16	-48.3	-50.9	13.5	6.05e-01	0	28	0	4282384384	60	4978
2026-01-15 06:00:34.60	29.79	24.11	-48.4	-51.1	13.4	6.03e-01	0	28	0	4297064448	60	5062
2026-01-15 06:00:35.59	29.36	24.06	-48.4	-51.0	13.5	6.04e-01	0	28	0	4311744512	60	5027
2026-01-15 06:00:36.59	28.92	24.01	-48.4	-51.1	13.4	6.03e-01	0	28	0	4328521728	60	5053
2026-01-15 06:00:37.58	28.50	23.95	-48.4	-51.0	13.4	6.03e-01	0	28	0	4343201792	60	5036
2026-01-15 06:00:38.57	28.07	23.90	-48.2	-50.8	13.6	6.03e-01	0	28	0	4357881856	60	4893
2026-01-15 06:00:39.57	27.64	23.84	-48.2	-50.8	13.6	6.03e-01	0	28	0	4372561920	60	4897
2026-01-15 06:00:40.56	27.21	23.78	-48.3	-50.9	13.5	6.01e-01	0	28	0	4389339136	60	4959
2026-01-15 06:00:41.56	26.79	23.72	-48.2	-50.9	13.6	6.01e-01	0	28	0	4404019200	60	4950
2026-01-15 06:00:42.56	26.36	23.66	-48.3	-51.1	13.5	6.00e-01	0	28	0	4418699264	60	5045
2026-01-15 06:00:43.55	25.94	23.60	-48.3	-51.0	13.5	6.03e-01	0	28	0	4435476480	60	5035
2026-01-15 06:00:44.56	25.52	23.53	-48.3	-51.0	13.5	6.02e-01	0	28	0	4450156544	60	5006
2026-01-15 06:00:45.56	25.10	23.47	-48.5	-51.2	13.4	6.03e-01	0	28	0	4464836608	60	5127
2026-01-15 06:00:46.56	24.68	23.40	-48.3	-51.0	13.5	6.03e-01	0	28	0	4481613824	60	5020
2026-01-15 06:00:47.55	24.27	23.33	-48.1	-50.8	13.6	6.03e-01	0	28	0	4496293888	60	4871
2026-01-15 06:00:48.55	23.86	23.26	-48.2	-50.8	13.6	6.05e-01	0	28	0	4510973952	60	4904
2026-01-15 06:00:49.56	23.44	23.19	-48.2	-50.9	13.5	6.01e-01	0	29	0	4527751168	60	4970
2026-01-15 06:00:50.56	23.04	23.12	-48.2	-51.0	13.5	6.03e-01	0	28	0	4542431232	60	4987
2026-01-15 06:00:51.56	22.63	23.05	-48.3	-51.0	13.5	6.01e-01	0	28	0	4557111296	60	5000
2026-01-15 06:00:52.56	22.22	22.97	-48.4	-51.0	13.4	6.03e-01	0	28	0	4573888512	60	5041
2026-01-15 06:00:53.55	21.83	22.90	-48.2	-50.9	13.5	6.03e-01	0	29	0	4588568576	60	4933
2026-01-15 06:00:54.56	21.42	22.82	-48.3	-51.0	13.5	6.02e-01	0	28	0	4603248640	60	4993
2026-01-15 06:00:55.56	21.03	22.74	-48.3	-50.9	13.5	6.02e-01	0	29	0	4620025856	60	4983
2026-01-15 06:00:56.55	20.63	22.67	-48.3	-50.9	13.5	6.02e-01	0	28	0	4634705920	60	4963
2026-01-15 06:00:57.56	20.24	22.59	-48.4	-51.0	13.4	6.01e-01	0	28	0	4649385984	60	5018
2026-01-15 06:00:58.56	19.85	22.51	-48.3	-51.0	13.5	6.02e-01	0	29	0	4666163200	60	4991
2026-01-15 06:00:59.56	19.46	22.43	-48.3	-50.9	13.5	6.03e-01	0	28	0	4680843264	60	4969
2026-01-15 06:01:00.55	19.07	22.34	-48.3	-51.0	13.4	6.03e-01	0	28	0	4695523328	60	5014
2026-01-15 06:01:01.55	18.69	22.26	-48.4	-51.0	13.4	6.05e-01	0	28	0	4712300544	60	5026
2026-01-15 06:01:02.55	18.31	22.18	-48.5	-51.1	13.4	6.02e-01	0	28	0	4726980608	60	5059
2026-01-15 06:01:03.55	17.93	22.09	-48.4	-50.9	13.5	6.03e-01	0	28	0	4741660672	60	4982
2026-01-15 06:01:04.55	17.55	22.01	-48.2	-50.8	13.6	6.00e-01	0	28	0	4758437888	60	4881
2026-01-15 06:01:05.55	17.18	21.92	-48.3	-50.7	13.6	6.04e-01	0	28	0	4773117952	60	4854
2026-01-15 06:01:06.55	16.81	21.83	-48.3	-50.8	13.5	6.02e-01	0	28	0	4787798016	60	4913
2026-01-15 06:01:07.55	16.44	21.74	-48.4	-51.0	13.4	6.03e-01	0	29	0	4804575232	60	5013
2026-01-15 06:01:08.55	16.07	21.66	-48.5	-51.2	13.4	6.02e-01	0	29	0	4819255296	60	5102
2026-01-15 06:01:09.55	15.71	21.57	-48.5	-51.1	13.4	6.03e-01	0	28	0	4833935360	60	5066
2026-01-15 06:01:10.55	15.34	21.48	-48.4	-51.1	13.4	6.04e-01	0	28	0	4850712576	60	5070
2026-01-15 06:01:11.55	14.98	21.38	-48.5	-51.1	13.4	6.01e-01	0	28	0	4865392640	60	5085
2026-01-15 06:01:12.55	14.63	21.29	-48.4	-51.1	13.4	6.03e-01	0	29	0	4880072704	60	5048
2026-01-15 06:01:13.56	14.27	21.20	-48.4	-51.1	13.4	6.02e-01	0	28	0	4896849920	60	5049
2026-01-15 06:01:14.56	13.91	21.11	-48.4	-51.1	13.4	6.03e-01	0	28	0	4911529984	60	5057
2026-01-15 06:01:15.55	13.57	21.01	-48.5	-51.2	13.3	6.02e-01	0	28	0	4926210048	60	5141
2026-01-15 06:01:16.55	13.22	20.92	-48.4	-51.1	13.4	6.03e-01	0	29	0	4940890112	60	5044
2026-01-15 06:01:17.55	12.87	20.83	-48.4	-51.0	13.4	6.01e-01	0	28	0	4957667328	60	5032
2026-01-15 06:01:18.55	12.53	20.73	-48.4	-51.1	13.4	6.02e-01	0	29	0	4972347392	60	5051
2026-01-15 06:01:19.55	12.19	20.64	-48.4	-51.0	13.4	6.04e-01	0	28	0	4987027456	60	5034
2026-01-15 06:01:20.55	11.85	20.54	-48.4	-51.0	13.4	6.02e-01	0	28	0	5003804672	60	5036
2026-01-15 06:01:21.54	11.52	20.44	-48.5	-51.1	13.3	6.02e-01	0	29	0	5018484736	60	5088
2026-01-15 06:01:22.54	11.19	20.35	-48.6	-51.2	13.4	6.03e-01	0	28	0	5033164800	60	5101
2026-01-15 06:01:23.54	10.86	20.25	-48.6	-51.2	13.3	6.02e-01	0	28	0	5047844864	60	5127
2026-01-15 06:01:24.53	10.53	20.15	-48.5	-51.1	13.4	6.02e-01	0	29	0	5064622080	60	5054
2026-01-15 06:01:25.53	10.21	20.05	-48.5	-51.1	13.3	6.02e-01	0	29	0	5079302144	60	5085
2026-01-15 06:01:26.54	9.88	19.96	-48.6	-51.2	13.3	6.01e-01	0	28	0	5093982208	60	5101
2026-01-15 06:01:27.53	9.56	19.86	-48.5	-51.1	13.3	6.05e-01	0	28	0	5110759424	60	5068
2026-01-15 06:01:28.53	9.24	19.76	-48.6	-51.2	13.3	6.03e-01	0	28	0	5125439488	60	5141
2026-01-15 06:01:29.51	8.93	19.66	-48.6	-51.2	13.3	6.03e-01	0	29	0	5140119552	60	5129
2026-01-15 06:01:30.51	8.62	19.56	-48.6	-51.3	13.3	6.04e-01	0	28	0	5156896768	60	5163
2026-01-15 06:01:31.51	8.31	19.46	-48.6	-51.3	13.3	6.02e-01	0	28	0	5171576832	60	5187
2026-01-15 06:01:32.51	8.00	19.36	-48.6	-51.3	13.3	6.02e-01	0	28	0	5186256896	60	5188
2026-01-15 06:01:33.50	7.69	19.26	-48.7	-51.4	13.2	6.03e-01	0	29	0	5203034112	60	5228
2026-01-15 06:01:34.49	7.39	19.16	-48.7	-51.3	13.3	6.04e-01	0	28	0	5217714176	60	5197
2026-01-15 06:01:35.50	7.09	19.06	-48.6	-51.3	13.3	6.03e-01	0	28	0	5232394240	60	5178
2026-01-15 06:01:36.50	6.79	18.96	-48.7	-51.4	13.2	6.03e-01	0	28	0	5249171456	60	5228
2026-01-15 06:01:37.50	6.49	18.86	-48.7	-51.3	13.2	6.06e-01	0	29	0	5263851520	60	5196
2026-01-15 06:01:38.50	6.19	18.75	-48.8	-51.4	13.2	6.04e-01	0	28	0	5278531584	60	5240
2026-01-15 06:01:39.50	5.90	18.65	-48.7	-51.4	13.2	6.04e-01	0	28	0	5295308800	60	5220
2026-01-15 06:01:40.49	5.61	18.55	-48.7	-51.4	13.2	6.00e-01	0	29	0	5309988864	60	5227
2026-01-15 06:01:41.50	5.32	18.45	-48.7	-51.3	13.2	5.90e-01	0	29	0	5324668928	60	5205
2026-01-15 06:01:42.50	5.04	18.35	-48.8	-51.4	13.2	5.90e-01	0	29	0	5341446144	60	5253
2026-01-15 06:01:43.50	4.75	18.24	-48.7	-51.3	13.2	5.88e-01	0	28	0	5356126208	60	5198
2026-01-15 06:01:44.50	4.47	18.14	-48.8	-51.4	13.2	5.90e-01	0	28	0	5370806272	60	5248
2026-01-15 06:01:45.50	4.19	18.04	-48.8	-51.5	13.2	5.92e-01	0	29	0	5387583488	60	5282
2026-01-15 06:01:46.50	3.91	17.94	-49.0	-51.6	13.2	5.89e-01	0	28	0	5402263552	61	5074
2026-01-15 06:01:47.51	3.64	17.83	-49.0	-51.7	13.1	5.90e-01	0	28	0	5416943616	61	5131
2026-01-15 06:01:48.51	3.36	17.73	-48.9	-51.6	13.2	5.90e-01	0	28	0	5431623680	61	5071
2026-01-15 06:01:49.50	3.10	17.63	-48.9	-51.6	13.2	5.92e-01	0	28	0	5448400896	61	5047
2026-01-15 06:01:50.50	2.83	17.53	-49.0	-51.6	13.2	5.92e-01	0	29	0	5463080960	61	5046
2026-01-15 06:01:51.50	2.56	17.42	-50.2	-51.4	13.1	5.87e-01	0	28	0	5477761024	63	4435
2026-01-15 06:01:52.50	2.30	17.32	-50.3	-51.6	13.0	5.92e-01	0	29	0	5494538240	63	4497
2026-01-15 06:01:53.50	2.03	17.22	-60.4	-70.2	3.8	7.46e-01	0	28	104	5496635392	83	12130
2026-01-15 06:01:54.50	1.77	17.11	-60.6	-70.3	3.8	7.47e-01	0	28	104	5496635392	84	11643
2026-01-15 06:01:55.50	1.52	17.01	-60.6	-70.3	3.8	7.46e-01	0	28	104	5496635392	84	11607
2026-01-15 06:01:56.49	1.26	16.91	-60.5	-70.3	3.8	7.46e-01	0	29	104	5496635392	84	11570
2026-01-15 06:01:57.49	1.01	16.81	-60.5	-70.3	3.8	7.46e-01	0	28	104	5496635392	84	11581
2026-01-15 06:01:58.49	0.76	16.71	-60.5	-70.3	3.8	7.46e-01	0	28	104	5496635392	84	11596
2026-01-15 06:01:59.48	0.51	16.60	-60.5	-70.2	3.8	7.45e-01	0	28	104	5496635392	84	11547
2026-01-15 06:02:00.48	0.26	16.50	-60.5	-70.2	3.8	7.45e-01	0	28	104	5496635392	84	11538
2026-01-15 06:02:01.48	0.02	16.40	-60.5	-70.3	3.8	7.46e-01	0	28	104	5496635392	84	11583
2026-01-15 06:02:02.48	359.77	16.30	-60.5	-70.3	3.8	7.44e-01	0	29	104	5496635392	84	11552
2026-01-15 06:02:03.48	359.53	16.20	-60.5	-70.2	3.8	7.45e-01	0	29	104	5496635392	84	11486
2026-01-15 06:02:04.48	359.29	16.09	-60.5	-70.2	3.8	7.46e-01	0	29	104	5496635392	84	11513
2026-01-15 06:02:05.47	359.06	15.99	-60.5	-70.2	3.8	7.45e-01	0	29	104	5496635392	84	11542
2026-01-15 06:02:06.46	358.82	15.89	-60.5	-70.2	3.8	7.47e-01	0	29	104	5496635392	84	11463
2026-01-15 06:02:07.46	358.59	15.79	-60.5	-70.2	3.8	7.44e-01	0	29	104	5496635392	84	11481
2026-01-15 06:02:08.46	358.36	15.69	-60.5	-70.2	3.8	7.47e-01	0	28	104	5496635392	84	11446
2026-01-15 06:02:09.46	358.13	15.59	-60.5	-70.2	3.8	7.46e-01	0	29	104	5496635392	84	11500
2026-01-15 06:02:10.45	357.90	15.49	-60.4	-70.2	3.8	7.45e-01	0	28	104	5496635392	84	11465
2026-01-15 06:02:11.45	357.67	15.39	-60.4	-70.1	3.8	7.45e-01	0	28	104	5496635392	84	11393
2026-01-15 06:02:12.45	357.45	15.28	-60.4	-70.2	3.8	7.45e-01	0	29	104	5496635392	84	11492
2026-01-15 06:02:13.45	357.23	15.18	-60.5	-70.2	3.8	7.45e-01	0	29	104	5496635392	84	11500
2026-01-15 06:02:14.45	357.01	15.08	-60.4	-70.2	3.8	7.46e-01	0	28	104	5496635392	84	11452
2026-01-15 06:02:15.46	356.78	14.98	-60.4	-70.1	3.8	7.45e-01	0	29	104	5496635392	84	11395
2026-01-15 06:02:16.46	356.57	14.88	-60.4	-70.2	3.8	7.47e-01	0	29	104	5496635392	84	11433
2026-01-15 06:02:17.46	356.35	14.78	-60.4	-70.2	3.8	7.44e-01	0	28	104	5496635392	84	11429
2026-01-15 06:02:18.46	356.14	14.68	-60.4	-70.1	3.8	7.44e-01	0	28	104	5496635392	84	11367
2026-01-15 06:02:19.46	355.93	14.58	-60.4	-70.1	3.8	7.45e-01	0	29	104	5496635392	84	11378
2026-01-15 06:02:20.46	355.71	14.48	-60.4	-70.2	3.8	7.44e-01	0	29	104	5496635392	84	11446
2026-01-15 06:02:21.46	355.51	14.38	-60.4	-70.1	3.8	7.44e-01	0	29	104	5496635392	84	11409
2026-01-15 06:02:22.45	355.30	14.28	-60.4	-70.1	3.8	7.46e-01	0	28	104	5496635392	84	11401
2026-01-15 06:02:23.45	355.10	14.19	-60.4	-70.1	3.8	7.44e-01	0	29	104	5496635392	84	11357
2026-01-15 06:02:24.44	354.89	14.09	-60.4	-70.1	3.8	7.46e-01	0	29	104	5496635392	84	11351
2026-01-15 06:02:25.44	354.69	13.99	-60.4	-70.1	3.8	7.45e-01	0	28	104	5496635392	84	11332
2026-01-15 06:02:26.44	354.49	13.89	-60.4	-70.1	3.8	7.46e-01	0	28	104	5496635392	84	11360
2026-01-15 06:02:27.45	354.29	13.79	-60.3	-70.1	3.8	7.47e-01	0	29	104	5496635392	84	11326
2026-01-15 06:02:28.45	354.09	13.69	-60.4	-70.1	3.8	7.46e-01	0	28	104	5496635392	84	11293
2026-01-15 06:02:29.45	353.90	13.60	-60.4	-70.1	3.8	7.45e-01	0	28	104	5496635392	84	11351
2026-01-15 06:02:30.45	353.70	13.50	-60.3	-70.1	3.8	7.46e-01	0	28	104	5496635392	84	11293
2026-01-15 06:02:31.45	353.51	13.40	-60.3	-70.0	3.8	7.45e-01	0	28	104	5496635392	84	11278
2026-01-15 06:02:32.44	353.32	13.31	-60.3	-70.1	3.8	7.45e-01	0	29	104	5496635392	84	11334
2026-01-15 06:02:33.44	353.13	13.21	-60.3	-70.1	3.8	7.46e-01	0	29	104	5496635392	84	11337
2026-01-15 06:02:34.44	352.94	13.11	-60.3	-70.0	3.8	7.45e-01	0	28	104	5496635392	84	11257
2026-01-15 06:02:35.44	352.76	13.02	-60.3	-70.0	3.8	7.45e-01	0	28	104	5496635392	84	11221
2026-01-15 06:02:36.44	352.57	12.92	-60.3	-70.0	3.8	7.46e-01	0	28	104	5496635392	84	11285
2026-01-15 06:02:37.43	352.39	12.83	-60.3	-70.0	3.8	7.44e-01	0	28	104	5496635392	84	11275
2026-01-15 06:02:38.43	352.21	12.73	-60.3	-70.1	3.8	7.46e-01	0	29	104	5496635392	84	11300
2026-01-15 06:02:39.43	352.03	12.64	-60.3	-70.1	3.8	7.46e-01	0	28	104	5496635392	84	11292
2026-01-15 06:02:40.42	351.85	12.54	-60.3	-70.0	3.8	7.46e-01	0	28	104	5496635392	84	11244
2026-01-15 06:02:41.42	351.67	12.45	-60.3	-70.0	3.8	7.47e-01	0	29	104	5496635392	84	11284
2026-01-15 06:02:42.41	351.50	12.35	-60.3	-70.0	3.8	7.44e-01	0	28	104	5496635392	84	11237
2026-01-15 06:02:43.42	351.32	12.26	-60.2	-70.0	3.8	7.46e-01	0	28	104	5496635392	84	11193
2026-01-15 06:02:44.42	351.15	12.16	-60.3	-70.0	3.8	7.45e-01	0	28	104	5496635392	84	11197
2026-01-15 06:02:45.42	350.97	12.07	-60.3	-70.0	3.8	7.47e-01	0	29	104	5496635392	84	11245
2026-01-15 06:02:46.42	350.80	11.98	-60.2	-70.0	3.8	7.47e-01	0	29	104	5496635392	84	11227
2026-01-15 06:02:47.42	350.63	11.88	-60.2	-70.0	3.8	7.45e-01	0	28	104	5496635392	84	11172
2026-01-15 06:02:48.42	350.46	11.79	-60.2	-70.0	3.8	7.45e-01	0	29	104	5496635392	84	11181
2026-01-15 06:02:49.41	350.30	11.70	-60.3	-70.0	3.8	7.46e-01	0	28	104	5496635392	84	11239
2026-01-15 06:02:50.41	350.13	11.61	-60.2	-69.9	3.8	7.46e-01	0	28	104	5496635392	84	11138
2026-01-15 06:02:51.41	349.97	11.52	-60.2	-69.9	3.8	7.46e-01	0	29	104	5496635392	84	11137
2026-01-15 06:02:52.42	349.80	11.42	-60.2	-70.0	3.8	7.46e-01	0	29	104	5496635392	84	11193
2026-01-15 06:02:53.41	349.64	11.33	-60.2	-69.9	3.8	7.46e-01	0	28	104	5496635392	84	11157
2026-01-15 06:02:54.41	349.48	11.24	-60.2	-69.9	3.8	7.46e-01	0	29	104	5496635392	84	11110
2026-01-15 06:02:55.42	349.32	11.15	-60.2	-69.9	3.8	7.44e-01	0	29	104	5496635392	84	11066
2026-01-15 06:02:56.42	349.16	11.06	-60.2	-69.9	3.8	7.45e-01	0	29	104	5496635392	84	11115
2026-01-15 06:02:57.42	349.01	10.97	-60.2	-69.9	3.8	7.45e-01	0	29	104	5496635392	84	11134
2026-01-15 06:02:58.42	348.85	10.88	-60.2	-69.9	3.8	7.46e-01	0	28	104	5496635392	84	11094
2026-01-15 06:02:59.43	348.69	10.79	-60.1	-69.8	3.8	7.45e-01	0	29	104	5496635392	84	11027
2026-01-15 06:03:00.42	348.54	10.70	-60.2	-69.9	3.8	7.46e-01	0	28	104	5496635392	84	11085
2026-01-15 06:03:01.42	348.39	10.61	-60.2	-69.9	3.8	7.45e-01	0	28	104	5496635392	84	11108
2026-01-15 06:03:02.42	348.24	10.52	-60.1	-69.9	3.8	7.44e-01	0	29	104	5496635392	84	11070
2026-01-15 06:03:03.41	348.09	10.43	-60.1	-69.9	3.8	7.46e-01	0	28	104	5496635392	84	11041
2026-01-15 06:03:04.41	347.94	10.34	-60.1	-69.9	3.8	7.45e-01	0	29	104	5496635392	84	11031
2026-01-15 06:03:05.41	347.80	10.25	-60.2	-69.9	3.8	7.46e-01	0	28	104	5496635392	84	11098
2026-01-15 06:03:06.41	347.65	10.16	-60.1	-69.8	3.8	7.46e-01	0	28	104	5496635392	84	11007
2026-01-15 06:03:07.41	347.50	10.08	-60.1	-69.8	3.8	7.46e-01	0	29	104	5496635392	84	10979
2026-01-15 06:03:08.41	347.36	9.99	-60.1	-69.8	3.8	7.46e-01	0	28	104	5496635392	84	10967
2026-01-15 06:03:09.41	347.22	9.90	-60.1	-69.9	3.8	7.45e-01	0	29	104	5496635392	84	11049
2026-01-15 06:03:10.40	347.08	9.82	-60.1	-69.8	3.8	7.44e-01	0	28	104	5496635392	84	10990
2026-01-15 06:03:11.41	346.93	9.73	-60.1	-69.8	3.8	7.45e-01	0	29	104	5496635392	84	10929
2026-01-15 06:03:12.40	346.79	9.64	-60.1	-69.8	3.8	7.46e-01	0	29	104	5496635392	84	10948
2026-01-15 06:03:13.40	346.66	9.56	-60.1	-69.8	3.8	7.46e-01	0	28	104	5496635392	84	10952
2026-01-15 06:03:14.40	346.52	9.47	-60.1	-69.8	3.8	7.46e-01	0	29	104	5496635392	84	10927
2026-01-15 06:03:15.39	346.38	9.39	-60.0	-69.8	3.8	7.47e-01	0	29	104	5496635392	84	10932
2026-01-15 06:03:16.39	346.25	9.30	-60.1	-69.8	3.8	7.46e-01	0	29	104	5496635392	84	10982
2026-01-15 06:03:17.38	346.11	9.22	-60.1	-69.8	3.8	7.45e-01	0	29	104	5496635392	84	10984
2026-01-15 06:03:18.38	345.98	9.13	-60.0	-69.8	3.8	7.45e-01	0	29	104	5496635392	84	10939
2026-01-15 06:03:19.38	345.85	9.05	-60.0	-69.7	3.8	7.44e-01	0	28	104	5496635392	84	10864
2026-01-15 06:03:20.37	345.72	8.96	-60.0	-69.7	3.8	7.45e-01	0	28	104	5496635392	84	10893
2026-01-15 06:03:21.38	345.58	8.88	-60.1	-69.8	3.8	7.45e-01	0	29	104	5496635392	84	10969
2026-01-15 06:03:22.37	345.45	8.79	-60.0	-69.7	3.8	7.45e-01	0	29	104	5496635392	84	10893
2026-01-15 06:03:23.37	345.33	8.71	-60.0	-69.8	3.8	7.47e-01	0	28	104	5496635392	84	10905
2026-01-15 06:03:24.36	345.20	8.63	-60.0	-69.7	3.8	7.46e-01	0	29	104	5496635392	84	10883
2026-01-15 06:03:25.36	345.07	8.54	-60.0	-69.8	3.8	7.47e-01	0	28	104	5496635392	84	10911
2026-01-15 06:03:26.36	344.95	8.46	-60.0	-69.7	3.8	7.45e-01	0	28	104	5496635392	84	10867
2026-01-15 06:03:27.34	344.82	8.38	-59.9	-69.6	3.8	7.47e-01	0	28	104	5496635392	84	10763
2026-01-15 06:03:28.34	344.70	8.30	-60.0	-69.7	3.8	7.44e-01	0	28	104	5496635392	84	10852
2026-01-15 06:03:29.33	344.58	8.22	-60.0	-69.7	3.8	7.46e-01	0	29	104	5496635392	84	10865
2026-01-15 06:03:30.33	344.45	8.13	-59.9	-69.7	3.8	7.45e-01	0	29	104	5496635392	84	10814
2026-01-15 06:03:31.33	344.33	8.05	-59.9	-69.6	3.8	7.46e-01	0	29	104	5496635392	84	10734
2026-01-15 06:03:32.33	344.21	7.97	-59.9	-69.7	3.8	7.46e-01	0	28	104	5496635392	84	10782
2026-01-15 06:03:33.32	344.09	7.89	-59.9	-69.7	3.8	7.44e-01	0	28	104	5496635392	84	10821
2026-01-15 06:03:34.31	343.97	7.81	-59.9	-69.6	3.8	7.45e-01	0	28	104	5496635392	84	10727
2026-01-15 06:03:35.31	343.86	7.73	-59.8	-69.6	3.8	7.46e-01	0	28	104	5496635392	84	10683
2026-01-15 06:03:36.30	343.74	7.65	-59.9	-69.6	3.8	7.46e-01	0	28	104	5496635392	84	10726
2026-01-15 06:03:37.30	343.62	7.57	-59.9	-69.6	3.8	7.44e-01	0	28	104	5496635392	84	10775
2026-01-15 06:03:38.29	343.51	7.49	-59.9	-69.6	3.8	7.45e-01	0	28	104	5496635392	84	10718
2026-01-15 06:03:39.29	343.39	7.41	-59.8	-69.6	3.8	7.45e-01	0	28	104	5496635392	84	10663
2026-01-15 06:03:40.29	343.28	7.33	-59.8	-69.6	3.8	7.46e-01	0	28	104	5496635392	84	10680
2026-01-15 06:03:41.28	343.17	7.25	-59.9	-69.6	3.8	7.47e-01	0	28	104	5496635392	84	10703
2026-01-15 06:03:42.29	343.05	7.17	-59.9	-69.6	3.8	7.44e-01	0	29	104	5496635392	84	10677
2026-01-15 06:03:43.29	342.94	7.09	-59.8	-69.5	3.8	7.45e-01	0	28	104	5496635392	84	10566
2026-01-15 06:03:44.29	342.83	7.02	-59.8	-69.5	3.8	7.47e-01	0	28	104	5496635392	84	10626
2026-01-15 06:03:45.29	342.72	6.94	-59.8	-69.6	3.8	7.45e-01	0	28	104	5496635392	84	10666
2026-01-15 06:03:46.29	342.61	6.86	-59.8	-69.5	3.8	7.45e-01	0	28	104	5496635392	84	10643
2026-01-15 06:03:47.29	342.50	6.78	-59.7	-69.5	3.8	7.45e-01	0	29	104	5496635392	84	10534
2026-01-15 06:03:48.29	342.39	6.70	-59.7	-69.5	3.8	7.46e-01	0	29	104	5496635392	84	10564
2026-01-15 06:03:49.29	342.29	6.63	-59.8	-69.6	3.8	7.47e-01	0	28	104	5496635392	84	10663
2026-01-15 06:03:50.28	342.18	6.55	-59.8	-69.5	3.8	7.46e-01	0	29	104	5496635392	84	10557
2026-01-15 06:03:51.29	342.07	6.47	-59.5	-69.2	3.8	7.46e-01	0	29	104	5496635392	83	10829
2026-01-15 06:03:52.29	341.97	6.40	-59.5	-69.3	3.8	7.46e-01	0	28	104	5496635392	83	10946
2026-01-15 06:03:53.27	341.87	6.32	-59.6	-69.3	3.8	7.45e-01	0	29	104	5496635392	83	11002
2026-01-15 06:03:54.28	341.76	6.24	-59.6	-69.3	3.8	7.46e-01	0	28	104	5496635392	83	10936
2026-01-15 06:03:55.28	341.66	6.17	-59.5	-69.2	3.8	7.45e-01	0	29	104	5496635392	83	10853
2026-01-15 06:03:56.28	341.56	6.09	-59.5	-69.2	3.8	7.45e-01	0	29	104	5496635392	83	10893
2026-01-15 06:03:57.27	341.46	6.02	-59.6	-69.3	3.8	7.44e-01	0	29	104	5496635392	83	10937
2026-01-15 06:03:58.27	341.36	5.94	-59.5	-69.3	3.8	7.44e-01	0	28	104	5496635392	83	10933
2026-01-15 06:03:59.28	341.25	5.87	-59.4	-69.1	3.8	7.45e-01	0	28	104	5496635392	83	10751
2026-01-15 06:04:00.28	341.15	5.79	-59.5	-69.2	3.8	7.44e-01	0	29	104	5496635392	83	10797
2026-01-15 06:04:01.27	341.06	5.72	-59.5	-69.2	3.8	7.45e-01	0	28	104	5496635392	83	10895
2026-01-15 06:04:02.27	340.96	5.64	-59.5	-69.2	3.8	7.45e-01	0	29	104	5496635392	83	10830
2026-01-15 06:04:03.27	340.86	5.57	-59.3	-69.1	3.8	7.44e-01	0	28	104	5496635392	83	10700
2026-01-15 06:04:04.27	340.76	5.50	-59.4	-69.1	3.8	7.46e-01	0	28	104	5496635392	83	10768
2026-01-15 06:04:05.27	340.67	5.42	-59.5	-69.2	3.8	7.45e-01	0	29	104	5496635392	83	10896
2026-01-15 06:04:06.27	340.57	5.35	-59.4	-69.2	3.8	7.45e-01	0	28	104	5496635392	83	10783
2026-01-15 06:04:07.27	340.48	5.27	-59.3	-69.0	3.8	7.46e-01	0	29	104	5496635392	83	10610
2026-01-15 06:04:08.27	340.38	5.20	-59.4	-69.1	3.8	7.46e-01	0	29	104	5496635392	83	10702
2026-01-15 06:04:09.27	340.29	5.13	-59.4	-69.2	3.8	7.45e-01	0	29	104	5496635392	83	10843
2026-01-15 06:04:10.27	340.20	5.06	-59.4	-69.1	3.8	7.46e-01	0	28	104	5496635392	83	10708
2026-01-15 06:04:11.27	340.10	4.98	-59.2	-69.0	3.8	7.46e-01	0	29	104	5496635392	83	10566
2026-01-15 06:04:12.28	340.01	4.91	-59.7	-69.4	3.8	7.47e-01	0	29	104	5496635392	83	11087
2026-01-15 06:04:13.27	339.92	4.84	-60.1	-69.8	3.8	7.44e-01	0	29	104	5496635392	83	11610
2026-01-15 06:04:14.27	339.83	4.77	-60.3	-70.0	3.8	7.46e-01	0	29	104	5496635392	83	11942
2026-01-15 06:04:15.26	339.74	4.70	-60.7	-70.5	3.8	7.45e-01	0	29	104	5496635392	84	11846
2026-01-15 06:04:16.27	339.65	4.62	-60.9	-70.6	3.8	7.45e-01	0	29	104	5496635392	84	11993
2026-01-15 06:04:17.27	339.56	4.55	-61.0	-70.8	3.8	7.47e-01	0	28	104	5496635392	85	11566
2026-01-15 06:04:18.27	339.47	4.48	-61.1	-70.9	3.8	7.44e-01	0	29	104	5496635392	85	11758
2026-01-15 06:04:19.27	339.39	4.41	-61.2	-71.0	3.8	7.44e-01	0	29	104	5496635392	85	11819
2026-01-15 06:04:20.28	339.30	4.34	-61.3	-71.1	3.8	7.46e-01	0	29	104	5496635392	85	11966
2026-01-15 06:04:21.28	339.21	4.27	-61.4	-71.1	3.8	7.47e-01	0	28	104	5496635392	85	12025
2026-01-15 06:04:22.28	339.13	4.20	-61.4	-71.1	3.8	7.45e-01	0	29	104	5496635392	85	12090
2026-01-15 06:04:23.28	339.04	4.13	-61.5	-71.2	3.8	7.45e-01	0	29	104	5496635392	86	11492
2026-01-15 06:04:24.27	338.96	4.06	-61.5	-71.2	3.8	7.46e-01	0	28	104	5496635392	86	11508
2026-01-15 06:04:25.27	338.87	3.99	-61.5	-71.3	3.8	7.45e-01	0	28	104	5496635392	86	11552
2026-01-15 06:04:26.28	338.79	3.92	-61.6	-71.3	3.8	7.46e-01	0	29	104	5496635392	86	11590
2026-01-15 06:04:27.28	338.70	3.85	-61.6	-71.3	3.8	7.45e-01	0	29	104	5496635392	86	11628
2026-01-15 06:04:28.27	338.62	3.78	-61.6	-71.4	3.8	7.46e-01	0	28	104	5496635392	86	11721
2026-01-15 06:04:29.27	338.54	3.71	-61.7	-71.4	3.8	7.45e-01	0	29	104	5496635392	86	11767
2026-01-15 06:04:30.27	338.46	3.64	-61.7	-71.4	3.8	7.46e-01	0	29	104	5496635392	86	11733
2026-01-15 06:04:31.27	338.38	3.57	-61.7	-71.4	3.8	7.46e-01	0	28	104	5496635392	86	11765
2026-01-15 06:04:32.27	338.30	3.50	-61.6	-71.4	3.8	7.47e-01	0	29	104	5496635392	86	11754
2026-01-15 06:04:33.26	338.22	3.44	-61.6	-71.4	3.8	7.44e-01	0	29	104	5496635392	86	11738
2026-01-15 06:04:34.26	338.14	3.37	-61.6	-71.3	3.8	7.45e-01	0	29	104	5496635392	86	11619
2026-01-15 06:04:35.26	338.06	3.30	-61.6	-71.3	3.8	7.46e-01	0	29	104	5496635392	86	11641
2026-01-15 06:04:36.25	337.98	3.23	-61.6	-71.3	3.8	7.45e-01	0	28	104	5496635392	86	11642
2026-01-15 06:04:37.25	337.90	3.17	-61.5	-71.3	3.8	7.46e-01	0	29	104	5496635392	86	11626
2026-01-15 06:04:38.25	337.82	3.10	-61.5	-71.3	3.8	7.46e-01	0	29	104	5496635392	86	11600
2026-01-15 06:04:39.24	337.75	3.03	-61.5	-71.3	3.8	7.46e-01	0	28	104	5496635392	86	11612
2026-01-15 06:04:40.24	337.67	2.97	-61.5	-71.3	3.8	7.48e-01	0	29	104	5496635392	86	11597
2026-01-15 06:04:41.24	337.59	2.90	-61.5	-71.2	3.8	7.47e-01	0	28	104	5496635392	86	11505
2026-01-15 06:04:42.25	337.52	2.83	-61.5	-71.2	3.8	7.46e-01	0	28	104	5496635392	86	11547
2026-01-15 06:04:43.25	337.44	2.76	-61.5	-71.3	3.8	7.45e-01	0	29	104	5496635392	86	11556
2026-01-15 06:04:44.25	337.37	2.70	-61.5	-71.2	3.8	7.45e-01	0	29	104	5496635392	86	11525
2026-01-15 06:04:45.24	337.29	2.63	-61.5	-71.2	3.8	7.46e-01	0	29	104	5496635392	86	11522
2026-01-15 06:04:46.24	337.22	2.57	-61.5	-71.2	3.8	7.44e-01	0	28	104	5496635392	86	11547
2026-01-15 06:04:47.25	337.14	2.50	-61.5	-71.2	3.8	7.46e-01	0	29	104	5496635392	86	11532
2026-01-15 06:04:48.24	337.07	2.44	-61.5	-71.2	3.8	7.46e-01	0	29	104	5496635392	86	11502
2026-01-15 06:04:49.24	337.00	2.37	-61.5	-71.2	3.8	7.45e-01	0	28	104	5496635392	86	11501
2026-01-15 06:04:50.23	336.93	2.30	-61.5	-71.2	3.8	7.45e-01	0	29	104	5496635392	86	11495
2026-01-15 06:04:51.24	336.85	2.24	-61.5	-71.2	3.8	7.47e-01	0	29	104	5496635392	86	11522
2026-01-15 06:04:52.25	336.78	2.17	-61.5	-71.2	3.8	7.45e-01	0	29	104	5496635392	86	11504
2026-01-15 06:04:53.25	336.71	2.11	-61.5	-71.2	3.8	7.45e-01	0	29	104	5496635392	86	11461
2026-01-15 06:04:54.25	336.64	2.04	-61.5	-71.2	3.8	7.45e-01	0	29	104	5496635392	86	11507
2026-01-15 06:04:55.25	336.57	1.98	-61.5	-71.2	3.8	7.46e-01	0	29	104	5496635392	86	11472

#Closed at: 2026-01-15 06:04:55
#Recorded file [5496 MB]: D:/lorett/data/31004_260115_085517.dat