passes_logs/2026/01/15/R3.2S_Murmansk/R3.2S_Murmansk__20260115_071004_FENGYUN_3D_rec.log

#Pass ID: 20260115_071004_FENGYUN 3D
#Satellite: FENGYUN 3D
#Configuration: FENGYUN 3D
#almurnet v.1.7.20251203
#Start time: 2026-01-15 07:10:04

#Version: 2.2.20231116
#Station: R3.2S_Murmansk
#Location: 33.079688 lon 68.888172 lat
#TLE: 1 43010U 17072A   26014.65117763 -.00000217  00000+0 -80772-4 0  9993
#TLE: 2 43010  98.9933 346.4618 0002330 108.4699 251.6730 14.19694700423204

#Time	Az	El	Level	Level2	SNR	BER	BlckErr	Temp	State	Recorded	gain1	gain2
2026-01-15 07:10:04.24	61.91	1.96	-58.1	-71.1	3.8	8.48e-01	0	26	0	0	82	16097
2026-01-15 07:10:05.23	61.85	2.02	-58.1	-71.1	3.8	8.45e-01	0	26	104	0	81	17012
2026-01-15 07:10:06.22	61.79	2.08	-58.1	-71.1	3.8	8.47e-01	0	26	104	0	81	17010
2026-01-15 07:10:07.21	61.72	2.13	-58.1	-71.1	3.8	8.45e-01	0	26	104	0	81	16960
2026-01-15 07:10:08.20	61.66	2.19	-58.1	-71.1	3.8	8.46e-01	0	26	104	0	81	16944
2026-01-15 07:10:09.20	61.60	2.25	-58.1	-71.1	3.8	8.46e-01	0	26	104	0	81	16896
2026-01-15 07:10:10.19	61.53	2.30	-58.1	-71.0	3.8	8.46e-01	0	26	104	0	81	16878
2026-01-15 07:10:11.19	61.47	2.36	-58.1	-71.1	3.8	8.46e-01	0	26	104	0	81	16899
2026-01-15 07:10:12.19	61.41	2.42	-58.1	-71.0	3.8	8.47e-01	0	26	104	0	81	16880
2026-01-15 07:10:13.19	61.34	2.48	-58.1	-71.1	3.8	8.46e-01	0	26	104	0	81	16925
2026-01-15 07:10:14.19	61.28	2.53	-58.1	-71.1	3.8	8.45e-01	0	26	104	0	81	16965
2026-01-15 07:10:15.18	61.21	2.59	-58.1	-71.1	3.8	8.45e-01	0	26	104	0	81	16891
2026-01-15 07:10:16.19	61.15	2.65	-58.1	-71.1	3.8	8.44e-01	0	26	104	0	81	16943
2026-01-15 07:10:17.19	61.08	2.71	-58.1	-71.1	3.8	8.46e-01	0	26	104	0	81	16998
2026-01-15 07:10:18.18	61.02	2.76	-58.1	-71.1	3.8	8.46e-01	0	26	104	0	81	16970
2026-01-15 07:10:19.17	60.95	2.82	-58.1	-71.1	3.8	8.45e-01	0	26	104	0	81	16962
2026-01-15 07:10:20.16	60.88	2.88	-58.1	-71.1	3.8	8.44e-01	0	26	104	0	81	16921
2026-01-15 07:10:21.16	60.82	2.94	-58.1	-71.1	3.8	8.46e-01	0	26	104	0	81	17032
2026-01-15 07:10:22.15	60.75	3.00	-58.1	-71.1	3.8	8.45e-01	0	26	104	0	81	17038
2026-01-15 07:10:23.15	60.68	3.05	-58.1	-71.1	3.8	8.46e-01	0	26	104	0	81	17041
2026-01-15 07:10:24.15	60.62	3.11	-58.1	-71.1	3.8	8.47e-01	0	26	104	0	81	17018
2026-01-15 07:10:25.15	60.55	3.17	-58.1	-71.1	3.8	8.45e-01	0	26	104	0	81	16950
2026-01-15 07:10:26.15	60.48	3.23	-58.1	-71.0	3.8	8.45e-01	0	26	104	0	81	16844
2026-01-15 07:10:27.14	60.41	3.29	-58.1	-71.0	3.8	8.46e-01	0	26	104	0	81	16804
2026-01-15 07:10:28.15	60.34	3.35	-58.1	-71.0	3.8	8.46e-01	0	26	104	0	81	16877
2026-01-15 07:10:29.15	60.27	3.41	-58.1	-71.1	3.8	8.45e-01	0	26	104	0	81	16921
2026-01-15 07:10:30.13	60.20	3.46	-58.1	-71.1	3.8	8.45e-01	0	26	104	0	81	16992
2026-01-15 07:10:31.13	60.14	3.52	-58.1	-71.1	3.8	8.45e-01	0	27	104	0	81	17083
2026-01-15 07:10:32.14	60.06	3.58	-58.1	-71.1	3.8	8.46e-01	0	27	104	0	81	17040
2026-01-15 07:10:33.13	59.99	3.64	-58.1	-71.1	3.8	8.46e-01	0	26	104	0	81	17007
2026-01-15 07:10:34.13	59.92	3.70	-58.1	-71.0	3.8	8.46e-01	0	26	104	0	81	16830
2026-01-15 07:10:35.14	59.85	3.76	-58.1	-70.9	3.8	8.46e-01	0	26	104	0	81	16519
2026-01-15 07:10:36.13	59.78	3.82	-58.1	-70.8	3.8	8.45e-01	0	27	104	0	81	16351
2026-01-15 07:10:37.13	59.71	3.88	-58.1	-70.9	3.8	8.46e-01	0	27	104	0	81	16562
2026-01-15 07:10:38.13	59.64	3.94	-58.1	-70.9	3.8	8.45e-01	0	27	104	0	81	16601
2026-01-15 07:10:39.14	59.57	4.00	-58.1	-71.1	3.8	8.45e-01	0	26	104	0	81	16936
2026-01-15 07:10:40.14	59.49	4.06	-58.1	-71.1	3.8	8.45e-01	0	27	104	0	81	17052
2026-01-15 07:10:41.14	59.42	4.12	-58.1	-71.0	3.8	8.45e-01	0	27	104	0	81	16723
2026-01-15 07:10:42.14	59.35	4.18	-58.1	-70.6	3.8	8.45e-01	0	27	104	0	81	16109
2026-01-15 07:10:43.13	59.28	4.24	-58.0	-69.9	3.8	8.46e-01	0	27	104	0	81	14855
2026-01-15 07:10:44.13	59.20	4.30	-57.9	-68.7	3.8	8.43e-01	0	27	104	0	81	12866
2026-01-15 07:10:45.13	59.13	4.36	-57.8	-67.1	4.3	8.34e-01	0	27	0	0	81	10723
2026-01-15 07:10:46.13	59.05	4.42	-57.7	-66.6	4.5	8.21e-01	0	27	0	0	81	10087
2026-01-15 07:10:47.13	58.98	4.48	-57.5	-65.3	5.1	7.73e-01	0	27	0	0	81	8664
2026-01-15 07:10:48.13	58.90	4.54	-57.2	-64.2	5.7	6.47e-01	0	27	0	1048576	81	7687
2026-01-15 07:10:49.13	58.83	4.60	-57.0	-63.4	6.2	3.01e-01	0	27	0	6291456	80	7404
2026-01-15 07:10:50.13	58.75	4.66	-56.8	-62.4	7.0	1.29e-01	0	27	0	12582912	80	6600
2026-01-15 07:10:51.13	58.68	4.72	-56.5	-61.6	7.7	8.60e-02	0	27	0	17825792	79	6351
2026-01-15 07:10:52.14	58.60	4.78	-56.2	-60.8	8.4	3.79e-02	0	27	0	24117248	79	5789
2026-01-15 07:10:53.14	58.52	4.84	-56.1	-60.7	8.5	2.27e-02	0	27	0	29360128	78	6082
2026-01-15 07:10:54.14	58.45	4.90	-56.0	-60.5	8.6	2.24e-02	0	27	0	34603008	78	5967
2026-01-15 07:10:55.14	58.37	4.97	-56.1	-60.6	8.5	1.66e-02	0	27	0	40894464	78	6007
2026-01-15 07:10:56.14	58.29	5.03	-55.9	-60.2	8.9	1.98e-02	0	27	0	46137344	78	5754
2026-01-15 07:10:57.13	58.21	5.09	-54.4	-57.2	11.3	4.23e-05	0	27	0	51380224	74	5141
2026-01-15 07:10:58.12	58.14	5.15	-56.3	-60.9	8.2	2.08e-02	0	27	0	56623104	77	6641
2026-01-15 07:10:59.12	58.06	5.21	-57.1	-63.7	6.1	2.21e-01	0	27	0	62914560	79	8095
2026-01-15 07:11:00.12	57.98	5.27	-52.9	-55.0	12.7	1.10e-06	0	27	0	68157440	72	4490
2026-01-15 07:11:01.12	57.90	5.33	-57.8	-67.3	4.2	8.15e-01	0	27	0	72351744	80	11664
2026-01-15 07:11:02.11	57.82	5.39	-53.0	-55.2	12.6	4.46e-05	0	27	0	76546048	72	4578
2026-01-15 07:11:03.11	57.74	5.46	-52.8	-54.9	12.8	1.10e-06	0	27	0	82837504	72	4426
2026-01-15 07:11:04.11	57.66	5.52	-52.8	-54.9	12.7	0.00e+00	0	27	0	88080384	71	4696
2026-01-15 07:11:05.10	57.58	5.58	-52.4	-54.4	13.0	0.00e+00	0	27	0	93323264	71	4399
2026-01-15 07:11:06.09	57.50	5.64	-51.9	-53.8	13.3	0.00e+00	0	27	0	99614720	70	4355
2026-01-15 07:11:07.09	57.42	5.70	-51.4	-53.1	13.6	0.00e+00	0	27	0	104857600	69	4256
2026-01-15 07:11:08.10	57.34	5.77	-51.4	-53.1	13.7	0.00e+00	0	27	0	110100480	69	4265
2026-01-15 07:11:09.09	57.26	5.83	-51.0	-52.7	13.7	0.00e+00	0	27	0	116391936	68	4321
2026-01-15 07:11:10.08	57.17	5.89	-51.0	-52.6	13.8	0.00e+00	0	27	0	121634816	68	4270
2026-01-15 07:11:11.08	57.09	5.95	-51.0	-52.7	13.8	0.00e+00	0	27	0	126877696	68	4305
2026-01-15 07:11:12.06	57.01	6.01	-50.9	-52.5	13.9	0.00e+00	0	27	0	133169152	68	4226
2026-01-15 07:11:13.06	56.93	6.08	-50.9	-52.5	13.9	0.00e+00	0	27	0	138412032	68	4240
2026-01-15 07:11:14.06	56.84	6.14	-50.9	-52.5	13.9	0.00e+00	0	27	0	143654912	68	4223
2026-01-15 07:11:15.06	56.76	6.20	-51.1	-52.8	13.7	0.00e+00	0	27	0	149946368	68	4374
2026-01-15 07:11:16.05	56.67	6.26	-51.1	-52.7	13.8	0.00e+00	0	27	0	155189248	68	4321
2026-01-15 07:11:17.05	56.59	6.33	-51.0	-52.7	13.8	0.00e+00	0	27	0	161480704	68	4313
2026-01-15 07:11:18.05	56.50	6.39	-50.9	-52.5	13.9	0.00e+00	0	27	0	166723584	68	4226
2026-01-15 07:11:19.05	56.42	6.45	-51.0	-52.6	13.8	0.00e+00	0	27	0	171966464	68	4258
2026-01-15 07:11:20.06	56.33	6.52	-50.9	-52.5	13.9	0.00e+00	0	27	0	178257920	68	4228
2026-01-15 07:11:21.05	56.24	6.58	-50.7	-52.3	14.0	0.00e+00	0	27	0	183500800	68	4099
2026-01-15 07:11:22.06	56.16	6.64	-50.7	-52.4	13.8	0.00e+00	0	27	0	188743680	67	4394
2026-01-15 07:11:23.06	56.07	6.71	-50.8	-52.4	13.8	0.00e+00	0	27	0	195035136	67	4406
2026-01-15 07:11:24.06	55.98	6.77	-50.4	-52.0	14.0	0.00e+00	0	27	0	200278016	67	4213
2026-01-15 07:11:25.06	55.89	6.84	-50.4	-52.0	14.0	0.00e+00	0	27	0	205520896	67	4215
2026-01-15 07:11:26.06	55.80	6.90	-50.5	-52.0	14.0	0.00e+00	0	27	0	211812352	67	4237
2026-01-15 07:11:27.05	55.72	6.96	-50.6	-52.2	14.0	0.00e+00	0	27	0	217055232	67	4311
2026-01-15 07:11:28.05	55.63	7.03	-50.5	-52.1	14.0	0.00e+00	0	27	0	223346688	67	4268
2026-01-15 07:11:29.05	55.54	7.09	-50.3	-51.9	14.2	0.00e+00	0	27	0	228589568	67	4148
2026-01-15 07:11:30.05	55.45	7.16	-50.7	-52.3	13.9	0.00e+00	0	27	0	233832448	67	4357
2026-01-15 07:11:31.05	55.35	7.22	-50.6	-52.1	14.0	0.00e+00	0	27	0	240123904	67	4273
2026-01-15 07:11:32.05	55.26	7.29	-50.7	-52.3	13.9	0.00e+00	0	27	0	245366784	67	4355
2026-01-15 07:11:33.05	55.17	7.35	-50.4	-51.9	14.1	0.00e+00	0	27	0	250609664	67	4189
2026-01-15 07:11:34.05	55.08	7.41	-50.1	-51.6	14.1	0.00e+00	0	27	0	256901120	66	4280
2026-01-15 07:11:35.05	54.99	7.48	-50.3	-51.8	14.1	0.00e+00	0	27	0	262144000	66	4360
2026-01-15 07:11:36.05	54.89	7.54	-50.1	-51.5	14.2	0.00e+00	0	27	0	267386880	66	4234
2026-01-15 07:11:37.05	54.80	7.61	-50.1	-51.5	14.2	0.00e+00	0	27	0	273678336	66	4239
2026-01-15 07:11:38.04	54.71	7.67	-50.2	-51.7	14.1	0.00e+00	0	27	0	278921216	66	4318
2026-01-15 07:11:39.03	54.62	7.74	-50.3	-51.8	14.1	0.00e+00	0	27	0	285212672	66	4373
2026-01-15 07:11:40.02	54.52	7.80	-49.9	-51.3	14.3	0.00e+00	0	27	0	290455552	66	4144
2026-01-15 07:11:41.02	54.43	7.87	-49.8	-51.2	14.4	0.00e+00	0	27	0	295698432	66	4080
2026-01-15 07:11:42.01	54.33	7.93	-49.9	-51.3	14.3	0.00e+00	0	27	0	300941312	66	4134
2026-01-15 07:11:43.01	54.24	8.00	-50.0	-51.5	14.2	0.00e+00	0	27	0	307232768	66	4215
2026-01-15 07:11:44.00	54.14	8.06	-50.0	-51.4	14.3	0.00e+00	0	27	0	312475648	66	4173
2026-01-15 07:11:45.00	54.04	8.13	-49.6	-51.0	14.4	0.00e+00	0	27	0	317718528	65	4201
2026-01-15 07:11:46.01	53.95	8.20	-49.8	-51.2	14.2	0.00e+00	0	27	0	324009984	65	4336
2026-01-15 07:11:47.01	53.85	8.26	-49.6	-51.0	14.4	0.00e+00	0	27	0	329252864	65	4205
2026-01-15 07:11:48.02	53.75	8.33	-49.6	-51.0	14.3	0.00e+00	0	27	0	335544320	65	4240
2026-01-15 07:11:49.02	53.65	8.39	-49.7	-51.1	14.3	0.00e+00	0	27	0	340787200	65	4263
2026-01-15 07:11:50.02	53.55	8.46	-49.5	-50.9	14.4	0.00e+00	0	27	0	346030080	65	4189
2026-01-15 07:11:51.01	53.45	8.53	-49.8	-51.2	14.2	0.00e+00	0	27	0	352321536	65	4332
2026-01-15 07:11:52.01	53.35	8.59	-49.8	-51.2	14.3	0.00e+00	0	27	0	357564416	65	4321
2026-01-15 07:11:53.00	53.25	8.66	-49.9	-51.4	14.2	0.00e+00	0	27	0	362807296	65	4412
2026-01-15 07:11:54.00	53.15	8.72	-49.7	-51.1	14.3	0.00e+00	0	28	0	369098752	65	4284
2026-01-15 07:11:55.00	53.05	8.79	-49.9	-51.3	14.2	0.00e+00	0	27	0	374341632	65	4374
2026-01-15 07:11:56.00	52.95	8.86	-50.0	-51.4	14.2	0.00e+00	0	27	0	379584512	65	4424
2026-01-15 07:11:56.99	52.85	8.92	-49.8	-51.2	14.3	0.00e+00	0	27	0	385875968	65	4329
2026-01-15 07:11:57.98	52.75	8.99	-49.7	-51.2	14.3	0.00e+00	0	28	0	391118848	65	4292
2026-01-15 07:11:58.98	52.64	9.06	-49.7	-51.1	14.3	0.00e+00	0	27	0	397410304	65	4287
2026-01-15 07:11:59.98	52.54	9.12	-49.8	-51.2	14.3	0.00e+00	0	28	0	402653184	65	4306
2026-01-15 07:12:00.97	52.44	9.19	-49.7	-51.1	14.3	0.00e+00	0	27	0	407896064	65	4252
2026-01-15 07:12:01.97	52.33	9.26	-49.6	-51.0	14.4	0.00e+00	0	27	0	413138944	65	4217
2026-01-15 07:12:02.96	52.23	9.32	-49.5	-50.9	14.4	0.00e+00	0	28	0	419430400	65	4182
2026-01-15 07:12:03.96	52.12	9.39	-49.6	-51.0	14.4	0.00e+00	0	27	0	424673280	65	4201
2026-01-15 07:12:04.96	52.01	9.46	-49.6	-51.0	14.4	0.00e+00	0	27	0	429916160	65	4223
2026-01-15 07:12:05.95	51.91	9.53	-49.6	-51.0	14.4	0.00e+00	0	27	0	436207616	65	4209
2026-01-15 07:12:06.94	51.80	9.59	-49.6	-51.0	14.4	0.00e+00	0	28	0	441450496	65	4220
2026-01-15 07:12:07.93	51.70	9.66	-49.6	-51.0	14.4	0.00e+00	0	27	0	447741952	65	4197
2026-01-15 07:12:08.93	51.59	9.73	-49.6	-51.0	14.4	0.00e+00	0	27	0	452984832	65	4222
2026-01-15 07:12:09.93	51.48	9.80	-49.7	-51.1	14.4	0.00e+00	0	27	0	458227712	65	4260
2026-01-15 07:12:10.92	51.37	9.86	-49.7	-51.0	14.4	0.00e+00	0	27	0	463470592	65	4237
2026-01-15 07:12:11.91	51.26	9.93	-49.8	-51.2	14.3	0.00e+00	0	27	0	469762048	65	4307
2026-01-15 07:12:12.91	51.15	10.00	-49.6	-51.0	14.4	0.00e+00	0	27	0	475004928	65	4199
2026-01-15 07:12:13.90	51.04	10.07	-49.7	-51.2	14.3	0.00e+00	0	27	0	480247808	65	4293
2026-01-15 07:12:14.89	50.93	10.13	-49.6	-50.9	14.4	0.00e+00	0	27	0	486539264	65	4188
2026-01-15 07:12:15.88	50.82	10.20	-49.6	-51.0	14.4	0.00e+00	0	27	0	491782144	65	4205
2026-01-15 07:12:16.88	50.71	10.27	-49.4	-50.8	14.5	0.00e+00	0	28	0	497025024	65	4109
2026-01-15 07:12:17.87	50.59	10.34	-49.2	-50.6	14.6	0.00e+00	0	27	0	503316480	65	4015
2026-01-15 07:12:18.86	50.48	10.41	-49.2	-50.6	14.6	0.00e+00	0	27	0	508559360	65	4012
2026-01-15 07:12:19.86	50.37	10.48	-49.2	-50.5	14.5	0.00e+00	0	28	0	513802240	64	4209
2026-01-15 07:12:20.85	50.25	10.54	-49.1	-50.4	14.5	0.00e+00	0	28	0	520093696	64	4172
2026-01-15 07:12:21.85	50.14	10.61	-49.2	-50.6	14.5	0.00e+00	0	27	0	525336576	64	4249
2026-01-15 07:12:22.85	50.02	10.68	-49.0	-50.3	14.6	0.00e+00	0	27	0	530579456	64	4125
2026-01-15 07:12:23.85	49.91	10.75	-49.0	-50.3	14.6	0.00e+00	0	27	0	536870912	64	4138
2026-01-15 07:12:24.84	49.79	10.82	-49.2	-50.6	14.5	0.00e+00	0	27	0	542113792	64	4253
2026-01-15 07:12:25.84	49.67	10.89	-49.2	-50.5	14.5	0.00e+00	0	27	0	548405248	64	4218
2026-01-15 07:12:26.83	49.56	10.96	-49.2	-50.6	14.5	0.00e+00	0	27	0	553648128	64	4257
2026-01-15 07:12:27.82	49.44	11.03	-49.0	-50.3	14.6	0.00e+00	0	27	0	558891008	64	4120
2026-01-15 07:12:28.81	49.32	11.09	-49.1	-50.5	14.5	0.00e+00	0	27	0	564133888	64	4194
2026-01-15 07:12:29.81	49.20	11.16	-49.1	-50.5	14.5	0.00e+00	0	27	0	570425344	64	4195
2026-01-15 07:12:30.81	49.08	11.23	-49.0	-50.3	14.6	0.00e+00	0	27	0	575668224	64	4108
2026-01-15 07:12:31.81	48.96	11.30	-49.0	-50.4	14.6	0.00e+00	0	27	0	581959680	64	4147
2026-01-15 07:12:32.80	48.84	11.37	-49.1	-50.5	14.6	0.00e+00	0	27	0	587202560	64	4205
2026-01-15 07:12:33.79	48.72	11.44	-49.0	-50.3	14.6	0.00e+00	0	27	0	592445440	64	4128
2026-01-15 07:12:34.79	48.59	11.51	-48.9	-50.2	14.7	0.00e+00	0	27	0	598736896	64	4084
2026-01-15 07:12:35.78	48.47	11.58	-48.9	-50.1	14.7	0.00e+00	0	27	0	603979776	64	4047
2026-01-15 07:12:36.77	48.35	11.65	-48.7	-50.0	14.8	0.00e+00	0	27	0	609222656	64	3980
2026-01-15 07:12:37.77	48.22	11.72	-48.9	-50.2	14.7	0.00e+00	0	27	0	614465536	64	4052
2026-01-15 07:12:38.77	48.10	11.79	-48.9	-50.2	14.7	0.00e+00	0	27	0	620756992	64	4074
2026-01-15 07:12:39.76	47.98	11.86	-48.9	-50.2	14.7	0.00e+00	0	27	0	625999872	64	4059
2026-01-15 07:12:40.76	47.85	11.93	-48.9	-50.2	14.7	0.00e+00	0	27	0	632291328	64	4054
2026-01-15 07:12:41.76	47.72	12.00	-48.8	-50.1	14.7	0.00e+00	0	27	0	637534208	64	4028
2026-01-15 07:12:42.75	47.60	12.07	-48.8	-50.0	14.7	0.00e+00	0	28	0	642777088	64	3998
2026-01-15 07:12:43.75	47.47	12.14	-48.7	-50.0	14.7	0.00e+00	0	27	0	649068544	64	3995
2026-01-15 07:12:44.75	47.34	12.21	-48.9	-50.2	14.7	0.00e+00	0	28	0	654311424	64	4067
2026-01-15 07:12:45.74	47.21	12.28	-48.9	-50.2	14.7	0.00e+00	0	27	0	659554304	64	4085
2026-01-15 07:12:46.73	47.08	12.35	-48.8	-50.1	14.7	0.00e+00	0	27	0	664797184	64	4043
2026-01-15 07:12:47.73	46.95	12.42	-48.8	-50.1	14.7	0.00e+00	0	27	0	671088640	64	4040
2026-01-15 07:12:48.72	46.82	12.49	-48.7	-50.0	14.8	0.00e+00	0	27	0	676331520	64	3986
2026-01-15 07:12:49.72	46.69	12.56	-48.7	-49.9	14.6	0.00e+00	0	28	0	682622976	63	4192
2026-01-15 07:12:50.73	46.55	12.63	-48.6	-49.9	14.7	0.00e+00	0	27	0	687865856	63	4162
2026-01-15 07:12:51.72	46.42	12.70	-48.6	-49.9	14.7	0.00e+00	0	28	0	693108736	63	4161
2026-01-15 07:12:52.71	46.29	12.77	-48.7	-50.0	14.6	0.00e+00	0	28	0	699400192	63	4198
2026-01-15 07:12:53.71	46.15	12.84	-48.6	-49.8	14.7	0.00e+00	0	27	0	704643072	63	4138
2026-01-15 07:12:54.70	46.02	12.91	-48.5	-49.8	14.7	0.00e+00	0	27	0	709885952	63	4104
2026-01-15 07:12:55.70	45.88	12.99	-48.6	-49.8	14.7	0.00e+00	0	27	0	716177408	63	4140
2026-01-15 07:12:56.69	45.75	13.06	-48.5	-49.7	14.7	0.00e+00	0	28	0	721420288	63	4081
2026-01-15 07:12:57.69	45.61	13.13	-48.4	-49.6	14.8	0.00e+00	0	27	0	726663168	63	4037
2026-01-15 07:12:58.69	45.47	13.20	-48.4	-49.7	14.8	0.00e+00	0	28	0	732954624	63	4056
2026-01-15 07:12:59.68	45.34	13.27	-48.4	-49.7	14.8	0.00e+00	0	27	0	738197504	63	4065
2026-01-15 07:13:00.69	45.19	13.34	-48.5	-49.7	14.8	0.00e+00	0	28	0	744488960	63	4085
2026-01-15 07:13:01.68	45.06	13.41	-48.3	-49.5	14.8	0.00e+00	0	27	0	749731840	63	3996
2026-01-15 07:13:02.69	44.91	13.48	-48.3	-49.5	14.8	0.00e+00	0	27	0	754974720	63	3998
2026-01-15 07:13:03.69	44.77	13.55	-48.3	-49.6	14.8	0.00e+00	0	27	0	761266176	63	4013
2026-01-15 07:13:04.70	44.63	13.63	-48.3	-49.6	14.8	0.00e+00	0	27	0	766509056	63	4010
2026-01-15 07:13:05.70	44.49	13.70	-48.3	-49.5	14.8	0.00e+00	0	27	0	771751936	63	3996
2026-01-15 07:13:06.70	44.34	13.77	-48.3	-49.5	14.9	0.00e+00	0	28	0	778043392	63	3982
2026-01-15 07:13:07.70	44.20	13.84	-48.3	-49.5	14.9	0.00e+00	0	27	0	783286272	63	3972
2026-01-15 07:13:08.70	44.05	13.91	-48.3	-49.5	14.9	0.00e+00	0	27	0	788529152	63	3976
2026-01-15 07:13:09.70	43.91	13.98	-48.3	-49.5	14.8	0.00e+00	0	28	0	794820608	63	3997
2026-01-15 07:13:10.70	43.76	14.06	-48.3	-49.5	14.9	0.00e+00	0	27	0	800063488	63	3989
2026-01-15 07:13:11.70	43.61	14.13	-48.4	-49.6	14.8	0.00e+00	0	27	0	806354944	63	4031
2026-01-15 07:13:12.70	43.46	14.20	-48.2	-49.4	14.9	0.00e+00	0	28	0	811597824	63	3955
2026-01-15 07:13:13.71	43.31	14.27	-48.3	-49.5	14.9	0.00e+00	0	28	0	816840704	63	3993
2026-01-15 07:13:14.71	43.16	14.34	-48.3	-49.5	14.9	0.00e+00	0	27	0	823132160	63	3981
2026-01-15 07:13:15.71	43.01	14.41	-48.3	-49.6	14.8	0.00e+00	0	27	0	828375040	63	4008
2026-01-15 07:13:16.71	42.86	14.49	-48.2	-49.4	14.9	0.00e+00	0	28	0	833617920	63	3941
2026-01-15 07:13:17.71	42.71	14.56	-48.2	-49.4	14.8	0.00e+00	0	28	0	839909376	62	4165
2026-01-15 07:13:18.71	42.56	14.63	-48.1	-49.4	14.8	0.00e+00	0	28	0	845152256	62	4149
2026-01-15 07:13:19.70	42.41	14.70	-48.1	-49.3	14.8	0.00e+00	0	28	0	850395136	62	4121
2026-01-15 07:13:20.70	42.25	14.77	-47.9	-49.1	14.9	0.00e+00	0	28	0	856686592	62	4045
2026-01-15 07:13:21.70	42.10	14.84	-48.0	-49.2	14.9	0.00e+00	0	27	0	861929472	62	4061
2026-01-15 07:13:22.70	41.94	14.92	-48.0	-49.3	14.8	0.00e+00	0	27	0	868220928	62	4100
2026-01-15 07:13:23.71	41.79	14.99	-47.9	-49.1	14.9	0.00e+00	0	28	0	873463808	62	4038
2026-01-15 07:13:24.71	41.63	15.06	-47.9	-49.1	14.9	0.00e+00	0	28	0	878706688	62	4005
2026-01-15 07:13:25.71	41.47	15.13	-47.9	-49.1	14.9	0.00e+00	0	28	0	884998144	62	4016
2026-01-15 07:13:26.71	41.31	15.20	-47.9	-49.1	14.9	0.00e+00	0	27	0	890241024	62	4015
2026-01-15 07:13:27.72	41.15	15.27	-48.0	-49.2	14.8	0.00e+00	0	28	0	895483904	62	4059
2026-01-15 07:13:28.73	40.99	15.35	-47.9	-49.1	14.9	0.00e+00	0	28	0	901775360	62	4014
2026-01-15 07:13:29.73	40.83	15.42	-47.8	-49.0	14.9	0.00e+00	0	28	0	907018240	62	3994
2026-01-15 07:13:30.73	40.67	15.49	-48.0	-49.2	14.9	0.00e+00	0	28	0	913309696	62	4052
2026-01-15 07:13:31.73	40.51	15.56	-48.0	-49.2	14.9	0.00e+00	0	28	0	918552576	62	4065
2026-01-15 07:13:32.74	40.34	15.63	-48.0	-49.2	14.9	0.00e+00	0	28	0	923795456	62	4060
2026-01-15 07:13:33.74	40.18	15.71	-47.9	-49.1	14.9	0.00e+00	0	28	0	930086912	62	4010
2026-01-15 07:13:34.75	40.01	15.78	-47.8	-49.0	14.9	0.00e+00	0	28	0	935329792	62	3992
2026-01-15 07:13:35.75	39.84	15.85	-47.8	-49.0	14.9	0.00e+00	0	27	0	941621248	62	4004
2026-01-15 07:13:36.75	39.68	15.92	-47.8	-49.0	15.0	0.00e+00	0	28	0	946864128	62	3969
2026-01-15 07:13:37.76	39.51	15.99	-47.7	-48.9	15.0	0.00e+00	0	28	0	952107008	62	3944
2026-01-15 07:13:38.76	39.34	16.06	-47.7	-48.9	15.0	0.00e+00	0	28	0	958398464	62	3940
2026-01-15 07:13:39.76	39.17	16.14	-47.7	-48.9	15.0	0.00e+00	0	28	0	963641344	62	3946
2026-01-15 07:13:40.76	39.00	16.21	-47.8	-49.0	15.0	0.00e+00	0	27	0	968884224	62	3963
2026-01-15 07:13:41.77	38.83	16.28	-47.8	-49.0	15.0	0.00e+00	0	28	0	975175680	62	3972
2026-01-15 07:13:42.78	38.66	16.35	-47.8	-49.0	15.0	0.00e+00	0	28	0	980418560	62	3963
2026-01-15 07:13:43.78	38.49	16.42	-47.7	-48.9	15.0	0.00e+00	0	28	0	986710016	62	3949
2026-01-15 07:13:44.79	38.31	16.49	-47.8	-49.0	14.9	0.00e+00	0	28	0	991952896	62	3993
2026-01-15 07:13:45.79	38.14	16.56	-47.8	-49.0	14.9	0.00e+00	0	28	0	997195776	62	3975
2026-01-15 07:13:46.79	37.96	16.63	-47.8	-49.0	14.9	0.00e+00	0	28	0	1003487232	62	3991
2026-01-15 07:13:47.79	37.79	16.71	-47.8	-49.0	14.9	0.00e+00	0	27	0	1008730112	62	3987
2026-01-15 07:13:48.79	37.61	16.78	-47.8	-49.0	15.0	0.00e+00	0	28	0	1015021568	62	3968
2026-01-15 07:13:49.79	37.43	16.85	-47.7	-48.9	15.0	0.00e+00	0	28	0	1020264448	62	3920
2026-01-15 07:13:50.80	37.25	16.92	-47.7	-48.8	15.0	0.00e+00	0	28	0	1025507328	62	3910
2026-01-15 07:13:51.80	37.07	16.99	-47.8	-49.0	15.0	0.00e+00	0	28	0	1031798784	62	3979
2026-01-15 07:13:52.80	36.89	17.06	-47.6	-48.7	14.9	0.00e+00	0	28	0	1037041664	61	4090
2026-01-15 07:13:53.80	36.71	17.13	-47.4	-48.6	15.0	0.00e+00	0	28	0	1042284544	61	4013
2026-01-15 07:13:54.81	36.53	17.20	-47.5	-48.7	14.9	0.00e+00	0	27	0	1048576000	61	4076
2026-01-15 07:13:55.82	36.35	17.27	-47.4	-48.6	15.0	0.00e+00	0	28	0	1053818880	61	4024
2026-01-15 07:13:56.82	36.16	17.34	-47.5	-48.6	15.0	0.00e+00	0	28	0	1059061760	61	4048
2026-01-15 07:13:57.82	35.98	17.41	-47.5	-48.7	15.0	0.00e+00	0	27	0	1065353216	61	4053
2026-01-15 07:13:58.83	35.79	17.48	-47.3	-48.5	15.0	0.00e+00	0	28	0	1070596096	61	3969
2026-01-15 07:13:59.83	35.61	17.55	-47.3	-48.4	15.0	0.00e+00	0	27	0	1076887552	61	3955
2026-01-15 07:14:00.83	35.42	17.62	-47.3	-48.5	15.0	0.00e+00	0	28	0	1082130432	61	3961
2026-01-15 07:14:01.84	35.23	17.69	-47.3	-48.4	15.0	0.00e+00	0	28	0	1088421888	61	3958
2026-01-15 07:14:02.84	35.04	17.76	-47.3	-48.4	15.0	0.00e+00	0	28	0	1093664768	61	3953
2026-01-15 07:14:03.85	34.85	17.83	-47.2	-48.4	15.1	0.00e+00	0	28	0	1098907648	61	3926
2026-01-15 07:14:04.85	34.66	17.90	-47.1	-48.2	15.0	0.00e+00	0	28	0	1105199104	60	4095
2026-01-15 07:14:05.85	34.47	17.97	-47.1	-48.3	15.0	0.00e+00	0	28	0	1110441984	60	4101
2026-01-15 07:14:06.85	34.28	18.04	-47.0	-48.2	15.0	0.00e+00	0	28	0	1115684864	60	4060
2026-01-15 07:14:07.86	34.08	18.11	-47.1	-48.2	15.0	0.00e+00	0	27	0	1121976320	60	4098
2026-01-15 07:14:08.86	33.89	18.17	-47.1	-48.2	15.0	0.00e+00	0	28	0	1127219200	60	4071
2026-01-15 07:14:09.87	33.69	18.24	-47.1	-48.2	15.0	0.00e+00	0	28	0	1132462080	60	4075
2026-01-15 07:14:10.88	33.49	18.31	-47.0	-48.1	15.0	0.00e+00	0	28	0	1138753536	60	4018
2026-01-15 07:14:11.88	33.30	18.38	-47.0	-48.1	15.0	0.00e+00	0	28	0	1143996416	60	4030
2026-01-15 07:14:12.88	33.10	18.45	-47.0	-48.1	15.0	0.00e+00	0	28	0	1150287872	60	4038
2026-01-15 07:14:13.89	32.90	18.52	-46.9	-48.0	15.1	0.00e+00	0	28	0	1155530752	60	3981
2026-01-15 07:14:14.90	32.70	18.58	-46.9	-48.0	15.1	0.00e+00	0	28	0	1161822208	60	3972
2026-01-15 07:14:15.89	32.50	18.65	-46.7	-47.8	15.1	0.00e+00	0	28	0	1167065088	60	3911
2026-01-15 07:14:16.89	32.30	18.72	-46.8	-47.9	15.1	0.00e+00	0	28	0	1172307968	60	3946
2026-01-15 07:14:17.90	32.10	18.79	-46.8	-48.0	15.1	0.00e+00	0	28	0	1178599424	60	3961
2026-01-15 07:14:18.90	31.89	18.85	-47.0	-48.1	15.0	0.00e+00	0	28	0	1183842304	60	4017
2026-01-15 07:14:19.90	31.69	18.92	-47.0	-48.1	15.0	0.00e+00	0	28	0	1189085184	60	4034
2026-01-15 07:14:20.91	31.48	18.99	-47.0	-48.1	15.0	0.00e+00	0	28	0	1195376640	60	4036
2026-01-15 07:14:21.90	31.28	19.05	-47.0	-48.1	15.0	0.00e+00	0	28	0	1200619520	60	4044
2026-01-15 07:14:22.91	31.07	19.12	-47.0	-48.1	15.0	0.00e+00	0	28	0	1205862400	60	4026
2026-01-15 07:14:23.91	30.86	19.18	-46.8	-48.0	15.1	0.00e+00	0	28	0	1212153856	60	3965
2026-01-15 07:14:24.91	30.66	19.25	-46.8	-47.9	15.1	0.00e+00	0	28	0	1217396736	60	3915
2026-01-15 07:14:25.91	30.45	19.31	-46.8	-47.9	15.1	0.00e+00	0	28	0	1223688192	60	3927
2026-01-15 07:14:26.92	30.23	19.38	-46.7	-47.8	15.1	0.00e+00	0	28	0	1228931072	60	3902
2026-01-15 07:14:27.93	30.02	19.45	-46.7	-47.9	15.1	0.00e+00	0	28	0	1234173952	60	3914
2026-01-15 07:14:28.93	29.81	19.51	-46.8	-47.9	15.1	0.00e+00	0	28	0	1240465408	60	3925
2026-01-15 07:14:29.93	29.60	19.57	-46.8	-47.9	15.1	0.00e+00	0	28	0	1245708288	60	3948
2026-01-15 07:14:30.93	29.38	19.64	-46.8	-48.0	15.1	0.00e+00	0	28	0	1250951168	60	3960
2026-01-15 07:14:31.93	29.17	19.70	-46.9	-48.1	15.0	0.00e+00	0	28	0	1257242624	60	4011
2026-01-15 07:14:32.93	28.95	19.77	-46.9	-48.0	15.1	0.00e+00	0	28	0	1262485504	60	4003
2026-01-15 07:14:33.93	28.74	19.83	-46.9	-48.0	15.1	0.00e+00	0	28	0	1268776960	60	3989
2026-01-15 07:14:34.92	28.52	19.89	-46.8	-47.9	15.1	0.00e+00	0	28	0	1274019840	60	3934
2026-01-15 07:14:35.93	28.30	19.96	-46.9	-48.1	14.9	0.00e+00	0	28	0	1279262720	59	4259
2026-01-15 07:14:36.94	28.08	20.02	-46.9	-48.1	15.0	0.00e+00	0	28	0	1285554176	59	4251
2026-01-15 07:14:37.93	27.86	20.08	-46.9	-48.1	15.0	0.00e+00	0	28	0	1290797056	59	4252
2026-01-15 07:14:38.93	27.64	20.14	-47.0	-48.1	14.9	0.00e+00	0	28	0	1297088512	59	4276
2026-01-15 07:14:39.94	27.42	20.20	-47.0	-48.1	14.9	0.00e+00	0	28	0	1302331392	59	4291
2026-01-15 07:14:40.93	27.20	20.26	-47.1	-48.3	14.9	0.00e+00	0	28	0	1307574272	59	4357
2026-01-15 07:14:41.93	26.97	20.33	-47.1	-48.3	14.9	0.00e+00	0	28	0	1312817152	59	4367
2026-01-15 07:14:42.93	26.75	20.39	-47.2	-48.4	14.9	0.00e+00	0	28	0	1319108608	59	4394
2026-01-15 07:14:43.93	26.52	20.45	-47.2	-48.4	14.9	0.00e+00	0	28	0	1324351488	59	4392
2026-01-15 07:14:44.93	26.30	20.51	-47.1	-48.2	14.9	0.00e+00	0	28	0	1330642944	59	4334
2026-01-15 07:14:45.93	26.07	20.57	-47.1	-48.2	14.9	0.00e+00	0	28	0	1335885824	59	4339
2026-01-15 07:14:46.93	25.84	20.63	-47.0	-48.2	14.9	0.00e+00	0	28	0	1341128704	59	4315
2026-01-15 07:14:47.93	25.61	20.68	-47.1	-48.2	14.9	0.00e+00	0	28	0	1347420160	59	4316
2026-01-15 07:14:48.93	25.38	20.74	-47.1	-48.3	14.9	0.00e+00	0	28	0	1352663040	59	4343
2026-01-15 07:14:49.92	25.16	20.80	-47.1	-48.2	14.9	0.00e+00	0	28	0	1357905920	59	4339
2026-01-15 07:14:50.92	24.92	20.86	-46.9	-48.0	15.0	0.00e+00	0	28	0	1364197376	59	4241
2026-01-15 07:14:51.91	24.69	20.92	-47.0	-48.1	14.9	0.00e+00	0	28	0	1369440256	59	4285
2026-01-15 07:14:52.91	24.46	20.97	-47.0	-48.1	14.9	0.00e+00	0	28	0	1374683136	59	4272
2026-01-15 07:14:53.91	24.23	21.03	-46.9	-48.0	15.0	0.00e+00	0	28	0	1380974592	59	4234
2026-01-15 07:14:54.91	23.99	21.09	-46.9	-48.0	15.0	0.00e+00	0	28	0	1386217472	59	4216
2026-01-15 07:14:55.89	23.76	21.14	-46.7	-47.8	15.1	0.00e+00	0	28	0	1392508928	59	4102
2026-01-15 07:14:56.89	23.52	21.20	-46.7	-47.8	15.0	0.00e+00	0	28	0	1397751808	59	4143
2026-01-15 07:14:57.88	23.29	21.25	-46.7	-47.8	15.0	0.00e+00	0	28	0	1402994688	59	4133
2026-01-15 07:14:58.87	23.05	21.31	-46.9	-48.0	15.0	0.00e+00	0	28	0	1408237568	59	4215
2026-01-15 07:14:59.87	22.81	21.36	-46.9	-48.1	15.0	0.00e+00	0	28	0	1414529024	59	4250
2026-01-15 07:15:00.86	22.58	21.41	-47.0	-48.1	15.0	0.00e+00	0	28	0	1419771904	59	4281
2026-01-15 07:15:01.85	22.34	21.47	-46.9	-48.1	15.0	0.00e+00	0	28	0	1425014784	59	4257
2026-01-15 07:15:02.84	22.10	21.52	-46.8	-47.9	15.0	0.00e+00	0	28	0	1431306240	59	4172
2026-01-15 07:15:03.84	21.85	21.57	-46.7	-47.8	15.0	0.00e+00	0	28	0	1436549120	59	4145
2026-01-15 07:15:04.83	21.61	21.62	-46.6	-47.8	15.0	0.00e+00	0	28	0	1441792000	59	4104
2026-01-15 07:15:05.83	21.37	21.68	-46.8	-47.9	15.0	0.00e+00	0	28	0	1448083456	59	4168
2026-01-15 07:15:06.82	21.13	21.73	-46.8	-47.9	15.0	0.00e+00	0	28	0	1453326336	59	4172
2026-01-15 07:15:07.82	20.88	21.78	-46.8	-47.9	15.0	0.00e+00	0	28	0	1458569216	59	4188
2026-01-15 07:15:08.81	20.64	21.83	-46.9	-48.1	15.0	0.00e+00	0	28	0	1464860672	59	4254
2026-01-15 07:15:09.81	20.39	21.88	-46.8	-48.0	15.0	0.00e+00	0	28	0	1470103552	59	4199
2026-01-15 07:15:10.81	20.14	21.93	-46.7	-47.8	15.1	0.00e+00	0	28	0	1475346432	59	4115
2026-01-15 07:15:11.81	19.89	21.98	-46.6	-47.8	15.1	0.00e+00	0	28	0	1481637888	59	4104
2026-01-15 07:15:12.80	19.64	22.02	-46.6	-47.7	15.1	0.00e+00	0	28	0	1486880768	59	4082
2026-01-15 07:15:13.80	19.39	22.07	-46.6	-47.7	15.1	0.00e+00	0	28	0	1493172224	59	4071
2026-01-15 07:15:14.79	19.14	22.12	-46.6	-47.7	15.1	0.00e+00	0	28	0	1498415104	59	4098
2026-01-15 07:15:15.79	18.89	22.17	-46.7	-47.9	15.0	0.00e+00	0	28	0	1503657984	59	4155
2026-01-15 07:15:16.78	18.64	22.21	-46.5	-47.6	15.1	0.00e+00	0	28	0	1508900864	59	4013
2026-01-15 07:15:17.77	18.39	22.26	-46.5	-47.6	15.1	0.00e+00	0	28	0	1515192320	59	4035
2026-01-15 07:15:18.76	18.14	22.30	-46.4	-47.5	15.2	0.00e+00	0	28	0	1520435200	59	3989
2026-01-15 07:15:19.76	17.88	22.35	-46.5	-47.6	15.1	0.00e+00	0	28	0	1525678080	59	4016
2026-01-15 07:15:20.75	17.63	22.39	-46.6	-47.7	15.1	0.00e+00	0	28	0	1531969536	59	4057
2026-01-15 07:15:21.75	17.37	22.44	-46.6	-47.7	15.1	0.00e+00	0	28	0	1537212416	59	4095
2026-01-15 07:15:22.75	17.12	22.48	-46.5	-47.7	15.1	0.00e+00	0	28	0	1543503872	59	4054
2026-01-15 07:15:23.74	16.86	22.52	-46.4	-47.5	15.1	0.00e+00	0	28	0	1548746752	59	3993
2026-01-15 07:15:24.74	16.60	22.56	-46.5	-47.6	15.1	0.00e+00	0	28	0	1553989632	59	4018
2026-01-15 07:15:25.73	16.34	22.60	-46.4	-47.5	15.1	0.00e+00	0	28	0	1560281088	59	3994
2026-01-15 07:15:26.73	16.08	22.65	-46.5	-47.6	15.1	0.00e+00	0	28	0	1565523968	59	4026
2026-01-15 07:15:27.72	15.82	22.69	-46.5	-47.6	15.1	0.00e+00	0	28	0	1570766848	59	4019
2026-01-15 07:15:28.71	15.57	22.73	-46.6	-47.7	15.1	0.00e+00	0	28	0	1576009728	59	4057
2026-01-15 07:15:29.70	15.31	22.76	-46.4	-47.5	15.2	0.00e+00	0	28	0	1582301184	59	3971
2026-01-15 07:15:30.70	15.04	22.80	-46.4	-47.5	15.1	0.00e+00	0	28	0	1587544064	59	3981
2026-01-15 07:15:31.69	14.78	22.84	-46.4	-47.5	15.2	0.00e+00	0	28	0	1593835520	59	3977
2026-01-15 07:15:32.68	14.52	22.88	-46.3	-47.5	15.2	0.00e+00	0	28	0	1599078400	59	3959
2026-01-15 07:15:33.68	14.26	22.92	-46.5	-47.6	15.1	0.00e+00	0	28	0	1604321280	59	4012
2026-01-15 07:15:34.67	13.99	22.95	-46.5	-47.6	15.1	0.00e+00	0	28	0	1609564160	59	4015
2026-01-15 07:15:35.67	13.73	22.99	-46.7	-47.8	15.1	0.00e+00	0	28	0	1615855616	59	4118
2026-01-15 07:15:36.66	13.46	23.02	-46.6	-47.7	15.1	0.00e+00	0	28	0	1621098496	59	4072
2026-01-15 07:15:37.66	13.19	23.06	-46.6	-47.7	15.1	0.00e+00	0	28	0	1626341376	59	4098
2026-01-15 07:15:38.66	12.93	23.09	-46.6	-47.7	15.1	0.00e+00	0	28	0	1632632832	59	4059
2026-01-15 07:15:39.66	12.66	23.12	-46.6	-47.7	15.1	0.00e+00	0	28	0	1637875712	59	4072
2026-01-15 07:15:40.66	12.39	23.16	-46.5	-47.7	15.1	0.00e+00	0	28	0	1644167168	59	4052
2026-01-15 07:15:41.64	12.12	23.19	-46.5	-47.7	15.1	0.00e+00	0	28	0	1649410048	59	4053
2026-01-15 07:15:42.64	11.85	23.22	-46.5	-47.6	15.1	0.00e+00	0	28	0	1654652928	59	4019
2026-01-15 07:15:43.63	11.59	23.25	-46.6	-47.7	15.1	0.00e+00	0	28	0	1659895808	59	4056
2026-01-15 07:15:44.62	11.32	23.28	-46.4	-47.5	15.2	0.00e+00	0	28	0	1666187264	59	3963
2026-01-15 07:15:45.61	11.05	23.31	-46.4	-47.5	15.2	0.00e+00	0	28	0	1671430144	59	3962
2026-01-15 07:15:46.60	10.78	23.34	-46.4	-47.5	15.2	0.00e+00	0	28	0	1676673024	59	3967
2026-01-15 07:15:47.61	10.50	23.37	-46.2	-47.3	15.2	0.00e+00	0	28	0	1682964480	59	3900
2026-01-15 07:15:48.60	10.23	23.39	-46.3	-47.4	15.2	0.00e+00	0	28	0	1688207360	59	3926
2026-01-15 07:15:49.59	9.96	23.42	-46.3	-47.4	15.2	0.00e+00	0	28	0	1694498816	59	3934
2026-01-15 07:15:50.59	9.69	23.45	-46.2	-47.3	15.2	0.00e+00	0	28	0	1699741696	59	3895
2026-01-15 07:15:51.58	9.42	23.47	-46.0	-47.1	15.1	0.00e+00	0	28	0	1704984576	58	4048
2026-01-15 07:15:52.58	9.14	23.50	-46.0	-47.1	15.1	0.00e+00	0	28	0	1711276032	58	4034
2026-01-15 07:15:53.58	8.86	23.52	-46.0	-47.1	15.1	0.00e+00	0	28	0	1716518912	58	4024
2026-01-15 07:15:54.57	8.59	23.54	-46.1	-47.1	15.1	0.00e+00	0	28	0	1721761792	58	4045
2026-01-15 07:15:55.55	8.32	23.57	-46.0	-47.0	15.2	0.00e+00	0	28	0	1728053248	58	4001
2026-01-15 07:15:56.55	8.04	23.59	-45.9	-47.0	15.2	0.00e+00	0	28	0	1733296128	58	3967
2026-01-15 07:15:57.54	7.77	23.61	-46.0	-47.1	15.2	0.00e+00	0	28	0	1738539008	58	4033
2026-01-15 07:15:58.53	7.49	23.63	-46.2	-47.3	15.1	0.00e+00	0	28	0	1743781888	58	4102
2026-01-15 07:15:59.52	7.22	23.65	-46.1	-47.2	15.1	0.00e+00	0	28	0	1750073344	58	4090
2026-01-15 07:16:00.52	6.94	23.67	-46.2	-47.3	15.1	0.00e+00	0	28	0	1755316224	58	4144
2026-01-15 07:16:01.52	6.66	23.69	-46.3	-47.4	15.0	0.00e+00	0	28	0	1760559104	58	4171
2026-01-15 07:16:02.51	6.39	23.70	-46.3	-47.5	15.0	0.00e+00	0	28	0	1766850560	58	4196
2026-01-15 07:16:03.51	6.11	23.72	-46.3	-47.4	15.1	0.00e+00	0	28	0	1772093440	58	4158
2026-01-15 07:16:04.50	5.83	23.74	-46.3	-47.4	15.1	0.00e+00	0	28	0	1778384896	58	4161
2026-01-15 07:16:05.49	5.55	23.75	-46.2	-47.3	15.1	0.00e+00	0	28	0	1783627776	58	4113
2026-01-15 07:16:06.48	5.28	23.77	-46.1	-47.1	15.1	0.00e+00	0	28	0	1788870656	58	4046
2026-01-15 07:16:07.47	5.00	23.78	-46.1	-47.2	15.1	0.00e+00	0	28	0	1794113536	58	4058
2026-01-15 07:16:08.46	4.72	23.80	-46.1	-47.1	15.1	0.00e+00	0	28	0	1800404992	58	4048
2026-01-15 07:16:09.46	4.44	23.81	-46.0	-47.1	15.1	0.00e+00	0	28	0	1805647872	58	4037
2026-01-15 07:16:10.45	4.16	23.82	-46.1	-47.2	15.1	0.00e+00	0	28	0	1810890752	58	4061
2026-01-15 07:16:11.45	3.88	23.83	-46.1	-47.1	15.2	0.00e+00	0	28	0	1817182208	58	4044
2026-01-15 07:16:12.45	3.60	23.84	-46.0	-47.1	15.2	0.00e+00	0	28	0	1822425088	58	4006
2026-01-15 07:16:13.45	3.32	23.85	-46.0	-47.0	15.2	0.00e+00	0	28	0	1828716544	58	3989
2026-01-15 07:16:14.45	3.03	23.86	-46.0	-47.0	15.2	0.00e+00	0	28	0	1833959424	58	3998
2026-01-15 07:16:15.44	2.76	23.87	-46.1	-47.1	15.1	0.00e+00	0	28	0	1839202304	58	4048
2026-01-15 07:16:16.43	2.48	23.88	-46.0	-47.1	15.2	0.00e+00	0	28	0	1844445184	58	4025
2026-01-15 07:16:17.42	2.20	23.88	-46.1	-47.1	15.1	0.00e+00	0	28	0	1850736640	58	4046
2026-01-15 07:16:18.42	1.91	23.89	-46.0	-47.1	15.2	0.00e+00	0	28	0	1855979520	58	4005
2026-01-15 07:16:19.41	1.63	23.89	-46.0	-47.1	15.2	0.00e+00	0	28	0	1861222400	58	4021
2026-01-15 07:16:20.41	1.35	23.90	-46.0	-47.1	15.2	0.00e+00	0	28	0	1867513856	58	4015
2026-01-15 07:16:21.41	1.07	23.90	-46.0	-47.1	15.2	0.00e+00	0	28	0	1872756736	58	4006
2026-01-15 07:16:22.40	0.79	23.90	-46.0	-47.0	15.2	0.00e+00	0	28	0	1879048192	58	3999
2026-01-15 07:16:23.40	0.51	23.91	-46.1	-47.1	15.1	0.00e+00	0	28	0	1884291072	58	4044
2026-01-15 07:16:24.40	0.22	23.91	-46.0	-47.1	15.2	0.00e+00	0	28	0	1889533952	58	4040
2026-01-15 07:16:25.39	359.94	23.91	-46.0	-47.1	15.1	0.00e+00	0	28	0	1895825408	58	4043
2026-01-15 07:16:26.39	359.66	23.91	-46.0	-47.1	15.2	0.00e+00	0	28	0	1901068288	58	4007
2026-01-15 07:16:27.39	359.38	23.91	-45.9	-47.0	15.2	0.00e+00	0	28	0	1906311168	58	3973
2026-01-15 07:16:28.38	359.10	23.91	-46.0	-47.0	15.2	0.00e+00	0	28	0	1912602624	58	3988
2026-01-15 07:16:29.38	358.82	23.90	-45.9	-47.0	15.2	0.00e+00	0	28	0	1917845504	58	3991
2026-01-15 07:16:30.38	358.53	23.90	-46.1	-47.1	15.1	0.00e+00	0	28	0	1923088384	58	4046
2026-01-15 07:16:31.39	358.25	23.90	-46.0	-47.1	15.2	0.00e+00	0	28	0	1929379840	58	4015
2026-01-15 07:16:32.39	357.97	23.89	-46.1	-47.2	15.1	0.00e+00	0	28	0	1934622720	58	4087
2026-01-15 07:16:33.38	357.69	23.89	-46.1	-47.1	15.1	0.00e+00	0	28	0	1940914176	58	4044
2026-01-15 07:16:34.38	357.40	23.88	-46.0	-47.0	15.2	0.00e+00	0	28	0	1946157056	58	3997
2026-01-15 07:16:35.39	357.12	23.87	-46.1	-47.2	15.1	0.00e+00	0	28	0	1951399936	58	4063
2026-01-15 07:16:36.39	356.84	23.87	-46.0	-47.1	15.2	0.00e+00	0	28	0	1957691392	58	4029
2026-01-15 07:16:37.39	356.55	23.86	-46.0	-47.1	15.2	0.00e+00	0	28	0	1962934272	58	4018
2026-01-15 07:16:38.39	356.27	23.85	-46.1	-47.1	15.1	0.00e+00	0	28	0	1968177152	58	4039
2026-01-15 07:16:39.39	355.99	23.84	-46.0	-47.0	15.2	0.00e+00	0	28	0	1974468608	58	4000
2026-01-15 07:16:40.39	355.71	23.83	-45.9	-47.0	15.2	0.00e+00	0	28	0	1979711488	58	3968
2026-01-15 07:16:41.39	355.43	23.82	-46.0	-47.0	15.2	0.00e+00	0	28	0	1984954368	58	4004
2026-01-15 07:16:42.39	355.15	23.80	-45.9	-47.0	15.2	0.00e+00	0	28	0	1991245824	58	3983
2026-01-15 07:16:43.39	354.87	23.79	-46.0	-47.0	15.2	0.00e+00	0	28	0	1996488704	58	3996
2026-01-15 07:16:44.39	354.59	23.78	-46.0	-47.1	15.2	0.00e+00	0	28	0	2002780160	58	4018
2026-01-15 07:16:45.38	354.31	23.76	-46.0	-47.1	15.2	0.00e+00	0	28	0	2008023040	58	4028
2026-01-15 07:16:46.37	354.03	23.75	-46.0	-47.1	15.1	0.00e+00	0	28	0	2013265920	58	4035
2026-01-15 07:16:47.37	353.75	23.73	-46.0	-47.1	15.2	0.00e+00	0	28	0	2018508800	58	4022
2026-01-15 07:16:48.37	353.47	23.72	-46.0	-47.1	15.1	0.00e+00	0	28	0	2024800256	58	4017
2026-01-15 07:16:49.37	353.19	23.70	-45.8	-46.9	15.2	0.00e+00	0	28	0	2030043136	58	3936
2026-01-15 07:16:50.37	352.91	23.68	-45.9	-47.0	15.2	0.00e+00	0	28	0	2035286016	58	3959
2026-01-15 07:16:51.37	352.63	23.66	-45.9	-46.9	15.2	0.00e+00	0	28	0	2041577472	58	3950
2026-01-15 07:16:52.37	352.36	23.64	-46.0	-47.1	15.2	0.00e+00	0	28	0	2046820352	58	4012
2026-01-15 07:16:53.37	352.08	23.62	-46.1	-47.2	15.1	0.00e+00	0	28	0	2053111808	58	4065
2026-01-15 07:16:54.37	351.80	23.60	-46.1	-47.2	15.1	0.00e+00	0	28	0	2058354688	58	4060
2026-01-15 07:16:55.36	351.53	23.58	-46.0	-47.1	15.2	0.00e+00	0	28	0	2063597568	58	4023
2026-01-15 07:16:56.36	351.25	23.56	-46.1	-47.1	15.1	0.00e+00	0	28	0	2069889024	58	4048
2026-01-15 07:16:57.35	350.98	23.54	-46.1	-47.1	15.1	0.00e+00	0	28	0	2075131904	58	4044
2026-01-15 07:16:58.35	350.70	23.51	-46.0	-47.1	15.2	0.00e+00	0	28	0	2080374784	58	4020
2026-01-15 07:16:59.35	350.43	23.49	-46.1	-47.1	15.1	0.00e+00	0	28	0	2086666240	58	4048
2026-01-15 07:17:00.35	350.15	23.46	-46.0	-47.1	15.2	0.00e+00	0	28	0	2091909120	58	4019
2026-01-15 07:17:01.35	349.88	23.44	-46.1	-47.1	15.1	0.00e+00	0	28	0	2097152000	58	4048
2026-01-15 07:17:02.35	349.60	23.41	-46.1	-47.1	15.1	0.00e+00	0	28	0	2103443456	58	4045
2026-01-15 07:17:03.34	349.33	23.38	-46.1	-47.2	15.1	0.00e+00	0	28	0	2108686336	58	4074
2026-01-15 07:17:04.34	349.06	23.36	-46.1	-47.2	15.1	0.00e+00	0	28	0	2114977792	58	4088
2026-01-15 07:17:05.34	348.78	23.33	-46.1	-47.1	15.1	0.00e+00	0	28	0	2120220672	58	4044
2026-01-15 07:17:06.33	348.52	23.30	-46.2	-47.3	15.1	0.00e+00	0	28	0	2125463552	58	4110
2026-01-15 07:17:07.33	348.24	23.27	-46.1	-47.2	15.1	0.00e+00	0	28	0	2130706432	58	4072
2026-01-15 07:17:08.32	347.97	23.24	-46.1	-47.2	15.1	0.00e+00	0	28	0	2136997888	58	4078
2026-01-15 07:17:09.31	347.71	23.21	-46.1	-47.2	15.1	0.00e+00	0	28	0	2142240768	58	4067
2026-01-15 07:17:10.31	347.44	23.18	-46.2	-47.2	15.1	0.00e+00	0	28	0	2147483648	58	4097
2026-01-15 07:17:11.31	347.17	23.15	-46.1	-47.1	15.1	0.00e+00	0	28	0	2153775104	58	4045
2026-01-15 07:17:12.31	346.90	23.11	-46.2	-47.3	15.1	0.00e+00	0	28	0	2159017984	58	4115
2026-01-15 07:17:13.30	346.63	23.08	-46.2	-47.3	15.1	0.00e+00	0	28	0	2165309440	58	4122
2026-01-15 07:17:14.30	346.36	23.04	-46.2	-47.3	15.1	0.00e+00	0	28	0	2170552320	58	4114
2026-01-15 07:17:15.29	346.10	23.01	-46.2	-47.3	15.1	0.00e+00	0	28	0	2175795200	58	4100
2026-01-15 07:17:16.29	345.83	22.97	-46.2	-47.3	15.1	0.00e+00	0	28	0	2182086656	58	4100
2026-01-15 07:17:17.28	345.57	22.94	-46.1	-47.1	15.1	0.00e+00	0	28	0	2187329536	58	4049
2026-01-15 07:17:18.27	345.31	22.90	-45.9	-47.0	15.2	0.00e+00	0	28	0	2192572416	58	3994
2026-01-15 07:17:19.26	345.05	22.87	-46.0	-47.0	15.2	0.00e+00	0	28	0	2198863872	58	4000
2026-01-15 07:17:20.25	344.78	22.83	-45.9	-47.0	15.2	0.00e+00	0	28	0	2204106752	58	3965
2026-01-15 07:17:21.25	344.52	22.79	-46.1	-47.1	15.1	0.00e+00	0	28	0	2209349632	58	4051
2026-01-15 07:17:22.24	344.26	22.75	-46.0	-47.1	15.1	0.00e+00	0	28	0	2215641088	58	4037
2026-01-15 07:17:23.24	344.00	22.71	-46.1	-47.2	15.1	0.00e+00	0	28	0	2220883968	58	4083
2026-01-15 07:17:24.23	343.74	22.67	-46.2	-47.3	15.1	0.00e+00	0	28	0	2226126848	58	4145
2026-01-15 07:17:25.23	343.48	22.63	-46.2	-47.3	15.1	0.00e+00	0	28	0	2231369728	58	4114
2026-01-15 07:17:26.22	343.22	22.59	-46.3	-47.3	15.1	0.00e+00	0	28	0	2237661184	58	4141
2026-01-15 07:17:27.21	342.96	22.55	-46.2	-47.3	15.1	0.00e+00	0	28	0	2242904064	58	4109
2026-01-15 07:17:28.20	342.71	22.51	-46.2	-47.3	15.1	0.00e+00	0	28	0	2249195520	58	4132
2026-01-15 07:17:29.19	342.45	22.46	-46.1	-47.1	15.1	0.00e+00	0	28	0	2254438400	58	4045
2026-01-15 07:17:30.19	342.20	22.42	-46.2	-47.3	15.1	0.00e+00	0	28	0	2259681280	58	4101
2026-01-15 07:17:31.18	341.94	22.38	-46.1	-47.2	15.1	0.00e+00	0	28	0	2264924160	58	4093
2026-01-15 07:17:32.17	341.69	22.33	-46.1	-47.2	15.1	0.00e+00	0	28	0	2271215616	58	4088
2026-01-15 07:17:33.17	341.43	22.29	-46.1	-47.2	15.1	0.00e+00	0	28	0	2276458496	58	4080
2026-01-15 07:17:34.17	341.18	22.24	-46.1	-47.1	15.1	0.00e+00	0	28	0	2281701376	58	4042
2026-01-15 07:17:35.17	340.93	22.19	-46.1	-47.2	15.1	0.00e+00	0	28	0	2287992832	58	4052
2026-01-15 07:17:36.16	340.68	22.15	-46.2	-47.2	15.1	0.00e+00	0	28	0	2293235712	58	4098
2026-01-15 07:17:37.16	340.42	22.10	-46.2	-47.3	15.1	0.00e+00	0	28	0	2299527168	58	4107
2026-01-15 07:17:38.16	340.17	22.05	-46.3	-47.4	15.1	0.00e+00	0	28	0	2304770048	58	4160
2026-01-15 07:17:39.15	339.92	22.01	-46.2	-47.3	15.1	0.00e+00	0	28	0	2310012928	58	4123
2026-01-15 07:17:40.15	339.67	21.96	-46.3	-47.3	15.1	0.00e+00	0	28	0	2316304384	58	4137
2026-01-15 07:17:41.15	339.43	21.91	-46.2	-47.3	15.1	0.00e+00	0	28	0	2321547264	58	4138
2026-01-15 07:17:42.15	339.18	21.86	-46.4	-47.4	15.1	0.00e+00	0	28	0	2326790144	58	4191
2026-01-15 07:17:43.16	338.93	21.81	-46.4	-47.5	15.0	0.00e+00	0	28	0	2333081600	58	4211
2026-01-15 07:17:44.15	338.68	21.76	-46.5	-47.6	15.0	0.00e+00	0	28	0	2338324480	58	4289
2026-01-15 07:17:45.15	338.44	21.71	-46.5	-47.6	15.0	0.00e+00	0	28	0	2343567360	58	4250
2026-01-15 07:17:46.15	338.19	21.65	-46.4	-47.5	15.0	0.00e+00	0	28	0	2349858816	58	4201
2026-01-15 07:17:47.15	337.95	21.60	-46.3	-47.4	15.1	0.00e+00	0	28	0	2355101696	58	4154
2026-01-15 07:17:48.14	337.71	21.55	-46.3	-47.4	15.1	0.00e+00	0	28	0	2361393152	58	4163
2026-01-15 07:17:49.14	337.47	21.50	-46.3	-47.4	15.1	0.00e+00	0	28	0	2366636032	58	4178
2026-01-15 07:17:50.13	337.23	21.44	-46.4	-47.5	15.0	0.00e+00	0	28	0	2371878912	58	4204
2026-01-15 07:17:51.13	336.99	21.39	-46.5	-47.6	15.0	0.00e+00	0	28	0	2377121792	58	4260
2026-01-15 07:17:52.11	336.75	21.34	-46.4	-47.6	15.0	0.00e+00	0	28	0	2383413248	58	4245
2026-01-15 07:17:53.11	336.51	21.28	-46.3	-47.4	15.0	0.00e+00	0	28	0	2388656128	58	4172
2026-01-15 07:17:54.11	336.27	21.23	-46.2	-47.3	15.1	0.00e+00	0	28	0	2393899008	58	4128
2026-01-15 07:17:55.10	336.04	21.17	-46.3	-47.4	15.1	0.00e+00	0	28	0	2400190464	58	4150
2026-01-15 07:17:56.09	335.80	21.12	-46.3	-47.4	15.1	0.00e+00	0	28	0	2405433344	58	4162
2026-01-15 07:17:57.09	335.57	21.06	-46.2	-47.2	15.1	0.00e+00	0	28	0	2411724800	58	4096
2026-01-15 07:17:58.08	335.34	21.01	-46.3	-47.4	15.1	0.00e+00	0	28	0	2416967680	58	4146
2026-01-15 07:17:59.08	335.10	20.95	-46.4	-47.5	15.0	0.00e+00	0	28	0	2422210560	58	4205
2026-01-15 07:18:00.08	334.87	20.89	-46.3	-47.4	15.0	0.00e+00	0	28	0	2427453440	58	4191
2026-01-15 07:18:01.08	334.64	20.83	-46.4	-47.5	15.0	0.00e+00	0	28	0	2433744896	58	4239
2026-01-15 07:18:02.07	334.41	20.78	-46.6	-47.7	15.0	0.00e+00	0	28	0	2438987776	58	4316
2026-01-15 07:18:03.07	334.18	20.72	-46.5	-47.6	15.0	0.00e+00	0	28	0	2444230656	58	4290
2026-01-15 07:18:04.06	333.95	20.66	-46.5	-47.6	15.0	0.00e+00	0	28	0	2450522112	58	4287
2026-01-15 07:18:05.06	333.72	20.60	-46.5	-47.6	15.0	0.00e+00	0	28	0	2455764992	58	4244
2026-01-15 07:18:06.05	333.50	20.54	-46.5	-47.6	15.0	0.00e+00	0	28	0	2462056448	58	4275
2026-01-15 07:18:07.04	333.27	20.48	-46.6	-47.7	15.0	0.00e+00	0	28	0	2467299328	58	4330
2026-01-15 07:18:08.04	333.05	20.42	-46.8	-47.9	14.9	0.00e+00	0	28	0	2472542208	58	4410
2026-01-15 07:18:09.04	332.82	20.36	-47.0	-48.1	15.0	0.00e+00	0	28	0	2478833664	59	4276
2026-01-15 07:18:10.04	332.60	20.30	-46.9	-48.1	15.0	0.00e+00	0	28	0	2484076544	59	4258
2026-01-15 07:18:11.05	332.37	20.24	-46.9	-48.0	15.0	0.00e+00	0	28	0	2489319424	59	4221
2026-01-15 07:18:12.04	332.15	20.18	-47.0	-48.1	15.0	0.00e+00	0	28	0	2495610880	59	4258
2026-01-15 07:18:13.03	331.93	20.12	-46.8	-48.0	15.0	0.00e+00	0	28	0	2500853760	59	4197
2026-01-15 07:18:14.02	331.71	20.06	-46.8	-47.9	15.0	0.00e+00	0	28	0	2506096640	59	4182
2026-01-15 07:18:15.02	331.49	19.99	-46.9	-48.0	15.0	0.00e+00	0	28	0	2512388096	59	4204
2026-01-15 07:18:16.02	331.28	19.93	-46.8	-47.9	15.0	0.00e+00	0	28	0	2517630976	59	4178
2026-01-15 07:18:17.00	331.06	19.87	-46.8	-47.9	15.0	0.00e+00	0	28	0	2522873856	59	4162
2026-01-15 07:18:17.99	330.85	19.81	-46.7	-47.9	15.0	0.00e+00	0	28	0	2529165312	59	4150
2026-01-15 07:18:18.98	330.63	19.74	-46.7	-47.8	15.0	0.00e+00	0	28	0	2534408192	59	4142
2026-01-15 07:18:19.97	330.42	19.68	-46.9	-48.0	15.0	0.00e+00	0	28	0	2539651072	59	4207
2026-01-15 07:18:20.97	330.21	19.62	-46.9	-48.1	15.0	0.00e+00	0	28	0	2544893952	59	4253
2026-01-15 07:18:21.96	330.00	19.55	-47.1	-48.2	14.9	0.00e+00	0	28	0	2551185408	59	4313
2026-01-15 07:18:22.97	329.78	19.49	-47.2	-48.3	14.9	0.00e+00	0	28	0	2556428288	59	4370
2026-01-15 07:18:23.96	329.57	19.43	-47.2	-48.3	14.9	0.00e+00	0	28	0	2562719744	59	4363
2026-01-15 07:18:24.96	329.36	19.36	-47.2	-48.3	14.9	0.00e+00	0	28	0	2567962624	59	4368
2026-01-15 07:18:25.96	329.15	19.30	-47.3	-48.5	14.9	0.00e+00	0	28	0	2573205504	59	4468
2026-01-15 07:18:26.96	328.94	19.23	-47.3	-48.5	14.9	0.00e+00	0	28	0	2579496960	59	4458
2026-01-15 07:18:27.96	328.73	19.16	-47.3	-48.4	14.9	0.00e+00	0	28	0	2584739840	59	4438
2026-01-15 07:18:28.96	328.53	19.10	-47.3	-48.5	14.8	0.00e+00	0	28	0	2589982720	59	4448
2026-01-15 07:18:29.95	328.32	19.03	-47.2	-48.3	14.9	0.00e+00	0	28	0	2596274176	59	4378
2026-01-15 07:18:30.95	328.12	18.97	-47.2	-48.3	14.9	0.00e+00	0	28	0	2601517056	59	4382
2026-01-15 07:18:31.95	327.91	18.90	-47.2	-48.4	14.9	0.00e+00	0	28	0	2606759936	59	4410
2026-01-15 07:18:32.96	327.71	18.83	-47.3	-48.5	14.9	0.00e+00	0	28	0	2613051392	59	4468
2026-01-15 07:18:33.96	327.51	18.77	-47.3	-48.5	14.9	0.00e+00	0	28	0	2618294272	59	4465
2026-01-15 07:18:34.96	327.30	18.70	-47.3	-48.5	14.9	0.00e+00	0	28	0	2624585728	59	4456
2026-01-15 07:18:35.96	327.10	18.63	-47.3	-48.5	14.8	0.00e+00	0	28	0	2629828608	59	4464
2026-01-15 07:18:36.96	326.90	18.57	-47.1	-48.3	14.9	0.00e+00	0	28	0	2635071488	59	4360
2026-01-15 07:18:37.96	326.70	18.50	-47.1	-48.2	14.9	0.00e+00	0	28	0	2641362944	59	4306
2026-01-15 07:18:38.95	326.51	18.43	-47.2	-48.3	14.9	0.00e+00	0	28	0	2646605824	59	4367
2026-01-15 07:18:39.95	326.31	18.36	-47.2	-48.4	14.9	0.00e+00	0	28	0	2651848704	59	4395
2026-01-15 07:18:40.96	326.11	18.29	-47.3	-48.4	14.9	0.00e+00	0	28	0	2658140160	59	4425
2026-01-15 07:18:41.96	325.92	18.23	-47.2	-48.4	14.9	0.00e+00	0	28	0	2663383040	59	4410
2026-01-15 07:18:42.97	325.72	18.16	-47.2	-48.4	14.9	0.00e+00	0	28	0	2669674496	59	4422
2026-01-15 07:18:43.96	325.53	18.09	-47.3	-48.5	14.8	0.00e+00	0	28	0	2674917376	59	4454
2026-01-15 07:18:44.97	325.33	18.02	-47.1	-48.3	14.9	0.00e+00	0	28	0	2680160256	59	4341
2026-01-15 07:18:45.97	325.14	17.95	-47.2	-48.3	14.9	0.00e+00	0	28	0	2686451712	59	4369
2026-01-15 07:18:46.97	324.95	17.88	-47.2	-48.4	14.9	0.00e+00	0	28	0	2691694592	59	4399
2026-01-15 07:18:47.97	324.76	17.81	-47.3	-48.5	14.8	0.00e+00	0	28	0	2696937472	59	4472
2026-01-15 07:18:48.97	324.57	17.74	-47.0	-48.2	15.0	0.00e+00	0	28	0	2703228928	60	4056
2026-01-15 07:18:49.98	324.38	17.67	-47.0	-48.2	15.0	0.00e+00	0	28	0	2708471808	60	4059
2026-01-15 07:18:50.98	324.19	17.60	-47.1	-48.2	15.0	0.00e+00	0	28	0	2714763264	60	4077
2026-01-15 07:18:51.99	324.01	17.53	-47.0	-48.1	15.0	0.00e+00	0	28	0	2720006144	60	4019
2026-01-15 07:18:52.98	323.82	17.46	-46.9	-48.0	15.1	0.00e+00	0	28	0	2725249024	60	3975
2026-01-15 07:18:53.99	323.64	17.39	-46.9	-48.0	15.1	0.00e+00	0	28	0	2731540480	60	3962
2026-01-15 07:18:54.98	323.45	17.32	-46.9	-48.0	15.1	0.00e+00	0	28	0	2736783360	60	3964
2026-01-15 07:18:55.98	323.27	17.25	-46.8	-47.9	15.1	0.00e+00	0	28	0	2743074816	60	3938
2026-01-15 07:18:56.99	323.09	17.18	-46.9	-48.0	15.1	0.00e+00	0	28	0	2748317696	60	3975
2026-01-15 07:18:57.98	322.91	17.11	-46.9	-48.0	15.1	0.00e+00	0	28	0	2753560576	60	3973
2026-01-15 07:18:58.99	322.72	17.04	-46.8	-47.9	15.1	0.00e+00	0	28	0	2759852032	60	3956
2026-01-15 07:18:59.99	322.55	16.97	-46.9	-48.0	15.1	0.00e+00	0	28	0	2765094912	60	3988
2026-01-15 07:19:00.99	322.37	16.90	-46.9	-48.0	15.1	0.00e+00	0	28	0	2770337792	60	4001
2026-01-15 07:19:01.99	322.19	16.83	-46.9	-48.0	15.1	0.00e+00	0	28	0	2776629248	60	3994
2026-01-15 07:19:02.99	322.01	16.76	-46.9	-48.0	15.0	0.00e+00	0	28	0	2781872128	60	4004
2026-01-15 07:19:03.98	321.84	16.69	-47.0	-48.1	15.0	0.00e+00	0	28	0	2787115008	60	4030
2026-01-15 07:19:04.99	321.66	16.62	-47.0	-48.1	15.0	0.00e+00	0	28	0	2793406464	60	4047
2026-01-15 07:19:05.99	321.49	16.55	-47.0	-48.1	15.0	0.00e+00	0	28	0	2798649344	60	4043
2026-01-15 07:19:06.99	321.31	16.48	-47.0	-48.1	15.0	0.00e+00	0	28	0	2804940800	60	4040
2026-01-15 07:19:07.99	321.14	16.41	-47.2	-48.3	14.9	0.00e+00	0	28	0	2810183680	60	4134
2026-01-15 07:19:08.99	320.97	16.34	-47.2	-48.3	15.0	0.00e+00	0	28	0	2815426560	60	4125
2026-01-15 07:19:09.99	320.80	16.26	-47.3	-48.4	14.9	0.00e+00	0	28	0	2821718016	60	4176
2026-01-15 07:19:11.00	320.62	16.19	-47.4	-48.5	14.9	0.00e+00	0	28	0	2826960896	60	4239
2026-01-15 07:19:12.00	320.45	16.12	-47.3	-48.5	14.9	0.00e+00	0	28	0	2832203776	60	4216
2026-01-15 07:19:13.01	320.28	16.05	-47.5	-48.6	14.8	0.00e+00	0	28	0	2838495232	60	4285
2026-01-15 07:19:14.01	320.12	15.98	-47.5	-48.6	14.8	0.00e+00	0	28	0	2843738112	60	4269
2026-01-15 07:19:15.00	319.95	15.91	-47.5	-48.6	14.8	0.00e+00	0	28	0	2848980992	60	4280
2026-01-15 07:19:16.00	319.78	15.84	-47.5	-48.7	14.8	0.00e+00	0	28	0	2855272448	60	4322
2026-01-15 07:19:16.99	319.62	15.76	-47.5	-48.6	14.8	0.00e+00	0	28	0	2860515328	60	4279
2026-01-15 07:19:17.99	319.45	15.69	-47.5	-48.6	14.8	0.00e+00	0	28	0	2866806784	60	4287
2026-01-15 07:19:19.00	319.29	15.62	-47.5	-48.6	14.8	0.00e+00	0	28	0	2872049664	60	4286
2026-01-15 07:19:20.00	319.13	15.55	-47.5	-48.7	14.8	0.00e+00	0	28	0	2877292544	60	4326
2026-01-15 07:19:21.01	318.96	15.48	-47.5	-48.7	14.8	0.00e+00	0	28	0	2883584000	60	4319
2026-01-15 07:19:22.01	318.80	15.41	-47.4	-48.6	14.9	0.00e+00	0	28	0	2888826880	60	4258
2026-01-15 07:19:23.01	318.64	15.33	-47.4	-48.6	14.8	0.00e+00	0	28	0	2894069760	60	4264
2026-01-15 07:19:24.00	318.48	15.26	-47.4	-48.6	14.8	0.00e+00	0	28	0	2900361216	60	4265
2026-01-15 07:19:25.00	318.32	15.19	-47.4	-48.5	14.9	0.00e+00	0	28	0	2905604096	60	4224
2026-01-15 07:19:25.99	318.17	15.12	-47.4	-48.5	14.9	0.00e+00	0	28	0	2910846976	60	4214
2026-01-15 07:19:26.98	318.01	15.05	-47.5	-48.7	14.8	0.00e+00	0	28	0	2917138432	60	4296
2026-01-15 07:19:27.98	317.85	14.98	-47.7	-48.8	14.8	0.00e+00	0	28	0	2922381312	60	4382
2026-01-15 07:19:28.98	317.70	14.91	-47.7	-48.9	14.8	0.00e+00	0	28	0	2927624192	60	4403
2026-01-15 07:19:29.98	317.54	14.83	-47.6	-48.8	14.8	0.00e+00	0	28	0	2933915648	60	4370
2026-01-15 07:19:30.97	317.39	14.76	-47.7	-48.9	14.8	0.00e+00	0	28	0	2939158528	60	4394
2026-01-15 07:19:31.96	317.24	14.69	-47.6	-48.8	14.8	0.00e+00	0	28	0	2944401408	60	4368
2026-01-15 07:19:32.96	317.08	14.62	-47.8	-48.9	14.7	0.00e+00	0	28	0	2950692864	60	4437
2026-01-15 07:19:33.95	316.93	14.55	-47.7	-48.9	14.8	0.00e+00	0	28	0	2955935744	60	4408
2026-01-15 07:19:34.95	316.78	14.48	-47.8	-49.0	14.7	0.00e+00	0	28	0	2961178624	60	4455
2026-01-15 07:19:35.96	316.63	14.41	-47.8	-49.0	14.7	0.00e+00	0	28	0	2967470080	60	4491
2026-01-15 07:19:36.95	316.48	14.33	-47.7	-48.9	14.7	0.00e+00	0	28	0	2972712960	60	4427
2026-01-15 07:19:37.95	316.33	14.26	-47.8	-49.0	14.7	0.00e+00	0	28	0	2979004416	60	4451
2026-01-15 07:19:38.95	316.18	14.19	-47.8	-49.0	14.7	0.00e+00	0	28	0	2984247296	60	4447
2026-01-15 07:19:39.94	316.03	14.12	-47.8	-49.0	14.7	0.00e+00	0	28	0	2989490176	60	4483
2026-01-15 07:19:40.94	315.89	14.05	-47.8	-49.0	14.7	0.00e+00	0	28	0	2995781632	60	4445
2026-01-15 07:19:41.93	315.74	13.98	-47.8	-49.0	14.7	0.00e+00	0	28	0	3001024512	60	4456
2026-01-15 07:19:42.93	315.60	13.91	-47.9	-49.1	14.7	0.00e+00	0	28	0	3006267392	60	4508
2026-01-15 07:19:43.92	315.45	13.84	-48.0	-49.2	14.7	0.00e+00	0	28	0	3011510272	61	4315
2026-01-15 07:19:44.92	315.31	13.76	-47.9	-49.1	14.8	0.00e+00	0	28	0	3017801728	61	4254
2026-01-15 07:19:45.92	315.16	13.69	-48.0	-49.2	14.7	0.00e+00	0	28	0	3023044608	61	4302
2026-01-15 07:19:46.91	315.02	13.62	-48.0	-49.2	14.8	0.00e+00	0	28	0	3029336064	61	4304
2026-01-15 07:19:47.91	314.88	13.55	-48.0	-49.2	14.7	0.00e+00	0	28	0	3034578944	61	4333
2026-01-15 07:19:48.90	314.74	13.48	-48.1	-49.3	14.7	0.00e+00	0	28	0	3039821824	61	4352
2026-01-15 07:19:49.90	314.60	13.41	-48.0	-49.2	14.8	0.00e+00	0	28	0	3046113280	61	4299
2026-01-15 07:19:50.89	314.46	13.34	-48.0	-49.2	14.7	0.00e+00	0	28	0	3051356160	61	4340
2026-01-15 07:19:51.89	314.32	13.27	-48.1	-49.3	14.7	0.00e+00	0	28	0	3056599040	61	4386
2026-01-15 07:19:52.89	314.18	13.20	-48.1	-49.4	14.7	0.00e+00	0	28	0	3062890496	61	4396
2026-01-15 07:19:53.89	314.04	13.12	-48.3	-49.5	14.6	0.00e+00	0	28	0	3068133376	61	4476
2026-01-15 07:19:54.89	313.91	13.05	-48.3	-49.5	14.6	0.00e+00	0	28	0	3073376256	61	4491
2026-01-15 07:19:55.89	313.77	12.98	-48.3	-49.6	14.6	0.00e+00	0	28	0	3079667712	61	4511
2026-01-15 07:19:56.88	313.64	12.91	-48.3	-49.5	14.6	0.00e+00	0	28	0	3084910592	61	4478
2026-01-15 07:19:57.89	313.50	12.84	-48.2	-49.5	14.6	0.00e+00	0	28	0	3091202048	61	4456
2026-01-15 07:19:58.89	313.36	12.77	-48.3	-49.5	14.6	0.00e+00	0	28	0	3096444928	61	4466
2026-01-15 07:19:59.90	313.23	12.70	-48.1	-49.3	14.7	0.00e+00	0	28	0	3101687808	61	4388
2026-01-15 07:20:00.91	313.09	12.63	-48.1	-49.3	14.7	0.00e+00	0	28	0	3107979264	61	4376
2026-01-15 07:20:01.91	312.96	12.56	-48.1	-49.3	14.7	0.00e+00	0	28	0	3113222144	61	4378
2026-01-15 07:20:02.92	312.83	12.48	-48.3	-49.5	14.6	0.00e+00	0	28	0	3118465024	61	4463
2026-01-15 07:20:03.92	312.70	12.41	-48.3	-49.5	14.6	0.00e+00	0	28	0	3124756480	61	4489
2026-01-15 07:20:04.92	312.56	12.34	-48.4	-49.6	14.6	0.00e+00	0	28	0	3129999360	61	4536
2026-01-15 07:20:05.93	312.43	12.27	-48.5	-49.8	14.6	0.00e+00	0	28	0	3135242240	62	4344
2026-01-15 07:20:06.93	312.30	12.20	-48.4	-49.6	14.7	0.00e+00	0	28	0	3141533696	62	4273
2026-01-15 07:20:07.93	312.17	12.13	-48.4	-49.7	14.7	0.00e+00	0	28	0	3146776576	62	4312
2026-01-15 07:20:08.92	312.05	12.06	-48.5	-49.7	14.6	0.00e+00	0	28	0	3153068032	62	4336
2026-01-15 07:20:09.92	311.92	11.99	-48.4	-49.7	14.7	0.00e+00	0	28	0	3158310912	62	4296
2026-01-15 07:20:10.92	311.79	11.92	-48.4	-49.6	14.7	0.00e+00	0	28	0	3163553792	62	4272
2026-01-15 07:20:11.91	311.67	11.85	-48.6	-49.8	14.6	0.00e+00	0	28	0	3169845248	62	4370
2026-01-15 07:20:12.90	311.54	11.78	-48.6	-49.9	14.6	0.00e+00	0	28	0	3175088128	62	4411
2026-01-15 07:20:13.91	311.42	11.71	-48.7	-50.0	14.6	0.00e+00	0	28	0	3180331008	62	4452
2026-01-15 07:20:14.90	311.29	11.64	-48.8	-50.1	14.5	0.00e+00	0	28	0	3186622464	62	4497
2026-01-15 07:20:15.89	311.17	11.57	-48.8	-50.0	14.5	0.00e+00	0	28	0	3191865344	62	4488
2026-01-15 07:20:16.89	311.05	11.50	-48.6	-49.9	14.6	0.00e+00	0	28	0	3197108224	62	4400
2026-01-15 07:20:17.89	310.92	11.43	-48.6	-49.8	14.6	0.00e+00	0	28	0	3203399680	62	4384
2026-01-15 07:20:18.88	310.80	11.36	-48.6	-49.8	14.6	0.00e+00	0	28	0	3208642560	62	4369
2026-01-15 07:20:19.88	310.68	11.29	-48.7	-50.0	14.5	0.00e+00	0	28	0	3213885440	62	4448
2026-01-15 07:20:20.87	310.56	11.22	-48.5	-49.8	14.6	0.00e+00	0	28	0	3220176896	62	4344
2026-01-15 07:20:21.88	310.44	11.15	-48.7	-50.0	14.5	0.00e+00	0	28	0	3225419776	62	4462
2026-01-15 07:20:22.87	310.32	11.08	-48.7	-50.0	14.5	0.00e+00	0	28	0	3230662656	62	4468
2026-01-15 07:20:23.87	310.20	11.01	-48.8	-50.1	14.5	0.00e+00	0	28	0	3236954112	62	4505
2026-01-15 07:20:24.87	310.08	10.95	-48.8	-50.1	14.5	0.00e+00	0	28	0	3242196992	62	4521
2026-01-15 07:20:25.87	309.97	10.88	-48.9	-50.3	14.5	0.00e+00	0	28	0	3247439872	63	4342
2026-01-15 07:20:26.87	309.85	10.81	-49.0	-50.3	14.5	0.00e+00	0	28	0	3253731328	63	4350
2026-01-15 07:20:27.88	309.73	10.74	-49.1	-50.4	14.5	0.00e+00	0	28	0	3258974208	63	4423
2026-01-15 07:20:28.87	309.61	10.67	-49.1	-50.4	14.5	0.00e+00	0	28	0	3265265664	63	4400
2026-01-15 07:20:29.87	309.50	10.60	-49.0	-50.3	14.5	0.00e+00	0	28	0	3270508544	63	4388
2026-01-15 07:20:30.87	309.38	10.53	-49.2	-50.5	14.4	0.00e+00	0	28	0	3275751424	63	4457
2026-01-15 07:20:31.87	309.27	10.46	-49.1	-50.4	14.5	0.00e+00	0	28	0	3282042880	63	4400
2026-01-15 07:20:32.88	309.15	10.39	-49.1	-50.4	14.5	0.00e+00	0	28	0	3287285760	63	4413
2026-01-15 07:20:33.87	309.04	10.32	-49.1	-50.4	14.5	0.00e+00	0	28	0	3292528640	63	4425
2026-01-15 07:20:34.88	308.93	10.26	-49.2	-50.5	14.4	0.00e+00	0	28	0	3298820096	63	4464
2026-01-15 07:20:35.88	308.81	10.19	-49.2	-50.5	14.4	0.00e+00	0	28	0	3304062976	63	4457
2026-01-15 07:20:36.89	308.70	10.12	-49.1	-50.4	14.5	0.00e+00	0	28	0	3310354432	63	4430
2026-01-15 07:20:37.89	308.59	10.05	-49.2	-50.5	14.4	0.00e+00	0	28	0	3315597312	63	4472
2026-01-15 07:20:38.89	308.48	9.98	-49.0	-50.3	14.5	0.00e+00	0	28	0	3320840192	63	4391
2026-01-15 07:20:39.90	308.37	9.91	-49.2	-50.5	14.4	0.00e+00	0	28	0	3327131648	63	4477
2026-01-15 07:20:40.89	308.26	9.85	-49.0	-50.3	14.5	0.00e+00	0	28	0	3332374528	63	4375
2026-01-15 07:20:41.89	308.15	9.78	-49.0	-50.3	14.5	0.00e+00	0	28	0	3338665984	63	4353
2026-01-15 07:20:42.90	308.04	9.71	-49.0	-50.3	14.5	0.00e+00	0	28	0	3343908864	63	4358
2026-01-15 07:20:43.90	307.93	9.64	-49.1	-50.4	14.5	0.00e+00	0	28	0	3349151744	63	4401
2026-01-15 07:20:44.91	307.82	9.57	-49.1	-50.4	14.4	0.00e+00	0	28	0	3355443200	63	4413
2026-01-15 07:20:45.91	307.72	9.50	-49.0	-50.3	14.5	0.00e+00	0	28	0	3360686080	63	4375
2026-01-15 07:20:46.92	307.61	9.44	-49.2	-50.5	14.4	0.00e+00	0	28	0	3365928960	63	4482
2026-01-15 07:20:47.92	307.50	9.37	-49.1	-50.4	14.4	0.00e+00	0	28	0	3372220416	63	4425
2026-01-15 07:20:48.93	307.39	9.30	-49.2	-50.5	14.4	0.00e+00	0	28	0	3377463296	63	4491
2026-01-15 07:20:49.93	307.29	9.23	-49.3	-50.6	14.4	0.00e+00	0	28	0	3383754752	63	4542
2026-01-15 07:20:50.94	307.18	9.17	-49.4	-50.7	14.3	0.00e+00	0	28	0	3388997632	63	4593
2026-01-15 07:20:51.94	307.08	9.10	-49.5	-50.8	14.4	0.00e+00	0	28	0	3394240512	64	4387
2026-01-15 07:20:52.95	306.97	9.03	-49.3	-50.6	14.5	0.00e+00	0	28	0	3400531968	64	4290
2026-01-15 07:20:53.95	306.87	8.96	-49.5	-50.9	14.3	0.00e+00	0	28	0	3405774848	64	4398
2026-01-15 07:20:54.96	306.77	8.90	-49.3	-50.7	14.4	0.00e+00	0	28	0	3412066304	64	4306
2026-01-15 07:20:55.95	306.67	8.83	-49.5	-50.8	14.3	0.00e+00	0	28	0	3417309184	64	4386
2026-01-15 07:20:56.96	306.56	8.76	-49.3	-50.7	14.4	0.00e+00	0	28	0	3422552064	64	4299
2026-01-15 07:20:57.97	306.46	8.70	-49.3	-50.6	14.4	0.00e+00	0	28	0	3428843520	64	4288
2026-01-15 07:20:58.97	306.36	8.63	-49.3	-50.7	14.4	0.00e+00	0	28	0	3434086400	64	4314
2026-01-15 07:20:59.97	306.26	8.56	-49.5	-50.9	14.3	0.00e+00	0	28	0	3439329280	64	4393
2026-01-15 07:21:00.98	306.16	8.50	-49.4	-50.7	14.4	0.00e+00	0	28	0	3445620736	64	4320
2026-01-15 07:21:01.98	306.06	8.43	-49.3	-50.7	14.4	0.00e+00	0	28	0	3450863616	64	4301
2026-01-15 07:21:02.99	305.96	8.36	-49.5	-50.9	14.3	0.00e+00	0	28	0	3457155072	64	4404
2026-01-15 07:21:03.99	305.86	8.30	-49.6	-51.0	14.3	0.00e+00	0	28	0	3462397952	64	4472
2026-01-15 07:21:05.00	305.76	8.23	-49.6	-51.0	14.3	0.00e+00	0	28	0	3468689408	64	4459
2026-01-15 07:21:06.01	305.66	8.16	-49.6	-51.0	14.3	0.00e+00	0	28	0	3473932288	64	4442
2026-01-15 07:21:07.02	305.57	8.10	-49.8	-51.2	14.2	0.00e+00	0	28	0	3479175168	64	4562
2026-01-15 07:21:08.02	305.47	8.03	-49.7	-51.1	14.2	0.00e+00	0	28	0	3485466624	64	4515
2026-01-15 07:21:09.02	305.37	7.97	-49.9	-51.3	14.1	0.00e+00	0	28	0	3490709504	64	4616
2026-01-15 07:21:10.03	305.28	7.90	-49.6	-51.0	14.3	0.00e+00	0	28	0	3497000960	64	4474
2026-01-15 07:21:11.04	305.18	7.83	-49.9	-51.3	14.1	0.00e+00	0	28	0	3502243840	64	4641
2026-01-15 07:21:12.04	305.09	7.77	-49.7	-51.1	14.2	0.00e+00	0	28	0	3507486720	64	4517
2026-01-15 07:21:13.04	304.99	7.70	-49.7	-51.1	14.2	0.00e+00	0	28	0	3513778176	64	4514
2026-01-15 07:21:14.05	304.90	7.64	-49.6	-51.0	14.2	0.00e+00	0	28	0	3519021056	64	4468
2026-01-15 07:21:15.05	304.80	7.57	-49.8	-51.2	14.2	0.00e+00	0	28	0	3524263936	64	4568
2026-01-15 07:21:16.06	304.71	7.51	-49.8	-51.2	14.2	0.00e+00	0	28	0	3530555392	64	4557
2026-01-15 07:21:17.06	304.62	7.44	-49.8	-51.2	14.2	0.00e+00	0	28	0	3535798272	64	4576
2026-01-15 07:21:18.06	304.52	7.38	-49.6	-51.0	14.3	0.00e+00	0	28	0	3542089728	64	4464
2026-01-15 07:21:19.07	304.43	7.31	-49.8	-51.3	14.2	0.00e+00	0	28	0	3547332608	65	4352
2026-01-15 07:21:20.08	304.34	7.25	-49.9	-51.4	14.2	0.00e+00	0	28	0	3552575488	65	4421
2026-01-15 07:21:21.08	304.25	7.18	-49.9	-51.4	14.2	0.00e+00	0	28	0	3558866944	65	4409
2026-01-15 07:21:22.09	304.16	7.12	-49.7	-51.2	14.3	0.00e+00	0	28	0	3564109824	65	4301
2026-01-15 07:21:23.09	304.07	7.05	-49.8	-51.2	14.2	0.00e+00	0	28	0	3570401280	65	4330
2026-01-15 07:21:24.08	303.98	6.99	-49.9	-51.4	14.1	0.00e+00	0	28	0	3575644160	65	4411
2026-01-15 07:21:25.08	303.89	6.92	-50.0	-51.5	14.1	0.00e+00	0	28	0	3580887040	65	4451
2026-01-15 07:21:26.09	303.80	6.86	-50.0	-51.5	14.1	0.00e+00	0	28	0	3587178496	65	4462
2026-01-15 07:21:27.10	303.71	6.80	-49.7	-51.1	14.3	0.00e+00	0	28	0	3592421376	65	4280
2026-01-15 07:21:28.10	303.62	6.73	-49.9	-51.4	14.1	0.00e+00	0	28	0	3597664256	65	4411
2026-01-15 07:21:29.11	303.53	6.67	-49.9	-51.4	14.1	0.00e+00	0	28	0	3603955712	65	4402
2026-01-15 07:21:30.12	303.44	6.60	-49.9	-51.4	14.2	0.00e+00	0	28	0	3609198592	65	4407
2026-01-15 07:21:31.12	303.36	6.54	-49.9	-51.3	14.2	0.00e+00	0	28	0	3615490048	65	4390
