passes_logs/2025/01/27/LEX_Murmansk/LEX_Murmansk__20250127_183403_NOAA_18_rec.log

#Pass ID: 20250127_183403_NOAA 18
#Satellite: NOAA 18
#Configuration: NOAA 18
#Start time: 2025-01-27 18:33:58.737996

#LorettStation: 1.0.0 05.05.2024
#Station: LEX_Murmansk
#Location: 33.156738 lon 68.926811 lat
#TLE: 1 28654U 05018A   25027.12567402  .00000414  00000+0  24299-3 0  9999
#TLE: 2 28654  98.8547 108.0587 0014840 145.8119 214.4012 14.13498347 14893

#Time	Az	El	Level	SNR
2025-01-27 18:34:10.916665	142.4	16.3	-90.9	4.7
2025-01-27 18:34:12.036858	142.4	16.4	-90.9	5.1
2025-01-27 18:34:13.157435	142.4	16.6	-90.8	5.8
2025-01-27 18:34:14.279006	142.4	16.7	-90.4	5.6
2025-01-27 18:34:15.399473	142.4	16.8	-90.8	8.4
2025-01-27 18:34:16.520874	142.3	16.9	-90.9	6.1
2025-01-27 18:34:17.643054	142.3	17.1	-90.9	5.9
2025-01-27 18:34:18.763503	142.3	17.2	-91.3	6.4
2025-01-27 18:34:19.889846	142.3	17.3	-90.9	5.7
2025-01-27 18:34:21.012306	142.3	17.5	-91.1	5.4
2025-01-27 18:34:22.188526	142.2	17.6	-90.5	7.0
2025-01-27 18:34:23.345425	142.2	17.7	-91.1	6.5
2025-01-27 18:34:24.515765	142.2	17.9	-90.3	3.8
2025-01-27 18:34:25.671505	142.2	18.0	-90.8	7.4
2025-01-27 18:34:26.835769	142.1	18.1	-90.9	3.8
2025-01-27 18:34:28.014052	142.1	18.3	-90.7	6.1
2025-01-27 18:34:29.176895	142.1	18.4	-90.6	8.8
2025-01-27 18:34:30.340224	142.1	18.6	-91.2	11.3
2025-01-27 18:34:31.506443	142.0	18.7	-91.0	11.4
2025-01-27 18:34:32.671181	142.0	18.8	-91.1	9.0
2025-01-27 18:34:33.827133	142.0	19.0	-90.9	10.0
2025-01-27 18:34:34.991339	142.0	19.1	-90.3	14.4
2025-01-27 18:34:36.160638	141.9	19.3	-90.8	9.4
2025-01-27 18:34:37.322042	141.9	19.4	-91.0	11.9
2025-01-27 18:34:38.490504	141.9	19.6	-91.3	14.9
2025-01-27 18:34:39.651412	141.9	19.7	-90.9	12.0
2025-01-27 18:34:40.816147	141.8	19.9	-90.9	7.9
2025-01-27 18:34:41.979333	141.8	20.0	-90.7	5.5
2025-01-27 18:34:43.143028	141.8	20.2	-90.7	10.9
2025-01-27 18:34:44.312568	141.7	20.3	-91.1	9.8
2025-01-27 18:34:45.473580	141.7	20.5	-91.4	8.8
2025-01-27 18:34:46.642030	141.7	20.6	-91.4	13.0
2025-01-27 18:34:47.805520	141.7	20.8	-91.2	14.3
2025-01-27 18:34:48.949118	141.6	20.9	-91.0	8.9
2025-01-27 18:34:50.102981	141.6	21.1	-91.1	12.3
2025-01-27 18:34:51.254576	141.6	21.2	-90.5	13.6
2025-01-27 18:34:52.415965	141.5	21.4	-90.7	9.4
2025-01-27 18:34:53.579147	141.5	21.6	-90.6	15.4
2025-01-27 18:34:54.761671	141.5	21.7	-90.4	13.0
2025-01-27 18:34:55.925719	141.4	21.9	-91.0	9.0
2025-01-27 18:34:57.084095	141.4	22.0	-90.6	10.8
2025-01-27 18:34:58.245168	141.4	22.2	-90.8	14.4
2025-01-27 18:34:59.419640	141.3	22.4	-90.9	9.5
2025-01-27 18:35:00.572513	141.3	22.5	-91.0	11.3
2025-01-27 18:35:01.737327	141.3	22.7	-91.2	11.9
2025-01-27 18:35:02.905031	141.2	22.9	-90.8	11.8
2025-01-27 18:35:04.057182	141.2	23.0	-90.2	9.8
2025-01-27 18:35:05.227944	141.2	23.2	-90.4	14.3
2025-01-27 18:35:06.396848	141.1	23.4	-91.2	9.9
2025-01-27 18:35:07.560455	141.1	23.5	-90.6	14.1
2025-01-27 18:35:08.721601	141.1	23.7	-90.9	13.5
2025-01-27 18:35:09.883065	141.0	23.9	-91.1	11.3
2025-01-27 18:35:11.042657	141.0	24.0	-90.9	14.0
2025-01-27 18:35:12.206996	141.0	24.2	-91.0	14.0
2025-01-27 18:35:13.363276	140.9	24.4	-90.5	9.6
2025-01-27 18:35:14.530692	140.9	24.6	-90.3	11.3
2025-01-27 18:35:15.691060	140.8	24.8	-90.2	15.0
2025-01-27 18:35:16.855293	140.8	24.9	-90.5	16.2
2025-01-27 18:35:18.019007	140.8	25.1	-90.3	12.4
2025-01-27 18:35:19.183938	140.7	25.3	-90.3	13.2
2025-01-27 18:35:20.346849	140.7	25.5	-90.3	10.2
2025-01-27 18:35:21.504999	140.6	25.7	-90.2	14.1
2025-01-27 18:35:22.673804	140.6	25.9	-90.4	11.9
2025-01-27 18:35:23.830041	140.6	26.0	-90.3	15.9
2025-01-27 18:35:24.994298	140.5	26.2	-90.1	14.9
2025-01-27 18:35:26.158290	140.5	26.4	-90.7	13.8
2025-01-27 18:35:27.330138	140.4	26.6	-91.1	12.5
2025-01-27 18:35:28.500869	140.4	26.8	-90.8	11.5
2025-01-27 18:35:29.663545	140.3	27.0	-91.1	13.6
2025-01-27 18:35:30.829876	140.3	27.2	-90.8	11.3
2025-01-27 18:35:31.993026	140.2	27.4	-90.2	10.5
2025-01-27 18:35:33.148034	140.2	27.6	-90.4	13.0
2025-01-27 18:35:34.303048	140.1	27.8	-90.8	11.1
2025-01-27 18:35:35.464893	140.1	28.0	-90.9	11.3
2025-01-27 18:35:36.631867	140.0	28.2	-90.6	8.4
2025-01-27 18:35:37.793011	140.0	28.4	-90.8	11.2
2025-01-27 18:35:38.958399	139.9	28.6	-91.3	7.3
2025-01-27 18:35:40.118746	139.9	28.8	-91.0	9.4
2025-01-27 18:35:41.284393	139.8	29.0	-91.1	7.2
2025-01-27 18:35:42.448747	139.8	29.2	-91.3	8.0
2025-01-27 18:35:43.605962	139.7	29.4	-90.8	10.8
2025-01-27 18:35:44.771958	139.7	29.6	-91.0	10.5
2025-01-27 18:35:45.936921	139.6	29.9	-90.7	10.7
2025-01-27 18:35:47.101814	139.6	30.1	-90.5	14.0
2025-01-27 18:35:48.266411	139.5	30.3	-90.9	9.5
2025-01-27 18:35:49.428747	139.5	30.5	-90.7	9.6
2025-01-27 18:35:50.592098	139.4	30.7	-90.8	9.2
2025-01-27 18:35:51.757409	139.3	30.9	-90.4	10.7
2025-01-27 18:35:52.922877	139.3	31.2	-90.8	11.4
2025-01-27 18:35:54.084460	139.2	31.4	-90.5	10.2
2025-01-27 18:35:55.245774	139.2	31.6	-90.9	7.9
2025-01-27 18:35:56.402386	139.1	31.9	-91.0	8.5
2025-01-27 18:35:57.569197	139.0	32.1	-90.9	6.9
2025-01-27 18:35:58.729803	139.0	32.3	-91.1	13.1
2025-01-27 18:35:59.910897	138.9	32.6	-91.1	12.0
2025-01-27 18:36:01.059258	138.8	32.8	-91.1	10.9
2025-01-27 18:36:02.205003	138.8	33.0	-90.9	12.4
2025-01-27 18:36:03.326918	138.7	33.3	-91.0	11.6
2025-01-27 18:36:04.446872	138.6	33.5	-90.7	7.1
2025-01-27 18:36:05.566888	138.6	33.7	-90.8	8.4
2025-01-27 18:36:06.688402	138.5	34.0	-91.1	10.1
2025-01-27 18:36:07.809086	138.4	34.2	-91.0	12.2
2025-01-27 18:36:08.930441	138.4	34.4	-91.0	11.9
2025-01-27 18:36:10.052292	138.3	34.7	-90.8	10.7
2025-01-27 18:36:11.177487	138.2	34.9	-90.7	14.7
2025-01-27 18:36:12.298509	138.1	35.2	-91.1	14.9
2025-01-27 18:36:13.463543	138.1	35.4	-91.0	14.0
2025-01-27 18:36:14.618326	138.0	35.7	-91.2	17.4
2025-01-27 18:36:15.780380	137.9	35.9	-91.2	16.8
2025-01-27 18:36:16.932859	137.8	36.2	-90.9	17.1
2025-01-27 18:36:18.093694	137.7	36.5	-91.0	15.7
2025-01-27 18:36:19.257320	137.7	36.7	-90.8	16.8
2025-01-27 18:36:20.421551	137.6	37.0	-90.9	10.4
2025-01-27 18:36:21.584781	137.5	37.3	-91.1	13.9
2025-01-27 18:36:22.748316	137.4	37.5	-90.7	12.9
2025-01-27 18:36:23.908991	137.3	37.8	-90.6	10.3
2025-01-27 18:36:25.074261	137.2	38.1	-90.4	9.7
2025-01-27 18:36:26.235372	137.1	38.4	-90.5	13.1
2025-01-27 18:36:27.398611	137.0	38.6	-90.3	13.1
2025-01-27 18:36:28.566239	136.9	38.9	-90.6	15.0
2025-01-27 18:36:29.728154	136.8	39.2	-91.0	17.8
2025-01-27 18:36:30.886143	136.7	39.5	-91.2	14.3
2025-01-27 18:36:32.048063	136.6	39.8	-91.1	14.7
2025-01-27 18:36:33.214468	136.5	40.1	-91.1	11.0
2025-01-27 18:36:34.380624	136.4	40.4	-91.2	15.6
2025-01-27 18:36:35.543979	136.3	40.7	-91.3	14.3
2025-01-27 18:36:36.700344	136.2	41.0	-91.3	13.4
2025-01-27 18:36:37.862928	136.1	41.3	-91.2	15.1
2025-01-27 18:36:39.028559	135.9	41.6	-91.0	11.4
2025-01-27 18:36:40.194819	135.8	41.9	-91.2	12.5
2025-01-27 18:36:41.357922	135.7	42.2	-91.6	5.2
2025-01-27 18:36:42.518088	135.6	42.5	-91.0	12.6
2025-01-27 18:36:43.681236	135.5	42.8	-91.1	11.6
2025-01-27 18:36:44.848435	135.3	43.1	-90.9	14.5
2025-01-27 18:36:46.008829	135.2	43.5	-91.1	10.4
2025-01-27 18:36:47.169169	135.1	43.8	-90.9	11.0
2025-01-27 18:36:48.333028	134.9	44.1	-90.9	13.8
2025-01-27 18:36:49.494742	134.8	44.4	-90.8	9.1
2025-01-27 18:36:50.654681	134.6	44.8	-91.0	17.9
2025-01-27 18:36:51.822410	134.5	45.1	-91.2	9.0
2025-01-27 18:36:52.984623	134.4	45.4	-91.3	13.4
2025-01-27 18:36:54.148661	134.2	45.8	-91.0	17.2
2025-01-27 18:36:55.317681	134.0	46.1	-91.3	11.2
2025-01-27 18:36:56.476018	133.9	46.4	-91.5	14.8
2025-01-27 18:36:57.636234	133.7	46.8	-91.2	11.3
2025-01-27 18:36:58.797018	133.6	47.1	-91.4	8.6
2025-01-27 18:36:59.958331	133.4	47.5	-91.5	4.3
2025-01-27 18:37:01.114735	133.2	47.8	-91.3	4.6
2025-01-27 18:37:02.278139	133.0	48.2	-90.9	5.8
2025-01-27 18:37:03.442684	132.9	48.5	-91.2	6.0
2025-01-27 18:37:04.605700	132.7	48.9	-91.0	8.8
2025-01-27 18:37:05.768285	132.5	49.3	-90.9	8.0
2025-01-27 18:37:06.930178	132.3	49.6	-90.9	6.4
2025-01-27 18:37:08.097915	132.1	50.0	-91.3	6.9
2025-01-27 18:37:09.258879	131.9	50.4	-91.5	9.2
2025-01-27 18:37:10.426058	131.7	50.7	-91.4	6.7
2025-01-27 18:37:11.585979	131.4	51.1	-90.7	6.7
2025-01-27 18:37:12.745703	131.2	51.5	-90.9	14.7
2025-01-27 18:37:13.904187	131.0	51.9	-91.4	12.0
2025-01-27 18:37:15.069937	130.8	52.2	-91.2	17.0
2025-01-27 18:37:16.232181	130.5	52.6	-91.2	13.6
2025-01-27 18:37:17.397718	130.3	53.0	-91.1	19.5
2025-01-27 18:37:18.562697	130.0	53.4	-91.6	12.1
2025-01-27 18:37:19.723017	129.8	53.8	-91.4	7.5
2025-01-27 18:37:20.888606	129.5	54.2	-91.5	9.3
2025-01-27 18:37:22.048269	129.2	54.6	-90.8	11.6
2025-01-27 18:37:23.210130	128.9	55.0	-91.0	17.2
2025-01-27 18:37:24.370894	128.7	55.4	-91.3	5.9
2025-01-27 18:37:25.539101	128.4	55.8	-91.4	11.5
2025-01-27 18:37:26.701561	128.0	56.2	-91.0	20.3
2025-01-27 18:37:27.865261	127.7	56.6	-91.0	16.7
2025-01-27 18:37:29.021093	127.4	57.0	-91.2	17.4
2025-01-27 18:37:30.184572	127.1	57.4	-90.9	17.0
2025-01-27 18:37:31.339792	126.7	57.8	-91.1	11.1
2025-01-27 18:37:32.501137	126.4	58.3	-91.6	15.0
2025-01-27 18:37:33.660321	126.0	58.7	-91.3	17.4
2025-01-27 18:37:34.819510	125.6	59.1	-91.4	10.3
2025-01-27 18:37:35.979259	125.2	59.5	-91.2	9.6
2025-01-27 18:37:37.138810	124.8	59.9	-91.3	20.7
2025-01-27 18:37:38.307580	124.4	60.4	-91.0	12.6
2025-01-27 18:37:39.467923	124.0	60.8	-91.0	18.2
2025-01-27 18:37:40.627163	123.5	61.2	-90.7	15.5
2025-01-27 18:37:41.788049	123.0	61.6	-90.7	17.6
2025-01-27 18:37:42.948997	122.6	62.1	-91.0	17.1
2025-01-27 18:37:44.114907	122.1	62.5	-90.4	16.0
2025-01-27 18:37:45.286188	121.5	62.9	-90.5	15.8
2025-01-27 18:37:46.442951	121.0	63.4	-91.3	10.5
2025-01-27 18:37:47.609416	120.4	63.8	-91.0	16.8
2025-01-27 18:37:48.778804	119.9	64.2	-90.4	15.2
2025-01-27 18:37:49.941286	119.2	64.7	-90.8	9.5
2025-01-27 18:37:51.107606	118.6	65.1	-90.7	12.3
2025-01-27 18:37:52.272758	118.0	65.5	-90.8	11.7
2025-01-27 18:37:53.440016	117.3	66.0	-91.0	11.5
2025-01-27 18:37:54.600814	116.6	66.4	-91.3	17.0
2025-01-27 18:37:55.769338	115.9	66.8	-90.8	15.8
2025-01-27 18:37:56.926813	115.1	67.2	-91.3	19.0
2025-01-27 18:37:58.095231	114.3	67.7	-90.9	12.5
2025-01-27 18:37:59.256577	113.5	68.1	-90.8	11.9
2025-01-27 18:38:00.413388	112.6	68.5	-90.9	17.0
2025-01-27 18:38:01.575250	111.7	68.9	-91.1	19.1
2025-01-27 18:38:02.736961	110.8	69.3	-91.2	15.6
2025-01-27 18:38:03.905069	109.8	69.8	-91.1	14.2
2025-01-27 18:38:05.064428	108.7	70.2	-91.1	11.4
2025-01-27 18:38:06.222192	107.7	70.6	-91.0	16.9
2025-01-27 18:38:07.387084	106.6	71.0	-91.4	11.9
2025-01-27 18:38:08.548022	105.4	71.4	-91.5	16.5
2025-01-27 18:38:09.713465	104.2	71.7	-91.4	16.0
2025-01-27 18:38:10.877306	102.9	72.1	-90.8	13.4
2025-01-27 18:38:12.039506	101.5	72.5	-90.6	17.1
2025-01-27 18:38:13.203307	100.1	72.9	-91.1	18.9
2025-01-27 18:38:14.361916	98.7	73.2	-91.1	20.7
2025-01-27 18:38:15.526734	97.1	73.6	-91.1	21.8
2025-01-27 18:38:16.694878	95.5	73.9	-91.4	14.2
2025-01-27 18:38:17.857718	93.9	74.2	-91.3	16.3
2025-01-27 18:38:19.025802	92.1	74.5	-91.1	23.6
2025-01-27 18:38:20.196103	90.3	74.8	-90.9	21.8
2025-01-27 18:38:21.359817	88.4	75.1	-90.9	12.5
2025-01-27 18:38:22.525033	86.5	75.4	-91.2	12.7
2025-01-27 18:38:23.689984	84.4	75.6	-91.4	16.7
2025-01-27 18:38:24.853521	82.3	75.8	-91.1	8.5
2025-01-27 18:38:26.016753	80.2	76.1	-90.9	10.3
2025-01-27 18:38:27.186098	77.9	76.2	-91.1	17.1
2025-01-27 18:38:28.350591	75.6	76.4	-90.6	11.4
2025-01-27 18:38:29.519796	73.2	76.6	-91.2	9.4
2025-01-27 18:38:30.695322	70.8	76.7	-91.3	8.9
2025-01-27 18:38:31.865591	68.3	76.8	-91.3	8.1
2025-01-27 18:38:33.035898	65.8	76.9	-91.2	12.9
2025-01-27 18:38:34.200139	63.3	76.9	-91.4	15.0
2025-01-27 18:38:35.359506	60.8	77.0	-91.4	10.9
2025-01-27 18:38:36.524676	58.3	77.0	-91.6	14.8
2025-01-27 18:38:37.691495	55.7	77.0	-91.6	17.1
2025-01-27 18:38:38.856419	53.2	76.9	-91.2	12.5
2025-01-27 18:38:40.021214	50.7	76.8	-91.0	10.6
2025-01-27 18:38:41.182650	48.2	76.8	-91.0	19.5
2025-01-27 18:38:42.341922	45.8	76.6	-91.6	13.3
2025-01-27 18:38:43.507933	43.4	76.5	-91.5	15.0
2025-01-27 18:38:44.686694	41.1	76.3	-91.5	18.1
2025-01-27 18:38:45.852579	38.8	76.1	-91.6	20.9
2025-01-27 18:38:47.015578	36.6	75.9	-91.3	21.8
2025-01-27 18:38:48.177199	34.5	75.7	-91.1	18.4
2025-01-27 18:38:49.341280	32.4	75.5	-91.2	21.2
2025-01-27 18:38:50.499945	30.4	75.2	-91.7	22.4
2025-01-27 18:38:51.660952	28.5	75.0	-91.3	21.1
2025-01-27 18:38:52.829912	26.6	74.7	-91.5	22.3
2025-01-27 18:38:53.993997	24.9	74.4	-91.3	20.1
2025-01-27 18:38:55.157411	23.2	74.0	-91.3	18.8
2025-01-27 18:38:56.320144	21.5	73.7	-91.3	19.1
2025-01-27 18:38:57.487664	20.0	73.4	-91.6	19.8
2025-01-27 18:38:58.649117	18.5	73.0	-91.2	22.0
2025-01-27 18:38:59.810519	17.0	72.7	-91.4	21.1
2025-01-27 18:39:00.966820	15.7	72.3	-91.7	18.6
2025-01-27 18:39:02.127661	14.4	71.9	-91.5	21.4
2025-01-27 18:39:03.292877	13.1	71.6	-91.2	16.7
2025-01-27 18:39:04.453024	11.9	71.2	-91.5	21.4
2025-01-27 18:39:05.616272	10.8	70.8	-91.5	22.0
2025-01-27 18:39:06.779259	9.7	70.4	-91.5	18.4
2025-01-27 18:39:07.939312	8.6	70.0	-91.7	18.4
2025-01-27 18:39:09.106406	7.6	69.6	-90.8	17.5
2025-01-27 18:39:10.267310	6.7	69.1	-91.0	16.3
2025-01-27 18:39:11.429610	5.7	68.7	-91.0	18.5
2025-01-27 18:39:12.589371	4.9	68.3	-91.2	18.1
2025-01-27 18:39:13.754035	4.0	67.9	-91.1	18.2
2025-01-27 18:39:14.915031	3.2	67.5	-91.1	20.3
2025-01-27 18:39:16.083916	2.4	67.0	-91.4	20.4
2025-01-27 18:39:17.248970	1.7	66.6	-91.1	21.8
2025-01-27 18:39:18.415935	0.9	66.2	-91.3	18.8
2025-01-27 18:39:19.580542	0.3	65.7	-91.5	17.7
2025-01-27 18:39:20.745063	359.6	65.3	-91.1	20.5
2025-01-27 18:39:21.909988	359.0	64.9	-91.1	20.2
2025-01-27 18:39:23.073055	358.3	64.4	-91.1	18.4
2025-01-27 18:39:24.234689	357.7	64.0	-90.8	18.9
2025-01-27 18:39:25.417823	357.2	63.6	-91.2	18.1
2025-01-27 18:39:26.544556	356.6	63.1	-91.1	16.9
2025-01-27 18:39:27.669505	356.1	62.7	-91.5	18.7
2025-01-27 18:39:28.832820	355.6	62.3	-91.4	17.0
2025-01-27 18:39:29.992786	355.1	61.9	-91.0	16.6
2025-01-27 18:39:31.157814	354.6	61.4	-91.2	19.0
2025-01-27 18:39:32.317226	354.2	61.0	-91.6	14.5
2025-01-27 18:39:33.480178	353.7	60.6	-91.6	9.6
2025-01-27 18:39:34.639313	353.3	60.2	-91.5	10.9
2025-01-27 18:39:35.805294	352.9	59.7	-91.6	7.6
2025-01-27 18:39:36.970725	352.5	59.3	-91.4	7.9
2025-01-27 18:39:38.128609	352.1	58.9	-91.1	14.3
2025-01-27 18:39:39.289672	351.7	58.5	-91.2	10.1
2025-01-27 18:39:40.457665	351.4	58.1	-91.2	6.8
2025-01-27 18:39:41.619310	351.0	57.6	-91.4	10.1
2025-01-27 18:39:42.782656	350.7	57.2	-91.2	13.1
2025-01-27 18:39:43.946851	350.3	56.8	-91.4	13.8
2025-01-27 18:39:45.106857	350.0	56.4	-91.4	16.6
2025-01-27 18:39:46.270740	349.7	56.0	-91.4	15.2
2025-01-27 18:39:47.435341	349.4	55.6	-91.4	11.4
2025-01-27 18:39:48.593910	349.1	55.2	-91.4	15.5
2025-01-27 18:39:49.756814	348.8	54.8	-91.4	15.3
2025-01-27 18:39:50.919294	348.5	54.4	-91.4	10.5
2025-01-27 18:39:52.083667	348.3	54.0	-91.2	16.4
2025-01-27 18:39:53.247658	348.0	53.6	-91.2	16.6
2025-01-27 18:39:54.412828	347.8	53.2	-91.5	15.4
2025-01-27 18:39:55.569142	347.5	52.8	-91.3	16.4
2025-01-27 18:39:56.730038	347.3	52.4	-91.1	14.9
2025-01-27 18:39:57.900731	347.0	52.0	-91.8	17.5
2025-01-27 18:39:59.061075	346.8	51.7	-91.1	18.3
2025-01-27 18:40:00.217687	346.6	51.3	-91.5	19.9
2025-01-27 18:40:01.379538	346.4	50.9	-91.1	17.3
2025-01-27 18:40:02.543647	346.1	50.5	-91.0	13.6
2025-01-27 18:40:03.704288	345.9	50.2	-91.1	16.9
2025-01-27 18:40:04.864625	345.7	49.8	-91.2	11.1
2025-01-27 18:40:06.017840	345.5	49.4	-91.2	14.3
2025-01-27 18:40:07.167065	345.3	49.1	-90.9	15.8
2025-01-27 18:40:08.287942	345.2	48.7	-91.4	14.2
2025-01-27 18:40:09.408064	345.0	48.4	-91.5	11.9
2025-01-27 18:40:10.530005	344.8	48.0	-91.7	15.7
2025-01-27 18:40:11.650112	344.6	47.7	-91.7	17.7
2025-01-27 18:40:12.771075	344.5	47.4	-91.6	14.7
2025-01-27 18:40:13.891674	344.3	47.0	-91.7	12.6
2025-01-27 18:40:15.012913	344.1	46.7	-91.6	9.7
2025-01-27 18:40:16.134080	344.0	46.4	-91.2	14.6
2025-01-27 18:40:17.258987	343.8	46.0	-91.4	17.8
2025-01-27 18:40:18.403150	343.7	45.7	-90.8	11.9
2025-01-27 18:40:19.565959	343.5	45.4	-90.4	14.4
2025-01-27 18:40:20.722734	343.4	45.0	-91.4	19.4
2025-01-27 18:40:21.904356	343.2	44.7	-91.1	15.3
2025-01-27 18:40:23.058747	343.1	44.4	-91.0	19.2
2025-01-27 18:40:24.216843	343.0	44.0	-91.1	17.6
2025-01-27 18:40:25.381031	342.8	43.7	-91.2	22.2
2025-01-27 18:40:26.540839	342.7	43.4	-91.2	22.9
2025-01-27 18:40:27.708520	342.6	43.1	-91.2	20.3
2025-01-27 18:40:28.868163	342.4	42.8	-91.3	18.9
2025-01-27 18:40:30.034298	342.3	42.5	-91.1	18.3
2025-01-27 18:40:31.195466	342.2	42.1	-91.1	18.5
2025-01-27 18:40:32.359722	342.1	41.8	-91.7	13.8
2025-01-27 18:40:33.522466	342.0	41.5	-91.7	13.8
2025-01-27 18:40:34.681311	341.8	41.2	-91.5	21.6
2025-01-27 18:40:35.844286	341.7	40.9	-91.6	11.5
2025-01-27 18:40:37.006808	341.6	40.6	-91.4	13.8
2025-01-27 18:40:38.174111	341.5	40.3	-91.2	15.9
2025-01-27 18:40:39.332593	341.4	40.0	-91.3	13.9
2025-01-27 18:40:40.492914	341.3	39.7	-91.4	15.9
2025-01-27 18:40:41.654347	341.2	39.5	-91.4	17.5
2025-01-27 18:40:42.817310	341.1	39.2	-91.4	16.3
2025-01-27 18:40:43.976139	341.0	38.9	-91.2	16.1
2025-01-27 18:40:45.137210	340.9	38.6	-91.0	13.4
2025-01-27 18:40:46.294565	340.8	38.3	-91.1	12.8
2025-01-27 18:40:47.454229	340.7	38.0	-91.6	11.6
2025-01-27 18:40:48.614432	340.6	37.8	-91.5	13.7
2025-01-27 18:40:49.782235	340.5	37.5	-91.4	11.0
2025-01-27 18:40:50.943463	340.4	37.2	-91.2	7.6
2025-01-27 18:40:52.105199	340.3	36.9	-91.2	8.0
2025-01-27 18:40:53.264184	340.3	36.7	-91.3	9.6
2025-01-27 18:40:54.424476	340.2	36.4	-91.8	6.6
2025-01-27 18:40:55.584764	340.1	36.1	-91.3	10.9
2025-01-27 18:40:56.748646	340.0	35.9	-91.4	9.8
2025-01-27 18:40:57.913702	339.9	35.6	-91.5	10.0
2025-01-27 18:40:59.073446	339.8	35.4	-91.5	12.5
2025-01-27 18:41:00.226667	339.8	35.1	-91.5	11.8
2025-01-27 18:41:01.379482	339.7	34.9	-91.5	10.1
2025-01-27 18:41:02.545770	339.6	34.6	-91.8	5.8
2025-01-27 18:41:03.708100	339.5	34.4	-91.6	6.2
2025-01-27 18:41:04.872516	339.5	34.1	-91.7	10.2
2025-01-27 18:41:06.038273	339.4	33.9	-91.4	9.4
2025-01-27 18:41:07.201910	339.3	33.6	-91.3	13.4
2025-01-27 18:41:08.360977	339.3	33.4	-91.4	9.9
2025-01-27 18:41:09.517914	339.2	33.1	-91.4	7.6
2025-01-27 18:41:10.683478	339.1	32.9	-91.4	14.4
2025-01-27 18:41:11.843124	339.0	32.7	-91.3	11.0
2025-01-27 18:41:13.005570	339.0	32.4	-91.3	11.9
2025-01-27 18:41:14.168047	338.9	32.2	-91.4	15.3
2025-01-27 18:41:15.326570	338.9	32.0	-91.6	14.0
2025-01-27 18:41:16.487286	338.8	31.7	-91.5	9.5
2025-01-27 18:41:17.649596	338.7	31.5	-91.3	16.6
2025-01-27 18:41:18.808381	338.7	31.3	-91.4	10.1
2025-01-27 18:41:19.974960	338.6	31.1	-91.6	9.7
2025-01-27 18:41:21.139588	338.6	30.8	-91.4	18.4
2025-01-27 18:41:22.303324	338.5	30.6	-91.5	7.1
2025-01-27 18:41:23.465736	338.4	30.4	-91.3	8.0
2025-01-27 18:41:24.623545	338.4	30.2	-91.5	9.5
2025-01-27 18:41:25.786182	338.3	30.0	-91.3	4.4
2025-01-27 18:41:26.949206	338.3	29.7	-91.4	2.7
2025-01-27 18:41:28.110949	338.2	29.5	-91.2	12.1
2025-01-27 18:41:29.272092	338.2	29.3	-91.4	7.6
2025-01-27 18:41:30.437996	338.1	29.1	-91.8	5.5
2025-01-27 18:41:31.599444	338.1	28.9	-91.4	14.0
2025-01-27 18:41:32.758583	338.0	28.7	-90.9	13.2
2025-01-27 18:41:33.918300	338.0	28.5	-91.2	9.9
2025-01-27 18:41:35.082048	337.9	28.3	-91.3	12.3
2025-01-27 18:41:36.243103	337.9	28.1	-91.4	8.9
2025-01-27 18:41:37.400784	337.8	27.9	-91.4	5.6
2025-01-27 18:41:38.561497	337.8	27.7	-91.3	5.1
2025-01-27 18:41:39.725529	337.7	27.5	-91.5	7.8
2025-01-27 18:41:40.890061	337.7	27.3	-91.4	7.3
2025-01-27 18:41:42.053056	337.6	27.1	-91.6	6.4
2025-01-27 18:41:43.218100	337.6	26.9	-91.1	12.5
2025-01-27 18:41:44.377891	337.5	26.7	-91.3	7.3
2025-01-27 18:41:45.541761	337.5	26.5	-91.3	18.1
2025-01-27 18:41:46.703776	337.4	26.3	-91.5	6.8
2025-01-27 18:41:47.865533	337.4	26.1	-91.4	4.3
2025-01-27 18:41:49.023421	337.4	25.9	-91.3	16.0
2025-01-27 18:41:50.184465	337.3	25.8	-91.3	13.0
2025-01-27 18:41:51.350509	337.3	25.6	-91.4	7.3
2025-01-27 18:41:52.513367	337.2	25.4	-91.3	7.0
2025-01-27 18:41:53.682749	337.2	25.2	-91.1	12.3
2025-01-27 18:41:54.845154	337.2	25.0	-91.3	5.9
2025-01-27 18:41:56.015181	337.1	24.8	-91.3	4.7
2025-01-27 18:41:57.184213	337.1	24.7	-91.4	9.9
2025-01-27 18:41:58.344872	337.0	24.5	-91.1	5.8
2025-01-27 18:41:59.503599	337.0	24.3	-91.3	4.6
2025-01-27 18:42:00.666526	337.0	24.1	-91.2	6.2
2025-01-27 18:42:01.824617	336.9	24.0	-91.3	13.5
2025-01-27 18:42:02.986248	336.9	23.8	-91.5	5.0
2025-01-27 18:42:04.154031	336.9	23.6	-91.2	7.3
2025-01-27 18:42:05.309454	336.8	23.4	-91.3	4.6
2025-01-27 18:42:06.477087	336.8	23.3	-91.2	2.7
2025-01-27 18:42:07.634881	336.8	23.1	-91.0	8.3
2025-01-27 18:42:08.794159	336.7	22.9	-91.4	9.7
2025-01-27 18:42:09.957584	336.7	22.8	-91.2	4.6
2025-01-27 18:42:11.121290	336.6	22.6	-91.1	6.7
2025-01-27 18:42:12.284203	336.6	22.4	-91.1	5.0
2025-01-27 18:42:13.442448	336.6	22.3	-91.5	12.1
2025-01-27 18:42:14.603654	336.6	22.1	-91.1	3.2
2025-01-27 18:42:15.762923	336.5	21.9	-91.1	8.4
2025-01-27 18:42:16.918044	336.5	21.8	-91.4	8.3
2025-01-27 18:42:18.081791	336.5	21.6	-91.2	6.5
2025-01-27 18:42:19.249945	336.4	21.5	-91.4	6.7
2025-01-27 18:42:20.412206	336.4	21.3	-91.5	4.5
2025-01-27 18:42:21.575612	336.4	21.2	-91.1	5.2
2025-01-27 18:42:22.735014	336.3	21.0	-91.4	6.6
2025-01-27 18:42:23.896826	336.3	20.8	-91.1	6.4
2025-01-27 18:42:25.063198	336.3	20.7	-91.0	5.3
2025-01-27 18:42:26.221590	336.3	20.5	-90.8	3.8
2025-01-27 18:42:27.388882	336.2	20.4	-91.4	5.5
2025-01-27 18:42:28.550486	336.2	20.2	-91.7	4.5
2025-01-27 18:42:29.706813	336.2	20.1	-91.2	6.0
2025-01-27 18:42:30.870194	336.1	19.9	-91.1	3.4
2025-01-27 18:42:32.031035	336.1	19.8	-91.1	3.6
2025-01-27 18:42:33.196589	336.1	19.6	-90.9	4.3
2025-01-27 18:42:34.365958	336.1	19.5	-91.2	3.6
2025-01-27 18:42:35.522742	336.0	19.3	-91.4	5.9
2025-01-27 18:42:36.686907	336.0	19.2	-91.3	4.6
2025-01-27 18:42:37.849128	336.0	19.1	-91.5	2.6
2025-01-27 18:42:39.010027	336.0	18.9	-90.8	5.0
2025-01-27 18:42:40.219677	335.9	18.8	-91.1	3.4
2025-01-27 18:42:41.380558	335.9	18.6	-91.1	5.8
2025-01-27 18:42:42.542697	335.9	18.5	-91.3	9.3
2025-01-27 18:42:43.705647	335.9	18.3	-91.5	3.7
2025-01-27 18:42:44.868572	335.8	18.2	-91.2	4.8
2025-01-27 18:42:46.028888	335.8	18.1	-91.1	5.5
2025-01-27 18:42:47.192889	335.8	17.9	-90.8	4.9
2025-01-27 18:42:48.357214	335.8	17.8	-91.1	2.9
2025-01-27 18:42:49.523059	335.7	17.7	-91.6	5.1
2025-01-27 18:42:50.699203	335.7	17.5	-91.3	4.3
2025-01-27 18:42:51.854489	335.7	17.4	-90.7	2.8
2025-01-27 18:42:53.019004	335.7	17.2	-91.0	4.1
2025-01-27 18:42:54.173863	335.7	17.1	-91.0	5.3
2025-01-27 18:42:55.341014	335.6	17.0	-90.9	4.4
2025-01-27 18:42:56.499699	335.6	16.8	-90.8	4.4
2025-01-27 18:42:57.667695	335.6	16.7	-91.3	4.2
2025-01-27 18:42:58.832240	335.6	16.6	-91.6	4.6
2025-01-27 18:42:59.993960	335.5	16.5	-91.8	4.8
2025-01-27 18:43:01.150953	335.5	16.3	-91.6	5.7
2025-01-27 18:43:02.311628	335.5	16.2	-91.6	4.8
2025-01-27 18:43:03.480838	335.5	16.1	-91.5	4.0
2025-01-27 18:43:04.645723	335.5	15.9	-91.4	6.0
2025-01-27 18:43:05.805801	335.4	15.8	-91.3	7.0
2025-01-27 18:43:06.967030	335.4	15.7	-91.4	5.5
2025-01-27 18:43:08.131230	335.4	15.6	-90.9	3.8
2025-01-27 18:43:09.286675	335.4	15.4	-90.9	4.8
2025-01-27 18:43:10.450081	335.4	15.3	-91.4	4.1
2025-01-27 18:43:11.613522	335.3	15.2	-91.4	5.7
2025-01-27 18:43:12.777776	335.3	15.1	-91.4	4.8
2025-01-27 18:43:13.937815	335.3	14.9	-91.3	4.4
2025-01-27 18:43:15.116912	335.3	14.8	-91.3	4.7
2025-01-27 18:43:16.283159	335.3	14.7	-91.4	7.8
2025-01-27 18:43:17.444880	335.3	14.6	-91.3	5.2
2025-01-27 18:43:18.595526	335.2	14.5	-91.3	4.9
#Closed at: 2025-01-27 18:34:03.759048