passes_logs/2025/01/27/LEX_Murmansk/LEX_Murmansk__20250127_081141_NOAA_19_rec.log

#Pass ID: 20250127_081141_NOAA 19
#Satellite: NOAA 19
#Configuration: NOAA 19
#Start time: 2025-01-27 08:11:35.974514

#LorettStation: 1.0.0 05.05.2024
#Station: LEX_Murmansk
#Location: 33.156738 lon 68.926811 lat
#TLE: 1 33591U 09005A   25026.11929750  .00000374  00000+0  22339-3 0  9999
#TLE: 2 33591  99.0177  89.9666 0014047  27.3849 332.8061 14.13269171823112

#Time	Az	El	Level	SNR
2025-01-27 08:11:48.203416	29.1	16.3	-91.1	2.8
2025-01-27 08:11:49.360538	29.1	16.4	-91.0	1.6
2025-01-27 08:11:50.516784	29.2	16.5	-91.2	1.7
2025-01-27 08:11:51.674292	29.3	16.7	-90.6	1.9
2025-01-27 08:11:52.833896	29.3	16.8	-90.7	1.3
2025-01-27 08:11:53.987528	29.4	16.9	-90.8	1.4
2025-01-27 08:11:55.142244	29.5	17.0	-90.6	1.8
2025-01-27 08:11:56.299454	29.5	17.2	-90.8	3.9
2025-01-27 08:11:57.459609	29.6	17.3	-91.1	5.6
2025-01-27 08:11:58.616869	29.7	17.4	-91.0	5.3
2025-01-27 08:11:59.778889	29.8	17.5	-90.8	4.4
2025-01-27 08:12:00.933233	29.8	17.7	-90.9	4.4
2025-01-27 08:12:02.085910	29.9	17.8	-90.8	5.9
2025-01-27 08:12:03.252422	30.0	17.9	-90.5	4.2
2025-01-27 08:12:04.412523	30.0	18.1	-90.8	6.0
2025-01-27 08:12:05.578306	30.1	18.2	-91.2	3.1
2025-01-27 08:12:06.730437	30.2	18.3	-91.0	3.8
2025-01-27 08:12:07.889394	30.3	18.5	-90.9	3.5
2025-01-27 08:12:09.044638	30.3	18.6	-90.9	1.5
2025-01-27 08:12:10.204903	30.4	18.7	-91.3	3.3
2025-01-27 08:12:11.361840	30.5	18.9	-91.0	5.3
2025-01-27 08:12:12.519082	30.6	19.0	-91.3	9.0
2025-01-27 08:12:13.673133	30.6	19.2	-91.3	9.6
2025-01-27 08:12:14.832960	30.7	19.3	-91.2	7.7
2025-01-27 08:12:15.993705	30.8	19.4	-91.2	6.4
2025-01-27 08:12:17.159340	30.9	19.6	-90.9	5.1
2025-01-27 08:12:18.312863	31.0	19.7	-91.4	3.8
2025-01-27 08:12:19.470852	31.0	19.9	-90.7	9.0
2025-01-27 08:12:20.627425	31.1	20.0	-91.0	7.1
2025-01-27 08:12:21.783425	31.2	20.1	-91.2	5.3
2025-01-27 08:12:22.937546	31.3	20.3	-91.1	3.2
2025-01-27 08:12:24.094063	31.4	20.4	-91.1	3.5
2025-01-27 08:12:25.254525	31.5	20.6	-91.3	2.9
2025-01-27 08:12:26.418659	31.5	20.7	-91.4	6.2
2025-01-27 08:12:27.574110	31.6	20.9	-91.2	8.2
2025-01-27 08:12:28.736098	31.7	21.0	-91.2	9.6
2025-01-27 08:12:29.888312	31.8	21.2	-91.5	10.7
2025-01-27 08:12:31.051481	31.9	21.3	-91.3	9.2
2025-01-27 08:12:32.208909	32.0	21.5	-91.2	8.1
2025-01-27 08:12:33.365741	32.1	21.6	-91.2	5.8
2025-01-27 08:12:34.517595	32.2	21.8	-91.5	13.4
2025-01-27 08:12:35.676435	32.2	21.9	-91.2	13.0
2025-01-27 08:12:36.836792	32.3	22.1	-91.2	13.3
2025-01-27 08:12:37.994989	32.4	22.2	-91.2	11.0
2025-01-27 08:12:39.140547	32.5	22.4	-91.1	6.5
2025-01-27 08:12:40.309325	32.6	22.5	-91.0	3.1
2025-01-27 08:12:41.469590	32.7	22.7	-91.1	3.7
2025-01-27 08:12:42.630857	32.8	22.9	-91.3	4.4
2025-01-27 08:12:43.785930	32.9	23.0	-90.9	4.7
2025-01-27 08:12:44.937181	33.0	23.2	-91.0	10.1
2025-01-27 08:12:46.098344	33.1	23.3	-90.7	12.1
2025-01-27 08:12:47.268024	33.2	23.5	-90.8	10.1
2025-01-27 08:12:48.423100	33.3	23.7	-90.6	9.4
2025-01-27 08:12:49.577712	33.4	23.8	-90.8	6.5
2025-01-27 08:12:50.734654	33.5	24.0	-91.4	6.8
2025-01-27 08:12:51.891035	33.6	24.2	-90.9	9.7
2025-01-27 08:12:53.044140	33.7	24.3	-91.3	11.3
2025-01-27 08:12:54.210695	33.8	24.5	-91.0	8.5
2025-01-27 08:12:55.367982	33.9	24.7	-91.5	7.3
2025-01-27 08:12:56.528484	34.1	24.8	-91.3	3.2
2025-01-27 08:12:57.686969	34.2	25.0	-91.2	2.6
2025-01-27 08:12:58.839164	34.3	25.2	-91.6	0.2
2025-01-27 08:12:59.996118	34.4	25.3	-91.3	4.7
2025-01-27 08:13:01.145699	34.5	25.5	-91.6	4.4
2025-01-27 08:13:02.296080	34.6	25.7	-91.2	7.1
2025-01-27 08:13:03.453824	34.7	25.9	-91.2	7.6
2025-01-27 08:13:04.616830	34.8	26.0	-91.5	7.3
2025-01-27 08:13:05.777964	35.0	26.2	-91.5	4.3
2025-01-27 08:13:06.934752	35.1	26.4	-91.1	7.0
2025-01-27 08:13:08.096472	35.2	26.6	-91.1	4.4
2025-01-27 08:13:09.259280	35.3	26.7	-91.3	2.8
2025-01-27 08:13:10.413107	35.5	26.9	-91.5	4.3
2025-01-27 08:13:11.557318	35.6	27.1	-91.3	4.2
2025-01-27 08:13:12.711653	35.7	27.3	-91.2	3.5
2025-01-27 08:13:13.867160	35.8	27.5	-91.4	1.0
2025-01-27 08:13:15.028378	36.0	27.7	-91.3	1.6
2025-01-27 08:13:16.179790	36.1	27.8	-91.1	4.3
2025-01-27 08:13:17.336400	36.2	28.0	-91.4	2.1
2025-01-27 08:13:18.493665	36.4	28.2	-91.2	4.9
2025-01-27 08:13:19.645142	36.5	28.4	-91.0	3.3
2025-01-27 08:13:20.800485	36.6	28.6	-91.3	5.7
2025-01-27 08:13:21.956129	36.8	28.8	-91.2	3.1
2025-01-27 08:13:23.109286	36.9	29.0	-91.2	4.8
2025-01-27 08:13:24.263824	37.0	29.2	-91.3	4.5
2025-01-27 08:13:25.421399	37.2	29.4	-91.2	5.2
2025-01-27 08:13:26.576148	37.3	29.6	-91.3	8.2
2025-01-27 08:13:27.739163	37.5	29.8	-91.2	8.3
2025-01-27 08:13:28.894905	37.6	30.0	-91.0	9.7
2025-01-27 08:13:30.050963	37.8	30.2	-91.1	7.1
2025-01-27 08:13:31.217579	37.9	30.4	-91.1	5.8
2025-01-27 08:13:32.369876	38.1	30.6	-91.4	3.7
2025-01-27 08:13:33.526936	38.2	30.8	-91.4	5.1
2025-01-27 08:13:34.680176	38.4	31.0	-91.4	3.4
2025-01-27 08:13:35.835323	38.5	31.2	-91.0	5.4
2025-01-27 08:13:36.995307	38.7	31.4	-91.0	8.9
2025-01-27 08:13:38.145107	38.9	31.6	-91.1	12.7
2025-01-27 08:13:39.295865	39.0	31.8	-91.3	14.3
2025-01-27 08:13:40.454838	39.2	32.0	-91.2	11.3
2025-01-27 08:13:41.612620	39.4	32.2	-91.3	11.4
2025-01-27 08:13:42.768466	39.5	32.5	-91.5	6.6
2025-01-27 08:13:43.926383	39.7	32.7	-91.5	10.1
2025-01-27 08:13:45.081065	39.9	32.9	-90.9	13.0
2025-01-27 08:13:46.225520	40.1	33.1	-91.0	14.7
2025-01-27 08:13:47.380426	40.2	33.3	-91.2	15.9
2025-01-27 08:13:48.536641	40.4	33.5	-91.1	14.2
2025-01-27 08:13:49.688686	40.6	33.8	-91.3	6.4
2025-01-27 08:13:50.850549	40.8	34.0	-90.8	3.3
2025-01-27 08:13:52.026858	41.0	34.2	-90.8	4.0
2025-01-27 08:13:53.178816	41.2	34.4	-90.7	2.4
2025-01-27 08:13:54.334372	41.4	34.7	-90.8	4.7
2025-01-27 08:13:55.485878	41.6	34.9	-91.1	8.7
2025-01-27 08:13:56.647390	41.8	35.1	-91.1	10.9
2025-01-27 08:13:57.806741	42.0	35.3	-91.1	12.7
2025-01-27 08:13:58.966379	42.2	35.6	-90.9	13.1
2025-01-27 08:14:00.117023	42.4	35.8	-91.1	9.5
2025-01-27 08:14:01.259025	42.6	36.0	-91.0	7.3
2025-01-27 08:14:02.414937	42.8	36.3	-91.4	8.4
2025-01-27 08:14:03.574457	43.0	36.5	-91.4	12.3
2025-01-27 08:14:04.734823	43.3	36.8	-91.3	12.7
2025-01-27 08:14:05.889977	43.5	37.0	-91.0	15.3
2025-01-27 08:14:07.042771	43.7	37.2	-91.4	15.9
2025-01-27 08:14:08.199135	43.9	37.5	-91.5	10.6
2025-01-27 08:14:09.358904	44.2	37.7	-91.4	6.3
2025-01-27 08:14:10.515945	44.4	38.0	-91.5	6.4
2025-01-27 08:14:11.678407	44.6	38.2	-91.4	3.5
2025-01-27 08:14:12.839393	44.9	38.5	-91.1	3.8
2025-01-27 08:14:14.003560	45.1	38.7	-91.1	7.8
2025-01-27 08:14:15.163270	45.4	39.0	-91.4	10.0
2025-01-27 08:14:16.324080	45.6	39.2	-91.2	12.7
2025-01-27 08:14:17.481781	45.9	39.5	-91.2	16.3
2025-01-27 08:14:18.637266	46.2	39.7	-91.3	15.9
2025-01-27 08:14:19.791185	46.4	40.0	-91.4	14.2
2025-01-27 08:14:20.948332	46.7	40.2	-91.2	13.0
2025-01-27 08:14:22.094828	47.0	40.5	-91.5	12.1
2025-01-27 08:14:23.252723	47.3	40.7	-91.0	9.2
2025-01-27 08:14:24.405692	47.5	41.0	-91.2	13.2
2025-01-27 08:14:25.565767	47.8	41.2	-91.2	15.8
2025-01-27 08:14:26.718197	48.1	41.5	-91.0	16.7
2025-01-27 08:14:27.868296	48.4	41.8	-91.3	15.5
2025-01-27 08:14:29.019725	48.7	42.0	-91.4	11.7
2025-01-27 08:14:30.171821	49.0	42.3	-91.2	6.2
2025-01-27 08:14:31.332416	49.3	42.5	-90.8	3.8
2025-01-27 08:14:32.499724	49.7	42.8	-91.3	6.2
2025-01-27 08:14:33.658966	50.0	43.1	-91.5	5.5
2025-01-27 08:14:34.814544	50.3	43.3	-91.2	4.9
2025-01-27 08:14:35.975079	50.6	43.6	-91.2	7.4
2025-01-27 08:14:37.137272	51.0	43.9	-91.4	10.5
2025-01-27 08:14:38.305764	51.3	44.2	-91.2	13.8
2025-01-27 08:14:39.462572	51.7	44.4	-91.2	13.9
2025-01-27 08:14:40.623597	52.0	44.7	-91.1	13.5
2025-01-27 08:14:41.780592	52.4	45.0	-91.4	10.2
2025-01-27 08:14:42.938993	52.8	45.2	-91.3	9.3
2025-01-27 08:14:44.094517	53.2	45.5	-91.2	8.9
2025-01-27 08:14:45.254579	53.5	45.8	-91.4	6.8
2025-01-27 08:14:46.413122	53.9	46.1	-91.4	11.9
2025-01-27 08:14:47.566989	54.3	46.3	-91.4	11.5
2025-01-27 08:14:48.725219	54.7	46.6	-91.5	6.6
2025-01-27 08:14:49.877738	55.1	46.9	-91.3	6.9
2025-01-27 08:14:51.037720	55.5	47.2	-91.3	3.4
2025-01-27 08:14:52.201143	56.0	47.4	-91.3	2.3
2025-01-27 08:14:53.355409	56.4	47.7	-91.5	3.2
2025-01-27 08:14:54.509445	56.8	48.0	-91.1	2.9
2025-01-27 08:14:55.664031	57.3	48.3	-91.7	4.3
2025-01-27 08:14:56.818520	57.7	48.5	-91.3	1.9
2025-01-27 08:14:57.973890	58.2	48.8	-91.7	3.3
2025-01-27 08:14:59.121631	58.7	49.1	-91.3	2.8
2025-01-27 08:15:00.293405	59.1	49.4	-91.0	2.8
2025-01-27 08:15:01.456439	59.6	49.6	-90.7	5.8
2025-01-27 08:15:02.615200	60.1	49.9	-90.7	5.4
2025-01-27 08:15:03.776678	60.6	50.2	-90.6	3.0
2025-01-27 08:15:04.926904	61.1	50.4	-91.1	2.7
2025-01-27 08:15:06.074751	61.7	50.7	-91.6	6.1
2025-01-27 08:15:07.229714	62.2	51.0	-91.2	5.5
2025-01-27 08:15:08.383268	62.7	51.2	-91.3	7.2
2025-01-27 08:15:09.537606	63.3	51.5	-91.4	6.1
2025-01-27 08:15:10.698512	63.8	51.8	-91.3	4.3
2025-01-27 08:15:11.854797	64.4	52.0	-91.1	4.4
2025-01-27 08:15:13.013976	65.0	52.3	-91.3	10.2
2025-01-27 08:15:14.161935	65.6	52.6	-91.4	12.1
2025-01-27 08:15:15.332558	66.2	52.8	-91.1	12.3
2025-01-27 08:15:16.490151	66.8	53.1	-91.6	10.7
2025-01-27 08:15:17.650152	67.4	53.4	-91.4	12.7
2025-01-27 08:15:18.812721	68.1	53.6	-91.6	12.5
2025-01-27 08:15:19.970468	68.7	53.9	-91.3	11.4
2025-01-27 08:15:21.126840	69.4	54.1	-91.6	7.5
2025-01-27 08:15:22.277664	70.0	54.4	-91.3	4.7
2025-01-27 08:15:23.428985	70.7	54.6	-91.5	6.4
2025-01-27 08:15:24.590261	71.4	54.8	-91.6	5.5
2025-01-27 08:15:25.754682	72.1	55.1	-91.5	3.9
2025-01-27 08:15:26.912175	72.8	55.3	-91.6	5.8
2025-01-27 08:15:28.076597	73.5	55.5	-91.5	6.6
2025-01-27 08:15:29.225896	74.3	55.8	-91.5	6.5
2025-01-27 08:15:30.385918	75.0	56.0	-90.9	8.7
2025-01-27 08:15:31.543160	75.8	56.2	-91.0	11.8
2025-01-27 08:15:32.708082	76.6	56.4	-90.9	14.6
2025-01-27 08:15:33.868129	77.3	56.6	-91.0	16.0
2025-01-27 08:15:35.025193	78.1	56.9	-91.1	16.7
2025-01-27 08:15:36.181382	78.9	57.1	-90.8	15.5
2025-01-27 08:15:37.336342	79.8	57.3	-91.3	15.1
2025-01-27 08:15:38.492064	80.6	57.5	-91.0	13.8
2025-01-27 08:15:39.650240	81.4	57.6	-91.3	10.7
2025-01-27 08:15:40.807459	82.3	57.8	-91.4	7.5
2025-01-27 08:15:41.962002	83.2	58.0	-91.5	9.1
2025-01-27 08:15:43.121927	84.0	58.2	-91.2	7.8
2025-01-27 08:15:44.279696	84.9	58.3	-91.3	4.3
2025-01-27 08:15:45.439513	85.8	58.5	-91.4	8.1
2025-01-27 08:15:46.599981	86.7	58.7	-91.4	10.0
2025-01-27 08:15:47.753382	87.7	58.8	-91.4	5.7
2025-01-27 08:15:48.904125	88.6	58.9	-91.4	10.7
2025-01-27 08:15:50.062082	89.5	59.1	-91.5	13.1
2025-01-27 08:15:51.218575	90.5	59.2	-91.5	12.4
2025-01-27 08:15:52.374684	91.4	59.3	-91.6	16.1
2025-01-27 08:15:53.526388	92.4	59.4	-91.4	12.4
2025-01-27 08:15:54.679906	93.4	59.5	-91.6	12.0
2025-01-27 08:15:55.845245	94.4	59.6	-91.4	13.2
2025-01-27 08:15:57.003751	95.4	59.7	-91.3	12.9
2025-01-27 08:15:58.161117	96.4	59.8	-91.6	10.8
2025-01-27 08:15:59.312224	97.4	59.9	-91.3	10.3
2025-01-27 08:16:00.465226	98.4	60.0	-91.3	7.7
2025-01-27 08:16:01.624649	99.4	60.0	-91.4	12.4
2025-01-27 08:16:02.776235	100.4	60.1	-91.3	14.3
2025-01-27 08:16:03.935042	101.4	60.1	-91.4	7.1
2025-01-27 08:16:05.090928	102.4	60.2	-91.4	6.4
2025-01-27 08:16:06.245008	103.5	60.2	-91.6	10.9
2025-01-27 08:16:07.406761	104.5	60.2	-91.4	4.9
2025-01-27 08:16:08.560276	105.5	60.2	-91.6	5.1
2025-01-27 08:16:09.711599	106.6	60.2	-91.4	8.8
2025-01-27 08:16:10.867168	107.6	60.2	-91.5	6.5
2025-01-27 08:16:12.017614	108.6	60.2	-91.4	5.6
2025-01-27 08:16:13.178249	109.7	60.2	-91.1	13.7
2025-01-27 08:16:14.320928	110.7	60.2	-91.4	14.5
2025-01-27 08:16:15.479525	111.7	60.1	-91.5	8.3
2025-01-27 08:16:16.634505	112.7	60.1	-91.3	9.0
2025-01-27 08:16:17.791046	113.7	60.0	-91.4	16.5
2025-01-27 08:16:18.954580	114.8	60.0	-91.7	5.6
2025-01-27 08:16:20.110594	115.8	59.9	-91.4	7.7
2025-01-27 08:16:21.259946	116.8	59.8	-91.3	12.6
2025-01-27 08:16:22.423103	117.8	59.7	-91.4	9.3
2025-01-27 08:16:23.587035	118.8	59.7	-91.7	7.8
2025-01-27 08:16:24.749159	119.8	59.6	-91.6	15.4
2025-01-27 08:16:25.906874	120.7	59.4	-91.4	10.9
2025-01-27 08:16:27.056220	121.7	59.3	-91.5	10.6
2025-01-27 08:16:28.214055	122.7	59.2	-91.1	11.8
2025-01-27 08:16:29.368404	123.6	59.1	-91.3	8.4
2025-01-27 08:16:30.521339	124.5	59.0	-91.7	10.4
2025-01-27 08:16:31.677834	125.5	58.8	-91.4	14.5
2025-01-27 08:16:32.835204	126.4	58.7	-91.7	14.0
2025-01-27 08:16:33.984548	127.3	58.5	-91.3	12.7
2025-01-27 08:16:35.120308	128.2	58.4	-91.3	12.1
2025-01-27 08:16:36.278621	129.1	58.2	-91.5	15.6
2025-01-27 08:16:37.439769	130.0	58.0	-90.9	7.9
2025-01-27 08:16:38.595407	130.8	57.8	-90.7	10.1
2025-01-27 08:16:39.752201	131.7	57.7	-91.0	19.3
2025-01-27 08:16:40.898064	132.5	57.5	-90.5	11.1
2025-01-27 08:16:42.060287	133.4	57.3	-91.2	11.3
2025-01-27 08:16:43.215187	134.2	57.1	-91.4	15.8
2025-01-27 08:16:44.371893	135.0	56.9	-91.4	14.8
2025-01-27 08:16:45.530284	135.8	56.7	-91.1	16.4
2025-01-27 08:16:46.689496	136.6	56.5	-91.4	15.5
2025-01-27 08:16:47.851339	137.3	56.2	-91.3	14.8
2025-01-27 08:16:49.002222	138.1	56.0	-91.4	13.3
2025-01-27 08:16:50.151004	138.8	55.8	-91.4	11.9
2025-01-27 08:16:51.308623	139.6	55.6	-91.3	12.9
2025-01-27 08:16:52.460699	140.3	55.3	-91.2	12.0
2025-01-27 08:16:53.619108	141.0	55.1	-91.5	15.3
2025-01-27 08:16:54.775808	141.7	54.9	-91.4	17.3
2025-01-27 08:16:55.934966	142.4	54.6	-91.6	7.4
2025-01-27 08:16:57.088007	143.1	54.4	-91.5	9.9
2025-01-27 08:16:58.236498	143.8	54.1	-91.0	13.4
2025-01-27 08:16:59.404003	144.4	53.9	-91.0	10.7
2025-01-27 08:17:00.556998	145.1	53.6	-91.1	9.8
2025-01-27 08:17:01.712757	145.7	53.4	-91.2	12.7
2025-01-27 08:17:02.885739	146.3	53.1	-91.3	8.8
2025-01-27 08:17:04.045996	146.9	52.9	-91.2	9.5
2025-01-27 08:17:05.198172	147.5	52.6	-91.1	16.0
2025-01-27 08:17:06.347232	148.1	52.4	-91.0	8.6
2025-01-27 08:17:07.502657	148.7	52.1	-91.4	3.8
2025-01-27 08:17:08.651946	149.3	51.8	-91.6	7.8
2025-01-27 08:17:09.811205	149.8	51.6	-91.3	7.7
2025-01-27 08:17:10.961955	150.4	51.3	-91.2	5.4
2025-01-27 08:17:12.120498	150.9	51.0	-91.0	5.7
2025-01-27 08:17:13.279150	151.5	50.8	-91.4	6.4
2025-01-27 08:17:14.431822	152.0	50.5	-91.2	4.2
2025-01-27 08:17:15.586232	152.5	50.2	-91.2	4.2
2025-01-27 08:17:16.749399	153.0	49.9	-91.3	12.0
2025-01-27 08:17:17.907338	153.5	49.7	-91.4	5.2
2025-01-27 08:17:19.067892	154.0	49.4	-91.3	6.8
2025-01-27 08:17:20.218426	154.5	49.1	-91.4	11.1
2025-01-27 08:17:21.383650	154.9	48.8	-91.2	8.3
2025-01-27 08:17:22.534795	155.4	48.6	-91.2	10.2
2025-01-27 08:17:23.682221	155.9	48.3	-91.3	14.1
2025-01-27 08:17:24.837364	156.3	48.0	-91.5	11.6
2025-01-27 08:17:25.999568	156.7	47.7	-91.5	7.7
2025-01-27 08:17:27.153601	157.2	47.5	-91.2	10.9
2025-01-27 08:17:28.304553	157.6	47.2	-91.0	10.8
2025-01-27 08:17:29.430034	158.0	46.9	-91.4	13.6
2025-01-27 08:17:30.550852	158.4	46.7	-91.3	14.0
2025-01-27 08:17:31.671551	158.8	46.4	-91.3	13.1
2025-01-27 08:17:32.792758	159.2	46.1	-90.8	13.3
2025-01-27 08:17:33.912751	159.5	45.9	-91.4	7.8
2025-01-27 08:17:35.033561	159.9	45.6	-91.3	8.0
2025-01-27 08:17:36.154199	160.3	45.3	-91.0	10.8
2025-01-27 08:17:37.275140	160.6	45.1	-90.9	13.0
2025-01-27 08:17:38.402096	161.0	44.8	-91.3	10.6
2025-01-27 08:17:39.532117	161.3	44.6	-91.3	6.2
2025-01-27 08:17:40.690440	161.7	44.3	-91.2	5.2
2025-01-27 08:17:41.840584	162.0	44.0	-90.8	3.6
2025-01-27 08:17:42.996577	162.4	43.7	-91.1	6.0
2025-01-27 08:17:44.135651	162.7	43.5	-90.8	8.5
2025-01-27 08:17:45.286658	163.0	43.2	-91.1	12.9
2025-01-27 08:17:46.445159	163.4	42.9	-91.4	8.1
2025-01-27 08:17:47.596799	163.7	42.7	-91.4	4.8
2025-01-27 08:17:48.752561	164.0	42.4	-91.0	10.1
2025-01-27 08:17:49.911373	164.3	42.2	-91.3	6.6
2025-01-27 08:17:51.063593	164.6	41.9	-91.0	6.2
2025-01-27 08:17:52.208089	164.9	41.6	-91.2	8.6
2025-01-27 08:17:53.365241	165.2	41.4	-91.4	8.8
2025-01-27 08:17:54.522266	165.5	41.1	-91.5	7.4
2025-01-27 08:17:55.681871	165.8	40.9	-91.5	11.8
2025-01-27 08:17:56.838271	166.1	40.6	-91.6	12.2
2025-01-27 08:17:57.998022	166.4	40.3	-91.8	5.4
2025-01-27 08:17:59.159818	166.6	40.1	-91.4	4.7
2025-01-27 08:18:00.316724	166.9	39.8	-91.5	5.3
2025-01-27 08:18:01.468029	167.2	39.6	-91.6	7.5
2025-01-27 08:18:02.629595	167.4	39.3	-91.5	5.0
2025-01-27 08:18:03.778751	167.7	39.1	-91.2	9.2
2025-01-27 08:18:04.943346	167.9	38.8	-91.3	8.4
2025-01-27 08:18:06.099020	168.2	38.6	-91.3	6.8
2025-01-27 08:18:07.268737	168.4	38.3	-91.4	7.4
2025-01-27 08:18:08.425076	168.7	38.1	-91.4	5.7
2025-01-27 08:18:09.588734	168.9	37.8	-91.4	3.5
2025-01-27 08:18:10.747231	169.1	37.6	-91.4	6.6
2025-01-27 08:18:11.904995	169.4	37.4	-91.5	3.9
2025-01-27 08:18:13.062359	169.6	37.1	-91.3	6.6
2025-01-27 08:18:14.208242	169.8	36.9	-91.0	11.5
2025-01-27 08:18:15.358531	170.0	36.6	-91.2	10.4
2025-01-27 08:18:16.516418	170.3	36.4	-91.3	10.3
2025-01-27 08:18:17.679588	170.5	36.2	-91.6	11.7
2025-01-27 08:18:18.839586	170.7	35.9	-91.5	12.1
2025-01-27 08:18:19.994862	170.9	35.7	-91.1	12.8
2025-01-27 08:18:21.144277	171.1	35.5	-91.4	11.7
2025-01-27 08:18:22.303671	171.3	35.2	-91.3	11.7
2025-01-27 08:18:23.465521	171.5	35.0	-91.6	10.0
2025-01-27 08:18:24.622459	171.7	34.8	-91.6	5.5
2025-01-27 08:18:25.775022	171.9	34.5	-91.5	5.7
2025-01-27 08:18:26.925995	172.1	34.3	-91.3	4.5
2025-01-27 08:18:28.078171	172.3	34.1	-91.2	4.1
2025-01-27 08:18:29.235793	172.5	33.9	-90.9	7.9
2025-01-27 08:18:30.385989	172.7	33.7	-91.3	6.3
2025-01-27 08:18:31.543452	172.9	33.4	-91.5	6.1
2025-01-27 08:18:32.702717	173.0	33.2	-91.5	11.3
2025-01-27 08:18:33.858261	173.2	33.0	-91.3	10.6
2025-01-27 08:18:35.006980	173.4	32.8	-91.1	8.4
2025-01-27 08:18:36.159228	173.6	32.6	-91.1	9.2
2025-01-27 08:18:37.320271	173.7	32.4	-91.1	10.2
2025-01-27 08:18:38.473138	173.9	32.1	-91.1	9.4
2025-01-27 08:18:39.644098	174.1	31.9	-91.2	10.3
2025-01-27 08:18:40.797217	174.2	31.7	-91.3	10.4
2025-01-27 08:18:41.957762	174.4	31.5	-91.2	7.1
2025-01-27 08:18:43.126558	174.6	31.3	-91.2	8.0
2025-01-27 08:18:44.283940	174.7	31.1	-91.3	8.2
2025-01-27 08:18:45.445184	174.9	30.9	-91.5	7.3
2025-01-27 08:18:46.605432	175.0	30.7	-91.0	4.8
2025-01-27 08:18:47.757485	175.2	30.5	-90.7	8.3
2025-01-27 08:18:48.914279	175.3	30.3	-91.0	4.5
2025-01-27 08:18:50.065485	175.5	30.1	-91.3	5.1
2025-01-27 08:18:51.208521	175.6	29.9	-91.6	9.4
2025-01-27 08:18:52.353986	175.8	29.7	-91.4	7.1
2025-01-27 08:18:53.514398	175.9	29.5	-91.7	7.3
2025-01-27 08:18:54.668622	176.1	29.3	-91.2	8.2
2025-01-27 08:18:55.826548	176.2	29.1	-91.4	9.4
2025-01-27 08:18:56.987206	176.4	28.9	-91.6	9.2
2025-01-27 08:18:58.135521	176.5	28.7	-91.2	9.3
2025-01-27 08:18:59.293358	176.6	28.5	-91.7	9.7
2025-01-27 08:19:00.439766	176.8	28.3	-91.7	7.2
2025-01-27 08:19:01.606549	176.9	28.1	-91.7	4.5
2025-01-27 08:19:02.764327	177.0	27.9	-91.8	6.9
2025-01-27 08:19:03.930492	177.2	27.8	-91.6	2.4
2025-01-27 08:19:05.084968	177.3	27.6	-91.6	5.0
2025-01-27 08:19:06.247971	177.4	27.4	-91.5	6.2
2025-01-27 08:19:07.392738	177.5	27.2	-91.6	6.5
2025-01-27 08:19:08.548969	177.7	27.0	-91.3	6.0
2025-01-27 08:19:09.703394	177.8	26.8	-91.7	10.3
2025-01-27 08:19:10.856715	177.9	26.7	-91.5	10.0
2025-01-27 08:19:12.025472	178.0	26.5	-91.5	10.0
2025-01-27 08:19:13.186126	178.2	26.3	-91.0	10.0
2025-01-27 08:19:14.343803	178.3	26.1	-91.3	9.9
2025-01-27 08:19:15.501179	178.4	25.9	-91.6	7.8
2025-01-27 08:19:16.656836	178.5	25.8	-91.4	7.6
2025-01-27 08:19:17.811944	178.6	25.6	-91.0	7.1
2025-01-27 08:19:18.972286	178.7	25.4	-91.4	5.9
2025-01-27 08:19:20.130690	178.8	25.2	-91.3	5.9
2025-01-27 08:19:21.283898	179.0	25.1	-91.3	10.4
2025-01-27 08:19:22.441879	179.1	24.9	-91.5	7.9
2025-01-27 08:19:23.605623	179.2	24.7	-91.4	8.0
2025-01-27 08:19:24.760782	179.3	24.6	-91.2	10.2
2025-01-27 08:19:25.923272	179.4	24.4	-91.3	10.2
2025-01-27 08:19:27.086737	179.5	24.2	-91.1	10.2
2025-01-27 08:19:28.241848	179.6	24.1	-91.2	8.2
2025-01-27 08:19:29.397979	179.7	23.9	-91.3	10.7
2025-01-27 08:19:30.553781	179.8	23.7	-91.3	7.2
2025-01-27 08:19:31.713359	179.9	23.6	-91.4	10.1
2025-01-27 08:19:32.867939	180.0	23.4	-91.7	7.9
2025-01-27 08:19:34.019561	180.1	23.3	-91.6	5.2
2025-01-27 08:19:35.179995	180.2	23.1	-91.6	10.4
2025-01-27 08:19:36.340978	180.3	22.9	-91.3	6.8
2025-01-27 08:19:37.508402	180.4	22.8	-91.5	5.7
2025-01-27 08:19:38.658392	180.5	22.6	-91.4	6.0
2025-01-27 08:19:39.813236	180.6	22.5	-91.1	6.4
2025-01-27 08:19:40.972442	180.7	22.3	-91.3	4.7
2025-01-27 08:19:42.123601	180.8	22.2	-91.1	4.1
2025-01-27 08:19:43.275986	180.9	22.0	-91.3	6.2
2025-01-27 08:19:44.425751	181.0	21.8	-91.5	4.9
2025-01-27 08:19:45.580101	181.1	21.7	-91.7	7.8
2025-01-27 08:19:46.735907	181.1	21.5	-91.5	7.4
2025-01-27 08:19:47.895435	181.2	21.4	-91.5	3.7
2025-01-27 08:19:49.047883	181.3	21.2	-91.3	4.6
2025-01-27 08:19:50.214265	181.4	21.1	-90.8	4.9
2025-01-27 08:19:51.373168	181.5	20.9	-90.7	2.7
2025-01-27 08:19:52.529047	181.6	20.8	-90.7	1.7
2025-01-27 08:19:53.680740	181.7	20.7	-90.5	6.2
2025-01-27 08:19:54.843465	181.7	20.5	-91.6	7.8
2025-01-27 08:19:55.998276	181.8	20.4	-91.3	7.5
2025-01-27 08:19:57.157930	181.9	20.2	-91.2	6.6
2025-01-27 08:19:58.316679	182.0	20.1	-91.3	7.1
2025-01-27 08:19:59.482639	182.1	19.9	-91.5	3.9
2025-01-27 08:20:00.628690	182.2	19.8	-91.0	5.4
2025-01-27 08:20:01.778274	182.2	19.6	-91.2	6.7
2025-01-27 08:20:02.930266	182.3	19.5	-91.4	3.3
2025-01-27 08:20:04.087310	182.4	19.4	-91.4	1.1
2025-01-27 08:20:05.238125	182.5	19.2	-91.2	7.1
2025-01-27 08:20:06.389662	182.5	19.1	-91.2	4.0
2025-01-27 08:20:07.545407	182.6	19.0	-91.2	4.3
2025-01-27 08:20:08.705663	182.7	18.8	-91.1	4.2
2025-01-27 08:20:09.859236	182.8	18.7	-91.3	4.3
2025-01-27 08:20:11.021945	182.9	18.5	-91.4	4.0
2025-01-27 08:20:12.171258	182.9	18.4	-91.3	4.5
2025-01-27 08:20:13.304404	183.0	18.3	-91.3	3.0
2025-01-27 08:20:14.454520	183.1	18.1	-91.1	3.6
2025-01-27 08:20:15.603021	183.1	18.0	-91.4	5.2
2025-01-27 08:20:16.750273	183.2	17.9	-91.5	3.0
2025-01-27 08:20:17.907621	183.3	17.8	-91.6	3.6
2025-01-27 08:20:19.064447	183.4	17.6	-91.1	2.9
2025-01-27 08:20:20.219336	183.4	17.5	-91.3	4.3
2025-01-27 08:20:21.380194	183.5	17.4	-91.3	3.9
2025-01-27 08:20:22.532283	183.6	17.2	-91.5	4.1
2025-01-27 08:20:23.683444	183.6	17.1	-91.4	3.5
2025-01-27 08:20:24.832564	183.7	17.0	-91.4	4.1
2025-01-27 08:20:25.989089	183.8	16.9	-91.4	6.4
2025-01-27 08:20:27.154539	183.8	16.7	-91.4	3.9
2025-01-27 08:20:28.303157	183.9	16.6	-91.3	4.4
2025-01-27 08:20:29.462724	184.0	16.5	-91.5	3.1
2025-01-27 08:20:30.624423	184.0	16.4	-91.6	3.7
2025-01-27 08:20:31.778502	184.1	16.2	-91.4	4.4
2025-01-27 08:20:32.938382	184.2	16.1	-91.3	2.8
2025-01-27 08:20:34.086197	184.2	16.0	-91.3	3.5
2025-01-27 08:20:35.230818	184.3	15.9	-91.3	5.5
2025-01-27 08:20:36.390518	184.3	15.7	-91.2	5.8
2025-01-27 08:20:37.540867	184.4	15.6	-91.6	3.7
2025-01-27 08:20:38.706893	184.5	15.5	-91.5	2.9
2025-01-27 08:20:39.862988	184.5	15.4	-91.5	2.6
2025-01-27 08:20:41.010393	184.6	15.3	-91.3	5.7
2025-01-27 08:20:42.169503	184.7	15.1	-91.3	5.0
2025-01-27 08:20:43.329588	184.7	15.0	-90.9	4.4
2025-01-27 08:20:44.483688	184.8	14.9	-90.8	4.3
2025-01-27 08:20:45.650015	184.8	14.8	-91.0	5.7
2025-01-27 08:20:46.796957	184.9	14.7	-91.1	7.4
2025-01-27 08:20:47.950705	184.9	14.6	-91.2	5.8
#Closed at: 2025-01-27 08:11:41.009501