passes_logs/2025/01/27/LEX_Murmansk/LEX_Murmansk__20250127_101455_NOAA_18_rec.log

#Pass ID: 20250127_101455_NOAA 18
#Satellite: NOAA 18
#Configuration: NOAA 18
#Start time: 2025-01-27 10:14:50.429892

#LorettStation: 1.0.0 05.05.2024
#Station: LEX_Murmansk
#Location: 33.156738 lon 68.926811 lat
#TLE: 1 28654U 05018A   25026.13466944  .00000433  00000+0  25315-3 0  9999
#TLE: 2 28654  98.8549 107.0777 0014815 148.4880 211.7182 14.13497478 14758

#Time	Az	El	Level	SNR
2025-01-27 10:15:02.681323	24.8	16.3	-91.1	8.4
2025-01-27 10:15:03.841223	24.8	16.5	-91.2	7.3
2025-01-27 10:15:04.996057	24.8	16.6	-90.9	7.3
2025-01-27 10:15:06.150085	24.8	16.7	-90.3	7.1
2025-01-27 10:15:07.307612	24.8	16.8	-90.4	6.6
2025-01-27 10:15:08.462188	24.8	17.0	-90.5	5.2
2025-01-27 10:15:09.608258	24.8	17.1	-91.3	6.0
2025-01-27 10:15:10.768044	24.8	17.2	-91.1	6.8
2025-01-27 10:15:11.919609	24.8	17.4	-91.1	8.1
2025-01-27 10:15:13.074774	24.8	17.5	-90.9	8.5
2025-01-27 10:15:14.230605	24.7	17.6	-90.3	5.4
2025-01-27 10:15:15.379637	24.7	17.8	-90.5	7.5
2025-01-27 10:15:16.531683	24.7	17.9	-91.0	7.4
2025-01-27 10:15:17.683472	24.7	18.0	-91.3	10.6
2025-01-27 10:15:18.852703	24.7	18.2	-90.9	9.1
2025-01-27 10:15:20.001358	24.7	18.3	-91.2	7.0
2025-01-27 10:15:21.158667	24.7	18.5	-91.1	8.0
2025-01-27 10:15:22.306665	24.7	18.6	-90.8	6.8
2025-01-27 10:15:23.462506	24.6	18.7	-91.0	5.7
2025-01-27 10:15:24.608801	24.6	18.9	-91.0	7.3
2025-01-27 10:15:25.763562	24.6	19.0	-91.2	9.7
2025-01-27 10:15:26.915809	24.6	19.2	-91.2	9.0
2025-01-27 10:15:28.070608	24.6	19.3	-91.0	7.9
2025-01-27 10:15:29.234538	24.6	19.5	-90.9	7.2
2025-01-27 10:15:30.379949	24.6	19.6	-91.0	8.0
2025-01-27 10:15:31.531430	24.5	19.7	-91.2	8.9
2025-01-27 10:15:32.685975	24.5	19.9	-91.0	8.4
2025-01-27 10:15:33.842535	24.5	20.0	-91.3	10.3
2025-01-27 10:15:34.999867	24.5	20.2	-91.4	11.9
2025-01-27 10:15:36.156198	24.5	20.3	-90.4	11.2
2025-01-27 10:15:37.317728	24.5	20.5	-90.2	11.4
2025-01-27 10:15:38.475789	24.5	20.6	-90.3	4.7
2025-01-27 10:15:39.622088	24.4	20.8	-90.7	7.0
2025-01-27 10:15:40.770190	24.4	21.0	-90.1	7.1
2025-01-27 10:15:41.936753	24.4	21.1	-90.9	8.5
2025-01-27 10:15:43.093231	24.4	21.3	-90.8	9.8
2025-01-27 10:15:44.246512	24.4	21.4	-90.8	11.8
2025-01-27 10:15:45.405957	24.4	21.6	-91.0	11.5
2025-01-27 10:15:46.554093	24.3	21.7	-91.4	11.3
2025-01-27 10:15:47.705730	24.3	21.9	-91.3	14.4
2025-01-27 10:15:48.858860	24.3	22.1	-91.2	13.2
2025-01-27 10:15:50.009982	24.3	22.2	-91.1	14.4
2025-01-27 10:15:51.158711	24.3	22.4	-91.0	16.0
2025-01-27 10:15:52.312272	24.3	22.5	-90.9	13.8
2025-01-27 10:15:53.468119	24.2	22.7	-91.2	11.1
2025-01-27 10:15:54.617726	24.2	22.9	-91.3	11.1
2025-01-27 10:15:55.769312	24.2	23.0	-91.5	12.6
2025-01-27 10:15:56.925134	24.2	23.2	-91.2	9.4
2025-01-27 10:15:58.087613	24.2	23.4	-90.9	11.0
2025-01-27 10:15:59.239574	24.2	23.5	-90.8	14.0
2025-01-27 10:16:00.388563	24.1	23.7	-90.8	14.9
2025-01-27 10:16:01.542561	24.1	23.9	-91.2	14.0
2025-01-27 10:16:02.698928	24.1	24.1	-91.1	16.0
2025-01-27 10:16:03.845098	24.1	24.2	-91.3	13.6
2025-01-27 10:16:05.006794	24.1	24.4	-91.3	14.7
2025-01-27 10:16:06.163617	24.0	24.6	-90.6	14.8
2025-01-27 10:16:07.324822	24.0	24.8	-91.0	14.0
2025-01-27 10:16:08.478304	24.0	24.9	-91.0	11.2
2025-01-27 10:16:09.628663	24.0	25.1	-91.1	13.1
2025-01-27 10:16:10.783791	23.9	25.3	-91.2	12.2
2025-01-27 10:16:11.930480	23.9	25.5	-91.4	12.2
2025-01-27 10:16:13.082664	23.9	25.7	-90.7	7.2
2025-01-27 10:16:14.245157	23.9	25.9	-90.9	9.5
2025-01-27 10:16:15.399311	23.9	26.0	-91.4	13.5
2025-01-27 10:16:16.553115	23.8	26.2	-90.9	11.2
2025-01-27 10:16:17.704270	23.8	26.4	-91.0	10.9
2025-01-27 10:16:18.852790	23.8	26.6	-91.2	10.3
2025-01-27 10:16:20.002301	23.8	26.8	-91.4	11.9
2025-01-27 10:16:21.161568	23.7	27.0	-91.3	11.6
2025-01-27 10:16:22.324400	23.7	27.2	-91.1	8.9
2025-01-27 10:16:23.479495	23.7	27.4	-91.4	9.6
2025-01-27 10:16:24.643583	23.7	27.6	-91.6	9.3
2025-01-27 10:16:25.797916	23.6	27.8	-91.8	10.0
2025-01-27 10:16:26.950277	23.6	28.0	-91.3	8.4
2025-01-27 10:16:28.110300	23.6	28.2	-91.4	11.6
2025-01-27 10:16:29.268902	23.5	28.4	-91.2	11.7
2025-01-27 10:16:30.429253	23.5	28.6	-91.2	10.6
2025-01-27 10:16:31.579979	23.5	28.8	-91.4	12.4
2025-01-27 10:16:32.736177	23.5	29.0	-91.0	12.5
2025-01-27 10:16:33.884550	23.4	29.2	-91.3	13.3
2025-01-27 10:16:35.039293	23.4	29.4	-91.3	13.1
2025-01-27 10:16:36.199266	23.4	29.7	-91.3	12.4
2025-01-27 10:16:37.347449	23.3	29.9	-91.1	12.0
2025-01-27 10:16:38.506129	23.3	30.1	-91.0	11.9
2025-01-27 10:16:39.662637	23.3	30.3	-91.5	11.0
2025-01-27 10:16:40.812750	23.2	30.5	-90.9	12.4
2025-01-27 10:16:41.962442	23.2	30.7	-90.7	11.5
2025-01-27 10:16:43.108183	23.2	31.0	-89.7	9.5
2025-01-27 10:16:44.265577	23.1	31.2	-89.9	11.4
2025-01-27 10:16:45.416920	23.1	31.4	-91.2	8.2
2025-01-27 10:16:46.573424	23.1	31.6	-91.1	8.2
2025-01-27 10:16:47.724432	23.0	31.9	-91.5	11.1
2025-01-27 10:16:48.876498	23.0	32.1	-91.5	13.2
2025-01-27 10:16:50.025909	23.0	32.3	-91.4	15.3
2025-01-27 10:16:51.173914	22.9	32.6	-91.2	15.1
2025-01-27 10:16:52.328940	22.9	32.8	-91.0	14.4
2025-01-27 10:16:53.476334	22.9	33.0	-91.4	11.6
2025-01-27 10:16:54.627449	22.8	33.3	-91.7	14.8
2025-01-27 10:16:55.775795	22.8	33.5	-91.2	16.3
2025-01-27 10:16:56.931366	22.7	33.8	-91.5	17.7
2025-01-27 10:16:58.093673	22.7	34.0	-91.1	14.6
2025-01-27 10:16:59.248683	22.7	34.3	-91.0	15.5
2025-01-27 10:17:00.398329	22.6	34.5	-91.4	12.4
2025-01-27 10:17:01.559612	22.6	34.8	-91.4	8.6
2025-01-27 10:17:02.715412	22.5	35.0	-91.3	16.0
2025-01-27 10:17:03.874234	22.5	35.3	-91.7	12.3
2025-01-27 10:17:05.031100	22.4	35.5	-91.4	10.9
2025-01-27 10:17:06.180660	22.4	35.8	-91.3	15.1
2025-01-27 10:17:07.340776	22.3	36.0	-91.5	17.5
2025-01-27 10:17:08.497987	22.3	36.3	-91.5	18.2
2025-01-27 10:17:09.651979	22.3	36.6	-91.4	17.4
2025-01-27 10:17:10.805957	22.2	36.8	-91.6	16.9
2025-01-27 10:17:11.967306	22.2	37.1	-91.3	14.0
2025-01-27 10:17:13.124857	22.1	37.4	-91.0	14.6
2025-01-27 10:17:14.278093	22.0	37.7	-91.2	17.3
2025-01-27 10:17:15.429954	22.0	37.9	-91.3	18.4
2025-01-27 10:17:16.592080	21.9	38.2	-91.1	15.7
2025-01-27 10:17:17.744957	21.9	38.5	-91.4	17.2
2025-01-27 10:17:18.903181	21.8	38.8	-91.5	9.9
2025-01-27 10:17:20.056223	21.8	39.1	-91.5	9.9
2025-01-27 10:17:21.207898	21.7	39.4	-91.2	17.2
2025-01-27 10:17:22.365164	21.7	39.7	-91.0	12.4
2025-01-27 10:17:23.527566	21.6	40.0	-91.5	14.6
2025-01-27 10:17:24.678757	21.5	40.2	-91.3	17.9
2025-01-27 10:17:25.838187	21.5	40.5	-91.0	18.2
2025-01-27 10:17:26.989345	21.4	40.8	-91.5	17.9
2025-01-27 10:17:28.143468	21.3	41.1	-91.1	17.3
2025-01-27 10:17:29.302229	21.3	41.5	-91.0	18.6
2025-01-27 10:17:30.450384	21.2	41.8	-91.4	15.8
2025-01-27 10:17:31.601714	21.1	42.1	-91.3	19.1
2025-01-27 10:17:32.753970	21.1	42.4	-91.1	18.4
2025-01-27 10:17:33.906864	21.0	42.7	-90.8	18.6
2025-01-27 10:17:35.059080	20.9	43.0	-91.2	19.6
2025-01-27 10:17:36.215103	20.8	43.3	-91.1	18.6
2025-01-27 10:17:37.368423	20.8	43.7	-91.3	15.1
2025-01-27 10:17:38.520968	20.7	44.0	-91.4	12.2
2025-01-27 10:17:39.703979	20.6	44.3	-91.2	16.5
2025-01-27 10:17:40.858850	20.5	44.7	-91.2	11.0
2025-01-27 10:17:42.013675	20.4	45.0	-91.6	14.8
2025-01-27 10:17:43.175175	20.3	45.3	-91.4	19.1
2025-01-27 10:17:44.324794	20.3	45.7	-91.3	17.8
2025-01-27 10:17:45.481735	20.2	46.0	-90.6	19.8
2025-01-27 10:17:46.634790	20.1	46.4	-90.1	16.9
2025-01-27 10:17:47.794593	20.0	46.7	-90.2	15.7
2025-01-27 10:17:48.949878	19.9	47.1	-90.7	13.2
2025-01-27 10:17:50.122463	19.8	47.4	-91.2	12.9
2025-01-27 10:17:51.272508	19.7	47.8	-91.0	13.1
2025-01-27 10:17:52.425609	19.6	48.2	-91.3	15.7
2025-01-27 10:17:53.575930	19.5	48.5	-91.4	19.5
2025-01-27 10:17:54.731485	19.4	48.9	-91.2	19.5
2025-01-27 10:17:55.886983	19.2	49.3	-91.4	16.1
2025-01-27 10:17:57.039085	19.1	49.6	-91.4	13.7
2025-01-27 10:17:58.192703	19.0	50.0	-91.2	17.0
2025-01-27 10:17:59.355603	18.9	50.4	-91.2	11.2
2025-01-27 10:18:00.501507	18.8	50.8	-91.3	8.2
2025-01-27 10:18:01.652854	18.6	51.1	-91.1	10.3
2025-01-27 10:18:02.807683	18.5	51.5	-91.1	11.4
2025-01-27 10:18:03.960524	18.4	51.9	-91.4	11.6
2025-01-27 10:18:05.112094	18.2	52.3	-90.8	10.3
2025-01-27 10:18:06.266469	18.1	52.7	-91.3	12.9
2025-01-27 10:18:07.423277	17.9	53.1	-91.3	15.0
2025-01-27 10:18:08.581116	17.8	53.5	-91.7	15.3
2025-01-27 10:18:09.736318	17.6	53.9	-91.2	13.5
2025-01-27 10:18:10.886589	17.5	54.3	-91.2	13.7
2025-01-27 10:18:12.051561	17.3	54.7	-91.4	10.4
2025-01-27 10:18:13.202953	17.1	55.2	-91.1	12.5
2025-01-27 10:18:14.358924	17.0	55.6	-91.0	9.4
2025-01-27 10:18:15.509707	16.8	56.0	-91.6	8.5
2025-01-27 10:18:16.665607	16.6	56.4	-91.5	11.1
2025-01-27 10:18:17.813701	16.4	56.8	-91.4	12.3
2025-01-27 10:18:18.972167	16.2	57.3	-91.0	13.1
2025-01-27 10:18:20.135104	16.0	57.7	-91.2	15.9
2025-01-27 10:18:21.279676	15.8	58.1	-91.2	17.3
2025-01-27 10:18:22.433383	15.6	58.6	-91.2	9.0
2025-01-27 10:18:23.584432	15.4	59.0	-91.5	6.0
2025-01-27 10:18:24.744001	15.1	59.5	-91.6	9.5
2025-01-27 10:18:25.896357	14.9	59.9	-91.5	9.9
2025-01-27 10:18:27.056943	14.6	60.4	-91.6	8.7
2025-01-27 10:18:28.213288	14.4	60.8	-91.1	12.1
2025-01-27 10:18:29.367383	14.1	61.3	-91.3	16.4
2025-01-27 10:18:30.518701	13.8	61.7	-91.1	18.1
2025-01-27 10:18:31.666130	13.5	62.2	-91.3	18.2
2025-01-27 10:18:32.819648	13.2	62.7	-91.5	22.2
2025-01-27 10:18:33.975884	12.9	63.1	-91.5	16.5
2025-01-27 10:18:35.128943	12.6	63.6	-91.0	17.4
2025-01-27 10:18:36.282908	12.2	64.1	-91.3	18.7
2025-01-27 10:18:37.438454	11.9	64.5	-91.5	13.4
2025-01-27 10:18:38.595979	11.5	65.0	-91.1	14.5
2025-01-27 10:18:39.750390	11.1	65.5	-91.3	14.1
2025-01-27 10:18:40.902128	10.7	66.0	-91.0	12.0
2025-01-27 10:18:42.057451	10.3	66.4	-91.2	17.6
2025-01-27 10:18:43.215336	9.9	66.9	-91.1	18.0
2025-01-27 10:18:44.373062	9.4	67.4	-91.5	19.8
2025-01-27 10:18:45.527213	8.9	67.9	-91.5	16.3
2025-01-27 10:18:46.679162	8.4	68.4	-90.9	19.9
2025-01-27 10:18:47.834032	7.9	68.8	-91.3	17.9
2025-01-27 10:18:48.990488	7.3	69.3	-91.1	12.3
2025-01-27 10:18:50.148752	6.7	69.8	-90.4	12.6
2025-01-27 10:18:51.303751	6.1	70.3	-90.5	10.6
2025-01-27 10:18:52.460068	5.4	70.8	-90.6	8.7
2025-01-27 10:18:53.615606	4.7	71.3	-90.5	9.8
2025-01-27 10:18:54.768586	4.0	71.8	-91.5	15.9
2025-01-27 10:18:55.930818	3.2	72.3	-91.4	15.0
2025-01-27 10:18:57.082187	2.4	72.7	-91.4	17.0
2025-01-27 10:18:58.232680	1.5	73.2	-90.8	19.7
2025-01-27 10:18:59.383429	0.6	73.7	-91.3	20.5
2025-01-27 10:19:00.530331	359.6	74.2	-91.5	17.6
2025-01-27 10:19:01.677932	358.6	74.7	-91.2	16.4
2025-01-27 10:19:02.825990	357.5	75.1	-91.2	15.9
2025-01-27 10:19:03.976619	356.3	75.6	-91.4	13.0
2025-01-27 10:19:05.131410	355.0	76.1	-91.3	15.6
2025-01-27 10:19:06.288839	353.6	76.5	-91.3	16.7
2025-01-27 10:19:07.440907	352.2	77.0	-91.2	16.0
2025-01-27 10:19:08.601752	350.6	77.4	-91.1	15.9
2025-01-27 10:19:09.748200	348.9	77.8	-91.1	21.2
2025-01-27 10:19:10.899851	347.1	78.3	-91.2	16.0
2025-01-27 10:19:12.048595	345.1	78.7	-91.1	16.0
2025-01-27 10:19:13.207013	343.0	79.1	-91.3	21.0
2025-01-27 10:19:14.359264	340.8	79.5	-91.4	17.4
2025-01-27 10:19:15.522785	338.3	79.8	-91.2	16.7
2025-01-27 10:19:16.679654	335.7	80.2	-91.5	22.4
2025-01-27 10:19:17.829430	332.9	80.5	-91.2	22.1
2025-01-27 10:19:18.977480	329.9	80.8	-91.1	20.5
2025-01-27 10:19:20.133632	326.6	81.1	-90.9	22.5
2025-01-27 10:19:21.276502	323.2	81.3	-91.2	25.2
2025-01-27 10:19:22.444085	319.6	81.6	-91.4	25.6
2025-01-27 10:19:23.601117	315.8	81.8	-91.3	22.2
2025-01-27 10:19:24.763575	311.8	81.9	-91.6	22.3
2025-01-27 10:19:25.919184	307.8	82.0	-91.4	24.0
2025-01-27 10:19:27.070009	303.6	82.1	-91.3	25.7
2025-01-27 10:19:28.223315	299.4	82.1	-91.2	24.2
2025-01-27 10:19:29.378574	295.2	82.1	-91.0	21.9
2025-01-27 10:19:30.540519	291.0	82.0	-91.2	20.6
2025-01-27 10:19:31.686744	287.0	81.9	-91.2	23.7
2025-01-27 10:19:32.851828	283.0	81.8	-91.2	22.8
2025-01-27 10:19:34.008061	279.2	81.6	-90.8	20.2
2025-01-27 10:19:35.170034	275.5	81.4	-90.9	21.3
2025-01-27 10:19:36.326802	272.1	81.1	-91.2	23.7
2025-01-27 10:19:37.482881	268.8	80.8	-91.0	18.5
2025-01-27 10:19:38.635795	265.8	80.5	-91.5	21.9
2025-01-27 10:19:39.798602	262.9	80.2	-91.4	21.3
2025-01-27 10:19:40.940331	260.3	79.9	-91.3	18.3
2025-01-27 10:19:42.092837	257.9	79.5	-90.8	19.5
2025-01-27 10:19:43.242257	255.6	79.1	-91.1	24.2
2025-01-27 10:19:44.396048	253.5	78.7	-91.4	17.4
2025-01-27 10:19:45.545654	251.5	78.3	-91.2	16.7
2025-01-27 10:19:46.700331	249.7	77.9	-91.3	24.7
2025-01-27 10:19:47.854018	248.0	77.4	-91.5	18.6
2025-01-27 10:19:49.007403	246.4	77.0	-91.4	16.8
2025-01-27 10:19:50.157987	244.9	76.6	-91.2	21.2
2025-01-27 10:19:51.306178	243.5	76.1	-91.2	21.9
2025-01-27 10:19:52.459424	242.3	75.6	-91.6	16.1
2025-01-27 10:19:53.618676	241.0	75.2	-91.3	19.7
2025-01-27 10:19:54.780463	239.9	74.7	-90.4	19.0
2025-01-27 10:19:55.932346	238.9	74.2	-90.3	13.5
2025-01-27 10:19:57.084979	237.9	73.7	-90.1	14.2
2025-01-27 10:19:58.243399	236.9	73.2	-90.8	22.4
2025-01-27 10:19:59.398431	236.1	72.8	-91.1	14.7
2025-01-27 10:20:00.549252	235.2	72.3	-91.2	14.4
2025-01-27 10:20:01.709575	234.5	71.8	-91.3	22.2
2025-01-27 10:20:02.855942	233.7	71.3	-91.5	15.8
2025-01-27 10:20:04.018213	233.0	70.8	-91.4	15.4
2025-01-27 10:20:05.163184	232.4	70.3	-91.2	22.3
2025-01-27 10:20:06.310795	231.7	69.8	-91.2	21.5
2025-01-27 10:20:07.456575	231.2	69.4	-91.5	15.2
2025-01-27 10:20:08.608185	230.6	68.9	-91.5	17.0
2025-01-27 10:20:09.756647	230.1	68.4	-91.2	17.3
2025-01-27 10:20:10.909134	229.6	67.9	-91.1	15.1
2025-01-27 10:20:12.063896	229.1	67.4	-91.1	12.1
2025-01-27 10:20:13.229266	228.6	66.9	-91.2	17.1
2025-01-27 10:20:14.374382	228.2	66.4	-91.0	13.8
2025-01-27 10:20:15.519158	227.7	66.0	-91.1	14.7
2025-01-27 10:20:16.681249	227.3	65.5	-91.2	18.2
2025-01-27 10:20:17.829698	226.9	65.0	-91.2	21.5
2025-01-27 10:20:18.982547	226.6	64.5	-91.1	19.0
2025-01-27 10:20:20.138479	226.2	64.1	-91.4	20.8
2025-01-27 10:20:21.283774	225.9	63.6	-91.3	22.8
2025-01-27 10:20:22.432836	225.5	63.1	-91.2	20.0
2025-01-27 10:20:23.587666	225.2	62.7	-91.2	20.0
2025-01-27 10:20:24.738130	224.9	62.2	-91.4	23.5
2025-01-27 10:20:25.883495	224.6	61.7	-91.7	22.0
2025-01-27 10:20:27.038273	224.4	61.3	-91.7	20.5
2025-01-27 10:20:28.190450	224.1	60.8	-91.1	20.2
2025-01-27 10:20:29.347637	223.8	60.4	-91.0	21.1
2025-01-27 10:20:30.501760	223.6	59.9	-91.1	22.8
2025-01-27 10:20:31.658969	223.3	59.5	-91.1	22.5
2025-01-27 10:20:32.816626	223.1	59.0	-91.1	22.6
2025-01-27 10:20:33.976309	222.9	58.6	-91.4	22.6
2025-01-27 10:20:35.134936	222.6	58.1	-91.0	22.3
2025-01-27 10:20:36.286492	222.4	57.7	-91.2	21.8
2025-01-27 10:20:37.449309	222.2	57.3	-91.2	20.2
2025-01-27 10:20:38.604934	222.0	56.8	-91.5	22.5
2025-01-27 10:20:39.754621	221.8	56.4	-91.4	23.4
2025-01-27 10:20:40.902061	221.6	56.0	-91.3	16.6
2025-01-27 10:20:42.057550	221.5	55.6	-91.2	13.8
2025-01-27 10:20:43.207258	221.3	55.1	-91.3	22.7
2025-01-27 10:20:44.365555	221.1	54.7	-91.1	14.2
2025-01-27 10:20:45.521464	221.0	54.3	-91.4	13.0
2025-01-27 10:20:46.669027	220.8	53.9	-91.7	24.2
2025-01-27 10:20:47.820690	220.6	53.5	-91.4	21.5
2025-01-27 10:20:48.974914	220.5	53.1	-91.1	12.6
2025-01-27 10:20:50.130701	220.3	52.7	-90.9	18.5
2025-01-27 10:20:51.281618	220.2	52.3	-91.3	18.3
2025-01-27 10:20:52.443189	220.1	51.9	-91.4	15.7
2025-01-27 10:20:53.600628	219.9	51.5	-91.2	17.5
2025-01-27 10:20:54.757395	219.8	51.1	-91.4	18.5
2025-01-27 10:20:55.906890	219.7	50.7	-91.4	16.8
2025-01-27 10:20:57.062118	219.5	50.3	-91.3	16.9
2025-01-27 10:20:58.216288	219.4	50.0	-90.3	15.7
2025-01-27 10:20:59.369996	219.3	49.6	-90.2	17.2
2025-01-27 10:21:00.523552	219.2	49.2	-90.6	15.3
2025-01-27 10:21:01.683875	219.1	48.8	-90.2	16.2
2025-01-27 10:21:02.838667	219.0	48.5	-91.1	15.1
2025-01-27 10:21:03.988828	218.8	48.1	-91.4	15.4
2025-01-27 10:21:05.149590	218.7	47.7	-91.2	17.0
2025-01-27 10:21:06.311698	218.6	47.4	-91.4	19.4
2025-01-27 10:21:07.462360	218.5	47.0	-91.4	13.1
2025-01-27 10:21:08.610526	218.4	46.7	-91.6	15.2
2025-01-27 10:21:09.770172	218.3	46.3	-91.5	14.9
2025-01-27 10:21:10.928532	218.3	46.0	-91.5	8.8
2025-01-27 10:21:12.073335	218.2	45.6	-91.4	8.6
2025-01-27 10:21:13.225541	218.1	45.3	-91.2	11.9
2025-01-27 10:21:14.373077	218.0	44.9	-91.6	6.4
2025-01-27 10:21:15.529342	217.9	44.6	-91.1	7.6
2025-01-27 10:21:16.684682	217.8	44.3	-91.6	11.4
2025-01-27 10:21:17.833431	217.7	43.9	-91.4	15.1
2025-01-27 10:21:18.994905	217.7	43.6	-91.3	9.9
2025-01-27 10:21:20.145446	217.6	43.3	-91.3	11.7
2025-01-27 10:21:21.298351	217.5	43.0	-91.4	11.5
2025-01-27 10:21:22.452283	217.4	42.6	-91.4	14.5
2025-01-27 10:21:23.604205	217.4	42.3	-91.3	12.0
2025-01-27 10:21:24.767651	217.3	42.0	-91.6	13.0
2025-01-27 10:21:25.925265	217.2	41.7	-91.7	10.0
2025-01-27 10:21:27.080198	217.1	41.4	-91.1	8.2
2025-01-27 10:21:28.235750	217.1	41.1	-91.2	11.6
2025-01-27 10:21:29.388414	217.0	40.8	-91.2	8.6
2025-01-27 10:21:30.547657	216.9	40.5	-91.2	7.8
2025-01-27 10:21:31.700935	216.9	40.2	-91.5	13.2
2025-01-27 10:21:32.849376	216.8	39.9	-91.5	6.4
2025-01-27 10:21:33.997582	216.8	39.6	-91.6	6.3
2025-01-27 10:21:35.147011	216.7	39.3	-91.2	9.3
2025-01-27 10:21:36.300520	216.6	39.0	-91.2	8.6
2025-01-27 10:21:37.451935	216.6	38.7	-91.7	9.0
2025-01-27 10:21:38.603893	216.5	38.4	-91.8	8.2
2025-01-27 10:21:39.759632	216.5	38.1	-91.5	9.8
2025-01-27 10:21:40.908617	216.4	37.8	-91.2	11.3
2025-01-27 10:21:42.062808	216.4	37.6	-91.2	10.1
2025-01-27 10:21:43.215457	216.3	37.3	-91.4	9.6
2025-01-27 10:21:44.365150	216.3	37.0	-91.5	9.8
2025-01-27 10:21:45.511588	216.2	36.7	-91.5	9.2
2025-01-27 10:21:46.668800	216.2	36.5	-91.5	9.8
2025-01-27 10:21:47.821198	216.1	36.2	-91.6	10.6
2025-01-27 10:21:48.973261	216.1	35.9	-91.5	8.8
2025-01-27 10:21:50.132580	216.0	35.7	-91.4	10.7
2025-01-27 10:21:51.278122	216.0	35.4	-91.2	10.9
2025-01-27 10:21:52.426814	215.9	35.2	-91.3	9.3
2025-01-27 10:21:53.578069	215.9	34.9	-91.3	8.0
2025-01-27 10:21:54.733052	215.8	34.7	-91.4	11.0
2025-01-27 10:21:55.881940	215.8	34.4	-91.6	14.4
2025-01-27 10:21:57.037348	215.7	34.1	-91.3	12.4
2025-01-27 10:21:58.198693	215.7	33.9	-91.6	12.4
2025-01-27 10:21:59.344786	215.7	33.7	-91.2	9.7
2025-01-27 10:22:00.497538	215.6	33.4	-91.4	6.7
2025-01-27 10:22:01.649473	215.6	33.2	-91.5	10.6
2025-01-27 10:22:02.803656	215.5	32.9	-90.3	9.7
2025-01-27 10:22:03.958771	215.5	32.7	-90.6	8.2
2025-01-27 10:22:05.102577	215.5	32.4	-90.2	7.5
2025-01-27 10:22:06.262991	215.4	32.2	-90.6	9.3
2025-01-27 10:22:07.424313	215.4	32.0	-91.7	9.1
2025-01-27 10:22:08.582824	215.4	31.7	-91.5	10.2
2025-01-27 10:22:09.732989	215.3	31.5	-91.4	13.0
2025-01-27 10:22:10.881197	215.3	31.3	-91.5	12.5
2025-01-27 10:22:12.033139	215.3	31.1	-91.6	13.5
2025-01-27 10:22:13.182996	215.2	30.8	-91.2	11.7
2025-01-27 10:22:14.333293	215.2	30.6	-91.2	11.3
2025-01-27 10:22:15.491859	215.1	30.4	-91.3	7.4
2025-01-27 10:22:16.651312	215.1	30.2	-91.4	10.1
2025-01-27 10:22:17.803329	215.1	29.9	-91.4	10.4
2025-01-27 10:22:18.958629	215.1	29.7	-91.7	8.0
2025-01-27 10:22:20.113776	215.0	29.5	-91.6	6.6
2025-01-27 10:22:21.268836	215.0	29.3	-91.6	5.4
2025-01-27 10:22:22.420992	215.0	29.1	-91.6	6.3
2025-01-27 10:22:23.577142	214.9	28.9	-91.7	5.9
2025-01-27 10:22:24.732472	214.9	28.7	-91.1	6.6
2025-01-27 10:22:25.888834	214.9	28.5	-91.8	8.3
2025-01-27 10:22:27.042489	214.8	28.3	-91.6	5.7
2025-01-27 10:22:28.202419	214.8	28.1	-91.4	4.8
2025-01-27 10:22:29.359299	214.8	27.8	-91.8	6.5
2025-01-27 10:22:30.516165	214.8	27.6	-91.6	6.4
2025-01-27 10:22:31.664974	214.7	27.4	-91.8	7.5
2025-01-27 10:22:32.816554	214.7	27.3	-91.2	8.6
2025-01-27 10:22:33.969836	214.7	27.1	-91.4	5.4
2025-01-27 10:22:35.129211	214.7	26.9	-91.7	9.5
2025-01-27 10:22:36.281352	214.6	26.7	-91.2	7.6
2025-01-27 10:22:37.436336	214.6	26.5	-91.5	7.7
2025-01-27 10:22:38.595195	214.6	26.3	-91.7	8.0
2025-01-27 10:22:39.741794	214.6	26.1	-91.8	8.2
2025-01-27 10:22:40.898618	214.5	25.9	-91.9	11.4
2025-01-27 10:22:42.055258	214.5	25.7	-91.5	12.4
2025-01-27 10:22:43.216275	214.5	25.5	-91.6	10.0
2025-01-27 10:22:44.368486	214.5	25.3	-91.5	11.2
2025-01-27 10:22:45.521060	214.4	25.2	-91.6	9.5
2025-01-27 10:22:46.682090	214.4	25.0	-91.8	12.0
2025-01-27 10:22:47.844329	214.4	24.8	-91.8	10.8
2025-01-27 10:22:48.996753	214.4	24.6	-91.2	10.5
2025-01-27 10:22:50.153151	214.4	24.4	-91.0	11.0
2025-01-27 10:22:51.311561	214.3	24.3	-91.3	13.6
2025-01-27 10:22:52.477050	214.3	24.1	-91.2	8.0
2025-01-27 10:22:53.634378	214.3	23.9	-91.5	11.7
2025-01-27 10:22:54.796055	214.3	23.7	-91.5	12.5
2025-01-27 10:22:55.953938	214.2	23.5	-91.5	12.8
2025-01-27 10:22:57.115329	214.2	23.4	-91.1	10.9
2025-01-27 10:22:58.270044	214.2	23.2	-91.2	12.8
2025-01-27 10:22:59.417088	214.2	23.0	-91.7	7.9
2025-01-27 10:23:00.567072	214.2	22.9	-91.9	7.4
2025-01-27 10:23:01.726134	214.2	22.7	-91.7	10.7
2025-01-27 10:23:02.876988	214.1	22.5	-91.3	6.9
2025-01-27 10:23:04.031397	214.1	22.4	-91.6	7.1
2025-01-27 10:23:05.184130	214.1	22.2	-91.4	10.8
2025-01-27 10:23:06.338709	214.1	22.0	-91.5	8.7
2025-01-27 10:23:07.491859	214.1	21.9	-91.0	8.9
2025-01-27 10:23:08.644353	214.0	21.7	-91.2	11.0
2025-01-27 10:23:09.797381	214.0	21.6	-91.2	10.5
2025-01-27 10:23:10.947474	214.0	21.4	-91.5	10.1
2025-01-27 10:23:12.109634	214.0	21.2	-91.8	9.1
2025-01-27 10:23:13.271858	214.0	21.1	-91.7	10.2
2025-01-27 10:23:14.433681	214.0	20.9	-91.9	8.9
2025-01-27 10:23:15.584053	213.9	20.8	-91.9	7.6
2025-01-27 10:23:16.730634	213.9	20.6	-91.6	10.8
2025-01-27 10:23:17.885287	213.9	20.5	-91.9	7.9
2025-01-27 10:23:19.034362	213.9	20.3	-91.9	8.6
2025-01-27 10:23:20.187363	213.9	20.2	-91.7	10.8
2025-01-27 10:23:21.339684	213.9	20.0	-91.3	9.6
2025-01-27 10:23:22.485801	213.9	19.9	-91.7	11.3
2025-01-27 10:23:23.644015	213.8	19.7	-91.7	8.2
2025-01-27 10:23:24.800038	213.8	19.6	-92.0	9.7
2025-01-27 10:23:25.959587	213.8	19.4	-91.8	7.6
2025-01-27 10:23:27.107292	213.8	19.3	-91.5	7.8
2025-01-27 10:23:28.267530	213.8	19.1	-91.8	6.8
2025-01-27 10:23:29.422827	213.8	19.0	-91.4	6.0
2025-01-27 10:23:30.578264	213.8	18.8	-91.6	5.2
2025-01-27 10:23:31.733871	213.7	18.7	-91.7	7.5
2025-01-27 10:23:32.890247	213.7	18.6	-91.7	4.5
2025-01-27 10:23:34.036348	213.7	18.4	-91.8	3.9
2025-01-27 10:23:35.188875	213.7	18.3	-91.8	6.3
2025-01-27 10:23:36.346754	213.7	18.1	-91.6	5.6
2025-01-27 10:23:37.500134	213.7	18.0	-91.4	6.8
2025-01-27 10:23:38.651996	213.7	17.9	-91.6	7.5
2025-01-27 10:23:39.805235	213.6	17.7	-90.4	7.7
2025-01-27 10:23:40.956377	213.6	17.6	-91.8	5.9
2025-01-27 10:23:42.115225	213.6	17.4	-91.5	7.2
2025-01-27 10:23:43.269482	213.6	17.3	-91.4	6.8
2025-01-27 10:23:44.429494	213.6	17.2	-91.9	6.5
2025-01-27 10:23:45.583585	213.6	17.0	-91.9	5.5
2025-01-27 10:23:46.732807	213.6	16.9	-91.7	6.3
2025-01-27 10:23:47.897659	213.6	16.8	-91.9	6.6
2025-01-27 10:23:49.056149	213.6	16.6	-91.5	5.7
2025-01-27 10:23:50.205063	213.5	16.5	-88.3	4.1
2025-01-27 10:23:51.348893	213.5	16.4	-88.1	4.7
2025-01-27 10:23:52.506076	213.5	16.3	-91.4	7.4
2025-01-27 10:23:53.660433	213.5	16.1	-91.8	5.5
2025-01-27 10:23:54.812533	213.5	16.0	-91.9	5.0
2025-01-27 10:23:55.960835	213.5	15.9	-91.8	2.2
2025-01-27 10:23:57.111725	213.5	15.7	-91.8	5.5
2025-01-27 10:23:58.265751	213.5	15.6	-91.7	5.1
2025-01-27 10:23:59.417277	213.5	15.5	-91.7	4.0
2025-01-27 10:24:00.568422	213.4	15.4	-91.5	4.9
2025-01-27 10:24:01.730193	213.4	15.2	-91.7	6.6
2025-01-27 10:24:02.885991	213.4	15.1	-91.8	4.9
2025-01-27 10:24:04.031890	213.4	15.0	-91.6	5.3
2025-01-27 10:24:05.186991	213.4	14.9	-91.8	6.0
2025-01-27 10:24:06.338468	213.4	14.8	-91.6	5.4
2025-01-27 10:24:07.487878	213.4	14.6	-91.8	5.2
2025-01-27 10:24:08.645077	213.4	14.5	-91.1	3.8
#Closed at: 2025-01-27 10:14:55.479197