passes_logs/2026/01/04/XPeterburg/XPeterburg__20260104_122009_FENGYUN_3D_rec.log

#Pass ID: 20260104_122009_FENGYUN 3D
#Satellite: FENGYUN 3D
#Configuration: FENGYUN 3D
#Start time: 2026-01-04 12:20:04

#Version: 1.5.20200625
#Station: XPeterburg
#Location: 30.318091 lon 59.932769 lat
#TLE: 1 43010U 17072A   25359.21279514  .00000061  00000+0  50555-4 0  9990
#TLE: 2 43010  98.9914 325.7104 0001525 146.5453 213.5819 14.19687267420302

#Time	Az	El	Level	Level2	SNR	BER	Gain	Gain2
2026-01-04 12:20:04.46	151.54	67.93	-37.1	-37.8	3.7	8390682	92	2686
2026-01-04 12:20:04.66	151.50	68.02	-33.4	-36.5	5.0	7665412	79	3519
2026-01-04 12:20:04.86	151.47	68.11	-33.1	-33.6	8.8	7665412	83	2599
2026-01-04 12:20:05.06	151.43	68.20	-32.7	-32.6	9.2	5433780	83	2424
2026-01-04 12:20:05.26	151.40	68.29	-32.4	-31.8	9.7	257766	83	2308
2026-01-04 12:20:05.46	151.36	68.38	-32.2	-31.9	10.1	129615	82	2387
2026-01-04 12:20:05.67	151.33	68.48	-31.9	-31.3	10.4	129615	82	2305
2026-01-04 12:20:05.87	151.29	68.57	-31.6	-31.3	10.7	68664	81	2367
2026-01-04 12:20:06.07	151.26	68.66	-31.5	-30.9	11.0	37273	81	2307
2026-01-04 12:20:06.27	151.22	68.75	-31.3	-31.1	11.2	37273	80	2399
2026-01-04 12:20:06.47	151.18	68.84	-31.1	-30.8	11.4	21102	80	2358
2026-01-04 12:20:06.67	151.15	68.94	-31.0	-30.5	11.6	14099	80	2317
2026-01-04 12:20:06.87	151.11	69.03	-30.9	-30.2	11.7	14099	80	2279
2026-01-04 12:20:07.07	151.07	69.12	-30.5	-30.1	11.9	9052	79	2325
2026-01-04 12:20:07.27	151.03	69.21	-30.4	-29.8	12.0	5527	79	2285
2026-01-04 12:20:07.48	150.99	69.31	-30.3	-29.5	12.2	5527	79	2250
2026-01-04 12:20:07.68	150.95	69.40	-30.3	-30.0	12.3	3776	78	2384
2026-01-04 12:20:07.88	150.91	69.49	-30.2	-29.9	12.4	2471	78	2373
2026-01-04 12:20:08.08	150.87	69.58	-30.1	-29.7	12.5	2471	78	2340
2026-01-04 12:20:08.28	150.83	69.67	-30.2	-29.7	12.5	1991	78	2346
2026-01-04 12:20:08.48	150.79	69.76	-30.2	-29.8	12.4	1911	78	2359
2026-01-04 12:20:08.68	150.75	69.86	-30.3	-30.0	12.3	2094	78	2378
2026-01-04 12:20:08.88	150.71	69.95	-30.4	-30.1	12.2	2094	78	2400
2026-01-04 12:20:09.08	150.67	70.04	-30.5	-30.5	12.1	2792	78	2447
2026-01-04 12:20:09.28	150.63	70.13	-30.7	-30.9	11.8	4257	78	2511
2026-01-04 12:20:09.49	150.58	70.23	-30.9	-31.3	11.5	4257	78	2578
2026-01-04 12:20:09.69	150.54	70.32	-31.1	-31.2	11.2	9304	79	2489
2026-01-04 12:20:09.89	150.50	70.42	-31.4	-31.8	10.9	18928	79	2587
2026-01-04 12:20:10.09	150.45	70.51	-31.8	-32.2	10.6	18928	80	2561
2026-01-04 12:20:10.29	150.41	70.60	-31.8	-32.0	10.7	38005	80	2534
2026-01-04 12:20:10.49	150.36	70.69	-31.8	-32.1	10.6	42858	80	2555
2026-01-04 12:20:10.69	150.32	70.79	-32.0	-32.0	10.3	42858	81	2474
2026-01-04 12:20:10.89	150.27	70.88	-31.6	-31.3	10.7	54622	81	2360
2026-01-04 12:20:11.09	150.23	70.97	-31.9	-31.9	10.4	42388	81	2457
2026-01-04 12:20:11.30	150.18	71.07	-31.6	-31.1	10.8	42388	81	2336
2026-01-04 12:20:11.50	150.13	71.16	-31.6	-31.2	10.8	49278	81	2354
2026-01-04 12:20:11.70	150.08	71.26	-31.6	-31.2	10.7	34858	81	2345
2026-01-04 12:20:11.90	150.03	71.35	-31.4	-30.8	10.9	35499	81	2301
2026-01-04 12:20:12.10	149.99	71.44	-31.3	-30.5	11.1	35499	81	2253
2026-01-04 12:20:12.30	149.94	71.54	-31.2	-30.8	11.3	24341	80	2356
2026-01-04 12:20:12.50	149.89	71.63	-31.4	-31.2	11.1	18218	80	2408
2026-01-04 12:20:12.70	149.84	71.72	-31.3	-31.1	11.1	18218	80	2394
2026-01-04 12:20:12.90	149.78	71.82	-31.2	-30.9	11.3	21366	80	2362
2026-01-04 12:20:13.10	149.73	71.91	-31.3	-31.1	11.2	17292	80	2395
2026-01-04 12:20:13.31	149.68	72.01	-31.1	-30.6	11.5	17292	80	2322
2026-01-04 12:20:13.51	149.63	72.10	-31.3	-31.0	11.3	14156	80	2385
2026-01-04 12:20:13.71	149.57	72.20	-31.2	-30.7	11.5	14099	80	2342
2026-01-04 12:20:13.91	149.52	72.29	-31.1	-30.7	11.5	14099	80	2336
2026-01-04 12:20:14.11	149.46	72.38	-31.0	-30.4	11.7	11569	80	2304
2026-01-04 12:20:14.31	149.41	72.48	-31.0	-30.3	11.8	8525	80	2287
2026-01-04 12:20:14.51	149.35	72.57	-30.9	-30.3	11.8	7301	80	2288
2026-01-04 12:20:14.71	149.30	72.67	-31.0	-30.5	11.8	7301	80	2315
2026-01-04 12:20:14.91	149.24	72.76	-31.1	-30.7	11.6	7003	80	2349
2026-01-04 12:20:15.11	149.18	72.86	-31.1	-30.7	11.6	8903	80	2336
2026-01-04 12:20:15.32	149.12	72.95	-31.2	-30.7	11.6	8903	80	2349
2026-01-04 12:20:15.52	149.06	73.05	-31.2	-30.9	11.5	9841	80	2365
2026-01-04 12:20:15.72	149.00	73.14	-31.2	-30.9	11.5	11672	80	2376
2026-01-04 12:20:15.92	148.94	73.24	-31.2	-30.9	11.5	11672	80	2369
2026-01-04 12:20:16.12	148.88	73.33	-31.2	-30.9	11.4	11672	80	2372
2026-01-04 12:20:16.32	148.82	73.43	-31.4	-31.2	11.3	13744	80	2420
2026-01-04 12:20:16.52	148.76	73.52	-31.3	-31.1	11.3	13744	80	2395
2026-01-04 12:20:16.72	148.69	73.62	-31.4	-31.1	11.3	15529	80	2397
2026-01-04 12:20:16.93	148.62	73.72	-31.3	-31.0	11.5	14133	80	2392
2026-01-04 12:20:17.13	148.56	73.81	-31.2	-31.0	11.5	13023	80	2379
2026-01-04 12:20:17.33	148.49	73.91	-31.1	-30.6	11.7	13023	80	2329
2026-01-04 12:20:17.53	148.43	74.00	-31.1	-30.6	11.7	9704	80	2318
2026-01-04 12:20:17.73	148.36	74.10	-31.0	-30.4	11.8	7644	80	2305
2026-01-04 12:20:17.93	148.29	74.19	-31.1	-30.6	11.8	7644	80	2325
2026-01-04 12:20:18.13	148.22	74.29	-31.0	-30.4	11.9	6500	80	2302
2026-01-04 12:20:18.33	148.15	74.38	-31.0	-30.5	11.9	5470	80	2315
2026-01-04 12:20:18.53	148.08	74.48	-31.1	-30.6	11.9	5470	80	2324
2026-01-04 12:20:18.74	148.00	74.58	-31.1	-30.6	11.9	6134	80	2334
2026-01-04 12:20:18.94	147.93	74.67	-31.1	-30.7	11.9	5985	80	2342
2026-01-04 12:20:19.14	147.86	74.77	-31.1	-30.7	11.9	5985	80	2337
2026-01-04 12:20:19.34	147.78	74.86	-31.2	-30.8	11.9	5046	80	2366
2026-01-04 12:20:19.54	147.71	74.96	-31.2	-30.8	11.9	5241	80	2353
2026-01-04 12:20:19.74	147.63	75.05	-31.2	-30.9	11.8	5241	80	2367
2026-01-04 12:20:19.94	147.55	75.15	-31.1	-30.7	12.0	5630	80	2342
2026-01-04 12:20:20.14	147.47	75.25	-31.1	-30.6	12.0	5344	80	2335
2026-01-04 12:20:20.34	147.39	75.34	-31.0	-30.5	12.1	4119	80	2319
2026-01-04 12:20:20.54	147.31	75.44	-31.0	-30.4	12.2	4119	80	2304
2026-01-04 12:20:20.74	147.23	75.53	-30.9	-30.2	12.3	3330	80	2284
2026-01-04 12:20:20.95	147.14	75.63	-30.8	-30.1	12.4	2826	80	2266
2026-01-04 12:20:21.15	147.05	75.73	-30.8	-30.0	12.5	2826	80	2249
2026-01-04 12:20:21.35	146.97	75.83	-30.9	-30.3	12.3	2334	80	2290
2026-01-04 12:20:21.55	146.88	75.92	-31.0	-30.4	12.2	2746	80	2309
2026-01-04 12:20:21.75	146.79	76.02	-31.1	-30.7	12.1	2746	80	2343
2026-01-04 12:20:21.95	146.70	76.11	-31.2	-30.9	12.0	3501	80	2380
2026-01-04 12:20:22.15	146.61	76.21	-31.2	-31.0	11.9	4829	80	2401
2026-01-04 12:20:22.35	146.52	76.31	-31.3	-31.2	11.8	4829	80	2425
2026-01-04 12:20:22.55	146.43	76.40	-31.3	-31.2	11.8	6065	80	2433
2026-01-04 12:20:22.76	146.33	76.50	-31.3	-31.1	11.8	7312	80	2415
2026-01-04 12:20:22.96	146.23	76.60	-31.2	-31.0	11.9	7312	80	2391
2026-01-04 12:20:23.16	146.13	76.69	-31.1	-30.6	12.0	6271	80	2341
2026-01-04 12:20:23.36	146.03	76.79	-31.0	-30.5	12.2	5355	80	2329
2026-01-04 12:20:23.56	145.93	76.89	-30.8	-30.1	12.3	3490	80	2274
2026-01-04 12:20:23.76	145.83	76.98	-30.5	-30.0	12.4	3490	79	2321
2026-01-04 12:20:23.96	145.72	77.08	-30.5	-29.8	12.5	2471	79	2293
2026-01-04 12:20:24.16	145.62	77.18	-30.4	-29.6	12.6	1934	79	2261
2026-01-04 12:20:24.36	145.51	77.27	-30.3	-29.5	12.6	1934	79	2243
2026-01-04 12:20:24.56	145.40	77.37	-29.8	-29.5	12.6	1647	78	2386
2026-01-04 12:20:24.76	145.29	77.46	-30.3	-30.0	12.6	1419	78	2380
2026-01-04 12:20:24.97	145.17	77.57	-30.2	-29.8	12.7	1419	78	2343
2026-01-04 12:20:25.17	145.06	77.66	-30.1	-29.6	12.8	1121	78	2316
2026-01-04 12:20:25.37	144.94	77.76	-30.0	-29.4	12.9	1007	78	2289
2026-01-04 12:20:25.57	144.82	77.85	-29.9	-29.2	13.0	755	78	2258
2026-01-04 12:20:25.77	144.70	77.95	-29.8	-28.9	13.0	755	78	2223
2026-01-04 12:20:25.97	144.58	78.05	-29.7	-29.3	13.1	686	77	2334
2026-01-04 12:20:26.17	144.46	78.14	-29.7	-29.1	13.1	480	77	2314
2026-01-04 12:20:26.37	144.33	78.24	-29.6	-29.1	13.1	480	77	2304
2026-01-04 12:20:26.57	144.20	78.34	-29.6	-28.9	13.2	457	77	2283
2026-01-04 12:20:26.77	144.07	78.43	-29.5	-28.8	13.2	514	77	2268
2026-01-04 12:20:26.98	143.93	78.53	-29.5	-28.7	13.2	514	77	2254
2026-01-04 12:20:27.18	143.79	78.63	-29.4	-28.6	13.3	343	77	2238
2026-01-04 12:20:27.38	143.66	78.73	-29.4	-28.5	13.3	286	77	2227
2026-01-04 12:20:27.58	143.52	78.82	-29.5	-28.7	13.2	286	77	2247
2026-01-04 12:20:27.78	143.37	78.92	-29.4	-28.6	13.3	228	77	2237
2026-01-04 12:20:27.98	143.23	79.02	-29.4	-28.6	13.2	251	77	2238
2026-01-04 12:20:28.18	143.08	79.11	-29.5	-28.7	13.2	251	77	2250
2026-01-04 12:20:28.38	142.93	79.21	-29.6	-28.9	13.1	343	77	2279
2026-01-04 12:20:28.58	142.78	79.30	-29.7	-29.1	13.0	560	77	2312
2026-01-04 12:20:28.78	142.62	79.40	-29.8	-29.5	12.8	617	77	2366
2026-01-04 12:20:28.99	142.45	79.50	-30.0	-29.8	12.7	617	77	2411
2026-01-04 12:20:29.19	142.29	79.60	-30.1	-30.1	12.6	1018	77	2460
2026-01-04 12:20:29.39	142.12	79.69	-30.3	-30.4	12.4	1544	77	2504
2026-01-04 12:20:29.59	141.95	79.79	-30.5	-30.9	12.2	1544	77	2588
2026-01-04 12:20:29.79	141.78	79.89	-30.7	-30.8	12.1	2735	78	2488
2026-01-04 12:20:29.99	141.61	79.98	-30.5	-30.5	12.3	2414	78	2443
2026-01-04 12:20:30.19	141.43	80.08	-30.6	-30.5	12.3	2414	78	2452
2026-01-04 12:20:30.39	141.25	80.17	-30.6	-30.8	12.2	2838	78	2490
2026-01-04 12:20:30.60	141.05	80.27	-30.6	-30.6	12.3	2574	78	2461
2026-01-04 12:20:30.80	140.86	80.37	-30.5	-30.4	12.5	2574	78	2429
2026-01-04 12:20:31.00	140.67	80.46	-30.3	-30.0	12.7	2323	78	2374
2026-01-04 12:20:31.20	140.47	80.56	-30.4	-30.2	12.7	1888	78	2410
2026-01-04 12:20:31.40	140.27	80.66	-30.5	-30.4	12.6	1888	78	2436
2026-01-04 12:20:31.60	140.06	80.75	-30.3	-30.0	12.8	1441	78	2377
2026-01-04 12:20:31.80	139.85	80.85	-30.2	-29.8	12.8	1281	78	2343
2026-01-04 12:20:32.00	139.63	80.94	-30.2	-29.8	12.8	904	78	2355
2026-01-04 12:20:32.20	139.42	81.04	-30.1	-29.6	13.0	904	78	2322
2026-01-04 12:20:32.40	139.19	81.13	-30.2	-29.8	12.8	732	78	2355
2026-01-04 12:20:32.61	138.95	81.23	-30.1	-29.6	13.0	698	78	2329
2026-01-04 12:20:32.81	138.71	81.33	-30.0	-29.4	13.1	698	78	2299
2026-01-04 12:20:33.01	138.47	81.42	-30.1	-29.6	13.0	549	78	2328
2026-01-04 12:20:33.21	138.23	81.52	-30.2	-29.8	12.9	663	78	2353
2026-01-04 12:20:33.41	137.98	81.61	-30.3	-29.9	12.9	663	78	2371
2026-01-04 12:20:33.61	137.72	81.71	-30.3	-30.0	12.8	926	78	2378
2026-01-04 12:20:33.81	137.46	81.80	-30.4	-30.2	12.7	1018	78	2413
2026-01-04 12:20:34.01	137.19	81.89	-30.3	-29.9	12.9	995	78	2370
2026-01-04 12:20:34.21	136.91	81.99	-30.1	-29.6	13.1	995	78	2326
2026-01-04 12:20:34.41	136.63	82.08	-30.1	-29.6	13.1	572	78	2327
2026-01-04 12:20:34.61	136.34	82.18	-29.9	-29.2	13.3	526	78	2260
2026-01-04 12:20:34.82	136.03	82.27	-29.7	-29.2	13.6	526	77	2322
2026-01-04 12:20:35.02	135.73	82.37	-29.7	-29.1	13.6	194	77	2313
2026-01-04 12:20:35.22	135.41	82.46	-29.5	-28.9	13.8	114	77	2287
2026-01-04 12:20:35.42	135.09	82.55	-29.5	-28.8	13.8	114	77	2270
2026-01-04 12:20:35.62	134.77	82.65	-29.7	-29.2	13.6	45	77	2320
2026-01-04 12:20:35.82	134.43	82.74	-29.8	-29.4	13.5	160	77	2348
2026-01-04 12:20:36.02	134.09	82.83	-29.8	-29.5	13.4	160	77	2376
2026-01-04 12:20:36.22	133.73	82.92	-30.2	-30.2	13.1	194	77	2464
2026-01-04 12:20:36.42	133.37	83.01	-30.3	-30.5	12.9	457	77	2517
2026-01-04 12:20:36.62	132.99	83.11	-30.5	-30.9	12.7	457	77	2569
2026-01-04 12:20:36.83	132.59	83.20	-30.8	-30.9	12.4	949	78	2512
2026-01-04 12:20:37.03	132.20	83.29	-30.8	-31.1	12.3	2002	78	2530
2026-01-04 12:20:37.23	131.79	83.38	-30.9	-31.1	12.3	3021	78	2544
2026-01-04 12:20:37.43	131.38	83.47	-30.8	-31.1	12.3	3021	78	2530
2026-01-04 12:20:37.63	130.95	83.56	-30.9	-31.2	12.3	2552	78	2552
2026-01-04 12:20:37.83	130.51	83.65	-30.9	-31.2	12.3	2723	78	2545
2026-01-04 12:20:38.03	130.05	83.74	-30.8	-31.0	12.4	2723	78	2521
2026-01-04 12:20:38.23	129.59	83.83	-30.9	-31.3	12.2	2964	78	2557
2026-01-04 12:20:38.44	129.08	83.93	-30.9	-31.3	12.2	3021	78	2558
2026-01-04 12:20:38.64	128.59	84.01	-30.9	-30.8	12.1	3021	79	2421
2026-01-04 12:20:38.84	128.08	84.10	-31.1	-31.1	12.0	3799	79	2470
2026-01-04 12:20:39.04	127.55	84.19	-31.2	-31.4	11.8	5081	79	2514
2026-01-04 12:20:39.24	127.01	84.28	-31.4	-31.8	11.5	5081	79	2585
2026-01-04 12:20:39.44	126.45	84.36	-31.8	-32.1	11.3	8777	80	2559
2026-01-04 12:20:39.64	125.88	84.45	-32.0	-32.1	10.9	16193	81	2476
2026-01-04 12:20:39.84	125.28	84.53	-32.2	-32.4	10.7	16193	81	2535
2026-01-04 12:20:40.04	124.67	84.62	-32.4	-32.8	10.5	30544	81	2600
2026-01-04 12:20:40.24	124.04	84.70	-32.5	-32.7	10.3	49770	82	2520
2026-01-04 12:20:40.45	123.35	84.79	-32.6	-32.9	10.2	73631	82	2538
2026-01-04 12:20:40.65	122.67	84.87	-32.7	-33.1	10.1	73631	82	2570
2026-01-04 12:20:40.85	121.98	84.95	-32.8	-33.2	10.0	87673	82	2591
2026-01-04 12:20:41.05	121.26	85.03	-32.7	-33.1	10.1	89618	82	2572
2026-01-04 12:20:41.25	120.51	85.11	-32.6	-32.9	10.2	89618	82	2534
2026-01-04 12:20:41.45	119.74	85.19	-32.5	-32.7	10.3	77259	82	2501
2026-01-04 12:20:41.65	118.95	85.27	-32.5	-32.5	10.5	61958	82	2463
2026-01-04 12:20:41.85	118.13	85.35	-32.4	-32.4	10.6	61958	82	2455
2026-01-04 12:20:42.05	117.28	85.43	-32.3	-32.2	10.7	47950	82	2430
2026-01-04 12:20:42.25	116.40	85.50	-32.3	-32.2	10.6	42675	82	2419
2026-01-04 12:20:42.46	115.44	85.58	-32.4	-32.3	10.6	42675	82	2426
2026-01-04 12:20:42.66	114.50	85.65	-32.5	-32.4	10.5	44506	82	2452
2026-01-04 12:20:42.86	113.53	85.73	-32.5	-32.6	10.4	49850	82	2476
2026-01-04 12:20:43.06	112.52	85.80	-32.5	-32.5	10.4	49850	82	2459
2026-01-04 12:20:43.26	111.48	85.87	-32.6	-32.7	10.3	59806	82	2489
2026-01-04 12:20:43.46	110.40	85.94	-32.6	-32.8	10.2	62782	82	2507
2026-01-04 12:20:43.66	109.29	86.00	-32.6	-32.8	10.2	69065	82	2514
2026-01-04 12:20:43.86	108.14	86.07	-32.6	-32.8	10.2	69065	82	2513
2026-01-04 12:20:44.06	106.95	86.13	-32.8	-33.2	10.1	76686	82	2571
2026-01-04 12:20:44.26	105.72	86.19	-32.8	-33.2	10.0	86563	82	2580
2026-01-04 12:20:44.47	104.39	86.26	-32.9	-33.5	9.9	86563	82	2617
2026-01-04 12:20:44.67	103.08	86.31	-32.9	-33.0	9.8	101291	83	2477
2026-01-04 12:20:44.87	101.72	86.37	-33.0	-33.2	9.7	122955	83	2515
2026-01-04 12:20:45.07	100.33	86.42	-33.0	-33.2	9.7	122955	83	2511
2026-01-04 12:20:45.27	98.89	86.48	-33.1	-33.4	9.6	142593	83	2542
2026-01-04 12:20:45.47	97.41	86.53	-33.1	-33.4	9.6	152011	83	2549
2026-01-04 12:20:45.67	95.89	86.57	-33.2	-33.6	9.5	167747	83	2570
2026-01-04 12:20:45.87	94.33	86.62	-33.2	-33.7	9.4	167747	83	2585
2026-01-04 12:20:46.07	92.72	86.66	-33.3	-33.8	9.4	182636	83	2598
2026-01-04 12:20:46.27	91.08	86.70	-33.3	-33.9	9.3	199184	83	2627
2026-01-04 12:20:46.48	89.32	86.74	-33.4	-34.0	9.3	199184	83	2641
2026-01-04 12:20:46.68	87.60	86.77	-33.4	-34.1	9.2	217803	83	2654
2026-01-04 12:20:46.88	85.84	86.80	-33.5	-34.2	9.2	236892	83	2679
2026-01-04 12:20:47.08	84.05	86.83	-33.5	-34.2	9.2	236892	83	2693
2026-01-04 12:20:47.28	82.24	86.86	-33.5	-33.9	9.1	252353	84	2557
2026-01-04 12:20:47.48	80.39	86.88	-33.6	-34.0	9.0	268707	84	2587
2026-01-04 12:20:47.68	78.52	86.89	-33.6	-34.0	9.1	268707	84	2583
2026-01-04 12:20:47.88	76.64	86.91	-33.6	-34.0	9.1	270080	84	2586
2026-01-04 12:20:48.08	74.73	86.92	-33.6	-34.0	9.1	263900	84	2592
2026-01-04 12:20:48.28	72.82	86.93	-33.5	-33.9	9.2	263900	84	2566
2026-01-04 12:20:48.49	70.80	86.93	-33.6	-33.9	9.2	260398	84	2567
2026-01-04 12:20:48.69	68.87	86.93	-33.5	-33.9	9.2	250236	84	2565
2026-01-04 12:20:48.89	66.95	86.93	-33.6	-34.1	9.2	239570	84	2598
2026-01-04 12:20:49.09	65.03	86.93	-33.6	-34.1	9.2	239570	84	2597
2026-01-04 12:20:49.29	63.12	86.92	-33.7	-34.2	9.2	242786	84	2627
2026-01-04 12:20:49.49	61.22	86.90	-33.7	-34.2	9.2	253063	84	2627
2026-01-04 12:20:49.69	59.34	86.89	-33.7	-34.4	9.0	253063	84	2655
2026-01-04 12:20:49.89	57.48	86.87	-33.7	-34.4	9.1	268249	84	2658
2026-01-04 12:20:50.09	55.65	86.84	-33.7	-34.4	9.0	273525	84	2652
2026-01-04 12:20:50.29	53.85	86.82	-33.7	-34.4	9.0	273525	84	2656
2026-01-04 12:20:50.50	51.99	86.79	-33.7	-34.4	9.0	297546	84	2659
2026-01-04 12:20:50.70	50.25	86.76	-33.7	-34.4	9.0	302455	84	2647
2026-01-04 12:20:50.90	48.55	86.72	-33.7	-34.3	9.0	302455	84	2626
2026-01-04 12:20:51.10	46.88	86.68	-33.7	-34.3	9.0	297786	84	2634
2026-01-04 12:20:51.30	45.26	86.64	-33.7	-34.3	9.0	291034	84	2643
2026-01-04 12:20:51.50	43.67	86.60	-33.7	-34.3	8.9	291034	84	2642
2026-01-04 12:20:51.70	42.13	86.55	-33.7	-34.4	8.9	300739	84	2653
2026-01-04 12:20:51.90	40.63	86.50	-33.7	-34.4	8.8	320800	84	2671
2026-01-04 12:20:52.11	39.09	86.45	-33.8	-34.5	8.8	356254	84	2679
2026-01-04 12:20:52.31	37.68	86.40	-33.8	-34.7	8.7	356254	84	2713
2026-01-04 12:20:52.51	36.30	86.34	-33.8	-34.7	8.7	390541	84	2723
2026-01-04 12:20:52.71	34.97	86.29	-33.8	-34.8	8.6	418807	84	2736
2026-01-04 12:20:52.91	33.68	86.23	-33.8	-34.7	8.7	418807	84	2722
2026-01-04 12:20:53.11	32.43	86.17	-33.7	-34.4	8.9	417560	84	2686
2026-01-04 12:20:53.31	31.22	86.10	-33.5	-34.1	9.0	349903	84	2626
2026-01-04 12:20:53.51	30.05	86.04	-33.3	-33.6	9.3	264461	84	2545
2026-01-04 12:20:53.71	28.91	85.97	-33.1	-33.2	9.6	264461	84	2470
2026-01-04 12:20:53.91	27.82	85.91	-32.9	-32.6	9.9	172302	84	2379
2026-01-04 12:20:54.11	26.75	85.84	-32.7	-32.7	10.2	99918	83	2455
2026-01-04 12:20:54.31	25.73	85.77	-32.5	-32.2	10.5	99918	83	2373
2026-01-04 12:20:54.52	24.69	85.69	-32.3	-31.8	10.8	58982	83	2321
2026-01-04 12:20:54.72	23.73	85.62	-32.3	-32.2	11.0	33840	82	2439
2026-01-04 12:20:54.92	22.80	85.55	-32.1	-31.9	11.2	33840	82	2401
2026-01-04 12:20:55.12	21.91	85.47	-32.1	-31.8	11.3	22075	82	2382
2026-01-04 12:20:55.32	21.04	85.39	-32.0	-31.7	11.3	16021	82	2374
2026-01-04 12:20:55.52	20.21	85.32	-32.0	-31.7	11.4	16021	82	2369
2026-01-04 12:20:55.72	19.40	85.24	-32.0	-31.6	11.4	14854	82	2359
2026-01-04 12:20:55.92	18.61	85.16	-32.0	-31.6	11.4	14293	82	2352
2026-01-04 12:20:56.12	17.86	85.08	-31.9	-31.4	11.4	14293	82	2337
2026-01-04 12:20:56.32	17.12	85.00	-31.9	-31.4	11.4	13504	82	2331
2026-01-04 12:20:56.53	16.38	84.91	-31.9	-31.4	11.4	13343	82	2332
2026-01-04 12:20:56.73	15.69	84.83	-31.9	-31.4	11.4	13343	82	2341
2026-01-04 12:20:56.93	15.03	84.75	-31.8	-31.3	11.5	13732	82	2322
2026-01-04 12:20:57.13	14.38	84.66	-31.8	-31.3	11.5	13114	82	2324
2026-01-04 12:20:57.33	13.76	84.58	-31.8	-31.7	11.5	11993	81	2434
2026-01-04 12:20:57.53	13.15	84.50	-31.6	-31.4	11.7	11993	81	2389
2026-01-04 12:20:57.73	12.57	84.41	-31.5	-31.2	11.8	9006	81	2358
2026-01-04 12:20:57.93	12.00	84.32	-31.4	-30.8	12.0	6317	81	2313
2026-01-04 12:20:58.13	11.45	84.24	-31.3	-31.1	12.2	6317	80	2421
2026-01-04 12:20:58.34	10.89	84.15	-31.1	-30.7	12.4	4085	80	2353
2026-01-04 12:20:58.54	10.37	84.06	-30.9	-30.3	12.6	1842	80	2302
2026-01-04 12:20:58.74	9.87	83.97	-30.8	-30.0	12.8	1842	80	2247
2026-01-04 12:20:58.94	9.38	83.88	-30.4	-29.8	13.0	1224	79	2283
2026-01-04 12:20:59.14	8.91	83.79	-30.3	-29.4	13.1	789	79	2233
2026-01-04 12:20:59.34	8.45	83.70	-30.2	-29.7	13.3	789	78	2343
2026-01-04 12:20:59.54	8.00	83.62	-30.1	-29.6	13.3	480	78	2323
2026-01-04 12:20:59.74	7.56	83.53	-30.1	-29.5	13.3	286	78	2313
2026-01-04 12:20:59.94	7.14	83.44	-30.0	-29.4	13.4	286	78	2297
2026-01-04 12:21:00.15	6.71	83.34	-30.1	-29.5	13.3	240	78	2312
2026-01-04 12:21:00.35	6.31	83.25	-30.1	-29.7	13.2	366	78	2342
2026-01-04 12:21:00.55	5.92	83.16	-30.1	-29.7	13.2	320	78	2344
2026-01-04 12:21:00.75	5.54	83.07	-30.1	-29.7	13.3	320	78	2341
2026-01-04 12:21:00.95	5.17	82.98	-30.1	-29.7	13.3	400	78	2337
2026-01-04 12:21:01.15	4.81	82.88	-30.1	-29.7	13.3	377	78	2341
2026-01-04 12:21:01.35	4.46	82.79	-30.0	-29.4	13.4	377	78	2302
2026-01-04 12:21:01.55	4.12	82.70	-29.9	-29.2	13.5	240	78	2271
2026-01-04 12:21:01.75	3.79	82.61	-29.8	-29.1	13.5	171	78	2255
2026-01-04 12:21:01.95	3.47	82.51	-29.7	-29.2	13.6	171	77	2340
2026-01-04 12:21:02.15	3.15	82.42	-29.6	-29.1	13.6	217	77	2326
2026-01-04 12:21:02.36	2.83	82.32	-29.6	-29.1	13.7	171	77	2321
2026-01-04 12:21:02.56	2.53	82.23	-29.5	-28.9	13.7	171	77	2299
2026-01-04 12:21:02.76	2.23	82.14	-29.5	-28.8	13.7	68	77	2285
2026-01-04 12:21:02.96	1.95	82.04	-29.5	-28.9	13.7	68	77	2298
2026-01-04 12:21:03.16	1.67	81.95	-29.5	-28.8	13.7	160	77	2290
2026-01-04 12:21:03.36	1.40	81.85	-29.5	-28.8	13.7	160	77	2291
2026-01-04 12:21:03.56	1.13	81.76	-29.5	-29.0	13.6	57	77	2317
2026-01-04 12:21:03.76	0.87	81.67	-29.5	-29.0	13.6	114	77	2320
2026-01-04 12:21:03.96	0.61	81.57	-29.6	-29.1	13.6	114	77	2329
2026-01-04 12:21:04.17	0.35	81.47	-29.6	-29.1	13.6	45	77	2327
2026-01-04 12:21:04.37	0.11	81.38	-29.5	-28.9	13.7	183	77	2303
2026-01-04 12:21:04.57	359.87	81.28	-29.5	-29.0	13.6	183	77	2310
2026-01-04 12:21:04.77	359.64	81.19	-29.5	-29.0	13.6	171	77	2311
2026-01-04 12:21:04.97	359.41	81.09	-29.4	-28.7	13.7	91	77	2266
2026-01-04 12:21:05.17	359.19	81.00	-29.4	-28.7	13.7	171	77	2271
2026-01-04 12:21:05.37	358.97	80.90	-29.3	-28.6	13.8	171	77	2249
2026-01-04 12:21:05.57	358.76	80.81	-29.3	-28.4	13.8	80	77	2224
2026-01-04 12:21:05.77	358.55	80.71	-29.3	-29.0	13.8	91	76	2367
2026-01-04 12:21:05.97	358.35	80.62	-29.2	-28.7	14.0	91	76	2327
2026-01-04 12:21:06.18	358.14	80.52	-29.0	-28.4	14.1	68	76	2295
2026-01-04 12:21:06.38	357.94	80.42	-29.0	-28.3	14.1	34	76	2268
2026-01-04 12:21:06.58	357.75	80.33	-28.9	-28.0	14.2	34	76	2239
2026-01-04 12:21:06.78	357.56	80.23	-28.8	-27.8	14.2	45	76	2211
2026-01-04 12:21:06.98	357.38	80.13	-28.6	-27.9	14.2	11	75	2288
2026-01-04 12:21:07.18	357.20	80.04	-28.5	-27.8	14.3	11	75	2275
2026-01-04 12:21:07.38	357.02	79.94	-28.5	-27.7	14.3	0	75	2260
2026-01-04 12:21:07.58	356.84	79.85	-28.5	-27.8	14.3	34	75	2269
2026-01-04 12:21:07.78	356.67	79.75	-28.5	-27.8	14.2	34	75	2263
2026-01-04 12:21:07.98	356.51	79.66	-28.5	-27.8	14.3	34	75	2262
2026-01-04 12:21:08.19	356.33	79.55	-28.5	-27.7	14.3	45	75	2260
2026-01-04 12:21:08.39	356.17	79.46	-28.4	-27.7	14.3	45	75	2260
2026-01-04 12:21:08.59	356.02	79.36	-28.4	-27.7	14.3	11	75	2264
2026-01-04 12:21:08.79	355.86	79.27	-28.4	-27.7	14.4	22	75	2257
2026-01-04 12:21:08.99	355.71	79.17	-28.4	-27.6	14.5	22	75	2250
2026-01-04 12:21:09.19	355.56	79.07	-28.4	-27.5	14.5	22	75	2240
2026-01-04 12:21:09.39	355.41	78.98	-28.4	-27.6	14.6	0	75	2245
2026-01-04 12:21:09.59	355.27	78.88	-28.3	-27.5	14.6	0	75	2238
2026-01-04 12:21:09.79	355.13	78.79	-28.4	-27.7	14.5	0	75	2259
2026-01-04 12:21:10.00	354.98	78.68	-28.4	-27.7	14.6	0	75	2262
2026-01-04 12:21:10.20	354.84	78.59	-28.4	-27.8	14.6	0	75	2274
2026-01-04 12:21:10.40	354.71	78.49	-28.5	-27.9	14.5	0	75	2296
2026-01-04 12:21:10.60	354.58	78.40	-28.6	-28.1	14.4	22	75	2314
2026-01-04 12:21:10.80	354.45	78.30	-28.6	-28.2	14.4	0	75	2331
2026-01-04 12:21:11.00	354.32	78.20	-28.7	-28.2	14.4	0	75	2340
2026-01-04 12:21:11.20	354.19	78.11	-28.6	-28.2	14.4	45	75	2338
2026-01-04 12:21:11.40	354.07	78.01	-28.7	-28.3	14.4	34	75	2344
2026-01-04 12:21:11.60	353.95	77.91	-28.7	-28.2	14.4	34	75	2343
2026-01-04 12:21:11.81	353.82	77.81	-28.7	-28.3	14.4	22	75	2360
2026-01-04 12:21:12.01	353.71	77.72	-28.7	-28.3	14.4	11	75	2348
2026-01-04 12:21:12.21	353.59	77.62	-28.7	-28.2	14.5	0	75	2341
2026-01-04 12:21:12.41	353.48	77.53	-28.6	-28.2	14.5	0	75	2331
2026-01-04 12:21:12.61	353.37	77.43	-28.6	-28.1	14.5	11	75	2330
2026-01-04 12:21:12.81	353.25	77.33	-28.7	-28.2	14.5	11	75	2335
2026-01-04 12:21:13.01	353.15	77.24	-28.6	-28.1	14.6	11	75	2316
2026-01-04 12:21:13.21	353.04	77.14	-28.6	-28.2	14.6	0	75	2339
2026-01-04 12:21:13.41	352.93	77.04	-28.7	-28.2	14.5	22	75	2343
2026-01-04 12:21:13.61	352.83	76.95	-28.7	-28.3	14.5	11	75	2355
2026-01-04 12:21:13.81	352.73	76.85	-28.8	-28.4	14.4	11	75	2366
2026-01-04 12:21:14.02	352.62	76.75	-28.8	-28.5	14.3	0	75	2383
2026-01-04 12:21:14.22	352.53	76.66	-28.8	-28.6	14.3	11	75	2386
2026-01-04 12:21:14.42	352.43	76.56	-28.9	-28.6	14.2	11	75	2395
2026-01-04 12:21:14.62	352.33	76.46	-28.8	-28.5	14.3	34	75	2381
2026-01-04 12:21:14.82	352.24	76.37	-28.8	-28.6	14.2	34	75	2383
2026-01-04 12:21:15.02	352.14	76.27	-28.8	-28.5	14.3	34	75	2371
2026-01-04 12:21:15.22	352.05	76.18	-28.8	-28.4	14.3	22	75	2354
2026-01-04 12:21:15.42	351.96	76.08	-28.8	-28.3	14.2	22	75	2348
2026-01-04 12:21:15.63	351.87	75.98	-28.7	-28.3	14.2	22	75	2342
2026-01-04 12:21:15.83	351.78	75.88	-28.7	-28.1	14.3	11	75	2319
2026-01-04 12:21:16.03	351.69	75.79	-28.6	-28.1	14.3	34	75	2315
2026-01-04 12:21:16.23	351.61	75.69	-28.6	-28.1	14.3	34	75	2312
2026-01-04 12:21:16.43	351.52	75.60	-28.7	-28.2	14.2	34	75	2324
2026-01-04 12:21:16.63	351.44	75.50	-28.7	-28.2	14.2	22	75	2326
2026-01-04 12:21:16.83	351.36	75.41	-28.7	-28.3	14.1	22	75	2334
2026-01-04 12:21:17.03	351.28	75.31	-28.8	-28.4	14.0	34	75	2359
2026-01-04 12:21:17.23	351.20	75.21	-28.9	-28.5	13.9	22	75	2366
2026-01-04 12:21:17.44	351.12	75.11	-29.0	-28.8	13.7	57	75	2409
2026-01-04 12:21:17.64	351.04	75.02	-29.0	-28.8	13.7	57	75	2412
2026-01-04 12:21:17.84	350.96	74.92	-29.1	-29.0	13.5	125	75	2442
2026-01-04 12:21:18.04	350.89	74.83	-29.1	-29.1	13.5	102	75	2448
2026-01-04 12:21:18.24	350.81	74.73	-29.2	-29.3	13.4	102	75	2482
2026-01-04 12:21:18.44	350.74	74.64	-29.3	-29.4	13.3	160	75	2495
2026-01-04 12:21:18.64	350.67	74.54	-29.3	-29.5	13.3	274	75	2505
2026-01-04 12:21:18.84	350.59	74.45	-29.3	-29.5	13.2	274	75	2510
2026-01-04 12:21:19.04	350.52	74.35	-29.4	-29.6	13.2	286	75	2524
2026-01-04 12:21:19.25	350.45	74.25	-29.4	-29.6	13.2	331	75	2527
2026-01-04 12:21:19.45	350.38	74.16	-29.4	-29.6	13.2	331	75	2528
2026-01-04 12:21:19.65	350.31	74.06	-29.4	-29.6	13.2	400	75	2525
2026-01-04 12:21:19.85	350.25	73.97	-29.4	-29.7	13.2	492	75	2550
2026-01-04 12:21:20.05	350.18	73.87	-29.3	-29.6	13.3	492	75	2524
2026-01-04 12:21:20.25	350.11	73.78	-29.3	-29.5	13.3	377	75	2517
2026-01-04 12:21:20.45	350.05	73.68	-29.3	-29.5	13.3	377	75	2515
2026-01-04 12:21:20.65	349.99	73.59	-29.3	-29.4	13.4	205	75	2501
2026-01-04 12:21:20.85	349.92	73.49	-29.3	-29.4	13.4	205	75	2495
2026-01-04 12:21:21.06	349.86	73.39	-29.3	-29.5	13.4	160	75	2517
2026-01-04 12:21:21.26	349.80	73.30	-29.4	-29.6	13.3	354	75	2527
2026-01-04 12:21:21.46	349.73	73.21	-29.4	-29.6	13.3	354	75	2537
2026-01-04 12:21:21.66	349.67	73.11	-29.4	-29.7	13.3	183	75	2542
2026-01-04 12:21:21.86	349.61	73.02	-29.5	-29.8	13.2	308	75	2566
2026-01-04 12:21:22.06	349.56	72.92	-29.8	-29.9	13.1	457	76	2503
2026-01-04 12:21:22.26	349.50	72.83	-29.9	-30.3	12.9	457	76	2562
2026-01-04 12:21:22.46	349.44	72.73	-30.0	-29.8	12.7	675	77	2427
2026-01-04 12:21:22.66	349.38	72.64	-30.1	-30.1	12.6	1155	77	2460
2026-01-04 12:21:22.86	349.33	72.55	-30.2	-30.3	12.5	1155	77	2486
2026-01-04 12:21:23.06	349.27	72.45	-30.2	-30.4	12.4	1739	77	2500
2026-01-04 12:21:23.27	349.21	72.35	-30.4	-30.7	12.3	2220	77	2549
2026-01-04 12:21:23.47	349.16	72.26	-30.4	-30.8	12.2	2220	77	2562
2026-01-04 12:21:23.67	349.11	72.17	-30.5	-30.9	12.1	3158	77	2591
2026-01-04 12:21:23.87	349.05	72.07	-30.6	-30.6	12.0	4119	78	2465
2026-01-04 12:21:24.07	349.00	71.98	-30.6	-30.7	12.0	4119	78	2484
2026-01-04 12:21:24.27	348.95	71.88	-30.8	-31.1	11.8	4680	78	2538
2026-01-04 12:21:24.47	348.90	71.79	-30.8	-31.1	11.7	7106	78	2550
2026-01-04 12:21:24.67	348.85	71.70	-30.9	-31.3	11.6	7106	78	2579
2026-01-04 12:21:24.88	348.80	71.60	-30.8	-31.1	11.7	7884	78	2547
2026-01-04 12:21:25.08	348.75	71.51	-30.9	-31.3	11.6	8743	78	2569
2026-01-04 12:21:25.28	348.70	71.41	-31.1	-31.1	11.3	11627	79	2473
2026-01-04 12:21:25.48	348.65	71.32	-30.8	-30.6	11.5	11627	79	2392
2026-01-04 12:21:25.68	348.60	71.23	-31.0	-31.0	11.2	13549	79	2455
2026-01-04 12:21:25.88	348.55	71.13	-30.8	-30.6	11.4	15415	79	2390
2026-01-04 12:21:26.08	348.51	71.04	-31.2	-31.4	10.9	15415	79	2518
2026-01-04 12:21:26.28	348.46	70.95	-31.0	-30.9	11.1	20885	79	2442
2026-01-04 12:21:26.48	348.41	70.86	-31.4	-31.8	10.7	23609	79	2578
2026-01-04 12:21:26.69	348.37	70.76	-31.6	-31.6	10.6	23609	80	2474
2026-01-04 12:21:26.89	348.32	70.67	-31.5	-31.4	10.8	49106	80	2442
2026-01-04 12:21:27.09	348.28	70.57	-31.6	-31.6	10.7	41324	80	2475
2026-01-04 12:21:27.29	348.23	70.48	-36.6	-38.9	4.9	41324	89	3207
2026-01-04 12:21:27.49	348.19	70.39	-37.9	-41.3	3.6	2193305	93	3632

#Closed at: 2026-01-04 12:21:27