passes_logs/2026/01/04/XPeterburg/XPeterburg__20260104_085952_FENGYUN_3F_rec.log

#Pass ID: 20260104_085952_FENGYUN 3F
#Satellite: FENGYUN 3F
#Configuration: FENGYUN 3F
#Start time: 2026-01-04 08:59:46

#Version: 1.5.20200625
#Station: XPeterburg
#Location: 30.318091 lon 59.932769 lat
#TLE: 1 57490U 23111A   25359.20461847  .00000075  00000+0  55793-4 0  9993
#TLE: 2 57490  98.7067  67.2960 0000833 117.6209 242.5052 14.19896763124173

#Time	Az	El	Level	Level2	SNR	BER	Gain	Gain2
2026-01-04 08:59:46.37	51.01	67.75	-38.6	-40.7	3.3	8393875	94	6299
2026-01-04 08:59:46.57	51.15	67.83	-38.1	-52.7	3.6	7157821	71	26393
2026-01-04 08:59:46.77	51.30	67.90	-38.6	-41.7	3.5	8426937	94	7024
2026-01-04 08:59:46.97	51.44	67.98	-38.6	-40.9	3.3	8432888	94	6418
2026-01-04 08:59:47.17	51.59	68.05	-38.6	-40.9	3.3	8401473	94	6365
2026-01-04 08:59:47.37	51.74	68.13	-38.6	-42.3	3.6	8409347	94	7519
2026-01-04 08:59:47.57	51.89	68.20	-38.6	-42.0	3.6	8443130	94	7284
2026-01-04 08:59:47.77	52.04	68.28	-38.6	-41.0	3.3	8413993	94	6467
2026-01-04 08:59:47.97	52.20	68.35	-38.6	-40.7	3.3	8413993	94	6309
2026-01-04 08:59:48.18	52.36	68.43	-38.6	-42.1	3.6	8394641	94	7390
2026-01-04 08:59:48.38	52.51	68.50	-38.6	-42.1	3.6	8413078	94	7377
2026-01-04 08:59:48.58	52.67	68.58	-38.6	-41.0	3.4	8443393	94	6508
2026-01-04 08:59:48.78	52.83	68.65	-38.5	-40.6	3.3	8424259	94	6228
2026-01-04 08:59:48.98	52.98	68.72	-38.5	-40.6	3.3	8387489	94	6211
2026-01-04 08:59:49.18	53.14	68.80	-38.5	-42.1	3.6	8426925	94	7403
2026-01-04 08:59:49.38	53.30	68.87	-38.5	-41.2	3.4	8441825	94	6650
2026-01-04 08:59:49.58	53.47	68.94	-38.5	-40.6	3.3	8405605	94	6205
2026-01-04 08:59:49.78	53.63	69.02	-38.6	-40.6	3.3	8405605	94	6221
2026-01-04 08:59:49.98	53.79	69.09	-38.5	-42.0	3.6	8397926	94	7328
2026-01-04 08:59:50.19	53.97	69.17	-38.6	-41.5	3.5	8435153	94	6886
2026-01-04 08:59:50.39	54.14	69.24	-38.6	-40.7	3.3	8426731	94	6276
2026-01-04 08:59:50.59	54.30	69.31	-38.6	-40.6	3.3	8405685	94	6236
2026-01-04 08:59:50.79	54.47	69.39	-38.6	-42.2	3.6	8402904	94	7450
2026-01-04 08:59:50.99	54.64	69.46	-38.6	-41.9	3.6	8442340	94	7214
2026-01-04 08:59:51.19	54.82	69.53	-38.6	-40.9	3.4	8412620	94	6386
2026-01-04 08:59:51.39	54.99	69.61	-38.6	-40.9	3.3	8412620	94	6378
2026-01-04 08:59:51.59	55.16	69.68	-38.6	-42.3	3.6	8392787	94	7496
2026-01-04 08:59:51.79	55.34	69.75	-38.6	-42.3	3.6	8406223	94	7488
2026-01-04 08:59:51.99	55.52	69.82	-38.6	-41.2	3.4	8445362	94	6618
2026-01-04 08:59:52.20	55.71	69.90	-38.6	-40.7	3.3	8411876	94	6280
2026-01-04 08:59:52.40	55.89	69.97	-38.5	-40.6	3.3	8391517	94	6223
2026-01-04 08:59:52.60	56.07	70.04	-38.5	-41.9	3.6	8417083	94	7239
2026-01-04 08:59:52.80	56.25	70.11	-38.5	-40.9	3.4	8451427	94	6537
2026-01-04 08:59:53.00	56.44	70.19	-38.4	-40.2	3.3	8451427	94	6032
2026-01-04 08:59:53.20	56.62	70.26	-38.4	-40.0	3.3	8398303	94	5941
2026-01-04 08:59:53.40	56.81	70.33	-38.3	-41.3	3.6	8377464	94	6954
2026-01-04 08:59:53.60	57.00	70.40	-38.3	-40.6	3.5	8431056	94	6441
2026-01-04 08:59:53.80	57.19	70.47	-38.2	-39.6	3.3	8436698	94	5781
2026-01-04 08:59:54.00	57.38	70.54	-38.2	-39.4	3.3	8396392	94	5651
2026-01-04 08:59:54.21	57.58	70.62	-38.1	-40.7	3.6	8390419	94	6616
2026-01-04 08:59:54.41	57.78	70.69	-38.2	-40.5	3.6	8442764	94	6458
2026-01-04 08:59:54.61	57.97	70.76	-38.2	-39.8	3.4	8425025	94	5898
2026-01-04 08:59:54.81	58.17	70.83	-38.3	-39.6	3.3	8425025	94	5763
2026-01-04 08:59:55.01	58.37	70.90	-38.3	-41.1	3.6	8387386	94	6833
2026-01-04 08:59:55.21	58.57	70.97	-38.3	-40.8	3.6	8410572	94	6584
2026-01-04 08:59:55.41	58.78	71.04	-38.2	-39.7	3.3	8435188	94	5867
2026-01-04 08:59:55.61	58.98	71.11	-38.1	-39.3	3.3	8423240	94	5630
2026-01-04 08:59:55.81	59.19	71.17	-38.1	-40.6	3.6	8389091	94	6588
2026-01-04 08:59:56.01	59.39	71.24	-38.1	-40.6	3.6	8418743	94	6583
2026-01-04 08:59:56.21	59.60	71.31	-37.9	-39.3	3.4	8380519	94	5726
2026-01-04 08:59:56.42	59.82	71.39	-38.0	-39.0	3.3	8410514	94	5500
2026-01-04 08:59:56.62	60.03	71.45	-38.0	-39.1	3.3	8398487	94	5563
2026-01-04 08:59:56.82	60.25	71.52	-38.3	-40.6	3.6	8398487	95	6384
2026-01-04 08:59:57.02	60.46	71.59	-38.3	-39.9	3.5	8374809	95	5916
2026-01-04 08:59:57.22	60.68	71.66	-38.3	-39.3	3.3	8436321	95	5504
2026-01-04 08:59:57.42	60.90	71.73	-38.4	-39.7	3.3	8399105	95	5688
2026-01-04 08:59:57.62	61.12	71.79	-38.5	-41.5	3.6	8386974	95	6902
2026-01-04 08:59:57.82	61.34	71.86	-38.6	-41.5	3.6	8441413	95	6858
2026-01-04 08:59:58.02	61.57	71.93	-38.6	-40.6	3.3	8433849	95	6190
2026-01-04 08:59:58.22	61.79	71.99	-38.7	-40.5	3.3	8397605	95	6087
2026-01-04 08:59:58.42	62.02	72.06	-38.6	-41.9	3.6	8397605	95	7180
2026-01-04 08:59:58.63	62.26	72.13	-38.6	-41.9	3.6	8398464	95	7188
2026-01-04 08:59:58.83	62.49	72.20	-38.6	-40.6	3.4	8452777	95	6213
2026-01-04 08:59:59.03	62.73	72.26	-38.6	-40.3	3.3	8419155	95	6010
2026-01-04 08:59:59.23	62.96	72.33	-38.6	-40.3	3.3	8388587	95	6013
2026-01-04 08:59:59.43	63.20	72.39	-38.6	-41.9	3.6	8406440	95	7161
2026-01-04 08:59:59.63	63.44	72.46	-38.6	-41.1	3.4	8444057	95	6542
2026-01-04 08:59:59.83	63.68	72.53	-38.6	-40.4	3.3	8413089	95	6057
2026-01-04 09:00:00.03	63.92	72.59	-38.6	-40.2	3.3	8385601	95	5914
2026-01-04 09:00:00.23	64.17	72.65	-38.6	-41.6	3.6	8385601	95	7015
2026-01-04 09:00:00.43	64.41	72.72	-38.5	-40.8	3.5	8425140	95	6454
2026-01-04 09:00:00.64	64.67	72.79	-38.5	-39.9	3.3	8442615	95	5811
2026-01-04 09:00:00.84	64.92	72.85	-38.5	-39.9	3.3	8405548	95	5769
2026-01-04 09:00:00.84	64.92	72.85	-38.4	-41.2	3.6	8391895	95	6735
2026-01-04 09:00:01.04	65.18	72.91	-38.5	-41.2	3.6	8440258	95	6756
2026-01-04 09:00:01.25	65.44	72.98	-38.5	-41.0	3.6	8441345	95	6583
2026-01-04 09:00:01.45	65.70	73.04	-38.5	-40.1	3.4	8401885	95	5956
2026-01-04 09:00:01.65	65.96	73.10	-38.5	-39.9	3.3	8401885	95	5779
2026-01-04 09:00:01.85	66.22	73.17	-38.4	-41.2	3.6	8384262	95	6751
2026-01-04 09:00:02.05	66.48	73.23	-38.5	-41.3	3.6	8417827	95	6813
2026-01-04 09:00:02.25	66.75	73.29	-38.5	-40.4	3.4	8451107	95	6137
2026-01-04 09:00:02.45	67.01	73.35	-38.5	-39.8	3.3	8409473	95	5712
2026-01-04 09:00:02.65	67.28	73.41	-38.5	-39.8	3.3	8394161	95	5741
2026-01-04 09:00:02.85	67.55	73.47	-38.5	-41.4	3.6	8416488	95	6861
2026-01-04 09:00:03.05	67.82	73.53	-38.6	-40.7	3.5	8429740	95	6271
2026-01-04 09:00:03.26	68.11	73.60	-38.6	-40.3	3.3	8405147	95	5941
2026-01-04 09:00:03.46	68.39	73.66	-38.7	-40.4	3.3	8405147	95	6003
2026-01-04 09:00:03.66	68.67	73.72	-38.7	-42.0	3.6	8389320	95	7165
2026-01-04 09:00:03.86	68.95	73.78	-38.7	-41.7	3.5	8442626	95	6886
2026-01-04 09:00:04.06	69.23	73.83	-38.8	-40.9	3.3	8428001	95	6257
2026-01-04 09:00:04.26	69.52	73.89	-38.8	-40.9	3.3	8398979	95	6255
2026-01-04 09:00:04.46	69.81	73.95	-38.7	-42.1	3.6	8394596	95	7249
2026-01-04 09:00:04.66	70.10	74.01	-38.8	-42.1	3.6	8448463	95	7224
2026-01-04 09:00:04.86	70.39	74.07	-38.8	-41.0	3.4	8420070	95	6379
2026-01-04 09:00:05.06	70.68	74.12	-38.7	-40.7	3.3	8420070	95	6171
2026-01-04 09:00:05.26	70.98	74.18	-38.7	-42.3	3.6	8387123	95	7375
2026-01-04 09:00:05.47	71.29	74.24	-38.7	-42.2	3.6	8413536	95	7303
2026-01-04 09:00:05.67	71.59	74.29	-38.7	-40.8	3.4	8447948	95	6245
2026-01-04 09:00:05.87	71.90	74.35	-38.7	-40.4	3.3	8414897	95	5998
2026-01-04 09:00:06.07	72.20	74.40	-38.6	-41.7	3.6	8401851	95	7028
2026-01-04 09:00:06.27	72.51	74.46	-38.6	-41.7	3.6	8415767	95	6993
2026-01-04 09:00:06.47	72.82	74.51	-38.7	-40.8	3.4	8436962	95	6288
2026-01-04 09:00:06.67	73.13	74.57	-38.7	-40.5	3.3	8400077	95	6068
2026-01-04 09:00:06.87	73.44	74.62	-38.8	-40.6	3.3	8383666	95	6111
2026-01-04 09:00:07.07	73.76	74.67	-38.7	-42.0	3.6	8383666	95	7153
2026-01-04 09:00:07.27	74.08	74.72	-38.7	-40.9	3.4	8440979	95	6371
2026-01-04 09:00:07.47	74.40	74.78	-38.7	-40.3	3.3	8425289	95	5930
2026-01-04 09:00:07.67	74.72	74.83	-38.7	-40.2	3.3	8396873	95	5889
2026-01-04 09:00:07.88	75.07	74.88	-38.6	-41.5	3.6	8386402	95	6862
2026-01-04 09:00:08.08	75.39	74.93	-38.6	-41.0	3.5	8447067	95	6443
2026-01-04 09:00:08.28	75.73	74.98	-38.7	-40.3	3.3	8425415	95	5930
2026-01-04 09:00:08.48	76.06	75.03	-38.7	-40.3	3.3	8396324	95	5922
2026-01-04 09:00:08.68	76.39	75.08	-38.7	-41.7	3.6	8414886	95	6943
2026-01-04 09:00:08.88	76.73	75.13	-38.7	-41.3	3.6	8414886	95	6663
2026-01-04 09:00:09.08	77.07	75.18	-38.7	-40.6	3.4	8447319	95	6115
2026-01-04 09:00:09.28	77.41	75.23	-38.7	-40.2	3.3	8416168	95	5873
2026-01-04 09:00:09.48	77.76	75.27	-38.7	-41.8	3.6	8389183	95	6990
2026-01-04 09:00:09.68	78.10	75.32	-38.8	-41.9	3.6	8424179	95	7094
2026-01-04 09:00:09.89	78.47	75.37	-38.8	-41.1	3.4	8425518	95	6410
2026-01-04 09:00:10.09	78.82	75.42	-38.8	-40.6	3.3	8401142	95	6065
2026-01-04 09:00:10.29	79.17	75.46	-38.8	-40.5	3.3	8398075	95	5984
2026-01-04 09:00:10.49	79.53	75.51	-38.7	-41.7	3.6	8398075	95	6930
2026-01-04 09:00:10.69	79.89	75.55	-38.8	-41.0	3.5	8436367	95	6356
2026-01-04 09:00:10.89	80.25	75.59	-38.7	-40.1	3.3	8374351	95	5772
2026-01-04 09:00:11.09	80.61	75.64	-38.7	-40.2	3.3	8411819	95	5824
2026-01-04 09:00:11.29	80.97	75.68	-38.7	-41.5	3.6	8348327	95	6794
2026-01-04 09:00:11.49	81.34	75.72	-38.7	-41.2	3.5	8445590	95	6558
2026-01-04 09:00:11.69	81.71	75.76	-38.8	-40.4	3.4	8436767	95	5962
2026-01-04 09:00:11.89	82.08	75.80	-38.8	-40.5	3.3	8398361	95	5968
2026-01-04 09:00:12.09	82.45	75.85	-38.8	-41.8	3.6	8412139	95	6956
2026-01-04 09:00:12.30	82.85	75.89	-38.8	-41.6	3.6	8412139	95	6788
2026-01-04 09:00:12.50	83.23	75.93	-38.8	-40.6	3.4	8433826	95	6032
2026-01-04 09:00:12.70	83.61	75.96	-38.9	-40.5	3.3	8407871	95	5947
2026-01-04 09:00:12.90	83.99	76.00	-38.9	-42.1	3.6	8394744	95	7083
2026-01-04 09:00:13.10	84.37	76.04	-38.8	-41.9	3.6	8430347	95	6963
2026-01-04 09:00:13.30	84.76	76.08	-38.9	-40.7	3.4	8381126	96	6030
2026-01-04 09:00:13.50	85.15	76.11	-38.9	-40.2	3.3	8408512	96	5676
2026-01-04 09:00:13.70	85.54	76.15	-38.9	-40.0	3.3	8391620	96	5594
2026-01-04 09:00:13.90	85.93	76.18	-38.8	-41.8	3.6	8391620	95	6942
2026-01-04 09:00:14.11	86.35	76.22	-38.9	-41.3	3.5	8388793	95	6486
2026-01-04 09:00:14.31	86.75	76.25	-38.9	-40.7	3.3	8431743	95	6052
2026-01-04 09:00:14.51	87.15	76.29	-39.0	-40.9	3.3	8404209	95	6144
2026-01-04 09:00:14.71	87.55	76.32	-39.0	-42.5	3.6	8401451	95	7323
2026-01-04 09:00:14.91	87.95	76.35	-39.0	-41.9	3.5	8453132	95	6820
2026-01-04 09:00:15.11	88.35	76.38	-39.0	-40.9	3.3	8417015	95	6163
2026-01-04 09:00:15.31	88.76	76.41	-38.9	-40.7	3.3	8388027	95	6013
2026-01-04 09:00:15.51	89.17	76.44	-38.9	-41.9	3.6	8388027	95	6987
2026-01-04 09:00:15.71	89.58	76.47	-38.9	-41.8	3.6	8410457	95	6848
2026-01-04 09:00:15.91	89.99	76.50	-38.9	-40.7	3.4	8445590	95	6073
2026-01-04 09:00:16.11	90.41	76.53	-38.9	-40.5	3.3	8418605	95	5965
2026-01-04 09:00:16.32	90.84	76.56	-38.9	-42.1	3.6	8388198	95	7108
2026-01-04 09:00:16.52	91.26	76.58	-38.9	-42.0	3.6	8426925	95	7004
2026-01-04 09:00:16.72	91.68	76.61	-38.9	-40.8	3.3	8448646	95	6132
2026-01-04 09:00:16.92	92.10	76.64	-38.8	-40.5	3.3	8409198	95	5936
2026-01-04 09:00:17.12	92.52	76.66	-38.9	-41.9	3.6	8395420	95	7006
2026-01-04 09:00:17.32	92.95	76.68	-38.8	-41.7	3.6	8439743	95	6915
2026-01-04 09:00:17.52	93.37	76.71	-38.8	-40.7	3.4	8428882	95	6161
2026-01-04 09:00:17.72	93.80	76.73	-38.8	-40.6	3.3	8428882	95	6003
2026-01-04 09:00:17.92	94.23	76.75	-38.8	-40.4	3.3	8406131	95	5938
2026-01-04 09:00:18.13	94.68	76.77	-38.8	-41.9	3.6	8403923	95	7041
2026-01-04 09:00:18.33	95.11	76.79	-38.9	-41.5	3.4	8442810	95	6606
2026-01-04 09:00:18.53	95.55	76.81	-39.1	-41.4	3.3	8418376	95	6412
2026-01-04 09:00:18.73	95.98	76.83	-39.1	-41.5	3.3	8397972	95	6500
2026-01-04 09:00:18.93	96.42	76.85	-39.1	-43.1	3.6	8413433	95	7781
2026-01-04 09:00:19.13	96.85	76.87	-39.2	-42.6	3.5	8448852	95	7293
2026-01-04 09:00:19.33	97.29	76.88	-39.2	-41.7	3.3	8448852	95	6620
2026-01-04 09:00:19.53	97.73	76.90	-39.1	-41.6	3.3	8408351	95	6533
2026-01-04 09:00:19.73	98.17	76.91	-39.2	-43.1	3.6	8400386	95	7738
2026-01-04 09:00:19.94	98.63	76.93	-39.1	-42.8	3.6	8414463	95	7565
2026-01-04 09:00:20.14	99.08	76.94	-39.1	-41.7	3.4	8387763	95	6687
2026-01-04 09:00:20.34	99.52	76.95	-39.1	-41.4	3.3	8405937	95	6461
2026-01-04 09:00:20.54	99.96	76.97	-39.1	-42.6	3.6	8389926	96	7366
2026-01-04 09:00:20.74	100.41	76.98	-39.1	-42.4	3.6	8373332	96	7271
2026-01-04 09:00:20.94	100.85	76.99	-39.1	-41.7	3.4	8373332	96	6632
2026-01-04 09:00:21.14	101.30	77.00	-39.0	-40.8	3.3	8436149	96	6065
2026-01-04 09:00:21.34	101.75	77.01	-39.0	-40.9	3.3	8400043	96	6101
2026-01-04 09:00:21.54	102.19	77.02	-38.9	-41.9	3.6	8387100	96	6969
2026-01-04 09:00:21.74	102.64	77.02	-38.9	-41.0	3.5	8444343	96	6282
2026-01-04 09:00:21.95	103.11	77.03	-38.9	-40.2	3.3	8425380	96	5767
2026-01-04 09:00:22.15	103.56	77.04	-38.8	-40.2	3.3	8388748	96	5787
2026-01-04 09:00:22.35	104.01	77.04	-38.9	-41.8	3.6	8419567	96	6894
2026-01-04 09:00:22.55	104.46	77.04	-38.8	-41.0	3.5	8379947	96	6326
2026-01-04 09:00:22.75	104.91	77.05	-38.8	-40.1	3.3	8379947	96	5726
2026-01-04 09:00:22.95	105.36	77.05	-38.8	-40.1	3.3	8419704	96	5713
2026-01-04 09:00:23.15	105.81	77.05	-38.8	-41.7	3.6	8393177	96	6832
2026-01-04 09:00:23.35	106.26	77.05	-38.7	-41.3	3.6	8364292	96	6581
2026-01-04 09:00:23.55	106.71	77.05	-38.7	-40.6	3.4	8438289	95	6107
2026-01-04 09:00:23.75	107.16	77.05	-38.6	-40.0	3.3	8401576	95	5764
2026-01-04 09:00:23.96	107.63	77.05	-38.6	-41.3	3.6	8388599	95	6738
2026-01-04 09:00:24.16	108.08	77.05	-38.5	-41.2	3.6	8447856	95	6664
2026-01-04 09:00:24.36	108.53	77.05	-38.6	-40.4	3.4	8447856	95	6062
2026-01-04 09:00:24.56	108.98	77.04	-38.6	-40.0	3.3	8363548	95	5757
2026-01-04 09:00:24.76	109.43	77.04	-38.8	-40.6	3.3	8391586	95	6028
2026-01-04 09:00:24.96	109.88	77.04	-38.7	-41.9	3.6	8338096	95	7079
2026-01-04 09:00:25.16	110.33	77.03	-38.9	-41.7	3.5	8444915	95	6773
2026-01-04 09:00:25.36	110.78	77.02	-38.8	-40.4	3.3	8368011	95	5977
2026-01-04 09:00:25.56	111.23	77.02	-38.8	-40.5	3.3	8389228	95	5969
2026-01-04 09:00:25.77	111.70	77.01	-38.8	-41.9	3.6	8348636	95	7088
2026-01-04 09:00:25.97	112.15	77.00	-38.8	-42.1	3.6	8436767	95	7200
2026-01-04 09:00:26.17	112.59	76.99	-38.9	-41.1	3.3	8420665	95	6338
2026-01-04 09:00:26.37	113.04	76.98	-39.0	-41.4	3.3	8389595	95	6504
2026-01-04 09:00:26.57	113.48	76.97	-39.1	-43.2	3.6	8389595	95	7838
2026-01-04 09:00:26.77	113.93	76.95	-39.2	-43.2	3.6	8421157	95	7822
2026-01-04 09:00:26.97	114.37	76.94	-39.2	-42.1	3.3	8444904	95	6913
2026-01-04 09:00:27.17	114.81	76.93	-39.2	-42.0	3.3	8400352	95	6810
2026-01-04 09:00:27.37	115.25	76.91	-39.2	-43.5	3.6	8387924	95	8077
2026-01-04 09:00:27.58	115.71	76.90	-39.2	-43.6	3.6	8431251	95	8091
2026-01-04 09:00:27.78	116.15	76.88	-39.2	-42.4	3.4	8445716	95	7128
2026-01-04 09:00:27.98	116.59	76.87	-39.2	-42.0	3.3	8407058	95	6765
2026-01-04 09:00:28.18	117.03	76.85	-39.2	-42.0	3.3	8407058	95	6777
2026-01-04 09:00:28.38	117.46	76.83	-39.1	-43.2	3.6	8393188	95	7836
2026-01-04 09:00:28.58	117.90	76.81	-39.1	-42.3	3.4	8448829	95	7048
2026-01-04 09:00:28.78	118.33	76.79	-39.1	-41.5	3.3	8415641	95	6491
2026-01-04 09:00:28.98	118.76	76.77	-39.2	-41.8	3.3	8397914	95	6662
2026-01-04 09:00:29.18	119.19	76.75	-39.2	-43.2	3.6	8411132	95	7770
2026-01-04 09:00:29.39	119.64	76.73	-39.2	-42.6	3.5	8449012	95	7315
2026-01-04 09:00:29.59	120.07	76.71	-39.1	-41.5	3.3	8405239	95	6510
2026-01-04 09:00:29.79	120.50	76.68	-39.0	-41.1	3.3	8405239	95	6249
2026-01-04 09:00:29.99	120.92	76.66	-38.8	-42.0	3.6	8397926	95	7067
2026-01-04 09:00:30.19	121.34	76.64	-38.7	-41.4	3.6	8426548	95	6664
2026-01-04 09:00:30.39	121.77	76.61	-38.7	-40.2	3.4	8444709	95	5876
2026-01-04 09:00:30.59	122.19	76.58	-38.7	-40.2	3.3	8411510	95	5811
2026-01-04 09:00:30.79	122.60	76.56	-38.7	-41.7	3.6	8400844	95	6915
2026-01-04 09:00:31.00	123.04	76.53	-38.8	-41.8	3.6	8424602	95	7013
2026-01-04 09:00:31.20	123.45	76.50	-38.9	-41.0	3.4	8439605	95	6335
2026-01-04 09:00:31.40	123.87	76.47	-39.0	-41.0	3.3	8403167	95	6201
2026-01-04 09:00:31.60	124.28	76.44	-38.9	-40.8	3.3	8403167	95	6097
2026-01-04 09:00:31.80	124.69	76.41	-38.9	-42.2	3.6	8393268	95	7195
2026-01-04 09:00:32.00	125.09	76.38	-38.8	-41.3	3.4	8444183	95	6507
2026-01-04 09:00:32.20	125.50	76.35	-38.8	-40.3	3.3	8369304	95	5882
2026-01-04 09:00:32.40	125.90	76.32	-38.7	-40.3	3.3	8395889	95	5875
2026-01-04 09:00:32.60	126.30	76.29	-38.8	-41.9	3.6	8349117	95	7034
2026-01-04 09:00:32.80	126.70	76.25	-38.9	-41.8	3.5	8434284	95	6888
2026-01-04 09:00:33.01	127.12	76.22	-38.9	-40.9	3.4	8420196	95	6206
2026-01-04 09:00:33.21	127.51	76.18	-39.0	-41.1	3.3	8420196	95	6242
2026-01-04 09:00:33.41	127.91	76.15	-39.0	-42.4	3.6	8384914	95	7315
2026-01-04 09:00:33.61	128.30	76.11	-39.0	-42.1	3.6	8429340	95	7052
2026-01-04 09:00:33.81	128.69	76.08	-39.0	-41.0	3.4	8436252	95	6253
2026-01-04 09:00:34.01	129.07	76.04	-38.9	-40.7	3.3	8407985	95	6075
2026-01-04 09:00:34.21	129.46	76.00	-38.9	-42.0	3.6	8393474	95	7040
2026-01-04 09:00:34.41	129.84	75.96	-38.8	-41.7	3.6	8428127	95	6914
2026-01-04 09:00:34.61	130.22	75.93	-38.8	-40.7	3.4	8443382	95	6142
2026-01-04 09:00:34.81	130.60	75.89	-38.8	-40.5	3.3	8407859	95	5951
2026-01-04 09:00:35.01	130.98	75.85	-38.9	-40.8	3.3	8407859	95	6128
2026-01-04 09:00:35.22	131.37	75.80	-39.0	-42.4	3.6	8388965	95	7277
2026-01-04 09:00:35.42	131.74	75.76	-38.9	-41.1	3.4	8447879	95	6337
2026-01-04 09:00:35.62	132.11	75.72	-38.9	-40.6	3.3	8430038	95	6028
2026-01-04 09:00:35.82	132.48	75.68	-38.8	-40.3	3.3	8399688	95	5881
2026-01-04 09:00:36.02	132.84	75.64	-38.7	-41.5	3.6	8409027	95	6752
2026-01-04 09:00:36.22	133.20	75.59	-38.8	-41.0	3.4	8442203	95	6339
2026-01-04 09:00:36.42	133.57	75.55	-38.9	-40.7	3.3	8417873	95	6035
2026-01-04 09:00:36.62	133.92	75.50	-39.1	-41.2	3.3	8391746	95	6311
2026-01-04 09:00:36.82	134.28	75.46	-39.1	-42.8	3.6	8423400	95	7540
2026-01-04 09:00:37.02	134.63	75.41	-39.2	-42.5	3.5	8423400	95	7207
2026-01-04 09:00:37.22	134.98	75.37	-39.2	-41.7	3.3	8452377	95	6594
2026-01-04 09:00:37.43	135.35	75.32	-39.2	-41.6	3.3	8403728	95	6531
2026-01-04 09:00:37.63	135.70	75.27	-39.2	-43.1	3.6	8376411	95	7706
2026-01-04 09:00:37.83	136.04	75.23	-39.2	-42.5	3.6	8441574	96	7186
2026-01-04 09:00:38.03	136.38	75.18	-39.1	-41.3	3.4	8389572	96	6309
2026-01-04 09:00:38.23	136.72	75.13	-39.2	-41.1	3.3	8391265	96	6124
2026-01-04 09:00:38.43	137.06	75.08	-39.0	-42.1	3.6	8324398	96	7018
2026-01-04 09:00:38.63	137.40	75.03	-39.0	-42.1	3.6	8324398	96	7050
2026-01-04 09:00:38.83	137.73	74.98	-39.0	-41.1	3.4	8448520	96	6288
2026-01-04 09:00:39.03	138.06	74.93	-39.0	-40.6	3.3	8428596	96	5948
2026-01-04 09:00:39.23	138.39	74.88	-38.9	-40.5	3.3	8393280	96	5874
2026-01-04 09:00:39.44	138.73	74.83	-38.9	-41.8	3.6	8407928	96	6857
2026-01-04 09:00:39.64	139.05	74.77	-38.9	-40.9	3.4	8434661	96	6232
2026-01-04 09:00:39.84	139.37	74.72	-38.8	-40.2	3.3	8413810	96	5749
2026-01-04 09:00:40.04	139.69	74.67	-38.8	-40.5	3.3	8380359	95	5987
2026-01-04 09:00:40.24	140.01	74.62	-38.8	-41.9	3.6	8413593	95	7032
2026-01-04 09:00:40.44	140.33	74.56	-38.7	-40.8	3.5	8413593	95	6323
2026-01-04 09:00:40.64	140.64	74.51	-38.7	-40.1	3.3	8439205	95	5827
2026-01-04 09:00:40.84	140.95	74.46	-38.6	-39.9	3.3	8408134	95	5736
2026-01-04 09:00:41.04	141.26	74.40	-38.7	-41.7	3.6	8379867	95	6977
2026-01-04 09:00:41.25	141.58	74.34	-38.7	-41.3	3.6	8431526	95	6667
2026-01-04 09:00:41.45	141.88	74.29	-38.6	-40.3	3.4	8421981	95	5944
2026-01-04 09:00:41.65	142.18	74.23	-38.6	-40.1	3.3	8404644	95	5808
2026-01-04 09:00:41.85	142.48	74.18	-38.6	-41.3	3.6	8398899	95	6737
2026-01-04 09:00:42.05	142.78	74.12	-38.5	-41.0	3.6	8398899	95	6601
2026-01-04 09:00:42.25	143.07	74.06	-38.3	-39.6	3.5	8445087	95	5658
2026-01-04 09:00:42.45	143.36	74.00	-38.0	-39.0	3.5	8404197	94	5474
2026-01-04 09:00:42.65	143.65	73.95	-37.9	-38.6	3.5	8391963	94	5339
2026-01-04 09:00:42.85	143.94	73.89	-37.8	-39.7	3.6	8396507	94	6135
2026-01-04 09:00:43.06	144.24	73.83	-37.8	-39.2	3.7	8430896	93	5808
2026-01-04 09:00:43.26	144.52	73.77	-37.8	-38.7	3.6	8376171	93	5457
2026-01-04 09:00:43.46	144.80	73.71	-37.6	-38.0	3.7	8368801	93	5196
2026-01-04 09:00:43.66	145.08	73.65	-37.6	-38.1	3.7	8368801	93	5225
2026-01-04 09:00:43.86	145.36	73.59	-37.5	-37.7	3.8	8349964	93	5064
2026-01-04 09:00:44.06	145.64	73.53	-37.5	-37.8	3.8	8340911	93	5079
2026-01-04 09:00:44.26	145.91	73.47	-37.6	-38.0	3.7	8333415	93	5173
2026-01-04 09:00:44.46	146.18	73.41	-37.7	-39.7	3.7	8348911	93	6215
2026-01-04 09:00:44.66	146.45	73.35	-37.7	-39.8	3.8	8417942	93	6199
2026-01-04 09:00:44.87	146.73	73.28	-37.8	-38.9	3.6	8408740	93	5554
2026-01-04 09:00:45.07	146.99	73.22	-37.8	-38.9	3.6	8378791	93	5548
2026-01-04 09:00:45.27	147.25	73.16	-37.9	-40.4	3.6	8374591	93	6588
2026-01-04 09:00:45.47	147.52	73.10	-37.9	-40.3	3.7	8430278	93	6471
2026-01-04 09:00:45.67	147.77	73.03	-37.9	-39.2	3.6	8410285	93	5738
2026-01-04 09:00:45.87	148.03	72.97	-37.9	-39.2	3.5	8410285	93	5699
2026-01-04 09:00:46.07	148.28	72.91	-37.9	-40.4	3.6	8386550	93	6568
2026-01-04 09:00:46.28	148.55	72.84	-37.9	-40.5	3.6	8389228	93	6620
2026-01-04 09:00:46.48	148.80	72.78	-37.8	-39.2	3.6	8432487	93	5791
2026-01-04 09:00:46.68	149.05	72.71	-37.8	-38.8	3.6	8383232	93	5508
2026-01-04 09:00:46.88	149.29	72.65	-37.8	-38.9	3.6	8367370	93	5572
2026-01-04 09:00:47.08	149.54	72.58	-37.9	-40.6	3.6	8398372	93	6724
2026-01-04 09:00:47.28	149.78	72.52	-37.9	-39.6	3.6	8422061	93	6007
2026-01-04 09:00:47.48	150.02	72.45	-37.9	-39.2	3.5	8422061	93	5700
2026-01-04 09:00:47.68	150.26	72.39	-38.0	-39.4	3.5	8376708	93	5803
2026-01-04 09:00:47.88	150.50	72.32	-37.9	-40.5	3.6	8385246	93	6651
2026-01-04 09:00:48.08	150.73	72.26	-37.9	-39.9	3.7	8421764	93	6233
2026-01-04 09:00:48.28	150.97	72.19	-37.7	-38.7	3.6	8408374	93	5526
2026-01-04 09:00:48.48	151.20	72.13	-37.6	-38.2	3.7	8375530	93	5283
2026-01-04 09:00:48.68	151.43	72.06	-37.5	-39.4	3.7	8363731	93	6137
2026-01-04 09:00:48.89	151.67	71.99	-37.4	-38.9	4.0	8407379	93	5854
2026-01-04 09:00:49.09	151.89	71.92	-37.5	-38.2	3.8	8361167	93	5333
2026-01-04 09:00:49.29	152.12	71.85	-37.4	-37.7	3.8	8361167	93	5088
2026-01-04 09:00:49.49	152.34	71.79	-37.4	-37.7	3.8	8330108	93	5088
2026-01-04 09:00:49.69	152.56	71.72	-37.4	-37.7	3.8	8330852	93	5099
2026-01-04 09:00:49.89	152.78	71.65	-37.4	-39.1	3.7	8320644	93	5962
2026-01-04 09:00:50.09	153.00	71.58	-37.4	-39.2	3.7	8375598	93	6038
2026-01-04 09:00:50.29	153.22	71.51	-37.5	-38.4	3.8	8400821	93	5455
2026-01-04 09:00:50.49	153.43	71.45	-37.5	-37.9	3.7	8356338	93	5163
2026-01-04 09:00:50.70	153.65	71.37	-37.4	-37.7	3.7	8340888	93	5104
2026-01-04 09:00:50.90	153.86	71.30	-37.3	-37.5	3.8	8340888	93	5042
2026-01-04 09:00:51.10	154.07	71.24	-37.3	-37.3	3.8	8338233	93	4938
2026-01-04 09:00:51.30	154.28	71.17	-37.2	-37.5	3.9	8311237	92	5136
2026-01-04 09:00:51.50	154.49	71.10	-37.2	-37.6	3.9	8305469	92	5131
2026-01-04 09:00:51.70	154.69	71.03	-37.2	-37.5	3.9	8296028	92	5130
2026-01-04 09:00:51.90	154.89	70.96	-37.2	-37.7	3.9	8299152	92	5207
2026-01-04 09:00:52.10	155.09	70.89	-37.4	-38.1	3.7	8324409	92	5359
2026-01-04 09:00:52.30	155.29	70.82	-37.4	-39.6	3.7	8382156	92	6334
2026-01-04 09:00:52.50	155.49	70.75	-37.5	-39.3	3.8	8382156	92	6063
2026-01-04 09:00:52.70	155.69	70.68	-37.5	-38.5	3.7	8402458	92	5498
2026-01-04 09:00:52.91	155.89	70.60	-37.5	-38.5	3.7	8363582	92	5522
2026-01-04 09:00:53.11	156.09	70.53	-38.7	-42.8	3.6	8346210	94	7836
2026-01-04 09:00:53.31	156.28	70.46	-39.0	-43.0	3.6	8432590	95	7734
2026-01-04 09:00:53.51	156.47	70.39	-39.0	-41.8	3.3	8392662	95	6826
2026-01-04 09:00:53.71	156.66	70.32	-39.1	-41.7	3.3	8399105	95	6631
2026-01-04 09:00:53.91	156.84	70.25	-39.2	-43.3	3.6	8387306	95	7808

#Closed at: 2026-01-04 09:00:54