passes_logs/2026/01/08/R2.0S_Moscow/R2.0S_Moscow__20260108_002620_NOAA_20_JPSS-1_rec.log

#Pass ID: 20260108_002620_NOAA 20 (JPSS-1)
#Satellite: NOAA 20 (JPSS-1)
#Configuration: NOAA 20
#almurnet v.1.7.20251203
#Start time: 2026-01-08 00:26:20

#Version: 2.2.20231116
#Station: R2.0S_Moscow
#Location: 37.707566 lon 55.798166 lat
#TLE: 1 43013U 17073A   26006.30790171  .00000126  00000+0  80695-4 0  9991
#TLE: 2 43013  98.7629 307.3394 0001808  51.8724 308.2615 14.19533762421505

#Time	Az	El	Level	Level2	SNR	BER	BlckErr	Temp	State	Recorded	gain1	gain2
2026-01-08 00:26:20.82	13.11	1.99	-40.1	-54.6	3.8	1.49e+00	0	48	0	0	51	19484
2026-01-08 00:26:21.82	13.08	2.06	-40.0	-54.6	3.8	1.49e+00	0	48	104	0	51	19445
2026-01-08 00:26:22.84	13.06	2.12	-40.0	-54.6	3.8	1.49e+00	0	48	104	0	51	19479
2026-01-08 00:26:23.84	13.03	2.18	-40.0	-54.6	3.8	1.49e+00	0	48	104	0	51	19489
2026-01-08 00:26:24.85	13.00	2.25	-40.0	-54.6	3.8	1.49e+00	0	48	104	0	51	19479
2026-01-08 00:26:25.86	12.97	2.31	-40.0	-54.6	3.8	1.49e+00	0	48	104	0	51	19470
2026-01-08 00:26:26.87	12.94	2.37	-40.0	-54.6	3.8	1.49e+00	0	48	104	0	51	19421
2026-01-08 00:26:27.88	12.91	2.44	-40.0	-54.6	3.8	1.49e+00	0	48	104	0	51	19423
2026-01-08 00:26:28.89	12.88	2.50	-40.0	-54.6	3.8	1.49e+00	0	49	104	0	51	19496
2026-01-08 00:26:29.90	12.84	2.56	-40.0	-54.6	3.8	1.49e+00	0	49	104	0	51	19399
2026-01-08 00:26:30.91	12.81	2.63	-40.0	-54.6	3.8	1.49e+00	0	49	104	0	51	19434
2026-01-08 00:26:31.92	12.78	2.69	-40.0	-54.6	3.8	1.49e+00	0	49	104	0	51	19448
2026-01-08 00:26:32.93	12.75	2.76	-40.0	-54.6	3.8	1.49e+00	0	49	104	0	51	19435
2026-01-08 00:26:33.94	12.72	2.82	-40.0	-54.6	3.8	1.49e+00	0	49	104	0	51	19420
2026-01-08 00:26:34.95	12.69	2.89	-40.0	-54.6	3.8	1.49e+00	0	49	104	0	51	19474
2026-01-08 00:26:35.96	12.66	2.95	-40.0	-54.6	3.8	1.49e+00	0	49	104	0	51	19488
2026-01-08 00:26:36.97	12.63	3.02	-40.0	-54.6	3.8	1.49e+00	0	49	104	0	51	19445
2026-01-08 00:26:37.98	12.59	3.08	-40.0	-54.6	3.8	1.49e+00	0	49	104	0	51	19453
2026-01-08 00:26:38.99	12.56	3.15	-40.0	-54.6	3.8	1.49e+00	0	49	104	0	51	19413
2026-01-08 00:26:40.00	12.53	3.21	-40.0	-54.5	3.8	1.49e+00	0	49	104	0	51	19385
2026-01-08 00:26:41.01	12.50	3.28	-40.0	-54.5	3.8	1.49e+00	0	49	104	0	51	19306
2026-01-08 00:26:42.02	12.47	3.34	-40.0	-54.5	3.8	1.49e+00	0	49	104	0	51	19378
2026-01-08 00:26:43.03	12.43	3.41	-40.0	-54.5	3.8	1.49e+00	0	49	104	0	51	19316
2026-01-08 00:26:44.04	12.40	3.48	-40.0	-54.5	3.8	1.49e+00	0	49	104	0	51	19231
2026-01-08 00:26:45.04	12.37	3.54	-40.0	-54.5	3.8	1.49e+00	0	49	104	0	51	19243
2026-01-08 00:26:46.06	12.33	3.61	-40.0	-54.5	3.8	1.49e+00	0	50	104	0	51	19199
2026-01-08 00:26:47.07	12.30	3.67	-40.0	-54.5	3.8	1.49e+00	0	50	104	0	51	19231
2026-01-08 00:26:48.08	12.27	3.74	-40.0	-54.5	3.8	1.49e+00	0	50	104	0	51	19216
2026-01-08 00:26:49.09	12.23	3.81	-40.0	-54.4	3.8	1.49e+00	0	50	104	0	51	19145
2026-01-08 00:26:50.10	12.20	3.87	-40.0	-54.4	3.8	1.49e+00	0	50	104	0	51	19062
2026-01-08 00:26:51.11	12.17	3.94	-40.0	-54.4	3.8	1.49e+00	0	50	104	0	51	18952
2026-01-08 00:26:52.12	12.13	4.01	-40.0	-54.4	3.8	1.49e+00	0	50	104	0	51	18966
2026-01-08 00:26:53.13	12.10	4.08	-40.0	-54.3	3.8	1.49e+00	0	50	104	0	51	18920
2026-01-08 00:26:54.14	12.06	4.14	-40.0	-54.3	3.8	1.49e+00	0	50	104	0	51	18905
2026-01-08 00:26:55.15	12.03	4.21	-40.0	-54.4	3.8	1.49e+00	0	50	104	0	51	18969
2026-01-08 00:26:56.16	11.99	4.28	-40.0	-54.3	3.8	1.49e+00	0	50	104	0	51	18908
2026-01-08 00:26:57.17	11.96	4.35	-40.0	-54.3	3.8	1.49e+00	0	50	104	0	51	18750
2026-01-08 00:26:58.18	11.92	4.42	-40.0	-54.3	3.8	1.49e+00	0	50	104	0	51	18842
2026-01-08 00:26:59.18	11.89	4.48	-40.0	-54.3	3.8	1.49e+00	0	50	104	0	51	18896
2026-01-08 00:27:00.19	11.85	4.55	-40.0	-54.3	3.8	1.49e+00	0	50	104	0	51	18930
2026-01-08 00:27:01.20	11.82	4.62	-40.0	-54.3	3.8	1.49e+00	0	50	104	0	51	18745
2026-01-08 00:27:02.21	11.78	4.69	-40.0	-54.3	3.8	1.49e+00	0	51	104	0	51	18786
2026-01-08 00:27:03.22	11.74	4.76	-40.0	-54.3	3.8	1.49e+00	0	50	104	0	51	18786
2026-01-08 00:27:04.23	11.71	4.83	-40.0	-54.2	3.8	1.49e+00	0	51	104	0	51	18702
2026-01-08 00:27:05.24	11.67	4.90	-40.0	-54.2	3.8	1.49e+00	0	51	104	0	51	18636
2026-01-08 00:27:06.24	11.63	4.97	-40.0	-54.2	3.8	1.49e+00	0	51	104	0	51	18543
2026-01-08 00:27:07.25	11.60	5.04	-40.0	-54.2	3.8	1.49e+00	0	51	104	0	51	18616
2026-01-08 00:27:08.26	11.56	5.11	-40.0	-54.1	3.8	1.49e+00	0	51	104	0	51	18446
2026-01-08 00:27:09.27	11.52	5.18	-40.0	-54.2	3.8	1.49e+00	0	51	104	0	51	18558
2026-01-08 00:27:10.28	11.49	5.25	-40.0	-54.2	3.8	1.49e+00	0	51	104	0	51	18619
2026-01-08 00:27:11.29	11.45	5.32	-40.0	-54.2	3.8	1.49e+00	0	51	104	0	51	18586
2026-01-08 00:27:12.30	11.41	5.39	-40.0	-54.2	3.8	1.49e+00	0	51	104	0	51	18730
2026-01-08 00:27:13.31	11.37	5.46	-40.0	-54.3	3.8	1.49e+00	0	51	104	0	51	18747
2026-01-08 00:27:14.32	11.33	5.53	-40.0	-54.2	3.8	1.49e+00	0	51	104	0	51	18622
2026-01-08 00:27:15.33	11.29	5.60	-40.0	-54.2	3.8	1.49e+00	0	51	104	0	51	18729
2026-01-08 00:27:16.34	11.26	5.67	-40.0	-54.3	3.8	1.49e+00	0	51	104	0	51	18843
2026-01-08 00:27:17.35	11.22	5.74	-40.0	-54.3	3.8	1.49e+00	0	51	104	0	51	18824
2026-01-08 00:27:18.36	11.18	5.81	-40.0	-54.3	3.8	1.49e+00	0	51	104	0	51	18818
2026-01-08 00:27:19.37	11.14	5.89	-40.0	-54.4	3.8	1.49e+00	0	51	104	0	51	19024
2026-01-08 00:27:20.38	11.10	5.96	-40.0	-54.4	3.8	1.49e+00	0	51	104	0	51	19045
2026-01-08 00:27:21.39	11.06	6.03	-40.0	-54.4	3.8	1.49e+00	0	52	104	0	51	19016
2026-01-08 00:27:22.40	11.02	6.10	-40.0	-54.4	3.8	1.49e+00	0	52	104	0	51	19074
2026-01-08 00:27:23.41	10.98	6.17	-40.0	-54.4	3.8	1.49e+00	0	52	104	0	51	19156
2026-01-08 00:27:24.41	10.94	6.25	-40.0	-54.5	3.8	1.49e+00	0	51	104	0	51	19232
2026-01-08 00:27:25.42	10.90	6.32	-40.0	-54.4	3.8	1.49e+00	0	52	104	0	51	19157
2026-01-08 00:27:26.43	10.86	6.39	-40.0	-54.5	3.8	1.49e+00	0	52	104	0	51	19270
2026-01-08 00:27:27.44	10.82	6.47	-40.0	-54.5	3.8	1.49e+00	0	52	104	0	51	19238
2026-01-08 00:27:28.46	10.77	6.54	-40.0	-54.5	3.8	1.49e+00	0	52	104	0	51	19262
2026-01-08 00:27:29.46	10.73	6.61	-40.0	-54.5	3.8	1.49e+00	0	52	104	0	51	19205
2026-01-08 00:27:30.47	10.69	6.69	-40.0	-54.5	3.8	1.49e+00	0	52	104	0	51	19186
2026-01-08 00:27:31.48	10.65	6.76	-40.0	-54.4	3.8	1.49e+00	0	52	104	0	51	19163
2026-01-08 00:27:32.50	10.61	6.84	-40.0	-54.4	3.8	1.49e+00	0	52	104	0	51	19066
2026-01-08 00:27:33.51	10.56	6.91	-40.0	-54.3	3.8	1.49e+00	0	52	104	0	51	18882
2026-01-08 00:27:34.51	10.52	6.98	-40.0	-54.3	3.8	1.49e+00	0	52	104	0	51	18882
2026-01-08 00:27:35.52	10.48	7.06	-40.0	-54.3	3.8	1.49e+00	0	52	104	0	51	18852
2026-01-08 00:27:36.53	10.43	7.13	-40.0	-54.3	3.8	1.49e+00	0	52	104	0	51	18817
2026-01-08 00:27:37.54	10.39	7.21	-40.0	-54.3	3.8	1.49e+00	0	52	104	0	51	18922
2026-01-08 00:27:38.56	10.35	7.29	-40.0	-54.3	3.8	1.49e+00	0	52	104	0	51	18841
2026-01-08 00:27:39.57	10.30	7.36	-40.0	-54.3	3.8	1.49e+00	0	52	104	0	51	18764
2026-01-08 00:27:40.58	10.26	7.44	-40.0	-54.2	3.8	1.49e+00	0	52	104	0	51	18710
2026-01-08 00:27:41.59	10.21	7.51	-40.0	-54.3	3.8	1.49e+00	0	52	104	0	51	18823
2026-01-08 00:27:42.60	10.17	7.59	-40.0	-54.3	3.8	1.49e+00	0	52	104	0	51	18924
2026-01-08 00:27:43.61	10.12	7.67	-40.0	-54.3	3.8	1.49e+00	0	52	104	0	51	18924
2026-01-08 00:27:44.61	10.08	7.74	-40.0	-54.3	3.8	1.49e+00	0	52	104	0	51	18941
2026-01-08 00:27:45.62	10.03	7.82	-40.0	-54.4	3.8	1.49e+00	0	52	104	0	51	18989
2026-01-08 00:27:46.63	9.99	7.90	-40.0	-54.3	3.8	1.49e+00	0	52	104	0	51	18881
2026-01-08 00:27:47.64	9.94	7.97	-40.0	-54.4	3.8	1.49e+00	0	53	104	0	51	19017
2026-01-08 00:27:48.65	9.89	8.05	-40.0	-54.5	3.8	1.49e+00	0	53	104	0	51	19319
2026-01-08 00:27:49.65	9.85	8.13	-40.0	-54.5	3.8	1.49e+00	0	52	104	0	51	19323
2026-01-08 00:27:50.66	9.80	8.21	-40.1	-54.6	3.8	1.49e+00	0	53	104	0	51	19430
2026-01-08 00:27:51.67	9.75	8.28	-40.4	-54.5	3.8	1.49e+00	0	53	104	0	51	19306
2026-01-08 00:27:52.68	9.71	8.36	-40.0	-54.5	3.8	1.49e+00	0	52	104	0	51	19370
2026-01-08 00:27:53.69	9.66	8.44	-40.1	-54.5	3.8	1.49e+00	0	53	104	0	51	19319
2026-01-08 00:27:54.70	9.61	8.52	-40.0	-54.5	3.8	1.49e+00	0	53	104	0	51	19340
2026-01-08 00:27:55.71	9.56	8.60	-40.0	-54.5	3.8	1.49e+00	0	53	104	0	51	19316
2026-01-08 00:27:56.72	9.51	8.68	-40.0	-54.5	3.8	1.49e+00	0	53	104	0	51	19342
2026-01-08 00:27:57.73	9.46	8.76	-40.0	-54.5	3.8	1.49e+00	0	53	104	0	51	19355
2026-01-08 00:27:58.74	9.42	8.84	-40.0	-54.6	3.8	1.49e+00	0	53	104	0	51	19430
2026-01-08 00:27:59.75	9.37	8.92	-40.2	-54.6	3.8	1.49e+00	0	53	104	0	51	19522
2026-01-08 00:28:00.76	9.32	9.00	-40.0	-54.5	3.8	1.49e+00	0	53	104	0	51	19247
2026-01-08 00:28:01.77	9.27	9.08	-40.1	-54.5	3.8	1.49e+00	0	53	104	0	51	19380
2026-01-08 00:28:02.78	9.22	9.16	-39.9	-54.5	3.8	1.49e+00	0	53	104	0	51	19271
2026-01-08 00:28:03.78	9.17	9.24	-40.0	-54.5	3.8	1.49e+00	0	53	104	0	51	19310
2026-01-08 00:28:04.79	9.11	9.32	-40.0	-54.5	3.8	1.49e+00	0	53	104	0	51	19274
2026-01-08 00:28:05.80	9.06	9.40	-40.1	-54.5	3.8	1.49e+00	0	53	104	0	51	19345
2026-01-08 00:28:06.81	9.01	9.49	-40.0	-54.5	3.8	1.49e+00	0	53	104	0	51	19282
2026-01-08 00:28:07.82	8.96	9.57	-40.2	-54.6	3.8	1.49e+00	0	53	104	0	51	19532
2026-01-08 00:28:08.83	8.91	9.65	-39.9	-54.4	3.8	1.49e+00	0	53	104	0	51	19054
2026-01-08 00:28:09.84	8.86	9.73	-40.1	-54.6	3.8	1.49e+00	0	53	104	0	51	19459
2026-01-08 00:28:10.85	8.80	9.82	-39.9	-54.4	3.8	1.49e+00	0	53	104	0	51	19080
2026-01-08 00:28:11.86	8.75	9.90	-40.1	-54.5	3.8	1.49e+00	0	53	104	0	51	19347
2026-01-08 00:28:12.87	8.70	9.98	-40.0	-54.4	3.8	1.49e+00	0	53	104	0	51	19158
2026-01-08 00:28:13.88	8.64	10.06	-40.2	-54.5	3.8	1.49e+00	0	53	104	0	51	19334
2026-01-08 00:28:14.89	8.59	10.15	-40.0	-54.5	3.8	1.49e+00	0	53	104	0	51	19201
2026-01-08 00:28:15.90	8.53	10.23	-40.3	-54.7	3.8	1.49e+00	0	53	104	0	51	19832
2026-01-08 00:28:16.91	8.48	10.32	-40.0	-54.4	3.8	1.49e+00	0	53	104	0	51	19132
2026-01-08 00:28:17.92	8.42	10.40	-40.4	-54.4	3.8	1.49e+00	0	53	104	0	51	19003
2026-01-08 00:28:18.93	8.37	10.49	-40.0	-54.4	3.8	1.49e+00	0	54	104	0	51	19094
2026-01-08 00:28:19.94	8.31	10.57	-40.6	-53.8	3.8	1.49e+00	0	53	104	0	51	17850
2026-01-08 00:28:20.95	8.26	10.66	-40.0	-54.5	3.8	1.49e+00	0	53	104	0	51	19171
2026-01-08 00:28:21.96	8.20	10.74	-40.2	-53.5	3.8	1.49e+00	0	54	104	0	51	17247
2026-01-08 00:28:22.97	8.14	10.83	-40.4	-52.6	4.0	1.48e+00	0	53	104	0	51	15572
2026-01-08 00:28:23.98	8.08	10.91	-40.5	-51.8	4.2	1.46e+00	0	54	0	0	51	14181
2026-01-08 00:28:24.98	8.03	11.00	-40.6	-51.1	4.5	1.36e+00	34	54	0	0	51	13020
2026-01-08 00:28:25.99	7.97	11.09	-40.7	-50.4	4.9	8.51e-01	0	54	0	2097152	52	11362
2026-01-08 00:28:27.00	7.91	11.17	-40.9	-49.8	5.3	6.23e-01	0	53	0	3145728	52	10589
2026-01-08 00:28:28.01	7.85	11.26	-41.0	-49.4	5.8	4.67e-01	0	54	0	5242880	52	10167
2026-01-08 00:28:29.02	7.79	11.35	-41.1	-48.9	6.4	2.77e-01	0	54	0	7340032	52	9527
2026-01-08 00:28:30.03	7.73	11.44	-41.2	-48.3	7.2	1.77e-01	0	54	0	9437184	53	8375
2026-01-08 00:28:31.04	7.67	11.52	-41.3	-47.8	7.8	1.03e-01	0	54	0	11534336	53	7959
2026-01-08 00:28:32.05	7.61	11.61	-41.3	-47.5	8.3	6.05e-02	0	54	0	13631488	53	7659
2026-01-08 00:28:33.06	7.55	11.70	-41.0	-46.5	9.4	2.61e-02	0	54	0	14680064	53	6805
2026-01-08 00:28:34.07	7.49	11.79	-40.7	-45.6	10.3	9.51e-03	0	54	0	16777216	53	6175
2026-01-08 00:28:35.08	7.43	11.88	-40.4	-44.8	11.2	1.69e-03	0	54	0	18874368	52	5930
2026-01-08 00:28:36.08	7.37	11.97	-40.0	-44.0	12.0	5.01e-04	0	54	0	20971520	52	5462
2026-01-08 00:28:37.09	7.31	12.06	-39.8	-43.5	12.6	1.77e-04	0	54	0	23068672	51	5462
2026-01-08 00:28:38.10	7.24	12.15	-39.6	-43.0	13.2	4.88e-05	0	54	0	24117248	51	5134
2026-01-08 00:28:39.11	7.18	12.24	-39.4	-42.7	13.5	1.52e-05	0	54	0	26214400	50	5223
2026-01-08 00:28:40.12	7.12	12.33	-39.2	-42.4	13.8	3.80e-06	0	54	0	28311552	50	5072
2026-01-08 00:28:41.13	7.05	12.42	-39.2	-42.3	13.8	4.50e-06	0	54	0	30408704	50	5038
2026-01-08 00:28:42.14	6.99	12.51	-39.1	-42.2	14.1	4.50e-06	0	54	0	32505856	50	4959
2026-01-08 00:28:43.14	6.93	12.60	-39.2	-42.2	14.1	2.20e-06	0	54	0	33554432	50	4962
2026-01-08 00:28:44.15	6.86	12.69	-39.2	-42.3	14.2	2.20e-06	0	54	0	35651584	50	4986
2026-01-08 00:28:45.16	6.79	12.79	-39.4	-42.4	14.0	1.50e-06	0	54	0	37748736	50	5087
2026-01-08 00:28:46.17	6.73	12.88	-39.5	-42.7	13.8	2.20e-06	0	54	0	39845888	50	5235
2026-01-08 00:28:47.18	6.66	12.97	-39.6	-42.7	13.7	3.80e-06	0	54	0	41943040	50	5272
2026-01-08 00:28:48.19	6.60	13.07	-39.6	-42.7	13.9	1.50e-06	0	54	0	42991616	50	5257
2026-01-08 00:28:49.20	6.53	13.16	-39.6	-42.7	14.0	3.00e-06	0	54	0	45088768	50	5225
2026-01-08 00:28:50.21	6.46	13.25	-39.6	-42.6	14.1	5.30e-06	0	54	0	47185920	50	5180
2026-01-08 00:28:51.22	6.39	13.35	-39.6	-42.6	14.1	3.00e-06	0	54	0	49283072	50	5194
2026-01-08 00:28:52.23	6.32	13.44	-39.5	-42.4	14.3	2.20e-06	0	54	0	51380224	50	5095
2026-01-08 00:28:53.24	6.25	13.54	-39.5	-42.4	14.5	7.00e-07	0	54	0	52428800	50	5081
2026-01-08 00:28:54.24	6.19	13.63	-39.6	-42.6	14.3	7.00e-07	0	54	0	54525952	50	5160
2026-01-08 00:28:55.25	6.11	13.73	-39.7	-42.7	14.3	0.00e+00	0	54	0	56623104	50	5228
2026-01-08 00:28:56.26	6.04	13.82	-39.7	-42.6	14.4	0.00e+00	0	54	0	58720256	50	5165
2026-01-08 00:28:57.27	5.97	13.92	-39.5	-42.3	14.6	0.00e+00	0	54	0	60817408	50	5032
2026-01-08 00:28:58.28	5.90	14.01	-39.5	-42.3	14.8	0.00e+00	0	54	0	61865984	50	4984
2026-01-08 00:28:59.29	5.83	14.11	-39.6	-42.4	14.7	0.00e+00	0	54	0	63963136	50	5066
2026-01-08 00:29:00.30	5.76	14.21	-39.6	-42.4	14.7	0.00e+00	0	54	0	66060288	50	5056
2026-01-08 00:29:01.30	5.68	14.30	-39.7	-42.4	14.7	1.50e-06	0	54	0	68157440	50	5098
2026-01-08 00:29:02.31	5.61	14.40	-39.5	-42.2	15.0	0.00e+00	0	54	0	70254592	50	4948
2026-01-08 00:29:03.32	5.54	14.50	-39.6	-42.3	15.0	0.00e+00	0	54	0	71303168	50	4992
2026-01-08 00:29:04.33	5.46	14.60	-39.7	-42.4	14.8	7.00e-07	0	54	0	73400320	50	5088
2026-01-08 00:29:05.33	5.39	14.70	-39.5	-42.2	15.1	0.00e+00	0	54	0	75497472	50	4948
2026-01-08 00:29:06.34	5.31	14.80	-39.5	-42.1	15.2	0.00e+00	0	54	0	77594624	50	4898
2026-01-08 00:29:07.34	5.24	14.89	-39.5	-42.1	15.1	0.00e+00	0	54	0	79691776	50	4923
2026-01-08 00:29:08.35	5.16	14.99	-39.6	-42.2	15.1	0.00e+00	0	55	0	80740352	50	4983
2026-01-08 00:29:09.36	5.08	15.09	-39.7	-42.3	15.1	0.00e+00	0	54	0	82837504	50	5032
2026-01-08 00:29:10.37	5.01	15.20	-39.7	-42.3	15.1	0.00e+00	0	54	0	84934656	50	5017
2026-01-08 00:29:11.37	4.93	15.30	-39.5	-42.1	15.3	0.00e+00	0	54	0	87031808	50	4903
2026-01-08 00:29:12.38	4.85	15.40	-39.6	-42.1	15.3	0.00e+00	0	55	0	89128960	50	4917
2026-01-08 00:29:13.39	4.77	15.50	-39.7	-42.4	15.1	0.00e+00	0	55	0	90177536	50	5043
2026-01-08 00:29:14.40	4.69	15.60	-39.6	-42.2	15.2	0.00e+00	0	55	0	92274688	50	4973
2026-01-08 00:29:15.41	4.61	15.70	-39.6	-42.1	15.4	0.00e+00	0	55	0	94371840	50	4916
2026-01-08 00:29:16.42	4.53	15.81	-39.7	-42.3	15.2	0.00e+00	0	54	0	96468992	50	5030
2026-01-08 00:29:17.42	4.45	15.91	-39.7	-42.3	15.2	0.00e+00	0	54	0	98566144	50	5024
2026-01-08 00:29:18.43	4.36	16.01	-39.7	-42.3	15.3	0.00e+00	0	55	0	99614720	50	5024
2026-01-08 00:29:19.44	4.28	16.12	-39.8	-42.3	15.3	0.00e+00	0	55	0	101711872	50	5035
2026-01-08 00:29:20.45	4.20	16.22	-39.7	-42.2	15.4	0.00e+00	0	55	0	103809024	50	4942
2026-01-08 00:29:21.46	4.11	16.32	-39.8	-42.3	15.3	0.00e+00	0	55	0	105906176	50	5026
2026-01-08 00:29:22.47	4.03	16.43	-39.7	-42.3	15.3	0.00e+00	0	55	0	108003328	50	5012
2026-01-08 00:29:23.48	3.94	16.54	-39.8	-42.4	15.2	0.00e+00	0	55	0	110100480	50	5066
2026-01-08 00:29:24.49	3.86	16.64	-39.8	-42.3	15.3	0.00e+00	0	55	0	111149056	50	5026
2026-01-08 00:29:25.50	3.77	16.75	-39.8	-42.3	15.4	0.00e+00	0	55	0	113246208	50	5013
2026-01-08 00:29:26.51	3.68	16.85	-39.8	-42.3	15.4	0.00e+00	0	55	0	115343360	50	5019
2026-01-08 00:29:27.52	3.60	16.96	-39.8	-42.4	15.3	0.00e+00	0	55	0	117440512	50	5062
2026-01-08 00:29:28.53	3.51	17.07	-39.8	-42.4	15.3	0.00e+00	0	55	0	119537664	50	5055
2026-01-08 00:29:29.54	3.42	17.18	-39.8	-42.4	15.3	0.00e+00	0	55	0	120586240	50	5056
2026-01-08 00:29:30.55	3.33	17.28	-39.8	-42.4	15.3	0.00e+00	0	55	0	122683392	50	5063
2026-01-08 00:29:31.56	3.24	17.39	-39.9	-42.4	15.3	0.00e+00	0	55	0	124780544	50	5085
2026-01-08 00:29:32.57	3.15	17.50	-39.8	-42.3	15.4	0.00e+00	0	54	0	126877696	50	5021
2026-01-08 00:29:33.57	3.05	17.61	-39.8	-42.4	15.4	0.00e+00	0	55	0	127926272	50	5064
2026-01-08 00:29:34.58	2.96	17.72	-39.9	-42.4	15.3	0.00e+00	0	55	0	130023424	50	5088
2026-01-08 00:29:35.59	2.87	17.83	-39.9	-42.4	15.4	0.00e+00	0	55	0	132120576	50	5062
2026-01-08 00:29:36.60	2.77	17.94	-39.9	-42.5	15.3	0.00e+00	0	55	0	134217728	50	5110
2026-01-08 00:29:37.61	2.68	18.05	-39.9	-42.5	15.4	0.00e+00	0	55	0	136314880	50	5108
2026-01-08 00:29:38.62	2.58	18.16	-39.9	-42.5	15.3	0.00e+00	0	55	0	138412032	50	5150
2026-01-08 00:29:39.62	2.49	18.28	-40.0	-42.6	15.1	0.00e+00	0	55	0	139460608	50	5218
2026-01-08 00:29:40.63	2.39	18.39	-40.0	-42.7	15.2	0.00e+00	0	55	0	141557760	50	5227
2026-01-08 00:29:41.64	2.29	18.50	-40.1	-42.7	15.1	0.00e+00	0	55	0	143654912	50	5239
2026-01-08 00:29:42.65	2.20	18.61	-40.2	-42.9	15.0	0.00e+00	0	55	0	145752064	50	5349
2026-01-08 00:29:43.66	2.10	18.73	-40.1	-42.8	15.1	0.00e+00	0	55	0	147849216	50	5286
2026-01-08 00:29:44.66	2.00	18.84	-40.1	-42.8	15.1	0.00e+00	0	55	0	148897792	50	5288
2026-01-08 00:29:45.67	1.90	18.96	-40.2	-42.9	14.9	0.00e+00	0	55	0	150994944	51	5080
2026-01-08 00:29:46.68	1.79	19.07	-40.2	-42.9	14.9	0.00e+00	0	55	0	153092096	51	5063
2026-01-08 00:29:47.69	1.69	19.19	-40.2	-43.0	14.9	0.00e+00	0	55	0	155189248	51	5110
2026-01-08 00:29:48.70	1.59	19.30	-40.3	-43.0	14.9	7.00e-07	0	55	0	157286400	51	5102
2026-01-08 00:29:49.71	1.48	19.42	-40.3	-43.0	14.9	0.00e+00	0	55	0	158334976	51	5137
2026-01-08 00:29:50.72	1.38	19.53	-40.3	-43.0	14.9	0.00e+00	0	55	0	160432128	51	5150
2026-01-08 00:29:51.72	1.28	19.65	-40.3	-43.0	14.9	0.00e+00	0	55	0	162529280	51	5129
2026-01-08 00:29:52.73	1.17	19.77	-40.3	-43.0	14.9	0.00e+00	0	55	0	164626432	51	5123
2026-01-08 00:29:53.74	1.06	19.89	-40.3	-43.0	14.9	0.00e+00	0	55	0	166723584	51	5123
2026-01-08 00:29:54.75	0.95	20.00	-40.3	-43.0	14.9	0.00e+00	0	55	0	167772160	51	5144
2026-01-08 00:29:55.76	0.84	20.12	-40.4	-43.2	14.8	0.00e+00	0	55	0	169869312	51	5228
2026-01-08 00:29:56.77	0.73	20.24	-40.5	-43.3	14.6	0.00e+00	0	55	0	171966464	51	5317
2026-01-08 00:29:57.78	0.62	20.36	-40.5	-43.4	14.5	0.00e+00	0	55	0	174063616	51	5364
2026-01-08 00:29:58.79	0.51	20.48	-40.5	-43.4	14.5	1.50e-06	0	55	0	176160768	51	5357
2026-01-08 00:29:59.79	0.40	20.60	-40.6	-43.5	14.5	1.50e-06	0	55	0	177209344	51	5416
2026-01-08 00:30:00.80	0.29	20.72	-40.7	-43.6	14.3	1.50e-06	0	55	0	179306496	51	5512
2026-01-08 00:30:01.81	0.17	20.85	-40.7	-43.6	14.3	2.20e-06	0	55	0	181403648	51	5520
2026-01-08 00:30:02.82	0.06	20.97	-40.6	-43.6	14.3	0.00e+00	0	55	0	183500800	52	5164
2026-01-08 00:30:03.83	359.94	21.09	-40.7	-43.7	14.2	1.50e-06	0	55	0	185597952	52	5233
2026-01-08 00:30:04.83	359.82	21.21	-40.7	-43.7	14.2	7.00e-07	0	55	0	186646528	52	5243
2026-01-08 00:30:05.84	359.71	21.34	-40.7	-43.7	14.1	3.80e-06	0	55	0	188743680	52	5265
2026-01-08 00:30:06.85	359.59	21.46	-40.7	-43.7	14.2	7.00e-07	0	55	0	190840832	52	5236
2026-01-08 00:30:07.86	359.47	21.59	-40.7	-43.7	14.2	7.00e-07	0	55	0	192937984	52	5233
2026-01-08 00:30:08.87	359.34	21.71	-40.7	-43.8	14.1	2.20e-06	0	55	0	195035136	52	5281
2026-01-08 00:30:09.88	359.22	21.84	-40.7	-43.7	14.1	2.20e-06	0	55	0	196083712	52	5277
2026-01-08 00:30:10.89	359.10	21.96	-40.8	-43.8	14.1	7.00e-07	0	55	0	198180864	52	5307
2026-01-08 00:30:11.90	358.97	22.09	-40.8	-43.8	14.2	2.20e-06	0	55	0	200278016	52	5283
2026-01-08 00:30:12.91	358.85	22.22	-40.7	-43.6	14.3	1.50e-06	0	55	0	202375168	52	5178
2026-01-08 00:30:13.92	358.72	22.34	-40.7	-43.6	14.3	0.00e+00	0	55	0	204472320	52	5215
2026-01-08 00:30:14.92	358.60	22.47	-40.8	-43.9	14.0	3.00e-06	0	55	0	205520896	52	5347
2026-01-08 00:30:15.93	358.47	22.60	-40.9	-43.9	14.0	2.20e-06	0	55	0	207618048	52	5388
2026-01-08 00:30:16.94	358.34	22.73	-40.9	-44.0	13.9	3.80e-06	0	55	0	209715200	52	5432
2026-01-08 00:30:17.95	358.21	22.86	-41.0	-44.1	13.8	1.50e-06	0	55	0	211812352	52	5514
2026-01-08 00:30:18.96	358.07	22.99	-41.1	-44.2	13.7	5.30e-06	0	55	0	213909504	52	5574
2026-01-08 00:30:19.97	357.94	23.12	-41.0	-44.2	13.8	7.60e-06	0	55	0	214958080	52	5551
2026-01-08 00:30:20.98	357.81	23.25	-41.0	-44.2	13.8	1.50e-06	0	55	0	217055232	52	5565
2026-01-08 00:30:21.99	357.67	23.38	-41.1	-44.3	13.7	6.80e-06	0	55	0	219152384	52	5595
2026-01-08 00:30:23.00	357.54	23.51	-41.0	-44.1	13.8	6.10e-06	0	55	0	221249536	52	5518
2026-01-08 00:30:24.01	357.40	23.64	-41.0	-44.1	13.9	3.00e-06	0	55	0	223346688	52	5490
2026-01-08 00:30:25.01	357.26	23.78	-40.9	-44.0	14.0	2.20e-06	0	55	0	224395264	52	5434
2026-01-08 00:30:26.02	357.12	23.91	-40.9	-43.9	14.1	7.00e-07	0	55	0	226492416	52	5358
2026-01-08 00:30:27.03	356.98	24.04	-40.8	-43.9	14.2	7.00e-07	0	55	0	228589568	52	5344
2026-01-08 00:30:28.04	356.84	24.18	-40.8	-43.8	14.2	2.20e-06	0	55	0	230686720	52	5327
2026-01-08 00:30:29.05	356.69	24.31	-40.9	-43.9	14.1	1.50e-06	0	55	0	232783872	52	5390
2026-01-08 00:30:30.06	356.55	24.45	-40.9	-44.0	14.0	3.00e-06	0	55	0	234881024	52	5428
2026-01-08 00:30:31.07	356.40	24.58	-40.9	-44.0	14.0	3.00e-06	0	55	0	235929600	52	5433
2026-01-08 00:30:32.07	356.25	24.72	-40.9	-44.0	14.1	3.80e-06	0	55	0	238026752	52	5405
2026-01-08 00:30:33.09	356.10	24.86	-40.9	-43.9	14.1	2.20e-06	0	55	0	240123904	52	5389
2026-01-08 00:30:34.09	355.95	24.99	-40.9	-44.0	14.1	3.00e-06	0	56	0	242221056	52	5406
2026-01-08 00:30:35.10	355.80	25.13	-40.9	-43.9	14.1	2.20e-06	0	55	0	244318208	52	5390
2026-01-08 00:30:36.11	355.65	25.27	-40.9	-43.9	14.2	3.00e-06	0	55	0	245366784	52	5350
2026-01-08 00:30:37.12	355.50	25.41	-40.8	-43.7	14.3	1.50e-06	0	56	0	247463936	52	5253
2026-01-08 00:30:38.13	355.34	25.55	-40.8	-43.8	14.3	1.50e-06	0	55	0	249561088	52	5288
2026-01-08 00:30:39.13	355.18	25.69	-40.8	-43.8	14.3	1.50e-06	0	55	0	251658240	52	5304
2026-01-08 00:30:40.14	355.03	25.83	-40.8	-43.7	14.3	1.50e-06	0	55	0	253755392	52	5256
2026-01-08 00:30:41.15	354.86	25.97	-40.8	-43.7	14.3	0.00e+00	0	55	0	254803968	52	5268
2026-01-08 00:30:42.16	354.70	26.11	-40.8	-43.7	14.3	1.50e-06	0	56	0	256901120	52	5254
2026-01-08 00:30:43.17	354.54	26.25	-40.8	-43.8	14.3	0.00e+00	0	55	0	258998272	52	5303
2026-01-08 00:30:44.18	354.38	26.39	-40.9	-44.0	14.1	0.00e+00	0	55	0	261095424	52	5428
2026-01-08 00:30:45.19	354.21	26.54	-41.0	-44.0	14.1	1.50e-06	0	55	0	263192576	52	5441
2026-01-08 00:30:46.20	354.04	26.68	-41.0	-44.0	14.0	1.50e-06	0	56	0	264241152	52	5451
2026-01-08 00:30:47.21	353.87	26.82	-41.0	-44.1	14.0	4.50e-06	0	55	0	266338304	52	5504
2026-01-08 00:30:48.22	353.70	26.97	-40.9	-44.0	14.2	7.00e-07	0	56	0	268435456	52	5410
2026-01-08 00:30:49.22	353.53	27.11	-40.8	-43.7	14.4	1.50e-06	0	55	0	270532608	52	5267
2026-01-08 00:30:50.23	353.36	27.26	-40.8	-43.7	14.5	1.50e-06	0	55	0	272629760	52	5226
2026-01-08 00:30:51.24	353.18	27.40	-40.7	-43.5	14.5	7.00e-07	0	55	0	273678336	52	5156
2026-01-08 00:30:52.25	353.00	27.55	-40.6	-43.5	14.7	7.00e-07	0	55	0	275775488	52	5101
2026-01-08 00:30:53.26	352.83	27.69	-40.6	-43.3	14.8	7.00e-07	0	55	0	277872640	52	5038
2026-01-08 00:30:54.27	352.65	27.84	-40.6	-43.3	14.8	0.00e+00	0	56	0	279969792	52	5016
2026-01-08 00:30:55.28	352.46	27.99	-40.6	-43.3	14.8	7.00e-07	0	55	0	282066944	52	5023
2026-01-08 00:30:56.29	352.28	28.14	-40.7	-43.4	14.7	0.00e+00	0	55	0	283115520	52	5097
2026-01-08 00:30:57.30	352.09	28.29	-40.7	-43.5	14.7	7.00e-07	0	56	0	285212672	52	5107
2026-01-08 00:30:58.31	351.91	28.43	-40.7	-43.5	14.6	0.00e+00	0	55	0	287309824	52	5154
2026-01-08 00:30:59.32	351.72	28.58	-40.7	-43.6	14.5	7.00e-07	0	55	0	289406976	52	5199
2026-01-08 00:31:00.33	351.53	28.73	-40.8	-43.7	14.5	7.00e-07	0	55	0	291504128	52	5219
2026-01-08 00:31:01.34	351.33	28.88	-40.8	-43.7	14.5	1.50e-06	0	55	0	292552704	52	5231
2026-01-08 00:31:02.34	351.14	29.03	-40.8	-43.6	14.5	7.00e-07	0	55	0	294649856	52	5208
2026-01-08 00:31:03.35	350.94	29.18	-40.8	-43.7	14.5	0.00e+00	0	55	0	296747008	52	5240
2026-01-08 00:31:04.36	350.75	29.34	-40.8	-43.7	14.5	0.00e+00	0	56	0	298844160	52	5256
2026-01-08 00:31:05.37	350.54	29.49	-40.9	-43.8	14.4	7.00e-07	0	56	0	300941312	52	5290
2026-01-08 00:31:06.38	350.34	29.64	-40.9	-43.8	14.4	2.20e-06	0	55	0	303038464	52	5304
2026-01-08 00:31:07.39	350.14	29.79	-40.9	-43.8	14.4	7.00e-07	0	55	0	304087040	52	5315
2026-01-08 00:31:08.40	349.93	29.95	-40.9	-43.7	14.4	0.00e+00	0	56	0	306184192	52	5271
2026-01-08 00:31:09.40	349.73	30.10	-40.9	-43.8	14.4	1.50e-06	0	56	0	308281344	52	5315
2026-01-08 00:31:10.41	349.52	30.25	-41.1	-44.2	14.0	1.50e-06	0	55	0	310378496	52	5530
2026-01-08 00:31:11.42	349.30	30.41	-41.1	-44.1	14.0	3.00e-06	0	56	0	311427072	52	5523
2026-01-08 00:31:12.43	349.09	30.56	-41.2	-44.4	13.8	3.00e-06	0	55	0	313524224	53	5348
2026-01-08 00:31:13.44	348.87	30.72	-41.3	-44.5	13.6	4.50e-06	0	56	0	315621376	53	5464
2026-01-08 00:31:14.45	348.65	30.87	-41.4	-44.7	13.5	9.90e-06	0	56	0	317718528	53	5540
2026-01-08 00:31:15.46	348.43	31.03	-41.5	-44.8	13.4	2.05e-05	0	56	0	319815680	53	5613
2026-01-08 00:31:16.47	348.21	31.18	-41.5	-44.9	13.3	1.75e-05	0	56	0	320864256	53	5690
2026-01-08 00:31:17.48	347.99	31.34	-41.6	-45.1	13.1	2.59e-05	0	56	0	322961408	53	5793
2026-01-08 00:31:18.49	347.76	31.50	-41.7	-45.2	13.0	4.65e-05	0	56	0	325058560	54	5562
2026-01-08 00:31:19.49	347.53	31.65	-41.9	-45.5	12.7	8.16e-05	0	56	0	327155712	54	5735
2026-01-08 00:31:20.50	347.30	31.81	-41.9	-45.6	12.6	9.38e-05	0	56	0	329252864	54	5795
2026-01-08 00:31:21.51	347.06	31.97	-42.0	-45.8	12.4	1.11e-04	0	56	0	331350016	54	5971
2026-01-08 00:31:22.52	346.83	32.13	-42.0	-45.7	12.5	1.43e-04	0	56	0	332398592	54	5903
2026-01-08 00:31:23.53	346.59	32.29	-41.8	-45.3	12.9	6.17e-05	0	56	0	334495744	54	5631
2026-01-08 00:31:24.54	346.35	32.44	-41.9	-45.5	12.7	5.49e-05	0	56	0	336592896	54	5755
2026-01-08 00:31:25.55	346.10	32.60	-41.8	-45.4	12.8	4.65e-05	0	56	0	338690048	54	5681
2026-01-08 00:31:26.56	345.86	32.76	-41.8	-45.3	12.9	4.19e-05	0	56	0	340787200	54	5620
2026-01-08 00:31:27.57	345.61	32.92	-41.7	-45.2	13.0	5.11e-05	0	56	0	341835776	54	5576
2026-01-08 00:31:28.58	345.36	33.08	-41.8	-45.2	13.0	4.27e-05	0	56	0	343932928	54	5588
2026-01-08 00:31:29.59	345.11	33.24	-41.9	-45.5	12.8	5.34e-05	0	56	0	346030080	54	5757
2026-01-08 00:31:30.60	344.85	33.40	-42.0	-45.6	12.6	8.62e-05	0	56	0	348127232	54	5853
2026-01-08 00:31:31.61	344.59	33.56	-42.1	-45.9	12.3	1.37e-04	0	56	0	350224384	54	6028
2026-01-08 00:31:32.62	344.33	33.72	-42.1	-45.8	12.4	1.53e-04	0	56	0	351272960	54	5976
2026-01-08 00:31:33.62	344.07	33.88	-42.2	-46.0	12.2	1.42e-04	0	56	0	353370112	54	6112
2026-01-08 00:31:34.63	343.80	34.04	-42.1	-45.9	12.4	2.14e-04	0	56	0	355467264	54	6007
2026-01-08 00:31:35.64	343.53	34.20	-42.0	-45.8	12.5	1.59e-04	0	56	0	357564416	54	5941
2026-01-08 00:31:36.65	343.26	34.37	-42.0	-45.7	12.5	1.39e-04	0	56	0	359661568	54	5902
2026-01-08 00:31:37.66	342.99	34.53	-41.9	-45.5	12.8	9.53e-05	0	56	0	360710144	54	5761
2026-01-08 00:31:38.67	342.71	34.69	-41.9	-45.5	12.7	7.32e-05	0	56	0	362807296	54	5772
2026-01-08 00:31:39.68	342.43	34.85	-41.9	-45.6	12.8	7.78e-05	0	56	0	364904448	54	5804
2026-01-08 00:31:40.69	342.15	35.01	-42.1	-45.8	12.4	6.63e-05	0	56	0	367001600	54	5975
2026-01-08 00:31:41.70	341.86	35.17	-42.0	-45.7	12.6	1.04e-04	0	56	0	369098752	54	5897
2026-01-08 00:31:42.71	341.57	35.33	-42.0	-45.7	12.6	9.91e-05	0	56	0	370147328	54	5915
2026-01-08 00:31:43.72	341.28	35.49	-42.0	-45.6	12.8	8.85e-05	0	56	0	372244480	54	5820
2026-01-08 00:31:44.73	340.99	35.65	-41.8	-45.3	13.0	4.11e-05	0	56	0	374341632	54	5649
2026-01-08 00:31:45.73	340.69	35.81	-41.7	-45.1	13.2	2.74e-05	0	56	0	376438784	54	5528
2026-01-08 00:31:46.74	340.39	35.98	-41.6	-44.8	13.5	1.75e-05	0	56	0	378535936	54	5336
2026-01-08 00:31:47.75	340.09	36.14	-41.6	-44.8	13.5	8.30e-06	0	56	0	379584512	54	5313
2026-01-08 00:31:48.76	339.78	36.30	-41.6	-44.9	13.5	1.52e-05	0	56	0	381681664	54	5353
2026-01-08 00:31:49.77	339.47	36.46	-41.7	-45.0	13.3	1.44e-05	0	56	0	383778816	54	5453
2026-01-08 00:31:50.78	339.16	36.62	-41.6	-45.0	13.4	1.44e-05	0	56	0	385875968	54	5404
2026-01-08 00:31:51.79	338.84	36.78	-41.6	-44.9	13.5	8.30e-06	0	56	0	387973120	54	5378
2026-01-08 00:31:52.80	338.53	36.94	-41.5	-44.7	13.6	1.14e-05	0	56	0	389021696	54	5250
2026-01-08 00:31:53.81	338.20	37.10	-41.4	-44.6	13.8	3.80e-06	0	56	0	391118848	54	5180
2026-01-08 00:31:54.82	337.88	37.26	-41.4	-44.5	13.9	6.10e-06	0	56	0	393216000	54	5116
2026-01-08 00:31:55.83	337.55	37.42	-41.3	-44.3	14.0	1.50e-06	0	56	0	395313152	54	5026
2026-01-08 00:31:56.84	337.22	37.58	-41.2	-44.2	14.2	3.00e-06	0	56	0	397410304	54	4980
2026-01-08 00:31:57.85	336.88	37.74	-41.3	-44.3	14.1	7.00e-07	0	56	0	399507456	54	5013
2026-01-08 00:31:58.86	336.55	37.89	-41.4	-44.6	13.9	3.00e-06	0	56	0	400556032	54	5160
2026-01-08 00:31:59.86	336.21	38.05	-41.5	-44.6	13.8	2.20e-06	0	56	0	402653184	54	5215
2026-01-08 00:32:00.87	335.86	38.21	-41.5	-44.6	13.7	3.00e-06	0	56	0	404750336	54	5218
2026-01-08 00:32:01.88	335.51	38.36	-41.5	-44.7	13.6	5.30e-06	0	56	0	406847488	54	5267
2026-01-08 00:32:02.89	335.16	38.52	-41.6	-44.8	13.6	6.80e-06	0	56	0	408944640	54	5328
2026-01-08 00:32:03.90	334.81	38.68	-41.6	-44.9	13.5	1.29e-05	0	56	0	409993216	54	5371
2026-01-08 00:32:04.90	334.45	38.83	-41.6	-44.8	13.5	1.44e-05	0	56	0	412090368	54	5326
2026-01-08 00:32:05.91	334.09	38.99	-41.6	-44.9	13.5	8.30e-06	0	56	0	414187520	54	5362
2026-01-08 00:32:06.92	333.72	39.14	-41.7	-45.0	13.4	1.22e-05	0	56	0	416284672	54	5459
2026-01-08 00:32:07.93	333.36	39.29	-41.6	-44.8	13.6	1.14e-05	0	56	0	418381824	54	5325
2026-01-08 00:32:08.94	332.98	39.45	-41.7	-45.0	13.4	1.22e-05	0	56	0	419430400	54	5414
2026-01-08 00:32:09.95	332.61	39.60	-41.8	-45.2	13.2	1.60e-05	0	56	0	421527552	54	5549
2026-01-08 00:32:10.96	332.23	39.75	-41.9	-45.4	13.0	3.89e-05	0	56	0	423624704	54	5660
2026-01-08 00:32:11.97	331.84	39.90	-42.0	-45.7	12.6	7.32e-05	0	56	0	425721856	54	5884
2026-01-08 00:32:12.98	331.46	40.05	-42.1	-45.8	12.5	8.85e-05	0	56	0	427819008	54	5929
2026-01-08 00:32:13.99	331.07	40.20	-42.0	-45.6	12.7	7.17e-05	0	56	0	428867584	54	5824
2026-01-08 00:32:15.00	330.67	40.35	-42.1	-45.8	12.6	9.00e-05	0	56	0	430964736	54	5983
2026-01-08 00:32:16.01	330.28	40.49	-42.1	-45.9	12.5	9.46e-05	0	56	0	433061888	54	5996
2026-01-08 00:32:17.02	329.87	40.64	-42.1	-45.8	12.5	1.47e-04	0	56	0	435159040	54	5969
2026-01-08 00:32:18.03	329.47	40.79	-42.1	-45.8	12.5	1.19e-04	0	56	0	437256192	54	5978
2026-01-08 00:32:19.04	329.06	40.93	-42.0	-45.6	12.7	1.01e-04	0	56	0	438304768	54	5831
2026-01-08 00:32:20.04	328.65	41.07	-41.8	-45.3	13.1	4.42e-05	0	56	0	440401920	54	5609
2026-01-08 00:32:21.05	328.24	41.21	-41.6	-44.8	13.6	1.98e-05	0	56	0	442499072	54	5296
2026-01-08 00:32:22.07	327.81	41.36	-41.4	-44.5	14.0	8.30e-06	0	56	0	444596224	54	5112
2026-01-08 00:32:23.07	327.39	41.49	-41.2	-44.2	14.2	7.00e-07	0	56	0	446693376	54	4935
2026-01-08 00:32:24.08	326.97	41.63	-41.0	-43.9	14.5	0.00e+00	0	56	0	447741952	54	4802
2026-01-08 00:32:25.09	326.54	41.77	-40.8	-43.5	14.9	0.00e+00	0	56	0	449839104	53	4867
2026-01-08 00:32:26.10	326.10	41.90	-40.6	-43.3	15.2	0.00e+00	0	56	0	451936256	53	4709
2026-01-08 00:32:27.11	325.66	42.04	-40.5	-43.1	15.3	0.00e+00	0	56	0	454033408	52	4876
2026-01-08 00:32:28.12	325.22	42.17	-40.3	-42.8	15.7	0.00e+00	0	56	0	456130560	52	4708
2026-01-08 00:32:29.13	324.78	42.30	-40.3	-42.7	15.7	0.00e+00	0	56	0	457179136	52	4689
2026-01-08 00:32:30.14	324.33	42.43	-40.1	-42.5	15.9	0.00e+00	0	56	0	459276288	52	4558
2026-01-08 00:32:31.15	323.87	42.56	-40.1	-42.4	16.0	0.00e+00	0	56	0	461373440	52	4525
2026-01-08 00:32:32.16	323.42	42.69	-40.0	-42.4	16.1	0.00e+00	0	56	0	463470592	52	4514
2026-01-08 00:32:33.17	322.96	42.81	-40.0	-42.4	16.1	0.00e+00	0	56	0	465567744	52	4497
2026-01-08 00:32:34.18	322.49	42.93	-40.1	-42.5	16.0	0.00e+00	0	56	0	467664896	51	4843
2026-01-08 00:32:35.19	322.03	43.06	-40.1	-42.5	16.0	0.00e+00	0	56	0	468713472	51	4847
2026-01-08 00:32:36.20	321.56	43.18	-40.2	-42.6	15.9	0.00e+00	0	56	0	470810624	51	4892
2026-01-08 00:32:37.21	321.08	43.29	-40.1	-42.4	16.1	0.00e+00	0	56	0	472907776	51	4798
2026-01-08 00:32:38.22	320.60	43.41	-40.0	-42.3	16.2	0.00e+00	0	56	0	475004928	51	4725
2026-01-08 00:32:39.22	320.13	43.52	-40.1	-42.5	16.1	0.00e+00	0	56	0	477102080	51	4817
2026-01-08 00:32:40.23	319.64	43.64	-40.0	-42.4	16.2	0.00e+00	0	56	0	478150656	51	4761
2026-01-08 00:32:41.24	319.16	43.75	-40.0	-42.3	16.2	0.00e+00	0	56	0	480247808	51	4757
2026-01-08 00:32:42.25	318.66	43.85	-40.2	-42.5	16.0	0.00e+00	0	56	0	482344960	51	4848
2026-01-08 00:32:43.26	318.17	43.96	-40.5	-43.0	15.5	0.00e+00	0	56	0	484442112	51	5125
2026-01-08 00:32:44.27	317.67	44.06	-40.8	-43.6	14.8	0.00e+00	0	56	0	485490688	52	5207
2026-01-08 00:32:45.28	317.17	44.17	-41.0	-43.9	14.6	7.00e-07	0	56	0	487587840	52	5343
2026-01-08 00:32:46.29	316.67	44.27	-40.8	-43.5	14.9	0.00e+00	0	56	0	489684992	52	5151
2026-01-08 00:32:47.30	316.16	44.36	-40.7	-43.3	15.0	7.00e-07	0	56	0	491782144	52	5024
2026-01-08 00:32:48.31	315.65	44.46	-40.7	-43.4	15.1	0.00e+00	0	56	0	493879296	52	5056
2026-01-08 00:32:49.32	315.13	44.55	-40.9	-43.6	14.8	0.00e+00	0	56	0	495976448	52	5198
2026-01-08 00:32:50.33	314.62	44.64	-41.0	-43.8	14.6	1.50e-06	0	56	0	497025024	52	5318
2026-01-08 00:32:51.34	314.10	44.73	-41.0	-43.9	14.5	0.00e+00	0	56	0	499122176	52	5355
2026-01-08 00:32:52.35	313.57	44.81	-41.0	-43.9	14.5	0.00e+00	0	56	0	501219328	52	5343
2026-01-08 00:32:53.36	313.05	44.90	-41.0	-43.8	14.6	1.50e-06	0	56	0	503316480	52	5310
2026-01-08 00:32:54.36	312.53	44.98	-41.0	-43.8	14.6	0.00e+00	0	56	0	505413632	52	5329
2026-01-08 00:32:55.37	312.00	45.06	-41.1	-44.1	14.4	7.00e-07	0	56	0	506462208	52	5479
2026-01-08 00:32:56.38	311.46	45.13	-41.2	-44.1	14.3	7.00e-07	0	56	0	508559360	52	5511
2026-01-08 00:32:57.39	310.93	45.20	-41.0	-43.9	14.5	0.00e+00	0	56	0	510656512	52	5382
2026-01-08 00:32:58.40	310.39	45.27	-41.0	-43.9	14.5	1.50e-06	0	56	0	512753664	52	5369
2026-01-08 00:32:59.41	309.85	45.34	-41.0	-43.9	14.5	7.00e-07	0	56	0	514850816	52	5392
2026-01-08 00:33:00.42	309.30	45.41	-41.0	-44.0	14.5	0.00e+00	0	56	0	515899392	52	5406
2026-01-08 00:33:01.43	308.76	45.47	-41.2	-44.2	14.2	7.00e-07	0	56	0	517996544	52	5567
2026-01-08 00:33:02.44	308.21	45.53	-41.3	-44.5	13.9	3.00e-06	0	56	0	520093696	53	5431
2026-01-08 00:33:03.45	307.66	45.58	-41.3	-44.4	13.9	3.00e-06	0	56	0	522190848	53	5381
2026-01-08 00:33:04.45	307.12	45.64	-41.3	-44.3	14.1	4.50e-06	0	56	0	524288000	53	5338
2026-01-08 00:33:05.46	306.56	45.69	-41.3	-44.4	14.0	0.00e+00	0	56	0	525336576	53	5369
2026-01-08 00:33:06.47	306.01	45.73	-41.4	-44.6	13.8	2.20e-06	0	56	0	527433728	53	5506
2026-01-08 00:33:07.48	305.45	45.78	-41.6	-44.9	13.4	1.06e-05	0	56	0	529530880	53	5699
2026-01-08 00:33:08.49	304.90	45.82	-41.6	-44.9	13.5	1.37e-05	0	56	0	531628032	53	5675
2026-01-08 00:33:09.50	304.34	45.86	-41.4	-44.5	13.8	6.10e-06	0	56	0	533725184	53	5435
2026-01-08 00:33:10.50	303.78	45.90	-41.4	-44.6	13.8	3.00e-06	0	56	0	534773760	53	5491
2026-01-08 00:33:11.51	303.22	45.93	-41.6	-44.9	13.6	3.80e-06	0	56	0	536870912	53	5662
2026-01-08 00:33:12.52	302.66	45.96	-41.7	-45.1	13.4	1.83e-05	0	56	0	538968064	53	5830
2026-01-08 00:33:13.53	302.09	45.99	-41.9	-45.5	12.9	4.04e-05	0	56	0	541065216	54	5753
2026-01-08 00:33:14.54	301.53	46.01	-42.0	-45.7	12.7	7.55e-05	0	56	0	543162368	54	5862
2026-01-08 00:33:15.55	300.96	46.03	-41.9	-45.5	12.9	6.17e-05	0	56	0	544210944	54	5775
2026-01-08 00:33:16.56	300.39	46.05	-41.7	-45.0	13.4	2.74e-05	0	56	0	546308096	54	5443
2026-01-08 00:33:17.57	299.83	46.06	-41.5	-44.7	13.7	5.30e-06	0	56	0	548405248	54	5263
2026-01-08 00:33:18.58	299.26	46.07	-41.6	-44.9	13.4	8.30e-06	0	56	0	550502400	54	5391
2026-01-08 00:33:19.59	298.69	46.08	-41.7	-45.1	13.3	1.44e-05	0	56	0	552599552	54	5514
2026-01-08 00:33:20.60	298.12	46.09	-41.7	-45.1	13.3	1.60e-05	0	56	0	553648128	54	5493
2026-01-08 00:33:21.61	297.55	46.09	-41.7	-45.1	13.3	1.06e-05	0	56	0	555745280	54	5500
2026-01-08 00:33:22.62	296.99	46.09	-41.7	-45.1	13.2	1.75e-05	0	56	0	557842432	54	5497
2026-01-08 00:33:23.63	296.42	46.08	-41.8	-45.3	13.1	1.60e-05	0	56	0	559939584	54	5609
2026-01-08 00:33:24.64	295.85	46.08	-41.6	-44.9	13.5	1.75e-05	0	56	0	562036736	54	5360
2026-01-08 00:33:25.64	295.29	46.07	-41.5	-44.8	13.6	3.80e-06	0	56	0	564133888	54	5285
2026-01-08 00:33:26.65	294.72	46.05	-41.6	-44.9	13.5	4.50e-06	0	56	0	565182464	54	5360
2026-01-08 00:33:27.66	294.15	46.04	-41.6	-44.8	13.6	3.80e-06	0	56	0	567279616	54	5333
2026-01-08 00:33:28.67	293.59	46.02	-41.6	-44.8	13.6	6.10e-06	0	56	0	569376768	54	5308
2026-01-08 00:33:29.68	293.02	45.99	-41.6	-44.9	13.5	8.30e-06	0	56	0	571473920	54	5381
2026-01-08 00:33:30.69	292.45	45.97	-41.7	-45.1	13.2	1.67e-05	0	56	0	573571072	54	5507
2026-01-08 00:33:31.70	291.89	45.94	-41.9	-45.5	12.9	3.20e-05	0	56	0	574619648	54	5726
2026-01-08 00:33:32.71	291.33	45.91	-41.9	-45.4	12.9	5.11e-05	0	56	0	576716800	54	5679
2026-01-08 00:33:33.72	290.77	45.87	-41.9	-45.5	12.8	6.02e-05	0	56	0	578813952	54	5778
2026-01-08 00:33:34.73	290.21	45.84	-41.9	-45.5	12.8	5.95e-05	0	56	0	580911104	54	5724
2026-01-08 00:33:35.74	289.65	45.79	-41.7	-45.1	13.3	2.44e-05	0	56	0	583008256	54	5487
2026-01-08 00:33:36.75	289.09	45.75	-41.9	-45.4	13.0	2.13e-05	0	56	0	584056832	54	5657
2026-01-08 00:33:37.75	288.54	45.70	-41.9	-45.5	12.8	4.50e-05	0	56	0	586153984	54	5760
2026-01-08 00:33:38.76	287.99	45.65	-42.0	-45.5	12.8	5.26e-05	0	56	0	588251136	54	5788
2026-01-08 00:33:39.77	287.43	45.60	-42.1	-45.7	12.6	8.46e-05	0	56	0	590348288	54	5923
2026-01-08 00:33:40.78	286.88	45.55	-42.4	-46.4	11.8	1.74e-04	0	56	0	592445440	55	6056
2026-01-08 00:33:41.79	286.33	45.49	-42.6	-47.0	11.3	1.07e-03	0	56	0	593494016	55	6445
2026-01-08 00:33:42.80	285.79	45.43	-42.9	-47.3	11.1	1.69e-03	0	56	0	595591168	56	6277
2026-01-08 00:33:43.81	285.24	45.36	-42.5	-46.4	12.0	6.02e-04	0	56	0	597688320	56	5704
2026-01-08 00:33:44.82	284.70	45.30	-42.4	-46.2	12.3	2.52e-04	0	56	0	599785472	56	5543
2026-01-08 00:33:45.83	284.16	45.23	-42.4	-46.3	12.1	2.18e-04	0	56	0	601882624	56	5636
2026-01-08 00:33:46.84	283.62	45.16	-42.6	-46.6	11.9	2.73e-04	0	56	0	602931200	56	5834
2026-01-08 00:33:47.85	283.09	45.08	-42.6	-46.7	11.8	4.61e-04	0	56	0	605028352	56	5907
2026-01-08 00:33:48.86	282.56	45.00	-42.6	-46.7	11.8	5.64e-04	0	56	0	607125504	56	5879
2026-01-08 00:33:49.87	282.03	44.92	-42.3	-46.1	12.3	2.79e-04	0	56	0	609222656	56	5510
2026-01-08 00:33:50.88	281.50	44.84	-42.1	-45.7	12.8	1.05e-04	0	56	0	611319808	56	5225
2026-01-08 00:33:51.89	280.98	44.76	-42.0	-45.4	13.1	4.80e-05	0	56	0	612368384	56	5079
2026-01-08 00:33:52.89	280.46	44.67	-41.8	-45.2	13.1	2.67e-05	0	56	0	614465536	55	5260
2026-01-08 00:33:53.90	279.94	44.58	-41.8	-45.2	13.2	1.98e-05	0	56	0	616562688	55	5258
2026-01-08 00:33:54.91	279.43	44.49	-41.7	-45.1	13.3	3.05e-05	0	56	0	618659840	55	5173
2026-01-08 00:33:55.92	278.91	44.39	-41.7	-45.0	13.2	2.05e-05	0	56	0	620756992	55	5142
2026-01-08 00:33:56.93	278.40	44.30	-41.5	-44.8	13.6	9.10e-06	0	56	0	621805568	55	4993
2026-01-08 00:33:57.94	277.90	44.20	-41.3	-44.3	14.0	3.80e-06	0	56	0	623902720	54	5023
2026-01-08 00:33:58.95	277.39	44.10	-41.0	-43.9	14.5	0.00e+00	0	56	0	625999872	54	4772
2026-01-08 00:33:59.96	276.89	43.99	-40.8	-43.5	14.8	7.00e-07	0	56	0	628097024	53	4866
2026-01-08 00:34:00.97	276.40	43.89	-40.6	-43.3	15.0	0.00e+00	0	56	0	630194176	53	4737
2026-01-08 00:34:01.98	275.90	43.78	-40.5	-43.1	15.3	0.00e+00	0	56	0	632291328	52	4886
2026-01-08 00:34:02.99	275.41	43.67	-40.6	-43.2	15.2	0.00e+00	0	56	0	633339904	52	4959
2026-01-08 00:34:04.00	274.93	43.56	-40.7	-43.4	14.9	0.00e+00	0	56	0	635437056	52	5098
2026-01-08 00:34:05.00	274.45	43.45	-40.7	-43.5	14.8	0.00e+00	0	56	0	637534208	52	5102
2026-01-08 00:34:06.01	273.97	43.33	-40.7	-43.4	15.0	0.00e+00	0	56	0	639631360	52	5065
2026-01-08 00:34:07.02	273.49	43.21	-40.5	-43.0	15.3	0.00e+00	0	56	0	640679936	52	4868
2026-01-08 00:34:08.03	273.02	43.09	-40.3	-42.8	15.5	0.00e+00	0	56	0	642777088	52	4745
2026-01-08 00:34:09.04	272.55	42.97	-40.1	-42.4	15.9	0.00e+00	0	56	0	644874240	52	4543
2026-01-08 00:34:10.04	272.09	42.85	-39.9	-42.1	16.3	0.00e+00	0	56	0	646971392	51	4634
2026-01-08 00:34:11.05	271.63	42.73	-39.6	-41.8	16.6	0.00e+00	0	56	0	649068544	51	4474
2026-01-08 00:34:12.06	271.17	42.60	-39.4	-41.5	16.9	0.00e+00	0	56	0	650117120	50	4592
2026-01-08 00:34:13.07	270.71	42.47	-39.6	-41.7	16.7	0.00e+00	0	56	0	652214272	50	4701
2026-01-08 00:34:14.08	270.26	42.34	-39.6	-41.7	16.7	0.00e+00	0	56	0	654311424	50	4704
2026-01-08 00:34:15.09	269.81	42.21	-39.7	-41.9	16.6	0.00e+00	0	56	0	656408576	50	4774
2026-01-08 00:34:16.10	269.37	42.08	-39.4	-41.4	17.0	0.00e+00	0	56	0	658505728	50	4535
2026-01-08 00:34:17.11	268.93	41.94	-39.0	-41.0	17.5	0.00e+00	0	56	0	660602880	50	4296
2026-01-08 00:34:18.12	268.49	41.81	-38.8	-40.6	17.7	0.00e+00	0	56	0	661651456	49	4383
2026-01-08 00:34:19.13	268.06	41.67	-38.6	-40.4	18.0	0.00e+00	0	56	0	663748608	49	4256
2026-01-08 00:34:20.13	267.63	41.54	-38.4	-40.2	18.2	0.00e+00	0	56	0	665845760	48	4415
2026-01-08 00:34:21.14	267.21	41.40	-38.6	-40.5	17.9	0.00e+00	0	56	0	667942912	48	4560
2026-01-08 00:34:22.15	266.79	41.26	-38.8	-40.8	17.6	0.00e+00	0	56	0	670040064	48	4717
2026-01-08 00:34:23.16	266.37	41.11	-39.1	-41.1	17.3	0.00e+00	0	56	0	671088640	48	4925
2026-01-08 00:34:24.17	265.95	40.97	-39.2	-41.2	17.2	0.00e+00	0	56	0	673185792	48	4958
2026-01-08 00:34:25.17	265.55	40.83	-39.2	-41.2	17.2	0.00e+00	0	56	0	675282944	49	4667
2026-01-08 00:34:26.18	265.14	40.68	-39.0	-41.0	17.4	0.00e+00	0	56	0	677380096	49	4558
2026-01-08 00:34:27.19	264.74	40.54	-39.0	-40.9	17.5	0.00e+00	0	56	0	679477248	49	4528
2026-01-08 00:34:28.20	264.34	40.39	-38.7	-40.6	17.8	0.00e+00	0	56	0	680525824	49	4362
2026-01-08 00:34:29.21	263.94	40.24	-38.6	-40.4	18.0	0.00e+00	0	56	0	682622976	49	4267
2026-01-08 00:34:30.22	263.55	40.09	-38.6	-40.4	18.0	0.00e+00	0	56	0	684720128	49	4277
2026-01-08 00:34:31.23	263.16	39.94	-38.8	-40.7	17.7	0.00e+00	0	56	0	686817280	49	4424
2026-01-08 00:34:32.23	262.78	39.79	-39.0	-41.0	17.4	0.00e+00	0	57	0	688914432	49	4556
2026-01-08 00:34:33.24	262.39	39.64	-39.1	-41.1	17.3	0.00e+00	0	56	0	689963008	49	4618
2026-01-08 00:34:34.25	262.01	39.49	-39.1	-41.1	17.3	0.00e+00	0	56	0	692060160	49	4646
2026-01-08 00:34:35.26	261.64	39.34	-39.2	-41.3	17.1	0.00e+00	0	56	0	694157312	49	4728
2026-01-08 00:34:36.27	261.27	39.18	-39.1	-41.1	17.3	0.00e+00	0	56	0	696254464	49	4620
2026-01-08 00:34:37.28	260.90	39.03	-39.0	-40.9	17.5	0.00e+00	0	56	0	698351616	49	4518
2026-01-08 00:34:38.29	260.54	38.87	-38.9	-40.8	17.6	0.00e+00	0	56	0	699400192	49	4465
2026-01-08 00:34:39.30	260.18	38.72	-39.0	-40.9	17.4	0.00e+00	0	56	0	701497344	49	4529
2026-01-08 00:34:40.30	259.82	38.56	-39.1	-41.1	17.3	0.00e+00	0	56	0	703594496	49	4627
2026-01-08 00:34:41.31	259.47	38.40	-39.2	-41.2	17.2	0.00e+00	0	56	0	705691648	49	4687
2026-01-08 00:34:42.32	259.12	38.25	-39.3	-41.3	17.0	0.00e+00	0	56	0	707788800	49	4758
2026-01-08 00:34:43.34	258.77	38.09	-39.4	-41.5	16.8	0.00e+00	0	56	0	708837376	49	4859
2026-01-08 00:34:44.34	258.43	37.93	-39.5	-41.7	16.7	0.00e+00	0	57	0	710934528	49	4928
2026-01-08 00:34:45.35	258.08	37.77	-39.5	-41.7	16.7	0.00e+00	0	56	0	713031680	49	4928
2026-01-08 00:34:46.36	257.75	37.61	-39.6	-41.7	16.6	0.00e+00	0	56	0	715128832	49	4977
2026-01-08 00:34:47.37	257.41	37.45	-39.6	-41.8	16.6	0.00e+00	0	56	0	717225984	49	4999
2026-01-08 00:34:48.37	257.09	37.30	-39.6	-41.8	16.5	0.00e+00	0	57	0	718274560	49	5040
2026-01-08 00:34:49.38	256.76	37.14	-39.8	-42.1	16.3	0.00e+00	0	56	0	720371712	50	4882
2026-01-08 00:34:50.39	256.43	36.98	-39.9	-42.2	16.2	0.00e+00	0	56	0	722468864	50	4977
2026-01-08 00:34:51.40	256.11	36.81	-40.1	-42.5	16.0	0.00e+00	0	56	0	724566016	50	5103
2026-01-08 00:34:52.41	255.80	36.65	-40.1	-42.4	15.9	0.00e+00	0	56	0	726663168	50	5097
2026-01-08 00:34:53.42	255.48	36.49	-40.0	-42.3	16.0	0.00e+00	0	56	0	727711744	50	5025
2026-01-08 00:34:54.43	255.17	36.33	-40.0	-42.4	16.0	0.00e+00	0	56	0	729808896	50	5072
2026-01-08 00:34:55.43	254.86	36.17	-40.1	-42.5	15.9	0.00e+00	0	56	0	731906048	50	5106
2026-01-08 00:34:56.44	254.56	36.01	-40.1	-42.5	15.8	0.00e+00	0	56	0	734003200	50	5144
2026-01-08 00:34:57.45	254.26	35.85	-40.3	-42.7	15.7	0.00e+00	0	56	0	736100352	51	4976
2026-01-08 00:34:58.46	253.96	35.69	-40.5	-43.1	15.3	0.00e+00	0	56	0	737148928	51	5209
2026-01-08 00:34:59.47	253.66	35.52	-40.8	-43.6	14.6	0.00e+00	0	56	0	739246080	52	5218
2026-01-08 00:35:00.48	253.37	35.36	-41.0	-43.9	14.3	2.20e-06	0	56	0	741343232	52	5394
2026-01-08 00:35:01.49	253.08	35.20	-41.1	-44.0	14.2	1.50e-06	0	57	0	743440384	52	5459
2026-01-08 00:35:02.50	252.79	35.04	-41.0	-43.9	14.3	0.00e+00	0	57	0	745537536	52	5392
2026-01-08 00:35:03.51	252.50	34.88	-41.0	-43.9	14.4	7.00e-07	0	56	0	746586112	52	5359
2026-01-08 00:35:04.51	252.22	34.72	-41.1	-44.0	14.2	1.50e-06	0	57	0	748683264	52	5446
2026-01-08 00:35:05.52	251.94	34.55	-41.2	-44.3	14.0	1.50e-06	0	57	0	750780416	52	5598
2026-01-08 00:35:06.53	251.67	34.39	-41.4	-44.6	13.6	5.30e-06	0	56	0	752877568	53	5473
2026-01-08 00:35:07.54	251.39	34.23	-41.6	-44.9	13.3	1.14e-05	0	56	0	754974720	53	5680
2026-01-08 00:35:08.55	251.12	34.07	-41.8	-45.2	13.0	3.66e-05	0	56	0	757071872	54	5580
2026-01-08 00:35:09.56	250.85	33.91	-41.9	-45.4	12.8	5.34e-05	0	56	0	758120448	54	5715
2026-01-08 00:35:10.57	250.59	33.75	-41.9	-45.5	12.7	8.23e-05	0	57	0	760217600	54	5762
2026-01-08 00:35:11.58	250.33	33.59	-41.9	-45.5	12.7	5.95e-05	0	56	0	762314752	54	5731
2026-01-08 00:35:12.59	250.07	33.42	-41.9	-45.6	12.6	5.56e-05	0	57	0	764411904	54	5811
2026-01-08 00:35:13.60	249.81	33.26	-42.0	-45.7	12.5	1.19e-04	0	57	0	766509056	54	5882
2026-01-08 00:35:14.61	249.55	33.10	-42.1	-45.9	12.2	1.79e-04	0	56	0	767557632	54	6058
2026-01-08 00:35:15.62	249.30	32.94	-42.1	-45.8	12.3	1.52e-04	0	56	0	769654784	54	5992
2026-01-08 00:35:16.63	249.05	32.78	-42.2	-46.2	11.9	3.06e-04	0	57	0	771751936	55	5886
2026-01-08 00:35:17.64	248.80	32.62	-42.1	-46.0	12.2	3.12e-04	0	56	0	773849088	55	5733
2026-01-08 00:35:18.65	248.56	32.46	-42.3	-46.2	11.9	3.25e-04	0	56	0	775946240	55	5919
2026-01-08 00:35:19.66	248.31	32.30	-42.3	-46.4	11.7	4.33e-04	0	56	0	776994816	55	6028
2026-01-08 00:35:20.66	248.07	32.15	-42.4	-46.7	11.5	9.04e-04	0	57	0	779091968	55	6206
2026-01-08 00:35:21.68	247.83	31.98	-42.5	-46.7	11.5	8.31e-04	0	56	0	781189120	55	6204
2026-01-08 00:35:22.69	247.60	31.83	-42.4	-46.6	11.5	8.32e-04	0	56	0	783286272	55	6192
2026-01-08 00:35:23.69	247.37	31.67	-42.3	-46.3	11.8	4.65e-04	0	56	0	785383424	55	5974
2026-01-08 00:35:24.70	247.14	31.51	-42.2	-46.0	12.1	3.87e-04	0	56	0	786432000	55	5762
2026-01-08 00:35:25.71	246.91	31.35	-41.8	-45.3	12.8	1.49e-04	0	56	0	788529152	55	5326
2026-01-08 00:35:26.72	246.68	31.20	-41.9	-45.4	12.7	6.86e-05	0	56	0	790626304	55	5397
2026-01-08 00:35:27.73	246.45	31.04	-41.9	-45.6	12.6	7.55e-05	0	57	0	792723456	55	5470
2026-01-08 00:35:28.74	246.23	30.88	-42.0	-45.7	12.4	1.19e-04	0	56	0	794820608	55	5561
2026-01-08 00:35:29.75	246.01	30.73	-41.9	-45.6	12.6	1.09e-04	0	56	0	795869184	55	5488
2026-01-08 00:35:30.76	245.79	30.57	-41.9	-45.6	12.6	8.54e-05	0	57	0	797966336	55	5482
2026-01-08 00:35:31.77	245.58	30.41	-41.9	-45.6	12.6	1.54e-04	0	56	0	800063488	55	5487
2026-01-08 00:35:32.78	245.36	30.26	-42.0	-45.7	12.4	1.34e-04	0	56	0	802160640	55	5590
2026-01-08 00:35:33.78	245.15	30.11	-41.9	-45.5	12.7	1.06e-04	0	56	0	804257792	55	5449
2026-01-08 00:35:34.79	244.94	29.95	-41.9	-45.6	12.5	8.31e-05	0	56	0	805306368	55	5500
2026-01-08 00:35:35.80	244.74	29.80	-41.8	-45.3	12.8	9.38e-05	0	56	0	807403520	55	5326
2026-01-08 00:35:36.81	244.53	29.64	-41.6	-45.0	13.1	3.28e-05	0	56	0	809500672	55	5125
2026-01-08 00:35:37.82	244.33	29.49	-41.5	-44.8	13.3	1.98e-05	0	56	0	811597824	55	5041
2026-01-08 00:35:38.83	244.12	29.34	-41.5	-44.9	13.4	2.74e-05	0	56	0	813694976	54	5358
2026-01-08 00:35:39.84	243.92	29.19	-41.4	-44.7	13.4	2.05e-05	0	56	0	814743552	54	5254
2026-01-08 00:35:40.84	243.73	29.03	-41.4	-44.6	13.6	9.10e-06	0	57	0	816840704	54	5206
2026-01-08 00:35:41.85	243.53	28.88	-41.4	-44.7	13.5	9.10e-06	0	56	0	818937856	54	5226
2026-01-08 00:35:42.86	243.34	28.73	-41.3	-44.5	13.7	5.30e-06	0	57	0	821035008	54	5144
2026-01-08 00:35:43.87	243.15	28.58	-41.3	-44.5	13.7	6.80e-06	0	56	0	823132160	54	5123
2026-01-08 00:35:44.88	242.95	28.43	-41.3	-44.5	13.7	3.80e-06	0	57	0	825229312	54	5129
2026-01-08 00:35:45.89	242.77	28.28	-41.4	-44.6	13.6	1.60e-05	0	56	0	826277888	54	5196
2026-01-08 00:35:46.90	242.58	28.13	-41.3	-44.5	13.6	9.10e-06	0	56	0	828375040	54	5121
2026-01-08 00:35:47.91	242.39	27.98	-41.3	-44.4	13.8	7.60e-06	0	56	0	830472192	54	5078
2026-01-08 00:35:48.91	242.21	27.84	-41.0	-44.0	14.1	1.50e-06	0	56	0	832569344	54	4861
2026-01-08 00:35:49.92	242.03	27.69	-41.0	-44.0	14.2	0.00e+00	0	57	0	833617920	54	4815
2026-01-08 00:35:50.93	241.85	27.54	-40.9	-43.7	14.4	0.00e+00	0	56	0	835715072	53	4980
2026-01-08 00:35:51.94	241.67	27.39	-40.9	-43.8	14.4	0.00e+00	0	56	0	837812224	53	4999
2026-01-08 00:35:52.95	241.49	27.25	-40.9	-43.9	14.3	1.50e-06	0	57	0	839909376	53	5043
2026-01-08 00:35:53.95	241.32	27.10	-40.9	-43.8	14.3	0.00e+00	0	57	0	842006528	53	5041
2026-01-08 00:35:54.96	241.15	26.96	-41.0	-43.9	14.3	0.00e+00	0	56	0	843055104	53	5080
2026-01-08 00:35:55.97	240.97	26.81	-41.0	-43.9	14.2	7.00e-07	0	56	0	845152256	53	5091
2026-01-08 00:35:56.97	240.80	26.67	-41.0	-44.0	14.1	2.20e-06	0	57	0	847249408	53	5146
2026-01-08 00:35:57.98	240.64	26.53	-41.0	-44.0	14.1	1.50e-06	0	56	0	849346560	53	5119
2026-01-08 00:35:58.99	240.47	26.38	-41.0	-44.0	14.2	7.00e-07	0	56	0	851443712	53	5110
2026-01-08 00:36:00.00	240.30	26.24	-40.9	-43.8	14.3	2.20e-06	0	56	0	853540864	53	5011
2026-01-08 00:36:01.01	240.14	26.10	-40.8	-43.7	14.4	1.50e-06	0	56	0	854589440	53	4968
2026-01-08 00:36:02.02	239.97	25.95	-40.8	-43.7	14.5	0.00e+00	0	56	0	856686592	53	4947
2026-01-08 00:36:03.03	239.81	25.81	-40.9	-43.9	14.2	1.50e-06	0	57	0	858783744	53	5073
2026-01-08 00:36:04.04	239.65	25.67	-40.9	-43.9	14.3	0.00e+00	0	56	0	860880896	53	5049
2026-01-08 00:36:05.04	239.50	25.53	-41.0	-44.0	14.1	1.50e-06	0	56	0	862978048	53	5143
2026-01-08 00:36:06.05	239.34	25.39	-41.1	-44.1	14.1	5.30e-06	0	56	0	864026624	53	5179
2026-01-08 00:36:07.06	239.18	25.25	-41.0	-44.1	14.1	3.00e-06	0	56	0	866123776	53	5166
2026-01-08 00:36:08.07	239.03	25.11	-40.9	-43.9	14.2	1.50e-06	0	56	0	868220928	53	5082
2026-01-08 00:36:09.08	238.88	24.98	-40.8	-43.8	14.4	7.00e-07	0	57	0	870318080	53	4994
2026-01-08 00:36:10.09	238.72	24.84	-40.9	-43.8	14.3	1.50e-06	0	56	0	872415232	53	5029
2026-01-08 00:36:11.10	238.57	24.70	-40.8	-43.6	14.5	7.00e-07	0	56	0	873463808	53	4904
2026-01-08 00:36:12.11	238.42	24.56	-40.7	-43.4	14.7	0.00e+00	0	56	0	875560960	53	4812
2026-01-08 00:36:13.12	238.28	24.43	-40.6	-43.3	14.8	7.00e-07	0	56	0	877658112	53	4741
2026-01-08 00:36:14.12	238.13	24.29	-40.4	-43.1	15.1	7.00e-07	0	56	0	879755264	52	4891
2026-01-08 00:36:15.13	237.99	24.16	-40.4	-43.0	15.1	0.00e+00	0	57	0	881852416	52	4846
2026-01-08 00:36:16.14	237.84	24.02	-40.4	-43.0	15.1	0.00e+00	0	56	0	882900992	52	4831
2026-01-08 00:36:17.15	237.70	23.89	-40.4	-43.0	15.1	0.00e+00	0	56	0	884998144	52	4823
2026-01-08 00:36:18.16	237.56	23.75	-40.4	-43.1	15.0	0.00e+00	0	56	0	887095296	52	4885
2026-01-08 00:36:19.17	237.42	23.62	-40.5	-43.3	14.8	0.00e+00	0	56	0	889192448	52	4995
2026-01-08 00:36:20.18	237.28	23.48	-40.6	-43.4	14.7	0.00e+00	0	56	0	891289600	52	5057
2026-01-08 00:36:21.19	237.14	23.35	-40.7	-43.6	14.5	0.00e+00	0	56	0	892338176	52	5185
2026-01-08 00:36:22.20	237.00	23.22	-40.8	-43.6	14.5	0.00e+00	0	57	0	894435328	52	5199
2026-01-08 00:36:23.21	236.87	23.09	-40.9	-43.8	14.3	7.00e-07	0	56	0	896532480	52	5326
2026-01-08 00:36:24.22	236.73	22.96	-40.9	-43.9	14.2	1.50e-06	0	56	0	898629632	52	5396
2026-01-08 00:36:25.22	236.60	22.83	-40.9	-43.8	14.3	7.00e-07	0	56	0	900726784	52	5306
2026-01-08 00:36:26.23	236.47	22.70	-40.9	-43.8	14.3	7.00e-07	0	56	0	901775360	52	5325
2026-01-08 00:36:27.24	236.34	22.57	-40.9	-43.9	14.1	7.00e-07	0	57	0	903872512	52	5400
2026-01-08 00:36:28.25	236.21	22.44	-40.8	-43.7	14.3	1.50e-06	0	56	0	905969664	52	5263
2026-01-08 00:36:29.26	236.08	22.31	-40.8	-43.7	14.4	2.20e-06	0	57	0	908066816	52	5268
2026-01-08 00:36:30.27	235.95	22.18	-40.8	-43.8	14.3	0.00e+00	0	56	0	910163968	52	5289
2026-01-08 00:36:31.28	235.83	22.05	-40.9	-43.9	14.2	2.20e-06	0	56	0	911212544	52	5348
2026-01-08 00:36:32.29	235.70	21.93	-40.9	-43.9	14.2	0.00e+00	0	56	0	913309696	52	5341
2026-01-08 00:36:33.30	235.58	21.80	-40.8	-43.8	14.3	7.00e-07	0	57	0	915406848	52	5285
2026-01-08 00:36:34.31	235.45	21.67	-40.8	-43.8	14.3	7.00e-07	0	56	0	917504000	52	5308
2026-01-08 00:36:35.31	235.33	21.55	-40.8	-43.7	14.3	3.00e-06	0	56	0	919601152	52	5271
2026-01-08 00:36:36.32	235.21	21.42	-40.6	-43.4	14.6	0.00e+00	0	56	0	920649728	52	5100
2026-01-08 00:36:37.33	235.09	21.30	-40.6	-43.4	14.7	0.00e+00	0	56	0	922746880	52	5077
2026-01-08 00:36:38.34	234.97	21.18	-40.6	-43.4	14.6	0.00e+00	0	56	0	924844032	52	5056
2026-01-08 00:36:39.35	234.85	21.05	-40.6	-43.3	14.7	0.00e+00	0	56	0	926941184	52	5040
2026-01-08 00:36:40.36	234.73	20.93	-40.6	-43.4	14.7	0.00e+00	0	57	0	929038336	52	5047
2026-01-08 00:36:41.37	234.62	20.81	-40.6	-43.4	14.7	0.00e+00	0	57	0	930086912	52	5055
2026-01-08 00:36:42.37	234.50	20.68	-40.6	-43.4	14.6	0.00e+00	0	56	0	932184064	52	5083
2026-01-08 00:36:43.38	234.39	20.56	-40.6	-43.5	14.6	1.50e-06	0	56	0	934281216	52	5102
2026-01-08 00:36:44.39	234.27	20.44	-40.6	-43.4	14.6	0.00e+00	0	56	0	936378368	52	5099
2026-01-08 00:36:45.40	234.16	20.32	-40.6	-43.5	14.6	1.50e-06	0	56	0	938475520	52	5123
2026-01-08 00:36:46.41	234.05	20.20	-40.7	-43.5	14.5	0.00e+00	0	57	0	939524096	52	5151
2026-01-08 00:36:47.41	233.94	20.08	-40.7	-43.6	14.4	0.00e+00	0	56	0	941621248	52	5201
2026-01-08 00:36:48.42	233.83	19.96	-40.7	-43.6	14.4	0.00e+00	0	57	0	943718400	52	5171
2026-01-08 00:36:49.43	233.72	19.84	-40.7	-43.5	14.5	1.50e-06	0	56	0	945815552	52	5158
2026-01-08 00:36:50.44	233.61	19.72	-40.7	-43.5	14.5	0.00e+00	0	56	0	947912704	52	5157
2026-01-08 00:36:51.45	233.50	19.60	-40.7	-43.5	14.5	0.00e+00	0	56	0	950009856	52	5128
2026-01-08 00:36:52.46	233.40	19.49	-40.7	-43.6	14.4	0.00e+00	0	56	0	951058432	52	5213
2026-01-08 00:36:53.46	233.29	19.37	-40.8	-43.7	14.3	1.50e-06	0	56	0	953155584	52	5248
2026-01-08 00:36:54.47	233.19	19.25	-40.7	-43.6	14.4	0.00e+00	0	57	0	955252736	52	5205
2026-01-08 00:36:55.48	233.08	19.14	-40.6	-43.4	14.6	0.00e+00	0	57	0	957349888	52	5072
2026-01-08 00:36:56.49	232.98	19.02	-40.5	-43.2	14.8	7.00e-07	0	56	0	959447040	52	4952
2026-01-08 00:36:57.50	232.88	18.91	-40.5	-43.2	14.8	0.00e+00	0	56	0	960495616	52	4967
2026-01-08 00:36:58.51	232.77	18.79	-40.5	-43.3	14.7	7.00e-07	0	56	0	962592768	52	4987
2026-01-08 00:36:59.52	232.67	18.68	-40.6	-43.4	14.7	0.00e+00	0	56	0	964689920	52	5046
2026-01-08 00:37:00.53	232.57	18.56	-40.6	-43.3	14.7	0.00e+00	0	56	0	966787072	52	5032
2026-01-08 00:37:01.54	232.47	18.45	-40.6	-43.5	14.5	7.00e-07	0	56	0	968884224	52	5121
2026-01-08 00:37:02.55	232.37	18.33	-40.7	-43.6	14.4	7.00e-07	0	56	0	969932800	52	5193
2026-01-08 00:37:03.55	232.28	18.22	-40.8	-43.8	14.2	0.00e+00	0	56	0	972029952	52	5294
2026-01-08 00:37:04.56	232.18	18.11	-40.9	-43.9	14.1	3.00e-06	0	56	0	974127104	52	5351
2026-01-08 00:37:05.57	232.08	18.00	-41.0	-44.0	14.0	3.00e-06	0	56	0	976224256	52	5448
2026-01-08 00:37:06.58	231.99	17.89	-41.0	-44.1	13.8	7.00e-07	0	56	0	978321408	52	5514
2026-01-08 00:37:07.59	231.89	17.78	-41.0	-44.1	13.8	6.10e-06	0	56	0	979369984	52	5515
2026-01-08 00:37:08.59	231.80	17.67	-40.9	-44.0	14.0	7.00e-07	0	56	0	981467136	52	5431
2026-01-08 00:37:09.60	231.70	17.55	-40.9	-44.0	14.0	2.20e-06	0	57	0	983564288	52	5413
2026-01-08 00:37:10.61	231.61	17.44	-40.9	-44.0	13.9	3.80e-06	0	56	0	985661440	52	5435
2026-01-08 00:37:11.61	231.52	17.34	-40.8	-43.8	14.1	3.00e-06	0	56	0	987758592	52	5333
2026-01-08 00:37:12.62	231.43	17.23	-40.9	-43.9	14.0	7.00e-07	0	57	0	988807168	52	5365
2026-01-08 00:37:13.62	231.34	17.12	-40.8	-43.8	14.2	2.20e-06	0	56	0	990904320	52	5286
2026-01-08 00:37:14.62	231.25	17.01	-40.8	-43.8	14.1	7.00e-07	0	56	0	993001472	52	5313
2026-01-08 00:37:15.63	231.16	16.90	-40.9	-44.0	13.9	3.80e-06	0	56	0	995098624	52	5442
2026-01-08 00:37:16.64	231.07	16.80	-40.9	-44.0	13.9	3.80e-06	0	56	0	997195776	52	5412
2026-01-08 00:37:17.65	230.98	16.69	-41.0	-44.1	13.8	6.80e-06	0	56	0	998244352	52	5485
2026-01-08 00:37:18.66	230.89	16.58	-40.9	-44.1	13.8	4.50e-06	0	57	0	1000341504	52	5467
2026-01-08 00:37:19.67	230.81	16.48	-41.0	-44.2	13.7	4.50e-06	0	57	0	1002438656	52	5529
2026-01-08 00:37:20.68	230.72	16.37	-41.1	-44.4	13.5	1.14e-05	0	57	0	1004535808	52	5685
2026-01-08 00:37:21.69	230.63	16.26	-41.0	-44.2	13.7	6.80e-06	0	56	0	1006632960	52	5561
2026-01-08 00:37:22.70	230.55	16.16	-41.1	-44.3	13.6	6.80e-06	0	56	0	1007681536	52	5624
2026-01-08 00:37:23.70	230.46	16.06	-41.1	-44.3	13.6	8.30e-06	0	56	0	1009778688	52	5612
2026-01-08 00:37:24.71	230.38	15.95	-41.1	-44.4	13.5	8.30e-06	0	56	0	1011875840	52	5661
2026-01-08 00:37:25.72	230.30	15.85	-40.9	-44.1	13.8	9.10e-06	0	57	0	1013972992	52	5480
2026-01-08 00:37:26.73	230.21	15.74	-41.0	-44.1	13.7	9.10e-06	0	56	0	1016070144	52	5518
2026-01-08 00:37:27.74	230.13	15.64	-40.9	-44.1	13.8	3.00e-06	0	56	0	1017118720	52	5508
2026-01-08 00:37:28.75	230.05	15.54	-40.9	-44.1	13.8	2.20e-06	0	56	0	1019215872	52	5465
2026-01-08 00:37:29.76	229.97	15.43	-40.9	-44.0	13.8	5.30e-06	0	56	0	1021313024	52	5447
2026-01-08 00:37:30.77	229.89	15.33	-40.9	-44.0	13.8	5.30e-06	0	56	0	1023410176	52	5444
2026-01-08 00:37:31.78	229.81	15.23	-40.9	-44.0	13.8	5.30e-06	0	57	0	1025507328	52	5450
2026-01-08 00:37:32.78	229.73	15.13	-40.9	-44.0	13.9	3.00e-06	0	56	0	1026555904	52	5424
2026-01-08 00:37:33.79	229.65	15.03	-40.8	-43.9	13.9	3.80e-06	0	56	0	1028653056	52	5398
2026-01-08 00:37:34.80	229.57	14.93	-40.9	-44.0	13.8	3.00e-06	0	56	0	1030750208	52	5453
2026-01-08 00:37:35.81	229.49	14.83	-40.9	-44.1	13.8	5.30e-06	0	56	0	1032847360	52	5476
2026-01-08 00:37:36.82	229.42	14.73	-41.0	-44.2	13.6	6.10e-06	0	57	0	1034944512	52	5576
2026-01-08 00:37:37.83	229.34	14.63	-41.0	-44.2	13.5	8.30e-06	0	57	0	1035993088	52	5581
2026-01-08 00:37:38.84	229.26	14.53	-41.1	-44.4	13.4	1.60e-05	0	56	0	1038090240	52	5700
2026-01-08 00:37:39.85	229.19	14.43	-41.1	-44.4	13.3	2.36e-05	0	56	0	1040187392	52	5715
2026-01-08 00:37:40.85	229.11	14.33	-41.0	-44.3	13.4	1.22e-05	0	56	0	1042284544	52	5642
2026-01-08 00:37:41.86	229.04	14.23	-41.1	-44.5	13.3	9.10e-06	0	57	0	1044381696	52	5729
2026-01-08 00:37:42.87	228.97	14.14	-41.2	-44.5	13.2	2.05e-05	0	57	0	1046478848	52	5788
2026-01-08 00:37:43.88	228.89	14.04	-41.2	-44.6	13.2	1.98e-05	0	56	0	1047527424	52	5791
2026-01-08 00:37:44.89	228.82	13.94	-41.2	-44.6	13.2	2.59e-05	0	56	0	1049624576	52	5804
2026-01-08 00:37:45.90	228.75	13.84	-41.2	-44.6	13.1	1.98e-05	0	56	0	1051721728	52	5839
2026-01-08 00:37:46.90	228.67	13.75	-41.2	-44.7	13.1	3.50e-05	0	57	0	1053818880	53	5550
2026-01-08 00:37:47.91	228.60	13.65	-41.2	-44.7	13.0	3.73e-05	0	57	0	1054867456	53	5568
2026-01-08 00:37:48.92	228.53	13.56	-41.3	-44.8	13.0	3.81e-05	0	56	0	1056964608	53	5618
2026-01-08 00:37:49.93	228.46	13.46	-41.3	-44.7	13.0	2.97e-05	0	57	0	1059061760	53	5589
2026-01-08 00:37:50.94	228.39	13.37	-41.3	-44.9	12.9	5.18e-05	0	56	0	1061158912	53	5668
2026-01-08 00:37:51.95	228.32	13.27	-41.3	-44.8	12.9	4.11e-05	0	56	0	1063256064	53	5646
2026-01-08 00:37:52.95	228.25	13.18	-41.2	-44.7	13.0	5.41e-05	0	56	0	1064304640	53	5565
2026-01-08 00:37:53.96	228.18	13.08	-41.2	-44.7	12.9	5.56e-05	0	57	0	1066401792	53	5591
2026-01-08 00:37:54.97	228.11	12.99	-41.2	-44.6	13.1	4.50e-05	0	57	0	1068498944	53	5528
2026-01-08 00:37:55.98	228.05	12.90	-41.2	-44.7	13.0	3.96e-05	0	57	0	1070596096	53	5576
2026-01-08 00:37:56.98	227.98	12.80	-41.2	-44.7	13.0	4.04e-05	0	57	0	1072693248	53	5566
2026-01-08 00:37:57.99	227.91	12.71	-41.2	-44.7	13.0	4.19e-05	0	57	0	1074790400	53	5564
2026-01-08 00:37:59.00	227.85	12.62	-41.3	-44.8	12.9	4.73e-05	0	57	0	1075838976	53	5605
2026-01-08 00:38:00.01	227.78	12.53	-41.3	-44.8	12.8	5.72e-05	0	56	0	1077936128	53	5656
2026-01-08 00:38:01.02	227.71	12.43	-41.3	-44.8	12.9	6.71e-05	0	56	0	1080033280	53	5595
2026-01-08 00:38:02.03	227.65	12.34	-41.3	-44.8	12.9	5.03e-05	0	57	0	1082130432	53	5598
2026-01-08 00:38:03.03	227.58	12.25	-41.3	-44.8	12.9	4.04e-05	0	56	0	1084227584	53	5602
2026-01-08 00:38:04.04	227.52	12.16	-41.2	-44.8	12.9	6.63e-05	0	57	0	1085276160	53	5603
