passes_logs/2026/01/08/R2.0S_Moscow/R2.0S_Moscow__20260108_095607_SUOMI_NPP_rec.log

#Pass ID: 20260108_095607_SUOMI NPP
#Satellite: SUOMI NPP
#Configuration: NPP
#almurnet v.1.7.20251203
#Start time: 2026-01-08 09:56:08

#Version: 2.2.20231116
#Station: R2.0S_Moscow
#Location: 37.707566 lon 55.798166 lat
#TLE: 1 37849U 11061A   26005.94084933  .00000134  00000+0  84554-4 0  9990
#TLE: 2 37849  98.7803 308.0679 0002567  79.1029 281.0436 14.19522657735426

#Time	Az	El	Level	Level2	SNR	BER	BlckErr	Temp	State	Recorded	gain1	gain2
2026-01-08 09:56:08.83	158.94	2.11	-44.0	-58.4	3.8	1.49e+00	0	47	0	0	59	18972
2026-01-08 09:56:09.83	158.94	2.17	-44.0	-58.4	3.8	1.49e+00	0	47	104	0	59	18993
2026-01-08 09:56:10.85	158.94	2.24	-44.0	-58.4	3.8	1.49e+00	0	47	104	0	59	19007
2026-01-08 09:56:11.86	158.94	2.30	-44.0	-58.4	3.8	1.49e+00	0	48	104	0	59	18975
2026-01-08 09:56:12.87	158.94	2.37	-43.9	-58.3	3.8	1.49e+00	0	48	104	0	59	18932
2026-01-08 09:56:13.88	158.94	2.44	-44.0	-58.4	3.8	1.49e+00	0	47	104	0	59	18973
2026-01-08 09:56:14.89	158.94	2.50	-44.0	-58.4	3.8	1.49e+00	0	47	104	0	59	19000
2026-01-08 09:56:15.90	158.94	2.57	-43.9	-58.4	3.8	1.49e+00	0	48	104	0	59	18973
2026-01-08 09:56:16.91	158.94	2.63	-44.0	-58.4	3.8	1.49e+00	0	48	104	0	59	19066
2026-01-08 09:56:17.93	158.94	2.70	-43.9	-58.4	3.8	1.49e+00	0	48	104	0	59	19008
2026-01-08 09:56:18.94	158.94	2.77	-44.0	-58.4	3.8	1.49e+00	0	48	104	0	59	19002
2026-01-08 09:56:19.95	158.94	2.83	-44.0	-58.4	3.8	1.49e+00	0	48	104	0	59	19042
2026-01-08 09:56:20.96	158.94	2.90	-44.0	-58.3	3.8	1.49e+00	0	48	104	0	59	18947
2026-01-08 09:56:21.97	158.94	2.97	-44.0	-58.4	3.8	1.49e+00	0	48	104	0	59	18984
2026-01-08 09:56:22.98	158.94	3.04	-44.0	-58.3	3.8	1.49e+00	0	48	104	0	59	18948
2026-01-08 09:56:23.99	158.94	3.10	-43.9	-58.4	3.8	1.49e+00	0	48	104	0	59	18951
2026-01-08 09:56:25.01	158.94	3.17	-44.0	-58.4	3.8	1.49e+00	0	48	104	0	59	18970
2026-01-08 09:56:26.02	158.94	3.24	-44.0	-58.4	3.8	1.49e+00	0	49	104	0	59	18964
2026-01-08 09:56:27.03	158.94	3.31	-43.9	-58.4	3.8	1.49e+00	0	49	104	0	59	18976
2026-01-08 09:56:28.04	158.94	3.38	-44.0	-58.3	3.8	1.49e+00	0	49	104	0	59	18941
2026-01-08 09:56:29.05	158.94	3.45	-43.9	-58.4	3.8	1.49e+00	0	49	104	0	59	18963
2026-01-08 09:56:30.06	158.94	3.51	-43.9	-58.3	3.8	1.49e+00	0	49	104	0	59	18915
2026-01-08 09:56:31.07	158.94	3.58	-44.0	-58.4	3.8	1.49e+00	0	49	104	0	59	18950
2026-01-08 09:56:32.08	158.94	3.65	-44.0	-58.4	3.8	1.49e+00	0	49	104	0	59	19021
2026-01-08 09:56:33.09	158.94	3.72	-44.0	-58.3	3.8	1.49e+00	0	49	104	0	59	18937
2026-01-08 09:56:34.10	158.94	3.79	-44.0	-58.3	3.8	1.49e+00	0	49	104	0	59	18870
2026-01-08 09:56:35.11	158.94	3.86	-44.0	-58.3	3.8	1.49e+00	0	49	104	0	59	18947
2026-01-08 09:56:36.12	158.94	3.93	-44.0	-58.3	3.8	1.49e+00	0	49	104	0	59	18945
2026-01-08 09:56:37.14	158.94	4.00	-43.9	-58.4	3.8	1.49e+00	0	49	104	0	59	18957
2026-01-08 09:56:38.15	158.94	4.07	-44.0	-58.3	3.8	1.49e+00	0	49	104	0	59	18920
2026-01-08 09:56:39.16	158.94	4.14	-43.9	-58.4	3.8	1.49e+00	0	49	104	0	59	18971
2026-01-08 09:56:40.17	158.94	4.21	-43.9	-58.3	3.8	1.49e+00	0	49	104	0	59	18867
2026-01-08 09:56:41.18	158.94	4.28	-44.0	-58.4	3.8	1.49e+00	0	49	104	0	59	18958
2026-01-08 09:56:42.19	158.94	4.35	-44.0	-58.4	3.8	1.49e+00	0	50	104	0	59	18969
2026-01-08 09:56:43.20	158.93	4.42	-43.9	-58.4	3.8	1.49e+00	0	49	104	0	59	18982
2026-01-08 09:56:44.21	158.93	4.49	-44.0	-58.3	3.8	1.49e+00	0	50	104	0	59	18926
2026-01-08 09:56:45.22	158.93	4.56	-44.0	-58.3	3.8	1.49e+00	0	50	104	0	59	18922
2026-01-08 09:56:46.24	158.93	4.64	-44.0	-58.3	3.8	1.49e+00	0	50	104	0	59	18886
2026-01-08 09:56:47.25	158.93	4.71	-44.0	-58.4	3.8	1.49e+00	0	50	104	0	59	18949
2026-01-08 09:56:48.26	158.93	4.78	-44.0	-58.3	3.8	1.49e+00	0	50	104	0	59	18931
2026-01-08 09:56:49.27	158.93	4.85	-43.9	-58.3	3.8	1.49e+00	0	50	104	0	59	18804
2026-01-08 09:56:50.28	158.93	4.92	-43.9	-58.3	3.8	1.49e+00	0	50	104	0	59	18869
2026-01-08 09:56:51.29	158.93	5.00	-44.0	-58.3	3.8	1.49e+00	0	50	104	0	59	18870
2026-01-08 09:56:52.30	158.93	5.07	-43.9	-58.3	3.8	1.49e+00	0	50	104	0	59	18850
2026-01-08 09:56:53.31	158.93	5.14	-43.9	-58.3	3.8	1.49e+00	0	50	104	0	59	18747
2026-01-08 09:56:54.32	158.93	5.21	-43.9	-58.2	3.8	1.49e+00	0	50	104	0	59	18690
2026-01-08 09:56:55.34	158.93	5.29	-43.9	-58.2	3.8	1.49e+00	0	50	104	0	59	18644
2026-01-08 09:56:56.35	158.93	5.36	-43.9	-58.2	3.8	1.49e+00	0	50	104	0	59	18620
2026-01-08 09:56:57.36	158.93	5.44	-43.9	-58.2	3.8	1.49e+00	0	50	104	0	59	18559
2026-01-08 09:56:58.37	158.93	5.51	-43.9	-58.2	3.8	1.49e+00	0	50	104	0	59	18591
2026-01-08 09:56:59.38	158.92	5.58	-43.9	-58.2	3.8	1.49e+00	0	50	104	0	59	18583
2026-01-08 09:57:00.39	158.92	5.66	-43.9	-58.2	3.8	1.49e+00	0	50	104	0	59	18610
2026-01-08 09:57:01.40	158.92	5.73	-43.9	-58.2	3.8	1.49e+00	0	51	104	0	59	18631
2026-01-08 09:57:02.41	158.92	5.81	-43.9	-58.2	3.8	1.49e+00	0	51	104	0	59	18552
2026-01-08 09:57:03.42	158.92	5.88	-43.9	-58.2	3.8	1.49e+00	0	50	104	0	59	18539
2026-01-08 09:57:04.43	158.92	5.96	-43.9	-58.1	3.8	1.49e+00	0	51	104	0	59	18427
2026-01-08 09:57:05.45	158.92	6.03	-43.9	-58.1	3.8	1.49e+00	0	51	104	0	59	18431
2026-01-08 09:57:06.46	158.92	6.11	-43.9	-58.1	3.8	1.49e+00	0	51	104	0	59	18313
2026-01-08 09:57:07.47	158.92	6.18	-43.9	-58.1	3.8	1.49e+00	0	51	104	0	59	18333
2026-01-08 09:57:08.48	158.92	6.26	-43.9	-58.0	3.8	1.49e+00	0	51	104	0	59	18293
2026-01-08 09:57:09.49	158.92	6.34	-43.9	-58.1	3.8	1.49e+00	0	51	104	0	59	18339
2026-01-08 09:57:10.50	158.91	6.41	-43.9	-58.1	3.8	1.49e+00	0	51	104	0	59	18460
2026-01-08 09:57:11.51	158.91	6.49	-43.9	-58.2	3.8	1.49e+00	0	51	104	0	59	18590
2026-01-08 09:57:12.52	158.91	6.57	-43.9	-58.2	3.8	1.49e+00	0	51	104	0	59	18726
2026-01-08 09:57:13.53	158.91	6.64	-43.9	-58.2	3.8	1.49e+00	0	51	104	0	59	18714
2026-01-08 09:57:14.54	158.91	6.72	-43.9	-58.1	3.8	1.49e+00	0	51	104	0	59	18462
2026-01-08 09:57:15.56	158.91	6.80	-43.9	-57.8	3.8	1.49e+00	0	51	104	0	59	17735
2026-01-08 09:57:16.57	158.91	6.88	-43.9	-57.3	3.8	1.49e+00	0	51	104	0	59	16754
2026-01-08 09:57:17.58	158.91	6.96	-43.8	-56.6	3.8	1.49e+00	0	51	104	0	59	15470
2026-01-08 09:57:18.59	158.91	7.03	-43.8	-55.7	4.0	1.49e+00	0	51	104	0	59	13969
2026-01-08 09:57:19.60	158.91	7.11	-43.7	-54.4	4.3	1.43e+00	0	51	0	0	59	11966
2026-01-08 09:57:20.61	158.90	7.19	-43.6	-53.4	4.7	1.09e+00	0	51	0	1048576	59	10774
2026-01-08 09:57:21.62	158.90	7.27	-43.4	-52.3	5.3	6.69e-01	0	52	0	3145728	58	10026
2026-01-08 09:57:22.63	158.90	7.35	-43.3	-51.4	5.9	4.83e-01	0	51	0	5242880	58	9051
2026-01-08 09:57:23.64	158.90	7.43	-43.1	-50.5	6.6	2.51e-01	0	51	0	7340032	58	8121
2026-01-08 09:57:24.65	158.90	7.51	-42.8	-49.5	7.6	1.38e-01	0	51	0	8388608	57	7646
2026-01-08 09:57:25.67	158.90	7.59	-42.7	-48.8	8.2	7.51e-02	0	52	0	10485760	57	7081
2026-01-08 09:57:26.68	158.90	7.67	-42.5	-48.2	8.8	5.95e-02	0	52	0	12582912	57	6571
2026-01-08 09:57:27.69	158.90	7.75	-42.2	-47.5	9.5	2.02e-02	0	52	0	14680064	56	6465
2026-01-08 09:57:28.70	158.89	7.83	-42.2	-47.3	9.8	1.11e-02	0	52	0	16777216	56	6318
2026-01-08 09:57:29.71	158.89	7.91	-41.8	-46.6	10.3	8.49e-03	0	52	0	18874368	55	6138
2026-01-08 09:57:30.72	158.89	7.99	-41.9	-46.8	10.1	5.04e-03	0	52	0	19922944	55	6299
2026-01-08 09:57:31.73	158.89	8.08	-44.1	-56.8	3.8	4.79e-02	0	52	0	22020096	58	16703
2026-01-08 09:57:32.74	158.89	8.16	-44.1	-56.7	3.8	1.49e+00	0	52	104	22020096	59	15734
2026-01-08 09:57:33.75	158.89	8.24	-42.3	-47.8	9.3	2.69e-02	0	52	0	22020096	55	7081
2026-01-08 09:57:34.76	158.89	8.32	-43.1	-50.2	6.9	1.37e-01	0	52	0	24117248	57	8357
2026-01-08 09:57:35.77	158.88	8.41	-41.6	-46.0	11.1	1.37e-01	0	52	0	25165824	55	5758
2026-01-08 09:57:36.78	158.88	8.49	-41.7	-46.3	10.6	8.47e-03	0	52	0	27262976	55	5981
2026-01-08 09:57:37.79	158.88	8.57	-41.6	-46.0	10.9	2.17e-03	0	52	0	29360128	55	5764
2026-01-08 09:57:38.80	158.88	8.66	-41.4	-45.6	11.4	1.52e-03	0	52	0	31457280	54	5805
2026-01-08 09:57:39.81	158.88	8.74	-41.4	-45.5	11.5	1.45e-03	0	52	0	33554432	54	5773
2026-01-08 09:57:40.82	158.88	8.82	-41.4	-45.6	11.5	1.04e-03	0	52	0	35651584	54	5811
2026-01-08 09:57:41.83	158.88	8.91	-41.4	-45.5	11.6	4.75e-04	0	52	0	36700160	54	5768
2026-01-08 09:57:42.84	158.87	8.99	-41.4	-45.5	11.6	5.77e-04	0	52	0	38797312	54	5752
2026-01-08 09:57:43.85	158.87	9.08	-41.4	-45.6	11.6	9.99e-04	0	52	0	40894464	54	5822
2026-01-08 09:57:44.87	158.87	9.16	-41.4	-45.5	11.7	5.32e-04	0	53	0	42991616	54	5750
2026-01-08 09:57:45.88	158.87	9.25	-41.4	-45.5	11.6	7.22e-04	0	53	0	45088768	54	5768
2026-01-08 09:57:46.89	158.87	9.33	-41.3	-45.2	11.9	4.46e-04	0	52	0	46137344	54	5564
2026-01-08 09:57:47.90	158.86	9.42	-41.3	-45.3	11.9	3.51e-04	0	53	0	48234496	54	5616
2026-01-08 09:57:48.91	158.86	9.51	-41.4	-45.4	11.7	4.99e-04	0	53	0	50331648	54	5679
2026-01-08 09:57:49.92	158.86	9.59	-41.3	-45.2	12.0	2.07e-04	0	53	0	52428800	54	5579
2026-01-08 09:57:50.93	158.86	9.68	-41.2	-45.0	12.2	4.23e-04	0	53	0	54525952	54	5440
2026-01-08 09:57:51.94	158.86	9.77	-41.3	-45.2	12.0	3.94e-04	0	53	0	55574528	54	5536
2026-01-08 09:57:52.95	158.86	9.86	-41.3	-45.2	12.1	2.73e-04	0	52	0	57671680	54	5531
2026-01-08 09:57:53.96	158.85	9.94	-41.2	-44.9	12.3	2.39e-04	0	53	0	59768832	54	5369
2026-01-08 09:57:54.97	158.85	10.03	-41.1	-44.7	12.5	1.34e-04	0	53	0	61865984	54	5273
2026-01-08 09:57:55.98	158.85	10.12	-41.1	-44.8	12.5	1.44e-04	0	53	0	63963136	54	5323
2026-01-08 09:57:56.99	158.85	10.21	-41.0	-44.5	12.8	8.39e-05	0	53	0	66060288	53	5413
2026-01-08 09:57:58.00	158.85	10.30	-41.0	-44.6	12.7	8.62e-05	0	53	0	67108864	53	5484
2026-01-08 09:57:59.01	158.84	10.39	-41.1	-44.8	12.5	6.48e-05	0	53	0	69206016	53	5629
2026-01-08 09:58:00.02	158.84	10.48	-41.0	-44.5	12.8	5.56e-05	0	53	0	71303168	53	5453
2026-01-08 09:58:01.04	158.84	10.57	-41.0	-44.5	12.8	7.70e-05	0	53	0	73400320	53	5462
2026-01-08 09:58:02.05	158.84	10.66	-41.2	-44.9	12.5	8.54e-05	0	53	0	75497472	53	5684
2026-01-08 09:58:03.05	158.84	10.75	-41.1	-44.7	12.7	8.54e-05	0	53	0	76546048	53	5556
2026-01-08 09:58:04.07	158.83	10.84	-41.2	-44.9	12.5	4.42e-05	0	53	0	78643200	53	5676
2026-01-08 09:58:05.07	158.83	10.93	-41.1	-44.7	12.6	7.47e-05	0	53	0	80740352	53	5588
2026-01-08 09:58:06.08	158.83	11.02	-41.2	-44.8	12.5	1.11e-04	0	53	0	82837504	53	5655
2026-01-08 09:58:07.09	158.83	11.12	-41.1	-44.7	12.7	7.93e-05	0	53	0	84934656	53	5578
2026-01-08 09:58:08.10	158.82	11.21	-41.1	-44.7	12.7	8.01e-05	0	53	0	85983232	53	5564
2026-01-08 09:58:09.11	158.82	11.30	-41.2	-44.9	12.5	7.62e-05	0	53	0	88080384	53	5708
2026-01-08 09:58:10.12	158.82	11.40	-41.2	-44.8	12.6	1.20e-04	0	53	0	90177536	53	5654
2026-01-08 09:58:11.14	158.82	11.49	-41.2	-44.8	12.7	7.93e-05	0	53	0	92274688	53	5593
2026-01-08 09:58:12.15	158.81	11.58	-41.1	-44.7	12.8	9.46e-05	0	53	0	94371840	53	5565
2026-01-08 09:58:13.16	158.81	11.68	-41.1	-44.6	12.9	7.40e-05	0	53	0	95420416	53	5469
2026-01-08 09:58:14.17	158.81	11.77	-41.0	-44.5	13.1	4.50e-05	0	53	0	97517568	53	5406
2026-01-08 09:58:15.18	158.81	11.87	-41.1	-44.6	12.9	3.58e-05	0	53	0	99614720	53	5483
2026-01-08 09:58:16.19	158.80	11.96	-40.9	-44.3	13.3	2.97e-05	0	53	0	101711872	53	5314
2026-01-08 09:58:17.20	158.80	12.06	-41.0	-44.3	13.2	1.90e-05	0	53	0	103809024	53	5332
2026-01-08 09:58:18.21	158.80	12.16	-40.8	-44.0	13.5	1.29e-05	0	53	0	104857600	53	5131
2026-01-08 09:58:19.22	158.80	12.25	-40.9	-44.2	13.4	1.52e-05	0	53	0	106954752	53	5251
2026-01-08 09:58:20.23	158.79	12.35	-40.7	-43.8	13.8	5.30e-06	0	53	0	109051904	53	5005
2026-01-08 09:58:21.24	158.79	12.45	-40.6	-43.7	13.9	7.60e-06	0	53	0	111149056	53	4957
2026-01-08 09:58:22.25	158.79	12.55	-40.6	-43.7	13.9	4.50e-06	0	53	0	113246208	53	4941
2026-01-08 09:58:23.26	158.78	12.64	-40.6	-43.6	14.1	7.00e-07	0	54	0	114294784	53	4881
2026-01-08 09:58:24.27	158.78	12.74	-40.6	-43.5	14.1	1.50e-06	0	54	0	116391936	53	4868
2026-01-08 09:58:25.28	158.78	12.84	-40.5	-43.4	14.2	1.50e-06	0	53	0	118489088	53	4805
2026-01-08 09:58:26.29	158.78	12.94	-40.6	-43.6	14.1	7.00e-07	0	53	0	120586240	53	4889
2026-01-08 09:58:27.30	158.77	13.04	-40.5	-43.5	14.2	3.80e-06	0	54	0	122683392	53	4833
2026-01-08 09:58:28.32	158.77	13.14	-40.6	-43.6	14.1	7.00e-07	0	54	0	123731968	52	5194
2026-01-08 09:58:29.33	158.77	13.24	-40.6	-43.6	14.1	3.00e-06	0	53	0	125829120	52	5191
2026-01-08 09:58:30.34	158.76	13.34	-40.6	-43.6	14.2	1.50e-06	0	54	0	127926272	52	5164
2026-01-08 09:58:31.35	158.76	13.45	-40.6	-43.6	14.1	0.00e+00	0	54	0	130023424	52	5186
2026-01-08 09:58:32.36	158.76	13.55	-40.5	-43.4	14.3	7.00e-07	0	54	0	132120576	52	5092
2026-01-08 09:58:33.37	158.75	13.65	-40.6	-43.5	14.2	7.00e-07	0	54	0	134217728	52	5158
2026-01-08 09:58:34.38	158.75	13.75	-40.6	-43.7	14.1	0.00e+00	0	54	0	135266304	52	5220
2026-01-08 09:58:35.39	158.75	13.86	-40.6	-43.6	14.1	7.00e-07	0	54	0	137363456	52	5208
2026-01-08 09:58:36.40	158.74	13.96	-40.6	-43.5	14.2	1.50e-06	0	54	0	139460608	52	5145
2026-01-08 09:58:37.41	158.74	14.06	-40.6	-43.6	14.2	2.20e-06	0	54	0	141557760	52	5165
2026-01-08 09:58:38.42	158.74	14.17	-40.6	-43.5	14.2	2.20e-06	0	54	0	143654912	52	5158
2026-01-08 09:58:39.43	158.73	14.27	-40.6	-43.6	14.2	7.00e-07	0	54	0	144703488	52	5197
2026-01-08 09:58:40.44	158.73	14.38	-40.6	-43.5	14.3	3.80e-06	0	54	0	146800640	52	5159
2026-01-08 09:58:41.45	158.73	14.48	-40.5	-43.4	14.4	1.50e-06	0	54	0	148897792	52	5073
2026-01-08 09:58:42.46	158.72	14.59	-40.5	-43.3	14.5	1.50e-06	0	54	0	150994944	52	5038
2026-01-08 09:58:43.47	158.72	14.70	-40.4	-43.2	14.6	0.00e+00	0	54	0	153092096	52	4954
2026-01-08 09:58:44.48	158.71	14.80	-40.3	-43.1	14.7	0.00e+00	0	54	0	154140672	52	4890
2026-01-08 09:58:45.50	158.71	14.91	-40.3	-43.0	14.8	0.00e+00	0	54	0	156237824	52	4860
2026-01-08 09:58:46.51	158.71	15.02	-40.2	-42.9	14.9	0.00e+00	0	54	0	158334976	52	4813
2026-01-08 09:58:47.52	158.70	15.13	-40.3	-43.0	14.8	0.00e+00	0	54	0	160432128	52	4854
2026-01-08 09:58:48.53	158.70	15.24	-40.2	-42.9	15.0	0.00e+00	0	54	0	162529280	52	4792
2026-01-08 09:58:49.54	158.70	15.35	-40.1	-42.7	15.1	0.00e+00	0	54	0	163577856	52	4692
2026-01-08 09:58:50.55	158.69	15.46	-40.1	-42.8	15.1	0.00e+00	0	54	0	165675008	52	4728
2026-01-08 09:58:51.56	158.69	15.57	-40.1	-42.7	15.2	0.00e+00	0	54	0	167772160	52	4674
2026-01-08 09:58:52.57	158.68	15.68	-40.2	-42.8	15.0	0.00e+00	0	54	0	169869312	52	4750
2026-01-08 09:58:53.58	158.68	15.79	-40.1	-42.7	15.1	0.00e+00	0	54	0	171966464	52	4698
2026-01-08 09:58:54.59	158.67	15.91	-40.1	-42.7	15.2	0.00e+00	0	54	0	174063616	52	4685
2026-01-08 09:58:55.60	158.67	16.02	-40.1	-42.8	15.1	0.00e+00	0	54	0	175112192	52	4719
2026-01-08 09:58:56.61	158.67	16.13	-40.1	-42.8	15.1	0.00e+00	0	54	0	177209344	52	4725
2026-01-08 09:58:57.62	158.66	16.25	-40.1	-42.7	15.2	0.00e+00	0	54	0	179306496	52	4691
2026-01-08 09:58:58.63	158.66	16.36	-40.1	-42.8	15.1	0.00e+00	0	54	0	181403648	52	4730
2026-01-08 09:58:59.64	158.65	16.48	-40.0	-42.5	15.3	0.00e+00	0	54	0	183500800	52	4595
2026-01-08 09:59:00.65	158.65	16.59	-40.0	-42.6	15.3	0.00e+00	0	54	0	184549376	52	4624
2026-01-08 09:59:01.66	158.64	16.71	-40.0	-42.5	15.5	0.00e+00	0	54	0	186646528	51	4839
2026-01-08 09:59:02.67	158.64	16.82	-39.9	-42.4	15.6	0.00e+00	0	54	0	188743680	51	4785
2026-01-08 09:59:03.68	158.63	16.94	-39.9	-42.4	15.5	0.00e+00	0	54	0	190840832	51	4793
2026-01-08 09:59:04.69	158.63	17.06	-40.0	-42.5	15.5	0.00e+00	0	54	0	192937984	51	4823
2026-01-08 09:59:05.71	158.62	17.18	-40.0	-42.4	15.6	0.00e+00	0	54	0	193986560	51	4811
2026-01-08 09:59:06.72	158.62	17.30	-40.0	-42.4	15.5	0.00e+00	0	54	0	196083712	51	4812
2026-01-08 09:59:07.73	158.61	17.42	-39.9	-42.3	15.7	0.00e+00	0	54	0	198180864	51	4727
2026-01-08 09:59:08.74	158.61	17.54	-39.9	-42.3	15.7	0.00e+00	0	54	0	200278016	51	4734
2026-01-08 09:59:09.75	158.60	17.66	-40.0	-42.4	15.6	0.00e+00	0	54	0	202375168	51	4792
2026-01-08 09:59:10.76	158.60	17.78	-40.0	-42.5	15.5	0.00e+00	0	54	0	203423744	51	4854
2026-01-08 09:59:11.77	158.59	17.90	-40.1	-42.7	15.4	0.00e+00	0	54	0	205520896	51	4950
2026-01-08 09:59:12.78	158.59	18.02	-40.1	-42.6	15.4	0.00e+00	0	54	0	207618048	51	4907
2026-01-08 09:59:13.79	158.58	18.15	-40.1	-42.6	15.4	0.00e+00	0	54	0	209715200	51	4902
2026-01-08 09:59:14.80	158.58	18.27	-40.2	-42.7	15.3	0.00e+00	0	54	0	211812352	51	4962
2026-01-08 09:59:15.81	158.57	18.39	-40.1	-42.6	15.5	0.00e+00	0	55	0	212860928	51	4886
2026-01-08 09:59:16.83	158.57	18.52	-40.1	-42.7	15.4	0.00e+00	0	55	0	214958080	51	4931
2026-01-08 09:59:17.84	158.56	18.65	-40.1	-42.6	15.5	0.00e+00	0	54	0	217055232	51	4901
2026-01-08 09:59:18.85	158.55	18.77	-40.0	-42.5	15.5	0.00e+00	0	54	0	219152384	51	4852
2026-01-08 09:59:19.86	158.55	18.90	-40.1	-42.6	15.4	0.00e+00	0	55	0	221249536	51	4924
2026-01-08 09:59:20.87	158.54	19.03	-40.0	-42.5	15.6	0.00e+00	0	54	0	222298112	51	4852
2026-01-08 09:59:21.88	158.54	19.15	-39.9	-42.3	15.7	0.00e+00	0	55	0	224395264	51	4749
2026-01-08 09:59:22.89	158.53	19.28	-39.9	-42.4	15.7	0.00e+00	0	54	0	226492416	51	4760
2026-01-08 09:59:23.90	158.53	19.41	-39.9	-42.3	15.8	0.00e+00	0	54	0	228589568	51	4749
2026-01-08 09:59:24.91	158.52	19.54	-40.0	-42.5	15.6	0.00e+00	0	55	0	230686720	51	4853
2026-01-08 09:59:25.91	158.51	19.67	-40.1	-42.6	15.5	0.00e+00	0	55	0	231735296	51	4913
2026-01-08 09:59:26.92	158.51	19.80	-40.2	-42.8	15.3	0.00e+00	0	55	0	233832448	51	5022
2026-01-08 09:59:27.94	158.50	19.94	-40.3	-43.0	15.1	0.00e+00	0	54	0	235929600	51	5122
2026-01-08 09:59:28.95	158.49	20.07	-40.3	-42.9	15.2	0.00e+00	0	55	0	238026752	51	5074
2026-01-08 09:59:29.96	158.49	20.20	-40.4	-43.1	15.1	0.00e+00	0	54	0	240123904	51	5167
2026-01-08 09:59:30.97	158.48	20.34	-40.4	-43.0	15.1	0.00e+00	0	55	0	242221056	51	5141
2026-01-08 09:59:31.98	158.47	20.47	-40.4	-43.1	15.0	0.00e+00	0	55	0	243269632	51	5179
2026-01-08 09:59:32.99	158.47	20.61	-40.5	-43.2	14.9	0.00e+00	0	55	0	245366784	51	5276
2026-01-08 09:59:34.00	158.46	20.75	-40.6	-43.3	14.8	7.00e-07	0	55	0	247463936	51	5334
2026-01-08 09:59:35.01	158.45	20.88	-40.4	-43.2	15.0	7.00e-07	0	55	0	249561088	51	5221
2026-01-08 09:59:36.02	158.45	21.02	-40.5	-43.3	14.8	7.00e-07	0	55	0	251658240	51	5312
2026-01-08 09:59:37.03	158.44	21.16	-40.6	-43.3	14.8	0.00e+00	0	55	0	252706816	51	5336
2026-01-08 09:59:38.04	158.43	21.30	-40.4	-43.0	15.1	0.00e+00	0	55	0	254803968	51	5155
2026-01-08 09:59:39.05	158.42	21.44	-40.3	-43.0	15.1	0.00e+00	0	55	0	256901120	51	5125
2026-01-08 09:59:40.06	158.42	21.58	-40.5	-43.2	14.9	0.00e+00	0	55	0	258998272	51	5247
2026-01-08 09:59:41.07	158.41	21.72	-40.4	-43.1	15.0	0.00e+00	0	55	0	261095424	51	5205
2026-01-08 09:59:42.08	158.40	21.87	-40.4	-43.1	15.1	0.00e+00	0	55	0	262144000	51	5166
2026-01-08 09:59:43.10	158.39	22.01	-40.5	-43.2	14.9	0.00e+00	0	55	0	264241152	51	5236
2026-01-08 09:59:44.10	158.39	22.16	-40.6	-43.3	14.8	0.00e+00	0	55	0	266338304	51	5338
2026-01-08 09:59:45.12	158.38	22.30	-40.6	-43.3	14.8	0.00e+00	0	55	0	268435456	51	5330
2026-01-08 09:59:46.13	158.37	22.45	-40.5	-43.2	14.8	0.00e+00	0	55	0	270532608	51	5272
2026-01-08 09:59:47.14	158.36	22.60	-40.5	-43.3	14.9	7.00e-07	0	55	0	271581184	51	5302
2026-01-08 09:59:48.15	158.35	22.74	-40.5	-43.3	14.9	0.00e+00	0	55	0	273678336	51	5281
2026-01-08 09:59:49.16	158.34	22.89	-40.5	-43.2	14.9	0.00e+00	0	55	0	275775488	51	5259
2026-01-08 09:59:50.17	158.34	23.04	-40.5	-43.2	15.0	0.00e+00	0	55	0	277872640	51	5234
2026-01-08 09:59:51.18	158.33	23.19	-40.3	-43.0	15.2	0.00e+00	0	55	0	279969792	51	5114
2026-01-08 09:59:52.19	158.32	23.34	-40.2	-42.8	15.3	0.00e+00	0	55	0	282066944	51	5014
2026-01-08 09:59:53.20	158.31	23.50	-40.2	-42.7	15.4	0.00e+00	0	55	0	283115520	51	4969
2026-01-08 09:59:54.21	158.30	23.65	-39.9	-42.4	15.8	0.00e+00	0	55	0	285212672	51	4765
2026-01-08 09:59:55.22	158.29	23.80	-40.0	-42.4	15.7	0.00e+00	0	55	0	287309824	51	4807
2026-01-08 09:59:56.23	158.28	23.96	-40.0	-42.5	15.7	0.00e+00	0	55	0	289406976	51	4817
2026-01-08 09:59:57.24	158.27	24.11	-40.1	-42.6	15.6	0.00e+00	0	55	0	291504128	51	4903
2026-01-08 09:59:58.25	158.26	24.27	-40.1	-42.6	15.6	0.00e+00	0	55	0	292552704	51	4881
2026-01-08 09:59:59.26	158.26	24.43	-40.2	-42.7	15.5	0.00e+00	0	55	0	294649856	51	4934
2026-01-08 10:00:00.27	158.25	24.59	-40.2	-42.8	15.4	0.00e+00	0	55	0	296747008	51	5018
2026-01-08 10:00:01.29	158.24	24.75	-40.1	-42.6	15.5	0.00e+00	0	55	0	298844160	51	4920
2026-01-08 10:00:02.30	158.23	24.91	-40.1	-42.6	15.6	0.00e+00	0	55	0	300941312	51	4916
2026-01-08 10:00:03.31	158.22	25.07	-40.2	-42.7	15.5	7.00e-07	0	55	0	301989888	51	4975
2026-01-08 10:00:04.32	158.21	25.23	-40.1	-42.6	15.6	0.00e+00	0	55	0	304087040	51	4876
2026-01-08 10:00:05.33	158.20	25.40	-40.0	-42.5	15.7	0.00e+00	0	55	0	306184192	51	4830
2026-01-08 10:00:06.34	158.18	25.56	-39.9	-42.3	15.9	0.00e+00	0	55	0	308281344	51	4733
2026-01-08 10:00:07.35	158.17	25.73	-39.8	-42.1	16.1	0.00e+00	0	55	0	310378496	51	4605
2026-01-08 10:00:08.36	158.16	25.89	-39.7	-42.0	16.2	0.00e+00	0	55	0	311427072	51	4565
2026-01-08 10:00:09.37	158.15	26.06	-39.7	-42.0	16.2	0.00e+00	0	55	0	313524224	51	4571
2026-01-08 10:00:10.38	158.14	26.23	-39.7	-42.0	16.2	0.00e+00	0	55	0	315621376	51	4568
2026-01-08 10:00:11.39	158.13	26.40	-39.6	-41.9	16.3	0.00e+00	0	55	0	317718528	51	4515
2026-01-08 10:00:12.40	158.12	26.57	-39.7	-42.0	16.2	0.00e+00	0	55	0	319815680	51	4548
2026-01-08 10:00:13.41	158.11	26.74	-39.8	-42.1	16.1	0.00e+00	0	55	0	320864256	51	4601
2026-01-08 10:00:14.42	158.10	26.92	-40.0	-42.4	15.8	0.00e+00	0	55	0	322961408	51	4781
2026-01-08 10:00:15.43	158.08	27.09	-40.1	-42.6	15.7	0.00e+00	0	55	0	325058560	51	4883
2026-01-08 10:00:16.44	158.07	27.26	-40.2	-42.7	15.5	0.00e+00	0	55	0	327155712	51	4960
2026-01-08 10:00:17.45	158.06	27.44	-40.3	-42.9	15.3	0.00e+00	0	55	0	329252864	51	5075
2026-01-08 10:00:18.46	158.05	27.62	-40.3	-42.9	15.2	0.00e+00	0	55	0	330301440	51	5073
2026-01-08 10:00:19.47	158.04	27.80	-40.5	-43.2	15.0	0.00e+00	0	55	0	332398592	51	5228
2026-01-08 10:00:20.48	158.02	27.98	-40.5	-43.2	15.1	0.00e+00	0	55	0	334495744	51	5229
2026-01-08 10:00:21.49	158.01	28.16	-40.4	-43.0	15.3	0.00e+00	0	55	0	336592896	51	5118
2026-01-08 10:00:22.50	158.00	28.34	-40.7	-43.4	14.8	0.00e+00	0	55	0	338690048	51	5394
2026-01-08 10:00:23.51	157.98	28.52	-40.5	-43.3	14.8	0.00e+00	0	55	0	339738624	52	5004
2026-01-08 10:00:24.52	157.97	28.71	-40.5	-43.2	14.9	0.00e+00	0	55	0	341835776	52	4954
2026-01-08 10:00:25.53	157.96	28.90	-40.6	-43.4	14.8	0.00e+00	0	55	0	343932928	52	5084
2026-01-08 10:00:26.54	157.94	29.08	-40.5	-43.3	14.9	7.00e-07	0	55	0	346030080	52	4985
2026-01-08 10:00:27.55	157.93	29.27	-41.1	-44.2	14.0	7.00e-07	0	55	0	348127232	52	5545
2026-01-08 10:00:28.56	157.92	29.46	-41.1	-44.2	14.1	3.00e-06	0	55	0	350224384	52	5540
2026-01-08 10:00:29.57	157.90	29.65	-41.0	-44.0	14.2	1.50e-06	0	55	0	351272960	53	5126
2026-01-08 10:00:30.58	157.89	29.84	-41.4	-44.6	13.5	8.30e-06	0	55	0	353370112	53	5505
2026-01-08 10:00:31.59	157.87	30.04	-41.5	-44.8	13.3	6.80e-06	0	55	0	355467264	53	5620
2026-01-08 10:00:32.60	157.86	30.23	-41.2	-44.4	13.8	3.80e-06	0	55	0	357564416	53	5347
2026-01-08 10:00:33.61	157.84	30.43	-41.2	-44.4	13.8	5.30e-06	0	55	0	359661568	53	5344
2026-01-08 10:00:34.62	157.83	30.63	-41.0	-44.0	14.2	1.06e-05	0	56	0	360710144	53	5106
2026-01-08 10:00:35.63	157.81	30.83	-41.4	-44.6	13.5	9.90e-06	0	56	0	362807296	53	5506
2026-01-08 10:00:36.64	157.79	31.03	-41.5	-44.8	13.4	1.14e-05	0	56	0	364904448	53	5625
2026-01-08 10:00:37.65	157.78	31.23	-41.8	-45.5	12.8	3.20e-05	0	56	0	367001600	54	5725
2026-01-08 10:00:38.66	157.76	31.43	-42.1	-45.9	12.3	1.59e-04	0	55	0	369098752	54	6001
2026-01-08 10:00:39.67	157.75	31.63	-42.2	-46.1	12.0	2.83e-04	0	55	0	370147328	55	5826
2026-01-08 10:00:40.69	157.73	31.84	-42.7	-47.2	10.9	4.59e-04	0	55	0	372244480	55	6594
2026-01-08 10:00:41.70	157.71	32.05	-43.1	-48.0	10.2	2.34e-03	0	55	0	374341632	56	6822
2026-01-08 10:00:42.71	157.69	32.26	-43.0	-47.8	10.5	3.21e-03	0	55	0	376438784	56	6690
2026-01-08 10:00:43.72	157.68	32.47	-43.2	-48.3	9.9	7.40e-03	0	55	0	378535936	56	7116
2026-01-08 10:00:44.73	157.66	32.68	-43.1	-48.2	10.2	6.00e-03	0	56	0	379584512	57	6573
2026-01-08 10:00:45.74	157.64	32.89	-43.1	-48.1	10.1	5.75e-03	0	55	0	381681664	57	6565
2026-01-08 10:00:46.75	157.62	33.11	-43.1	-48.2	10.1	6.60e-03	0	55	0	383778816	57	6598
2026-01-08 10:00:47.76	157.60	33.33	-43.0	-47.8	10.5	4.25e-03	0	55	0	385875968	57	6299
2026-01-08 10:00:48.77	157.58	33.54	-43.1	-48.1	10.2	9.57e-03	0	55	0	387973120	57	6533
2026-01-08 10:00:49.78	157.56	33.76	-43.0	-47.9	10.2	7.25e-03	0	56	0	389021696	57	6411
2026-01-08 10:00:50.79	157.55	33.98	-42.9	-47.5	10.8	4.75e-03	0	56	0	391118848	57	6104
2026-01-08 10:00:51.80	157.53	34.21	-42.6	-47.0	11.4	1.19e-03	0	55	0	393216000	57	5727
2026-01-08 10:00:52.81	157.50	34.43	-42.2	-46.0	12.4	4.58e-04	0	56	0	395313152	56	5421
2026-01-08 10:00:53.82	157.48	34.66	-41.8	-45.2	13.0	1.59e-04	0	56	0	397410304	55	5272
2026-01-08 10:00:54.83	157.46	34.88	-41.5	-44.8	13.4	1.98e-05	0	56	0	398458880	54	5322
2026-01-08 10:00:55.84	157.44	35.11	-41.0	-43.9	14.3	1.50e-06	0	56	0	400556032	53	5085
2026-01-08 10:00:56.85	157.42	35.34	-40.5	-43.2	15.0	0.00e+00	0	55	0	402653184	53	4691
2026-01-08 10:00:57.86	157.40	35.58	-40.5	-43.1	15.1	0.00e+00	0	56	0	404750336	53	4625
2026-01-08 10:00:58.88	157.38	35.81	-40.5	-43.2	15.1	0.00e+00	0	55	0	406847488	52	4927
2026-01-08 10:00:59.89	157.35	36.05	-40.4	-43.0	15.2	0.00e+00	0	56	0	408944640	52	4829
2026-01-08 10:01:00.90	157.33	36.29	-40.5	-43.2	15.1	0.00e+00	0	55	0	409993216	52	4935
2026-01-08 10:01:01.91	157.31	36.52	-40.3	-42.7	15.5	0.00e+00	0	56	0	412090368	51	4983
2026-01-08 10:01:02.92	157.28	36.77	-40.2	-42.6	15.7	0.00e+00	0	56	0	414187520	51	4919
2026-01-08 10:01:03.93	157.26	37.01	-40.3	-42.8	15.5	0.00e+00	0	56	0	416284672	51	5013
2026-01-08 10:01:04.94	157.23	37.25	-39.7	-41.9	16.3	0.00e+00	0	55	0	418381824	51	4539
2026-01-08 10:01:05.95	157.21	37.50	-39.6	-41.9	16.4	0.00e+00	0	56	0	419430400	51	4506
2026-01-08 10:01:06.96	157.18	37.75	-39.6	-41.9	16.4	0.00e+00	0	56	0	421527552	51	4494
2026-01-08 10:01:07.97	157.16	38.00	-39.5	-41.7	16.5	0.00e+00	0	56	0	423624704	51	4420
2026-01-08 10:01:08.98	157.13	38.25	-39.7	-42.0	16.3	0.00e+00	0	56	0	425721856	51	4564
2026-01-08 10:01:09.99	157.10	38.50	-40.0	-42.4	15.9	0.00e+00	0	56	0	427819008	51	4782
2026-01-08 10:01:11.00	157.08	38.76	-40.1	-42.6	15.8	0.00e+00	0	56	0	428867584	51	4880
2026-01-08 10:01:12.01	157.05	39.02	-39.8	-42.1	16.2	0.00e+00	0	56	0	430964736	51	4602
2026-01-08 10:01:13.02	157.02	39.28	-39.9	-42.1	16.2	0.00e+00	0	56	0	433061888	51	4643
2026-01-08 10:01:14.03	156.99	39.54	-39.8	-42.1	16.2	0.00e+00	0	56	0	435159040	51	4615
2026-01-08 10:01:15.04	156.96	39.80	-39.6	-41.7	16.5	0.00e+00	0	56	0	437256192	50	4700
2026-01-08 10:01:16.05	156.93	40.07	-39.5	-41.6	16.6	0.00e+00	0	56	0	438304768	50	4641
2026-01-08 10:01:17.06	156.90	40.34	-39.5	-41.6	16.7	0.00e+00	0	56	0	440401920	50	4629
2026-01-08 10:01:18.07	156.87	40.61	-39.6	-41.8	16.5	0.00e+00	0	56	0	442499072	50	4727
2026-01-08 10:01:19.08	156.84	40.88	-39.6	-41.7	16.6	0.00e+00	0	56	0	444596224	50	4682
2026-01-08 10:01:20.09	156.81	41.15	-39.4	-41.4	16.8	0.00e+00	0	56	0	446693376	50	4545
2026-01-08 10:01:21.10	156.78	41.43	-39.8	-42.0	16.3	0.00e+00	0	56	0	447741952	50	4857
2026-01-08 10:01:22.11	156.74	41.71	-40.2	-42.7	15.8	0.00e+00	0	56	0	449839104	50	5220
2026-01-08 10:01:23.12	156.71	41.99	-40.3	-42.9	15.5	0.00e+00	0	56	0	451936256	51	5050
2026-01-08 10:01:24.13	156.67	42.27	-40.4	-43.0	15.4	0.00e+00	0	56	0	454033408	51	5132
2026-01-08 10:01:25.14	156.64	42.55	-40.5	-43.1	15.2	0.00e+00	0	56	0	456130560	51	5169
2026-01-08 10:01:26.15	156.60	42.84	-40.3	-42.8	15.5	0.00e+00	0	56	0	457179136	51	5028
2026-01-08 10:01:27.17	156.57	43.13	-40.1	-42.5	15.8	0.00e+00	0	56	0	459276288	51	4824
2026-01-08 10:01:28.18	156.53	43.42	-40.2	-42.7	15.6	0.00e+00	0	56	0	461373440	51	4950
2026-01-08 10:01:29.19	156.49	43.71	-40.5	-43.0	15.4	0.00e+00	0	56	0	463470592	51	5145
2026-01-08 10:01:30.20	156.45	44.01	-40.2	-42.7	15.7	7.00e-07	0	56	0	465567744	51	4946
2026-01-08 10:01:31.21	156.41	44.31	-40.7	-43.4	14.9	0.00e+00	0	56	0	467664896	52	5058
2026-01-08 10:01:32.22	156.37	44.61	-41.1	-44.1	14.1	2.20e-06	0	56	0	468713472	52	5523
2026-01-08 10:01:33.23	156.33	44.91	-41.2	-44.3	14.0	1.50e-06	0	56	0	470810624	52	5615
2026-01-08 10:01:34.24	156.29	45.21	-41.0	-44.0	14.2	0.00e+00	0	56	0	472907776	53	5122
2026-01-08 10:01:35.25	156.24	45.52	-41.0	-43.9	14.3	7.00e-07	0	56	0	475004928	53	5079
2026-01-08 10:01:36.26	156.20	45.83	-41.1	-44.1	14.1	1.50e-06	0	56	0	477102080	53	5170
2026-01-08 10:01:37.27	156.16	46.14	-41.3	-44.5	13.8	5.30e-06	0	56	0	478150656	53	5410
2026-01-08 10:01:38.29	156.11	46.46	-41.8	-45.3	12.8	1.22e-05	0	56	0	480247808	54	5630
2026-01-08 10:01:39.30	156.06	46.77	-42.2	-46.1	12.1	1.40e-04	0	56	0	482344960	54	6132
2026-01-08 10:01:40.31	156.01	47.09	-42.4	-46.5	11.6	4.53e-04	0	56	0	484442112	55	6081
2026-01-08 10:01:41.32	155.97	47.41	-42.6	-46.7	11.6	1.50e-03	0	56	0	486539264	56	5921
2026-01-08 10:01:42.33	155.92	47.74	-42.7	-47.0	11.3	8.93e-04	0	56	0	487587840	56	6082
2026-01-08 10:01:43.34	155.86	48.06	-42.5	-46.4	11.9	2.58e-04	0	56	0	489684992	56	5710
2026-01-08 10:01:44.35	155.81	48.39	-42.2	-46.0	12.5	9.91e-05	0	56	0	491782144	56	5406
2026-01-08 10:01:45.36	155.76	48.72	-41.8	-45.3	12.8	8.08e-05	0	56	0	493879296	55	5331
2026-01-08 10:01:46.37	155.70	49.05	-41.6	-45.0	13.2	3.66e-05	0	56	0	495976448	55	5115
2026-01-08 10:01:47.38	155.65	49.39	-41.5	-44.7	13.5	1.14e-05	0	56	0	497025024	54	5261
2026-01-08 10:01:48.39	155.59	49.73	-41.3	-44.4	13.8	9.10e-06	0	56	0	499122176	54	5052
2026-01-08 10:01:49.40	155.53	50.07	-40.9	-43.7	14.4	2.20e-06	0	56	0	501219328	53	4972
2026-01-08 10:01:50.41	155.47	50.41	-40.1	-42.6	15.5	0.00e+00	0	56	0	503316480	52	4624
2026-01-08 10:01:51.42	155.41	50.76	-39.9	-42.2	16.2	0.00e+00	0	56	0	505413632	51	4660
2026-01-08 10:01:52.43	155.35	51.10	-39.8	-42.1	16.1	0.00e+00	0	56	0	506462208	51	4641
2026-01-08 10:01:53.44	155.28	51.46	-40.0	-42.4	15.9	0.00e+00	0	56	0	508559360	51	4761
2026-01-08 10:01:54.45	155.22	51.81	-40.5	-43.1	15.2	0.00e+00	0	56	0	510656512	51	5183
2026-01-08 10:01:55.46	155.15	52.16	-40.5	-43.1	15.2	7.00e-07	0	56	0	512753664	51	5193
2026-01-08 10:01:56.47	155.08	52.52	-40.6	-43.4	14.9	0.00e+00	0	56	0	514850816	51	5350
2026-01-08 10:01:57.48	155.01	52.88	-40.4	-43.0	15.3	0.00e+00	0	56	0	515899392	51	5120
2026-01-08 10:01:58.50	154.93	53.25	-40.6	-43.3	14.9	0.00e+00	0	56	0	517996544	52	5040
2026-01-08 10:01:59.51	154.86	53.62	-40.8	-43.5	14.8	0.00e+00	0	56	0	520093696	52	5154
2026-01-08 10:02:00.52	154.78	53.99	-40.1	-42.6	15.6	0.00e+00	0	56	0	522190848	52	4609
2026-01-08 10:02:01.53	154.70	54.36	-39.9	-42.1	16.1	0.00e+00	0	56	0	524288000	51	4646
2026-01-08 10:02:02.54	154.62	54.73	-39.6	-41.8	16.5	0.00e+00	0	56	0	526385152	50	4737
2026-01-08 10:02:03.55	154.53	55.11	-39.6	-41.8	16.5	0.00e+00	0	56	0	527433728	50	4726
2026-01-08 10:02:04.56	154.45	55.49	-40.1	-42.4	15.8	0.00e+00	0	56	0	529530880	50	5091
2026-01-08 10:02:05.57	154.36	55.87	-40.4	-42.9	15.3	0.00e+00	0	56	0	531628032	51	5078
2026-01-08 10:02:06.58	154.27	56.25	-40.1	-42.5	15.8	0.00e+00	0	56	0	533725184	51	4833
2026-01-08 10:02:07.59	154.18	56.64	-39.4	-41.5	16.8	0.00e+00	0	56	0	535822336	50	4576
2026-01-08 10:02:08.60	154.08	57.03	-40.1	-42.4	15.8	0.00e+00	0	56	0	536870912	50	5100
2026-01-08 10:02:09.61	153.98	57.42	-40.7	-43.4	14.7	0.00e+00	0	56	0	538968064	52	5092
2026-01-08 10:02:10.62	153.88	57.82	-41.2	-44.3	13.9	0.00e+00	0	56	0	541065216	53	5301
2026-01-08 10:02:11.63	153.77	58.22	-41.8	-45.4	12.9	3.50e-05	0	56	0	543162368	54	5659
2026-01-08 10:02:12.65	153.66	58.62	-41.4	-44.6	13.5	1.75e-05	0	56	0	545259520	54	5216
2026-01-08 10:02:13.66	153.55	59.02	-41.1	-44.0	14.2	4.50e-06	0	56	0	546308096	53	5134
2026-01-08 10:02:14.67	153.43	59.43	-41.2	-44.3	13.9	1.50e-06	0	56	0	548405248	53	5282
2026-01-08 10:02:15.68	153.31	59.84	-41.6	-44.9	13.2	2.21e-05	0	56	0	550502400	54	5400
2026-01-08 10:02:16.69	153.19	60.25	-42.0	-45.7	12.4	8.92e-05	0	56	0	552599552	54	5887
2026-01-08 10:02:17.70	153.06	60.66	-41.9	-45.5	12.7	8.39e-05	0	56	0	554696704	54	5746
2026-01-08 10:02:18.71	152.93	61.08	-41.9	-45.6	12.5	7.55e-05	0	56	0	555745280	54	5835
2026-01-08 10:02:19.72	152.79	61.49	-41.5	-44.8	13.3	4.27e-05	0	56	0	557842432	54	5334
2026-01-08 10:02:20.73	152.65	61.91	-41.0	-44.0	14.3	1.06e-05	0	56	0	559939584	54	4818
2026-01-08 10:02:21.74	152.50	62.34	-40.4	-42.9	15.2	7.00e-07	0	56	0	562036736	52	4807
2026-01-08 10:02:22.75	152.35	62.76	-39.8	-42.1	16.1	0.00e+00	0	56	0	564133888	51	4616
2026-01-08 10:02:23.76	152.19	63.19	-39.4	-41.5	16.7	0.00e+00	0	56	0	565182464	50	4585
2026-01-08 10:02:24.78	152.03	63.63	-38.9	-40.9	17.3	0.00e+00	0	56	0	567279616	49	4502
2026-01-08 10:02:25.79	151.86	64.06	-38.9	-40.8	17.4	0.00e+00	0	56	0	569376768	49	4481
2026-01-08 10:02:26.80	151.68	64.49	-38.6	-40.5	17.7	0.00e+00	0	56	0	571473920	48	4592
2026-01-08 10:02:27.81	151.50	64.93	-39.0	-40.9	17.3	0.00e+00	0	56	0	573571072	48	4805
2026-01-08 10:02:28.82	151.31	65.37	-39.4	-41.4	16.7	0.00e+00	0	56	0	575668224	49	4814
2026-01-08 10:02:29.83	151.11	65.81	-40.3	-42.8	15.5	0.00e+00	0	56	0	576716800	51	5017
2026-01-08 10:02:30.84	150.90	66.26	-40.8	-43.6	14.6	0.00e+00	0	56	0	578813952	52	5161
2026-01-08 10:02:31.85	150.68	66.70	-40.9	-43.7	14.4	1.50e-06	0	56	0	580911104	53	4943
2026-01-08 10:02:32.86	150.46	67.15	-40.9	-43.7	14.4	0.00e+00	0	56	0	583008256	53	4957
2026-01-08 10:02:33.87	150.22	67.60	-41.1	-44.1	14.1	1.50e-06	0	56	0	585105408	53	5208
2026-01-08 10:02:34.88	149.98	68.05	-41.3	-44.4	13.7	8.30e-06	0	56	0	586153984	53	5402
2026-01-08 10:02:35.89	149.72	68.51	-41.6	-45.3	12.7	3.20e-05	0	56	0	588251136	53	5964
2026-01-08 10:02:36.90	149.45	68.96	-41.7	-45.3	12.2	1.36e-04	0	56	0	590348288	54	5628
2026-01-08 10:02:37.91	149.17	69.42	-41.9	-45.9	12.0	3.59e-04	0	56	0	592445440	54	6035
2026-01-08 10:02:38.92	148.87	69.88	-42.2	-46.5	11.5	4.31e-04	0	56	0	594542592	54	6485
2026-01-08 10:02:39.94	148.56	70.35	-42.3	-46.8	11.1	1.29e-03	0	56	0	595591168	55	6286
2026-01-08 10:02:40.94	148.23	70.80	-42.4	-47.2	10.6	3.69e-03	0	56	0	597688320	55	6631
2026-01-08 10:02:41.96	147.88	71.27	-41.8	-45.7	12.3	1.72e-03	0	56	0	599785472	55	5548
2026-01-08 10:02:42.97	147.52	71.74	-40.2	-42.8	15.2	3.80e-06	0	56	0	601882624	52	4743
2026-01-08 10:02:43.98	147.13	72.21	-39.1	-41.2	16.8	0.00e+00	0	56	0	603979776	50	4421
2026-01-08 10:02:44.99	146.72	72.67	-39.6	-41.8	16.2	0.00e+00	0	56	0	605028352	50	4752
2026-01-08 10:02:46.00	146.29	73.14	-40.0	-42.5	15.5	0.00e+00	0	56	0	607125504	50	5142
2026-01-08 10:02:47.01	145.83	73.61	-39.6	-41.9	16.1	0.00e+00	0	56	0	609222656	50	4798
2026-01-08 10:02:48.02	145.35	74.08	-39.6	-41.8	16.4	0.00e+00	0	56	0	611319808	50	4755
2026-01-08 10:02:49.03	144.83	74.56	-40.5	-43.3	14.8	0.00e+00	0	56	0	613416960	51	5298
2026-01-08 10:02:50.04	144.28	75.03	-41.5	-45.1	12.9	7.00e-07	0	56	0	615514112	53	5844
2026-01-08 10:02:51.05	143.69	75.50	-42.4	-47.0	10.9	1.01e-03	0	56	0	616562688	55	6425
2026-01-08 10:02:52.06	143.06	75.97	-42.1	-46.1	11.8	7.61e-04	0	56	0	618659840	55	5851
2026-01-08 10:02:53.07	142.38	76.44	-42.1	-46.1	11.9	4.13e-04	0	56	0	620756992	55	5838
2026-01-08 10:02:54.08	141.66	76.92	-43.3	-49.1	8.9	1.18e-02	0	56	0	622854144	57	7294
2026-01-08 10:02:55.09	140.87	77.39	-43.3	-49.1	8.9	4.32e-02	0	56	0	624951296	57	7345
2026-01-08 10:02:56.11	140.02	77.86	-42.6	-47.2	10.9	1.24e-02	0	56	0	625999872	56	6226
2026-01-08 10:02:57.11	139.11	78.32	-42.5	-47.0	11.1	1.77e-03	0	56	0	628097024	56	6084
2026-01-08 10:02:58.13	138.11	78.80	-42.9	-47.9	9.9	1.11e-02	0	56	0	630194176	56	6796
2026-01-08 10:02:59.14	137.03	79.26	-42.5	-47.0	11.0	3.64e-03	0	56	0	632291328	56	6101
2026-01-08 10:03:00.15	135.84	79.72	-41.9	-46.0	12.0	3.46e-04	0	56	0	634388480	55	5740
2026-01-08 10:03:01.16	134.55	80.18	-42.0	-46.2	11.7	1.28e-03	0	56	0	635437056	55	5902
2026-01-08 10:03:02.17	133.12	80.63	-41.9	-46.0	12.0	3.17e-04	0	56	0	637534208	55	5745
2026-01-08 10:03:03.18	131.55	81.08	-42.0	-46.3	11.7	2.85e-04	0	56	0	639631360	55	5984
2026-01-08 10:03:04.19	129.82	81.52	-41.8	-45.8	12.1	5.32e-04	0	56	0	641728512	55	5614
2026-01-08 10:03:05.20	127.89	81.95	-40.2	-43.0	14.9	1.90e-05	0	56	0	643825664	52	4823
2026-01-08 10:03:06.21	125.74	82.38	-39.9	-42.6	15.6	0.00e+00	0	56	0	644874240	51	4895
2026-01-08 10:03:07.22	123.33	82.79	-40.2	-43.0	14.9	0.00e+00	0	56	0	646971392	51	5142
2026-01-08 10:03:08.23	120.64	83.19	-39.7	-42.3	15.6	0.00e+00	0	56	0	649068544	51	4707
2026-01-08 10:03:09.24	117.62	83.57	-39.3	-41.6	16.4	0.00e+00	0	56	0	651165696	50	4647
2026-01-08 10:03:10.26	114.19	83.94	-39.5	-41.9	16.2	0.00e+00	0	56	0	653262848	50	4774
2026-01-08 10:03:11.27	110.36	84.28	-39.6	-42.0	16.0	0.00e+00	0	56	0	654311424	50	4832
2026-01-08 10:03:12.28	106.08	84.59	-39.3	-41.6	16.4	0.00e+00	0	56	0	656408576	50	4635
2026-01-08 10:03:13.29	101.29	84.87	-39.9	-42.4	15.6	0.00e+00	0	56	0	658505728	50	5058
2026-01-08 10:03:14.30	96.00	85.11	-40.6	-43.6	14.5	0.00e+00	0	56	0	660602880	51	5487
2026-01-08 10:03:15.31	90.22	85.30	-40.7	-43.8	14.1	3.00e-06	0	56	0	662700032	52	5317
2026-01-08 10:03:16.32	84.01	85.44	-40.1	-42.7	15.2	0.00e+00	0	56	0	663748608	52	4680
2026-01-08 10:03:17.33	77.49	85.53	-39.9	-42.4	15.6	0.00e+00	0	56	0	665845760	51	4809
2026-01-08 10:03:18.34	70.80	85.55	-40.2	-42.9	15.1	0.00e+00	0	56	0	667942912	51	5091
2026-01-08 10:03:19.35	64.13	85.52	-39.1	-41.3	16.6	0.00e+00	0	56	0	670040064	50	4485
2026-01-08 10:03:20.37	57.58	85.42	-38.5	-40.5	17.5	0.00e+00	0	56	0	672137216	48	4564
2026-01-08 10:03:21.38	51.45	85.27	-40.7	-43.7	14.3	0.00e+00	0	56	0	673185792	51	5573
2026-01-08 10:03:22.39	45.75	85.07	-40.9	-44.1	13.8	1.67e-05	0	56	0	675282944	53	5162
2026-01-08 10:03:23.40	40.54	84.82	-39.4	-41.7	16.3	0.00e+00	0	56	0	677380096	50	4697
2026-01-08 10:03:24.41	35.85	84.54	-40.3	-43.1	14.9	7.00e-07	0	56	0	679477248	51	5190
2026-01-08 10:03:25.42	31.65	84.22	-39.1	-41.2	16.8	0.00e+00	0	56	0	681574400	50	4414
2026-01-08 10:03:26.43	27.90	83.88	-38.2	-40.0	17.9	0.00e+00	0	56	0	683671552	48	4328
2026-01-08 10:03:27.44	24.57	83.51	-39.4	-41.7	16.3	0.00e+00	0	56	0	684720128	49	4972
2026-01-08 10:03:28.45	21.60	83.13	-39.4	-41.8	16.2	0.00e+00	0	56	0	686817280	50	4756
2026-01-08 10:03:29.46	18.96	82.72	-40.4	-43.3	14.8	0.00e+00	0	56	0	688914432	51	5292
2026-01-08 10:03:30.47	16.60	82.31	-41.3	-45.1	13.1	2.51e-05	0	56	0	691011584	53	5812
2026-01-08 10:03:31.48	14.49	81.89	-41.3	-44.9	13.1	6.10e-05	0	56	0	693108736	53	5717
2026-01-08 10:03:32.49	12.60	81.45	-41.4	-45.0	12.9	2.97e-05	0	56	0	694157312	53	5786
2026-01-08 10:03:33.50	10.89	81.01	-41.4	-45.1	12.8	2.59e-05	0	56	0	696254464	53	5823
2026-01-08 10:03:34.51	9.34	80.56	-41.2	-44.6	13.3	9.10e-06	0	56	0	698351616	53	5528
2026-01-08 10:03:35.52	7.94	80.11	-42.1	-46.4	11.6	5.77e-04	0	56	0	700448768	54	6355
2026-01-08 10:03:36.53	6.67	79.65	-42.0	-46.3	11.6	1.14e-03	0	56	0	702545920	55	5986
2026-01-08 10:03:37.54	5.50	79.19	-42.4	-47.1	10.9	1.75e-03	0	56	0	703594496	55	6507
2026-01-08 10:03:38.55	4.43	78.73	-41.7	-45.6	12.4	1.42e-03	0	56	0	705691648	55	5472
2026-01-08 10:03:39.56	3.45	78.26	-40.3	-43.0	14.9	6.10e-06	0	56	0	707788800	52	4856
2026-01-08 10:03:40.57	2.55	77.79	-40.2	-42.8	15.3	0.00e+00	0	56	0	709885952	52	4710
2026-01-08 10:03:41.59	1.70	77.32	-40.8	-43.8	14.3	0.00e+00	0	56	0	711983104	52	5286
2026-01-08 10:03:42.59	0.94	76.85	-41.4	-44.9	13.1	2.44e-05	0	56	0	713031680	53	5674
2026-01-08 10:03:43.61	0.21	76.38	-41.6	-45.1	12.8	4.11e-05	0	56	0	715128832	54	5474
2026-01-08 10:03:44.62	359.54	75.90	-41.8	-45.5	12.5	2.81e-04	0	56	0	717225984	54	5763
2026-01-08 10:03:45.62	358.93	75.44	-40.0	-42.6	15.5	0.00e+00	0	56	0	719323136	52	4600
2026-01-08 10:03:46.64	358.34	74.96	-40.2	-42.6	15.5	0.00e+00	0	56	0	721420288	51	4910
2026-01-08 10:03:47.65	357.79	74.49	-41.1	-44.3	13.9	0.00e+00	0	56	0	723517440	52	5620
2026-01-08 10:03:48.66	357.28	74.02	-40.3	-42.9	15.2	7.00e-07	0	56	0	724566016	52	4813
2026-01-08 10:03:49.67	356.80	73.55	-39.5	-41.7	16.5	0.00e+00	0	56	0	726663168	50	4673
2026-01-08 10:03:50.68	356.35	73.08	-39.4	-41.6	16.5	0.00e+00	0	56	0	728760320	50	4633
2026-01-08 10:03:51.69	355.92	72.61	-40.1	-42.6	15.6	0.00e+00	0	56	0	730857472	50	5191
2026-01-08 10:03:52.70	355.52	72.15	-40.9	-44.0	14.0	3.00e-06	0	56	0	732954624	52	5454
2026-01-08 10:03:53.71	355.14	71.68	-41.0	-44.2	13.9	3.00e-06	0	56	0	734003200	52	5565
2026-01-08 10:03:54.72	354.77	71.21	-41.6	-45.1	13.0	9.90e-06	0	56	0	736100352	53	5848
2026-01-08 10:03:55.73	354.43	70.75	-42.0	-45.9	12.1	3.49e-04	0	56	0	738197504	54	6023
2026-01-08 10:03:56.74	354.11	70.29	-41.5	-45.0	12.9	7.70e-05	0	56	0	740294656	54	5464
2026-01-08 10:03:57.75	353.80	69.83	-41.8	-45.7	12.4	5.03e-05	0	56	0	742391808	54	5881
2026-01-08 10:03:58.77	353.50	69.37	-41.9	-45.8	12.1	1.62e-04	0	56	0	743440384	54	5986
2026-01-08 10:03:59.77	353.22	68.92	-41.6	-45.1	13.0	7.09e-05	0	56	0	745537536	54	5500
2026-01-08 10:04:00.78	352.95	68.46	-42.1	-46.1	11.9	8.23e-05	0	56	0	747634688	54	6202
2026-01-08 10:04:01.79	352.70	68.01	-42.5	-47.1	10.8	2.32e-03	0	56	0	749731840	55	6570
2026-01-08 10:04:02.80	352.45	67.56	-41.4	-44.8	13.2	1.33e-04	0	56	0	751828992	54	5312
2026-01-08 10:04:03.81	352.22	67.11	-41.2	-44.4	13.7	4.50e-06	0	56	0	752877568	53	5397
2026-01-08 10:04:04.82	352.00	66.66	-41.8	-45.5	12.8	7.70e-05	0	57	0	754974720	54	5764
2026-01-08 10:04:05.84	351.78	66.21	-41.3	-44.8	13.3	4.57e-05	0	56	0	757071872	54	5284
2026-01-08 10:04:06.85	351.57	65.77	-40.6	-43.5	14.5	1.52e-05	0	57	0	759169024	52	5154
2026-01-08 10:04:07.86	351.38	65.33	-40.7	-43.7	14.4	3.89e-05	0	57	0	761266176	51	5583
2026-01-08 10:04:08.87	351.19	64.89	-40.4	-43.3	14.8	7.00e-07	0	56	0	762314752	51	5333
2026-01-08 10:04:09.88	351.00	64.46	-40.5	-43.5	14.7	7.60e-06	0	56	0	764411904	51	5425
2026-01-08 10:04:10.89	350.83	64.02	-40.9	-44.3	13.9	3.28e-05	0	56	0	766509056	52	5619
2026-01-08 10:04:11.90	350.66	63.59	-40.9	-44.3	13.6	3.28e-05	0	56	0	768606208	52	5628
2026-01-08 10:04:12.91	350.50	63.16	-40.3	-43.1	15.3	4.04e-05	0	57	0	770703360	51	5206
2026-01-08 10:04:13.92	350.34	62.74	-40.4	-43.4	14.8	0.00e+00	0	56	0	771751936	51	5383
2026-01-08 10:04:14.93	350.19	62.31	-40.0	-42.7	15.4	0.00e+00	0	57	0	773849088	51	4973
2026-01-08 10:04:15.94	350.04	61.89	-39.0	-41.2	16.9	0.00e+00	0	57	0	775946240	49	4671
2026-01-08 10:04:16.95	349.90	61.47	-38.4	-40.5	17.5	0.00e+00	0	56	0	778043392	47	4864
2026-01-08 10:04:17.96	349.77	61.06	-39.6	-42.1	16.1	0.00e+00	0	56	0	780140544	49	5180
2026-01-08 10:04:18.97	349.64	60.64	-40.0	-42.5	15.7	0.00e+00	0	56	0	781189120	50	5143
2026-01-08 10:04:19.98	349.51	60.23	-39.8	-42.3	15.9	0.00e+00	0	56	0	783286272	51	4755
2026-01-08 10:04:20.99	349.39	59.82	-39.9	-42.3	15.9	0.00e+00	0	56	0	785383424	51	4737
2026-01-08 10:04:22.00	349.27	59.41	-39.5	-41.8	16.3	0.00e+00	0	56	0	787480576	50	4715
2026-01-08 10:04:23.01	349.15	59.01	-39.6	-41.9	16.3	0.00e+00	0	57	0	789577728	50	4787
2026-01-08 10:04:24.02	349.04	58.61	-40.2	-42.8	15.4	0.00e+00	0	57	0	791674880	50	5339
2026-01-08 10:04:25.04	348.93	58.21	-40.6	-43.5	14.6	7.00e-07	0	57	0	792723456	52	5123
2026-01-08 10:04:26.04	348.83	57.81	-40.1	-42.7	15.4	2.20e-06	0	57	0	794820608	51	4950
2026-01-08 10:04:27.06	348.72	57.42	-39.9	-42.5	15.7	0.00e+00	0	56	0	796917760	51	4840
2026-01-08 10:04:28.07	348.63	57.03	-39.4	-41.7	16.4	0.00e+00	0	56	0	799014912	50	4697
2026-01-08 10:04:29.07	348.53	56.64	-39.4	-41.7	16.5	0.00e+00	0	56	0	801112064	50	4688
2026-01-08 10:04:30.08	348.44	56.26	-39.6	-42.0	16.1	0.00e+00	0	57	0	802160640	50	4847
2026-01-08 10:04:31.10	348.35	55.87	-38.8	-41.0	17.0	0.00e+00	0	57	0	804257792	49	4572
2026-01-08 10:04:32.10	348.26	55.49	-38.2	-40.2	17.8	0.00e+00	0	57	0	806354944	48	4408
2026-01-08 10:04:33.12	348.17	55.11	-38.5	-40.5	17.6	0.00e+00	0	56	0	808452096	48	4568
2026-01-08 10:04:34.13	348.09	54.74	-38.9	-41.1	17.0	0.00e+00	0	56	0	810549248	48	4924
2026-01-08 10:04:35.14	348.01	54.36	-39.6	-42.0	16.1	0.00e+00	0	57	0	811597824	49	5156
2026-01-08 10:04:36.15	347.93	53.99	-40.3	-43.1	15.0	0.00e+00	0	57	0	813694976	51	5215
2026-01-08 10:04:37.16	347.85	53.63	-40.1	-42.9	15.3	0.00e+00	0	57	0	815792128	51	5055
2026-01-08 10:04:38.17	347.78	53.26	-39.9	-42.5	15.7	0.00e+00	0	57	0	817889280	51	4828
2026-01-08 10:04:39.18	347.70	52.90	-39.6	-42.1	16.0	0.00e+00	0	56	0	819986432	50	4883
2026-01-08 10:04:40.19	347.63	52.54	-40.3	-43.2	14.8	0.00e+00	0	57	0	821035008	51	5249
2026-01-08 10:04:41.20	347.56	52.18	-41.1	-44.8	13.4	2.20e-06	0	56	0	823132160	52	5944
2026-01-08 10:04:42.21	347.50	51.83	-42.1	-47.0	10.9	3.10e-04	0	56	0	825229312	55	6422
2026-01-08 10:04:43.22	347.43	51.48	-42.2	-47.2	10.8	8.04e-04	0	56	0	827326464	55	6595
2026-01-08 10:04:44.23	347.37	51.13	-41.6	-45.7	12.3	8.19e-04	0	56	0	829423616	55	5537
2026-01-08 10:04:45.24	347.30	50.78	-40.2	-43.0	14.8	7.60e-06	0	57	0	831520768	52	4853
2026-01-08 10:04:46.25	347.24	50.44	-40.1	-42.8	15.3	0.00e+00	0	57	0	832569344	51	5002
2026-01-08 10:04:47.26	347.18	50.10	-40.5	-43.5	14.7	0.00e+00	0	56	0	834666496	51	5453
2026-01-08 10:04:48.27	347.13	49.76	-40.9	-44.4	13.6	6.80e-06	0	56	0	836763648	52	5666
2026-01-08 10:04:49.28	347.07	49.42	-40.2	-43.0	15.0	0.00e+00	0	57	0	838860800	52	4833
2026-01-08 10:04:50.29	347.01	49.09	-40.4	-43.4	14.6	7.00e-07	0	57	0	840957952	52	5082
2026-01-08 10:04:51.30	346.96	48.75	-41.7	-45.8	12.1	1.06e-05	0	57	0	842006528	53	6330
2026-01-08 10:04:52.31	346.91	48.43	-43.2	-49.8	8.2	1.13e-02	0	56	0	844103680	57	7937
2026-01-08 10:04:53.32	346.85	48.10	-42.7	-47.9	10.2	1.58e-02	0	56	0	846200832	57	6418
2026-01-08 10:04:54.33	346.80	47.77	-41.6	-45.5	12.4	8.67e-04	0	57	0	848297984	55	5461
2026-01-08 10:04:55.34	346.75	47.45	-40.5	-43.4	14.7	4.50e-06	0	56	0	850395136	52	5062
2026-01-08 10:04:56.35	346.70	47.13	-40.2	-42.8	15.3	0.00e+00	0	57	0	851443712	52	4746
2026-01-08 10:04:57.36	346.66	46.82	-40.2	-42.8	15.4	0.00e+00	0	57	0	853540864	51	4996
2026-01-08 10:04:58.37	346.61	46.50	-40.8	-43.8	14.3	7.00e-07	0	57	0	855638016	52	5299
2026-01-08 10:04:59.38	346.57	46.19	-41.3	-44.6	13.5	2.20e-06	0	56	0	857735168	53	5495
2026-01-08 10:05:00.39	346.52	45.88	-42.3	-46.6	11.4	2.17e-04	0	57	0	859832320	55	6187
2026-01-08 10:05:01.40	346.48	45.57	-43.0	-48.3	9.9	3.00e-03	0	56	0	860880896	56	7117
2026-01-08 10:05:02.41	346.43	45.27	-43.8	-51.0	7.1	2.38e-02	0	57	0	862978048	58	8633
2026-01-08 10:05:03.42	346.39	44.96	-43.7	-50.6	7.5	1.49e-01	0	57	0	865075200	58	8228
2026-01-08 10:05:04.43	346.35	44.66	-42.8	-47.7	10.4	2.84e-02	0	56	0	867172352	57	6267
2026-01-08 10:05:05.44	346.31	44.36	-41.8	-45.6	12.4	7.99e-04	0	57	0	869269504	55	5495
2026-01-08 10:05:06.45	346.27	44.07	-41.1	-44.3	13.8	3.00e-06	0	57	0	870318080	53	5311
2026-01-08 10:05:07.46	346.23	43.77	-40.9	-44.0	14.2	1.06e-05	0	57	0	872415232	53	5125
2026-01-08 10:05:08.47	346.20	43.48	-41.1	-44.4	13.7	7.00e-07	0	57	0	874512384	53	5369
2026-01-08 10:05:09.48	346.16	43.19	-41.6	-45.5	12.6	7.62e-05	0	57	0	876609536	53	6067
2026-01-08 10:05:10.50	346.12	42.90	-41.9	-46.0	12.1	1.34e-04	0	56	0	878706688	54	6116
2026-01-08 10:05:11.51	346.09	42.62	-42.4	-47.2	10.4	9.35e-04	0	57	0	879755264	55	6578
2026-01-08 10:05:12.52	346.05	42.33	-42.6	-47.8	10.1	3.27e-03	0	57	0	881852416	55	7112
2026-01-08 10:05:13.53	346.02	42.05	-43.3	-50.2	7.9	6.08e-02	0	57	0	883949568	57	8283
2026-01-08 10:05:14.54	345.99	41.77	-43.4	-50.7	7.4	1.35e-01	0	57	0	886046720	57	8783
2026-01-08 10:05:15.55	345.95	41.50	-43.4	-50.6	7.4	1.02e-01	0	57	0	888143872	57	8688
2026-01-08 10:05:16.56	345.92	41.22	-43.1	-49.1	8.9	4.92e-02	0	57	0	889192448	57	7364
2026-01-08 10:05:17.57	345.89	40.95	-42.5	-47.6	10.4	2.09e-02	0	57	0	891289600	57	6153
2026-01-08 10:05:18.58	345.86	40.68	-41.2	-44.8	13.2	9.00e-04	0	57	0	893386752	54	5310
2026-01-08 10:05:19.59	345.83	40.41	-40.5	-43.5	14.5	7.00e-07	0	57	0	895483904	52	5138
2026-01-08 10:05:20.60	345.80	40.14	-40.1	-42.8	15.1	0.00e+00	0	57	0	897581056	52	4755
2026-01-08 10:05:21.62	345.77	39.88	-40.3	-43.2	14.8	0.00e+00	0	57	0	899678208	52	4965
2026-01-08 10:05:22.63	345.74	39.61	-41.0	-44.5	13.5	4.50e-06	0	57	0	900726784	52	5763
2026-01-08 10:05:23.64	345.71	39.35	-41.9	-46.4	11.6	1.03e-04	0	57	0	902823936	54	6350
2026-01-08 10:05:24.65	345.68	39.10	-42.4	-47.8	10.1	2.57e-03	0	57	0	904921088	55	7076
2026-01-08 10:05:25.66	345.65	38.84	-42.0	-46.6	11.2	1.86e-03	0	57	0	907018240	55	6183
2026-01-08 10:05:26.67	345.63	38.58	-42.1	-47.2	10.6	5.43e-03	0	57	0	909115392	55	6613
2026-01-08 10:05:27.68	345.60	38.33	-42.0	-46.9	10.9	5.56e-03	0	57	0	910163968	55	6363
2026-01-08 10:05:28.69	345.58	38.08	-41.9	-46.7	11.0	1.64e-03	0	57	0	912261120	55	6264
2026-01-08 10:05:29.70	345.55	37.83	-41.7	-46.3	11.5	1.12e-03	0	57	0	914358272	55	5937
2026-01-08 10:05:30.71	345.53	37.58	-41.9	-46.6	11.1	1.10e-03	0	57	0	916455424	55	6172
2026-01-08 10:05:31.72	345.50	37.34	-41.5	-45.6	12.1	1.02e-03	0	57	0	918552576	55	5522
2026-01-08 10:05:32.73	345.48	37.10	-41.5	-45.8	12.1	2.86e-04	0	57	0	919601152	54	5938
2026-01-08 10:05:33.74	345.45	36.85	-41.5	-45.7	12.1	3.54e-04	0	57	0	921698304	54	5891
2026-01-08 10:05:34.75	345.43	36.61	-41.0	-44.6	13.3	4.65e-05	0	57	0	923795456	54	5215
2026-01-08 10:05:35.76	345.41	36.37	-41.0	-44.5	13.4	1.90e-05	0	57	0	925892608	53	5405
2026-01-08 10:05:36.77	345.38	36.14	-41.0	-44.6	13.3	2.44e-05	0	57	0	927989760	53	5478
2026-01-08 10:05:37.78	345.36	35.90	-41.1	-44.6	13.2	2.13e-05	0	57	0	929038336	53	5523
2026-01-08 10:05:38.79	345.34	35.67	-41.0	-44.4	13.5	5.30e-06	0	57	0	931135488	53	5401
2026-01-08 10:05:39.80	345.32	35.44	-41.3	-45.1	12.8	1.37e-05	0	57	0	933232640	53	5791
2026-01-08 10:05:40.82	345.30	35.21	-41.5	-45.6	12.4	5.18e-05	0	57	0	935329792	53	6135
2026-01-08 10:05:41.83	345.28	34.98	-41.9	-46.5	11.4	5.29e-04	0	57	0	937426944	54	6460
2026-01-08 10:05:42.84	345.26	34.75	-42.5	-48.2	9.8	5.11e-03	0	57	0	939524096	55	7403
2026-01-08 10:05:43.85	345.24	34.53	-43.1	-49.8	8.1	2.77e-02	0	57	0	940572672	56	8402
2026-01-08 10:05:44.86	345.22	34.30	-43.4	-51.1	6.9	1.62e-01	0	56	0	942669824	57	9241
2026-01-08 10:05:45.87	345.20	34.08	-43.5	-51.7	6.4	2.12e-01	0	57	0	944766976	57	9845
2026-01-08 10:05:46.88	345.18	33.86	-43.4	-51.4	6.6	3.15e-01	0	57	0	946864128	57	9544
2026-01-08 10:05:47.89	345.16	33.64	-43.0	-49.5	8.4	5.72e-02	0	57	0	948961280	57	7683
2026-01-08 10:05:48.90	345.14	33.43	-42.7	-48.3	9.5	1.65e-02	0	57	0	950009856	57	6716
2026-01-08 10:05:49.91	345.12	33.21	-42.1	-46.6	11.4	4.63e-03	0	57	0	952107008	56	5840
2026-01-08 10:05:50.92	345.10	33.00	-41.6	-45.7	12.2	7.93e-04	0	57	0	954204160	55	5556
2026-01-08 10:05:51.94	345.09	32.78	-41.2	-44.9	13.0	7.01e-05	0	57	0	956301312	54	5396
2026-01-08 10:05:52.94	345.07	32.57	-41.3	-45.0	12.9	6.94e-05	0	57	0	958398464	54	5426
2026-01-08 10:05:53.96	345.05	32.36	-41.4	-45.2	12.7	5.49e-05	0	57	0	959447040	54	5538
2026-01-08 10:05:54.97	345.03	32.16	-41.4	-45.2	12.6	6.40e-05	0	57	0	961544192	54	5587
2026-01-08 10:05:55.98	345.02	31.95	-41.5	-45.5	12.4	1.02e-04	0	57	0	963641344	54	5768
2026-01-08 10:05:56.99	345.00	31.74	-41.4	-45.1	12.7	1.50e-04	0	57	0	965738496	54	5521
2026-01-08 10:05:58.00	344.99	31.54	-41.4	-45.2	12.7	7.24e-05	0	57	0	967835648	54	5545
2026-01-08 10:05:59.01	344.97	31.34	-40.9	-44.3	13.6	3.73e-05	0	57	0	968884224	53	5339
2026-01-08 10:06:00.02	344.95	31.14	-40.9	-44.2	13.6	1.67e-05	0	57	0	970981376	53	5257
2026-01-08 10:06:01.03	344.94	30.94	-41.1	-44.6	13.3	1.37e-05	0	57	0	973078528	53	5473
2026-01-08 10:06:02.04	344.92	30.74	-41.1	-44.6	13.2	1.60e-05	0	57	0	975175680	53	5484
2026-01-08 10:06:03.05	344.91	30.54	-41.4	-45.1	12.8	3.89e-05	0	57	0	977272832	53	5833
2026-01-08 10:06:04.06	344.89	30.35	-41.5	-45.4	12.4	1.39e-04	0	57	0	978321408	53	6016
2026-01-08 10:06:05.07	344.88	30.15	-41.8	-46.2	11.7	2.91e-04	0	57	0	980418560	54	6221
2026-01-08 10:06:06.08	344.87	29.96	-41.8	-46.2	11.7	5.02e-04	0	57	0	982515712	54	6209
2026-01-08 10:06:07.09	344.85	29.77	-41.9	-46.4	11.3	7.70e-04	0	57	0	984612864	54	6370
2026-01-08 10:06:08.10	344.84	29.58	-42.2	-47.0	10.8	1.71e-03	0	57	0	986710016	54	6824
2026-01-08 10:06:09.11	344.82	29.39	-42.0	-46.6	11.1	1.50e-03	0	57	0	987758592	54	6557
2026-01-08 10:06:10.12	344.81	29.20	-42.0	-46.6	11.2	1.58e-03	0	57	0	989855744	54	6542
2026-01-08 10:06:11.14	344.80	29.01	-41.9	-46.4	11.4	1.13e-03	0	57	0	991952896	54	6385
2026-01-08 10:06:12.14	344.79	28.83	-41.8	-46.2	11.5	5.79e-04	0	57	0	994050048	54	6260
2026-01-08 10:06:13.15	344.77	28.65	-41.6	-45.7	12.1	3.40e-04	0	57	0	996147200	54	5887
2026-01-08 10:06:14.16	344.76	28.46	-41.1	-44.8	13.0	8.16e-05	0	57	0	997195776	54	5294
2026-01-08 10:06:15.18	344.75	28.28	-40.9	-44.2	13.5	2.51e-05	0	57	0	999292928	53	5266
2026-01-08 10:06:16.19	344.74	28.10	-40.7	-44.0	13.8	6.10e-06	0	57	0	1001390080	53	5136
2026-01-08 10:06:17.20	344.72	27.92	-40.5	-43.5	14.3	0.00e+00	0	57	0	1003487232	52	5146
2026-01-08 10:06:18.21	344.71	27.74	-40.1	-43.0	14.8	0.00e+00	0	57	0	1005584384	52	4821
2026-01-08 10:06:19.22	344.70	27.57	-40.1	-43.0	14.8	0.00e+00	0	57	0	1007681536	52	4841
2026-01-08 10:06:20.23	344.69	27.39	-40.1	-43.0	14.8	0.00e+00	0	57	0	1008730112	52	4832
2026-01-08 10:06:21.24	344.68	27.22	-40.1	-42.8	15.0	7.00e-07	0	57	0	1010827264	51	5038
2026-01-08 10:06:22.25	344.67	27.04	-40.1	-42.9	14.9	0.00e+00	0	57	0	1012924416	51	5067
2026-01-08 10:06:23.26	344.65	26.87	-40.2	-43.0	14.9	0.00e+00	0	57	0	1015021568	51	5125
2026-01-08 10:06:24.27	344.64	26.70	-40.2	-43.1	14.8	0.00e+00	0	57	0	1017118720	51	5160
2026-01-08 10:06:25.28	344.63	26.53	-40.3	-43.2	14.6	7.00e-07	0	57	0	1018167296	51	5236
2026-01-08 10:06:26.29	344.62	26.36	-40.3	-43.3	14.4	7.00e-07	0	57	0	1020264448	52	5040
2026-01-08 10:06:27.30	344.61	26.19	-40.4	-43.5	14.3	0.00e+00	0	57	0	1022361600	52	5133
2026-01-08 10:06:28.31	344.60	26.02	-40.5	-43.7	14.0	1.50e-06	0	57	0	1024458752	52	5266
2026-01-08 10:06:29.32	344.59	25.86	-40.6	-43.8	13.9	3.00e-06	0	57	0	1026555904	52	5295
2026-01-08 10:06:30.33	344.58	25.69	-40.8	-44.2	13.5	5.30e-06	0	56	0	1027604480	52	5563
2026-01-08 10:06:31.34	344.57	25.53	-40.9	-44.4	13.3	1.44e-05	0	57	0	1029701632	52	5665
2026-01-08 10:06:32.35	344.56	25.37	-40.7	-44.0	13.7	7.60e-06	0	57	0	1031798784	52	5427
2026-01-08 10:06:33.36	344.55	25.20	-40.8	-44.2	13.4	5.30e-06	0	57	0	1033895936	52	5568
2026-01-08 10:06:34.37	344.54	25.04	-40.8	-44.4	13.3	2.97e-05	0	57	0	1035993088	52	5673
2026-01-08 10:06:35.38	344.53	24.88	-40.7	-44.1	13.4	2.36e-05	0	57	0	1037041664	52	5524
2026-01-08 10:06:36.39	344.52	24.72	-40.7	-44.1	13.5	1.14e-05	0	57	0	1039138816	52	5497
2026-01-08 10:06:37.40	344.52	24.57	-40.5	-43.8	13.8	6.10e-06	0	57	0	1041235968	52	5316
2026-01-08 10:06:38.41	344.51	24.41	-40.2	-43.2	14.3	1.50e-06	0	57	0	1043333120	52	4977
2026-01-08 10:06:39.42	344.50	24.25	-40.0	-42.9	14.6	7.00e-07	0	57	0	1045430272	51	5095
2026-01-08 10:06:40.43	344.49	24.10	-39.9	-42.8	14.7	7.00e-07	0	57	0	1046478848	51	5038
2026-01-08 10:06:41.44	344.48	23.94	-39.8	-42.5	15.0	0.00e+00	0	57	0	1048576000	51	4869
2026-01-08 10:06:42.45	344.47	23.79	-39.6	-42.4	15.1	0.00e+00	0	57	0	1050673152	51	4790
2026-01-08 10:06:43.46	344.46	23.64	-39.6	-42.4	15.1	0.00e+00	0	57	0	1052770304	51	4778
2026-01-08 10:06:44.47	344.46	23.48	-39.4	-42.1	15.3	0.00e+00	0	57	0	1054867456	50	4909
2026-01-08 10:06:45.49	344.45	23.33	-39.5	-42.2	15.1	7.00e-07	0	57	0	1056964608	50	4978
2026-01-08 10:06:46.49	344.44	23.18	-39.3	-42.0	15.3	0.00e+00	0	57	0	1058013184	50	4823
2026-01-08 10:06:47.51	344.43	23.03	-39.4	-42.2	15.0	0.00e+00	0	57	0	1060110336	50	4976
2026-01-08 10:06:48.52	344.42	22.89	-39.5	-42.4	14.8	0.00e+00	0	57	0	1062207488	50	5050
2026-01-08 10:06:49.53	344.42	22.74	-39.4	-42.4	14.7	0.00e+00	0	57	0	1064304640	50	5048
2026-01-08 10:06:50.54	344.41	22.59	-39.2	-42.0	15.0	0.00e+00	0	57	0	1066401792	50	4847
2026-01-08 10:06:51.55	344.40	22.45	-38.9	-41.7	15.3	0.00e+00	0	57	0	1067450368	49	4950
2026-01-08 10:06:52.56	344.40	22.30	-38.6	-41.2	15.6	0.00e+00	0	57	0	1069547520	49	4701
2026-01-08 10:06:53.57	344.39	22.16	-38.4	-40.9	15.9	0.00e+00	0	57	0	1071644672	48	4791
2026-01-08 10:06:54.58	344.38	22.01	-38.4	-40.9	15.9	0.00e+00	0	57	0	1073741824	48	4811
2026-01-08 10:06:55.59	344.37	21.87	-38.3	-40.8	16.0	0.00e+00	0	57	0	1075838976	48	4721
2026-01-08 10:06:56.60	344.37	21.73	-38.1	-40.6	16.0	0.00e+00	0	57	0	1076887552	48	4600
2026-01-08 10:06:57.61	344.36	21.59	-38.6	-41.4	15.1	0.00e+00	0	57	0	1078984704	48	5060
2026-01-08 10:06:58.62	344.35	21.45	-39.0	-42.1	14.2	0.00e+00	0	57	0	1081081856	48	5515
2026-01-08 10:06:59.63	344.35	21.31	-39.6	-43.4	12.7	3.20e-05	0	57	0	1083179008	49	6013
2026-01-08 10:07:00.64	344.34	21.17	-40.1	-44.7	11.2	4.61e-04	0	57	0	1085276160	50	6600
2026-01-08 10:07:01.66	344.33	21.03	-40.4	-45.9	9.5	4.18e-03	0	57	0	1086324736	51	7200
2026-01-08 10:07:02.67	344.33	20.90	-40.7	-47.6	7.6	6.90e-02	0	57	0	1088421888	52	8215
2026-01-08 10:07:03.68	344.32	20.76	-40.8	-49.1	6.0	2.33e-01	0	57	0	1090519040	52	9778
2026-01-08 10:07:04.69	344.32	20.62	-40.8	-50.7	4.8	5.32e-01	0	57	0	1092616192	52	11710
2026-01-08 10:07:05.70	344.31	20.49	-40.7	-52.1	4.2	1.32e+00	0	57	0	1093664768	52	13784
2026-01-08 10:07:06.71	344.30	20.36	-40.6	-53.1	4.0	1.48e+00	0	57	104	1093664768	52	15433
2026-01-08 10:07:07.72	344.30	20.22	-40.5	-53.9	3.8	1.48e+00	0	57	104	1093664768	52	17069
2026-01-08 10:07:08.73	344.29	20.09	-40.5	-54.4	3.8	1.49e+00	0	57	104	1093664768	52	17991
2026-01-08 10:07:09.74	344.29	19.96	-40.4	-54.7	3.8	1.49e+00	0	57	104	1093664768	52	18693
2026-01-08 10:07:10.75	344.28	19.83	-40.8	-54.7	3.8	1.49e+00	0	57	104	1093664768	52	18641
2026-01-08 10:07:11.76	344.28	19.70	-40.4	-55.1	3.8	1.49e+00	0	57	104	1093664768	52	19412
2026-01-08 10:07:12.77	344.27	19.57	-40.4	-55.1	3.8	1.49e+00	0	57	104	1093664768	52	19431
2026-01-08 10:07:13.77	344.26	19.44	-40.5	-55.1	3.8	1.49e+00	0	57	104	1093664768	52	19502
2026-01-08 10:07:14.78	344.26	19.31	-40.4	-55.1	3.8	1.49e+00	0	57	104	1093664768	52	19467
2026-01-08 10:07:15.79	344.25	19.18	-40.5	-55.1	3.8	1.49e+00	0	57	104	1093664768	52	19493
2026-01-08 10:07:16.81	344.25	19.05	-40.6	-55.3	3.8	1.49e+00	0	57	104	1093664768	52	19989
2026-01-08 10:07:17.81	344.24	18.93	-40.4	-55.1	3.8	1.49e+00	0	57	104	1093664768	52	19419
2026-01-08 10:07:18.82	344.24	18.80	-40.7	-55.4	3.8	1.49e+00	0	57	104	1093664768	52	20220
2026-01-08 10:07:19.83	344.23	18.68	-40.5	-55.1	3.8	1.49e+00	0	57	104	1093664768	52	19420
2026-01-08 10:07:20.85	344.23	18.55	-40.3	-55.0	3.8	1.49e+00	0	57	104	1093664768	52	19379
2026-01-08 10:07:21.86	344.22	18.43	-40.4	-55.2	3.8	1.49e+00	0	57	104	1093664768	52	19822
2026-01-08 10:07:22.87	344.22	18.31	-40.3	-55.1	3.8	1.49e+00	0	57	104	1093664768	52	19614
2026-01-08 10:07:23.88	344.22	18.18	-40.5	-55.3	3.8	1.49e+00	0	57	104	1093664768	52	20048
2026-01-08 10:07:24.89	344.21	18.06	-40.9	-55.5	3.8	1.49e+00	0	57	104	1093664768	52	20392
2026-01-08 10:07:25.90	344.21	17.94	-40.4	-55.1	3.8	1.49e+00	0	57	104	1093664768	52	19493
2026-01-08 10:07:26.91	344.20	17.82	-40.8	-55.4	3.8	1.49e+00	0	57	104	1093664768	52	20230
2026-01-08 10:07:27.92	344.20	17.70	-40.4	-55.1	3.8	1.49e+00	0	57	104	1093664768	52	19582
2026-01-08 10:07:28.93	344.19	17.58	-40.1	-55.3	3.8	1.49e+00	0	57	104	1093664768	52	19872
2026-01-08 10:07:29.94	344.19	17.46	-40.9	-55.5	3.8	1.49e+00	0	57	104	1093664768	52	20508
2026-01-08 10:07:30.95	344.19	17.34	-40.1	-55.3	3.8	1.49e+00	0	57	104	1093664768	52	19940
2026-01-08 10:07:31.96	344.18	17.22	-40.9	-55.5	3.8	1.49e+00	0	57	104	1093664768	52	20462
2026-01-08 10:07:32.97	344.18	17.11	-40.8	-55.4	3.8	1.49e+00	0	57	104	1093664768	52	20168
2026-01-08 10:07:33.98	344.17	16.99	-40.7	-55.4	3.8	1.49e+00	0	57	104	1093664768	52	20152
2026-01-08 10:07:34.99	344.17	16.87	-40.8	-55.5	3.8	1.49e+00	0	57	104	1093664768	52	20342
2026-01-08 10:07:35.99	344.17	16.76	-40.8	-55.5	3.8	1.49e+00	0	57	104	1093664768	52	20357
2026-01-08 10:07:37.00	344.16	16.64	-40.3	-55.2	3.8	1.49e+00	0	57	104	1093664768	52	19756
2026-01-08 10:07:38.01	344.16	16.53	-40.5	-55.3	3.8	1.49e+00	0	57	104	1093664768	52	19931
2026-01-08 10:07:39.02	344.15	16.41	-40.5	-55.2	3.8	1.49e+00	0	57	104	1093664768	52	19765
2026-01-08 10:07:40.04	344.15	16.30	-40.4	-55.3	3.8	1.49e+00	0	57	104	1093664768	52	19981
2026-01-08 10:07:41.04	344.15	16.19	-40.7	-55.5	3.8	1.49e+00	0	57	104	1093664768	52	20338
2026-01-08 10:07:42.05	344.14	16.07	-40.9	-55.5	3.8	1.49e+00	0	57	104	1093664768	52	20360
2026-01-08 10:07:43.06	344.14	15.96	-40.6	-55.4	3.8	1.49e+00	0	57	104	1093664768	52	20254
2026-01-08 10:07:44.07	344.14	15.85	-40.8	-55.4	3.8	1.49e+00	0	57	104	1093664768	52	20173
2026-01-08 10:07:45.08	344.13	15.74	-40.7	-55.3	3.8	1.49e+00	0	57	104	1093664768	52	19926
