passes_logs/2026/01/08/R2.0S_Moscow/R2.0S_Moscow__20260108_042211_FENGYUN_3G_rec.log

#Pass ID: 20260108_042211_FENGYUN 3G
#Satellite: FENGYUN 3G
#Configuration: FENGYUN 3G
#almurnet v.1.7.20251203
#Start time: 2026-01-08 04:22:10

#Version: 2.2.20231116
#Station: R2.0S_Moscow
#Location: 37.707566 lon 55.798166 lat
#TLE: 1 56232U 23055A   26005.65670112  .00041871  00000+0  66206-3 0  9997
#TLE: 2 56232  49.9942 104.1198 0004242 344.1257  15.9577 15.52986726154745

#Time	Az	El	Level	Level2	SNR	BER	BlckErr	Temp	State	Recorded	gain1	gain2
2026-01-08 04:22:10.67	264.15	1.97	-44.2	-62.5	3.8	8.46e-01	0	46	0	0	60	28820
2026-01-08 04:22:11.67	264.05	2.03	-44.2	-62.5	3.8	8.44e-01	0	47	104	0	60	28738
2026-01-08 04:22:12.68	263.95	2.09	-44.2	-62.5	3.8	8.46e-01	0	47	104	0	60	28789
2026-01-08 04:22:13.70	263.84	2.15	-44.2	-62.5	3.8	8.46e-01	0	47	104	0	60	28772
2026-01-08 04:22:14.71	263.74	2.21	-44.2	-62.5	3.8	8.46e-01	0	47	104	0	60	28800
2026-01-08 04:22:15.72	263.64	2.27	-44.2	-62.5	3.8	8.45e-01	0	47	104	0	60	28776
2026-01-08 04:22:16.73	263.53	2.33	-44.2	-62.5	3.8	8.45e-01	0	47	104	0	60	28705
2026-01-08 04:22:17.74	263.43	2.40	-44.2	-62.5	3.8	8.45e-01	0	47	104	0	60	28779
2026-01-08 04:22:18.75	263.33	2.46	-44.2	-62.5	3.8	8.45e-01	0	47	104	0	60	28778
2026-01-08 04:22:19.76	263.22	2.52	-44.2	-62.5	3.8	8.46e-01	0	47	104	0	60	28756
2026-01-08 04:22:20.77	263.12	2.58	-44.2	-62.5	3.8	8.46e-01	0	47	104	0	60	28696
2026-01-08 04:22:21.78	263.01	2.64	-44.2	-62.5	3.8	8.47e-01	0	48	104	0	60	28706
2026-01-08 04:22:22.79	262.90	2.70	-44.1	-62.5	3.8	8.47e-01	0	47	104	0	60	28731
2026-01-08 04:22:23.80	262.79	2.76	-44.1	-62.5	3.8	8.47e-01	0	48	104	0	60	28688
2026-01-08 04:22:24.81	262.69	2.82	-44.2	-62.5	3.8	8.46e-01	0	48	104	0	60	28787
2026-01-08 04:22:25.82	262.58	2.89	-44.2	-62.5	3.8	8.46e-01	0	48	104	0	60	28735
2026-01-08 04:22:26.83	262.47	2.95	-44.2	-62.5	3.8	8.46e-01	0	48	104	0	60	28721
2026-01-08 04:22:27.84	262.36	3.01	-44.1	-62.5	3.8	8.46e-01	0	48	104	0	60	28738
2026-01-08 04:22:28.85	262.25	3.07	-44.1	-62.5	3.8	8.46e-01	0	48	104	0	60	28724
2026-01-08 04:22:29.86	262.13	3.13	-44.1	-62.5	3.8	8.46e-01	0	48	104	0	60	28728
2026-01-08 04:22:30.87	262.02	3.20	-44.1	-62.5	3.8	8.46e-01	0	48	104	0	60	28797
2026-01-08 04:22:31.88	261.91	3.26	-44.1	-62.5	3.8	8.46e-01	0	48	104	0	60	28710
2026-01-08 04:22:32.89	261.79	3.32	-44.1	-62.4	3.8	8.46e-01	0	48	104	0	60	28628
2026-01-08 04:22:33.90	261.68	3.38	-44.1	-62.4	3.8	8.46e-01	0	48	104	0	60	28649
2026-01-08 04:22:34.91	261.56	3.45	-44.1	-62.5	3.8	8.46e-01	0	48	104	0	60	28705
2026-01-08 04:22:35.92	261.45	3.51	-44.1	-62.4	3.8	8.46e-01	0	49	104	0	60	28556
2026-01-08 04:22:36.93	261.33	3.57	-44.2	-62.4	3.8	8.46e-01	0	49	104	0	60	28633
2026-01-08 04:22:37.94	261.21	3.64	-44.1	-62.4	3.8	8.46e-01	0	48	104	0	60	28563
2026-01-08 04:22:38.95	261.10	3.70	-44.1	-62.4	3.8	8.47e-01	0	49	104	0	60	28574
2026-01-08 04:22:39.96	260.98	3.76	-44.1	-62.4	3.8	8.46e-01	0	49	104	0	60	28582
2026-01-08 04:22:40.97	260.86	3.83	-44.1	-62.4	3.8	8.46e-01	0	49	104	0	60	28554
2026-01-08 04:22:41.98	260.74	3.89	-44.1	-62.4	3.8	8.46e-01	0	49	104	0	60	28605
2026-01-08 04:22:42.99	260.61	3.95	-44.1	-62.5	3.8	8.46e-01	0	49	104	0	60	28698
2026-01-08 04:22:44.00	260.49	4.02	-44.1	-62.5	3.8	8.46e-01	0	49	104	0	60	28708
2026-01-08 04:22:45.01	260.37	4.08	-44.1	-62.4	3.8	8.46e-01	0	49	104	0	60	28515
2026-01-08 04:22:46.02	260.25	4.15	-44.1	-62.4	3.8	8.45e-01	0	49	104	0	60	28394
2026-01-08 04:22:47.03	260.12	4.21	-44.1	-62.3	3.8	8.45e-01	0	49	104	0	60	28227
2026-01-08 04:22:48.04	260.00	4.28	-44.1	-62.2	3.8	8.46e-01	0	49	104	0	60	27928
2026-01-08 04:22:49.05	259.87	4.34	-44.1	-62.1	3.8	8.45e-01	0	49	104	0	60	27628
2026-01-08 04:22:50.06	259.74	4.41	-44.1	-61.9	3.8	8.45e-01	0	49	104	0	60	26916
2026-01-08 04:22:51.08	259.62	4.47	-44.0	-61.8	3.8	8.47e-01	0	49	104	0	60	26625
2026-01-08 04:22:52.09	259.49	4.54	-44.0	-61.9	3.8	8.47e-01	0	49	104	0	60	26807
2026-01-08 04:22:53.10	259.36	4.60	-44.0	-61.8	3.8	8.46e-01	0	50	104	0	59	28152
2026-01-08 04:22:54.11	259.23	4.67	-43.8	-61.7	3.8	8.46e-01	0	50	104	0	59	27848
2026-01-08 04:22:55.12	259.10	4.73	-43.5	-61.8	3.8	8.47e-01	0	50	104	0	59	28336
2026-01-08 04:22:56.13	258.96	4.80	-43.0	-62.1	3.8	8.45e-01	0	50	104	0	58	30806
2026-01-08 04:22:57.14	258.83	4.87	-42.4	-62.2	3.8	8.45e-01	0	50	104	0	56	35277
2026-01-08 04:22:58.15	258.70	4.93	-41.8	-62.2	3.8	8.46e-01	0	50	104	0	55	37065
2026-01-08 04:22:59.16	258.56	5.00	-41.3	-62.3	3.8	8.46e-01	0	50	104	0	54	39687
2026-01-08 04:23:00.17	258.43	5.06	-40.9	-62.2	3.8	8.46e-01	0	50	104	0	53	41924
2026-01-08 04:23:01.18	258.29	5.13	-40.7	-62.2	3.8	8.47e-01	0	50	104	0	53	41467
2026-01-08 04:23:02.19	258.16	5.20	-40.8	-62.1	3.8	8.46e-01	0	50	104	0	53	41292
2026-01-08 04:23:03.20	258.02	5.26	-41.0	-62.0	3.8	8.46e-01	0	50	104	0	53	40837
2026-01-08 04:23:04.21	257.88	5.33	-41.5	-62.0	3.8	8.46e-01	0	50	104	0	53	40954
2026-01-08 04:23:05.22	257.74	5.40	-42.2	-62.1	3.8	8.47e-01	0	50	104	0	54	39054
2026-01-08 04:23:06.24	257.60	5.47	-43.1	-62.3	3.8	8.47e-01	0	50	104	0	56	35348
2026-01-08 04:23:07.25	257.46	5.53	-43.8	-62.3	3.8	8.47e-01	0	50	104	0	58	31672
2026-01-08 04:23:08.26	257.31	5.60	-44.1	-62.3	3.8	8.47e-01	0	50	104	0	58	31640
2026-01-08 04:23:09.27	257.17	5.67	-44.2	-62.2	3.8	8.47e-01	0	50	104	0	58	31325
2026-01-08 04:23:10.28	257.03	5.74	-44.0	-62.3	3.8	8.47e-01	0	50	104	0	58	31645
2026-01-08 04:23:11.29	256.88	5.80	-43.8	-62.4	3.8	8.45e-01	0	50	104	0	58	31926
2026-01-08 04:23:12.30	256.73	5.87	-43.7	-62.5	3.8	8.46e-01	0	50	104	0	58	32236
2026-01-08 04:23:13.31	256.59	5.94	-43.8	-62.5	3.8	8.46e-01	0	51	104	0	58	32264
2026-01-08 04:23:14.33	256.44	6.01	-43.9	-62.5	3.8	8.46e-01	0	50	104	0	58	32216
2026-01-08 04:23:15.33	256.29	6.08	-44.0	-62.4	3.8	8.46e-01	0	51	104	0	58	31911
2026-01-08 04:23:16.35	256.14	6.14	-44.1	-62.3	3.8	8.45e-01	0	51	104	0	58	31597
2026-01-08 04:23:17.36	255.99	6.21	-44.2	-62.2	3.8	8.45e-01	0	51	104	0	58	31349
2026-01-08 04:23:18.37	255.83	6.28	-44.2	-62.3	3.8	8.47e-01	0	51	104	0	59	29794
2026-01-08 04:23:19.38	255.68	6.35	-44.2	-62.3	3.8	8.46e-01	0	51	104	0	59	30020
2026-01-08 04:23:20.39	255.53	6.42	-44.2	-62.4	3.8	8.46e-01	0	51	104	0	59	30360
2026-01-08 04:23:21.40	255.37	6.49	-44.2	-62.4	3.8	8.46e-01	0	51	104	0	59	30316
2026-01-08 04:23:22.41	255.22	6.56	-44.2	-62.3	3.8	8.47e-01	0	51	104	0	59	29942
2026-01-08 04:23:23.42	255.06	6.63	-44.2	-62.1	3.8	8.47e-01	0	51	104	0	59	29181
2026-01-08 04:23:24.43	254.90	6.70	-44.2	-61.6	3.8	8.46e-01	0	51	104	0	59	27680
2026-01-08 04:23:25.45	254.74	6.77	-44.2	-61.2	3.8	8.46e-01	0	51	104	0	59	26378
2026-01-08 04:23:26.46	254.58	6.84	-44.2	-60.9	3.8	8.46e-01	0	51	104	0	59	25295
2026-01-08 04:23:27.47	254.42	6.91	-44.2	-60.7	3.8	8.47e-01	0	51	104	0	59	24838
2026-01-08 04:23:28.48	254.25	6.98	-44.2	-60.5	3.8	8.47e-01	0	51	104	0	59	24312
2026-01-08 04:23:29.49	254.09	7.05	-44.2	-60.3	3.8	8.45e-01	0	51	104	0	59	23611
2026-01-08 04:23:30.50	253.92	7.12	-44.1	-59.5	4.1	8.45e-01	0	51	104	0	59	21515
2026-01-08 04:23:31.51	253.76	7.19	-44.1	-58.6	4.3	8.42e-01	0	51	0	0	59	19476
2026-01-08 04:23:32.52	253.59	7.26	-44.0	-57.1	4.8	8.28e-01	0	51	0	0	59	16459
2026-01-08 04:23:33.53	253.42	7.33	-43.9	-55.5	5.9	8.28e-01	0	51	0	0	59	13678
2026-01-08 04:23:34.54	253.25	7.40	-43.8	-54.4	6.8	6.39e-01	0	51	0	1048576	59	12016
2026-01-08 04:23:35.55	253.08	7.47	-43.7	-53.5	7.6	2.09e-01	0	51	0	2097152	59	10862
2026-01-08 04:23:36.56	252.91	7.54	-43.7	-53.5	7.7	2.09e-01	0	52	0	3145728	59	10854
2026-01-08 04:23:37.57	252.74	7.61	-43.8	-54.2	7.1	1.03e-01	0	51	0	4718592	59	11691
2026-01-08 04:23:38.58	252.56	7.68	-44.0	-56.1	5.5	1.63e-01	0	51	0	5767168	59	14700
2026-01-08 04:23:39.59	252.39	7.75	-44.1	-59.0	4.2	6.79e-01	0	52	0	5767168	59	20484
2026-01-08 04:23:40.60	252.21	7.83	-44.1	-57.6	4.6	6.79e-01	0	52	0	5767168	59	17295
2026-01-08 04:23:41.61	252.03	7.90	-43.6	-52.7	8.3	7.90e-01	0	52	0	6291456	59	9889
2026-01-08 04:23:42.62	251.86	7.97	-42.7	-48.8	12.4	7.06e-02	0	52	0	7340032	57	7108
2026-01-08 04:23:43.63	251.68	8.04	-41.5	-45.9	15.3	7.06e-02	0	52	0	8388608	55	5710
2026-01-08 04:23:44.64	251.49	8.11	-42.5	-48.4	13.3	4.23e-05	0	52	0	9437184	55	7628
2026-01-08 04:23:45.64	251.31	8.18	-42.0	-46.7	14.7	7.32e-04	0	52	0	11010048	56	5916
2026-01-08 04:23:46.65	251.13	8.26	-42.5	-48.3	14.1	7.32e-04	0	52	0	12058624	55	7536
2026-01-08 04:23:47.66	250.94	8.33	-44.0	-56.6	5.5	3.81e-02	0	52	0	12058624	58	16404
2026-01-08 04:23:48.67	250.76	8.40	-39.9	-43.1	17.2	7.57e-01	0	52	0	12058624	52	4874
2026-01-08 04:23:49.68	250.57	8.47	-39.7	-42.6	18.8	7.57e-01	0	52	0	13631488	50	5208
2026-01-08 04:23:50.69	250.38	8.54	-39.3	-42.1	19.3	1.86e-04	0	52	0	14680064	50	4892
2026-01-08 04:23:51.70	250.19	8.62	-39.1	-41.8	19.7	0.00e+00	0	52	0	15728640	50	4707
2026-01-08 04:23:52.71	250.00	8.69	-39.0	-41.6	19.8	0.00e+00	0	52	0	16777216	50	4628
2026-01-08 04:23:53.72	249.81	8.76	-39.1	-41.7	19.8	0.00e+00	0	52	0	17825792	50	4666
2026-01-08 04:23:54.73	249.61	8.83	-38.9	-41.5	19.9	0.00e+00	0	52	0	19398656	49	4816
2026-01-08 04:23:55.74	249.42	8.91	-38.9	-41.5	20.0	0.00e+00	0	52	0	20447232	49	4815
2026-01-08 04:23:56.75	249.22	8.98	-38.8	-41.2	20.2	0.00e+00	0	52	0	21495808	49	4702
2026-01-08 04:23:57.76	249.02	9.05	-38.6	-41.0	20.4	0.00e+00	0	52	0	22544384	49	4572
2026-01-08 04:23:58.77	248.82	9.13	-38.5	-40.9	20.5	0.00e+00	0	52	0	23592960	49	4544
2026-01-08 04:23:59.78	248.62	9.20	-38.4	-40.8	20.7	0.00e+00	0	52	0	24641536	48	4730
2026-01-08 04:24:00.79	248.42	9.27	-38.4	-40.7	20.8	0.00e+00	0	52	0	25690112	48	4670
2026-01-08 04:24:01.80	248.22	9.34	-38.4	-40.7	20.8	0.00e+00	0	52	0	27262976	48	4664
2026-01-08 04:24:02.81	248.01	9.42	-38.4	-40.7	20.8	0.00e+00	0	52	0	28311552	48	4677
2026-01-08 04:24:03.82	247.80	9.49	-38.4	-40.7	20.8	0.00e+00	0	52	0	29360128	48	4693
2026-01-08 04:24:04.83	247.60	9.56	-38.4	-40.7	20.8	0.00e+00	0	52	0	30408704	48	4683
2026-01-08 04:24:05.84	247.39	9.64	-38.4	-40.8	20.7	0.00e+00	0	52	0	31457280	48	4723
2026-01-08 04:24:06.85	247.18	9.71	-38.4	-40.8	20.7	0.00e+00	0	53	0	32505856	48	4722
2026-01-08 04:24:07.86	246.96	9.78	-38.5	-40.8	20.7	0.00e+00	0	52	0	34078720	48	4746
2026-01-08 04:24:08.87	246.75	9.86	-38.5	-40.9	20.6	0.00e+00	0	53	0	35127296	48	4764
2026-01-08 04:24:09.88	246.53	9.93	-38.6	-40.9	20.6	0.00e+00	0	52	0	36175872	48	4803
2026-01-08 04:24:10.89	246.32	10.00	-38.4	-40.7	20.8	0.00e+00	0	52	0	37224448	48	4672
2026-01-08 04:24:11.90	246.10	10.08	-38.2	-40.5	21.0	0.00e+00	0	53	0	38273024	48	4570
2026-01-08 04:24:12.91	245.88	10.15	-38.1	-40.3	21.3	0.00e+00	0	53	0	39321600	48	4460
2026-01-08 04:24:13.92	245.66	10.22	-38.0	-40.2	21.4	0.00e+00	0	53	0	40894464	48	4406
2026-01-08 04:24:14.93	245.44	10.30	-38.0	-40.3	21.3	0.00e+00	0	52	0	41943040	47	4711
2026-01-08 04:24:15.94	245.21	10.37	-38.1	-40.4	21.1	0.00e+00	0	52	0	42991616	47	4778
2026-01-08 04:24:16.95	244.99	10.44	-38.1	-40.4	21.1	0.00e+00	0	53	0	44040192	47	4787
2026-01-08 04:24:17.96	244.76	10.52	-38.1	-40.4	21.2	0.00e+00	0	53	0	45088768	47	4764
2026-01-08 04:24:18.97	244.53	10.59	-38.1	-40.3	21.2	0.00e+00	0	53	0	46137344	47	4723
2026-01-08 04:24:19.98	244.30	10.66	-38.0	-40.2	21.4	0.00e+00	0	53	0	47710208	47	4677
2026-01-08 04:24:20.99	244.07	10.74	-37.9	-40.1	21.4	0.00e+00	0	53	0	48758784	47	4633
2026-01-08 04:24:22.00	243.84	10.81	-37.9	-40.1	21.5	0.00e+00	0	53	0	49807360	47	4605
2026-01-08 04:24:23.01	243.60	10.88	-37.8	-40.0	21.6	0.00e+00	0	53	0	50855936	47	4549
2026-01-08 04:24:24.02	243.36	10.96	-37.7	-39.8	21.7	0.00e+00	0	53	0	51904512	47	4479
2026-01-08 04:24:25.03	243.13	11.03	-37.6	-39.7	21.9	0.00e+00	0	53	0	53477376	47	4405
2026-01-08 04:24:26.04	242.89	11.10	-37.6	-39.7	21.8	0.00e+00	0	53	0	54525952	47	4435
2026-01-08 04:24:27.05	242.65	11.18	-37.6	-39.7	21.8	0.00e+00	0	53	0	55574528	47	4423
2026-01-08 04:24:28.06	242.40	11.25	-37.7	-39.8	21.7	0.00e+00	0	53	0	56623104	47	4483
2026-01-08 04:24:29.07	242.16	11.32	-37.8	-40.0	21.6	0.00e+00	0	53	0	57671680	47	4559
2026-01-08 04:24:30.08	241.91	11.40	-38.0	-40.1	21.4	0.00e+00	0	53	0	58720256	47	4650
2026-01-08 04:24:31.09	241.67	11.47	-38.0	-40.2	21.4	0.00e+00	0	53	0	60293120	47	4665
2026-01-08 04:24:32.10	241.42	11.54	-37.8	-40.0	21.6	0.00e+00	0	53	0	61341696	47	4562
2026-01-08 04:24:33.11	241.17	11.61	-37.8	-40.0	21.6	0.00e+00	0	53	0	62390272	47	4556
2026-01-08 04:24:34.12	240.91	11.69	-37.8	-39.9	21.6	0.00e+00	0	53	0	63438848	47	4542
2026-01-08 04:24:35.13	240.66	11.76	-37.7	-39.8	21.8	0.00e+00	0	53	0	64487424	47	4467
2026-01-08 04:24:36.13	240.40	11.83	-37.3	-39.3	22.3	0.00e+00	0	53	0	65536000	46	4484
2026-01-08 04:24:37.14	240.15	11.90	-37.3	-39.2	22.4	0.00e+00	0	53	0	66584576	46	4437
2026-01-08 04:24:38.16	239.89	11.97	-37.3	-39.2	22.4	0.00e+00	0	53	0	68157440	46	4440
2026-01-08 04:24:39.16	239.63	12.05	-37.3	-39.3	22.3	0.00e+00	0	53	0	69206016	46	4493
2026-01-08 04:24:40.17	239.36	12.12	-37.4	-39.4	22.2	0.00e+00	0	53	0	70254592	46	4538
2026-01-08 04:24:41.18	239.10	12.19	-37.6	-39.7	21.9	0.00e+00	0	53	0	71303168	46	4675
2026-01-08 04:24:42.19	238.83	12.26	-37.7	-39.8	21.9	0.00e+00	0	53	0	72351744	46	4728
2026-01-08 04:24:43.20	238.57	12.33	-37.7	-39.9	21.8	0.00e+00	0	53	0	73400320	46	4770
2026-01-08 04:24:44.22	238.29	12.40	-37.8	-39.9	21.8	0.00e+00	0	53	0	74973184	46	4778
2026-01-08 04:24:45.22	238.03	12.47	-37.8	-39.9	21.8	0.00e+00	0	53	0	76021760	46	4766
2026-01-08 04:24:46.23	237.75	12.54	-37.7	-39.7	21.9	0.00e+00	0	53	0	77070336	46	4705
2026-01-08 04:24:47.24	237.48	12.61	-37.6	-39.6	22.1	0.00e+00	0	53	0	78118912	46	4628
2026-01-08 04:24:48.25	237.20	12.68	-37.3	-39.2	22.4	0.00e+00	0	53	0	79167488	46	4436
2026-01-08 04:24:49.26	236.92	12.75	-37.1	-39.0	22.6	0.00e+00	0	53	0	80216064	46	4328
2026-01-08 04:24:50.27	236.64	12.82	-37.0	-38.9	22.7	0.00e+00	0	53	0	81788928	46	4280
2026-01-08 04:24:51.28	236.36	12.89	-36.9	-38.8	22.8	0.00e+00	0	53	0	82837504	45	4477
2026-01-08 04:24:52.29	236.08	12.96	-36.9	-38.8	22.8	0.00e+00	0	53	0	83886080	45	4476
2026-01-08 04:24:53.30	235.80	13.03	-37.1	-39.1	22.6	0.00e+00	0	53	0	84934656	45	4603
2026-01-08 04:24:54.31	235.51	13.10	-37.2	-39.2	22.5	0.00e+00	0	53	0	85983232	45	4673
2026-01-08 04:24:55.32	235.22	13.17	-37.4	-39.4	22.3	0.00e+00	0	53	0	87031808	45	4761
2026-01-08 04:24:56.33	234.93	13.24	-37.5	-39.5	22.2	0.00e+00	0	54	0	88604672	45	4833
2026-01-08 04:24:57.34	234.64	13.30	-37.4	-39.4	22.3	0.00e+00	0	53	0	89653248	45	4788
2026-01-08 04:24:58.35	234.35	13.37	-37.4	-39.4	22.2	0.00e+00	0	53	0	90701824	45	4792
2026-01-08 04:24:59.36	234.05	13.44	-37.5	-39.5	22.2	0.00e+00	0	54	0	91750400	45	4852
2026-01-08 04:25:00.36	233.76	13.50	-37.6	-39.6	22.0	0.00e+00	0	53	0	92798976	45	4915
2026-01-08 04:25:01.37	233.46	13.57	-37.4	-39.5	22.2	0.00e+00	0	54	0	93847552	45	4820
2026-01-08 04:25:02.38	233.16	13.64	-37.4	-39.4	22.3	0.00e+00	0	53	0	95420416	45	4763
2026-01-08 04:25:03.39	232.85	13.70	-37.4	-39.4	22.4	0.00e+00	0	53	0	96468992	45	4762
2026-01-08 04:25:04.40	232.55	13.77	-37.2	-39.2	22.5	0.00e+00	0	53	0	97517568	45	4657
2026-01-08 04:25:05.41	232.24	13.83	-37.1	-39.0	22.7	0.00e+00	0	53	0	98566144	45	4568
2026-01-08 04:25:06.42	231.94	13.90	-36.9	-38.8	22.9	0.00e+00	0	54	0	99614720	45	4462
2026-01-08 04:25:07.43	231.63	13.96	-37.0	-38.9	22.9	0.00e+00	0	54	0	101187584	45	4499
2026-01-08 04:25:08.44	231.32	14.02	-37.0	-38.9	22.8	0.00e+00	0	54	0	102236160	45	4539
2026-01-08 04:25:09.45	231.00	14.09	-36.9	-38.8	22.9	0.00e+00	0	54	0	103284736	45	4474
2026-01-08 04:25:10.46	230.69	14.15	-37.0	-38.9	22.8	0.00e+00	0	54	0	104333312	45	4512
2026-01-08 04:25:11.47	230.37	14.21	-37.0	-38.9	22.8	0.00e+00	0	54	0	105381888	45	4531
2026-01-08 04:25:12.48	230.06	14.27	-37.0	-38.9	22.8	0.00e+00	0	53	0	106430464	45	4526
2026-01-08 04:25:13.49	229.74	14.33	-37.0	-38.9	22.9	0.00e+00	0	54	0	107479040	45	4506
2026-01-08 04:25:14.50	229.42	14.40	-37.0	-38.9	22.8	0.00e+00	0	53	0	109051904	45	4517
2026-01-08 04:25:15.51	229.09	14.46	-36.9	-38.8	22.9	0.00e+00	0	54	0	110100480	45	4442
2026-01-08 04:25:16.52	228.77	14.52	-36.9	-38.7	22.9	0.00e+00	0	54	0	111149056	45	4440
2026-01-08 04:25:17.52	228.45	14.57	-36.9	-38.8	22.9	0.00e+00	0	54	0	112197632	45	4444
2026-01-08 04:25:18.53	228.12	14.63	-36.9	-38.8	22.9	0.00e+00	0	54	0	113246208	45	4465
2026-01-08 04:25:19.54	227.79	14.69	-36.9	-38.8	22.9	0.00e+00	0	54	0	114294784	45	4466
2026-01-08 04:25:20.56	227.45	14.75	-36.9	-38.8	22.9	0.00e+00	0	54	0	115867648	45	4458
2026-01-08 04:25:21.56	227.13	14.80	-36.7	-38.5	23.2	0.00e+00	0	54	0	116916224	45	4327
2026-01-08 04:25:22.57	226.79	14.86	-36.4	-38.2	23.5	0.00e+00	0	54	0	117964800	44	4410
2026-01-08 04:25:23.58	226.46	14.92	-36.2	-37.9	23.8	0.00e+00	0	54	0	119013376	44	4258
2026-01-08 04:25:24.59	226.12	14.97	-35.7	-37.4	24.1	0.00e+00	0	54	0	120061952	43	4273
2026-01-08 04:25:25.60	225.78	15.03	-35.5	-37.1	24.4	0.00e+00	0	54	0	121110528	43	4129
2026-01-08 04:25:26.61	225.44	15.08	-35.5	-37.1	24.4	0.00e+00	0	54	0	122683392	42	4368
2026-01-08 04:25:27.62	225.10	15.13	-35.6	-37.2	24.3	0.00e+00	0	54	0	123731968	42	4438
2026-01-08 04:25:28.63	224.75	15.19	-35.7	-37.4	24.2	0.00e+00	0	54	0	124780544	42	4494
2026-01-08 04:25:29.64	224.41	15.24	-35.9	-37.6	23.9	0.00e+00	0	54	0	125829120	42	4634
2026-01-08 04:25:30.65	224.06	15.29	-36.2	-38.0	23.5	0.00e+00	0	54	0	126877696	43	4586
2026-01-08 04:25:31.66	223.71	15.34	-36.5	-38.3	23.3	0.00e+00	0	54	0	127926272	43	4726
2026-01-08 04:25:32.67	223.36	15.39	-36.4	-38.2	23.4	0.00e+00	0	54	0	129499136	43	4678
2026-01-08 04:25:33.68	223.01	15.44	-36.2	-38.0	23.6	0.00e+00	0	54	0	130547712	43	4559
2026-01-08 04:25:34.69	222.66	15.49	-36.2	-38.0	23.6	0.00e+00	0	54	0	131596288	43	4571
2026-01-08 04:25:35.70	222.30	15.53	-36.3	-38.1	23.5	0.00e+00	0	54	0	132644864	43	4623
2026-01-08 04:25:36.71	221.95	15.58	-36.3	-38.1	23.5	0.00e+00	0	54	0	133693440	43	4635
2026-01-08 04:25:37.72	221.59	15.63	-36.4	-38.2	23.4	0.00e+00	0	54	0	134742016	43	4690
2026-01-08 04:25:38.73	221.23	15.67	-36.4	-38.2	23.4	0.00e+00	0	54	0	136314880	43	4691
2026-01-08 04:25:39.74	220.87	15.72	-36.6	-38.4	23.2	0.00e+00	0	54	0	137363456	43	4786
2026-01-08 04:25:40.75	220.51	15.76	-36.6	-38.5	23.2	0.00e+00	0	54	0	138412032	43	4836
2026-01-08 04:25:41.76	220.15	15.80	-36.7	-38.5	23.1	0.00e+00	0	54	0	139460608	43	4858
2026-01-08 04:25:42.77	219.79	15.84	-36.6	-38.5	23.2	0.00e+00	0	54	0	140509184	43	4823
2026-01-08 04:25:43.78	219.42	15.88	-36.7	-38.5	23.1	0.00e+00	0	54	0	142082048	43	4842
2026-01-08 04:25:44.78	219.06	15.92	-36.7	-38.5	23.1	0.00e+00	0	54	0	143130624	43	4864
2026-01-08 04:25:45.79	218.69	15.96	-37.1	-39.0	22.9	0.00e+00	0	54	0	144179200	44	4815
2026-01-08 04:25:46.80	218.32	16.00	-37.2	-39.2	22.7	0.00e+00	0	54	0	145227776	45	4657
2026-01-08 04:25:47.81	217.95	16.04	-37.2	-39.1	22.7	0.00e+00	0	54	0	146276352	45	4626
2026-01-08 04:25:48.82	217.58	16.07	-37.0	-38.9	22.9	0.00e+00	0	54	0	147324928	45	4521
2026-01-08 04:25:49.83	217.21	16.11	-36.8	-38.6	23.2	0.00e+00	0	54	0	148373504	45	4363
2026-01-08 04:25:50.84	216.84	16.14	-36.5	-38.2	23.5	0.00e+00	0	54	0	149946368	45	4188
2026-01-08 04:25:51.85	216.46	16.18	-36.3	-38.1	23.5	0.00e+00	0	54	0	150994944	44	4361
2026-01-08 04:25:52.86	216.09	16.21	-36.3	-38.0	23.7	0.00e+00	0	54	0	152043520	44	4319
2026-01-08 04:25:53.87	215.71	16.24	-36.4	-38.2	23.6	0.00e+00	0	54	0	153092096	44	4400
2026-01-08 04:25:54.88	215.33	16.27	-36.9	-38.7	23.1	0.00e+00	0	54	0	154140672	44	4692
2026-01-08 04:25:55.89	214.96	16.30	-37.1	-39.0	22.9	0.00e+00	0	54	0	155189248	44	4824
2026-01-08 04:25:56.90	214.58	16.33	-37.2	-39.1	22.7	0.00e+00	0	54	0	156762112	45	4643
2026-01-08 04:25:57.91	214.20	16.36	-37.2	-39.1	22.8	0.00e+00	0	54	0	157810688	45	4631
2026-01-08 04:25:58.92	213.82	16.39	-37.3	-39.2	22.6	0.00e+00	0	54	0	158859264	45	4702
2026-01-08 04:25:59.93	213.43	16.41	-37.2	-39.1	22.7	0.00e+00	0	54	0	159907840	45	4627
2026-01-08 04:26:00.94	213.05	16.44	-37.1	-39.0	22.8	0.00e+00	0	54	0	160956416	45	4568
2026-01-08 04:26:01.95	212.67	16.46	-37.0	-38.9	22.9	0.00e+00	0	55	0	162004992	45	4511
2026-01-08 04:26:02.95	212.29	16.48	-36.9	-38.8	23.1	0.00e+00	0	54	0	163577856	45	4465
2026-01-08 04:26:03.96	211.90	16.50	-36.7	-38.5	23.3	0.00e+00	0	54	0	164626432	45	4330
2026-01-08 04:26:04.97	211.52	16.52	-36.6	-38.4	23.4	0.00e+00	0	54	0	165675008	45	4285
2026-01-08 04:26:05.98	211.13	16.54	-36.5	-38.2	23.6	0.00e+00	0	54	0	166723584	44	4421
2026-01-08 04:26:06.99	210.74	16.56	-36.3	-38.1	23.8	0.00e+00	0	54	0	167772160	44	4347
2026-01-08 04:26:08.00	210.36	16.58	-36.4	-38.2	23.7	0.00e+00	0	54	0	168820736	44	4394
2026-01-08 04:26:09.01	209.97	16.60	-36.4	-38.1	23.7	0.00e+00	0	54	0	170393600	44	4385
2026-01-08 04:26:10.02	209.58	16.61	-36.5	-38.3	23.6	0.00e+00	0	54	0	171442176	44	4453
2026-01-08 04:26:11.03	209.19	16.62	-36.7	-38.5	23.4	0.00e+00	0	54	0	172490752	44	4551
2026-01-08 04:26:12.04	208.80	16.64	-36.7	-38.5	23.3	0.00e+00	0	54	0	173539328	44	4549
2026-01-08 04:26:13.04	208.42	16.65	-36.6	-38.3	23.5	0.00e+00	0	54	0	174587904	44	4484
2026-01-08 04:26:14.05	208.03	16.66	-36.5	-38.3	23.5	0.00e+00	0	54	0	175636480	44	4485
2026-01-08 04:26:15.06	207.64	16.67	-36.4	-38.2	23.6	0.00e+00	0	55	0	177209344	44	4415
2026-01-08 04:26:16.07	207.25	16.68	-36.4	-38.1	23.7	0.00e+00	0	54	0	178257920	44	4384
2026-01-08 04:26:17.08	206.86	16.69	-36.2	-38.0	23.8	0.00e+00	0	54	0	179306496	44	4297
2026-01-08 04:26:18.09	206.46	16.69	-35.8	-37.5	24.2	0.00e+00	0	55	0	180355072	43	4304
2026-01-08 04:26:19.10	206.07	16.70	-35.8	-37.5	24.1	0.00e+00	0	54	0	181403648	43	4325
2026-01-08 04:26:20.11	205.68	16.70	-35.7	-37.3	24.3	0.00e+00	0	54	0	182452224	43	4241
2026-01-08 04:26:21.12	205.29	16.70	-35.4	-37.0	24.6	0.00e+00	0	54	0	184025088	42	4316
2026-01-08 04:26:22.13	204.90	16.71	-35.4	-37.0	24.6	0.00e+00	0	55	0	185073664	42	4300
2026-01-08 04:26:23.14	204.51	16.71	-35.3	-36.9	24.7	0.00e+00	0	55	0	186122240	42	4266
2026-01-08 04:26:24.15	204.11	16.71	-35.2	-36.8	24.8	0.00e+00	0	55	0	187170816	42	4202
2026-01-08 04:26:25.16	203.72	16.70	-35.3	-36.9	24.7	0.00e+00	0	54	0	188219392	42	4273
2026-01-08 04:26:26.17	203.33	16.70	-35.3	-36.9	24.7	0.00e+00	0	54	0	189267968	42	4272
2026-01-08 04:26:27.17	202.94	16.70	-35.8	-37.5	24.2	0.00e+00	0	55	0	190840832	42	4568
2026-01-08 04:26:28.19	202.55	16.69	-36.0	-37.7	23.9	0.00e+00	0	54	0	191889408	42	4705
2026-01-08 04:26:29.20	202.16	16.69	-36.3	-38.1	23.6	0.00e+00	0	54	0	192937984	43	4619
2026-01-08 04:26:30.20	201.77	16.68	-36.5	-38.3	23.3	0.00e+00	0	55	0	193986560	43	4753
2026-01-08 04:26:31.21	201.38	16.67	-36.5	-38.3	23.3	0.00e+00	0	55	0	195035136	43	4730
2026-01-08 04:26:32.22	200.99	16.66	-36.3	-38.1	23.5	0.00e+00	0	55	0	196083712	43	4635
2026-01-08 04:26:33.24	200.59	16.65	-36.3	-38.0	23.6	0.00e+00	0	55	0	197656576	43	4591
2026-01-08 04:26:34.25	200.21	16.64	-36.2	-38.0	23.7	0.00e+00	0	55	0	198705152	43	4547
2026-01-08 04:26:35.26	199.82	16.63	-36.0	-37.7	23.9	0.00e+00	0	55	0	199753728	43	4414
2026-01-08 04:26:36.26	199.43	16.61	-35.7	-37.3	24.2	0.00e+00	0	55	0	200802304	43	4234
2026-01-08 04:26:37.27	199.04	16.60	-35.7	-37.3	24.2	0.00e+00	0	55	0	201850880	43	4232
2026-01-08 04:26:38.29	198.65	16.58	-35.8	-37.5	24.1	0.00e+00	0	55	0	202899456	43	4331
2026-01-08 04:26:39.29	198.27	16.57	-35.9	-37.5	24.0	0.00e+00	0	55	0	204472320	43	4335
2026-01-08 04:26:40.30	197.88	16.55	-35.8	-37.5	24.1	0.00e+00	0	55	0	205520896	43	4326
2026-01-08 04:26:41.31	197.49	16.53	-35.7	-37.4	24.2	0.00e+00	0	55	0	206569472	43	4259
2026-01-08 04:26:42.32	197.11	16.51	-35.6	-37.3	24.3	0.00e+00	0	55	0	207618048	43	4202
2026-01-08 04:26:43.33	196.72	16.49	-35.8	-37.5	24.1	0.00e+00	0	55	0	208666624	43	4320
2026-01-08 04:26:44.34	196.34	16.46	-35.8	-37.4	24.2	0.00e+00	0	55	0	209715200	43	4287
2026-01-08 04:26:45.35	195.95	16.44	-35.7	-37.4	24.2	0.00e+00	0	55	0	211288064	43	4280
2026-01-08 04:26:46.36	195.57	16.42	-35.8	-37.4	24.2	0.00e+00	0	55	0	212336640	43	4280
2026-01-08 04:26:47.37	195.19	16.39	-35.8	-37.5	24.2	0.00e+00	0	55	0	213385216	43	4294
2026-01-08 04:26:48.38	194.81	16.36	-36.0	-37.7	24.0	0.00e+00	0	55	0	214433792	43	4406
2026-01-08 04:26:49.39	194.43	16.34	-36.0	-37.7	23.9	0.00e+00	0	55	0	215482368	43	4404
2026-01-08 04:26:50.40	194.05	16.31	-36.0	-37.7	23.9	0.00e+00	0	55	0	216530944	43	4410
2026-01-08 04:26:51.41	193.67	16.28	-36.0	-37.7	23.9	0.00e+00	0	55	0	218103808	43	4400
2026-01-08 04:26:52.42	193.29	16.25	-36.1	-37.8	23.8	0.00e+00	0	55	0	219152384	43	4466
2026-01-08 04:26:53.43	192.92	16.22	-36.1	-37.8	23.7	0.00e+00	0	55	0	220200960	43	4493
2026-01-08 04:26:54.44	192.54	16.18	-36.1	-37.8	23.7	0.00e+00	0	55	0	221249536	43	4476
2026-01-08 04:26:55.45	192.17	16.15	-36.1	-37.8	23.8	0.00e+00	0	55	0	222298112	43	4466
2026-01-08 04:26:56.46	191.79	16.12	-36.1	-37.9	23.7	0.00e+00	0	55	0	223346688	43	4513
2026-01-08 04:26:57.47	191.42	16.08	-36.2	-37.9	23.7	0.00e+00	0	55	0	224919552	43	4544
2026-01-08 04:26:58.48	191.05	16.04	-36.1	-37.8	23.7	0.00e+00	0	55	0	225968128	43	4490
2026-01-08 04:26:59.49	190.68	16.01	-36.0	-37.8	23.8	0.00e+00	0	55	0	227016704	43	4447
2026-01-08 04:27:00.50	190.31	15.97	-36.2	-37.9	23.7	0.00e+00	0	55	0	228065280	43	4524
2026-01-08 04:27:01.51	189.94	15.93	-36.3	-38.1	23.5	0.00e+00	0	55	0	229113856	43	4610
2026-01-08 04:27:02.52	189.57	15.89	-36.3	-38.1	23.5	0.00e+00	0	55	0	230162432	43	4617
2026-01-08 04:27:03.53	189.21	15.85	-36.4	-38.2	23.4	0.00e+00	0	55	0	231735296	43	4655
2026-01-08 04:27:04.54	188.84	15.81	-36.3	-38.0	23.5	0.00e+00	0	55	0	232783872	43	4597
2026-01-08 04:27:05.55	188.48	15.76	-36.1	-37.8	23.7	0.00e+00	0	55	0	233832448	43	4488
2026-01-08 04:27:06.56	188.12	15.72	-36.2	-38.0	23.6	0.00e+00	0	55	0	234881024	43	4555
2026-01-08 04:27:07.57	187.76	15.68	-36.3	-38.1	23.5	0.00e+00	0	55	0	235929600	43	4631
2026-01-08 04:27:08.58	187.40	15.63	-36.4	-38.2	23.4	0.00e+00	0	55	0	236978176	43	4678
2026-01-08 04:27:09.59	187.04	15.59	-36.9	-38.8	23.0	0.00e+00	0	55	0	238551040	44	4717
2026-01-08 04:27:10.59	186.69	15.54	-37.2	-39.1	22.7	0.00e+00	0	55	0	239599616	44	4914
2026-01-08 04:27:11.60	186.34	15.49	-37.1	-39.0	22.7	0.00e+00	0	55	0	240648192	45	4580
2026-01-08 04:27:12.61	185.98	15.45	-36.9	-38.7	23.0	0.00e+00	0	55	0	241696768	45	4426
2026-01-08 04:27:13.62	185.63	15.40	-36.6	-38.4	23.3	0.00e+00	0	55	0	242745344	45	4252
2026-01-08 04:27:14.63	185.28	15.35	-36.3	-38.0	23.7	0.00e+00	0	55	0	243793920	44	4329
2026-01-08 04:27:15.64	184.93	15.30	-36.4	-38.1	23.6	0.00e+00	0	55	0	245366784	44	4385
2026-01-08 04:27:16.65	184.58	15.25	-36.4	-38.2	23.6	0.00e+00	0	55	0	246415360	44	4406
2026-01-08 04:27:17.66	184.24	15.19	-36.7	-38.5	23.2	0.00e+00	0	55	0	247463936	44	4570
2026-01-08 04:27:18.67	183.89	15.14	-36.9	-38.7	23.1	0.00e+00	0	55	0	248512512	44	4690
2026-01-08 04:27:19.68	183.55	15.09	-36.9	-38.7	23.0	0.00e+00	0	55	0	249561088	44	4703
2026-01-08 04:27:20.69	183.21	15.03	-36.9	-38.7	23.0	0.00e+00	0	55	0	250609664	44	4697
2026-01-08 04:27:21.70	182.87	14.98	-36.8	-38.6	23.1	0.00e+00	0	55	0	252182528	44	4648
2026-01-08 04:27:22.71	182.53	14.93	-36.8	-38.7	23.0	0.00e+00	0	55	0	253231104	44	4662
2026-01-08 04:27:23.72	182.19	14.87	-36.7	-38.5	23.2	0.00e+00	0	55	0	254279680	44	4560
2026-01-08 04:27:24.73	181.86	14.81	-36.7	-38.5	23.2	0.00e+00	0	55	0	255328256	44	4560
2026-01-08 04:27:25.74	181.53	14.76	-36.6	-38.4	23.3	0.00e+00	0	55	0	256376832	44	4537
2026-01-08 04:27:26.75	181.19	14.70	-36.6	-38.4	23.3	0.00e+00	0	55	0	257425408	44	4514
2026-01-08 04:27:27.76	180.86	14.64	-36.5	-38.3	23.4	0.00e+00	0	55	0	258998272	44	4456
2026-01-08 04:27:28.77	180.54	14.58	-36.4	-38.2	23.4	0.00e+00	0	55	0	260046848	44	4439
2026-01-08 04:27:29.78	180.21	14.52	-36.5	-38.3	23.4	0.00e+00	0	55	0	261095424	44	4464
2026-01-08 04:27:30.78	179.89	14.46	-36.4	-38.2	23.5	0.00e+00	0	55	0	262144000	44	4393
2026-01-08 04:27:31.79	179.56	14.40	-36.3	-38.1	23.5	0.00e+00	0	55	0	263192576	44	4355
2026-01-08 04:27:32.81	179.24	14.34	-36.4	-38.2	23.4	0.00e+00	0	55	0	264241152	44	4408
2026-01-08 04:27:33.81	178.92	14.28	-36.4	-38.1	23.4	0.00e+00	0	55	0	265814016	44	4391
2026-01-08 04:27:34.82	178.60	14.22	-36.4	-38.1	23.5	0.00e+00	0	55	0	266862592	44	4379
2026-01-08 04:27:35.83	178.29	14.16	-36.3	-38.1	23.6	0.00e+00	0	55	0	267911168	44	4343
2026-01-08 04:27:36.84	177.97	14.09	-36.3	-38.1	23.5	0.00e+00	0	55	0	268959744	44	4363
2026-01-08 04:27:37.85	177.66	14.03	-36.3	-38.1	23.5	0.00e+00	0	55	0	270008320	44	4369
2026-01-08 04:27:38.86	177.35	13.97	-36.3	-38.1	23.5	0.00e+00	0	55	0	271056896	44	4347
2026-01-08 04:27:39.87	177.04	13.90	-36.3	-38.1	23.5	0.00e+00	0	55	0	272629760	44	4371
2026-01-08 04:27:40.88	176.73	13.84	-36.5	-38.3	23.3	0.00e+00	0	55	0	273678336	44	4458
2026-01-08 04:27:41.89	176.42	13.77	-36.8	-38.6	23.0	0.00e+00	0	55	0	274726912	44	4626
2026-01-08 04:27:42.90	176.12	13.71	-37.1	-39.0	22.6	0.00e+00	0	55	0	275775488	44	4833
2026-01-08 04:27:43.91	175.81	13.64	-37.3	-39.3	22.3	0.00e+00	0	55	0	276824064	45	4715
2026-01-08 04:27:44.92	175.51	13.58	-37.3	-39.3	22.3	0.00e+00	0	55	0	277872640	45	4712
2026-01-08 04:27:45.93	175.21	13.51	-37.1	-39.1	22.5	0.00e+00	0	55	0	279445504	45	4617
2026-01-08 04:27:46.94	174.92	13.44	-36.8	-38.7	22.9	0.00e+00	0	55	0	280494080	45	4404
2026-01-08 04:27:47.95	174.62	13.38	-36.7	-38.6	23.0	0.00e+00	0	55	0	281542656	45	4346
2026-01-08 04:27:48.96	174.32	13.31	-36.8	-38.6	22.9	0.00e+00	0	55	0	282591232	45	4380
2026-01-08 04:27:49.96	174.04	13.24	-36.8	-38.7	22.9	0.00e+00	0	55	0	283639808	45	4411
2026-01-08 04:27:50.97	173.74	13.18	-36.9	-38.8	22.7	0.00e+00	0	55	0	284688384	45	4480
2026-01-08 04:27:51.98	173.46	13.11	-37.1	-39.0	22.6	0.00e+00	0	55	0	286261248	45	4557
2026-01-08 04:27:52.99	173.17	13.04	-37.3	-39.3	22.4	0.00e+00	0	55	0	287309824	45	4711
2026-01-08 04:27:54.00	172.88	12.97	-37.5	-39.5	22.1	0.00e+00	0	55	0	288358400	45	4841
2026-01-08 04:27:55.01	172.60	12.90	-37.6	-39.6	21.9	0.00e+00	0	55	0	289406976	45	4910
2026-01-08 04:27:56.02	172.32	12.83	-37.4	-39.4	22.1	0.00e+00	0	55	0	290455552	45	4809
2026-01-08 04:27:57.03	172.04	12.76	-37.2	-39.2	22.3	0.00e+00	0	55	0	291504128	45	4678
2026-01-08 04:27:58.04	171.76	12.69	-37.2	-39.1	22.7	0.00e+00	0	55	0	293076992	45	4642
2026-01-08 04:27:59.05	171.48	12.62	-37.0	-38.9	22.8	0.00e+00	0	55	0	294125568	45	4503
2026-01-08 04:28:00.06	171.20	12.55	-37.0	-38.9	22.8	0.00e+00	0	55	0	295174144	45	4496
2026-01-08 04:28:01.07	170.93	12.48	-37.1	-39.0	22.6	0.00e+00	0	55	0	296222720	45	4592
2026-01-08 04:28:02.08	170.66	12.41	-37.2	-39.1	22.5	0.00e+00	0	55	0	297271296	45	4634
2026-01-08 04:28:03.09	170.39	12.34	-37.3	-39.2	22.4	0.00e+00	0	55	0	298319872	45	4695
2026-01-08 04:28:04.09	170.12	12.27	-37.5	-39.5	22.1	0.00e+00	0	55	0	299892736	45	4841
2026-01-08 04:28:05.11	169.85	12.20	-37.6	-39.7	22.0	0.00e+00	0	55	0	300941312	45	4945
2026-01-08 04:28:06.12	169.59	12.12	-38.0	-40.2	21.5	0.00e+00	0	55	0	301989888	46	4932
2026-01-08 04:28:07.12	169.33	12.05	-38.0	-40.2	21.5	0.00e+00	0	55	0	303038464	46	4944
2026-01-08 04:28:08.13	169.07	11.98	-38.2	-40.3	21.4	0.00e+00	0	55	0	304087040	46	5027
2026-01-08 04:28:09.14	168.81	11.91	-38.2	-40.3	21.3	0.00e+00	0	55	0	305135616	47	4758
2026-01-08 04:28:10.15	168.55	11.84	-38.2	-40.4	21.3	0.00e+00	0	55	0	306708480	47	4800
2026-01-08 04:28:11.16	168.29	11.76	-37.9	-40.0	21.6	0.00e+00	0	55	0	307757056	47	4577
2026-01-08 04:28:12.17	168.04	11.69	-37.5	-39.5	22.1	0.00e+00	0	55	0	308805632	47	4324
2026-01-08 04:28:13.18	167.78	11.62	-37.3	-39.3	22.4	0.00e+00	0	55	0	309854208	46	4463
2026-01-08 04:28:14.19	167.53	11.55	-37.3	-39.2	22.5	0.00e+00	0	55	0	310902784	46	4426
2026-01-08 04:28:15.20	167.28	11.47	-37.4	-39.4	22.3	0.00e+00	0	55	0	311951360	46	4524
2026-01-08 04:28:16.21	167.03	11.40	-37.7	-39.7	22.0	0.00e+00	0	55	0	313524224	46	4683
2026-01-08 04:28:17.22	166.79	11.33	-37.8	-39.9	21.8	0.00e+00	0	55	0	314572800	46	4779
2026-01-08 04:28:18.23	166.54	11.26	-37.9	-40.0	21.7	0.00e+00	0	55	0	315621376	46	4858
2026-01-08 04:28:19.24	166.30	11.18	-38.0	-40.2	21.5	0.00e+00	0	55	0	316669952	46	4930
2026-01-08 04:28:20.24	166.06	11.11	-38.0	-40.1	21.6	0.00e+00	0	55	0	317718528	46	4897
2026-01-08 04:28:21.25	165.82	11.04	-38.0	-40.2	21.5	0.00e+00	0	55	0	318767104	46	4933
2026-01-08 04:28:22.26	165.58	10.96	-37.9	-40.0	21.7	0.00e+00	0	55	0	319815680	46	4829
2026-01-08 04:28:23.27	165.34	10.89	-37.9	-40.0	21.7	0.00e+00	0	55	0	321388544	46	4833
2026-01-08 04:28:24.28	165.10	10.82	-37.9	-40.0	21.7	0.00e+00	0	55	0	322437120	46	4846
2026-01-08 04:28:25.29	164.87	10.74	-38.1	-40.3	21.4	0.00e+00	0	55	0	323485696	46	5012
2026-01-08 04:28:26.30	164.64	10.67	-38.3	-40.6	21.1	0.00e+00	0	55	0	324534272	47	4889
2026-01-08 04:28:27.31	164.41	10.60	-38.5	-40.7	21.0	0.00e+00	0	55	0	325582848	47	4977
2026-01-08 04:28:28.32	164.18	10.52	-38.6	-40.9	20.8	0.00e+00	0	55	0	326631424	47	5063
2026-01-08 04:28:29.33	163.95	10.45	-38.8	-41.2	20.6	0.00e+00	0	55	0	328204288	48	4935
2026-01-08 04:28:30.34	163.72	10.38	-38.6	-40.9	20.9	0.00e+00	0	55	0	329252864	48	4767
2026-01-08 04:28:31.35	163.50	10.30	-38.4	-40.6	21.1	0.00e+00	0	55	0	330301440	48	4645
2026-01-08 04:28:32.36	163.28	10.23	-38.3	-40.5	21.3	0.00e+00	0	55	0	331350016	48	4553
2026-01-08 04:28:33.37	163.05	10.16	-38.2	-40.4	21.3	0.00e+00	0	55	0	332398592	48	4499
2026-01-08 04:28:34.38	162.83	10.08	-38.3	-40.5	21.2	0.00e+00	0	55	0	333971456	48	4561
2026-01-08 04:28:35.39	162.61	10.01	-38.2	-40.3	21.3	0.00e+00	0	55	0	335020032	48	4482
2026-01-08 04:28:36.40	162.40	9.93	-38.2	-40.4	21.3	0.00e+00	0	55	0	336068608	48	4504
2026-01-08 04:28:37.41	162.18	9.86	-38.3	-40.5	21.1	0.00e+00	0	55	0	337117184	48	4595
2026-01-08 04:28:38.42	161.97	9.79	-38.3	-40.6	21.1	0.00e+00	0	55	0	338165760	48	4614
2026-01-08 04:28:39.43	161.75	9.71	-38.4	-40.6	21.0	0.00e+00	0	55	0	339214336	48	4634
2026-01-08 04:28:40.44	161.54	9.64	-38.4	-40.7	20.9	0.00e+00	0	55	0	340787200	48	4688
2026-01-08 04:28:41.44	161.33	9.57	-38.3	-40.6	21.0	0.00e+00	0	55	0	341835776	48	4607
2026-01-08 04:28:42.45	161.13	9.50	-38.4	-40.7	20.9	0.00e+00	0	55	0	342884352	48	4672
2026-01-08 04:28:43.46	160.92	9.42	-38.5	-40.8	20.8	0.00e+00	0	55	0	343932928	48	4754
2026-01-08 04:28:44.47	160.71	9.35	-38.6	-40.9	20.6	0.00e+00	0	55	0	344981504	48	4813
2026-01-08 04:28:45.48	160.51	9.28	-38.6	-41.0	20.5	0.00e+00	0	55	0	346030080	48	4849
2026-01-08 04:28:46.49	160.30	9.20	-38.6	-40.9	20.6	0.00e+00	0	56	0	347602944	48	4787
2026-01-08 04:28:47.50	160.10	9.13	-38.5	-40.9	20.6	0.00e+00	0	55	0	348651520	48	4770
2026-01-08 04:28:48.51	159.90	9.06	-38.5	-40.8	20.6	0.00e+00	0	55	0	349700096	48	4739
2026-01-08 04:28:49.52	159.70	8.98	-38.6	-41.0	20.5	0.00e+00	0	56	0	350748672	48	4821
2026-01-08 04:28:50.53	159.51	8.91	-38.5	-40.8	20.6	0.00e+00	0	55	0	351797248	48	4735
2026-01-08 04:28:51.54	159.31	8.84	-38.4	-40.8	20.6	0.00e+00	0	55	0	352845824	48	4708
2026-01-08 04:28:52.55	159.11	8.76	-38.5	-40.8	20.6	0.00e+00	0	55	0	354418688	48	4737
2026-01-08 04:28:53.56	158.92	8.69	-38.4	-40.8	20.5	0.00e+00	0	55	0	355467264	48	4738
2026-01-08 04:28:54.57	158.73	8.62	-38.4	-40.8	20.5	0.00e+00	0	55	0	356515840	48	4733
2026-01-08 04:28:55.58	158.54	8.55	-38.4	-40.8	20.6	0.00e+00	0	55	0	357564416	48	4731
2026-01-08 04:28:56.59	158.35	8.47	-38.5	-40.9	20.5	0.00e+00	0	55	0	358612992	48	4781
2026-01-08 04:28:57.60	158.16	8.40	-38.5	-40.9	20.4	0.00e+00	0	55	0	359661568	48	4773
2026-01-08 04:28:58.60	157.97	8.33	-38.4	-40.8	20.5	0.00e+00	0	55	0	360710144	48	4729
2026-01-08 04:28:59.62	157.79	8.26	-38.7	-41.1	20.2	0.00e+00	0	56	0	362283008	48	4912
2026-01-08 04:29:00.62	157.60	8.19	-38.7	-41.2	20.0	0.00e+00	0	55	0	363331584	48	4979
2026-01-08 04:29:01.63	157.42	8.11	-38.8	-41.3	19.9	0.00e+00	0	56	0	364380160	48	5033
2026-01-08 04:29:02.64	157.24	8.04	-38.9	-41.5	19.7	0.00e+00	0	55	0	365428736	48	5140
2026-01-08 04:29:03.65	157.06	7.97	-42.5	-48.3	14.7	0.00e+00	0	55	0	366477312	55	7542
2026-01-08 04:29:04.66	156.88	7.90	-44.7	-62.2	3.8	3.52e-01	0	56	104	367001600	60	27881
2026-01-08 04:29:05.67	156.70	7.83	-45.0	-63.0	3.8	3.52e-01	0	56	104	367001600	60	30708
2026-01-08 04:29:06.68	156.52	7.76	-45.2	-63.5	3.8	8.46e-01	0	56	104	367001600	60	32263
2026-01-08 04:29:07.69	156.35	7.68	-45.3	-63.5	3.8	8.45e-01	0	56	104	367001600	61	30727
2026-01-08 04:29:08.70	156.17	7.61	-45.4	-63.7	3.8	8.45e-01	0	56	104	367001600	61	31137
2026-01-08 04:29:09.71	156.00	7.54	-45.4	-63.7	3.8	8.47e-01	0	56	104	367001600	61	31373
2026-01-08 04:29:10.72	155.83	7.47	-45.5	-63.8	3.8	8.46e-01	0	56	104	367001600	61	31570
2026-01-08 04:29:11.73	155.65	7.40	-45.4	-63.8	3.8	8.47e-01	0	55	104	367001600	61	31585
2026-01-08 04:29:12.74	155.48	7.33	-45.4	-63.8	3.8	8.47e-01	0	56	104	367001600	61	31521
2026-01-08 04:29:13.75	155.31	7.26	-45.4	-63.8	3.8	8.45e-01	0	56	104	367001600	61	31570
2026-01-08 04:29:14.76	155.15	7.19	-45.3	-63.7	3.8	8.47e-01	0	56	104	367001600	61	31251
2026-01-08 04:29:15.77	154.98	7.12	-45.3	-63.7	3.8	8.47e-01	0	56	104	367001600	61	31138
2026-01-08 04:29:16.78	154.81	7.05	-45.3	-63.6	3.8	8.45e-01	0	56	104	367001600	61	31007
2026-01-08 04:29:17.79	154.65	6.98	-45.3	-63.6	3.8	8.46e-01	0	55	104	367001600	61	31047
2026-01-08 04:29:18.79	154.49	6.91	-45.3	-63.6	3.8	8.46e-01	0	56	104	367001600	61	30935
2026-01-08 04:29:19.80	154.33	6.84	-45.2	-63.6	3.8	8.46e-01	0	56	104	367001600	61	30841
2026-01-08 04:29:20.82	154.16	6.77	-45.2	-63.6	3.8	8.44e-01	0	56	104	367001600	61	30863
2026-01-08 04:29:21.83	154.00	6.70	-45.2	-63.6	3.8	8.46e-01	0	56	104	367001600	61	30787
2026-01-08 04:29:22.84	153.84	6.63	-45.2	-63.6	3.8	8.46e-01	0	56	104	367001600	61	30798
2026-01-08 04:29:23.85	153.68	6.56	-45.2	-63.6	3.8	8.46e-01	0	56	104	367001600	61	30793
2026-01-08 04:29:24.86	153.53	6.49	-45.2	-63.6	3.8	8.46e-01	0	56	104	367001600	61	30732
2026-01-08 04:29:25.87	153.37	6.42	-45.2	-63.5	3.8	8.46e-01	0	56	104	367001600	61	30638
2026-01-08 04:29:26.88	153.22	6.35	-45.2	-63.5	3.8	8.46e-01	0	56	104	367001600	61	30696
2026-01-08 04:29:27.89	153.06	6.28	-45.2	-63.6	3.8	8.46e-01	0	56	104	367001600	61	30749
2026-01-08 04:29:28.90	152.91	6.21	-45.2	-63.5	3.8	8.46e-01	0	56	104	367001600	61	30701
2026-01-08 04:29:29.91	152.76	6.14	-45.2	-63.5	3.8	8.47e-01	0	56	104	367001600	61	30633
2026-01-08 04:29:30.92	152.61	6.08	-45.2	-63.5	3.8	8.46e-01	0	56	104	367001600	61	30694
2026-01-08 04:29:31.94	152.46	6.01	-45.2	-63.6	3.8	8.46e-01	0	56	104	367001600	61	30758
2026-01-08 04:29:32.95	152.31	5.94	-45.2	-63.5	3.8	8.47e-01	0	56	104	367001600	61	30729
2026-01-08 04:29:33.95	152.16	5.87	-45.2	-63.5	3.8	8.47e-01	0	56	104	367001600	61	30654
2026-01-08 04:29:34.96	152.01	5.80	-45.2	-63.5	3.8	8.47e-01	0	56	104	367001600	61	30695
2026-01-08 04:29:35.97	151.87	5.73	-45.2	-63.5	3.8	8.47e-01	0	56	104	367001600	61	30724
2026-01-08 04:29:36.99	151.72	5.67	-45.2	-63.5	3.8	8.46e-01	0	56	104	367001600	61	30687
2026-01-08 04:29:38.00	151.58	5.60	-45.2	-63.5	3.8	8.45e-01	0	56	104	367001600	61	30671
2026-01-08 04:29:39.01	151.43	5.53	-45.2	-63.5	3.8	8.45e-01	0	56	104	367001600	61	30690
2026-01-08 04:29:40.01	151.29	5.46	-45.2	-63.5	3.8	8.47e-01	0	56	104	367001600	61	30695
2026-01-08 04:29:41.03	151.15	5.40	-45.2	-63.5	3.8	8.46e-01	0	56	104	367001600	61	30694
2026-01-08 04:29:42.04	151.01	5.33	-45.2	-63.5	3.8	8.46e-01	0	56	104	367001600	61	30652
2026-01-08 04:29:43.05	150.87	5.26	-45.2	-63.5	3.8	8.45e-01	0	56	104	367001600	61	30664
2026-01-08 04:29:44.06	150.73	5.20	-45.2	-63.5	3.8	8.46e-01	0	56	104	367001600	61	30666
2026-01-08 04:29:45.07	150.59	5.13	-45.2	-63.5	3.8	8.46e-01	0	56	104	367001600	61	30528
2026-01-08 04:29:46.08	150.46	5.06	-45.2	-63.5	3.8	8.46e-01	0	56	104	367001600	61	30546
2026-01-08 04:29:47.09	150.32	5.00	-45.2	-63.5	3.8	8.47e-01	0	56	104	367001600	61	30669
2026-01-08 04:29:48.10	150.19	4.93	-45.2	-63.5	3.8	8.47e-01	0	56	104	367001600	61	30650
2026-01-08 04:29:49.11	150.05	4.86	-45.2	-63.5	3.8	8.47e-01	0	56	104	367001600	61	30511
2026-01-08 04:29:50.12	149.92	4.80	-45.2	-63.5	3.8	8.47e-01	0	56	104	367001600	61	30630
2026-01-08 04:29:51.13	149.79	4.73	-45.2	-63.5	3.8	8.46e-01	0	56	104	367001600	61	30592
2026-01-08 04:29:52.14	149.66	4.67	-45.2	-63.5	3.8	8.46e-01	0	56	104	367001600	61	30557
2026-01-08 04:29:53.15	149.52	4.60	-45.2	-63.5	3.8	8.47e-01	0	56	104	367001600	61	30586
2026-01-08 04:29:54.16	149.39	4.54	-45.2	-63.5	3.8	8.46e-01	0	56	104	367001600	61	30648
2026-01-08 04:29:55.17	149.27	4.47	-45.2	-63.5	3.8	8.46e-01	0	56	104	367001600	61	30587
2026-01-08 04:29:56.18	149.14	4.40	-45.2	-63.5	3.8	8.46e-01	0	56	104	367001600	61	30610
2026-01-08 04:29:57.19	149.01	4.34	-45.2	-63.5	3.8	8.47e-01	0	56	104	367001600	61	30582
2026-01-08 04:29:58.20	148.88	4.27	-45.2	-63.5	3.8	8.47e-01	0	56	104	367001600	61	30547
2026-01-08 04:29:59.21	148.76	4.21	-45.2	-63.5	3.8	8.44e-01	0	56	104	367001600	61	30572
2026-01-08 04:30:00.22	148.63	4.15	-45.2	-63.5	3.8	8.45e-01	0	56	104	367001600	61	30538
2026-01-08 04:30:01.23	148.51	4.08	-45.2	-63.5	3.8	8.45e-01	0	56	104	367001600	61	30556
2026-01-08 04:30:02.24	148.38	4.02	-45.2	-63.5	3.8	8.45e-01	0	56	104	367001600	61	30551
2026-01-08 04:30:03.25	148.26	3.95	-45.2	-63.5	3.8	8.46e-01	0	56	104	367001600	61	30585
2026-01-08 04:30:04.26	148.14	3.89	-45.2	-63.5	3.8	8.46e-01	0	56	104	367001600	61	30579
2026-01-08 04:30:05.27	148.02	3.82	-45.2	-63.5	3.8	8.46e-01	0	56	104	367001600	61	30573
2026-01-08 04:30:06.28	147.90	3.76	-45.2	-63.5	3.8	8.45e-01	0	56	104	367001600	61	30584
2026-01-08 04:30:07.29	147.78	3.70	-45.2	-63.5	3.8	8.47e-01	0	56	104	367001600	61	30607
2026-01-08 04:30:08.30	147.66	3.63	-45.2	-63.5	3.8	8.47e-01	0	56	104	367001600	61	30625
2026-01-08 04:30:09.31	147.54	3.57	-45.2	-63.5	3.8	8.47e-01	0	56	104	367001600	61	30583
2026-01-08 04:30:10.32	147.42	3.51	-45.2	-63.5	3.8	8.46e-01	0	56	104	367001600	61	30547
2026-01-08 04:30:11.33	147.31	3.44	-45.2	-63.5	3.8	8.46e-01	0	56	104	367001600	61	30609
2026-01-08 04:30:12.34	147.19	3.38	-45.2	-63.5	3.8	8.46e-01	0	56	104	367001600	61	30549
2026-01-08 04:30:13.35	147.08	3.32	-45.1	-63.5	3.8	8.46e-01	0	56	104	367001600	61	30588
2026-01-08 04:30:14.36	146.96	3.25	-45.2	-63.5	3.8	8.45e-01	0	56	104	367001600	61	30529
2026-01-08 04:30:15.37	146.85	3.19	-45.2	-63.5	3.8	8.45e-01	0	56	104	367001600	61	30553
2026-01-08 04:30:16.39	146.73	3.13	-45.2	-63.5	3.8	8.46e-01	0	56	104	367001600	61	30515
2026-01-08 04:30:17.40	146.62	3.07	-45.2	-63.5	3.8	8.45e-01	0	56	104	367001600	61	30614
2026-01-08 04:30:18.41	146.51	3.00	-45.1	-63.5	3.8	8.45e-01	0	56	104	367001600	61	30605
2026-01-08 04:30:19.42	146.40	2.94	-45.2	-63.5	3.8	8.45e-01	0	56	104	367001600	61	30558
2026-01-08 04:30:20.43	146.29	2.88	-45.2	-63.5	3.8	8.45e-01	0	56	104	367001600	61	30606
2026-01-08 04:30:21.44	146.18	2.82	-45.1	-63.5	3.8	8.45e-01	0	56	104	367001600	61	30581
2026-01-08 04:30:22.45	146.07	2.76	-45.2	-63.5	3.8	8.45e-01	0	56	104	367001600	61	30529
2026-01-08 04:30:23.46	145.96	2.70	-45.1	-63.5	3.8	8.46e-01	0	56	104	367001600	61	30468
2026-01-08 04:30:24.47	145.85	2.63	-45.1	-63.5	3.8	8.46e-01	0	56	104	367001600	61	30525
2026-01-08 04:30:25.48	145.75	2.57	-45.1	-63.5	3.8	8.47e-01	0	56	104	367001600	61	30531
2026-01-08 04:30:26.49	145.64	2.51	-45.1	-63.5	3.8	8.46e-01	0	56	104	367001600	61	30569
2026-01-08 04:30:27.50	145.53	2.45	-45.1	-63.5	3.8	8.46e-01	0	56	104	367001600	61	30526
2026-01-08 04:30:28.51	145.43	2.39	-45.2	-63.5	3.8	8.46e-01	0	56	104	367001600	61	30484
2026-01-08 04:30:29.52	145.32	2.33	-45.2	-63.5	3.8	8.47e-01	0	56	104	367001600	61	30544
2026-01-08 04:30:30.53	145.22	2.27	-45.1	-63.5	3.8	8.46e-01	0	56	104	367001600	61	30526
2026-01-08 04:30:31.54	145.12	2.21	-45.1	-63.5	3.8	8.46e-01	0	56	104	367001600	61	30520
2026-01-08 04:30:32.55	145.01	2.15	-45.1	-63.5	3.8	8.45e-01	0	56	104	367001600	61	30524
2026-01-08 04:30:33.56	144.91	2.09	-45.1	-63.5	3.8	8.46e-01	0	56	104	367001600	61	30542
2026-01-08 04:30:34.57	144.81	2.03	-45.1	-63.5	3.8	8.46e-01	0	56	104	367001600	61	30547
2026-01-08 04:30:35.58	144.71	1.97	-45.1	-63.5	3.8	8.46e-01	0	56	104	367001600	61	30555
2026-01-08 04:30:36.59	144.61	1.91	-45.1	-63.5	3.8	8.47e-01	0	56	104	367001600	61	30458

#Closed at: 2026-01-08 04:30:36
#Recorded file [367 MB]: D:/lorett/data/31039_260108_072210.dat