passes_logs/2026/01/08/R2.0S_Moscow/R2.0S_Moscow__20260108_024543_FENGYUN_3G_rec.log

#Pass ID: 20260108_024543_FENGYUN 3G
#Satellite: FENGYUN 3G
#Configuration: FENGYUN 3G
#almurnet v.1.7.20251203
#Start time: 2026-01-08 02:45:42

#Version: 2.2.20231116
#Station: R2.0S_Moscow
#Location: 37.707566 lon 55.798166 lat
#TLE: 1 56232U 23055A   26005.65670112  .00041871  00000+0  66206-3 0  9997
#TLE: 2 56232  49.9942 104.1198 0004242 344.1257  15.9577 15.52986726154745

#Time	Az	El	Level	Level2	SNR	BER	BlckErr	Temp	State	Recorded	gain1	gain2
2026-01-08 02:45:42.89	256.32	1.97	-44.2	-62.5	3.8	8.45e-01	0	47	0	0	60	28796
2026-01-08 02:45:43.89	256.26	2.03	-44.2	-62.5	3.8	8.44e-01	0	47	104	0	60	28784
2026-01-08 02:45:44.89	256.19	2.10	-44.1	-62.5	3.8	8.46e-01	0	47	104	0	60	28755
2026-01-08 02:45:45.90	256.13	2.16	-44.2	-62.5	3.8	8.46e-01	0	47	104	0	60	28859
2026-01-08 02:45:46.91	256.07	2.23	-44.2	-62.5	3.8	8.46e-01	0	48	104	0	60	28795
2026-01-08 02:45:47.92	256.00	2.30	-44.1	-62.5	3.8	8.46e-01	0	48	104	0	60	28768
2026-01-08 02:45:48.93	255.94	2.36	-44.1	-62.5	3.8	8.46e-01	0	48	104	0	60	28795
2026-01-08 02:45:49.94	255.87	2.43	-44.1	-62.5	3.8	8.46e-01	0	48	104	0	60	28735
2026-01-08 02:45:50.95	255.81	2.50	-44.2	-62.5	3.8	8.46e-01	0	48	104	0	60	28735
2026-01-08 02:45:51.96	255.74	2.56	-44.1	-62.5	3.8	8.46e-01	0	48	104	0	60	28806
2026-01-08 02:45:52.97	255.68	2.63	-44.2	-62.5	3.8	8.46e-01	0	48	104	0	60	28721
2026-01-08 02:45:53.98	255.61	2.70	-44.2	-62.5	3.8	8.46e-01	0	48	104	0	60	28744
2026-01-08 02:45:54.98	255.54	2.77	-44.2	-62.5	3.8	8.45e-01	0	48	104	0	60	28699
2026-01-08 02:45:55.99	255.48	2.84	-44.2	-62.5	3.8	8.45e-01	0	48	104	0	60	28681
2026-01-08 02:45:57.00	255.41	2.90	-44.1	-62.4	3.8	8.45e-01	0	48	104	0	60	28499
2026-01-08 02:45:58.01	255.34	2.97	-44.2	-62.4	3.8	8.47e-01	0	48	104	0	60	28496
2026-01-08 02:45:59.02	255.27	3.04	-44.1	-62.3	3.8	8.48e-01	0	48	104	0	60	28325
2026-01-08 02:46:00.03	255.20	3.11	-44.1	-62.4	3.8	8.48e-01	0	48	104	0	60	28399
2026-01-08 02:46:01.04	255.13	3.18	-44.1	-62.4	3.8	8.46e-01	0	49	104	0	60	28569
2026-01-08 02:46:02.04	255.06	3.25	-44.1	-62.4	3.8	8.45e-01	0	48	104	0	60	28578
2026-01-08 02:46:03.05	254.99	3.32	-44.2	-62.4	3.8	8.45e-01	0	49	104	0	60	28543
2026-01-08 02:46:04.06	254.92	3.39	-44.2	-62.5	3.8	8.46e-01	0	49	104	0	60	28685
2026-01-08 02:46:05.07	254.85	3.46	-44.1	-62.5	3.8	8.47e-01	0	49	104	0	60	28763
2026-01-08 02:46:06.08	254.78	3.53	-44.2	-62.5	3.8	8.47e-01	0	49	104	0	60	28811
2026-01-08 02:46:07.08	254.70	3.60	-44.1	-62.5	3.8	8.47e-01	0	49	104	0	60	28710
2026-01-08 02:46:08.10	254.63	3.67	-44.2	-62.4	3.8	8.46e-01	0	49	104	0	60	28636
2026-01-08 02:46:09.10	254.56	3.75	-44.1	-62.4	3.8	8.46e-01	0	49	104	0	60	28640
2026-01-08 02:46:10.11	254.48	3.82	-44.1	-62.4	3.8	8.46e-01	0	49	104	0	60	28571
2026-01-08 02:46:11.13	254.41	3.89	-44.1	-62.4	3.8	8.45e-01	0	49	104	0	60	28515
2026-01-08 02:46:12.14	254.33	3.96	-44.1	-62.4	3.8	8.47e-01	0	49	104	0	60	28606
2026-01-08 02:46:13.15	254.25	4.03	-44.1	-62.4	3.8	8.47e-01	0	49	104	0	60	28472
2026-01-08 02:46:14.16	254.18	4.11	-44.1	-62.5	3.8	8.45e-01	0	49	104	0	60	28699
2026-01-08 02:46:15.17	254.10	4.18	-44.1	-62.5	3.8	8.47e-01	0	49	104	0	60	28716
2026-01-08 02:46:16.17	254.02	4.25	-44.1	-62.5	3.8	8.47e-01	0	49	104	0	60	28813
2026-01-08 02:46:17.18	253.95	4.33	-44.1	-62.4	3.8	8.46e-01	0	49	104	0	60	28660
2026-01-08 02:46:18.19	253.87	4.40	-44.1	-62.4	3.8	8.46e-01	0	50	104	0	60	28530
2026-01-08 02:46:19.20	253.79	4.47	-44.1	-62.3	3.8	8.46e-01	0	50	104	0	60	28321
2026-01-08 02:46:20.21	253.71	4.55	-44.1	-62.3	3.8	8.47e-01	0	50	104	0	60	28062
2026-01-08 02:46:21.22	253.63	4.62	-44.2	-62.3	3.8	8.46e-01	0	50	104	0	60	28060
2026-01-08 02:46:22.23	253.54	4.70	-44.1	-62.2	3.8	8.46e-01	0	50	104	0	60	27945
2026-01-08 02:46:23.24	253.46	4.77	-44.1	-62.2	3.8	8.46e-01	0	50	104	0	60	27966
2026-01-08 02:46:24.24	253.38	4.85	-44.1	-62.2	3.8	8.46e-01	0	50	104	0	60	27960
2026-01-08 02:46:25.25	253.30	4.92	-44.2	-62.4	3.8	8.46e-01	0	50	104	0	60	28354
2026-01-08 02:46:26.26	253.21	5.00	-44.1	-62.3	3.8	8.46e-01	0	50	104	0	60	28296
2026-01-08 02:46:27.27	253.13	5.08	-44.2	-62.3	3.8	8.46e-01	0	50	104	0	60	28226
2026-01-08 02:46:28.28	253.04	5.15	-44.1	-62.1	3.8	8.45e-01	0	50	104	0	60	27687
2026-01-08 02:46:29.29	252.96	5.23	-44.1	-61.9	3.8	8.45e-01	0	50	104	0	60	26856
2026-01-08 02:46:30.30	252.87	5.31	-44.1	-61.5	3.8	8.46e-01	0	50	104	0	60	25676
2026-01-08 02:46:31.31	252.79	5.38	-44.1	-61.0	3.8	8.45e-01	0	50	104	0	60	24144
2026-01-08 02:46:32.32	252.70	5.46	-44.1	-60.5	3.8	8.45e-01	0	50	104	0	60	22984
2026-01-08 02:46:33.33	252.61	5.54	-44.1	-60.0	3.8	8.47e-01	0	51	104	0	60	21560
2026-01-08 02:46:34.34	252.52	5.62	-44.1	-59.3	4.1	8.44e-01	0	50	0	0	60	20020
2026-01-08 02:46:35.35	252.43	5.70	-44.1	-59.2	4.1	8.40e-01	0	50	0	0	60	19684
2026-01-08 02:46:36.36	252.34	5.78	-44.1	-59.3	4.1	8.40e-01	0	50	0	0	60	19952
2026-01-08 02:46:37.36	252.25	5.85	-44.1	-59.1	4.1	8.39e-01	0	50	0	0	60	19415
2026-01-08 02:46:38.37	252.16	5.93	-44.1	-59.3	4.1	8.38e-01	0	51	0	0	60	19998
2026-01-08 02:46:39.38	252.07	6.01	-44.1	-59.4	4.1	8.38e-01	0	51	0	0	60	20190
2026-01-08 02:46:40.39	251.97	6.09	-44.1	-59.7	3.9	8.42e-01	0	51	104	0	60	20915
2026-01-08 02:46:41.40	251.88	6.17	-44.1	-59.9	3.8	8.43e-01	0	51	104	0	60	21324
2026-01-08 02:46:42.41	251.78	6.25	-44.1	-59.9	4.0	8.43e-01	0	51	104	0	60	21329
2026-01-08 02:46:43.42	251.69	6.34	-44.1	-60.0	4.0	8.45e-01	0	51	104	0	60	21593
2026-01-08 02:46:44.43	251.59	6.42	-44.1	-59.6	4.0	8.44e-01	0	51	104	0	60	20693
2026-01-08 02:46:45.44	251.49	6.50	-44.0	-59.1	4.1	8.44e-01	0	51	0	0	60	19466
2026-01-08 02:46:46.45	251.40	6.58	-44.0	-58.5	4.3	8.42e-01	0	51	0	0	60	18247
2026-01-08 02:46:47.46	251.30	6.66	-44.0	-57.8	4.6	8.33e-01	0	51	0	0	60	16852
2026-01-08 02:46:48.47	251.20	6.75	-44.0	-57.1	4.8	8.08e-01	0	51	0	0	59	16456
2026-01-08 02:46:49.48	251.10	6.83	-44.0	-56.4	5.2	8.08e-01	0	51	0	0	59	15137
2026-01-08 02:46:50.49	251.00	6.91	-44.0	-56.3	5.3	7.50e-01	0	51	0	0	59	14970
2026-01-08 02:46:51.50	250.90	7.00	-44.0	-56.5	5.2	7.18e-01	0	51	0	0	59	15323
2026-01-08 02:46:52.50	250.79	7.08	-44.0	-57.2	4.9	7.18e-01	0	51	0	0	59	16625
2026-01-08 02:46:53.52	250.69	7.17	-44.1	-58.6	4.3	7.69e-01	0	51	0	0	59	19449
2026-01-08 02:46:54.52	250.59	7.25	-44.2	-60.6	3.9	8.31e-01	0	51	104	0	59	24421
2026-01-08 02:46:55.53	250.48	7.34	-44.2	-61.0	3.8	8.31e-01	0	51	104	0	59	25779
2026-01-08 02:46:56.54	250.37	7.42	-44.1	-57.6	4.6	8.45e-01	0	52	0	0	59	17431
2026-01-08 02:46:57.55	250.27	7.51	-43.8	-53.8	7.2	7.47e-01	0	52	0	524288	59	11286
2026-01-08 02:46:58.56	250.16	7.59	-43.2	-50.8	10.3	7.47e-01	0	52	0	1572864	58	8433
2026-01-08 02:46:59.57	250.05	7.68	-42.5	-48.2	13.1	8.29e-02	0	52	0	2621440	57	6629
2026-01-08 02:47:00.58	249.94	7.77	-41.6	-46.1	15.2	6.25e-04	0	51	0	3670016	55	5793
2026-01-08 02:47:01.59	249.83	7.85	-40.8	-44.5	16.7	0.00e+00	0	52	0	4718592	53	5450
2026-01-08 02:47:02.60	249.72	7.94	-40.1	-43.4	17.9	0.00e+00	0	52	0	6291456	52	5043
2026-01-08 02:47:03.60	249.61	8.03	-39.6	-42.5	18.9	0.00e+00	0	52	0	7340032	51	4846
2026-01-08 02:47:04.61	249.49	8.12	-43.7	-52.2	11.5	0.00e+00	0	52	0	8388608	57	10516
2026-01-08 02:47:05.62	249.38	8.21	-43.5	-51.5	7.8	0.00e+00	0	52	104	8388608	59	8627
2026-01-08 02:47:06.63	249.26	8.30	-40.4	-43.7	18.3	5.11e-01	0	52	0	8912896	51	5591
2026-01-08 02:47:07.64	249.15	8.39	-42.6	-48.2	13.3	7.37e-02	0	52	0	10485760	57	6635
2026-01-08 02:47:08.65	249.03	8.48	-39.3	-42.0	19.3	7.37e-02	0	52	0	11534336	50	4862
2026-01-08 02:47:09.66	248.91	8.57	-39.6	-42.5	18.8	1.62e-03	0	52	0	12582912	51	4815
2026-01-08 02:47:10.67	248.79	8.66	-39.0	-41.7	19.7	0.00e+00	0	52	0	13631488	50	4661
2026-01-08 02:47:11.67	248.67	8.75	-38.9	-41.4	20.0	0.00e+00	0	52	0	14680064	49	4802
2026-01-08 02:47:12.68	248.55	8.84	-38.8	-41.3	20.1	0.00e+00	0	52	0	15728640	49	4749
2026-01-08 02:47:13.69	248.43	8.93	-38.6	-41.0	20.4	0.00e+00	0	52	0	17301504	49	4566
2026-01-08 02:47:14.70	248.30	9.03	-38.5	-40.8	20.6	0.00e+00	0	52	0	18350080	48	4742
2026-01-08 02:47:15.71	248.18	9.12	-38.4	-40.7	20.8	0.00e+00	0	52	0	19398656	48	4673
2026-01-08 02:47:16.72	248.05	9.21	-38.2	-40.4	21.0	0.00e+00	0	52	0	20447232	48	4531
2026-01-08 02:47:17.73	247.93	9.31	-38.1	-40.3	21.1	0.00e+00	0	52	0	21495808	48	4488
2026-01-08 02:47:18.74	247.80	9.40	-37.9	-40.2	21.2	0.00e+00	0	52	0	22544384	47	4658
2026-01-08 02:47:19.75	247.67	9.49	-37.9	-40.1	21.4	0.00e+00	0	52	0	24117248	47	4622
2026-01-08 02:47:20.75	247.54	9.59	-37.9	-40.1	21.4	0.00e+00	0	52	0	25165824	47	4605
2026-01-08 02:47:21.76	247.41	9.68	-37.7	-39.8	21.6	0.00e+00	0	52	0	26214400	47	4488
2026-01-08 02:47:22.77	247.28	9.78	-37.7	-39.9	21.6	0.00e+00	0	52	0	27262976	47	4503
2026-01-08 02:47:23.78	247.14	9.88	-37.8	-39.9	21.5	0.00e+00	0	52	0	28311552	47	4523
2026-01-08 02:47:24.78	247.01	9.97	-37.8	-39.9	21.6	0.00e+00	0	52	0	29360128	47	4527
2026-01-08 02:47:25.80	246.87	10.07	-37.8	-40.0	21.5	0.00e+00	0	52	0	30932992	47	4584
2026-01-08 02:47:26.81	246.73	10.17	-38.0	-40.2	21.3	0.00e+00	0	53	0	31981568	47	4690
2026-01-08 02:47:27.81	246.59	10.27	-38.1	-40.3	21.2	0.00e+00	0	53	0	33030144	47	4746
2026-01-08 02:47:28.82	246.45	10.36	-38.0	-40.2	21.3	0.00e+00	0	53	0	34078720	47	4688
2026-01-08 02:47:29.83	246.31	10.46	-37.9	-40.1	21.4	0.00e+00	0	53	0	35127296	47	4612
2026-01-08 02:47:30.84	246.17	10.56	-37.6	-39.7	21.8	0.00e+00	0	53	0	36175872	47	4422
2026-01-08 02:47:31.85	246.03	10.66	-37.5	-39.6	22.0	0.00e+00	0	52	0	37748736	47	4348
2026-01-08 02:47:32.86	245.88	10.76	-37.5	-39.5	22.0	0.00e+00	0	53	0	38797312	46	4585
2026-01-08 02:47:33.87	245.73	10.87	-37.4	-39.5	22.1	0.00e+00	0	53	0	39845888	46	4553
2026-01-08 02:47:34.88	245.58	10.97	-37.4	-39.5	22.0	0.00e+00	0	53	0	40894464	46	4570
2026-01-08 02:47:35.89	245.44	11.07	-37.4	-39.4	22.1	0.00e+00	0	53	0	41943040	46	4528
2026-01-08 02:47:36.90	245.28	11.17	-37.4	-39.5	22.1	0.00e+00	0	53	0	42991616	46	4547
2026-01-08 02:47:37.91	245.13	11.27	-37.5	-39.6	22.0	0.00e+00	0	53	0	44564480	46	4629
2026-01-08 02:47:38.92	244.98	11.38	-37.6	-39.7	21.8	0.00e+00	0	53	0	45613056	46	4673
2026-01-08 02:47:39.92	244.82	11.48	-37.7	-39.8	21.8	0.00e+00	0	53	0	46661632	46	4718
2026-01-08 02:47:40.93	244.67	11.59	-37.5	-39.6	22.0	0.00e+00	0	53	0	47710208	46	4611
2026-01-08 02:47:41.94	244.51	11.69	-37.4	-39.5	22.1	0.00e+00	0	53	0	48758784	46	4546
2026-01-08 02:47:42.95	244.35	11.80	-37.3	-39.3	22.2	0.00e+00	0	53	0	49807360	46	4479
2026-01-08 02:47:43.96	244.19	11.90	-37.3	-39.2	22.3	0.00e+00	0	53	0	51380224	46	4433
2026-01-08 02:47:44.97	244.02	12.01	-37.2	-39.2	22.4	0.00e+00	0	53	0	52428800	46	4424
2026-01-08 02:47:45.98	243.86	12.12	-37.1	-39.1	22.5	0.00e+00	0	53	0	53477376	46	4350
2026-01-08 02:47:46.99	243.69	12.22	-37.0	-39.0	22.6	0.00e+00	0	53	0	54525952	46	4301
2026-01-08 02:47:48.00	243.53	12.33	-36.9	-38.9	22.7	0.00e+00	0	53	0	55574528	45	4499
2026-01-08 02:47:49.01	243.36	12.44	-36.9	-38.9	22.7	0.00e+00	0	53	0	56623104	45	4501
2026-01-08 02:47:50.02	243.19	12.55	-36.9	-38.8	22.8	0.00e+00	0	53	0	57671680	45	4474
2026-01-08 02:47:51.03	243.01	12.66	-36.8	-38.7	22.8	0.00e+00	0	53	0	59244544	45	4424
2026-01-08 02:47:52.04	242.84	12.77	-36.8	-38.7	22.9	0.00e+00	0	53	0	60293120	45	4413
2026-01-08 02:47:53.05	242.66	12.88	-36.7	-38.6	23.0	0.00e+00	0	53	0	61341696	45	4369
2026-01-08 02:47:54.05	242.49	12.99	-36.8	-38.7	22.9	0.00e+00	0	53	0	62390272	45	4435
2026-01-08 02:47:55.06	242.31	13.10	-37.0	-38.9	22.7	0.00e+00	0	53	0	63438848	45	4521
2026-01-08 02:47:56.07	242.13	13.21	-37.1	-39.0	22.6	0.00e+00	0	53	0	64487424	45	4564
2026-01-08 02:47:57.07	241.94	13.32	-37.1	-39.1	22.6	0.00e+00	0	53	0	66060288	45	4606
2026-01-08 02:47:58.08	241.76	13.44	-37.0	-38.9	22.7	0.00e+00	0	53	0	67108864	45	4541
2026-01-08 02:47:59.09	241.57	13.55	-37.0	-38.9	22.7	0.00e+00	0	53	0	68157440	45	4529
2026-01-08 02:48:00.10	241.38	13.66	-36.8	-38.6	23.0	0.00e+00	0	53	0	69206016	45	4383
2026-01-08 02:48:01.10	241.19	13.78	-36.6	-38.4	23.3	0.00e+00	0	53	0	70254592	45	4254
2026-01-08 02:48:02.11	241.00	13.89	-36.5	-38.3	23.3	0.00e+00	0	53	0	71303168	44	4459
2026-01-08 02:48:03.12	240.81	14.01	-36.3	-38.1	23.5	0.00e+00	0	53	0	72876032	44	4362
2026-01-08 02:48:04.13	240.61	14.13	-36.4	-38.2	23.4	0.00e+00	0	53	0	73924608	44	4427
2026-01-08 02:48:05.14	240.41	14.24	-36.5	-38.3	23.3	0.00e+00	0	54	0	74973184	44	4493
2026-01-08 02:48:06.15	240.21	14.36	-36.6	-38.4	23.3	0.00e+00	0	53	0	76021760	44	4501
2026-01-08 02:48:07.16	240.01	14.48	-36.6	-38.4	23.2	0.00e+00	0	53	0	77070336	44	4541
2026-01-08 02:48:08.16	239.81	14.59	-36.6	-38.4	23.2	0.00e+00	0	54	0	78118912	44	4545
2026-01-08 02:48:09.17	239.60	14.71	-36.7	-38.5	23.2	0.00e+00	0	53	0	79691776	44	4569
2026-01-08 02:48:10.18	239.39	14.83	-36.6	-38.4	23.3	0.00e+00	0	54	0	80740352	44	4534
2026-01-08 02:48:11.19	239.18	14.95	-36.6	-38.4	23.3	0.00e+00	0	54	0	81788928	44	4515
2026-01-08 02:48:12.20	238.97	15.07	-36.5	-38.3	23.4	0.00e+00	0	54	0	82837504	44	4444
2026-01-08 02:48:13.21	238.75	15.20	-36.3	-38.1	23.6	0.00e+00	0	53	0	83886080	44	4367
2026-01-08 02:48:14.22	238.53	15.32	-36.2	-38.0	23.7	0.00e+00	0	53	0	84934656	44	4298
2026-01-08 02:48:15.23	238.31	15.44	-36.1	-37.8	23.8	0.00e+00	0	54	0	86507520	44	4233
2026-01-08 02:48:16.24	238.09	15.56	-36.0	-37.7	23.9	0.00e+00	0	54	0	87556096	44	4183
2026-01-08 02:48:17.25	237.87	15.69	-36.0	-37.8	23.9	0.00e+00	0	54	0	88604672	44	4199
2026-01-08 02:48:18.26	237.64	15.81	-36.1	-37.8	23.9	0.00e+00	0	54	0	89653248	44	4219
2026-01-08 02:48:19.26	237.41	15.93	-36.1	-37.8	23.9	0.00e+00	0	54	0	90701824	44	4214
2026-01-08 02:48:20.27	237.18	16.06	-36.1	-37.8	23.9	0.00e+00	0	54	0	91750400	44	4224
2026-01-08 02:48:21.28	236.95	16.18	-36.1	-37.8	23.9	0.00e+00	0	54	0	93323264	44	4212
2026-01-08 02:48:22.29	236.71	16.31	-36.0	-37.7	24.0	0.00e+00	0	54	0	94371840	44	4193
2026-01-08 02:48:23.30	236.47	16.43	-35.7	-37.4	24.1	0.00e+00	0	54	0	95420416	43	4268
2026-01-08 02:48:24.31	236.23	16.56	-35.8	-37.5	24.1	0.00e+00	0	54	0	96468992	43	4294
2026-01-08 02:48:25.32	235.98	16.69	-35.6	-37.2	24.3	0.00e+00	0	54	0	97517568	43	4187
2026-01-08 02:48:26.33	235.74	16.82	-35.5	-37.2	24.3	0.00e+00	0	54	0	98566144	43	4170
2026-01-08 02:48:27.33	235.49	16.94	-35.3	-36.9	24.6	0.00e+00	0	54	0	100139008	42	4287
2026-01-08 02:48:28.34	235.24	17.07	-35.2	-36.8	24.7	0.00e+00	0	54	0	101187584	42	4230
2026-01-08 02:48:29.35	234.98	17.20	-35.4	-37.0	24.6	0.00e+00	0	54	0	102236160	42	4308
2026-01-08 02:48:30.36	234.72	17.33	-35.5	-37.2	24.4	0.00e+00	0	54	0	103284736	42	4406
2026-01-08 02:48:31.37	234.46	17.46	-35.6	-37.3	24.3	0.00e+00	0	54	0	104333312	42	4452
2026-01-08 02:48:32.37	234.20	17.59	-35.5	-37.2	24.4	0.00e+00	0	54	0	105381888	42	4417
2026-01-08 02:48:33.38	233.94	17.72	-35.5	-37.1	24.5	0.00e+00	0	54	0	106954752	42	4374
2026-01-08 02:48:34.39	233.67	17.86	-35.4	-37.1	24.5	0.00e+00	0	54	0	108003328	42	4361
2026-01-08 02:48:35.40	233.39	17.99	-35.4	-37.1	24.5	0.00e+00	0	54	0	109051904	42	4348
2026-01-08 02:48:36.41	233.12	18.12	-35.4	-37.0	24.6	0.00e+00	0	54	0	110100480	42	4303
2026-01-08 02:48:37.42	232.84	18.25	-35.1	-36.7	24.8	0.00e+00	0	54	0	111149056	42	4181
2026-01-08 02:48:38.42	232.56	18.38	-35.2	-36.9	24.7	0.00e+00	0	54	0	112197632	42	4243
2026-01-08 02:48:39.43	232.28	18.52	-35.3	-36.9	24.6	0.00e+00	0	54	0	113246208	42	4256
2026-01-08 02:48:40.44	231.99	18.65	-35.2	-36.8	24.8	0.00e+00	0	54	0	114819072	42	4197
2026-01-08 02:48:41.45	231.70	18.79	-35.1	-36.7	24.9	0.00e+00	0	54	0	115867648	42	4156
2026-01-08 02:48:42.46	231.41	18.92	-35.2	-36.7	24.9	0.00e+00	0	54	0	116916224	42	4191
2026-01-08 02:48:43.47	231.11	19.06	-35.2	-36.7	24.9	0.00e+00	0	54	0	117964800	42	4189
2026-01-08 02:48:44.48	230.81	19.19	-34.9	-36.4	25.1	0.00e+00	0	54	0	119013376	41	4263
2026-01-08 02:48:45.49	230.51	19.33	-34.9	-36.5	25.1	0.00e+00	0	54	0	120061952	41	4310
2026-01-08 02:48:46.49	230.20	19.46	-35.1	-36.7	25.0	0.00e+00	0	54	0	121634816	41	4402
2026-01-08 02:48:47.50	229.89	19.60	-35.1	-36.7	25.0	0.00e+00	0	54	0	122683392	41	4413
2026-01-08 02:48:48.51	229.58	19.74	-35.0	-36.6	25.1	0.00e+00	0	54	0	123731968	41	4349
2026-01-08 02:48:49.52	229.26	19.88	-34.8	-36.3	25.3	0.00e+00	0	54	0	124780544	41	4206
2026-01-08 02:48:50.53	228.94	20.01	-34.7	-36.3	25.4	0.00e+00	0	54	0	125829120	41	4200
2026-01-08 02:48:51.54	228.62	20.15	-34.7	-36.2	25.4	0.00e+00	0	54	0	127401984	41	4192
2026-01-08 02:48:52.54	228.30	20.29	-34.6	-36.1	25.5	0.00e+00	0	54	0	128450560	41	4128
2026-01-08 02:48:53.55	227.97	20.42	-34.5	-36.0	25.6	0.00e+00	0	54	0	129499136	41	4086
2026-01-08 02:48:54.56	227.63	20.56	-34.3	-35.8	25.8	0.00e+00	0	54	0	130547712	40	4222
2026-01-08 02:48:55.57	227.29	20.70	-34.4	-35.9	25.8	0.00e+00	0	54	0	131596288	40	4246
2026-01-08 02:48:56.58	226.95	20.84	-34.6	-36.1	25.5	0.00e+00	0	54	0	132644864	40	4377
2026-01-08 02:48:57.58	226.61	20.98	-34.6	-36.1	25.5	0.00e+00	0	54	0	133693440	40	4388
2026-01-08 02:48:58.59	226.26	21.12	-34.6	-36.2	25.5	0.00e+00	0	54	0	135266304	40	4400
2026-01-08 02:48:59.60	225.91	21.25	-34.7	-36.2	25.4	0.00e+00	0	54	0	136314880	40	4428
2026-01-08 02:49:00.61	225.55	21.39	-34.5	-36.0	25.6	0.00e+00	0	54	0	137363456	40	4336
2026-01-08 02:49:01.62	225.19	21.53	-34.4	-35.9	25.7	0.00e+00	0	55	0	138412032	40	4278
2026-01-08 02:49:02.63	224.83	21.67	-34.2	-35.7	25.8	0.00e+00	0	54	0	139460608	40	4150
2026-01-08 02:49:03.63	224.46	21.81	-34.0	-35.5	26.1	0.00e+00	0	55	0	140509184	40	4075
2026-01-08 02:49:04.64	224.09	21.95	-34.0	-35.4	26.2	0.00e+00	0	54	0	142082048	40	4045
2026-01-08 02:49:05.65	223.72	22.09	-34.1	-35.6	26.2	0.00e+00	0	54	0	143130624	39	4343
2026-01-08 02:49:06.66	223.34	22.22	-34.2	-35.7	26.0	0.00e+00	0	54	0	144179200	39	4402
2026-01-08 02:49:07.66	222.96	22.36	-34.3	-35.8	25.9	0.00e+00	0	54	0	145227776	39	4467
2026-01-08 02:49:08.67	222.57	22.50	-34.4	-35.9	25.8	0.00e+00	0	55	0	146276352	39	4507
2026-01-08 02:49:09.68	222.17	22.64	-34.6	-36.1	25.7	0.00e+00	0	54	0	147324928	39	4629
2026-01-08 02:49:10.69	221.78	22.77	-34.5	-36.0	25.7	0.00e+00	0	54	0	148897792	39	4588
2026-01-08 02:49:11.70	221.38	22.91	-34.6	-36.1	25.6	0.00e+00	0	55	0	149946368	39	4646
2026-01-08 02:49:12.70	220.98	23.05	-34.5	-36.0	25.8	0.00e+00	0	55	0	150994944	39	4557
2026-01-08 02:49:13.71	220.57	23.18	-34.1	-35.6	26.2	0.00e+00	0	54	0	152043520	39	4343
2026-01-08 02:49:14.72	220.16	23.32	-34.0	-35.5	26.2	0.00e+00	0	55	0	153092096	39	4298
2026-01-08 02:49:15.73	219.74	23.46	-33.8	-35.3	26.4	0.00e+00	0	55	0	154140672	39	4194
2026-01-08 02:49:16.74	219.32	23.59	-33.8	-35.2	26.5	0.00e+00	0	55	0	155713536	39	4171
2026-01-08 02:49:17.75	218.89	23.73	-33.8	-35.2	26.5	0.00e+00	0	55	0	156762112	39	4173
2026-01-08 02:49:18.76	218.46	23.86	-34.0	-35.4	26.3	0.00e+00	0	55	0	157810688	39	4268
2026-01-08 02:49:19.76	218.03	23.99	-34.0	-35.4	26.3	0.00e+00	0	55	0	158859264	39	4273
2026-01-08 02:49:20.77	217.59	24.12	-34.0	-35.5	26.2	0.00e+00	0	55	0	159907840	39	4310
2026-01-08 02:49:21.78	217.15	24.26	-34.0	-35.5	26.3	0.00e+00	0	55	0	160956416	39	4301
2026-01-08 02:49:22.79	216.70	24.39	-34.0	-35.4	26.3	0.00e+00	0	54	0	162529280	39	4288
2026-01-08 02:49:23.80	216.25	24.52	-34.2	-35.6	26.2	0.00e+00	0	55	0	163577856	39	4374
2026-01-08 02:49:24.81	215.79	24.65	-34.0	-35.5	26.3	0.00e+00	0	55	0	164626432	39	4298
2026-01-08 02:49:25.82	215.33	24.78	-34.2	-35.6	26.1	0.00e+00	0	55	0	165675008	39	4389
2026-01-08 02:49:26.83	214.87	24.90	-34.1	-35.5	26.2	0.00e+00	0	55	0	166723584	39	4339
2026-01-08 02:49:27.84	214.40	25.03	-34.0	-35.4	26.3	0.00e+00	0	55	0	167772160	39	4269
2026-01-08 02:49:28.84	213.93	25.16	-33.9	-35.3	26.4	0.00e+00	0	55	0	169345024	39	4227
2026-01-08 02:49:29.86	213.45	25.28	-33.8	-35.2	26.5	0.00e+00	0	55	0	170393600	39	4158
2026-01-08 02:49:30.86	212.97	25.40	-33.7	-35.1	26.6	0.00e+00	0	55	0	171442176	39	4136
2026-01-08 02:49:31.87	212.49	25.53	-33.8	-35.2	26.5	0.00e+00	0	55	0	172490752	39	4192
2026-01-08 02:49:32.88	212.00	25.65	-34.1	-35.5	26.2	0.00e+00	0	55	0	173539328	39	4319
2026-01-08 02:49:33.89	211.50	25.77	-34.1	-35.5	26.2	0.00e+00	0	55	0	174587904	39	4335
2026-01-08 02:49:34.90	211.00	25.88	-34.1	-35.6	26.1	0.00e+00	0	55	0	176160768	39	4362
2026-01-08 02:49:35.91	210.50	26.00	-34.0	-35.4	26.3	0.00e+00	0	55	0	177209344	39	4279
2026-01-08 02:49:36.92	209.99	26.12	-33.9	-35.3	26.5	0.00e+00	0	55	0	178257920	39	4224
2026-01-08 02:49:37.93	209.48	26.23	-33.9	-35.3	26.5	0.00e+00	0	55	0	179306496	39	4241
2026-01-08 02:49:38.94	208.96	26.34	-33.9	-35.4	26.5	0.00e+00	0	55	0	180355072	39	4254
2026-01-08 02:49:39.94	208.45	26.45	-34.1	-35.5	26.3	0.00e+00	0	55	0	181403648	39	4315
2026-01-08 02:49:40.96	207.92	26.56	-34.0	-35.5	26.4	0.00e+00	0	55	0	182976512	39	4295
2026-01-08 02:49:41.97	207.39	26.67	-34.1	-35.5	26.2	0.00e+00	0	55	0	184025088	39	4310
2026-01-08 02:49:42.97	206.86	26.77	-34.0	-35.4	26.3	0.00e+00	0	55	0	185073664	39	4273
2026-01-08 02:49:43.98	206.32	26.87	-33.9	-35.3	26.5	0.00e+00	0	55	0	186122240	39	4208
2026-01-08 02:49:44.98	205.79	26.97	-34.0	-35.4	26.4	0.00e+00	0	55	0	187170816	39	4258
2026-01-08 02:49:45.99	205.24	27.07	-33.9	-35.3	26.5	0.00e+00	0	55	0	188219392	39	4227
2026-01-08 02:49:47.00	204.70	27.17	-34.0	-35.4	26.4	0.00e+00	0	55	0	189792256	39	4269
2026-01-08 02:49:48.01	204.14	27.26	-34.2	-35.6	26.2	0.00e+00	0	55	0	190840832	39	4362
2026-01-08 02:49:49.01	203.59	27.36	-33.9	-35.3	26.5	0.00e+00	0	55	0	191889408	39	4209
2026-01-08 02:49:50.02	203.04	27.45	-33.9	-35.3	26.4	0.00e+00	0	55	0	192937984	39	4232
2026-01-08 02:49:51.03	202.47	27.53	-33.9	-35.3	26.5	0.00e+00	0	55	0	193986560	39	4223
2026-01-08 02:49:52.04	201.91	27.62	-33.7	-35.1	26.7	0.00e+00	0	55	0	195035136	39	4139
2026-01-08 02:49:53.04	201.34	27.70	-34.0	-35.4	26.4	0.00e+00	0	55	0	196608000	39	4273
2026-01-08 02:49:54.05	200.77	27.78	-34.2	-35.7	26.2	0.00e+00	0	55	0	197656576	39	4393
2026-01-08 02:49:55.06	200.19	27.86	-34.3	-35.8	26.1	0.00e+00	0	55	0	198705152	39	4453
2026-01-08 02:49:56.07	199.61	27.93	-34.4	-35.8	26.0	0.00e+00	0	55	0	199753728	39	4480
2026-01-08 02:49:57.08	199.03	28.01	-33.9	-35.3	26.4	0.00e+00	0	55	0	200802304	39	4215
2026-01-08 02:49:58.09	198.45	28.08	-33.8	-35.2	26.6	0.00e+00	0	55	0	201850880	39	4169
2026-01-08 02:49:59.09	197.87	28.14	-33.6	-35.0	26.5	0.00e+00	0	55	0	203423744	39	4087
2026-01-08 02:50:00.11	197.27	28.21	-33.8	-35.3	26.4	0.00e+00	0	55	0	204472320	39	4202
2026-01-08 02:50:01.11	196.68	28.27	-34.0	-35.4	26.4	0.00e+00	0	55	0	205520896	39	4252
2026-01-08 02:50:02.12	196.09	28.33	-34.0	-35.4	26.3	0.00e+00	0	55	0	206569472	39	4276
2026-01-08 02:50:03.13	195.49	28.38	-33.8	-35.2	26.6	0.00e+00	0	55	0	207618048	39	4166
2026-01-08 02:50:04.14	194.89	28.44	-34.0	-35.4	26.3	0.00e+00	0	55	0	208666624	39	4275
2026-01-08 02:50:05.14	194.29	28.49	-34.4	-35.9	26.0	0.00e+00	0	55	0	209715200	39	4496
2026-01-08 02:50:06.15	193.69	28.53	-34.2	-35.6	26.1	0.00e+00	0	55	0	211288064	39	4369
2026-01-08 02:50:07.16	193.08	28.58	-34.5	-35.9	25.9	0.00e+00	0	55	0	212336640	39	4539
2026-01-08 02:50:08.17	192.47	28.62	-34.8	-36.3	25.4	0.00e+00	0	55	0	213385216	40	4474
2026-01-08 02:50:09.17	191.87	28.65	-34.7	-36.2	25.6	0.00e+00	0	55	0	214433792	40	4401
2026-01-08 02:50:10.18	191.25	28.69	-34.7	-36.2	25.5	0.00e+00	0	55	0	215482368	40	4428
2026-01-08 02:50:11.19	190.64	28.72	-34.9	-36.5	25.3	0.00e+00	0	55	0	216530944	40	4550
2026-01-08 02:50:12.20	190.03	28.75	-34.7	-36.2	25.6	0.00e+00	0	55	0	218103808	40	4416
2026-01-08 02:50:13.21	189.41	28.77	-34.9	-36.5	25.4	0.00e+00	0	55	0	219152384	40	4558
2026-01-08 02:50:14.22	188.80	28.79	-34.8	-36.3	25.3	0.00e+00	0	55	0	220200960	40	4478
2026-01-08 02:50:15.23	188.18	28.81	-34.3	-35.7	26.0	0.00e+00	0	55	0	221249536	40	4190
2026-01-08 02:50:16.24	187.56	28.82	-34.5	-36.0	25.6	0.00e+00	0	55	0	222298112	40	4305
2026-01-08 02:50:17.25	186.94	28.83	-34.1	-35.5	26.1	0.00e+00	0	55	0	223346688	40	4091
2026-01-08 02:50:18.26	186.32	28.84	-34.5	-36.0	26.0	0.00e+00	0	55	0	224919552	39	4564
2026-01-08 02:50:19.27	185.71	28.85	-34.5	-36.0	25.6	0.00e+00	0	55	0	225968128	40	4310
2026-01-08 02:50:20.28	185.09	28.85	-34.3	-35.8	26.0	0.00e+00	0	55	0	227016704	40	4203
2026-01-08 02:50:21.29	184.47	28.84	-34.4	-35.9	25.7	0.00e+00	0	55	0	228065280	40	4255
2026-01-08 02:50:22.29	183.85	28.84	-34.4	-35.9	25.9	0.00e+00	0	55	0	229113856	40	4262
2026-01-08 02:50:23.30	183.24	28.83	-34.3	-35.8	26.0	0.00e+00	0	55	0	230162432	40	4212
2026-01-08 02:50:24.31	182.62	28.82	-34.3	-35.7	25.8	0.00e+00	0	55	0	231735296	40	4190
2026-01-08 02:50:25.32	182.00	28.80	-34.2	-35.6	26.0	0.00e+00	0	55	0	232783872	40	4142
2026-01-08 02:50:26.33	181.38	28.78	-34.5	-36.0	25.8	0.00e+00	0	55	0	233832448	40	4316
2026-01-08 02:50:27.34	180.77	28.76	-34.5	-36.0	25.7	0.00e+00	0	55	0	234881024	40	4300
2026-01-08 02:50:28.35	180.15	28.74	-34.5	-36.0	25.8	0.00e+00	0	55	0	235929600	40	4316
2026-01-08 02:50:29.35	179.55	28.71	-34.5	-36.0	25.8	0.00e+00	0	55	0	236978176	40	4312
2026-01-08 02:50:30.36	178.93	28.67	-34.3	-35.8	25.9	0.00e+00	0	55	0	238551040	40	4219
2026-01-08 02:50:31.37	178.32	28.64	-34.5	-36.0	25.7	0.00e+00	0	55	0	239599616	40	4295
2026-01-08 02:50:32.38	177.71	28.60	-34.1	-35.6	25.9	0.00e+00	0	55	0	240648192	40	4100
2026-01-08 02:50:33.39	177.11	28.56	-34.3	-35.8	26.0	0.00e+00	0	55	0	241696768	40	4222
2026-01-08 02:50:34.39	176.51	28.52	-34.1	-35.5	26.1	0.00e+00	0	55	0	242745344	40	4097
2026-01-08 02:50:35.40	175.90	28.47	-34.4	-35.9	25.9	0.00e+00	0	55	0	243793920	40	4254
2026-01-08 02:50:36.41	175.30	28.42	-34.4	-35.9	25.9	0.00e+00	0	55	0	245366784	40	4248
2026-01-08 02:50:37.42	174.70	28.36	-34.4	-35.9	25.9	0.00e+00	0	55	0	246415360	40	4264
2026-01-08 02:50:38.42	174.11	28.31	-34.1	-35.6	26.3	0.00e+00	0	55	0	247463936	40	4103
2026-01-08 02:50:39.44	173.51	28.25	-34.0	-35.4	26.7	0.00e+00	0	55	0	248512512	39	4264
2026-01-08 02:50:40.44	172.92	28.18	-34.1	-35.6	26.3	0.00e+00	0	55	0	249561088	39	4370
2026-01-08 02:50:41.45	172.33	28.12	-34.1	-35.5	26.2	0.00e+00	0	55	0	250609664	38	4590
2026-01-08 02:50:42.46	171.75	28.05	-34.3	-35.8	25.9	0.00e+00	0	55	0	252182528	39	4475
2026-01-08 02:50:43.47	171.16	27.98	-34.1	-35.5	26.3	0.00e+00	0	55	0	253231104	39	4335
2026-01-08 02:50:44.48	170.58	27.91	-34.2	-35.7	26.2	0.00e+00	0	55	0	254279680	39	4419
2026-01-08 02:50:45.49	170.00	27.83	-33.9	-35.4	26.5	0.00e+00	0	55	0	255328256	39	4258
2026-01-08 02:50:46.50	169.43	27.75	-33.8	-35.2	26.6	0.00e+00	0	55	0	256376832	39	4173
2026-01-08 02:50:47.51	168.86	27.67	-33.5	-34.9	26.8	0.00e+00	0	55	0	257425408	39	4034
2026-01-08 02:50:48.52	168.29	27.59	-33.8	-35.3	26.6	0.00e+00	0	55	0	258998272	39	4196
2026-01-08 02:50:49.53	167.73	27.50	-33.7	-35.1	26.7	0.00e+00	0	55	0	260046848	39	4120
2026-01-08 02:50:50.54	167.16	27.41	-33.7	-35.1	26.6	0.00e+00	0	55	0	261095424	39	4127
2026-01-08 02:50:51.55	166.61	27.32	-33.5	-35.0	26.8	0.00e+00	0	55	0	262144000	39	4055
2026-01-08 02:50:52.56	166.05	27.23	-33.6	-35.0	26.8	0.00e+00	0	55	0	263192576	39	4081
2026-01-08 02:50:53.57	165.50	27.13	-33.5	-34.9	26.9	0.00e+00	0	55	0	264241152	38	4267
2026-01-08 02:50:54.57	164.96	27.03	-33.6	-35.0	26.8	0.00e+00	0	55	0	265289728	38	4316
2026-01-08 02:50:55.58	164.42	26.94	-33.5	-34.9	26.9	0.00e+00	0	55	0	266862592	38	4254
2026-01-08 02:50:56.59	163.88	26.83	-33.3	-34.7	27.1	0.00e+00	0	55	0	267911168	38	4177
2026-01-08 02:50:57.60	163.35	26.73	-33.0	-34.4	27.4	0.00e+00	0	55	0	268959744	38	4013
2026-01-08 02:50:58.61	162.82	26.62	-33.0	-34.4	27.4	0.00e+00	0	55	0	270008320	38	4020
2026-01-08 02:50:59.61	162.29	26.52	-33.1	-34.4	27.3	0.00e+00	0	55	0	271056896	37	4282
2026-01-08 02:51:00.62	161.77	26.41	-33.5	-34.9	26.9	0.00e+00	0	55	0	272105472	37	4538
2026-01-08 02:51:01.64	161.25	26.30	-34.0	-35.5	26.4	0.00e+00	0	55	0	273678336	38	4576
2026-01-08 02:51:02.64	160.74	26.19	-34.3	-35.8	26.1	0.00e+00	0	55	0	274726912	39	4456
2026-01-08 02:51:03.65	160.23	26.07	-34.3	-35.7	26.2	0.00e+00	0	55	0	275775488	39	4438
2026-01-08 02:51:04.66	159.72	25.96	-33.9	-35.3	26.6	0.00e+00	0	55	0	276824064	39	4232
2026-01-08 02:51:05.67	159.22	25.84	-33.8	-35.2	26.6	0.00e+00	0	55	0	277872640	39	4190
2026-01-08 02:51:06.68	158.72	25.72	-33.5	-34.9	26.9	0.00e+00	0	55	0	278921216	39	4019
2026-01-08 02:51:07.68	158.24	25.60	-33.7	-35.1	26.8	0.00e+00	0	55	0	280494080	38	4356
2026-01-08 02:51:08.69	157.75	25.48	-33.8	-35.3	26.6	0.00e+00	0	55	0	281542656	38	4449
2026-01-08 02:51:09.70	157.26	25.36	-33.9	-35.3	26.5	0.00e+00	0	56	0	282591232	38	4489
2026-01-08 02:51:10.71	156.78	25.23	-34.1	-35.6	26.3	0.00e+00	0	55	0	283639808	38	4601
2026-01-08 02:51:11.72	156.31	25.11	-34.4	-35.9	26.0	0.00e+00	0	55	0	284688384	39	4539
2026-01-08 02:51:12.73	155.84	24.98	-34.5	-36.0	26.0	0.00e+00	0	55	0	285736960	39	4555
2026-01-08 02:51:13.74	155.37	24.86	-34.4	-35.9	26.0	0.00e+00	0	55	0	287309824	39	4525
2026-01-08 02:51:14.74	154.91	24.73	-34.4	-35.9	26.1	0.00e+00	0	55	0	288358400	39	4497
2026-01-08 02:51:15.75	154.45	24.60	-34.3	-35.8	26.1	0.00e+00	0	55	0	289406976	39	4469
2026-01-08 02:51:16.76	154.00	24.47	-34.1	-35.6	26.3	0.00e+00	0	55	0	290455552	39	4358
2026-01-08 02:51:17.77	153.55	24.34	-34.2	-35.7	26.3	0.00e+00	0	55	0	291504128	39	4405
2026-01-08 02:51:18.78	153.10	24.21	-34.3	-35.7	26.2	0.00e+00	0	55	0	292552704	39	4440
2026-01-08 02:51:19.79	152.66	24.08	-34.4	-35.9	26.0	0.00e+00	0	56	0	294125568	39	4505
2026-01-08 02:51:20.80	152.23	23.94	-34.5	-36.0	25.9	0.00e+00	0	55	0	295174144	39	4578
2026-01-08 02:51:21.81	151.79	23.81	-34.2	-35.6	26.3	0.00e+00	0	55	0	296222720	39	4372
2026-01-08 02:51:22.82	151.37	23.68	-34.1	-35.6	26.3	0.00e+00	0	56	0	297271296	39	4369
2026-01-08 02:51:23.82	150.95	23.54	-33.9	-35.4	26.5	0.00e+00	0	55	0	298319872	39	4271
2026-01-08 02:51:24.83	150.53	23.41	-33.7	-35.2	26.6	0.00e+00	0	56	0	299368448	39	4158
2026-01-08 02:51:25.84	150.11	23.27	-33.8	-35.3	26.6	0.00e+00	0	55	0	300941312	39	4196
2026-01-08 02:51:26.85	149.70	23.13	-34.0	-35.5	26.4	0.00e+00	0	56	0	301989888	39	4305
2026-01-08 02:51:27.86	149.29	23.00	-34.5	-36.0	25.9	0.00e+00	0	55	0	303038464	39	4582
2026-01-08 02:51:28.87	148.89	22.86	-34.6	-36.1	25.8	0.00e+00	0	55	0	304087040	39	4620
2026-01-08 02:51:29.88	148.49	22.72	-34.6	-36.1	25.8	0.00e+00	0	56	0	305135616	39	4604
2026-01-08 02:51:30.89	148.10	22.59	-34.4	-35.9	26.0	0.00e+00	0	55	0	306184192	39	4510
2026-01-08 02:51:31.90	147.71	22.45	-34.2	-35.7	26.1	0.00e+00	0	55	0	307757056	39	4410
2026-01-08 02:51:32.91	147.32	22.31	-34.2	-35.7	26.1	0.00e+00	0	55	0	308805632	39	4418
2026-01-08 02:51:33.92	146.94	22.17	-34.2	-35.7	26.1	0.00e+00	0	56	0	309854208	39	4429
2026-01-08 02:51:34.93	146.56	22.03	-34.5	-36.1	25.7	0.00e+00	0	55	0	310902784	39	4601
2026-01-08 02:51:35.93	146.19	21.90	-34.5	-36.0	25.7	0.00e+00	0	56	0	311951360	39	4558
2026-01-08 02:51:36.95	145.82	21.76	-34.6	-36.1	25.7	0.00e+00	0	56	0	312999936	39	4643
2026-01-08 02:51:37.95	145.46	21.62	-34.6	-36.2	25.7	0.00e+00	0	56	0	314572800	39	4661
2026-01-08 02:51:38.96	145.09	21.48	-34.7	-36.2	25.6	0.00e+00	0	55	0	315621376	40	4410
2026-01-08 02:51:39.97	144.73	21.34	-34.6	-36.1	25.6	0.00e+00	0	55	0	316669952	40	4386
2026-01-08 02:51:40.98	144.38	21.20	-34.6	-36.2	25.5	0.00e+00	0	56	0	317718528	40	4408
2026-01-08 02:51:41.99	144.03	21.07	-34.7	-36.3	25.4	0.00e+00	0	55	0	318767104	40	4454
2026-01-08 02:51:43.00	143.68	20.93	-34.5	-36.0	25.7	0.00e+00	0	55	0	319815680	40	4335
2026-01-08 02:51:44.01	143.34	20.79	-34.5	-36.0	25.6	0.00e+00	0	55	0	321388544	40	4337
2026-01-08 02:51:45.01	143.00	20.65	-34.5	-36.1	25.6	0.00e+00	0	55	0	322437120	40	4347
2026-01-08 02:51:46.03	142.66	20.51	-34.8	-36.4	25.3	0.00e+00	0	56	0	323485696	40	4520
2026-01-08 02:51:47.03	142.33	20.38	-34.9	-36.5	25.3	0.00e+00	0	56	0	324534272	40	4552
2026-01-08 02:51:48.04	142.00	20.24	-35.1	-36.7	25.0	0.00e+00	0	55	0	325582848	40	4672
2026-01-08 02:51:49.05	141.68	20.10	-35.1	-36.7	25.0	0.00e+00	0	56	0	326631424	40	4674
2026-01-08 02:51:50.06	141.36	19.96	-35.0	-36.5	25.1	0.00e+00	0	56	0	328204288	40	4595
2026-01-08 02:51:51.07	141.04	19.83	-34.8	-36.4	25.3	0.00e+00	0	56	0	329252864	40	4517
2026-01-08 02:51:52.08	140.72	19.69	-34.8	-36.3	25.4	0.00e+00	0	56	0	330301440	40	4477
2026-01-08 02:51:53.09	140.41	19.55	-35.0	-36.5	25.1	0.00e+00	0	56	0	331350016	40	4588
2026-01-08 02:51:54.10	140.10	19.42	-35.0	-36.6	25.1	0.00e+00	0	56	0	332398592	40	4625
2026-01-08 02:51:55.10	139.80	19.28	-35.0	-36.6	25.0	0.00e+00	0	56	0	333447168	40	4605
2026-01-08 02:51:56.11	139.50	19.15	-34.8	-36.4	25.2	0.00e+00	0	55	0	335020032	40	4504
2026-01-08 02:51:57.12	139.20	19.01	-34.8	-36.4	25.2	0.00e+00	0	56	0	336068608	40	4529
2026-01-08 02:51:58.13	138.91	18.87	-35.0	-36.6	25.0	0.00e+00	0	55	0	337117184	40	4639
2026-01-08 02:51:59.14	138.62	18.74	-35.1	-36.7	24.9	0.00e+00	0	55	0	338165760	40	4705
2026-01-08 02:52:00.14	138.33	18.61	-35.2	-36.8	24.8	0.00e+00	0	56	0	339214336	40	4751
2026-01-08 02:52:01.16	138.04	18.47	-35.3	-37.0	24.7	0.00e+00	0	56	0	340262912	41	4547
2026-01-08 02:52:02.17	137.76	18.34	-35.2	-36.9	24.8	0.00e+00	0	56	0	341835776	41	4496
2026-01-08 02:52:03.18	137.48	18.21	-35.3	-36.9	24.7	0.00e+00	0	56	0	342884352	41	4521
2026-01-08 02:52:04.18	137.21	18.07	-35.0	-36.6	25.0	0.00e+00	0	56	0	343932928	41	4342
2026-01-08 02:52:05.19	136.93	17.94	-35.1	-36.7	24.9	0.00e+00	0	55	0	344981504	41	4394
2026-01-08 02:52:06.20	136.66	17.81	-35.2	-36.8	24.7	0.00e+00	0	56	0	346030080	41	4478
2026-01-08 02:52:07.21	136.39	17.68	-35.3	-36.9	24.6	0.00e+00	0	56	0	347078656	41	4543
2026-01-08 02:52:08.22	136.13	17.55	-35.4	-37.0	24.5	0.00e+00	0	56	0	348651520	41	4594
2026-01-08 02:52:09.23	135.87	17.42	-35.4	-37.0	24.5	0.00e+00	0	56	0	349700096	41	4578
2026-01-08 02:52:10.24	135.61	17.29	-35.2	-36.8	24.7	0.00e+00	0	56	0	350748672	41	4491
2026-01-08 02:52:11.25	135.35	17.16	-35.4	-37.0	24.5	0.00e+00	0	56	0	351797248	41	4586
2026-01-08 02:52:12.26	135.10	17.03	-35.5	-37.2	24.4	0.00e+00	0	56	0	352845824	41	4654
2026-01-08 02:52:13.26	134.85	16.90	-35.7	-37.4	24.1	0.00e+00	0	55	0	353894400	41	4791
2026-01-08 02:52:14.27	134.60	16.77	-35.6	-37.3	24.1	0.00e+00	0	56	0	355467264	41	4751
2026-01-08 02:52:15.28	134.35	16.65	-35.5	-37.1	24.3	0.00e+00	0	56	0	356515840	41	4648
2026-01-08 02:52:16.29	134.11	16.52	-35.6	-37.2	24.3	0.00e+00	0	56	0	357564416	41	4703
2026-01-08 02:52:17.30	133.87	16.39	-35.4	-37.0	24.4	0.00e+00	0	55	0	358612992	41	4591
2026-01-08 02:52:18.31	133.63	16.27	-35.5	-37.1	23.9	0.00e+00	0	56	0	359661568	41	4651
2026-01-08 02:52:19.32	133.40	16.14	-35.7	-37.4	24.0	2.20e-06	0	56	0	360710144	41	4770
2026-01-08 02:52:20.33	133.16	16.02	-35.9	-37.6	23.8	2.20e-06	0	55	0	361758720	42	4620
2026-01-08 02:52:21.34	132.93	15.89	-35.9	-37.7	23.7	0.00e+00	0	56	0	363331584	42	4675
2026-01-08 02:52:22.35	132.70	15.77	-36.0	-37.8	23.4	5.37e-05	0	56	0	364380160	42	4718
2026-01-08 02:52:23.36	132.48	15.64	-33.7	-37.8	23.0	5.37e-05	0	56	0	365428736	42	4740
2026-01-08 02:52:24.37	132.26	15.52	-35.8	-37.6	22.3	1.10e-06	0	56	0	366477312	42	4603
2026-01-08 02:52:25.38	132.03	15.40	-35.9	-37.7	23.4	4.50e-06	0	56	0	367525888	42	4659
2026-01-08 02:52:26.39	131.82	15.28	-35.7	-37.5	23.2	3.77e-05	0	56	0	369098752	42	4588
2026-01-08 02:52:27.40	131.60	15.16	-35.9	-37.7	23.5	3.77e-05	0	56	0	370147328	42	4671
2026-01-08 02:52:28.41	131.38	15.03	-35.8	-37.7	23.6	1.10e-06	0	56	0	371195904	42	4660
2026-01-08 02:52:29.42	131.17	14.91	-36.0	-37.9	23.3	4.50e-06	0	56	0	372244480	42	4772
2026-01-08 02:52:30.42	130.96	14.80	-36.1	-37.9	23.1	4.50e-06	0	56	0	373293056	42	4802
2026-01-08 02:52:31.43	130.76	14.68	-36.2	-38.2	22.9	3.40e-06	0	56	0	374341632	43	4659
2026-01-08 02:52:32.44	130.55	14.56	-35.4	-38.4	22.6	6.80e-06	0	56	0	375914496	43	4770
2026-01-08 02:52:33.45	130.35	14.44	-36.5	-38.6	22.3	6.80e-06	0	56	0	376963072	43	4873
2026-01-08 02:52:34.46	130.14	14.32	-36.6	-38.7	22.1	4.92e-05	0	56	0	378011648	43	4964
2026-01-08 02:52:35.47	129.95	14.21	-36.3	-38.7	22.0	1.50e-04	0	56	0	379060224	43	4964
2026-01-08 02:52:36.48	129.75	14.09	-36.5	-38.8	21.5	1.50e-04	0	56	0	380108800	43	4984
2026-01-08 02:52:37.49	129.55	13.97	-36.1	-38.5	21.6	3.10e-04	0	56	0	381157376	42	5105
2026-01-08 02:52:38.49	129.36	13.86	-35.5	-38.0	20.5	2.00e-03	0	56	0	382730240	41	5124
2026-01-08 02:52:39.50	129.17	13.74	-35.9	-38.6	20.6	7.32e-04	0	56	0	383778816	42	5183
2026-01-08 02:52:40.51	128.98	13.63	-35.3	-38.0	20.5	7.32e-04	0	56	0	384827392	40	5443
2026-01-08 02:52:41.52	128.79	13.52	-35.8	-38.7	20.2	1.20e-03	0	56	0	385875968	41	5534
2026-01-08 02:52:42.53	128.61	13.40	-33.7	-38.6	19.1	4.39e-03	0	56	0	386924544	40	5834
2026-01-08 02:52:43.54	128.42	13.29	-35.1	-39.1	17.9	4.39e-03	0	56	0	387973120	39	6508
2026-01-08 02:52:44.55	128.24	13.18	-35.1	-39.3	17.6	4.21e-03	0	56	0	389545984	39	6681
2026-01-08 02:52:45.56	128.06	13.07	-34.0	-38.9	16.1	8.78e-03	0	56	0	390594560	39	6420
2026-01-08 02:52:46.56	127.88	12.95	-34.1	-39.1	16.6	8.78e-03	0	56	0	391643136	40	6176
2026-01-08 02:52:47.57	127.70	12.84	-34.7	-39.3	16.5	7.80e-03	0	56	0	392691712	39	6664
2026-01-08 02:52:48.58	127.53	12.73	-34.6	-39.0	16.5	1.34e-02	0	56	0	393740288	39	6439
2026-01-08 02:52:49.59	127.36	12.62	-33.5	-39.0	16.1	1.34e-02	0	56	0	394788864	37	7255
2026-01-08 02:52:50.60	127.18	12.52	-33.8	-38.6	16.0	9.83e-03	0	56	0	396361728	37	6883
2026-01-08 02:52:51.61	127.01	12.41	-33.3	-38.6	15.7	1.30e-02	0	56	0	397410304	38	6568
2026-01-08 02:52:52.62	126.85	12.30	-31.9	-39.4	14.6	1.32e-02	0	56	0	398458880	37	7588
2026-01-08 02:52:53.63	126.68	12.19	-33.3	-38.9	16.5	1.32e-02	0	56	0	399507456	37	7148
2026-01-08 02:52:54.64	126.51	12.08	-33.3	-39.4	16.0	1.73e-02	0	56	0	400556032	38	7165
2026-01-08 02:52:55.65	126.35	11.98	-32.7	-38.7	16.3	1.26e-02	0	56	0	401604608	33	8780
2026-01-08 02:52:56.66	126.19	11.87	-34.3	-39.5	16.1	1.26e-02	0	56	0	402653184	38	7257
2026-01-08 02:52:57.67	126.03	11.77	-35.2	-39.7	15.0	1.68e-02	0	56	0	404226048	39	6993
2026-01-08 02:52:58.68	125.87	11.66	-33.1	-39.4	16.0	1.83e-02	0	56	0	405274624	37	7588
2026-01-08 02:52:59.68	125.71	11.56	-34.9	-39.3	16.1	1.83e-02	0	56	0	406323200	39	6660
2026-01-08 02:53:00.69	125.56	11.45	-32.7	-39.5	16.1	1.44e-02	0	56	0	407371776	39	6848
2026-01-08 02:53:01.70	125.40	11.35	-34.8	-39.0	17.0	1.72e-02	0	56	0	408420352	38	6844
2026-01-08 02:53:02.71	125.25	11.25	-27.7	-38.4	15.1	1.72e-02	0	56	0	409468928	32	9042
2026-01-08 02:53:03.72	125.10	11.14	-34.0	-39.8	16.5	1.01e-02	0	56	0	411041792	42	5983
2026-01-08 02:53:04.73	124.95	11.04	-35.1	-39.8	17.2	1.01e-02	0	56	0	412090368	42	5992
2026-01-08 02:53:05.74	124.80	10.94	-30.5	-39.5	14.5	6.42e-03	0	56	0	413138944	33	9676
2026-01-08 02:53:06.75	124.65	10.84	-36.5	-40.3	17.7	6.42e-03	0	56	0	414187520	44	5607
2026-01-08 02:53:07.76	124.50	10.74	-36.7	-40.2	18.2	5.24e-03	0	56	0	415236096	44	5551
2026-01-08 02:53:08.76	124.36	10.64	-36.7	-40.0	16.6	3.23e-03	0	56	0	416284672	39	7234
2026-01-08 02:53:09.77	124.22	10.54	-37.2	-40.5	18.2	3.23e-03	0	56	0	417857536	44	5747
2026-01-08 02:53:10.78	124.07	10.44	-37.1	-40.6	18.9	3.45e-03	0	56	0	418906112	46	5196
2026-01-08 02:53:11.79	123.93	10.34	-35.6	-40.7	17.9	1.45e-03	0	56	0	419954688	42	6580
2026-01-08 02:53:12.80	123.79	10.24	-35.1	-40.9	18.7	1.45e-03	0	56	0	421003264	46	5362
2026-01-08 02:53:13.81	123.65	10.14	-36.8	-40.9	19.0	1.56e-03	0	56	0	422051840	46	5350
2026-01-08 02:53:14.82	123.52	10.05	-36.5	-40.7	18.7	8.99e-04	0	56	0	423100416	44	5917
2026-01-08 02:53:15.83	123.38	9.95	-37.2	-40.2	19.7	8.99e-04	0	56	0	424673280	45	5258
2026-01-08 02:53:16.84	123.25	9.85	-37.4	-40.5	17.8	3.26e-04	0	56	0	425721856	41	6818
2026-01-08 02:53:17.84	123.12	9.76	-35.4	-40.2	16.9	1.63e-03	0	56	0	426770432	41	6579
2026-01-08 02:53:18.85	122.98	9.66	-31.6	-39.5	18.2	9.02e-04	0	56	0	427819008	37	7640
2026-01-08 02:53:19.86	122.85	9.57	-32.5	-40.3	19.8	9.02e-04	0	56	0	428867584	45	5293
2026-01-08 02:53:20.87	122.72	9.47	-37.2	-40.0	19.8	7.29e-04	0	56	0	429916160	44	5450
2026-01-08 02:53:21.88	122.59	9.38	-32.1	-40.9	18.2	3.48e-04	0	56	0	431489024	38	8473
2026-01-08 02:53:22.89	122.47	9.28	-37.7	-40.6	19.7	3.48e-04	0	56	0	432537600	45	5472
2026-01-08 02:53:23.90	122.34	9.19	-30.7	-39.7	16.9	4.63e-04	0	56	0	433586176	34	9342
2026-01-08 02:53:24.91	122.21	9.10	-37.9	-41.2	17.8	8.17e-04	0	56	0	434634752	44	6236
2026-01-08 02:53:25.92	122.09	9.00	-37.1	-41.0	19.0	8.17e-04	0	56	0	435683328	46	5409
2026-01-08 02:53:26.93	121.97	8.91	-37.3	-41.2	18.9	4.38e-04	0	56	0	436731904	46	5565
2026-01-08 02:53:27.94	121.84	8.82	-36.7	-41.4	18.9	8.58e-05	0	56	0	438304768	46	5668
2026-01-08 02:53:28.95	121.72	8.73	-38.1	-41.1	19.2	2.05e-04	0	56	0	439353344	45	5828
2026-01-08 02:53:29.96	121.60	8.64	-37.3	-40.7	18.5	2.05e-04	0	56	0	440401920	41	6974
2026-01-08 02:53:30.97	121.48	8.55	-36.6	-41.4	17.2	6.06e-05	0	56	0	441450496	41	7620
2026-01-08 02:53:31.97	121.37	8.46	-36.2	-40.9	18.7	2.67e-04	0	56	0	442499072	43	6369
2026-01-08 02:53:32.98	121.25	8.37	-31.2	-41.4	16.6	2.67e-04	0	56	0	443547648	40	8001
2026-01-08 02:53:33.99	121.13	8.28	-34.8	-41.7	16.1	7.46e-04	0	56	0	445120512	40	8276
2026-01-08 02:53:35.00	121.02	8.19	-33.5	-41.4	16.1	3.57e-03	0	56	0	446169088	38	9026
2026-01-08 02:53:36.01	120.90	8.10	-32.7	-40.7	15.3	3.57e-03	0	56	0	447217664	33	11155
2026-01-08 02:53:37.02	120.79	8.01	-30.3	-40.5	14.9	1.13e-02	0	56	0	448266240	31	12139
2026-01-08 02:53:38.03	120.68	7.92	-28.9	-52.1	4.3	6.95e-02	0	56	104	448790528	25	65535
2026-01-08 02:53:39.04	120.57	7.84	-41.8	-63.0	3.8	6.95e-02	0	56	104	448790528	59	32388
2026-01-08 02:53:40.05	120.46	7.75	-44.9	-63.1	3.8	8.34e-01	0	56	104	448790528	60	30810
2026-01-08 02:53:41.06	120.35	7.66	-45.2	-63.3	3.8	8.46e-01	0	56	104	448790528	60	31627
2026-01-08 02:53:42.07	120.24	7.57	-45.3	-63.5	3.8	8.46e-01	0	56	104	448790528	61	30557
2026-01-08 02:53:43.08	120.13	7.49	-45.4	-63.6	3.8	8.47e-01	0	56	104	448790528	61	30866
2026-01-08 02:53:44.08	120.03	7.40	-45.5	-63.8	3.8	8.47e-01	0	56	104	448790528	61	31486
2026-01-08 02:53:45.09	119.92	7.32	-45.6	-63.9	3.8	8.46e-01	0	56	104	448790528	61	31835
2026-01-08 02:53:46.11	119.82	7.23	-45.7	-63.9	3.8	8.46e-01	0	56	104	448790528	61	32062
2026-01-08 02:53:47.12	119.71	7.15	-45.7	-63.9	3.8	8.47e-01	0	56	104	448790528	61	32165
2026-01-08 02:53:48.13	119.61	7.06	-45.6	-63.9	3.8	8.46e-01	0	56	104	448790528	61	32040
2026-01-08 02:53:49.13	119.51	6.98	-45.5	-63.8	3.8	8.46e-01	0	56	104	448790528	61	31720
2026-01-08 02:53:50.14	119.41	6.90	-45.5	-63.8	3.8	8.46e-01	0	56	104	448790528	61	31689
2026-01-08 02:53:51.15	119.31	6.81	-45.4	-63.8	3.8	8.46e-01	0	56	104	448790528	61	31661
2026-01-08 02:53:52.16	119.21	6.73	-45.4	-63.8	3.8	8.46e-01	0	56	104	448790528	61	31521
2026-01-08 02:53:53.17	119.11	6.65	-45.4	-63.7	3.8	8.45e-01	0	56	104	448790528	61	31432
2026-01-08 02:53:54.18	119.01	6.57	-45.3	-63.7	3.8	8.46e-01	0	56	104	448790528	61	31212
2026-01-08 02:53:55.19	118.91	6.48	-45.3	-63.6	3.8	8.46e-01	0	56	104	448790528	61	31062
2026-01-08 02:53:56.20	118.81	6.40	-45.3	-63.7	3.8	8.46e-01	0	56	104	448790528	61	31123
2026-01-08 02:53:57.21	118.72	6.32	-45.3	-63.7	3.8	8.45e-01	0	56	104	448790528	61	31088
2026-01-08 02:53:58.22	118.62	6.24	-45.3	-63.6	3.8	8.47e-01	0	56	104	448790528	61	31063
2026-01-08 02:53:59.23	118.53	6.16	-45.3	-63.6	3.8	8.47e-01	0	56	104	448790528	61	31037
2026-01-08 02:54:00.24	118.43	6.08	-45.3	-63.6	3.8	8.45e-01	0	56	104	448790528	61	31056
2026-01-08 02:54:01.24	118.34	6.00	-45.3	-63.7	3.8	8.46e-01	0	56	104	448790528	61	31102
2026-01-08 02:54:02.26	118.25	5.92	-45.3	-63.7	3.8	8.46e-01	0	56	104	448790528	61	31127
2026-01-08 02:54:03.26	118.16	5.84	-45.2	-63.7	3.8	8.46e-01	0	56	104	448790528	61	31130
2026-01-08 02:54:04.27	118.07	5.76	-45.3	-63.6	3.8	8.47e-01	0	56	104	448790528	61	31013
2026-01-08 02:54:05.28	117.98	5.68	-45.2	-63.6	3.8	8.47e-01	0	56	104	448790528	61	31071
2026-01-08 02:54:06.28	117.89	5.61	-45.2	-63.6	3.8	8.45e-01	0	56	104	448790528	61	31021
2026-01-08 02:54:07.29	117.80	5.53	-45.2	-63.7	3.8	8.46e-01	0	56	104	448790528	61	31109
2026-01-08 02:54:08.30	117.71	5.45	-45.2	-63.7	3.8	8.46e-01	0	56	104	448790528	61	31091
2026-01-08 02:54:09.31	117.62	5.37	-45.2	-63.6	3.8	8.46e-01	0	56	104	448790528	61	30985
2026-01-08 02:54:10.32	117.54	5.29	-45.2	-63.6	3.8	8.45e-01	0	56	104	448790528	61	31013
2026-01-08 02:54:11.33	117.45	5.22	-45.2	-63.6	3.8	8.46e-01	0	56	104	448790528	61	30959
2026-01-08 02:54:12.34	117.37	5.14	-45.2	-63.7	3.8	8.46e-01	0	56	104	448790528	61	31113
2026-01-08 02:54:13.35	117.28	5.06	-45.2	-63.6	3.8	8.46e-01	0	56	104	448790528	61	30969
2026-01-08 02:54:14.36	117.20	4.99	-45.2	-63.6	3.8	8.47e-01	0	56	104	448790528	61	30997
2026-01-08 02:54:15.37	117.11	4.91	-45.2	-63.6	3.8	8.47e-01	0	56	104	448790528	61	30977
2026-01-08 02:54:16.38	117.03	4.84	-45.2	-63.6	3.8	8.48e-01	0	56	104	448790528	61	30988
2026-01-08 02:54:17.39	116.95	4.76	-45.2	-63.6	3.8	8.47e-01	0	56	104	448790528	61	31012
2026-01-08 02:54:18.40	116.87	4.69	-45.2	-63.6	3.8	8.47e-01	0	56	104	448790528	61	30965
2026-01-08 02:54:19.41	116.79	4.61	-45.2	-63.6	3.8	8.46e-01	0	56	104	448790528	61	31054
2026-01-08 02:54:20.42	116.71	4.54	-45.2	-63.6	3.8	8.46e-01	0	56	104	448790528	61	30980
2026-01-08 02:54:21.43	116.63	4.46	-45.2	-63.6	3.8	8.45e-01	0	57	104	448790528	61	30949
2026-01-08 02:54:22.44	116.55	4.39	-45.2	-63.6	3.8	8.45e-01	0	56	104	448790528	61	31043
2026-01-08 02:54:23.45	116.47	4.32	-45.2	-63.6	3.8	8.45e-01	0	56	104	448790528	61	30975
2026-01-08 02:54:24.45	116.39	4.24	-45.2	-63.6	3.8	8.45e-01	0	56	104	448790528	61	30931
2026-01-08 02:54:25.47	116.31	4.17	-45.2	-63.6	3.8	8.45e-01	0	56	104	448790528	61	30872
2026-01-08 02:54:26.47	116.24	4.10	-45.2	-63.6	3.8	8.47e-01	0	57	104	448790528	61	31006
2026-01-08 02:54:27.48	116.16	4.03	-45.2	-63.6	3.8	8.46e-01	0	56	104	448790528	61	30943
2026-01-08 02:54:28.49	116.08	3.95	-45.2	-63.6	3.8	8.46e-01	0	56	104	448790528	61	30926
2026-01-08 02:54:29.50	116.01	3.88	-45.2	-63.6	3.8	8.46e-01	0	56	104	448790528	61	30842
2026-01-08 02:54:30.51	115.93	3.81	-45.2	-63.6	3.8	8.47e-01	0	56	104	448790528	61	30894
2026-01-08 02:54:31.52	115.86	3.74	-45.2	-63.6	3.8	8.47e-01	0	56	104	448790528	61	30948
2026-01-08 02:54:32.53	115.79	3.67	-45.2	-63.6	3.8	8.47e-01	0	56	104	448790528	61	30933
2026-01-08 02:54:33.54	115.71	3.60	-45.2	-63.6	3.8	8.45e-01	0	57	104	448790528	61	30981
2026-01-08 02:54:34.55	115.64	3.52	-45.2	-63.6	3.8	8.47e-01	0	56	104	448790528	61	30970
2026-01-08 02:54:35.56	115.57	3.45	-45.2	-63.6	3.8	8.47e-01	0	56	104	448790528	61	30986
2026-01-08 02:54:36.57	115.50	3.38	-45.2	-63.6	3.8	8.46e-01	0	56	104	448790528	61	30953
2026-01-08 02:54:37.58	115.42	3.31	-45.2	-63.6	3.8	8.47e-01	0	56	104	448790528	61	30937
2026-01-08 02:54:38.58	115.35	3.24	-45.2	-63.6	3.8	8.47e-01	0	56	104	448790528	61	30898
2026-01-08 02:54:39.59	115.28	3.17	-45.2	-63.6	3.8	8.47e-01	0	56	104	448790528	61	30907
2026-01-08 02:54:40.60	115.21	3.11	-45.2	-63.6	3.8	8.46e-01	0	56	104	448790528	61	30917
2026-01-08 02:54:41.61	115.15	3.04	-45.2	-63.6	3.8	8.46e-01	0	56	104	448790528	61	30897
2026-01-08 02:54:42.62	115.08	2.97	-45.2	-63.6	3.8	8.46e-01	0	56	104	448790528	61	30893
2026-01-08 02:54:43.63	115.01	2.90	-45.2	-63.6	3.8	8.46e-01	0	56	104	448790528	61	30983
2026-01-08 02:54:44.64	114.94	2.83	-45.2	-63.6	3.8	8.46e-01	0	56	104	448790528	61	30857
2026-01-08 02:54:45.65	114.87	2.76	-45.2	-63.6	3.8	8.46e-01	0	56	104	448790528	61	30884
2026-01-08 02:54:46.65	114.81	2.69	-45.2	-63.6	3.8	8.48e-01	0	56	104	448790528	61	30903
2026-01-08 02:54:47.67	114.74	2.63	-45.2	-63.6	3.8	8.45e-01	0	57	104	448790528	61	30977
2026-01-08 02:54:48.67	114.67	2.56	-45.2	-63.6	3.8	8.45e-01	0	56	104	448790528	61	30830
2026-01-08 02:54:49.68	114.61	2.49	-45.2	-63.6	3.8	8.46e-01	0	56	104	448790528	61	30905
2026-01-08 02:54:50.70	114.54	2.42	-45.2	-63.6	3.8	8.46e-01	0	57	104	448790528	61	30814
2026-01-08 02:54:51.71	114.48	2.36	-45.2	-63.6	3.8	8.46e-01	0	56	104	448790528	61	30868
2026-01-08 02:54:52.72	114.41	2.29	-45.2	-63.6	3.8	8.46e-01	0	57	104	448790528	61	30991
2026-01-08 02:54:53.72	114.35	2.22	-45.2	-63.6	3.8	8.46e-01	0	56	104	448790528	61	30963
2026-01-08 02:54:54.73	114.29	2.16	-45.2	-63.6	3.8	8.46e-01	0	56	104	448790528	61	30949
2026-01-08 02:54:55.74	114.23	2.09	-45.2	-63.6	3.8	8.46e-01	0	56	104	448790528	61	30854
2026-01-08 02:54:56.75	114.16	2.02	-45.2	-63.6	3.8	8.46e-01	0	56	104	448790528	61	30887
2026-01-08 02:54:57.76	114.10	1.96	-45.2	-63.6	3.8	8.46e-01	0	56	104	448790528	61	30900
2026-01-08 02:54:58.77	114.04	1.89	-45.2	-63.6	3.8	8.46e-01	0	56	104	448790528	61	30831
2026-01-08 02:54:59.78	113.98	1.83	-45.2	-63.6	3.8	8.46e-01	0	56	104	448790528	61	30897

#Closed at: 2026-01-08 02:54:59
#Recorded file [448 MB]: D:/lorett/data/31039_260108_054542.dat