passes_logs/2026/01/08/R2.0S_Moscow/R2.0S_Moscow__20260108_101653_NOAA_20_JPSS-1_rec.log

#Pass ID: 20260108_101653_NOAA 20 (JPSS-1)
#Satellite: NOAA 20 (JPSS-1)
#Configuration: NOAA 20
#almurnet v.1.7.20251203
#Start time: 2026-01-08 10:16:55

#Version: 2.2.20231116
#Station: R2.0S_Moscow
#Location: 37.707566 lon 55.798166 lat
#TLE: 1 43013U 17073A   26006.30790171  .00000126  00000+0  80695-4 0  9991
#TLE: 2 43013  98.7629 307.3394 0001808  51.8724 308.2615 14.19533762421505

#Time	Az	El	Level	Level2	SNR	BER	BlckErr	Temp	State	Recorded	gain1	gain2
2026-01-08 10:16:55.10	171.22	2.08	-43.6	-57.9	3.8	1.49e+00	0	49	0	0	59	17948
2026-01-08 10:16:56.10	171.24	2.14	-43.6	-57.9	3.8	1.49e+00	0	49	104	0	59	17952
2026-01-08 10:16:57.11	171.25	2.21	-43.6	-57.9	3.8	1.49e+00	0	50	104	0	59	18009
2026-01-08 10:16:58.11	171.27	2.27	-43.6	-57.9	3.8	1.49e+00	0	50	104	0	59	17941
2026-01-08 10:16:59.11	171.29	2.34	-43.6	-57.9	3.8	1.49e+00	0	50	104	0	59	17928
2026-01-08 10:17:00.12	171.31	2.40	-43.6	-57.9	3.8	1.49e+00	0	50	104	0	59	17949
2026-01-08 10:17:01.13	171.33	2.47	-43.6	-57.9	3.8	1.49e+00	0	50	104	0	59	17965
2026-01-08 10:17:02.14	171.35	2.53	-43.6	-57.9	3.8	1.49e+00	0	50	104	0	59	17955
2026-01-08 10:17:03.14	171.37	2.60	-43.6	-57.9	3.8	1.49e+00	0	50	104	0	59	17941
2026-01-08 10:17:04.15	171.39	2.66	-43.5	-57.9	3.8	1.49e+00	0	50	104	0	59	17930
2026-01-08 10:17:05.16	171.41	2.73	-43.6	-57.9	3.8	1.49e+00	0	50	104	0	59	17982
2026-01-08 10:17:06.17	171.43	2.80	-43.6	-57.9	3.8	1.49e+00	0	50	104	0	59	17935
2026-01-08 10:17:07.17	171.45	2.86	-43.6	-57.9	3.8	1.49e+00	0	50	104	0	59	17945
2026-01-08 10:17:08.18	171.47	2.93	-43.6	-57.9	3.8	1.49e+00	0	50	104	0	59	17959
2026-01-08 10:17:09.18	171.49	2.99	-43.6	-57.9	3.8	1.49e+00	0	50	104	0	59	17935
2026-01-08 10:17:10.18	171.51	3.06	-43.6	-57.9	3.8	1.49e+00	0	50	104	0	59	17984
2026-01-08 10:17:11.19	171.53	3.13	-43.6	-57.9	3.8	1.49e+00	0	50	104	0	59	17975
2026-01-08 10:17:12.19	171.55	3.19	-43.6	-57.9	3.8	1.49e+00	0	50	104	0	59	17971
2026-01-08 10:17:13.20	171.57	3.26	-43.5	-57.9	3.8	1.49e+00	0	51	104	0	59	17906
2026-01-08 10:17:14.20	171.59	3.33	-43.5	-57.9	3.8	1.49e+00	0	50	104	0	59	17907
2026-01-08 10:17:15.21	171.61	3.40	-43.5	-57.9	3.8	1.49e+00	0	51	104	0	59	17917
2026-01-08 10:17:16.21	171.63	3.46	-43.6	-57.9	3.8	1.49e+00	0	51	104	0	59	17940
2026-01-08 10:17:17.21	171.65	3.53	-43.6	-57.9	3.8	1.49e+00	0	51	104	0	59	17920
2026-01-08 10:17:18.22	171.67	3.60	-43.6	-57.9	3.8	1.49e+00	0	51	104	0	59	17962
2026-01-08 10:17:19.22	171.69	3.67	-43.6	-57.9	3.8	1.49e+00	0	51	104	0	59	17907
2026-01-08 10:17:20.22	171.71	3.73	-43.6	-57.9	3.8	1.49e+00	0	51	104	0	59	17953
2026-01-08 10:17:21.23	171.73	3.80	-43.5	-57.9	3.8	1.49e+00	0	51	104	0	59	17961
2026-01-08 10:17:22.23	171.75	3.87	-43.6	-57.9	3.8	1.49e+00	0	51	104	0	59	17889
2026-01-08 10:17:23.24	171.78	3.94	-43.6	-57.9	3.8	1.49e+00	0	51	104	0	59	17935
2026-01-08 10:17:24.25	171.80	4.01	-43.6	-57.9	3.8	1.49e+00	0	51	104	0	59	17926
2026-01-08 10:17:25.26	171.82	4.08	-43.6	-57.9	3.8	1.49e+00	0	51	104	0	59	17924
2026-01-08 10:17:26.26	171.84	4.15	-43.6	-57.9	3.8	1.49e+00	0	51	104	0	59	17939
2026-01-08 10:17:27.26	171.86	4.21	-43.6	-57.9	3.8	1.49e+00	0	51	104	0	59	17894
2026-01-08 10:17:28.27	171.88	4.28	-43.6	-57.9	3.8	1.49e+00	0	51	104	0	59	17896
2026-01-08 10:17:29.27	171.90	4.35	-43.5	-57.9	3.8	1.49e+00	0	52	104	0	59	17910
2026-01-08 10:17:30.27	171.93	4.42	-43.6	-57.8	3.8	1.49e+00	0	51	104	0	59	17860
2026-01-08 10:17:31.28	171.95	4.49	-43.5	-57.8	3.8	1.49e+00	0	52	104	0	59	17798
2026-01-08 10:17:32.28	171.97	4.56	-43.5	-57.8	3.8	1.49e+00	0	52	104	0	59	17800
2026-01-08 10:17:33.28	171.99	4.63	-43.6	-57.8	3.8	1.49e+00	0	52	104	0	59	17814
2026-01-08 10:17:34.29	172.01	4.70	-43.5	-57.8	3.8	1.49e+00	0	52	104	0	59	17817
2026-01-08 10:17:35.29	172.04	4.78	-43.6	-57.9	3.8	1.49e+00	0	52	104	0	59	17929
2026-01-08 10:17:36.30	172.06	4.85	-43.5	-57.9	3.8	1.49e+00	0	52	104	0	59	17909
2026-01-08 10:17:37.31	172.08	4.92	-43.5	-57.8	3.8	1.49e+00	0	52	104	0	59	17884
2026-01-08 10:17:38.31	172.10	4.99	-43.6	-57.8	3.8	1.49e+00	0	52	104	0	59	17812
2026-01-08 10:17:39.31	172.12	5.06	-43.5	-57.7	3.8	1.49e+00	0	52	104	0	59	17601
2026-01-08 10:17:40.31	172.15	5.13	-43.5	-57.6	3.8	1.49e+00	0	52	104	0	59	17461
2026-01-08 10:17:41.32	172.17	5.20	-43.5	-57.4	3.8	1.49e+00	0	52	104	0	59	17072
2026-01-08 10:17:42.32	172.19	5.28	-43.5	-57.3	3.8	1.49e+00	0	52	104	0	59	16742
2026-01-08 10:17:43.33	172.22	5.35	-43.5	-56.9	3.8	1.49e+00	0	52	104	0	59	16062
2026-01-08 10:17:44.33	172.24	5.42	-43.5	-56.7	3.8	1.49e+00	0	52	104	0	59	15599
2026-01-08 10:17:45.34	172.26	5.49	-43.5	-56.2	3.8	1.49e+00	0	53	104	0	58	15676
2026-01-08 10:17:46.35	172.29	5.57	-43.4	-56.2	3.8	1.49e+00	0	52	104	0	58	15688
2026-01-08 10:17:47.36	172.31	5.64	-43.4	-55.9	3.8	1.49e+00	0	53	104	0	58	15195
2026-01-08 10:17:48.36	172.33	5.71	-43.4	-55.6	3.9	1.48e+00	0	53	104	0	58	14639
2026-01-08 10:17:49.36	172.36	5.79	-43.4	-55.7	3.8	1.48e+00	0	53	104	0	58	14866
2026-01-08 10:17:50.37	172.38	5.86	-43.4	-55.2	4.0	1.48e+00	0	52	104	0	58	13937
2026-01-08 10:17:51.37	172.40	5.93	-43.4	-55.2	3.9	1.46e+00	0	53	104	0	58	14026
2026-01-08 10:17:52.38	172.43	6.01	-43.4	-54.7	4.1	1.47e+00	0	53	104	0	58	13181
2026-01-08 10:17:53.38	172.45	6.08	-43.3	-54.5	4.2	1.41e+00	0	53	0	0	58	12826
2026-01-08 10:17:54.39	172.48	6.16	-43.3	-54.2	4.2	1.39e+00	0	53	0	0	58	12409
2026-01-08 10:17:55.39	172.50	6.23	-43.3	-53.9	4.3	1.36e+00	0	53	0	0	58	12037
2026-01-08 10:17:56.39	172.52	6.31	-43.2	-53.5	4.5	1.33e+00	16	53	0	1048576	58	11468
2026-01-08 10:17:57.40	172.55	6.38	-43.2	-53.1	4.6	9.82e-01	0	53	0	2097152	58	10915
2026-01-08 10:17:58.40	172.57	6.46	-43.2	-52.8	4.7	8.23e-01	0	53	0	4194304	58	10621
2026-01-08 10:17:59.40	172.60	6.53	-43.1	-52.4	4.9	7.99e-01	0	53	0	6291456	58	10168
2026-01-08 10:18:00.41	172.62	6.61	-43.1	-52.1	5.1	6.61e-01	0	53	0	8388608	58	9810
2026-01-08 10:18:01.41	172.65	6.68	-43.0	-51.6	5.4	5.84e-01	0	53	0	10485760	58	9274
2026-01-08 10:18:02.41	172.67	6.76	-42.9	-51.3	5.7	4.63e-01	0	53	0	11534336	57	9408
2026-01-08 10:18:03.42	172.70	6.84	-42.9	-51.1	5.7	4.25e-01	0	53	0	13631488	57	9248
2026-01-08 10:18:04.42	172.72	6.91	-42.8	-50.8	6.0	3.87e-01	0	53	0	15728640	57	8923
2026-01-08 10:18:05.42	172.75	6.99	-42.7	-50.2	6.4	2.96e-01	0	53	0	17825792	57	8362
2026-01-08 10:18:06.43	172.77	7.07	-42.6	-49.8	6.8	2.42e-01	0	54	0	19922944	57	7981
2026-01-08 10:18:07.43	172.80	7.14	-42.6	-49.7	6.9	1.75e-01	0	53	0	20971520	57	7833
2026-01-08 10:18:08.44	172.82	7.22	-42.5	-49.3	7.3	1.47e-01	0	53	0	23068672	57	7491
2026-01-08 10:18:09.44	172.85	7.30	-42.5	-49.1	7.5	1.13e-01	0	53	0	25165824	56	7770
2026-01-08 10:18:10.44	172.88	7.38	-42.4	-48.7	7.8	8.80e-02	0	53	0	27262976	56	7430
2026-01-08 10:18:11.44	172.90	7.45	-42.3	-48.5	8.1	7.21e-02	0	54	0	28311552	56	7248
2026-01-08 10:18:12.45	172.93	7.53	-42.1	-47.8	8.7	4.57e-02	0	54	0	30408704	56	6710
2026-01-08 10:18:13.45	172.95	7.61	-42.0	-47.7	8.9	3.05e-02	0	54	0	32505856	56	6573
2026-01-08 10:18:14.46	172.98	7.69	-41.8	-47.2	9.2	2.26e-02	0	54	0	34603008	55	6604
2026-01-08 10:18:15.46	173.01	7.77	-41.6	-46.7	9.8	1.50e-02	0	54	0	36700160	55	6227
2026-01-08 10:18:16.47	173.03	7.85	-41.5	-46.5	9.9	1.01e-02	0	54	0	38797312	55	6065
2026-01-08 10:18:17.47	173.06	7.93	-41.4	-46.2	10.2	6.18e-03	0	54	0	39845888	54	6264
2026-01-08 10:18:18.48	173.09	8.01	-41.3	-46.0	10.5	5.18e-03	0	54	0	41943040	54	6063
2026-01-08 10:18:19.48	173.11	8.09	-41.4	-45.9	10.9	3.23e-03	0	54	0	44040192	54	6003
2026-01-08 10:18:20.48	173.14	8.17	-42.3	-48.0	8.9	3.48e-02	0	54	0	46137344	55	7232
2026-01-08 10:18:21.49	173.17	8.25	-41.5	-46.0	10.6	4.97e-02	0	54	0	47185920	55	5780
2026-01-08 10:18:22.49	173.20	8.33	-42.2	-50.4	5.9	3.35e-01	0	54	0	49283072	55	9527
2026-01-08 10:18:23.49	173.22	8.41	-41.7	-46.9	9.2	1.09e+00	0	54	0	51380224	55	6395
2026-01-08 10:18:24.49	173.25	8.49	-41.5	-46.0	10.8	4.62e-03	0	54	0	52428800	54	6086
2026-01-08 10:18:25.50	173.28	8.57	-41.1	-45.2	11.6	1.15e-03	0	54	0	54525952	54	5559
2026-01-08 10:18:26.50	173.31	8.66	-41.2	-45.2	11.5	7.37e-04	0	54	0	56623104	54	5588
2026-01-08 10:18:27.50	173.34	8.74	-41.1	-45.2	11.7	6.19e-04	0	54	0	58720256	54	5531
2026-01-08 10:18:28.50	173.36	8.82	-41.1	-45.1	11.7	5.65e-04	0	54	0	59768832	54	5520
2026-01-08 10:18:29.50	173.39	8.90	-41.3	-45.4	11.5	7.79e-04	0	54	0	61865984	54	5676
2026-01-08 10:18:30.50	173.42	8.99	-41.2	-45.3	11.6	7.63e-04	0	54	0	63963136	54	5617
2026-01-08 10:18:31.49	173.45	9.07	-41.2	-45.1	11.7	7.41e-04	0	54	0	66060288	54	5527
2026-01-08 10:18:32.50	173.48	9.15	-41.1	-45.0	11.9	5.30e-04	0	54	0	68157440	54	5454
2026-01-08 10:18:33.50	173.51	9.24	-41.1	-45.0	11.9	3.71e-04	0	54	0	69206016	54	5425
2026-01-08 10:18:34.50	173.54	9.32	-41.1	-45.0	12.0	3.16e-04	0	54	0	71303168	54	5441
2026-01-08 10:18:35.50	173.57	9.40	-41.2	-45.1	11.8	3.61e-04	0	54	0	73400320	54	5513
2026-01-08 10:18:36.50	173.59	9.49	-41.2	-45.1	12.0	3.22e-04	0	54	0	75497472	54	5472
2026-01-08 10:18:37.50	173.62	9.57	-41.1	-44.9	12.2	2.72e-04	0	55	0	77594624	54	5347
2026-01-08 10:18:38.49	173.65	9.66	-41.1	-44.9	12.1	2.44e-04	0	54	0	78643200	54	5393
2026-01-08 10:18:39.49	173.68	9.74	-41.2	-45.0	12.1	2.39e-04	0	55	0	80740352	54	5434
2026-01-08 10:18:40.50	173.71	9.83	-41.2	-45.0	12.1	1.91e-04	0	55	0	82837504	54	5411
2026-01-08 10:18:41.50	173.74	9.91	-41.2	-45.0	12.1	2.88e-04	0	55	0	84934656	54	5433
2026-01-08 10:18:42.50	173.77	10.00	-41.1	-44.8	12.3	2.43e-04	0	55	0	87031808	54	5296
2026-01-08 10:18:43.50	173.80	10.09	-41.1	-44.9	12.2	1.50e-04	0	55	0	88080384	54	5381
2026-01-08 10:18:44.50	173.84	10.17	-41.1	-44.8	12.3	1.69e-04	0	54	0	90177536	54	5321
2026-01-08 10:18:45.49	173.87	10.26	-41.1	-44.8	12.3	1.44e-04	0	55	0	92274688	54	5310
2026-01-08 10:18:46.50	173.90	10.35	-40.9	-44.5	12.6	1.07e-04	0	55	0	94371840	53	5455
2026-01-08 10:18:47.50	173.93	10.43	-41.0	-44.5	12.6	9.46e-05	0	55	0	95420416	53	5458
2026-01-08 10:18:48.50	173.96	10.52	-40.9	-44.5	12.7	8.31e-05	0	55	0	97517568	53	5417
2026-01-08 10:18:49.50	173.99	10.61	-40.9	-44.4	12.8	8.01e-05	0	55	0	99614720	53	5383
2026-01-08 10:18:50.50	174.02	10.70	-40.9	-44.4	12.7	5.26e-05	0	55	0	101711872	53	5393
2026-01-08 10:18:51.50	174.05	10.79	-40.9	-44.4	12.8	5.56e-05	0	55	0	103809024	53	5387
2026-01-08 10:18:52.50	174.09	10.88	-40.9	-44.5	12.7	6.56e-05	0	55	0	104857600	53	5416
2026-01-08 10:18:53.50	174.12	10.97	-40.9	-44.3	12.9	6.17e-05	0	55	0	106954752	53	5340
2026-01-08 10:18:54.50	174.15	11.06	-40.8	-44.2	13.0	4.34e-05	0	55	0	109051904	53	5267
2026-01-08 10:18:55.50	174.18	11.15	-40.8	-44.2	13.1	3.66e-05	0	55	0	111149056	53	5240
2026-01-08 10:18:56.50	174.22	11.24	-40.8	-44.2	13.0	2.82e-05	0	55	0	113246208	53	5258
2026-01-08 10:18:57.50	174.25	11.33	-40.8	-44.1	13.1	4.11e-05	0	55	0	114294784	53	5203
2026-01-08 10:18:58.50	174.28	11.42	-40.8	-44.1	13.1	2.82e-05	0	55	0	116391936	53	5210
2026-01-08 10:18:59.50	174.32	11.51	-40.7	-44.0	13.3	3.43e-05	0	55	0	118489088	53	5110
2026-01-08 10:19:00.50	174.35	11.60	-40.7	-44.0	13.2	3.43e-05	0	55	0	120586240	53	5155
2026-01-08 10:19:01.50	174.38	11.69	-40.7	-43.9	13.4	2.74e-05	0	55	0	121634816	53	5068
2026-01-08 10:19:02.50	174.42	11.79	-40.7	-44.0	13.4	2.13e-05	0	55	0	123731968	53	5101
2026-01-08 10:19:03.50	174.45	11.88	-40.6	-43.8	13.6	1.37e-05	0	55	0	125829120	53	4993
2026-01-08 10:19:04.49	174.49	11.97	-40.6	-43.8	13.6	6.10e-06	0	55	0	127926272	53	5013
2026-01-08 10:19:05.50	174.52	12.07	-40.5	-43.6	13.7	6.80e-06	0	55	0	130023424	53	4913
2026-01-08 10:19:06.50	174.55	12.16	-40.6	-43.7	13.6	6.10e-06	0	55	0	131072000	53	4980
2026-01-08 10:19:07.50	174.59	12.25	-40.6	-43.7	13.6	6.10e-06	0	56	0	133169152	53	4973
2026-01-08 10:19:08.50	174.62	12.35	-40.6	-43.8	13.6	4.50e-06	0	55	0	135266304	53	4994
2026-01-08 10:19:09.51	174.66	12.44	-40.5	-43.6	13.7	5.30e-06	0	55	0	137363456	53	4925
2026-01-08 10:19:10.51	174.70	12.54	-40.6	-43.7	13.7	2.20e-06	0	56	0	139460608	53	4961
2026-01-08 10:19:11.51	174.73	12.64	-40.5	-43.6	13.8	1.22e-05	0	56	0	140509184	53	4897
2026-01-08 10:19:12.51	174.77	12.73	-40.5	-43.6	13.8	9.10e-06	0	55	0	142606336	53	4900
2026-01-08 10:19:13.51	174.80	12.83	-40.5	-43.6	13.8	1.06e-05	0	56	0	144703488	53	4908
2026-01-08 10:19:14.51	174.84	12.92	-40.5	-43.5	13.8	1.60e-05	0	55	0	146800640	53	4870
2026-01-08 10:19:15.51	174.88	13.02	-40.5	-43.5	13.9	1.52e-05	0	56	0	148897792	53	4863
2026-01-08 10:19:16.51	174.91	13.12	-40.5	-43.6	13.8	1.83e-05	0	56	0	149946368	53	4888
2026-01-08 10:19:17.51	174.95	13.22	-40.6	-43.6	13.7	2.21e-05	0	55	0	152043520	53	4920
2026-01-08 10:19:18.51	174.99	13.32	-40.5	-43.5	13.9	2.36e-05	0	56	0	154140672	52	5139
2026-01-08 10:19:19.52	175.03	13.41	-40.6	-43.7	13.7	4.04e-05	0	56	0	156237824	52	5231
2026-01-08 10:19:20.52	175.06	13.51	-40.6	-43.7	13.8	4.27e-05	0	55	0	158334976	52	5220
2026-01-08 10:19:21.52	175.10	13.61	-40.6	-43.7	13.7	2.97e-05	0	56	0	159383552	52	5238
2026-01-08 10:19:22.52	175.14	13.71	-40.6	-43.6	13.9	1.37e-05	0	56	0	161480704	52	5198
2026-01-08 10:19:23.52	175.18	13.81	-40.5	-43.6	14.0	2.20e-06	0	56	0	163577856	52	5163
2026-01-08 10:19:24.52	175.22	13.91	-40.5	-43.5	14.0	4.50e-06	0	56	0	165675008	52	5130
2026-01-08 10:19:25.51	175.26	14.01	-40.6	-43.7	13.8	7.00e-07	0	56	0	166723584	52	5245
2026-01-08 10:19:26.51	175.29	14.12	-40.5	-43.5	14.0	7.00e-07	0	56	0	168820736	52	5127
2026-01-08 10:19:27.51	175.33	14.22	-40.6	-43.6	13.9	1.50e-06	0	56	0	170917888	52	5209
2026-01-08 10:19:28.51	175.37	14.32	-40.6	-43.6	14.0	7.00e-07	0	56	0	173015040	52	5175
2026-01-08 10:19:29.51	175.41	14.42	-40.6	-43.6	13.9	1.50e-06	0	56	0	175112192	52	5192
2026-01-08 10:19:30.50	175.45	14.52	-40.5	-43.5	14.0	6.80e-06	0	56	0	176160768	52	5159
2026-01-08 10:19:31.50	175.49	14.63	-40.6	-43.6	13.9	1.50e-06	0	56	0	178257920	52	5189
2026-01-08 10:19:32.49	175.53	14.73	-40.6	-43.7	13.9	4.50e-06	0	56	0	180355072	52	5229
2026-01-08 10:19:33.49	175.57	14.84	-40.6	-43.6	14.0	3.00e-06	0	56	0	182452224	52	5165
2026-01-08 10:19:34.48	175.62	14.94	-40.6	-43.6	13.9	2.20e-06	0	56	0	184549376	52	5202
2026-01-08 10:19:35.48	175.66	15.05	-40.7	-43.7	13.9	3.80e-06	0	56	0	185597952	52	5261
2026-01-08 10:19:36.47	175.70	15.15	-40.7	-43.7	13.9	6.10e-06	0	56	0	187695104	52	5268
2026-01-08 10:19:37.47	175.74	15.26	-40.6	-43.7	13.9	5.30e-06	0	56	0	189792256	52	5265
2026-01-08 10:19:38.47	175.78	15.36	-40.7	-43.7	13.8	2.20e-06	0	56	0	191889408	52	5270
2026-01-08 10:19:39.46	175.83	15.47	-40.6	-43.7	13.9	4.50e-06	0	56	0	192937984	52	5240
2026-01-08 10:19:40.46	175.87	15.58	-40.7	-43.8	13.8	6.10e-06	0	56	0	195035136	52	5301
2026-01-08 10:19:41.46	175.91	15.68	-40.6	-43.7	13.9	6.10e-06	0	56	0	197132288	52	5246
2026-01-08 10:19:42.45	175.95	15.79	-40.7	-43.8	13.8	3.00e-06	0	56	0	199229440	52	5306
2026-01-08 10:19:43.45	176.00	15.90	-40.8	-43.9	13.8	3.00e-06	0	56	0	201326592	52	5347
2026-01-08 10:19:44.45	176.04	16.01	-40.7	-43.8	13.8	6.10e-06	0	56	0	202375168	52	5303
2026-01-08 10:19:45.45	176.09	16.12	-40.7	-43.8	13.8	7.60e-06	0	56	0	204472320	52	5329
2026-01-08 10:19:46.45	176.13	16.23	-40.8	-44.0	13.7	7.60e-06	0	56	0	206569472	52	5410
2026-01-08 10:19:47.46	176.18	16.34	-40.9	-44.0	13.6	5.30e-06	0	56	0	208666624	52	5449
2026-01-08 10:19:48.46	176.22	16.45	-40.9	-44.1	13.6	6.10e-06	0	56	0	210763776	52	5472
2026-01-08 10:19:49.46	176.27	16.57	-40.9	-44.1	13.5	7.60e-06	0	56	0	211812352	52	5509
2026-01-08 10:19:50.46	176.31	16.68	-41.0	-44.2	13.4	6.10e-06	0	56	0	213909504	52	5571
2026-01-08 10:19:51.46	176.36	16.79	-41.0	-44.3	13.3	1.75e-05	0	56	0	216006656	52	5644
2026-01-08 10:19:52.46	176.41	16.91	-41.0	-44.3	13.4	1.37e-05	0	56	0	218103808	52	5611
2026-01-08 10:19:53.46	176.45	17.02	-41.1	-44.4	13.2	1.60e-05	0	56	0	219152384	52	5714
2026-01-08 10:19:54.46	176.50	17.13	-41.1	-44.5	13.2	2.44e-05	0	56	0	221249536	52	5733
2026-01-08 10:19:55.46	176.55	17.25	-41.2	-44.6	13.1	2.21e-05	0	56	0	223346688	52	5799
2026-01-08 10:19:56.46	176.60	17.36	-41.1	-44.5	13.2	2.74e-05	0	56	0	225443840	52	5746
2026-01-08 10:19:57.46	176.64	17.48	-41.1	-44.5	13.2	2.59e-05	0	56	0	227540992	52	5740
2026-01-08 10:19:58.46	176.69	17.60	-41.1	-44.5	13.2	3.12e-05	0	56	0	228589568	52	5747
2026-01-08 10:19:59.46	176.74	17.71	-41.2	-44.5	13.1	2.74e-05	0	56	0	230686720	52	5783
2026-01-08 10:20:00.47	176.79	17.83	-41.1	-44.5	13.2	2.28e-05	0	56	0	232783872	52	5733
2026-01-08 10:20:01.47	176.84	17.95	-41.1	-44.5	13.2	3.50e-05	0	56	0	234881024	52	5733
2026-01-08 10:20:02.47	176.89	18.07	-41.2	-44.6	13.0	2.51e-05	0	56	0	236978176	53	5523
2026-01-08 10:20:03.47	176.94	18.19	-41.2	-44.5	13.2	2.13e-05	0	56	0	238026752	53	5455
2026-01-08 10:20:04.48	176.99	18.31	-41.2	-44.6	13.1	3.58e-05	0	56	0	240123904	53	5482
2026-01-08 10:20:05.48	177.04	18.43	-41.2	-44.6	13.1	3.28e-05	0	56	0	242221056	53	5491
2026-01-08 10:20:06.48	177.09	18.55	-41.2	-44.6	13.1	2.82e-05	0	56	0	244318208	53	5504
2026-01-08 10:20:07.47	177.15	18.67	-41.2	-44.5	13.2	2.67e-05	0	56	0	246415360	53	5451
2026-01-08 10:20:08.47	177.20	18.79	-41.2	-44.5	13.2	2.44e-05	0	56	0	247463936	53	5429
2026-01-08 10:20:09.47	177.25	18.92	-41.2	-44.6	13.1	2.74e-05	0	56	0	249561088	53	5497
2026-01-08 10:20:10.47	177.30	19.04	-41.2	-44.6	13.1	1.90e-05	0	57	0	251658240	53	5479
2026-01-08 10:20:11.48	177.36	19.17	-41.2	-44.7	13.0	3.28e-05	0	57	0	253755392	53	5530
2026-01-08 10:20:12.48	177.41	19.29	-41.2	-44.6	13.1	3.35e-05	0	56	0	254803968	53	5483
2026-01-08 10:20:13.49	177.47	19.42	-41.3	-44.7	13.0	2.21e-05	0	56	0	256901120	53	5569
2026-01-08 10:20:14.49	177.52	19.54	-41.3	-44.7	13.0	3.58e-05	0	56	0	258998272	53	5547
2026-01-08 10:20:15.49	177.58	19.67	-41.3	-44.7	13.0	3.73e-05	0	56	0	261095424	53	5561
2026-01-08 10:20:16.49	177.63	19.80	-41.3	-44.7	13.0	4.11e-05	0	57	0	263192576	53	5548
2026-01-08 10:20:17.49	177.69	19.92	-41.3	-44.7	13.1	2.59e-05	0	57	0	264241152	53	5539
2026-01-08 10:20:18.50	177.75	20.05	-41.3	-44.7	13.1	3.96e-05	0	57	0	266338304	53	5540
2026-01-08 10:20:19.51	177.80	20.18	-41.3	-44.7	13.0	5.26e-05	0	57	0	268435456	53	5583
2026-01-08 10:20:20.51	177.86	20.31	-41.3	-44.8	13.0	3.50e-05	0	57	0	270532608	53	5596
2026-01-08 10:20:21.51	177.92	20.44	-41.3	-44.8	13.0	4.42e-05	0	57	0	272629760	53	5604
2026-01-08 10:20:22.51	177.98	20.57	-41.3	-44.7	13.0	4.80e-05	0	57	0	273678336	53	5579
2026-01-08 10:20:23.51	178.04	20.71	-41.3	-44.7	13.0	5.26e-05	0	57	0	275775488	53	5571
2026-01-08 10:20:24.51	178.10	20.84	-41.3	-44.7	13.0	3.20e-05	0	57	0	277872640	53	5564
2026-01-08 10:20:25.51	178.15	20.97	-41.3	-44.7	13.0	3.20e-05	0	57	0	279969792	53	5569
2026-01-08 10:20:26.52	178.22	21.11	-41.3	-44.8	13.0	2.97e-05	0	57	0	282066944	53	5605
2026-01-08 10:20:27.53	178.28	21.24	-41.3	-44.7	13.1	3.66e-05	0	57	0	283115520	53	5582
2026-01-08 10:20:28.53	178.34	21.38	-41.3	-44.7	13.0	3.50e-05	0	57	0	285212672	53	5583
2026-01-08 10:20:29.53	178.40	21.51	-41.3	-44.7	13.1	2.89e-05	0	57	0	287309824	53	5555
2026-01-08 10:20:30.53	178.46	21.65	-41.3	-44.7	13.0	2.67e-05	0	57	0	289406976	53	5570
2026-01-08 10:20:31.53	178.53	21.79	-41.3	-44.7	13.0	3.35e-05	0	57	0	291504128	53	5588
2026-01-08 10:20:32.53	178.59	21.92	-41.3	-44.7	13.1	2.05e-05	0	57	0	292552704	53	5539
2026-01-08 10:20:33.53	178.65	22.06	-41.3	-44.6	13.2	3.28e-05	0	57	0	294649856	53	5503
2026-01-08 10:20:34.53	178.72	22.20	-41.2	-44.6	13.2	2.28e-05	0	57	0	296747008	53	5478
2026-01-08 10:20:35.53	178.78	22.34	-41.2	-44.6	13.2	1.44e-05	0	57	0	298844160	53	5474
2026-01-08 10:20:36.54	178.85	22.48	-41.3	-44.6	13.2	1.90e-05	0	57	0	299892736	53	5487
2026-01-08 10:20:37.54	178.91	22.62	-41.2	-44.5	13.3	2.36e-05	0	57	0	301989888	53	5419
2026-01-08 10:20:38.54	178.98	22.77	-41.2	-44.5	13.3	2.05e-05	0	57	0	304087040	53	5443
2026-01-08 10:20:39.53	179.05	22.91	-41.1	-44.4	13.4	1.29e-05	0	57	0	306184192	53	5350
2026-01-08 10:20:40.53	179.12	23.05	-41.2	-44.5	13.3	1.52e-05	0	57	0	308281344	53	5426
2026-01-08 10:20:41.53	179.18	23.20	-41.1	-44.4	13.4	1.52e-05	0	57	0	309329920	53	5349
2026-01-08 10:20:42.53	179.25	23.34	-41.1	-44.3	13.5	9.10e-06	0	57	0	311427072	53	5335
2026-01-08 10:20:43.52	179.32	23.49	-41.1	-44.3	13.6	1.75e-05	0	57	0	313524224	53	5314
2026-01-08 10:20:44.53	179.39	23.63	-41.1	-44.3	13.5	1.29e-05	0	57	0	315621376	53	5323
2026-01-08 10:20:45.53	179.46	23.78	-41.2	-44.4	13.4	9.10e-06	0	57	0	317718528	53	5373
2026-01-08 10:20:46.53	179.54	23.93	-41.1	-44.3	13.6	1.06e-05	0	57	0	318767104	53	5313
2026-01-08 10:20:47.53	179.61	24.08	-41.1	-44.3	13.6	6.80e-06	0	57	0	320864256	53	5291
2026-01-08 10:20:48.53	179.68	24.23	-41.1	-44.3	13.6	9.10e-06	0	57	0	322961408	53	5305
2026-01-08 10:20:49.54	179.75	24.38	-41.1	-44.3	13.5	9.90e-06	0	57	0	325058560	53	5325
2026-01-08 10:20:50.54	179.83	24.53	-41.1	-44.3	13.5	1.37e-05	0	57	0	326107136	53	5337
2026-01-08 10:20:51.54	179.90	24.69	-41.1	-44.2	13.7	1.06e-05	0	57	0	328204288	53	5261
2026-01-08 10:20:52.54	179.98	24.84	-41.2	-44.5	13.4	1.44e-05	0	57	0	330301440	53	5443
2026-01-08 10:20:53.54	180.06	24.99	-41.2	-44.4	13.4	1.22e-05	0	57	0	332398592	53	5401
2026-01-08 10:20:54.54	180.13	25.15	-41.2	-44.5	13.4	1.52e-05	0	57	0	334495744	53	5441
2026-01-08 10:20:55.55	180.21	25.31	-41.3	-44.6	13.2	9.90e-06	0	57	0	335544320	53	5514
2026-01-08 10:20:56.55	180.29	25.46	-41.3	-44.6	13.2	2.21e-05	0	57	0	337641472	53	5520
2026-01-08 10:20:57.55	180.37	25.62	-41.3	-44.6	13.2	2.21e-05	0	57	0	339738624	53	5528
2026-01-08 10:20:58.55	180.45	25.78	-41.4	-44.7	13.2	2.51e-05	0	57	0	341835776	53	5577
2026-01-08 10:20:59.55	180.53	25.94	-41.4	-44.8	13.1	2.74e-05	0	57	0	343932928	53	5601
2026-01-08 10:21:00.56	180.61	26.10	-41.4	-44.8	13.1	2.67e-05	0	57	0	344981504	53	5603
2026-01-08 10:21:01.56	180.69	26.26	-41.4	-44.8	13.1	3.12e-05	0	57	0	347078656	53	5611
2026-01-08 10:21:02.57	180.78	26.43	-41.4	-44.8	13.1	3.43e-05	0	57	0	349175808	53	5598
2026-01-08 10:21:03.58	180.86	26.59	-41.4	-44.8	13.1	2.82e-05	0	57	0	351272960	53	5602
2026-01-08 10:21:04.59	180.95	26.76	-41.5	-44.9	13.0	3.43e-05	0	57	0	353370112	53	5700
2026-01-08 10:21:05.59	181.03	26.92	-41.5	-44.9	13.0	3.58e-05	0	57	0	354418688	53	5687
2026-01-08 10:21:06.59	181.12	27.09	-41.5	-44.9	13.0	4.57e-05	0	57	0	356515840	53	5697
2026-01-08 10:21:07.60	181.21	27.26	-41.5	-45.0	12.9	2.89e-05	0	57	0	358612992	53	5755
2026-01-08 10:21:08.60	181.30	27.42	-41.5	-44.9	13.0	3.50e-05	0	57	0	360710144	53	5714
2026-01-08 10:21:09.60	181.39	27.59	-41.4	-44.7	13.2	2.89e-05	0	57	0	362807296	53	5577
2026-01-08 10:21:10.60	181.48	27.76	-41.4	-44.8	13.1	2.51e-05	0	57	0	363855872	53	5611
2026-01-08 10:21:11.60	181.57	27.93	-41.3	-44.6	13.3	2.36e-05	0	57	0	365953024	53	5515
2026-01-08 10:21:12.61	181.66	28.11	-41.3	-44.6	13.4	1.67e-05	0	57	0	368050176	53	5484
2026-01-08 10:21:13.61	181.75	28.28	-41.3	-44.5	13.4	9.90e-06	0	57	0	370147328	53	5445
2026-01-08 10:21:14.61	181.85	28.45	-41.3	-44.6	13.4	1.29e-05	0	57	0	372244480	53	5466
2026-01-08 10:21:15.61	181.94	28.63	-41.3	-44.5	13.5	1.29e-05	0	57	0	373293056	53	5417
2026-01-08 10:21:16.62	182.04	28.81	-41.4	-44.6	13.3	8.30e-06	0	57	0	375390208	53	5527
2026-01-08 10:21:17.62	182.14	28.98	-41.4	-44.7	13.2	1.52e-05	0	58	0	377487360	53	5576
2026-01-08 10:21:18.62	182.23	29.16	-41.5	-44.8	13.1	1.75e-05	0	58	0	379584512	53	5647
2026-01-08 10:21:19.62	182.33	29.34	-41.5	-45.0	13.0	3.73e-05	0	57	0	381681664	53	5731
2026-01-08 10:21:20.62	182.43	29.52	-41.6	-45.0	12.9	3.28e-05	0	58	0	382730240	53	5780
2026-01-08 10:21:21.63	182.54	29.70	-41.7	-45.2	12.7	4.50e-05	0	58	0	384827392	53	5896
2026-01-08 10:21:22.63	182.64	29.89	-41.7	-45.4	12.6	1.01e-04	0	57	0	386924544	54	5662
2026-01-08 10:21:23.62	182.74	30.07	-41.8	-45.5	12.5	1.15e-04	0	57	0	389021696	54	5742
2026-01-08 10:21:24.63	182.85	30.25	-41.9	-45.5	12.4	1.47e-04	0	57	0	390070272	54	5777
2026-01-08 10:21:25.64	182.95	30.44	-41.9	-45.6	12.4	1.60e-04	0	57	0	392167424	54	5811
2026-01-08 10:21:26.64	183.06	30.63	-42.0	-45.8	12.2	2.26e-04	0	57	0	394264576	54	5930
2026-01-08 10:21:27.65	183.17	30.82	-42.0	-45.8	12.1	2.08e-04	0	57	0	396361728	54	5975
2026-01-08 10:21:28.65	183.28	31.00	-42.0	-45.8	12.1	2.50e-04	0	57	0	398458880	54	5963
2026-01-08 10:21:29.66	183.39	31.20	-42.1	-45.9	12.0	2.94e-04	0	57	0	400556032	54	6039
2026-01-08 10:21:30.67	183.50	31.39	-42.2	-46.1	11.8	3.75e-04	0	57	0	401604608	54	6183
2026-01-08 10:21:31.68	183.62	31.58	-42.2	-46.3	11.6	5.00e-04	0	57	0	403701760	55	5936
2026-01-08 10:21:32.68	183.73	31.78	-42.2	-46.2	11.7	5.53e-04	0	57	0	405798912	55	5919
2026-01-08 10:21:33.69	183.85	31.97	-42.3	-46.3	11.6	7.06e-04	0	58	0	407896064	55	5990
2026-01-08 10:21:34.70	183.97	32.17	-42.3	-46.5	11.4	8.48e-04	0	57	0	408944640	55	6114
2026-01-08 10:21:35.71	184.09	32.37	-42.2	-46.3	11.6	6.11e-04	0	57	0	411041792	55	5936
2026-01-08 10:21:36.71	184.21	32.57	-42.2	-46.2	11.8	5.72e-04	0	57	0	413138944	55	5882
2026-01-08 10:21:37.72	184.33	32.77	-42.1	-46.1	11.9	4.38e-04	0	58	0	415236096	55	5802
2026-01-08 10:21:38.73	184.45	32.97	-42.1	-46.0	12.0	4.35e-04	0	58	0	417333248	55	5762
2026-01-08 10:21:39.73	184.58	33.17	-42.1	-45.9	12.0	2.95e-04	0	57	0	418381824	55	5722
2026-01-08 10:21:40.74	184.70	33.38	-42.1	-45.9	12.1	3.08e-04	0	58	0	420478976	55	5686
2026-01-08 10:21:41.75	184.83	33.58	-42.0	-45.7	12.3	2.56e-04	0	58	0	422576128	55	5576
2026-01-08 10:21:42.76	184.96	33.79	-42.0	-45.9	12.1	2.59e-04	0	58	0	424673280	55	5666
2026-01-08 10:21:43.76	185.09	34.00	-41.9	-45.6	12.3	2.29e-04	0	58	0	426770432	55	5522
2026-01-08 10:21:44.77	185.23	34.21	-41.8	-45.3	12.6	1.17e-04	0	58	0	428867584	55	5333
2026-01-08 10:21:45.77	185.36	34.42	-41.8	-45.4	12.6	9.53e-05	0	58	0	429916160	55	5368
2026-01-08 10:21:46.78	185.50	34.63	-41.8	-45.5	12.5	9.23e-05	0	58	0	432013312	55	5412
2026-01-08 10:21:47.79	185.64	34.84	-41.9	-45.6	12.4	1.13e-04	0	58	0	434110464	55	5469
2026-01-08 10:21:48.79	185.78	35.05	-41.9	-45.7	12.4	1.33e-04	0	58	0	436207616	55	5536
2026-01-08 10:21:49.80	185.92	35.27	-41.9	-45.6	12.4	1.44e-04	0	58	0	437256192	55	5498
2026-01-08 10:21:50.81	186.06	35.49	-42.1	-46.0	11.9	2.71e-04	0	58	0	439353344	55	5754
2026-01-08 10:21:51.81	186.21	35.70	-42.1	-46.1	11.9	3.34e-04	0	57	0	441450496	55	5797
2026-01-08 10:21:52.82	186.36	35.92	-42.3	-46.3	11.6	5.14e-04	0	57	0	443547648	55	5971
2026-01-08 10:21:53.83	186.51	36.15	-42.3	-46.3	11.7	7.00e-04	0	58	0	445644800	55	5973
2026-01-08 10:21:54.84	186.66	36.37	-42.3	-46.3	11.7	6.47e-04	0	58	0	446693376	55	5957
2026-01-08 10:21:55.85	186.81	36.59	-42.3	-46.4	11.5	6.49e-04	0	58	0	448790528	55	6034
2026-01-08 10:21:56.85	186.97	36.81	-42.3	-46.3	11.6	7.02e-04	0	58	0	450887680	55	5980
2026-01-08 10:21:57.85	187.12	37.04	-42.2	-46.2	11.7	6.58e-04	0	58	0	452984832	55	5920
2026-01-08 10:21:58.86	187.28	37.27	-42.4	-46.5	11.4	5.48e-04	0	58	0	455081984	55	6118
2026-01-08 10:21:59.86	187.44	37.49	-42.5	-46.8	11.2	1.15e-03	0	58	0	457179136	55	6300
2026-01-08 10:22:00.87	187.61	37.72	-42.6	-46.9	11.1	1.71e-03	0	58	0	458227712	55	6412
2026-01-08 10:22:01.88	187.78	37.96	-42.9	-47.6	10.6	2.65e-03	0	58	0	460324864	56	6500
2026-01-08 10:22:02.88	187.94	38.19	-43.1	-48.0	10.1	5.58e-03	0	58	0	462422016	56	6802
2026-01-08 10:22:03.89	188.11	38.42	-43.1	-48.0	10.1	6.89e-03	0	58	0	464519168	56	6870
2026-01-08 10:22:04.89	188.29	38.66	-43.1	-48.1	10.0	7.62e-03	0	58	0	465567744	56	6914
2026-01-08 10:22:05.90	188.46	38.89	-43.0	-47.7	10.4	5.62e-03	0	58	0	467664896	56	6619
2026-01-08 10:22:06.91	188.64	39.13	-43.0	-47.7	10.4	5.54e-03	0	58	0	469762048	56	6646
2026-01-08 10:22:07.91	188.82	39.37	-42.9	-47.6	10.5	4.63e-03	0	58	0	471859200	56	6534
2026-01-08 10:22:08.92	189.01	39.61	-43.0	-47.8	10.3	4.80e-03	0	58	0	473956352	56	6678
2026-01-08 10:22:09.93	189.19	39.85	-43.1	-48.0	10.1	5.26e-03	0	58	0	475004928	56	6847
2026-01-08 10:22:10.94	189.38	40.10	-43.1	-48.0	10.1	7.28e-03	0	58	0	477102080	56	6862
2026-01-08 10:22:11.94	189.57	40.34	-43.2	-48.4	9.7	9.17e-03	0	58	0	479199232	57	6766
2026-01-08 10:22:12.96	189.77	40.59	-43.3	-48.4	9.7	1.22e-02	0	58	0	481296384	57	6756
2026-01-08 10:22:13.97	189.97	40.84	-43.2	-48.3	9.8	1.23e-02	0	58	0	483393536	57	6708
2026-01-08 10:22:14.97	190.17	41.08	-43.2	-48.2	9.9	1.02e-02	0	58	0	485490688	57	6606
2026-01-08 10:22:15.98	190.37	41.33	-43.0	-47.8	10.3	5.52e-03	0	58	0	486539264	57	6296
2026-01-08 10:22:16.99	190.58	41.59	-42.9	-47.5	10.6	4.18e-03	0	58	0	488636416	57	6114
2026-01-08 10:22:17.99	190.79	41.84	-42.7	-47.1	11.0	2.65e-03	0	58	0	490733568	57	5825
2026-01-08 10:22:19.00	191.01	42.09	-42.7	-47.0	11.2	1.27e-03	0	58	0	492830720	57	5747
2026-01-08 10:22:20.00	191.22	42.34	-42.6	-46.8	11.4	1.12e-03	0	58	0	493879296	57	5593
2026-01-08 10:22:21.01	191.44	42.60	-42.6	-46.9	11.4	9.56e-04	0	58	0	495976448	57	5665
2026-01-08 10:22:22.01	191.66	42.86	-42.7	-47.0	11.3	1.28e-03	0	58	0	498073600	57	5738
2026-01-08 10:22:23.02	191.89	43.12	-42.6	-46.7	11.5	1.07e-03	0	58	0	500170752	57	5590
2026-01-08 10:22:24.03	192.12	43.38	-42.4	-46.4	11.9	6.29e-04	0	58	0	502267904	56	5659
2026-01-08 10:22:25.04	192.36	43.64	-42.2	-45.9	12.3	2.45e-04	0	58	0	503316480	56	5386
2026-01-08 10:22:26.05	192.60	43.90	-42.1	-45.7	12.5	1.08e-04	0	58	0	505413632	56	5275
2026-01-08 10:22:27.05	192.84	44.17	-42.2	-46.0	12.3	1.40e-04	0	58	0	507510784	56	5408
2026-01-08 10:22:28.06	193.09	44.43	-42.3	-46.2	12.1	1.94e-04	0	58	0	509607936	56	5551
2026-01-08 10:22:29.06	193.33	44.70	-42.4	-46.3	11.9	3.39e-04	0	58	0	511705088	56	5624
2026-01-08 10:22:30.06	193.59	44.96	-42.5	-46.4	11.8	5.59e-04	0	58	0	513802240	56	5717
2026-01-08 10:22:31.07	193.85	45.23	-42.5	-46.6	11.7	5.72e-04	0	58	0	514850816	56	5790
2026-01-08 10:22:32.08	194.11	45.50	-42.5	-46.5	11.7	5.69e-04	0	58	0	516947968	56	5783
2026-01-08 10:22:33.08	194.38	45.77	-42.5	-46.5	11.8	5.18e-04	0	58	0	519045120	56	5750
2026-01-08 10:22:34.09	194.65	46.05	-42.5	-46.5	11.7	5.75e-04	0	58	0	521142272	56	5788
2026-01-08 10:22:35.10	194.93	46.32	-42.6	-46.8	11.4	6.95e-04	0	58	0	522190848	56	5952
2026-01-08 10:22:36.11	195.21	46.60	-42.8	-47.2	11.0	1.46e-03	0	58	0	524288000	56	6228
2026-01-08 10:22:37.11	195.49	46.87	-42.8	-47.1	11.1	1.85e-03	0	58	0	526385152	56	6189
2026-01-08 10:22:38.12	195.79	47.15	-42.6	-46.8	11.4	1.89e-03	0	58	0	528482304	56	5960
2026-01-08 10:22:39.13	196.08	47.43	-42.5	-46.5	11.8	6.02e-04	0	58	0	530579456	56	5763
2026-01-08 10:22:40.14	196.39	47.71	-42.3	-46.1	12.2	2.48e-04	0	58	0	531628032	56	5492
2026-01-08 10:22:41.15	196.70	47.99	-42.2	-45.8	12.5	1.80e-04	0	58	0	533725184	56	5339
2026-01-08 10:22:42.15	197.01	48.27	-42.1	-45.8	12.5	1.18e-04	0	58	0	535822336	56	5282
2026-01-08 10:22:43.16	197.33	48.55	-42.2	-46.0	12.3	1.21e-04	0	58	0	537919488	56	5418
2026-01-08 10:22:44.17	197.65	48.83	-42.3	-46.0	12.2	2.62e-04	0	58	0	540016640	56	5463
2026-01-08 10:22:45.17	197.98	49.11	-42.2	-45.8	12.4	2.65e-04	0	58	0	542113792	56	5332
2026-01-08 10:22:46.18	198.32	49.40	-41.7	-45.0	13.1	6.25e-05	0	58	0	543162368	55	5159
2026-01-08 10:22:47.18	198.66	49.68	-41.4	-44.5	13.6	2.28e-05	0	58	0	545259520	54	5128
2026-01-08 10:22:48.19	199.01	49.97	-41.1	-44.1	14.1	5.30e-06	0	58	0	547356672	54	4911
2026-01-08 10:22:49.20	199.36	50.26	-40.9	-43.8	14.4	0.00e+00	0	58	0	549453824	53	5015
2026-01-08 10:22:50.21	199.73	50.54	-40.6	-43.2	15.0	0.00e+00	0	58	0	551550976	53	4692
2026-01-08 10:22:51.21	200.10	50.83	-40.3	-42.8	15.4	0.00e+00	0	58	0	552599552	52	4728
2026-01-08 10:22:52.21	200.47	51.12	-40.0	-42.4	15.8	0.00e+00	0	58	0	554696704	52	4502
2026-01-08 10:22:53.22	200.85	51.40	-39.8	-42.1	16.2	0.00e+00	0	58	0	556793856	51	4617
2026-01-08 10:22:54.23	201.25	51.69	-39.6	-41.7	16.6	0.00e+00	0	58	0	558891008	51	4437
2026-01-08 10:22:55.23	201.64	51.98	-39.3	-41.4	16.9	0.00e+00	0	58	0	559939584	50	4518
2026-01-08 10:22:56.24	202.05	52.27	-39.2	-41.2	17.1	0.00e+00	0	58	0	562036736	50	4429
2026-01-08 10:22:57.25	202.46	52.56	-39.0	-41.0	17.3	0.00e+00	0	58	0	564133888	49	4577
2026-01-08 10:22:58.25	202.88	52.85	-38.8	-40.8	17.5	0.00e+00	0	58	0	566231040	49	4444
2026-01-08 10:22:59.26	203.32	53.14	-38.7	-40.5	17.7	0.00e+00	0	58	0	568328192	48	4586
2026-01-08 10:23:00.26	203.75	53.43	-38.5	-40.3	18.0	0.00e+00	0	58	0	570425344	48	4472
2026-01-08 10:23:01.27	204.20	53.72	-38.5	-40.4	17.9	0.00e+00	0	58	0	571473920	48	4509
2026-01-08 10:23:02.28	204.66	54.01	-38.8	-40.7	17.6	0.00e+00	0	58	0	573571072	48	4699
2026-01-08 10:23:03.28	205.12	54.30	-39.0	-41.0	17.3	0.00e+00	0	58	0	575668224	48	4840
2026-01-08 10:23:04.29	205.60	54.59	-39.2	-41.2	17.1	0.00e+00	0	58	0	577765376	48	4968
2026-01-08 10:23:05.29	206.08	54.88	-39.2	-41.2	17.2	0.00e+00	0	58	0	578813952	48	4938
2026-01-08 10:23:06.30	206.58	55.17	-39.1	-41.1	17.2	0.00e+00	0	58	0	580911104	48	4924
2026-01-08 10:23:07.30	207.08	55.45	-39.3	-41.3	17.0	0.00e+00	0	58	0	583008256	49	4747
2026-01-08 10:23:08.30	207.59	55.74	-39.9	-42.1	16.2	0.00e+00	0	58	0	585105408	50	4924
2026-01-08 10:23:09.30	208.11	56.02	-40.3	-42.7	15.6	0.00e+00	0	58	0	587202560	51	4959
2026-01-08 10:23:10.31	208.65	56.31	-40.5	-43.1	15.2	0.00e+00	0	58	0	588251136	51	5206
2026-01-08 10:23:11.31	209.19	56.59	-40.5	-43.0	15.2	0.00e+00	0	58	0	590348288	51	5141
2026-01-08 10:23:12.32	209.75	56.88	-40.7	-43.4	14.9	0.00e+00	0	58	0	592445440	51	5347
2026-01-08 10:23:13.33	210.33	57.16	-40.9	-43.7	14.5	0.00e+00	0	58	0	594542592	52	5270
2026-01-08 10:23:14.34	210.91	57.44	-41.1	-44.0	14.1	1.50e-06	0	58	0	596639744	52	5464
2026-01-08 10:23:15.35	211.51	57.72	-41.2	-44.3	13.9	3.00e-06	0	58	0	597688320	53	5300
2026-01-08 10:23:16.35	212.11	58.00	-41.3	-44.5	13.7	3.00e-06	0	58	0	599785472	53	5409
2026-01-08 10:23:17.36	212.73	58.28	-41.4	-44.7	13.5	7.60e-06	0	58	0	601882624	53	5545
2026-01-08 10:23:18.37	213.36	58.55	-41.3	-44.4	13.8	1.06e-05	0	58	0	603979776	53	5383
2026-01-08 10:23:19.38	214.01	58.82	-41.1	-44.0	14.2	3.00e-06	0	58	0	606076928	53	5155
2026-01-08 10:23:20.39	214.67	59.10	-41.1	-44.0	14.3	0.00e+00	0	58	0	607125504	53	5117
2026-01-08 10:23:21.40	215.35	59.36	-41.2	-44.2	14.0	4.50e-06	0	58	0	609222656	53	5277
2026-01-08 10:23:22.40	216.03	59.63	-41.3	-44.5	13.7	6.10e-06	0	58	0	611319808	53	5415
2026-01-08 10:23:23.41	216.73	59.89	-41.2	-44.2	13.9	9.90e-06	0	58	0	613416960	53	5276
2026-01-08 10:23:24.42	217.44	60.15	-40.8	-43.6	14.5	0.00e+00	0	58	0	615514112	53	4918
2026-01-08 10:23:25.43	218.17	60.41	-40.7	-43.4	14.8	0.00e+00	0	58	0	616562688	53	4774
2026-01-08 10:23:26.43	218.91	60.66	-40.4	-43.0	15.2	0.00e+00	0	58	0	618659840	52	4843
2026-01-08 10:23:27.44	219.67	60.91	-40.3	-42.8	15.5	0.00e+00	0	58	0	620756992	52	4719
2026-01-08 10:23:28.45	220.45	61.16	-40.3	-42.7	15.4	0.00e+00	0	58	0	622854144	52	4701
2026-01-08 10:23:29.45	221.23	61.40	-40.2	-42.6	15.6	0.00e+00	0	58	0	624951296	52	4632
2026-01-08 10:23:30.46	222.04	61.64	-40.0	-42.3	15.9	0.00e+00	0	58	0	627048448	51	4756
2026-01-08 10:23:31.46	222.85	61.88	-39.8	-42.1	16.2	0.00e+00	0	58	0	628097024	51	4637
2026-01-08 10:23:32.47	223.69	62.11	-40.1	-42.5	15.8	0.00e+00	0	58	0	630194176	51	4857
2026-01-08 10:23:33.48	224.54	62.34	-40.4	-43.0	15.3	0.00e+00	0	58	0	632291328	51	5130
2026-01-08 10:23:34.48	225.40	62.56	-40.4	-43.0	15.3	0.00e+00	0	58	0	634388480	51	5119
2026-01-08 10:23:35.49	226.28	62.78	-40.4	-43.0	15.3	0.00e+00	0	58	0	635437056	51	5127
2026-01-08 10:23:36.50	227.19	62.99	-40.4	-42.9	15.4	0.00e+00	0	58	0	637534208	51	5071
2026-01-08 10:23:37.50	228.09	63.20	-40.3	-42.8	15.5	0.00e+00	0	58	0	639631360	51	5019
2026-01-08 10:23:38.51	229.02	63.40	-40.4	-42.9	15.4	0.00e+00	0	58	0	641728512	51	5042
2026-01-08 10:23:39.51	229.96	63.59	-40.7	-43.4	14.8	0.00e+00	0	58	0	643825664	52	5062
2026-01-08 10:23:40.52	230.93	63.78	-40.8	-43.6	14.5	7.00e-07	0	58	0	644874240	52	5218
2026-01-08 10:23:41.52	231.90	63.97	-40.7	-43.4	14.8	1.50e-06	0	58	0	646971392	52	5062
2026-01-08 10:23:42.53	232.89	64.14	-40.5	-43.2	15.0	7.00e-07	0	58	0	649068544	52	4955
2026-01-08 10:23:43.53	233.89	64.31	-40.6	-43.2	14.9	0.00e+00	0	58	0	651165696	52	4972
2026-01-08 10:23:44.53	234.90	64.48	-40.8	-43.7	14.5	0.00e+00	0	58	0	653262848	52	5222
2026-01-08 10:23:45.53	235.93	64.63	-40.7	-43.9	14.2	0.00e+00	0	58	0	654311424	52	5395
2026-01-08 10:23:46.53	236.97	64.78	-41.1	-44.0	14.2	1.50e-06	0	58	0	656408576	52	5437
2026-01-08 10:23:47.52	238.02	64.92	-41.0	-43.9	14.3	1.50e-06	0	58	0	658505728	52	5375
2026-01-08 10:23:48.52	239.08	65.06	-40.9	-43.8	14.4	1.50e-06	0	58	0	660602880	52	5287
2026-01-08 10:23:49.52	240.17	65.19	-41.0	-44.0	14.1	0.00e+00	0	58	0	662700032	52	5447
2026-01-08 10:23:50.52	241.26	65.31	-41.3	-44.5	13.6	1.50e-06	0	58	0	663748608	53	5433
2026-01-08 10:23:51.52	242.36	65.42	-41.5	-44.9	13.2	1.52e-05	0	58	0	665845760	53	5662
2026-01-08 10:23:52.53	243.49	65.52	-41.5	-44.8	13.3	2.13e-05	0	58	0	667942912	53	5635
2026-01-08 10:23:53.53	244.61	65.62	-41.6	-44.9	13.3	1.60e-05	0	58	0	670040064	53	5673
2026-01-08 10:23:54.53	245.74	65.70	-41.6	-45.0	13.1	1.98e-05	0	58	0	672137216	53	5763
2026-01-08 10:23:55.53	246.89	65.78	-41.6	-45.0	13.1	1.90e-05	0	58	0	673185792	53	5778
2026-01-08 10:23:56.54	248.05	65.85	-41.8	-45.4	12.8	5.26e-05	0	58	0	675282944	54	5672
2026-01-08 10:23:57.54	249.20	65.91	-42.0	-45.7	12.4	1.05e-04	0	58	0	677380096	54	5906
2026-01-08 10:23:58.53	250.36	65.96	-42.1	-45.9	12.2	1.83e-04	0	58	0	679477248	54	6031
2026-01-08 10:23:59.53	251.52	66.01	-42.2	-46.2	11.9	3.36e-04	0	58	0	680525824	55	5889
2026-01-08 10:24:00.52	252.68	66.04	-41.9	-45.7	12.4	2.20e-04	0	58	0	682622976	55	5563
2026-01-08 10:24:01.51	253.85	66.07	-41.5	-44.7	13.4	4.95e-05	0	58	0	684720128	55	4957
2026-01-08 10:24:02.52	255.03	66.08	-41.3	-44.4	13.7	3.00e-06	0	58	0	686817280	54	5077
2026-01-08 10:24:03.52	256.21	66.09	-41.5	-44.9	13.3	5.30e-06	0	58	0	688914432	54	5356
2026-01-08 10:24:04.53	257.40	66.09	-41.8	-45.3	12.8	3.20e-05	0	58	0	689963008	54	5638
2026-01-08 10:24:05.54	258.59	66.08	-41.5	-44.9	13.3	5.41e-05	0	58	0	692060160	54	5343
2026-01-08 10:24:06.54	259.77	66.06	-41.2	-44.3	13.8	6.80e-06	0	58	0	694157312	54	5012
2026-01-08 10:24:07.54	260.94	66.03	-41.3	-44.4	13.8	4.50e-06	0	58	0	696254464	54	5056
2026-01-08 10:24:08.54	262.11	65.99	-41.3	-44.4	13.7	8.30e-06	0	58	0	698351616	54	5099
2026-01-08 10:24:09.55	263.29	65.94	-41.3	-44.5	13.6	1.29e-05	0	58	0	699400192	54	5109
2026-01-08 10:24:10.55	264.45	65.88	-41.1	-44.0	14.1	2.20e-06	0	58	0	701497344	54	4847
2026-01-08 10:24:11.56	265.61	65.82	-40.9	-43.8	14.3	3.00e-06	0	58	0	703594496	53	5015
2026-01-08 10:24:12.56	266.76	65.74	-41.4	-44.5	13.6	3.00e-06	0	58	0	705691648	53	5449
2026-01-08 10:24:13.57	267.90	65.66	-41.8	-45.4	12.7	2.74e-05	0	58	0	707788800	54	5698
2026-01-08 10:24:14.57	269.03	65.57	-41.1	-44.1	14.1	1.29e-05	0	58	0	708837376	54	4898
2026-01-08 10:24:15.58	270.16	65.47	-40.2	-42.7	15.4	0.00e+00	0	58	0	710934528	52	4681
2026-01-08 10:24:16.59	271.28	65.36	-40.3	-42.9	15.4	0.00e+00	0	58	0	713031680	52	4770
2026-01-08 10:24:17.59	272.38	65.24	-40.6	-43.2	14.9	0.00e+00	0	58	0	715128832	52	4980
2026-01-08 10:24:18.59	273.46	65.12	-41.1	-44.0	14.2	0.00e+00	0	58	0	717225984	52	5446
2026-01-08 10:24:19.59	274.54	64.99	-41.1	-44.1	14.0	5.30e-06	0	58	0	718274560	53	5203
2026-01-08 10:24:20.59	275.60	64.85	-40.8	-43.6	14.6	0.00e+00	0	58	0	720371712	53	4871
2026-01-08 10:24:21.59	276.64	64.70	-40.6	-43.3	14.8	0.00e+00	0	58	0	722468864	53	4743
2026-01-08 10:24:22.60	277.69	64.55	-40.9	-43.8	14.4	0.00e+00	0	58	0	724566016	53	4985
2026-01-08 10:24:23.61	278.71	64.39	-40.6	-43.2	15.0	0.00e+00	0	58	0	726663168	53	4679
2026-01-08 10:24:24.62	279.73	64.22	-40.0	-42.4	15.7	0.00e+00	0	58	0	727711744	52	4538
2026-01-08 10:24:25.63	280.73	64.04	-40.0	-42.4	15.9	0.00e+00	0	58	0	729808896	51	4796
2026-01-08 10:24:26.63	281.70	63.87	-39.9	-42.2	16.0	0.00e+00	0	58	0	731906048	51	4701
2026-01-08 10:24:27.63	282.66	63.68	-40.0	-42.4	15.9	0.00e+00	0	58	0	734003200	51	4775
2026-01-08 10:24:28.64	283.62	63.49	-39.8	-42.1	16.1	0.00e+00	0	58	0	735051776	51	4638
2026-01-08 10:24:29.65	284.55	63.29	-39.6	-41.8	16.5	0.00e+00	0	58	0	737148928	51	4457
2026-01-08 10:24:30.65	285.47	63.08	-39.5	-41.7	16.6	0.00e+00	0	58	0	739246080	50	4665
2026-01-08 10:24:31.65	286.36	62.87	-39.8	-42.0	16.2	0.00e+00	0	58	0	741343232	50	4868
2026-01-08 10:24:32.65	287.24	62.66	-39.6	-41.8	16.5	0.00e+00	0	58	0	743440384	50	4737
2026-01-08 10:24:33.66	288.12	62.44	-38.9	-40.8	17.4	0.00e+00	0	58	0	745537536	49	4475
2026-01-08 10:24:34.67	288.98	62.22	-38.6	-40.4	17.8	0.00e+00	0	58	0	746586112	49	4280
2026-01-08 10:24:35.67	289.81	61.99	-38.8	-40.8	17.5	0.00e+00	0	58	0	748683264	49	4454
2026-01-08 10:24:36.68	290.64	61.75	-39.2	-41.2	17.1	0.00e+00	0	58	0	750780416	49	4703
2026-01-08 10:24:37.68	291.44	61.52	-39.3	-41.4	16.9	0.00e+00	0	58	0	752877568	49	4777
2026-01-08 10:24:38.69	292.24	61.28	-39.1	-41.1	17.2	0.00e+00	0	58	0	753926144	49	4624
2026-01-08 10:24:39.70	293.02	61.03	-39.0	-41.0	17.3	0.00e+00	0	58	0	756023296	49	4566
2026-01-08 10:24:40.71	293.78	60.78	-39.2	-41.2	17.1	0.00e+00	0	58	0	758120448	49	4686
2026-01-08 10:24:41.71	294.53	60.53	-40.0	-42.4	15.9	0.00e+00	0	58	0	760217600	50	5063
2026-01-08 10:24:42.72	295.26	60.28	-40.7	-43.5	14.8	0.00e+00	0	58	0	762314752	52	5106
2026-01-08 10:24:43.73	295.98	60.02	-40.5	-43.2	15.0	0.00e+00	0	58	0	763363328	52	4931
2026-01-08 10:24:44.73	296.68	59.76	-40.2	-42.7	15.4	0.00e+00	0	58	0	765460480	52	4692
2026-01-08 10:24:45.74	297.38	59.49	-40.7	-43.4	14.8	0.00e+00	0	58	0	767557632	52	5062
2026-01-08 10:24:46.75	298.06	59.23	-41.0	-43.8	14.4	0.00e+00	0	58	0	769654784	52	5338
2026-01-08 10:24:47.76	298.72	58.96	-40.8	-43.6	14.6	0.00e+00	0	58	0	771751936	52	5160
2026-01-08 10:24:48.77	299.37	58.69	-40.9	-43.8	14.4	0.00e+00	0	58	0	773849088	52	5291
2026-01-08 10:24:49.78	300.01	58.41	-40.9	-43.8	14.3	7.00e-07	0	58	0	774897664	52	5294
2026-01-08 10:24:50.79	300.64	58.14	-40.6	-43.3	14.9	7.00e-07	0	58	0	776994816	52	5007
2026-01-08 10:24:51.79	301.24	57.86	-40.4	-43.0	15.2	0.00e+00	0	58	0	779091968	52	4851
2026-01-08 10:24:52.80	301.85	57.58	-40.5	-43.1	15.1	0.00e+00	0	58	0	781189120	52	4914
2026-01-08 10:24:53.81	302.43	57.30	-40.2	-42.7	15.5	0.00e+00	0	58	0	783286272	52	4660
2026-01-08 10:24:54.82	303.01	57.02	-39.4	-41.5	16.8	0.00e+00	0	58	0	784334848	50	4546
2026-01-08 10:24:55.83	303.57	56.74	-39.0	-41.1	17.2	0.00e+00	0	58	0	786432000	50	4372
2026-01-08 10:24:56.83	304.12	56.46	-39.0	-41.0	17.2	0.00e+00	0	58	0	788529152	49	4587
2026-01-08 10:24:57.84	304.66	56.17	-38.6	-40.5	17.8	0.00e+00	0	58	0	790626304	49	4300
2026-01-08 10:24:58.85	305.20	55.89	-38.0	-39.9	18.4	0.00e+00	0	58	0	791674880	48	4271
2026-01-08 10:24:59.86	305.72	55.60	-37.7	-40.0	18.2	0.00e+00	0	58	0	793772032	47	4571
2026-01-08 10:25:00.87	306.23	55.31	-37.7	-40.3	17.8	0.00e+00	0	59	0	795869184	47	4756
2026-01-08 10:25:01.88	306.73	55.02	-37.4	-39.9	18.3	0.00e+00	0	58	0	797966336	46	4766
2026-01-08 10:25:02.88	307.21	54.74	-37.6	-39.7	18.5	0.00e+00	0	59	0	800063488	46	4696
2026-01-08 10:25:03.89	307.69	54.45	-38.2	-40.4	17.7	0.00e+00	0	58	0	802160640	47	4789
2026-01-08 10:25:04.90	308.16	54.16	-38.6	-40.8	17.4	0.00e+00	0	58	0	803209216	47	5001
2026-01-08 10:25:05.90	308.62	53.87	-38.6	-40.6	17.5	0.00e+00	0	58	0	805306368	47	4923
2026-01-08 10:25:06.91	309.07	53.58	-38.6	-40.6	17.7	0.00e+00	0	58	0	807403520	47	4873
2026-01-08 10:25:07.92	309.51	53.29	-39.1	-41.1	17.2	0.00e+00	0	58	0	809500672	48	4905
2026-01-08 10:25:08.93	309.95	53.00	-39.3	-41.4	16.9	0.00e+00	0	58	0	811597824	49	4767
2026-01-08 10:25:09.94	310.38	52.71	-39.3	-41.3	17.0	0.00e+00	0	58	0	812646400	49	4748
2026-01-08 10:25:10.95	310.79	52.42	-39.2	-41.3	17.0	0.00e+00	0	58	0	814743552	49	4728
2026-01-08 10:25:11.96	311.20	52.13	-39.8	-42.0	16.3	0.00e+00	0	58	0	816840704	50	4865
2026-01-08 10:25:12.97	311.61	51.85	-40.6	-43.1	15.2	0.00e+00	0	58	0	818937856	51	5217
2026-01-08 10:25:13.98	312.00	51.56	-40.8	-43.6	14.6	0.00e+00	0	58	0	821035008	52	5162
2026-01-08 10:25:14.98	312.38	51.27	-40.8	-43.6	14.6	7.00e-07	0	58	0	822083584	52	5202
2026-01-08 10:25:15.99	312.76	50.98	-41.0	-43.9	14.3	7.00e-07	0	58	0	824180736	52	5358
2026-01-08 10:25:17.00	313.14	50.70	-41.3	-44.4	13.7	3.00e-06	0	58	0	826277888	53	5399
2026-01-08 10:25:18.01	313.50	50.41	-41.6	-44.9	13.3	1.44e-05	0	58	0	828375040	53	5684
2026-01-08 10:25:19.02	313.86	50.12	-41.6	-44.8	13.3	1.83e-05	0	58	0	830472192	53	5644
2026-01-08 10:25:20.02	314.21	49.84	-41.9	-45.3	12.8	2.59e-05	0	59	0	831520768	54	5654
2026-01-08 10:25:21.03	314.55	49.56	-42.4	-46.4	11.7	2.14e-04	0	58	0	833617920	55	6025
2026-01-08 10:25:22.04	314.89	49.27	-42.6	-47.0	11.1	1.16e-03	0	58	0	835715072	55	6471
2026-01-08 10:25:23.05	315.23	48.99	-42.4	-46.5	11.6	1.36e-03	0	58	0	837812224	55	6115
2026-01-08 10:25:24.06	315.55	48.71	-42.5	-46.7	11.4	6.90e-04	0	58	0	839909376	55	6258
2026-01-08 10:25:25.07	315.88	48.43	-43.0	-47.7	10.6	1.47e-03	0	59	0	840957952	56	6591
2026-01-08 10:25:26.07	316.19	48.15	-43.4	-48.6	9.6	9.96e-03	0	58	0	843055104	57	6926
2026-01-08 10:25:27.08	316.50	47.87	-43.4	-48.5	9.6	1.49e-02	0	58	0	845152256	57	6857
2026-01-08 10:25:28.09	316.80	47.59	-43.1	-47.9	10.3	8.61e-03	0	59	0	847249408	57	6349
2026-01-08 10:25:29.10	317.10	47.31	-43.2	-48.0	10.2	5.17e-03	0	58	0	849346560	57	6449
2026-01-08 10:25:30.10	317.39	47.04	-43.2	-48.1	10.1	6.68e-03	0	58	0	850395136	57	6523
2026-01-08 10:25:31.11	317.68	46.76	-43.0	-47.7	10.5	6.34e-03	0	58	0	852492288	57	6263
2026-01-08 10:25:32.12	317.97	46.49	-42.5	-46.6	11.6	1.14e-03	0	58	0	854589440	57	5487
2026-01-08 10:25:33.13	318.25	46.21	-42.1	-45.8	12.5	2.02e-04	0	58	0	856686592	56	5288
2026-01-08 10:25:34.14	318.52	45.94	-42.0	-45.5	12.8	6.86e-05	0	58	0	858783744	56	5134
2026-01-08 10:25:35.15	318.79	45.67	-42.1	-45.7	12.6	6.10e-05	0	59	0	859832320	56	5255
2026-01-08 10:25:36.16	319.06	45.40	-42.1	-45.7	12.6	1.55e-04	0	58	0	861929472	56	5232
2026-01-08 10:25:37.17	319.32	45.13	-41.5	-44.8	13.4	3.43e-05	0	58	0	864026624	55	4985
2026-01-08 10:25:38.18	319.57	44.86	-41.1	-44.1	14.1	3.80e-06	0	58	0	866123776	54	4881
2026-01-08 10:25:39.19	319.83	44.60	-40.9	-43.7	14.4	7.00e-07	0	58	0	868220928	53	4965
2026-01-08 10:25:40.20	320.08	44.33	-40.8	-43.5	14.6	7.00e-07	0	58	0	869269504	53	4867
2026-01-08 10:25:41.21	320.32	44.07	-40.5	-43.2	15.0	0.00e+00	0	58	0	871366656	53	4666
2026-01-08 10:25:42.21	320.56	43.81	-40.2	-42.6	15.5	0.00e+00	0	58	0	873463808	52	4651
2026-01-08 10:25:43.22	320.79	43.54	-40.0	-42.4	15.9	0.00e+00	0	58	0	875560960	51	4765
2026-01-08 10:25:44.23	321.03	43.28	-39.8	-42.1	16.2	0.00e+00	0	58	0	877658112	51	4600
2026-01-08 10:25:45.23	321.25	43.03	-40.2	-42.6	15.7	0.00e+00	0	58	0	878706688	51	4871
2026-01-08 10:25:46.24	321.48	42.77	-40.8	-43.6	14.6	0.00e+00	0	58	0	880803840	52	5197
2026-01-08 10:25:47.25	321.70	42.51	-41.5	-44.7	13.4	5.30e-06	0	58	0	882900992	53	5569
2026-01-08 10:25:48.26	321.92	42.26	-41.5	-44.8	13.3	2.82e-05	0	58	0	884998144	53	5606
2026-01-08 10:25:49.27	322.14	42.00	-40.7	-43.4	14.7	1.50e-06	0	58	0	887095296	53	4813
2026-01-08 10:25:50.28	322.35	41.75	-40.0	-42.4	15.8	0.00e+00	0	58	0	888143872	52	4516
2026-01-08 10:25:51.29	322.56	41.50	-39.7	-41.9	16.4	0.00e+00	0	58	0	890241024	51	4505
2026-01-08 10:25:52.30	322.76	41.25	-39.7	-41.9	16.4	0.00e+00	0	58	0	892338176	51	4505
2026-01-08 10:25:53.31	322.96	41.00	-40.1	-42.4	15.8	0.00e+00	0	58	0	894435328	51	4788
2026-01-08 10:25:54.31	323.16	40.76	-40.6	-43.3	15.0	0.00e+00	0	58	0	896532480	51	5287
2026-01-08 10:25:55.32	323.36	40.51	-41.1	-44.2	14.0	1.50e-06	0	58	0	898629632	52	5535
2026-01-08 10:25:56.33	323.55	40.27	-41.6	-44.9	13.2	1.90e-05	0	58	0	899678208	53	5714
2026-01-08 10:25:57.33	323.74	40.03	-41.7	-45.2	12.9	5.18e-05	0	58	0	901775360	54	5577
2026-01-08 10:25:58.34	323.93	39.78	-41.6	-45.0	13.2	2.74e-05	0	59	0	903872512	54	5432
2026-01-08 10:25:59.35	324.11	39.54	-41.2	-44.3	13.8	1.29e-05	0	58	0	905969664	54	5023
2026-01-08 10:26:00.35	324.29	39.31	-40.5	-43.1	15.1	7.00e-07	0	58	0	908066816	53	4620
2026-01-08 10:26:01.36	324.48	39.07	-39.9	-42.2	16.1	0.00e+00	0	58	0	909115392	51	4672
2026-01-08 10:26:02.37	324.65	38.83	-39.6	-41.8	16.4	0.00e+00	0	58	0	911212544	51	4484
2026-01-08 10:26:03.38	324.83	38.60	-39.7	-41.9	16.3	0.00e+00	0	58	0	913309696	51	4534
2026-01-08 10:26:04.39	325.00	38.36	-40.2	-42.7	15.6	0.00e+00	0	59	0	915406848	51	4948
2026-01-08 10:26:05.39	325.17	38.13	-40.9	-43.8	14.4	7.00e-07	0	58	0	916455424	52	5281
2026-01-08 10:26:06.40	325.34	37.90	-41.5	-44.8	13.3	3.80e-06	0	58	0	918552576	53	5642
2026-01-08 10:26:07.41	325.50	37.67	-41.6	-44.9	13.1	3.73e-05	0	58	0	920649728	53	5716
2026-01-08 10:26:08.42	325.67	37.44	-41.3	-44.5	13.6	9.10e-06	0	59	0	922746880	53	5459
2026-01-08 10:26:09.43	325.83	37.22	-40.7	-43.4	14.7	1.50e-06	0	59	0	924844032	53	4808
2026-01-08 10:26:10.44	325.99	36.99	-40.1	-42.6	15.6	0.00e+00	0	58	0	926941184	52	4601
2026-01-08 10:26:11.45	326.14	36.77	-39.9	-42.2	16.0	0.00e+00	0	58	0	927989760	51	4692
2026-01-08 10:26:12.46	326.30	36.54	-39.8	-42.1	16.2	0.00e+00	0	58	0	930086912	51	4609
2026-01-08 10:26:13.46	326.45	36.32	-40.1	-42.5	15.7	0.00e+00	0	58	0	932184064	51	4853
2026-01-08 10:26:14.47	326.60	36.10	-40.4	-42.9	15.4	0.00e+00	0	58	0	934281216	51	5060
2026-01-08 10:26:15.48	326.75	35.88	-40.8	-43.5	14.6	0.00e+00	0	58	0	936378368	52	5153
2026-01-08 10:26:16.49	326.89	35.67	-41.0	-44.0	14.1	1.50e-06	0	58	0	937426944	52	5414
2026-01-08 10:26:17.50	327.04	35.45	-41.3	-44.6	13.6	3.00e-06	0	58	0	939524096	53	5475
2026-01-08 10:26:18.50	327.18	35.24	-41.6	-45.0	13.1	2.05e-05	0	58	0	941621248	53	5759
2026-01-08 10:26:19.51	327.32	35.02	-41.5	-44.9	13.2	2.67e-05	0	59	0	943718400	53	5668
2026-01-08 10:26:20.52	327.46	34.81	-41.4	-44.6	13.4	1.67e-05	0	59	0	945815552	53	5523
2026-01-08 10:26:21.53	327.60	34.60	-41.1	-44.1	14.0	8.30e-06	0	58	0	946864128	53	5192
2026-01-08 10:26:22.54	327.74	34.39	-40.8	-43.7	14.5	0.00e+00	0	59	0	948961280	53	4942
2026-01-08 10:26:23.54	327.87	34.18	-40.7	-43.5	14.7	7.00e-07	0	59	0	951058432	53	4816
2026-01-08 10:26:24.55	328.00	33.97	-40.7	-43.4	14.7	7.00e-07	0	58	0	953155584	53	4776
2026-01-08 10:26:25.56	328.13	33.76	-40.5	-43.2	14.9	0.00e+00	0	58	0	955252736	53	4672
2026-01-08 10:26:26.57	328.26	33.56	-40.6	-43.3	14.8	0.00e+00	0	58	0	956301312	52	4998
2026-01-08 10:26:27.58	328.39	33.36	-40.9	-43.8	14.3	7.00e-07	0	59	0	958398464	52	5299
2026-01-08 10:26:28.58	328.52	33.15	-41.0	-44.0	14.0	1.50e-06	0	58	0	960495616	52	5452
2026-01-08 10:26:29.59	328.64	32.95	-41.2	-44.4	13.7	5.30e-06	0	58	0	962592768	53	5369
2026-01-08 10:26:30.60	328.76	32.75	-41.5	-44.9	13.2	1.22e-05	0	59	0	964689920	53	5658
2026-01-08 10:26:31.61	328.89	32.55	-41.5	-44.9	13.2	2.28e-05	0	58	0	965738496	53	5671
2026-01-08 10:26:32.61	329.00	32.36	-41.5	-44.9	13.1	3.12e-05	0	58	0	967835648	53	5689
2026-01-08 10:26:33.62	329.12	32.16	-41.6	-45.1	13.0	2.97e-05	0	58	0	969932800	53	5809
2026-01-08 10:26:34.63	329.24	31.96	-41.7	-45.3	12.8	6.63e-05	0	58	0	972029952	54	5609
2026-01-08 10:26:35.64	329.36	31.77	-41.9	-45.5	12.5	6.79e-05	0	58	0	974127104	54	5760
2026-01-08 10:26:36.65	329.47	31.58	-42.0	-45.8	12.2	1.29e-04	0	58	0	975175680	54	5942
2026-01-08 10:26:37.66	329.59	31.38	-42.1	-46.0	12.0	3.07e-04	0	58	0	977272832	54	6067
2026-01-08 10:26:38.66	329.70	31.19	-42.2	-46.3	11.7	4.49e-04	0	58	0	979369984	55	5935
2026-01-08 10:26:39.67	329.81	31.00	-42.3	-46.5	11.4	8.01e-04	0	59	0	981467136	55	6117
2026-01-08 10:26:40.68	329.92	30.81	-42.2	-46.3	11.6	9.28e-04	0	59	0	983564288	55	5951
2026-01-08 10:26:41.68	330.03	30.63	-42.2	-46.2	11.8	5.87e-04	0	59	0	984612864	55	5880
2026-01-08 10:26:42.69	330.13	30.44	-42.0	-45.9	12.1	3.36e-04	0	58	0	986710016	55	5681
2026-01-08 10:26:43.69	330.24	30.26	-41.9	-45.6	12.4	2.14e-04	0	59	0	988807168	55	5470
2026-01-08 10:26:44.70	330.34	30.07	-41.8	-45.4	12.6	1.03e-04	0	59	0	990904320	55	5359
2026-01-08 10:26:45.71	330.45	29.89	-41.7	-45.2	12.8	6.63e-05	0	58	0	993001472	55	5272
2026-01-08 10:26:46.72	330.55	29.71	-41.6	-45.0	13.0	3.28e-05	0	58	0	994050048	55	5112
2026-01-08 10:26:47.72	330.65	29.53	-41.5	-44.9	13.1	2.82e-05	0	58	0	996147200	55	5061
2026-01-08 10:26:48.73	330.75	29.35	-41.6	-45.0	13.0	3.43e-05	0	58	0	998244352	55	5130
2026-01-08 10:26:49.74	330.85	29.17	-41.5	-44.9	13.1	3.73e-05	0	58	0	1000341504	55	5071
2026-01-08 10:26:50.74	330.95	28.99	-41.6	-45.0	13.1	1.98e-05	0	59	0	1002438656	55	5105
2026-01-08 10:26:51.75	331.05	28.82	-41.5	-45.0	13.0	3.81e-05	0	58	0	1003487232	55	5101
2026-01-08 10:26:52.76	331.14	28.64	-41.5	-44.8	13.1	3.43e-05	0	58	0	1005584384	55	5040
2026-01-08 10:26:53.77	331.24	28.46	-41.6	-45.1	12.9	3.73e-05	0	59	0	1007681536	55	5165
2026-01-08 10:26:54.77	331.33	28.29	-41.6	-45.1	12.9	4.42e-05	0	58	0	1009778688	55	5195
2026-01-08 10:26:55.78	331.43	28.12	-41.6	-45.1	12.8	6.33e-05	0	58	0	1011875840	55	5216
2026-01-08 10:26:56.79	331.52	27.95	-41.6	-45.1	12.8	5.26e-05	0	58	0	1012924416	55	5193
2026-01-08 10:26:57.80	331.61	27.78	-41.6	-45.1	12.9	5.64e-05	0	58	0	1015021568	55	5195
2026-01-08 10:26:58.81	331.70	27.61	-41.6	-45.1	12.9	5.87e-05	0	58	0	1017118720	55	5200
2026-01-08 10:26:59.81	331.79	27.44	-41.6	-45.1	12.9	4.88e-05	0	58	0	1019215872	55	5164
2026-01-08 10:27:00.82	331.88	27.27	-41.5	-44.9	13.0	3.73e-05	0	59	0	1021313024	55	5096
2026-01-08 10:27:01.83	331.97	27.10	-41.4	-44.7	13.3	2.36e-05	0	59	0	1022361600	54	5222
2026-01-08 10:27:02.84	332.05	26.94	-41.3	-44.5	13.5	1.22e-05	0	58	0	1024458752	54	5135
2026-01-08 10:27:03.85	332.14	26.77	-41.2	-44.4	13.6	5.30e-06	0	58	0	1026555904	54	5088
2026-01-08 10:27:04.86	332.23	26.61	-41.1	-44.2	13.8	6.10e-06	0	58	0	1028653056	54	4935
2026-01-08 10:27:05.87	332.31	26.45	-41.0	-44.0	14.0	6.10e-06	0	58	0	1030750208	54	4852
2026-01-08 10:27:06.87	332.39	26.28	-40.9	-43.9	14.1	5.30e-06	0	58	0	1031798784	53	5051
2026-01-08 10:27:07.88	332.48	26.12	-40.8	-43.8	14.2	7.00e-07	0	58	0	1033895936	53	5005
2026-01-08 10:27:08.89	332.56	25.96	-40.8	-43.6	14.3	7.00e-07	0	58	0	1035993088	53	4920
2026-01-08 10:27:09.90	332.64	25.80	-40.7	-43.5	14.4	0.00e+00	0	58	0	1038090240	53	4846
2026-01-08 10:27:10.91	332.72	25.64	-40.7	-43.6	14.3	3.80e-06	0	58	0	1040187392	53	4920
2026-01-08 10:27:11.92	332.80	25.49	-40.7	-43.6	14.3	7.00e-07	0	58	0	1041235968	53	4913
2026-01-08 10:27:12.93	332.88	25.33	-40.8	-43.8	14.1	1.50e-06	0	58	0	1043333120	53	5013
2026-01-08 10:27:13.94	332.96	25.17	-40.9	-44.0	14.0	4.50e-06	0	58	0	1045430272	53	5111
2026-01-08 10:27:14.94	333.04	25.02	-41.0	-44.1	13.9	7.00e-07	0	58	0	1047527424	53	5179
2026-01-08 10:27:15.96	333.11	24.86	-41.1	-44.4	13.6	6.10e-06	0	58	0	1049624576	53	5341
2026-01-08 10:27:16.96	333.19	24.71	-41.1	-44.3	13.6	9.90e-06	0	58	0	1051721728	53	5324
2026-01-08 10:27:17.97	333.26	24.56	-41.1	-44.4	13.5	1.22e-05	0	58	0	1052770304	53	5357
2026-01-08 10:27:18.98	333.34	24.41	-41.2	-44.5	13.4	7.60e-06	0	58	0	1054867456	53	5412
2026-01-08 10:27:19.98	333.41	24.26	-41.2	-44.5	13.4	1.37e-05	0	58	0	1056964608	53	5464
2026-01-08 10:27:20.99	333.49	24.11	-41.0	-44.2	13.7	4.50e-06	0	58	0	1059061760	53	5246
2026-01-08 10:27:22.00	333.56	23.96	-40.9	-43.9	14.0	4.50e-06	0	58	0	1060110336	53	5062
2026-01-08 10:27:23.01	333.63	23.81	-40.7	-43.7	14.2	1.50e-06	0	59	0	1062207488	53	4955
2026-01-08 10:27:24.02	333.70	23.66	-40.6	-43.4	14.5	0.00e+00	0	58	0	1064304640	53	4801
2026-01-08 10:27:25.03	333.77	23.52	-40.5	-43.3	14.6	0.00e+00	0	58	0	1066401792	53	4751
2026-01-08 10:27:26.03	333.84	23.37	-40.5	-43.2	14.7	0.00e+00	0	58	0	1068498944	52	4958
2026-01-08 10:27:27.04	333.91	23.23	-40.4	-43.1	14.8	7.00e-07	0	58	0	1069547520	52	4882
2026-01-08 10:27:28.05	333.98	23.08	-40.4	-43.1	14.8	7.00e-07	0	58	0	1071644672	52	4917
2026-01-08 10:27:29.06	334.05	22.94	-40.4	-43.2	14.7	0.00e+00	0	58	0	1073741824	52	4935
2026-01-08 10:27:30.07	334.12	22.79	-40.2	-42.8	15.1	0.00e+00	0	58	0	1075838976	52	4750
2026-01-08 10:27:31.08	334.19	22.65	-40.1	-42.6	15.2	0.00e+00	0	58	0	1077936128	52	4650
2026-01-08 10:27:32.09	334.25	22.51	-40.0	-42.5	15.4	0.00e+00	0	58	0	1080033280	51	4854
2026-01-08 10:27:33.10	334.32	22.37	-40.0	-42.4	15.5	0.00e+00	0	58	0	1081081856	51	4794
2026-01-08 10:27:34.10	334.38	22.23	-39.9	-42.3	15.6	0.00e+00	0	58	0	1083179008	51	4759
2026-01-08 10:27:35.11	334.45	22.09	-40.0	-42.5	15.5	0.00e+00	0	58	0	1085276160	51	4820
2026-01-08 10:27:36.12	334.51	21.95	-40.1	-42.6	15.4	0.00e+00	0	59	0	1087373312	51	4894
2026-01-08 10:27:37.12	334.58	21.82	-40.1	-42.6	15.3	0.00e+00	0	59	0	1089470464	51	4888
2026-01-08 10:27:38.13	334.64	21.68	-40.2	-42.8	15.1	0.00e+00	0	59	0	1090519040	51	5009
2026-01-08 10:27:39.14	334.70	21.54	-40.1	-42.7	15.2	0.00e+00	0	59	0	1092616192	51	4981
2026-01-08 10:27:40.14	334.77	21.41	-40.3	-43.0	14.9	0.00e+00	0	59	0	1094713344	51	5109
2026-01-08 10:27:41.15	334.83	21.27	-40.3	-43.1	14.8	0.00e+00	0	58	0	1096810496	51	5185
2026-01-08 10:27:42.15	334.89	21.14	-40.4	-43.2	14.7	0.00e+00	0	59	0	1097859072	51	5253
2026-01-08 10:27:43.16	334.95	21.01	-40.4	-43.2	14.6	7.00e-07	0	58	0	1099956224	51	5247
2026-01-08 10:27:44.17	335.01	20.87	-40.4	-43.3	14.5	0.00e+00	0	59	0	1102053376	51	5283
2026-01-08 10:27:45.17	335.07	20.74	-40.4	-43.2	14.6	0.00e+00	0	59	0	1104150528	51	5260
2026-01-08 10:27:46.18	335.13	20.61	-40.5	-43.4	14.4	0.00e+00	0	58	0	1106247680	51	5345
2026-01-08 10:27:47.19	335.19	20.48	-40.5	-43.3	14.5	0.00e+00	0	59	0	1108344832	51	5316
2026-01-08 10:27:48.19	335.25	20.35	-40.4	-43.2	14.5	7.00e-07	0	58	0	1109393408	51	5274
2026-01-08 10:27:49.20	335.30	20.22	-40.4	-43.2	14.6	0.00e+00	0	58	0	1111490560	51	5258
2026-01-08 10:27:50.21	335.36	20.09	-40.3	-43.0	14.7	0.00e+00	0	58	0	1113587712	51	5157
2026-01-08 10:27:51.22	335.42	19.96	-40.3	-43.0	14.7	0.00e+00	0	58	0	1115684864	51	5151
2026-01-08 10:27:52.23	335.48	19.84	-40.3	-43.0	14.7	7.00e-07	0	59	0	1117782016	51	5137
2026-01-08 10:27:53.23	335.53	19.71	-40.2	-42.9	14.8	0.00e+00	0	58	0	1118830592	51	5067
2026-01-08 10:27:54.24	335.59	19.58	-40.1	-42.8	14.9	0.00e+00	0	58	0	1120927744	51	5023
2026-01-08 10:27:55.25	335.64	19.46	-40.1	-42.8	14.9	0.00e+00	0	59	0	1123024896	51	4991
2026-01-08 10:27:56.26	335.70	19.33	-40.2	-42.9	14.8	0.00e+00	0	58	0	1125122048	51	5051
2026-01-08 10:27:57.27	335.75	19.21	-40.2	-43.0	14.6	0.00e+00	0	58	0	1127219200	51	5113
2026-01-08 10:27:58.28	335.81	19.08	-40.2	-43.0	14.6	0.00e+00	0	58	0	1128267776	51	5129
2026-01-08 10:27:59.29	335.86	18.96	-40.1	-42.8	14.8	0.00e+00	0	58	0	1130364928	51	5030
2026-01-08 10:28:00.29	335.91	18.84	-39.9	-42.5	15.1	0.00e+00	0	58	0	1132462080	51	4852
2026-01-08 10:28:01.30	335.97	18.72	-39.9	-42.5	15.1	0.00e+00	0	58	0	1134559232	51	4821
2026-01-08 10:28:02.31	336.02	18.59	-39.9	-42.5	15.0	0.00e+00	0	59	0	1136656384	51	4868
2026-01-08 10:28:03.32	336.07	18.47	-39.9	-42.6	14.9	0.00e+00	0	58	0	1137704960	51	4908
2026-01-08 10:28:04.32	336.12	18.35	-39.9	-42.6	14.9	0.00e+00	0	59	0	1139802112	51	4906
2026-01-08 10:28:05.33	336.18	18.23	-40.1	-42.9	14.6	1.50e-06	0	59	0	1141899264	51	5064
2026-01-08 10:28:06.34	336.23	18.12	-40.1	-42.9	14.6	7.00e-07	0	58	0	1143996416	51	5061
2026-01-08 10:28:07.35	336.28	18.00	-40.2	-43.1	14.4	7.00e-07	0	59	0	1146093568	51	5171
2026-01-08 10:28:08.37	336.33	17.88	-40.2	-43.0	14.4	7.00e-07	0	58	0	1147142144	51	5141
2026-01-08 10:28:09.38	336.38	17.76	-40.2	-43.0	14.4	0.00e+00	0	59	0	1149239296	51	5147
2026-01-08 10:28:10.39	336.43	17.64	-40.2	-43.1	14.3	7.00e-07	0	58	0	1151336448	51	5175
2026-01-08 10:28:11.40	336.48	17.53	-40.2	-43.1	14.3	1.50e-06	0	58	0	1153433600	51	5188
2026-01-08 10:28:12.41	336.53	17.41	-40.1	-43.0	14.4	7.00e-07	0	58	0	1155530752	51	5114
2026-01-08 10:28:13.42	336.57	17.29	-40.1	-43.1	14.3	2.20e-06	0	58	0	1156579328	51	5163
2026-01-08 10:28:14.43	336.62	17.18	-40.3	-43.3	14.0	2.20e-06	0	58	0	1158676480	51	5332
2026-01-08 10:28:15.43	336.67	17.07	-40.4	-43.5	13.9	5.30e-06	0	59	0	1160773632	51	5412
2026-01-08 10:28:16.44	336.72	16.95	-40.5	-43.7	13.6	8.30e-06	0	59	0	1162870784	51	5545
2026-01-08 10:28:17.45	336.77	16.84	-40.6	-43.9	13.3	1.14e-05	0	58	0	1164967936	51	5682
2026-01-08 10:28:18.47	336.81	16.72	-40.5	-43.7	13.5	1.14e-05	0	59	0	1166016512	51	5590
2026-01-08 10:28:19.47	336.86	16.61	-40.6	-43.9	13.3	1.44e-05	0	59	0	1168113664	51	5713
2026-01-08 10:28:20.48	336.91	16.50	-40.5	-43.8	13.4	1.22e-05	0	59	0	1170210816	51	5596
2026-01-08 10:28:21.49	336.95	16.39	-40.5	-43.7	13.5	1.22e-05	0	59	0	1172307968	51	5546
2026-01-08 10:28:22.50	337.00	16.28	-40.4	-43.7	13.5	1.90e-05	0	59	0	1174405120	51	5547
2026-01-08 10:28:23.51	337.04	16.17	-40.3	-43.5	13.6	4.50e-06	0	59	0	1176502272	51	5449
2026-01-08 10:28:24.52	337.09	16.06	-40.3	-43.4	13.7	8.30e-06	0	59	0	1177550848	51	5387
2026-01-08 10:28:25.53	337.13	15.95	-40.3	-43.5	13.6	3.80e-06	0	59	0	1179648000	51	5421
2026-01-08 10:28:26.53	337.18	15.84	-40.3	-43.5	13.5	9.90e-06	0	58	0	1181745152	51	5446
