passes_logs/2026/01/08/R2.0S_Moscow/R2.0S_Moscow__20260108_000533_SUOMI_NPP_rec.log

#Pass ID: 20260108_000533_SUOMI NPP
#Satellite: SUOMI NPP
#Configuration: NPP
#almurnet v.1.7.20251203
#Start time: 2026-01-08 00:05:33

#Version: 2.2.20231116
#Station: R2.0S_Moscow
#Location: 37.707566 lon 55.798166 lat
#TLE: 1 37849U 11061A   26005.94084933  .00000134  00000+0  84554-4 0  9990
#TLE: 2 37849  98.7803 308.0679 0002567  79.1029 281.0436 14.19522657735426

#Time	Az	El	Level	Level2	SNR	BER	BlckErr	Temp	State	Recorded	gain1	gain2
2026-01-08 00:05:33.18	14.73	2.00	-43.5	-58.0	3.8	1.49e+00	0	48	0	0	59	18187
2026-01-08 00:05:34.17	14.72	2.06	-43.5	-58.0	3.8	1.49e+00	0	48	104	0	58	19246
2026-01-08 00:05:35.18	14.71	2.13	-43.5	-58.0	3.8	1.49e+00	0	48	104	0	58	19207
2026-01-08 00:05:36.20	14.70	2.19	-43.5	-58.0	3.8	1.49e+00	0	48	104	0	58	19238
2026-01-08 00:05:37.20	14.68	2.26	-43.5	-58.0	3.8	1.49e+00	0	48	104	0	58	19187
2026-01-08 00:05:38.21	14.67	2.32	-43.5	-58.0	3.8	1.49e+00	0	48	104	0	58	19229
2026-01-08 00:05:39.22	14.66	2.39	-43.5	-58.0	3.8	1.49e+00	0	48	104	0	58	19270
2026-01-08 00:05:40.23	14.65	2.45	-43.5	-58.0	3.8	1.49e+00	0	48	104	0	58	19231
2026-01-08 00:05:41.24	14.64	2.52	-43.5	-58.0	3.8	1.49e+00	0	48	104	0	58	19267
2026-01-08 00:05:42.25	14.62	2.58	-43.5	-58.0	3.8	1.49e+00	0	48	104	0	58	19230
2026-01-08 00:05:43.26	14.61	2.65	-43.5	-58.0	3.8	1.49e+00	0	48	104	0	58	19176
2026-01-08 00:05:44.27	14.60	2.71	-43.5	-57.9	3.8	1.49e+00	0	48	104	0	58	19160
2026-01-08 00:05:45.28	14.59	2.78	-43.5	-58.0	3.8	1.49e+00	0	48	104	0	58	19176
2026-01-08 00:05:46.29	14.58	2.85	-43.5	-58.0	3.8	1.49e+00	0	48	104	0	58	19199
2026-01-08 00:05:47.29	14.56	2.91	-43.5	-58.0	3.8	1.49e+00	0	48	104	0	58	19205
2026-01-08 00:05:48.30	14.55	2.98	-43.5	-57.9	3.8	1.49e+00	0	49	104	0	58	19165
2026-01-08 00:05:49.31	14.54	3.04	-43.5	-58.0	3.8	1.49e+00	0	49	104	0	58	19210
2026-01-08 00:05:50.32	14.53	3.11	-43.5	-58.0	3.8	1.49e+00	0	49	104	0	58	19204
2026-01-08 00:05:51.33	14.51	3.18	-43.5	-58.0	3.8	1.49e+00	0	49	104	0	58	19218
2026-01-08 00:05:52.34	14.50	3.24	-43.5	-58.0	3.8	1.49e+00	0	49	104	0	58	19168
2026-01-08 00:05:53.35	14.49	3.31	-43.5	-57.9	3.8	1.49e+00	0	49	104	0	58	19114
2026-01-08 00:05:54.36	14.48	3.38	-43.5	-57.9	3.8	1.49e+00	0	49	104	0	58	19162
2026-01-08 00:05:55.37	14.46	3.45	-43.5	-57.9	3.8	1.49e+00	0	49	104	0	58	19120
2026-01-08 00:05:56.38	14.45	3.51	-43.5	-57.9	3.8	1.49e+00	0	49	104	0	58	19120
2026-01-08 00:05:57.39	14.44	3.58	-43.5	-57.9	3.8	1.49e+00	0	49	104	0	58	19110
2026-01-08 00:05:58.40	14.42	3.65	-43.5	-57.9	3.8	1.49e+00	0	49	104	0	58	19147
2026-01-08 00:05:59.41	14.41	3.72	-43.5	-57.9	3.8	1.49e+00	0	49	104	0	58	19085
2026-01-08 00:06:00.42	14.40	3.79	-43.5	-58.0	3.8	1.49e+00	0	49	104	0	58	19189
2026-01-08 00:06:01.43	14.38	3.85	-43.5	-57.9	3.8	1.49e+00	0	49	104	0	58	19160
2026-01-08 00:06:02.44	14.37	3.92	-43.5	-57.9	3.8	1.49e+00	0	49	104	0	58	19123
2026-01-08 00:06:03.45	14.36	3.99	-43.5	-57.9	3.8	1.49e+00	0	49	104	0	58	19121
2026-01-08 00:06:04.45	14.34	4.06	-43.5	-57.9	3.8	1.49e+00	0	50	104	0	58	19106
2026-01-08 00:06:05.47	14.33	4.13	-43.5	-57.9	3.8	1.49e+00	0	49	104	0	58	18983
2026-01-08 00:06:06.48	14.31	4.20	-43.5	-57.9	3.8	1.49e+00	0	50	104	0	58	19054
2026-01-08 00:06:07.48	14.30	4.27	-43.5	-57.9	3.8	1.49e+00	0	50	104	0	58	19074
2026-01-08 00:06:08.49	14.29	4.34	-43.5	-57.9	3.8	1.49e+00	0	50	104	0	58	19076
2026-01-08 00:06:09.50	14.27	4.41	-43.5	-57.9	3.8	1.49e+00	0	50	104	0	58	18965
2026-01-08 00:06:10.51	14.26	4.48	-43.5	-57.8	3.8	1.49e+00	0	50	104	0	58	18932
2026-01-08 00:06:11.52	14.24	4.55	-43.5	-57.9	3.8	1.49e+00	0	50	104	0	58	19002
2026-01-08 00:06:12.54	14.23	4.62	-43.5	-57.8	3.8	1.49e+00	0	50	104	0	58	18777
2026-01-08 00:06:13.54	14.21	4.69	-43.5	-57.7	3.8	1.49e+00	0	50	104	0	58	18705
2026-01-08 00:06:14.56	14.20	4.76	-43.5	-57.7	3.8	1.49e+00	0	50	104	0	58	18610
2026-01-08 00:06:15.57	14.19	4.83	-43.5	-57.6	3.8	1.49e+00	0	50	104	0	58	18495
2026-01-08 00:06:16.58	14.17	4.90	-43.5	-57.6	3.8	1.49e+00	0	50	104	0	58	18335
2026-01-08 00:06:17.58	14.16	4.97	-43.5	-57.5	3.8	1.49e+00	0	50	104	0	58	18099
2026-01-08 00:06:18.59	14.14	5.04	-43.5	-57.3	3.8	1.49e+00	0	50	104	0	58	17818
2026-01-08 00:06:19.60	14.13	5.12	-43.5	-57.3	3.8	1.49e+00	0	50	104	0	58	17773
2026-01-08 00:06:20.61	14.11	5.19	-43.5	-57.3	3.8	1.49e+00	0	50	104	0	58	17764
2026-01-08 00:06:21.62	14.10	5.26	-43.4	-57.1	3.8	1.49e+00	0	50	104	0	58	17386
2026-01-08 00:06:22.63	14.08	5.33	-43.4	-56.9	3.8	1.49e+00	0	50	104	0	58	16951
2026-01-08 00:06:23.64	14.06	5.41	-43.4	-56.8	3.8	1.49e+00	0	51	104	0	58	16744
2026-01-08 00:06:24.65	14.05	5.48	-43.4	-56.7	3.8	1.49e+00	0	51	104	0	58	16638
2026-01-08 00:06:25.66	14.03	5.55	-43.4	-56.7	3.8	1.49e+00	0	51	104	0	58	16580
2026-01-08 00:06:26.67	14.02	5.62	-43.4	-56.5	3.8	1.49e+00	0	51	104	0	58	16299
2026-01-08 00:06:27.68	14.00	5.70	-43.4	-56.5	3.8	1.49e+00	0	51	104	0	58	16215
2026-01-08 00:06:28.69	13.99	5.77	-43.4	-56.5	3.8	1.49e+00	0	51	104	0	58	16273
2026-01-08 00:06:29.70	13.97	5.84	-43.4	-56.7	3.8	1.49e+00	0	51	104	0	58	16607
2026-01-08 00:06:30.71	13.95	5.92	-43.4	-56.9	3.8	1.49e+00	0	51	104	0	58	17080
2026-01-08 00:06:31.72	13.94	5.99	-43.4	-57.3	3.8	1.49e+00	0	51	104	0	58	17826
2026-01-08 00:06:32.73	13.92	6.07	-43.5	-57.5	3.8	1.49e+00	0	51	104	0	58	18194
2026-01-08 00:06:33.74	13.90	6.14	-43.5	-57.7	3.8	1.49e+00	0	51	104	0	58	18705
2026-01-08 00:06:34.75	13.89	6.22	-43.5	-57.9	3.8	1.49e+00	0	51	104	0	58	19163
2026-01-08 00:06:35.76	13.87	6.29	-43.5	-57.9	3.8	1.49e+00	0	51	104	0	58	19108
2026-01-08 00:06:36.77	13.85	6.37	-43.5	-57.7	3.8	1.49e+00	0	51	104	0	58	18524
2026-01-08 00:06:37.78	13.84	6.44	-43.4	-56.9	3.8	1.49e+00	0	51	104	0	58	16910
2026-01-08 00:06:38.79	13.82	6.52	-43.4	-55.9	3.8	1.49e+00	0	51	104	0	58	15095
2026-01-08 00:06:39.80	13.80	6.59	-43.3	-54.5	4.2	1.43e+00	0	51	0	0	58	12818
2026-01-08 00:06:40.81	13.79	6.67	-43.1	-53.0	4.7	1.10e+00	0	52	0	1048576	58	10891
2026-01-08 00:06:41.82	13.77	6.75	-42.9	-51.6	5.4	6.89e-01	0	51	0	2097152	57	9782
2026-01-08 00:06:42.83	13.75	6.82	-42.7	-50.5	6.2	3.16e-01	0	52	0	4194304	57	8616
2026-01-08 00:06:43.83	13.73	6.90	-42.4	-49.2	7.4	1.52e-01	0	52	0	6291456	56	7876
2026-01-08 00:06:44.84	13.72	6.97	-42.1	-48.3	8.3	7.78e-02	0	52	0	8388608	56	7055
2026-01-08 00:06:45.85	13.70	7.05	-41.7	-47.4	9.1	4.30e-02	0	52	0	10485760	55	6730
2026-01-08 00:06:46.86	13.68	7.13	-41.4	-46.6	9.9	1.27e-02	0	52	0	11534336	54	6503
2026-01-08 00:06:47.87	13.66	7.21	-41.3	-46.2	10.3	6.15e-03	0	52	0	13631488	54	6265
2026-01-08 00:06:48.87	13.64	7.28	-41.0	-45.6	10.9	3.58e-03	0	52	0	15728640	54	5792
2026-01-08 00:06:49.88	13.63	7.36	-40.8	-45.1	11.4	1.41e-03	0	52	0	17825792	53	5816
2026-01-08 00:06:50.89	13.61	7.44	-40.6	-44.8	11.7	9.18e-04	0	52	0	19922944	53	5635
2026-01-08 00:06:51.90	13.59	7.52	-40.4	-44.4	12.1	3.94e-04	0	52	0	20971520	52	5708
2026-01-08 00:06:52.90	13.57	7.60	-40.3	-44.2	12.3	1.69e-04	0	52	0	23068672	52	5549
2026-01-08 00:06:53.91	13.55	7.68	-40.5	-44.5	12.0	2.52e-04	0	52	0	25165824	52	5765
2026-01-08 00:06:54.92	13.53	7.76	-40.5	-44.5	12.1	3.15e-04	0	52	0	27262976	52	5730
2026-01-08 00:06:55.93	13.51	7.83	-40.6	-44.7	11.8	2.82e-04	0	52	0	29360128	52	5867
2026-01-08 00:06:56.94	13.50	7.91	-40.6	-44.8	11.7	4.75e-04	0	52	0	31457280	52	5978
2026-01-08 00:06:57.95	13.48	7.99	-40.8	-45.2	11.3	8.13e-04	0	52	0	32505856	52	6266
2026-01-08 00:06:58.95	13.46	8.07	-41.0	-45.5	11.0	1.36e-03	0	52	0	34603008	52	6466
2026-01-08 00:06:59.97	13.44	8.16	-41.0	-45.2	11.5	2.49e-04	0	52	0	36700160	52	6250
2026-01-08 00:07:00.98	13.42	8.24	-41.9	-47.6	9.1	1.86e-03	0	52	0	38797312	54	7300
2026-01-08 00:07:01.98	13.40	8.32	-42.0	-48.6	7.7	7.18e-03	0	52	0	40894464	54	8264
2026-01-08 00:07:03.00	13.38	8.40	-41.3	-46.2	10.4	2.22e-03	0	52	0	41943040	53	6632
2026-01-08 00:07:04.00	13.36	8.48	-43.1	-56.0	3.8	1.07e-01	0	52	104	44040192	56	17164
2026-01-08 00:07:05.01	13.34	8.56	-40.7	-44.8	11.7	6.77e-01	0	52	0	44040192	53	5636
2026-01-08 00:07:06.02	13.32	8.64	-40.6	-44.6	12.0	2.87e-04	0	52	0	46137344	53	5479
2026-01-08 00:07:07.03	13.30	8.73	-40.6	-44.6	11.9	4.40e-04	0	52	0	48234496	53	5519
2026-01-08 00:07:08.04	13.28	8.81	-40.6	-44.7	11.8	3.64e-04	0	52	0	50331648	53	5584
2026-01-08 00:07:09.05	13.26	8.89	-40.6	-44.6	11.9	3.66e-04	0	52	0	52428800	53	5527
2026-01-08 00:07:10.06	13.23	8.97	-40.5	-44.4	12.2	2.50e-04	0	52	0	53477376	52	5717
2026-01-08 00:07:11.06	13.21	9.06	-40.4	-44.4	12.3	2.28e-04	0	53	0	55574528	52	5661
2026-01-08 00:07:12.07	13.19	9.14	-40.5	-44.5	12.1	2.13e-04	0	53	0	57671680	52	5737
2026-01-08 00:07:13.07	13.17	9.22	-40.5	-44.4	12.1	2.27e-04	0	53	0	59768832	52	5721
2026-01-08 00:07:14.08	13.15	9.31	-40.5	-44.5	12.0	3.64e-04	0	53	0	61865984	52	5754
2026-01-08 00:07:15.09	13.13	9.39	-40.6	-44.6	11.9	4.84e-04	0	53	0	62914560	52	5844
2026-01-08 00:07:16.09	13.11	9.48	-40.5	-44.4	12.2	2.30e-04	0	53	0	65011712	52	5664
2026-01-08 00:07:17.10	13.08	9.56	-40.4	-44.3	12.4	1.46e-04	0	53	0	67108864	52	5596
2026-01-08 00:07:18.11	13.06	9.65	-40.3	-44.1	12.6	1.33e-04	0	53	0	69206016	52	5469
2026-01-08 00:07:19.12	13.04	9.73	-40.3	-44.0	12.7	9.61e-05	0	53	0	71303168	52	5412
2026-01-08 00:07:20.13	13.02	9.82	-40.4	-44.1	12.5	8.92e-05	0	53	0	72351744	52	5526
2026-01-08 00:07:21.14	13.00	9.90	-40.3	-44.1	12.5	1.10e-04	0	53	0	74448896	52	5471
2026-01-08 00:07:22.15	12.97	9.99	-40.3	-44.1	12.5	9.84e-05	0	53	0	76546048	52	5470
2026-01-08 00:07:23.16	12.95	10.08	-40.3	-44.1	12.6	1.04e-04	0	53	0	78643200	52	5470
2026-01-08 00:07:24.17	12.93	10.17	-40.2	-43.9	12.8	7.32e-05	0	53	0	80740352	52	5372
2026-01-08 00:07:25.17	12.90	10.25	-40.4	-44.2	12.5	1.05e-04	0	53	0	81788928	52	5545
2026-01-08 00:07:26.18	12.88	10.34	-40.2	-43.9	12.8	7.40e-05	0	53	0	83886080	52	5365
2026-01-08 00:07:27.19	12.86	10.43	-40.2	-43.8	12.9	6.79e-05	0	53	0	85983232	52	5318
2026-01-08 00:07:28.19	12.83	10.52	-40.2	-43.8	12.9	4.04e-05	0	53	0	88080384	52	5296
2026-01-08 00:07:29.20	12.81	10.60	-40.2	-43.7	13.0	4.65e-05	0	53	0	90177536	52	5254
2026-01-08 00:07:30.21	12.79	10.69	-40.1	-43.7	13.1	4.34e-05	0	53	0	91226112	52	5226
2026-01-08 00:07:31.22	12.76	10.78	-40.1	-43.5	13.2	4.65e-05	0	53	0	93323264	52	5155
2026-01-08 00:07:32.22	12.74	10.87	-40.1	-43.6	13.2	2.59e-05	0	53	0	95420416	52	5191
2026-01-08 00:07:33.23	12.71	10.96	-40.2	-43.8	13.0	2.59e-05	0	53	0	97517568	52	5309
2026-01-08 00:07:34.24	12.69	11.05	-40.2	-43.8	13.0	2.82e-05	0	53	0	99614720	52	5290
2026-01-08 00:07:35.25	12.66	11.14	-40.2	-43.7	13.1	3.43e-05	0	53	0	100663296	52	5268
2026-01-08 00:07:36.26	12.64	11.23	-40.1	-43.6	13.2	4.34e-05	0	53	0	102760448	52	5181
2026-01-08 00:07:37.27	12.61	11.32	-40.0	-43.4	13.4	1.67e-05	0	53	0	104857600	52	5091
2026-01-08 00:07:38.28	12.59	11.42	-40.0	-43.4	13.5	7.60e-06	0	53	0	106954752	52	5056
2026-01-08 00:07:39.29	12.56	11.51	-40.1	-43.4	13.5	9.90e-06	0	53	0	109051904	51	5381
2026-01-08 00:07:40.30	12.54	11.60	-40.1	-43.4	13.6	1.29e-05	0	53	0	110100480	51	5366
2026-01-08 00:07:41.31	12.51	11.69	-40.1	-43.5	13.4	8.30e-06	0	54	0	112197632	51	5434
2026-01-08 00:07:42.32	12.48	11.79	-40.0	-43.3	13.6	3.80e-06	0	53	0	114294784	51	5337
2026-01-08 00:07:43.33	12.46	11.88	-40.0	-43.2	13.8	5.30e-06	0	54	0	116391936	51	5251
2026-01-08 00:07:44.34	12.43	11.97	-39.9	-43.1	13.9	6.80e-06	0	54	0	118489088	51	5172
2026-01-08 00:07:45.35	12.40	12.07	-39.9	-43.0	14.0	5.30e-06	0	53	0	120586240	51	5141
2026-01-08 00:07:46.36	12.38	12.16	-39.9	-43.1	14.0	4.50e-06	0	54	0	121634816	51	5187
2026-01-08 00:07:47.37	12.35	12.26	-40.0	-43.1	14.0	6.10e-06	0	54	0	123731968	51	5208
2026-01-08 00:07:48.37	12.32	12.35	-39.9	-43.1	14.1	1.50e-06	0	54	0	125829120	51	5160
2026-01-08 00:07:49.38	12.30	12.45	-39.9	-43.0	14.1	3.00e-06	0	54	0	127926272	51	5155
2026-01-08 00:07:50.39	12.27	12.54	-39.9	-43.0	14.2	7.00e-07	0	54	0	130023424	51	5126
2026-01-08 00:07:51.40	12.24	12.64	-39.9	-42.9	14.3	2.20e-06	0	54	0	131072000	51	5072
2026-01-08 00:07:52.41	12.21	12.73	-39.9	-42.9	14.4	7.00e-07	0	54	0	133169152	51	5046
2026-01-08 00:07:53.42	12.18	12.83	-39.9	-42.8	14.5	7.00e-07	0	54	0	135266304	51	5028
2026-01-08 00:07:54.42	12.15	12.93	-39.9	-42.9	14.5	7.00e-07	0	54	0	137363456	51	5053
2026-01-08 00:07:55.43	12.13	13.03	-39.8	-42.7	14.7	0.00e+00	0	54	0	139460608	51	4951
2026-01-08 00:07:56.44	12.10	13.12	-39.8	-42.6	14.8	0.00e+00	0	54	0	140509184	51	4911
2026-01-08 00:07:57.45	12.07	13.22	-39.8	-42.7	14.7	0.00e+00	0	54	0	142606336	51	4945
2026-01-08 00:07:58.46	12.04	13.32	-39.7	-42.5	14.9	0.00e+00	0	54	0	144703488	51	4863
2026-01-08 00:07:59.46	12.01	13.42	-39.7	-42.5	14.9	0.00e+00	0	54	0	146800640	51	4863
2026-01-08 00:08:00.47	11.98	13.52	-39.8	-42.6	14.9	7.00e-07	0	54	0	148897792	51	4892
2026-01-08 00:08:01.48	11.95	13.62	-39.7	-42.5	15.0	0.00e+00	0	54	0	149946368	51	4830
2026-01-08 00:08:02.49	11.92	13.72	-39.6	-42.4	15.0	0.00e+00	0	54	0	152043520	51	4797
2026-01-08 00:08:03.50	11.89	13.82	-39.7	-42.4	15.0	0.00e+00	0	54	0	154140672	51	4803
2026-01-08 00:08:04.51	11.86	13.92	-39.6	-42.3	15.1	0.00e+00	0	54	0	156237824	51	4750
2026-01-08 00:08:05.51	11.83	14.02	-39.6	-42.3	15.2	0.00e+00	0	54	0	158334976	51	4713
2026-01-08 00:08:06.52	11.79	14.12	-39.6	-42.3	15.1	0.00e+00	0	54	0	159383552	51	4750
2026-01-08 00:08:07.53	11.76	14.23	-39.6	-42.3	15.1	0.00e+00	0	54	0	161480704	51	4757
2026-01-08 00:08:08.54	11.73	14.33	-39.6	-42.3	15.2	0.00e+00	0	54	0	163577856	51	4708
2026-01-08 00:08:09.55	11.70	14.43	-39.5	-42.2	15.2	0.00e+00	0	54	0	165675008	51	4695
2026-01-08 00:08:10.56	11.67	14.54	-39.5	-42.1	15.4	0.00e+00	0	54	0	167772160	50	4913
2026-01-08 00:08:11.57	11.63	14.64	-39.5	-42.1	15.4	0.00e+00	0	54	0	168820736	50	4877
2026-01-08 00:08:12.58	11.60	14.75	-39.4	-42.0	15.5	0.00e+00	0	54	0	170917888	50	4845
2026-01-08 00:08:13.58	11.57	14.85	-39.3	-41.8	15.7	0.00e+00	0	54	0	173015040	50	4736
2026-01-08 00:08:14.59	11.53	14.96	-39.3	-41.9	15.7	0.00e+00	0	54	0	175112192	50	4775
2026-01-08 00:08:15.60	11.50	15.06	-39.3	-41.8	15.8	0.00e+00	0	54	0	177209344	50	4714
2026-01-08 00:08:16.61	11.47	15.17	-39.2	-41.6	16.0	0.00e+00	0	54	0	178257920	50	4622
2026-01-08 00:08:17.62	11.43	15.28	-39.2	-41.6	16.0	0.00e+00	0	54	0	180355072	50	4620
2026-01-08 00:08:18.63	11.40	15.38	-39.1	-41.5	16.1	0.00e+00	0	54	0	182452224	50	4588
2026-01-08 00:08:19.64	11.36	15.49	-39.1	-41.4	16.2	0.00e+00	0	54	0	184549376	50	4538
2026-01-08 00:08:20.65	11.33	15.60	-39.0	-41.4	16.3	0.00e+00	0	54	0	186646528	50	4514
2026-01-08 00:08:21.66	11.29	15.71	-39.0	-41.4	16.3	0.00e+00	0	55	0	187695104	50	4516
2026-01-08 00:08:22.67	11.26	15.82	-39.0	-41.4	16.3	0.00e+00	0	54	0	189792256	49	4766
2026-01-08 00:08:23.68	11.22	15.93	-38.9	-41.2	16.4	0.00e+00	0	54	0	191889408	49	4698
2026-01-08 00:08:24.68	11.19	16.04	-39.0	-41.3	16.4	0.00e+00	0	54	0	193986560	49	4709
2026-01-08 00:08:25.69	11.15	16.15	-38.9	-41.2	16.4	0.00e+00	0	54	0	196083712	49	4703
2026-01-08 00:08:26.70	11.11	16.26	-38.9	-41.2	16.5	0.00e+00	0	54	0	197132288	49	4661
2026-01-08 00:08:27.71	11.08	16.37	-38.9	-41.2	16.5	0.00e+00	0	54	0	199229440	49	4666
2026-01-08 00:08:28.71	11.04	16.48	-38.9	-41.2	16.5	0.00e+00	0	54	0	201326592	49	4670
2026-01-08 00:08:29.72	11.00	16.60	-38.9	-41.2	16.6	0.00e+00	0	55	0	203423744	49	4660
2026-01-08 00:08:30.73	10.96	16.71	-38.9	-41.2	16.5	0.00e+00	0	55	0	205520896	49	4683
2026-01-08 00:08:31.74	10.92	16.82	-39.0	-41.2	16.5	0.00e+00	0	55	0	207618048	49	4696
2026-01-08 00:08:32.74	10.89	16.94	-39.0	-41.2	16.5	0.00e+00	0	55	0	208666624	49	4696
2026-01-08 00:08:33.75	10.85	17.05	-38.9	-41.2	16.6	0.00e+00	0	54	0	210763776	49	4657
2026-01-08 00:08:34.76	10.81	17.17	-38.9	-41.2	16.6	0.00e+00	0	54	0	212860928	49	4671
2026-01-08 00:08:35.76	10.77	17.28	-39.0	-41.3	16.5	0.00e+00	0	54	0	214958080	49	4709
2026-01-08 00:08:36.77	10.73	17.40	-39.1	-41.4	16.4	0.00e+00	0	55	0	217055232	49	4809
2026-01-08 00:08:37.78	10.69	17.51	-39.1	-41.4	16.4	0.00e+00	0	55	0	218103808	49	4792
2026-01-08 00:08:38.79	10.65	17.63	-39.1	-41.4	16.4	0.00e+00	0	55	0	220200960	49	4782
2026-01-08 00:08:39.80	10.61	17.75	-39.1	-41.4	16.4	0.00e+00	0	55	0	222298112	49	4779
2026-01-08 00:08:40.81	10.56	17.87	-39.1	-41.4	16.5	0.00e+00	0	55	0	224395264	49	4767
2026-01-08 00:08:41.82	10.52	17.99	-39.2	-41.5	16.3	0.00e+00	0	55	0	226492416	49	4842
2026-01-08 00:08:42.83	10.48	18.11	-39.2	-41.5	16.3	0.00e+00	0	55	0	227540992	49	4838
2026-01-08 00:08:43.83	10.44	18.23	-39.2	-41.5	16.3	0.00e+00	0	55	0	229638144	49	4856
2026-01-08 00:08:44.84	10.40	18.35	-39.2	-41.6	16.3	0.00e+00	0	55	0	231735296	49	4881
2026-01-08 00:08:45.85	10.35	18.47	-39.2	-41.5	16.4	0.00e+00	0	55	0	233832448	49	4818
2026-01-08 00:08:46.86	10.31	18.59	-39.2	-41.5	16.4	0.00e+00	0	55	0	235929600	49	4838
2026-01-08 00:08:47.87	10.27	18.71	-39.1	-41.3	16.6	0.00e+00	0	55	0	236978176	49	4734
2026-01-08 00:08:48.88	10.22	18.84	-39.1	-41.4	16.5	0.00e+00	0	55	0	239075328	49	4779
2026-01-08 00:08:49.88	10.18	18.96	-39.2	-41.5	16.4	0.00e+00	0	55	0	241172480	49	4846
2026-01-08 00:08:50.89	10.13	19.08	-39.2	-41.4	16.5	0.00e+00	0	55	0	243269632	49	4805
2026-01-08 00:08:51.90	10.09	19.21	-39.2	-41.4	16.5	0.00e+00	0	55	0	245366784	49	4812
2026-01-08 00:08:52.91	10.04	19.33	-39.2	-41.5	16.4	0.00e+00	0	55	0	246415360	49	4859
2026-01-08 00:08:53.92	9.99	19.46	-39.1	-41.4	16.5	0.00e+00	0	55	0	248512512	49	4786
2026-01-08 00:08:54.93	9.95	19.59	-39.2	-41.4	16.5	0.00e+00	0	55	0	250609664	49	4813
2026-01-08 00:08:55.93	9.90	19.71	-39.2	-41.4	16.5	0.00e+00	0	55	0	252706816	49	4794
2026-01-08 00:08:56.94	9.85	19.84	-39.2	-41.4	16.5	0.00e+00	0	55	0	254803968	49	4812
2026-01-08 00:08:57.95	9.80	19.97	-39.1	-41.4	16.6	0.00e+00	0	55	0	255852544	49	4770
2026-01-08 00:08:58.96	9.76	20.10	-39.1	-41.3	16.6	0.00e+00	0	55	0	257949696	49	4743
2026-01-08 00:08:59.97	9.71	20.23	-39.1	-41.3	16.7	0.00e+00	0	55	0	260046848	49	4710
2026-01-08 00:09:00.98	9.66	20.36	-39.0	-41.2	16.7	0.00e+00	0	55	0	262144000	49	4684
2026-01-08 00:09:01.99	9.61	20.49	-39.0	-41.2	16.8	0.00e+00	0	55	0	264241152	49	4663
2026-01-08 00:09:03.00	9.56	20.62	-39.0	-41.2	16.8	0.00e+00	0	55	0	265289728	49	4658
2026-01-08 00:09:04.00	9.51	20.76	-38.9	-41.0	17.0	0.00e+00	0	55	0	267386880	49	4577
2026-01-08 00:09:05.01	9.46	20.89	-38.9	-41.0	16.9	0.00e+00	0	55	0	269484032	49	4592
2026-01-08 00:09:06.02	9.40	21.02	-38.9	-41.0	16.9	0.00e+00	0	55	0	271581184	49	4595
2026-01-08 00:09:07.03	9.35	21.16	-38.9	-41.0	16.9	0.00e+00	0	55	0	273678336	49	4587
2026-01-08 00:09:08.04	9.30	21.29	-38.9	-41.0	17.0	0.00e+00	0	55	0	274726912	49	4590
2026-01-08 00:09:09.04	9.25	21.43	-38.8	-40.9	17.0	0.00e+00	0	55	0	276824064	49	4540
2026-01-08 00:09:10.05	9.19	21.57	-39.0	-41.1	16.9	0.00e+00	0	55	0	278921216	49	4635
2026-01-08 00:09:11.06	9.14	21.70	-38.9	-41.1	16.9	0.00e+00	0	55	0	281018368	49	4619
2026-01-08 00:09:12.07	9.08	21.84	-38.9	-41.1	16.9	0.00e+00	0	55	0	283115520	49	4602
2026-01-08 00:09:13.08	9.03	21.98	-39.1	-41.3	16.7	0.00e+00	0	55	0	284164096	49	4707
2026-01-08 00:09:14.09	8.97	22.12	-39.1	-41.3	16.7	0.00e+00	0	55	0	286261248	49	4727
2026-01-08 00:09:15.10	8.92	22.26	-39.2	-41.4	16.6	0.00e+00	0	55	0	288358400	49	4807
2026-01-08 00:09:16.11	8.86	22.40	-39.2	-41.4	16.6	0.00e+00	0	55	0	290455552	49	4800
2026-01-08 00:09:17.11	8.80	22.54	-39.1	-41.3	16.7	0.00e+00	0	55	0	292552704	49	4749
2026-01-08 00:09:18.13	8.74	22.69	-39.2	-41.5	16.5	0.00e+00	0	55	0	293601280	49	4820
2026-01-08 00:09:19.13	8.69	22.83	-39.3	-41.6	16.4	0.00e+00	0	55	0	295698432	49	4884
2026-01-08 00:09:20.14	8.63	22.98	-39.1	-41.3	16.8	0.00e+00	0	55	0	297795584	49	4714
2026-01-08 00:09:21.15	8.57	23.12	-39.1	-41.4	16.6	0.00e+00	0	55	0	299892736	49	4781
2026-01-08 00:09:22.16	8.51	23.27	-39.1	-41.3	16.7	0.00e+00	0	55	0	301989888	49	4716
2026-01-08 00:09:23.17	8.45	23.41	-39.0	-41.2	16.8	0.00e+00	0	55	0	304087040	49	4666
2026-01-08 00:09:24.18	8.38	23.56	-38.9	-41.0	17.0	0.00e+00	0	55	0	305135616	49	4574
2026-01-08 00:09:25.19	8.32	23.71	-38.7	-40.7	17.3	0.00e+00	0	55	0	307232768	49	4421
2026-01-08 00:09:26.20	8.26	23.86	-38.8	-40.9	17.1	0.00e+00	0	55	0	309329920	49	4502
2026-01-08 00:09:27.21	8.20	24.01	-38.8	-40.9	17.1	0.00e+00	0	55	0	311427072	49	4503
2026-01-08 00:09:28.22	8.13	24.16	-38.9	-41.0	17.0	0.00e+00	0	55	0	313524224	49	4559
2026-01-08 00:09:29.22	8.07	24.31	-39.1	-41.3	16.7	0.00e+00	0	55	0	314572800	49	4710
2026-01-08 00:09:30.23	8.00	24.46	-39.1	-41.4	16.7	0.00e+00	0	55	0	316669952	49	4770
2026-01-08 00:09:31.24	7.94	24.62	-39.3	-41.6	16.5	0.00e+00	0	55	0	318767104	49	4898
2026-01-08 00:09:32.25	7.87	24.77	-39.5	-41.9	16.2	0.00e+00	0	55	0	320864256	49	5050
2026-01-08 00:09:33.26	7.80	24.92	-39.3	-41.6	16.4	0.00e+00	0	55	0	321912832	49	4911
2026-01-08 00:09:34.27	7.73	25.08	-39.9	-42.4	15.7	0.00e+00	0	55	0	324009984	50	5062
2026-01-08 00:09:35.28	7.67	25.24	-40.0	-42.6	15.5	0.00e+00	0	55	0	326107136	50	5190
2026-01-08 00:09:36.29	7.60	25.40	-40.1	-42.8	15.4	0.00e+00	0	55	0	328204288	50	5298
2026-01-08 00:09:37.30	7.53	25.55	-40.1	-42.8	15.3	0.00e+00	0	55	0	330301440	50	5315
2026-01-08 00:09:38.31	7.45	25.71	-40.1	-42.7	15.4	0.00e+00	0	55	0	332398592	51	4960
2026-01-08 00:09:39.32	7.38	25.87	-40.1	-42.7	15.4	0.00e+00	0	56	0	333447168	51	4933
2026-01-08 00:09:40.32	7.31	26.03	-40.1	-42.7	15.4	0.00e+00	0	56	0	335544320	51	4946
2026-01-08 00:09:41.33	7.24	26.20	-39.9	-42.3	15.7	0.00e+00	0	55	0	337641472	51	4749
2026-01-08 00:09:42.34	7.16	26.36	-40.1	-42.7	15.5	0.00e+00	0	55	0	339738624	51	4947
2026-01-08 00:09:43.35	7.09	26.52	-40.2	-42.9	15.2	0.00e+00	0	56	0	341835776	51	5064
2026-01-08 00:09:44.36	7.01	26.69	-40.4	-43.1	15.0	0.00e+00	0	56	0	342884352	51	5198
2026-01-08 00:09:45.37	6.94	26.85	-40.3	-43.0	15.2	0.00e+00	0	56	0	344981504	51	5126
2026-01-08 00:09:46.37	6.86	27.02	-40.3	-43.0	15.2	0.00e+00	0	56	0	347078656	51	5104
2026-01-08 00:09:47.38	6.78	27.19	-40.5	-43.4	14.7	7.00e-07	0	55	0	349175808	51	5384
2026-01-08 00:09:48.39	6.70	27.36	-40.7	-43.7	14.5	0.00e+00	0	55	0	351272960	51	5553
2026-01-08 00:09:49.40	6.62	27.53	-40.4	-43.3	14.8	0.00e+00	0	56	0	352321536	52	5014
2026-01-08 00:09:50.40	6.54	27.70	-40.6	-43.6	14.4	0.00e+00	0	56	0	354418688	52	5187
2026-01-08 00:09:51.41	6.46	27.87	-40.7	-43.8	14.3	7.00e-07	0	56	0	356515840	52	5281
2026-01-08 00:09:52.42	6.38	28.04	-40.6	-43.6	14.5	0.00e+00	0	56	0	358612992	52	5165
2026-01-08 00:09:53.43	6.29	28.22	-40.5	-43.4	14.7	0.00e+00	0	56	0	360710144	52	5062
2026-01-08 00:09:54.44	6.21	28.39	-40.3	-43.0	15.0	0.00e+00	0	56	0	361758720	52	4865
2026-01-08 00:09:55.45	6.12	28.57	-40.3	-43.1	14.9	0.00e+00	0	56	0	363855872	52	4917
2026-01-08 00:09:56.46	6.04	28.74	-40.4	-43.2	14.9	0.00e+00	0	56	0	365953024	52	4967
2026-01-08 00:09:57.47	5.95	28.92	-40.2	-43.0	15.1	0.00e+00	0	55	0	368050176	52	4822
2026-01-08 00:09:58.48	5.86	29.10	-40.3	-43.0	15.1	7.00e-07	0	56	0	370147328	52	4852
2026-01-08 00:09:59.49	5.77	29.28	-40.3	-43.1	14.9	0.00e+00	0	56	0	371195904	52	4874
2026-01-08 00:10:00.49	5.68	29.46	-40.5	-43.4	14.7	0.00e+00	0	56	0	373293056	52	5056
2026-01-08 00:10:01.50	5.59	29.64	-40.7	-43.8	14.4	1.50e-06	0	56	0	375390208	52	5284
2026-01-08 00:10:02.51	5.50	29.83	-40.9	-44.1	14.0	2.20e-06	0	56	0	377487360	52	5495
2026-01-08 00:10:03.52	5.40	30.01	-41.1	-44.4	13.8	6.80e-06	0	56	0	379584512	52	5660
2026-01-08 00:10:04.53	5.31	30.20	-41.1	-44.5	13.6	4.50e-06	0	56	0	380633088	52	5723
2026-01-08 00:10:05.54	5.21	30.38	-41.2	-44.7	13.4	1.06e-05	0	56	0	382730240	53	5539
2026-01-08 00:10:06.55	5.11	30.57	-41.3	-44.9	13.2	1.37e-05	0	56	0	384827392	53	5675
2026-01-08 00:10:07.56	5.01	30.76	-41.3	-44.8	13.4	1.14e-05	0	56	0	386924544	53	5623
2026-01-08 00:10:08.57	4.91	30.95	-41.2	-44.7	13.4	7.60e-06	0	56	0	389021696	53	5567
2026-01-08 00:10:09.58	4.81	31.14	-41.2	-44.6	13.5	6.80e-06	0	56	0	390070272	53	5500
2026-01-08 00:10:10.59	4.71	31.34	-41.1	-44.3	13.8	1.22e-05	0	56	0	392167424	53	5314
2026-01-08 00:10:11.60	4.61	31.53	-41.2	-44.5	13.6	2.20e-06	0	56	0	394264576	53	5464
2026-01-08 00:10:12.60	4.50	31.72	-41.4	-45.0	13.1	2.89e-05	0	56	0	396361728	53	5772
2026-01-08 00:10:13.61	4.40	31.92	-41.6	-45.2	12.9	5.72e-05	0	56	0	398458880	53	5898
2026-01-08 00:10:14.62	4.29	32.12	-41.8	-45.6	12.5	5.56e-05	0	56	0	400556032	54	5834
2026-01-08 00:10:15.63	4.18	32.32	-41.9	-46.0	12.1	2.32e-04	0	56	0	401604608	54	6080
2026-01-08 00:10:16.64	4.07	32.52	-42.0	-46.0	12.1	2.25e-04	0	56	0	403701760	54	6126
2026-01-08 00:10:17.65	3.96	32.72	-41.9	-46.0	12.0	2.38e-04	0	56	0	405798912	54	6102
2026-01-08 00:10:18.66	3.84	32.92	-41.8	-45.9	12.1	6.58e-04	0	56	0	407896064	55	5662
2026-01-08 00:10:19.67	3.73	33.12	-41.9	-45.9	12.1	2.26e-04	0	56	0	409993216	55	5708
2026-01-08 00:10:20.68	3.61	33.33	-41.7	-45.7	12.1	1.82e-04	0	56	0	411041792	55	5549
2026-01-08 00:10:21.69	3.50	33.53	-41.7	-45.7	12.3	2.61e-04	0	56	0	413138944	55	5571
2026-01-08 00:10:22.70	3.38	33.74	-41.8	-45.9	12.1	2.39e-04	0	56	0	415236096	55	5678
2026-01-08 00:10:23.71	3.26	33.95	-42.1	-46.5	11.4	3.15e-04	0	56	0	417333248	55	6124
2026-01-08 00:10:24.72	3.13	34.16	-42.1	-46.4	11.8	4.09e-04	0	56	0	419430400	55	5996
2026-01-08 00:10:25.73	3.01	34.37	-42.0	-46.1	11.9	3.61e-04	0	56	0	420478976	55	5850
2026-01-08 00:10:26.73	2.89	34.58	-41.9	-45.9	12.2	4.84e-04	0	56	0	422576128	55	5706
2026-01-08 00:10:27.74	2.76	34.79	-41.7	-45.5	12.6	1.87e-04	0	56	0	424673280	55	5420
2026-01-08 00:10:28.75	2.63	35.01	-41.6	-45.3	12.8	3.81e-05	0	56	0	426770432	54	5656
2026-01-08 00:10:29.76	2.50	35.22	-41.2	-44.7	13.4	2.21e-05	0	56	0	428867584	54	5249
2026-01-08 00:10:30.76	2.37	35.44	-41.4	-44.9	13.1	1.90e-05	0	56	0	429916160	54	5375
2026-01-08 00:10:31.77	2.23	35.66	-41.5	-45.1	13.0	5.41e-05	0	56	0	432013312	54	5482
2026-01-08 00:10:32.78	2.10	35.88	-41.9	-45.9	12.2	6.86e-05	0	56	0	434110464	54	6005
2026-01-08 00:10:33.79	1.96	36.10	-42.2	-46.6	11.6	3.04e-04	0	56	0	436207616	54	6554
2026-01-08 00:10:34.80	1.82	36.32	-42.5	-47.3	10.9	9.40e-04	0	56	0	438304768	55	6681
2026-01-08 00:10:35.81	1.68	36.55	-42.6	-47.7	10.5	4.05e-03	0	56	0	439353344	55	6980
2026-01-08 00:10:36.82	1.53	36.77	-42.9	-48.2	9.9	9.57e-03	0	56	0	441450496	56	6968
2026-01-08 00:10:37.83	1.38	37.00	-42.8	-47.9	10.3	3.70e-03	0	56	0	443547648	56	6786
2026-01-08 00:10:38.83	1.24	37.23	-42.7	-47.7	10.5	4.77e-03	0	56	0	445644800	56	6619
2026-01-08 00:10:39.84	1.09	37.46	-42.1	-46.3	11.9	2.44e-03	0	56	0	447741952	56	5642
2026-01-08 00:10:40.85	0.93	37.69	-42.1	-46.5	11.5	6.26e-04	0	56	0	448790528	55	6093
2026-01-08 00:10:41.86	0.78	37.92	-41.9	-46.1	12.0	3.10e-04	0	56	0	450887680	55	5790
2026-01-08 00:10:42.87	0.62	38.15	-41.8	-45.9	12.3	7.32e-05	0	56	0	452984832	54	6019
2026-01-08 00:10:43.88	0.46	38.39	-41.6	-45.5	12.7	1.39e-04	0	56	0	455081984	54	5743
2026-01-08 00:10:44.88	0.30	38.62	-41.6	-45.5	12.8	9.53e-05	0	56	0	457179136	54	5725
2026-01-08 00:10:45.89	0.14	38.86	-41.9	-45.9	12.2	1.29e-04	0	56	0	458227712	54	6036
2026-01-08 00:10:46.90	359.97	39.10	-41.9	-46.0	12.2	1.69e-04	0	56	0	460324864	54	6113
2026-01-08 00:10:47.90	359.80	39.34	-41.6	-45.4	12.7	1.34e-04	0	56	0	462422016	54	5666
2026-01-08 00:10:48.91	359.63	39.58	-41.7	-45.6	12.5	1.75e-04	0	56	0	464519168	54	5851
2026-01-08 00:10:49.92	359.46	39.82	-41.7	-45.6	12.6	8.31e-05	0	56	0	466616320	54	5853
2026-01-08 00:10:50.93	359.28	40.07	-41.9	-46.1	12.2	1.17e-04	0	56	0	467664896	54	6140
2026-01-08 00:10:51.94	359.10	40.31	-41.9	-46.0	12.2	1.83e-04	0	56	0	469762048	54	6088
2026-01-08 00:10:52.94	358.92	40.56	-42.1	-46.4	11.8	2.80e-04	0	56	0	471859200	54	6357
2026-01-08 00:10:53.95	358.73	40.81	-42.0	-46.2	12.1	5.34e-04	0	56	0	473956352	54	6230
2026-01-08 00:10:54.96	358.54	41.06	-41.8	-45.7	12.5	3.58e-04	0	56	0	476053504	54	5888
2026-01-08 00:10:55.97	358.35	41.31	-41.9	-46.0	12.3	1.40e-04	0	56	0	477102080	54	6081
2026-01-08 00:10:56.98	358.16	41.56	-41.5	-45.2	13.0	7.01e-05	0	56	0	479199232	54	5532
2026-01-08 00:10:57.99	357.96	41.82	-41.5	-45.2	13.0	1.60e-05	0	56	0	481296384	54	5535
2026-01-08 00:10:59.00	357.76	42.07	-41.4	-44.9	13.3	2.97e-05	0	56	0	483393536	54	5374
2026-01-08 00:11:00.01	357.56	42.33	-41.4	-45.0	13.2	1.98e-05	0	56	0	485490688	54	5437
2026-01-08 00:11:01.01	357.35	42.59	-41.4	-45.0	13.1	2.67e-05	0	56	0	486539264	54	5446
2026-01-08 00:11:02.02	357.14	42.85	-41.4	-45.0	13.1	1.98e-05	0	56	0	488636416	54	5453
2026-01-08 00:11:03.03	356.92	43.11	-41.3	-44.8	13.4	1.60e-05	0	56	0	490733568	54	5297
2026-01-08 00:11:04.04	356.71	43.37	-41.2	-44.7	13.4	5.30e-06	0	56	0	492830720	54	5253
2026-01-08 00:11:05.05	356.48	43.63	-41.1	-44.4	13.7	4.50e-06	0	56	0	494927872	53	5387
2026-01-08 00:11:06.05	356.26	43.90	-40.9	-44.1	14.0	1.50e-06	0	56	0	495976448	53	5203
2026-01-08 00:11:07.06	356.03	44.16	-40.4	-43.4	14.8	2.20e-06	0	56	0	498073600	52	5067
2026-01-08 00:11:08.07	355.80	44.43	-40.3	-43.2	14.9	0.00e+00	0	56	0	500170752	52	4950
2026-01-08 00:11:09.08	355.56	44.70	-40.3	-43.3	14.9	0.00e+00	0	56	0	502267904	52	5009
2026-01-08 00:11:10.08	355.32	44.97	-40.2	-43.1	15.2	0.00e+00	0	56	0	504365056	51	5176
2026-01-08 00:11:11.09	355.08	45.24	-40.1	-43.0	15.2	0.00e+00	0	56	0	505413632	51	5114
2026-01-08 00:11:12.10	354.83	45.51	-40.3	-43.1	15.2	0.00e+00	0	56	0	507510784	51	5217
2026-01-08 00:11:13.11	354.57	45.79	-40.5	-43.5	14.8	7.00e-07	0	56	0	509607936	51	5430
2026-01-08 00:11:14.12	354.31	46.06	-40.6	-43.7	14.7	0.00e+00	0	56	0	511705088	51	5529
2026-01-08 00:11:15.13	354.05	46.34	-40.3	-43.2	15.0	7.00e-07	0	56	0	513802240	52	4961
2026-01-08 00:11:16.14	353.78	46.62	-40.4	-43.5	14.8	0.00e+00	0	56	0	514850816	52	5111
2026-01-08 00:11:17.15	353.51	46.90	-40.1	-42.9	15.2	0.00e+00	0	57	0	516947968	52	4785
2026-01-08 00:11:18.15	353.23	47.17	-40.5	-43.5	14.9	0.00e+00	0	56	0	519045120	51	5411
2026-01-08 00:11:19.16	352.95	47.46	-40.5	-43.5	14.8	0.00e+00	0	56	0	521142272	51	5447
2026-01-08 00:11:20.17	352.66	47.74	-40.7	-43.8	14.5	1.50e-06	0	56	0	523239424	52	5305
2026-01-08 00:11:21.18	352.37	48.02	-40.7	-43.8	14.5	7.00e-07	0	56	0	525336576	52	5288
2026-01-08 00:11:22.19	352.07	48.31	-40.1	-42.8	15.4	0.00e+00	0	56	0	526385152	52	4750
2026-01-08 00:11:23.20	351.76	48.59	-40.3	-43.3	15.0	0.00e+00	0	56	0	528482304	52	4987
2026-01-08 00:11:24.21	351.45	48.88	-40.1	-43.0	15.2	0.00e+00	0	56	0	530579456	52	4838
2026-01-08 00:11:25.22	351.13	49.17	-40.1	-42.9	15.3	0.00e+00	0	56	0	532676608	51	5089
2026-01-08 00:11:26.23	350.81	49.45	-39.8	-42.5	15.7	0.00e+00	0	56	0	534773760	51	4822
2026-01-08 00:11:27.24	350.48	49.74	-39.4	-41.9	16.3	0.00e+00	0	56	0	535822336	50	4788
2026-01-08 00:11:28.25	350.15	50.03	-39.2	-41.6	16.7	0.00e+00	0	56	0	537919488	50	4602
2026-01-08 00:11:29.26	349.81	50.32	-39.2	-41.4	16.9	0.00e+00	0	56	0	540016640	50	4540
2026-01-08 00:11:30.27	349.46	50.62	-39.0	-41.2	17.2	0.00e+00	0	56	0	542113792	49	4664
2026-01-08 00:11:31.28	349.10	50.91	-38.9	-41.1	17.3	0.00e+00	0	56	0	544210944	49	4603
2026-01-08 00:11:32.29	348.74	51.20	-39.2	-41.3	17.0	0.00e+00	0	56	0	545259520	49	4754
2026-01-08 00:11:33.30	348.37	51.49	-39.3	-41.6	16.5	0.00e+00	0	56	0	547356672	49	4904
2026-01-08 00:11:34.31	347.99	51.79	-39.5	-41.9	16.4	0.00e+00	0	56	0	549453824	49	5042
2026-01-08 00:11:35.31	347.61	52.08	-39.4	-41.6	16.7	0.00e+00	0	56	0	551550976	49	4904
2026-01-08 00:11:36.32	347.22	52.38	-39.3	-41.5	16.8	0.00e+00	0	56	0	553648128	49	4855
2026-01-08 00:11:37.33	346.82	52.67	-39.7	-42.1	16.3	0.00e+00	0	56	0	554696704	49	5162
2026-01-08 00:11:38.34	346.41	52.97	-40.0	-42.5	15.9	0.00e+00	0	56	0	556793856	50	5139
2026-01-08 00:11:39.35	345.99	53.26	-40.3	-43.2	15.1	0.00e+00	0	56	0	558891008	51	5254
2026-01-08 00:11:40.36	345.57	53.56	-40.5	-43.5	14.9	0.00e+00	0	56	0	560988160	51	5439
2026-01-08 00:11:41.37	345.13	53.85	-40.2	-43.1	15.2	0.00e+00	0	56	0	563085312	51	5199
2026-01-08 00:11:42.38	344.69	54.15	-40.3	-43.2	15.2	0.00e+00	0	56	0	564133888	51	5227
2026-01-08 00:11:43.39	344.23	54.45	-40.5	-43.5	14.9	0.00e+00	0	56	0	566231040	51	5420
2026-01-08 00:11:44.40	343.77	54.74	-40.7	-43.9	14.4	7.00e-07	0	56	0	568328192	52	5381
2026-01-08 00:11:45.41	343.30	55.04	-41.0	-44.2	14.1	3.80e-06	0	56	0	570425344	52	5585
2026-01-08 00:11:46.42	342.82	55.33	-40.9	-44.2	14.2	2.20e-06	0	56	0	572522496	52	5555
2026-01-08 00:11:47.43	342.32	55.63	-40.8	-43.9	14.4	0.00e+00	0	56	0	573571072	52	5366
2026-01-08 00:11:48.44	341.82	55.92	-40.6	-43.5	14.8	7.00e-07	0	56	0	575668224	52	5130
2026-01-08 00:11:49.45	341.31	56.22	-40.6	-43.6	14.6	0.00e+00	0	57	0	577765376	52	5176
2026-01-08 00:11:50.46	340.78	56.51	-40.7	-43.7	14.6	7.00e-07	0	56	0	579862528	52	5233
2026-01-08 00:11:51.47	340.24	56.80	-40.8	-43.8	14.5	0.00e+00	0	56	0	581959680	52	5319
2026-01-08 00:11:52.48	339.70	57.09	-40.6	-43.6	14.8	1.50e-06	0	56	0	583008256	52	5170
2026-01-08 00:11:53.48	339.14	57.38	-40.8	-43.8	14.7	0.00e+00	0	56	0	585105408	52	5330
2026-01-08 00:11:54.49	338.57	57.67	-40.6	-43.6	14.7	0.00e+00	0	56	0	587202560	52	5194
2026-01-08 00:11:55.50	337.99	57.96	-40.6	-43.6	14.7	7.00e-07	0	56	0	589299712	52	5179
2026-01-08 00:11:56.51	337.39	58.24	-40.7	-43.7	14.6	7.00e-07	0	56	0	591396864	52	5264
2026-01-08 00:11:57.52	336.78	58.53	-40.8	-44.0	14.4	0.00e+00	0	56	0	593494016	52	5406
2026-01-08 00:11:58.53	336.16	58.81	-41.0	-44.2	14.1	7.00e-07	0	56	0	594542592	52	5540
2026-01-08 00:11:59.54	335.52	59.09	-40.4	-43.1	14.9	7.00e-07	0	56	0	596639744	52	4908
2026-01-08 00:12:00.53	334.88	59.36	-40.3	-43.0	15.4	0.00e+00	0	56	0	598736896	52	4830
2026-01-08 00:12:01.53	334.23	59.64	-40.3	-43.0	15.4	0.00e+00	0	56	0	600834048	52	4834
2026-01-08 00:12:02.54	333.55	59.91	-40.2	-43.0	15.3	0.00e+00	0	56	0	601882624	52	4833
2026-01-08 00:12:03.54	332.86	60.18	-40.0	-42.6	15.7	0.00e+00	0	56	0	603979776	51	4900
2026-01-08 00:12:04.55	332.15	60.45	-39.6	-42.0	16.3	0.00e+00	0	56	0	606076928	51	4596
2026-01-08 00:12:05.56	331.43	60.72	-39.2	-41.5	16.7	0.00e+00	0	56	0	608174080	50	4583
2026-01-08 00:12:06.57	330.69	60.98	-38.8	-40.9	17.4	0.00e+00	0	56	0	610271232	49	4506
2026-01-08 00:12:07.58	329.94	61.24	-38.9	-41.0	17.2	0.00e+00	0	56	0	611319808	49	4581
2026-01-08 00:12:08.59	329.17	61.50	-39.0	-41.2	17.0	0.00e+00	0	56	0	613416960	49	4700
2026-01-08 00:12:09.60	328.38	61.75	-39.5	-42.0	16.3	0.00e+00	0	56	0	615514112	49	5123
2026-01-08 00:12:10.61	327.58	62.00	-39.8	-42.4	16.0	0.00e+00	0	56	0	617611264	50	5049
2026-01-08 00:12:11.62	326.76	62.24	-39.6	-42.1	16.2	0.00e+00	0	56	0	619708416	50	4902
2026-01-08 00:12:12.63	325.93	62.48	-39.5	-41.9	16.4	0.00e+00	0	56	0	621805568	50	4762
2026-01-08 00:12:13.64	325.08	62.72	-39.4	-41.8	16.5	0.00e+00	0	57	0	622854144	50	4735
2026-01-08 00:12:14.65	324.21	62.95	-39.6	-42.0	16.3	0.00e+00	0	56	0	624951296	50	4869
2026-01-08 00:12:15.66	323.32	63.18	-39.2	-41.4	16.8	0.00e+00	0	56	0	627048448	49	4813
2026-01-08 00:12:16.66	322.43	63.40	-38.7	-40.8	17.5	0.00e+00	0	56	0	629145600	49	4458
2026-01-08 00:12:17.67	321.51	63.62	-39.4	-41.8	16.5	0.00e+00	0	56	0	631242752	49	4991
2026-01-08 00:12:18.68	320.57	63.83	-39.5	-41.9	16.4	0.00e+00	0	56	0	632291328	49	5075
2026-01-08 00:12:19.69	319.62	64.03	-39.2	-41.5	16.8	0.00e+00	0	57	0	634388480	49	4833
2026-01-08 00:12:20.70	318.65	64.23	-38.8	-40.8	17.5	0.00e+00	0	57	0	636485632	49	4461
2026-01-08 00:12:21.71	317.66	64.42	-38.8	-40.9	17.4	0.00e+00	0	56	0	638582784	49	4505
2026-01-08 00:12:22.72	316.66	64.61	-39.4	-41.7	16.5	0.00e+00	0	56	0	640679936	49	4979
2026-01-08 00:12:23.73	315.64	64.79	-40.4	-43.3	15.0	0.00e+00	0	56	0	641728512	51	5318
2026-01-08 00:12:24.74	314.60	64.96	-40.4	-43.4	14.9	7.00e-07	0	57	0	643825664	52	5049
2026-01-08 00:12:25.75	313.55	65.13	-40.3	-43.1	15.0	0.00e+00	0	56	0	645922816	52	4911
2026-01-08 00:12:26.75	312.50	65.29	-40.1	-42.8	15.4	0.00e+00	0	56	0	648019968	51	5013
2026-01-08 00:12:27.76	311.41	65.44	-40.4	-43.5	14.9	0.00e+00	0	56	0	650117120	51	5404
2026-01-08 00:12:28.77	310.32	65.58	-39.8	-42.4	15.6	0.00e+00	0	56	0	651165696	51	4780
2026-01-08 00:12:29.78	309.21	65.72	-38.9	-41.0	17.2	0.00e+00	0	56	0	653262848	49	4567
2026-01-08 00:12:30.79	308.08	65.84	-38.5	-40.5	17.6	0.00e+00	0	56	0	655360000	49	4310
2026-01-08 00:12:31.80	306.94	65.96	-38.6	-40.7	17.5	0.00e+00	0	56	0	657457152	49	4417
2026-01-08 00:12:32.81	305.80	66.07	-39.2	-41.5	16.7	0.00e+00	0	57	0	659554304	49	4852
2026-01-08 00:12:33.82	304.64	66.17	-39.5	-41.9	16.3	0.00e+00	0	56	0	660602880	49	5051
2026-01-08 00:12:34.83	303.46	66.27	-39.1	-41.3	16.9	0.00e+00	0	56	0	662700032	49	4727
2026-01-08 00:12:35.84	302.28	66.35	-39.1	-41.2	17.0	0.00e+00	0	57	0	664797184	49	4702
2026-01-08 00:12:36.85	301.10	66.43	-39.4	-41.8	16.4	0.00e+00	0	56	0	666894336	50	4733
2026-01-08 00:12:37.86	299.90	66.49	-39.5	-41.9	16.3	0.00e+00	0	56	0	668991488	50	4800
2026-01-08 00:12:38.86	298.71	66.55	-38.9	-40.9	17.4	0.00e+00	0	56	0	670040064	49	4538
2026-01-08 00:12:39.87	297.50	66.59	-39.3	-41.6	16.8	0.00e+00	0	56	0	672137216	49	4874
2026-01-08 00:12:40.88	296.28	66.63	-39.4	-41.8	16.5	0.00e+00	0	56	0	674234368	49	5007
2026-01-08 00:12:41.89	295.06	66.66	-39.4	-41.8	16.5	0.00e+00	0	56	0	676331520	49	4997
2026-01-08 00:12:42.90	293.84	66.67	-39.4	-41.8	16.4	0.00e+00	0	56	0	678428672	49	4991
2026-01-08 00:12:43.91	292.62	66.68	-39.0	-41.2	17.0	0.00e+00	0	57	0	679477248	49	4703
2026-01-08 00:12:44.92	291.40	66.68	-38.9	-41.1	17.1	0.00e+00	0	56	0	681574400	49	4612
2026-01-08 00:12:45.93	290.18	66.67	-39.4	-41.9	16.4	0.00e+00	0	56	0	683671552	49	5058
2026-01-08 00:12:46.94	288.96	66.65	-39.5	-42.0	16.1	0.00e+00	0	57	0	685768704	49	5136
2026-01-08 00:12:47.94	287.75	66.62	-39.4	-41.9	16.2	0.00e+00	0	56	0	687865856	49	5068
2026-01-08 00:12:48.95	286.54	66.58	-39.4	-41.9	16.4	0.00e+00	0	56	0	688914432	49	5045
2026-01-08 00:12:49.96	285.33	66.53	-39.4	-41.8	16.5	0.00e+00	0	56	0	691011584	49	5003
2026-01-08 00:12:50.97	284.13	66.47	-39.0	-41.3	16.9	0.00e+00	0	56	0	693108736	49	4732
2026-01-08 00:12:51.98	282.93	66.40	-38.9	-41.1	17.0	0.00e+00	0	57	0	695205888	49	4635
2026-01-08 00:12:52.99	281.75	66.32	-39.0	-41.3	17.0	0.00e+00	0	56	0	697303040	49	4715
2026-01-08 00:12:54.00	280.57	66.23	-39.6	-42.1	16.2	0.00e+00	0	56	0	698351616	49	5176
2026-01-08 00:12:55.01	279.40	66.14	-39.2	-41.5	16.7	0.00e+00	0	56	0	700448768	49	4830
2026-01-08 00:12:56.02	278.24	66.03	-39.5	-41.8	16.4	0.00e+00	0	57	0	702545920	49	5033
2026-01-08 00:12:57.03	277.10	65.92	-40.1	-42.8	15.5	0.00e+00	0	56	0	704643072	50	5317
2026-01-08 00:12:58.03	275.98	65.80	-40.2	-42.8	15.5	0.00e+00	0	56	0	706740224	51	5025
2026-01-08 00:12:59.04	274.86	65.67	-39.8	-42.3	16.1	0.00e+00	0	56	0	707788800	51	4731
2026-01-08 00:13:00.05	273.75	65.53	-40.3	-43.1	15.2	0.00e+00	0	57	0	709885952	51	5183
2026-01-08 00:13:01.06	272.66	65.38	-40.3	-43.1	15.3	0.00e+00	0	56	0	711983104	51	5197
2026-01-08 00:13:02.07	271.58	65.23	-39.7	-42.1	16.2	0.00e+00	0	56	0	714080256	51	4636
2026-01-08 00:13:03.08	270.52	65.07	-39.6	-41.9	16.3	0.00e+00	0	56	0	716177408	51	4542
2026-01-08 00:13:04.09	269.47	64.90	-39.3	-41.6	16.6	0.00e+00	0	57	0	718274560	50	4644
2026-01-08 00:13:05.09	268.45	64.73	-38.6	-40.7	17.5	0.00e+00	0	56	0	719323136	49	4397
2026-01-08 00:13:06.10	267.43	64.54	-38.4	-40.4	17.7	0.00e+00	0	57	0	721420288	48	4518
2026-01-08 00:13:07.11	266.44	64.35	-39.0	-41.2	17.1	0.00e+00	0	56	0	723517440	48	4938
2026-01-08 00:13:08.12	265.45	64.16	-37.6	-39.4	18.6	0.00e+00	0	56	0	725614592	47	4243
2026-01-08 00:13:09.13	264.49	63.96	-37.5	-39.3	18.8	0.00e+00	0	57	0	727711744	46	4458
2026-01-08 00:13:10.14	263.54	63.75	-38.3	-40.3	17.7	0.00e+00	0	56	0	728760320	47	4754
2026-01-08 00:13:11.15	262.61	63.54	-38.1	-40.1	17.9	0.00e+00	0	56	0	730857472	47	4619
2026-01-08 00:13:12.16	261.69	63.32	-37.3	-39.1	18.8	0.00e+00	0	56	0	732954624	46	4372
2026-01-08 00:13:13.17	260.80	63.09	-38.1	-40.1	18.0	0.00e+00	0	56	0	735051776	46	4913
2026-01-08 00:13:14.18	259.92	62.86	-39.2	-41.6	16.9	0.00e+00	0	56	0	737148928	48	5160
2026-01-08 00:13:15.19	259.05	62.63	-39.6	-42.2	16.0	0.00e+00	0	57	0	738197504	50	4955
2026-01-08 00:13:16.20	258.21	62.39	-40.5	-43.5	14.7	0.00e+00	0	56	0	740294656	51	5444
2026-01-08 00:13:17.20	257.38	62.15	-40.1	-42.9	15.3	0.00e+00	0	56	0	742391808	51	5070
2026-01-08 00:13:18.21	256.57	61.90	-39.9	-42.6	15.7	0.00e+00	0	56	0	744488960	51	4887
2026-01-08 00:13:19.22	255.77	61.65	-39.7	-42.2	16.0	0.00e+00	0	56	0	746586112	51	4670
2026-01-08 00:13:20.23	254.99	61.40	-39.1	-41.3	16.9	0.00e+00	0	56	0	747634688	50	4478
2026-01-08 00:13:21.24	254.23	61.14	-39.4	-41.7	16.5	0.00e+00	0	57	0	749731840	49	4974
2026-01-08 00:13:22.25	253.48	60.88	-40.3	-43.2	15.2	0.00e+00	0	57	0	751828992	51	5228
2026-01-08 00:13:23.25	252.75	60.62	-40.9	-44.1	14.0	0.00e+00	0	56	0	753926144	52	5528
2026-01-08 00:13:24.26	252.03	60.35	-41.0	-44.1	14.0	1.50e-06	0	57	0	756023296	52	5527
2026-01-08 00:13:25.27	251.33	60.08	-41.3	-44.6	13.6	1.50e-06	0	56	0	757071872	53	5526
2026-01-08 00:13:26.28	250.64	59.80	-40.9	-44.0	14.2	2.20e-06	0	57	0	759169024	53	5101
2026-01-08 00:13:27.29	249.97	59.53	-40.4	-43.1	15.1	7.00e-07	0	56	0	761266176	52	4907
2026-01-08 00:13:28.30	249.31	59.25	-40.2	-42.9	15.2	0.00e+00	0	57	0	763363328	52	4768
2026-01-08 00:13:29.30	248.67	58.97	-40.1	-42.6	15.7	0.00e+00	0	57	0	765460480	51	4917
2026-01-08 00:13:30.31	248.03	58.69	-40.8	-43.8	14.5	0.00e+00	0	56	0	766509056	52	5296
2026-01-08 00:13:31.32	247.41	58.41	-41.5	-45.1	13.1	1.67e-05	0	56	0	768606208	53	5808
2026-01-08 00:13:32.33	246.81	58.12	-41.9	-46.0	12.2	2.51e-04	0	57	0	770703360	54	6073
2026-01-08 00:13:33.34	246.22	57.83	-41.0	-44.3	13.9	1.17e-04	0	57	0	772800512	54	4990
2026-01-08 00:13:34.35	245.64	57.54	-41.1	-44.4	13.7	1.44e-05	0	56	0	774897664	54	5092
2026-01-08 00:13:35.36	245.07	57.25	-41.7	-45.6	12.6	4.19e-05	0	56	0	775946240	54	5835
2026-01-08 00:13:36.37	244.51	56.96	-42.0	-46.4	11.7	5.93e-04	0	56	0	778043392	54	6349
2026-01-08 00:13:37.38	243.97	56.67	-41.9	-46.1	11.9	3.28e-04	0	56	0	780140544	54	6167
2026-01-08 00:13:38.39	243.43	56.38	-41.5	-45.4	12.7	1.03e-04	0	57	0	782237696	54	5663
2026-01-08 00:13:39.39	242.92	56.08	-41.1	-44.6	13.6	4.50e-06	0	56	0	784334848	53	5471
2026-01-08 00:13:40.41	242.40	55.79	-40.5	-43.6	14.6	7.00e-07	0	57	0	785383424	52	5169
2026-01-08 00:13:41.41	241.91	55.49	-41.2	-44.9	13.2	6.80e-06	0	57	0	787480576	53	5686
2026-01-08 00:13:42.42	241.42	55.20	-41.3	-44.6	13.7	4.34e-05	0	57	0	789577728	53	5465
2026-01-08 00:13:43.43	240.94	54.90	-40.7	-43.4	14.8	0.00e+00	0	57	0	791674880	53	4806
2026-01-08 00:13:44.44	240.47	54.61	-40.6	-43.3	15.1	0.00e+00	0	56	0	793772032	52	4986
2026-01-08 00:13:45.45	240.01	54.31	-40.4	-43.0	15.3	0.00e+00	0	57	0	794820608	52	4829
2026-01-08 00:13:46.46	239.56	54.01	-40.1	-42.4	15.9	0.00e+00	0	57	0	796917760	52	4532
2026-01-08 00:13:47.47	239.12	53.72	-40.2	-42.6	15.7	0.00e+00	0	56	0	799014912	51	4905
2026-01-08 00:13:48.48	238.69	53.42	-40.5	-43.1	15.2	0.00e+00	0	56	0	801112064	51	5211
2026-01-08 00:13:49.48	238.27	53.12	-40.7	-43.5	14.8	0.00e+00	0	57	0	803209216	52	5129
2026-01-08 00:13:50.49	237.85	52.83	-40.4	-43.1	15.2	0.00e+00	0	56	0	804257792	52	4871
2026-01-08 00:13:51.50	237.44	52.53	-40.9	-43.7	14.8	7.00e-07	0	57	0	806354944	52	5268
2026-01-08 00:13:52.51	237.05	52.23	-40.7	-43.5	14.8	1.50e-06	0	56	0	808452096	53	4868
2026-01-08 00:13:53.52	236.66	51.94	-40.6	-43.3	15.0	7.00e-07	0	57	0	810549248	53	4712
2026-01-08 00:13:54.53	236.27	51.64	-40.2	-42.6	15.9	0.00e+00	0	57	0	812646400	51	4882
2026-01-08 00:13:55.54	235.90	51.35	-39.7	-41.8	16.5	0.00e+00	0	56	0	814743552	51	4491
2026-01-08 00:13:56.55	235.53	51.05	-40.0	-42.4	16.0	0.00e+00	0	57	0	815792128	51	4771
2026-01-08 00:13:57.56	235.17	50.76	-40.1	-42.4	15.9	0.00e+00	0	57	0	817889280	51	4782
2026-01-08 00:13:58.56	234.82	50.47	-40.1	-42.4	16.0	0.00e+00	0	57	0	819986432	51	4772
2026-01-08 00:13:59.57	234.47	50.18	-40.0	-42.2	16.1	0.00e+00	0	56	0	822083584	51	4704
2026-01-08 00:14:00.58	234.13	49.89	-40.7	-43.4	14.9	7.00e-07	0	57	0	824180736	52	5050
2026-01-08 00:14:01.59	233.80	49.60	-41.3	-44.4	13.9	7.00e-07	0	57	0	825229312	53	5393
2026-01-08 00:14:02.60	233.47	49.31	-41.4	-44.6	13.6	5.30e-06	0	57	0	827326464	53	5495
2026-01-08 00:14:03.60	233.15	49.02	-41.8	-45.3	12.9	2.51e-05	0	57	0	829423616	54	5613
2026-01-08 00:14:04.61	232.84	48.73	-42.2	-46.0	12.2	4.08e-04	0	56	0	831520768	55	5737
2026-01-08 00:14:05.62	232.53	48.45	-41.2	-44.2	14.1	2.44e-05	0	57	0	833617920	54	4940
2026-01-08 00:14:06.62	232.23	48.16	-40.2	-42.6	15.7	0.00e+00	0	57	0	834666496	52	4610
2026-01-08 00:14:07.63	231.93	47.88	-40.6	-43.3	15.1	0.00e+00	0	57	0	836763648	52	5012
2026-01-08 00:14:08.64	231.64	47.59	-41.2	-44.2	14.1	7.00e-07	0	57	0	838860800	52	5563
2026-01-08 00:14:09.65	231.35	47.31	-40.5	-43.1	15.2	7.00e-07	0	56	0	840957952	52	4871
2026-01-08 00:14:10.66	231.07	47.03	-39.9	-42.1	16.2	0.00e+00	0	57	0	843055104	51	4621
2026-01-08 00:14:11.66	230.79	46.75	-40.2	-42.7	15.6	0.00e+00	0	57	0	844103680	51	4936
2026-01-08 00:14:12.67	230.52	46.47	-41.1	-44.0	14.3	0.00e+00	0	57	0	846200832	52	5462
2026-01-08 00:14:13.68	230.26	46.19	-42.1	-45.9	12.3	6.17e-05	0	57	0	848297984	54	6043
2026-01-08 00:14:14.69	229.99	45.91	-42.1	-46.0	12.2	1.72e-04	0	57	0	850395136	54	6065
2026-01-08 00:14:15.69	229.74	45.64	-42.5	-46.8	11.3	2.98e-04	0	57	0	852492288	55	6305
2026-01-08 00:14:16.70	229.48	45.37	-42.8	-47.2	11.1	2.61e-03	0	57	0	853540864	56	6244
2026-01-08 00:14:17.71	229.23	45.09	-42.4	-46.3	12.1	4.63e-04	0	56	0	855638016	56	5620
2026-01-08 00:14:18.72	228.99	44.82	-41.8	-45.3	13.0	5.03e-05	0	56	0	857735168	55	5305
2026-01-08 00:14:19.73	228.75	44.55	-42.1	-46.0	12.4	5.11e-05	0	57	0	859832320	55	5723
2026-01-08 00:14:20.73	228.52	44.28	-42.0	-45.8	12.7	6.71e-05	0	57	0	861929472	55	5597
2026-01-08 00:14:21.74	228.28	44.01	-41.8	-45.3	12.9	5.26e-05	0	57	0	862978048	55	5296
2026-01-08 00:14:22.75	228.05	43.75	-40.8	-43.6	14.7	3.80e-06	0	57	0	865075200	53	4875
2026-01-08 00:14:23.76	227.83	43.48	-40.8	-43.5	14.7	0.00e+00	0	56	0	867172352	52	5118
2026-01-08 00:14:24.77	227.61	43.22	-40.3	-42.8	15.5	0.00e+00	0	57	0	869269504	52	4735
2026-01-08 00:14:25.78	227.39	42.95	-40.1	-42.5	15.8	0.00e+00	0	57	0	871366656	52	4574
2026-01-08 00:14:26.79	227.18	42.69	-40.1	-42.4	15.9	0.00e+00	0	57	0	872415232	51	4790
2026-01-08 00:14:27.80	226.97	42.43	-40.6	-43.1	15.2	0.00e+00	0	56	0	874512384	51	5207
2026-01-08 00:14:28.81	226.76	42.17	-41.0	-43.8	14.6	0.00e+00	0	56	0	876609536	52	5327
2026-01-08 00:14:29.82	226.56	41.91	-41.7	-45.0	13.2	6.10e-06	0	57	0	878706688	53	5750
2026-01-08 00:14:30.83	226.36	41.66	-42.5	-46.6	11.6	2.21e-04	0	57	0	880803840	55	6155
2026-01-08 00:14:31.84	226.16	41.40	-43.0	-47.6	10.9	1.41e-03	0	57	0	881852416	56	6514
2026-01-08 00:14:32.84	225.97	41.15	-42.9	-47.3	11.2	5.75e-03	0	57	0	883949568	57	5925
2026-01-08 00:14:33.85	225.77	40.90	-43.0	-47.6	10.7	1.87e-03	0	57	0	886046720	57	6202
2026-01-08 00:14:34.86	225.59	40.65	-43.3	-48.4	9.8	1.42e-02	0	57	0	888143872	57	6800
2026-01-08 00:14:35.87	225.40	40.40	-42.9	-47.3	11.0	5.85e-03	0	57	0	890241024	57	5937
2026-01-08 00:14:36.88	225.22	40.15	-42.2	-45.9	12.4	4.58e-04	0	57	0	891289600	56	5358
2026-01-08 00:14:37.89	225.04	39.91	-41.5	-44.7	13.5	9.10e-06	0	57	0	893386752	54	5271
2026-01-08 00:14:38.90	224.86	39.66	-41.1	-44.0	14.3	7.60e-06	0	57	0	895483904	54	4819
2026-01-08 00:14:39.91	224.69	39.42	-40.9	-43.7	14.4	0.00e+00	0	57	0	897581056	53	4978
2026-01-08 00:14:40.92	224.52	39.17	-40.9	-43.7	14.6	7.00e-07	0	57	0	899678208	53	4943
2026-01-08 00:14:41.93	224.35	38.93	-41.1	-44.0	14.2	1.50e-06	0	56	0	900726784	53	5135
2026-01-08 00:14:42.93	224.18	38.70	-41.6	-44.9	13.3	9.90e-06	0	57	0	902823936	53	5711
2026-01-08 00:14:43.94	224.02	38.46	-41.3	-44.3	14.0	2.20e-06	0	57	0	904921088	53	5300
2026-01-08 00:14:44.95	223.86	38.22	-41.9	-45.4	12.8	6.10e-06	0	56	0	907018240	54	5719
2026-01-08 00:14:45.96	223.70	37.99	-42.3	-46.1	12.1	1.20e-04	0	57	0	909115392	55	5843
2026-01-08 00:14:46.97	223.54	37.75	-42.9	-47.4	10.9	1.08e-03	0	57	0	910163968	56	6413
2026-01-08 00:14:47.98	223.39	37.52	-43.0	-47.6	10.6	3.21e-03	0	57	0	912261120	56	6529
2026-01-08 00:14:48.99	223.24	37.29	-43.1	-47.9	10.3	3.97e-03	0	57	0	914358272	57	6412
2026-01-08 00:14:50.00	223.08	37.06	-42.9	-47.4	10.9	2.96e-03	0	57	0	916455424	57	6034
2026-01-08 00:14:51.01	222.94	36.83	-42.9	-47.5	10.8	1.32e-03	0	57	0	918552576	57	6079
2026-01-08 00:14:52.01	222.79	36.60	-43.1	-47.9	10.3	1.76e-03	0	57	0	919601152	57	6409
2026-01-08 00:14:53.02	222.65	36.38	-43.3	-48.5	9.9	6.42e-03	0	57	0	921698304	57	6812
2026-01-08 00:14:54.03	222.51	36.15	-42.9	-47.5	10.8	7.89e-03	0	57	0	923795456	57	6089
2026-01-08 00:14:55.04	222.37	35.93	-42.7	-47.1	11.3	2.09e-03	0	57	0	925892608	57	5821
2026-01-08 00:14:56.05	222.23	35.71	-42.9	-47.3	11.0	8.30e-04	0	57	0	927989760	56	6342
2026-01-08 00:14:57.05	222.09	35.49	-42.7	-46.9	11.4	6.78e-04	0	57	0	929038336	56	6032
2026-01-08 00:14:58.06	221.96	35.27	-42.6	-46.8	11.5	3.54e-04	0	57	0	931135488	56	5955
2026-01-08 00:14:59.07	221.83	35.05	-42.3	-46.1	12.4	1.85e-04	0	57	0	933232640	56	5469
2026-01-08 00:15:00.08	221.70	34.84	-42.1	-45.7	12.6	1.46e-04	0	57	0	935329792	56	5264
2026-01-08 00:15:01.09	221.57	34.62	-41.3	-44.4	13.9	3.66e-05	0	57	0	937426944	54	5084
2026-01-08 00:15:02.10	221.44	34.41	-41.3	-44.3	13.8	1.50e-06	0	56	0	938475520	54	5036
2026-01-08 00:15:03.10	221.31	34.20	-41.1	-44.0	14.3	0.00e+00	0	57	0	940572672	54	4829
2026-01-08 00:15:04.11	221.19	33.99	-41.0	-43.8	14.4	1.50e-06	0	57	0	942669824	53	5018
2026-01-08 00:15:05.12	221.07	33.78	-41.5	-44.8	13.4	2.20e-06	0	57	0	944766976	53	5638
2026-01-08 00:15:06.13	220.95	33.57	-42.0	-45.7	12.5	9.23e-05	0	57	0	946864128	54	5873
2026-01-08 00:15:07.14	220.83	33.36	-42.4	-46.6	11.6	7.59e-04	0	57	0	948961280	55	6132
2026-01-08 00:15:08.14	220.71	33.16	-42.3	-46.2	11.9	7.01e-04	0	56	0	950009856	55	5879
2026-01-08 00:15:09.15	220.60	32.95	-41.9	-45.4	12.7	1.76e-04	0	57	0	952107008	55	5361
2026-01-08 00:15:10.16	220.48	32.75	-41.6	-44.9	13.3	2.67e-05	0	56	0	954204160	55	5048
2026-01-08 00:15:11.17	220.37	32.55	-41.4	-44.6	13.6	1.52e-05	0	57	0	956301312	54	5197
2026-01-08 00:15:12.18	220.26	32.34	-41.6	-44.9	13.4	1.60e-05	0	57	0	958398464	54	5346
2026-01-08 00:15:13.19	220.15	32.14	-42.1	-45.9	12.3	1.69e-04	0	57	0	959447040	54	6020
2026-01-08 00:15:14.20	220.04	31.95	-41.9	-45.5	12.8	1.61e-04	0	57	0	961544192	54	5786
2026-01-08 00:15:15.21	219.93	31.75	-41.8	-45.2	13.0	7.93e-05	0	57	0	963641344	54	5587
2026-01-08 00:15:16.22	219.82	31.55	-41.2	-44.3	14.0	9.90e-06	0	57	0	965738496	54	4999
2026-01-08 00:15:17.22	219.72	31.36	-40.7	-43.5	14.7	7.00e-07	0	57	0	967835648	53	4817
2026-01-08 00:15:18.23	219.62	31.16	-40.2	-42.7	15.5	0.00e+00	0	57	0	968884224	52	4698
2026-01-08 00:15:19.24	219.51	30.97	-40.2	-42.7	15.4	0.00e+00	0	57	0	970981376	52	4694
2026-01-08 00:15:20.24	219.41	30.78	-40.7	-43.5	14.7	0.00e+00	0	57	0	973078528	52	5117
2026-01-08 00:15:21.25	219.31	30.59	-40.8	-43.6	14.6	7.00e-07	0	57	0	975175680	52	5205
2026-01-08 00:15:22.26	219.21	30.40	-41.0	-43.9	14.4	0.00e+00	0	57	0	977272832	52	5346
2026-01-08 00:15:23.27	219.12	30.21	-40.9	-43.7	14.5	7.00e-07	0	56	0	978321408	52	5273
2026-01-08 00:15:24.28	219.02	30.03	-40.8	-43.6	14.7	0.00e+00	0	57	0	980418560	52	5178
2026-01-08 00:15:25.29	218.92	29.84	-40.8	-43.6	14.6	0.00e+00	0	57	0	982515712	52	5209
2026-01-08 00:15:26.30	218.83	29.66	-40.9	-43.8	14.4	0.00e+00	0	57	0	984612864	52	5325
2026-01-08 00:15:27.31	218.74	29.47	-41.5	-44.8	13.4	1.50e-06	0	57	0	986710016	53	5608
2026-01-08 00:15:28.32	218.65	29.29	-41.9	-45.6	12.6	2.67e-05	0	57	0	987758592	54	5824
2026-01-08 00:15:29.33	218.55	29.11	-42.2	-46.2	12.0	2.01e-04	0	57	0	989855744	54	6246
2026-01-08 00:15:30.34	218.46	28.93	-42.9	-47.5	10.8	1.41e-03	0	57	0	991952896	56	6486
2026-01-08 00:15:31.35	218.38	28.75	-43.2	-48.3	10.1	4.11e-03	0	57	0	994050048	56	7070
2026-01-08 00:15:32.35	218.29	28.57	-43.1	-47.9	10.4	5.29e-03	0	57	0	996147200	56	6739
2026-01-08 00:15:33.36	218.20	28.39	-42.8	-47.3	10.9	2.94e-03	0	57	0	997195776	56	6309
2026-01-08 00:15:34.37	218.12	28.22	-42.4	-46.4	11.9	7.95e-04	0	57	0	999292928	56	5698
2026-01-08 00:15:35.38	218.03	28.04	-42.3	-46.2	12.1	2.51e-04	0	57	0	1001390080	56	5571
2026-01-08 00:15:36.39	217.95	27.87	-42.1	-45.7	12.6	2.62e-04	0	57	0	1003487232	56	5237
2026-01-08 00:15:37.40	217.86	27.69	-42.1	-45.7	12.6	8.92e-05	0	57	0	1005584384	56	5276
2026-01-08 00:15:38.41	217.78	27.52	-41.9	-45.5	12.7	7.62e-05	0	57	0	1006632960	55	5412
2026-01-08 00:15:39.41	217.70	27.35	-41.8	-45.4	12.8	7.32e-05	0	56	0	1008730112	55	5362
2026-01-08 00:15:40.42	217.62	27.18	-41.6	-44.9	13.2	5.34e-05	0	57	0	1010827264	55	5086
2026-01-08 00:15:41.43	217.54	27.01	-41.6	-44.9	13.2	1.98e-05	0	57	0	1012924416	55	5074
2026-01-08 00:15:42.44	217.46	26.85	-41.5	-44.7	13.4	1.29e-05	0	56	0	1015021568	54	5264
2026-01-08 00:15:43.44	217.39	26.68	-41.2	-44.3	13.9	2.20e-06	0	57	0	1016070144	54	4993
2026-01-08 00:15:44.45	217.31	26.51	-41.0	-44.0	14.2	2.20e-06	0	57	0	1018167296	54	4831
2026-01-08 00:15:45.46	217.23	26.35	-40.8	-43.6	14.5	7.00e-07	0	57	0	1020264448	53	4883
2026-01-08 00:15:46.47	217.16	26.18	-40.6	-43.2	14.7	0.00e+00	0	57	0	1022361600	53	4698
2026-01-08 00:15:47.47	217.08	26.02	-40.6	-43.3	14.8	0.00e+00	0	57	0	1024458752	53	4752
2026-01-08 00:15:48.48	217.01	25.86	-40.7	-43.5	14.6	0.00e+00	0	57	0	1025507328	53	4829
2026-01-08 00:15:49.49	216.94	25.70	-40.6	-43.3	14.8	7.00e-07	0	57	0	1027604480	53	4752
2026-01-08 00:15:50.50	216.86	25.54	-40.8	-43.7	14.4	7.00e-07	0	57	0	1029701632	53	4963
2026-01-08 00:15:51.51	216.79	25.38	-40.9	-43.9	14.1	1.50e-06	0	57	0	1031798784	53	5091
2026-01-08 00:15:52.52	216.72	25.22	-41.1	-44.3	13.8	7.00e-07	0	57	0	1033895936	53	5289
2026-01-08 00:15:53.52	216.65	25.06	-41.4	-44.6	13.5	4.50e-06	0	57	0	1034944512	53	5521
2026-01-08 00:15:54.53	216.58	24.90	-41.3	-44.6	13.5	1.60e-05	0	57	0	1037041664	53	5478
2026-01-08 00:15:55.54	216.52	24.75	-41.2	-44.4	13.7	3.00e-06	0	57	0	1039138816	53	5352
2026-01-08 00:15:56.55	216.45	24.59	-41.3	-44.6	13.5	9.10e-06	0	57	0	1041235968	53	5474
2026-01-08 00:15:57.55	216.38	24.44	-41.3	-44.5	13.6	8.30e-06	0	57	0	1043333120	53	5449
2026-01-08 00:15:58.56	216.31	24.29	-41.3	-44.5	13.6	7.60e-06	0	57	0	1044381696	53	5413
2026-01-08 00:15:59.57	216.25	24.13	-41.4	-44.7	13.4	6.80e-06	0	57	0	1046478848	53	5573
2026-01-08 00:16:00.58	216.18	23.98	-41.6	-45.1	12.9	2.74e-05	0	57	0	1048576000	53	5830
2026-01-08 00:16:01.59	216.12	23.83	-41.7	-45.2	12.9	4.80e-05	0	57	0	1050673152	54	5537
2026-01-08 00:16:02.60	216.06	23.68	-42.0	-45.8	12.3	1.43e-04	0	57	0	1052770304	54	5972
2026-01-08 00:16:03.60	215.99	23.53	-42.3	-46.4	11.6	3.72e-04	0	57	0	1053818880	55	6017
2026-01-08 00:16:04.61	215.93	23.38	-42.4	-46.6	11.4	5.67e-04	0	57	0	1055916032	55	6177
2026-01-08 00:16:05.62	215.87	23.24	-42.3	-46.6	11.4	9.69e-04	0	57	0	1058013184	55	6159
2026-01-08 00:16:06.63	215.81	23.09	-42.2	-46.2	11.8	7.10e-04	0	57	0	1060110336	55	5889
2026-01-08 00:16:07.64	215.75	22.94	-41.9	-45.7	12.3	3.29e-04	0	56	0	1062207488	55	5562
2026-01-08 00:16:08.65	215.69	22.80	-41.9	-45.6	12.4	2.43e-04	0	57	0	1063256064	55	5512
2026-01-08 00:16:09.66	215.63	22.65	-41.8	-45.4	12.6	1.14e-04	0	57	0	1065353216	55	5376
2026-01-08 00:16:10.67	215.57	22.51	-41.4	-44.7	13.4	4.11e-05	0	57	0	1067450368	54	5230
2026-01-08 00:16:11.68	215.51	22.37	-41.4	-44.7	13.4	1.52e-05	0	57	0	1069547520	54	5231
2026-01-08 00:16:12.69	215.45	22.22	-41.1	-44.2	13.9	9.90e-06	0	57	0	1071644672	54	4938
2026-01-08 00:16:13.70	215.39	22.08	-40.5	-43.2	14.9	0.00e+00	0	57	0	1073741824	53	4652
2026-01-08 00:16:14.71	215.34	21.94	-40.4	-43.1	14.9	0.00e+00	0	57	0	1074790400	52	4902
2026-01-08 00:16:15.71	215.28	21.80	-40.3	-42.9	15.1	0.00e+00	0	57	0	1076887552	52	4812
2026-01-08 00:16:16.72	215.23	21.66	-40.2	-42.7	15.3	0.00e+00	0	57	0	1078984704	52	4673
2026-01-08 00:16:17.73	215.17	21.53	-40.1	-42.6	15.4	0.00e+00	0	57	0	1081081856	52	4630
2026-01-08 00:16:18.74	215.12	21.39	-40.1	-42.7	15.4	0.00e+00	0	57	0	1083179008	52	4662
2026-01-08 00:16:19.75	215.06	21.25	-40.2	-42.7	15.3	0.00e+00	0	57	0	1084227584	52	4676
2026-01-08 00:16:20.76	215.01	21.11	-40.1	-42.6	15.4	0.00e+00	0	57	0	1086324736	52	4636
2026-01-08 00:16:21.77	214.95	20.98	-40.2	-42.7	15.3	0.00e+00	0	57	0	1088421888	52	4697
2026-01-08 00:16:22.78	214.90	20.84	-40.3	-42.9	15.1	0.00e+00	0	57	0	1090519040	52	4771
2026-01-08 00:16:23.78	214.85	20.71	-40.3	-42.8	15.2	7.00e-07	0	57	0	1092616192	52	4751
2026-01-08 00:16:24.79	214.80	20.58	-40.3	-43.0	15.0	0.00e+00	0	57	0	1093664768	52	4838
2026-01-08 00:16:25.81	214.75	20.44	-40.4	-43.0	15.0	0.00e+00	0	57	0	1095761920	52	4866
2026-01-08 00:16:26.81	214.70	20.31	-40.5	-43.3	14.7	0.00e+00	0	57	0	1097859072	52	5020
2026-01-08 00:16:27.82	214.65	20.18	-40.5	-43.3	14.7	2.20e-06	0	57	0	1099956224	52	4987
2026-01-08 00:16:28.83	214.60	20.05	-40.6	-43.5	14.7	7.00e-07	0	56	0	1102053376	52	5119
2026-01-08 00:16:29.84	214.55	19.92	-40.7	-43.5	14.4	0.00e+00	0	57	0	1103101952	52	5149
2026-01-08 00:16:30.85	214.50	19.79	-40.7	-43.6	14.4	0.00e+00	0	57	0	1105199104	52	5175
2026-01-08 00:16:31.86	214.45	19.66	-40.9	-43.9	14.0	7.00e-07	0	57	0	1107296256	52	5383
2026-01-08 00:16:32.86	214.40	19.53	-40.9	-43.9	14.0	0.00e+00	0	57	0	1109393408	52	5385
2026-01-08 00:16:33.87	214.35	19.41	-41.1	-44.2	13.7	3.80e-06	0	57	0	1111490560	52	5584
2026-01-08 00:16:34.88	214.31	19.28	-41.1	-44.2	13.8	3.00e-06	0	57	0	1112539136	52	5569
2026-01-08 00:16:35.89	214.26	19.15	-41.0	-44.0	13.9	4.50e-06	0	57	0	1114636288	52	5442
2026-01-08 00:16:36.90	214.21	19.03	-40.9	-44.0	14.2	7.00e-07	0	57	0	1116733440	52	5418
2026-01-08 00:16:37.91	214.17	18.90	-40.9	-44.0	14.0	3.80e-06	0	57	0	1118830592	52	5426
2026-01-08 00:16:38.92	214.12	18.78	-41.0	-44.1	13.8	3.80e-06	0	56	0	1120927744	52	5513
2026-01-08 00:16:39.92	214.07	18.65	-41.2	-44.4	13.6	6.10e-06	0	57	0	1121976320	52	5669
2026-01-08 00:16:40.93	214.03	18.53	-41.2	-44.4	13.5	9.90e-06	0	57	0	1124073472	52	5709
2026-01-08 00:16:41.94	213.99	18.41	-41.1	-44.3	13.6	1.29e-05	0	57	0	1126170624	52	5640
2026-01-08 00:16:42.95	213.94	18.29	-41.1	-44.3	13.6	9.90e-06	0	57	0	1128267776	52	5633
2026-01-08 00:16:43.96	213.90	18.16	-41.4	-44.8	13.2	1.37e-05	0	57	0	1130364928	53	5642
2026-01-08 00:16:44.97	213.85	18.04	-41.4	-44.7	13.2	3.28e-05	0	57	0	1131413504	53	5571
2026-01-08 00:16:45.98	213.81	17.92	-41.5	-44.9	13.0	2.28e-05	0	57	0	1133510656	53	5701
2026-01-08 00:16:46.99	213.77	17.80	-41.7	-45.3	12.6	7.01e-05	0	57	0	1135607808	53	5954
2026-01-08 00:16:48.00	213.73	17.68	-41.7	-45.3	12.6	7.70e-05	0	57	0	1137704960	54	5651
2026-01-08 00:16:49.01	213.68	17.57	-41.7	-45.4	12.4	9.23e-05	0	57	0	1139802112	54	5697
2026-01-08 00:16:50.01	213.64	17.45	-41.9	-45.7	12.2	1.80e-04	0	57	0	1140850688	54	5875
2026-01-08 00:16:51.02	213.60	17.33	-41.8	-45.6	12.2	2.52e-04	0	57	0	1142947840	54	5843
2026-01-08 00:16:52.03	213.56	17.21	-41.8	-45.6	12.3	1.88e-04	0	57	0	1145044992	54	5804
2026-01-08 00:16:53.04	213.52	17.10	-41.6	-45.2	12.7	1.29e-04	0	57	0	1147142144	54	5570
2026-01-08 00:16:54.05	213.48	16.98	-41.6	-45.1	12.7	7.09e-05	0	57	0	1149239296	54	5506
2026-01-08 00:16:55.06	213.44	16.87	-41.5	-44.9	13.0	4.88e-05	0	57	0	1150287872	54	5384
2026-01-08 00:16:56.07	213.40	16.75	-41.4	-44.8	13.1	3.43e-05	0	56	0	1152385024	54	5291
2026-01-08 00:16:57.08	213.36	16.64	-41.1	-44.2	13.7	8.30e-06	0	57	0	1154482176	54	4958
2026-01-08 00:16:58.09	213.32	16.52	-40.9	-43.9	13.9	5.30e-06	0	57	0	1156579328	53	5097
2026-01-08 00:16:59.09	213.28	16.41	-40.8	-43.8	14.1	1.50e-06	0	57	0	1158676480	53	5002
2026-01-08 00:17:00.10	213.24	16.30	-40.4	-43.1	14.7	1.50e-06	0	57	0	1159725056	52	4914
2026-01-08 00:17:01.11	213.21	16.18	-40.4	-43.1	14.7	0.00e+00	0	57	0	1161822208	52	4919
2026-01-08 00:17:02.12	213.17	16.07	-40.3	-42.9	14.9	0.00e+00	0	57	0	1163919360	52	4811
2026-01-08 00:17:03.12	213.13	15.96	-40.2	-42.8	15.1	0.00e+00	0	56	0	1166016512	52	4731
2026-01-08 00:17:04.13	213.09	15.85	-40.2	-42.9	15.0	0.00e+00	0	57	0	1168113664	52	4767
2026-01-08 00:17:05.14	213.06	15.74	-40.1	-42.7	15.2	0.00e+00	0	57	0	1170210816	52	4652
2026-01-08 00:17:06.15	213.02	15.63	-40.0	-42.5	15.4	0.00e+00	0	57	0	1171259392	52	4575
2026-01-08 00:17:07.16	212.98	15.52	-40.0	-42.5	15.3	0.00e+00	0	56	0	1173356544	51	4867
2026-01-08 00:17:08.17	212.95	15.41	-40.2	-42.9	15.1	0.00e+00	0	57	0	1175453696	51	5048
2026-01-08 00:17:09.18	212.91	15.30	-40.3	-42.9	15.0	0.00e+00	0	57	0	1177550848	51	5087
2026-01-08 00:17:10.18	212.88	15.20	-40.3	-42.9	15.0	0.00e+00	0	57	0	1179648000	51	5089
2026-01-08 00:17:11.19	212.84	15.09	-40.5	-43.3	14.6	7.00e-07	0	57	0	1180696576	51	5319
2026-01-08 00:17:12.20	212.81	14.98	-40.6	-43.4	14.5	0.00e+00	0	57	0	1182793728	51	5349
