passes_logs/2026/01/08/R2.0S_Moscow/R2.0S_Moscow__20260108_122314_AQUA_rec.log

#Pass ID: 20260108_122314_AQUA
#Satellite: AQUA
#Configuration: AQUA
#almurnet v.1.7.20251203
#Start time: 2026-01-08 12:23:15

#Version: 2.2.20231116
#Station: R2.0S_Moscow
#Location: 37.707566 lon 55.798166 lat
#TLE: 1 27424U 02022A   26004.96787593  .00001598  00000+0  32997-3 0  9996
#TLE: 2 27424  98.4069 331.2279 0002002  90.2377   0.6092 14.61798176259425

#Time	Az	El	Level	Level2	SNR	BER	BlckErr	Temp	State	Recorded	gain1	gain2
2026-01-08 12:23:15.09	184.39	2.02	-44.8	-63.5	3.8	7.47e-01	0	48	0	0	61	30586
2026-01-08 12:23:16.10	184.43	2.09	-44.8	-63.5	3.8	7.44e-01	0	49	104	0	60	32378
2026-01-08 12:23:17.11	184.47	2.15	-44.8	-63.5	3.8	7.43e-01	0	48	104	0	60	32440
2026-01-08 12:23:18.12	184.52	2.22	-44.8	-63.5	3.8	7.48e-01	0	49	104	0	60	32412
2026-01-08 12:23:19.14	184.56	2.28	-44.8	-63.5	3.8	7.42e-01	0	48	104	0	60	32397
2026-01-08 12:23:20.15	184.61	2.35	-44.8	-63.5	3.8	7.44e-01	0	49	104	0	60	32458
2026-01-08 12:23:21.16	184.65	2.41	-44.8	-63.5	3.8	7.47e-01	0	49	104	0	60	32463
2026-01-08 12:23:22.16	184.69	2.48	-44.8	-63.5	3.8	7.45e-01	0	49	104	0	60	32438
2026-01-08 12:23:23.18	184.74	2.54	-44.8	-63.5	3.8	7.42e-01	0	49	104	0	60	32382
2026-01-08 12:23:24.19	184.78	2.61	-44.8	-63.5	3.8	7.45e-01	0	49	104	0	60	32410
2026-01-08 12:23:25.20	184.83	2.68	-44.8	-63.5	3.8	7.46e-01	0	49	104	0	60	32356
2026-01-08 12:23:26.21	184.87	2.74	-44.8	-63.5	3.8	7.45e-01	0	49	104	0	60	32384
2026-01-08 12:23:27.22	184.92	2.81	-44.8	-63.5	3.8	7.40e-01	0	49	104	0	60	32381
2026-01-08 12:23:28.23	184.96	2.88	-44.8	-63.5	3.8	7.40e-01	0	49	104	0	60	32377
2026-01-08 12:23:29.24	185.01	2.94	-44.8	-63.5	3.8	7.43e-01	0	49	104	0	60	32388
2026-01-08 12:23:30.25	185.06	3.01	-44.8	-63.5	3.8	7.42e-01	0	49	104	0	60	32492
2026-01-08 12:23:31.26	185.10	3.08	-44.8	-63.5	3.8	7.48e-01	0	50	104	0	60	32416
2026-01-08 12:23:32.27	185.15	3.15	-44.8	-63.5	3.8	7.41e-01	0	49	104	0	60	32341
2026-01-08 12:23:33.28	185.20	3.21	-44.8	-63.5	3.8	7.45e-01	0	49	104	0	60	32419
2026-01-08 12:23:34.29	185.24	3.28	-44.8	-63.5	3.8	7.47e-01	0	50	104	0	60	32387
2026-01-08 12:23:35.30	185.29	3.35	-44.8	-63.5	3.8	7.44e-01	0	50	104	0	60	32311
2026-01-08 12:23:36.31	185.34	3.42	-44.8	-63.5	3.8	7.46e-01	0	50	104	0	60	32334
2026-01-08 12:23:37.32	185.39	3.49	-44.8	-63.5	3.8	7.45e-01	0	50	104	0	60	32344
2026-01-08 12:23:38.33	185.43	3.55	-44.8	-63.5	3.8	7.44e-01	0	50	104	0	60	32350
2026-01-08 12:23:39.34	185.48	3.62	-44.8	-63.5	3.8	7.44e-01	0	50	104	0	60	32322
2026-01-08 12:23:40.35	185.53	3.69	-44.8	-63.4	3.8	7.47e-01	0	50	104	0	60	32177
2026-01-08 12:23:41.37	185.58	3.76	-44.8	-63.4	3.8	7.45e-01	0	50	104	0	60	32169
2026-01-08 12:23:42.38	185.63	3.83	-44.8	-63.5	3.8	7.45e-01	0	50	104	0	60	32260
2026-01-08 12:23:43.39	185.68	3.90	-44.8	-63.5	3.8	7.47e-01	0	50	104	0	60	32314
2026-01-08 12:23:44.40	185.73	3.97	-44.8	-63.5	3.8	7.46e-01	0	50	104	0	60	32316
2026-01-08 12:23:45.41	185.78	4.04	-44.8	-63.4	3.8	7.47e-01	0	50	104	0	60	32057
2026-01-08 12:23:46.42	185.83	4.11	-44.8	-63.3	3.8	7.48e-01	0	50	104	0	60	31682
2026-01-08 12:23:47.43	185.88	4.18	-44.7	-63.1	3.8	7.46e-01	0	50	104	0	60	31083
2026-01-08 12:23:48.44	185.93	4.25	-44.7	-63.1	3.8	7.46e-01	0	51	104	0	60	30985
2026-01-08 12:23:49.45	185.98	4.32	-44.7	-62.9	3.8	7.46e-01	0	50	104	0	60	30353
2026-01-08 12:23:50.46	186.03	4.39	-44.7	-62.8	3.8	7.50e-01	0	51	104	0	60	29840
2026-01-08 12:23:51.47	186.08	4.46	-44.7	-62.4	3.8	7.45e-01	0	51	104	0	60	28633
2026-01-08 12:23:52.48	186.13	4.53	-44.7	-62.0	3.8	7.45e-01	0	51	104	0	60	27355
2026-01-08 12:23:53.49	186.18	4.61	-44.7	-61.8	3.8	7.45e-01	0	51	104	0	60	26719
2026-01-08 12:23:54.50	186.23	4.68	-44.7	-61.8	3.9	7.45e-01	0	51	104	0	60	26509
2026-01-08 12:23:55.51	186.29	4.75	-44.7	-61.9	3.8	7.45e-01	0	51	104	0	60	26987
2026-01-08 12:23:56.53	186.34	4.82	-44.7	-61.3	3.9	7.42e-01	0	51	104	0	60	25066
2026-01-08 12:23:57.54	186.39	4.89	-44.7	-62.0	3.8	7.46e-01	0	51	104	0	60	27342
2026-01-08 12:23:58.55	186.44	4.97	-44.7	-62.1	3.8	7.43e-01	0	51	104	0	60	27575
2026-01-08 12:23:59.56	186.50	5.04	-44.7	-61.7	3.8	7.43e-01	0	51	104	0	60	26442
2026-01-08 12:24:00.57	186.55	5.11	-44.7	-61.8	3.8	7.44e-01	0	51	104	0	60	26615
2026-01-08 12:24:01.58	186.60	5.18	-44.7	-61.9	3.8	7.42e-01	0	52	104	0	60	26934
2026-01-08 12:24:02.59	186.66	5.26	-44.7	-62.0	3.8	7.44e-01	0	51	104	0	60	27134
2026-01-08 12:24:03.60	186.71	5.33	-44.7	-62.2	3.8	7.46e-01	0	51	104	0	60	27788
2026-01-08 12:24:04.61	186.77	5.40	-44.7	-62.2	3.8	7.45e-01	0	51	104	0	60	27714
2026-01-08 12:24:05.62	186.82	5.48	-44.7	-62.2	3.8	7.44e-01	0	52	104	0	60	27850
2026-01-08 12:24:06.63	186.88	5.55	-44.7	-62.4	3.8	7.45e-01	0	52	104	0	60	28589
2026-01-08 12:24:07.64	186.93	5.63	-44.7	-62.3	3.8	7.44e-01	0	52	104	0	60	28252
2026-01-08 12:24:08.65	186.99	5.70	-44.7	-62.3	3.8	7.44e-01	0	51	104	0	60	28192
2026-01-08 12:24:09.66	187.04	5.77	-44.7	-61.8	3.8	7.44e-01	0	52	104	0	60	26576
2026-01-08 12:24:10.68	187.10	5.85	-44.6	-60.7	3.8	7.45e-01	0	52	104	0	60	23365
2026-01-08 12:24:11.69	187.16	5.92	-44.6	-59.3	4.4	7.26e-01	0	52	104	0	60	19948
2026-01-08 12:24:12.70	187.21	6.00	-44.5	-58.9	4.0	7.35e-01	0	52	104	0	60	19153
2026-01-08 12:24:13.71	187.27	6.08	-44.5	-57.3	5.4	7.01e-01	2	52	0	0	60	15828
2026-01-08 12:24:14.72	187.33	6.15	-44.4	-56.1	6.3	6.77e-01	92	52	0	1048576	60	13776
2026-01-08 12:24:15.73	187.39	6.23	-44.3	-55.3	6.9	6.66e-01	92	52	0	2621440	60	12639
2026-01-08 12:24:16.74	187.44	6.30	-44.2	-54.4	7.8	6.50e-01	92	52	0	4718592	60	11320
2026-01-08 12:24:17.75	187.50	6.38	-44.1	-53.5	8.7	6.36e-01	3	52	0	6815744	60	10258
2026-01-08 12:24:18.76	187.56	6.46	-44.0	-53.1	9.1	6.30e-01	0	52	0	8388608	60	9756
2026-01-08 12:24:19.77	187.62	6.53	-44.1	-52.7	9.9	6.24e-01	0	52	0	10485760	59	9875
2026-01-08 12:24:20.78	187.68	6.61	-44.0	-52.1	10.5	6.20e-01	0	52	0	12058624	59	9254
2026-01-08 12:24:21.79	187.74	6.69	-43.9	-51.4	11.2	6.15e-01	0	52	0	14155776	59	8561
2026-01-08 12:24:22.80	187.80	6.77	-43.8	-50.9	11.9	6.12e-01	0	53	0	16252928	59	8001
2026-01-08 12:24:23.81	187.86	6.84	-43.7	-50.7	12.0	6.12e-01	0	52	0	17825792	59	7856
2026-01-08 12:24:24.82	187.92	6.92	-43.6	-50.1	12.7	6.12e-01	0	53	0	19922944	59	7290
2026-01-08 12:24:25.83	187.98	7.00	-43.4	-49.6	13.1	6.11e-01	0	53	0	21495808	58	7364
2026-01-08 12:24:26.84	188.04	7.08	-43.3	-49.1	13.7	6.07e-01	0	53	0	23592960	58	6928
2026-01-08 12:24:27.85	188.11	7.16	-43.1	-48.6	14.2	6.09e-01	0	53	0	25690112	58	6542
2026-01-08 12:24:28.86	188.17	7.24	-42.9	-48.1	14.7	6.07e-01	0	53	0	27262976	57	6529
2026-01-08 12:24:29.87	188.23	7.32	-42.7	-47.5	15.4	6.07e-01	0	53	0	29360128	57	6084
2026-01-08 12:24:30.88	188.29	7.39	-42.6	-47.2	15.6	6.07e-01	0	53	0	31457280	57	5856
2026-01-08 12:24:31.89	188.36	7.47	-42.3	-46.5	16.4	6.07e-01	0	53	0	33030144	56	5766
2026-01-08 12:24:32.90	188.42	7.55	-42.2	-46.3	16.6	6.06e-01	0	53	0	35127296	56	5610
2026-01-08 12:24:33.91	188.48	7.63	-41.8	-45.6	17.1	6.07e-01	0	53	0	36700160	55	5527
2026-01-08 12:24:34.92	188.55	7.72	-41.6	-45.4	17.4	6.05e-01	0	53	0	38797312	55	5344
2026-01-08 12:24:35.93	188.61	7.80	-41.6	-45.2	17.6	6.04e-01	0	53	0	40894464	55	5255
2026-01-08 12:24:36.94	188.68	7.88	-41.5	-45.2	17.6	6.06e-01	0	53	0	42467328	55	5231
2026-01-08 12:24:37.95	188.74	7.96	-41.5	-45.2	17.6	6.07e-01	0	53	0	44564480	55	5224
2026-01-08 12:24:38.96	188.81	8.04	-41.7	-45.4	17.4	6.06e-01	0	53	0	46661632	55	5350
2026-01-08 12:24:39.97	188.87	8.12	-41.9	-45.9	17.0	6.06e-01	0	53	0	48234496	55	5670
2026-01-08 12:24:40.98	188.94	8.20	-44.6	-60.7	3.8	7.44e-01	0	53	104	49807360	60	23473
2026-01-08 12:24:41.99	189.01	8.29	-42.4	-46.6	16.3	6.07e-01	0	53	0	50331648	55	6197
2026-01-08 12:24:43.00	189.08	8.37	-43.3	-48.7	14.2	6.08e-01	0	53	0	52428800	57	7025
2026-01-08 12:24:44.01	189.14	8.45	-43.0	-48.2	14.7	6.06e-01	0	53	0	54525952	56	7038
2026-01-08 12:24:45.02	189.21	8.54	-41.2	-44.4	18.4	6.06e-01	0	53	0	56098816	54	5076
2026-01-08 12:24:46.03	189.28	8.62	-41.2	-44.4	18.5	6.06e-01	0	53	0	58195968	54	5087
2026-01-08 12:24:47.04	189.35	8.70	-41.0	-44.2	18.7	6.06e-01	0	53	0	59768832	54	4938
2026-01-08 12:24:48.05	189.42	8.79	-41.1	-44.3	18.7	6.06e-01	0	53	0	61865984	53	5282
2026-01-08 12:24:49.06	189.49	8.87	-41.0	-44.1	18.9	6.05e-01	0	53	0	63963136	53	5179
2026-01-08 12:24:50.07	189.56	8.96	-41.0	-44.2	18.7	6.06e-01	0	54	0	65536000	53	5246
2026-01-08 12:24:51.08	189.63	9.04	-41.1	-44.2	18.7	6.07e-01	0	53	0	67633152	53	5270
2026-01-08 12:24:52.09	189.70	9.13	-41.1	-44.2	18.8	6.06e-01	0	53	0	69730304	53	5266
2026-01-08 12:24:53.10	189.77	9.21	-41.0	-44.2	18.8	6.07e-01	0	54	0	71303168	53	5234
2026-01-08 12:24:54.11	189.84	9.30	-41.0	-44.1	18.9	6.06e-01	0	54	0	73400320	53	5176
2026-01-08 12:24:55.12	189.91	9.38	-41.0	-44.1	18.9	6.05e-01	0	54	0	74973184	53	5211
2026-01-08 12:24:56.13	189.99	9.47	-41.0	-44.0	19.0	6.07e-01	0	54	0	77070336	53	5153
2026-01-08 12:24:57.14	190.06	9.56	-40.9	-43.9	19.1	6.08e-01	0	54	0	78643200	53	5083
2026-01-08 12:24:58.14	190.13	9.64	-41.0	-44.0	19.1	6.05e-01	0	54	0	80740352	53	5119
2026-01-08 12:24:59.15	190.21	9.73	-41.0	-44.1	19.0	6.05e-01	0	54	0	82837504	53	5171
2026-01-08 12:25:00.16	190.28	9.82	-40.8	-43.7	19.4	6.09e-01	0	54	0	84410368	53	4958
2026-01-08 12:25:01.17	190.36	9.90	-40.9	-43.8	19.3	6.06e-01	0	54	0	86507520	53	5036
2026-01-08 12:25:02.18	190.43	9.99	-40.7	-43.6	19.5	6.04e-01	0	54	0	88604672	53	4882
2026-01-08 12:25:03.20	190.51	10.08	-40.8	-43.8	19.3	6.06e-01	0	54	0	90177536	53	4991
2026-01-08 12:25:04.20	190.59	10.17	-40.8	-43.6	19.5	6.07e-01	0	54	0	92274688	53	4916
2026-01-08 12:25:05.21	190.66	10.26	-40.8	-43.7	19.4	6.05e-01	0	54	0	93847552	53	4944
2026-01-08 12:25:06.22	190.74	10.35	-40.7	-43.6	19.6	6.06e-01	0	54	0	95944704	53	4886
2026-01-08 12:25:07.23	190.82	10.44	-40.8	-43.6	19.5	6.05e-01	0	54	0	98041856	53	4926
2026-01-08 12:25:08.24	190.90	10.53	-40.8	-43.7	19.4	6.06e-01	0	54	0	99614720	53	4962
2026-01-08 12:25:09.25	190.97	10.62	-40.8	-43.7	19.5	6.07e-01	0	54	0	101711872	53	4937
2026-01-08 12:25:10.26	191.05	10.71	-40.8	-43.7	19.5	6.06e-01	0	54	0	103284736	53	4965
2026-01-08 12:25:11.27	191.13	10.80	-40.8	-43.7	19.5	6.07e-01	0	54	0	105381888	53	4946
2026-01-08 12:25:12.28	191.21	10.89	-40.9	-43.8	19.4	6.06e-01	0	54	0	107479040	53	4986
2026-01-08 12:25:13.29	191.30	10.98	-40.8	-43.7	19.5	6.04e-01	0	54	0	109051904	53	4932
2026-01-08 12:25:14.30	191.38	11.08	-40.8	-43.7	19.5	6.08e-01	0	54	0	111149056	53	4930
2026-01-08 12:25:15.31	191.46	11.17	-40.7	-43.6	19.6	6.07e-01	0	54	0	113246208	53	4878
2026-01-08 12:25:16.32	191.54	11.26	-40.7	-43.4	19.8	6.06e-01	0	54	0	114819072	53	4810
2026-01-08 12:25:17.33	191.62	11.35	-40.6	-43.4	19.8	6.09e-01	0	54	0	116916224	53	4774
2026-01-08 12:25:18.34	191.71	11.45	-40.7	-43.4	19.8	6.06e-01	0	54	0	118489088	53	4801
2026-01-08 12:25:19.35	191.79	11.54	-40.6	-43.4	19.8	6.08e-01	0	54	0	120586240	53	4792
2026-01-08 12:25:20.35	191.88	11.64	-40.6	-43.3	20.0	6.07e-01	0	54	0	122683392	53	4712
2026-01-08 12:25:21.37	191.96	11.73	-40.5	-43.2	20.1	6.05e-01	0	54	0	124256256	53	4664
2026-01-08 12:25:22.38	192.05	11.83	-40.6	-43.2	20.0	6.07e-01	0	54	0	126353408	53	4705
2026-01-08 12:25:23.38	192.13	11.92	-40.5	-43.1	20.1	6.07e-01	0	54	0	127926272	53	4647
2026-01-08 12:25:24.39	192.22	12.02	-40.6	-43.3	20.0	6.05e-01	0	54	0	130023424	52	4997
2026-01-08 12:25:25.41	192.31	12.11	-40.5	-43.2	20.1	6.07e-01	0	54	0	132120576	52	4952
2026-01-08 12:25:26.42	192.40	12.21	-40.6	-43.3	20.0	6.04e-01	0	54	0	133693440	52	5004
2026-01-08 12:25:27.42	192.49	12.30	-40.6	-43.4	19.9	6.07e-01	0	55	0	135790592	52	5058
2026-01-08 12:25:28.43	192.57	12.40	-40.6	-43.4	19.9	6.06e-01	0	55	0	137363456	52	5046
2026-01-08 12:25:29.44	192.67	12.50	-40.6	-43.3	20.0	6.05e-01	0	55	0	139460608	52	5010
2026-01-08 12:25:30.45	192.76	12.60	-40.5	-43.1	20.1	6.07e-01	0	55	0	141557760	52	4926
2026-01-08 12:25:31.46	192.85	12.69	-40.6	-43.3	20.0	6.08e-01	0	55	0	143130624	52	5004
2026-01-08 12:25:32.47	192.94	12.79	-40.5	-43.2	20.1	6.06e-01	0	54	0	145227776	52	4964
2026-01-08 12:25:33.48	193.03	12.89	-40.5	-43.2	20.2	6.07e-01	0	54	0	146800640	52	4950
2026-01-08 12:25:34.49	193.12	12.99	-40.4	-43.1	20.3	6.07e-01	0	55	0	148897792	52	4881
2026-01-08 12:25:35.50	193.22	13.09	-40.5	-43.2	20.2	6.07e-01	0	55	0	150994944	52	4936
2026-01-08 12:25:36.51	193.31	13.19	-40.5	-43.2	20.2	6.08e-01	0	55	0	152567808	52	4934
2026-01-08 12:25:37.51	193.41	13.29	-40.5	-43.1	20.2	6.06e-01	0	55	0	154664960	52	4924
2026-01-08 12:25:38.52	193.50	13.39	-40.5	-43.2	20.1	6.07e-01	0	55	0	156762112	52	4961
2026-01-08 12:25:39.54	193.60	13.49	-40.5	-43.2	20.2	6.06e-01	0	55	0	158334976	52	4937
2026-01-08 12:25:40.55	193.70	13.60	-40.5	-43.1	20.2	6.07e-01	0	55	0	160432128	52	4913
2026-01-08 12:25:41.55	193.79	13.70	-40.4	-43.1	20.3	6.05e-01	0	55	0	162004992	52	4872
2026-01-08 12:25:42.56	193.89	13.80	-40.5	-43.1	20.3	6.06e-01	0	55	0	164102144	52	4891
2026-01-08 12:25:43.57	193.99	13.90	-40.4	-43.0	20.3	6.05e-01	0	55	0	166199296	52	4860
2026-01-08 12:25:44.58	194.09	14.01	-40.4	-43.0	20.4	6.09e-01	0	55	0	167772160	52	4834
2026-01-08 12:25:45.59	194.19	14.11	-40.3	-42.9	20.5	6.05e-01	0	55	0	169869312	52	4778
2026-01-08 12:25:46.60	194.29	14.21	-40.4	-43.0	20.4	6.05e-01	0	55	0	171442176	52	4816
2026-01-08 12:25:47.61	194.40	14.32	-40.3	-42.8	20.6	6.06e-01	0	55	0	173539328	52	4758
2026-01-08 12:25:48.62	194.50	14.42	-40.3	-42.8	20.6	6.06e-01	0	55	0	175636480	52	4752
2026-01-08 12:25:49.63	194.60	14.53	-40.3	-42.8	20.6	6.05e-01	0	55	0	177209344	52	4711
2026-01-08 12:25:50.64	194.71	14.63	-40.2	-42.7	20.7	6.08e-01	0	55	0	179306496	52	4660
2026-01-08 12:25:51.65	194.81	14.74	-40.1	-42.6	20.8	6.08e-01	0	55	0	181403648	52	4601
2026-01-08 12:25:52.66	194.92	14.85	-40.1	-42.6	20.9	6.08e-01	0	55	0	182976512	52	4602
2026-01-08 12:25:53.67	195.03	14.95	-40.1	-42.6	20.9	6.06e-01	0	55	0	185073664	52	4606
2026-01-08 12:25:54.68	195.13	15.06	-40.1	-42.6	20.9	6.08e-01	0	55	0	186646528	52	4604
2026-01-08 12:25:55.69	195.24	15.17	-40.2	-42.6	20.8	6.04e-01	0	55	0	188743680	52	4651
2026-01-08 12:25:56.70	195.35	15.28	-40.2	-42.7	20.8	6.06e-01	0	55	0	190840832	52	4660
2026-01-08 12:25:57.71	195.46	15.39	-40.3	-42.8	20.7	6.07e-01	0	55	0	192413696	52	4706
2026-01-08 12:25:58.72	195.57	15.50	-40.2	-42.7	20.5	6.06e-01	0	55	0	194510848	52	4682
2026-01-08 12:25:59.73	195.68	15.61	-40.3	-42.7	20.7	6.06e-01	0	55	0	196083712	52	4701
2026-01-08 12:26:00.74	195.80	15.72	-40.3	-42.8	20.7	6.07e-01	0	55	0	198180864	52	4712
2026-01-08 12:26:01.75	195.91	15.83	-40.1	-42.6	20.9	6.07e-01	0	55	0	200278016	52	4599
2026-01-08 12:26:02.76	196.02	15.94	-40.1	-42.6	20.9	6.08e-01	0	55	0	201850880	52	4611
2026-01-08 12:26:03.77	196.14	16.05	-40.2	-42.6	20.8	6.06e-01	0	55	0	203948032	52	4644
2026-01-08 12:26:04.78	196.26	16.16	-40.2	-42.6	20.9	6.08e-01	0	55	0	205520896	52	4637
2026-01-08 12:26:05.79	196.37	16.28	-40.2	-42.6	20.9	6.08e-01	0	55	0	207618048	52	4640
2026-01-08 12:26:06.80	196.49	16.39	-40.2	-42.6	20.8	6.08e-01	0	55	0	209715200	52	4644
2026-01-08 12:26:07.81	196.61	16.50	-40.2	-42.7	20.8	6.07e-01	0	55	0	211288064	52	4653
2026-01-08 12:26:08.81	196.73	16.61	-40.2	-42.6	20.9	6.06e-01	0	55	0	213385216	52	4615
2026-01-08 12:26:09.83	196.85	16.73	-40.2	-42.6	20.9	6.07e-01	0	55	0	214958080	52	4606
2026-01-08 12:26:10.83	196.97	16.84	-40.1	-42.5	21.0	6.09e-01	0	56	0	217055232	52	4582
2026-01-08 12:26:11.85	197.09	16.96	-40.1	-42.4	21.1	6.06e-01	0	55	0	219152384	52	4535
2026-01-08 12:26:12.85	197.22	17.08	-40.1	-42.4	21.1	6.05e-01	0	56	0	220725248	52	4541
2026-01-08 12:26:13.87	197.34	17.19	-40.1	-42.5	21.0	6.07e-01	0	55	0	222822400	52	4580
2026-01-08 12:26:14.87	197.47	17.31	-40.1	-42.5	21.0	6.05e-01	0	56	0	224919552	52	4582
2026-01-08 12:26:15.88	197.59	17.43	-40.2	-42.6	21.0	6.06e-01	0	55	0	226492416	52	4611
2026-01-08 12:26:16.89	197.72	17.54	-40.2	-42.6	20.9	6.03e-01	0	55	0	228589568	52	4620
2026-01-08 12:26:17.90	197.85	17.66	-40.2	-42.6	21.0	6.05e-01	0	55	0	230162432	52	4609
2026-01-08 12:26:18.91	197.98	17.78	-40.1	-42.5	21.0	6.06e-01	0	56	0	232259584	52	4569
2026-01-08 12:26:19.92	198.11	17.90	-40.1	-42.5	21.1	6.06e-01	0	55	0	234356736	52	4548
2026-01-08 12:26:20.93	198.24	18.02	-40.1	-42.4	21.1	6.07e-01	0	56	0	235929600	52	4536
2026-01-08 12:26:21.94	198.37	18.14	-40.1	-42.5	21.1	6.07e-01	0	56	0	238026752	52	4557
2026-01-08 12:26:22.95	198.51	18.26	-40.1	-42.5	21.1	6.07e-01	0	56	0	239599616	52	4579
2026-01-08 12:26:23.96	198.64	18.38	-40.2	-42.6	21.0	6.06e-01	0	56	0	241696768	52	4631
2026-01-08 12:26:24.97	198.78	18.51	-40.2	-42.6	20.9	6.05e-01	0	56	0	243793920	52	4637
2026-01-08 12:26:25.98	198.91	18.63	-40.2	-42.6	21.0	6.07e-01	0	56	0	245366784	52	4630
2026-01-08 12:26:26.99	199.05	18.75	-40.2	-42.5	21.0	6.05e-01	0	56	0	247463936	52	4593
2026-01-08 12:26:28.00	199.19	18.87	-40.2	-42.6	21.0	6.05e-01	0	56	0	249561088	52	4627
2026-01-08 12:26:29.01	199.33	19.00	-40.2	-42.6	21.0	6.07e-01	0	56	0	251133952	52	4647
2026-01-08 12:26:30.02	199.48	19.12	-40.2	-42.7	20.9	6.06e-01	0	56	0	253231104	52	4652
2026-01-08 12:26:31.03	199.62	19.25	-40.2	-42.6	21.0	6.06e-01	0	56	0	254803968	52	4648
2026-01-08 12:26:32.03	199.76	19.37	-40.3	-42.7	20.9	6.07e-01	0	56	0	256901120	52	4676
2026-01-08 12:26:33.04	199.91	19.50	-40.3	-42.7	20.9	6.07e-01	0	56	0	258998272	52	4672
2026-01-08 12:26:34.05	200.05	19.63	-40.2	-42.6	20.9	6.07e-01	0	56	0	260571136	52	4646
2026-01-08 12:26:35.07	200.20	19.75	-40.1	-42.5	21.1	6.05e-01	0	56	0	262668288	52	4581
2026-01-08 12:26:36.07	200.35	19.88	-40.1	-42.5	21.1	6.06e-01	0	56	0	264241152	52	4566
2026-01-08 12:26:37.09	200.50	20.01	-40.2	-42.6	21.1	6.05e-01	0	56	0	266338304	52	4614
2026-01-08 12:26:38.10	200.65	20.14	-40.3	-42.7	20.9	6.07e-01	0	56	0	268435456	52	4674
2026-01-08 12:26:39.11	200.81	20.27	-40.4	-42.8	20.8	6.07e-01	0	56	0	270008320	52	4738
2026-01-08 12:26:40.12	200.96	20.40	-40.4	-42.9	20.8	6.05e-01	0	56	0	272105472	52	4778
2026-01-08 12:26:41.13	201.12	20.53	-40.4	-42.8	20.8	6.06e-01	0	56	0	273678336	52	4742
2026-01-08 12:26:42.14	201.27	20.66	-40.4	-42.8	20.8	6.05e-01	0	56	0	275775488	52	4729
2026-01-08 12:26:43.14	201.43	20.79	-40.3	-42.7	20.9	6.04e-01	0	56	0	277872640	52	4685
2026-01-08 12:26:44.15	201.59	20.92	-40.3	-42.7	21.0	6.09e-01	0	56	0	279445504	52	4662
2026-01-08 12:26:45.16	201.75	21.05	-40.4	-42.8	20.9	6.06e-01	0	56	0	281542656	52	4734
2026-01-08 12:26:46.17	201.92	21.19	-40.5	-43.0	20.7	6.07e-01	0	56	0	283115520	52	4838
2026-01-08 12:26:47.18	202.08	21.32	-40.6	-43.1	20.5	6.06e-01	0	56	0	285212672	52	4920
2026-01-08 12:26:48.19	202.25	21.46	-40.5	-42.9	20.7	6.06e-01	0	56	0	287309824	52	4812
2026-01-08 12:26:49.20	202.41	21.59	-40.3	-42.8	20.9	6.04e-01	0	56	0	288882688	52	4711
2026-01-08 12:26:50.21	202.58	21.73	-40.3	-42.7	21.0	6.05e-01	0	56	0	290979840	52	4666
2026-01-08 12:26:51.22	202.75	21.86	-40.3	-42.8	20.9	6.05e-01	0	56	0	293076992	52	4707
2026-01-08 12:26:52.23	202.92	22.00	-40.4	-42.9	20.8	6.07e-01	0	56	0	294649856	52	4792
2026-01-08 12:26:53.24	203.10	22.13	-40.5	-43.0	20.7	6.06e-01	0	56	0	296747008	52	4835
2026-01-08 12:26:54.25	203.27	22.27	-40.4	-42.8	20.8	6.07e-01	0	56	0	298319872	52	4749
2026-01-08 12:26:55.26	203.45	22.41	-40.4	-42.8	20.9	6.08e-01	0	56	0	300417024	52	4720
2026-01-08 12:26:56.27	203.63	22.55	-40.4	-42.8	20.9	6.09e-01	0	56	0	302514176	52	4735
2026-01-08 12:26:57.28	203.81	22.69	-40.4	-42.9	20.9	6.05e-01	0	56	0	304087040	52	4760
2026-01-08 12:26:58.29	203.99	22.83	-40.5	-43.0	20.7	6.05e-01	0	56	0	306184192	52	4852
2026-01-08 12:26:59.30	204.17	22.97	-40.5	-43.0	20.7	6.06e-01	0	56	0	307757056	52	4840
2026-01-08 12:27:00.31	204.35	23.11	-40.5	-42.9	20.8	6.07e-01	0	56	0	309854208	52	4799
2026-01-08 12:27:01.32	204.54	23.25	-40.3	-42.8	20.9	6.07e-01	0	56	0	311951360	52	4709
2026-01-08 12:27:02.33	204.73	23.39	-40.3	-42.7	21.0	6.05e-01	0	56	0	313524224	52	4687
2026-01-08 12:27:03.34	204.92	23.53	-40.4	-42.8	21.0	6.07e-01	0	56	0	315621376	52	4715
2026-01-08 12:27:04.35	205.11	23.68	-40.4	-42.8	21.0	6.07e-01	0	56	0	317718528	52	4726
2026-01-08 12:27:05.36	205.30	23.82	-40.3	-42.7	21.0	6.05e-01	0	56	0	319291392	52	4681
2026-01-08 12:27:06.37	205.50	23.97	-40.4	-42.8	20.9	6.04e-01	0	56	0	321388544	52	4747
2026-01-08 12:27:07.38	205.70	24.11	-40.5	-42.9	20.8	6.06e-01	0	56	0	322961408	52	4810
2026-01-08 12:27:08.39	205.90	24.26	-40.5	-42.9	20.8	6.05e-01	0	56	0	325058560	52	4800
2026-01-08 12:27:09.40	206.10	24.40	-40.4	-42.8	20.9	6.06e-01	0	56	0	327155712	52	4735
2026-01-08 12:27:10.41	206.30	24.55	-40.2	-42.6	21.1	6.08e-01	0	56	0	328728576	52	4611
2026-01-08 12:27:11.42	206.50	24.69	-40.3	-42.7	21.1	6.07e-01	0	56	0	330825728	52	4674
2026-01-08 12:27:12.43	206.71	24.84	-40.4	-42.9	20.9	6.06e-01	0	56	0	332398592	52	4777
2026-01-08 12:27:13.44	206.92	24.99	-40.4	-42.8	20.9	6.04e-01	0	56	0	334495744	52	4756
2026-01-08 12:27:14.45	207.13	25.14	-40.4	-42.8	21.0	6.08e-01	0	56	0	336592896	52	4728
2026-01-08 12:27:15.46	207.34	25.29	-40.3	-42.7	21.1	6.08e-01	0	56	0	338165760	52	4672
2026-01-08 12:27:16.46	207.56	25.43	-40.4	-42.7	21.1	6.06e-01	0	56	0	340262912	52	4700
2026-01-08 12:27:17.47	207.77	25.58	-40.4	-42.8	21.0	6.07e-01	0	56	0	341835776	52	4730
2026-01-08 12:27:18.48	207.99	25.73	-40.4	-42.8	20.9	6.07e-01	0	56	0	343932928	52	4748
2026-01-08 12:27:19.49	208.21	25.89	-40.5	-42.9	20.9	6.07e-01	0	56	0	346030080	52	4778
2026-01-08 12:27:20.50	208.44	26.04	-40.4	-42.8	21.0	6.05e-01	0	56	0	347602944	52	4715
2026-01-08 12:27:21.51	208.66	26.19	-40.3	-42.7	21.1	6.07e-01	0	56	0	349700096	52	4692
2026-01-08 12:27:22.52	208.89	26.34	-40.4	-42.7	21.1	6.07e-01	0	56	0	351272960	52	4700
2026-01-08 12:27:23.53	209.12	26.49	-40.4	-42.8	21.0	6.07e-01	0	56	0	353370112	52	4742
2026-01-08 12:27:24.54	209.35	26.65	-40.5	-42.9	20.9	6.07e-01	0	56	0	355467264	52	4777
2026-01-08 12:27:25.55	209.59	26.80	-40.4	-42.8	20.9	6.05e-01	0	57	0	357040128	52	4752
2026-01-08 12:27:26.56	209.82	26.95	-40.4	-42.8	21.0	6.04e-01	0	56	0	359137280	52	4740
2026-01-08 12:27:27.57	210.06	27.11	-40.4	-42.8	21.0	6.05e-01	0	56	0	361234432	52	4730
2026-01-08 12:27:28.58	210.30	27.26	-40.4	-42.8	21.0	6.04e-01	0	56	0	362807296	52	4723
2026-01-08 12:27:29.59	210.55	27.42	-40.4	-42.9	21.0	6.07e-01	0	56	0	364904448	52	4766
2026-01-08 12:27:30.60	210.79	27.58	-40.4	-42.8	21.0	6.07e-01	0	57	0	366477312	52	4742
2026-01-08 12:27:31.61	211.04	27.73	-40.4	-42.8	21.0	6.04e-01	0	56	0	368574464	52	4723
2026-01-08 12:27:32.62	211.29	27.89	-40.4	-42.9	21.0	6.06e-01	0	56	0	370671616	52	4760
2026-01-08 12:27:33.63	211.55	28.05	-40.4	-42.8	21.0	6.07e-01	0	56	0	372244480	52	4737
2026-01-08 12:27:34.64	211.80	28.20	-40.4	-42.7	21.1	6.03e-01	0	56	0	374341632	52	4696
2026-01-08 12:27:35.65	212.06	28.36	-40.3	-42.7	21.2	6.06e-01	0	56	0	375914496	52	4663
2026-01-08 12:27:36.66	212.32	28.52	-40.3	-42.7	21.2	6.04e-01	0	56	0	378011648	52	4669
2026-01-08 12:27:37.67	212.59	28.68	-40.3	-42.7	21.1	6.05e-01	0	57	0	380108800	52	4676
2026-01-08 12:27:38.68	212.85	28.84	-40.3	-42.7	21.2	6.07e-01	0	57	0	381681664	52	4653
2026-01-08 12:27:39.68	213.12	28.99	-40.4	-42.8	21.1	6.08e-01	0	57	0	383778816	52	4707
2026-01-08 12:27:40.70	213.40	29.15	-40.4	-42.8	21.0	6.06e-01	0	57	0	385875968	52	4747
2026-01-08 12:27:41.70	213.67	29.31	-40.3	-42.7	21.2	6.05e-01	0	57	0	387448832	52	4670
2026-01-08 12:27:42.71	213.95	29.47	-40.4	-42.7	21.1	6.05e-01	0	57	0	389545984	52	4692
2026-01-08 12:27:43.72	214.23	29.63	-40.3	-42.7	21.2	6.05e-01	0	57	0	391118848	52	4667
2026-01-08 12:27:44.73	214.51	29.79	-40.3	-42.7	21.1	6.08e-01	0	57	0	393216000	52	4671
2026-01-08 12:27:45.74	214.80	29.95	-40.4	-42.8	21.1	6.08e-01	0	57	0	395313152	52	4728
2026-01-08 12:27:46.75	215.08	30.11	-40.4	-42.8	21.1	6.07e-01	0	57	0	396886016	52	4706
2026-01-08 12:27:47.76	215.38	30.28	-40.3	-42.6	21.2	6.09e-01	0	57	0	398983168	52	4650
2026-01-08 12:27:48.77	215.67	30.44	-40.4	-42.8	21.1	6.07e-01	0	56	0	400556032	52	4736
2026-01-08 12:27:49.78	215.97	30.60	-40.4	-42.8	21.0	6.07e-01	0	57	0	402653184	52	4750
2026-01-08 12:27:50.79	216.27	30.76	-40.4	-42.7	21.1	6.08e-01	0	57	0	404750336	52	4686
2026-01-08 12:27:51.80	216.57	30.92	-40.3	-42.7	21.2	6.07e-01	0	57	0	406323200	52	4666
2026-01-08 12:27:52.81	216.88	31.08	-40.5	-43.0	20.9	6.07e-01	0	57	0	408420352	52	4840
2026-01-08 12:27:53.82	217.19	31.25	-40.5	-42.9	21.0	6.04e-01	0	57	0	409993216	52	4776
2026-01-08 12:27:54.83	217.51	31.41	-40.4	-42.8	21.1	6.07e-01	0	57	0	412090368	52	4712
2026-01-08 12:27:55.84	217.82	31.57	-40.5	-42.9	21.0	6.07e-01	0	57	0	414187520	52	4763
2026-01-08 12:27:56.85	218.14	31.73	-40.3	-42.7	21.1	6.09e-01	0	57	0	415760384	52	4686
2026-01-08 12:27:57.86	218.47	31.89	-40.6	-43.0	20.9	6.07e-01	0	57	0	417857536	52	4848
2026-01-08 12:27:58.87	218.79	32.06	-40.6	-43.1	20.8	6.08e-01	0	57	0	419430400	52	4889
2026-01-08 12:27:59.87	219.12	32.22	-40.4	-42.8	21.0	6.07e-01	0	57	0	421527552	52	4754
2026-01-08 12:28:00.88	219.45	32.38	-40.3	-42.6	21.2	6.04e-01	0	57	0	423624704	52	4648
2026-01-08 12:28:01.89	219.79	32.54	-40.5	-43.0	20.9	6.05e-01	0	57	0	425197568	52	4825
2026-01-08 12:28:02.90	220.13	32.70	-40.6	-43.1	20.8	6.06e-01	0	57	0	427294720	52	4912
2026-01-08 12:28:03.91	220.47	32.86	-40.5	-42.9	20.9	6.05e-01	0	57	0	428867584	52	4806
2026-01-08 12:28:04.92	220.82	33.02	-40.6	-43.1	20.8	6.08e-01	0	57	0	430964736	52	4887
2026-01-08 12:28:05.93	221.17	33.19	-40.7	-43.2	20.7	6.07e-01	0	57	0	433061888	52	4974
2026-01-08 12:28:06.94	221.52	33.35	-40.6	-43.1	20.8	6.07e-01	0	57	0	434634752	52	4876
2026-01-08 12:28:07.95	221.88	33.51	-40.5	-43.0	20.9	6.06e-01	0	57	0	436731904	52	4834
2026-01-08 12:28:08.96	222.24	33.67	-40.6	-43.1	20.8	6.08e-01	0	57	0	438829056	52	4910
2026-01-08 12:28:09.97	222.61	33.83	-40.7	-43.2	20.7	6.07e-01	0	57	0	440401920	52	4961
2026-01-08 12:28:10.98	222.97	33.99	-40.9	-43.5	20.4	6.06e-01	0	57	0	442499072	52	5131
2026-01-08 12:28:11.99	223.35	34.14	-40.7	-43.2	20.6	6.03e-01	0	57	0	444071936	52	4983
2026-01-08 12:28:12.99	223.72	34.30	-40.7	-43.2	20.7	6.07e-01	0	57	0	446169088	52	4929
2026-01-08 12:28:14.00	224.10	34.46	-40.8	-43.3	20.6	6.08e-01	0	57	0	448266240	52	5033
2026-01-08 12:28:15.01	224.48	34.62	-40.8	-43.3	20.6	6.05e-01	0	57	0	449839104	52	5008
2026-01-08 12:28:16.02	224.87	34.77	-40.8	-43.4	20.5	6.08e-01	0	57	0	451936256	52	5062
2026-01-08 12:28:17.03	225.26	34.93	-40.9	-43.5	20.4	6.07e-01	0	57	0	453509120	52	5105
2026-01-08 12:28:18.04	225.65	35.09	-40.7	-43.2	20.7	6.06e-01	0	57	0	455606272	52	4943
2026-01-08 12:28:19.05	226.05	35.24	-40.7	-43.2	20.7	6.05e-01	0	57	0	457703424	52	4964
2026-01-08 12:28:20.06	226.45	35.40	-40.8	-43.4	20.5	6.02e-01	0	57	0	459276288	52	5050
2026-01-08 12:28:21.07	226.86	35.55	-40.8	-43.4	20.6	6.08e-01	0	57	0	461373440	52	5066
2026-01-08 12:28:22.08	227.27	35.70	-41.0	-43.6	20.3	6.06e-01	0	57	0	462946304	52	5199
2026-01-08 12:28:23.08	227.68	35.85	-40.7	-43.2	20.7	6.08e-01	0	57	0	465043456	52	4969
2026-01-08 12:28:24.09	228.09	36.01	-40.8	-43.3	20.5	6.05e-01	0	57	0	467140608	52	5038
2026-01-08 12:28:25.10	228.52	36.16	-40.8	-43.4	20.5	6.07e-01	0	57	0	468713472	52	5074
2026-01-08 12:28:26.12	228.94	36.31	-40.9	-43.4	20.5	6.07e-01	0	57	0	470810624	52	5089
2026-01-08 12:28:27.12	229.37	36.45	-40.9	-43.5	20.4	6.06e-01	0	57	0	472383488	52	5142
2026-01-08 12:28:28.14	229.81	36.60	-40.9	-43.5	20.4	6.04e-01	0	57	0	474480640	52	5101
2026-01-08 12:28:29.15	230.24	36.75	-40.9	-43.5	20.4	6.06e-01	0	57	0	476577792	52	5115
2026-01-08 12:28:30.16	230.69	36.89	-40.6	-43.0	20.8	6.05e-01	0	57	0	478150656	52	4869
2026-01-08 12:28:31.16	231.13	37.04	-40.8	-43.4	20.5	6.07e-01	0	57	0	480247808	52	5070
2026-01-08 12:28:32.17	231.57	37.18	-41.0	-43.6	20.4	6.06e-01	0	57	0	482344960	52	5169
2026-01-08 12:28:33.18	232.03	37.32	-40.7	-43.2	20.7	6.04e-01	0	57	0	483917824	52	4961
2026-01-08 12:28:34.19	232.48	37.46	-40.7	-43.2	20.7	6.05e-01	0	57	0	486014976	52	4967
2026-01-08 12:28:35.20	232.95	37.60	-40.9	-43.5	20.4	6.07e-01	0	57	0	487587840	52	5156
2026-01-08 12:28:36.21	233.41	37.74	-40.7	-43.2	20.7	6.08e-01	0	57	0	489684992	52	4961
2026-01-08 12:28:37.22	233.88	37.87	-40.8	-43.4	20.6	6.06e-01	0	57	0	491782144	52	5043
2026-01-08 12:28:38.23	234.35	38.01	-40.8	-43.4	20.5	6.04e-01	0	57	0	493355008	52	5047
2026-01-08 12:28:39.24	234.83	38.14	-40.6	-43.1	20.8	6.06e-01	0	57	0	495452160	52	4895
2026-01-08 12:28:40.25	235.31	38.27	-40.7	-43.2	20.7	6.06e-01	0	57	0	497025024	52	4980
2026-01-08 12:28:41.26	235.79	38.40	-40.6	-43.2	20.7	6.06e-01	0	57	0	499122176	52	4933
2026-01-08 12:28:42.27	236.28	38.53	-40.7	-43.2	20.7	6.07e-01	0	57	0	501219328	52	4936
2026-01-08 12:28:43.28	236.77	38.65	-40.6	-43.1	20.9	6.07e-01	0	57	0	502792192	52	4886
2026-01-08 12:28:44.29	237.27	38.78	-40.6	-43.0	20.9	6.07e-01	0	57	0	504889344	52	4835
2026-01-08 12:28:45.29	237.76	38.90	-40.7	-43.2	20.7	6.08e-01	0	57	0	506986496	52	4960
2026-01-08 12:28:46.30	238.27	39.02	-40.6	-43.1	20.9	6.08e-01	0	57	0	508559360	52	4878
2026-01-08 12:28:47.31	238.77	39.14	-40.5	-42.9	21.0	6.06e-01	0	57	0	510656512	52	4767
2026-01-08 12:28:48.32	239.29	39.25	-40.6	-43.0	20.9	6.05e-01	0	57	0	512229376	52	4842
2026-01-08 12:28:49.33	239.80	39.37	-40.5	-42.9	21.1	6.08e-01	0	57	0	514326528	52	4760
2026-01-08 12:28:50.34	240.32	39.48	-40.5	-42.9	21.0	6.07e-01	0	57	0	516423680	52	4793
2026-01-08 12:28:51.35	240.84	39.59	-40.5	-42.9	21.0	6.04e-01	0	57	0	517996544	52	4802
2026-01-08 12:28:52.36	241.36	39.70	-40.6	-43.0	20.9	6.09e-01	0	57	0	520093696	52	4846
2026-01-08 12:28:53.37	241.89	39.80	-40.4	-42.7	21.2	6.05e-01	0	57	0	521666560	52	4678
2026-01-08 12:28:54.38	242.43	39.91	-40.4	-42.8	21.1	6.05e-01	0	57	0	523763712	52	4725
2026-01-08 12:28:55.39	242.96	40.01	-40.6	-43.1	20.8	6.04e-01	0	57	0	525860864	52	4895
2026-01-08 12:28:56.40	243.50	40.10	-40.3	-42.6	21.3	6.07e-01	0	57	0	527433728	52	4632
2026-01-08 12:28:57.41	244.04	40.20	-40.5	-42.9	21.0	6.06e-01	0	57	0	529530880	52	4799
2026-01-08 12:28:58.42	244.59	40.29	-40.4	-42.7	21.2	6.06e-01	0	57	0	531103744	52	4699
2026-01-08 12:28:59.43	245.13	40.38	-40.5	-43.0	21.0	6.08e-01	0	57	0	533200896	52	4819
2026-01-08 12:29:00.44	245.69	40.47	-40.4	-42.8	21.1	6.08e-01	0	57	0	535298048	52	4739
2026-01-08 12:29:01.45	246.24	40.56	-40.5	-43.0	20.9	6.06e-01	0	57	0	536870912	52	4825
2026-01-08 12:29:02.46	246.80	40.64	-40.5	-42.9	21.0	6.03e-01	0	57	0	538968064	52	4764
2026-01-08 12:29:03.47	247.36	40.72	-40.3	-42.6	21.3	6.09e-01	0	57	0	540540928	52	4649
2026-01-08 12:29:04.48	247.92	40.80	-40.5	-42.9	21.0	6.06e-01	0	57	0	542638080	52	4804
2026-01-08 12:29:05.49	248.49	40.87	-40.3	-42.6	21.3	6.07e-01	0	57	0	544735232	52	4623
2026-01-08 12:29:06.50	249.05	40.94	-40.3	-42.7	21.3	6.07e-01	0	57	0	546308096	52	4666
2026-01-08 12:29:07.51	249.62	41.01	-40.4	-42.7	21.2	6.04e-01	0	57	0	548405248	52	4700
2026-01-08 12:29:08.52	250.20	41.07	-40.3	-42.7	21.3	6.06e-01	0	57	0	550502400	52	4653
2026-01-08 12:29:09.53	250.77	41.14	-40.3	-42.6	21.3	6.08e-01	0	57	0	552075264	52	4607
2026-01-08 12:29:10.54	251.35	41.20	-40.3	-42.6	21.3	6.05e-01	0	57	0	554172416	52	4639
2026-01-08 12:29:11.55	251.93	41.25	-40.2	-42.5	21.4	6.06e-01	0	57	0	555745280	52	4596
2026-01-08 12:29:12.56	252.51	41.30	-40.3	-42.6	21.3	6.08e-01	0	57	0	557842432	52	4635
2026-01-08 12:29:13.56	253.09	41.35	-40.2	-42.5	21.4	6.04e-01	0	57	0	559939584	52	4552
2026-01-08 12:29:14.57	253.67	41.40	-40.5	-42.9	21.0	6.09e-01	0	57	0	561512448	52	4810
2026-01-08 12:29:15.58	254.26	41.44	-40.3	-42.6	21.3	6.05e-01	0	57	0	563609600	52	4612
2026-01-08 12:29:16.60	254.85	41.49	-40.3	-42.7	21.3	6.08e-01	0	57	0	565182464	52	4662
2026-01-08 12:29:17.60	255.43	41.52	-40.4	-42.8	21.1	6.06e-01	0	57	0	567279616	52	4722
2026-01-08 12:29:18.61	256.02	41.56	-40.3	-42.7	21.2	6.04e-01	0	57	0	569376768	52	4671
2026-01-08 12:29:19.62	256.61	41.59	-40.3	-42.6	21.2	6.05e-01	0	57	0	570949632	52	4651
2026-01-08 12:29:20.63	257.21	41.61	-40.1	-42.4	21.5	6.07e-01	0	57	0	573046784	52	4524
2026-01-08 12:29:21.64	257.80	41.64	-40.2	-42.4	21.5	6.07e-01	0	57	0	575143936	52	4542
2026-01-08 12:29:22.65	258.40	41.66	-40.3	-42.7	21.3	6.07e-01	0	57	0	576716800	52	4664
2026-01-08 12:29:23.66	258.99	41.68	-40.2	-42.5	21.4	6.07e-01	0	57	0	578813952	52	4564
2026-01-08 12:29:24.67	259.59	41.69	-40.1	-42.4	21.6	6.07e-01	0	57	0	580386816	52	4510
2026-01-08 12:29:25.68	260.18	41.70	-40.3	-42.6	21.3	6.07e-01	0	57	0	582483968	52	4636
2026-01-08 12:29:26.69	260.78	41.71	-40.4	-42.7	21.2	6.05e-01	0	57	0	584581120	52	4689
2026-01-08 12:29:27.70	261.38	41.71	-40.2	-42.5	21.4	6.08e-01	0	57	0	586153984	52	4596
2026-01-08 12:29:28.71	261.97	41.71	-40.3	-42.6	21.3	6.06e-01	0	57	0	588251136	52	4625
2026-01-08 12:29:29.72	262.57	41.71	-40.4	-42.7	21.2	6.06e-01	0	57	0	589824000	52	4682
2026-01-08 12:29:30.73	263.17	41.70	-40.4	-42.8	21.1	6.05e-01	0	57	0	591921152	52	4713
2026-01-08 12:29:31.74	263.76	41.69	-40.3	-42.6	21.3	6.08e-01	0	57	0	594018304	52	4617
2026-01-08 12:29:32.75	264.36	41.68	-40.1	-42.4	21.5	6.05e-01	0	58	0	595591168	52	4522
2026-01-08 12:29:33.76	264.95	41.66	-40.3	-42.7	21.3	6.07e-01	0	57	0	597688320	52	4665
2026-01-08 12:29:34.77	265.55	41.64	-40.4	-42.8	21.1	6.07e-01	0	57	0	599261184	52	4756
2026-01-08 12:29:35.78	266.14	41.62	-40.2	-42.6	21.3	6.08e-01	0	57	0	601358336	52	4599
2026-01-08 12:29:36.79	266.73	41.59	-40.2	-42.5	21.5	6.05e-01	0	57	0	603455488	52	4553
2026-01-08 12:29:37.81	267.33	41.56	-40.5	-42.9	21.1	6.07e-01	0	57	0	605028352	52	4767
2026-01-08 12:29:38.81	267.91	41.53	-40.5	-42.9	21.0	6.06e-01	0	57	0	607125504	52	4788
2026-01-08 12:29:39.82	268.50	41.50	-40.4	-42.8	21.2	6.08e-01	0	57	0	608698368	52	4710
2026-01-08 12:29:40.83	269.09	41.46	-40.5	-42.9	21.1	6.06e-01	0	57	0	610795520	52	4771
2026-01-08 12:29:41.84	269.68	41.41	-40.2	-42.5	21.4	6.05e-01	0	57	0	612892672	52	4563
2026-01-08 12:29:42.85	270.26	41.37	-40.5	-43.0	21.0	6.07e-01	0	57	0	614465536	52	4819
2026-01-08 12:29:43.86	270.84	41.32	-40.5	-42.9	21.0	6.05e-01	0	57	0	616562688	52	4763
2026-01-08 12:29:44.87	271.43	41.27	-40.4	-42.8	21.2	6.06e-01	0	57	0	618659840	52	4715
2026-01-08 12:29:45.88	272.00	41.21	-40.6	-43.1	20.9	6.08e-01	0	57	0	620232704	52	4877
2026-01-08 12:29:46.89	272.58	41.15	-40.5	-43.0	20.9	6.06e-01	0	57	0	622329856	52	4825
2026-01-08 12:29:47.90	273.16	41.09	-40.4	-42.7	21.2	6.07e-01	0	57	0	623902720	52	4688
2026-01-08 12:29:48.91	273.73	41.03	-40.6	-43.1	20.8	6.05e-01	0	57	0	625999872	52	4878
2026-01-08 12:29:49.92	274.30	40.96	-40.4	-42.8	21.1	6.07e-01	0	57	0	628097024	52	4736
2026-01-08 12:29:50.93	274.87	40.89	-40.5	-42.8	21.1	6.07e-01	0	57	0	629669888	52	4755
2026-01-08 12:29:51.94	275.43	40.82	-40.5	-42.9	21.0	6.07e-01	0	57	0	631767040	52	4811
2026-01-08 12:29:52.95	275.99	40.74	-40.5	-42.9	21.0	6.07e-01	0	58	0	633339904	52	4811
2026-01-08 12:29:53.95	276.55	40.66	-40.5	-43.0	21.0	6.05e-01	0	57	0	635437056	52	4821
2026-01-08 12:29:54.96	277.10	40.58	-40.5	-42.9	21.0	6.06e-01	0	57	0	637534208	52	4788
2026-01-08 12:29:55.98	277.66	40.50	-40.5	-42.9	21.1	6.06e-01	0	58	0	639107072	52	4769
2026-01-08 12:29:56.99	278.21	40.41	-40.6	-43.0	20.9	6.08e-01	0	57	0	641204224	52	4867
2026-01-08 12:29:58.00	278.76	40.32	-40.6	-43.1	20.8	6.07e-01	0	57	0	643301376	52	4897
2026-01-08 12:29:59.01	279.31	40.23	-40.6	-43.0	20.9	6.07e-01	0	57	0	644874240	52	4847
2026-01-08 12:30:00.01	279.84	40.13	-40.6	-43.0	20.9	6.09e-01	0	57	0	646971392	52	4830
2026-01-08 12:30:01.02	280.38	40.04	-40.7	-43.2	20.8	6.06e-01	0	57	0	648544256	52	4933
2026-01-08 12:30:02.03	280.92	39.94	-40.6	-43.1	20.8	6.05e-01	0	58	0	650641408	52	4896
2026-01-08 12:30:03.04	281.45	39.83	-40.5	-42.9	21.0	6.06e-01	0	57	0	652738560	52	4775
2026-01-08 12:30:04.05	281.98	39.73	-40.7	-43.2	20.7	6.04e-01	0	58	0	654311424	52	4942
2026-01-08 12:30:05.06	282.50	39.62	-40.6	-43.0	20.9	6.06e-01	0	58	0	656408576	52	4855
2026-01-08 12:30:06.08	283.03	39.51	-40.6	-43.1	20.8	6.07e-01	0	57	0	657981440	52	4886
2026-01-08 12:30:07.08	283.54	39.40	-40.6	-43.0	20.8	6.04e-01	0	57	0	660078592	52	4857
2026-01-08 12:30:08.09	284.06	39.29	-40.4	-42.8	21.1	6.06e-01	0	57	0	662175744	52	4752
2026-01-08 12:30:09.10	284.57	39.18	-40.7	-43.2	20.8	6.06e-01	0	57	0	663748608	52	4935
2026-01-08 12:30:10.11	285.07	39.06	-40.7	-43.2	20.7	6.06e-01	0	57	0	665845760	52	4972
2026-01-08 12:30:11.12	285.58	38.94	-40.6	-43.0	20.8	6.08e-01	0	58	0	667418624	52	4850
2026-01-08 12:30:12.13	286.08	38.82	-40.5	-42.9	21.1	6.05e-01	0	58	0	669515776	52	4766
2026-01-08 12:30:13.14	286.57	38.70	-40.8	-43.3	20.6	6.07e-01	0	58	0	671612928	52	5016
2026-01-08 12:30:14.15	287.06	38.57	-40.7	-43.2	20.7	6.06e-01	0	57	0	673185792	52	4967
2026-01-08 12:30:15.17	287.56	38.44	-40.7	-43.2	20.7	6.05e-01	0	58	0	675282944	52	4974
2026-01-08 12:30:16.18	288.04	38.31	-40.4	-42.8	21.1	6.07e-01	0	58	0	676855808	52	4713
2026-01-08 12:30:17.19	288.52	38.18	-40.5	-42.9	21.0	6.06e-01	0	58	0	678952960	52	4799
2026-01-08 12:30:18.20	289.00	38.05	-40.7	-43.2	20.7	6.08e-01	0	58	0	681050112	52	4966
2026-01-08 12:30:19.21	289.47	37.92	-40.7	-43.2	20.7	6.08e-01	0	58	0	682622976	52	4943
2026-01-08 12:30:20.22	289.94	37.78	-40.4	-42.7	21.2	6.07e-01	0	58	0	684720128	52	4685
2026-01-08 12:30:21.23	290.40	37.65	-40.4	-42.8	21.1	6.06e-01	0	58	0	686817280	52	4740
2026-01-08 12:30:22.24	290.86	37.51	-40.6	-43.1	20.8	6.08e-01	0	58	0	688390144	52	4904
2026-01-08 12:30:23.25	291.32	37.37	-40.4	-42.8	21.1	6.09e-01	0	57	0	690487296	52	4746
2026-01-08 12:30:24.26	291.77	37.23	-40.3	-42.7	21.2	6.06e-01	0	57	0	692060160	52	4657
2026-01-08 12:30:25.27	292.22	37.09	-40.4	-42.7	21.2	6.04e-01	0	58	0	694157312	52	4690
2026-01-08 12:30:26.28	292.66	36.95	-40.3	-42.7	21.2	6.07e-01	0	57	0	696254464	52	4658
2026-01-08 12:30:27.29	293.11	36.80	-40.3	-42.7	21.2	6.08e-01	0	58	0	697827328	52	4664
2026-01-08 12:30:28.30	293.54	36.66	-40.3	-42.6	21.2	6.07e-01	0	58	0	699924480	52	4635
2026-01-08 12:30:29.31	293.97	36.51	-40.2	-42.5	21.2	6.06e-01	0	57	0	701497344	52	4597
2026-01-08 12:30:30.32	294.40	36.36	-40.2	-42.5	21.4	6.07e-01	0	57	0	703594496	52	4549
2026-01-08 12:30:31.33	294.83	36.21	-40.1	-42.4	21.5	6.06e-01	0	58	0	705691648	52	4503
2026-01-08 12:30:32.34	295.25	36.07	-40.1	-42.4	21.5	6.05e-01	0	58	0	707264512	52	4533
2026-01-08 12:30:33.35	295.67	35.91	-40.1	-42.4	21.4	6.06e-01	0	58	0	709361664	52	4539
2026-01-08 12:30:34.37	296.08	35.76	-40.2	-42.5	21.3	6.07e-01	0	58	0	711458816	52	4585
2026-01-08 12:30:35.38	296.49	35.61	-40.1	-42.3	21.5	6.07e-01	0	58	0	713031680	52	4493
2026-01-08 12:30:36.39	296.90	35.46	-40.0	-42.2	21.7	6.06e-01	0	58	0	715128832	51	4668
2026-01-08 12:30:37.39	297.30	35.31	-40.0	-42.2	21.8	6.06e-01	0	58	0	716701696	51	4653
2026-01-08 12:30:38.40	297.69	35.15	-40.0	-42.2	21.7	6.03e-01	0	57	0	718798848	51	4689
2026-01-08 12:30:39.41	298.09	35.00	-40.0	-42.2	21.7	6.07e-01	0	58	0	720896000	51	4685
2026-01-08 12:30:40.42	298.48	34.84	-40.0	-42.2	21.7	6.09e-01	0	58	0	722468864	51	4671
2026-01-08 12:30:41.43	298.86	34.69	-40.1	-42.3	21.6	6.06e-01	0	57	0	724566016	51	4751
2026-01-08 12:30:42.44	299.25	34.53	-39.9	-42.1	21.8	6.06e-01	0	58	0	726663168	51	4637
2026-01-08 12:30:43.45	299.63	34.37	-39.7	-41.9	22.0	6.06e-01	0	58	0	728236032	51	4508
2026-01-08 12:30:44.46	300.00	34.21	-39.7	-41.8	22.1	6.06e-01	0	57	0	730333184	51	4476
2026-01-08 12:30:45.47	300.37	34.06	-39.8	-41.9	22.0	6.07e-01	0	58	0	731906048	51	4521
2026-01-08 12:30:46.47	300.74	33.90	-39.7	-41.8	22.0	6.07e-01	0	58	0	734003200	51	4484
2026-01-08 12:30:47.48	301.10	33.74	-39.7	-41.8	22.1	6.06e-01	0	58	0	735576064	51	4476
2026-01-08 12:30:48.49	301.46	33.58	-39.8	-41.9	22.0	6.06e-01	0	58	0	737673216	51	4540
2026-01-08 12:30:49.50	301.82	33.42	-39.7	-41.8	22.1	6.07e-01	0	58	0	739770368	51	4471
2026-01-08 12:30:50.51	302.17	33.26	-39.6	-41.7	22.2	6.06e-01	0	58	0	741343232	51	4432
2026-01-08 12:30:51.52	302.52	33.10	-39.5	-41.6	22.2	6.07e-01	0	57	0	743440384	51	4382
2026-01-08 12:30:52.53	302.87	32.94	-39.5	-41.5	22.4	6.06e-01	0	58	0	745013248	50	4577
2026-01-08 12:30:53.54	303.21	32.78	-39.6	-41.7	22.2	6.08e-01	0	58	0	747110400	50	4675
2026-01-08 12:30:54.55	303.55	32.62	-39.5	-41.6	22.2	6.06e-01	0	58	0	749207552	50	4646
2026-01-08 12:30:55.55	303.89	32.46	-39.6	-41.7	22.2	6.06e-01	0	58	0	750780416	50	4652
2026-01-08 12:30:56.57	304.22	32.30	-39.5	-41.6	22.3	6.08e-01	0	57	0	752877568	50	4632
2026-01-08 12:30:57.57	304.55	32.14	-39.5	-41.6	22.3	6.06e-01	0	58	0	754974720	50	4631
2026-01-08 12:30:58.59	304.88	31.98	-39.6	-41.7	22.2	6.07e-01	0	58	0	756547584	50	4659
2026-01-08 12:30:59.59	305.20	31.82	-39.5	-41.6	22.3	6.05e-01	0	58	0	758644736	50	4635
2026-01-08 12:31:00.60	305.52	31.66	-39.5	-41.5	22.3	6.04e-01	0	58	0	760217600	50	4588
2026-01-08 12:31:01.61	305.83	31.50	-39.5	-41.6	22.2	6.04e-01	0	58	0	762314752	50	4641
2026-01-08 12:31:02.62	306.15	31.34	-39.7	-41.8	22.1	6.05e-01	0	58	0	764411904	50	4732
2026-01-08 12:31:03.63	306.46	31.17	-39.7	-41.9	22.0	6.06e-01	0	57	0	765984768	50	4761
2026-01-08 12:31:04.64	306.77	31.01	-39.5	-41.6	22.2	6.07e-01	0	58	0	768081920	50	4617
2026-01-08 12:31:05.65	307.07	30.85	-39.4	-41.4	22.4	6.08e-01	0	58	0	769654784	50	4528
2026-01-08 12:31:06.66	307.37	30.69	-39.5	-41.5	22.3	6.04e-01	0	58	0	771751936	50	4588
2026-01-08 12:31:07.67	307.67	30.53	-39.6	-41.7	22.1	6.08e-01	0	58	0	773849088	50	4684
2026-01-08 12:31:08.68	307.96	30.37	-39.6	-41.7	22.1	6.07e-01	0	58	0	775421952	50	4662
2026-01-08 12:31:09.69	308.26	30.21	-39.5	-41.6	22.2	6.05e-01	0	58	0	777519104	50	4632
2026-01-08 12:31:10.70	308.54	30.05	-39.5	-41.6	22.2	6.04e-01	0	58	0	779616256	50	4632
2026-01-08 12:31:11.71	308.83	29.89	-39.6	-41.7	22.1	6.05e-01	0	58	0	781189120	50	4697
2026-01-08 12:31:12.72	309.11	29.73	-39.8	-41.9	21.9	6.05e-01	0	58	0	783286272	50	4798
2026-01-08 12:31:13.73	309.39	29.57	-39.8	-42.0	21.8	6.08e-01	0	58	0	784859136	50	4870
2026-01-08 12:31:14.74	309.67	29.41	-39.9	-42.1	21.8	6.07e-01	0	58	0	786956288	50	4879
2026-01-08 12:31:15.75	309.95	29.26	-39.8	-41.9	21.9	6.05e-01	0	58	0	789053440	50	4810
2026-01-08 12:31:16.75	310.22	29.10	-39.7	-41.8	22.0	6.06e-01	0	57	0	790626304	50	4754
2026-01-08 12:31:17.76	310.49	28.94	-39.7	-41.8	22.0	6.05e-01	0	58	0	792723456	50	4754
2026-01-08 12:31:18.77	310.75	28.78	-39.7	-41.8	22.0	6.07e-01	0	58	0	794296320	50	4745
2026-01-08 12:31:19.78	311.02	28.63	-39.7	-41.9	21.9	6.04e-01	0	58	0	796393472	50	4769
2026-01-08 12:31:20.79	311.28	28.47	-39.8	-42.0	21.9	6.07e-01	0	58	0	798490624	50	4819
2026-01-08 12:31:21.80	311.54	28.31	-39.8	-42.0	21.7	6.06e-01	0	57	0	800063488	50	4855
2026-01-08 12:31:22.81	311.79	28.15	-39.8	-42.0	21.7	6.09e-01	0	58	0	802160640	50	4867
2026-01-08 12:31:23.82	312.05	28.00	-39.9	-42.1	21.7	6.08e-01	0	58	0	803733504	50	4877
2026-01-08 12:31:24.83	312.30	27.84	-39.9	-42.1	21.7	6.08e-01	0	58	0	805830656	50	4910
2026-01-08 12:31:25.84	312.55	27.69	-39.9	-42.2	21.6	6.06e-01	0	58	0	807927808	50	4930
2026-01-08 12:31:26.85	312.79	27.53	-39.9	-42.2	21.6	6.07e-01	0	58	0	809500672	50	4944
2026-01-08 12:31:27.86	313.04	27.38	-39.9	-42.2	21.6	6.06e-01	0	58	0	811597824	50	4946
2026-01-08 12:31:28.87	313.28	27.22	-40.0	-42.2	21.6	6.04e-01	0	57	0	813170688	50	4959
2026-01-08 12:31:29.87	313.52	27.07	-40.0	-42.3	21.5	6.06e-01	0	57	0	815267840	50	5001
2026-01-08 12:31:30.88	313.75	26.92	-40.1	-42.4	21.4	6.07e-01	0	58	0	817364992	50	5047
2026-01-08 12:31:31.89	313.99	26.77	-40.1	-42.4	21.3	6.06e-01	0	58	0	818937856	50	5076
2026-01-08 12:31:32.90	314.22	26.61	-40.1	-42.5	21.3	6.09e-01	0	58	0	821035008	50	5109
2026-01-08 12:31:33.91	314.45	26.46	-40.2	-42.5	21.2	6.07e-01	0	58	0	823132160	50	5157
2026-01-08 12:31:34.92	314.68	26.31	-40.2	-42.6	21.2	6.07e-01	0	58	0	824705024	51	4889
2026-01-08 12:31:35.93	314.90	26.16	-40.2	-42.5	21.2	6.05e-01	0	58	0	826802176	51	4865
2026-01-08 12:31:36.94	315.13	26.01	-40.2	-42.5	21.2	6.07e-01	0	57	0	828375040	51	4845
2026-01-08 12:31:37.95	315.35	25.86	-40.1	-42.4	21.3	6.07e-01	0	58	0	830472192	51	4794
2026-01-08 12:31:38.96	315.57	25.71	-40.1	-42.5	21.2	6.07e-01	0	58	0	832569344	51	4829
2026-01-08 12:31:39.97	315.78	25.56	-40.1	-42.5	21.3	6.05e-01	0	58	0	834142208	51	4819
2026-01-08 12:31:40.98	316.00	25.41	-40.2	-42.5	21.2	6.06e-01	0	58	0	836239360	51	4858
2026-01-08 12:31:41.99	316.21	25.26	-40.2	-42.5	21.2	6.09e-01	0	58	0	837812224	51	4867
2026-01-08 12:31:43.00	316.42	25.12	-40.2	-42.5	21.2	6.06e-01	0	58	0	839909376	51	4870
2026-01-08 12:31:44.01	316.63	24.97	-40.2	-42.6	21.1	6.07e-01	0	58	0	842006528	51	4911
2026-01-08 12:31:45.02	316.84	24.82	-40.3	-42.7	21.0	6.07e-01	0	58	0	843579392	51	4946
2026-01-08 12:31:46.03	317.04	24.68	-40.3	-42.8	20.9	6.07e-01	0	58	0	845676544	51	5003
2026-01-08 12:31:47.04	317.25	24.53	-40.3	-42.7	21.0	6.07e-01	0	58	0	847773696	51	4969
2026-01-08 12:31:48.05	317.45	24.39	-40.2	-42.6	21.1	6.07e-01	0	58	0	849346560	51	4908
2026-01-08 12:31:49.06	317.65	24.24	-40.1	-42.5	21.2	6.06e-01	0	58	0	851443712	51	4825
2026-01-08 12:31:50.07	317.84	24.10	-40.1	-42.4	21.3	6.07e-01	0	58	0	853016576	51	4781
2026-01-08 12:31:51.08	318.04	23.96	-40.1	-42.4	21.2	6.09e-01	0	58	0	855113728	51	4802
2026-01-08 12:31:52.09	318.23	23.81	-40.1	-42.5	21.2	6.07e-01	0	58	0	857210880	51	4819
2026-01-08 12:31:53.10	318.42	23.67	-40.1	-42.5	21.2	6.08e-01	0	57	0	858783744	51	4821
2026-01-08 12:31:54.11	318.61	23.53	-40.1	-42.5	21.2	6.06e-01	0	58	0	860880896	51	4826
2026-01-08 12:31:55.12	318.80	23.39	-40.1	-42.5	21.2	6.07e-01	0	58	0	862453760	51	4824
2026-01-08 12:31:56.13	318.99	23.25	-40.2	-42.5	21.1	6.05e-01	0	58	0	864550912	51	4859
2026-01-08 12:31:57.14	319.17	23.11	-40.2	-42.6	21.0	6.07e-01	0	57	0	866648064	51	4901
2026-01-08 12:31:58.16	319.36	22.97	-40.3	-42.7	21.0	6.06e-01	0	58	0	868220928	51	4944
2026-01-08 12:31:59.16	319.54	22.83	-40.3	-42.7	20.9	6.06e-01	0	58	0	870318080	51	4966
2026-01-08 12:32:00.17	319.72	22.69	-40.3	-42.8	20.9	6.08e-01	0	58	0	871890944	51	5001
2026-01-08 12:32:01.18	319.90	22.55	-40.2	-42.6	21.0	6.09e-01	0	58	0	873988096	51	4920
2026-01-08 12:32:02.19	320.07	22.41	-40.2	-42.7	21.0	6.07e-01	0	58	0	876085248	51	4933
2026-01-08 12:32:03.20	320.25	22.28	-40.2	-42.6	21.0	6.07e-01	0	58	0	877658112	51	4906
2026-01-08 12:32:04.21	320.42	22.14	-40.2	-42.5	21.1	6.05e-01	0	57	0	879755264	51	4868
2026-01-08 12:32:05.22	320.60	22.01	-40.1	-42.4	21.2	6.06e-01	0	58	0	881328128	51	4795
2026-01-08 12:32:06.23	320.77	21.87	-40.1	-42.4	21.2	6.04e-01	0	58	0	883425280	51	4786
2026-01-08 12:32:07.24	320.94	21.74	-40.1	-42.4	21.2	6.09e-01	0	58	0	885522432	51	4807
2026-01-08 12:32:08.25	321.10	21.60	-40.1	-42.4	21.2	6.07e-01	0	58	0	887095296	51	4776
2026-01-08 12:32:09.26	321.27	21.47	-40.1	-42.4	21.2	6.03e-01	0	57	0	889192448	51	4801
2026-01-08 12:32:10.27	321.43	21.34	-40.1	-42.5	21.2	6.08e-01	0	58	0	891289600	51	4827
2026-01-08 12:32:11.28	321.60	21.20	-40.1	-42.5	21.2	6.06e-01	0	58	0	892862464	51	4819
2026-01-08 12:32:12.29	321.76	21.07	-40.1	-42.5	21.1	6.06e-01	0	58	0	894959616	51	4829
2026-01-08 12:32:13.30	321.92	20.94	-40.1	-42.4	21.2	6.08e-01	0	58	0	896532480	51	4802
2026-01-08 12:32:14.30	322.08	20.81	-40.1	-42.4	21.2	6.05e-01	0	57	0	898629632	51	4793
2026-01-08 12:32:15.31	322.23	20.68	-40.0	-42.4	21.2	6.07e-01	0	58	0	900726784	51	4775
2026-01-08 12:32:16.32	322.39	20.55	-40.0	-42.3	21.3	6.06e-01	0	58	0	902299648	51	4753
2026-01-08 12:32:17.33	322.54	20.42	-40.1	-42.4	21.2	6.05e-01	0	58	0	904396800	51	4795
2026-01-08 12:32:18.34	322.70	20.29	-40.0	-42.4	21.2	6.07e-01	0	58	0	905969664	51	4781
2026-01-08 12:32:19.35	322.85	20.16	-40.1	-42.4	21.1	6.07e-01	0	58	0	908066816	51	4804
2026-01-08 12:32:20.36	323.00	20.04	-40.1	-42.5	21.1	6.06e-01	0	58	0	910163968	51	4853
2026-01-08 12:32:21.37	323.15	19.91	-40.1	-42.4	21.1	6.06e-01	0	58	0	911736832	51	4809
2026-01-08 12:32:22.38	323.30	19.78	-40.1	-42.5	21.1	6.07e-01	0	58	0	913833984	51	4845
2026-01-08 12:32:23.39	323.45	19.66	-40.0	-42.4	21.2	6.05e-01	0	58	0	915931136	51	4763
2026-01-08 12:32:24.40	323.59	19.53	-40.0	-42.3	21.2	6.06e-01	0	58	0	917504000	51	4756
2026-01-08 12:32:25.41	323.74	19.41	-40.0	-42.3	21.2	6.07e-01	0	58	0	919601152	51	4753
2026-01-08 12:32:26.42	323.88	19.28	-40.0	-42.4	21.2	6.08e-01	0	58	0	921174016	51	4760
2026-01-08 12:32:27.43	324.02	19.16	-39.9	-42.3	21.3	6.06e-01	0	58	0	923271168	51	4708
2026-01-08 12:32:28.44	324.16	19.04	-39.9	-42.2	21.3	6.08e-01	0	58	0	924844032	51	4694
2026-01-08 12:32:29.45	324.30	18.91	-39.8	-42.1	21.4	6.07e-01	0	58	0	926941184	51	4642
2026-01-08 12:32:30.46	324.44	18.79	-39.8	-42.1	21.4	6.08e-01	0	58	0	929038336	51	4614
2026-01-08 12:32:31.47	324.58	18.67	-39.8	-42.1	21.4	6.06e-01	0	58	0	930611200	51	4614
2026-01-08 12:32:32.48	324.72	18.55	-39.7	-42.0	21.5	6.07e-01	0	57	0	932708352	51	4574
2026-01-08 12:32:33.49	324.85	18.43	-39.8	-42.1	21.4	6.05e-01	0	58	0	934281216	51	4618
2026-01-08 12:32:34.50	324.99	18.31	-39.9	-42.2	21.3	6.06e-01	0	58	0	936378368	51	4658
2026-01-08 12:32:35.51	325.12	18.19	-39.9	-42.2	21.3	6.06e-01	0	58	0	938475520	51	4692
2026-01-08 12:32:36.52	325.25	18.07	-39.9	-42.3	21.2	6.06e-01	0	58	0	940048384	51	4720
2026-01-08 12:32:37.53	325.38	17.95	-39.9	-42.3	21.2	6.05e-01	0	58	0	942145536	51	4706
2026-01-08 12:32:38.54	325.51	17.83	-39.9	-42.3	21.2	6.06e-01	0	58	0	944242688	51	4713
2026-01-08 12:32:39.55	325.64	17.71	-39.9	-42.3	21.2	6.06e-01	0	58	0	945815552	51	4727
2026-01-08 12:32:40.56	325.77	17.59	-39.9	-42.3	21.2	6.08e-01	0	58	0	947912704	51	4713
2026-01-08 12:32:41.57	325.90	17.48	-39.9	-42.3	21.1	6.05e-01	0	58	0	949485568	51	4731
2026-01-08 12:32:42.58	326.02	17.36	-39.9	-42.3	21.2	6.05e-01	0	58	0	951582720	51	4713
2026-01-08 12:32:43.59	326.15	17.25	-39.9	-42.3	21.2	6.07e-01	0	58	0	953679872	51	4720
2026-01-08 12:32:44.59	326.27	17.13	-40.0	-42.4	21.1	6.07e-01	0	58	0	955252736	51	4770
2026-01-08 12:32:45.60	326.39	17.02	-39.9	-42.3	21.1	6.03e-01	0	58	0	957349888	51	4723
2026-01-08 12:32:46.61	326.52	16.90	-39.9	-42.2	21.2	6.03e-01	0	58	0	959447040	51	4698
2026-01-08 12:32:47.62	326.64	16.79	-39.9	-42.3	21.2	6.03e-01	0	58	0	961019904	51	4718
2026-01-08 12:32:48.63	326.76	16.67	-39.9	-42.3	21.1	6.02e-01	0	58	0	963117056	51	4747
2026-01-08 12:32:49.64	326.88	16.56	-39.9	-42.3	21.1	6.00e-01	0	58	0	964689920	51	4740
2026-01-08 12:32:50.65	327.00	16.45	-39.9	-42.2	21.2	6.01e-01	0	58	0	966787072	51	4674
2026-01-08 12:32:51.67	327.11	16.34	-39.9	-42.2	21.2	6.01e-01	0	58	0	968884224	51	4685
2026-01-08 12:32:52.67	327.23	16.23	-39.9	-42.3	21.1	5.98e-01	0	58	0	970457088	51	4715
2026-01-08 12:32:53.68	327.35	16.11	-39.8	-42.1	21.2	6.02e-01	0	58	0	972554240	51	4650
2026-01-08 12:32:54.69	327.46	16.00	-39.9	-42.2	21.1	6.02e-01	0	58	0	974127104	51	4687
2026-01-08 12:32:55.70	327.57	15.89	-39.9	-42.3	21.1	6.02e-01	0	58	0	976224256	51	4714
2026-01-08 12:32:56.71	327.69	15.78	-39.9	-42.2	21.1	6.03e-01	0	58	0	978321408	51	4701
2026-01-08 12:32:57.73	327.80	15.67	-39.9	-42.2	21.2	6.02e-01	0	58	0	979894272	51	4693
2026-01-08 12:32:58.74	327.91	15.56	-39.9	-42.3	21.1	6.01e-01	0	58	0	981991424	51	4711
2026-01-08 12:32:59.75	328.02	15.46	-39.9	-42.3	21.1	6.02e-01	0	58	0	984088576	51	4740
2026-01-08 12:33:00.75	328.13	15.35	-39.9	-42.3	21.1	6.00e-01	0	58	0	985661440	51	4716
2026-01-08 12:33:01.76	328.24	15.24	-39.9	-42.2	21.1	6.03e-01	0	58	0	987758592	51	4697
2026-01-08 12:33:02.77	328.35	15.13	-39.9	-42.3	21.0	6.02e-01	0	58	0	989331456	51	4719
2026-01-08 12:33:03.78	328.46	15.03	-39.9	-42.2	21.1	6.03e-01	0	58	0	991428608	51	4699
2026-01-08 12:33:04.79	328.56	14.92	-39.9	-42.3	21.0	6.02e-01	0	58	0	993525760	51	4738
2026-01-08 12:33:05.80	328.67	14.82	-40.0	-42.4	20.9	6.01e-01	0	58	0	995098624	51	4798
2026-01-08 12:33:06.81	328.77	14.71	-39.9	-42.3	21.0	6.02e-01	0	58	0	997195776	51	4738
2026-01-08 12:33:07.82	328.88	14.61	-40.0	-42.4	20.9	6.02e-01	0	58	0	998768640	51	4802
2026-01-08 12:33:08.83	328.98	14.50	-40.0	-42.4	20.9	6.01e-01	0	58	0	1000865792	51	4773
2026-01-08 12:33:09.84	329.08	14.40	-40.0	-42.5	20.8	6.03e-01	0	58	0	1002438656	51	4826
2026-01-08 12:33:10.85	329.19	14.29	-40.0	-42.5	20.8	6.01e-01	0	58	0	1004535808	51	4833
2026-01-08 12:33:11.85	329.29	14.19	-40.0	-42.4	20.9	5.98e-01	0	58	0	1006632960	51	4773
2026-01-08 12:33:12.86	329.39	14.09	-40.0	-42.4	20.8	6.01e-01	0	58	0	1008205824	51	4802
2026-01-08 12:33:13.87	329.49	13.99	-40.0	-42.4	20.8	6.00e-01	0	58	0	1010302976	51	4807
2026-01-08 12:33:14.88	329.59	13.88	-39.9	-42.4	20.9	6.02e-01	0	58	0	1012400128	51	4762
2026-01-08 12:33:15.89	329.68	13.78	-40.0	-42.5	20.8	6.01e-01	0	58	0	1013972992	51	4826
2026-01-08 12:33:16.90	329.78	13.68	-40.1	-42.6	20.7	5.99e-01	0	58	0	1016070144	51	4871
2026-01-08 12:33:17.91	329.88	13.58	-40.0	-42.5	20.7	6.01e-01	0	58	0	1017643008	51	4854
2026-01-08 12:33:18.92	329.98	13.48	-40.0	-42.5	20.7	6.01e-01	0	58	0	1019740160	51	4833
2026-01-08 12:33:19.93	330.07	13.38	-40.0	-42.5	20.7	6.03e-01	0	58	0	1021837312	51	4868
2026-01-08 12:33:20.94	330.17	13.28	-40.2	-42.7	20.5	6.00e-01	0	58	0	1023410176	51	4953
2026-01-08 12:33:21.95	330.26	13.18	-40.1	-42.7	20.6	6.01e-01	0	58	0	1025507328	51	4937
2026-01-08 12:33:22.96	330.36	13.08	-40.1	-42.6	20.6	6.02e-01	0	58	0	1027080192	51	4919
2026-01-08 12:33:23.97	330.45	12.98	-40.1	-42.6	20.6	6.01e-01	0	58	0	1029177344	51	4903
2026-01-08 12:33:24.97	330.54	12.89	-40.1	-42.6	20.6	6.02e-01	0	58	0	1031274496	51	4910
2026-01-08 12:33:25.99	330.63	12.79	-40.2	-42.7	20.4	6.00e-01	0	58	0	1032847360	51	4975
2026-01-08 12:33:27.00	330.73	12.69	-40.1	-42.7	20.5	6.04e-01	0	58	0	1034944512	51	4939
2026-01-08 12:33:28.01	330.82	12.59	-40.1	-42.7	20.5	6.04e-01	0	58	0	1037041664	51	4949
2026-01-08 12:33:29.01	330.91	12.50	-40.2	-42.8	20.4	6.02e-01	0	58	0	1038614528	51	4992
2026-01-08 12:33:30.02	330.99	12.40	-40.1	-42.7	20.5	6.02e-01	0	58	0	1040711680	51	4928
2026-01-08 12:33:31.03	331.08	12.30	-40.1	-42.7	20.5	6.02e-01	0	58	0	1042284544	51	4948
2026-01-08 12:33:32.04	331.17	12.21	-40.1	-42.6	20.5	6.00e-01	0	58	0	1044381696	51	4887
2026-01-08 12:33:33.05	331.26	12.11	-40.2	-42.8	20.3	6.01e-01	0	58	0	1046478848	51	4998
2026-01-08 12:33:34.06	331.35	12.02	-40.1	-42.6	20.5	6.00e-01	0	58	0	1048051712	51	4905
2026-01-08 12:33:35.07	331.43	11.92	-40.1	-42.6	20.5	6.02e-01	0	58	0	1050148864	51	4891
2026-01-08 12:33:36.08	331.52	11.83	-40.1	-42.7	20.4	6.01e-01	0	58	0	1051721728	51	4948
2026-01-08 12:33:37.09	331.61	11.74	-40.2	-42.8	20.3	6.02e-01	0	58	0	1053818880	51	4988
2026-01-08 12:33:38.10	331.69	11.64	-40.1	-42.6	20.4	6.01e-01	0	58	0	1055916032	51	4924
2026-01-08 12:33:39.11	331.77	11.55	-40.3	-43.0	20.1	6.03e-01	0	58	0	1057488896	51	5112
2026-01-08 12:33:40.12	331.86	11.46	-40.2	-42.8	20.3	6.03e-01	0	58	0	1059586048	51	5027
2026-01-08 12:33:41.13	331.94	11.37	-40.2	-42.8	20.2	6.02e-01	0	58	0	1061158912	51	5020
2026-01-08 12:33:42.14	332.02	11.27	-40.2	-42.9	20.2	5.99e-01	0	58	0	1063256064	51	5043
2026-01-08 12:33:43.15	332.11	11.18	-40.2	-42.8	20.2	6.01e-01	0	58	0	1065353216	51	5006
2026-01-08 12:33:44.16	332.19	11.09	-40.3	-42.9	20.1	6.02e-01	0	58	0	1066926080	51	5094
2026-01-08 12:33:45.17	332.27	11.00	-40.3	-43.0	20.1	6.03e-01	0	58	0	1069023232	51	5112
2026-01-08 12:33:46.17	332.35	10.91	-40.3	-43.0	20.1	6.02e-01	0	58	0	1070596096	51	5104
2026-01-08 12:33:47.19	332.43	10.82	-40.3	-43.0	20.0	6.00e-01	0	58	0	1072693248	51	5139
2026-01-08 12:33:48.20	332.51	10.73	-40.2	-43.0	20.1	6.04e-01	0	58	0	1074790400	51	5105
2026-01-08 12:33:49.21	332.59	10.64	-40.4	-43.2	19.8	6.02e-01	0	58	0	1076363264	51	5234
2026-01-08 12:33:50.22	332.67	10.55	-40.3	-43.0	19.9	6.02e-01	0	58	0	1078460416	51	5152
2026-01-08 12:33:51.23	332.75	10.46	-40.4	-43.2	19.8	6.02e-01	0	58	0	1080557568	51	5239
2026-01-08 12:33:52.24	332.82	10.37	-40.4	-43.2	19.7	6.01e-01	0	58	0	1082130432	51	5246
2026-01-08 12:33:53.25	332.90	10.28	-40.5	-43.3	19.6	6.00e-01	0	58	0	1084227584	51	5332
2026-01-08 12:33:54.26	332.98	10.19	-40.4	-43.2	19.7	6.04e-01	0	58	0	1085800448	51	5222
2026-01-08 12:33:55.27	333.05	10.11	-40.4	-43.2	19.7	6.00e-01	0	58	0	1087897600	51	5248
2026-01-08 12:33:56.28	333.13	10.02	-40.4	-43.2	19.7	6.04e-01	0	58	0	1089994752	51	5255
2026-01-08 12:33:57.29	333.21	9.93	-40.5	-43.3	19.5	6.01e-01	0	58	0	1091567616	51	5321
2026-01-08 12:33:58.30	333.28	9.85	-40.5	-43.3	19.5	6.01e-01	0	58	0	1093664768	51	5324
2026-01-08 12:33:59.31	333.36	9.76	-40.6	-43.6	19.3	6.04e-01	0	58	0	1095237632	51	5497
2026-01-08 12:34:00.32	333.43	9.67	-40.6	-43.6	19.2	6.03e-01	0	58	0	1097334784	52	5163
2026-01-08 12:34:01.33	333.50	9.59	-40.6	-43.6	19.1	6.03e-01	0	58	0	1099431936	52	5188
2026-01-08 12:34:02.33	333.58	9.50	-40.7	-43.8	18.9	6.00e-01	0	58	0	1101004800	52	5328
2026-01-08 12:34:03.34	333.65	9.42	-40.6	-43.7	19.0	6.02e-01	0	58	0	1103101952	52	5251
2026-01-08 12:34:04.35	333.72	9.33	-40.6	-43.7	19.0	6.03e-01	0	58	0	1105199104	52	5252
2026-01-08 12:34:05.36	333.79	9.25	-40.7	-43.8	18.9	6.00e-01	0	58	0	1106771968	52	5336
2026-01-08 12:34:06.37	333.86	9.16	-40.7	-43.8	18.9	5.99e-01	0	58	0	1108869120	52	5324
2026-01-08 12:34:07.38	333.93	9.08	-40.6	-43.7	18.9	6.01e-01	0	58	0	1110441984	52	5250
2026-01-08 12:34:08.39	334.01	8.99	-40.6	-43.7	18.9	6.04e-01	0	58	0	1112539136	52	5271
2026-01-08 12:34:09.40	334.08	8.91	-40.7	-43.9	18.8	6.00e-01	0	58	0	1114636288	52	5341
2026-01-08 12:34:10.41	334.15	8.83	-40.6	-43.7	18.9	6.02e-01	0	58	0	1116209152	52	5271
2026-01-08 12:34:11.42	334.21	8.74	-40.6	-43.7	18.9	6.01e-01	0	58	0	1118306304	52	5271
2026-01-08 12:34:12.43	334.28	8.66	-40.6	-43.8	18.8	6.02e-01	0	58	0	1119879168	52	5308
2026-01-08 12:34:13.44	334.35	8.58	-40.6	-43.7	18.9	6.02e-01	0	58	0	1121976320	52	5262
2026-01-08 12:34:14.45	334.42	8.50	-40.7	-43.8	18.7	6.02e-01	0	58	0	1124073472	52	5328
2026-01-08 12:34:15.46	334.49	8.41	-40.8	-44.0	18.5	6.01e-01	0	58	0	1125646336	52	5459
2026-01-08 12:34:16.47	334.56	8.33	-40.6	-43.8	18.8	6.02e-01	0	58	0	1127743488	52	5284
2026-01-08 12:34:17.48	334.62	8.25	-40.7	-44.0	18.6	6.00e-01	0	58	0	1129316352	52	5416
2026-01-08 12:34:18.49	334.69	8.17	-40.7	-43.9	18.5	6.00e-01	0	58	0	1131413504	52	5397
2026-01-08 12:34:19.50	334.76	8.09	-40.6	-43.8	18.6	6.02e-01	0	58	0	1133510656	52	5322
2026-01-08 12:34:20.51	334.82	8.01	-42.3	-47.2	16.6	6.02e-01	0	58	0	1135083520	55	6607
2026-01-08 12:34:21.52	334.89	7.93	-45.0	-61.7	3.9	7.43e-01	0	58	104	1136132096	60	26205
2026-01-08 12:34:22.54	334.95	7.85	-45.4	-64.1	3.8	7.46e-01	0	58	104	1136132096	61	32707
2026-01-08 12:34:23.55	335.02	7.77	-45.6	-64.3	3.8	7.47e-01	0	58	104	1136132096	61	33627
2026-01-08 12:34:24.56	335.08	7.69	-45.8	-64.5	3.8	7.43e-01	0	58	104	1136132096	62	32272
2026-01-08 12:34:25.57	335.15	7.61	-45.9	-64.6	3.8	7.46e-01	0	58	104	1136132096	62	32910
2026-01-08 12:34:26.58	335.21	7.53	-46.0	-64.7	3.8	7.45e-01	0	58	104	1136132096	62	33305
2026-01-08 12:34:27.59	335.27	7.45	-46.0	-64.8	3.8	7.42e-01	0	58	104	1136132096	62	33603
2026-01-08 12:34:28.60	335.34	7.37	-46.1	-64.9	3.8	7.45e-01	0	58	104	1136132096	62	33701
2026-01-08 12:34:29.61	335.40	7.29	-46.1	-64.9	3.8	7.48e-01	0	58	104	1136132096	62	33787
2026-01-08 12:34:30.62	335.46	7.21	-46.0	-64.8	3.8	7.46e-01	0	58	104	1136132096	62	33690
2026-01-08 12:34:31.62	335.52	7.14	-46.0	-64.8	3.8	7.43e-01	0	58	104	1136132096	62	33541
2026-01-08 12:34:32.64	335.59	7.06	-46.0	-64.8	3.8	7.48e-01	0	58	104	1136132096	62	33517
2026-01-08 12:34:33.64	335.65	6.98	-46.0	-64.8	3.8	7.46e-01	0	58	104	1136132096	62	33441
2026-01-08 12:34:34.66	335.71	6.90	-46.0	-64.8	3.8	7.46e-01	0	58	104	1136132096	62	33410
2026-01-08 12:34:35.67	335.77	6.83	-45.9	-64.8	3.8	7.47e-01	0	58	104	1136132096	62	33313
2026-01-08 12:34:36.68	335.83	6.75	-45.9	-64.8	3.8	7.46e-01	0	58	104	1136132096	62	33349
2026-01-08 12:34:37.69	335.89	6.67	-45.9	-64.7	3.8	7.42e-01	0	58	104	1136132096	62	33216
2026-01-08 12:34:38.70	335.95	6.60	-45.9	-64.7	3.8	7.47e-01	0	58	104	1136132096	62	33167
2026-01-08 12:34:39.71	336.01	6.52	-45.9	-64.7	3.8	7.46e-01	0	58	104	1136132096	62	33222
2026-01-08 12:34:40.72	336.07	6.44	-45.9	-64.7	3.8	7.44e-01	0	58	104	1136132096	62	33187
2026-01-08 12:34:41.73	336.13	6.37	-45.9	-64.7	3.8	7.43e-01	0	58	104	1136132096	62	33109
2026-01-08 12:34:42.75	336.19	6.29	-45.9	-64.7	3.8	7.43e-01	0	58	104	1136132096	62	33168
2026-01-08 12:34:43.76	336.24	6.22	-45.9	-64.7	3.8	7.45e-01	0	58	104	1136132096	62	33165
2026-01-08 12:34:44.77	336.30	6.14	-45.9	-64.7	3.8	7.43e-01	0	58	104	1136132096	62	33173
2026-01-08 12:34:45.78	336.36	6.07	-45.9	-64.7	3.8	7.45e-01	0	58	104	1136132096	62	33171
2026-01-08 12:34:46.79	336.42	5.99	-45.9	-64.7	3.8	7.42e-01	0	58	104	1136132096	62	33108
2026-01-08 12:34:47.80	336.47	5.92	-45.9	-64.7	3.8	7.46e-01	0	58	104	1136132096	62	33159
2026-01-08 12:34:48.81	336.53	5.84	-45.9	-64.7	3.8	7.43e-01	0	58	104	1136132096	62	33139
2026-01-08 12:34:49.82	336.59	5.77	-45.9	-64.7	3.8	7.46e-01	0	58	104	1136132096	62	33094
