passes_logs/2026/01/08/R2.0S_Moscow/R2.0S_Moscow__20260108_142243_FENGYUN_3E_rec.log

#Pass ID: 20260108_142243_FENGYUN 3E
#Satellite: FENGYUN 3E
#Configuration: FENGYUN 3E
#almurnet v.1.7.20251203
#Start time: 2026-01-08 14:22:44

#Version: 2.2.20231116
#Station: R2.0S_Moscow
#Location: 37.707566 lon 55.798166 lat
#TLE: 1 49008U 21062A   26007.88844255 -.00000338  00000+0 -13865-3 0  9992
#TLE: 2 49008  98.7481  13.0996 0001694 151.5348 208.5921 14.19883289233834

#Time	Az	El	Level	Level2	SNR	BER	BlckErr	Temp	State	Recorded	gain1	gain2
2026-01-08 14:22:44.80	165.83	2.03	-44.3	-55.1	3.8	8.46e-01	0	48	0	0	59	12374
2026-01-08 14:22:45.82	165.84	2.10	-44.3	-55.2	3.8	8.46e-01	0	48	104	0	59	12382
2026-01-08 14:22:46.82	165.85	2.16	-44.3	-55.1	3.8	8.46e-01	0	48	104	0	59	12358
2026-01-08 14:22:47.83	165.86	2.23	-44.3	-55.1	3.8	8.47e-01	0	49	104	0	59	12325
2026-01-08 14:22:48.84	165.87	2.30	-44.3	-55.1	3.8	8.46e-01	0	49	104	0	59	12374
2026-01-08 14:22:49.85	165.88	2.36	-44.3	-55.2	3.8	8.44e-01	0	49	104	0	59	12407
2026-01-08 14:22:50.86	165.89	2.43	-44.3	-55.1	3.8	8.46e-01	0	49	104	0	59	12341
2026-01-08 14:22:51.87	165.90	2.49	-44.3	-55.1	3.8	8.45e-01	0	49	104	0	59	12374
2026-01-08 14:22:52.88	165.91	2.56	-44.3	-55.1	3.8	8.47e-01	0	49	104	0	59	12325
2026-01-08 14:22:53.90	165.92	2.63	-44.3	-55.2	3.8	8.46e-01	0	49	104	0	59	12402
2026-01-08 14:22:54.90	165.93	2.69	-44.3	-55.2	3.8	8.47e-01	0	49	104	0	59	12417
2026-01-08 14:22:55.91	165.95	2.76	-44.3	-55.1	3.8	8.45e-01	0	49	104	0	59	12325
2026-01-08 14:22:56.92	165.96	2.82	-44.3	-55.1	3.8	8.46e-01	0	49	104	0	59	12320
2026-01-08 14:22:57.93	165.97	2.89	-44.3	-55.2	3.8	8.47e-01	0	49	104	0	59	12395
2026-01-08 14:22:58.94	165.98	2.96	-44.3	-55.1	3.8	8.46e-01	0	49	104	0	59	12294
2026-01-08 14:22:59.95	165.99	3.02	-44.3	-55.1	3.8	8.46e-01	0	49	104	0	59	12364
2026-01-08 14:23:00.96	166.00	3.09	-44.3	-55.1	3.8	8.46e-01	0	49	104	0	59	12330
2026-01-08 14:23:01.97	166.01	3.16	-44.3	-55.1	3.8	8.47e-01	0	49	104	0	59	12359
2026-01-08 14:23:02.98	166.02	3.23	-44.3	-55.1	3.8	8.45e-01	0	50	104	0	59	12359
2026-01-08 14:23:03.99	166.03	3.30	-44.3	-55.1	3.8	8.45e-01	0	49	104	0	59	12367
2026-01-08 14:23:05.00	166.05	3.36	-44.3	-55.1	3.8	8.45e-01	0	50	104	0	59	12366
2026-01-08 14:23:06.01	166.06	3.43	-44.3	-55.1	3.8	8.44e-01	0	50	104	0	59	12325
2026-01-08 14:23:07.02	166.07	3.50	-44.3	-55.1	3.8	8.46e-01	0	50	104	0	59	12355
2026-01-08 14:23:08.03	166.08	3.57	-44.3	-55.1	3.8	8.46e-01	0	50	104	0	59	12316
2026-01-08 14:23:09.04	166.09	3.64	-44.3	-55.2	3.8	8.47e-01	0	50	104	0	59	12399
2026-01-08 14:23:10.05	166.10	3.71	-44.3	-55.1	3.8	8.46e-01	0	50	104	0	59	12359
2026-01-08 14:23:11.06	166.11	3.77	-44.2	-55.1	3.8	8.46e-01	0	50	104	0	59	12346
2026-01-08 14:23:12.07	166.13	3.84	-44.3	-55.1	3.8	8.46e-01	0	50	104	0	59	12362
2026-01-08 14:23:13.08	166.14	3.91	-44.3	-55.1	3.8	8.45e-01	0	50	104	0	59	12358
2026-01-08 14:23:14.09	166.15	3.98	-44.3	-55.1	3.8	8.45e-01	0	50	104	0	59	12364
2026-01-08 14:23:15.10	166.16	4.05	-44.3	-55.1	3.8	8.48e-01	0	50	104	0	59	12368
2026-01-08 14:23:16.11	166.17	4.12	-44.3	-55.2	3.8	8.46e-01	0	50	104	0	59	12393
2026-01-08 14:23:17.12	166.18	4.19	-44.3	-55.1	3.8	8.45e-01	0	50	104	0	59	12333
2026-01-08 14:23:18.13	166.20	4.26	-44.3	-55.1	3.8	8.47e-01	0	51	104	0	59	12314
2026-01-08 14:23:19.15	166.21	4.33	-44.3	-55.2	3.8	8.46e-01	0	51	104	0	59	12392
2026-01-08 14:23:20.16	166.22	4.40	-44.3	-55.1	3.8	8.47e-01	0	51	104	0	59	12339
2026-01-08 14:23:21.17	166.23	4.47	-44.3	-55.1	3.8	8.47e-01	0	51	104	0	59	12363
2026-01-08 14:23:22.18	166.24	4.55	-44.3	-55.1	3.8	8.46e-01	0	51	104	0	59	12304
2026-01-08 14:23:23.19	166.26	4.62	-44.3	-55.1	3.8	8.46e-01	0	51	104	0	59	12315
2026-01-08 14:23:24.20	166.27	4.69	-44.3	-55.1	3.8	8.46e-01	0	51	104	0	59	12315
2026-01-08 14:23:25.21	166.28	4.76	-44.3	-55.1	3.8	8.45e-01	0	51	104	0	59	12336
2026-01-08 14:23:26.22	166.29	4.83	-44.3	-55.1	3.8	8.45e-01	0	51	104	0	59	12301
2026-01-08 14:23:27.23	166.30	4.90	-44.3	-55.1	3.8	8.46e-01	0	51	104	0	59	12353
2026-01-08 14:23:28.24	166.32	4.98	-44.3	-55.1	3.8	8.45e-01	0	51	104	0	59	12370
2026-01-08 14:23:29.25	166.33	5.05	-44.3	-55.1	3.8	8.47e-01	0	51	104	0	59	12288
2026-01-08 14:23:30.26	166.34	5.12	-44.3	-55.1	3.8	8.45e-01	0	51	104	0	59	12280
2026-01-08 14:23:31.27	166.35	5.19	-44.3	-55.1	3.8	8.46e-01	0	51	104	0	59	12292
2026-01-08 14:23:32.28	166.37	5.27	-44.3	-55.1	3.8	8.45e-01	0	51	104	0	59	12261
2026-01-08 14:23:33.29	166.38	5.34	-44.2	-55.0	3.8	8.46e-01	0	52	104	0	59	12230
2026-01-08 14:23:34.30	166.39	5.41	-44.2	-55.0	3.8	8.46e-01	0	51	104	0	59	12095
2026-01-08 14:23:35.31	166.40	5.49	-44.2	-54.8	3.8	8.46e-01	0	52	104	0	59	11820
2026-01-08 14:23:36.32	166.42	5.56	-44.2	-54.5	3.8	8.46e-01	0	52	104	0	59	11432
2026-01-08 14:23:37.33	166.43	5.63	-44.1	-53.9	3.8	8.46e-01	0	52	104	0	59	10724
2026-01-08 14:23:38.34	166.44	5.71	-44.0	-53.5	3.8	8.44e-01	0	52	104	0	58	10843
2026-01-08 14:23:39.35	166.46	5.78	-43.9	-52.5	4.0	8.45e-01	0	52	104	0	58	9683
2026-01-08 14:23:40.36	166.47	5.86	-43.8	-52.0	4.1	8.40e-01	0	52	0	0	58	9070
2026-01-08 14:23:41.37	166.48	5.93	-43.7	-51.5	4.2	8.37e-01	0	52	0	0	58	8579
2026-01-08 14:23:42.38	166.49	6.01	-43.6	-51.3	4.3	8.34e-01	0	52	0	0	58	8376
2026-01-08 14:23:43.39	166.51	6.08	-43.7	-51.4	4.2	8.34e-01	0	52	0	0	58	8534
2026-01-08 14:23:44.40	166.52	6.16	-43.6	-51.1	4.3	8.33e-01	0	52	0	0	58	8253
2026-01-08 14:23:45.41	166.53	6.23	-43.4	-50.3	4.6	8.13e-01	0	52	0	0	57	7934
2026-01-08 14:23:46.42	166.55	6.31	-43.2	-49.7	4.9	7.83e-01	0	52	0	0	57	7385
2026-01-08 14:23:47.43	166.56	6.39	-43.1	-49.6	5.0	7.69e-01	0	52	0	0	57	7313
2026-01-08 14:23:48.45	166.57	6.46	-43.1	-49.6	5.0	7.72e-01	0	52	0	0	57	7294
2026-01-08 14:23:49.46	166.59	6.54	-43.0	-49.1	5.3	7.40e-01	0	52	0	0	57	6902
2026-01-08 14:23:50.47	166.60	6.62	-42.8	-48.6	5.6	7.03e-01	0	52	0	0	56	6923
2026-01-08 14:23:51.48	166.61	6.69	-42.8	-48.6	5.6	6.86e-01	0	52	0	2097152	56	6913
2026-01-08 14:23:52.49	166.63	6.77	-42.7	-48.2	5.9	3.73e-01	0	52	0	8388608	56	6624
2026-01-08 14:23:53.50	166.64	6.85	-42.5	-47.9	6.1	3.38e-01	0	52	0	15728640	56	6391
2026-01-08 14:23:54.51	166.65	6.92	-42.2	-47.4	6.4	2.84e-01	0	53	0	23068672	55	6410
2026-01-08 14:23:55.52	166.67	7.00	-42.1	-47.0	6.7	2.12e-01	0	52	0	30408704	55	6072
2026-01-08 14:23:56.53	166.68	7.08	-42.0	-46.8	6.9	1.91e-01	0	53	0	37748736	55	5969
2026-01-08 14:23:57.54	166.70	7.16	-41.6	-46.0	7.6	1.13e-01	0	53	0	45088768	54	5754
2026-01-08 14:23:58.55	166.71	7.24	-41.4	-45.6	8.0	7.63e-02	0	53	0	52428800	53	5804
2026-01-08 14:23:59.56	166.72	7.32	-41.0	-45.0	8.7	3.78e-02	0	53	0	59768832	53	5403
2026-01-08 14:24:00.58	166.74	7.40	-40.7	-44.4	9.2	2.54e-02	0	53	0	67108864	52	5355
2026-01-08 14:24:01.59	166.75	7.48	-40.4	-43.7	10.0	9.77e-03	0	53	0	73400320	51	5270
2026-01-08 14:24:02.60	166.77	7.56	-39.9	-43.0	10.8	4.55e-03	0	53	0	80740352	50	5117
2026-01-08 14:24:03.61	166.78	7.64	-39.6	-42.6	11.1	2.12e-03	0	53	0	89128960	50	4915
2026-01-08 14:24:04.62	166.79	7.72	-39.1	-42.0	11.8	6.63e-04	0	53	0	95420416	49	4818
2026-01-08 14:24:05.63	166.81	7.80	-38.9	-41.6	12.2	2.16e-04	0	53	0	102760448	48	4880
2026-01-08 14:24:06.64	166.82	7.88	-38.6	-41.2	12.6	1.59e-04	0	53	0	110100480	48	4665
2026-01-08 14:24:07.64	166.84	7.96	-37.9	-40.4	13.3	4.11e-05	0	53	0	117440512	46	4762
2026-01-08 14:24:08.65	166.85	8.04	-37.8	-40.2	13.4	6.80e-06	0	53	0	124780544	46	4679
2026-01-08 14:24:09.66	166.87	8.12	-43.3	-48.8	5.8	9.29e-02	0	53	0	132120576	55	7473
2026-01-08 14:24:10.67	166.88	8.20	-42.2	-47.1	6.8	5.96e-01	0	53	0	134217728	55	6145
2026-01-08 14:24:11.68	166.90	8.28	-37.5	-39.8	13.8	2.88e-03	0	53	0	141557760	45	4754
2026-01-08 14:24:12.69	166.91	8.37	-41.4	-45.5	8.1	2.09e-02	0	53	0	147849216	52	6129
2026-01-08 14:24:13.70	166.93	8.45	-37.8	-40.2	13.5	1.64e-03	0	53	0	155189248	46	4693
2026-01-08 14:24:14.71	166.94	8.53	-38.1	-40.6	13.0	5.72e-05	0	53	0	163577856	47	4620
2026-01-08 14:24:15.72	166.96	8.61	-37.7	-40.1	13.5	6.80e-06	0	53	0	169869312	46	4610
2026-01-08 14:24:16.72	166.97	8.70	-37.9	-40.5	13.2	1.48e-05	0	53	0	177209344	46	4815
2026-01-08 14:24:17.73	166.99	8.78	-37.9	-40.4	13.3	1.83e-05	0	54	0	184549376	46	4764
2026-01-08 14:24:18.74	167.00	8.86	-37.6	-40.0	13.6	5.70e-06	0	54	0	191889408	46	4583
2026-01-08 14:24:19.75	167.02	8.95	-37.7	-40.2	13.5	1.25e-05	0	54	0	199229440	46	4674
2026-01-08 14:24:20.76	167.03	9.03	-37.4	-39.8	13.9	3.40e-06	0	54	0	206569472	45	4726
2026-01-08 14:24:21.77	167.05	9.12	-37.5	-39.9	13.8	3.40e-06	0	54	0	213909504	45	4764
2026-01-08 14:24:22.78	167.06	9.20	-37.5	-39.9	13.8	3.40e-06	0	54	0	221249536	45	4776
2026-01-08 14:24:23.79	167.08	9.29	-37.5	-39.8	13.9	4.50e-06	0	54	0	228589568	45	4735
2026-01-08 14:24:24.80	167.09	9.37	-37.1	-39.4	14.4	1.10e-06	0	54	0	235929600	45	4494
2026-01-08 14:24:25.81	167.11	9.46	-37.1	-39.4	14.3	1.10e-06	0	54	0	243269632	45	4508
2026-01-08 14:24:26.81	167.13	9.54	-37.3	-39.6	14.1	0.00e+00	0	54	0	250609664	45	4605
2026-01-08 14:24:27.83	167.14	9.63	-37.0	-39.2	14.5	1.10e-06	0	54	0	257949696	45	4418
2026-01-08 14:24:28.84	167.16	9.72	-37.0	-39.2	14.6	0.00e+00	0	54	0	265289728	44	4684
2026-01-08 14:24:29.85	167.17	9.81	-36.8	-39.0	14.8	0.00e+00	0	54	0	272629760	44	4575
2026-01-08 14:24:30.85	167.19	9.89	-36.9	-39.1	14.7	0.00e+00	0	54	0	279969792	44	4644
2026-01-08 14:24:31.86	167.21	9.98	-36.9	-39.2	14.7	0.00e+00	0	54	0	287309824	44	4658
2026-01-08 14:24:32.87	167.22	10.07	-37.0	-39.3	14.6	0.00e+00	0	54	0	294649856	44	4723
2026-01-08 14:24:33.88	167.24	10.16	-36.9	-39.1	14.7	0.00e+00	0	54	0	300941312	44	4618
2026-01-08 14:24:34.89	167.25	10.25	-36.8	-39.0	14.8	0.00e+00	0	54	0	308281344	44	4583
2026-01-08 14:24:35.90	167.27	10.33	-36.8	-39.0	14.9	0.00e+00	0	54	0	316669952	44	4555
2026-01-08 14:24:36.91	167.29	10.42	-36.8	-39.0	14.9	1.10e-06	0	54	0	322961408	44	4547
2026-01-08 14:24:37.92	167.30	10.51	-36.8	-38.9	14.9	0.00e+00	0	54	0	330301440	44	4538
2026-01-08 14:24:38.93	167.32	10.60	-36.7	-38.9	15.0	0.00e+00	0	54	0	337641472	44	4514
2026-01-08 14:24:39.94	167.34	10.69	-36.7	-38.9	15.0	0.00e+00	0	54	0	344981504	44	4524
2026-01-08 14:24:40.95	167.36	10.78	-36.6	-38.7	15.2	0.00e+00	0	54	0	352321536	44	4408
2026-01-08 14:24:41.96	167.37	10.87	-36.6	-38.7	15.2	0.00e+00	0	54	0	359661568	44	4439
2026-01-08 14:24:42.97	167.39	10.97	-36.4	-38.5	15.3	0.00e+00	0	55	0	367001600	43	4559
2026-01-08 14:24:43.98	167.41	11.06	-36.4	-38.5	15.2	0.00e+00	0	54	0	374341632	43	4588
2026-01-08 14:24:44.99	167.42	11.15	-36.4	-38.5	15.3	0.00e+00	0	54	0	381681664	43	4558
2026-01-08 14:24:46.00	167.44	11.24	-36.4	-38.5	15.3	0.00e+00	0	54	0	389021696	43	4570
2026-01-08 14:24:47.01	167.46	11.33	-36.2	-38.3	15.5	0.00e+00	0	54	0	396361728	43	4461
2026-01-08 14:24:48.02	167.48	11.43	-36.1	-38.2	15.6	0.00e+00	0	54	0	403701760	43	4398
2026-01-08 14:24:49.03	167.49	11.52	-36.3	-38.4	15.4	0.00e+00	0	54	0	411041792	43	4502
2026-01-08 14:24:50.04	167.51	11.61	-36.2	-38.2	15.6	0.00e+00	0	54	0	418381824	43	4430
2026-01-08 14:24:51.05	167.53	11.71	-36.3	-38.3	15.5	0.00e+00	0	54	0	425721856	43	4466
2026-01-08 14:24:52.06	167.55	11.80	-36.3	-38.3	15.5	0.00e+00	0	54	0	433061888	43	4465
2026-01-08 14:24:53.07	167.57	11.90	-36.3	-38.4	15.5	0.00e+00	0	54	0	440401920	43	4507
2026-01-08 14:24:54.08	167.58	11.99	-36.2	-38.2	15.7	0.00e+00	0	55	0	446693376	43	4425
2026-01-08 14:24:55.09	167.60	12.09	-36.3	-38.3	15.6	0.00e+00	0	55	0	454033408	43	4456
2026-01-08 14:24:56.10	167.62	12.18	-36.1	-38.1	15.7	0.00e+00	0	55	0	462422016	43	4378
2026-01-08 14:24:57.11	167.64	12.28	-36.1	-38.1	15.7	0.00e+00	0	55	0	468713472	43	4378
2026-01-08 14:24:58.12	167.66	12.38	-36.0	-38.0	15.9	0.00e+00	0	55	0	476053504	43	4297
2026-01-08 14:24:59.13	167.68	12.47	-36.0	-37.9	15.9	0.00e+00	0	55	0	483393536	42	4534
2026-01-08 14:25:00.14	167.70	12.57	-36.0	-38.0	15.9	0.00e+00	0	55	0	490733568	42	4577
2026-01-08 14:25:01.15	167.71	12.67	-36.1	-38.1	15.8	0.00e+00	0	55	0	498073600	42	4603
2026-01-08 14:25:02.16	167.73	12.77	-36.0	-38.0	15.9	0.00e+00	0	55	0	505413632	42	4546
2026-01-08 14:25:03.17	167.75	12.87	-35.9	-37.8	16.1	0.00e+00	0	55	0	512753664	42	4480
2026-01-08 14:25:04.18	167.77	12.97	-36.0	-37.9	16.0	0.00e+00	0	55	0	520093696	42	4533
2026-01-08 14:25:05.19	167.79	13.07	-35.9	-37.8	16.1	0.00e+00	0	55	0	527433728	42	4467
2026-01-08 14:25:06.20	167.81	13.17	-35.8	-37.7	16.2	0.00e+00	0	55	0	534773760	42	4422
2026-01-08 14:25:07.21	167.83	13.27	-35.8	-37.7	16.2	0.00e+00	0	55	0	542113792	42	4433
2026-01-08 14:25:08.22	167.85	13.37	-35.9	-37.8	16.1	0.00e+00	0	55	0	549453824	42	4448
2026-01-08 14:25:09.23	167.87	13.47	-35.7	-37.5	16.4	0.00e+00	0	55	0	556793856	42	4329
2026-01-08 14:25:10.24	167.89	13.57	-35.7	-37.6	16.3	0.00e+00	0	55	0	564133888	42	4357
2026-01-08 14:25:11.25	167.91	13.67	-35.8	-37.6	16.3	0.00e+00	0	55	0	571473920	42	4390
2026-01-08 14:25:12.26	167.93	13.77	-35.8	-37.7	16.2	0.00e+00	0	55	0	578813952	42	4417
2026-01-08 14:25:13.27	167.95	13.88	-35.8	-37.7	16.3	0.00e+00	0	55	0	586153984	42	4393
2026-01-08 14:25:14.29	167.97	13.98	-35.7	-37.6	16.3	0.00e+00	0	55	0	593494016	42	4369
2026-01-08 14:25:15.29	167.99	14.08	-35.7	-37.6	16.3	0.00e+00	0	55	0	599785472	42	4378
2026-01-08 14:25:16.31	168.01	14.19	-35.7	-37.5	16.4	0.00e+00	0	55	0	608174080	42	4326
2026-01-08 14:25:17.32	168.03	14.29	-35.6	-37.4	16.5	0.00e+00	0	55	0	615514112	42	4283
2026-01-08 14:25:18.33	168.05	14.40	-35.6	-37.4	16.5	0.00e+00	0	55	0	621805568	42	4263
2026-01-08 14:25:19.34	168.07	14.50	-35.6	-37.4	16.5	0.00e+00	0	55	0	629145600	42	4286
2026-01-08 14:25:20.35	168.10	14.61	-35.6	-37.5	16.5	0.00e+00	0	55	0	636485632	42	4299
2026-01-08 14:25:21.36	168.12	14.71	-35.6	-37.5	16.5	0.00e+00	0	55	0	643825664	42	4292
2026-01-08 14:25:22.37	168.14	14.82	-35.6	-37.4	16.5	0.00e+00	0	55	0	651165696	42	4285
2026-01-08 14:25:23.38	168.16	14.93	-35.5	-37.4	16.6	0.00e+00	0	55	0	658505728	42	4244
2026-01-08 14:25:24.39	168.18	15.04	-35.6	-37.4	16.5	0.00e+00	0	56	0	665845760	42	4279
2026-01-08 14:25:25.40	168.20	15.15	-35.5	-37.3	16.7	0.00e+00	0	56	0	673185792	41	4477
2026-01-08 14:25:26.41	168.22	15.25	-35.7	-37.5	16.5	0.00e+00	0	56	0	680525824	41	4577
2026-01-08 14:25:27.42	168.25	15.36	-35.5	-37.4	16.6	0.00e+00	0	56	0	687865856	41	4501
2026-01-08 14:25:28.43	168.27	15.47	-35.6	-37.4	16.6	0.00e+00	0	55	0	695205888	41	4518
2026-01-08 14:25:29.44	168.29	15.58	-35.5	-37.3	16.7	0.00e+00	0	55	0	702545920	41	4489
2026-01-08 14:25:30.45	168.31	15.69	-35.4	-37.3	16.7	0.00e+00	0	55	0	709885952	41	4448
2026-01-08 14:25:31.46	168.34	15.81	-35.5	-37.3	16.6	0.00e+00	0	55	0	717225984	41	4490
2026-01-08 14:25:32.47	168.36	15.92	-35.4	-37.2	16.8	0.00e+00	0	56	0	724566016	41	4411
2026-01-08 14:25:33.47	168.38	16.03	-35.5	-37.3	16.7	0.00e+00	0	56	0	731906048	41	4481
2026-01-08 14:25:34.48	168.41	16.14	-35.4	-37.2	16.7	0.00e+00	0	56	0	739246080	41	4424
2026-01-08 14:25:35.49	168.43	16.25	-35.4	-37.3	16.7	0.00e+00	0	56	0	745537536	41	4450
2026-01-08 14:25:36.50	168.45	16.37	-35.4	-37.2	16.8	0.00e+00	0	56	0	753926144	41	4413
2026-01-08 14:25:37.51	168.48	16.48	-35.4	-37.2	16.8	0.00e+00	0	56	0	761266176	41	4404
2026-01-08 14:25:38.52	168.50	16.60	-35.3	-37.1	16.9	0.00e+00	0	56	0	767557632	41	4348
2026-01-08 14:25:39.53	168.52	16.71	-35.4	-37.2	16.9	0.00e+00	0	56	0	774897664	41	4406
2026-01-08 14:25:40.54	168.55	16.83	-35.3	-37.0	17.0	0.00e+00	0	55	0	782237696	41	4322
2026-01-08 14:25:41.55	168.57	16.94	-35.3	-37.1	16.9	0.00e+00	0	56	0	789577728	41	4373
2026-01-08 14:25:42.56	168.60	17.06	-35.2	-36.9	17.1	0.00e+00	0	55	0	796917760	41	4290
2026-01-08 14:25:43.57	168.62	17.18	-35.2	-37.0	17.0	0.00e+00	0	56	0	804257792	41	4321
2026-01-08 14:25:44.58	168.64	17.30	-35.1	-36.9	17.1	0.00e+00	0	56	0	811597824	41	4256
2026-01-08 14:25:45.59	168.67	17.42	-35.2	-36.9	17.1	0.00e+00	0	56	0	818937856	41	4267
2026-01-08 14:25:46.60	168.69	17.54	-35.0	-36.7	17.3	0.00e+00	0	56	0	826277888	40	4423
2026-01-08 14:25:47.61	168.72	17.66	-35.0	-36.7	17.3	0.00e+00	0	56	0	833617920	40	4438
2026-01-08 14:25:48.62	168.75	17.78	-35.0	-36.7	17.3	0.00e+00	0	56	0	840957952	40	4420
2026-01-08 14:25:49.63	168.77	17.90	-35.0	-36.7	17.3	0.00e+00	0	56	0	848297984	40	4429
2026-01-08 14:25:50.63	168.80	18.02	-34.9	-36.6	17.4	0.00e+00	0	56	0	855638016	40	4390
2026-01-08 14:25:51.64	168.82	18.14	-34.9	-36.6	17.4	0.00e+00	0	56	0	862978048	40	4373
2026-01-08 14:25:52.65	168.85	18.26	-34.8	-36.4	17.6	0.00e+00	0	56	0	870318080	40	4288
2026-01-08 14:25:53.66	168.87	18.39	-34.8	-36.4	17.6	0.00e+00	0	56	0	877658112	40	4291
2026-01-08 14:25:54.67	168.90	18.51	-34.7	-36.4	17.6	0.00e+00	0	56	0	884998144	40	4266
2026-01-08 14:25:55.68	168.93	18.64	-34.7	-36.3	17.7	0.00e+00	0	56	0	892338176	40	4225
2026-01-08 14:25:56.69	168.95	18.76	-34.6	-36.3	17.7	0.00e+00	0	56	0	898629632	40	4210
2026-01-08 14:25:57.70	168.98	18.89	-34.6	-36.3	17.8	0.00e+00	0	56	0	907018240	40	4196
2026-01-08 14:25:58.71	169.01	19.01	-34.6	-36.3	17.7	0.00e+00	0	56	0	914358272	40	4218
2026-01-08 14:25:59.72	169.04	19.14	-34.6	-36.2	17.8	0.00e+00	0	56	0	920649728	40	4192
2026-01-08 14:26:00.73	169.06	19.27	-34.6	-36.2	17.8	0.00e+00	0	56	0	927989760	40	4169
2026-01-08 14:26:01.74	169.09	19.40	-34.5	-36.2	17.8	0.00e+00	0	56	0	935329792	40	4150
2026-01-08 14:26:02.75	169.12	19.53	-34.6	-36.3	17.8	0.00e+00	0	56	0	942669824	39	4447
2026-01-08 14:26:03.76	169.15	19.66	-34.7	-36.4	17.7	0.00e+00	0	56	0	950009856	39	4495
2026-01-08 14:26:04.77	169.18	19.79	-34.5	-36.2	17.9	0.00e+00	0	56	0	957349888	39	4400
2026-01-08 14:26:05.78	169.21	19.92	-34.6	-36.3	17.8	0.00e+00	0	56	0	964689920	39	4446
2026-01-08 14:26:06.79	169.23	20.05	-34.6	-36.3	17.7	0.00e+00	0	56	0	972029952	39	4451
2026-01-08 14:26:07.80	169.26	20.18	-34.5	-36.1	17.9	0.00e+00	0	56	0	979369984	39	4378
2026-01-08 14:26:08.81	169.29	20.32	-34.5	-36.2	17.9	0.00e+00	0	56	0	986710016	39	4394
2026-01-08 14:26:09.82	169.32	20.45	-34.5	-36.2	17.8	0.00e+00	0	56	0	994050048	39	4402
2026-01-08 14:26:10.83	169.35	20.59	-34.5	-36.1	17.9	0.00e+00	0	56	0	1001390080	39	4388
2026-01-08 14:26:11.84	169.38	20.72	-34.5	-36.2	17.8	0.00e+00	0	56	0	1008730112	39	4401
2026-01-08 14:26:12.85	169.41	20.86	-34.5	-36.3	17.7	0.00e+00	0	56	0	1016070144	39	4450
2026-01-08 14:26:13.86	169.44	20.99	-34.5	-36.2	17.8	0.00e+00	0	56	0	1023410176	39	4425
2026-01-08 14:26:14.87	169.47	21.13	-34.5	-36.3	17.7	0.00e+00	0	56	0	1030750208	39	4450
2026-01-08 14:26:15.88	169.51	21.27	-34.5	-36.3	17.7	0.00e+00	0	56	0	1038090240	39	4469
2026-01-08 14:26:16.89	169.54	21.41	-34.6	-36.3	17.7	0.00e+00	0	56	0	1045430272	39	4490
2026-01-08 14:26:17.90	169.57	21.55	-34.5	-36.3	17.7	0.00e+00	0	56	0	1051721728	39	4458
2026-01-08 14:26:18.91	169.60	21.69	-34.6	-36.4	17.6	0.00e+00	0	56	0	1060110336	39	4500
2026-01-08 14:26:19.92	169.63	21.83	-34.5	-36.3	17.6	0.00e+00	0	56	0	1067450368	39	4480
2026-01-08 14:26:20.93	169.67	21.97	-34.6	-36.5	17.5	0.00e+00	0	56	0	1073741824	39	4561
2026-01-08 14:26:21.94	169.70	22.12	-34.7	-36.5	17.4	0.00e+00	0	56	0	1081081856	39	4577
2026-01-08 14:26:22.95	169.73	22.26	-34.6	-36.5	17.5	0.00e+00	0	56	0	1089470464	39	4578
2026-01-08 14:26:23.96	169.76	22.41	-34.5	-36.4	17.6	0.00e+00	0	56	0	1095761920	39	4504
2026-01-08 14:26:24.97	169.80	22.55	-34.7	-36.5	17.5	0.00e+00	0	56	0	1103101952	39	4581
2026-01-08 14:26:25.98	169.83	22.70	-34.6	-36.5	17.5	0.00e+00	0	56	0	1110441984	39	4553
2026-01-08 14:26:26.99	169.87	22.85	-34.6	-36.4	17.5	0.00e+00	0	56	0	1117782016	39	4545
2026-01-08 14:26:28.00	169.90	22.99	-34.6	-36.5	17.5	0.00e+00	0	56	0	1125122048	39	4548
2026-01-08 14:26:29.01	169.93	23.14	-34.5	-36.4	17.6	0.00e+00	0	56	0	1132462080	39	4532
2026-01-08 14:26:30.02	169.97	23.29	-34.5	-36.3	17.7	0.00e+00	0	56	0	1139802112	39	4471
2026-01-08 14:26:31.02	170.00	23.44	-34.4	-36.3	17.7	0.00e+00	0	56	0	1147142144	39	4452
2026-01-08 14:26:32.03	170.04	23.59	-34.4	-36.3	17.7	0.00e+00	0	56	0	1154482176	39	4458
2026-01-08 14:26:33.04	170.08	23.75	-34.4	-36.3	17.7	0.00e+00	0	56	0	1161822208	39	4456
2026-01-08 14:26:34.05	170.11	23.90	-34.4	-36.2	17.8	0.00e+00	0	56	0	1169162240	39	4407
2026-01-08 14:26:35.06	170.15	24.05	-34.3	-36.1	17.9	0.00e+00	0	56	0	1176502272	39	4350
2026-01-08 14:26:36.07	170.19	24.21	-34.3	-36.1	17.9	0.00e+00	0	56	0	1183842304	39	4367
2026-01-08 14:26:37.08	170.22	24.36	-34.3	-36.1	17.9	0.00e+00	0	57	0	1191182336	39	4356
2026-01-08 14:26:38.09	170.26	24.52	-34.3	-36.1	18.0	0.00e+00	0	56	0	1197473792	39	4347
2026-01-08 14:26:39.10	170.30	24.68	-34.2	-36.0	18.0	0.00e+00	0	56	0	1205862400	39	4294
2026-01-08 14:26:40.11	170.34	24.84	-34.2	-36.0	18.0	0.00e+00	0	57	0	1213202432	39	4304
2026-01-08 14:26:41.12	170.38	25.00	-34.2	-36.0	18.0	0.00e+00	0	56	0	1219493888	39	4307
2026-01-08 14:26:42.13	170.41	25.16	-34.1	-35.9	18.2	0.00e+00	0	57	0	1226833920	39	4253
2026-01-08 14:26:43.14	170.45	25.32	-33.5	-35.4	18.3	0.00e+00	0	57	0	1234173952	38	4255
2026-01-08 14:26:44.15	170.49	25.48	-33.9	-35.7	18.3	0.00e+00	0	57	0	1241513984	38	4412
2026-01-08 14:26:45.16	170.53	25.65	-33.9	-35.6	18.4	0.00e+00	0	56	0	1248854016	38	4372
2026-01-08 14:26:46.17	170.57	25.81	-33.9	-35.6	18.5	0.00e+00	0	57	0	1256194048	38	4356
2026-01-08 14:26:47.18	170.61	25.98	-33.9	-35.6	18.5	0.00e+00	0	57	0	1263534080	38	4356
2026-01-08 14:26:48.19	170.66	26.14	-33.8	-35.5	18.6	0.00e+00	0	56	0	1270874112	38	4318
2026-01-08 14:26:49.20	170.70	26.31	-33.7	-35.3	18.8	0.00e+00	0	57	0	1278214144	38	4226
2026-01-08 14:26:50.21	170.74	26.48	-33.9	-35.6	18.5	0.00e+00	0	57	0	1285554176	38	4355
2026-01-08 14:26:51.22	170.78	26.65	-33.8	-35.4	18.7	0.00e+00	0	56	0	1292894208	38	4290
2026-01-08 14:26:52.23	170.82	26.82	-33.9	-35.6	18.6	0.00e+00	0	56	0	1300234240	38	4348
2026-01-08 14:26:53.24	170.87	26.99	-33.8	-35.5	18.7	0.00e+00	0	57	0	1307574272	38	4293
2026-01-08 14:26:54.25	170.91	27.17	-33.8	-35.4	18.7	0.00e+00	0	57	0	1314914304	38	4290
2026-01-08 14:26:55.26	170.96	27.34	-33.8	-35.4	18.7	0.00e+00	0	57	0	1322254336	38	4269
2026-01-08 14:26:56.27	171.00	27.52	-33.7	-35.3	18.8	0.00e+00	0	57	0	1329594368	38	4219
2026-01-08 14:26:57.28	171.05	27.69	-33.7	-35.4	18.8	0.00e+00	0	56	0	1336934400	38	4256
2026-01-08 14:26:58.29	171.09	27.87	-33.7	-35.4	18.7	0.00e+00	0	57	0	1344274432	38	4257
2026-01-08 14:26:59.30	171.14	28.05	-33.6	-35.2	18.9	0.00e+00	0	57	0	1350565888	38	4174
2026-01-08 14:27:00.31	171.18	28.23	-33.5	-35.1	19.1	0.00e+00	0	57	0	1358954496	37	4347
2026-01-08 14:27:01.32	171.23	28.41	-33.5	-35.1	19.1	0.00e+00	0	57	0	1366294528	37	4352
2026-01-08 14:27:02.33	171.28	28.59	-33.6	-35.2	18.9	0.00e+00	0	57	0	1372585984	37	4411
2026-01-08 14:27:03.34	171.33	28.77	-33.4	-35.0	19.1	0.00e+00	0	57	0	1379926016	37	4317
2026-01-08 14:27:04.35	171.37	28.96	-33.5	-35.1	19.0	0.00e+00	0	57	0	1387266048	37	4360
2026-01-08 14:27:05.36	171.42	29.14	-33.6	-35.2	18.9	0.00e+00	0	57	0	1394606080	37	4416
2026-01-08 14:27:06.37	171.47	29.33	-33.7	-35.3	18.8	0.00e+00	0	57	0	1401946112	37	4467
2026-01-08 14:27:07.38	171.52	29.52	-33.6	-35.2	18.9	0.00e+00	0	57	0	1409286144	37	4429
2026-01-08 14:27:08.39	171.57	29.71	-33.6	-35.2	18.9	0.00e+00	0	57	0	1416626176	37	4422
2026-01-08 14:27:09.40	171.63	29.90	-33.6	-35.2	18.9	0.00e+00	0	57	0	1423966208	37	4433
2026-01-08 14:27:10.41	171.68	30.09	-33.5	-35.1	18.9	0.00e+00	0	57	0	1431306240	37	4388
2026-01-08 14:27:11.42	171.73	30.28	-33.6	-35.2	18.8	0.00e+00	0	57	0	1438646272	37	4426
2026-01-08 14:27:12.43	171.78	30.48	-33.4	-35.0	19.0	0.00e+00	0	57	0	1445986304	37	4316
2026-01-08 14:27:13.44	171.84	30.67	-33.4	-35.0	19.0	0.00e+00	0	56	0	1453326336	37	4305
2026-01-08 14:27:14.45	171.89	30.87	-33.3	-34.9	19.0	0.00e+00	0	57	0	1460666368	37	4282
2026-01-08 14:27:15.46	171.95	31.07	-33.4	-35.1	18.9	0.00e+00	0	57	0	1468006400	37	4364
2026-01-08 14:27:16.47	172.00	31.27	-33.5	-35.1	18.8	0.00e+00	0	57	0	1475346432	37	4389
2026-01-08 14:27:17.48	172.06	31.47	-33.6	-35.3	18.6	0.00e+00	0	57	0	1482686464	37	4475
2026-01-08 14:27:18.49	172.11	31.67	-33.6	-35.3	18.6	0.00e+00	0	57	0	1490026496	37	4485
2026-01-08 14:27:19.50	172.17	31.88	-33.6	-35.4	18.6	0.00e+00	0	57	0	1497366528	37	4496
2026-01-08 14:27:20.51	172.23	32.08	-33.4	-35.1	18.7	0.00e+00	0	57	0	1504706560	37	4391
2026-01-08 14:27:21.52	172.29	32.29	-33.6	-35.4	18.5	0.00e+00	0	57	0	1512046592	37	4523
2026-01-08 14:27:22.53	172.35	32.49	-33.7	-35.5	18.4	0.00e+00	0	57	0	1518338048	37	4571
2026-01-08 14:27:23.54	172.41	32.70	-33.7	-35.5	18.3	0.00e+00	0	57	0	1525678080	37	4590
2026-01-08 14:27:24.55	172.47	32.91	-33.7	-35.5	18.3	0.00e+00	0	57	0	1534066688	37	4577
2026-01-08 14:27:25.56	172.53	33.13	-33.7	-35.6	18.3	0.00e+00	0	57	0	1540358144	37	4617
2026-01-08 14:27:26.57	172.59	33.34	-33.8	-35.7	18.2	0.00e+00	0	57	0	1547698176	37	4652
2026-01-08 14:27:27.58	172.66	33.56	-33.9	-35.8	18.2	0.00e+00	0	57	0	1555038208	37	4709
2026-01-08 14:27:28.59	172.72	33.77	-33.9	-35.7	18.2	0.00e+00	0	57	0	1562378240	37	4698
2026-01-08 14:27:29.60	172.79	33.99	-33.9	-35.8	18.2	0.00e+00	0	57	0	1569718272	37	4715
2026-01-08 14:27:30.61	172.85	34.21	-33.8	-35.7	18.4	0.00e+00	0	57	0	1577058304	37	4660
2026-01-08 14:27:31.62	172.92	34.43	-33.7	-35.4	18.6	0.00e+00	0	57	0	1584398336	37	4541
2026-01-08 14:27:32.63	172.99	34.65	-33.7	-35.4	18.7	0.00e+00	0	57	0	1591738368	37	4521
2026-01-08 14:27:33.65	173.05	34.88	-33.7	-35.4	18.8	0.00e+00	0	57	0	1599078400	37	4499
2026-01-08 14:27:34.65	173.12	35.10	-33.6	-35.2	18.9	0.00e+00	0	57	0	1606418432	37	4439
2026-01-08 14:27:35.66	173.19	35.33	-33.6	-35.3	18.9	0.00e+00	0	57	0	1613758464	37	4468
2026-01-08 14:27:36.68	173.26	35.56	-33.6	-35.3	18.9	0.00e+00	0	57	0	1621098496	37	4484
2026-01-08 14:27:37.68	173.34	35.79	-33.7	-35.4	18.9	0.00e+00	0	57	0	1628438528	37	4515
2026-01-08 14:27:38.69	173.41	36.02	-33.8	-35.5	18.8	0.00e+00	0	57	0	1635778560	37	4550
2026-01-08 14:27:39.71	173.48	36.26	-33.7	-35.3	18.9	0.00e+00	0	57	0	1643118592	37	4481
2026-01-08 14:27:40.72	173.56	36.49	-33.8	-35.5	18.8	0.00e+00	0	57	0	1650458624	37	4553
2026-01-08 14:27:41.73	173.63	36.73	-33.7	-35.4	18.8	0.00e+00	0	57	0	1657798656	37	4522
2026-01-08 14:27:42.74	173.71	36.97	-33.8	-35.4	18.8	0.00e+00	0	57	0	1665138688	37	4541
2026-01-08 14:27:43.75	173.79	37.21	-33.8	-35.6	18.6	0.00e+00	0	57	0	1671430144	37	4609
2026-01-08 14:27:44.76	173.87	37.45	-33.8	-35.5	18.7	0.00e+00	0	57	0	1679818752	37	4581
2026-01-08 14:27:45.77	173.95	37.70	-33.9	-35.6	18.6	0.00e+00	0	57	0	1687158784	37	4606
2026-01-08 14:27:46.77	174.03	37.94	-33.7	-35.4	18.8	0.00e+00	0	57	0	1693450240	37	4497
2026-01-08 14:27:47.79	174.11	38.19	-33.7	-35.4	18.7	0.00e+00	0	57	0	1700790272	37	4520
2026-01-08 14:27:48.80	174.20	38.44	-33.8	-35.5	18.7	0.00e+00	0	57	0	1708130304	37	4562
2026-01-08 14:27:49.81	174.28	38.69	-33.7	-35.4	18.7	0.00e+00	0	57	0	1715470336	37	4535
2026-01-08 14:27:50.82	174.37	38.94	-33.6	-35.3	18.9	0.00e+00	0	57	0	1722810368	37	4448
2026-01-08 14:27:51.83	174.46	39.20	-33.5	-35.1	19.0	0.00e+00	0	57	0	1730150400	37	4388
2026-01-08 14:27:52.84	174.55	39.45	-33.6	-35.2	18.9	0.00e+00	0	57	0	1737490432	37	4439
2026-01-08 14:27:53.85	174.64	39.71	-33.8	-35.5	18.7	0.00e+00	0	57	0	1744830464	37	4556
2026-01-08 14:27:54.86	174.73	39.97	-34.0	-35.8	18.4	0.00e+00	0	57	0	1752170496	37	4710
2026-01-08 14:27:55.87	174.82	40.23	-34.1	-35.8	18.3	0.00e+00	0	57	0	1759510528	37	4725
2026-01-08 14:27:56.88	174.92	40.50	-34.0	-35.7	18.4	0.00e+00	0	57	0	1766850560	37	4704
2026-01-08 14:27:57.89	175.02	40.76	-34.0	-35.7	18.5	0.00e+00	0	57	0	1774190592	38	4436
2026-01-08 14:27:58.89	175.11	41.03	-34.1	-35.8	18.4	0.00e+00	0	57	0	1781530624	38	4486
2026-01-08 14:27:59.90	175.21	41.30	-34.2	-35.9	18.4	0.00e+00	0	57	0	1788870656	38	4504
2026-01-08 14:28:00.92	175.31	41.57	-34.2	-35.8	18.4	0.00e+00	0	57	0	1796210688	38	4483
2026-01-08 14:28:01.92	175.42	41.84	-34.2	-35.8	18.4	0.00e+00	0	57	0	1803550720	38	4492
2026-01-08 14:28:02.94	175.52	42.12	-34.3	-35.9	18.4	0.00e+00	0	57	0	1810890752	38	4530
2026-01-08 14:28:03.95	175.63	42.40	-34.1	-35.8	18.5	0.00e+00	0	57	0	1817182208	38	4448
2026-01-08 14:28:04.95	175.74	42.68	-34.2	-35.9	18.5	0.00e+00	0	57	0	1825570816	38	4497
2026-01-08 14:28:05.96	175.85	42.96	-34.4	-36.1	18.3	0.00e+00	0	57	0	1832910848	38	4602
2026-01-08 14:28:06.98	175.96	43.24	-34.5	-36.2	18.1	0.00e+00	0	57	0	1839202304	38	4691
2026-01-08 14:28:07.99	176.07	43.53	-34.5	-36.2	18.1	0.00e+00	0	57	0	1846542336	38	4690
2026-01-08 14:28:09.00	176.19	43.82	-34.6	-36.4	17.9	0.00e+00	0	57	0	1854930944	39	4529
2026-01-08 14:28:10.01	176.31	44.10	-34.6	-36.4	17.9	0.00e+00	0	57	0	1861222400	39	4514
2026-01-08 14:28:11.02	176.43	44.40	-34.6	-36.4	17.9	0.00e+00	0	57	0	1868562432	39	4517
2026-01-08 14:28:12.03	176.55	44.69	-34.7	-36.6	17.7	0.00e+00	0	57	0	1875902464	39	4615
2026-01-08 14:28:13.04	176.67	44.98	-35.3	-36.5	18.3	0.00e+00	0	57	0	1883242496	40	4310
2026-01-08 14:28:14.05	176.80	45.28	-35.1	-36.3	18.5	0.00e+00	0	57	0	1890582528	40	4218
2026-01-08 14:28:15.06	176.93	45.58	-35.2	-36.3	18.4	0.00e+00	0	57	0	1897922560	40	4237
2026-01-08 14:28:16.07	177.06	45.88	-35.1	-36.2	18.6	0.00e+00	0	57	0	1905262592	40	4179
2026-01-08 14:28:17.08	177.19	46.19	-35.1	-36.3	18.5	0.00e+00	0	57	0	1912602624	40	4198
2026-01-08 14:28:18.09	177.33	46.49	-35.3	-36.4	18.3	0.00e+00	0	57	0	1919942656	40	4283
2026-01-08 14:28:19.10	177.47	46.80	-35.1	-36.2	18.6	0.00e+00	0	57	0	1927282688	40	4183
2026-01-08 14:28:20.11	177.61	47.11	-35.1	-36.2	18.6	0.00e+00	0	57	0	1934622720	40	4169
2026-01-08 14:28:21.12	177.75	47.42	-35.0	-36.2	18.6	0.00e+00	0	57	0	1941962752	40	4168
2026-01-08 14:28:22.13	177.90	47.74	-35.0	-36.1	18.7	0.00e+00	0	57	0	1949302784	40	4129
2026-01-08 14:28:23.14	178.05	48.05	-35.1	-36.2	18.5	0.00e+00	0	57	0	1956642816	40	4169
2026-01-08 14:28:24.15	178.20	48.37	-34.9	-36.0	18.7	0.00e+00	0	57	0	1963982848	40	4078
2026-01-08 14:28:25.16	178.36	48.69	-35.4	-36.6	18.2	0.00e+00	0	57	0	1971322880	40	4384
2026-01-08 14:28:26.17	178.52	49.02	-35.6	-36.8	18.0	0.00e+00	0	57	0	1978662912	40	4459
2026-01-08 14:28:27.18	178.68	49.34	-35.6	-36.8	18.0	0.00e+00	0	57	0	1986002944	40	4479
2026-01-08 14:28:28.19	178.85	49.67	-35.4	-36.6	18.2	0.00e+00	0	57	0	1992294400	40	4366
2026-01-08 14:28:29.20	179.02	50.00	-35.4	-36.6	18.3	0.00e+00	0	57	0	2000683008	40	4344
2026-01-08 14:28:30.21	179.19	50.33	-35.4	-36.5	18.2	0.00e+00	0	57	0	2008023040	40	4329
2026-01-08 14:28:31.22	179.37	50.66	-35.7	-36.9	17.9	0.00e+00	0	57	0	2014314496	40	4525
2026-01-08 14:28:32.23	179.55	51.00	-35.8	-37.1	17.7	0.00e+00	0	57	0	2021654528	41	4344
2026-01-08 14:28:33.24	179.73	51.33	-35.9	-37.1	17.7	0.00e+00	0	57	0	2028994560	41	4387
2026-01-08 14:28:34.25	179.92	51.67	-35.9	-37.2	17.6	0.00e+00	0	57	0	2036334592	41	4399
2026-01-08 14:28:35.26	180.12	52.02	-35.9	-37.1	17.7	0.00e+00	0	57	0	2043674624	42	4124
2026-01-08 14:28:36.27	180.32	52.36	-35.8	-37.0	17.8	0.00e+00	0	57	0	2051014656	42	4087
2026-01-08 14:28:37.28	180.52	52.71	-35.6	-36.9	18.0	0.00e+00	0	57	0	2058354688	42	4010
2026-01-08 14:28:38.29	180.73	53.05	-35.8	-37.1	17.7	0.00e+00	0	57	0	2065694720	42	4100
2026-01-08 14:28:39.30	180.94	53.40	-36.0	-37.2	17.5	0.00e+00	0	57	0	2073034752	42	4173
2026-01-08 14:28:40.31	181.15	53.76	-35.6	-36.8	18.0	0.00e+00	0	57	0	2080374784	42	3984
2026-01-08 14:28:41.32	181.38	54.11	-35.7	-36.9	17.8	0.00e+00	0	57	0	2087714816	42	4048
2026-01-08 14:28:42.33	181.61	54.47	-35.7	-36.9	17.8	0.00e+00	0	57	0	2095054848	42	4047
2026-01-08 14:28:43.34	181.84	54.83	-35.8	-37.0	17.8	0.00e+00	0	57	0	2102394880	42	4078
2026-01-08 14:28:44.35	182.08	55.19	-35.8	-37.0	17.8	0.00e+00	0	57	0	2109734912	42	4064
2026-01-08 14:28:45.36	182.32	55.55	-35.3	-36.4	18.3	0.00e+00	0	57	0	2117074944	41	4050
2026-01-08 14:28:46.37	182.58	55.91	-35.7	-37.0	17.8	0.00e+00	0	57	0	2124414976	41	4292
2026-01-08 14:28:47.38	182.84	56.28	-35.7	-37.0	17.9	0.00e+00	0	57	0	2131755008	41	4292
2026-01-08 14:28:48.39	183.10	56.65	-35.9	-37.1	17.7	0.00e+00	0	57	0	2138046464	41	4372
2026-01-08 14:28:49.40	183.37	57.02	-36.0	-37.3	17.6	0.00e+00	0	57	0	2146435072	41	4450
2026-01-08 14:28:50.41	183.65	57.39	-35.6	-36.8	18.1	0.00e+00	0	57	0	2153775104	41	4197
2026-01-08 14:28:51.42	183.94	57.76	-35.9	-37.1	17.7	0.00e+00	0	57	0	2160066560	42	4129
2026-01-08 14:28:52.43	184.24	58.14	-35.8	-37.0	17.8	0.00e+00	0	57	0	2167406592	42	4060
2026-01-08 14:28:53.44	184.54	58.51	-35.5	-36.7	18.1	0.00e+00	0	58	0	2174746624	41	4154
2026-01-08 14:28:54.45	184.85	58.89	-35.7	-36.9	17.9	0.00e+00	0	57	0	2182086656	41	4251
2026-01-08 14:28:55.46	185.17	59.27	-35.9	-37.1	17.4	0.00e+00	0	57	0	2189426688	41	4369
2026-01-08 14:28:56.47	185.51	59.65	-35.8	-37.0	17.9	0.00e+00	0	57	0	2196766720	42	4068
2026-01-08 14:28:57.48	185.85	60.04	-35.7	-36.9	17.9	0.00e+00	0	57	0	2204106752	42	4049
2026-01-08 14:28:58.49	186.20	60.42	-35.7	-36.9	17.9	0.00e+00	0	57	0	2211446784	42	4041
2026-01-08 14:28:59.50	186.56	60.81	-35.7	-36.9	18.0	0.00e+00	0	57	0	2218786816	42	4012
2026-01-08 14:29:00.51	186.93	61.19	-36.2	-37.5	17.3	0.00e+00	0	57	0	2226126848	42	4327
2026-01-08 14:29:01.52	187.32	61.58	-35.8	-37.0	17.7	0.00e+00	0	57	0	2233466880	41	4319
2026-01-08 14:29:02.53	187.71	61.97	-35.5	-36.7	18.2	0.00e+00	0	57	0	2240806912	41	4153
2026-01-08 14:29:03.54	188.12	62.36	-35.6	-36.8	18.0	0.00e+00	0	57	0	2248146944	41	4203
2026-01-08 14:29:04.55	188.54	62.75	-35.5	-36.7	18.1	0.00e+00	0	57	0	2255486976	41	4190
2026-01-08 14:29:05.56	188.98	63.14	-35.4	-36.6	18.2	0.00e+00	0	58	0	2262827008	41	4120
2026-01-08 14:29:06.57	189.43	63.54	-35.4	-36.6	18.2	0.00e+00	0	57	0	2270167040	40	4362
2026-01-08 14:29:07.58	189.90	63.93	-34.8	-35.9	18.9	0.00e+00	0	57	0	2277507072	40	4033
2026-01-08 14:29:08.59	190.38	64.32	-34.7	-35.8	19.0	0.00e+00	0	57	0	2284847104	40	3992
2026-01-08 14:29:09.60	190.88	64.72	-34.7	-35.8	19.0	0.00e+00	0	58	0	2292187136	40	3998
2026-01-08 14:29:10.61	191.39	65.11	-34.6	-35.7	19.0	0.00e+00	0	57	0	2299527168	40	3944
2026-01-08 14:29:11.63	191.93	65.51	-34.5	-35.5	19.1	1.10e-06	0	57	0	2306867200	39	4074
2026-01-08 14:29:12.64	192.49	65.91	-34.5	-35.6	19.2	0.00e+00	0	57	0	2313158656	39	4132
2026-01-08 14:29:13.64	193.06	66.30	-34.9	-36.0	18.8	0.00e+00	0	57	0	2320498688	39	4335
2026-01-08 14:29:14.65	193.65	66.69	-34.7	-35.8	19.0	0.00e+00	0	57	0	2328887296	39	4221
2026-01-08 14:29:15.66	194.27	67.09	-34.4	-35.5	19.3	1.94e-05	0	57	0	2335178752	39	4091
2026-01-08 14:29:16.67	194.91	67.48	-34.2	-35.2	19.6	0.00e+00	0	58	0	2342518784	39	3948
2026-01-08 14:29:17.68	195.58	67.88	-34.5	-35.5	19.3	1.64e-04	0	58	0	2349858816	39	4096
2026-01-08 14:29:18.69	196.27	68.27	-34.3	-35.4	19.4	3.43e-05	0	58	0	2357198848	39	4033
2026-01-08 14:29:19.70	196.99	68.66	-34.1	-35.2	19.6	0.00e+00	0	58	0	2364538880	39	3935
2026-01-08 14:29:20.71	197.74	69.05	-34.1	-35.1	19.7	0.00e+00	0	57	0	2371878912	39	3889
2026-01-08 14:29:21.73	198.52	69.44	-34.4	-35.5	19.3	0.00e+00	0	57	0	2379218944	39	4063
2026-01-08 14:29:22.73	199.33	69.82	-34.0	-35.0	19.6	0.00e+00	0	57	0	2386558976	39	3841
2026-01-08 14:29:23.74	200.17	70.20	-34.5	-35.6	19.3	0.00e+00	0	57	0	2393899008	38	4346
2026-01-08 14:29:24.76	201.06	70.58	-34.5	-35.6	19.2	0.00e+00	0	57	0	2401239040	38	4384
2026-01-08 14:29:25.76	201.96	70.96	-34.5	-35.6	19.2	9.10e-06	0	57	0	2408579072	38	4388
2026-01-08 14:29:26.77	202.92	71.33	-34.5	-35.6	19.2	0.00e+00	0	57	0	2415919104	38	4362
2026-01-08 14:29:27.78	203.92	71.70	-34.5	-35.6	19.0	0.00e+00	0	57	0	2423259136	39	4114
2026-01-08 14:29:28.79	204.96	72.07	-34.4	-35.5	19.3	0.00e+00	0	58	0	2430599168	39	4068
2026-01-08 14:29:29.80	206.04	72.43	-34.3	-35.3	19.4	0.00e+00	0	58	0	2437939200	39	3994
2026-01-08 14:29:30.81	207.17	72.78	-34.3	-35.4	19.4	0.00e+00	0	58	0	2445279232	39	4019
2026-01-08 14:29:31.82	208.35	73.14	-34.4	-35.5	19.3	0.00e+00	0	58	0	2452619264	39	4068
2026-01-08 14:29:32.83	209.59	73.48	-34.4	-35.5	19.2	0.00e+00	0	58	0	2458910720	39	4055
2026-01-08 14:29:33.84	210.88	73.82	-34.2	-35.3	19.2	0.00e+00	0	58	0	2466250752	39	3994
2026-01-08 14:29:34.85	212.22	74.15	-34.0	-35.1	19.6	0.00e+00	0	58	0	2473590784	39	3891
2026-01-08 14:29:35.85	213.61	74.47	-34.0	-35.1	19.7	0.00e+00	0	57	0	2480930816	38	4109
2026-01-08 14:29:36.86	215.08	74.78	-34.0	-35.1	19.7	2.51e-05	0	58	0	2488270848	38	4115
2026-01-08 14:29:37.87	216.60	75.09	-34.2	-35.3	19.3	0.00e+00	0	58	0	2495610880	38	4221
2026-01-08 14:29:38.88	218.20	75.38	-33.8	-34.8	19.9	0.00e+00	0	58	0	2502950912	38	4000
2026-01-08 14:29:39.89	219.86	75.67	-34.0	-35.0	19.7	0.00e+00	0	58	0	2510290944	38	4084
2026-01-08 14:29:40.90	221.58	75.94	-34.0	-35.0	19.7	0.00e+00	0	58	0	2517630976	38	4082
2026-01-08 14:29:41.91	223.38	76.20	-33.7	-34.7	20.0	0.00e+00	0	57	0	2524971008	38	3946
2026-01-08 14:29:42.92	225.25	76.45	-33.7	-34.8	20.0	0.00e+00	0	58	0	2532311040	38	3961
2026-01-08 14:29:43.93	227.18	76.68	-33.7	-34.8	20.0	0.00e+00	0	57	0	2539651072	38	3967
2026-01-08 14:29:44.94	229.19	76.90	-33.7	-34.8	19.9	0.00e+00	0	58	0	2546991104	38	3973
2026-01-08 14:29:45.95	231.26	77.11	-33.6	-34.7	20.0	0.00e+00	0	57	0	2554331136	38	3917
2026-01-08 14:29:46.96	233.40	77.29	-33.2	-34.2	20.4	0.00e+00	0	58	0	2561671168	37	3945
2026-01-08 14:29:47.97	235.60	77.46	-33.2	-34.2	20.5	0.00e+00	0	57	0	2569011200	37	3932
2026-01-08 14:29:48.98	237.85	77.61	-33.6	-34.6	20.1	0.00e+00	0	58	0	2576351232	37	4130
2026-01-08 14:29:49.99	240.17	77.75	-33.6	-34.7	20.0	0.00e+00	0	57	0	2583691264	37	4147
2026-01-08 14:29:51.00	242.52	77.86	-33.6	-34.6	20.0	0.00e+00	0	57	0	2589982720	37	4141
2026-01-08 14:29:52.01	244.92	77.95	-33.6	-34.7	20.0	0.00e+00	0	57	0	2598371328	37	4155
2026-01-08 14:29:53.02	247.36	78.02	-33.4	-34.4	20.2	0.00e+00	0	58	0	2605711360	37	4048
2026-01-08 14:29:54.03	249.81	78.07	-33.3	-34.3	20.3	0.00e+00	0	58	0	2612002816	37	3997
2026-01-08 14:29:55.04	252.29	78.10	-33.6	-34.6	20.0	0.00e+00	0	58	0	2619342848	37	4142
2026-01-08 14:29:56.05	254.77	78.11	-33.2	-34.2	20.4	0.00e+00	0	58	0	2626682880	37	3953
2026-01-08 14:29:57.06	257.25	78.09	-33.1	-34.1	20.5	0.00e+00	0	58	0	2634022912	37	3891
2026-01-08 14:29:58.07	259.72	78.05	-33.1	-34.1	20.5	0.00e+00	0	58	0	2641362944	37	3896
2026-01-08 14:29:59.08	262.17	78.00	-33.1	-34.0	20.4	0.00e+00	0	58	0	2648702976	37	3867
2026-01-08 14:30:00.09	264.59	77.92	-33.2	-34.2	20.4	0.00e+00	0	58	0	2656043008	37	3934
2026-01-08 14:30:01.10	266.97	77.82	-33.0	-34.0	20.6	0.00e+00	0	58	0	2663383040	37	3858
2026-01-08 14:30:02.11	269.31	77.70	-33.2	-34.2	20.5	4.23e-05	0	58	0	2670723072	37	3918
2026-01-08 14:30:03.12	271.60	77.56	-33.2	-34.2	20.5	0.00e+00	0	58	0	2678063104	37	3948
2026-01-08 14:30:04.13	273.84	77.40	-33.3	-34.3	20.3	0.00e+00	0	58	0	2685403136	37	3983
2026-01-08 14:30:05.14	276.01	77.22	-33.5	-34.5	20.1	3.40e-06	0	58	0	2692743168	37	4093
2026-01-08 14:30:06.15	278.12	77.03	-33.7	-34.7	19.9	0.00e+00	0	57	0	2700083200	37	4192
2026-01-08 14:30:07.16	280.17	76.82	-33.6	-34.6	20.0	0.00e+00	0	58	0	2707423232	37	4138
2026-01-08 14:30:08.17	282.15	76.60	-33.4	-34.4	20.2	0.00e+00	0	58	0	2714763264	37	4039
2026-01-08 14:30:09.18	284.05	76.36	-33.5	-34.5	20.1	0.00e+00	0	57	0	2722103296	37	4064
2026-01-08 14:30:10.19	285.89	76.10	-33.8	-34.8	19.8	0.00e+00	0	58	0	2729443328	37	4242
2026-01-08 14:30:11.20	287.66	75.84	-33.9	-35.0	19.7	0.00e+00	0	58	0	2736783360	37	4303
2026-01-08 14:30:12.21	289.36	75.56	-34.0	-35.1	19.6	0.00e+00	0	58	0	2744123392	37	4357
2026-01-08 14:30:13.21	290.98	75.28	-34.1	-35.1	19.5	0.00e+00	0	58	0	2751463424	37	4383
2026-01-08 14:30:14.22	292.55	74.98	-34.1	-35.1	19.5	0.00e+00	0	58	0	2757754880	37	4383
2026-01-08 14:30:15.23	294.05	74.67	-33.9	-35.0	19.6	0.00e+00	0	58	0	2765094912	37	4306
2026-01-08 14:30:16.24	295.49	74.35	-34.0	-35.0	19.5	0.00e+00	0	58	0	2772434944	37	4307
2026-01-08 14:30:17.25	296.87	74.03	-34.4	-35.4	19.3	0.00e+00	0	58	0	2780823552	38	4286
2026-01-08 14:30:18.26	298.19	73.69	-34.4	-35.5	19.2	0.00e+00	0	58	0	2787115008	38	4306
2026-01-08 14:30:19.27	299.46	73.35	-34.3	-35.4	19.4	0.00e+00	0	58	0	2794455040	38	4245
2026-01-08 14:30:20.28	300.67	73.01	-34.3	-35.4	19.3	0.00e+00	0	58	0	2801795072	38	4266
2026-01-08 14:30:21.29	301.83	72.65	-34.6	-35.6	18.9	0.00e+00	0	58	0	2809135104	39	4145
2026-01-08 14:30:22.30	302.95	72.30	-35.0	-36.1	18.6	8.58e-05	0	58	0	2816475136	39	4370
2026-01-08 14:30:23.31	304.01	71.93	-35.1	-36.4	17.8	0.00e+00	0	58	0	2823815168	39	4495
2026-01-08 14:30:24.32	305.03	71.57	-35.1	-36.3	18.4	0.00e+00	0	58	0	2831155200	40	4215
2026-01-08 14:30:25.33	306.01	71.20	-35.4	-36.6	18.1	3.08e-05	0	58	0	2838495232	40	4365
2026-01-08 14:30:26.34	306.95	70.82	-35.4	-36.6	18.0	0.00e+00	0	58	0	2845835264	40	4371
2026-01-08 14:30:27.35	307.85	70.45	-35.1	-36.2	18.3	0.00e+00	0	57	0	2853175296	40	4170
2026-01-08 14:30:28.36	308.72	70.06	-35.0	-36.1	18.6	0.00e+00	0	57	0	2860515328	40	4139
2026-01-08 14:30:29.37	309.55	69.68	-35.0	-36.1	18.6	0.00e+00	0	57	0	2867855360	40	4121
2026-01-08 14:30:30.38	310.35	69.30	-34.8	-35.9	18.7	1.10e-06	0	58	0	2875195392	40	4046
2026-01-08 14:30:31.38	311.11	68.91	-34.6	-35.6	19.0	0.00e+00	0	58	0	2882535424	40	3911
2026-01-08 14:30:32.39	311.84	68.53	-34.5	-35.6	19.2	0.00e+00	0	58	0	2888826880	39	4117
2026-01-08 14:30:33.40	312.55	68.14	-34.5	-35.6	19.1	0.00e+00	0	58	0	2897215488	39	4138
2026-01-08 14:30:34.41	313.23	67.74	-34.6	-35.7	19.1	0.00e+00	0	58	0	2904555520	39	4187
2026-01-08 14:30:35.42	313.89	67.35	-34.5	-35.5	19.2	0.00e+00	0	58	0	2910846976	39	4082
2026-01-08 14:30:36.43	314.52	66.96	-34.4	-35.4	19.4	0.00e+00	0	58	0	2918187008	39	4045
2026-01-08 14:30:37.45	315.14	66.56	-34.4	-35.5	19.2	2.40e-05	0	58	0	2925527040	39	4082
2026-01-08 14:30:38.45	315.72	66.17	-34.6	-35.7	19.0	0.00e+00	0	58	0	2932867072	39	4189
2026-01-08 14:30:39.46	316.28	65.78	-34.6	-35.7	19.1	0.00e+00	0	58	0	2940207104	39	4188
2026-01-08 14:30:40.47	316.83	65.38	-34.7	-35.7	19.0	0.00e+00	0	58	0	2947547136	39	4190
2026-01-08 14:30:41.48	317.36	64.99	-34.5	-35.5	19.3	0.00e+00	0	57	0	2954887168	39	4091
2026-01-08 14:30:42.49	317.87	64.60	-34.4	-35.4	19.3	0.00e+00	0	57	0	2962227200	39	4047
2026-01-08 14:30:43.50	318.36	64.20	-34.5	-35.5	19.3	0.00e+00	0	58	0	2969567232	39	4098
2026-01-08 14:30:44.51	318.83	63.81	-34.6	-35.7	19.1	0.00e+00	0	58	0	2976907264	39	4182
2026-01-08 14:30:45.52	319.29	63.42	-34.6	-35.7	19.1	0.00e+00	0	58	0	2984247296	39	4173
2026-01-08 14:30:46.53	319.74	63.02	-34.7	-35.7	19.1	0.00e+00	0	58	0	2991587328	39	4193
2026-01-08 14:30:47.55	320.17	62.63	-34.8	-35.9	18.9	0.00e+00	0	58	0	2998927360	39	4288
2026-01-08 14:30:48.56	320.59	62.24	-35.1	-36.3	18.6	0.00e+00	0	57	0	3006267392	39	4444
2026-01-08 14:30:49.57	321.00	61.85	-35.3	-36.5	18.3	0.00e+00	0	58	0	3013607424	40	4315
2026-01-08 14:30:50.58	321.39	61.46	-35.8	-37.1	17.7	0.00e+00	0	58	0	3020947456	41	4351
2026-01-08 14:30:51.59	321.77	61.08	-36.2	-37.4	17.1	0.00e+00	0	58	0	3028287488	42	4269
2026-01-08 14:30:52.59	322.13	60.69	-36.2	-37.5	17.3	0.00e+00	0	58	0	3035627520	42	4319
2026-01-08 14:30:53.61	322.49	60.31	-35.9	-37.2	17.6	0.00e+00	0	58	0	3042967552	42	4175
2026-01-08 14:30:54.61	322.84	59.93	-35.6	-36.8	18.0	0.00e+00	0	58	0	3050307584	42	3994
2026-01-08 14:30:55.62	323.17	59.55	-35.6	-36.8	18.0	0.00e+00	0	58	0	3057647616	42	3973
2026-01-08 14:30:56.63	323.50	59.17	-35.7	-36.9	17.8	0.00e+00	0	58	0	3063939072	42	4027
2026-01-08 14:30:57.64	323.82	58.79	-35.7	-36.9	17.8	0.00e+00	0	58	0	3071279104	42	4038
2026-01-08 14:30:58.65	324.13	58.41	-35.6	-36.8	18.0	0.00e+00	0	58	0	3079667712	42	3993
2026-01-08 14:30:59.66	324.43	58.04	-35.6	-36.8	18.0	0.00e+00	0	58	0	3085959168	42	3985
2026-01-08 14:31:00.67	324.72	57.66	-35.7	-36.9	18.0	0.00e+00	0	58	0	3093299200	42	4010
2026-01-08 14:31:01.68	325.01	57.29	-35.6	-36.8	18.0	0.00e+00	0	58	0	3100639232	42	3995
2026-01-08 14:31:02.69	325.28	56.92	-35.9	-37.1	17.8	0.00e+00	0	58	0	3107979264	42	4110
2026-01-08 14:31:03.70	325.55	56.56	-36.1	-37.4	17.5	0.00e+00	0	58	0	3115319296	42	4258
2026-01-08 14:31:04.71	325.82	56.19	-36.3	-37.6	17.2	0.00e+00	0	58	0	3122659328	42	4370
2026-01-08 14:31:05.72	326.07	55.83	-36.3	-37.7	17.2	0.00e+00	0	58	0	3129999360	42	4394
2026-01-08 14:31:06.73	326.32	55.46	-36.4	-37.7	17.0	0.00e+00	0	58	0	3137339392	42	4424
2026-01-08 14:31:07.74	326.57	55.10	-36.5	-37.8	17.1	0.00e+00	0	58	0	3144679424	42	4443
2026-01-08 14:31:08.75	326.80	54.74	-36.4	-37.7	17.1	0.00e+00	0	57	0	3152019456	42	4412
2026-01-08 14:31:09.76	327.04	54.39	-36.3	-37.6	17.3	0.00e+00	0	58	0	3159359488	42	4348
2026-01-08 14:31:10.77	327.26	54.03	-36.0	-37.3	17.6	0.00e+00	0	58	0	3166699520	42	4198
2026-01-08 14:31:11.78	327.48	53.68	-35.8	-36.9	17.8	0.00e+00	0	58	0	3174039552	42	4048
2026-01-08 14:31:12.79	327.70	53.33	-35.7	-36.9	17.9	0.00e+00	0	58	0	3181379584	42	4021
2026-01-08 14:31:13.80	327.91	52.98	-35.6	-36.8	18.0	0.00e+00	0	58	0	3187671040	42	3994
2026-01-08 14:31:14.81	328.11	52.64	-35.8	-37.0	17.8	0.00e+00	0	58	0	3196059648	42	4058
2026-01-08 14:31:15.82	328.32	52.29	-35.8	-37.0	17.8	0.00e+00	0	58	0	3203399680	42	4078
2026-01-08 14:31:16.83	328.51	51.95	-35.8	-37.0	17.9	0.00e+00	0	58	0	3209691136	42	4080
2026-01-08 14:31:17.84	328.70	51.61	-35.6	-36.8	17.8	0.00e+00	0	58	0	3217031168	42	3965
2026-01-08 14:31:18.85	328.89	51.27	-35.5	-36.7	18.1	0.00e+00	0	58	0	3224371200	42	3942
2026-01-08 14:31:19.85	329.07	50.94	-35.4	-36.5	18.3	0.00e+00	0	58	0	3231711232	41	4083
2026-01-08 14:31:20.86	329.25	50.61	-35.4	-36.5	18.2	0.00e+00	0	58	0	3239051264	41	4090
2026-01-08 14:31:21.87	329.43	50.27	-35.5	-36.7	18.1	0.00e+00	0	58	0	3246391296	41	4171
2026-01-08 14:31:22.88	329.60	49.95	-35.7	-36.9	17.9	0.00e+00	0	58	0	3253731328	41	4245
2026-01-08 14:31:23.89	329.77	49.62	-35.8	-37.0	17.8	0.00e+00	0	58	0	3261071360	41	4298
2026-01-08 14:31:24.90	329.94	49.29	-35.8	-37.0	17.8	0.00e+00	0	58	0	3268411392	41	4302
2026-01-08 14:31:25.91	330.10	48.97	-35.6	-36.8	18.0	0.00e+00	0	58	0	3275751424	41	4212
2026-01-08 14:31:26.92	330.26	48.65	-35.5	-36.7	18.1	0.00e+00	0	58	0	3283091456	41	4152
2026-01-08 14:31:27.93	330.41	48.33	-35.3	-36.5	17.7	0.00e+00	0	58	0	3290431488	41	4056
2026-01-08 14:31:28.94	330.56	48.01	-35.1	-36.3	18.6	0.00e+00	0	58	0	3297771520	41	3961
2026-01-08 14:31:29.95	330.71	47.70	-35.0	-36.1	18.6	0.00e+00	0	58	0	3305111552	40	4125
2026-01-08 14:31:30.96	330.86	47.39	-35.1	-36.2	18.6	0.00e+00	0	58	0	3312451584	40	4171
2026-01-08 14:31:31.97	331.00	47.08	-35.1	-36.2	18.5	0.00e+00	0	58	0	3319791616	40	4190
2026-01-08 14:31:32.98	331.14	46.77	-35.2	-36.3	18.4	0.00e+00	0	58	0	3327131648	40	4225
2026-01-08 14:31:33.99	331.28	46.46	-35.1	-36.3	18.5	0.00e+00	0	58	0	3334471680	40	4205
2026-01-08 14:31:35.00	331.42	46.16	-35.0	-36.2	18.6	0.00e+00	0	58	0	3341811712	40	4162
2026-01-08 14:31:36.01	331.55	45.86	-34.9	-36.1	18.7	0.00e+00	0	58	0	3349151744	40	4103
2026-01-08 14:31:37.02	331.68	45.56	-34.8	-35.9	18.9	0.00e+00	0	58	0	3356491776	40	4021
2026-01-08 14:31:38.03	331.81	45.26	-34.6	-35.7	19.1	0.00e+00	0	58	0	3362783232	40	3929
2026-01-08 14:31:39.04	331.94	44.96	-34.6	-35.7	19.0	0.00e+00	0	58	0	3370123264	39	4150
2026-01-08 14:31:40.05	332.06	44.67	-34.5	-35.6	19.2	0.00e+00	0	58	0	3378511872	39	4124
2026-01-08 14:31:41.06	332.18	44.38	-34.4	-35.5	19.2	0.00e+00	0	58	0	3384803328	39	4075
2026-01-08 14:31:42.07	332.30	44.09	-34.4	-35.5	19.3	0.00e+00	0	58	0	3392143360	39	4077
2026-01-08 14:31:43.08	332.42	43.80	-34.5	-35.6	19.2	0.00e+00	0	58	0	3399483392	39	4126
2026-01-08 14:31:44.09	332.53	43.52	-34.7	-35.8	19.1	0.00e+00	0	58	0	3406823424	39	4210
2026-01-08 14:31:45.10	332.65	43.23	-34.8	-35.8	19.0	0.00e+00	0	58	0	3414163456	39	4242
2026-01-08 14:31:46.11	332.76	42.95	-34.7	-35.8	19.0	0.00e+00	0	58	0	3421503488	39	4237
2026-01-08 14:31:47.12	332.87	42.67	-34.7	-35.8	19.0	0.00e+00	0	58	0	3428843520	39	4232
2026-01-08 14:31:48.13	332.97	42.39	-34.7	-35.8	19.0	0.00e+00	0	58	0	3436183552	39	4226
2026-01-08 14:31:49.14	333.08	42.12	-34.6	-35.7	19.2	0.00e+00	0	58	0	3443523584	39	4154
2026-01-08 14:31:50.15	333.19	41.84	-34.5	-35.5	19.3	0.00e+00	0	58	0	3450863616	39	4095
2026-01-08 14:31:51.16	333.29	41.57	-34.4	-35.4	19.4	0.00e+00	0	58	0	3458203648	39	4049
2026-01-08 14:31:52.17	333.39	41.30	-34.4	-35.5	19.3	0.00e+00	0	58	0	3465543680	39	4085
2026-01-08 14:31:53.18	333.49	41.03	-34.4	-35.4	19.4	0.00e+00	0	58	0	3472883712	39	4039
2026-01-08 14:31:54.19	333.59	40.77	-34.4	-35.5	19.1	0.00e+00	0	58	0	3480223744	39	4064
2026-01-08 14:31:55.20	333.68	40.50	-34.4	-35.5	19.3	0.00e+00	0	58	0	3486515200	39	4067
2026-01-08 14:31:56.21	333.78	40.24	-34.6	-35.7	19.2	0.00e+00	0	58	0	3494903808	39	4146
2026-01-08 14:31:57.22	333.87	39.98	-34.6	-35.7	19.1	0.00e+00	0	58	0	3502243840	39	4184
2026-01-08 14:31:58.23	333.96	39.72	-34.8	-35.9	19.0	0.00e+00	0	58	0	3508535296	39	4268
2026-01-08 14:31:59.23	334.05	39.47	-34.9	-36.0	18.5	0.00e+00	0	58	0	3515875328	39	4335
2026-01-08 14:32:00.24	334.14	39.21	-35.1	-36.2	18.6	0.00e+00	0	58	0	3523215360	39	4424
2026-01-08 14:32:01.25	334.23	38.96	-34.9	-36.1	18.7	0.00e+00	0	58	0	3530555392	39	4349
2026-01-08 14:32:02.26	334.32	38.71	-34.9	-36.1	18.7	0.00e+00	0	58	0	3537895424	39	4349
2026-01-08 14:32:03.27	334.40	38.46	-34.9	-36.0	18.9	0.00e+00	0	58	0	3545235456	39	4304
2026-01-08 14:32:04.28	334.48	38.21	-34.8	-36.0	18.9	0.00e+00	0	58	0	3552575488	39	4298
2026-01-08 14:32:05.29	334.57	37.97	-34.7	-35.8	19.0	0.00e+00	0	58	0	3559915520	39	4230
2026-01-08 14:32:06.30	334.65	37.72	-34.7	-35.7	19.0	0.00e+00	0	58	0	3567255552	39	4193
2026-01-08 14:32:07.30	334.73	37.48	-34.6	-35.7	19.1	0.00e+00	0	58	0	3574595584	39	4162
2026-01-08 14:32:08.31	334.81	37.24	-34.5	-35.6	19.2	0.00e+00	0	58	0	3581935616	39	4122
2026-01-08 14:32:09.33	334.89	37.00	-34.5	-35.5	19.3	0.00e+00	0	58	0	3589275648	39	4094
2026-01-08 14:32:10.33	334.96	36.77	-34.3	-35.4	19.4	0.00e+00	0	58	0	3596615680	39	4010
2026-01-08 14:32:11.34	335.04	36.53	-34.3	-35.3	19.5	0.00e+00	0	58	0	3603955712	39	4002
2026-01-08 14:32:12.35	335.11	36.30	-34.2	-35.3	19.5	0.00e+00	0	58	0	3611295744	39	3971
2026-01-08 14:32:13.36	335.19	36.06	-34.3	-35.3	19.4	0.00e+00	0	58	0	3618635776	39	4002
2026-01-08 14:32:14.37	335.26	35.83	-34.3	-35.4	19.4	0.00e+00	0	58	0	3625975808	39	4026
2026-01-08 14:32:15.38	335.33	35.60	-34.4	-35.5	19.2	0.00e+00	0	58	0	3633315840	39	4061
2026-01-08 14:32:16.39	335.41	35.37	-34.5	-35.6	19.2	0.00e+00	0	58	0	3639607296	39	4109
2026-01-08 14:32:17.40	335.48	35.15	-34.5	-35.6	19.2	0.00e+00	0	58	0	3647995904	39	4122
2026-01-08 14:32:18.41	335.55	34.92	-34.5	-35.6	19.2	0.00e+00	0	58	0	3655335936	39	4118
2026-01-08 14:32:19.42	335.61	34.70	-34.3	-35.4	19.3	0.00e+00	0	58	0	3661627392	39	4017
2026-01-08 14:32:20.44	335.68	34.48	-34.3	-35.4	19.4	0.00e+00	0	58	0	3668967424	39	4010
2026-01-08 14:32:21.45	335.75	34.26	-34.2	-35.3	19.4	0.00e+00	0	58	0	3676307456	39	3989
2026-01-08 14:32:22.45	335.81	34.04	-34.3	-35.4	19.4	0.00e+00	0	58	0	3683647488	39	4005
2026-01-08 14:32:23.46	335.88	33.82	-34.2	-35.2	19.5	0.00e+00	0	58	0	3690987520	39	3946
2026-01-08 14:32:24.48	335.94	33.61	-34.1	-35.2	19.6	0.00e+00	0	58	0	3698327552	39	3933
2026-01-08 14:32:25.48	336.01	33.40	-34.2	-35.3	19.4	0.00e+00	0	58	0	3705667584	39	3969
2026-01-08 14:32:26.49	336.07	33.18	-34.2	-35.2	19.5	0.00e+00	0	58	0	3713007616	39	3951
2026-01-08 14:32:27.50	336.13	32.97	-34.1	-35.2	19.6	0.00e+00	0	58	0	3720347648	39	3925
2026-01-08 14:32:28.51	336.19	32.76	-34.2	-35.2	19.5	0.00e+00	0	58	0	3727687680	39	3949
2026-01-08 14:32:29.52	336.25	32.55	-34.1	-35.2	19.5	0.00e+00	0	58	0	3735027712	39	3936
2026-01-08 14:32:30.53	336.31	32.35	-34.2	-35.2	19.5	0.00e+00	0	58	0	3742367744	39	3949
2026-01-08 14:32:31.54	336.37	32.14	-34.1	-35.2	19.5	0.00e+00	0	58	0	3749707776	39	3927
2026-01-08 14:32:32.55	336.43	31.94	-34.2	-35.3	19.5	0.00e+00	0	58	0	3757047808	39	3978
2026-01-08 14:32:33.56	336.49	31.74	-34.3	-35.3	19.4	0.00e+00	0	58	0	3764387840	39	3999
2026-01-08 14:32:34.57	336.54	31.53	-34.4	-35.5	19.3	0.00e+00	0	58	0	3771727872	39	4055
2026-01-08 14:32:35.57	336.60	31.34	-34.4	-35.5	19.3	0.00e+00	0	58	0	3779067904	39	4054
2026-01-08 14:32:36.58	336.66	31.14	-34.4	-35.5	19.2	0.00e+00	0	58	0	3785359360	39	4072
2026-01-08 14:32:37.60	336.71	30.94	-34.4	-35.5	19.2	0.00e+00	0	58	0	3792699392	39	4093
2026-01-08 14:32:38.61	336.77	30.74	-34.5	-35.6	19.1	0.00e+00	0	58	0	3801088000	39	4121
2026-01-08 14:32:39.62	336.82	30.55	-34.5	-35.6	19.1	0.00e+00	0	58	0	3807379456	39	4103
2026-01-08 14:32:40.63	336.87	30.36	-34.5	-35.6	19.0	0.00e+00	0	58	0	3814719488	39	4114
2026-01-08 14:32:41.64	336.93	30.16	-34.5	-35.6	19.1	0.00e+00	0	58	0	3822059520	39	4115
2026-01-08 14:32:42.65	336.98	29.97	-34.5	-35.6	19.1	0.00e+00	0	58	0	3829399552	39	4122
2026-01-08 14:32:43.66	337.03	29.78	-34.5	-35.6	19.1	0.00e+00	0	58	0	3836739584	39	4116
2026-01-08 14:32:44.67	337.08	29.60	-34.6	-35.7	19.0	0.00e+00	0	58	0	3844079616	39	4169
2026-01-08 14:32:45.68	337.13	29.41	-34.5	-35.6	19.1	0.00e+00	0	58	0	3851419648	39	4122
2026-01-08 14:32:46.69	337.18	29.22	-34.5	-35.6	19.1	0.00e+00	0	58	0	3858759680	39	4110
2026-01-08 14:32:47.70	337.23	29.04	-34.5	-35.6	19.1	0.00e+00	0	58	0	3866099712	39	4100
2026-01-08 14:32:48.71	337.28	28.85	-34.6	-35.7	19.0	0.00e+00	0	58	0	3873439744	39	4147
2026-01-08 14:32:49.72	337.33	28.67	-34.5	-35.6	19.0	0.00e+00	0	58	0	3880779776	39	4141
2026-01-08 14:32:50.73	337.38	28.49	-34.6	-35.7	18.9	0.00e+00	0	58	0	3888119808	39	4157
2026-01-08 14:32:51.74	337.42	28.31	-34.5	-35.6	19.0	0.00e+00	0	58	0	3895459840	39	4143
2026-01-08 14:32:52.75	337.47	28.13	-34.6	-35.8	18.9	0.00e+00	0	58	0	3902799872	39	4196
2026-01-08 14:32:53.76	337.52	27.95	-34.7	-35.8	18.8	0.00e+00	0	58	0	3910139904	39	4215
2026-01-08 14:32:54.77	337.56	27.78	-34.7	-35.8	18.8	0.00e+00	0	58	0	3917479936	39	4240
2026-01-08 14:32:55.78	337.61	27.60	-34.8	-35.9	18.8	0.00e+00	0	58	0	3924819968	39	4258
2026-01-08 14:32:56.79	337.65	27.43	-34.8	-35.9	18.7	0.00e+00	0	58	0	3932160000	39	4288
2026-01-08 14:32:57.80	337.70	27.25	-34.9	-36.0	18.6	0.00e+00	0	58	0	3939500032	39	4336
2026-01-08 14:32:58.81	337.74	27.08	-34.8	-36.0	18.6	0.00e+00	0	58	0	3946840064	39	4300
2026-01-08 14:32:59.82	337.79	26.91	-34.9	-36.0	18.6	0.00e+00	0	58	0	3954180096	39	4337
2026-01-08 14:33:00.83	337.83	26.74	-34.9	-36.0	18.6	0.00e+00	0	58	0	3960471552	39	4333
2026-01-08 14:33:01.84	337.87	26.57	-34.9	-36.0	18.6	0.00e+00	0	58	0	3967811584	39	4321
2026-01-08 14:33:02.85	337.91	26.40	-34.8	-35.9	18.6	0.00e+00	0	58	0	3976200192	39	4284
2026-01-08 14:33:03.86	337.96	26.24	-34.8	-36.0	18.6	0.00e+00	0	58	0	3982491648	39	4304
2026-01-08 14:33:04.87	338.00	26.07	-34.7	-35.8	18.7	0.00e+00	0	58	0	3989831680	39	4238
2026-01-08 14:33:05.88	338.04	25.91	-34.8	-35.9	18.7	0.00e+00	0	58	0	3997171712	39	4265
2026-01-08 14:33:06.89	338.08	25.74	-34.7	-35.8	18.7	0.00e+00	0	58	0	4004511744	39	4235
2026-01-08 14:33:07.90	338.12	25.58	-34.7	-35.8	18.7	0.00e+00	0	58	0	4011851776	39	4234
2026-01-08 14:33:08.91	338.16	25.42	-34.6	-35.8	18.8	0.00e+00	0	58	0	4019191808	39	4198
2026-01-08 14:33:09.92	338.20	25.26	-34.6	-35.7	18.8	0.00e+00	0	58	0	4026531840	39	4182
2026-01-08 14:33:10.92	338.24	25.10	-34.5	-35.7	18.9	0.00e+00	0	58	0	4033871872	39	4149
2026-01-08 14:33:11.93	338.28	24.94	-34.5	-35.6	18.9	0.00e+00	0	58	0	4041211904	39	4141
2026-01-08 14:33:12.94	338.32	24.78	-34.7	-35.8	18.7	0.00e+00	0	58	0	4048551936	39	4209
2026-01-08 14:33:13.95	338.36	24.63	-34.6	-35.7	18.8	0.00e+00	0	58	0	4055891968	39	4161
2026-01-08 14:33:14.96	338.39	24.47	-34.6	-35.7	18.7	0.00e+00	0	58	0	4063232000	39	4182
2026-01-08 14:33:15.97	338.43	24.31	-34.7	-35.8	18.7	0.00e+00	0	58	0	4070572032	39	4218
2026-01-08 14:33:16.98	338.47	24.16	-34.7	-35.8	18.7	0.00e+00	0	58	0	4077912064	39	4205
2026-01-08 14:33:17.99	338.51	24.01	-34.7	-35.8	18.6	0.00e+00	0	58	0	4084203520	39	4216
2026-01-08 14:33:19.00	338.54	23.85	-34.7	-35.8	18.6	0.00e+00	0	58	0	4092592128	39	4220
2026-01-08 14:33:20.01	338.58	23.70	-34.7	-35.8	18.6	0.00e+00	0	58	0	4099932160	39	4215
2026-01-08 14:33:21.02	338.62	23.55	-34.7	-35.8	18.4	0.00e+00	0	58	0	4106223616	39	4215
2026-01-08 14:33:22.03	338.65	23.40	-34.8	-35.9	18.5	0.00e+00	0	58	0	4113563648	39	4265
2026-01-08 14:33:23.04	338.69	23.25	-34.6	-35.7	18.6	0.00e+00	0	58	0	4120903680	39	4180
2026-01-08 14:33:24.05	338.72	23.10	-34.5	-35.6	18.7	0.00e+00	0	58	0	4128243712	39	4137
2026-01-08 14:33:25.06	338.76	22.96	-34.5	-35.7	18.6	0.00e+00	0	58	0	4135583744	39	4162
2026-01-08 14:33:26.07	338.79	22.81	-34.5	-35.7	18.6	0.00e+00	0	58	0	4142923776	39	4159
2026-01-08 14:33:27.08	338.83	22.66	-34.7	-35.9	18.4	0.00e+00	0	58	0	4150263808	39	4245
2026-01-08 14:33:28.08	338.86	22.52	-34.7	-35.8	18.4	0.00e+00	0	58	0	4157603840	39	4231
2026-01-08 14:33:29.10	338.89	22.38	-34.5	-35.6	18.5	0.00e+00	0	58	0	4164943872	39	4142
2026-01-08 14:33:30.11	338.93	22.23	-34.5	-35.7	18.5	0.00e+00	0	58	0	4172283904	39	4160
2026-01-08 14:33:31.12	338.96	22.09	-34.7	-35.8	18.3	0.00e+00	0	58	0	4179623936	39	4219
2026-01-08 14:33:32.12	338.99	21.95	-34.7	-35.9	18.1	0.00e+00	0	58	0	4186963968	39	4248
2026-01-08 14:33:33.13	339.03	21.81	-34.7	-35.9	18.0	0.00e+00	0	58	0	4194304000	39	4254
2026-01-08 14:33:34.14	339.06	21.67	-34.7	-35.9	18.0	0.00e+00	0	58	0	4201644032	39	4243
2026-01-08 14:33:35.16	339.09	21.53	-34.7	-35.9	17.9	0.00e+00	0	58	0	4208984064	39	4275
2026-01-08 14:33:36.17	339.12	21.39	-34.6	-35.8	18.0	0.00e+00	0	58	0	4216324096	39	4220
2026-01-08 14:33:37.18	339.16	21.25	-34.5	-35.7	18.0	0.00e+00	0	58	0	4223664128	39	4158
2026-01-08 14:33:38.19	339.19	21.11	-34.4	-35.6	18.0	0.00e+00	0	58	0	4231004160	39	4114
2026-01-08 14:33:39.19	339.22	20.98	-34.5	-35.7	17.8	0.00e+00	0	58	0	4237295616	39	4158
2026-01-08 14:33:40.20	339.25	20.84	-34.8	-36.1	17.2	0.00e+00	0	58	0	4245684224	39	4374
2026-01-08 14:33:41.21	339.28	20.71	-35.2	-36.6	16.6	0.00e+00	0	58	0	4253024256	39	4612
2026-01-08 14:33:42.22	339.31	20.57	-35.7	-37.2	15.7	0.00e+00	0	58	0	4259315712	40	4677
2026-01-08 14:33:43.23	339.34	20.44	-36.2	-37.8	14.8	0.00e+00	0	58	0	4266655744	41	4750
2026-01-08 14:33:44.24	339.37	20.31	-36.8	-38.7	13.8	1.10e-06	0	58	0	4273995776	43	4693
2026-01-08 14:33:45.25	339.40	20.18	-37.5	-39.7	12.8	5.72e-05	0	58	0	4281335808	44	4928
2026-01-08 14:33:46.26	339.43	20.04	-38.1	-40.6	11.6	3.70e-04	0	58	0	4288675840	45	5160
2026-01-08 14:33:47.27	339.46	19.91	-38.6	-41.4	10.6	1.89e-03	0	58	0	4296015872	46	5363
2026-01-08 14:33:48.28	339.49	19.78	-39.1	-42.3	9.5	9.93e-03	0	58	0	4303355904	47	5623
2026-01-08 14:33:49.29	339.52	19.65	-39.7	-43.4	8.4	3.46e-02	0	58	0	4310695936	48	6025
2026-01-08 14:33:50.30	339.55	19.53	-40.2	-44.7	7.0	1.19e-01	0	58	0	4318035968	49	6623
2026-01-08 14:33:51.31	339.57	19.40	-40.6	-45.9	6.0	2.76e-01	0	58	0	4325376000	50	7130
2026-01-08 14:33:52.32	339.60	19.27	-40.9	-46.9	5.2	7.28e-01	0	58	0	4329570304	51	7562
2026-01-08 14:33:53.33	339.63	19.14	-40.9	-47.1	5.1	7.67e-01	0	58	0	4330618880	51	7772
2026-01-08 14:33:54.34	339.66	19.02	-40.7	-46.5	5.5	7.30e-01	0	58	0	4332716032	51	7215
2026-01-08 14:33:55.35	339.69	18.89	-40.6	-45.9	6.0	3.80e-01	0	58	0	4337958912	51	6728
2026-01-08 14:33:56.36	339.71	18.77	-40.5	-45.6	6.1	3.24e-01	0	58	0	4345298944	51	6567
2026-01-08 14:33:57.37	339.74	18.64	-40.6	-45.8	5.9	3.36e-01	0	58	0	4352638976	51	6714
2026-01-08 14:33:58.38	339.77	18.52	-40.8	-46.6	5.4	6.69e-01	0	58	0	4357881856	51	7328
2026-01-08 14:33:59.39	339.80	18.40	-41.0	-47.5	4.9	7.82e-01	0	58	0	4358930432	51	8119
2026-01-08 14:34:00.40	339.82	18.27	-41.0	-47.8	4.7	8.08e-01	0	58	0	4358930432	51	8449
2026-01-08 14:34:01.41	339.85	18.15	-41.0	-47.5	4.8	7.92e-01	0	58	0	4358930432	51	8114
2026-01-08 14:34:02.42	339.88	18.03	-41.0	-47.2	5.1	7.64e-01	0	58	0	4358930432	51	7846
2026-01-08 14:34:03.43	339.90	17.91	-41.1	-47.5	4.9	7.78e-01	0	58	0	4359979008	51	8142
2026-01-08 14:34:04.44	339.93	17.79	-41.1	-47.9	4.7	8.03e-01	0	58	0	4359979008	51	8523
2026-01-08 14:34:05.45	339.95	17.67	-41.2	-48.2	4.5	8.17e-01	0	58	0	4359979008	51	8851
2026-01-08 14:34:06.46	339.98	17.55	-41.1	-48.2	4.5	8.22e-01	0	58	0	4359979008	51	8776
2026-01-08 14:34:07.47	340.01	17.43	-41.0	-48.1	4.5	8.19e-01	0	58	0	4359979008	51	8669
2026-01-08 14:34:08.48	340.03	17.32	-41.1	-48.3	4.4	8.26e-01	0	58	0	4359979008	51	8959
2026-01-08 14:34:09.49	340.06	17.20	-41.0	-48.7	4.3	8.33e-01	0	58	0	4359979008	51	9360
2026-01-08 14:34:10.49	340.08	17.08	-41.0	-48.9	4.2	8.36e-01	0	58	0	4359979008	51	9538
2026-01-08 14:34:11.50	340.11	16.97	-41.1	-48.9	4.2	8.37e-01	0	58	0	4359979008	51	9554
2026-01-08 14:34:12.52	340.13	16.85	-41.1	-48.8	4.3	8.35e-01	0	58	0	4359979008	51	9442
2026-01-08 14:34:13.52	340.16	16.74	-41.1	-49.0	4.2	8.35e-01	0	58	0	4359979008	51	9681
2026-01-08 14:34:14.53	340.18	16.62	-41.2	-49.6	3.9	8.41e-01	0	58	104	4359979008	51	10356
2026-01-08 14:34:15.54	340.20	16.51	-41.1	-49.5	4.1	8.41e-01	0	58	0	4359979008	51	10235
