passes_logs/2026/01/08/R2.0S_Moscow/R2.0S_Moscow__20260108_123650_FENGYUN_3D_rec.log

#Pass ID: 20260108_123650_FENGYUN 3D
#Satellite: FENGYUN 3D
#Configuration: FENGYUN 3D
#almurnet v.1.7.20251203
#Start time: 2026-01-08 12:36:52

#Version: 2.2.20231116
#Station: R2.0S_Moscow
#Location: 37.707566 lon 55.798166 lat
#TLE: 1 43010U 17072A   26006.26440730  .00000376  00000+0  19957-3 0  9994
#TLE: 2 43010  98.9925 337.9455 0002045 123.9195 236.2175 14.19693586422016

#Time	Az	El	Level	Level2	SNR	BER	BlckErr	Temp	State	Recorded	gain1	gain2
2026-01-08 12:36:52.95	180.00	2.17	-44.0	-55.4	3.8	8.46e-01	0	56	0	0	59	13513
2026-01-08 12:36:53.96	180.03	2.24	-44.0	-55.4	3.8	8.47e-01	0	57	104	0	59	13530
2026-01-08 12:36:54.97	180.07	2.30	-44.0	-55.4	3.8	8.45e-01	0	56	104	0	59	13468
2026-01-08 12:36:55.98	180.10	2.37	-44.0	-55.4	3.8	8.45e-01	0	57	104	0	59	13462
2026-01-08 12:36:56.99	180.13	2.43	-44.0	-55.4	3.8	8.46e-01	0	56	104	0	59	13526
2026-01-08 12:36:58.00	180.17	2.49	-44.0	-55.4	3.8	8.47e-01	0	57	104	0	59	13474
2026-01-08 12:36:59.01	180.20	2.56	-44.0	-55.4	3.8	8.46e-01	0	57	104	0	59	13481
2026-01-08 12:37:00.02	180.24	2.62	-44.0	-55.4	3.8	8.47e-01	0	57	104	0	59	13520
2026-01-08 12:37:01.03	180.27	2.69	-44.0	-55.4	3.8	8.46e-01	0	57	104	0	59	13493
2026-01-08 12:37:02.04	180.30	2.75	-44.0	-55.4	3.8	8.45e-01	0	57	104	0	59	13471
2026-01-08 12:37:03.05	180.34	2.82	-44.0	-55.4	3.8	8.47e-01	0	57	104	0	59	13489
2026-01-08 12:37:04.06	180.37	2.88	-44.0	-55.4	3.8	8.45e-01	0	57	104	0	59	13481
2026-01-08 12:37:05.07	180.41	2.95	-44.0	-55.4	3.8	8.46e-01	0	57	104	0	59	13505
2026-01-08 12:37:06.08	180.44	3.01	-44.0	-55.4	3.8	8.47e-01	0	57	104	0	59	13506
2026-01-08 12:37:07.09	180.48	3.08	-44.0	-55.4	3.8	8.46e-01	0	57	104	0	59	13473
2026-01-08 12:37:08.10	180.51	3.14	-44.0	-55.4	3.8	8.47e-01	0	57	104	0	59	13493
2026-01-08 12:37:09.10	180.55	3.21	-44.0	-55.4	3.8	8.48e-01	0	57	104	0	59	13497
2026-01-08 12:37:10.12	180.59	3.28	-44.0	-55.4	3.8	8.47e-01	0	57	104	0	59	13483
2026-01-08 12:37:11.12	180.62	3.34	-44.0	-55.4	3.8	8.47e-01	0	57	104	0	59	13461
2026-01-08 12:37:12.13	180.66	3.41	-44.0	-55.4	3.8	8.46e-01	0	57	104	0	59	13507
2026-01-08 12:37:13.39	180.70	3.49	-44.0	-55.4	3.8	8.46e-01	0	57	104	0	59	13492
2026-01-08 12:37:14.11	180.73	3.54	-44.0	-55.4	3.8	8.46e-01	0	57	104	0	59	13467
2026-01-08 12:37:15.41	180.77	3.62	-44.0	-55.4	3.8	8.46e-01	0	57	104	0	59	13531
2026-01-08 12:37:16.13	180.80	3.67	-44.0	-55.4	3.8	8.47e-01	0	57	104	0	59	13509
2026-01-08 12:37:17.43	180.85	3.76	-44.0	-55.4	3.8	8.47e-01	0	57	104	0	59	13421
2026-01-08 12:37:18.15	180.87	3.80	-44.0	-55.4	3.8	8.46e-01	0	57	104	0	59	13458
2026-01-08 12:37:19.45	180.92	3.89	-44.0	-55.4	3.8	8.47e-01	0	57	104	0	59	13490
2026-01-08 12:37:20.17	180.95	3.94	-44.0	-55.4	3.8	8.47e-01	0	57	104	0	59	13492
2026-01-08 12:37:21.47	181.00	4.03	-44.0	-55.4	3.8	8.46e-01	0	57	104	0	59	13448
2026-01-08 12:37:22.19	181.02	4.07	-44.0	-55.3	3.8	8.46e-01	0	57	104	0	59	13400
2026-01-08 12:37:23.49	181.07	4.16	-44.0	-55.4	3.8	8.45e-01	0	57	104	0	59	13456
2026-01-08 12:37:24.21	181.10	4.21	-44.0	-55.3	3.8	8.47e-01	0	57	104	0	59	13283
2026-01-08 12:37:25.51	181.15	4.30	-44.0	-55.0	3.8	8.46e-01	0	57	104	0	59	12927
2026-01-08 12:37:26.23	181.17	4.35	-44.0	-55.0	3.8	8.46e-01	0	57	104	0	59	12878
2026-01-08 12:37:27.52	181.22	4.43	-44.0	-55.0	3.8	8.46e-01	0	57	104	0	59	12828
2026-01-08 12:37:28.24	181.25	4.48	-44.0	-54.9	3.8	8.46e-01	0	57	104	0	59	12688
2026-01-08 12:37:29.54	181.30	4.57	-43.9	-54.5	3.8	8.46e-01	0	57	104	0	59	12199
2026-01-08 12:37:30.27	181.33	4.62	-43.9	-54.3	3.8	8.46e-01	0	57	104	0	59	11895
2026-01-08 12:37:31.56	181.38	4.71	-43.9	-54.3	3.8	8.45e-01	0	57	104	0	59	11924
2026-01-08 12:37:32.28	181.41	4.76	-43.9	-54.7	3.8	8.46e-01	0	57	104	0	59	12478
2026-01-08 12:37:33.58	181.46	4.85	-44.0	-55.0	3.8	8.46e-01	0	57	104	0	59	12892
2026-01-08 12:37:34.30	181.49	4.90	-44.0	-55.1	3.8	8.46e-01	0	57	104	0	59	13030
2026-01-08 12:37:35.60	181.54	4.99	-44.0	-55.2	3.8	8.45e-01	0	57	104	0	59	13119
2026-01-08 12:37:36.32	181.56	5.04	-44.0	-55.2	3.8	8.46e-01	0	57	104	0	59	13149
2026-01-08 12:37:37.62	181.62	5.13	-44.0	-55.2	3.8	8.46e-01	0	57	104	0	59	13115
2026-01-08 12:37:38.34	181.65	5.18	-44.0	-55.1	3.8	8.47e-01	0	57	104	0	59	13006
2026-01-08 12:37:39.64	181.70	5.27	-44.0	-54.9	3.8	8.47e-01	0	57	104	0	59	12779
2026-01-08 12:37:40.37	181.73	5.32	-43.9	-54.9	3.8	8.46e-01	0	57	104	0	59	12720
2026-01-08 12:37:41.67	181.78	5.41	-43.9	-54.7	3.8	8.45e-01	0	57	104	0	59	12473
2026-01-08 12:37:42.39	181.81	5.46	-43.9	-54.6	3.8	8.47e-01	0	57	104	0	59	12371
2026-01-08 12:37:43.69	181.86	5.56	-43.9	-54.2	3.8	8.46e-01	0	57	104	0	59	11814
2026-01-08 12:37:44.41	181.89	5.61	-43.8	-53.8	3.8	8.45e-01	0	57	104	0	59	11213
2026-01-08 12:37:45.71	181.94	5.70	-43.7	-52.9	4.0	8.44e-01	0	57	104	0	59	10114
2026-01-08 12:37:46.43	181.97	5.75	-43.7	-52.7	3.9	8.42e-01	0	58	104	0	59	9893
2026-01-08 12:37:47.73	182.03	5.84	-43.6	-52.0	4.2	8.41e-01	0	57	0	0	59	9129
2026-01-08 12:37:48.45	182.06	5.90	-43.5	-51.3	4.3	8.35e-01	0	57	0	0	58	8927
2026-01-08 12:37:49.75	182.11	5.99	-43.3	-50.7	4.6	8.19e-01	0	57	0	0	58	8361
2026-01-08 12:37:50.48	182.14	6.04	-43.3	-50.7	4.6	8.11e-01	0	57	0	0	58	8277
2026-01-08 12:37:51.77	182.20	6.13	-43.2	-50.0	4.9	7.87e-01	0	57	0	0	58	7670
2026-01-08 12:37:52.50	182.23	6.19	-43.1	-49.8	5.0	7.79e-01	0	58	0	0	58	7508
2026-01-08 12:37:53.80	182.28	6.28	-43.0	-49.3	5.3	7.32e-01	0	57	0	0	57	7502
2026-01-08 12:37:54.52	182.31	6.33	-42.9	-49.0	5.5	7.19e-01	0	57	0	0	57	7223
2026-01-08 12:37:55.82	182.37	6.43	-42.6	-48.2	6.1	3.85e-01	0	58	0	5242880	57	6585
2026-01-08 12:37:56.54	182.40	6.48	-42.6	-48.1	6.1	3.42e-01	0	58	0	8388608	57	6548
2026-01-08 12:37:57.84	182.46	6.58	-42.5	-47.8	6.3	3.08e-01	0	58	0	15728640	57	6344
2026-01-08 12:37:58.56	182.49	6.63	-42.4	-47.6	6.6	2.63e-01	0	57	0	19922944	56	6522
2026-01-08 12:37:59.86	182.55	6.73	-42.2	-47.2	6.9	1.66e-01	0	58	0	27262976	56	6214
2026-01-08 12:38:00.58	182.58	6.78	-42.1	-46.9	7.1	1.61e-01	0	57	0	31457280	56	6047
2026-01-08 12:38:01.89	182.64	6.88	-41.6	-45.9	8.0	9.11e-02	0	58	0	38797312	55	5710
2026-01-08 12:38:02.61	182.67	6.93	-41.5	-45.7	8.2	7.11e-02	0	58	0	42991616	55	5554
2026-01-08 12:38:03.91	182.73	7.03	-41.4	-45.4	8.5	5.81e-02	0	58	0	50331648	54	5719
2026-01-08 12:38:04.63	182.76	7.08	-41.0	-44.8	9.2	3.21e-02	0	58	0	54525952	54	5283
2026-01-08 12:38:05.93	182.82	7.18	-40.7	-44.2	9.8	1.70e-02	0	58	0	61865984	53	5221
2026-01-08 12:38:06.65	182.85	7.23	-40.5	-43.8	10.1	1.11e-02	0	58	0	66060288	53	5029
2026-01-08 12:38:07.95	182.91	7.33	-40.2	-43.3	10.7	4.55e-03	0	58	0	73400320	52	5010
2026-01-08 12:38:08.67	182.94	7.38	-40.0	-43.0	11.0	2.89e-03	0	58	0	77594624	52	4829
2026-01-08 12:38:09.97	183.00	7.48	-39.7	-42.5	11.6	9.73e-04	0	58	0	84934656	51	4844
2026-01-08 12:38:10.69	183.04	7.54	-39.6	-42.3	11.8	8.01e-04	0	58	0	88080384	51	4706
2026-01-08 12:38:11.99	183.10	7.64	-39.2	-41.7	12.4	2.30e-04	0	58	0	95420416	50	4699
2026-01-08 12:38:12.72	183.13	7.69	-39.1	-41.5	12.6	1.94e-04	0	58	0	99614720	50	4576
2026-01-08 12:38:14.01	183.19	7.79	-38.8	-41.2	12.9	1.02e-04	0	58	0	106954752	49	4692
2026-01-08 12:38:14.74	183.23	7.85	-38.6	-41.0	13.2	6.98e-05	0	58	0	111149056	49	4556
2026-01-08 12:38:16.04	183.29	7.95	-38.7	-41.1	13.0	6.29e-05	0	58	0	118489088	49	4616
2026-01-08 12:38:16.76	183.32	8.00	-38.7	-41.1	13.1	5.95e-05	0	58	0	122683392	49	4604
2026-01-08 12:38:18.06	183.38	8.10	-39.1	-41.5	12.6	9.61e-05	0	58	0	130023424	49	4861
2026-01-08 12:38:18.78	183.42	8.16	-39.6	-42.3	11.9	1.82e-04	0	58	0	134217728	49	5334
2026-01-08 12:38:20.07	183.48	8.26	-40.9	-44.6	9.4	1.36e-03	0	58	0	141557760	52	5833
2026-01-08 12:38:20.79	183.52	8.32	-42.3	-47.6	6.3	2.11e-01	0	58	0	145752064	55	6948
2026-01-08 12:38:22.09	183.58	8.42	-39.0	-41.4	12.9	2.51e-05	0	58	0	149946368	48	5081
2026-01-08 12:38:22.81	183.62	8.48	-38.7	-40.9	13.3	4.04e-04	0	58	0	154140672	49	4538
2026-01-08 12:38:24.11	183.68	8.58	-38.2	-40.3	14.0	6.80e-06	0	58	0	161480704	48	4462
2026-01-08 12:38:24.84	183.72	8.64	-38.3	-40.4	13.9	6.80e-06	0	58	0	165675008	48	4512
2026-01-08 12:38:26.13	183.78	8.74	-37.9	-39.9	14.2	4.50e-06	0	58	0	173015040	47	4536
2026-01-08 12:38:26.85	183.82	8.80	-38.1	-40.2	13.9	4.50e-06	0	58	0	177209344	47	4685
2026-01-08 12:38:28.15	183.88	8.90	-37.7	-39.7	14.4	3.40e-06	0	58	0	184549376	47	4438
2026-01-08 12:38:28.87	183.92	8.96	-37.6	-39.6	14.5	1.10e-06	0	58	0	187695104	47	4378
2026-01-08 12:38:30.17	183.99	9.06	-37.9	-39.9	14.2	2.20e-06	0	58	0	195035136	47	4533
2026-01-08 12:38:30.89	184.02	9.12	-37.7	-39.7	14.5	0.00e+00	0	58	0	199229440	47	4424
2026-01-08 12:38:32.19	184.09	9.23	-37.8	-39.8	14.4	0.00e+00	0	58	0	206569472	47	4466
2026-01-08 12:38:32.91	184.13	9.28	-37.7	-39.7	14.6	2.20e-06	0	58	0	210763776	47	4399
2026-01-08 12:38:34.21	184.19	9.39	-37.6	-39.6	14.6	1.10e-06	0	58	0	218103808	47	4374
2026-01-08 12:38:34.93	184.23	9.45	-37.6	-39.6	14.6	2.20e-06	0	58	0	222298112	47	4358
2026-01-08 12:38:36.23	184.30	9.55	-37.7	-39.6	14.6	1.10e-06	0	58	0	229638144	46	4647
2026-01-08 12:38:36.95	184.34	9.61	-37.6	-39.6	14.6	0.00e+00	0	58	0	233832448	46	4624
2026-01-08 12:38:38.25	184.41	9.72	-37.7	-39.7	14.6	1.10e-06	0	58	0	241172480	46	4658
2026-01-08 12:38:38.97	184.45	9.78	-37.7	-39.7	14.5	2.20e-06	0	58	0	244318208	46	4681
2026-01-08 12:38:40.27	184.52	9.89	-37.5	-39.4	14.9	1.10e-06	0	58	0	251658240	46	4501
2026-01-08 12:38:40.99	184.56	9.95	-37.7	-39.7	14.6	0.00e+00	0	58	0	255852544	46	4663
2026-01-08 12:38:42.29	184.63	10.06	-37.6	-39.6	14.7	1.10e-06	0	58	0	263192576	46	4612
2026-01-08 12:38:43.01	184.67	10.12	-37.7	-39.6	14.6	0.00e+00	0	58	0	267386880	46	4649
2026-01-08 12:38:44.31	184.74	10.23	-37.5	-39.4	14.9	0.00e+00	0	58	0	274726912	46	4507
2026-01-08 12:38:45.03	184.78	10.29	-37.5	-39.4	14.8	0.00e+00	0	58	0	278921216	46	4544
2026-01-08 12:38:46.33	184.85	10.40	-37.6	-39.6	14.7	1.10e-06	0	58	0	286261248	46	4615
2026-01-08 12:38:47.05	184.89	10.46	-37.7	-39.6	14.6	0.00e+00	0	58	0	290455552	46	4641
2026-01-08 12:38:48.34	184.96	10.57	-37.4	-39.4	14.9	0.00e+00	0	58	0	297795584	46	4499
2026-01-08 12:38:49.07	185.00	10.63	-37.5	-39.4	14.9	2.20e-06	0	58	0	301989888	46	4509
2026-01-08 12:38:50.36	185.08	10.74	-37.6	-39.5	14.8	0.00e+00	0	58	0	309329920	46	4581
2026-01-08 12:38:51.08	185.12	10.80	-37.5	-39.5	14.8	0.00e+00	0	58	0	312475648	46	4561
2026-01-08 12:38:52.38	185.19	10.91	-37.6	-39.5	14.8	0.00e+00	0	58	0	319815680	46	4580
2026-01-08 12:38:53.10	185.23	10.98	-37.5	-39.5	14.8	2.20e-06	0	58	0	324009984	46	4574
2026-01-08 12:38:54.40	185.31	11.09	-37.5	-39.4	14.9	0.00e+00	0	58	0	331350016	46	4519
2026-01-08 12:38:55.12	185.35	11.15	-37.4	-39.3	15.0	0.00e+00	0	58	0	335544320	46	4483
2026-01-08 12:38:56.42	185.43	11.26	-37.4	-39.3	15.0	0.00e+00	0	58	0	342884352	46	4480
2026-01-08 12:38:57.14	185.47	11.33	-37.5	-39.5	14.8	0.00e+00	0	58	0	347078656	46	4550
2026-01-08 12:38:58.44	185.55	11.44	-37.5	-39.4	14.9	0.00e+00	0	58	0	354418688	46	4522
2026-01-08 12:38:59.16	185.59	11.50	-37.5	-39.4	15.0	0.00e+00	0	58	0	358612992	46	4512
2026-01-08 12:39:00.46	185.67	11.62	-37.4	-39.3	15.0	0.00e+00	0	58	0	365953024	46	4470
2026-01-08 12:39:01.18	185.71	11.68	-37.3	-39.2	15.1	0.00e+00	0	58	0	370147328	46	4427
2026-01-08 12:39:02.48	185.79	11.80	-37.3	-39.2	15.1	0.00e+00	0	58	0	377487360	46	4435
2026-01-08 12:39:03.20	185.84	11.86	-37.3	-39.2	15.1	0.00e+00	0	58	0	381681664	46	4425
2026-01-08 12:39:04.50	185.92	11.98	-37.3	-39.2	15.2	0.00e+00	0	58	0	389021696	46	4416
2026-01-08 12:39:05.22	185.96	12.05	-37.3	-39.1	15.2	0.00e+00	0	58	0	392167424	46	4385
2026-01-08 12:39:06.52	186.04	12.16	-37.2	-39.0	15.3	0.00e+00	0	58	0	399507456	46	4339
2026-01-08 12:39:07.24	186.09	12.23	-37.2	-39.0	15.3	0.00e+00	0	58	0	403701760	46	4338
2026-01-08 12:39:08.54	186.17	12.35	-37.1	-39.0	15.4	0.00e+00	0	58	0	411041792	46	4292
2026-01-08 12:39:09.26	186.21	12.41	-37.1	-38.9	15.4	0.00e+00	0	58	0	415236096	46	4277
2026-01-08 12:39:10.56	186.30	12.53	-37.0	-38.8	15.6	0.00e+00	0	58	0	422576128	46	4231
2026-01-08 12:39:11.28	186.34	12.60	-37.0	-38.8	15.6	0.00e+00	0	58	0	426770432	46	4222
2026-01-08 12:39:12.58	186.43	12.72	-37.0	-38.8	15.5	0.00e+00	0	58	0	434110464	46	4232
2026-01-08 12:39:13.30	186.47	12.78	-37.0	-38.8	15.6	0.00e+00	0	58	0	438304768	46	4199
2026-01-08 12:39:14.60	186.56	12.90	-37.0	-38.7	15.6	0.00e+00	0	58	0	445644800	45	4438
2026-01-08 12:39:15.32	186.61	12.97	-36.9	-38.7	15.7	0.00e+00	0	58	0	448790528	45	4428
2026-01-08 12:39:16.62	186.69	13.09	-37.0	-38.8	15.6	0.00e+00	0	58	0	456130560	45	4448
2026-01-08 12:39:17.34	186.74	13.16	-37.0	-38.7	15.6	1.10e-06	0	58	0	460324864	45	4441
2026-01-08 12:39:18.64	186.83	13.28	-36.9	-38.7	15.7	1.10e-06	0	58	0	467664896	45	4426
2026-01-08 12:39:19.36	186.88	13.35	-37.0	-38.8	15.6	0.00e+00	0	58	0	471859200	45	4447
2026-01-08 12:39:20.66	186.96	13.47	-37.0	-38.8	15.6	0.00e+00	0	58	0	479199232	45	4460
2026-01-08 12:39:21.38	187.01	13.54	-37.0	-38.8	15.6	0.00e+00	0	58	0	483393536	45	4454
2026-01-08 12:39:22.68	187.10	13.67	-36.9	-38.7	15.7	0.00e+00	0	58	0	490733568	45	4423
2026-01-08 12:39:23.40	187.15	13.73	-36.9	-38.7	15.8	0.00e+00	0	58	0	494927872	45	4392
2026-01-08 12:39:24.70	187.24	13.86	-36.9	-38.6	15.8	0.00e+00	0	58	0	502267904	45	4369
2026-01-08 12:39:25.42	187.29	13.93	-36.8	-38.6	15.9	0.00e+00	0	58	0	506462208	45	4358
2026-01-08 12:39:26.72	187.38	14.06	-36.8	-38.5	16.0	0.00e+00	0	58	0	513802240	45	4312
2026-01-08 12:39:27.44	187.43	14.13	-36.7	-38.4	16.1	0.00e+00	0	58	0	516947968	45	4249
2026-01-08 12:39:28.73	187.53	14.25	-36.6	-38.3	16.2	0.00e+00	0	58	0	524288000	45	4214
2026-01-08 12:39:29.46	187.58	14.32	-36.6	-38.3	16.2	0.00e+00	0	58	0	528482304	45	4214
2026-01-08 12:39:30.75	187.67	14.45	-36.6	-38.2	16.2	0.00e+00	0	58	0	535822336	45	4189
2026-01-08 12:39:31.47	187.72	14.52	-36.6	-38.3	16.2	0.00e+00	0	58	0	540016640	45	4208
2026-01-08 12:39:32.77	187.82	14.65	-36.6	-38.2	16.2	0.00e+00	0	58	0	547356672	45	4190
2026-01-08 12:39:33.49	187.87	14.72	-36.5	-38.2	16.3	0.00e+00	0	58	0	551550976	45	4157
2026-01-08 12:39:34.79	187.97	14.85	-36.6	-38.3	16.2	0.00e+00	0	58	0	558891008	45	4208
2026-01-08 12:39:35.51	188.02	14.92	-36.5	-38.2	16.3	0.00e+00	0	58	0	563085312	45	4171
2026-01-08 12:39:36.81	188.12	15.05	-36.5	-38.2	16.3	0.00e+00	0	58	0	570425344	44	4419
2026-01-08 12:39:37.53	188.17	15.13	-36.5	-38.2	16.3	0.00e+00	0	58	0	574619648	44	4421
2026-01-08 12:39:38.83	188.27	15.26	-36.5	-38.2	16.3	0.00e+00	0	58	0	581959680	44	4433
2026-01-08 12:39:39.55	188.33	15.33	-36.5	-38.2	16.3	0.00e+00	0	58	0	586153984	44	4405
2026-01-08 12:39:40.84	188.43	15.46	-36.4	-38.0	16.5	0.00e+00	0	58	0	592445440	44	4331
2026-01-08 12:39:41.56	188.48	15.54	-36.4	-38.0	16.5	0.00e+00	0	58	0	596639744	44	4317
2026-01-08 12:39:42.86	188.58	15.67	-36.3	-38.0	16.5	0.00e+00	0	58	0	603979776	44	4299
2026-01-08 12:39:43.58	188.64	15.74	-36.3	-37.9	16.6	0.00e+00	0	58	0	608174080	44	4274
2026-01-08 12:39:44.88	188.74	15.88	-36.2	-37.9	16.7	0.00e+00	0	58	0	615514112	44	4251
2026-01-08 12:39:45.60	188.80	15.95	-36.2	-37.8	16.7	0.00e+00	0	58	0	619708416	44	4217
2026-01-08 12:39:46.90	188.90	16.09	-36.1	-37.8	16.8	0.00e+00	0	58	0	627048448	44	4194
2026-01-08 12:39:47.62	188.96	16.16	-36.2	-37.8	16.8	0.00e+00	0	58	0	631242752	44	4199
2026-01-08 12:39:48.92	189.07	16.30	-36.1	-37.7	16.8	0.00e+00	0	58	0	638582784	44	4187
2026-01-08 12:39:49.64	189.13	16.38	-36.2	-37.8	16.8	0.00e+00	0	58	0	641728512	44	4195
2026-01-08 12:39:50.94	189.23	16.51	-36.1	-37.7	16.8	0.00e+00	0	58	0	649068544	44	4189
2026-01-08 12:39:51.66	189.29	16.59	-36.1	-37.7	16.8	0.00e+00	0	58	0	653262848	44	4185
2026-01-08 12:39:52.96	189.40	16.73	-36.1	-37.7	16.8	0.00e+00	0	58	0	660602880	44	4184
2026-01-08 12:39:53.68	189.46	16.81	-36.1	-37.7	16.8	0.00e+00	0	58	0	664797184	44	4163
2026-01-08 12:39:54.97	189.57	16.95	-36.1	-37.7	16.9	0.00e+00	0	58	0	672137216	44	4157
2026-01-08 12:39:55.70	189.63	17.03	-36.1	-37.6	16.9	0.00e+00	0	58	0	676331520	44	4142
2026-01-08 12:39:56.99	189.74	17.17	-35.8	-37.4	17.0	0.00e+00	0	58	0	683671552	43	4265
2026-01-08 12:39:57.71	189.81	17.24	-35.7	-37.3	17.1	0.00e+00	0	58	0	687865856	43	4205
2026-01-08 12:39:59.01	189.92	17.39	-35.6	-37.1	17.2	0.00e+00	0	58	0	695205888	43	4135
2026-01-08 12:39:59.73	189.98	17.47	-35.5	-37.0	17.3	0.00e+00	0	58	0	699400192	43	4095
2026-01-08 12:40:01.03	190.10	17.61	-35.5	-37.0	17.4	0.00e+00	0	58	0	706740224	43	4066
2026-01-08 12:40:01.75	190.16	17.69	-35.3	-36.8	17.6	0.00e+00	0	58	0	710934528	42	4219
2026-01-08 12:40:03.05	190.28	17.83	-35.3	-36.7	17.6	0.00e+00	0	58	0	718274560	42	4186
2026-01-08 12:40:03.77	190.34	17.91	-35.3	-36.8	17.6	0.00e+00	0	58	0	721420288	42	4204
2026-01-08 12:40:05.07	190.46	18.06	-35.3	-36.8	17.6	0.00e+00	0	58	0	728760320	42	4215
2026-01-08 12:40:05.79	190.53	18.14	-35.3	-36.7	17.6	0.00e+00	0	58	0	732954624	42	4190
2026-01-08 12:40:07.09	190.65	18.29	-35.3	-36.8	17.6	0.00e+00	0	58	0	740294656	42	4224
2026-01-08 12:40:07.81	190.71	18.37	-35.4	-36.9	17.5	0.00e+00	0	58	0	744488960	42	4273
2026-01-08 12:40:09.11	190.83	18.52	-35.4	-36.9	17.4	0.00e+00	0	58	0	751828992	42	4291
2026-01-08 12:40:09.83	190.90	18.60	-35.5	-37.0	17.4	0.00e+00	0	58	0	756023296	42	4324
2026-01-08 12:40:11.13	191.03	18.75	-35.5	-37.1	17.4	0.00e+00	0	58	0	763363328	42	4345
2026-01-08 12:40:11.85	191.09	18.83	-35.5	-37.0	17.4	0.00e+00	0	59	0	767557632	42	4339
2026-01-08 12:40:13.15	191.22	18.98	-35.5	-37.0	17.4	0.00e+00	0	58	0	774897664	42	4331
2026-01-08 12:40:13.87	191.29	19.06	-35.5	-37.0	17.4	0.00e+00	0	58	0	779091968	42	4331
2026-01-08 12:40:15.16	191.42	19.21	-35.5	-37.0	17.4	0.00e+00	0	58	0	786432000	42	4318
2026-01-08 12:40:15.88	191.49	19.30	-35.4	-36.9	17.5	0.00e+00	0	58	0	789577728	42	4264
2026-01-08 12:40:17.18	191.62	19.45	-35.5	-37.0	17.4	0.00e+00	0	59	0	796917760	42	4318
2026-01-08 12:40:17.90	191.69	19.54	-35.4	-36.9	17.5	0.00e+00	0	58	0	801112064	42	4271
2026-01-08 12:40:19.20	191.82	19.69	-35.4	-36.9	17.5	0.00e+00	0	58	0	808452096	42	4261
2026-01-08 12:40:19.92	191.89	19.78	-35.4	-36.9	17.6	0.00e+00	0	58	0	812646400	42	4250
2026-01-08 12:40:21.22	192.02	19.93	-35.4	-36.9	17.5	0.00e+00	0	58	0	819986432	42	4282
2026-01-08 12:40:21.94	192.10	20.02	-35.4	-36.9	17.6	0.00e+00	0	58	0	824180736	42	4251
2026-01-08 12:40:23.24	192.23	20.18	-35.4	-36.9	17.5	0.00e+00	0	59	0	831520768	42	4269
2026-01-08 12:40:23.96	192.31	20.26	-35.3	-36.8	17.7	0.00e+00	0	58	0	835715072	42	4199
2026-01-08 12:40:25.26	192.44	20.42	-35.2	-36.6	17.8	0.00e+00	0	58	0	843055104	42	4137
2026-01-08 12:40:25.98	192.52	20.51	-35.1	-36.6	17.9	0.00e+00	0	58	0	846200832	42	4099
2026-01-08 12:40:27.28	192.66	20.67	-35.0	-36.4	18.0	0.00e+00	0	58	0	853540864	42	4031
2026-01-08 12:40:28.00	192.74	20.76	-35.0	-36.4	18.0	0.00e+00	0	58	0	857735168	41	4260
2026-01-08 12:40:29.30	192.88	20.92	-34.9	-36.3	18.2	0.00e+00	0	58	0	865075200	41	4199
2026-01-08 12:40:30.02	192.96	21.01	-34.9	-36.3	18.2	0.00e+00	0	59	0	869269504	41	4201
2026-01-08 12:40:31.32	193.10	21.17	-34.8	-36.3	18.2	0.00e+00	0	58	0	876609536	41	4202
2026-01-08 12:40:32.04	193.18	21.26	-34.9	-36.3	18.2	0.00e+00	0	58	0	880803840	41	4208
2026-01-08 12:40:33.34	193.33	21.42	-34.9	-36.3	18.2	0.00e+00	0	58	0	888143872	41	4202
2026-01-08 12:40:34.06	193.41	21.51	-34.8	-36.2	18.2	0.00e+00	0	58	0	892338176	41	4172
2026-01-08 12:40:35.36	193.56	21.68	-34.8	-36.2	18.2	0.00e+00	0	58	0	899678208	41	4189
2026-01-08 12:40:36.08	193.64	21.77	-34.8	-36.2	18.3	0.00e+00	0	58	0	903872512	41	4164
2026-01-08 12:40:37.38	193.79	21.94	-34.8	-36.3	18.2	0.00e+00	0	58	0	911212544	41	4198
2026-01-08 12:40:38.10	193.87	22.03	-34.9	-36.3	18.2	0.00e+00	0	58	0	915406848	41	4200
2026-01-08 12:40:39.40	194.03	22.19	-34.9	-36.3	18.2	0.00e+00	0	58	0	922746880	41	4214
2026-01-08 12:40:40.12	194.11	22.29	-34.9	-36.3	18.2	0.00e+00	0	59	0	925892608	41	4201
2026-01-08 12:40:41.42	194.27	22.46	-34.8	-36.3	18.2	0.00e+00	0	58	0	933232640	41	4204
2026-01-08 12:40:42.14	194.35	22.55	-34.8	-36.2	18.2	0.00e+00	0	58	0	937426944	41	4177
2026-01-08 12:40:43.44	194.51	22.72	-34.8	-36.2	18.3	0.00e+00	0	58	0	944766976	41	4153
2026-01-08 12:40:44.16	194.60	22.82	-34.8	-36.2	18.3	0.00e+00	0	58	0	948961280	41	4157
2026-01-08 12:40:45.46	194.76	22.99	-34.7	-36.2	18.3	0.00e+00	0	58	0	956301312	41	4149
2026-01-08 12:40:46.18	194.85	23.08	-34.7	-36.1	18.3	0.00e+00	0	58	0	960495616	41	4133
2026-01-08 12:40:47.48	195.01	23.26	-34.7	-36.1	18.4	0.00e+00	0	58	0	967835648	41	4120
2026-01-08 12:40:48.20	195.11	23.35	-34.6	-36.0	18.4	0.00e+00	0	58	0	972029952	41	4088
2026-01-08 12:40:49.50	195.27	23.53	-34.6	-36.0	18.4	0.00e+00	0	58	0	979369984	41	4076
2026-01-08 12:40:50.22	195.36	23.62	-34.5	-35.9	18.5	0.00e+00	0	58	0	983564288	41	4037
2026-01-08 12:40:51.52	195.53	23.80	-34.5	-35.9	18.6	0.00e+00	0	58	0	990904320	41	4023
2026-01-08 12:40:52.24	195.63	23.90	-34.5	-35.9	18.6	0.00e+00	0	58	0	994050048	41	4006
2026-01-08 12:40:53.54	195.80	24.08	-34.4	-35.8	18.7	0.00e+00	0	58	0	1001390080	40	4213
2026-01-08 12:40:54.26	195.90	24.17	-34.4	-35.7	18.7	0.00e+00	0	59	0	1005584384	40	4187
2026-01-08 12:40:55.56	196.07	24.35	-34.4	-35.8	18.7	0.00e+00	0	59	0	1012924416	40	4203
2026-01-08 12:40:56.28	196.17	24.45	-34.4	-35.8	18.7	0.00e+00	0	58	0	1017118720	40	4225
2026-01-08 12:40:57.58	196.35	24.63	-34.6	-35.9	18.5	0.00e+00	0	58	0	1024458752	40	4290
2026-01-08 12:40:58.30	196.45	24.73	-34.5	-35.9	18.6	0.00e+00	0	58	0	1028653056	40	4254
2026-01-08 12:40:59.60	196.63	24.92	-34.5	-35.8	18.6	0.00e+00	0	58	0	1035993088	40	4234
2026-01-08 12:41:00.32	196.73	25.02	-34.5	-35.8	18.6	0.00e+00	0	59	0	1040187392	40	4242
2026-01-08 12:41:01.62	196.91	25.20	-34.4	-35.8	18.7	0.00e+00	0	58	0	1047527424	40	4218
2026-01-08 12:41:02.34	197.01	25.30	-34.5	-35.8	18.6	0.00e+00	0	58	0	1050673152	40	4240
2026-01-08 12:41:03.64	197.20	25.49	-34.4	-35.8	18.7	0.00e+00	0	58	0	1058013184	40	4215
2026-01-08 12:41:04.36	197.31	25.59	-34.4	-35.8	18.7	0.00e+00	0	59	0	1062207488	40	4210
2026-01-08 12:41:05.66	197.50	25.78	-34.4	-35.7	18.7	0.00e+00	0	58	0	1069547520	40	4182
2026-01-08 12:41:06.38	197.60	25.88	-34.3	-35.7	18.8	0.00e+00	0	58	0	1073741824	40	4160
2026-01-08 12:41:07.68	197.80	26.07	-34.4	-35.7	18.7	0.00e+00	0	58	0	1081081856	40	4186
2026-01-08 12:41:08.40	197.91	26.17	-34.4	-35.7	18.8	0.00e+00	0	58	0	1085276160	40	4186
2026-01-08 12:41:09.70	198.10	26.36	-34.4	-35.7	18.7	0.00e+00	0	58	0	1092616192	40	4176
2026-01-08 12:41:10.42	198.22	26.47	-34.3	-35.7	18.8	0.00e+00	0	58	0	1096810496	40	4146
2026-01-08 12:41:11.72	198.42	26.66	-34.3	-35.7	18.8	0.00e+00	0	58	0	1104150528	40	4150
2026-01-08 12:41:12.44	198.53	26.77	-34.3	-35.6	18.8	0.00e+00	0	58	0	1108344832	40	4135
2026-01-08 12:41:13.74	198.73	26.96	-34.3	-35.7	18.8	0.00e+00	0	59	0	1115684864	40	4164
2026-01-08 12:41:14.46	198.85	27.07	-34.3	-35.7	18.8	0.00e+00	0	58	0	1119879168	40	4163
2026-01-08 12:41:15.76	199.06	27.26	-34.2	-35.6	18.9	0.00e+00	0	58	0	1127219200	40	4102
2026-01-08 12:41:16.48	199.17	27.37	-34.2	-35.5	19.0	0.00e+00	0	59	0	1130364928	40	4074
2026-01-08 12:41:17.78	199.39	27.57	-34.1	-35.5	19.0	0.00e+00	0	58	0	1137704960	40	4055
2026-01-08 12:41:18.50	199.51	27.67	-34.1	-35.4	19.0	0.00e+00	0	58	0	1141899264	40	4048
2026-01-08 12:41:19.79	199.72	27.87	-34.1	-35.5	19.0	0.00e+00	0	58	0	1149239296	40	4055
2026-01-08 12:41:20.51	199.84	27.98	-34.1	-35.5	19.0	0.00e+00	0	59	0	1153433600	40	4052
2026-01-08 12:41:21.81	200.06	28.18	-34.1	-35.4	19.1	0.00e+00	0	58	0	1160773632	40	4041
2026-01-08 12:41:22.53	200.19	28.29	-34.1	-35.4	19.1	0.00e+00	0	58	0	1164967936	40	4020
2026-01-08 12:41:23.83	200.41	28.49	-34.1	-35.4	19.1	0.00e+00	0	58	0	1172307968	40	4036
2026-01-08 12:41:24.55	200.54	28.60	-34.1	-35.5	19.0	0.00e+00	0	59	0	1176502272	40	4062
2026-01-08 12:41:25.85	200.77	28.80	-34.3	-35.6	18.9	0.00e+00	0	59	0	1183842304	40	4128
2026-01-08 12:41:26.57	200.90	28.91	-34.3	-35.6	18.9	0.00e+00	0	59	0	1188036608	40	4135
2026-01-08 12:41:27.87	201.13	29.12	-34.3	-35.6	18.9	0.00e+00	0	58	0	1195376640	40	4133
2026-01-08 12:41:28.59	201.26	29.23	-34.2	-35.5	18.9	0.00e+00	0	59	0	1198522368	40	4098
2026-01-08 12:41:29.89	201.50	29.44	-34.2	-35.5	19.0	0.00e+00	0	59	0	1205862400	40	4085
2026-01-08 12:41:30.61	201.63	29.55	-34.1	-35.5	19.0	0.00e+00	0	59	0	1210056704	40	4066
2026-01-08 12:41:31.91	201.87	29.76	-34.2	-35.5	19.0	0.00e+00	0	59	0	1217396736	40	4069
2026-01-08 12:41:32.63	202.01	29.87	-34.1	-35.4	19.1	0.00e+00	0	59	0	1221591040	40	4046
2026-01-08 12:41:33.93	202.26	30.08	-34.1	-35.4	19.1	0.00e+00	0	58	0	1228931072	40	4021
2026-01-08 12:41:34.65	202.40	30.19	-34.0	-35.4	19.1	0.00e+00	0	59	0	1233125376	40	4005
2026-01-08 12:41:35.94	202.65	30.40	-34.0	-35.3	19.2	0.00e+00	0	58	0	1240465408	40	3985
2026-01-08 12:41:36.67	202.79	30.52	-34.1	-35.4	19.2	0.00e+00	0	59	0	1244659712	39	4250
2026-01-08 12:41:37.96	203.05	30.73	-34.1	-35.4	19.2	0.00e+00	0	58	0	1251999744	39	4260
2026-01-08 12:41:38.68	203.19	30.85	-34.1	-35.4	19.2	0.00e+00	0	58	0	1255145472	39	4267
2026-01-08 12:41:39.98	203.45	31.06	-34.1	-35.4	19.2	0.00e+00	0	58	0	1262485504	39	4287
2026-01-08 12:41:40.70	203.60	31.18	-34.1	-35.4	19.2	0.00e+00	0	59	0	1266679808	39	4289
2026-01-08 12:41:42.00	203.87	31.39	-34.1	-35.5	19.2	0.00e+00	0	59	0	1274019840	39	4293
2026-01-08 12:41:42.72	204.02	31.51	-34.1	-35.5	19.2	0.00e+00	0	58	0	1278214144	39	4294
2026-01-08 12:41:44.02	204.29	31.72	-34.2	-35.5	19.1	0.00e+00	0	58	0	1285554176	39	4321
2026-01-08 12:41:44.74	204.45	31.84	-34.2	-35.5	19.1	0.00e+00	0	58	0	1289748480	39	4327
2026-01-08 12:41:46.04	204.73	32.06	-34.2	-35.5	19.1	0.00e+00	0	58	0	1297088512	39	4311
2026-01-08 12:41:46.76	204.88	32.18	-34.1	-35.4	19.2	0.00e+00	0	58	0	1301282816	39	4258
2026-01-08 12:41:48.06	205.17	32.40	-34.1	-35.4	19.2	0.00e+00	0	59	0	1308622848	39	4249
2026-01-08 12:41:48.78	205.33	32.52	-34.1	-35.4	19.2	0.00e+00	0	59	0	1312817152	39	4252
2026-01-08 12:41:50.08	205.62	32.74	-34.0	-35.3	19.3	0.00e+00	0	58	0	1320157184	39	4213
2026-01-08 12:41:50.80	205.78	32.86	-34.0	-35.3	19.3	0.00e+00	0	58	0	1324351488	39	4200
2026-01-08 12:41:52.10	206.08	33.08	-33.9	-35.2	19.4	0.00e+00	0	58	0	1331691520	39	4175
2026-01-08 12:41:52.82	206.24	33.20	-34.0	-35.3	19.3	0.00e+00	0	58	0	1334837248	39	4224
2026-01-08 12:41:54.12	206.55	33.42	-34.1	-35.5	19.1	0.00e+00	0	58	0	1342177280	39	4306
2026-01-08 12:41:54.84	206.72	33.54	-34.2	-35.6	19.0	0.00e+00	0	58	0	1346371584	39	4353
2026-01-08 12:41:56.14	207.03	33.77	-34.2	-35.6	19.0	0.00e+00	0	58	0	1353711616	39	4359
2026-01-08 12:41:56.86	207.20	33.89	-34.2	-35.5	19.1	0.00e+00	0	59	0	1357905920	39	4316
2026-01-08 12:41:58.16	207.51	34.11	-34.0	-35.3	19.3	0.00e+00	0	58	0	1365245952	39	4222
2026-01-08 12:41:58.88	207.69	34.24	-33.9	-35.2	19.4	0.00e+00	0	59	0	1369440256	39	4184
2026-01-08 12:42:00.18	208.01	34.46	-33.8	-35.0	19.5	0.00e+00	0	58	0	1376780288	39	4094
2026-01-08 12:42:00.90	208.19	34.59	-33.7	-34.9	19.6	0.00e+00	0	58	0	1380974592	39	4043
2026-01-08 12:42:02.20	208.52	34.81	-33.6	-34.9	19.7	0.00e+00	0	58	0	1388314624	39	4024
2026-01-08 12:42:02.92	208.71	34.94	-33.6	-34.9	19.7	0.00e+00	0	58	0	1392508928	39	4026
2026-01-08 12:42:04.22	209.05	35.16	-33.7	-35.0	19.6	0.00e+00	0	58	0	1399848960	39	4084
2026-01-08 12:42:04.94	209.23	35.29	-33.9	-35.2	19.4	0.00e+00	0	58	0	1402994688	39	4147
2026-01-08 12:42:06.24	209.58	35.52	-33.9	-35.3	19.3	0.00e+00	0	58	0	1410334720	39	4204
2026-01-08 12:42:06.96	209.77	35.64	-33.9	-35.3	19.3	0.00e+00	0	58	0	1414529024	39	4203
2026-01-08 12:42:08.26	210.12	35.87	-33.9	-35.2	19.4	0.00e+00	0	59	0	1421869056	39	4148
2026-01-08 12:42:08.98	210.32	36.00	-33.8	-35.1	19.5	0.00e+00	0	59	0	1426063360	39	4136
2026-01-08 12:42:10.27	210.67	36.22	-33.8	-35.0	19.6	0.00e+00	0	58	0	1433403392	39	4097
2026-01-08 12:42:11.00	210.88	36.35	-33.8	-35.1	19.5	0.00e+00	0	58	0	1437597696	39	4102
2026-01-08 12:42:12.29	211.24	36.58	-33.8	-35.1	19.5	0.00e+00	0	58	0	1444937728	39	4130
2026-01-08 12:42:13.01	211.45	36.71	-33.8	-35.1	19.6	0.00e+00	0	58	0	1449132032	39	4107
2026-01-08 12:42:14.31	211.82	36.93	-33.5	-34.8	19.8	0.00e+00	0	59	0	1456472064	39	3979
2026-01-08 12:42:15.04	212.03	37.06	-33.5	-34.7	19.9	0.00e+00	0	59	0	1459617792	39	3949
2026-01-08 12:42:16.33	212.41	37.29	-33.5	-34.7	19.9	0.00e+00	0	58	0	1466957824	38	4165
2026-01-08 12:42:17.06	212.63	37.42	-33.5	-34.7	19.9	0.00e+00	0	58	0	1471152128	38	4189
2026-01-08 12:42:18.35	213.02	37.65	-33.6	-34.9	19.8	0.00e+00	0	58	0	1478492160	38	4252
2026-01-08 12:42:19.08	213.24	37.78	-33.6	-34.8	19.8	0.00e+00	0	59	0	1482686464	38	4240
2026-01-08 12:42:20.37	213.64	38.01	-33.6	-34.8	19.8	0.00e+00	0	58	0	1490026496	38	4218
2026-01-08 12:42:21.09	213.86	38.13	-33.5	-34.7	19.9	0.00e+00	0	58	0	1494220800	38	4162
2026-01-08 12:42:22.39	214.27	38.36	-33.5	-34.7	19.9	0.00e+00	0	58	0	1501560832	38	4176
2026-01-08 12:42:23.11	214.50	38.49	-33.6	-34.8	19.8	0.00e+00	0	58	0	1505755136	38	4232
2026-01-08 12:42:24.41	214.91	38.72	-33.6	-34.9	19.7	0.00e+00	0	58	0	1513095168	38	4266
2026-01-08 12:42:25.13	215.15	38.85	-33.7	-35.0	19.6	0.00e+00	0	58	0	1517289472	38	4316
2026-01-08 12:42:26.43	215.57	39.08	-33.9	-35.2	19.5	0.00e+00	0	58	0	1524629504	38	4392
2026-01-08 12:42:27.15	215.81	39.21	-33.9	-35.2	19.5	0.00e+00	0	58	0	1528823808	38	4406
2026-01-08 12:42:28.44	216.25	39.43	-33.7	-35.0	19.7	0.00e+00	0	58	0	1536163840	38	4303
2026-01-08 12:42:29.16	216.49	39.56	-33.6	-34.8	19.9	0.00e+00	0	59	0	1539309568	38	4222
2026-01-08 12:42:30.46	216.93	39.79	-33.5	-34.7	20.0	0.00e+00	0	59	0	1546649600	38	4168
2026-01-08 12:42:31.19	217.19	39.92	-33.6	-34.8	19.8	0.00e+00	0	58	0	1550843904	38	4219
2026-01-08 12:42:32.48	217.64	40.14	-33.8	-35.1	19.6	0.00e+00	0	58	0	1558183936	38	4351
2026-01-08 12:42:33.21	217.90	40.27	-33.9	-35.2	19.5	0.00e+00	0	58	0	1562378240	38	4402
2026-01-08 12:42:34.50	218.36	40.50	-34.0	-35.3	19.4	0.00e+00	0	59	0	1569718272	38	4463
2026-01-08 12:42:35.22	218.62	40.62	-34.0	-35.3	19.4	0.00e+00	0	58	0	1573912576	38	4463
2026-01-08 12:42:36.52	219.09	40.85	-33.9	-35.1	19.5	0.00e+00	0	58	0	1581252608	38	4387
2026-01-08 12:42:37.24	219.36	40.97	-33.8	-35.0	19.6	0.00e+00	0	58	0	1585446912	38	4337
2026-01-08 12:42:38.54	219.84	41.20	-33.7	-34.9	19.7	0.00e+00	0	58	0	1592786944	38	4279
2026-01-08 12:42:39.26	220.11	41.32	-33.6	-34.9	19.8	0.00e+00	0	59	0	1596981248	38	4254
2026-01-08 12:42:40.56	220.61	41.55	-33.9	-35.2	19.5	0.00e+00	0	58	0	1604321280	38	4405
2026-01-08 12:42:41.28	220.89	41.67	-34.1	-35.4	19.3	0.00e+00	0	59	0	1607467008	38	4502
2026-01-08 12:42:42.58	221.39	41.89	-34.1	-35.4	19.3	0.00e+00	0	59	0	1614807040	38	4514
2026-01-08 12:42:43.30	221.68	42.02	-34.0	-35.2	19.4	0.00e+00	0	58	0	1619001344	38	4436
2026-01-08 12:42:44.60	222.19	42.24	-33.7	-35.0	19.7	0.00e+00	0	59	0	1626341376	38	4304
2026-01-08 12:42:45.32	222.48	42.36	-33.7	-34.9	19.7	0.00e+00	0	59	0	1630535680	38	4287
2026-01-08 12:42:46.62	223.01	42.58	-33.8	-35.0	19.6	0.00e+00	0	59	0	1637875712	38	4331
2026-01-08 12:42:47.34	223.31	42.70	-33.9	-35.2	19.4	0.00e+00	0	59	0	1642070016	38	4434
2026-01-08 12:42:48.63	223.84	42.91	-34.2	-35.5	19.2	0.00e+00	0	59	0	1649410048	38	4579
2026-01-08 12:42:49.35	224.14	43.03	-34.1	-35.4	19.2	0.00e+00	0	59	0	1653604352	39	4284
2026-01-08 12:42:50.65	224.69	43.24	-34.0	-35.3	19.4	0.00e+00	0	59	0	1660944384	39	4201
2026-01-08 12:42:51.37	225.00	43.36	-33.9	-35.2	19.5	0.00e+00	0	59	0	1664090112	39	4147
2026-01-08 12:42:52.67	225.56	43.57	-34.0	-35.3	19.4	0.00e+00	0	59	0	1671430144	39	4204
2026-01-08 12:42:53.39	225.87	43.69	-34.0	-35.3	19.3	0.00e+00	0	58	0	1675624448	39	4229
2026-01-08 12:42:54.69	226.45	43.89	-34.1	-35.3	19.3	0.00e+00	0	59	0	1682964480	39	4237
2026-01-08 12:42:55.41	226.77	44.01	-34.1	-35.4	19.3	0.00e+00	0	59	0	1687158784	39	4250
2026-01-08 12:42:56.71	227.35	44.21	-34.0	-35.3	19.3	0.00e+00	0	59	0	1694498816	39	4233
2026-01-08 12:42:57.43	227.68	44.32	-34.0	-35.3	19.4	0.00e+00	0	58	0	1698693120	39	4230
2026-01-08 12:42:58.73	228.27	44.53	-34.1	-35.4	19.3	0.00e+00	0	58	0	1706033152	39	4287
2026-01-08 12:42:59.45	228.60	44.64	-34.2	-35.5	19.2	0.00e+00	0	58	0	1710227456	39	4338
2026-01-08 12:43:00.75	229.21	44.83	-34.3	-35.6	19.1	0.00e+00	0	59	0	1717567488	39	4379
2026-01-08 12:43:01.47	229.55	44.94	-34.3	-35.6	19.0	0.00e+00	0	59	0	1721761792	39	4390
2026-01-08 12:43:02.77	230.17	45.13	-34.2	-35.5	19.2	0.00e+00	0	59	0	1729101824	39	4308
2026-01-08 12:43:03.49	230.51	45.24	-34.2	-35.5	19.2	0.00e+00	0	59	0	1732247552	39	4313
2026-01-08 12:43:04.79	231.14	45.43	-34.2	-35.6	19.1	0.00e+00	0	59	0	1739587584	39	4345
2026-01-08 12:43:05.51	231.50	45.53	-34.2	-35.5	19.1	0.00e+00	0	59	0	1743781888	39	4333
2026-01-08 12:43:06.81	232.14	45.72	-34.4	-35.7	19.0	0.00e+00	0	59	0	1751121920	39	4422
2026-01-08 12:43:07.53	232.50	45.82	-34.3	-35.7	19.0	0.00e+00	0	58	0	1755316224	39	4400
2026-01-08 12:43:08.83	233.15	46.00	-34.2	-35.5	19.1	0.00e+00	0	59	0	1762656256	39	4337
2026-01-08 12:43:09.55	233.51	46.09	-34.2	-35.5	19.2	0.00e+00	0	59	0	1766850560	39	4317
2026-01-08 12:43:10.84	234.17	46.27	-34.3	-35.6	19.1	0.00e+00	0	58	0	1774190592	39	4354
2026-01-08 12:43:11.56	234.54	46.36	-34.3	-35.6	19.1	0.00e+00	0	58	0	1778384896	39	4364
2026-01-08 12:43:12.86	235.22	46.53	-34.1	-35.4	19.4	0.00e+00	0	58	0	1785724928	39	4252
2026-01-08 12:43:13.58	235.60	46.62	-34.0	-35.3	19.5	0.00e+00	0	59	0	1789919232	39	4202
2026-01-08 12:43:14.88	236.28	46.79	-33.9	-35.1	19.6	0.00e+00	0	58	0	1797259264	39	4130
2026-01-08 12:43:15.60	236.67	46.88	-33.9	-35.1	19.6	0.00e+00	0	59	0	1801453568	39	4138
2026-01-08 12:43:16.90	237.36	47.03	-34.2	-35.5	19.3	0.00e+00	0	59	0	1808793600	39	4296
2026-01-08 12:43:17.62	237.75	47.12	-34.3	-35.6	19.1	0.00e+00	0	59	0	1811939328	39	4381
2026-01-08 12:43:18.92	238.46	47.27	-34.2	-35.5	19.2	0.00e+00	0	59	0	1819279360	39	4304
2026-01-08 12:43:19.64	238.86	47.35	-34.2	-35.5	19.2	0.00e+00	0	59	0	1823473664	39	4334
2026-01-08 12:43:20.94	239.58	47.49	-34.3	-35.6	19.1	0.00e+00	0	58	0	1830813696	39	4366
2026-01-08 12:43:21.66	239.98	47.57	-34.1	-35.4	19.3	0.00e+00	0	58	0	1835008000	39	4261
2026-01-08 12:43:22.96	240.70	47.71	-34.0	-35.2	19.5	0.00e+00	0	58	0	1842348032	39	4173
2026-01-08 12:43:23.68	241.11	47.78	-34.0	-35.3	19.4	0.00e+00	0	59	0	1846542336	39	4199
2026-01-08 12:43:24.98	241.85	47.92	-34.1	-35.4	19.4	0.00e+00	0	59	0	1853882368	39	4254
2026-01-08 12:43:25.70	242.26	47.99	-34.0	-35.3	19.4	0.00e+00	0	59	0	1858076672	39	4215
2026-01-08 12:43:27.00	243.01	48.11	-34.1	-35.4	19.3	0.00e+00	0	59	0	1865416704	39	4264
2026-01-08 12:43:27.72	243.42	48.17	-34.1	-35.4	19.3	0.00e+00	0	59	0	1868562432	39	4280
2026-01-08 12:43:29.01	244.18	48.29	-34.1	-35.4	19.4	0.00e+00	0	59	0	1875902464	39	4246
2026-01-08 12:43:29.73	244.60	48.35	-34.1	-35.3	19.4	0.00e+00	0	59	0	1880096768	39	4228
2026-01-08 12:43:31.03	245.36	48.46	-34.2	-35.5	19.3	0.00e+00	0	58	0	1887436800	39	4309
2026-01-08 12:43:31.75	245.79	48.52	-34.2	-35.5	19.2	0.00e+00	0	59	0	1891631104	39	4331
2026-01-08 12:43:33.05	246.56	48.62	-34.2	-35.5	19.2	0.00e+00	0	59	0	1898971136	39	4315
2026-01-08 12:43:33.77	246.99	48.67	-34.2	-35.5	19.2	0.00e+00	0	59	0	1903165440	39	4318
2026-01-08 12:43:35.07	247.77	48.76	-34.2	-35.6	19.2	0.00e+00	0	59	0	1910505472	39	4342
2026-01-08 12:43:35.79	248.20	48.81	-34.2	-35.5	19.2	0.00e+00	0	59	0	1914699776	39	4339
2026-01-08 12:43:37.09	248.99	48.89	-34.3	-35.6	19.1	0.00e+00	0	59	0	1922039808	39	4367
2026-01-08 12:43:37.81	249.43	48.93	-34.1	-35.4	19.2	0.00e+00	0	59	0	1926234112	39	4290
2026-01-08 12:43:39.12	250.23	49.01	-33.9	-35.2	19.5	0.00e+00	0	59	0	1933574144	39	4156
2026-01-08 12:43:39.84	250.67	49.05	-34.0	-35.2	19.4	0.00e+00	0	59	0	1936719872	39	4174
2026-01-08 12:43:41.14	251.47	49.11	-34.2	-35.5	19.2	0.00e+00	0	59	0	1944059904	39	4339
2026-01-08 12:43:41.86	251.91	49.14	-34.2	-35.5	19.2	0.00e+00	0	59	0	1948254208	39	4323
2026-01-08 12:43:43.15	252.71	49.20	-34.1	-35.4	19.3	0.00e+00	0	59	0	1955594240	39	4251
2026-01-08 12:43:43.88	253.16	49.23	-34.0	-35.3	19.4	0.00e+00	0	59	0	1959788544	39	4223
2026-01-08 12:43:45.17	253.96	49.28	-34.2	-35.4	19.3	0.00e+00	0	59	0	1967128576	39	4289
2026-01-08 12:43:45.89	254.41	49.30	-34.3	-35.7	19.0	0.00e+00	0	59	0	1971322880	39	4405
2026-01-08 12:43:47.19	255.22	49.34	-34.4	-35.8	19.0	0.00e+00	0	58	0	1978662912	39	4455
2026-01-08 12:43:47.91	255.67	49.36	-34.3	-35.6	19.1	0.00e+00	0	59	0	1982857216	39	4388
2026-01-08 12:43:49.21	256.48	49.38	-34.2	-35.5	19.2	0.00e+00	0	59	0	1990197248	39	4333
2026-01-08 12:43:49.93	256.93	49.40	-34.3	-35.6	19.1	0.00e+00	0	59	0	1994391552	39	4365
2026-01-08 12:43:51.23	257.75	49.42	-34.3	-35.6	19.1	0.00e+00	0	58	0	2001731584	39	4391
2026-01-08 12:43:51.95	258.20	49.42	-34.3	-35.6	19.1	0.00e+00	0	59	0	2005925888	39	4369
2026-01-08 12:43:53.25	259.02	49.43	-34.1	-35.4	19.3	0.00e+00	0	58	0	2013265920	39	4270
2026-01-08 12:43:53.97	259.47	49.44	-34.1	-35.3	19.4	0.00e+00	0	59	0	2016411648	39	4230
2026-01-08 12:43:55.26	260.28	49.44	-34.1	-35.4	19.3	0.00e+00	0	59	0	2023751680	39	4275
2026-01-08 12:43:55.99	260.74	49.43	-34.4	-35.7	19.0	0.00e+00	0	59	0	2027945984	39	4438
2026-01-08 12:43:57.28	261.55	49.42	-34.7	-36.1	18.5	0.00e+00	0	59	0	2035286016	40	4363
2026-01-08 12:43:58.01	262.01	49.42	-34.4	-35.7	18.9	0.00e+00	0	59	0	2039480320	40	4185
2026-01-08 12:43:59.30	262.82	49.40	-34.0	-35.3	19.3	0.00e+00	0	59	0	2046820352	40	3990
2026-01-08 12:44:00.02	263.27	49.38	-34.1	-35.4	19.2	0.00e+00	0	59	0	2051014656	40	4030
2026-01-08 12:44:01.32	264.08	49.36	-34.3	-35.6	19.0	0.00e+00	0	59	0	2058354688	40	4121
2026-01-08 12:44:02.04	264.53	49.34	-34.3	-35.7	19.0	0.00e+00	0	59	0	2061500416	40	4146
2026-01-08 12:44:03.34	265.34	49.30	-34.3	-35.6	19.0	0.00e+00	0	59	0	2068840448	40	4136
2026-01-08 12:44:04.06	265.79	49.28	-34.3	-35.7	19.0	0.00e+00	0	59	0	2073034752	40	4154
2026-01-08 12:44:05.36	266.60	49.23	-34.3	-35.6	19.0	0.00e+00	0	59	0	2080374784	40	4112
2026-01-08 12:44:06.08	267.04	49.20	-34.2	-35.5	19.1	0.00e+00	0	59	0	2084569088	40	4088
2026-01-08 12:44:07.38	267.85	49.14	-34.3	-35.6	19.1	0.00e+00	0	59	0	2091909120	40	4114
2026-01-08 12:44:08.10	268.29	49.11	-34.2	-35.5	19.1	0.00e+00	0	59	0	2096103424	40	4083
2026-01-08 12:44:09.40	269.09	49.05	-34.1	-35.4	19.3	0.00e+00	0	59	0	2103443456	40	4022
2026-01-08 12:44:10.12	269.53	49.01	-34.2	-35.5	19.2	0.00e+00	0	59	0	2107637760	40	4062
2026-01-08 12:44:11.42	270.32	48.93	-34.2	-35.5	19.1	0.00e+00	0	59	0	2114977792	40	4083
2026-01-08 12:44:12.14	270.76	48.89	-34.0	-35.3	19.3	0.00e+00	0	59	0	2119172096	40	3995
2026-01-08 12:44:13.44	271.54	48.81	-34.0	-35.3	19.4	0.00e+00	0	59	0	2126512128	39	4219
2026-01-08 12:44:14.16	271.98	48.76	-34.2	-35.5	19.2	0.00e+00	0	59	0	2130706432	39	4316
2026-01-08 12:44:15.46	272.76	48.67	-34.6	-35.9	18.8	0.00e+00	0	59	0	2138046464	39	4537
2026-01-08 12:44:16.18	273.19	48.62	-34.5	-35.9	18.8	0.00e+00	0	59	0	2141192192	39	4518
2026-01-08 12:44:17.47	273.95	48.52	-34.3	-35.6	19.1	0.00e+00	0	59	0	2148532224	39	4381
2026-01-08 12:44:18.19	274.38	48.46	-34.0	-35.3	19.4	0.00e+00	0	59	0	2152726528	39	4220
2026-01-08 12:44:19.49	275.14	48.35	-33.9	-35.2	19.5	0.00e+00	0	59	0	2160066560	39	4160
2026-01-08 12:44:20.21	275.56	48.29	-33.9	-35.2	19.5	0.00e+00	0	59	0	2164260864	39	4153
2026-01-08 12:44:21.51	276.32	48.18	-34.0	-35.3	19.4	0.00e+00	0	59	0	2171600896	39	4212
2026-01-08 12:44:22.23	276.73	48.11	-34.1	-35.4	19.3	0.00e+00	0	59	0	2175795200	39	4277
2026-01-08 12:44:23.53	277.48	47.99	-34.2	-35.5	19.2	0.00e+00	0	59	0	2183135232	39	4335
2026-01-08 12:44:24.25	277.89	47.92	-34.1	-35.4	19.3	0.00e+00	0	58	0	2187329536	39	4256
2026-01-08 12:44:25.55	278.63	47.79	-34.1	-35.3	19.3	0.00e+00	0	59	0	2194669568	39	4235
2026-01-08 12:44:26.27	279.03	47.71	-34.2	-35.6	19.1	0.00e+00	0	59	0	2198863872	39	4342
2026-01-08 12:44:27.57	279.76	47.58	-34.6	-35.9	18.8	0.00e+00	0	58	0	2205155328	39	4539
2026-01-08 12:44:28.29	280.16	47.50	-34.5	-35.9	18.8	0.00e+00	0	59	0	2209349632	39	4498
2026-01-08 12:44:29.59	280.88	47.35	-34.2	-35.5	19.2	0.00e+00	0	59	0	2216689664	39	4332
2026-01-08 12:44:30.31	281.27	47.27	-34.1	-35.4	19.3	0.00e+00	0	59	0	2220883968	39	4280
2026-01-08 12:44:31.61	281.98	47.12	-34.2	-35.5	19.1	0.00e+00	0	59	0	2228224000	39	4333
2026-01-08 12:44:32.33	282.37	47.04	-34.3	-35.6	19.1	0.00e+00	0	59	0	2232418304	39	4353
2026-01-08 12:44:33.62	283.06	46.88	-34.3	-35.6	19.1	0.00e+00	0	58	0	2239758336	39	4362
2026-01-08 12:44:34.34	283.44	46.79	-34.2	-35.5	19.2	0.00e+00	0	58	0	2243952640	39	4326
2026-01-08 12:44:35.64	284.13	46.63	-34.1	-35.3	19.7	0.00e+00	0	59	0	2251292672	39	4221
2026-01-08 12:44:36.36	284.50	46.54	-34.0	-35.1	19.8	0.00e+00	0	59	0	2255486976	39	4134
2026-01-08 12:44:37.66	285.18	46.37	-34.1	-35.3	19.7	0.00e+00	0	58	0	2262827008	39	4220
2026-01-08 12:44:38.38	285.55	46.28	-34.3	-35.5	19.5	0.00e+00	0	59	0	2265972736	39	4309
2026-01-08 12:44:39.68	286.21	46.10	-34.6	-35.9	19.2	0.00e+00	0	58	0	2273312768	39	4494
2026-01-08 12:44:40.40	286.57	46.01	-34.7	-35.9	19.1	0.00e+00	0	59	0	2277507072	39	4523
2026-01-08 12:44:41.70	287.23	45.83	-34.5	-35.8	19.2	0.00e+00	0	58	0	2284847104	39	4446
2026-01-08 12:44:42.42	287.58	45.73	-34.4	-35.5	19.5	0.00e+00	0	59	0	2289041408	39	4339
2026-01-08 12:44:43.72	288.22	45.54	-34.3	-35.5	19.6	0.00e+00	0	59	0	2296381440	39	4292
2026-01-08 12:44:44.44	288.58	45.44	-34.4	-35.6	19.4	0.00e+00	0	58	0	2300575744	39	4370
2026-01-08 12:44:45.74	289.20	45.25	-34.5	-35.7	19.3	0.00e+00	0	59	0	2307915776	39	4399
2026-01-08 12:44:46.46	289.55	45.15	-34.4	-35.6	19.4	0.00e+00	0	59	0	2312110080	39	4358
2026-01-08 12:44:47.75	290.16	44.96	-34.3	-35.4	19.6	0.00e+00	0	59	0	2319450112	39	4289
2026-01-08 12:44:48.47	290.50	44.85	-34.3	-35.5	19.5	0.00e+00	0	59	0	2323644416	39	4292
2026-01-08 12:44:49.77	291.11	44.65	-34.2	-35.4	19.6	0.00e+00	0	59	0	2330984448	39	4261
2026-01-08 12:44:50.49	291.44	44.54	-34.1	-35.2	19.7	0.00e+00	0	59	0	2334130176	39	4186
2026-01-08 12:44:51.79	292.03	44.34	-34.0	-35.1	19.8	0.00e+00	0	59	0	2341470208	39	4142
2026-01-08 12:44:52.51	292.36	44.23	-34.1	-35.3	19.7	0.00e+00	0	59	0	2345664512	39	4218
2026-01-08 12:44:53.81	292.94	44.03	-34.6	-35.9	19.2	0.00e+00	0	59	0	2353004544	39	4495
2026-01-08 12:44:54.53	293.26	43.91	-34.7	-36.0	19.0	0.00e+00	0	59	0	2357198848	39	4572
2026-01-08 12:44:55.83	293.83	43.71	-34.5	-35.8	19.2	0.00e+00	0	58	0	2364538880	40	4197
2026-01-08 12:44:56.55	294.14	43.59	-34.3	-35.5	19.4	0.00e+00	0	59	0	2368733184	40	4094
2026-01-08 12:44:57.85	294.70	43.38	-34.1	-35.3	19.6	0.00e+00	0	58	0	2376073216	40	3971
2026-01-08 12:44:58.57	295.01	43.26	-34.1	-35.2	19.7	0.00e+00	0	58	0	2380267520	40	3945
2026-01-08 12:44:59.87	295.56	43.05	-34.2	-35.4	19.5	0.00e+00	0	58	0	2387607552	40	4050
2026-01-08 12:45:00.59	295.86	42.93	-34.4	-35.6	19.3	0.00e+00	0	59	0	2391801856	40	4120
2026-01-08 12:45:01.89	296.40	42.72	-34.4	-35.7	19.3	0.00e+00	0	59	0	2398093312	40	4149
2026-01-08 12:45:02.61	296.69	42.60	-34.4	-35.7	19.3	0.00e+00	0	58	0	2403336192	40	4147
2026-01-08 12:45:03.91	297.22	42.38	-34.2	-35.3	19.6	0.00e+00	0	59	0	2409627648	40	3999
2026-01-08 12:45:04.63	297.51	42.26	-34.1	-35.2	19.7	0.00e+00	0	59	0	2413821952	40	3958
2026-01-08 12:45:05.93	298.02	42.04	-34.1	-35.3	19.6	0.00e+00	0	58	0	2421161984	40	3965
2026-01-08 12:45:06.65	298.31	41.92	-34.2	-35.4	19.6	0.00e+00	0	59	0	2425356288	40	4016
2026-01-08 12:45:07.95	298.81	41.70	-34.3	-35.5	19.4	0.00e+00	0	59	0	2432696320	40	4069
2026-01-08 12:45:08.67	299.09	41.58	-34.3	-35.5	19.4	0.00e+00	0	59	0	2436890624	40	4090
2026-01-08 12:45:09.97	299.58	41.35	-34.1	-35.3	19.6	0.00e+00	0	59	0	2444230656	40	3971
2026-01-08 12:45:10.69	299.85	41.23	-34.0	-35.1	19.8	0.00e+00	0	59	0	2448424960	40	3911
2026-01-08 12:45:11.99	300.34	41.01	-34.0	-35.1	19.8	0.00e+00	0	59	0	2455764992	39	4138
2026-01-08 12:45:12.71	300.60	40.88	-34.0	-35.1	19.8	0.00e+00	0	59	0	2459959296	39	4134
2026-01-08 12:45:14.01	301.08	40.66	-34.0	-35.1	19.9	0.00e+00	0	59	0	2467299328	39	4126
2026-01-08 12:45:14.73	301.34	40.53	-33.9	-35.0	19.9	0.00e+00	0	59	0	2470445056	39	4086
2026-01-08 12:45:16.03	301.80	40.30	-33.8	-35.0	20.0	0.00e+00	0	58	0	2477785088	39	4063
2026-01-08 12:45:16.75	302.05	40.18	-33.9	-35.0	19.9	0.00e+00	0	59	0	2481979392	39	4097
2026-01-08 12:45:18.05	302.51	39.95	-34.0	-35.2	19.8	0.00e+00	0	59	0	2489319424	39	4160
2026-01-08 12:45:18.77	302.76	39.83	-34.0	-35.2	19.8	0.00e+00	0	59	0	2493513728	39	4165
2026-01-08 12:45:20.07	303.20	39.60	-33.9	-35.1	19.8	0.00e+00	0	59	0	2500853760	39	4126
2026-01-08 12:45:20.80	303.45	39.47	-33.9	-35.0	20.0	0.00e+00	0	59	0	2505048064	39	4076
2026-01-08 12:45:22.09	303.88	39.24	-33.8	-34.9	20.0	0.00e+00	0	59	0	2512388096	39	4038
2026-01-08 12:45:22.82	304.12	39.12	-33.8	-34.9	20.0	0.00e+00	0	59	0	2516582400	39	4044
2026-01-08 12:45:24.12	304.54	38.89	-33.8	-34.9	20.0	0.00e+00	0	59	0	2523922432	39	4043
2026-01-08 12:45:24.84	304.78	38.76	-33.8	-34.9	20.1	0.00e+00	0	59	0	2528116736	39	4023
2026-01-08 12:45:26.14	305.19	38.53	-33.7	-34.8	20.1	0.00e+00	0	58	0	2535456768	39	3997
2026-01-08 12:45:26.86	305.42	38.40	-33.7	-34.9	20.1	0.00e+00	0	59	0	2539651072	39	4008
2026-01-08 12:45:28.16	305.83	38.18	-33.7	-34.9	20.1	0.00e+00	0	59	0	2546991104	39	4024
2026-01-08 12:45:28.88	306.05	38.05	-33.7	-34.9	20.1	0.00e+00	0	59	0	2550136832	39	4010
2026-01-08 12:45:30.18	306.45	37.82	-33.7	-34.8	20.1	0.00e+00	0	59	0	2557476864	39	3993
2026-01-08 12:45:30.90	306.67	37.69	-33.7	-34.8	20.1	0.00e+00	0	59	0	2561671168	39	3998
2026-01-08 12:45:32.20	307.06	37.46	-33.8	-34.9	20.0	0.00e+00	0	59	0	2569011200	39	4045
2026-01-08 12:45:32.92	307.27	37.34	-33.9	-35.0	19.9	0.00e+00	0	58	0	2573205504	39	4098
2026-01-08 12:45:34.22	307.66	37.11	-34.0	-35.2	19.8	0.00e+00	0	58	0	2580545536	39	4165
2026-01-08 12:45:34.94	307.87	36.98	-34.0	-35.2	19.7	0.00e+00	0	59	0	2584739840	39	4171
2026-01-08 12:45:36.24	308.24	36.75	-34.0	-35.2	19.7	0.00e+00	0	59	0	2592079872	39	4186
2026-01-08 12:45:36.96	308.44	36.63	-34.0	-35.2	19.7	0.00e+00	0	59	0	2596274176	39	4186
2026-01-08 12:45:38.26	308.81	36.40	-34.0	-35.2	19.8	0.00e+00	0	59	0	2603614208	39	4156
2026-01-08 12:45:38.99	309.01	36.27	-33.9	-35.1	19.8	0.00e+00	0	59	0	2607808512	39	4121
2026-01-08 12:45:40.29	309.37	36.05	-33.9	-35.0	19.9	0.00e+00	0	59	0	2614099968	39	4090
2026-01-08 12:45:41.01	309.57	35.92	-33.9	-35.0	19.9	0.00e+00	0	59	0	2619342848	39	4077
2026-01-08 12:45:42.31	309.92	35.69	-33.8	-35.0	19.9	0.00e+00	0	59	0	2625634304	39	4070
2026-01-08 12:45:43.03	310.11	35.57	-33.9	-35.1	19.8	0.00e+00	0	59	0	2629828608	39	4122
2026-01-08 12:45:44.33	310.45	35.34	-34.1	-35.3	19.6	0.00e+00	0	59	0	2637168640	39	4206
2026-01-08 12:45:45.05	310.64	35.22	-34.1	-35.3	19.6	0.00e+00	0	59	0	2641362944	39	4232
2026-01-08 12:45:46.35	310.98	34.99	-34.1	-35.3	19.6	0.00e+00	0	59	0	2648702976	39	4234
2026-01-08 12:45:47.07	311.16	34.87	-34.1	-35.3	19.6	0.00e+00	0	59	0	2652897280	39	4216
2026-01-08 12:45:48.37	311.49	34.64	-34.0	-35.2	19.8	0.00e+00	0	59	0	2660237312	39	4164
2026-01-08 12:45:49.09	311.67	34.52	-34.0	-35.1	19.8	0.00e+00	0	59	0	2664431616	39	4139
2026-01-08 12:45:50.39	311.99	34.30	-33.9	-35.1	19.8	0.00e+00	0	58	0	2671771648	39	4117
2026-01-08 12:45:51.11	312.17	34.17	-34.0	-35.1	19.8	0.00e+00	0	59	0	2675965952	39	4143
2026-01-08 12:45:52.41	312.49	33.95	-34.0	-35.2	19.8	0.00e+00	0	59	0	2683305984	39	4154
2026-01-08 12:45:53.13	312.66	33.83	-34.0	-35.2	19.7	0.00e+00	0	59	0	2686451712	39	4163
2026-01-08 12:45:54.42	312.96	33.61	-34.0	-35.2	19.7	0.00e+00	0	59	0	2693791744	39	4159
2026-01-08 12:45:55.15	313.14	33.49	-34.0	-35.2	19.7	0.00e+00	0	59	0	2697986048	39	4150
2026-01-08 12:45:56.44	313.44	33.27	-34.0	-35.2	19.7	0.00e+00	0	59	0	2705326080	39	4159
2026-01-08 12:45:57.16	313.60	33.15	-34.0	-35.2	19.7	0.00e+00	0	59	0	2709520384	39	4172
2026-01-08 12:45:58.46	313.90	32.93	-34.1	-35.3	19.6	0.00e+00	0	59	0	2716860416	39	4215
2026-01-08 12:45:59.18	314.06	32.81	-34.1	-35.3	19.6	0.00e+00	0	59	0	2721054720	39	4232
2026-01-08 12:46:00.48	314.35	32.59	-34.2	-35.4	19.6	0.00e+00	0	59	0	2728394752	39	4258
2026-01-08 12:46:01.20	314.51	32.47	-34.2	-35.4	19.5	0.00e+00	0	58	0	2732589056	39	4283
2026-01-08 12:46:02.50	314.80	32.25	-34.3	-35.5	19.4	0.00e+00	0	59	0	2739929088	39	4311
2026-01-08 12:46:03.22	314.95	32.13	-34.4	-35.6	19.4	0.00e+00	0	58	0	2744123392	39	4348
2026-01-08 12:46:04.52	315.23	31.92	-34.3	-35.5	19.4	0.00e+00	0	59	0	2751463424	39	4323
2026-01-08 12:46:05.24	315.38	31.80	-34.3	-35.5	19.4	0.00e+00	0	59	0	2755657728	39	4313
2026-01-08 12:46:06.54	315.66	31.59	-34.3	-35.4	19.5	0.00e+00	0	59	0	2761949184	39	4290
2026-01-08 12:46:07.26	315.81	31.47	-34.3	-35.4	19.5	0.00e+00	0	59	0	2766143488	39	4287
2026-01-08 12:46:08.56	316.08	31.26	-34.3	-35.4	19.4	0.00e+00	0	59	0	2773483520	39	4291
2026-01-08 12:46:09.29	316.23	31.14	-34.3	-35.5	19.4	0.00e+00	0	59	0	2777677824	39	4296
2026-01-08 12:46:10.58	316.49	30.93	-34.3	-35.5	19.4	0.00e+00	0	59	0	2785017856	39	4301
2026-01-08 12:46:11.31	316.63	30.81	-34.3	-35.5	19.4	0.00e+00	0	59	0	2789212160	39	4325
2026-01-08 12:46:12.60	316.89	30.60	-34.2	-35.4	19.5	0.00e+00	0	59	0	2796552192	39	4288
2026-01-08 12:46:13.33	317.03	30.48	-34.2	-35.4	19.5	0.00e+00	0	59	0	2800746496	39	4258
2026-01-08 12:46:14.62	317.28	30.28	-34.2	-35.3	19.5	0.00e+00	0	59	0	2808086528	39	4240
2026-01-08 12:46:15.35	317.42	30.16	-34.1	-35.3	19.6	0.00e+00	0	59	0	2812280832	39	4216
2026-01-08 12:46:16.65	317.67	29.95	-34.1	-35.3	19.6	0.00e+00	0	59	0	2819620864	39	4195
2026-01-08 12:46:17.37	317.81	29.84	-34.1	-35.3	19.6	0.00e+00	0	59	0	2823815168	39	4206
2026-01-08 12:46:18.66	318.05	29.64	-34.1	-35.3	19.5	0.00e+00	0	59	0	2830106624	39	4233
2026-01-08 12:46:19.39	318.18	29.52	-34.2	-35.4	19.5	0.00e+00	0	59	0	2834300928	39	4250
2026-01-08 12:46:20.68	318.42	29.32	-34.2	-35.5	19.4	0.00e+00	0	59	0	2841640960	39	4292
2026-01-08 12:46:21.41	318.55	29.21	-34.3	-35.5	19.3	0.00e+00	0	59	0	2845835264	39	4321
2026-01-08 12:46:22.71	318.78	29.00	-34.4	-35.7	19.2	0.00e+00	0	59	0	2853175296	39	4410
2026-01-08 12:46:23.43	318.91	28.89	-34.4	-35.7	19.2	0.00e+00	0	59	0	2857369600	39	4408
2026-01-08 12:46:24.72	319.14	28.69	-34.6	-35.8	19.1	0.00e+00	0	59	0	2864709632	39	4476
2026-01-08 12:46:25.45	319.27	28.58	-34.5	-35.8	19.1	0.00e+00	0	59	0	2868903936	39	4456
2026-01-08 12:46:26.74	319.49	28.38	-34.5	-35.8	19.1	0.00e+00	0	59	0	2876243968	39	4450
2026-01-08 12:46:27.46	319.61	28.27	-34.5	-35.7	19.2	0.00e+00	0	59	0	2880438272	39	4423
2026-01-08 12:46:28.76	319.84	28.07	-34.4	-35.6	19.2	0.00e+00	0	59	0	2887778304	39	4361
2026-01-08 12:46:29.48	319.96	27.97	-34.3	-35.5	19.3	0.00e+00	0	59	0	2890924032	39	4337
2026-01-08 12:46:30.78	320.17	27.77	-34.2	-35.4	19.4	0.00e+00	0	59	0	2898264064	39	4286
2026-01-08 12:46:31.50	320.29	27.66	-34.2	-35.4	19.4	0.00e+00	0	59	0	2902458368	39	4256
2026-01-08 12:46:32.80	320.51	27.47	-34.2	-35.3	19.5	0.00e+00	0	59	0	2909798400	39	4236
2026-01-08 12:46:33.52	320.62	27.36	-34.1	-35.3	19.5	0.00e+00	0	59	0	2913992704	39	4234
2026-01-08 12:46:34.82	320.83	27.17	-34.2	-35.3	19.5	0.00e+00	0	59	0	2921332736	39	4241
2026-01-08 12:46:35.54	320.95	27.06	-34.2	-35.4	19.4	0.00e+00	0	59	0	2925527040	39	4256
2026-01-08 12:46:36.84	321.15	26.87	-34.2	-35.4	19.4	0.00e+00	0	59	0	2932867072	39	4270
2026-01-08 12:46:37.56	321.26	26.76	-34.2	-35.4	19.4	0.00e+00	0	59	0	2937061376	39	4269
2026-01-08 12:46:38.86	321.46	26.57	-34.3	-35.5	19.3	0.00e+00	0	59	0	2944401408	39	4311
2026-01-08 12:46:39.58	321.58	26.47	-34.3	-35.5	19.3	0.00e+00	0	59	0	2948595712	39	4329
2026-01-08 12:46:40.88	321.77	26.28	-34.4	-35.6	19.2	0.00e+00	0	59	0	2955935744	39	4369
2026-01-08 12:46:41.60	321.88	26.17	-34.4	-35.6	19.2	0.00e+00	0	59	0	2960130048	39	4377
2026-01-08 12:46:42.90	322.08	25.99	-34.4	-35.7	19.1	0.00e+00	0	59	0	2967470080	39	4412
2026-01-08 12:46:43.62	322.18	25.88	-34.5	-35.7	19.1	0.00e+00	0	59	0	2970615808	39	4425
2026-01-08 12:46:44.92	322.37	25.70	-34.5	-35.8	19.1	0.00e+00	0	59	0	2977955840	39	4450
2026-01-08 12:46:45.64	322.48	25.60	-34.6	-35.8	19.0	0.00e+00	0	59	0	2982150144	39	4478
2026-01-08 12:46:46.94	322.67	25.41	-34.6	-35.8	19.0	0.00e+00	0	59	0	2989490176	39	4469
2026-01-08 12:46:47.66	322.77	25.31	-34.5	-35.8	19.0	0.00e+00	0	59	0	2993684480	39	4462
2026-01-08 12:46:48.96	322.95	25.13	-34.5	-35.7	19.1	0.00e+00	0	59	0	3001024512	39	4413
2026-01-08 12:46:49.68	323.06	25.03	-34.5	-35.7	19.0	0.00e+00	0	59	0	3005218816	39	4430
2026-01-08 12:46:50.98	323.24	24.85	-34.4	-35.6	19.1	0.00e+00	0	59	0	3012558848	39	4380
2026-01-08 12:46:51.70	323.34	24.75	-34.4	-35.6	19.1	0.00e+00	0	59	0	3016753152	39	4378
2026-01-08 12:46:52.99	323.51	24.57	-34.4	-35.6	19.2	0.00e+00	0	59	0	3024093184	39	4375
2026-01-08 12:46:53.71	323.61	24.47	-34.4	-35.6	19.2	0.00e+00	0	59	0	3027238912	39	4377
2026-01-08 12:46:55.01	323.79	24.29	-34.5	-35.7	19.1	0.00e+00	0	59	0	3034578944	39	4408
2026-01-08 12:46:55.73	323.88	24.19	-34.5	-35.7	19.0	0.00e+00	0	59	0	3038773248	39	4431
2026-01-08 12:46:57.03	324.05	24.02	-34.7	-35.9	18.9	0.00e+00	0	59	0	3046113280	39	4526
2026-01-08 12:46:57.75	324.15	23.92	-34.7	-35.9	18.8	0.00e+00	0	59	0	3050307584	40	4278
2026-01-08 12:46:59.05	324.32	23.74	-34.8	-36.1	18.6	0.00e+00	0	59	0	3057647616	40	4344
2026-01-08 12:46:59.78	324.41	23.65	-34.8	-36.1	18.6	0.00e+00	0	59	0	3061841920	40	4363
2026-01-08 12:47:01.07	324.58	23.47	-35.0	-36.3	18.4	0.00e+00	0	59	0	3069181952	40	4446
2026-01-08 12:47:01.79	324.67	23.38	-35.0	-36.3	18.4	0.00e+00	0	59	0	3073376256	40	4480
2026-01-08 12:47:03.09	324.83	23.20	-35.0	-36.4	18.3	0.00e+00	0	59	0	3080716288	40	4503
2026-01-08 12:47:03.81	324.92	23.11	-35.0	-36.4	18.3	0.00e+00	0	59	0	3084910592	40	4504
2026-01-08 12:47:05.11	325.08	22.94	-35.1	-36.4	18.3	0.00e+00	0	59	0	3092250624	40	4517
2026-01-08 12:47:05.83	325.17	22.84	-35.0	-36.3	18.3	0.00e+00	0	59	0	3095396352	40	4492
2026-01-08 12:47:07.13	325.33	22.68	-35.0	-36.3	18.3	0.00e+00	0	59	0	3102736384	40	4483
2026-01-08 12:47:07.85	325.42	22.58	-35.0	-36.3	18.3	0.00e+00	0	59	0	3106930688	40	4485
2026-01-08 12:47:09.15	325.57	22.41	-35.0	-36.3	18.4	0.00e+00	0	59	0	3114270720	40	4462
2026-01-08 12:47:09.87	325.66	22.32	-34.9	-36.2	18.4	0.00e+00	0	59	0	3118465024	40	4433
2026-01-08 12:47:11.17	325.81	22.15	-35.0	-36.3	18.4	0.00e+00	0	59	0	3125805056	40	4444
2026-01-08 12:47:11.89	325.90	22.06	-35.0	-36.3	18.4	0.00e+00	0	59	0	3129999360	40	4443
2026-01-08 12:47:13.19	326.05	21.90	-35.0	-36.3	18.3	0.00e+00	0	59	0	3137339392	40	4470
2026-01-08 12:47:13.91	326.13	21.81	-35.0	-36.3	18.3	0.00e+00	0	59	0	3141533696	40	4483
2026-01-08 12:47:15.21	326.28	21.64	-35.1	-36.4	18.2	0.00e+00	0	59	0	3148873728	40	4528
2026-01-08 12:47:15.93	326.36	21.55	-35.1	-36.4	18.2	0.00e+00	0	59	0	3153068032	40	4539
2026-01-08 12:47:17.23	326.51	21.39	-35.2	-36.5	18.1	0.00e+00	0	59	0	3160408064	40	4580
2026-01-08 12:47:17.95	326.59	21.30	-35.2	-36.5	18.1	0.00e+00	0	59	0	3164602368	40	4585
2026-01-08 12:47:19.25	326.73	21.14	-35.2	-36.5	18.1	0.00e+00	0	59	0	3171942400	40	4574
2026-01-08 12:47:19.97	326.81	21.05	-35.2	-36.6	18.1	0.00e+00	0	59	0	3175088128	41	4342
2026-01-08 12:47:21.26	326.95	20.89	-35.2	-36.5	18.1	0.00e+00	0	59	0	3182428160	41	4330
2026-01-08 12:47:21.99	327.03	20.80	-35.2	-36.6	18.0	0.00e+00	0	59	0	3186622464	41	4350
2026-01-08 12:47:23.29	327.17	20.64	-35.1	-36.4	18.1	0.00e+00	0	59	0	3193962496	41	4290
2026-01-08 12:47:24.01	327.25	20.56	-35.2	-36.5	18.1	0.00e+00	0	59	0	3198156800	41	4328
2026-01-08 12:47:25.30	327.38	20.40	-35.2	-36.5	18.1	0.00e+00	0	59	0	3205496832	41	4310
2026-01-08 12:47:26.03	327.46	20.31	-35.2	-36.5	18.1	0.00e+00	0	59	0	3209691136	41	4315
2026-01-08 12:47:27.32	327.59	20.16	-35.2	-36.5	18.1	0.00e+00	0	59	0	3217031168	41	4322
2026-01-08 12:47:28.04	327.67	20.07	-35.2	-36.5	18.0	0.00e+00	0	59	0	3221225472	41	4332
2026-01-08 12:47:29.34	327.80	19.92	-35.3	-36.6	18.0	0.00e+00	0	59	0	3227516928	41	4374
2026-01-08 12:47:30.06	327.88	19.83	-35.3	-36.6	18.0	0.00e+00	0	59	0	3231711232	41	4376
2026-01-08 12:47:31.36	328.01	19.68	-35.4	-36.8	17.8	0.00e+00	0	59	0	3239051264	41	4450
2026-01-08 12:47:32.08	328.08	19.59	-35.5	-36.8	17.7	0.00e+00	0	59	0	3243245568	41	4483
2026-01-08 12:47:33.38	328.21	19.44	-35.5	-36.9	17.7	0.00e+00	0	59	0	3250585600	41	4520
2026-01-08 12:47:34.10	328.28	19.36	-35.6	-37.0	17.6	0.00e+00	0	59	0	3254779904	41	4564
2026-01-08 12:47:35.40	328.41	19.21	-35.7	-37.1	17.5	0.00e+00	0	59	0	3262119936	41	4613
2026-01-08 12:47:36.12	328.48	19.12	-35.8	-37.2	17.4	0.00e+00	0	59	0	3266314240	42	4410
2026-01-08 12:47:37.42	328.60	18.97	-35.9	-37.3	17.3	0.00e+00	0	59	0	3273654272	42	4467
2026-01-08 12:47:38.14	328.67	18.89	-35.8	-37.3	17.3	0.00e+00	0	59	0	3277848576	42	4457
2026-01-08 12:47:39.45	328.80	18.74	-35.9	-37.3	17.2	0.00e+00	0	59	0	3285188608	42	4477
2026-01-08 12:47:40.17	328.87	18.66	-35.9	-37.4	17.2	0.00e+00	0	59	0	3289382912	42	4521
2026-01-08 12:47:41.46	328.99	18.51	-35.9	-37.3	17.2	0.00e+00	0	59	0	3296722944	42	4491
2026-01-08 12:47:42.19	329.05	18.43	-35.9	-37.4	17.2	0.00e+00	0	59	0	3299868672	42	4511
2026-01-08 12:47:43.48	329.17	18.29	-35.9	-37.4	17.2	0.00e+00	0	59	0	3307208704	42	4501
2026-01-08 12:47:44.21	329.24	18.21	-35.9	-37.3	17.2	0.00e+00	0	59	0	3311403008	42	4483
2026-01-08 12:47:45.50	329.36	18.06	-35.9	-37.4	17.1	0.00e+00	0	59	0	3318743040	42	4517
2026-01-08 12:47:46.22	329.42	17.98	-35.9	-37.3	17.2	0.00e+00	0	59	0	3322937344	42	4488
2026-01-08 12:47:47.52	329.54	17.84	-35.9	-37.3	17.2	0.00e+00	0	59	0	3330277376	42	4471
2026-01-08 12:47:48.24	329.61	17.76	-35.8	-37.2	17.3	0.00e+00	0	59	0	3334471680	42	4433
2026-01-08 12:47:49.54	329.72	17.62	-35.8	-37.2	17.3	0.00e+00	0	59	0	3341811712	42	4431
2026-01-08 12:47:50.26	329.78	17.54	-35.8	-37.3	17.2	0.00e+00	0	59	0	3346006016	42	4444
2026-01-08 12:47:51.56	329.90	17.40	-35.9	-37.3	17.2	0.00e+00	0	59	0	3353346048	42	4473
2026-01-08 12:47:52.28	329.96	17.32	-35.8	-37.2	17.3	0.00e+00	0	59	0	3357540352	42	4424
2026-01-08 12:47:53.57	330.07	17.18	-35.9	-37.4	17.1	0.00e+00	0	59	0	3364880384	42	4498
2026-01-08 12:47:54.30	330.14	17.10	-35.9	-37.3	17.2	0.00e+00	0	59	0	3369074688	42	4473
2026-01-08 12:47:55.59	330.25	16.96	-35.9	-37.4	17.1	0.00e+00	0	59	0	3376414720	42	4499
2026-01-08 12:47:56.32	330.31	16.88	-36.0	-37.5	17.0	0.00e+00	0	59	0	3379560448	42	4560
2026-01-08 12:47:57.62	330.42	16.75	-36.1	-37.6	16.9	0.00e+00	0	59	0	3386900480	42	4611
2026-01-08 12:47:58.34	330.48	16.67	-36.2	-37.7	16.8	0.00e+00	0	59	0	3391094784	42	4667
2026-01-08 12:47:59.63	330.58	16.53	-36.2	-37.7	16.8	0.00e+00	0	59	0	3398434816	42	4674
2026-01-08 12:48:00.35	330.64	16.46	-36.3	-37.8	16.7	0.00e+00	0	59	0	3402629120	43	4446
2026-01-08 12:48:01.65	330.75	16.32	-36.3	-37.8	16.6	0.00e+00	0	59	0	3409969152	43	4490
2026-01-08 12:48:02.37	330.81	16.25	-36.4	-37.9	16.5	0.00e+00	0	59	0	3414163456	43	4521
2026-01-08 12:48:03.67	330.91	16.11	-36.4	-38.0	16.4	0.00e+00	0	59	0	3421503488	43	4559
2026-01-08 12:48:04.39	330.97	16.04	-36.4	-38.0	16.4	0.00e+00	0	59	0	3424649216	43	4579
2026-01-08 12:48:05.69	331.07	15.90	-36.5	-38.0	16.4	0.00e+00	0	59	0	3431989248	43	4583
2026-01-08 12:48:06.41	331.13	15.83	-36.5	-38.0	16.4	0.00e+00	0	59	0	3436183552	43	4596
2026-01-08 12:48:07.71	331.23	15.70	-36.5	-38.0	16.3	0.00e+00	0	59	0	3443523584	43	4595
2026-01-08 12:48:08.43	331.29	15.62	-36.5	-38.1	16.3	0.00e+00	0	59	0	3447717888	43	4604
2026-01-08 12:48:09.73	331.39	15.49	-36.5	-38.1	16.3	0.00e+00	0	59	0	3455057920	43	4638
2026-01-08 12:48:10.45	331.45	15.42	-36.6	-38.2	16.2	0.00e+00	0	59	0	3459252224	43	4656
2026-01-08 12:48:11.75	331.55	15.29	-36.5	-38.1	16.3	0.00e+00	0	59	0	3466592256	43	4621
2026-01-08 12:48:12.47	331.60	15.21	-36.5	-38.1	16.3	0.00e+00	0	59	0	3470786560	43	4602
2026-01-08 12:48:13.77	331.70	15.08	-36.6	-38.1	16.2	0.00e+00	0	59	0	3478126592	43	4645
2026-01-08 12:48:14.49	331.75	15.01	-36.5	-38.1	16.2	0.00e+00	0	59	0	3482320896	43	4643
2026-01-08 12:48:15.79	331.85	14.88	-36.5	-38.1	16.2	0.00e+00	0	59	0	3489660928	43	4639
2026-01-08 12:48:16.51	331.90	14.81	-36.5	-38.1	16.2	0.00e+00	0	59	0	3493855232	43	4635
2026-01-08 12:48:17.80	332.00	14.69	-36.6	-38.2	16.1	0.00e+00	0	59	0	3501195264	43	4670
2026-01-08 12:48:18.52	332.05	14.61	-36.7	-38.3	16.0	0.00e+00	0	59	0	3504340992	43	4728
2026-01-08 12:48:19.82	332.15	14.49	-36.7	-38.3	16.0	0.00e+00	0	59	0	3511681024	43	4751
2026-01-08 12:48:20.54	332.20	14.42	-36.7	-38.3	16.0	0.00e+00	0	59	0	3515875328	43	4735
2026-01-08 12:48:21.84	332.29	14.29	-36.9	-38.6	15.9	0.00e+00	0	59	0	3523215360	44	4613
2026-01-08 12:48:22.56	332.34	14.22	-36.9	-38.5	15.9	0.00e+00	0	59	0	3527409664	44	4592
2026-01-08 12:48:23.86	332.44	14.10	-36.9	-38.6	15.9	0.00e+00	0	59	0	3534749696	44	4607
