passes_logs/2026/01/08/R2.0S_Moscow/R2.0S_Moscow__20260108_043221_FENGYUN_3E_rec.log

#Pass ID: 20260108_043221_FENGYUN 3E
#Satellite: FENGYUN 3E
#Configuration: FENGYUN 3E
#almurnet v.1.7.20251203
#Start time: 2026-01-08 04:32:21

#Version: 2.2.20231116
#Station: R2.0S_Moscow
#Location: 37.707566 lon 55.798166 lat
#TLE: 1 49008U 21062A   26006.26767912  .00000427  00000+0  22170-3 0  9993
#TLE: 2 49008  98.7475  11.4982 0001602 156.1158 204.0093 14.19885456233607

#Time	Az	El	Level	Level2	SNR	BER	BlckErr	Temp	State	Recorded	gain1	gain2
2026-01-08 04:32:21.27	13.73	1.99	-42.4	-53.3	3.8	8.46e-01	0	52	0	0	55	12609
2026-01-08 04:32:22.27	13.71	2.06	-42.5	-53.4	3.8	8.46e-01	0	52	104	0	56	12092
2026-01-08 04:32:23.28	13.68	2.12	-42.5	-53.4	3.8	8.47e-01	0	52	104	0	56	12056
2026-01-08 04:32:24.29	13.66	2.18	-42.5	-53.4	3.8	8.46e-01	0	52	104	0	56	12090
2026-01-08 04:32:25.30	13.64	2.25	-42.5	-53.5	3.8	8.46e-01	0	52	104	0	56	12105
2026-01-08 04:32:26.31	13.62	2.31	-42.5	-53.4	3.8	8.47e-01	0	53	104	0	56	12094
2026-01-08 04:32:27.32	13.59	2.38	-42.5	-53.5	3.8	8.46e-01	0	52	104	0	56	12098
2026-01-08 04:32:28.33	13.57	2.44	-42.5	-53.4	3.8	8.46e-01	0	53	104	0	56	12062
2026-01-08 04:32:29.34	13.55	2.50	-42.5	-53.4	3.8	8.45e-01	0	53	104	0	56	12073
2026-01-08 04:32:30.35	13.53	2.57	-42.5	-53.5	3.8	8.46e-01	0	53	104	0	56	12096
2026-01-08 04:32:31.36	13.50	2.63	-42.5	-53.5	3.8	8.48e-01	0	53	104	0	56	12109
2026-01-08 04:32:32.37	13.48	2.70	-42.5	-53.4	3.8	8.46e-01	0	53	104	0	56	12088
2026-01-08 04:32:33.38	13.46	2.76	-42.5	-53.4	3.8	8.46e-01	0	53	104	0	56	12079
2026-01-08 04:32:34.39	13.43	2.83	-42.5	-53.4	3.8	8.46e-01	0	53	104	0	56	12036
2026-01-08 04:32:35.40	13.41	2.89	-42.5	-53.4	3.8	8.45e-01	0	53	104	0	56	12058
2026-01-08 04:32:36.41	13.39	2.96	-42.5	-53.4	3.8	8.46e-01	0	53	104	0	56	12071
2026-01-08 04:32:37.42	13.36	3.03	-42.5	-53.4	3.8	8.46e-01	0	53	104	0	56	12018
2026-01-08 04:32:38.43	13.34	3.09	-42.5	-53.4	3.8	8.45e-01	0	53	104	0	56	12054
2026-01-08 04:32:39.44	13.32	3.16	-42.5	-53.4	3.8	8.45e-01	0	53	104	0	56	12014
2026-01-08 04:32:40.45	13.29	3.22	-42.5	-53.4	3.8	8.46e-01	0	53	104	0	56	12066
2026-01-08 04:32:41.46	13.27	3.29	-42.5	-53.4	3.8	8.46e-01	0	53	104	0	56	12033
2026-01-08 04:32:42.47	13.24	3.36	-42.5	-53.4	3.8	8.46e-01	0	53	104	0	56	12008
2026-01-08 04:32:43.49	13.22	3.42	-42.5	-53.4	3.8	8.46e-01	0	53	104	0	56	12029
2026-01-08 04:32:44.50	13.19	3.49	-42.5	-53.4	3.8	8.46e-01	0	53	104	0	56	11959
2026-01-08 04:32:45.51	13.17	3.56	-42.5	-53.3	3.8	8.47e-01	0	53	104	0	56	11945
2026-01-08 04:32:46.52	13.14	3.63	-42.5	-53.2	3.8	8.47e-01	0	53	104	0	56	11777
2026-01-08 04:32:47.53	13.12	3.69	-42.5	-53.2	3.8	8.46e-01	0	53	104	0	56	11696
2026-01-08 04:32:48.54	13.09	3.76	-42.3	-53.0	3.8	8.46e-01	0	53	104	0	55	12097
2026-01-08 04:32:49.55	13.07	3.83	-42.3	-52.9	3.8	8.46e-01	0	53	104	0	55	12046
2026-01-08 04:32:50.56	13.04	3.90	-42.3	-53.0	3.8	8.47e-01	0	53	104	0	55	12145
2026-01-08 04:32:51.57	13.02	3.96	-42.3	-53.0	3.8	8.45e-01	0	54	104	0	55	12212
2026-01-08 04:32:52.58	12.99	4.03	-42.3	-53.1	3.8	8.47e-01	0	53	104	0	55	12245
2026-01-08 04:32:53.59	12.97	4.10	-42.3	-53.0	3.8	8.46e-01	0	53	104	0	55	12205
2026-01-08 04:32:54.60	12.94	4.17	-42.3	-53.0	3.8	8.46e-01	0	54	104	0	55	12162
2026-01-08 04:32:55.61	12.91	4.24	-42.3	-52.9	3.8	8.46e-01	0	54	104	0	55	12072
2026-01-08 04:32:56.62	12.89	4.31	-42.3	-53.0	3.8	8.45e-01	0	54	104	0	55	12108
2026-01-08 04:32:57.63	12.86	4.38	-42.3	-52.9	3.8	8.46e-01	0	54	104	0	55	12030
2026-01-08 04:32:58.64	12.83	4.44	-42.3	-52.8	3.8	8.46e-01	0	54	104	0	55	11918
2026-01-08 04:32:59.65	12.81	4.51	-42.3	-52.6	3.8	8.46e-01	0	54	104	0	55	11603
2026-01-08 04:33:00.66	12.78	4.58	-42.3	-52.5	3.8	8.46e-01	0	54	104	0	55	11544
2026-01-08 04:33:01.67	12.75	4.65	-42.2	-52.4	3.8	8.46e-01	0	54	104	0	55	11295
2026-01-08 04:33:02.68	12.73	4.72	-42.2	-52.1	3.8	8.46e-01	0	54	104	0	55	10971
2026-01-08 04:33:03.69	12.70	4.79	-42.2	-52.0	3.8	8.46e-01	0	54	104	0	55	10796
2026-01-08 04:33:04.70	12.67	4.86	-42.2	-51.8	3.8	8.47e-01	0	54	104	0	55	10570
2026-01-08 04:33:05.71	12.64	4.93	-42.1	-51.5	3.8	8.45e-01	0	54	104	0	55	10288
2026-01-08 04:33:06.72	12.62	5.00	-42.1	-51.3	3.8	8.45e-01	0	54	104	0	55	10000
2026-01-08 04:33:07.73	12.59	5.07	-42.1	-51.2	3.9	8.45e-01	0	54	104	0	55	9931
2026-01-08 04:33:08.74	12.56	5.15	-42.1	-51.1	3.8	8.45e-01	0	54	104	0	55	9732
2026-01-08 04:33:09.75	12.53	5.22	-42.0	-51.0	3.9	8.44e-01	0	54	104	0	55	9607
2026-01-08 04:33:10.76	12.50	5.29	-42.0	-51.0	3.8	8.44e-01	0	54	104	0	55	9693
2026-01-08 04:33:11.77	12.48	5.36	-42.0	-51.0	3.8	8.45e-01	0	54	104	0	55	9669
2026-01-08 04:33:12.78	12.45	5.43	-42.1	-51.0	3.8	8.44e-01	0	54	104	0	55	9659
2026-01-08 04:33:13.79	12.42	5.50	-42.0	-50.8	4.0	8.45e-01	0	54	104	0	55	9473
2026-01-08 04:33:14.81	12.39	5.58	-42.0	-50.8	3.9	8.43e-01	0	54	104	0	55	9449
2026-01-08 04:33:15.82	12.36	5.65	-42.0	-50.8	3.8	8.43e-01	0	54	104	0	55	9411
2026-01-08 04:33:16.83	12.33	5.72	-42.0	-50.5	4.0	8.45e-01	0	54	104	0	55	9108
2026-01-08 04:33:17.84	12.30	5.79	-42.0	-50.5	4.0	8.44e-01	0	55	104	0	55	9122
2026-01-08 04:33:18.84	12.27	5.86	-42.0	-50.7	4.0	8.43e-01	0	54	104	0	55	9290
2026-01-08 04:33:19.85	12.24	5.94	-42.1	-51.0	3.8	8.45e-01	0	54	104	0	55	9684
2026-01-08 04:33:20.86	12.21	6.01	-42.1	-51.4	3.8	8.44e-01	0	54	104	0	55	10089
2026-01-08 04:33:21.87	12.18	6.08	-42.2	-51.8	3.8	8.45e-01	0	54	104	0	55	10620
2026-01-08 04:33:22.88	12.15	6.16	-42.2	-52.3	3.8	8.46e-01	0	54	104	0	55	11233
2026-01-08 04:33:23.89	12.12	6.23	-42.3	-52.9	3.8	8.46e-01	0	54	104	0	55	12028
2026-01-08 04:33:24.90	12.09	6.31	-42.3	-53.2	3.8	8.47e-01	0	54	104	0	55	12463
2026-01-08 04:33:25.91	12.06	6.38	-42.3	-53.1	3.8	8.46e-01	0	55	104	0	55	12289
2026-01-08 04:33:26.92	12.03	6.45	-42.2	-52.1	3.8	8.48e-01	0	55	104	0	55	11006
2026-01-08 04:33:27.93	12.00	6.53	-42.0	-50.7	4.0	8.45e-01	0	55	104	0	55	9288
2026-01-08 04:33:28.94	11.97	6.60	-41.6	-48.8	4.5	8.28e-01	0	55	0	0	54	7900
2026-01-08 04:33:29.95	11.93	6.68	-41.2	-47.0	5.4	7.61e-01	0	55	0	0	53	6854
2026-01-08 04:33:30.96	11.90	6.75	-40.7	-45.5	6.5	2.55e-01	0	55	0	5242880	52	6110
2026-01-08 04:33:31.97	11.87	6.83	-40.2	-44.2	7.9	9.83e-02	0	55	0	12582912	51	5529
2026-01-08 04:33:32.98	11.84	6.90	-39.6	-43.0	9.1	3.09e-02	0	55	0	19922944	50	5135
2026-01-08 04:33:33.99	11.81	6.98	-39.1	-42.1	9.9	1.30e-02	0	55	0	27262976	49	4917
2026-01-08 04:33:35.00	11.77	7.06	-38.8	-41.6	10.5	4.78e-03	0	55	0	33554432	48	4897
2026-01-08 04:33:36.01	11.74	7.13	-38.3	-40.9	11.1	1.97e-03	0	55	0	40894464	47	4775
2026-01-08 04:33:37.02	11.71	7.21	-37.8	-40.3	11.8	6.82e-04	0	55	0	49283072	46	4707
2026-01-08 04:33:38.03	11.67	7.29	-37.6	-39.9	12.2	2.75e-04	0	55	0	55574528	46	4509
2026-01-08 04:33:39.04	11.64	7.36	-37.5	-39.8	12.3	2.00e-04	0	55	0	62914560	46	4451
2026-01-08 04:33:40.05	11.61	7.44	-37.4	-39.7	12.4	1.86e-04	0	55	0	70254592	45	4670
2026-01-08 04:33:41.06	11.57	7.52	-37.4	-39.6	12.4	1.69e-04	0	55	0	77594624	45	4640
2026-01-08 04:33:42.07	11.54	7.59	-37.5	-39.7	12.3	2.02e-04	0	55	0	84934656	45	4695
2026-01-08 04:33:43.08	11.51	7.67	-37.6	-39.9	12.1	2.86e-04	0	55	0	92274688	45	4806
2026-01-08 04:33:44.09	11.47	7.75	-37.8	-40.3	11.8	5.45e-04	0	55	0	99614720	45	4989
2026-01-08 04:33:45.10	11.44	7.83	-38.1	-40.7	11.3	1.17e-03	0	55	0	106954752	45	5245
2026-01-08 04:33:46.11	11.40	7.91	-38.5	-41.3	10.6	3.32e-03	0	55	0	114294784	46	5323
2026-01-08 04:33:47.12	11.37	7.99	-38.9	-41.9	10.0	6.77e-03	0	55	0	121634816	47	5373
2026-01-08 04:33:48.13	11.33	8.06	-39.2	-42.5	9.5	1.39e-02	0	55	0	128974848	47	5731
2026-01-08 04:33:49.13	11.30	8.14	-39.5	-43.2	8.6	4.39e-02	0	55	0	136314880	48	5869
2026-01-08 04:33:50.14	11.26	8.22	-39.5	-43.6	7.8	7.41e-02	0	55	0	143654912	48	6140
2026-01-08 04:33:51.16	11.22	8.30	-42.5	-51.5	3.8	8.45e-01	0	55	104	147849216	54	10841
2026-01-08 04:33:52.17	11.19	8.38	-40.8	-44.7	8.0	5.72e-02	0	55	0	152043520	51	5909
2026-01-08 04:33:53.18	11.15	8.46	-40.1	-47.2	4.6	8.23e-01	0	55	0	156237824	50	8282
2026-01-08 04:33:54.18	11.12	8.54	-39.8	-44.0	7.6	8.10e-02	0	55	0	161480704	50	5747
2026-01-08 04:33:55.19	11.08	8.62	-39.9	-44.3	7.2	9.88e-02	0	55	0	168820736	50	5958
2026-01-08 04:33:56.20	11.04	8.70	-39.9	-44.3	7.2	1.23e-01	0	55	0	176160768	50	5965
2026-01-08 04:33:57.21	11.00	8.79	-40.0	-44.3	7.3	1.15e-01	0	55	0	183500800	50	5979
2026-01-08 04:33:58.22	10.97	8.87	-39.9	-44.5	7.1	1.28e-01	0	55	0	190840832	50	6074
2026-01-08 04:33:59.23	10.93	8.95	-40.0	-44.6	7.0	1.53e-01	0	55	0	198180864	50	6139
2026-01-08 04:34:00.24	10.89	9.03	-40.1	-44.7	6.8	1.72e-01	0	56	0	205520896	50	6268
2026-01-08 04:34:01.25	10.85	9.11	-40.0	-44.8	6.7	1.96e-01	0	55	0	212860928	50	6339
2026-01-08 04:34:02.26	10.82	9.20	-40.1	-44.9	6.6	1.89e-01	0	55	0	220200960	50	6407
2026-01-08 04:34:03.27	10.78	9.28	-40.2	-45.3	6.3	2.72e-01	0	55	0	227540992	50	6693
2026-01-08 04:34:04.28	10.74	9.36	-40.4	-45.8	5.9	3.15e-01	0	55	0	234881024	50	7073
2026-01-08 04:34:05.29	10.70	9.44	-40.5	-46.1	5.7	4.87e-01	0	55	0	241172480	50	7301
2026-01-08 04:34:06.30	10.66	9.53	-40.5	-46.3	5.5	6.64e-01	0	55	0	245366784	50	7460
2026-01-08 04:34:07.31	10.62	9.61	-40.5	-46.4	5.4	7.13e-01	0	56	0	247463936	50	7629
2026-01-08 04:34:08.32	10.58	9.70	-40.7	-46.9	5.1	7.49e-01	0	56	0	249561088	50	8067
2026-01-08 04:34:09.33	10.54	9.78	-40.7	-47.2	4.9	7.76e-01	0	55	0	249561088	50	8353
2026-01-08 04:34:10.34	10.50	9.86	-40.8	-47.6	4.7	7.99e-01	0	56	0	249561088	51	8264
2026-01-08 04:34:11.35	10.46	9.95	-40.9	-48.2	4.4	8.23e-01	0	56	0	249561088	51	8817
2026-01-08 04:34:12.36	10.42	10.03	-41.0	-48.7	4.3	8.34e-01	0	56	0	249561088	51	9374
2026-01-08 04:34:13.37	10.38	10.12	-41.0	-48.9	4.2	8.37e-01	0	55	0	249561088	51	9556
2026-01-08 04:34:14.38	10.34	10.21	-40.8	-48.6	4.3	8.36e-01	0	56	0	249561088	51	9186
2026-01-08 04:34:15.39	10.29	10.29	-40.6	-48.0	4.4	8.31e-01	0	56	0	249561088	51	8589
2026-01-08 04:34:16.40	10.25	10.38	-40.4	-47.4	4.6	8.17e-01	0	56	0	249561088	51	8006
2026-01-08 04:34:17.41	10.21	10.46	-40.2	-46.9	4.8	8.03e-01	0	56	0	249561088	51	7548
2026-01-08 04:34:18.42	10.17	10.55	-40.1	-46.5	5.0	7.78e-01	0	56	0	250609664	51	7217
2026-01-08 04:34:19.42	10.12	10.64	-40.1	-45.9	5.4	7.34e-01	0	56	0	250609664	51	6795
2026-01-08 04:34:20.43	10.08	10.72	-40.1	-45.6	5.8	5.20e-01	0	56	0	254803968	51	6498
2026-01-08 04:34:21.44	10.04	10.81	-40.1	-45.4	6.0	3.53e-01	0	56	0	262144000	51	6394
2026-01-08 04:34:22.45	9.99	10.90	-40.3	-45.5	6.0	3.38e-01	0	56	0	269484032	51	6484
2026-01-08 04:34:23.46	9.95	10.99	-40.3	-45.5	6.1	3.27e-01	0	56	0	276824064	51	6475
2026-01-08 04:34:24.47	9.91	11.08	-40.3	-45.0	6.8	2.27e-01	0	56	0	284164096	51	6112
2026-01-08 04:34:25.48	9.86	11.17	-40.3	-44.4	7.7	1.09e-01	0	56	0	291504128	51	5687
2026-01-08 04:34:26.49	9.82	11.26	-40.1	-43.8	8.6	5.97e-02	0	56	0	298844160	51	5287
2026-01-08 04:34:27.50	9.77	11.34	-40.0	-43.2	9.4	1.98e-02	0	56	0	306184192	50	5271
2026-01-08 04:34:28.51	9.73	11.43	-39.6	-42.5	10.3	8.29e-03	0	56	0	312475648	50	4840
2026-01-08 04:34:29.52	9.68	11.52	-38.8	-41.2	11.6	9.06e-04	0	56	0	320864256	48	4687
2026-01-08 04:34:30.53	9.64	11.62	-37.9	-40.0	12.7	1.25e-04	0	56	0	328204288	46	4593
2026-01-08 04:34:31.54	9.59	11.71	-37.3	-39.2	13.7	6.80e-06	0	56	0	334495744	45	4404
2026-01-08 04:34:32.55	9.54	11.80	-36.7	-38.5	14.4	0.00e+00	0	56	0	341835776	44	4315
2026-01-08 04:34:33.56	9.50	11.89	-36.0	-37.6	15.2	0.00e+00	0	56	0	349175808	43	4100
2026-01-08 04:34:34.57	9.45	11.98	-35.7	-37.2	15.6	0.00e+00	0	56	0	356515840	42	4170
2026-01-08 04:34:35.58	9.40	12.07	-35.6	-37.1	15.7	0.00e+00	0	56	0	363855872	42	4115
2026-01-08 04:34:36.59	9.35	12.16	-35.5	-37.0	15.8	0.00e+00	0	56	0	371195904	42	4085
2026-01-08 04:34:37.60	9.30	12.26	-35.6	-37.1	15.9	0.00e+00	0	56	0	378535936	42	4100
2026-01-08 04:34:38.61	9.26	12.35	-35.7	-37.2	15.8	0.00e+00	0	56	0	385875968	42	4167
2026-01-08 04:34:39.62	9.21	12.44	-35.9	-37.4	15.7	0.00e+00	0	56	0	393216000	42	4244
2026-01-08 04:34:40.63	9.16	12.54	-35.9	-37.4	15.8	0.00e+00	0	56	0	400556032	42	4269
2026-01-08 04:34:41.64	9.11	12.63	-35.9	-37.4	15.8	0.00e+00	0	56	0	407896064	42	4248
2026-01-08 04:34:42.65	9.06	12.73	-35.9	-37.4	15.8	1.10e-06	0	56	0	415236096	42	4269
2026-01-08 04:34:43.65	9.01	12.82	-35.8	-37.3	16.0	0.00e+00	0	56	0	422576128	42	4201
2026-01-08 04:34:44.66	8.96	12.91	-35.9	-37.3	15.9	0.00e+00	0	56	0	429916160	42	4231
2026-01-08 04:34:45.67	8.91	13.01	-35.8	-37.3	16.0	0.00e+00	0	56	0	437256192	42	4209
2026-01-08 04:34:46.68	8.86	13.11	-35.8	-37.2	16.1	0.00e+00	0	56	0	444596224	42	4182
2026-01-08 04:34:47.69	8.80	13.20	-35.9	-37.3	16.0	0.00e+00	0	56	0	451936256	42	4226
2026-01-08 04:34:48.70	8.75	13.30	-35.7	-37.1	16.3	0.00e+00	0	56	0	459276288	42	4127
2026-01-08 04:34:49.71	8.70	13.40	-35.7	-37.1	16.4	0.00e+00	0	56	0	465567744	42	4109
2026-01-08 04:34:50.72	8.65	13.49	-35.8	-37.2	16.3	0.00e+00	0	56	0	473956352	42	4188
2026-01-08 04:34:51.73	8.59	13.59	-36.1	-37.5	16.1	0.00e+00	0	56	0	481296384	42	4311
2026-01-08 04:34:52.74	8.54	13.69	-36.1	-37.6	16.0	0.00e+00	0	56	0	487587840	42	4353
2026-01-08 04:34:53.75	8.49	13.79	-36.0	-37.4	16.2	0.00e+00	0	56	0	494927872	42	4285
2026-01-08 04:34:54.76	8.43	13.89	-36.0	-37.4	16.3	0.00e+00	0	56	0	502267904	42	4272
2026-01-08 04:34:55.77	8.38	13.98	-36.0	-37.4	16.4	0.00e+00	0	56	0	509607936	42	4264
2026-01-08 04:34:56.78	8.32	14.08	-36.0	-37.4	16.5	0.00e+00	0	56	0	516947968	42	4269
2026-01-08 04:34:57.79	8.27	14.18	-36.0	-37.4	16.6	0.00e+00	0	56	0	524288000	42	4255
2026-01-08 04:34:58.80	8.21	14.28	-35.6	-36.9	17.1	0.00e+00	0	56	0	531628032	42	4028
2026-01-08 04:34:59.81	8.15	14.38	-35.5	-36.8	17.2	0.00e+00	0	56	0	538968064	42	3989
2026-01-08 04:35:00.82	8.10	14.49	-35.4	-36.7	17.3	1.10e-06	0	56	0	546308096	41	4177
2026-01-08 04:35:01.83	8.04	14.59	-35.5	-36.8	17.3	0.00e+00	0	56	0	553648128	41	4207
2026-01-08 04:35:02.84	7.98	14.69	-35.4	-36.7	17.5	0.00e+00	0	56	0	560988160	41	4152
2026-01-08 04:35:03.85	7.93	14.79	-35.5	-36.8	17.4	0.00e+00	0	56	0	568328192	41	4211
2026-01-08 04:35:04.86	7.87	14.89	-35.4	-36.6	17.5	0.00e+00	0	56	0	575668224	41	4143
2026-01-08 04:35:05.87	7.81	15.00	-35.4	-36.7	17.5	0.00e+00	0	56	0	583008256	41	4150
2026-01-08 04:35:06.88	7.75	15.10	-35.3	-36.6	17.6	0.00e+00	0	56	0	590348288	41	4102
2026-01-08 04:35:07.89	7.69	15.20	-35.2	-36.5	17.8	0.00e+00	0	56	0	597688320	41	4054
2026-01-08 04:35:08.90	7.63	15.31	-35.4	-36.6	17.6	0.00e+00	0	56	0	605028352	41	4121
2026-01-08 04:35:09.91	7.57	15.41	-35.3	-36.5	17.7	0.00e+00	0	56	0	611319808	41	4072
2026-01-08 04:35:10.91	7.51	15.52	-35.4	-36.6	17.7	0.00e+00	0	56	0	618659840	41	4122
2026-01-08 04:35:11.93	7.45	15.62	-35.3	-36.5	17.7	0.00e+00	0	56	0	627048448	41	4079
2026-01-08 04:35:12.94	7.38	15.73	-35.2	-36.4	17.9	0.00e+00	0	56	0	633339904	41	4028
2026-01-08 04:35:13.95	7.32	15.83	-35.3	-36.5	17.8	0.00e+00	0	56	0	640679936	41	4057
2026-01-08 04:35:14.96	7.26	15.94	-35.3	-36.5	17.8	0.00e+00	0	56	0	648019968	41	4089
2026-01-08 04:35:15.97	7.20	16.05	-35.3	-36.5	17.9	0.00e+00	0	56	0	655360000	41	4062
2026-01-08 04:35:16.98	7.13	16.16	-35.1	-36.4	18.0	0.00e+00	0	56	0	662700032	41	4013
2026-01-08 04:35:17.99	7.07	16.26	-35.1	-36.2	18.1	0.00e+00	0	56	0	670040064	41	3951
2026-01-08 04:35:19.00	7.00	16.37	-35.1	-36.3	18.0	0.00e+00	0	56	0	677380096	41	4002
2026-01-08 04:35:20.01	6.94	16.48	-34.9	-36.0	18.2	0.00e+00	0	56	0	684720128	40	4098
2026-01-08 04:35:21.02	6.87	16.59	-34.9	-36.1	18.3	0.00e+00	0	56	0	692060160	40	4109
2026-01-08 04:35:22.03	6.81	16.70	-34.9	-36.1	18.2	0.00e+00	0	56	0	699400192	40	4136
2026-01-08 04:35:23.04	6.74	16.81	-34.9	-36.1	18.3	0.00e+00	0	56	0	706740224	40	4127
2026-01-08 04:35:24.05	6.67	16.92	-34.9	-36.0	18.4	0.00e+00	0	56	0	714080256	40	4088
2026-01-08 04:35:25.06	6.60	17.03	-35.0	-36.1	18.3	0.00e+00	0	56	0	721420288	40	4139
2026-01-08 04:35:26.07	6.53	17.15	-34.8	-35.9	18.5	0.00e+00	0	56	0	728760320	40	4038
2026-01-08 04:35:27.08	6.47	17.26	-34.9	-36.1	18.3	0.00e+00	0	56	0	736100352	40	4100
2026-01-08 04:35:28.09	6.40	17.37	-34.8	-36.0	18.4	0.00e+00	0	56	0	743440384	40	4062
2026-01-08 04:35:29.10	6.33	17.48	-34.8	-36.0	18.4	0.00e+00	0	56	0	750780416	40	4063
2026-01-08 04:35:30.11	6.26	17.60	-34.7	-35.9	18.5	0.00e+00	0	56	0	758120448	40	4017
2026-01-08 04:35:31.12	6.18	17.71	-34.7	-35.8	18.6	0.00e+00	0	56	0	765460480	40	3999
2026-01-08 04:35:32.13	6.11	17.83	-34.7	-35.9	18.6	0.00e+00	0	56	0	772800512	40	4008
2026-01-08 04:35:33.14	6.04	17.94	-34.7	-35.9	18.6	0.00e+00	0	56	0	780140544	40	4019
2026-01-08 04:35:34.15	5.97	18.06	-34.6	-35.7	18.8	0.00e+00	0	56	0	786432000	40	3933
2026-01-08 04:35:35.16	5.89	18.17	-34.6	-35.7	18.7	0.00e+00	0	56	0	793772032	40	3956
2026-01-08 04:35:36.17	5.82	18.29	-34.6	-35.8	18.7	0.00e+00	0	56	0	802160640	40	3963
2026-01-08 04:35:37.18	5.74	18.41	-34.6	-35.7	18.8	0.00e+00	0	56	0	808452096	39	4187
2026-01-08 04:35:38.19	5.67	18.52	-34.5	-35.6	19.0	0.00e+00	0	56	0	815792128	39	4110
2026-01-08 04:35:39.20	5.59	18.64	-34.5	-35.6	19.0	0.00e+00	0	57	0	823132160	39	4115
2026-01-08 04:35:40.20	5.52	18.76	-34.5	-35.7	18.9	0.00e+00	0	56	0	830472192	39	4146
2026-01-08 04:35:41.21	5.44	18.88	-34.6	-35.7	18.9	0.00e+00	0	57	0	837812224	39	4163
2026-01-08 04:35:42.23	5.36	19.00	-34.6	-35.7	18.9	0.00e+00	0	56	0	845152256	39	4161
2026-01-08 04:35:43.23	5.28	19.12	-34.5	-35.7	18.9	0.00e+00	0	56	0	852492288	39	4150
2026-01-08 04:35:44.24	5.21	19.24	-34.6	-35.7	18.8	0.00e+00	0	56	0	859832320	39	4184
2026-01-08 04:35:45.25	5.13	19.36	-34.6	-35.8	18.8	0.00e+00	0	56	0	867172352	39	4201
2026-01-08 04:35:46.26	5.05	19.48	-34.5	-35.6	18.9	0.00e+00	0	56	0	874512384	39	4139
2026-01-08 04:35:47.27	4.96	19.60	-34.7	-35.9	18.7	0.00e+00	0	56	0	881852416	39	4254
2026-01-08 04:35:48.28	4.88	19.73	-34.7	-35.8	18.8	0.00e+00	0	56	0	889192448	39	4237
2026-01-08 04:35:49.29	4.80	19.85	-34.7	-35.8	18.8	0.00e+00	0	56	0	896532480	39	4206
2026-01-08 04:35:50.31	4.72	19.97	-34.7	-35.8	18.8	0.00e+00	0	56	0	903872512	39	4231
2026-01-08 04:35:51.32	4.63	20.10	-34.7	-35.9	18.7	0.00e+00	0	57	0	911212544	39	4251
2026-01-08 04:35:52.32	4.55	20.22	-34.7	-35.8	18.8	0.00e+00	0	56	0	918552576	39	4214
2026-01-08 04:35:53.33	4.46	20.35	-34.6	-35.8	18.8	0.00e+00	0	56	0	925892608	39	4207
2026-01-08 04:35:54.34	4.38	20.47	-34.7	-35.8	18.8	0.00e+00	0	56	0	932184064	39	4233
2026-01-08 04:35:55.36	4.29	20.60	-34.7	-35.9	18.8	0.00e+00	0	57	0	939524096	39	4243
2026-01-08 04:35:56.36	4.20	20.73	-34.7	-35.8	18.8	0.00e+00	0	56	0	946864128	39	4212
2026-01-08 04:35:57.37	4.11	20.86	-34.6	-35.7	18.9	0.00e+00	0	56	0	954204160	39	4184
2026-01-08 04:35:58.39	4.02	20.99	-34.7	-35.9	18.7	0.00e+00	0	56	0	961544192	39	4251
2026-01-08 04:35:59.40	3.93	21.11	-34.7	-35.8	18.8	0.00e+00	0	56	0	968884224	39	4233
2026-01-08 04:36:00.41	3.84	21.24	-34.7	-35.8	18.8	0.00e+00	0	56	0	976224256	39	4211
2026-01-08 04:36:01.42	3.75	21.37	-34.7	-35.9	18.8	0.00e+00	0	56	0	983564288	39	4243
2026-01-08 04:36:02.43	3.66	21.50	-34.6	-35.7	18.9	0.00e+00	0	56	0	990904320	39	4169
2026-01-08 04:36:03.44	3.57	21.64	-34.5	-35.6	19.0	0.00e+00	0	56	0	998244352	39	4107
2026-01-08 04:36:04.45	3.47	21.77	-34.5	-35.6	19.0	0.00e+00	0	56	0	1005584384	39	4135
2026-01-08 04:36:05.46	3.38	21.90	-34.5	-35.6	19.1	0.00e+00	0	56	0	1012924416	39	4111
2026-01-08 04:36:06.47	3.28	22.03	-34.4	-35.4	19.2	0.00e+00	0	56	0	1020264448	39	4042
2026-01-08 04:36:07.48	3.19	22.17	-34.3	-35.4	19.3	0.00e+00	0	57	0	1027604480	39	4016
2026-01-08 04:36:08.49	3.09	22.30	-34.2	-35.2	19.4	0.00e+00	0	56	0	1034944512	39	3950
2026-01-08 04:36:09.50	2.99	22.44	-34.3	-35.4	19.3	0.00e+00	0	56	0	1042284544	39	4016
2026-01-08 04:36:10.51	2.89	22.57	-34.2	-35.3	19.4	0.00e+00	0	57	0	1049624576	39	3975
2026-01-08 04:36:11.52	2.79	22.71	-34.2	-35.3	19.4	0.00e+00	0	57	0	1056964608	39	3971
2026-01-08 04:36:12.53	2.69	22.85	-34.2	-35.2	19.4	0.00e+00	0	57	0	1064304640	39	3948
2026-01-08 04:36:13.54	2.59	22.98	-34.3	-35.4	19.3	0.00e+00	0	57	0	1071644672	39	4005
2026-01-08 04:36:14.55	2.49	23.12	-34.1	-35.2	19.5	0.00e+00	0	57	0	1078984704	39	3924
2026-01-08 04:36:15.56	2.38	23.26	-34.1	-35.2	19.5	0.00e+00	0	56	0	1085276160	39	3937
2026-01-08 04:36:16.57	2.28	23.40	-34.2	-35.3	19.4	0.00e+00	0	57	0	1093664768	39	3982
2026-01-08 04:36:17.58	2.17	23.54	-34.1	-35.2	19.5	0.00e+00	0	56	0	1101004800	39	3939
2026-01-08 04:36:18.59	2.07	23.68	-34.2	-35.3	19.4	0.00e+00	0	57	0	1107296256	39	3969
2026-01-08 04:36:19.61	1.96	23.82	-34.2	-35.3	19.4	0.00e+00	0	56	0	1114636288	39	3974
2026-01-08 04:36:20.62	1.85	23.97	-34.2	-35.3	19.4	0.00e+00	0	56	0	1121976320	39	3991
2026-01-08 04:36:21.63	1.74	24.11	-34.2	-35.2	19.4	0.00e+00	0	57	0	1129316352	39	3942
2026-01-08 04:36:22.64	1.63	24.25	-34.3	-35.3	19.3	0.00e+00	0	57	0	1136656384	39	3999
2026-01-08 04:36:23.65	1.52	24.40	-34.3	-35.3	19.3	0.00e+00	0	57	0	1143996416	39	4004
2026-01-08 04:36:24.66	1.40	24.54	-34.1	-35.2	19.5	0.00e+00	0	57	0	1151336448	39	3930
2026-01-08 04:36:25.67	1.29	24.69	-34.2	-35.3	19.4	0.00e+00	0	57	0	1158676480	39	3992
2026-01-08 04:36:26.68	1.18	24.83	-34.1	-35.2	19.5	0.00e+00	0	57	0	1166016512	39	3930
2026-01-08 04:36:27.69	1.06	24.98	-33.9	-34.9	19.7	0.00e+00	0	57	0	1173356544	38	4051
2026-01-08 04:36:28.70	0.94	25.13	-33.8	-34.9	19.8	0.00e+00	0	57	0	1180696576	38	4028
2026-01-08 04:36:29.71	0.82	25.28	-33.9	-34.9	19.7	0.00e+00	0	57	0	1188036608	38	4041
2026-01-08 04:36:30.72	0.70	25.42	-33.8	-34.9	19.8	0.00e+00	0	57	0	1195376640	38	4024
2026-01-08 04:36:31.73	0.58	25.57	-33.8	-34.8	19.9	0.00e+00	0	57	0	1202716672	38	3987
2026-01-08 04:36:32.74	0.46	25.72	-33.8	-34.8	19.9	0.00e+00	0	57	0	1210056704	38	3981
2026-01-08 04:36:33.75	0.34	25.88	-33.8	-34.8	19.9	0.00e+00	0	56	0	1217396736	38	4003
2026-01-08 04:36:34.76	0.21	26.03	-33.8	-34.9	19.8	0.00e+00	0	57	0	1224736768	38	4020
2026-01-08 04:36:35.77	0.09	26.18	-33.7	-34.8	19.9	0.00e+00	0	57	0	1232076800	38	3972
2026-01-08 04:36:36.78	359.96	26.33	-33.8	-34.8	19.9	0.00e+00	0	57	0	1239416832	38	3988
2026-01-08 04:36:37.79	359.83	26.49	-33.7	-34.7	20.0	0.00e+00	0	57	0	1246756864	38	3941
2026-01-08 04:36:38.81	359.70	26.64	-33.6	-34.7	20.0	0.00e+00	0	57	0	1254096896	38	3924
2026-01-08 04:36:39.81	359.57	26.80	-33.7	-34.7	20.0	0.00e+00	0	57	0	1260388352	38	3929
2026-01-08 04:36:40.82	359.44	26.95	-33.7	-34.7	20.1	0.00e+00	0	57	0	1268776960	38	3934
2026-01-08 04:36:41.83	359.31	27.11	-33.6	-34.6	20.1	0.00e+00	0	57	0	1276116992	38	3913
2026-01-08 04:36:42.84	359.17	27.27	-33.5	-34.5	20.2	0.00e+00	0	57	0	1282408448	38	3866
2026-01-08 04:36:43.85	359.04	27.43	-33.5	-34.5	20.2	0.00e+00	0	57	0	1289748480	37	4082
2026-01-08 04:36:44.86	358.90	27.58	-33.5	-34.5	20.2	0.00e+00	0	57	0	1297088512	37	4081
2026-01-08 04:36:45.87	358.76	27.74	-33.4	-34.5	20.2	0.00e+00	0	57	0	1304428544	37	4056
2026-01-08 04:36:46.88	358.62	27.91	-33.4	-34.4	20.3	0.00e+00	0	57	0	1311768576	37	4049
2026-01-08 04:36:47.89	358.48	28.07	-33.4	-34.4	20.3	0.00e+00	0	57	0	1319108608	37	4045
2026-01-08 04:36:48.90	358.34	28.23	-33.5	-34.5	20.2	0.00e+00	0	57	0	1326448640	37	4057
2026-01-08 04:36:49.91	358.19	28.39	-33.5	-34.5	20.3	0.00e+00	0	57	0	1333788672	37	4060
2026-01-08 04:36:50.92	358.05	28.55	-33.5	-34.5	20.2	0.00e+00	0	57	0	1341128704	37	4081
2026-01-08 04:36:51.93	357.90	28.72	-33.5	-34.5	20.3	0.00e+00	0	57	0	1348468736	37	4070
2026-01-08 04:36:52.94	357.75	28.88	-33.5	-34.5	20.2	0.00e+00	0	57	0	1355808768	37	4077
2026-01-08 04:36:53.94	357.60	29.05	-33.5	-34.5	20.3	0.00e+00	0	57	0	1363148800	37	4065
2026-01-08 04:36:54.95	357.45	29.21	-33.6	-34.6	20.2	0.00e+00	0	57	0	1370488832	37	4117
2026-01-08 04:36:55.96	357.29	29.38	-33.7	-34.7	20.1	0.00e+00	0	57	0	1377828864	37	4155
2026-01-08 04:36:56.97	357.14	29.55	-33.6	-34.6	20.2	0.00e+00	0	57	0	1385168896	37	4109
2026-01-08 04:36:57.98	356.98	29.72	-33.6	-34.6	20.1	0.00e+00	0	57	0	1392508928	37	4141
2026-01-08 04:36:58.99	356.82	29.89	-33.6	-34.6	20.1	0.00e+00	0	56	0	1399848960	37	4122
2026-01-08 04:37:00.00	356.66	30.06	-33.6	-34.6	20.2	0.00e+00	0	57	0	1406140416	37	4117
2026-01-08 04:37:01.01	356.50	30.23	-33.7	-34.8	20.0	0.00e+00	0	57	0	1413480448	37	4195
2026-01-08 04:37:02.02	356.33	30.40	-33.7	-34.8	20.0	0.00e+00	0	57	0	1421869056	37	4197
2026-01-08 04:37:03.03	356.17	30.57	-33.8	-34.8	20.0	0.00e+00	0	57	0	1428160512	37	4235
2026-01-08 04:37:04.04	356.00	30.75	-33.8	-34.8	19.9	0.00e+00	0	57	0	1435500544	37	4234
2026-01-08 04:37:05.05	355.83	30.92	-33.9	-35.0	19.8	0.00e+00	0	57	0	1442840576	37	4297
2026-01-08 04:37:06.06	355.66	31.10	-33.9	-34.9	19.9	0.00e+00	0	57	0	1450180608	37	4288
2026-01-08 04:37:07.07	355.49	31.27	-33.9	-34.9	19.9	0.00e+00	0	57	0	1457520640	37	4278
2026-01-08 04:37:08.08	355.31	31.45	-33.8	-34.9	19.9	0.00e+00	0	57	0	1464860672	37	4258
2026-01-08 04:37:09.09	355.13	31.63	-33.8	-34.9	19.9	0.00e+00	0	57	0	1472200704	37	4245
2026-01-08 04:37:10.10	354.95	31.80	-33.7	-34.8	20.0	0.00e+00	0	57	0	1479540736	37	4210
2026-01-08 04:37:11.11	354.77	31.98	-33.7	-34.7	20.0	0.00e+00	0	57	0	1486880768	37	4187
2026-01-08 04:37:12.12	354.59	32.16	-33.6	-34.6	20.2	0.00e+00	0	57	0	1494220800	37	4122
2026-01-08 04:37:13.12	354.40	32.34	-33.5	-34.5	20.3	0.00e+00	0	57	0	1501560832	37	4060
2026-01-08 04:37:14.13	354.22	32.52	-33.4	-34.4	20.4	0.00e+00	0	57	0	1508900864	37	4010
2026-01-08 04:37:15.14	354.03	32.70	-33.2	-34.2	20.6	0.00e+00	0	57	0	1516240896	37	3939
2026-01-08 04:37:16.15	353.83	32.89	-33.2	-34.2	20.6	0.00e+00	0	57	0	1523580928	37	3932
2026-01-08 04:37:17.16	353.64	33.07	-33.1	-34.1	20.7	0.00e+00	0	57	0	1530920960	36	4117
2026-01-08 04:37:18.17	353.44	33.25	-33.1	-34.0	20.8	0.00e+00	0	57	0	1538260992	36	4096
2026-01-08 04:37:19.18	353.25	33.44	-33.1	-34.1	20.7	0.00e+00	0	57	0	1545601024	36	4120
2026-01-08 04:37:20.19	353.04	33.62	-33.1	-34.1	20.7	0.00e+00	0	57	0	1552941056	36	4130
2026-01-08 04:37:21.20	352.84	33.81	-33.1	-34.1	20.7	0.00e+00	0	57	0	1559232512	36	4125
2026-01-08 04:37:22.21	352.64	34.00	-33.2	-34.2	20.6	0.00e+00	0	57	0	1567621120	36	4147
2026-01-08 04:37:23.22	352.43	34.18	-33.2	-34.2	20.6	0.00e+00	0	57	0	1574961152	36	4184
2026-01-08 04:37:24.23	352.22	34.37	-33.3	-34.2	20.5	0.00e+00	0	57	0	1581252608	36	4191
2026-01-08 04:37:25.24	352.00	34.56	-33.3	-34.3	20.5	0.00e+00	0	57	0	1588592640	36	4241
2026-01-08 04:37:26.25	351.79	34.75	-33.5	-34.5	20.3	0.00e+00	0	57	0	1595932672	36	4315
2026-01-08 04:37:27.26	351.57	34.94	-33.4	-34.4	20.4	0.00e+00	0	57	0	1603272704	37	4012
2026-01-08 04:37:28.27	351.35	35.13	-33.4	-34.4	20.4	0.00e+00	0	57	0	1610612736	37	4011
2026-01-08 04:37:29.28	351.12	35.32	-33.3	-34.3	20.5	0.00e+00	0	57	0	1617952768	37	3978
2026-01-08 04:37:30.29	350.90	35.51	-33.2	-34.2	20.6	0.00e+00	0	57	0	1625292800	37	3933
2026-01-08 04:37:31.30	350.67	35.71	-33.1	-34.1	20.7	0.00e+00	0	57	0	1632632832	37	3883
2026-01-08 04:37:32.31	350.44	35.90	-33.4	-34.4	20.4	0.00e+00	0	57	0	1639972864	36	4281
2026-01-08 04:37:33.32	350.20	36.09	-33.3	-34.2	20.6	0.00e+00	0	57	0	1647312896	36	4187
2026-01-08 04:37:34.33	349.97	36.29	-33.3	-34.3	20.5	0.00e+00	0	57	0	1654652928	36	4217
2026-01-08 04:37:35.34	349.73	36.48	-33.4	-34.4	20.4	0.00e+00	0	57	0	1661992960	36	4261
2026-01-08 04:37:36.35	349.48	36.68	-33.4	-34.4	20.4	0.00e+00	0	57	0	1669332992	36	4268
2026-01-08 04:37:37.36	349.24	36.88	-33.9	-34.9	19.9	0.00e+00	0	57	0	1676673024	37	4286
2026-01-08 04:37:38.37	348.99	37.07	-33.4	-34.4	20.5	0.00e+00	0	57	0	1684013056	37	4019
2026-01-08 04:37:39.38	348.73	37.27	-33.4	-34.4	20.5	0.00e+00	0	57	0	1691353088	37	4022
2026-01-08 04:37:40.39	348.48	37.47	-33.4	-34.4	20.5	0.00e+00	0	57	0	1698693120	37	4026
2026-01-08 04:37:41.40	348.22	37.67	-33.4	-34.4	20.5	0.00e+00	0	57	0	1704984576	37	4019
2026-01-08 04:37:42.41	347.96	37.87	-33.7	-34.8	20.1	0.00e+00	0	57	0	1713373184	36	4453
2026-01-08 04:37:43.42	347.69	38.07	-33.3	-34.3	20.6	0.00e+00	0	57	0	1720713216	36	4215
2026-01-08 04:37:44.43	347.43	38.27	-33.2	-34.2	20.6	0.00e+00	0	57	0	1727004672	36	4176
2026-01-08 04:37:45.44	347.15	38.47	-33.3	-34.2	20.6	0.00e+00	0	57	0	1734344704	36	4184
2026-01-08 04:37:46.45	346.88	38.67	-33.3	-34.3	20.6	0.00e+00	0	57	0	1741684736	36	4194
2026-01-08 04:37:47.46	346.60	38.87	-33.3	-34.3	20.6	0.00e+00	0	57	0	1749024768	36	4208
2026-01-08 04:37:48.46	346.32	39.07	-33.5	-34.5	20.4	0.00e+00	0	57	0	1756364800	37	4089
2026-01-08 04:37:49.48	346.03	39.28	-33.4	-34.4	20.4	0.00e+00	0	57	0	1763704832	37	4047
2026-01-08 04:37:50.49	345.74	39.48	-33.4	-34.4	20.4	0.00e+00	0	57	0	1771044864	37	4035
2026-01-08 04:37:51.50	345.45	39.68	-33.5	-34.5	20.4	0.00e+00	0	57	0	1778384896	37	4082
2026-01-08 04:37:52.51	345.15	39.89	-33.7	-34.8	20.1	0.00e+00	0	57	0	1785724928	37	4196
2026-01-08 04:37:53.51	344.85	40.09	-33.7	-34.8	20.1	0.00e+00	0	57	0	1793064960	37	4198
2026-01-08 04:37:54.53	344.55	40.29	-33.6	-34.7	20.2	0.00e+00	0	57	0	1800404992	37	4147
2026-01-08 04:37:55.54	344.24	40.50	-33.7	-34.7	20.2	0.00e+00	0	57	0	1807745024	37	4152
2026-01-08 04:37:56.54	343.93	40.70	-33.7	-34.7	20.1	0.00e+00	0	57	0	1815085056	37	4188
2026-01-08 04:37:57.55	343.61	40.90	-33.9	-35.0	20.0	0.00e+00	0	57	0	1822425088	37	4295
2026-01-08 04:37:58.57	343.29	41.11	-33.8	-34.8	20.0	0.00e+00	0	57	0	1829765120	37	4240
2026-01-08 04:37:59.58	342.97	41.32	-33.8	-34.8	20.1	0.00e+00	0	57	0	1837105152	37	4237
2026-01-08 04:38:00.59	342.64	41.52	-33.6	-34.6	20.3	0.00e+00	0	57	0	1844445184	37	4134
2026-01-08 04:38:01.60	342.30	41.73	-33.6	-34.6	20.3	0.00e+00	0	57	0	1851785216	37	4115
2026-01-08 04:38:02.61	341.97	41.93	-33.7	-34.7	20.2	0.00e+00	0	57	0	1858076672	37	4161
2026-01-08 04:38:03.61	341.63	42.13	-33.7	-34.7	20.2	0.00e+00	0	57	0	1866465280	38	3925
2026-01-08 04:38:04.63	341.28	42.34	-33.8	-34.8	20.2	0.00e+00	0	57	0	1873805312	38	3964
2026-01-08 04:38:05.64	340.93	42.55	-33.7	-34.7	20.2	0.00e+00	0	57	0	1880096768	38	3925
2026-01-08 04:38:06.65	340.57	42.75	-33.6	-34.6	20.3	0.00e+00	0	57	0	1887436800	38	3909
2026-01-08 04:38:07.66	340.21	42.96	-33.5	-34.4	20.5	0.00e+00	0	57	0	1895825408	38	3824
2026-01-08 04:38:08.67	339.85	43.16	-33.7	-34.7	20.2	0.00e+00	0	57	0	1902116864	37	4176
2026-01-08 04:38:09.68	339.48	43.37	-33.2	-34.2	20.7	0.00e+00	0	57	0	1909456896	37	3934
2026-01-08 04:38:10.69	339.11	43.57	-33.2	-34.1	20.7	0.00e+00	0	57	0	1916796928	37	3902
2026-01-08 04:38:11.70	338.73	43.77	-33.2	-34.1	20.7	0.00e+00	0	57	0	1924136960	37	3908
2026-01-08 04:38:12.71	338.34	43.98	-33.3	-34.3	20.6	0.00e+00	0	57	0	1931476992	37	3993
2026-01-08 04:38:13.72	337.96	44.18	-33.7	-34.7	20.2	0.00e+00	0	57	0	1938817024	37	4148
2026-01-08 04:38:14.73	337.56	44.38	-33.5	-34.5	20.4	0.00e+00	0	57	0	1946157056	36	4306
2026-01-08 04:38:15.74	337.16	44.59	-33.8	-34.8	20.2	0.00e+00	0	57	0	1953497088	37	4210
2026-01-08 04:38:16.75	336.76	44.79	-33.8	-34.9	20.1	0.00e+00	0	57	0	1960837120	37	4246
2026-01-08 04:38:17.76	336.35	44.99	-33.8	-34.9	20.1	0.00e+00	0	57	0	1968177152	37	4251
2026-01-08 04:38:18.77	335.94	45.19	-34.1	-35.1	19.9	0.00e+00	0	57	0	1975517184	37	4366
2026-01-08 04:38:19.78	335.52	45.39	-34.0	-35.0	20.0	0.00e+00	0	57	0	1982857216	37	4306
2026-01-08 04:38:20.79	335.09	45.59	-33.8	-34.8	20.1	0.00e+00	0	57	0	1990197248	37	4206
2026-01-08 04:38:21.80	334.66	45.79	-33.6	-34.6	20.3	0.00e+00	0	57	0	1997537280	37	4121
2026-01-08 04:38:22.81	334.23	45.98	-33.6	-34.6	20.4	0.00e+00	0	57	0	2004877312	37	4104
2026-01-08 04:38:23.82	333.78	46.18	-33.4	-34.4	20.5	0.00e+00	0	57	0	2012217344	37	4038
2026-01-08 04:38:24.83	333.34	46.38	-33.7	-34.7	20.2	0.00e+00	0	57	0	2019557376	37	4161
2026-01-08 04:38:25.84	332.89	46.57	-33.7	-34.7	20.2	0.00e+00	0	57	0	2025848832	37	4153
2026-01-08 04:38:26.85	332.43	46.76	-33.7	-34.7	20.2	0.00e+00	0	57	0	2033188864	37	4188
2026-01-08 04:38:27.86	331.96	46.96	-34.1	-35.1	19.8	0.00e+00	0	57	0	2041577472	37	4370
2026-01-08 04:38:28.87	331.49	47.15	-34.5	-35.6	19.4	0.00e+00	0	57	0	2047868928	38	4365
2026-01-08 04:38:29.88	331.02	47.34	-34.7	-35.8	19.2	0.00e+00	0	57	0	2055208960	38	4447
2026-01-08 04:38:30.89	330.54	47.53	-34.8	-35.9	19.1	0.00e+00	0	57	0	2062548992	39	4264
2026-01-08 04:38:31.90	330.05	47.71	-34.8	-36.0	19.0	0.00e+00	0	57	0	2069889024	39	4294
2026-01-08 04:38:32.91	329.56	47.90	-34.8	-35.9	19.1	0.00e+00	0	57	0	2077229056	39	4248
2026-01-08 04:38:33.92	329.06	48.08	-34.7	-35.7	19.2	0.00e+00	0	57	0	2084569088	39	4186
2026-01-08 04:38:34.93	328.55	48.26	-34.7	-35.8	19.1	0.00e+00	0	57	0	2091909120	39	4238
2026-01-08 04:38:35.94	328.04	48.45	-34.7	-35.8	19.2	0.00e+00	0	57	0	2099249152	39	4199
2026-01-08 04:38:36.95	327.52	48.62	-34.6	-35.7	19.3	0.00e+00	0	57	0	2106589184	39	4165
2026-01-08 04:38:37.96	327.00	48.80	-34.6	-35.7	19.3	0.00e+00	0	57	0	2113929216	39	4157
2026-01-08 04:38:38.97	326.47	48.98	-34.5	-35.6	19.4	0.00e+00	0	57	0	2121269248	39	4110
2026-01-08 04:38:39.98	325.93	49.15	-34.7	-35.8	19.2	0.00e+00	0	57	0	2128609280	39	4195
2026-01-08 04:38:40.99	325.39	49.32	-34.7	-35.8	19.2	0.00e+00	0	57	0	2135949312	39	4231
2026-01-08 04:38:42.00	324.85	49.49	-34.9	-36.0	19.0	0.00e+00	0	57	0	2143289344	39	4293
2026-01-08 04:38:43.01	324.29	49.66	-34.9	-36.0	19.0	0.00e+00	0	57	0	2150629376	39	4298
2026-01-08 04:38:44.02	323.73	49.82	-35.0	-36.1	18.9	0.00e+00	0	57	0	2157969408	39	4386
2026-01-08 04:38:45.03	323.17	49.98	-35.2	-36.3	18.6	0.00e+00	0	57	0	2165309440	40	4230
2026-01-08 04:38:46.04	322.59	50.14	-35.1	-36.2	18.7	0.00e+00	0	57	0	2172649472	40	4192
2026-01-08 04:38:47.05	322.02	50.30	-35.0	-36.1	18.7	0.00e+00	0	57	0	2178940928	40	4139
2026-01-08 04:38:48.06	321.43	50.46	-35.0	-36.1	18.8	0.00e+00	0	57	0	2187329536	40	4110
2026-01-08 04:38:49.07	320.84	50.61	-34.8	-35.9	19.0	0.00e+00	0	57	0	2193620992	40	4006
2026-01-08 04:38:50.08	320.25	50.76	-34.6	-35.7	19.1	0.00e+00	0	57	0	2200961024	40	3948
2026-01-08 04:38:51.10	319.64	50.91	-34.6	-35.7	19.3	0.00e+00	0	57	0	2208301056	39	4159
2026-01-08 04:38:52.11	319.03	51.05	-34.8	-35.8	19.1	0.00e+00	0	57	0	2215641088	39	4238
2026-01-08 04:38:53.12	318.42	51.19	-35.1	-36.2	18.8	0.00e+00	0	57	0	2222981120	39	4396
2026-01-08 04:38:54.13	317.80	51.33	-35.3	-36.4	18.5	0.00e+00	0	57	0	2230321152	40	4274
2026-01-08 04:38:55.14	317.17	51.46	-35.4	-36.6	18.3	0.00e+00	0	57	0	2237661184	41	4119
2026-01-08 04:38:56.15	316.54	51.59	-35.7	-36.9	18.0	0.00e+00	0	57	0	2245001216	41	4277
2026-01-08 04:38:57.16	315.90	51.72	-35.5	-36.7	18.3	0.00e+00	0	57	0	2252341248	41	4162
2026-01-08 04:38:58.17	315.26	51.84	-35.1	-36.2	18.7	0.00e+00	0	57	0	2259681280	41	3929
2026-01-08 04:38:59.18	314.62	51.97	-34.7	-35.8	19.1	0.00e+00	0	57	0	2267021312	40	3959
2026-01-08 04:39:00.19	313.96	52.08	-34.5	-35.5	19.4	0.00e+00	0	57	0	2274361344	39	4095
2026-01-08 04:39:01.20	313.30	52.20	-34.5	-35.5	19.4	0.00e+00	0	57	0	2281701376	39	4094
2026-01-08 04:39:02.21	312.64	52.31	-34.8	-35.9	19.1	0.00e+00	0	57	0	2289041408	39	4274
2026-01-08 04:39:03.22	311.97	52.41	-35.0	-36.1	18.9	0.00e+00	0	57	0	2296381440	39	4349
2026-01-08 04:39:04.23	311.30	52.52	-35.1	-36.2	18.8	0.00e+00	0	57	0	2303721472	39	4418
2026-01-08 04:39:05.24	310.63	52.61	-34.7	-35.8	19.1	0.00e+00	0	57	0	2311061504	39	4222
2026-01-08 04:39:06.25	309.94	52.71	-34.4	-35.5	19.5	0.00e+00	0	57	0	2318401536	39	4056
2026-01-08 04:39:07.26	309.26	52.80	-34.2	-35.2	19.7	0.00e+00	0	57	0	2325741568	39	3926
2026-01-08 04:39:08.27	308.57	52.89	-34.3	-35.3	19.6	0.00e+00	0	57	0	2333081600	38	4219
2026-01-08 04:39:09.28	307.87	52.97	-34.3	-35.4	19.6	0.00e+00	0	57	0	2340421632	38	4253
2026-01-08 04:39:10.29	307.18	53.05	-34.5	-35.6	19.4	0.00e+00	0	57	0	2346713088	38	4361
2026-01-08 04:39:11.30	306.47	53.12	-34.7	-35.8	19.0	0.00e+00	0	57	0	2354053120	39	4230
2026-01-08 04:39:12.31	305.77	53.19	-34.8	-35.9	19.1	0.00e+00	0	57	0	2362441728	39	4259
2026-01-08 04:39:13.32	305.06	53.26	-34.7	-35.8	19.1	0.00e+00	0	57	0	2368733184	39	4229
2026-01-08 04:39:14.33	304.35	53.32	-34.5	-35.6	19.3	0.00e+00	0	57	0	2376073216	39	4133
2026-01-08 04:39:15.34	303.63	53.37	-34.4	-35.4	19.5	0.00e+00	0	57	0	2383413248	39	4043
2026-01-08 04:39:16.36	302.91	53.43	-34.3	-35.3	19.5	0.00e+00	0	57	0	2390753280	39	3997
2026-01-08 04:39:17.36	302.20	53.47	-34.3	-35.4	19.5	0.00e+00	0	57	0	2398093312	39	4023
2026-01-08 04:39:18.38	301.47	53.52	-34.4	-35.5	19.5	0.00e+00	0	57	0	2405433344	39	4084
2026-01-08 04:39:19.39	300.75	53.55	-34.6	-35.7	19.2	0.00e+00	0	57	0	2412773376	39	4166
2026-01-08 04:39:20.40	300.02	53.59	-34.6	-35.6	19.3	0.00e+00	0	57	0	2420113408	39	4141
2026-01-08 04:39:21.41	299.29	53.62	-34.5	-35.5	19.4	0.00e+00	0	57	0	2427453440	39	4093
2026-01-08 04:39:22.42	298.56	53.64	-34.3	-35.4	19.5	0.00e+00	0	57	0	2434793472	39	4016
2026-01-08 04:39:23.43	297.83	53.66	-34.4	-35.5	19.4	0.00e+00	0	57	0	2442133504	39	4075
2026-01-08 04:39:24.44	297.10	53.67	-34.5	-35.6	19.4	0.00e+00	0	57	0	2449473536	39	4118
2026-01-08 04:39:25.45	296.37	53.68	-34.3	-35.3	19.6	0.00e+00	0	57	0	2456813568	39	3994
2026-01-08 04:39:26.46	295.64	53.69	-34.2	-35.2	19.7	0.00e+00	0	57	0	2464153600	39	3938
2026-01-08 04:39:27.47	294.91	53.69	-34.4	-35.4	19.5	0.00e+00	0	57	0	2471493632	39	4034
2026-01-08 04:39:28.48	294.18	53.68	-34.4	-35.5	19.5	0.00e+00	0	57	0	2478833664	39	4058
2026-01-08 04:39:29.49	293.45	53.68	-34.6	-35.6	19.3	0.00e+00	0	57	0	2486173696	39	4136
2026-01-08 04:39:30.50	292.71	53.66	-34.6	-35.7	19.2	0.00e+00	0	57	0	2493513728	39	4159
2026-01-08 04:39:31.51	291.98	53.64	-34.4	-35.4	19.5	0.00e+00	0	57	0	2500853760	39	4048
2026-01-08 04:39:32.52	291.25	53.62	-34.2	-35.2	19.7	0.00e+00	0	57	0	2508193792	39	3955
2026-01-08 04:39:33.53	290.53	53.59	-34.2	-35.2	19.7	0.00e+00	0	57	0	2515533824	39	3947
2026-01-08 04:39:34.54	289.80	53.56	-34.4	-35.4	19.5	0.00e+00	0	57	0	2521825280	39	4047
2026-01-08 04:39:35.55	289.08	53.52	-34.5	-35.6	19.3	0.00e+00	0	57	0	2529165312	39	4101
2026-01-08 04:39:36.56	288.35	53.48	-34.2	-35.3	19.6	0.00e+00	0	57	0	2537553920	39	3968
2026-01-08 04:39:37.57	287.63	53.43	-34.0	-35.0	19.9	0.00e+00	0	57	0	2543845376	38	4095
2026-01-08 04:39:38.58	286.91	53.38	-33.9	-34.9	20.0	0.00e+00	0	57	0	2551185408	38	4027
2026-01-08 04:39:39.59	286.20	53.33	-34.0	-35.0	20.0	0.00e+00	0	57	0	2558525440	38	4066
2026-01-08 04:39:40.60	285.49	53.27	-34.2	-35.3	19.6	0.00e+00	0	57	0	2565865472	38	4217
2026-01-08 04:39:41.61	284.78	53.20	-34.5	-35.6	19.4	0.00e+00	0	57	0	2573205504	38	4353
2026-01-08 04:39:42.62	284.07	53.13	-34.4	-35.5	19.5	0.00e+00	0	57	0	2580545536	38	4309
2026-01-08 04:39:43.63	283.37	53.06	-34.1	-35.1	19.8	0.00e+00	0	57	0	2587885568	38	4136
2026-01-08 04:39:44.64	282.67	52.98	-33.9	-35.0	20.0	0.00e+00	0	57	0	2595225600	38	4061
2026-01-08 04:39:45.65	281.97	52.90	-33.8	-34.8	20.1	0.00e+00	0	57	0	2602565632	38	4002
2026-01-08 04:39:46.66	281.28	52.82	-33.9	-34.9	20.0	0.00e+00	0	57	0	2609905664	38	4024
2026-01-08 04:39:47.67	280.59	52.73	-34.1	-35.2	19.7	0.00e+00	0	57	0	2617245696	38	4148
2026-01-08 04:39:48.68	279.91	52.63	-34.5	-35.5	19.4	0.00e+00	0	57	0	2624585728	38	4330
2026-01-08 04:39:49.69	279.23	52.53	-34.6	-35.7	19.2	0.00e+00	0	57	0	2631925760	39	4175
2026-01-08 04:39:50.70	278.56	52.43	-34.7	-35.8	19.2	0.00e+00	0	57	0	2639265792	39	4198
2026-01-08 04:39:51.71	277.89	52.33	-34.3	-35.4	19.6	0.00e+00	0	57	0	2646605824	39	4005
2026-01-08 04:39:52.73	277.22	52.22	-34.1	-35.1	19.8	0.00e+00	0	57	0	2653945856	39	3902
2026-01-08 04:39:53.73	276.56	52.10	-34.1	-35.1	19.8	0.00e+00	0	57	0	2661285888	38	4130
2026-01-08 04:39:54.74	275.91	51.99	-34.4	-35.5	19.4	0.00e+00	0	58	0	2667577344	38	4305
2026-01-08 04:39:55.75	275.26	51.87	-34.4	-35.5	19.5	0.00e+00	0	57	0	2674917376	38	4308
2026-01-08 04:39:56.76	274.62	51.74	-34.2	-35.3	19.6	0.00e+00	0	57	0	2683305984	38	4211
2026-01-08 04:39:57.77	273.98	51.62	-34.1	-35.1	19.8	0.00e+00	0	57	0	2689597440	38	4137
2026-01-08 04:39:58.78	273.34	51.48	-34.1	-35.2	19.7	0.00e+00	0	57	0	2696937472	38	4152
2026-01-08 04:39:59.79	272.72	51.35	-34.1	-35.1	19.8	0.00e+00	0	57	0	2704277504	38	4128
2026-01-08 04:40:00.81	272.09	51.21	-34.4	-35.5	19.5	0.00e+00	0	57	0	2711617536	38	4296
2026-01-08 04:40:01.82	271.47	51.07	-34.7	-35.8	19.2	0.00e+00	0	57	0	2718957568	39	4210
2026-01-08 04:40:02.82	270.87	50.93	-34.8	-35.9	19.0	0.00e+00	0	57	0	2726297600	39	4276
2026-01-08 04:40:03.84	270.26	50.78	-34.7	-35.8	19.2	0.00e+00	0	57	0	2733637632	39	4200
2026-01-08 04:40:04.85	269.66	50.63	-34.5	-35.6	19.4	0.00e+00	0	57	0	2740977664	39	4102
2026-01-08 04:40:05.86	269.07	50.48	-34.4	-35.4	19.5	0.00e+00	0	57	0	2748317696	39	4036
2026-01-08 04:40:06.87	268.48	50.33	-34.2	-35.2	19.7	0.00e+00	0	57	0	2755657728	39	3945
2026-01-08 04:40:07.88	267.90	50.17	-34.2	-35.3	19.7	0.00e+00	0	57	0	2762997760	39	3963
2026-01-08 04:40:08.89	267.33	50.01	-34.3	-35.4	19.6	0.00e+00	0	57	0	2770337792	39	4026
2026-01-08 04:40:09.89	266.76	49.85	-34.4	-35.4	19.5	0.00e+00	0	57	0	2777677824	39	4041
2026-01-08 04:40:10.91	266.20	49.68	-34.3	-35.3	19.6	0.00e+00	0	57	0	2785017856	39	3990
2026-01-08 04:40:11.92	265.64	49.51	-34.1	-35.1	19.8	0.00e+00	0	57	0	2792357888	39	3893
2026-01-08 04:40:12.93	265.09	49.35	-33.8	-34.8	20.1	0.00e+00	0	57	0	2799697920	38	4002
2026-01-08 04:40:13.94	264.55	49.17	-33.9	-34.9	20.0	0.00e+00	0	57	0	2807037952	38	4021
2026-01-08 04:40:14.95	264.01	49.00	-34.0	-35.0	19.9	0.00e+00	0	57	0	2814377984	38	4098
2026-01-08 04:40:15.96	263.48	48.83	-34.3	-35.4	19.5	0.00e+00	0	57	0	2821718016	38	4254
2026-01-08 04:40:16.97	262.95	48.65	-34.5	-35.6	19.3	0.00e+00	0	57	0	2829058048	38	4382
2026-01-08 04:40:17.97	262.44	48.47	-34.5	-35.5	19.4	0.00e+00	0	57	0	2836398080	38	4319
2026-01-08 04:40:18.98	261.92	48.29	-34.3	-35.4	19.5	0.00e+00	0	57	0	2842689536	38	4243
2026-01-08 04:40:19.99	261.41	48.11	-33.9	-34.9	20.0	0.00e+00	0	57	0	2850029568	38	4051
2026-01-08 04:40:21.00	260.91	47.92	-33.8	-34.8	20.1	0.00e+00	0	57	0	2857369600	38	3970
2026-01-08 04:40:22.01	260.42	47.74	-33.6	-34.6	20.3	0.00e+00	0	57	0	2864709632	38	3885
2026-01-08 04:40:23.02	259.93	47.55	-33.8	-34.8	20.1	0.00e+00	0	57	0	2872049664	38	3970
2026-01-08 04:40:24.03	259.44	47.36	-34.0	-35.0	19.9	0.00e+00	0	57	0	2879389696	38	4079
2026-01-08 04:40:25.04	258.97	47.17	-34.1	-35.2	19.8	0.00e+00	0	57	0	2886729728	38	4159
2026-01-08 04:40:26.05	258.49	46.98	-34.1	-35.2	19.8	0.00e+00	0	57	0	2894069760	38	4151
2026-01-08 04:40:27.06	258.03	46.79	-33.9	-34.9	20.0	0.00e+00	0	57	0	2901409792	38	4048
2026-01-08 04:40:28.07	257.57	46.59	-33.7	-34.7	20.3	0.00e+00	0	57	0	2908749824	38	3922
2026-01-08 04:40:29.08	257.11	46.40	-33.5	-34.5	20.4	0.00e+00	0	57	0	2916089856	38	3858
2026-01-08 04:40:30.09	256.66	46.20	-33.5	-34.5	20.4	0.00e+00	0	57	0	2923429888	38	3848
2026-01-08 04:40:31.10	256.22	46.00	-33.6	-34.6	20.3	0.00e+00	0	57	0	2930769920	38	3886
2026-01-08 04:40:32.11	255.78	45.80	-33.6	-34.5	20.4	0.00e+00	0	57	0	2938109952	38	3867
2026-01-08 04:40:33.12	255.35	45.61	-33.5	-34.5	20.4	0.00e+00	0	57	0	2945449984	38	3864
2026-01-08 04:40:34.13	254.92	45.41	-33.6	-34.6	20.4	0.00e+00	0	57	0	2952790016	38	3877
2026-01-08 04:40:35.14	254.50	45.21	-33.8	-34.8	20.1	0.00e+00	0	57	0	2960130048	38	3978
2026-01-08 04:40:36.15	254.08	45.00	-33.9	-35.0	20.0	0.00e+00	0	57	0	2966421504	38	4052
2026-01-08 04:40:37.16	253.67	44.80	-33.9	-34.9	20.0	0.00e+00	0	57	0	2974810112	38	4046
2026-01-08 04:40:38.17	253.27	44.60	-33.5	-34.5	20.3	0.00e+00	0	57	0	2982150144	38	3867
2026-01-08 04:40:39.18	252.86	44.40	-33.5	-34.5	20.4	0.00e+00	0	57	0	2988441600	37	4061
2026-01-08 04:40:40.19	252.47	44.19	-33.3	-34.3	20.6	0.00e+00	0	57	0	2995781632	37	3980
2026-01-08 04:40:41.20	252.08	43.99	-33.5	-34.5	20.4	0.00e+00	0	57	0	3003121664	37	4076
2026-01-08 04:40:42.21	251.69	43.79	-33.8	-34.8	20.1	0.00e+00	0	57	0	3010461696	37	4215
2026-01-08 04:40:43.22	251.31	43.58	-33.8	-34.8	20.0	0.00e+00	0	57	0	3017801728	37	4223
2026-01-08 04:40:44.23	250.94	43.38	-33.8	-34.8	20.1	0.00e+00	0	57	0	3025141760	37	4210
2026-01-08 04:40:45.24	250.56	43.17	-33.5	-34.4	20.2	0.00e+00	0	57	0	3032481792	37	4048
2026-01-08 04:40:46.25	250.20	42.97	-33.4	-34.4	20.4	0.00e+00	0	57	0	3039821824	37	4037
2026-01-08 04:40:47.26	249.84	42.76	-33.2	-34.1	20.7	0.00e+00	0	57	0	3047161856	37	3910
2026-01-08 04:40:48.27	249.48	42.55	-33.2	-34.2	20.7	0.00e+00	0	57	0	3054501888	37	3935
2026-01-08 04:40:49.28	249.13	42.35	-33.3	-34.2	20.6	0.00e+00	0	57	0	3061841920	37	3958
2026-01-08 04:40:50.29	248.78	42.14	-33.4	-34.4	20.4	0.00e+00	0	57	0	3069181952	37	4008
2026-01-08 04:40:51.30	248.44	41.94	-33.5	-34.5	20.4	0.00e+00	0	57	0	3076521984	37	4076
2026-01-08 04:40:52.30	248.10	41.73	-33.6	-34.6	20.3	0.00e+00	0	57	0	3083862016	37	4145
2026-01-08 04:40:53.31	247.76	41.53	-33.6	-34.7	20.2	0.00e+00	0	57	0	3091202048	37	4146
2026-01-08 04:40:54.32	247.43	41.32	-33.5	-34.5	20.4	0.00e+00	0	57	0	3098542080	37	4091
2026-01-08 04:40:55.33	247.11	41.11	-33.4	-34.3	20.4	0.00e+00	0	57	0	3105882112	37	4004
2026-01-08 04:40:56.34	246.79	40.91	-33.4	-34.4	20.5	0.00e+00	0	57	0	3113222144	37	4005
2026-01-08 04:40:57.35	246.47	40.70	-33.4	-34.4	20.5	0.00e+00	0	57	0	3119513600	37	4016
2026-01-08 04:40:58.36	246.15	40.50	-33.4	-34.4	20.5	0.00e+00	0	57	0	3127902208	37	4047
2026-01-08 04:40:59.37	245.84	40.29	-33.5	-34.5	20.4	0.00e+00	0	57	0	3135242240	37	4054
2026-01-08 04:41:00.38	245.54	40.09	-33.3	-34.3	20.6	0.00e+00	0	57	0	3141533696	37	4001
2026-01-08 04:41:01.39	245.23	39.88	-33.2	-34.2	20.7	0.00e+00	0	57	0	3148873728	37	3931
2026-01-08 04:41:02.40	244.94	39.68	-33.1	-34.1	20.8	0.00e+00	0	57	0	3156213760	37	3901
2026-01-08 04:41:03.41	244.64	39.47	-33.1	-34.1	20.8	0.00e+00	0	57	0	3163553792	37	3900
2026-01-08 04:41:04.42	244.35	39.27	-33.2	-34.2	20.7	0.00e+00	0	57	0	3170893824	37	3942
2026-01-08 04:41:05.43	244.06	39.07	-33.3	-34.3	20.5	0.00e+00	0	57	0	3178233856	37	3992
2026-01-08 04:41:06.44	243.78	38.86	-33.5	-34.5	20.4	0.00e+00	0	57	0	3185573888	37	4058
2026-01-08 04:41:07.45	243.50	38.66	-33.5	-34.5	20.4	0.00e+00	0	57	0	3192913920	37	4066
2026-01-08 04:41:08.46	243.22	38.46	-33.5	-34.5	20.3	0.00e+00	0	57	0	3200253952	37	4080
2026-01-08 04:41:09.47	242.95	38.26	-33.5	-34.5	20.4	0.00e+00	0	57	0	3207593984	37	4080
2026-01-08 04:41:10.48	242.68	38.06	-33.5	-34.5	20.4	0.00e+00	0	57	0	3214934016	37	4077
2026-01-08 04:41:11.49	242.41	37.86	-33.4	-34.4	20.4	0.00e+00	0	57	0	3222274048	37	4047
2026-01-08 04:41:12.50	242.15	37.65	-33.2	-34.2	20.7	0.00e+00	0	57	0	3229614080	37	3918
2026-01-08 04:41:13.51	241.89	37.45	-33.0	-33.9	20.9	0.00e+00	0	57	0	3236954112	36	4036
2026-01-08 04:41:14.52	241.63	37.26	-32.8	-33.7	21.0	0.00e+00	0	57	0	3244294144	36	3946
2026-01-08 04:41:15.53	241.38	37.06	-32.8	-33.7	21.1	0.00e+00	0	57	0	3251634176	36	3940
2026-01-08 04:41:16.54	241.13	36.86	-32.9	-33.9	19.8	0.00e+00	0	57	0	3258974208	36	4030
2026-01-08 04:41:17.55	240.88	36.66	-33.2	-34.2	20.7	0.00e+00	0	57	0	3265265664	36	4152
2026-01-08 04:41:18.56	240.63	36.46	-33.5	-34.4	20.4	0.00e+00	0	57	0	3273654272	36	4291
2026-01-08 04:41:19.57	240.39	36.27	-33.6	-34.6	20.3	0.00e+00	0	57	0	3280994304	36	4350
2026-01-08 04:41:20.58	240.15	36.07	-33.5	-34.5	20.4	0.00e+00	0	57	0	3287285760	36	4324
2026-01-08 04:41:21.59	239.92	35.88	-33.4	-34.4	20.4	0.00e+00	0	57	0	3294625792	36	4249
2026-01-08 04:41:22.60	239.68	35.68	-33.2	-34.2	20.6	0.00e+00	0	57	0	3301965824	36	4183
2026-01-08 04:41:23.61	239.45	35.49	-33.1	-34.1	20.8	0.00e+00	0	57	0	3309305856	36	4119
2026-01-08 04:41:24.62	239.23	35.29	-33.1	-34.1	20.7	0.00e+00	0	57	0	3316645888	36	4121
2026-01-08 04:41:25.63	239.00	35.10	-33.1	-34.1	20.7	0.00e+00	0	57	0	3323985920	36	4131
2026-01-08 04:41:26.64	238.78	34.91	-33.1	-34.1	20.7	0.00e+00	0	57	0	3331325952	36	4115
2026-01-08 04:41:27.65	238.56	34.72	-33.1	-34.0	20.8	0.00e+00	0	57	0	3338665984	36	4098
2026-01-08 04:41:28.66	238.34	34.53	-33.0	-34.0	20.8	0.00e+00	0	57	0	3346006016	36	4073
2026-01-08 04:41:29.67	238.13	34.34	-33.0	-34.0	20.9	0.00e+00	0	57	0	3353346048	36	4061
2026-01-08 04:41:30.68	237.92	34.15	-32.9	-33.9	20.9	0.00e+00	0	57	0	3360686080	36	4033
2026-01-08 04:41:31.69	237.71	33.96	-32.9	-33.8	21.0	0.00e+00	0	57	0	3368026112	36	3993
2026-01-08 04:41:32.70	237.50	33.77	-32.9	-33.9	20.9	0.00e+00	0	57	0	3375366144	36	4025
2026-01-08 04:41:33.71	237.29	33.59	-33.0	-33.9	20.9	0.00e+00	0	57	0	3382706176	36	4045
2026-01-08 04:41:34.72	237.09	33.40	-33.1	-34.1	20.7	0.00e+00	0	57	0	3390046208	36	4112
2026-01-08 04:41:35.73	236.89	33.21	-33.0	-34.0	20.8	0.00e+00	0	57	0	3397386240	36	4066
2026-01-08 04:41:36.74	236.69	33.03	-33.0	-34.0	20.8	0.00e+00	0	57	0	3404726272	36	4059
2026-01-08 04:41:37.75	236.50	32.85	-33.1	-34.0	20.8	0.00e+00	0	57	0	3412066304	36	4095
2026-01-08 04:41:38.76	236.31	32.66	-33.1	-34.1	20.8	0.00e+00	0	57	0	3419406336	36	4119
2026-01-08 04:41:39.77	236.11	32.48	-33.2	-34.1	20.7	0.00e+00	0	57	0	3426746368	36	4141
2026-01-08 04:41:40.78	235.93	32.30	-33.2	-34.2	20.6	0.00e+00	0	57	0	3434086400	36	4148
2026-01-08 04:41:41.79	235.74	32.12	-33.2	-34.2	20.6	0.00e+00	0	57	0	3440377856	36	4185
2026-01-08 04:41:42.80	235.55	31.94	-33.2	-34.2	20.6	0.00e+00	0	57	0	3447717888	36	4164
2026-01-08 04:41:43.81	235.37	31.76	-33.2	-34.2	20.6	0.00e+00	0	57	0	3456106496	36	4148
2026-01-08 04:41:44.82	235.19	31.58	-33.1	-34.1	20.7	0.00e+00	0	57	0	3462397952	36	4139
2026-01-08 04:41:45.83	235.01	31.40	-33.1	-34.1	20.7	0.00e+00	0	57	0	3469737984	36	4114
2026-01-08 04:41:46.84	234.83	31.22	-33.1	-34.0	20.8	0.00e+00	0	57	0	3477078016	36	4091
2026-01-08 04:41:47.85	234.66	31.05	-33.0	-34.0	20.8	0.00e+00	0	57	0	3484418048	36	4066
2026-01-08 04:41:48.86	234.49	30.87	-33.0	-33.9	20.8	0.00e+00	0	57	0	3491758080	36	4049
2026-01-08 04:41:49.87	234.32	30.69	-33.0	-33.9	20.8	0.00e+00	0	57	0	3499098112	36	4051
2026-01-08 04:41:50.88	234.15	30.52	-33.0	-34.0	20.8	0.00e+00	0	57	0	3506438144	36	4082
2026-01-08 04:41:51.89	233.98	30.35	-33.1	-34.0	20.7	0.00e+00	0	57	0	3513778176	36	4095
2026-01-08 04:41:52.90	233.81	30.17	-33.1	-34.1	20.7	0.00e+00	0	57	0	3521118208	36	4118
2026-01-08 04:41:53.91	233.65	30.00	-33.2	-34.1	20.6	0.00e+00	0	57	0	3528458240	36	4144
2026-01-08 04:41:54.92	233.49	29.83	-33.3	-34.2	20.6	0.00e+00	0	57	0	3535798272	36	4189
2026-01-08 04:41:55.93	233.33	29.66	-33.3	-34.3	20.5	0.00e+00	0	57	0	3543138304	36	4228
2026-01-08 04:41:56.94	233.17	29.49	-33.4	-34.4	20.4	0.00e+00	0	57	0	3550478336	36	4290
2026-01-08 04:41:57.95	233.01	29.32	-33.4	-34.4	20.4	0.00e+00	0	57	0	3557818368	36	4291
2026-01-08 04:41:58.96	232.86	29.15	-33.4	-34.5	20.3	0.00e+00	0	57	0	3565158400	36	4294
2026-01-08 04:41:59.97	232.71	28.99	-33.4	-34.4	20.4	0.00e+00	0	57	0	3572498432	36	4284
2026-01-08 04:42:00.98	232.55	28.82	-33.4	-34.4	20.4	0.00e+00	0	57	0	3579838464	36	4283
2026-01-08 04:42:01.99	232.40	28.65	-33.4	-34.4	20.4	0.00e+00	0	57	0	3586129920	36	4271
2026-01-08 04:42:03.00	232.25	28.49	-33.4	-34.4	20.3	0.00e+00	0	57	0	3593469952	36	4288
2026-01-08 04:42:04.01	232.11	28.32	-33.4	-34.4	20.4	0.00e+00	0	57	0	3601858560	36	4287
2026-01-08 04:42:05.02	231.96	28.16	-33.5	-34.5	20.3	0.00e+00	0	57	0	3608150016	36	4313
2026-01-08 04:42:06.03	231.82	28.00	-33.5	-34.5	20.3	0.00e+00	0	57	0	3615490048	36	4325
2026-01-08 04:42:07.04	231.67	27.83	-33.6	-34.6	20.2	0.00e+00	0	57	0	3622830080	36	4352
2026-01-08 04:42:08.05	231.53	27.67	-33.5	-34.5	20.1	0.00e+00	0	57	0	3630170112	36	4325
2026-01-08 04:42:09.06	231.39	27.51	-33.6	-34.6	20.1	0.00e+00	0	57	0	3637510144	36	4357
2026-01-08 04:42:10.07	231.26	27.35	-33.5	-34.5	20.3	0.00e+00	0	57	0	3644850176	36	4305
2026-01-08 04:42:11.08	231.12	27.19	-33.5	-34.5	20.3	0.00e+00	0	57	0	3652190208	36	4302
2026-01-08 04:42:12.09	230.98	27.04	-33.4	-34.4	20.1	0.00e+00	0	57	0	3659530240	36	4289
2026-01-08 04:42:13.10	230.85	26.88	-33.4	-34.4	20.3	0.00e+00	0	57	0	3666870272	36	4260
2026-01-08 04:42:14.11	230.72	26.72	-33.5	-34.5	20.3	0.00e+00	0	57	0	3674210304	36	4300
2026-01-08 04:42:15.12	230.58	26.56	-33.5	-34.5	20.3	0.00e+00	0	57	0	3681550336	36	4307
2026-01-08 04:42:16.13	230.45	26.41	-33.5	-34.5	20.2	0.00e+00	0	57	0	3688890368	36	4340
2026-01-08 04:42:17.14	230.33	26.25	-33.6	-34.6	20.2	0.00e+00	0	57	0	3696230400	36	4367
2026-01-08 04:42:18.15	230.20	26.10	-33.6	-34.7	20.1	0.00e+00	0	57	0	3703570432	36	4397
2026-01-08 04:42:19.16	230.07	25.95	-33.7	-34.7	20.1	0.00e+00	0	57	0	3710910464	36	4420
2026-01-08 04:42:20.17	229.95	25.79	-33.7	-34.7	20.1	0.00e+00	0	57	0	3718250496	36	4414
2026-01-08 04:42:21.18	229.82	25.64	-33.7	-34.7	20.1	0.00e+00	0	57	0	3725590528	36	4419
2026-01-08 04:42:22.19	229.70	25.49	-33.6	-34.6	20.1	0.00e+00	0	57	0	3732930560	36	4388
2026-01-08 04:42:23.20	229.58	25.34	-33.6	-34.6	20.1	0.00e+00	0	57	0	3739222016	36	4386
2026-01-08 04:42:24.21	229.46	25.19	-33.5	-34.5	20.2	0.00e+00	0	57	0	3747610624	36	4335
2026-01-08 04:42:25.22	229.34	25.04	-33.5	-34.6	20.2	0.00e+00	0	57	0	3754950656	36	4343
2026-01-08 04:42:26.23	229.22	24.89	-33.5	-34.5	20.3	0.00e+00	0	57	0	3761242112	36	4316
2026-01-08 04:42:27.24	229.10	24.75	-33.4	-34.4	20.3	0.00e+00	0	57	0	3768582144	36	4291
2026-01-08 04:42:28.25	228.99	24.60	-33.4	-34.4	20.3	0.00e+00	0	57	0	3775922176	36	4280
2026-01-08 04:42:29.26	228.87	24.45	-33.4	-34.4	20.4	0.00e+00	0	57	0	3783262208	36	4253
2026-01-08 04:42:30.27	228.76	24.31	-33.3	-34.3	20.4	0.00e+00	0	57	0	3790602240	36	4240
2026-01-08 04:42:31.28	228.65	24.16	-33.4	-34.4	20.4	0.00e+00	0	57	0	3797942272	36	4249
2026-01-08 04:42:32.29	228.53	24.02	-33.3	-34.3	20.4	0.00e+00	0	57	0	3805282304	36	4213
2026-01-08 04:42:33.30	228.42	23.88	-33.3	-34.3	20.4	0.00e+00	0	57	0	3812622336	36	4234
2026-01-08 04:42:34.31	228.31	23.73	-33.4	-34.4	20.3	0.00e+00	0	57	0	3819962368	36	4258
2026-01-08 04:42:35.32	228.20	23.59	-33.4	-34.4	20.3	0.00e+00	0	57	0	3827302400	36	4260
2026-01-08 04:42:36.33	228.10	23.45	-33.5	-34.5	20.2	0.00e+00	0	57	0	3834642432	36	4317
2026-01-08 04:42:37.34	227.99	23.31	-33.6	-34.6	20.2	0.00e+00	0	57	0	3841982464	36	4355
2026-01-08 04:42:38.35	227.89	23.17	-33.7	-34.7	20.0	0.00e+00	0	57	0	3849322496	36	4433
2026-01-08 04:42:39.36	227.78	23.03	-33.8	-34.9	19.8	0.00e+00	0	57	0	3856662528	37	4256
2026-01-08 04:42:40.37	227.68	22.89	-33.9	-35.0	19.8	0.00e+00	0	57	0	3864002560	37	4310
2026-01-08 04:42:41.38	227.57	22.75	-34.0	-35.1	19.7	0.00e+00	0	57	0	3871342592	37	4358
2026-01-08 04:42:42.39	227.47	22.61	-34.1	-35.1	19.6	0.00e+00	0	57	0	3878682624	37	4385
2026-01-08 04:42:43.40	227.37	22.48	-34.2	-35.2	19.5	0.00e+00	0	57	0	3884974080	37	4437
2026-01-08 04:42:44.41	227.27	22.34	-34.2	-35.2	19.5	0.00e+00	0	57	0	3893362688	37	4436
2026-01-08 04:42:45.42	227.17	22.20	-34.1	-35.2	19.5	0.00e+00	0	57	0	3900702720	37	4394
2026-01-08 04:42:46.43	227.07	22.07	-34.1	-35.2	19.5	0.00e+00	0	57	0	3906994176	37	4407
2026-01-08 04:42:47.44	226.98	21.93	-34.0	-35.1	19.6	0.00e+00	0	57	0	3914334208	37	4368
2026-01-08 04:42:48.45	226.88	21.80	-34.0	-35.1	19.7	0.00e+00	0	57	0	3921674240	37	4350
2026-01-08 04:42:49.46	226.78	21.67	-33.9	-35.0	19.7	0.00e+00	0	57	0	3929014272	37	4307
2026-01-08 04:42:50.47	226.69	21.54	-33.8	-34.9	19.8	0.00e+00	0	57	0	3936354304	37	4257
2026-01-08 04:42:51.47	226.60	21.40	-33.8	-34.8	19.9	0.00e+00	0	57	0	3943694336	37	4218
2026-01-08 04:42:52.49	226.50	21.27	-33.8	-34.8	19.9	0.00e+00	0	57	0	3951034368	37	4203
2026-01-08 04:42:53.50	226.41	21.14	-33.7	-34.7	19.9	0.00e+00	0	57	0	3958374400	37	4182
2026-01-08 04:42:54.51	226.32	21.01	-33.7	-34.7	20.0	0.00e+00	0	57	0	3965714432	37	4182
2026-01-08 04:42:55.52	226.23	20.88	-33.8	-34.8	19.9	0.00e+00	0	57	0	3973054464	37	4209
2026-01-08 04:42:56.53	226.14	20.75	-33.8	-34.8	19.9	0.00e+00	0	57	0	3980394496	37	4234
2026-01-08 04:42:57.53	226.05	20.63	-33.9	-34.9	19.8	0.00e+00	0	57	0	3987734528	37	4257
2026-01-08 04:42:58.54	225.96	20.50	-33.9	-35.0	19.7	0.00e+00	0	57	0	3995074560	37	4309
2026-01-08 04:42:59.55	225.87	20.37	-34.0	-35.1	19.6	0.00e+00	0	57	0	4002414592	37	4351
2026-01-08 04:43:00.56	225.79	20.24	-34.1	-35.2	19.5	0.00e+00	0	58	0	4009754624	37	4400
2026-01-08 04:43:01.57	225.70	20.12	-34.2	-35.2	19.5	0.00e+00	0	57	0	4017094656	37	4440
2026-01-08 04:43:02.58	225.61	19.99	-34.3	-35.4	19.4	0.00e+00	0	58	0	4024434688	38	4251
2026-01-08 04:43:03.59	225.53	19.87	-34.3	-35.4	19.3	0.00e+00	0	57	0	4031774720	38	4262
2026-01-08 04:43:04.60	225.45	19.74	-34.4	-35.5	19.2	0.00e+00	0	57	0	4038066176	38	4305
2026-01-08 04:43:05.62	225.36	19.62	-34.5	-35.6	19.1	0.00e+00	0	57	0	4046454784	38	4371
2026-01-08 04:43:06.62	225.28	19.49	-34.5	-35.6	19.1	0.00e+00	0	57	0	4053794816	38	4382
2026-01-08 04:43:07.64	225.20	19.37	-34.6	-35.7	19.0	0.00e+00	0	57	0	4060086272	38	4409
2026-01-08 04:43:08.65	225.12	19.25	-34.6	-35.7	19.0	0.00e+00	0	57	0	4067426304	38	4430
2026-01-08 04:43:09.66	225.04	19.13	-34.7	-35.8	18.9	0.00e+00	0	57	0	4075814912	38	4471
2026-01-08 04:43:10.67	224.96	19.01	-34.7	-35.8	18.9	0.00e+00	0	57	0	4082106368	39	4226
2026-01-08 04:43:11.68	224.88	18.88	-34.7	-35.8	18.9	0.00e+00	0	57	0	4089446400	39	4236
2026-01-08 04:43:12.69	224.80	18.76	-34.7	-35.9	18.8	0.00e+00	0	57	0	4096786432	39	4248
2026-01-08 04:43:13.70	224.72	18.65	-34.8	-35.9	18.8	0.00e+00	0	57	0	4104126464	39	4275
2026-01-08 04:43:14.71	224.64	18.53	-34.8	-35.9	18.8	0.00e+00	0	57	0	4111466496	39	4275
2026-01-08 04:43:15.72	224.56	18.41	-34.8	-35.9	18.8	0.00e+00	0	57	0	4118806528	39	4257
2026-01-08 04:43:16.73	224.49	18.29	-34.7	-35.9	18.8	0.00e+00	0	58	0	4126146560	39	4251
2026-01-08 04:43:17.74	224.41	18.17	-34.7	-35.9	18.8	0.00e+00	0	57	0	4133486592	39	4245
2026-01-08 04:43:18.75	224.34	18.05	-34.7	-35.8	18.8	0.00e+00	0	57	0	4140826624	39	4231
2026-01-08 04:43:19.76	224.26	17.94	-34.7	-35.8	18.8	0.00e+00	0	57	0	4148166656	39	4236
2026-01-08 04:43:20.77	224.19	17.82	-34.7	-35.8	18.9	0.00e+00	0	57	0	4155506688	39	4212
2026-01-08 04:43:21.78	224.12	17.71	-34.6	-35.8	18.9	0.00e+00	0	57	0	4162846720	39	4196
2026-01-08 04:43:22.79	224.04	17.59	-34.6	-35.7	18.9	0.00e+00	0	57	0	4170186752	39	4174
2026-01-08 04:43:23.80	223.97	17.48	-34.6	-35.7	18.9	0.00e+00	0	57	0	4177526784	39	4163
2026-01-08 04:43:24.81	223.90	17.36	-34.6	-35.7	18.9	0.00e+00	0	57	0	4184866816	39	4163
2026-01-08 04:43:25.82	223.83	17.25	-34.6	-35.7	19.0	0.00e+00	0	57	0	4192206848	39	4164
2026-01-08 04:43:26.83	223.76	17.14	-34.5	-35.7	19.0	0.00e+00	0	57	0	4199546880	39	4147
2026-01-08 04:43:27.84	223.69	17.02	-34.6	-35.7	18.9	0.00e+00	0	57	0	4205838336	39	4151
2026-01-08 04:43:28.85	223.62	16.91	-34.5	-35.6	19.0	0.00e+00	0	57	0	4213178368	39	4139
2026-01-08 04:43:29.86	223.55	16.80	-34.6	-35.7	19.0	0.00e+00	0	57	0	4221566976	39	4151
2026-01-08 04:43:30.87	223.48	16.69	-34.6	-35.7	18.9	0.00e+00	0	57	0	4227858432	39	4152
2026-01-08 04:43:31.88	223.41	16.58	-34.6	-35.7	18.9	0.00e+00	0	57	0	4235198464	39	4172
2026-01-08 04:43:32.89	223.35	16.47	-34.6	-35.7	18.9	0.00e+00	0	57	0	4242538496	39	4176
2026-01-08 04:43:33.90	223.28	16.36	-34.6	-35.8	18.8	0.00e+00	0	57	0	4249878528	39	4195
2026-01-08 04:43:34.91	223.21	16.25	-34.7	-35.8	18.8	0.00e+00	0	57	0	4257218560	39	4210
2026-01-08 04:43:35.92	223.15	16.14	-34.7	-35.8	18.8	0.00e+00	0	57	0	4264558592	39	4222
2026-01-08 04:43:36.93	223.08	16.03	-34.7	-35.8	18.8	0.00e+00	0	57	0	4271898624	39	4241
2026-01-08 04:43:37.95	223.02	15.92	-34.8	-35.9	18.7	0.00e+00	0	57	0	4279238656	39	4274
2026-01-08 04:43:38.95	222.95	15.82	-34.8	-35.9	18.7	0.00e+00	0	57	0	4286578688	39	4263
2026-01-08 04:43:39.97	222.89	15.71	-34.8	-35.9	18.6	0.00e+00	0	57	0	4293918720	39	4291
2026-01-08 04:43:40.98	222.83	15.60	-34.8	-36.0	18.6	0.00e+00	0	57	0	4301258752	39	4311
2026-01-08 04:43:41.98	222.76	15.50	-34.9	-36.0	18.6	0.00e+00	0	57	0	4308598784	39	4325
2026-01-08 04:43:42.99	222.70	15.39	-34.9	-36.1	18.5	0.00e+00	0	57	0	4315938816	39	4357
2026-01-08 04:43:44.01	222.64	15.28	-35.0	-36.1	18.4	0.00e+00	0	57	0	4323278848	39	4390
2026-01-08 04:43:45.02	222.58	15.18	-35.0	-36.2	18.4	0.00e+00	0	57	0	4330618880	39	4394
2026-01-08 04:43:46.03	222.52	15.07	-35.1	-36.2	18.3	0.00e+00	0	57	0	4337958912	39	4423
2026-01-08 04:43:47.04	222.46	14.97	-35.1	-36.2	18.3	0.00e+00	0	57	0	4345298944	39	4430
2026-01-08 04:43:48.05	222.40	14.87	-35.1	-36.3	18.3	0.00e+00	0	57	0	4352638976	39	4449
2026-01-08 04:43:49.06	222.34	14.76	-35.2	-36.3	18.2	0.00e+00	0	57	0	4359979008	39	4485
2026-01-08 04:43:50.07	222.28	14.66	-35.2	-36.4	18.1	1.10e-06	0	57	0	4367319040	39	4519
2026-01-08 04:43:51.08	222.22	14.56	-35.2	-36.4	18.1	0.00e+00	0	57	0	4374659072	40	4249
2026-01-08 04:43:52.09	222.16	14.45	-35.2	-36.4	18.1	0.00e+00	0	57	0	4380950528	40	4249
2026-01-08 04:43:53.10	222.10	14.35	-35.3	-36.4	18.0	0.00e+00	0	57	0	4388290560	40	4290
2026-01-08 04:43:54.11	222.04	14.25	-35.3	-36.5	18.0	0.00e+00	0	57	0	4396679168	40	4301
2026-01-08 04:43:55.12	221.99	14.15	-35.3	-36.5	17.9	0.00e+00	0	57	0	4402970624	40	4326
2026-01-08 04:43:56.13	221.93	14.05	-35.3	-36.5	17.9	0.00e+00	0	57	0	4410310656	40	4340
2026-01-08 04:43:57.14	221.87	13.95	-35.4	-36.6	17.8	0.00e+00	0	57	0	4417650688	40	4381
