passes_logs/2026/01/08/R2.0S_Moscow/R2.0S_Moscow__20260108_011629_NOAA_21_JPSS-2_rec.log

#Pass ID: 20260108_011629_NOAA 21 (JPSS-2)
#Satellite: NOAA 21 (JPSS-2)
#Configuration: NOAA-21
#almurnet v.1.7.20251203
#Start time: 2026-01-08 01:24:45

#Version: 2.2.20231116
#Station: R2.0S_Moscow
#Location: 37.707566 lon 55.798166 lat
#TLE: 1 54234U 22150A   26005.56767909  .00000152  00000+0  92756-4 0  9990
#TLE: 2 54234  98.7490 306.5820 0001036 340.2747  19.8389 14.19532370163472

#Time	Az	El	Level	Level2	SNR	BER	BlckErr	Temp	State	Recorded	gain1	gain2
2026-01-08 01:24:45.98	278.62	19.88	-46.0	-64.9	3.8	7.45e-01	0	56	0	0	62	33944
2026-01-08 01:24:46.99	278.40	19.81	-45.2	-57.6	3.8	1.49e+00	0	56	104	0	62	14663
2026-01-08 01:24:48.00	278.18	19.75	-45.2	-57.6	3.8	1.49e+00	0	57	104	0	62	14636
2026-01-08 01:24:49.01	277.96	19.68	-45.2	-57.6	3.8	1.49e+00	0	56	104	0	62	14634
2026-01-08 01:24:50.02	277.75	19.62	-45.2	-57.6	3.8	1.49e+00	0	56	104	0	62	14630
2026-01-08 01:24:51.03	277.53	19.55	-45.2	-57.6	3.8	1.49e+00	0	56	104	0	62	14547
2026-01-08 01:24:52.04	277.32	19.48	-45.1	-57.5	3.8	1.49e+00	0	56	104	0	62	14454
2026-01-08 01:24:53.05	277.11	19.42	-45.1	-57.5	3.8	1.49e+00	0	56	104	0	62	14403
2026-01-08 01:24:54.06	276.89	19.35	-44.9	-57.3	3.8	1.49e+00	0	56	104	0	61	14897
2026-01-08 01:24:55.07	276.68	19.28	-44.8	-57.1	3.8	1.49e+00	0	56	104	0	61	14598
2026-01-08 01:24:56.08	276.47	19.22	-44.6	-57.0	3.8	1.49e+00	0	57	104	0	61	14374
2026-01-08 01:24:57.09	276.26	19.15	-44.6	-56.9	3.8	1.49e+00	0	57	104	0	61	14330
2026-01-08 01:24:58.10	276.06	19.08	-44.6	-56.9	3.8	1.49e+00	0	57	104	0	61	14259
2026-01-08 01:24:59.11	275.85	19.01	-44.6	-56.8	3.8	1.49e+00	0	56	104	0	61	14208
2026-01-08 01:25:00.11	275.64	18.95	-44.6	-56.9	3.8	1.49e+00	0	56	104	0	61	14280
2026-01-08 01:25:01.12	275.44	18.88	-44.6	-56.9	3.8	1.49e+00	0	56	104	0	61	14265
2026-01-08 01:25:02.13	275.24	18.81	-44.6	-56.9	3.8	1.49e+00	0	56	104	0	61	14318
2026-01-08 01:25:03.14	275.03	18.74	-44.6	-57.0	3.8	1.49e+00	0	56	104	0	61	14405
2026-01-08 01:25:04.15	274.83	18.67	-44.6	-57.0	3.8	1.49e+00	0	56	104	0	61	14407
2026-01-08 01:25:05.16	274.63	18.60	-44.6	-57.0	3.8	1.49e+00	0	56	104	0	61	14379
2026-01-08 01:25:06.17	274.43	18.53	-44.6	-56.9	3.8	1.49e+00	0	57	104	0	61	14261
2026-01-08 01:25:07.18	274.23	18.46	-44.6	-56.9	3.8	1.49e+00	0	56	104	0	61	14211
2026-01-08 01:25:08.19	274.03	18.39	-44.6	-56.7	3.8	1.49e+00	0	56	104	0	61	14023
2026-01-08 01:25:09.20	273.83	18.32	-44.6	-56.7	3.8	1.49e+00	0	56	104	0	61	13983
2026-01-08 01:25:10.21	273.63	18.25	-44.6	-56.8	3.8	1.49e+00	0	56	104	0	61	14075
2026-01-08 01:25:11.22	273.44	18.18	-44.6	-56.8	3.8	1.49e+00	0	57	104	0	61	14173
2026-01-08 01:25:12.23	273.24	18.11	-44.6	-56.9	3.8	1.49e+00	0	56	104	0	61	14330
2026-01-08 01:25:13.24	273.05	18.04	-44.6	-56.9	3.8	1.49e+00	0	57	104	0	61	14218
2026-01-08 01:25:14.24	272.86	17.97	-44.5	-56.6	3.8	1.49e+00	0	56	104	0	61	13728
2026-01-08 01:25:15.25	272.66	17.90	-44.5	-56.0	3.8	1.49e+00	0	56	104	0	61	12924
2026-01-08 01:25:16.26	272.47	17.83	-44.4	-55.5	3.8	1.49e+00	0	57	104	0	60	12909
2026-01-08 01:25:17.26	272.28	17.76	-44.4	-55.1	3.9	1.49e+00	0	56	104	0	60	12317
2026-01-08 01:25:18.27	272.09	17.69	-44.4	-55.0	3.9	1.49e+00	0	56	104	0	60	12103
2026-01-08 01:25:19.28	271.90	17.62	-44.4	-55.7	3.8	1.49e+00	0	56	104	0	60	13208
2026-01-08 01:25:20.29	271.72	17.55	-44.5	-56.3	3.8	1.49e+00	0	56	104	0	60	14124
2026-01-08 01:25:21.30	271.53	17.48	-44.5	-56.8	3.8	1.49e+00	0	56	104	0	60	14991
2026-01-08 01:25:22.31	271.34	17.41	-44.6	-57.0	3.8	1.49e+00	0	57	104	0	60	15227
2026-01-08 01:25:23.32	271.16	17.33	-44.5	-56.7	3.8	1.49e+00	0	56	104	0	60	14733
2026-01-08 01:25:24.33	270.97	17.26	-44.5	-56.0	3.8	1.49e+00	0	57	104	0	60	13627
2026-01-08 01:25:25.34	270.79	17.19	-44.3	-54.8	3.9	1.49e+00	0	57	104	0	60	11855
2026-01-08 01:25:26.35	270.61	17.12	-44.1	-53.3	3.9	1.45e+00	0	57	104	0	60	9975
2026-01-08 01:25:27.36	270.42	17.05	-43.9	-51.1	5.1	7.38e-01	0	57	0	0	59	8195
2026-01-08 01:25:28.36	270.25	16.98	-43.6	-50.1	5.8	4.28e-01	0	57	0	3145728	59	7311
2026-01-08 01:25:29.38	270.06	16.90	-43.6	-49.8	5.9	3.46e-01	0	56	0	6291456	59	7117
2026-01-08 01:25:30.38	269.89	16.83	-43.7	-50.3	5.6	3.89e-01	0	57	0	9437184	59	7514
2026-01-08 01:25:31.39	269.71	16.76	-44.0	-52.5	4.0	6.69e-01	0	57	104	12582912	59	9712
2026-01-08 01:25:32.40	269.53	16.69	-44.4	-54.7	3.8	1.47e+00	0	57	104	12582912	59	12381
2026-01-08 01:25:33.41	269.35	16.62	-44.5	-55.2	3.8	1.49e+00	0	57	104	12582912	59	13188
2026-01-08 01:25:34.42	269.18	16.54	-43.9	-51.2	5.0	1.14e+00	0	57	0	12582912	59	8365
2026-01-08 01:25:35.42	269.00	16.47	-42.7	-47.2	8.2	9.58e-02	0	57	0	15728640	57	5906
2026-01-08 01:25:36.43	268.83	16.40	-41.0	-44.1	11.4	1.92e-03	0	57	0	18874368	54	4876
2026-01-08 01:25:37.44	268.66	16.33	-39.6	-41.8	13.8	8.30e-06	0	57	0	22020096	51	4450
2026-01-08 01:25:38.45	268.48	16.25	-38.5	-40.3	15.4	0.00e+00	0	56	0	25165824	48	4460
2026-01-08 01:25:39.46	268.31	16.18	-37.7	-39.4	16.2	0.00e+00	0	57	0	28311552	47	4247
2026-01-08 01:25:40.47	268.14	16.11	-38.2	-40.0	15.6	0.00e+00	0	57	0	31457280	47	4567
2026-01-08 01:25:41.48	267.97	16.04	-40.7	-43.5	12.0	7.24e-05	0	56	0	34603008	52	5156
2026-01-08 01:25:42.49	267.80	15.96	-38.3	-40.1	15.4	6.67e-04	0	56	0	37748736	48	4373
2026-01-08 01:25:43.50	267.63	15.89	-39.0	-41.1	14.6	0.00e+00	0	57	0	40894464	49	4613
2026-01-08 01:25:44.51	267.47	15.82	-38.6	-40.5	15.2	4.98e-04	0	57	0	44040192	48	4553
2026-01-08 01:25:45.51	267.30	15.74	-42.0	-45.7	9.6	1.46e+00	0	57	104	45088768	56	5246
2026-01-08 01:25:46.52	267.14	15.67	-38.7	-40.6	15.1	0.00e+00	0	56	0	47185920	49	4365
2026-01-08 01:25:47.53	266.97	15.60	-38.5	-40.4	15.2	0.00e+00	0	56	0	50331648	49	4280
2026-01-08 01:25:48.54	266.81	15.53	-38.5	-40.3	15.3	0.00e+00	0	57	0	53477376	48	4485
2026-01-08 01:25:49.55	266.64	15.45	-38.3	-40.0	15.6	0.00e+00	0	56	0	56623104	48	4338
2026-01-08 01:25:50.55	266.48	15.38	-37.8	-39.5	16.0	0.00e+00	0	56	0	59768832	47	4301
2026-01-08 01:25:51.56	266.32	15.31	-37.5	-39.2	16.3	0.00e+00	0	56	0	62914560	47	4152
2026-01-08 01:25:52.57	266.16	15.23	-37.5	-39.1	16.4	0.00e+00	0	56	0	66060288	46	4360
2026-01-08 01:25:53.58	266.00	15.16	-37.5	-39.1	16.4	0.00e+00	0	56	0	69206016	46	4355
2026-01-08 01:25:54.59	265.84	15.09	-37.5	-39.1	16.3	0.00e+00	0	56	0	72351744	46	4379
2026-01-08 01:25:55.60	265.68	15.02	-37.6	-39.2	16.2	0.00e+00	0	57	0	75497472	46	4440
2026-01-08 01:25:56.61	265.52	14.94	-37.7	-39.4	16.1	0.00e+00	0	56	0	78643200	46	4507
2026-01-08 01:25:57.62	265.37	14.87	-37.8	-39.5	16.0	0.00e+00	0	56	0	81788928	46	4571
2026-01-08 01:25:58.63	265.21	14.80	-38.0	-39.7	15.8	0.00e+00	0	56	0	84934656	46	4686
2026-01-08 01:25:59.64	265.06	14.72	-37.9	-39.7	15.8	0.00e+00	0	57	0	88080384	46	4690
2026-01-08 01:26:00.65	264.90	14.65	-37.9	-39.7	15.8	0.00e+00	0	57	0	91226112	46	4657
2026-01-08 01:26:01.66	264.75	14.58	-37.8	-39.5	15.9	0.00e+00	0	57	0	94371840	46	4592
2026-01-08 01:26:02.67	264.59	14.50	-37.7	-39.3	16.1	0.00e+00	0	56	0	97517568	46	4492
2026-01-08 01:26:03.67	264.44	14.43	-37.5	-39.1	16.4	0.00e+00	0	57	0	100663296	46	4362
2026-01-08 01:26:04.68	264.29	14.36	-37.2	-38.8	16.6	0.00e+00	0	56	0	103809024	46	4231
2026-01-08 01:26:05.69	264.14	14.29	-37.1	-38.6	16.8	0.00e+00	0	56	0	106954752	46	4125
2026-01-08 01:26:06.70	263.99	14.21	-37.1	-38.6	16.8	0.00e+00	0	56	0	110100480	46	4132
2026-01-08 01:26:07.71	263.84	14.14	-37.2	-38.7	16.7	0.00e+00	0	56	0	113246208	46	4185
2026-01-08 01:26:08.72	263.69	14.07	-37.3	-38.9	16.5	0.00e+00	0	57	0	116391936	46	4278
2026-01-08 01:26:09.73	263.54	13.99	-37.4	-39.1	16.4	0.00e+00	0	57	0	119537664	46	4347
2026-01-08 01:26:10.74	263.40	13.92	-37.6	-39.3	16.1	0.00e+00	0	56	0	122683392	46	4456
2026-01-08 01:26:11.74	263.25	13.85	-37.8	-39.5	15.9	0.00e+00	0	56	0	125829120	46	4569
2026-01-08 01:26:12.75	263.11	13.78	-37.9	-39.7	15.8	0.00e+00	0	56	0	128974848	46	4657
2026-01-08 01:26:13.76	262.96	13.70	-37.9	-39.6	15.8	0.00e+00	0	56	0	132120576	46	4640
2026-01-08 01:26:14.77	262.82	13.63	-37.9	-39.7	15.7	0.00e+00	0	57	0	135266304	46	4653
2026-01-08 01:26:15.78	262.67	13.56	-37.9	-39.6	15.8	0.00e+00	0	56	0	138412032	46	4632
2026-01-08 01:26:16.78	262.53	13.49	-37.9	-39.6	15.8	0.00e+00	0	57	0	141557760	46	4628
2026-01-08 01:26:17.79	262.39	13.41	-37.8	-39.5	15.9	0.00e+00	0	57	0	144703488	46	4575
2026-01-08 01:26:18.80	262.25	13.34	-37.8	-39.5	15.9	0.00e+00	0	57	0	147849216	46	4585
2026-01-08 01:26:19.81	262.11	13.27	-37.7	-39.4	16.0	0.00e+00	0	56	0	150994944	46	4533
2026-01-08 01:26:20.81	261.97	13.20	-37.7	-39.5	15.9	0.00e+00	0	57	0	154140672	46	4567
2026-01-08 01:26:21.82	261.83	13.12	-37.8	-39.6	15.8	0.00e+00	0	57	0	157286400	46	4620
2026-01-08 01:26:22.83	261.69	13.05	-38.1	-39.9	15.5	0.00e+00	0	56	0	160432128	46	4775
2026-01-08 01:26:23.84	261.55	12.98	-38.2	-40.1	15.3	0.00e+00	0	56	0	163577856	47	4612
2026-01-08 01:26:24.85	261.41	12.91	-38.3	-40.2	15.1	0.00e+00	0	56	0	166723584	47	4705
2026-01-08 01:26:25.85	261.28	12.84	-38.4	-40.3	15.0	1.50e-06	0	56	0	169869312	47	4759
2026-01-08 01:26:26.86	261.14	12.76	-38.5	-40.5	14.8	0.00e+00	0	56	0	173015040	47	4864
2026-01-08 01:26:27.87	261.01	12.69	-38.6	-40.6	14.7	0.00e+00	0	57	0	176160768	47	4908
2026-01-08 01:26:28.88	260.87	12.62	-38.6	-40.6	14.7	7.00e-07	0	56	0	179306496	47	4926
2026-01-08 01:26:29.89	260.74	12.55	-38.5	-40.5	14.8	0.00e+00	0	56	0	182452224	47	4841
2026-01-08 01:26:30.90	260.61	12.48	-38.4	-40.4	15.0	0.00e+00	0	56	0	185597952	47	4764
2026-01-08 01:26:31.91	260.47	12.40	-38.4	-40.3	15.1	0.00e+00	0	56	0	188743680	47	4726
2026-01-08 01:26:32.91	260.34	12.33	-38.2	-40.1	15.2	7.00e-07	0	57	0	191889408	47	4637
2026-01-08 01:26:33.92	260.21	12.26	-38.0	-39.8	15.5	0.00e+00	0	57	0	195035136	47	4490
2026-01-08 01:26:34.93	260.08	12.19	-38.0	-39.8	15.5	0.00e+00	0	57	0	198180864	47	4450
2026-01-08 01:26:35.94	259.95	12.12	-37.9	-39.7	15.6	0.00e+00	0	57	0	202375168	47	4428
2026-01-08 01:26:36.95	259.82	12.05	-37.9	-39.7	15.6	0.00e+00	0	57	0	205520896	47	4432
2026-01-08 01:26:37.96	259.69	11.97	-38.0	-39.8	15.5	0.00e+00	0	57	0	207618048	47	4457
2026-01-08 01:26:38.97	259.56	11.90	-38.1	-39.9	15.4	0.00e+00	0	56	0	210763776	47	4524
2026-01-08 01:26:39.98	259.44	11.83	-38.2	-40.1	15.2	0.00e+00	0	56	0	213909504	47	4636
2026-01-08 01:26:40.98	259.31	11.76	-38.4	-40.4	15.0	0.00e+00	0	56	0	218103808	47	4761
2026-01-08 01:26:42.00	259.18	11.69	-38.5	-40.5	14.8	7.00e-07	0	56	0	221249536	47	4847
2026-01-08 01:26:43.01	259.06	11.62	-38.6	-40.6	14.7	7.00e-07	0	57	0	224395264	47	4890
2026-01-08 01:26:44.01	258.93	11.55	-38.5	-40.6	14.7	0.00e+00	0	57	0	227540992	47	4879
2026-01-08 01:26:45.02	258.81	11.48	-38.5	-40.6	14.7	0.00e+00	0	57	0	229638144	47	4872
2026-01-08 01:26:46.03	258.68	11.41	-38.5	-40.5	14.7	0.00e+00	0	57	0	232783872	47	4865
2026-01-08 01:26:47.04	258.56	11.34	-38.5	-40.5	14.7	0.00e+00	0	57	0	236978176	47	4850
2026-01-08 01:26:48.05	258.44	11.26	-38.5	-40.5	14.7	0.00e+00	0	57	0	240123904	47	4844
2026-01-08 01:26:49.06	258.32	11.19	-38.4	-40.4	14.9	0.00e+00	0	56	0	243269632	47	4786
2026-01-08 01:26:50.07	258.20	11.12	-38.3	-40.3	15.0	0.00e+00	0	57	0	246415360	47	4733
2026-01-08 01:26:51.08	258.07	11.05	-38.3	-40.2	15.0	0.00e+00	0	57	0	249561088	47	4676
2026-01-08 01:26:52.09	257.95	10.98	-38.2	-40.1	15.1	0.00e+00	0	56	0	252706816	47	4651
2026-01-08 01:26:53.10	257.83	10.91	-38.2	-40.1	15.2	0.00e+00	0	57	0	255852544	47	4619
2026-01-08 01:26:54.10	257.72	10.84	-38.3	-40.2	15.1	0.00e+00	0	57	0	258998272	47	4672
2026-01-08 01:26:55.11	257.60	10.77	-38.3	-40.3	15.0	0.00e+00	0	56	0	262144000	47	4726
2026-01-08 01:26:56.12	257.48	10.70	-38.5	-40.5	14.8	0.00e+00	0	57	0	265289728	47	4841
2026-01-08 01:26:57.13	257.36	10.63	-38.7	-40.7	14.5	7.00e-07	0	56	0	268435456	47	4963
2026-01-08 01:26:58.14	257.25	10.56	-38.8	-40.9	14.4	7.00e-07	0	56	0	271581184	48	4795
2026-01-08 01:26:59.15	257.13	10.49	-39.0	-41.1	14.2	1.50e-06	0	57	0	274726912	48	4913
2026-01-08 01:27:00.16	257.01	10.42	-39.1	-41.3	14.0	1.50e-06	0	57	0	277872640	48	5014
2026-01-08 01:27:01.17	256.90	10.35	-39.2	-41.4	14.0	4.50e-06	0	56	0	281018368	49	4770
2026-01-08 01:27:02.18	256.78	10.28	-39.2	-41.4	14.0	6.10e-06	0	57	0	284164096	49	4763
2026-01-08 01:27:03.18	256.67	10.21	-39.1	-41.3	14.0	2.20e-06	0	56	0	287309824	49	4754
2026-01-08 01:27:04.19	256.56	10.14	-39.2	-41.4	13.9	1.50e-06	0	56	0	290455552	49	4779
2026-01-08 01:27:05.20	256.44	10.07	-38.9	-40.9	14.3	1.50e-06	0	56	0	293601280	49	4542
2026-01-08 01:27:06.21	256.33	10.01	-38.7	-40.7	14.6	0.00e+00	0	57	0	296747008	49	4435
2026-01-08 01:27:07.22	256.22	9.94	-38.6	-40.6	14.7	7.00e-07	0	57	0	299892736	49	4369
2026-01-08 01:27:08.23	256.11	9.87	-38.6	-40.5	14.7	0.00e+00	0	57	0	303038464	49	4338
2026-01-08 01:27:09.24	256.00	9.80	-38.5	-40.4	14.8	0.00e+00	0	57	0	306184192	49	4289
2026-01-08 01:27:10.25	255.89	9.73	-38.4	-40.4	14.9	0.00e+00	0	57	0	309329920	48	4498
2026-01-08 01:27:11.25	255.78	9.66	-38.5	-40.4	14.8	0.00e+00	0	56	0	312475648	48	4543
2026-01-08 01:27:12.26	255.67	9.59	-38.5	-40.5	14.8	0.00e+00	0	57	0	315621376	48	4569
2026-01-08 01:27:13.27	255.56	9.52	-38.6	-40.6	14.7	0.00e+00	0	57	0	318767104	48	4618
2026-01-08 01:27:14.28	255.45	9.45	-38.7	-40.8	14.5	0.00e+00	0	57	0	321912832	48	4733
2026-01-08 01:27:15.29	255.35	9.39	-38.8	-40.8	14.4	1.50e-06	0	57	0	325058560	48	4740
2026-01-08 01:27:16.30	255.24	9.32	-38.9	-41.0	14.3	0.00e+00	0	57	0	328204288	48	4847
2026-01-08 01:27:17.31	255.13	9.25	-39.0	-41.1	14.1	1.50e-06	0	56	0	331350016	48	4920
2026-01-08 01:27:18.32	255.03	9.18	-39.1	-41.3	13.9	2.20e-06	0	57	0	334495744	48	5018
2026-01-08 01:27:19.33	254.92	9.11	-39.1	-41.4	13.9	4.50e-06	0	56	0	337641472	48	5048
2026-01-08 01:27:20.34	254.82	9.05	-39.3	-41.6	13.7	1.29e-05	0	56	0	340787200	49	4875
2026-01-08 01:27:21.34	254.71	8.98	-39.2	-41.5	13.7	3.80e-06	0	57	0	343932928	49	4851
2026-01-08 01:27:22.35	254.61	8.91	-39.3	-41.5	13.7	1.14e-05	0	57	0	347078656	49	4854
2026-01-08 01:27:23.37	254.50	8.84	-39.4	-41.7	13.5	9.90e-06	0	57	0	350224384	49	4961
2026-01-08 01:27:24.38	254.40	8.77	-39.3	-41.5	13.7	6.10e-06	0	57	0	353370112	49	4863
2026-01-08 01:27:25.38	254.30	8.71	-39.1	-41.4	13.8	6.10e-06	0	56	0	356515840	49	4778
2026-01-08 01:27:26.39	254.20	8.64	-39.1	-41.3	13.9	3.80e-06	0	56	0	359661568	49	4742
2026-01-08 01:27:27.40	254.09	8.57	-39.1	-41.3	13.9	3.00e-06	0	57	0	362807296	49	4736
2026-01-08 01:27:28.41	253.99	8.50	-39.0	-41.2	13.9	7.00e-07	0	57	0	365953024	49	4685
2026-01-08 01:27:29.42	253.89	8.44	-38.9	-41.1	14.1	1.50e-06	0	56	0	369098752	49	4599
2026-01-08 01:27:30.43	253.79	8.37	-38.8	-40.9	14.3	7.00e-07	0	57	0	372244480	49	4508
2026-01-08 01:27:31.44	253.69	8.30	-38.7	-40.7	14.4	0.00e+00	0	57	0	375390208	49	4428
2026-01-08 01:27:32.45	253.59	8.24	-38.7	-40.8	14.4	0.00e+00	0	57	0	378535936	49	4451
2026-01-08 01:27:33.46	253.49	8.17	-38.7	-40.8	14.3	0.00e+00	0	57	0	381681664	49	4473
2026-01-08 01:27:34.46	253.40	8.10	-38.8	-40.9	14.3	1.50e-06	0	56	0	384827392	49	4519
2026-01-08 01:27:35.47	253.30	8.04	-38.8	-41.0	14.2	1.50e-06	0	56	0	387973120	49	4554
2026-01-08 01:27:36.48	253.20	7.97	-40.0	-42.7	12.7	7.00e-07	0	57	0	391118848	50	5279
2026-01-08 01:27:37.49	253.10	7.90	-44.6	-56.7	3.8	1.49e+00	0	57	104	391118848	59	15722
2026-01-08 01:27:38.50	253.01	7.84	-44.7	-57.0	3.8	1.49e+00	0	57	104	391118848	60	15391
2026-01-08 01:27:39.51	252.91	7.77	-44.9	-57.3	3.8	1.49e+00	0	57	104	391118848	60	15818
2026-01-08 01:27:40.52	252.82	7.71	-45.0	-57.4	3.8	1.49e+00	0	57	104	391118848	60	16084
2026-01-08 01:27:41.53	252.72	7.64	-45.1	-57.5	3.8	1.49e+00	0	57	104	391118848	60	16165
2026-01-08 01:27:42.54	252.63	7.57	-45.1	-57.6	3.8	1.49e+00	0	57	104	391118848	60	16316
2026-01-08 01:27:43.55	252.53	7.51	-45.2	-57.6	3.8	1.49e+00	0	57	104	391118848	60	16444
2026-01-08 01:27:44.56	252.44	7.44	-45.2	-57.6	3.8	1.49e+00	0	57	104	391118848	60	16483
2026-01-08 01:27:45.57	252.34	7.38	-45.2	-57.6	3.8	1.49e+00	0	57	104	391118848	61	15574
2026-01-08 01:27:46.58	252.25	7.31	-45.2	-57.6	3.8	1.49e+00	0	57	104	391118848	61	15505
2026-01-08 01:27:47.59	252.16	7.25	-45.2	-57.6	3.8	1.49e+00	0	57	104	391118848	61	15505
2026-01-08 01:27:48.59	252.07	7.18	-45.1	-57.6	3.8	1.49e+00	0	57	104	391118848	61	15438
2026-01-08 01:27:49.61	251.98	7.11	-45.1	-57.6	3.8	1.49e+00	0	57	104	391118848	61	15449
2026-01-08 01:27:50.61	251.88	7.05	-45.1	-57.6	3.8	1.49e+00	0	57	104	391118848	61	15415
2026-01-08 01:27:51.62	251.79	6.98	-45.1	-57.6	3.8	1.49e+00	0	57	104	391118848	61	15498
2026-01-08 01:27:52.63	251.70	6.92	-45.2	-57.6	3.8	1.49e+00	0	57	104	391118848	61	15527
2026-01-08 01:27:53.64	251.61	6.85	-45.1	-57.6	3.8	1.49e+00	0	57	104	391118848	61	15418
2026-01-08 01:27:54.65	251.52	6.79	-45.1	-57.6	3.8	1.49e+00	0	57	104	391118848	61	15416
2026-01-08 01:27:55.66	251.43	6.73	-45.1	-57.5	3.8	1.49e+00	0	57	104	391118848	61	15381
2026-01-08 01:27:56.67	251.35	6.66	-45.1	-57.6	3.8	1.49e+00	0	57	104	391118848	61	15422
2026-01-08 01:27:57.68	251.26	6.60	-45.1	-57.5	3.8	1.49e+00	0	57	104	391118848	61	15393
2026-01-08 01:27:58.69	251.17	6.53	-45.1	-57.5	3.8	1.49e+00	0	57	104	391118848	61	15397
2026-01-08 01:27:59.70	251.08	6.47	-45.1	-57.6	3.8	1.49e+00	0	57	104	391118848	61	15416
2026-01-08 01:28:00.71	250.99	6.40	-45.1	-57.5	3.8	1.49e+00	0	57	104	391118848	61	15374
2026-01-08 01:28:01.72	250.91	6.34	-45.1	-57.5	3.8	1.49e+00	0	57	104	391118848	61	15380
2026-01-08 01:28:02.73	250.82	6.28	-45.1	-57.5	3.8	1.49e+00	0	57	104	391118848	61	15365
2026-01-08 01:28:03.74	250.73	6.21	-45.1	-57.5	3.8	1.49e+00	0	57	104	391118848	61	15390
2026-01-08 01:28:04.75	250.65	6.15	-45.1	-57.5	3.8	1.49e+00	0	57	104	391118848	61	15371
2026-01-08 01:28:05.75	250.56	6.08	-45.1	-57.5	3.8	1.49e+00	0	57	104	391118848	61	15400
2026-01-08 01:28:06.76	250.48	6.02	-45.1	-57.5	3.8	1.49e+00	0	57	104	391118848	61	15360
2026-01-08 01:28:07.77	250.39	5.96	-45.0	-57.5	3.8	1.49e+00	0	57	104	391118848	61	15363
2026-01-08 01:28:08.78	250.31	5.89	-45.1	-57.5	3.8	1.49e+00	0	57	104	391118848	61	15380
2026-01-08 01:28:09.79	250.23	5.83	-45.1	-57.5	3.8	1.49e+00	0	57	104	391118848	61	15356
2026-01-08 01:28:10.80	250.14	5.77	-45.1	-57.5	3.8	1.49e+00	0	57	104	391118848	61	15330
2026-01-08 01:28:11.81	250.06	5.70	-45.1	-57.5	3.8	1.49e+00	0	57	104	391118848	61	15380
2026-01-08 01:28:12.82	249.98	5.64	-45.1	-57.5	3.8	1.49e+00	0	57	104	391118848	61	15399
2026-01-08 01:28:13.83	249.89	5.58	-45.1	-57.5	3.8	1.49e+00	0	57	104	391118848	61	15341
2026-01-08 01:28:14.84	249.81	5.52	-45.1	-57.5	3.8	1.49e+00	0	57	104	391118848	61	15353
2026-01-08 01:28:15.85	249.73	5.45	-45.1	-57.5	3.8	1.49e+00	0	57	104	391118848	61	15330
2026-01-08 01:28:16.86	249.65	5.39	-45.1	-57.5	3.8	1.49e+00	0	57	104	391118848	61	15310
2026-01-08 01:28:17.87	249.57	5.33	-45.1	-57.5	3.8	1.49e+00	0	57	104	391118848	61	15310
2026-01-08 01:28:18.88	249.49	5.26	-45.1	-57.5	3.8	1.49e+00	0	57	104	391118848	61	15288
2026-01-08 01:28:19.89	249.41	5.20	-45.1	-57.5	3.8	1.49e+00	0	57	104	391118848	61	15374
2026-01-08 01:28:20.89	249.33	5.14	-45.0	-57.5	3.8	1.49e+00	0	57	104	391118848	61	15320
2026-01-08 01:28:21.90	249.25	5.08	-45.1	-57.5	3.8	1.49e+00	0	57	104	391118848	61	15320
2026-01-08 01:28:22.91	249.17	5.02	-45.1	-57.5	3.8	1.49e+00	0	57	104	391118848	61	15364
2026-01-08 01:28:23.92	249.09	4.95	-45.1	-57.5	3.8	1.49e+00	0	57	104	391118848	61	15339
2026-01-08 01:28:24.93	249.01	4.89	-45.1	-57.5	3.8	1.49e+00	0	57	104	391118848	61	15322
2026-01-08 01:28:25.94	248.93	4.83	-45.0	-57.5	3.8	1.49e+00	0	57	104	391118848	61	15295
2026-01-08 01:28:26.95	248.86	4.77	-45.1	-57.5	3.8	1.49e+00	0	57	104	391118848	61	15319
2026-01-08 01:28:27.96	248.78	4.71	-45.1	-57.5	3.8	1.49e+00	0	57	104	391118848	61	15322
2026-01-08 01:28:28.97	248.70	4.65	-45.0	-57.5	3.8	1.49e+00	0	57	104	391118848	61	15268
2026-01-08 01:28:29.98	248.63	4.58	-45.0	-57.5	3.8	1.49e+00	0	57	104	391118848	61	15266
2026-01-08 01:28:30.99	248.55	4.52	-45.0	-57.5	3.8	1.49e+00	0	57	104	391118848	61	15252
2026-01-08 01:28:32.00	248.47	4.46	-45.0	-57.5	3.8	1.49e+00	0	57	104	391118848	61	15268
2026-01-08 01:28:33.01	248.40	4.40	-45.0	-57.5	3.8	1.49e+00	0	57	104	391118848	61	15268
2026-01-08 01:28:34.02	248.32	4.34	-45.1	-57.5	3.8	1.49e+00	0	57	104	391118848	61	15289
2026-01-08 01:28:35.03	248.25	4.28	-45.1	-57.5	3.8	1.49e+00	0	57	104	391118848	61	15286
2026-01-08 01:28:36.04	248.17	4.22	-45.1	-57.5	3.8	1.49e+00	0	57	104	391118848	61	15311
2026-01-08 01:28:37.05	248.10	4.16	-45.0	-57.5	3.8	1.49e+00	0	57	104	391118848	61	15271
2026-01-08 01:28:38.06	248.02	4.10	-45.0	-57.5	3.8	1.49e+00	0	57	104	391118848	61	15325
2026-01-08 01:28:39.07	247.95	4.03	-45.0	-57.5	3.8	1.49e+00	0	57	104	391118848	61	15276
2026-01-08 01:28:40.08	247.88	3.97	-45.0	-57.5	3.8	1.49e+00	0	57	104	391118848	61	15331
2026-01-08 01:28:41.09	247.80	3.91	-45.0	-57.5	3.8	1.49e+00	0	57	104	391118848	61	15319
2026-01-08 01:28:42.10	247.73	3.85	-45.0	-57.5	3.8	1.49e+00	0	57	104	391118848	61	15282
2026-01-08 01:28:43.11	247.66	3.79	-45.1	-57.5	3.8	1.49e+00	0	57	104	391118848	61	15290
2026-01-08 01:28:44.12	247.58	3.73	-45.0	-57.5	3.8	1.49e+00	0	57	104	391118848	61	15283
2026-01-08 01:28:45.12	247.51	3.67	-45.0	-57.5	3.8	1.49e+00	0	57	104	391118848	61	15257
2026-01-08 01:28:46.13	247.44	3.61	-45.0	-57.5	3.8	1.49e+00	0	57	104	391118848	61	15299
2026-01-08 01:28:47.15	247.37	3.55	-45.0	-57.5	3.8	1.49e+00	0	57	104	391118848	61	15244
2026-01-08 01:28:48.16	247.30	3.49	-45.0	-57.5	3.8	1.49e+00	0	57	104	391118848	61	15292
2026-01-08 01:28:49.17	247.23	3.43	-45.0	-57.5	3.8	1.49e+00	0	57	104	391118848	61	15299
2026-01-08 01:28:50.18	247.16	3.37	-45.0	-57.5	3.8	1.49e+00	0	57	104	391118848	61	15251
2026-01-08 01:28:51.18	247.09	3.32	-45.0	-57.5	3.8	1.49e+00	0	57	104	391118848	61	15247
2026-01-08 01:28:52.19	247.02	3.26	-45.0	-57.5	3.8	1.49e+00	0	57	104	391118848	61	15298
2026-01-08 01:28:53.20	246.95	3.20	-45.0	-57.5	3.8	1.49e+00	0	57	104	391118848	61	15257
2026-01-08 01:28:54.21	246.88	3.14	-45.0	-57.5	3.8	1.49e+00	0	57	104	391118848	61	15254
2026-01-08 01:28:55.22	246.81	3.08	-45.0	-57.5	3.8	1.49e+00	0	57	104	391118848	61	15277
2026-01-08 01:28:56.23	246.74	3.02	-45.0	-57.5	3.8	1.49e+00	0	57	104	391118848	61	15266
2026-01-08 01:28:57.24	246.67	2.96	-45.0	-57.5	3.8	1.49e+00	0	57	104	391118848	61	15293
2026-01-08 01:28:58.25	246.60	2.90	-45.0	-57.5	3.8	1.49e+00	0	57	104	391118848	61	15273
2026-01-08 01:28:59.26	246.54	2.84	-45.0	-57.5	3.8	1.49e+00	0	57	104	391118848	61	15274
2026-01-08 01:29:00.27	246.47	2.78	-45.0	-57.5	3.8	1.49e+00	0	57	104	391118848	61	15242
2026-01-08 01:29:01.28	246.40	2.72	-45.0	-57.5	3.8	1.49e+00	0	57	104	391118848	61	15249
2026-01-08 01:29:02.29	246.33	2.67	-45.0	-57.4	3.8	1.49e+00	0	57	104	391118848	61	15203
2026-01-08 01:29:03.30	246.27	2.61	-45.0	-57.5	3.8	1.49e+00	0	57	104	391118848	61	15244
2026-01-08 01:29:04.30	246.20	2.55	-45.0	-57.5	3.8	1.49e+00	0	57	104	391118848	61	15293
2026-01-08 01:29:05.31	246.13	2.49	-45.0	-57.5	3.8	1.49e+00	0	57	104	391118848	61	15265
2026-01-08 01:29:06.32	246.07	2.43	-45.0	-57.5	3.8	1.49e+00	0	57	104	391118848	61	15238
2026-01-08 01:29:07.32	246.00	2.38	-45.0	-57.5	3.8	1.49e+00	0	57	104	391118848	61	15273
2026-01-08 01:29:08.33	245.94	2.32	-45.0	-57.5	3.8	1.49e+00	0	57	104	391118848	61	15253
2026-01-08 01:29:09.34	245.87	2.26	-45.0	-57.5	3.8	1.49e+00	0	57	104	391118848	61	15238
2026-01-08 01:29:10.35	245.81	2.20	-45.0	-57.5	3.8	1.49e+00	0	57	104	391118848	61	15235
2026-01-08 01:29:11.36	245.74	2.14	-45.0	-57.5	3.8	1.49e+00	0	57	104	391118848	61	15239
2026-01-08 01:29:12.37	245.68	2.09	-45.0	-57.5	3.8	1.49e+00	0	57	104	391118848	61	15270
2026-01-08 01:29:13.38	245.61	2.03	-45.0	-57.4	3.8	1.49e+00	0	57	104	391118848	61	15223

#Closed at: 2026-01-08 01:29:14
#Recorded file [391 MB]: D:/lorett/data/31039_260108_042445.dat