passes_logs/2026/01/08/R2.0S_Moscow/R2.0S_Moscow__20260108_113757_SUOMI_NPP_rec.log

#Pass ID: 20260108_113757_SUOMI NPP
#Satellite: SUOMI NPP
#Configuration: NPP
#almurnet v.1.7.20251203
#Start time: 2026-01-08 11:37:57

#Version: 2.2.20231116
#Station: R2.0S_Moscow
#Location: 37.707566 lon 55.798166 lat
#TLE: 1 37849U 11061A   26005.94084933  .00000134  00000+0  84554-4 0  9990
#TLE: 2 37849  98.7803 308.0679 0002567  79.1029 281.0436 14.19522657735426

#Time	Az	El	Level	Level2	SNR	BER	BlckErr	Temp	State	Recorded	gain1	gain2
2026-01-08 11:37:57.28	210.62	1.98	-43.9	-58.3	3.8	1.49e+00	0	48	0	0	59	18914
2026-01-08 11:37:58.29	210.70	2.03	-43.9	-58.3	3.8	1.49e+00	0	49	104	0	59	18900
2026-01-08 11:37:59.30	210.77	2.09	-43.9	-58.3	3.8	1.49e+00	0	49	104	0	59	18890
2026-01-08 11:38:00.31	210.85	2.14	-43.9	-58.3	3.8	1.49e+00	0	49	104	0	59	18915
2026-01-08 11:38:01.32	210.93	2.19	-43.9	-58.3	3.8	1.49e+00	0	49	104	0	59	18861
2026-01-08 11:38:02.33	211.01	2.25	-43.9	-58.3	3.8	1.49e+00	0	49	104	0	59	18941
2026-01-08 11:38:03.34	211.08	2.30	-43.9	-58.3	3.8	1.49e+00	0	49	104	0	59	18895
2026-01-08 11:38:04.35	211.16	2.36	-43.9	-58.3	3.8	1.49e+00	0	49	104	0	59	18922
2026-01-08 11:38:05.36	211.24	2.41	-43.9	-58.3	3.8	1.49e+00	0	49	104	0	59	18896
2026-01-08 11:38:06.37	211.32	2.47	-43.9	-58.3	3.8	1.49e+00	0	49	104	0	59	18883
2026-01-08 11:38:07.38	211.40	2.52	-43.9	-58.3	3.8	1.49e+00	0	49	104	0	59	18924
2026-01-08 11:38:08.39	211.48	2.58	-43.9	-58.3	3.8	1.49e+00	0	50	104	0	59	18921
2026-01-08 11:38:09.40	211.56	2.63	-43.9	-58.3	3.8	1.49e+00	0	50	104	0	59	18897
2026-01-08 11:38:10.41	211.64	2.69	-43.9	-58.3	3.8	1.49e+00	0	50	104	0	59	18877
2026-01-08 11:38:11.43	211.72	2.74	-43.9	-58.3	3.8	1.49e+00	0	50	104	0	59	18905
2026-01-08 11:38:12.44	211.80	2.80	-43.9	-58.3	3.8	1.49e+00	0	50	104	0	59	18882
2026-01-08 11:38:13.45	211.88	2.85	-43.9	-58.3	3.8	1.49e+00	0	50	104	0	59	18861
2026-01-08 11:38:14.46	211.96	2.91	-43.9	-58.3	3.8	1.49e+00	0	50	104	0	59	18889
2026-01-08 11:38:15.47	212.04	2.96	-43.9	-58.3	3.8	1.49e+00	0	50	104	0	59	18877
2026-01-08 11:38:16.48	212.13	3.02	-43.9	-58.3	3.8	1.49e+00	0	50	104	0	59	18894
2026-01-08 11:38:17.48	212.21	3.07	-43.9	-58.3	3.8	1.49e+00	0	50	104	0	59	18892
2026-01-08 11:38:18.50	212.29	3.13	-43.9	-58.3	3.8	1.49e+00	0	50	104	0	59	18863
2026-01-08 11:38:19.51	212.37	3.19	-43.9	-58.3	3.8	1.49e+00	0	50	104	0	59	18892
2026-01-08 11:38:20.52	212.46	3.24	-43.9	-58.3	3.8	1.49e+00	0	50	104	0	59	18848
2026-01-08 11:38:21.53	212.54	3.30	-43.9	-58.3	3.8	1.49e+00	0	50	104	0	59	18874
2026-01-08 11:38:22.54	212.62	3.35	-43.9	-58.3	3.8	1.49e+00	0	50	104	0	59	18872
2026-01-08 11:38:23.54	212.71	3.41	-43.9	-58.3	3.8	1.49e+00	0	51	104	0	59	18851
2026-01-08 11:38:24.55	212.79	3.46	-43.9	-58.3	3.8	1.49e+00	0	51	104	0	59	18933
2026-01-08 11:38:25.56	212.88	3.52	-43.9	-58.3	3.8	1.49e+00	0	51	104	0	59	18900
2026-01-08 11:38:26.57	212.96	3.58	-43.9	-58.3	3.8	1.49e+00	0	51	104	0	59	18863
2026-01-08 11:38:27.58	213.05	3.63	-43.9	-58.3	3.8	1.49e+00	0	51	104	0	59	18871
2026-01-08 11:38:28.59	213.13	3.69	-43.9	-58.3	3.8	1.49e+00	0	51	104	0	59	18884
2026-01-08 11:38:29.60	213.22	3.74	-43.9	-58.3	3.8	1.49e+00	0	51	104	0	59	18897
2026-01-08 11:38:30.62	213.30	3.80	-43.9	-58.3	3.8	1.49e+00	0	51	104	0	59	18856
2026-01-08 11:38:31.63	213.39	3.86	-43.9	-58.3	3.8	1.49e+00	0	51	104	0	59	18893
2026-01-08 11:38:32.64	213.48	3.91	-43.9	-58.3	3.8	1.49e+00	0	51	104	0	59	18875
2026-01-08 11:38:33.65	213.56	3.97	-43.9	-58.3	3.8	1.49e+00	0	51	104	0	59	18842
2026-01-08 11:38:34.66	213.65	4.03	-43.9	-58.3	3.8	1.49e+00	0	51	104	0	59	18862
2026-01-08 11:38:35.67	213.74	4.08	-43.9	-58.3	3.8	1.49e+00	0	51	104	0	59	18850
2026-01-08 11:38:36.68	213.83	4.14	-43.9	-58.3	3.8	1.49e+00	0	51	104	0	59	18912
2026-01-08 11:38:37.69	213.92	4.20	-43.9	-58.3	3.8	1.49e+00	0	51	104	0	59	18817
2026-01-08 11:38:38.70	214.00	4.25	-43.9	-58.3	3.8	1.49e+00	0	51	104	0	59	18860
2026-01-08 11:38:39.71	214.09	4.31	-43.9	-58.3	3.8	1.49e+00	0	51	104	0	59	18880
2026-01-08 11:38:40.72	214.18	4.37	-43.9	-58.3	3.8	1.49e+00	0	52	104	0	59	18888
2026-01-08 11:38:41.73	214.27	4.42	-43.9	-58.3	3.8	1.49e+00	0	52	104	0	59	18846
2026-01-08 11:38:42.74	214.36	4.48	-43.9	-58.3	3.8	1.49e+00	0	52	104	0	59	18883
2026-01-08 11:38:43.75	214.45	4.54	-43.9	-58.3	3.8	1.49e+00	0	52	104	0	59	18870
2026-01-08 11:38:44.76	214.54	4.60	-43.9	-58.3	3.8	1.49e+00	0	52	104	0	59	18888
2026-01-08 11:38:45.77	214.63	4.65	-43.9	-58.3	3.8	1.49e+00	0	52	104	0	59	18826
2026-01-08 11:38:46.78	214.73	4.71	-43.9	-58.3	3.8	1.49e+00	0	52	104	0	59	18832
2026-01-08 11:38:47.80	214.82	4.77	-43.9	-58.3	3.8	1.49e+00	0	52	104	0	59	18828
2026-01-08 11:38:48.80	214.91	4.83	-43.9	-58.3	3.8	1.49e+00	0	52	104	0	59	18789
2026-01-08 11:38:49.81	215.00	4.88	-43.9	-58.3	3.8	1.49e+00	0	52	104	0	59	18760
2026-01-08 11:38:50.82	215.09	4.94	-43.9	-58.3	3.8	1.49e+00	0	52	104	0	59	18794
2026-01-08 11:38:51.83	215.19	5.00	-43.9	-58.2	3.8	1.49e+00	0	52	104	0	59	18710
2026-01-08 11:38:52.84	215.28	5.06	-43.9	-58.2	3.8	1.49e+00	0	52	104	0	59	18523
2026-01-08 11:38:53.85	215.38	5.11	-43.9	-58.2	3.8	1.49e+00	0	53	104	0	59	18634
2026-01-08 11:38:54.86	215.47	5.17	-43.9	-58.1	3.8	1.49e+00	0	52	104	0	59	18478
2026-01-08 11:38:55.87	215.56	5.23	-43.9	-58.1	3.8	1.49e+00	0	52	104	0	59	18431
2026-01-08 11:38:56.88	215.66	5.29	-43.9	-58.2	3.8	1.49e+00	0	52	104	0	59	18613
2026-01-08 11:38:57.89	215.75	5.35	-43.9	-58.2	3.8	1.49e+00	0	53	104	0	59	18537
2026-01-08 11:38:58.90	215.85	5.40	-43.9	-58.2	3.8	1.49e+00	0	53	104	0	59	18675
2026-01-08 11:38:59.91	215.95	5.46	-43.9	-58.2	3.8	1.49e+00	0	52	104	0	59	18681
2026-01-08 11:39:00.92	216.04	5.52	-43.9	-58.2	3.8	1.49e+00	0	53	104	0	59	18711
2026-01-08 11:39:01.93	216.14	5.58	-43.9	-58.3	3.8	1.49e+00	0	53	104	0	59	18738
2026-01-08 11:39:02.94	216.24	5.64	-43.9	-58.2	3.8	1.49e+00	0	53	104	0	59	18669
2026-01-08 11:39:03.95	216.33	5.70	-43.9	-58.2	3.8	1.49e+00	0	53	104	0	59	18640
2026-01-08 11:39:04.96	216.43	5.75	-43.9	-58.2	3.8	1.49e+00	0	53	104	0	59	18532
2026-01-08 11:39:05.97	216.53	5.81	-43.9	-58.2	3.8	1.49e+00	0	53	104	0	59	18534
2026-01-08 11:39:06.98	216.63	5.87	-43.9	-58.1	3.8	1.49e+00	0	53	104	0	59	18465
2026-01-08 11:39:07.99	216.73	5.93	-43.9	-58.1	3.8	1.49e+00	0	53	104	0	59	18419
2026-01-08 11:39:09.00	216.83	5.99	-43.9	-58.2	3.8	1.49e+00	0	53	104	0	59	18585
2026-01-08 11:39:10.01	216.93	6.05	-43.9	-58.1	3.8	1.49e+00	0	53	104	0	59	18460
2026-01-08 11:39:11.02	217.03	6.11	-43.9	-58.1	3.8	1.49e+00	0	53	104	0	59	18404
2026-01-08 11:39:12.03	217.13	6.16	-43.9	-58.0	3.8	1.49e+00	0	53	104	0	59	18246
2026-01-08 11:39:13.04	217.23	6.22	-43.9	-58.0	3.8	1.49e+00	0	53	104	0	59	18170
2026-01-08 11:39:14.05	217.33	6.28	-43.9	-58.1	3.8	1.49e+00	0	53	104	0	59	18318
2026-01-08 11:39:15.06	217.43	6.34	-43.9	-58.0	3.8	1.49e+00	0	53	104	0	59	18293
2026-01-08 11:39:16.07	217.53	6.40	-43.9	-58.1	3.8	1.49e+00	0	53	104	0	59	18421
2026-01-08 11:39:17.08	217.64	6.46	-43.9	-58.1	3.8	1.49e+00	0	53	104	0	59	18384
2026-01-08 11:39:18.09	217.74	6.52	-43.9	-58.1	3.8	1.49e+00	0	54	104	0	59	18312
2026-01-08 11:39:19.10	217.84	6.58	-43.9	-58.0	3.8	1.49e+00	0	53	104	0	59	18129
2026-01-08 11:39:20.11	217.95	6.64	-43.9	-57.5	3.8	1.49e+00	0	53	104	0	59	17225
2026-01-08 11:39:21.12	218.05	6.70	-43.9	-56.9	3.8	1.49e+00	0	54	104	0	59	16047
2026-01-08 11:39:22.14	218.16	6.76	-43.8	-56.2	3.8	1.49e+00	0	54	104	0	59	14845
2026-01-08 11:39:23.15	218.26	6.82	-43.8	-55.9	3.8	1.49e+00	0	54	104	0	59	14258
2026-01-08 11:39:24.16	218.37	6.88	-43.7	-54.9	4.1	1.47e+00	0	54	104	0	59	12721
2026-01-08 11:39:25.17	218.47	6.94	-43.6	-54.1	4.4	1.36e+00	0	54	0	0	59	11599
2026-01-08 11:39:26.18	218.58	7.00	-43.5	-53.3	4.7	9.18e-01	0	54	0	2097152	59	10591
2026-01-08 11:39:27.19	218.69	7.06	-43.5	-52.7	5.0	7.41e-01	0	54	0	4194304	58	10509
2026-01-08 11:39:28.20	218.79	7.12	-43.4	-52.4	5.2	6.18e-01	0	54	0	6291456	58	10121
2026-01-08 11:39:29.21	218.90	7.18	-43.3	-51.9	5.5	5.23e-01	0	54	0	7340032	58	9541
2026-01-08 11:39:30.22	219.01	7.24	-43.3	-51.5	5.8	4.39e-01	0	54	0	9437184	58	9111
2026-01-08 11:39:31.23	219.12	7.30	-43.2	-51.1	6.0	3.83e-01	0	54	0	11534336	58	8753
2026-01-08 11:39:32.24	219.23	7.36	-43.2	-51.0	6.2	2.95e-01	0	54	0	13631488	58	8584
2026-01-08 11:39:33.25	219.34	7.42	-43.1	-50.6	6.5	2.62e-01	0	54	0	15728640	58	8182
2026-01-08 11:39:34.26	219.45	7.48	-43.0	-50.1	6.9	1.87e-01	0	54	0	16777216	58	7786
2026-01-08 11:39:35.27	219.56	7.54	-43.0	-50.3	6.8	1.89e-01	0	54	0	18874368	58	7925
2026-01-08 11:39:36.28	219.67	7.60	-42.9	-49.6	7.3	1.27e-01	0	54	0	20971520	57	7796
2026-01-08 11:39:37.29	219.78	7.66	-42.8	-49.3	7.6	1.01e-01	0	54	0	23068672	57	7517
2026-01-08 11:39:38.30	219.89	7.72	-42.7	-49.0	8.0	7.65e-02	0	54	0	25165824	57	7210
2026-01-08 11:39:39.31	220.00	7.78	-42.6	-48.5	8.5	4.15e-02	0	54	0	26214400	57	6821
2026-01-08 11:39:40.32	220.11	7.84	-42.4	-48.0	8.9	3.59e-02	0	54	0	28311552	56	6870
2026-01-08 11:39:41.33	220.23	7.90	-42.4	-47.9	9.1	2.62e-02	0	54	0	30408704	56	6734
2026-01-08 11:39:42.34	220.34	7.96	-42.3	-47.8	9.2	1.95e-02	0	54	0	32505856	56	6689
2026-01-08 11:39:43.35	220.45	8.02	-42.3	-47.8	9.2	2.12e-02	0	54	0	34603008	56	6659
2026-01-08 11:39:44.36	220.57	8.08	-42.3	-47.6	9.5	1.91e-02	0	54	0	35651584	56	6559
2026-01-08 11:39:45.37	220.68	8.14	-42.8	-49.4	7.8	3.14e-02	0	55	0	37748736	56	8021
2026-01-08 11:39:46.38	220.80	8.20	-43.3	-53.2	4.1	1.49e+00	0	54	104	38797312	57	11705
2026-01-08 11:39:47.39	220.91	8.26	-42.5	-48.1	9.0	7.39e-03	0	54	0	39845888	55	7328
2026-01-08 11:39:48.40	221.03	8.32	-42.5	-47.7	9.4	8.87e-02	0	54	0	41943040	56	6599
2026-01-08 11:39:49.41	221.15	8.38	-42.5	-48.0	9.0	3.46e-02	0	55	0	42991616	56	6840
2026-01-08 11:39:50.42	221.26	8.44	-41.7	-46.1	10.9	4.26e-03	0	55	0	45088768	55	5854
2026-01-08 11:39:51.43	221.38	8.51	-41.7	-46.2	10.9	2.12e-03	0	55	0	47185920	55	5876
2026-01-08 11:39:52.43	221.50	8.57	-41.8	-46.2	10.9	2.66e-03	0	55	0	49283072	55	5886
2026-01-08 11:39:53.45	221.62	8.63	-41.7	-46.1	11.0	1.95e-03	0	55	0	51380224	55	5792
2026-01-08 11:39:54.45	221.73	8.69	-41.6	-45.9	11.2	1.61e-03	0	54	0	52428800	55	5695
2026-01-08 11:39:55.46	221.85	8.75	-41.6	-45.7	11.4	1.09e-03	0	55	0	54525952	55	5567
2026-01-08 11:39:56.47	221.97	8.81	-41.6	-45.7	11.4	1.26e-03	0	55	0	56623104	55	5583
2026-01-08 11:39:57.48	222.09	8.87	-41.4	-45.4	11.7	7.51e-04	0	55	0	58720256	54	5667
2026-01-08 11:39:58.49	222.22	8.93	-41.4	-45.3	11.9	4.18e-04	0	55	0	60817408	54	5615
2026-01-08 11:39:59.50	222.34	8.99	-41.3	-45.3	11.8	5.01e-04	0	55	0	61865984	54	5602
2026-01-08 11:40:00.51	222.46	9.06	-41.3	-45.2	12.0	3.23e-04	0	55	0	63963136	54	5529
2026-01-08 11:40:01.52	222.58	9.12	-41.4	-45.3	11.8	3.17e-04	0	55	0	66060288	54	5646
2026-01-08 11:40:02.53	222.70	9.18	-41.3	-45.2	12.0	2.81e-04	0	55	0	68157440	54	5534
2026-01-08 11:40:03.54	222.83	9.24	-41.3	-45.1	12.1	2.62e-04	0	55	0	70254592	54	5480
2026-01-08 11:40:04.55	222.95	9.30	-41.3	-45.1	12.1	1.98e-04	0	55	0	71303168	54	5504
2026-01-08 11:40:05.56	223.08	9.36	-41.3	-45.1	12.1	2.62e-04	0	55	0	73400320	54	5479
2026-01-08 11:40:06.56	223.20	9.42	-41.3	-45.0	12.2	2.50e-04	0	55	0	75497472	54	5461
2026-01-08 11:40:07.57	223.32	9.49	-41.3	-45.1	12.1	2.49e-04	0	55	0	77594624	54	5528
2026-01-08 11:40:08.58	223.45	9.55	-41.3	-45.2	12.1	2.48e-04	0	55	0	79691776	54	5537
2026-01-08 11:40:09.59	223.58	9.61	-41.1	-44.7	12.6	1.40e-04	0	55	0	81788928	54	5238
2026-01-08 11:40:10.60	223.70	9.67	-41.2	-44.9	12.3	1.31e-04	0	55	0	82837504	54	5374
2026-01-08 11:40:11.61	223.83	9.73	-41.1	-44.8	12.4	1.75e-04	0	55	0	84934656	54	5293
2026-01-08 11:40:12.62	223.96	9.80	-41.1	-44.7	12.5	1.01e-04	0	55	0	87031808	54	5269
2026-01-08 11:40:13.63	224.09	9.86	-41.3	-45.1	12.1	1.40e-04	0	55	0	89128960	54	5487
2026-01-08 11:40:14.64	224.22	9.92	-41.2	-44.9	12.3	1.62e-04	0	55	0	91226112	54	5392
2026-01-08 11:40:15.65	224.35	9.98	-41.2	-45.0	12.3	1.41e-04	0	55	0	92274688	54	5413
2026-01-08 11:40:16.66	224.48	10.04	-41.1	-44.8	12.5	1.49e-04	0	55	0	94371840	54	5290
2026-01-08 11:40:17.67	224.61	10.10	-41.1	-44.7	12.6	1.01e-04	0	55	0	96468992	54	5257
2026-01-08 11:40:18.68	224.74	10.17	-41.1	-44.7	12.6	1.02e-04	0	55	0	98566144	54	5231
2026-01-08 11:40:19.69	224.87	10.23	-41.1	-44.7	12.6	6.94e-05	0	55	0	100663296	53	5536
2026-01-08 11:40:20.70	225.00	10.29	-41.1	-44.6	12.7	1.29e-04	0	56	0	101711872	53	5503
2026-01-08 11:40:21.71	225.13	10.35	-41.2	-44.8	12.5	7.17e-05	0	55	0	103809024	53	5634
2026-01-08 11:40:22.72	225.27	10.41	-41.0	-44.6	12.8	9.00e-05	0	55	0	105906176	53	5478
2026-01-08 11:40:23.73	225.40	10.48	-41.1	-44.7	12.6	6.25e-05	0	55	0	108003328	53	5551
2026-01-08 11:40:24.74	225.54	10.54	-41.0	-44.4	12.9	7.17e-05	0	55	0	110100480	53	5394
2026-01-08 11:40:25.75	225.67	10.60	-41.1	-44.7	12.6	7.70e-05	0	55	0	111149056	53	5576
2026-01-08 11:40:26.76	225.81	10.66	-41.1	-44.6	12.8	9.38e-05	0	55	0	113246208	53	5484
2026-01-08 11:40:27.77	225.94	10.73	-41.1	-44.7	12.7	7.17e-05	0	55	0	115343360	53	5533
2026-01-08 11:40:28.78	226.08	10.79	-41.2	-44.8	12.6	8.01e-05	0	55	0	117440512	53	5614
2026-01-08 11:40:29.79	226.22	10.85	-41.2	-44.8	12.6	8.01e-05	0	55	0	119537664	53	5603
2026-01-08 11:40:30.79	226.35	10.91	-41.1	-44.7	12.7	6.79e-05	0	56	0	120586240	53	5558
2026-01-08 11:40:31.80	226.49	10.97	-41.1	-44.7	12.7	6.79e-05	0	56	0	122683392	53	5555
2026-01-08 11:40:32.81	226.63	11.04	-41.2	-44.8	12.5	1.11e-04	0	56	0	124780544	53	5647
2026-01-08 11:40:33.82	226.77	11.10	-41.1	-44.6	12.8	7.40e-05	0	56	0	126877696	53	5513
2026-01-08 11:40:34.83	226.91	11.16	-41.1	-44.7	12.7	7.78e-05	0	56	0	128974848	53	5551
2026-01-08 11:40:35.84	227.05	11.22	-41.1	-44.5	12.8	6.33e-05	0	56	0	130023424	53	5458
2026-01-08 11:40:36.85	227.19	11.28	-40.9	-44.3	13.0	4.65e-05	0	56	0	132120576	53	5319
2026-01-08 11:40:37.86	227.33	11.35	-40.9	-44.3	13.1	3.35e-05	0	56	0	134217728	53	5297
2026-01-08 11:40:38.87	227.48	11.41	-41.1	-44.5	12.9	3.58e-05	0	56	0	136314880	53	5443
2026-01-08 11:40:39.88	227.62	11.47	-41.0	-44.3	13.0	4.80e-05	0	56	0	138412032	53	5331
2026-01-08 11:40:40.89	227.76	11.53	-40.9	-44.2	13.2	1.75e-05	0	56	0	139460608	53	5249
2026-01-08 11:40:41.90	227.91	11.60	-41.0	-44.4	13.0	3.12e-05	0	56	0	141557760	53	5365
2026-01-08 11:40:42.91	228.05	11.66	-40.9	-44.2	13.2	3.05e-05	0	56	0	143654912	53	5257
2026-01-08 11:40:43.92	228.20	11.72	-40.9	-44.1	13.3	2.44e-05	0	56	0	145752064	53	5207
2026-01-08 11:40:44.93	228.34	11.78	-40.8	-44.0	13.4	2.51e-05	0	56	0	147849216	53	5121
2026-01-08 11:40:45.94	228.49	11.84	-40.9	-44.3	13.1	1.52e-05	0	56	0	149946368	53	5301
2026-01-08 11:40:46.95	228.64	11.91	-40.9	-44.3	13.2	1.98e-05	0	56	0	150994944	53	5301
2026-01-08 11:40:47.96	228.78	11.97	-41.0	-44.4	13.0	2.82e-05	0	56	0	153092096	53	5389
2026-01-08 11:40:48.97	228.93	12.03	-41.0	-44.5	12.9	3.96e-05	0	56	0	155189248	53	5412
2026-01-08 11:40:49.98	229.08	12.09	-41.1	-44.5	12.9	4.57e-05	0	56	0	157286400	53	5464
2026-01-08 11:40:50.99	229.23	12.16	-41.2	-44.7	12.7	5.18e-05	0	56	0	159383552	53	5583
2026-01-08 11:40:52.00	229.38	12.22	-41.1	-44.6	12.8	3.89e-05	0	56	0	160432128	53	5511
2026-01-08 11:40:53.01	229.53	12.28	-41.2	-44.8	12.7	5.26e-05	0	56	0	162529280	53	5602
2026-01-08 11:40:54.01	229.68	12.34	-41.2	-44.7	12.7	5.03e-05	0	56	0	164626432	53	5563
2026-01-08 11:40:55.02	229.83	12.40	-41.1	-44.6	12.8	5.56e-05	0	56	0	166723584	53	5491
2026-01-08 11:40:56.03	229.99	12.47	-41.2	-44.7	12.8	7.01e-05	0	56	0	168820736	53	5539
2026-01-08 11:40:57.04	230.14	12.53	-41.1	-44.5	12.9	4.65e-05	0	56	0	169869312	53	5464
2026-01-08 11:40:58.05	230.29	12.59	-41.1	-44.5	12.9	5.18e-05	0	56	0	171966464	53	5441
2026-01-08 11:40:59.06	230.45	12.65	-41.1	-44.6	12.9	3.35e-05	0	56	0	174063616	53	5496
2026-01-08 11:41:00.07	230.60	12.71	-41.1	-44.5	13.0	3.50e-05	0	56	0	176160768	53	5405
2026-01-08 11:41:01.08	230.76	12.78	-41.0	-44.4	13.1	3.35e-05	0	56	0	178257920	53	5351
2026-01-08 11:41:02.09	230.92	12.84	-41.1	-44.6	12.9	4.88e-05	0	56	0	179306496	53	5504
2026-01-08 11:41:03.11	231.07	12.90	-41.1	-44.6	12.9	5.11e-05	0	56	0	181403648	53	5499
2026-01-08 11:41:04.12	231.23	12.96	-41.0	-44.4	13.1	3.58e-05	0	56	0	183500800	53	5365
2026-01-08 11:41:05.12	231.39	13.02	-41.0	-44.4	13.1	3.50e-05	0	56	0	185597952	53	5348
2026-01-08 11:41:06.14	231.55	13.08	-40.9	-44.2	13.3	2.59e-05	0	56	0	187695104	53	5271
2026-01-08 11:41:07.15	231.71	13.15	-40.7	-43.7	13.8	9.10e-06	0	56	0	188743680	53	4980
2026-01-08 11:41:08.16	231.87	13.21	-40.7	-43.9	13.7	7.60e-06	0	56	0	190840832	53	5046
2026-01-08 11:41:09.17	232.03	13.27	-40.8	-43.9	13.6	9.10e-06	0	57	0	192937984	53	5085
2026-01-08 11:41:10.18	232.19	13.33	-40.6	-43.6	13.9	3.00e-06	0	56	0	195035136	53	4914
2026-01-08 11:41:11.19	232.35	13.39	-40.7	-43.8	13.7	4.50e-06	0	56	0	197132288	53	5033
2026-01-08 11:41:12.19	232.52	13.45	-40.6	-43.6	13.9	3.00e-06	0	56	0	198180864	53	4915
2026-01-08 11:41:13.20	232.68	13.51	-40.7	-43.8	13.8	5.30e-06	0	56	0	200278016	53	4987
2026-01-08 11:41:14.21	232.84	13.58	-40.7	-43.7	13.8	2.20e-06	0	56	0	202375168	53	4979
2026-01-08 11:41:15.22	233.01	13.64	-40.7	-43.8	13.8	3.00e-06	0	56	0	204472320	53	4989
2026-01-08 11:41:16.23	233.17	13.70	-40.6	-43.7	13.9	4.50e-06	0	56	0	206569472	53	4959
2026-01-08 11:41:17.24	233.34	13.76	-40.7	-43.8	13.7	1.50e-06	0	56	0	207618048	53	5023
2026-01-08 11:41:18.25	233.51	13.82	-40.7	-43.7	13.8	2.20e-06	0	56	0	209715200	53	4975
2026-01-08 11:41:19.26	233.67	13.88	-40.7	-43.7	13.8	3.80e-06	0	57	0	211812352	53	4974
2026-01-08 11:41:20.27	233.84	13.94	-40.8	-44.0	13.6	4.50e-06	0	56	0	213909504	53	5101
2026-01-08 11:41:21.28	234.01	14.00	-40.8	-43.9	13.6	6.10e-06	0	56	0	216006656	53	5070
2026-01-08 11:41:22.29	234.18	14.06	-40.8	-44.0	13.5	4.50e-06	0	56	0	218103808	53	5132
2026-01-08 11:41:23.30	234.35	14.12	-40.7	-43.8	13.7	8.30e-06	0	56	0	219152384	53	5031
2026-01-08 11:41:24.31	234.52	14.18	-40.8	-44.0	13.5	1.06e-05	0	56	0	221249536	53	5127
2026-01-08 11:41:25.32	234.69	14.25	-40.8	-44.0	13.6	9.90e-06	0	57	0	223346688	53	5108
2026-01-08 11:41:26.34	234.87	14.31	-40.8	-43.9	13.6	3.00e-06	0	57	0	225443840	53	5077
2026-01-08 11:41:27.34	235.04	14.37	-40.8	-43.9	13.6	9.90e-06	0	57	0	227540992	53	5099
2026-01-08 11:41:28.35	235.21	14.43	-40.9	-44.1	13.4	8.30e-06	0	57	0	228589568	53	5211
2026-01-08 11:41:29.36	235.39	14.49	-40.9	-44.2	13.4	1.83e-05	0	57	0	230686720	53	5238
2026-01-08 11:41:30.38	235.56	14.55	-41.0	-44.3	13.3	2.36e-05	0	57	0	232783872	53	5310
2026-01-08 11:41:31.38	235.74	14.61	-41.2	-44.6	13.0	2.82e-05	0	56	0	234881024	53	5521
2026-01-08 11:41:32.39	235.91	14.67	-41.1	-44.5	13.0	3.81e-05	0	56	0	236978176	53	5459
2026-01-08 11:41:33.41	236.09	14.73	-41.2	-44.6	13.0	3.89e-05	0	57	0	238026752	53	5506
2026-01-08 11:41:34.42	236.27	14.79	-41.1	-44.4	13.1	4.11e-05	0	56	0	240123904	53	5370
2026-01-08 11:41:35.43	236.45	14.85	-41.0	-44.3	13.3	1.60e-05	0	57	0	242221056	53	5307
2026-01-08 11:41:36.44	236.63	14.90	-40.8	-43.9	13.6	7.60e-06	0	57	0	244318208	53	5100
2026-01-08 11:41:37.45	236.81	14.96	-40.8	-43.9	13.7	5.30e-06	0	57	0	246415360	53	5070
2026-01-08 11:41:38.46	236.99	15.02	-40.7	-43.7	13.9	4.50e-06	0	57	0	247463936	53	4965
2026-01-08 11:41:39.47	237.17	15.08	-40.8	-43.9	13.7	4.50e-06	0	57	0	249561088	53	5062
2026-01-08 11:41:40.48	237.35	15.14	-40.9	-44.1	13.5	1.06e-05	0	57	0	251658240	53	5189
2026-01-08 11:41:41.48	237.53	15.20	-40.8	-44.0	13.6	8.30e-06	0	57	0	253755392	53	5130
2026-01-08 11:41:42.49	237.72	15.26	-41.0	-44.2	13.4	1.29e-05	0	57	0	255852544	53	5268
2026-01-08 11:41:43.50	237.90	15.32	-41.0	-44.2	13.4	1.90e-05	0	57	0	256901120	53	5251
2026-01-08 11:41:44.52	238.09	15.38	-40.9	-44.1	13.5	1.37e-05	0	57	0	258998272	53	5202
2026-01-08 11:41:45.52	238.27	15.43	-40.9	-44.1	13.6	1.37e-05	0	57	0	261095424	53	5180
2026-01-08 11:41:46.53	238.46	15.49	-40.9	-44.1	13.5	4.50e-06	0	57	0	263192576	53	5177
2026-01-08 11:41:47.55	238.65	15.55	-40.7	-43.8	13.8	5.30e-06	0	57	0	265289728	53	5008
2026-01-08 11:41:48.56	238.83	15.61	-40.7	-43.7	13.9	1.50e-06	0	57	0	266338304	53	4948
2026-01-08 11:41:49.57	239.02	15.67	-40.6	-43.6	14.0	7.00e-07	0	57	0	268435456	53	4882
2026-01-08 11:41:50.58	239.21	15.72	-40.6	-43.5	14.0	6.10e-06	0	57	0	270532608	52	5141
2026-01-08 11:41:51.59	239.40	15.78	-40.6	-43.5	14.1	2.20e-06	0	57	0	272629760	52	5140
2026-01-08 11:41:52.60	239.59	15.84	-40.5	-43.4	14.3	7.00e-07	0	57	0	274726912	52	5044
2026-01-08 11:41:53.61	239.78	15.89	-40.6	-43.5	14.1	2.20e-06	0	57	0	275775488	52	5143
2026-01-08 11:41:54.62	239.97	15.95	-40.5	-43.5	14.1	1.50e-06	0	57	0	277872640	52	5123
2026-01-08 11:41:55.63	240.17	16.01	-40.4	-43.3	14.3	0.00e+00	0	57	0	279969792	52	5020
2026-01-08 11:41:56.64	240.36	16.06	-40.5	-43.5	14.1	2.20e-06	0	57	0	282066944	52	5115
2026-01-08 11:41:57.65	240.55	16.12	-40.6	-43.5	14.1	0.00e+00	0	57	0	284164096	52	5140
2026-01-08 11:41:58.65	240.75	16.18	-40.5	-43.5	14.2	2.20e-06	0	57	0	286261248	52	5103
2026-01-08 11:41:59.67	240.94	16.23	-40.7	-43.7	14.0	3.80e-06	0	57	0	287309824	52	5243
2026-01-08 11:42:00.68	241.14	16.29	-40.7	-43.8	13.8	3.80e-06	0	57	0	289406976	52	5295
2026-01-08 11:42:01.69	241.34	16.34	-40.7	-43.7	13.9	1.50e-06	0	57	0	291504128	52	5238
2026-01-08 11:42:02.70	241.53	16.40	-40.8	-43.9	13.8	4.50e-06	0	57	0	293601280	52	5346
2026-01-08 11:42:03.71	241.73	16.45	-40.8	-44.0	13.6	5.30e-06	0	57	0	295698432	52	5415
2026-01-08 11:42:04.72	241.93	16.51	-40.7	-43.7	13.9	1.50e-06	0	57	0	296747008	52	5235
2026-01-08 11:42:05.72	242.13	16.56	-40.7	-43.7	13.9	4.50e-06	0	57	0	298844160	52	5241
2026-01-08 11:42:06.73	242.33	16.62	-40.6	-43.6	14.0	3.00e-06	0	57	0	300941312	52	5193
2026-01-08 11:42:07.74	242.53	16.67	-40.6	-43.5	14.1	3.80e-06	0	57	0	303038464	52	5155
2026-01-08 11:42:08.75	242.73	16.73	-40.7	-43.7	14.0	1.50e-06	0	57	0	305135616	52	5229
2026-01-08 11:42:09.76	242.93	16.78	-40.7	-43.8	13.9	2.20e-06	0	57	0	306184192	52	5294
2026-01-08 11:42:10.77	243.14	16.83	-40.8	-43.9	13.7	0.00e+00	0	57	0	308281344	52	5366
2026-01-08 11:42:11.78	243.34	16.89	-41.0	-44.2	13.5	8.30e-06	0	57	0	310378496	52	5561
2026-01-08 11:42:12.79	243.54	16.94	-41.0	-44.3	13.3	1.14e-05	0	57	0	312475648	52	5620
2026-01-08 11:42:13.80	243.75	16.99	-41.1	-44.4	13.2	1.52e-05	0	57	0	314572800	52	5680
2026-01-08 11:42:14.81	243.96	17.05	-41.0	-44.2	13.4	9.10e-06	0	57	0	315621376	52	5559
2026-01-08 11:42:15.82	244.16	17.10	-40.9	-44.1	13.5	2.20e-06	0	57	0	317718528	52	5484
2026-01-08 11:42:16.83	244.37	17.15	-40.9	-44.1	13.5	8.30e-06	0	57	0	319815680	52	5502
2026-01-08 11:42:17.84	244.58	17.20	-41.0	-44.2	13.5	8.30e-06	0	57	0	321912832	52	5546
2026-01-08 11:42:18.85	244.79	17.25	-41.1	-44.4	13.1	1.29e-05	0	57	0	324009984	52	5716
2026-01-08 11:42:19.86	245.00	17.31	-41.1	-44.3	13.2	1.29e-05	0	57	0	325058560	52	5648
2026-01-08 11:42:20.87	245.21	17.36	-41.2	-44.6	13.0	2.13e-05	0	57	0	327155712	52	5826
2026-01-08 11:42:21.88	245.42	17.41	-41.3	-44.7	12.9	3.58e-05	0	57	0	329252864	53	5561
2026-01-08 11:42:22.89	245.63	17.46	-41.4	-45.0	12.6	6.71e-05	0	57	0	331350016	53	5740
2026-01-08 11:42:23.89	245.84	17.51	-41.2	-44.6	13.0	7.01e-05	0	57	0	333447168	53	5514
2026-01-08 11:42:24.90	246.05	17.56	-41.2	-44.6	13.0	3.81e-05	0	57	0	334495744	53	5511
2026-01-08 11:42:25.91	246.26	17.61	-41.2	-44.6	13.0	4.34e-05	0	57	0	336592896	53	5476
2026-01-08 11:42:26.92	246.48	17.66	-41.4	-44.8	12.8	3.81e-05	0	57	0	338690048	53	5656
2026-01-08 11:42:27.93	246.69	17.71	-41.4	-44.9	12.7	5.72e-05	0	57	0	340787200	53	5657
2026-01-08 11:42:28.94	246.91	17.76	-41.4	-44.9	12.8	7.24e-05	0	57	0	342884352	53	5660
2026-01-08 11:42:29.95	247.13	17.81	-41.4	-44.9	12.7	5.41e-05	0	57	0	343932928	53	5658
2026-01-08 11:42:30.96	247.34	17.85	-41.5	-45.1	12.5	1.30e-04	0	57	0	346030080	53	5850
2026-01-08 11:42:31.97	247.56	17.90	-41.5	-45.1	12.6	1.54e-04	0	57	0	348127232	53	5790
2026-01-08 11:42:32.98	247.78	17.95	-41.5	-45.1	12.5	1.38e-04	0	57	0	350224384	53	5810
2026-01-08 11:42:33.99	248.00	18.00	-41.7	-45.4	12.2	2.33e-04	0	57	0	352321536	53	6030
2026-01-08 11:42:35.00	248.22	18.04	-41.7	-45.5	12.1	2.53e-04	0	57	0	354418688	53	6088
2026-01-08 11:42:36.01	248.44	18.09	-41.8	-45.6	12.0	2.82e-04	0	57	0	355467264	54	5837
2026-01-08 11:42:37.02	248.66	18.14	-41.8	-45.6	12.0	4.18e-04	0	57	0	357564416	54	5853
2026-01-08 11:42:38.03	248.88	18.18	-41.9	-45.9	11.7	5.14e-04	0	57	0	359661568	54	6023
2026-01-08 11:42:39.04	249.10	18.23	-41.9	-45.8	11.8	5.83e-04	0	57	0	361758720	54	5970
2026-01-08 11:42:40.05	249.32	18.28	-41.9	-45.8	11.8	5.37e-04	0	57	0	363855872	54	5989
2026-01-08 11:42:41.06	249.55	18.32	-41.9	-45.8	11.8	4.95e-04	0	57	0	364904448	54	5957
2026-01-08 11:42:42.07	249.77	18.37	-41.9	-46.0	11.6	4.87e-04	0	57	0	367001600	54	6088
2026-01-08 11:42:43.08	250.00	18.41	-42.0	-46.0	11.6	6.22e-04	0	57	0	369098752	54	6118
2026-01-08 11:42:44.09	250.22	18.45	-42.0	-46.1	11.5	7.86e-04	0	57	0	371195904	54	6145
2026-01-08 11:42:45.10	250.45	18.50	-42.1	-46.2	11.4	8.64e-04	0	57	0	373293056	54	6249
2026-01-08 11:42:46.11	250.68	18.54	-42.0	-46.1	11.4	7.78e-04	0	57	0	374341632	54	6187
2026-01-08 11:42:47.11	250.90	18.58	-41.8	-45.7	11.9	5.58e-04	0	57	0	376438784	54	5905
2026-01-08 11:42:48.12	251.13	18.63	-41.7	-45.4	12.2	3.12e-04	0	57	0	378535936	54	5722
2026-01-08 11:42:49.13	251.36	18.67	-41.5	-45.2	12.4	1.93e-04	0	57	0	380633088	54	5545
2026-01-08 11:42:50.14	251.59	18.71	-41.5	-45.1	12.6	6.02e-05	0	57	0	382730240	54	5502
2026-01-08 11:42:51.15	251.82	18.75	-41.6	-45.3	12.3	1.56e-04	0	58	0	383778816	54	5642
2026-01-08 11:42:52.16	252.05	18.79	-41.6	-45.2	12.4	9.99e-05	0	57	0	385875968	54	5591
2026-01-08 11:42:53.16	252.27	18.83	-41.5	-45.1	12.6	1.22e-04	0	57	0	387973120	54	5466
2026-01-08 11:42:54.17	252.51	18.88	-41.4	-44.9	12.7	5.26e-05	0	57	0	390070272	54	5400
2026-01-08 11:42:55.18	252.74	18.92	-41.2	-44.6	13.1	4.42e-05	0	57	0	392167424	54	5175
2026-01-08 11:42:56.19	252.97	18.95	-41.1	-44.3	13.3	2.51e-05	0	57	0	393216000	54	5038
2026-01-08 11:42:57.20	253.21	18.99	-40.9	-44.1	13.6	8.30e-06	0	57	0	395313152	53	5165
2026-01-08 11:42:58.21	253.44	19.03	-41.0	-44.3	13.4	1.06e-05	0	57	0	397410304	53	5288
2026-01-08 11:42:59.22	253.67	19.07	-41.1	-44.4	13.3	2.67e-05	0	57	0	399507456	53	5347
2026-01-08 11:43:00.23	253.91	19.11	-41.3	-44.7	13.1	2.36e-05	0	58	0	401604608	53	5529
2026-01-08 11:43:01.24	254.14	19.15	-41.3	-44.7	12.9	4.19e-05	0	57	0	402653184	53	5564
2026-01-08 11:43:02.24	254.38	19.18	-41.1	-44.5	13.2	5.41e-05	0	57	0	404750336	53	5409
2026-01-08 11:43:03.25	254.62	19.22	-41.0	-44.2	13.4	1.83e-05	0	58	0	406847488	53	5273
2026-01-08 11:43:04.26	254.85	19.26	-40.9	-44.0	13.6	1.06e-05	0	58	0	408944640	53	5150
2026-01-08 11:43:05.27	255.09	19.29	-40.7	-43.7	14.0	4.50e-06	0	58	0	411041792	53	4949
2026-01-08 11:43:06.28	255.33	19.33	-40.8	-43.8	13.9	2.20e-06	0	57	0	412090368	53	5010
2026-01-08 11:43:07.29	255.57	19.36	-40.8	-43.9	13.8	3.80e-06	0	57	0	414187520	53	5066
2026-01-08 11:43:08.30	255.81	19.40	-40.9	-44.1	13.6	9.90e-06	0	57	0	416284672	53	5167
2026-01-08 11:43:09.31	256.05	19.43	-41.0	-44.1	13.5	1.60e-05	0	57	0	418381824	53	5218
2026-01-08 11:43:10.32	256.29	19.47	-40.9	-44.1	13.6	4.50e-06	0	58	0	420478976	53	5166
2026-01-08 11:43:11.33	256.53	19.50	-40.6	-43.5	14.2	3.00e-06	0	57	0	422576128	53	4860
2026-01-08 11:43:12.34	256.77	19.53	-40.5	-43.4	14.3	2.20e-06	0	58	0	423624704	53	4776
2026-01-08 11:43:13.35	257.01	19.56	-40.3	-43.1	14.6	0.00e+00	0	57	0	425721856	52	4903
2026-01-08 11:43:14.36	257.26	19.60	-40.4	-43.1	14.6	0.00e+00	0	58	0	427819008	52	4919
2026-01-08 11:43:15.36	257.50	19.63	-40.4	-43.2	14.5	0.00e+00	0	58	0	429916160	52	4940
2026-01-08 11:43:16.37	257.74	19.66	-40.4	-43.2	14.5	1.50e-06	0	58	0	430964736	52	4980
2026-01-08 11:43:17.38	257.98	19.69	-40.3	-43.1	14.6	0.00e+00	0	58	0	433061888	52	4908
2026-01-08 11:43:18.39	258.23	19.72	-40.2	-42.9	14.8	0.00e+00	0	57	0	435159040	52	4810
2026-01-08 11:43:19.40	258.47	19.75	-40.1	-42.8	14.9	0.00e+00	0	58	0	437256192	52	4720
2026-01-08 11:43:20.41	258.72	19.78	-40.2	-42.9	14.9	0.00e+00	0	58	0	439353344	52	4782
2026-01-08 11:43:21.42	258.96	19.81	-40.3	-43.1	14.6	0.00e+00	0	58	0	440401920	52	4887
2026-01-08 11:43:22.43	259.21	19.83	-40.4	-43.2	14.5	3.00e-06	0	58	0	442499072	52	4948
2026-01-08 11:43:23.44	259.46	19.86	-40.7	-43.7	14.1	1.50e-06	0	57	0	444596224	52	5236
2026-01-08 11:43:24.45	259.70	19.89	-40.7	-43.7	14.0	3.80e-06	0	57	0	446693376	52	5238
2026-01-08 11:43:25.46	259.95	19.92	-40.7	-43.7	14.0	1.50e-06	0	58	0	448790528	52	5277
2026-01-08 11:43:26.47	260.20	19.94	-40.6	-43.5	14.2	3.00e-06	0	57	0	450887680	52	5136
2026-01-08 11:43:27.48	260.45	19.97	-40.5	-43.4	14.4	2.20e-06	0	57	0	451936256	52	5045
2026-01-08 11:43:28.49	260.70	19.99	-40.5	-43.3	14.4	0.00e+00	0	57	0	454033408	52	5003
2026-01-08 11:43:29.49	260.94	20.02	-40.6	-43.5	14.1	7.00e-07	0	57	0	456130560	52	5151
2026-01-08 11:43:30.51	261.20	20.04	-40.7	-43.7	14.0	1.50e-06	0	58	0	458227712	52	5242
2026-01-08 11:43:31.52	261.44	20.06	-40.7	-43.6	14.1	3.00e-06	0	58	0	460324864	52	5208
2026-01-08 11:43:32.53	261.70	20.09	-40.7	-43.6	14.1	7.00e-07	0	57	0	461373440	52	5201
2026-01-08 11:43:33.53	261.94	20.11	-40.5	-43.3	14.4	7.00e-07	0	57	0	463470592	52	5032
2026-01-08 11:43:34.54	262.19	20.13	-40.4	-43.2	14.4	7.00e-07	0	58	0	465567744	52	4981
2026-01-08 11:43:35.55	262.45	20.15	-40.4	-43.2	14.5	7.00e-07	0	58	0	467664896	52	4980
2026-01-08 11:43:36.56	262.70	20.17	-40.7	-43.7	14.0	7.00e-07	0	58	0	469762048	52	5277
2026-01-08 11:43:37.57	262.95	20.20	-40.7	-43.7	14.0	3.00e-06	0	58	0	470810624	52	5257
2026-01-08 11:43:38.58	263.20	20.22	-40.7	-43.7	14.0	5.30e-06	0	58	0	472907776	52	5226
2026-01-08 11:43:39.59	263.45	20.23	-40.5	-43.3	14.4	7.00e-07	0	58	0	475004928	52	5037
2026-01-08 11:43:40.60	263.71	20.25	-40.3	-43.0	14.7	0.00e+00	0	58	0	477102080	52	4816
2026-01-08 11:43:41.61	263.96	20.27	-40.3	-42.9	14.7	0.00e+00	0	58	0	479199232	52	4812
2026-01-08 11:43:42.62	264.21	20.29	-40.4	-43.1	14.6	0.00e+00	0	58	0	480247808	52	4908
2026-01-08 11:43:43.63	264.47	20.31	-40.5	-43.4	14.3	7.00e-07	0	58	0	482344960	52	5051
2026-01-08 11:43:44.64	264.72	20.32	-40.7	-43.8	14.0	2.20e-06	0	57	0	484442112	52	5283
2026-01-08 11:43:45.65	264.98	20.34	-40.8	-43.8	13.9	5.30e-06	0	58	0	486539264	52	5330
2026-01-08 11:43:46.66	265.23	20.35	-40.9	-44.0	13.7	9.90e-06	0	58	0	488636416	52	5432
2026-01-08 11:43:47.67	265.48	20.37	-40.8	-43.9	13.9	1.06e-05	0	58	0	489684992	52	5355
2026-01-08 11:43:48.68	265.74	20.38	-40.7	-43.7	14.0	2.20e-06	0	57	0	491782144	52	5258
2026-01-08 11:43:49.69	266.00	20.40	-40.8	-43.8	13.9	3.00e-06	0	58	0	493879296	52	5283
2026-01-08 11:43:50.70	266.25	20.41	-41.0	-44.1	13.6	4.50e-06	0	58	0	495976448	52	5487
2026-01-08 11:43:51.71	266.51	20.42	-41.1	-44.4	13.4	1.67e-05	0	58	0	498073600	52	5679
2026-01-08 11:43:52.72	266.76	20.44	-41.2	-44.4	13.3	1.67e-05	0	58	0	499122176	53	5396
2026-01-08 11:43:53.73	267.02	20.45	-41.2	-44.5	13.1	2.67e-05	0	58	0	501219328	53	5449
2026-01-08 11:43:54.74	267.27	20.46	-41.1	-44.3	13.4	1.14e-05	0	58	0	503316480	53	5334
2026-01-08 11:43:55.74	267.53	20.47	-41.0	-44.1	13.6	1.14e-05	0	58	0	505413632	53	5192
2026-01-08 11:43:56.75	267.78	20.48	-40.7	-43.7	14.0	3.80e-06	0	58	0	507510784	53	4972
2026-01-08 11:43:57.76	268.04	20.49	-40.7	-43.6	14.1	1.50e-06	0	58	0	508559360	53	4891
2026-01-08 11:43:58.77	268.30	20.50	-40.6	-43.5	14.2	2.20e-06	0	58	0	510656512	53	4862
2026-01-08 11:43:59.78	268.56	20.51	-40.7	-43.6	14.1	1.50e-06	0	58	0	512753664	53	4919
2026-01-08 11:44:00.79	268.81	20.51	-40.7	-43.7	14.0	4.50e-06	0	58	0	514850816	53	4946
2026-01-08 11:44:01.80	269.07	20.52	-40.7	-43.6	14.2	2.20e-06	0	58	0	516947968	53	4891
2026-01-08 11:44:02.81	269.33	20.53	-40.6	-43.4	14.3	0.00e+00	0	58	0	519045120	53	4808
2026-01-08 11:44:03.82	269.58	20.53	-40.5	-43.4	14.4	0.00e+00	0	58	0	520093696	52	5049
2026-01-08 11:44:04.83	269.84	20.54	-40.6	-43.5	14.2	7.00e-07	0	58	0	522190848	52	5157
2026-01-08 11:44:05.84	270.10	20.54	-40.8	-43.7	13.9	1.50e-06	0	58	0	524288000	52	5278
2026-01-08 11:44:06.85	270.36	20.55	-41.0	-44.2	13.4	3.80e-06	0	58	0	526385152	52	5563
2026-01-08 11:44:07.86	270.61	20.55	-41.2	-44.5	13.2	1.60e-05	0	58	0	528482304	52	5759
2026-01-08 11:44:08.87	270.87	20.55	-41.3	-44.7	13.0	2.97e-05	0	58	0	529530880	53	5590
2026-01-08 11:44:09.88	271.13	20.56	-41.2	-44.6	13.1	1.98e-05	0	58	0	531628032	53	5488
2026-01-08 11:44:10.89	271.39	20.56	-41.1	-44.2	13.4	2.21e-05	0	58	0	533725184	53	5278
2026-01-08 11:44:11.90	271.65	20.56	-41.1	-44.3	13.3	1.90e-05	0	58	0	535822336	53	5334
2026-01-08 11:44:12.91	271.90	20.56	-41.2	-44.5	13.2	2.05e-05	0	58	0	537919488	53	5446
2026-01-08 11:44:13.92	272.16	20.56	-41.3	-44.7	13.0	2.74e-05	0	58	0	538968064	53	5588
2026-01-08 11:44:14.93	272.42	20.56	-41.3	-44.8	12.9	4.73e-05	0	58	0	541065216	53	5624
2026-01-08 11:44:15.93	272.67	20.56	-41.2	-44.6	13.1	3.66e-05	0	58	0	543162368	53	5485
2026-01-08 11:44:16.94	272.93	20.56	-41.1	-44.4	13.3	2.13e-05	0	58	0	545259520	53	5364
2026-01-08 11:44:17.96	273.19	20.56	-41.0	-44.2	13.5	1.90e-05	0	58	0	547356672	53	5271
2026-01-08 11:44:18.96	273.45	20.55	-41.1	-44.3	13.4	6.10e-06	0	58	0	548405248	53	5324
2026-01-08 11:44:19.98	273.71	20.55	-41.2	-44.5	13.2	1.90e-05	0	58	0	550502400	53	5464
2026-01-08 11:44:20.99	273.97	20.55	-41.3	-44.8	12.9	4.42e-05	0	58	0	552599552	53	5624
2026-01-08 11:44:22.00	274.22	20.54	-41.3	-44.7	13.0	6.02e-05	0	58	0	554696704	53	5536
2026-01-08 11:44:23.01	274.48	20.54	-41.2	-44.5	13.2	1.83e-05	0	58	0	556793856	53	5417
2026-01-08 11:44:24.02	274.74	20.53	-41.1	-44.4	13.3	1.29e-05	0	58	0	557842432	53	5360
2026-01-08 11:44:25.02	274.99	20.53	-40.9	-44.0	13.6	7.60e-06	0	58	0	559939584	53	5148
2026-01-08 11:44:26.03	275.25	20.52	-41.0	-44.1	13.6	3.00e-06	0	58	0	562036736	53	5198
2026-01-08 11:44:27.04	275.51	20.51	-41.2	-44.5	13.2	1.75e-05	0	58	0	564133888	53	5448
2026-01-08 11:44:28.05	275.76	20.50	-41.3	-44.7	13.0	2.67e-05	0	58	0	566231040	53	5582
2026-01-08 11:44:29.06	276.02	20.50	-41.5	-45.0	12.6	5.03e-05	0	58	0	567279616	53	5775
2026-01-08 11:44:30.07	276.28	20.49	-41.3	-44.8	12.9	5.18e-05	0	58	0	569376768	53	5609
2026-01-08 11:44:31.08	276.53	20.48	-41.2	-44.6	13.0	4.27e-05	0	58	0	571473920	53	5488
2026-01-08 11:44:32.09	276.79	20.47	-41.2	-44.5	13.2	1.83e-05	0	58	0	573571072	53	5416
2026-01-08 11:44:33.09	277.04	20.46	-41.2	-44.5	13.2	1.29e-05	0	58	0	575668224	53	5430
2026-01-08 11:44:34.10	277.30	20.44	-41.3	-44.6	13.0	2.44e-05	0	58	0	576716800	53	5497
2026-01-08 11:44:35.11	277.55	20.43	-41.3	-44.7	13.0	3.73e-05	0	58	0	578813952	53	5572
2026-01-08 11:44:36.12	277.81	20.42	-41.3	-44.8	12.9	7.32e-05	0	58	0	580911104	53	5596
2026-01-08 11:44:37.13	278.07	20.41	-41.2	-44.6	13.2	3.81e-05	0	58	0	583008256	53	5474
2026-01-08 11:44:38.14	278.32	20.39	-41.0	-44.2	13.5	2.21e-05	0	58	0	585105408	53	5271
2026-01-08 11:44:39.15	278.58	20.38	-40.9	-44.0	13.7	9.90e-06	0	58	0	587202560	53	5136
2026-01-08 11:44:40.16	278.83	20.37	-40.9	-44.0	13.7	3.80e-06	0	58	0	588251136	53	5128
2026-01-08 11:44:41.17	279.08	20.35	-40.9	-44.0	13.7	7.60e-06	0	58	0	590348288	53	5132
2026-01-08 11:44:42.18	279.34	20.34	-40.9	-44.1	13.6	6.80e-06	0	58	0	592445440	53	5161
2026-01-08 11:44:43.19	279.59	20.32	-40.8	-43.9	13.8	6.80e-06	0	58	0	594542592	53	5072
2026-01-08 11:44:44.19	279.84	20.30	-40.9	-44.0	13.6	7.00e-07	0	58	0	596639744	53	5145
2026-01-08 11:44:45.20	280.10	20.29	-40.9	-44.0	13.7	5.30e-06	0	58	0	597688320	53	5131
2026-01-08 11:44:46.21	280.35	20.27	-41.0	-44.1	13.5	6.10e-06	0	58	0	599785472	53	5214
2026-01-08 11:44:47.22	280.60	20.25	-41.1	-44.3	13.3	1.14e-05	0	58	0	601882624	53	5330
2026-01-08 11:44:48.23	280.85	20.23	-41.1	-44.4	13.3	2.36e-05	0	58	0	603979776	53	5364
2026-01-08 11:44:49.25	281.11	20.21	-41.2	-44.5	13.2	2.44e-05	0	58	0	606076928	53	5428
2026-01-08 11:44:50.25	281.36	20.19	-41.1	-44.4	13.2	2.21e-05	0	58	0	607125504	53	5394
2026-01-08 11:44:51.27	281.61	20.17	-41.1	-44.4	13.3	1.52e-05	0	58	0	609222656	53	5381
2026-01-08 11:44:52.28	281.86	20.15	-41.0	-44.2	13.5	2.74e-05	0	58	0	611319808	53	5238
2026-01-08 11:44:53.29	282.11	20.13	-41.0	-44.2	13.6	1.22e-05	0	58	0	613416960	53	5221
2026-01-08 11:44:54.30	282.36	20.11	-41.0	-44.2	13.5	8.30e-06	0	58	0	615514112	53	5230
2026-01-08 11:44:55.30	282.61	20.08	-41.0	-44.1	13.6	9.90e-06	0	58	0	616562688	53	5188
2026-01-08 11:44:56.31	282.86	20.06	-41.0	-44.3	13.4	8.30e-06	0	58	0	618659840	53	5289
2026-01-08 11:44:57.33	283.11	20.04	-41.0	-44.1	13.6	6.10e-06	0	58	0	620756992	53	5182
2026-01-08 11:44:58.34	283.36	20.01	-41.0	-44.2	13.5	7.60e-06	0	58	0	622854144	53	5270
2026-01-08 11:44:59.35	283.61	19.99	-41.0	-44.2	13.5	9.10e-06	0	58	0	624951296	53	5249
2026-01-08 11:45:00.35	283.86	19.96	-41.0	-44.2	13.5	1.67e-05	0	58	0	625999872	53	5273
2026-01-08 11:45:01.36	284.10	19.94	-40.9	-44.0	13.7	8.30e-06	0	58	0	628097024	53	5152
2026-01-08 11:45:02.37	284.35	19.91	-40.8	-43.9	13.8	3.80e-06	0	58	0	630194176	53	5054
2026-01-08 11:45:03.38	284.60	19.88	-40.7	-43.7	14.0	3.00e-06	0	58	0	632291328	53	4974
2026-01-08 11:45:04.39	284.84	19.86	-40.7	-43.7	14.1	3.00e-06	0	58	0	634388480	53	4928
2026-01-08 11:45:05.40	285.09	19.83	-40.9	-44.0	13.8	1.50e-06	0	58	0	635437056	53	5108
2026-01-08 11:45:06.41	285.34	19.80	-40.9	-44.1	13.6	1.06e-05	0	58	0	637534208	53	5187
2026-01-08 11:45:07.42	285.58	19.77	-41.0	-44.2	13.5	1.06e-05	0	58	0	639631360	53	5267
2026-01-08 11:45:08.43	285.83	19.74	-41.1	-44.3	13.4	8.30e-06	0	58	0	641728512	53	5310
2026-01-08 11:45:09.44	286.07	19.71	-40.9	-44.1	13.6	1.06e-05	0	58	0	643825664	53	5181
2026-01-08 11:45:10.45	286.31	19.68	-40.9	-44.1	13.7	3.80e-06	0	58	0	644874240	53	5164
2026-01-08 11:45:11.46	286.56	19.65	-41.1	-44.3	13.4	1.37e-05	0	58	0	646971392	53	5309
2026-01-08 11:45:12.47	286.80	19.62	-41.1	-44.4	13.3	1.44e-05	0	58	0	649068544	53	5385
2026-01-08 11:45:13.47	287.04	19.59	-41.2	-44.6	13.0	4.19e-05	0	58	0	651165696	53	5513
2026-01-08 11:45:14.48	287.28	19.56	-41.4	-45.0	12.6	5.18e-05	0	58	0	653262848	53	5769
2026-01-08 11:45:15.49	287.52	19.53	-41.5	-45.2	12.5	8.23e-05	0	58	0	655360000	53	5885
2026-01-08 11:45:16.50	287.76	19.49	-41.5	-45.2	12.5	1.36e-04	0	58	0	656408576	53	5891
2026-01-08 11:45:17.51	288.00	19.46	-41.4	-44.9	12.7	8.85e-05	0	58	0	658505728	53	5702
2026-01-08 11:45:18.52	288.24	19.43	-41.2	-44.5	13.2	6.10e-05	0	58	0	660602880	53	5440
2026-01-08 11:45:19.53	288.48	19.39	-40.9	-44.1	13.6	1.75e-05	0	58	0	662700032	53	5185
2026-01-08 11:45:20.54	288.72	19.36	-40.8	-43.9	13.8	4.50e-06	0	58	0	664797184	53	5052
2026-01-08 11:45:21.55	288.96	19.32	-40.8	-43.8	13.9	4.50e-06	0	58	0	665845760	53	5012
2026-01-08 11:45:22.56	289.20	19.29	-40.8	-43.8	13.8	3.00e-06	0	58	0	667942912	53	5029
2026-01-08 11:45:23.57	289.43	19.25	-40.9	-44.0	13.7	6.10e-06	0	58	0	670040064	53	5155
2026-01-08 11:45:24.57	289.67	19.22	-41.0	-44.2	13.5	4.50e-06	0	58	0	672137216	53	5233
2026-01-08 11:45:25.59	289.91	19.18	-40.9	-44.1	13.5	1.44e-05	0	58	0	674234368	53	5187
2026-01-08 11:45:26.59	290.14	19.14	-40.8	-43.9	13.7	6.10e-06	0	58	0	675282944	53	5074
2026-01-08 11:45:27.60	290.37	19.10	-40.8	-43.8	13.9	3.00e-06	0	58	0	677380096	53	5019
2026-01-08 11:45:28.61	290.61	19.07	-40.7	-43.7	14.0	7.00e-07	0	58	0	679477248	53	4929
2026-01-08 11:45:29.62	290.84	19.03	-40.6	-43.5	14.1	1.50e-06	0	58	0	681574400	53	4854
2026-01-08 11:45:30.63	291.07	18.99	-40.6	-43.6	14.0	0.00e+00	0	58	0	683671552	53	4921
2026-01-08 11:45:31.64	291.31	18.95	-40.8	-43.8	13.8	1.50e-06	0	58	0	684720128	53	5040
2026-01-08 11:45:32.65	291.54	18.91	-40.8	-43.9	13.7	3.00e-06	0	58	0	686817280	53	5091
2026-01-08 11:45:33.66	291.77	18.87	-40.9	-44.0	13.6	1.06e-05	0	58	0	688914432	53	5148
2026-01-08 11:45:34.67	292.00	18.83	-40.8	-44.0	13.7	6.80e-06	0	58	0	691011584	53	5111
2026-01-08 11:45:35.68	292.23	18.79	-40.7	-43.8	13.9	2.20e-06	0	58	0	693108736	53	5001
2026-01-08 11:45:36.69	292.46	18.75	-40.6	-43.5	14.2	3.80e-06	0	58	0	694157312	53	4839
2026-01-08 11:45:37.70	292.69	18.71	-40.5	-43.4	14.2	0.00e+00	0	58	0	696254464	52	5097
2026-01-08 11:45:38.70	292.91	18.67	-40.4	-43.2	14.4	1.50e-06	0	58	0	698351616	52	4977
2026-01-08 11:45:39.72	293.14	18.62	-40.4	-43.2	14.5	7.00e-07	0	58	0	700448768	52	4940
2026-01-08 11:45:40.72	293.37	18.58	-40.4	-43.2	14.5	1.50e-06	0	58	0	702545920	52	4939
2026-01-08 11:45:41.73	293.60	18.54	-40.5	-43.3	14.3	2.20e-06	0	58	0	703594496	52	5034
2026-01-08 11:45:42.74	293.82	18.50	-40.5	-43.5	14.2	2.20e-06	0	58	0	705691648	52	5116
2026-01-08 11:45:43.75	294.05	18.45	-40.7	-43.7	13.9	3.00e-06	0	58	0	707788800	52	5239
2026-01-08 11:45:44.76	294.27	18.41	-40.8	-43.9	13.7	3.80e-06	0	58	0	709885952	52	5383
2026-01-08 11:45:45.77	294.49	18.36	-40.8	-43.9	13.7	3.00e-06	0	58	0	711983104	52	5374
2026-01-08 11:45:46.78	294.72	18.32	-40.8	-43.9	13.6	5.30e-06	0	58	0	713031680	52	5401
2026-01-08 11:45:47.79	294.94	18.27	-40.7	-43.7	13.9	5.30e-06	0	58	0	715128832	52	5265
2026-01-08 11:45:48.80	295.16	18.23	-40.8	-44.0	13.6	4.50e-06	0	58	0	717225984	52	5423
2026-01-08 11:45:49.81	295.38	18.18	-41.0	-44.3	13.4	1.44e-05	0	58	0	719323136	52	5602
2026-01-08 11:45:50.82	295.60	18.14	-41.1	-44.5	13.1	2.89e-05	0	58	0	721420288	52	5760
2026-01-08 11:45:51.83	295.82	18.09	-41.1	-44.4	13.2	2.28e-05	0	58	0	723517440	52	5665
2026-01-08 11:45:52.84	296.04	18.04	-41.0	-44.2	13.4	2.13e-05	0	58	0	724566016	52	5564
2026-01-08 11:45:53.85	296.26	18.00	-40.9	-44.1	13.5	5.30e-06	0	58	0	726663168	52	5496
2026-01-08 11:45:54.86	296.48	17.95	-40.8	-44.0	13.6	5.30e-06	0	58	0	728760320	52	5442
2026-01-08 11:45:55.87	296.70	17.90	-40.8	-43.9	13.7	6.10e-06	0	58	0	730857472	52	5365
2026-01-08 11:45:56.88	296.91	17.85	-40.9	-44.1	13.5	4.50e-06	0	58	0	732954624	52	5496
2026-01-08 11:45:57.89	297.13	17.81	-40.8	-43.9	13.7	1.06e-05	0	58	0	734003200	52	5386
2026-01-08 11:45:58.90	297.34	17.76	-40.8	-44.0	13.6	9.10e-06	0	58	0	736100352	52	5425
2026-01-08 11:45:59.91	297.56	17.71	-40.8	-44.0	13.6	1.22e-05	0	58	0	738197504	52	5409
2026-01-08 11:46:00.92	297.77	17.66	-40.8	-44.0	13.6	6.80e-06	0	58	0	740294656	52	5413
2026-01-08 11:46:01.93	297.99	17.61	-40.9	-44.0	13.6	6.80e-06	0	58	0	741343232	52	5442
2026-01-08 11:46:02.93	298.20	17.56	-41.0	-44.2	13.3	1.60e-05	0	58	0	743440384	52	5588
2026-01-08 11:46:03.94	298.41	17.51	-41.1	-44.5	13.1	1.60e-05	0	58	0	745537536	52	5743
2026-01-08 11:46:04.95	298.62	17.46	-41.2	-44.7	12.8	4.65e-05	0	58	0	747634688	53	5553
2026-01-08 11:46:05.96	298.83	17.41	-41.3	-44.9	12.7	8.62e-05	0	58	0	749731840	53	5670
2026-01-08 11:46:06.98	299.04	17.36	-41.4	-45.0	12.6	1.06e-04	0	58	0	751828992	53	5732
2026-01-08 11:46:07.99	299.25	17.31	-41.3	-44.9	12.6	1.33e-04	0	58	0	752877568	53	5698
2026-01-08 11:46:09.00	299.46	17.26	-41.2	-44.7	12.8	1.01e-04	0	58	0	754974720	53	5585
2026-01-08 11:46:10.00	299.66	17.21	-41.3	-44.7	12.8	5.49e-05	0	58	0	757071872	53	5583
2026-01-08 11:46:11.01	299.87	17.16	-41.3	-44.9	12.7	7.24e-05	0	58	0	759169024	53	5661
2026-01-08 11:46:12.02	300.08	17.10	-41.2	-44.6	12.9	6.94e-05	0	58	0	761266176	53	5528
2026-01-08 11:46:13.04	300.29	17.05	-41.2	-44.6	13.0	5.79e-05	0	58	0	762314752	53	5515
2026-01-08 11:46:14.04	300.49	17.00	-41.2	-44.6	13.0	8.31e-05	0	58	0	764411904	53	5515
2026-01-08 11:46:15.05	300.69	16.95	-41.1	-44.4	13.2	2.89e-05	0	58	0	766509056	53	5352
2026-01-08 11:46:16.06	300.90	16.89	-41.0	-44.2	13.3	2.44e-05	0	58	0	768606208	53	5255
2026-01-08 11:46:17.07	301.10	16.84	-40.9	-44.1	13.5	1.98e-05	0	58	0	770703360	53	5185
2026-01-08 11:46:18.08	301.30	16.79	-41.0	-44.2	13.4	1.22e-05	0	58	0	771751936	53	5258
2026-01-08 11:46:19.10	301.50	16.73	-41.0	-44.2	13.3	1.22e-05	0	58	0	773849088	53	5251
2026-01-08 11:46:20.11	301.70	16.68	-41.0	-44.2	13.3	1.75e-05	0	58	0	775946240	53	5244
2026-01-08 11:46:21.12	301.90	16.63	-41.1	-44.4	13.1	1.67e-05	0	58	0	778043392	53	5382
2026-01-08 11:46:22.12	302.10	16.57	-41.2	-44.7	12.8	3.89e-05	0	58	0	780140544	53	5564
2026-01-08 11:46:23.13	302.30	16.52	-41.4	-44.9	12.6	7.62e-05	0	58	0	781189120	53	5711
2026-01-08 11:46:24.14	302.50	16.46	-41.6	-45.4	12.1	1.78e-04	0	58	0	783286272	53	6022
2026-01-08 11:46:25.16	302.70	16.41	-41.7	-45.5	11.9	4.27e-04	0	58	0	785383424	54	5779
2026-01-08 11:46:26.16	302.89	16.35	-41.8	-45.9	11.6	4.83e-04	0	58	0	787480576	54	6043
2026-01-08 11:46:27.17	303.09	16.30	-41.9	-46.1	11.4	6.72e-04	0	58	0	789577728	54	6139
2026-01-08 11:46:28.18	303.28	16.24	-41.9	-46.0	11.5	7.21e-04	0	58	0	791674880	54	6101
2026-01-08 11:46:29.19	303.48	16.19	-41.8	-45.9	11.7	6.22e-04	0	58	0	792723456	54	5996
2026-01-08 11:46:30.20	303.67	16.13	-41.8	-45.8	11.7	4.01e-04	0	58	0	794820608	54	5961
2026-01-08 11:46:31.21	303.86	16.08	-41.7	-45.5	11.9	3.26e-04	0	58	0	796917760	54	5779
2026-01-08 11:46:32.22	304.06	16.02	-41.6	-45.3	12.2	2.51e-04	0	58	0	799014912	54	5645
2026-01-08 11:46:33.23	304.25	15.96	-41.5	-45.1	12.4	1.22e-04	0	58	0	801112064	54	5517
2026-01-08 11:46:34.24	304.44	15.91	-41.3	-44.9	12.6	1.56e-04	0	58	0	802160640	54	5375
2026-01-08 11:46:35.25	304.63	15.85	-41.3	-44.8	12.7	8.08e-05	0	58	0	804257792	54	5304
2026-01-08 11:46:36.26	304.82	15.79	-41.3	-44.7	12.8	4.80e-05	0	58	0	806354944	54	5270
2026-01-08 11:46:37.27	305.01	15.74	-41.0	-44.3	13.2	4.27e-05	0	58	0	808452096	54	5038
2026-01-08 11:46:38.27	305.19	15.68	-41.1	-44.4	13.1	1.60e-05	0	58	0	809500672	53	5394
2026-01-08 11:46:39.28	305.38	15.62	-41.1	-44.5	13.0	3.12e-05	0	58	0	811597824	53	5438
2026-01-08 11:46:40.29	305.57	15.57	-41.0	-44.6	12.8	5.34e-05	0	58	0	813694976	53	5524
2026-01-08 11:46:41.30	305.75	15.51	-41.2	-45.2	12.2	1.96e-04	0	58	0	815792128	53	5888
2026-01-08 11:46:42.31	305.94	15.45	-41.5	-45.6	11.8	3.97e-04	0	58	0	817889280	53	6200
2026-01-08 11:46:43.32	306.12	15.39	-41.6	-46.0	11.3	8.96e-04	0	58	0	819986432	53	6472
2026-01-08 11:46:44.33	306.31	15.34	-41.7	-46.2	11.1	1.25e-03	0	58	0	821035008	54	6243
2026-01-08 11:46:45.34	306.49	15.28	-41.6	-45.9	11.5	1.23e-03	0	58	0	823132160	54	6033
2026-01-08 11:46:46.35	306.67	15.22	-41.4	-45.5	11.9	9.64e-04	0	58	0	825229312	54	5768
2026-01-08 11:46:47.36	306.85	15.16	-41.3	-45.3	12.1	4.20e-04	0	58	0	827326464	54	5615
2026-01-08 11:46:48.37	307.03	15.10	-41.3	-45.2	12.2	2.36e-04	0	58	0	829423616	54	5558
2026-01-08 11:46:49.38	307.21	15.05	-41.2	-45.0	12.4	1.73e-04	0	58	0	830472192	54	5434
2026-01-08 11:46:50.40	307.40	14.99	-41.1	-44.9	12.5	1.27e-04	0	58	0	832569344	54	5368
2026-01-08 11:46:51.40	307.57	14.93	-41.2	-45.0	12.3	1.91e-04	0	58	0	834666496	54	5455
2026-01-08 11:46:52.41	307.75	14.87	-41.2	-45.0	12.5	1.36e-04	0	58	0	836763648	54	5423
2026-01-08 11:46:53.42	307.93	14.81	-41.2	-45.0	12.4	1.40e-04	0	58	0	838860800	54	5415
2026-01-08 11:46:54.43	308.10	14.75	-41.1	-44.9	12.5	9.46e-05	0	58	0	839909376	54	5353
2026-01-08 11:46:55.44	308.28	14.69	-40.9	-44.4	13.0	5.26e-05	0	58	0	842006528	53	5401
2026-01-08 11:46:56.45	308.46	14.63	-40.9	-44.4	13.0	3.58e-05	0	58	0	844103680	53	5392
2026-01-08 11:46:57.46	308.63	14.57	-40.8	-44.3	13.1	3.81e-05	0	58	0	846200832	53	5335
2026-01-08 11:46:58.47	308.81	14.51	-40.8	-44.3	13.1	2.36e-05	0	58	0	848297984	53	5336
2026-01-08 11:46:59.48	308.98	14.45	-40.9	-44.4	13.0	3.66e-05	0	58	0	849346560	53	5375
2026-01-08 11:47:00.49	309.15	14.39	-41.1	-44.9	12.5	1.15e-04	0	58	0	851443712	53	5681
2026-01-08 11:47:01.50	309.32	14.34	-41.1	-44.9	12.4	1.17e-04	0	58	0	853540864	53	5716
2026-01-08 11:47:02.51	309.50	14.28	-41.1	-45.0	12.4	1.13e-04	0	58	0	855638016	53	5758
2026-01-08 11:47:03.52	309.67	14.22	-41.2	-45.2	12.1	2.14e-04	0	58	0	857735168	53	5886
2026-01-08 11:47:04.53	309.84	14.16	-41.1	-45.0	12.3	1.73e-04	0	58	0	859832320	53	5752
2026-01-08 11:47:05.54	310.01	14.10	-41.1	-45.0	12.3	2.10e-04	0	58	0	860880896	53	5767
2026-01-08 11:47:06.55	310.17	14.04	-41.0	-44.8	12.5	2.49e-04	0	58	0	862978048	53	5637
2026-01-08 11:47:07.55	310.34	13.98	-41.0	-44.7	12.7	9.76e-05	0	58	0	865075200	53	5569
2026-01-08 11:47:08.56	310.51	13.92	-40.9	-44.6	12.8	7.55e-05	0	58	0	867172352	53	5486
2026-01-08 11:47:09.57	310.68	13.86	-40.8	-44.4	13.0	5.49e-05	0	58	0	868220928	53	5341
2026-01-08 11:47:10.58	310.84	13.79	-40.8	-44.3	13.1	5.11e-05	0	58	0	870318080	53	5290
2026-01-08 11:47:11.59	311.01	13.73	-40.9	-44.4	12.9	4.34e-05	0	58	0	872415232	53	5392
2026-01-08 11:47:12.60	311.17	13.67	-40.9	-44.4	12.9	4.73e-05	0	58	0	874512384	53	5390
2026-01-08 11:47:13.61	311.34	13.61	-40.9	-44.5	12.9	5.49e-05	0	58	0	876609536	53	5434
2026-01-08 11:47:14.62	311.50	13.55	-41.0	-44.7	12.6	7.78e-05	0	58	0	877658112	53	5590
2026-01-08 11:47:15.63	311.66	13.49	-41.0	-44.7	12.6	7.93e-05	0	58	0	879755264	53	5558
2026-01-08 11:47:16.64	311.82	13.43	-41.0	-44.7	12.6	8.54e-05	0	58	0	881852416	53	5560
2026-01-08 11:47:17.65	311.99	13.37	-41.0	-44.7	12.6	9.30e-05	0	58	0	883949568	53	5551
2026-01-08 11:47:18.66	312.15	13.31	-41.0	-44.7	12.7	8.54e-05	0	58	0	886046720	53	5545
2026-01-08 11:47:19.67	312.31	13.25	-41.0	-44.7	12.7	5.95e-05	0	58	0	888143872	53	5548
2026-01-08 11:47:20.68	312.47	13.19	-41.1	-44.8	12.5	9.46e-05	0	58	0	889192448	53	5617
2026-01-08 11:47:21.69	312.63	13.13	-41.0	-44.7	12.6	8.39e-05	0	58	0	891289600	53	5547
2026-01-08 11:47:22.69	312.78	13.07	-41.1	-44.9	12.4	1.11e-04	0	58	0	893386752	53	5722
2026-01-08 11:47:23.70	312.94	13.00	-41.1	-44.9	12.4	1.22e-04	0	58	0	895483904	53	5674
2026-01-08 11:47:24.71	313.10	12.94	-41.0	-44.6	12.7	7.78e-05	0	58	0	897581056	53	5502
2026-01-08 11:47:25.72	313.25	12.88	-41.0	-44.7	12.6	8.77e-05	0	58	0	898629632	53	5570
2026-01-08 11:47:26.73	313.41	12.82	-40.8	-44.3	13.0	4.11e-05	0	58	0	900726784	53	5310
2026-01-08 11:47:27.74	313.56	12.76	-40.6	-44.0	13.4	2.59e-05	0	58	0	902823936	53	5116
2026-01-08 11:47:28.75	313.72	12.70	-40.6	-44.0	13.4	1.67e-05	0	58	0	904921088	53	5109
2026-01-08 11:47:29.76	313.87	12.64	-40.4	-43.6	13.8	1.06e-05	0	58	0	907018240	52	5184
2026-01-08 11:47:30.77	314.03	12.58	-40.3	-43.5	13.9	7.00e-07	0	58	0	908066816	52	5101
2026-01-08 11:47:31.78	314.18	12.51	-40.4	-43.6	13.7	3.80e-06	0	58	0	910163968	52	5167
2026-01-08 11:47:32.79	314.33	12.45	-40.4	-43.6	13.7	7.60e-06	0	58	0	912261120	52	5183
2026-01-08 11:47:33.80	314.48	12.39	-40.5	-43.8	13.4	8.30e-06	0	58	0	914358272	52	5330
2026-01-08 11:47:34.81	314.63	12.33	-40.6	-44.0	13.3	1.90e-05	0	58	0	916455424	52	5463
2026-01-08 11:47:35.82	314.78	12.27	-40.8	-44.3	13.0	2.05e-05	0	58	0	917504000	52	5607
2026-01-08 11:47:36.83	314.93	12.21	-40.9	-44.5	12.7	6.48e-05	0	58	0	919601152	52	5778
2026-01-08 11:47:37.84	315.08	12.15	-41.0	-44.7	12.6	8.85e-05	0	58	0	921698304	52	5881
2026-01-08 11:47:38.85	315.23	12.08	-40.9	-44.7	12.6	8.62e-05	0	58	0	923795456	52	5863
2026-01-08 11:47:39.86	315.38	12.02	-40.9	-44.6	12.7	8.85e-05	0	58	0	925892608	52	5792
2026-01-08 11:47:40.88	315.53	11.96	-40.8	-44.4	12.9	5.11e-05	0	58	0	926941184	52	5657
2026-01-08 11:47:41.88	315.67	11.90	-40.7	-44.2	13.0	4.27e-05	0	58	0	929038336	52	5578
2026-01-08 11:47:42.89	315.82	11.84	-40.6	-44.0	13.3	1.29e-05	0	58	0	931135488	52	5430
2026-01-08 11:47:43.90	315.96	11.78	-40.6	-44.0	13.2	2.28e-05	0	58	0	933232640	52	5459
2026-01-08 11:47:44.91	316.11	11.71	-40.5	-43.9	13.4	1.44e-05	0	58	0	935329792	52	5353
2026-01-08 11:47:45.92	316.25	11.65	-40.6	-44.1	13.2	2.13e-05	0	58	0	936378368	52	5467
2026-01-08 11:47:46.92	316.40	11.59	-40.7	-44.1	13.1	1.67e-05	0	58	0	938475520	52	5510
2026-01-08 11:47:47.94	316.54	11.53	-40.8	-44.3	12.9	4.50e-05	0	58	0	940572672	52	5631
2026-01-08 11:47:48.94	316.68	11.47	-40.9	-44.6	12.6	6.48e-05	0	58	0	942669824	52	5813
2026-01-08 11:47:49.95	316.82	11.41	-40.9	-44.5	12.7	6.94e-05	0	58	0	944766976	52	5785
2026-01-08 11:47:50.96	316.96	11.35	-40.9	-44.6	12.7	1.26e-04	0	58	0	945815552	52	5803
2026-01-08 11:47:51.97	317.10	11.28	-40.9	-44.5	12.7	9.99e-05	0	58	0	947912704	52	5736
2026-01-08 11:47:52.98	317.24	11.22	-40.8	-44.4	12.9	7.32e-05	0	58	0	950009856	52	5658
2026-01-08 11:47:53.99	317.38	11.16	-40.7	-44.2	13.0	4.50e-05	0	58	0	952107008	52	5584
2026-01-08 11:47:55.00	317.52	11.10	-40.8	-44.3	13.0	2.74e-05	0	58	0	954204160	52	5614
2026-01-08 11:47:56.01	317.66	11.04	-40.8	-44.3	13.0	2.51e-05	0	58	0	956301312	52	5624
2026-01-08 11:47:57.02	317.80	10.98	-40.8	-44.3	12.9	4.65e-05	0	58	0	957349888	52	5639
2026-01-08 11:47:58.03	317.94	10.91	-40.8	-44.4	12.8	4.19e-05	0	58	0	959447040	52	5717
2026-01-08 11:47:59.03	318.07	10.85	-41.0	-44.8	12.4	1.41e-04	0	58	0	961544192	52	5936
2026-01-08 11:48:00.05	318.21	10.79	-41.1	-44.9	12.3	2.39e-04	0	58	0	963641344	52	6035
2026-01-08 11:48:01.06	318.35	10.73	-41.3	-45.3	11.9	3.23e-04	0	58	0	965738496	53	5941
2026-01-08 11:48:02.07	318.48	10.67	-41.4	-45.6	11.6	6.16e-04	0	58	0	966787072	53	6155
2026-01-08 11:48:03.08	318.62	10.61	-41.5	-45.8	11.4	7.89e-04	0	58	0	968884224	53	6289
2026-01-08 11:48:04.09	318.75	10.55	-41.5	-45.9	11.3	9.42e-04	0	58	0	970981376	53	6375
2026-01-08 11:48:05.09	318.88	10.48	-41.4	-45.7	11.4	1.21e-03	0	58	0	973078528	53	6240
2026-01-08 11:48:06.10	319.02	10.42	-41.4	-45.6	11.5	1.07e-03	0	58	0	975175680	53	6191
2026-01-08 11:48:07.11	319.15	10.36	-41.4	-45.6	11.6	6.29e-04	0	58	0	976224256	53	6152
2026-01-08 11:48:08.12	319.28	10.30	-41.3	-45.5	11.6	7.58e-04	0	58	0	978321408	53	6088
2026-01-08 11:48:09.13	319.41	10.24	-41.3	-45.3	11.8	4.48e-04	0	58	0	980418560	53	5976
2026-01-08 11:48:10.14	319.54	10.18	-41.1	-45.1	12.1	4.02e-04	0	58	0	982515712	53	5795
2026-01-08 11:48:11.15	319.67	10.12	-41.2	-45.1	12.0	2.48e-04	0	58	0	984612864	53	5812
2026-01-08 11:48:12.17	319.80	10.05	-41.2	-45.2	11.9	2.88e-04	0	58	0	985661440	53	5911
2026-01-08 11:48:13.17	319.93	9.99	-41.2	-45.2	11.9	3.34e-04	0	58	0	987758592	53	5888
2026-01-08 11:48:14.18	320.06	9.93	-41.3	-45.3	11.8	3.48e-04	0	58	0	989855744	53	5972
2026-01-08 11:48:15.19	320.19	9.87	-41.3	-45.4	11.7	5.18e-04	0	58	0	991952896	53	6059
2026-01-08 11:48:16.20	320.32	9.81	-41.3	-45.4	11.7	5.67e-04	0	58	0	994050048	53	6026
2026-01-08 11:48:17.21	320.44	9.75	-41.1	-45.0	12.1	4.49e-04	0	58	0	995098624	53	5784
2026-01-08 11:48:18.22	320.57	9.69	-41.2	-45.3	11.9	4.69e-04	0	58	0	997195776	53	5925
2026-01-08 11:48:19.23	320.70	9.63	-41.1	-45.1	12.0	2.95e-04	0	58	0	999292928	53	5840
2026-01-08 11:48:20.24	320.82	9.57	-41.1	-45.0	12.1	3.51e-04	0	58	0	1001390080	53	5765
2026-01-08 11:48:21.25	320.95	9.51	-41.1	-45.1	12.0	3.20e-04	0	58	0	1003487232	53	5823
2026-01-08 11:48:22.26	321.07	9.44	-41.1	-44.9	12.2	2.89e-04	0	58	0	1004535808	53	5699
2026-01-08 11:48:23.27	321.20	9.38	-41.1	-45.1	12.0	4.10e-04	0	58	0	1006632960	53	5819
2026-01-08 11:48:24.28	321.32	9.32	-41.2	-45.3	11.8	2.78e-04	0	58	0	1008730112	53	5962
2026-01-08 11:48:25.29	321.44	9.26	-41.1	-45.1	12.0	4.48e-04	0	58	0	1010827264	53	5847
2026-01-08 11:48:26.30	321.57	9.20	-41.3	-45.4	11.7	4.91e-04	0	58	0	1012924416	53	6009
2026-01-08 11:48:27.30	321.69	9.14	-41.4	-45.6	11.5	8.01e-04	0	58	0	1013972992	53	6172
2026-01-08 11:48:28.31	321.81	9.08	-41.4	-45.8	11.2	8.25e-04	0	58	0	1016070144	53	6313
2026-01-08 11:48:29.32	321.93	9.02	-41.4	-45.8	11.2	1.08e-03	0	58	0	1018167296	53	6326
2026-01-08 11:48:30.33	322.05	8.96	-41.4	-45.6	11.4	1.21e-03	0	58	0	1020264448	53	6195
2026-01-08 11:48:31.34	322.17	8.90	-41.3	-45.6	11.4	1.07e-03	0	58	0	1022361600	53	6174
2026-01-08 11:48:32.35	322.29	8.84	-41.3	-45.5	11.5	7.11e-04	0	58	0	1024458752	53	6069
2026-01-08 11:48:33.36	322.41	8.78	-41.2	-45.2	11.8	7.54e-04	0	58	0	1025507328	53	5892
2026-01-08 11:48:34.37	322.53	8.72	-41.1	-45.1	12.0	3.49e-04	0	58	0	1027604480	53	5804
2026-01-08 11:48:35.38	322.65	8.66	-41.0	-45.0	12.1	4.36e-04	0	58	0	1029701632	53	5726
2026-01-08 11:48:36.38	322.76	8.60	-41.0	-44.8	12.2	1.80e-04	0	58	0	1031798784	53	5656
2026-01-08 11:48:37.40	322.88	8.54	-40.9	-44.7	12.3	1.95e-04	0	58	0	1033895936	53	5538
2026-01-08 11:48:38.40	323.00	8.48	-40.9	-44.6	12.4	1.88e-04	0	59	0	1034944512	53	5495
2026-01-08 11:48:39.41	323.11	8.42	-41.2	-45.2	11.8	3.52e-04	0	58	0	1037041664	53	5894
2026-01-08 11:48:40.42	323.23	8.36	-41.1	-45.1	11.9	4.13e-04	0	58	0	1039138816	53	5810
2026-01-08 11:48:41.44	323.35	8.29	-41.2	-45.3	11.7	4.24e-04	0	58	0	1041235968	53	5953
2026-01-08 11:48:42.44	323.46	8.24	-41.3	-45.4	11.5	7.46e-04	0	58	0	1043333120	53	6048
2026-01-08 11:48:43.45	323.58	8.17	-41.4	-45.7	11.2	1.01e-03	0	58	0	1044381696	53	6236
2026-01-08 11:48:44.46	323.69	8.11	-41.4	-45.9	11.1	1.25e-03	0	58	0	1046478848	53	6357
2026-01-08 11:48:45.47	323.80	8.05	-41.7	-46.4	10.5	2.44e-03	0	58	0	1048576000	53	6773
2026-01-08 11:48:46.48	323.92	8.00	-42.1	-47.3	10.0	1.92e-03	0	59	0	1050673152	54	7072
2026-01-08 11:48:47.49	324.03	7.94	-44.3	-58.3	3.8	1.48e+00	0	58	104	1050673152	59	18939
2026-01-08 11:48:48.51	324.14	7.87	-44.6	-58.9	3.8	1.49e+00	0	58	104	1050673152	59	20287
2026-01-08 11:48:49.52	324.26	7.82	-44.7	-59.3	3.8	1.49e+00	0	58	104	1050673152	60	19915
2026-01-08 11:48:50.53	324.37	7.76	-44.9	-59.4	3.8	1.49e+00	0	58	104	1050673152	60	20226
2026-01-08 11:48:51.54	324.48	7.70	-45.0	-59.5	3.8	1.49e+00	0	58	104	1050673152	60	20534
2026-01-08 11:48:52.55	324.59	7.64	-45.1	-59.6	3.8	1.49e+00	0	58	104	1050673152	60	20700
2026-01-08 11:48:53.56	324.70	7.58	-45.1	-59.7	3.8	1.49e+00	0	58	104	1050673152	60	20810
2026-01-08 11:48:54.57	324.81	7.52	-45.1	-59.7	3.8	1.49e+00	0	58	104	1050673152	60	20818
2026-01-08 11:48:55.58	324.92	7.46	-45.1	-59.7	3.8	1.49e+00	0	58	104	1050673152	60	20809
2026-01-08 11:48:56.59	325.03	7.40	-45.1	-59.6	3.8	1.49e+00	0	58	104	1050673152	60	20704
2026-01-08 11:48:57.59	325.13	7.34	-45.0	-59.6	3.8	1.49e+00	0	58	104	1050673152	60	20584
2026-01-08 11:48:58.61	325.24	7.28	-45.0	-59.6	3.8	1.49e+00	0	59	104	1050673152	60	20560
2026-01-08 11:48:59.62	325.35	7.22	-45.0	-59.6	3.8	1.49e+00	0	58	104	1050673152	60	20547
2026-01-08 11:49:00.63	325.46	7.16	-45.0	-59.6	3.8	1.49e+00	0	58	104	1050673152	60	20550
2026-01-08 11:49:01.63	325.56	7.10	-45.0	-59.5	3.8	1.49e+00	0	58	104	1050673152	60	20487
2026-01-08 11:49:02.64	325.67	7.04	-45.0	-59.5	3.8	1.49e+00	0	58	104	1050673152	60	20462
2026-01-08 11:49:03.65	325.78	6.98	-45.0	-59.5	3.8	1.49e+00	0	58	104	1050673152	60	20500
2026-01-08 11:49:04.66	325.88	6.93	-45.0	-59.5	3.8	1.49e+00	0	58	104	1050673152	60	20454
2026-01-08 11:49:05.67	325.99	6.87	-45.0	-59.5	3.8	1.49e+00	0	58	104	1050673152	60	20446
2026-01-08 11:49:06.68	326.09	6.81	-44.9	-59.5	3.8	1.49e+00	0	58	104	1050673152	60	20505
2026-01-08 11:49:07.69	326.20	6.75	-45.0	-59.5	3.8	1.49e+00	0	58	104	1050673152	60	20422
2026-01-08 11:49:08.70	326.30	6.69	-44.9	-59.5	3.8	1.49e+00	0	58	104	1050673152	60	20442
2026-01-08 11:49:09.71	326.40	6.63	-44.9	-59.5	3.8	1.49e+00	0	58	104	1050673152	60	20423
2026-01-08 11:49:10.72	326.51	6.57	-44.9	-59.5	3.8	1.49e+00	0	59	104	1050673152	60	20413
2026-01-08 11:49:11.73	326.61	6.51	-44.9	-59.5	3.8	1.49e+00	0	58	104	1050673152	60	20388
2026-01-08 11:49:12.75	326.71	6.46	-44.9	-59.5	3.8	1.49e+00	0	58	104	1050673152	60	20366
2026-01-08 11:49:13.76	326.82	6.40	-45.0	-59.5	3.8	1.49e+00	0	58	104	1050673152	60	20377
2026-01-08 11:49:14.77	326.92	6.34	-44.9	-59.5	3.8	1.49e+00	0	59	104	1050673152	60	20364
2026-01-08 11:49:15.78	327.02	6.28	-44.9	-59.5	3.8	1.49e+00	0	58	104	1050673152	60	20426
2026-01-08 11:49:16.79	327.12	6.22	-44.9	-59.5	3.8	1.49e+00	0	58	104	1050673152	60	20367
2026-01-08 11:49:17.80	327.22	6.16	-44.9	-59.5	3.8	1.49e+00	0	58	104	1050673152	60	20379
2026-01-08 11:49:18.81	327.32	6.11	-44.9	-59.5	3.8	1.49e+00	0	58	104	1050673152	60	20430
2026-01-08 11:49:19.82	327.42	6.05	-44.9	-59.5	3.8	1.49e+00	0	58	104	1050673152	60	20411
2026-01-08 11:49:20.83	327.52	5.99	-44.9	-59.5	3.8	1.49e+00	0	58	104	1050673152	60	20485
2026-01-08 11:49:21.84	327.62	5.93	-44.9	-59.5	3.8	1.49e+00	0	58	104	1050673152	60	20447
2026-01-08 11:49:22.85	327.72	5.87	-44.9	-59.5	3.8	1.49e+00	0	58	104	1050673152	60	20421
2026-01-08 11:49:23.86	327.81	5.82	-44.9	-59.5	3.8	1.49e+00	0	58	104	1050673152	60	20364
2026-01-08 11:49:24.87	327.91	5.76	-44.9	-59.5	3.8	1.49e+00	0	58	104	1050673152	60	20395
2026-01-08 11:49:25.88	328.01	5.70	-44.9	-59.5	3.8	1.49e+00	0	58	104	1050673152	60	20390
2026-01-08 11:49:26.89	328.11	5.64	-45.0	-59.5	3.8	1.49e+00	0	58	104	1050673152	60	20458
2026-01-08 11:49:27.90	328.20	5.59	-44.9	-59.5	3.8	1.49e+00	0	58	104	1050673152	60	20396
2026-01-08 11:49:28.91	328.30	5.53	-44.9	-59.5	3.8	1.49e+00	0	59	104	1050673152	60	20426
2026-01-08 11:49:29.93	328.40	5.47	-44.9	-59.5	3.8	1.49e+00	0	58	104	1050673152	60	20361
2026-01-08 11:49:30.94	328.49	5.41	-44.9	-59.5	3.8	1.49e+00	0	58	104	1050673152	60	20327
2026-01-08 11:49:31.95	328.59	5.35	-44.9	-59.5	3.8	1.49e+00	0	58	104	1050673152	60	20360
2026-01-08 11:49:32.96	328.68	5.30	-44.9	-59.5	3.8	1.49e+00	0	58	104	1050673152	60	20365
2026-01-08 11:49:33.97	328.78	5.24	-44.9	-59.5	3.8	1.49e+00	0	58	104	1050673152	60	20335
2026-01-08 11:49:34.98	328.87	5.18	-44.9	-59.5	3.8	1.49e+00	0	58	104	1050673152	60	20329
