passes_logs/2026/01/08/R2.0S_Moscow/R2.0S_Moscow__20260108_234644_SUOMI_NPP_rec.log

#Pass ID: 20260108_234644_SUOMI NPP
#Satellite: SUOMI NPP
#Configuration: NPP
#almurnet v.1.7.20251203
#Start time: 2026-01-08 23:46:46

#Version: 2.2.20231116
#Station: R2.0S_Moscow
#Location: 37.707566 lon 55.798166 lat
#TLE: 1 37849U 11061A   26008.05542337  .00000108  00000+0  71976-4 0  9997
#TLE: 2 37849  98.7805 310.1641 0002540  75.6410 284.5048 14.19523335735721

#Time	Az	El	Level	Level2	SNR	BER	BlckErr	Temp	State	Recorded	gain1	gain2
2026-01-08 23:46:46.20	16.05	2.10	-42.2	-57.0	3.8	1.49e+00	0	48	0	0	56	19209
2026-01-08 23:46:47.21	16.05	2.16	-42.0	-56.8	3.8	1.49e+00	0	48	104	0	55	19912
2026-01-08 23:46:48.22	16.06	2.23	-42.0	-56.8	3.8	1.49e+00	0	48	104	0	55	19925
2026-01-08 23:46:49.23	16.06	2.29	-42.0	-56.8	3.8	1.49e+00	0	48	104	0	55	19883
2026-01-08 23:46:50.24	16.06	2.36	-42.0	-56.8	3.8	1.49e+00	0	48	104	0	55	19939
2026-01-08 23:46:51.25	16.06	2.42	-42.0	-56.8	3.8	1.49e+00	0	48	104	0	55	19959
2026-01-08 23:46:52.26	16.07	2.49	-42.0	-56.8	3.8	1.49e+00	0	48	104	0	55	19899
2026-01-08 23:46:53.27	16.07	2.55	-42.0	-56.8	3.8	1.49e+00	0	48	104	0	55	19914
2026-01-08 23:46:54.28	16.07	2.62	-42.0	-56.8	3.8	1.49e+00	0	48	104	0	55	19880
2026-01-08 23:46:55.30	16.07	2.68	-42.0	-56.8	3.8	1.49e+00	0	48	104	0	55	19949
2026-01-08 23:46:56.30	16.08	2.75	-42.0	-56.8	3.8	1.49e+00	0	48	104	0	55	19916
2026-01-08 23:46:57.31	16.08	2.82	-42.0	-56.8	3.8	1.49e+00	0	48	104	0	55	19918
2026-01-08 23:46:58.32	16.08	2.88	-42.0	-56.8	3.8	1.49e+00	0	49	104	0	55	19906
2026-01-08 23:46:59.34	16.08	2.95	-42.0	-56.8	3.8	1.49e+00	0	49	104	0	55	19920
2026-01-08 23:47:00.35	16.08	3.02	-42.0	-56.8	3.8	1.49e+00	0	49	104	0	55	19908
2026-01-08 23:47:01.36	16.09	3.08	-42.0	-56.8	3.8	1.49e+00	0	49	104	0	55	19963
2026-01-08 23:47:02.37	16.09	3.15	-42.0	-56.8	3.8	1.49e+00	0	49	104	0	55	19912
2026-01-08 23:47:03.38	16.09	3.22	-42.0	-56.8	3.8	1.49e+00	0	49	104	0	55	19913
2026-01-08 23:47:04.39	16.09	3.28	-42.0	-56.8	3.8	1.49e+00	0	49	104	0	55	19893
2026-01-08 23:47:05.40	16.10	3.35	-42.0	-56.8	3.8	1.49e+00	0	49	104	0	55	19948
2026-01-08 23:47:06.41	16.10	3.42	-42.0	-56.8	3.8	1.49e+00	0	49	104	0	55	19964
2026-01-08 23:47:07.42	16.10	3.49	-42.0	-56.8	3.8	1.49e+00	0	49	104	0	55	19925
2026-01-08 23:47:08.43	16.10	3.56	-42.0	-56.8	3.8	1.49e+00	0	49	104	0	55	19900
2026-01-08 23:47:09.44	16.10	3.62	-42.0	-56.8	3.8	1.49e+00	0	49	104	0	55	19875
2026-01-08 23:47:10.46	16.11	3.69	-42.0	-56.8	3.8	1.49e+00	0	49	104	0	55	19926
2026-01-08 23:47:11.47	16.11	3.76	-42.0	-56.8	3.8	1.49e+00	0	49	104	0	55	19885
2026-01-08 23:47:12.48	16.11	3.83	-42.0	-56.8	3.8	1.49e+00	0	49	104	0	55	19934
2026-01-08 23:47:13.49	16.11	3.90	-42.0	-56.8	3.8	1.49e+00	0	50	104	0	55	19897
2026-01-08 23:47:14.50	16.12	3.97	-42.0	-56.8	3.8	1.49e+00	0	50	104	0	55	19908
2026-01-08 23:47:15.51	16.12	4.04	-42.0	-56.8	3.8	1.49e+00	0	50	104	0	55	19876
2026-01-08 23:47:16.52	16.12	4.11	-42.0	-56.8	3.8	1.49e+00	0	50	104	0	55	19894
2026-01-08 23:47:17.53	16.12	4.18	-42.0	-56.8	3.8	1.49e+00	0	50	104	0	55	19848
2026-01-08 23:47:18.54	16.12	4.25	-42.0	-56.8	3.8	1.49e+00	0	50	104	0	55	19916
2026-01-08 23:47:19.55	16.13	4.32	-42.0	-56.8	3.8	1.49e+00	0	50	104	0	55	19861
2026-01-08 23:47:20.56	16.13	4.39	-42.0	-56.8	3.8	1.49e+00	0	50	104	0	55	19891
2026-01-08 23:47:21.57	16.13	4.46	-42.0	-56.8	3.8	1.49e+00	0	50	104	0	55	19885
2026-01-08 23:47:22.59	16.13	4.53	-42.0	-56.8	3.8	1.49e+00	0	50	104	0	55	19861
2026-01-08 23:47:23.60	16.13	4.60	-42.0	-56.8	3.8	1.49e+00	0	50	104	0	55	19876
2026-01-08 23:47:24.61	16.14	4.67	-42.0	-56.8	3.8	1.49e+00	0	50	104	0	55	19867
2026-01-08 23:47:25.62	16.14	4.74	-42.0	-56.8	3.8	1.49e+00	0	50	104	0	55	19885
2026-01-08 23:47:26.63	16.14	4.81	-42.0	-56.8	3.8	1.49e+00	0	50	104	0	55	19909
2026-01-08 23:47:27.64	16.14	4.88	-42.0	-56.8	3.8	1.49e+00	0	51	104	0	55	19869
2026-01-08 23:47:28.65	16.14	4.95	-42.0	-56.8	3.8	1.49e+00	0	50	104	0	55	19871
2026-01-08 23:47:29.66	16.15	5.03	-42.0	-56.7	3.8	1.49e+00	0	51	104	0	55	19829
2026-01-08 23:47:30.67	16.15	5.10	-42.0	-56.8	3.8	1.49e+00	0	51	104	0	55	19864
2026-01-08 23:47:31.68	16.15	5.17	-42.0	-56.8	3.8	1.49e+00	0	50	104	0	55	19917
2026-01-08 23:47:32.70	16.15	5.24	-42.0	-56.8	3.8	1.49e+00	0	51	104	0	55	19854
2026-01-08 23:47:33.71	16.15	5.32	-42.0	-56.8	3.8	1.49e+00	0	51	104	0	55	19852
2026-01-08 23:47:34.72	16.16	5.39	-42.0	-56.8	3.8	1.49e+00	0	51	104	0	55	19863
2026-01-08 23:47:35.73	16.16	5.46	-42.0	-56.8	3.8	1.49e+00	0	51	104	0	55	19845
2026-01-08 23:47:36.74	16.16	5.54	-42.0	-56.8	3.8	1.49e+00	0	51	104	0	55	19865
2026-01-08 23:47:37.75	16.16	5.61	-42.0	-56.8	3.8	1.49e+00	0	51	104	0	55	19924
2026-01-08 23:47:38.76	16.16	5.68	-42.0	-56.8	3.8	1.49e+00	0	51	104	0	55	19937
2026-01-08 23:47:39.77	16.17	5.76	-42.0	-56.8	3.8	1.49e+00	0	51	104	0	55	19876
2026-01-08 23:47:40.78	16.17	5.83	-42.0	-56.7	3.8	1.49e+00	0	51	104	0	55	19815
2026-01-08 23:47:41.79	16.17	5.90	-42.0	-56.8	3.8	1.49e+00	0	51	104	0	55	19901
2026-01-08 23:47:42.80	16.17	5.98	-42.0	-56.8	3.8	1.49e+00	0	51	104	0	55	19870
2026-01-08 23:47:43.81	16.17	6.05	-42.0	-56.8	3.8	1.49e+00	0	51	104	0	55	19870
2026-01-08 23:47:44.82	16.17	6.13	-42.0	-56.7	3.8	1.49e+00	0	51	104	0	55	19798
2026-01-08 23:47:45.83	16.18	6.20	-42.0	-56.7	3.8	1.49e+00	0	51	104	0	55	19734
2026-01-08 23:47:46.84	16.18	6.28	-42.0	-56.6	3.8	1.49e+00	0	51	104	0	55	19540
2026-01-08 23:47:47.85	16.18	6.35	-42.0	-56.6	3.8	1.49e+00	0	52	104	0	55	19455
2026-01-08 23:47:48.86	16.18	6.43	-42.0	-56.6	3.8	1.49e+00	0	51	104	0	55	19483
2026-01-08 23:47:49.87	16.18	6.51	-42.0	-56.5	3.8	1.49e+00	0	51	104	0	55	19275
2026-01-08 23:47:50.88	16.19	6.58	-42.0	-56.3	3.8	1.49e+00	0	52	104	0	55	18916
2026-01-08 23:47:51.89	16.19	6.66	-42.0	-56.1	3.8	1.49e+00	0	52	104	0	55	18341
2026-01-08 23:47:52.90	16.19	6.74	-41.9	-55.8	3.8	1.49e+00	0	52	104	0	55	17781
2026-01-08 23:47:53.91	16.19	6.81	-41.9	-55.5	3.8	1.49e+00	0	52	104	0	55	17270
2026-01-08 23:47:54.92	16.19	6.89	-41.9	-55.2	3.8	1.49e+00	0	52	104	0	55	16526
2026-01-08 23:47:55.94	16.19	6.97	-41.9	-54.6	3.9	1.49e+00	0	52	104	0	55	15495
2026-01-08 23:47:56.95	16.19	7.05	-41.8	-53.8	4.1	1.48e+00	0	52	0	0	55	14207
2026-01-08 23:47:57.95	16.20	7.12	-41.8	-53.1	4.2	1.43e+00	0	52	0	0	55	13045
2026-01-08 23:47:58.97	16.20	7.20	-41.6	-51.8	4.7	1.08e+00	0	52	0	1048576	55	11208
2026-01-08 23:47:59.98	16.20	7.28	-41.5	-50.8	5.2	7.28e-01	0	52	0	3145728	55	10023
2026-01-08 23:48:00.99	16.20	7.36	-41.3	-49.5	6.1	4.71e-01	0	52	0	4194304	54	9153
2026-01-08 23:48:02.00	16.20	7.44	-41.0	-48.4	7.0	2.09e-01	0	52	0	6291456	54	8073
2026-01-08 23:48:03.01	16.20	7.52	-40.8	-47.4	8.0	1.09e-01	0	52	0	8388608	53	7569
2026-01-08 23:48:04.02	16.21	7.60	-40.6	-46.9	8.5	5.41e-02	0	52	0	10485760	53	7142
2026-01-08 23:48:05.03	16.21	7.67	-40.5	-46.4	9.0	2.45e-02	0	52	0	12582912	52	7170
2026-01-08 23:48:06.04	16.21	7.75	-40.3	-46.0	9.4	1.79e-02	0	52	0	13631488	52	6836
2026-01-08 23:48:07.05	16.21	7.83	-40.4	-46.2	9.2	1.78e-02	0	52	0	15728640	52	7012
2026-01-08 23:48:08.06	16.21	7.91	-40.6	-46.8	8.6	3.23e-02	0	52	0	17825792	52	7485
2026-01-08 23:48:09.07	16.21	8.00	-40.9	-47.9	7.6	6.51e-02	0	52	0	19922944	52	8482
2026-01-08 23:48:10.08	16.21	8.08	-41.3	-49.5	6.2	1.72e-01	0	52	0	22020096	53	9613
2026-01-08 23:48:11.09	16.22	8.16	-41.2	-46.7	9.5	1.42e-01	0	52	0	23068672	53	6987
2026-01-08 23:48:12.10	16.22	8.24	-41.3	-50.5	5.3	3.15e-01	0	53	0	25165824	53	10887
2026-01-08 23:48:13.11	16.22	8.32	-42.2	-50.3	6.0	1.77e-01	0	52	0	27262976	54	10023
2026-01-08 23:48:14.12	16.22	8.40	-41.8	-47.9	8.4	8.41e-02	0	52	0	29360128	54	7576
2026-01-08 23:48:15.13	16.22	8.48	-41.5	-55.7	3.8	1.35e+00	0	53	104	30408704	54	18701
2026-01-08 23:48:16.14	16.22	8.57	-41.6	-47.3	8.9	5.18e-01	0	53	0	30408704	54	7116
2026-01-08 23:48:17.14	16.22	8.65	-41.4	-46.9	9.5	1.72e-02	0	53	0	32505856	54	6771
2026-01-08 23:48:18.16	16.23	8.73	-41.5	-47.2	9.2	1.71e-02	0	53	0	34603008	54	6985
2026-01-08 23:48:19.16	16.23	8.81	-41.5	-46.9	9.4	1.73e-02	0	53	0	36700160	54	6793
2026-01-08 23:48:20.17	16.23	8.90	-41.4	-46.7	9.7	1.40e-02	0	53	0	37748736	54	6577
2026-01-08 23:48:21.18	16.23	8.98	-41.4	-46.7	9.7	1.11e-02	0	53	0	39845888	54	6623
2026-01-08 23:48:22.19	16.23	9.07	-41.4	-46.6	9.9	8.23e-03	0	53	0	41943040	54	6501
2026-01-08 23:48:23.20	16.23	9.15	-41.3	-46.4	10.1	7.91e-03	0	53	0	44040192	54	6411
2026-01-08 23:48:24.21	16.23	9.24	-41.4	-46.5	10.0	7.25e-03	0	53	0	46137344	54	6432
2026-01-08 23:48:25.22	16.23	9.32	-41.3	-46.2	10.5	5.12e-03	0	53	0	47185920	54	6203
2026-01-08 23:48:26.23	16.24	9.41	-41.3	-46.1	10.5	3.18e-03	0	53	0	49283072	54	6195
2026-01-08 23:48:27.24	16.24	9.49	-41.2	-45.8	10.8	3.21e-03	0	53	0	51380224	54	5990
2026-01-08 23:48:28.25	16.24	9.58	-41.1	-45.6	11.1	1.87e-03	0	53	0	53477376	54	5824
2026-01-08 23:48:29.26	16.24	9.66	-41.2	-45.9	10.8	2.27e-03	0	53	0	55574528	54	6018
2026-01-08 23:48:30.27	16.24	9.75	-41.2	-45.8	11.0	1.82e-03	0	53	0	56623104	54	5957
2026-01-08 23:48:31.28	16.24	9.84	-41.1	-45.7	11.1	1.76e-03	0	53	0	58720256	54	5867
2026-01-08 23:48:32.29	16.24	9.92	-41.1	-45.6	11.2	1.15e-03	0	53	0	60817408	54	5804
2026-01-08 23:48:33.30	16.24	10.01	-41.1	-45.5	11.3	1.50e-03	0	53	0	62914560	54	5728
2026-01-08 23:48:34.30	16.24	10.10	-41.1	-45.6	11.2	1.19e-03	0	53	0	65011712	54	5837
2026-01-08 23:48:35.32	16.24	10.19	-41.0	-45.4	11.5	7.90e-04	0	53	0	66060288	54	5669
2026-01-08 23:48:36.33	16.25	10.27	-41.1	-45.5	11.3	1.22e-03	0	53	0	68157440	54	5758
2026-01-08 23:48:37.34	16.25	10.36	-41.1	-45.4	11.4	1.10e-03	0	53	0	70254592	54	5711
2026-01-08 23:48:38.34	16.25	10.45	-41.1	-45.5	11.3	1.01e-03	0	53	0	72351744	54	5759
2026-01-08 23:48:39.35	16.25	10.54	-41.1	-45.5	11.4	1.09e-03	0	53	0	74448896	54	5737
2026-01-08 23:48:40.36	16.25	10.63	-41.1	-45.3	11.5	6.44e-04	0	53	0	75497472	54	5647
2026-01-08 23:48:41.37	16.25	10.72	-41.0	-45.2	11.6	5.85e-04	0	53	0	77594624	54	5587
2026-01-08 23:48:42.38	16.25	10.81	-40.9	-45.1	11.8	5.07e-04	0	54	0	79691776	53	5801
2026-01-08 23:48:43.39	16.25	10.90	-40.9	-45.1	11.8	4.78e-04	0	53	0	81788928	53	5800
2026-01-08 23:48:44.40	16.25	10.99	-40.9	-45.0	11.9	5.00e-04	0	53	0	83886080	53	5756
2026-01-08 23:48:45.41	16.25	11.08	-40.9	-44.9	12.0	3.48e-04	0	53	0	85983232	53	5695
2026-01-08 23:48:46.42	16.25	11.17	-40.9	-45.0	11.9	2.53e-04	0	54	0	87031808	53	5787
2026-01-08 23:48:47.43	16.25	11.27	-40.9	-44.9	12.1	2.77e-04	0	54	0	89128960	53	5680
2026-01-08 23:48:48.44	16.26	11.36	-40.9	-44.9	12.0	2.61e-04	0	54	0	91226112	53	5716
2026-01-08 23:48:49.45	16.26	11.45	-40.9	-44.9	12.1	2.56e-04	0	54	0	93323264	53	5662
2026-01-08 23:48:50.46	16.26	11.54	-40.9	-45.0	12.0	2.94e-04	0	54	0	95420416	53	5752
2026-01-08 23:48:51.47	16.26	11.64	-40.9	-44.9	12.1	1.74e-04	0	54	0	96468992	53	5701
2026-01-08 23:48:52.48	16.26	11.73	-40.9	-44.8	12.2	1.98e-04	0	54	0	98566144	53	5641
2026-01-08 23:48:53.49	16.26	11.82	-40.7	-44.6	12.5	1.68e-04	0	54	0	100663296	53	5475
2026-01-08 23:48:54.50	16.26	11.92	-40.8	-44.6	12.5	8.08e-05	0	54	0	102760448	53	5489
2026-01-08 23:48:55.51	16.26	12.01	-40.7	-44.4	12.7	1.06e-04	0	54	0	104857600	53	5382
2026-01-08 23:48:56.52	16.26	12.11	-40.6	-44.3	12.7	7.09e-05	0	54	0	105906176	53	5338
2026-01-08 23:48:57.53	16.26	12.20	-40.7	-44.5	12.6	1.04e-04	0	54	0	108003328	53	5423
2026-01-08 23:48:58.54	16.26	12.30	-40.6	-44.4	12.7	6.86e-05	0	54	0	110100480	53	5361
2026-01-08 23:48:59.54	16.26	12.40	-40.6	-44.3	12.8	5.87e-05	0	54	0	112197632	53	5287
2026-01-08 23:49:00.55	16.26	12.49	-40.5	-44.2	12.9	4.88e-05	0	54	0	114294784	53	5225
2026-01-08 23:49:01.56	16.26	12.59	-40.6	-44.2	12.9	5.56e-05	0	54	0	115343360	53	5258
2026-01-08 23:49:02.57	16.26	12.69	-40.6	-44.3	12.8	4.11e-05	0	54	0	117440512	53	5303
2026-01-08 23:49:03.58	16.26	12.78	-40.6	-44.2	12.9	5.87e-05	0	54	0	119537664	53	5238
2026-01-08 23:49:04.59	16.26	12.88	-40.5	-44.0	13.1	3.05e-05	0	54	0	121634816	52	5427
2026-01-08 23:49:05.60	16.26	12.98	-40.5	-44.1	13.0	4.19e-05	0	54	0	123731968	52	5515
2026-01-08 23:49:06.61	16.26	13.08	-40.4	-43.9	13.2	3.12e-05	0	54	0	124780544	52	5371
2026-01-08 23:49:07.62	16.26	13.18	-40.4	-43.9	13.3	2.28e-05	0	54	0	126877696	52	5348
2026-01-08 23:49:08.63	16.26	13.28	-40.4	-43.9	13.2	2.59e-05	0	54	0	128974848	52	5378
2026-01-08 23:49:09.64	16.26	13.38	-40.4	-43.9	13.2	1.90e-05	0	54	0	131072000	52	5372
2026-01-08 23:49:10.65	16.26	13.48	-40.4	-43.9	13.2	2.28e-05	0	54	0	133169152	52	5375
2026-01-08 23:49:11.66	16.26	13.58	-40.4	-43.9	13.2	2.59e-05	0	54	0	134217728	52	5358
2026-01-08 23:49:12.66	16.26	13.68	-40.3	-43.6	13.6	9.10e-06	0	54	0	136314880	52	5216
2026-01-08 23:49:13.67	16.26	13.78	-40.3	-43.6	13.6	9.10e-06	0	54	0	138412032	52	5205
2026-01-08 23:49:14.68	16.27	13.89	-40.2	-43.4	13.8	5.30e-06	0	54	0	140509184	52	5078
2026-01-08 23:49:15.69	16.27	13.99	-40.3	-43.6	13.5	1.06e-05	0	54	0	142606336	52	5211
2026-01-08 23:49:16.70	16.27	14.09	-40.3	-43.6	13.7	6.80e-06	0	54	0	143654912	52	5166
2026-01-08 23:49:17.71	16.26	14.20	-40.3	-43.5	13.7	5.30e-06	0	54	0	145752064	52	5148
2026-01-08 23:49:18.72	16.26	14.30	-40.2	-43.4	13.9	1.50e-06	0	54	0	147849216	52	5076
2026-01-08 23:49:19.73	16.26	14.40	-40.1	-43.3	14.0	3.80e-06	0	54	0	149946368	52	5002
2026-01-08 23:49:20.74	16.26	14.51	-40.0	-43.1	14.2	5.30e-06	0	54	0	152043520	52	4918
2026-01-08 23:49:21.75	16.26	14.61	-40.1	-43.2	14.1	3.00e-06	0	54	0	154140672	52	4968
2026-01-08 23:49:22.76	16.26	14.72	-40.1	-43.2	14.3	1.50e-06	0	54	0	155189248	51	5232
2026-01-08 23:49:23.77	16.26	14.83	-40.2	-43.3	14.2	2.20e-06	0	54	0	157286400	51	5291
2026-01-08 23:49:24.78	16.26	14.93	-40.1	-43.2	14.2	3.00e-06	0	55	0	159383552	51	5232
2026-01-08 23:49:25.79	16.26	15.04	-40.0	-43.0	14.4	7.00e-07	0	55	0	161480704	51	5130
2026-01-08 23:49:26.80	16.26	15.15	-40.0	-43.0	14.4	7.00e-07	0	54	0	163577856	51	5109
2026-01-08 23:49:27.80	16.26	15.26	-40.0	-43.0	14.4	7.00e-07	0	55	0	164626432	51	5134
2026-01-08 23:49:28.81	16.26	15.36	-40.1	-43.2	14.3	0.00e+00	0	55	0	166723584	51	5231
2026-01-08 23:49:29.82	16.26	15.47	-40.0	-43.1	14.4	0.00e+00	0	55	0	168820736	51	5170
2026-01-08 23:49:30.83	16.26	15.58	-39.9	-42.9	14.5	0.00e+00	0	55	0	170917888	51	5075
2026-01-08 23:49:31.84	16.26	15.69	-40.0	-43.0	14.4	0.00e+00	0	55	0	171966464	51	5148
2026-01-08 23:49:32.85	16.26	15.80	-39.9	-42.9	14.6	0.00e+00	0	55	0	174063616	51	5054
2026-01-08 23:49:33.86	16.26	15.92	-39.9	-42.9	14.5	0.00e+00	0	55	0	176160768	51	5087
2026-01-08 23:49:34.87	16.26	16.03	-40.1	-43.2	14.3	1.50e-06	0	55	0	178257920	51	5224
2026-01-08 23:49:35.88	16.26	16.14	-40.0	-43.0	14.4	1.50e-06	0	55	0	180355072	51	5115
2026-01-08 23:49:36.88	16.26	16.25	-40.0	-43.1	14.3	7.00e-07	0	55	0	182452224	51	5183
2026-01-08 23:49:37.89	16.26	16.36	-40.0	-43.1	14.4	7.00e-07	0	55	0	183500800	51	5180
2026-01-08 23:49:38.90	16.26	16.48	-40.0	-43.0	14.5	7.00e-07	0	55	0	185597952	51	5120
2026-01-08 23:49:39.91	16.26	16.59	-39.9	-43.0	14.4	0.00e+00	0	55	0	187695104	51	5123
2026-01-08 23:49:40.92	16.26	16.71	-40.0	-43.1	14.4	0.00e+00	0	55	0	189792256	51	5187
2026-01-08 23:49:41.93	16.25	16.82	-40.0	-43.1	14.5	7.00e-07	0	55	0	191889408	51	5162
2026-01-08 23:49:42.94	16.25	16.94	-40.0	-43.0	14.4	0.00e+00	0	55	0	192937984	51	5152
2026-01-08 23:49:43.95	16.25	17.06	-39.9	-42.9	14.6	0.00e+00	0	55	0	195035136	51	5052
2026-01-08 23:49:44.96	16.25	17.17	-40.0	-43.0	14.5	1.50e-06	0	55	0	197132288	51	5159
2026-01-08 23:49:45.97	16.25	17.29	-39.9	-42.9	14.6	7.00e-07	0	55	0	199229440	51	5074
2026-01-08 23:49:46.98	16.25	17.41	-39.9	-42.9	14.6	0.00e+00	0	55	0	201326592	51	5077
2026-01-08 23:49:47.99	16.25	17.53	-39.9	-42.8	14.7	0.00e+00	0	55	0	202375168	51	5033
2026-01-08 23:49:49.00	16.25	17.65	-39.8	-42.7	14.9	0.00e+00	0	55	0	204472320	51	4953
2026-01-08 23:49:50.00	16.25	17.77	-39.8	-42.7	14.9	7.00e-07	0	55	0	206569472	51	4959
2026-01-08 23:49:51.01	16.25	17.89	-39.8	-42.7	14.9	0.00e+00	0	55	0	208666624	51	4955
2026-01-08 23:49:52.02	16.24	18.01	-39.6	-42.4	15.1	0.00e+00	0	55	0	210763776	51	4810
2026-01-08 23:49:53.03	16.24	18.13	-39.9	-42.8	14.8	0.00e+00	0	55	0	211812352	51	5008
2026-01-08 23:49:54.04	16.24	18.25	-39.9	-42.8	14.8	0.00e+00	0	55	0	213909504	51	5033
2026-01-08 23:49:55.05	16.24	18.38	-39.9	-42.8	14.8	0.00e+00	0	55	0	216006656	51	5006
2026-01-08 23:49:56.06	16.24	18.50	-39.9	-42.8	14.8	0.00e+00	0	55	0	218103808	51	5006
2026-01-08 23:49:57.07	16.24	18.62	-39.9	-42.8	14.9	7.00e-07	0	55	0	220200960	51	4992
2026-01-08 23:49:58.08	16.24	18.75	-39.9	-42.8	14.8	0.00e+00	0	55	0	221249536	51	5002
2026-01-08 23:49:59.09	16.23	18.87	-40.0	-42.9	14.7	0.00e+00	0	55	0	223346688	51	5082
2026-01-08 23:50:00.10	16.23	19.00	-40.0	-42.9	14.7	0.00e+00	0	55	0	225443840	51	5093
2026-01-08 23:50:01.11	16.23	19.13	-40.0	-43.0	14.6	7.00e-07	0	55	0	227540992	51	5131
2026-01-08 23:50:02.12	16.23	19.25	-40.0	-43.0	14.6	0.00e+00	0	55	0	229638144	51	5134
2026-01-08 23:50:03.13	16.23	19.38	-40.2	-43.2	14.4	7.00e-07	0	55	0	230686720	51	5267
2026-01-08 23:50:04.14	16.23	19.51	-40.1	-43.1	14.6	0.00e+00	0	55	0	232783872	51	5175
2026-01-08 23:50:05.14	16.22	19.64	-40.0	-43.0	14.7	7.00e-07	0	55	0	234881024	51	5111
2026-01-08 23:50:06.15	16.22	19.77	-40.2	-43.2	14.5	0.00e+00	0	55	0	236978176	51	5236
2026-01-08 23:50:07.16	16.22	19.90	-40.1	-43.0	14.6	1.50e-06	0	55	0	239075328	51	5156
2026-01-08 23:50:08.17	16.22	20.03	-40.0	-42.9	14.7	0.00e+00	0	55	0	240123904	51	5097
2026-01-08 23:50:09.18	16.22	20.16	-40.0	-42.9	14.7	0.00e+00	0	55	0	242221056	51	5077
2026-01-08 23:50:10.19	16.21	20.30	-39.9	-42.8	14.8	0.00e+00	0	55	0	244318208	51	5014
2026-01-08 23:50:11.21	16.21	20.43	-39.9	-42.8	14.8	0.00e+00	0	55	0	246415360	51	5028
2026-01-08 23:50:12.21	16.21	20.57	-39.9	-42.8	14.9	0.00e+00	0	55	0	248512512	51	5017
2026-01-08 23:50:13.23	16.21	20.70	-39.9	-42.8	14.8	0.00e+00	0	55	0	250609664	51	5023
2026-01-08 23:50:14.24	16.21	20.84	-40.1	-43.0	14.7	7.00e-07	0	55	0	251658240	51	5117
2026-01-08 23:50:15.25	16.20	20.97	-40.0	-42.9	14.8	0.00e+00	0	55	0	253755392	51	5052
2026-01-08 23:50:16.26	16.20	21.11	-40.0	-43.0	14.7	0.00e+00	0	55	0	255852544	51	5102
2026-01-08 23:50:17.27	16.20	21.25	-40.0	-42.8	14.9	0.00e+00	0	55	0	257949696	51	5021
2026-01-08 23:50:18.27	16.20	21.39	-40.1	-43.0	14.6	0.00e+00	0	55	0	260046848	51	5146
2026-01-08 23:50:19.29	16.19	21.53	-40.2	-43.2	14.5	0.00e+00	0	55	0	261095424	51	5232
2026-01-08 23:50:20.29	16.19	21.67	-40.2	-43.2	14.5	0.00e+00	0	55	0	263192576	51	5273
2026-01-08 23:50:21.30	16.19	21.81	-40.2	-43.2	14.6	0.00e+00	0	55	0	265289728	51	5224
2026-01-08 23:50:22.31	16.18	21.95	-40.2	-43.2	14.5	1.50e-06	0	55	0	267386880	51	5228
2026-01-08 23:50:23.32	16.18	22.09	-40.3	-43.3	14.5	0.00e+00	0	55	0	269484032	51	5283
2026-01-08 23:50:24.33	16.18	22.24	-40.1	-43.1	14.7	1.50e-06	0	55	0	270532608	51	5183
2026-01-08 23:50:25.34	16.18	22.38	-40.2	-43.1	14.6	7.00e-07	0	55	0	272629760	51	5183
2026-01-08 23:50:26.35	16.17	22.53	-40.2	-43.2	14.5	0.00e+00	0	56	0	274726912	51	5270
2026-01-08 23:50:27.36	16.17	22.67	-40.3	-43.3	14.5	7.00e-07	0	55	0	276824064	51	5301
2026-01-08 23:50:28.37	16.17	22.82	-40.2	-43.1	14.6	7.00e-07	0	55	0	278921216	51	5209
2026-01-08 23:50:29.38	16.16	22.97	-40.1	-43.0	14.8	0.00e+00	0	55	0	279969792	51	5135
2026-01-08 23:50:30.39	16.16	23.12	-40.2	-43.0	14.7	7.00e-07	0	55	0	282066944	51	5158
2026-01-08 23:50:31.40	16.16	23.27	-40.2	-43.2	14.6	0.00e+00	0	55	0	284164096	51	5250
2026-01-08 23:50:32.41	16.15	23.42	-40.1	-43.0	14.8	7.00e-07	0	55	0	286261248	51	5127
2026-01-08 23:50:33.42	16.15	23.57	-40.2	-43.1	14.7	0.00e+00	0	56	0	288358400	51	5191
2026-01-08 23:50:34.43	16.15	23.72	-40.1	-43.0	14.8	7.00e-07	0	55	0	289406976	51	5134
2026-01-08 23:50:35.44	16.14	23.87	-40.2	-43.2	14.6	0.00e+00	0	55	0	291504128	51	5240
2026-01-08 23:50:36.45	16.14	24.03	-40.3	-43.2	14.5	0.00e+00	0	55	0	293601280	51	5273
2026-01-08 23:50:37.45	16.14	24.18	-40.2	-43.2	14.7	7.00e-07	0	55	0	295698432	51	5219
2026-01-08 23:50:38.46	16.13	24.34	-40.2	-43.2	14.6	1.50e-06	0	55	0	297795584	51	5219
2026-01-08 23:50:39.47	16.13	24.49	-40.3	-43.4	14.4	0.00e+00	0	55	0	298844160	51	5349
2026-01-08 23:50:40.48	16.12	24.65	-40.2	-43.1	14.7	0.00e+00	0	55	0	300941312	51	5189
2026-01-08 23:50:41.49	16.12	24.81	-40.1	-43.0	14.7	0.00e+00	0	56	0	303038464	51	5158
2026-01-08 23:50:42.50	16.12	24.97	-40.1	-42.9	14.8	0.00e+00	0	55	0	305135616	51	5084
2026-01-08 23:50:43.51	16.11	25.13	-40.0	-42.9	14.9	0.00e+00	0	56	0	307232768	51	5052
2026-01-08 23:50:44.52	16.11	25.29	-40.0	-42.8	15.0	7.00e-07	0	55	0	308281344	51	5014
2026-01-08 23:50:45.53	16.10	25.45	-39.9	-42.7	15.1	0.00e+00	0	55	0	310378496	51	4951
2026-01-08 23:50:46.54	16.10	25.62	-39.9	-42.7	15.1	0.00e+00	0	56	0	312475648	51	4940
2026-01-08 23:50:47.55	16.09	25.78	-40.0	-42.9	14.9	0.00e+00	0	56	0	314572800	51	5066
2026-01-08 23:50:48.56	16.09	25.95	-40.1	-43.0	14.7	0.00e+00	0	56	0	316669952	51	5144
2026-01-08 23:50:49.56	16.08	26.11	-40.1	-43.0	14.8	7.00e-07	0	56	0	318767104	51	5128
2026-01-08 23:50:50.57	16.08	26.28	-40.3	-43.3	14.5	7.00e-07	0	56	0	319815680	51	5314
2026-01-08 23:50:51.58	16.07	26.45	-40.1	-43.1	14.7	7.00e-07	0	56	0	321912832	51	5162
2026-01-08 23:50:52.59	16.07	26.62	-40.3	-43.2	14.5	0.00e+00	0	56	0	324009984	51	5278
2026-01-08 23:50:53.60	16.06	26.79	-40.4	-43.4	14.4	1.50e-06	0	56	0	326107136	51	5341
2026-01-08 23:50:54.61	16.06	26.96	-40.4	-43.5	14.3	7.00e-07	0	56	0	328204288	51	5433
2026-01-08 23:50:55.62	16.05	27.13	-40.4	-43.4	14.4	2.20e-06	0	56	0	329252864	51	5364
2026-01-08 23:50:56.63	16.05	27.31	-40.4	-43.4	14.4	0.00e+00	0	56	0	331350016	51	5385
2026-01-08 23:50:57.64	16.04	27.48	-40.2	-43.1	14.7	7.00e-07	0	56	0	333447168	51	5201
2026-01-08 23:50:58.65	16.04	27.66	-40.5	-43.5	14.3	1.50e-06	0	56	0	335544320	51	5450
2026-01-08 23:50:59.66	16.03	27.84	-40.4	-43.3	14.5	0.00e+00	0	56	0	337641472	51	5340
2026-01-08 23:51:00.67	16.02	28.02	-40.5	-43.5	14.3	0.00e+00	0	56	0	338690048	51	5458
2026-01-08 23:51:01.68	16.02	28.20	-40.6	-43.6	14.1	6.10e-06	0	56	0	340787200	52	5203
2026-01-08 23:51:02.69	16.01	28.38	-40.7	-43.9	13.9	7.00e-07	0	56	0	342884352	52	5381
2026-01-08 23:51:03.70	16.01	28.56	-41.0	-44.5	13.3	7.60e-06	0	56	0	344981504	52	5760
2026-01-08 23:51:04.71	16.00	28.74	-41.1	-44.5	13.2	1.52e-05	0	56	0	347078656	53	5452
2026-01-08 23:51:05.72	15.99	28.93	-41.1	-44.6	13.2	2.74e-05	0	56	0	348127232	53	5507
2026-01-08 23:51:06.73	15.99	29.11	-41.5	-45.6	12.1	3.66e-05	0	56	0	350224384	53	6154
2026-01-08 23:51:07.74	15.98	29.30	-41.3	-45.1	12.7	6.17e-05	0	56	0	352321536	53	5817
2026-01-08 23:51:08.74	15.97	29.49	-41.3	-44.9	12.9	6.33e-05	0	56	0	354418688	53	5707
2026-01-08 23:51:09.75	15.97	29.68	-41.3	-44.9	12.9	1.21e-04	0	56	0	356515840	53	5709
2026-01-08 23:51:10.76	15.96	29.87	-41.2	-44.7	13.1	5.11e-05	0	56	0	357564416	53	5573
2026-01-08 23:51:11.77	15.95	30.06	-41.2	-44.9	13.0	3.81e-05	0	56	0	359661568	53	5662
2026-01-08 23:51:12.78	15.94	30.25	-41.2	-44.8	13.0	8.77e-05	0	56	0	361758720	53	5597
2026-01-08 23:51:13.79	15.94	30.45	-41.1	-44.6	13.2	3.20e-05	0	56	0	363855872	53	5480
2026-01-08 23:51:14.80	15.93	30.64	-41.4	-45.3	12.5	6.33e-05	0	56	0	365953024	53	5976
2026-01-08 23:51:15.81	15.92	30.84	-41.4	-45.2	12.7	7.47e-05	0	56	0	367001600	53	5875
2026-01-08 23:51:16.82	15.91	31.04	-41.3	-45.0	13.0	7.70e-05	0	56	0	369098752	53	5770
2026-01-08 23:51:17.83	15.91	31.24	-41.4	-45.2	12.6	1.52e-04	0	56	0	371195904	53	5897
2026-01-08 23:51:18.84	15.90	31.44	-41.4	-45.2	12.5	9.00e-05	0	56	0	373293056	53	5912
2026-01-08 23:51:19.85	15.89	31.65	-41.3	-45.0	12.7	6.33e-05	0	56	0	375390208	53	5784
2026-01-08 23:51:20.86	15.88	31.85	-41.1	-44.6	13.1	4.65e-05	0	56	0	376438784	53	5513
2026-01-08 23:51:21.87	15.87	32.06	-41.0	-44.6	13.1	2.59e-05	0	56	0	378535936	53	5501
2026-01-08 23:51:22.88	15.86	32.26	-41.0	-44.6	13.2	2.13e-05	0	56	0	380633088	53	5488
2026-01-08 23:51:23.89	15.85	32.47	-41.0	-44.5	13.3	8.30e-06	0	56	0	382730240	53	5429
2026-01-08 23:51:24.90	15.84	32.68	-40.9	-44.3	13.6	1.83e-05	0	56	0	384827392	53	5311
2026-01-08 23:51:25.91	15.84	32.89	-41.0	-44.4	13.3	1.22e-05	0	56	0	386924544	53	5381
2026-01-08 23:51:26.92	15.83	33.11	-41.2	-44.8	13.0	2.59e-05	0	56	0	387973120	53	5629
2026-01-08 23:51:27.93	15.82	33.32	-41.0	-44.4	13.4	2.05e-05	0	56	0	390070272	53	5360
2026-01-08 23:51:28.94	15.81	33.54	-41.2	-44.9	13.0	3.73e-05	0	56	0	392167424	53	5665
2026-01-08 23:51:29.94	15.80	33.75	-41.0	-44.4	13.4	2.05e-05	0	56	0	394264576	53	5380
2026-01-08 23:51:30.95	15.79	33.97	-41.1	-44.5	13.4	1.22e-05	0	56	0	396361728	53	5437
2026-01-08 23:51:31.96	15.78	34.19	-40.8	-44.0	13.9	5.30e-06	0	56	0	397410304	53	5103
2026-01-08 23:51:32.97	15.77	34.42	-40.7	-43.8	14.1	7.00e-07	0	56	0	399507456	53	5010
2026-01-08 23:51:33.98	15.75	34.64	-40.4	-43.3	14.6	0.00e+00	0	56	0	401604608	52	5027
2026-01-08 23:51:34.99	15.74	34.87	-40.3	-43.2	14.7	0.00e+00	0	56	0	403701760	52	4946
2026-01-08 23:51:36.00	15.73	35.09	-40.1	-42.9	15.0	7.00e-07	0	56	0	405798912	52	4762
2026-01-08 23:51:37.01	15.72	35.32	-40.2	-43.0	14.9	0.00e+00	0	56	0	406847488	52	4858
2026-01-08 23:51:38.02	15.71	35.55	-40.1	-42.8	15.1	0.00e+00	0	56	0	408944640	51	5036
2026-01-08 23:51:39.03	15.70	35.79	-40.0	-42.8	15.3	0.00e+00	0	56	0	411041792	51	5010
2026-01-08 23:51:40.04	15.69	36.02	-39.9	-42.5	15.5	0.00e+00	0	56	0	413138944	51	4850
2026-01-08 23:51:41.05	15.67	36.26	-39.9	-42.5	15.4	0.00e+00	0	56	0	415236096	51	4856
2026-01-08 23:51:42.06	15.66	36.49	-39.7	-42.3	15.7	0.00e+00	0	56	0	416284672	51	4713
2026-01-08 23:51:43.07	15.65	36.73	-39.5	-42.1	15.9	0.00e+00	0	56	0	418381824	50	4891
2026-01-08 23:51:44.08	15.63	36.97	-39.4	-41.8	16.1	0.00e+00	0	56	0	420478976	50	4729
2026-01-08 23:51:45.09	15.62	37.22	-39.6	-42.1	15.8	0.00e+00	0	56	0	422576128	50	4922
2026-01-08 23:51:46.10	15.61	37.46	-39.6	-42.2	15.8	0.00e+00	0	56	0	424673280	50	4957
2026-01-08 23:51:47.11	15.59	37.71	-39.5	-42.0	15.9	0.00e+00	0	56	0	425721856	50	4867
2026-01-08 23:51:48.11	15.58	37.95	-39.5	-42.1	15.8	0.00e+00	0	56	0	427819008	50	4895
2026-01-08 23:51:49.12	15.57	38.20	-39.4	-41.9	16.0	0.00e+00	0	56	0	429916160	50	4777
2026-01-08 23:51:50.13	15.55	38.46	-39.5	-42.1	15.8	0.00e+00	0	56	0	432013312	50	4902
2026-01-08 23:51:51.14	15.54	38.71	-39.5	-42.0	15.9	0.00e+00	0	56	0	434110464	50	4837
2026-01-08 23:51:52.15	15.52	38.97	-39.2	-41.7	16.3	0.00e+00	0	56	0	435159040	50	4653
2026-01-08 23:51:53.16	15.51	39.22	-39.2	-41.6	16.3	0.00e+00	0	56	0	437256192	50	4614
2026-01-08 23:51:54.17	15.49	39.48	-39.0	-41.3	16.4	0.00e+00	0	56	0	439353344	50	4471
2026-01-08 23:51:55.18	15.47	39.75	-39.3	-41.7	16.2	0.00e+00	0	56	0	441450496	50	4693
2026-01-08 23:51:56.19	15.46	40.01	-39.4	-41.9	16.0	0.00e+00	0	56	0	443547648	50	4808
2026-01-08 23:51:57.20	15.44	40.28	-39.2	-41.7	16.2	0.00e+00	0	56	0	444596224	50	4660
2026-01-08 23:51:58.21	15.42	40.54	-39.4	-41.9	16.0	0.00e+00	0	56	0	446693376	50	4789
2026-01-08 23:51:59.22	15.41	40.81	-39.3	-41.8	16.1	0.00e+00	0	56	0	448790528	50	4733
2026-01-08 23:52:00.23	15.39	41.08	-39.4	-41.9	15.9	0.00e+00	0	56	0	450887680	50	4809
2026-01-08 23:52:01.24	15.37	41.36	-39.3	-41.8	16.1	0.00e+00	0	56	0	452984832	50	4747
2026-01-08 23:52:02.25	15.35	41.63	-39.5	-42.1	15.8	0.00e+00	0	56	0	455081984	50	4923
2026-01-08 23:52:03.26	15.33	41.91	-39.3	-41.8	16.2	0.00e+00	0	56	0	456130560	50	4745
2026-01-08 23:52:04.27	15.31	42.19	-39.5	-42.1	15.9	0.00e+00	0	56	0	458227712	50	4881
2026-01-08 23:52:05.27	15.29	42.47	-39.9	-42.6	15.4	0.00e+00	0	56	0	460324864	50	5189
2026-01-08 23:52:06.28	15.27	42.76	-39.7	-42.3	15.7	0.00e+00	0	56	0	462422016	50	5018
2026-01-08 23:52:07.29	15.25	43.04	-39.8	-42.4	15.6	0.00e+00	0	56	0	463470592	50	5088
2026-01-08 23:52:08.30	15.23	43.33	-40.1	-42.8	15.2	0.00e+00	0	56	0	465567744	50	5323
2026-01-08 23:52:09.31	15.21	43.62	-39.9	-42.7	15.2	0.00e+00	0	56	0	467664896	50	5256
2026-01-08 23:52:10.32	15.19	43.92	-40.0	-42.7	15.3	0.00e+00	0	56	0	469762048	50	5256
2026-01-08 23:52:11.33	15.17	44.21	-40.1	-42.9	15.0	0.00e+00	0	56	0	471859200	50	5384
2026-01-08 23:52:12.34	15.14	44.51	-40.2	-43.2	14.7	0.00e+00	0	56	0	472907776	51	5260
2026-01-08 23:52:13.35	15.12	44.81	-40.2	-43.2	14.7	0.00e+00	0	56	0	475004928	51	5244
2026-01-08 23:52:14.36	15.09	45.11	-40.6	-43.9	13.9	7.00e-07	0	56	0	477102080	52	5389
2026-01-08 23:52:15.37	15.07	45.42	-41.0	-44.7	13.1	1.06e-05	0	56	0	479199232	52	5922
2026-01-08 23:52:16.38	15.05	45.72	-41.3	-45.3	12.7	1.83e-05	0	56	0	481296384	53	5945
2026-01-08 23:52:17.39	15.02	46.03	-41.5	-45.6	12.2	1.48e-04	0	56	0	483393536	53	6145
2026-01-08 23:52:18.40	14.99	46.34	-41.4	-45.3	12.5	1.93e-04	0	56	0	484442112	53	5962
2026-01-08 23:52:19.41	14.97	46.66	-41.2	-45.0	12.8	6.33e-05	0	56	0	486539264	53	5775
2026-01-08 23:52:20.41	14.94	46.97	-41.0	-44.6	13.3	3.73e-05	0	56	0	488636416	53	5466
2026-01-08 23:52:21.42	14.91	47.29	-41.0	-44.9	13.0	2.97e-05	0	56	0	490733568	53	5659
2026-01-08 23:52:22.43	14.88	47.61	-41.0	-44.8	13.0	3.35e-05	0	56	0	492830720	53	5601
2026-01-08 23:52:23.44	14.85	47.93	-41.1	-45.0	12.7	6.10e-05	0	56	0	493879296	53	5781
2026-01-08 23:52:24.45	14.82	48.26	-41.2	-45.3	12.4	1.66e-04	0	56	0	495976448	53	5953
2026-01-08 23:52:25.46	14.79	48.59	-41.1	-45.2	12.5	1.82e-04	0	56	0	498073600	53	5885
2026-01-08 23:52:26.47	14.76	48.92	-41.0	-44.9	12.9	4.80e-05	0	56	0	500170752	53	5669
2026-01-08 23:52:27.48	14.73	49.25	-41.1	-44.8	13.1	4.04e-05	0	56	0	502267904	53	5640
2026-01-08 23:52:28.49	14.70	49.59	-40.8	-44.3	13.6	3.80e-06	0	56	0	503316480	53	5285
2026-01-08 23:52:29.50	14.66	49.93	-40.9	-44.4	13.5	1.90e-05	0	56	0	505413632	53	5371
2026-01-08 23:52:30.50	14.63	50.27	-40.4	-43.6	14.1	3.00e-06	0	56	0	507510784	52	5214
2026-01-08 23:52:31.51	14.59	50.61	-39.9	-42.7	15.0	7.00e-07	0	56	0	509607936	51	4961
2026-01-08 23:52:32.52	14.55	50.96	-39.7	-42.4	15.5	0.00e+00	0	56	0	511705088	51	4770
2026-01-08 23:52:33.53	14.52	51.31	-39.3	-41.8	16.1	0.00e+00	0	56	0	512753664	50	4710
2026-01-08 23:52:34.54	14.48	51.66	-39.2	-41.7	16.2	0.00e+00	0	56	0	514850816	50	4657
2026-01-08 23:52:35.56	14.44	52.01	-39.3	-41.8	16.2	0.00e+00	0	56	0	516947968	50	4720
2026-01-08 23:52:36.56	14.40	52.37	-40.0	-42.8	15.2	0.00e+00	0	56	0	519045120	50	5281
2026-01-08 23:52:37.57	14.36	52.73	-40.2	-43.1	15.0	0.00e+00	0	56	0	521142272	50	5484
2026-01-08 23:52:38.58	14.31	53.09	-40.0	-42.8	15.3	0.00e+00	0	56	0	522190848	51	4998
2026-01-08 23:52:39.59	14.27	53.45	-39.4	-41.9	16.1	0.00e+00	0	56	0	524288000	50	4779
2026-01-08 23:52:40.60	14.23	53.82	-38.7	-40.8	17.1	0.00e+00	0	56	0	526385152	49	4480
2026-01-08 23:52:41.61	14.18	54.19	-38.4	-40.4	17.5	0.00e+00	0	56	0	528482304	48	4536
2026-01-08 23:52:42.62	14.13	54.56	-38.9	-41.1	17.0	0.00e+00	0	56	0	530579456	48	4878
2026-01-08 23:52:43.63	14.08	54.94	-39.0	-41.3	16.7	0.00e+00	0	56	0	531628032	48	4999
2026-01-08 23:52:44.64	14.03	55.32	-39.4	-41.9	16.1	0.00e+00	0	56	0	533725184	49	5059
2026-01-08 23:52:45.65	13.98	55.70	-39.6	-42.2	15.9	0.00e+00	0	56	0	535822336	50	4933
2026-01-08 23:52:46.65	13.93	56.07	-39.9	-42.6	15.5	0.00e+00	0	56	0	537919488	50	5163
2026-01-08 23:52:47.66	13.87	56.46	-39.8	-42.4	15.6	0.00e+00	0	56	0	540016640	50	5091
2026-01-08 23:52:48.67	13.81	56.85	-40.1	-42.8	15.2	0.00e+00	0	56	0	541065216	50	5333
2026-01-08 23:52:49.68	13.76	57.24	-40.2	-43.0	15.0	0.00e+00	0	56	0	543162368	50	5430
2026-01-08 23:52:50.69	13.70	57.63	-39.7	-42.2	15.9	0.00e+00	0	56	0	545259520	50	4938
2026-01-08 23:52:51.70	13.63	58.03	-39.7	-42.4	15.6	0.00e+00	0	56	0	547356672	50	5099
2026-01-08 23:52:52.71	13.57	58.43	-40.1	-43.0	15.1	0.00e+00	0	56	0	549453824	50	5410
2026-01-08 23:52:53.72	13.50	58.83	-40.7	-44.0	14.0	1.50e-06	0	56	0	551550976	51	5755
2026-01-08 23:52:54.73	13.43	59.24	-40.7	-44.1	13.8	4.50e-06	0	56	0	552599552	52	5482
2026-01-08 23:52:55.74	13.36	59.64	-40.5	-43.8	14.2	3.80e-06	0	56	0	554696704	52	5281
2026-01-08 23:52:56.75	13.29	60.05	-40.5	-43.7	14.1	7.00e-07	0	56	0	556793856	52	5260
2026-01-08 23:52:57.76	13.22	60.47	-40.6	-43.8	14.2	0.00e+00	0	56	0	558891008	52	5315
2026-01-08 23:52:58.77	13.14	60.88	-40.8	-44.2	13.6	3.00e-06	0	56	0	560988160	52	5588
2026-01-08 23:52:59.78	13.06	61.30	-40.6	-44.0	13.8	4.50e-06	0	56	0	562036736	52	5445
2026-01-08 23:53:00.79	12.97	61.72	-40.2	-43.1	14.9	0.00e+00	0	56	0	564133888	51	5176
2026-01-08 23:53:01.80	12.89	62.14	-39.8	-42.4	15.5	7.00e-07	0	56	0	566231040	51	4806
2026-01-08 23:53:02.81	12.80	62.57	-39.9	-42.6	15.4	0.00e+00	0	56	0	568328192	51	4873
2026-01-08 23:53:03.82	12.70	63.00	-39.4	-41.8	16.1	0.00e+00	0	56	0	570425344	50	4721
2026-01-08 23:53:04.82	12.61	63.42	-38.5	-40.5	17.5	0.00e+00	0	56	0	571473920	49	4323
2026-01-08 23:53:05.83	12.51	63.86	-38.3	-40.3	17.7	0.00e+00	0	56	0	573571072	48	4450
2026-01-08 23:53:06.84	12.40	64.29	-38.7	-40.8	17.1	0.00e+00	0	57	0	575668224	48	4747
2026-01-08 23:53:07.85	12.29	64.73	-39.4	-41.8	16.2	0.00e+00	0	57	0	577765376	49	4984
2026-01-08 23:53:08.86	12.18	65.17	-39.7	-42.2	16.1	0.00e+00	0	56	0	579862528	50	4929
2026-01-08 23:53:09.87	12.06	65.61	-39.6	-41.9	16.1	0.00e+00	0	56	0	580911104	50	4813
2026-01-08 23:53:10.88	11.94	66.06	-39.9	-42.4	15.6	0.00e+00	0	56	0	583008256	50	5079
2026-01-08 23:53:11.89	11.81	66.51	-40.5	-43.4	14.6	0.00e+00	0	57	0	585105408	51	5380
2026-01-08 23:53:12.90	11.67	66.96	-40.9	-44.2	13.7	3.00e-06	0	56	0	587202560	52	5537
2026-01-08 23:53:13.91	11.53	67.41	-40.9	-44.1	13.7	1.52e-05	0	57	0	589299712	53	5217
2026-01-08 23:53:14.92	11.39	67.87	-41.3	-44.7	13.1	2.51e-05	0	56	0	590348288	53	5578
2026-01-08 23:53:15.93	11.23	68.32	-41.6	-45.4	12.5	8.77e-05	0	57	0	592445440	54	5660
2026-01-08 23:53:16.94	11.07	68.78	-42.0	-46.3	11.5	6.64e-04	0	57	0	594542592	55	5988
2026-01-08 23:53:17.95	10.91	69.24	-42.4	-47.2	10.5	3.15e-03	0	56	0	596639744	55	6627
2026-01-08 23:53:18.96	10.73	69.71	-43.0	-48.5	9.5	9.62e-03	0	57	0	598736896	56	7212
2026-01-08 23:53:19.97	10.54	70.17	-43.1	-48.9	9.0	3.56e-02	0	57	0	599785472	57	7145
2026-01-08 23:53:20.98	10.35	70.64	-42.8	-47.8	10.1	1.61e-02	0	57	0	601882624	57	6316
2026-01-08 23:53:21.99	10.14	71.11	-42.4	-46.7	11.3	2.56e-03	0	57	0	603979776	56	5884
2026-01-08 23:53:23.00	9.92	71.58	-41.9	-45.9	12.0	1.06e-03	0	57	0	606076928	55	5663
2026-01-08 23:53:24.01	9.69	72.06	-41.9	-46.0	11.8	4.41e-04	0	56	0	608174080	55	5758
2026-01-08 23:53:25.01	9.45	72.53	-41.9	-46.1	11.8	1.03e-03	0	56	0	609222656	55	5801
2026-01-08 23:53:26.02	9.19	73.01	-41.9	-46.0	11.8	9.81e-04	0	57	0	611319808	55	5755
2026-01-08 23:53:27.03	8.92	73.49	-41.6	-45.5	12.4	1.47e-04	0	57	0	613416960	54	5734
2026-01-08 23:53:28.04	8.62	73.97	-41.2	-44.7	13.1	3.05e-05	0	57	0	615514112	54	5245
2026-01-08 23:53:29.05	8.31	74.45	-41.5	-45.2	12.7	2.97e-05	0	57	0	617611264	54	5536
2026-01-08 23:53:30.06	7.98	74.93	-41.6	-45.5	12.2	3.81e-04	0	57	0	619708416	54	5761
2026-01-08 23:53:31.07	7.63	75.42	-41.4	-45.2	12.4	1.82e-04	0	56	0	620756992	54	5573
2026-01-08 23:53:32.08	7.25	75.90	-41.3	-45.0	12.8	2.82e-05	0	57	0	622854144	54	5403
2026-01-08 23:53:33.09	6.84	76.39	-42.3	-47.1	10.7	8.92e-05	0	57	0	624951296	55	6542
2026-01-08 23:53:34.10	6.40	76.88	-42.7	-48.2	9.5	8.43e-03	0	57	0	627048448	55	7421
2026-01-08 23:53:35.11	5.92	77.37	-42.8	-48.4	9.4	1.27e-02	0	57	0	629145600	56	7147
2026-01-08 23:53:36.12	5.40	77.85	-42.7	-48.2	9.6	1.39e-02	0	57	0	630194176	56	6981
2026-01-08 23:53:37.13	4.84	78.34	-42.9	-48.8	8.8	2.45e-02	0	57	0	632291328	56	7529
2026-01-08 23:53:38.14	4.23	78.83	-42.6	-47.9	9.8	1.03e-02	0	57	0	634388480	56	6761
2026-01-08 23:53:39.15	3.56	79.32	-42.9	-48.7	9.0	1.58e-02	0	57	0	636485632	56	7453
2026-01-08 23:53:40.16	2.83	79.81	-42.7	-47.9	9.9	2.84e-02	0	57	0	638582784	56	6772
2026-01-08 23:53:41.16	2.02	80.30	-41.5	-45.2	12.5	3.52e-04	0	57	0	639631360	54	5529
2026-01-08 23:53:42.17	1.12	80.79	-41.4	-45.2	12.5	7.01e-05	0	57	0	641728512	54	5529
2026-01-08 23:53:43.18	0.12	81.27	-42.1	-46.8	10.9	1.82e-03	0	57	0	643825664	54	6648
2026-01-08 23:53:44.19	359.00	81.76	-41.5	-45.3	12.5	9.63e-04	0	57	0	645922816	54	5616
2026-01-08 23:53:45.20	357.74	82.24	-40.5	-43.5	14.3	5.30e-06	0	57	0	648019968	52	5116
2026-01-08 23:53:46.21	356.31	82.72	-40.1	-42.8	14.8	7.00e-07	0	57	0	649068544	52	4730
2026-01-08 23:53:47.22	354.67	83.20	-40.0	-42.8	15.1	0.00e+00	0	57	0	651165696	51	4986
2026-01-08 23:53:48.23	352.79	83.66	-40.1	-42.8	14.9	0.00e+00	0	57	0	653262848	51	5031
2026-01-08 23:53:49.24	350.61	84.13	-40.4	-43.3	14.5	0.00e+00	0	57	0	655360000	51	5286
2026-01-08 23:53:50.25	348.05	84.58	-39.1	-41.4	16.3	0.00e+00	0	57	0	657457152	50	4501
2026-01-08 23:53:51.26	345.03	85.02	-39.7	-42.3	15.5	0.00e+00	0	57	0	658505728	50	5021
2026-01-08 23:53:52.27	341.44	85.44	-40.6	-43.7	14.2	0.00e+00	0	57	0	660602880	51	5529
2026-01-08 23:53:53.28	337.13	85.85	-40.4	-43.4	14.4	7.00e-07	0	57	0	662700032	51	5352
2026-01-08 23:53:54.29	331.92	86.22	-40.7	-43.8	13.8	1.50e-06	0	57	0	664797184	52	5315
2026-01-08 23:53:55.30	325.62	86.56	-41.8	-46.0	11.6	3.65e-04	0	57	0	666894336	54	6087
2026-01-08 23:53:56.31	318.06	86.85	-40.9	-44.2	13.5	1.37e-05	0	57	0	667942912	53	5219
2026-01-08 23:53:57.32	309.16	87.07	-41.8	-45.9	11.8	9.68e-05	0	57	0	670040064	54	6005
2026-01-08 23:53:58.33	299.09	87.21	-42.8	-48.3	9.4	1.20e-02	0	57	0	672137216	56	7051
2026-01-08 23:53:59.34	288.31	87.26	-42.3	-47.0	10.8	3.57e-03	0	57	0	674234368	56	6069
2026-01-08 23:54:00.35	277.53	87.21	-42.4	-47.3	10.5	3.09e-03	0	57	0	676331520	56	6300
2026-01-08 23:54:01.35	267.56	87.07	-42.7	-48.3	9.4	1.04e-02	0	57	0	677380096	56	7111
2026-01-08 23:54:02.36	258.67	86.85	-41.8	-46.3	11.2	4.34e-03	0	57	0	679477248	55	5928
2026-01-08 23:54:03.38	251.03	86.56	-41.2	-44.9	12.6	2.80e-04	0	57	0	681574400	54	5364
2026-01-08 23:54:04.38	244.80	86.22	-41.3	-45.1	12.4	1.31e-04	0	57	0	683671552	54	5487
2026-01-08 23:54:05.39	239.58	85.85	-41.4	-45.2	12.4	3.73e-05	0	57	0	685768704	54	5539
2026-01-08 23:54:06.40	235.26	85.45	-40.0	-42.8	14.8	3.80e-06	0	57	0	687865856	52	4751
2026-01-08 23:54:07.41	231.67	85.02	-39.2	-41.5	16.3	0.00e+00	0	57	0	688914432	50	4548
2026-01-08 23:54:08.42	228.65	84.58	-39.9	-42.5	15.1	0.00e+00	0	57	0	691011584	50	5156
2026-01-08 23:54:09.43	226.09	84.13	-40.2	-43.0	14.8	0.00e+00	0	57	0	693108736	51	5113
2026-01-08 23:54:10.44	223.91	83.66	-39.9	-42.5	15.3	0.00e+00	0	57	0	695205888	51	4839
2026-01-08 23:54:11.45	222.03	83.19	-40.4	-43.3	14.4	0.00e+00	0	57	0	697303040	51	5323
2026-01-08 23:54:12.46	220.39	82.72	-39.7	-42.2	15.5	0.00e+00	0	57	0	698351616	51	4702
2026-01-08 23:54:13.47	218.96	82.24	-39.8	-42.4	15.5	0.00e+00	0	57	0	700448768	50	5055
2026-01-08 23:54:14.48	217.69	81.76	-39.9	-42.5	15.2	0.00e+00	0	57	0	702545920	50	5150
2026-01-08 23:54:15.49	216.57	81.27	-41.1	-44.6	13.2	0.00e+00	0	57	0	704643072	52	5813
2026-01-08 23:54:16.50	215.57	80.78	-41.4	-45.2	12.4	1.04e-04	0	57	0	706740224	53	5892
2026-01-08 23:54:17.51	214.67	80.30	-41.6	-45.6	12.1	4.66e-04	0	57	0	707788800	54	5827
2026-01-08 23:54:18.51	213.87	79.81	-41.0	-44.5	13.2	2.42e-04	0	57	0	709885952	54	5106
2026-01-08 23:54:19.52	213.13	79.32	-40.8	-44.0	13.6	2.44e-05	0	57	0	711983104	53	5137
2026-01-08 23:54:20.53	212.46	78.83	-40.6	-43.6	14.1	2.20e-06	0	56	0	714080256	52	5196
2026-01-08 23:54:21.54	211.85	78.34	-40.4	-43.3	14.4	2.20e-06	0	57	0	716177408	52	5026
2026-01-08 23:54:22.55	211.29	77.85	-40.9	-44.1	13.5	1.50e-06	0	57	0	717225984	52	5514
2026-01-08 23:54:23.56	210.77	77.36	-40.6	-43.6	14.2	3.00e-06	0	57	0	719323136	52	5191
2026-01-08 23:54:24.57	210.30	76.87	-40.4	-43.2	14.4	3.80e-06	0	57	0	721420288	52	4983
2026-01-08 23:54:25.58	209.85	76.38	-40.5	-43.5	14.2	3.00e-06	0	57	0	723517440	52	5150
2026-01-08 23:54:26.59	209.45	75.89	-40.6	-43.6	14.2	3.00e-06	0	57	0	725614592	52	5179
2026-01-08 23:54:27.60	209.06	75.41	-39.7	-42.1	15.7	0.00e+00	0	57	0	726663168	51	4624
2026-01-08 23:54:28.61	208.71	74.92	-40.6	-43.5	14.4	7.00e-07	0	57	0	728760320	51	5414
2026-01-08 23:54:29.62	208.38	74.44	-40.5	-43.4	14.3	3.00e-06	0	57	0	730857472	52	5060
2026-01-08 23:54:30.63	208.07	73.95	-39.9	-42.4	15.6	0.00e+00	0	57	0	732954624	51	4773
2026-01-08 23:54:31.64	207.77	73.47	-39.5	-41.9	16.0	0.00e+00	0	57	0	735051776	50	4766
2026-01-08 23:54:32.65	207.50	72.99	-40.3	-43.1	14.8	0.00e+00	0	57	0	736100352	51	5183
2026-01-08 23:54:33.66	207.24	72.52	-40.7	-43.7	14.2	0.00e+00	0	57	0	738197504	51	5543
2026-01-08 23:54:34.66	207.00	72.04	-41.1	-44.5	13.3	9.10e-06	0	57	0	740294656	52	5726
2026-01-08 23:54:35.68	206.77	71.56	-41.4	-45.2	12.7	2.28e-05	0	57	0	742391808	53	5861
2026-01-08 23:54:36.69	206.55	71.09	-41.8	-46.3	11.3	3.70e-04	0	57	0	744488960	54	6327
2026-01-08 23:54:37.70	206.34	70.62	-41.7	-45.6	12.2	7.32e-04	0	57	0	745537536	54	5811
2026-01-08 23:54:38.70	206.15	70.16	-42.0	-46.0	11.8	2.60e-04	0	57	0	747634688	54	6068
2026-01-08 23:54:39.72	205.96	69.68	-42.2	-46.4	11.4	5.43e-04	0	57	0	749731840	54	6372
2026-01-08 23:54:40.73	205.78	69.22	-41.4	-44.9	12.9	2.82e-04	0	57	0	751828992	54	5342
2026-01-08 23:54:41.74	205.61	68.76	-41.4	-44.7	13.1	1.90e-05	0	57	0	753926144	54	5255
2026-01-08 23:54:42.74	205.45	68.30	-42.4	-46.9	10.9	3.57e-04	0	57	0	754974720	55	6351
2026-01-08 23:54:43.76	205.30	67.84	-42.1	-46.2	11.3	5.33e-03	0	57	0	757071872	55	5880
2026-01-08 23:54:44.77	205.15	67.38	-41.0	-44.1	13.6	4.50e-06	0	57	0	759169024	53	5201
2026-01-08 23:54:45.78	205.01	66.93	-41.4	-44.8	13.1	6.10e-06	0	57	0	761266176	53	5638
2026-01-08 23:54:46.79	204.88	66.48	-41.7	-45.3	12.4	1.20e-04	0	57	0	763363328	54	5648
2026-01-08 23:54:47.80	204.75	66.03	-40.9	-43.9	13.8	1.60e-05	0	57	0	765460480	53	5068
2026-01-08 23:54:48.81	204.63	65.58	-41.1	-44.3	13.4	2.28e-05	0	57	0	766509056	53	5334
2026-01-08 23:54:49.82	204.51	65.14	-40.9	-44.1	13.7	1.14e-05	0	57	0	768606208	53	5186
2026-01-08 23:54:50.83	204.39	64.70	-40.9	-43.9	13.9	4.50e-06	0	57	0	770703360	53	5077
2026-01-08 23:54:51.83	204.29	64.26	-41.2	-44.6	13.2	2.36e-05	0	57	0	772800512	53	5527
2026-01-08 23:54:52.84	204.18	63.82	-42.0	-46.1	11.9	1.52e-04	0	57	0	773849088	54	6166
2026-01-08 23:54:53.85	204.08	63.39	-41.6	-45.1	12.7	1.80e-04	0	57	0	775946240	54	5525
2026-01-08 23:54:54.86	203.98	62.96	-40.7	-43.6	14.2	2.20e-06	0	57	0	778043392	53	4916
2026-01-08 23:54:55.87	203.89	62.53	-40.5	-43.4	14.5	7.00e-07	0	57	0	780140544	52	5047
2026-01-08 23:54:56.88	203.80	62.10	-39.4	-41.6	16.3	0.00e+00	0	57	0	782237696	50	4610
2026-01-08 23:54:57.89	203.71	61.68	-38.4	-40.3	17.6	0.00e+00	0	57	0	783286272	48	4460
2026-01-08 23:54:58.90	203.63	61.26	-39.0	-41.0	16.9	0.00e+00	0	57	0	785383424	48	4856
2026-01-08 23:54:59.91	203.55	60.84	-39.3	-41.5	16.5	0.00e+00	0	57	0	787480576	49	4826
2026-01-08 23:55:00.91	203.47	60.42	-39.3	-41.4	16.6	0.00e+00	0	57	0	789577728	49	4804
2026-01-08 23:55:01.92	203.39	60.01	-39.0	-41.0	16.9	0.00e+00	0	57	0	791674880	49	4574
2026-01-08 23:55:02.93	203.32	59.60	-38.7	-40.6	17.3	0.00e+00	0	57	0	793772032	49	4366
2026-01-08 23:55:03.94	203.25	59.19	-38.6	-40.5	17.4	0.00e+00	0	57	0	794820608	48	4586
2026-01-08 23:55:04.95	203.18	58.79	-39.2	-41.3	16.7	0.00e+00	0	57	0	796917760	48	5012
2026-01-08 23:55:05.96	203.11	58.38	-40.7	-43.5	14.4	0.00e+00	0	57	0	799014912	52	5158
2026-01-08 23:55:06.97	203.05	57.98	-41.0	-44.0	13.8	1.50e-06	0	57	0	801112064	52	5434
2026-01-08 23:55:07.98	202.99	57.59	-40.9	-43.9	14.0	5.30e-06	0	57	0	803209216	52	5368
2026-01-08 23:55:08.99	202.93	57.19	-40.6	-43.3	14.5	0.00e+00	0	57	0	804257792	52	5026
2026-01-08 23:55:10.00	202.87	56.80	-40.4	-43.1	14.8	7.00e-07	0	57	0	806354944	52	4883
2026-01-08 23:55:11.01	202.81	56.41	-40.2	-42.8	15.1	0.00e+00	0	57	0	808452096	52	4753
2026-01-08 23:55:12.02	202.76	56.02	-40.4	-43.1	14.8	7.00e-07	0	57	0	810549248	52	4910
2026-01-08 23:55:13.03	202.70	55.64	-40.8	-43.9	14.1	7.00e-07	0	57	0	812646400	52	5345
2026-01-08 23:55:14.04	202.65	55.26	-40.8	-43.8	14.0	5.30e-06	0	57	0	813694976	52	5339
2026-01-08 23:55:15.05	202.60	54.88	-40.2	-42.7	15.2	0.00e+00	0	57	0	815792128	51	4959
2026-01-08 23:55:16.06	202.55	54.50	-39.1	-41.2	16.7	0.00e+00	0	57	0	817889280	50	4418
2026-01-08 23:55:17.07	202.50	54.13	-39.6	-41.9	16.1	0.00e+00	0	57	0	819986432	50	4770
2026-01-08 23:55:18.08	202.46	53.76	-40.3	-43.0	15.1	0.00e+00	0	57	0	822083584	51	5110
2026-01-08 23:55:19.08	202.41	53.39	-40.5	-43.4	14.6	0.00e+00	0	57	0	823132160	52	5043
2026-01-08 23:55:20.09	202.37	53.03	-39.6	-41.8	16.2	0.00e+00	0	57	0	825229312	51	4454
2026-01-08 23:55:21.10	202.32	52.66	-39.3	-41.4	16.5	0.00e+00	0	57	0	827326464	50	4543
2026-01-08 23:55:22.11	202.28	52.30	-40.3	-42.8	15.1	0.00e+00	0	57	0	829423616	51	5036
2026-01-08 23:55:23.12	202.24	51.95	-41.2	-44.4	13.5	7.00e-07	0	57	0	831520768	53	5395
2026-01-08 23:55:24.13	202.20	51.59	-41.0	-44.1	13.7	5.30e-06	0	57	0	832569344	53	5189
2026-01-08 23:55:25.14	202.16	51.24	-41.5	-45.0	12.9	1.75e-05	0	57	0	834666496	53	5734
2026-01-08 23:55:26.15	202.12	50.89	-41.6	-45.4	12.5	3.58e-05	0	57	0	836763648	53	5994
2026-01-08 23:55:27.16	202.09	50.54	-41.9	-45.8	12.1	2.47e-04	0	57	0	838860800	54	5933
2026-01-08 23:55:28.17	202.05	50.20	-41.3	-44.7	13.2	1.49e-04	0	57	0	840957952	54	5254
2026-01-08 23:55:29.18	202.02	49.85	-41.2	-44.5	13.4	3.80e-06	0	57	0	842006528	54	5129
2026-01-08 23:55:30.19	201.98	49.51	-41.2	-44.5	13.6	8.30e-06	0	57	0	844103680	54	5121
2026-01-08 23:55:31.20	201.95	49.18	-41.4	-44.8	13.1	1.52e-05	0	57	0	846200832	53	5619
2026-01-08 23:55:32.21	201.92	48.84	-42.3	-46.7	11.2	3.89e-04	0	57	0	848297984	55	6233
2026-01-08 23:55:33.22	201.88	48.51	-43.3	-48.9	9.0	4.95e-03	0	57	0	850395136	57	7163
2026-01-08 23:55:34.23	201.85	48.18	-42.7	-47.3	10.6	1.09e-02	0	57	0	851443712	57	5969
2026-01-08 23:55:35.24	201.82	47.85	-42.2	-46.2	11.7	1.67e-03	0	57	0	853540864	56	5562
2026-01-08 23:55:36.24	201.79	47.53	-41.4	-44.9	12.9	2.38e-04	0	57	0	855638016	54	5343
2026-01-08 23:55:37.25	201.76	47.21	-40.7	-43.6	14.2	3.80e-06	0	57	0	857735168	53	4891
2026-01-08 23:55:38.26	201.74	46.89	-40.1	-42.7	15.1	0.00e+00	0	57	0	859832320	52	4674
2026-01-08 23:55:39.27	201.71	46.57	-39.9	-42.2	15.7	0.00e+00	0	57	0	861929472	51	4703
2026-01-08 23:55:40.28	201.68	46.26	-39.8	-42.2	15.8	0.00e+00	0	57	0	862978048	51	4663
2026-01-08 23:55:41.29	201.65	45.95	-40.1	-42.5	15.4	0.00e+00	0	57	0	865075200	51	4858
2026-01-08 23:55:42.30	201.63	45.63	-40.7	-43.5	14.4	0.00e+00	0	57	0	867172352	52	5129
2026-01-08 23:55:43.31	201.60	45.33	-41.5	-44.8	13.1	2.28e-05	0	57	0	869269504	53	5629
2026-01-08 23:55:44.32	201.58	45.02	-42.5	-46.9	10.7	9.40e-04	0	57	0	871366656	55	6392
2026-01-08 23:55:45.33	201.55	44.72	-42.3	-46.6	11.1	1.67e-03	0	57	0	872415232	55	6178
2026-01-08 23:55:46.34	201.53	44.42	-42.6	-47.3	10.4	2.60e-03	0	57	0	874512384	55	6692
2026-01-08 23:55:47.35	201.51	44.12	-41.8	-45.4	12.4	8.08e-04	0	57	0	876609536	55	5369
2026-01-08 23:55:48.36	201.48	43.82	-41.5	-45.0	12.9	1.19e-04	0	57	0	878706688	55	5103
2026-01-08 23:55:49.37	201.46	43.53	-41.1	-44.2	13.6	4.88e-05	0	57	0	880803840	54	4977
2026-01-08 23:55:50.38	201.44	43.24	-41.2	-44.4	13.5	1.06e-05	0	57	0	881852416	54	5060
2026-01-08 23:55:51.39	201.42	42.95	-40.4	-43.0	14.9	0.00e+00	0	57	0	883949568	52	4842
2026-01-08 23:55:52.40	201.40	42.66	-39.8	-42.1	15.8	0.00e+00	0	57	0	886046720	51	4647
2026-01-08 23:55:53.41	201.38	42.37	-40.1	-42.5	15.5	0.00e+00	0	57	0	888143872	51	4851
2026-01-08 23:55:54.41	201.36	42.09	-41.0	-44.1	13.7	0.00e+00	0	57	0	890241024	52	5518
2026-01-08 23:55:55.42	201.34	41.81	-41.8	-45.5	12.3	4.27e-05	0	57	0	891289600	54	5749
2026-01-08 23:55:56.43	201.32	41.53	-42.1	-46.1	11.7	3.73e-04	0	57	0	893386752	54	6194
2026-01-08 23:55:57.44	201.30	41.26	-42.4	-46.7	11.0	1.27e-03	0	57	0	895483904	55	6245
2026-01-08 23:55:58.45	201.28	40.98	-41.6	-45.1	12.7	2.08e-04	0	57	0	897581056	55	5217
2026-01-08 23:55:59.46	201.26	40.71	-41.2	-44.4	13.5	9.10e-06	0	57	0	899678208	54	5079
2026-01-08 23:56:00.47	201.24	40.44	-40.8	-43.7	14.1	3.80e-06	0	57	0	900726784	53	4977
2026-01-08 23:56:01.48	201.23	40.17	-41.2	-44.5	13.4	6.80e-06	0	57	0	902823936	53	5414
2026-01-08 23:56:02.49	201.21	39.90	-41.2	-44.4	13.4	2.05e-05	0	57	0	904921088	53	5387
2026-01-08 23:56:03.50	201.19	39.64	-41.8	-45.5	12.4	2.51e-05	0	57	0	907018240	54	5734
2026-01-08 23:56:04.51	201.18	39.38	-41.7	-45.3	12.5	1.88e-04	0	57	0	909115392	54	5651
2026-01-08 23:56:05.52	201.16	39.12	-41.2	-44.5	13.4	3.20e-05	0	57	0	910163968	54	5108
2026-01-08 23:56:06.53	201.14	38.86	-41.2	-44.4	13.4	2.05e-05	0	57	0	912261120	54	5093
2026-01-08 23:56:07.54	201.13	38.60	-41.8	-45.6	12.6	2.97e-05	0	57	0	914358272	54	5845
2026-01-08 23:56:08.55	201.11	38.35	-42.1	-46.2	11.6	2.65e-04	0	57	0	916455424	54	6237
2026-01-08 23:56:09.56	201.10	38.09	-42.1	-46.1	11.5	6.41e-04	0	57	0	918552576	54	6149
2026-01-08 23:56:10.57	201.08	37.84	-42.3	-46.6	11.1	2.15e-03	0	57	0	919601152	55	6201
2026-01-08 23:56:11.58	201.07	37.59	-42.1	-46.2	11.6	1.75e-03	0	57	0	921698304	55	5905
2026-01-08 23:56:12.59	201.06	37.35	-41.8	-45.5	12.3	5.09e-04	0	57	0	923795456	55	5442
2026-01-08 23:56:13.60	201.04	37.10	-41.8	-45.6	12.1	1.81e-04	0	57	0	925892608	54	5812
2026-01-08 23:56:14.61	201.03	36.86	-41.7	-45.5	12.4	1.43e-04	0	57	0	927989760	54	5725
2026-01-08 23:56:15.62	201.01	36.62	-41.9	-45.7	12.1	2.70e-04	0	57	0	930086912	54	5917
2026-01-08 23:56:16.63	201.00	36.38	-42.2	-46.3	11.5	7.99e-04	0	57	0	931135488	55	5931
2026-01-08 23:56:17.64	200.99	36.14	-42.3	-46.6	11.2	1.77e-03	0	57	0	933232640	55	6195
2026-01-08 23:56:18.65	200.98	35.90	-41.6	-45.1	12.7	8.43e-04	0	57	0	935329792	55	5197
2026-01-08 23:56:19.65	200.96	35.67	-41.2	-44.3	13.5	2.74e-05	0	57	0	937426944	54	5019
2026-01-08 23:56:20.66	200.95	35.43	-40.6	-43.3	14.5	1.50e-06	0	57	0	939524096	53	4754
2026-01-08 23:56:21.67	200.94	35.20	-40.3	-42.9	15.0	0.00e+00	0	57	0	940572672	52	4783
2026-01-08 23:56:22.68	200.93	34.97	-40.4	-43.1	14.7	7.00e-07	0	57	0	942669824	52	4918
2026-01-08 23:56:23.69	200.91	34.75	-40.8	-43.8	14.1	7.00e-07	0	57	0	944766976	52	5298
2026-01-08 23:56:24.70	200.90	34.52	-41.3	-44.6	13.2	1.29e-05	0	57	0	946864128	53	5509
2026-01-08 23:56:25.71	200.89	34.29	-42.2	-46.3	11.4	4.62e-04	0	57	0	948961280	54	6323
2026-01-08 23:56:26.72	200.88	34.07	-43.2	-48.5	9.3	9.14e-03	0	57	0	950009856	56	7257
2026-01-08 23:56:27.73	200.87	33.85	-43.6	-50.0	7.8	3.20e-02	0	57	0	952107008	57	8149
2026-01-08 23:56:28.74	200.86	33.63	-43.7	-50.4	7.4	7.67e-02	0	57	0	954204160	58	8080
2026-01-08 23:56:29.75	200.85	33.41	-43.7	-50.2	7.6	1.11e-01	0	57	0	956301312	58	7841
2026-01-08 23:56:30.76	200.84	33.19	-43.2	-48.8	9.0	3.70e-02	0	57	0	958398464	58	6686
2026-01-08 23:56:31.77	200.83	32.98	-42.6	-47.2	10.7	1.33e-02	0	57	0	959447040	57	5897
2026-01-08 23:56:32.78	200.82	32.76	-42.4	-46.6	11.3	1.41e-03	0	57	0	961544192	56	5795
2026-01-08 23:56:33.79	200.81	32.55	-42.2	-46.3	11.6	7.75e-04	0	57	0	963641344	56	5635
2026-01-08 23:56:34.80	200.80	32.34	-41.7	-45.3	12.5	2.16e-04	0	57	0	965738496	55	5331
2026-01-08 23:56:35.81	200.79	32.13	-41.3	-44.6	13.3	1.03e-04	0	57	0	967835648	54	5172
2026-01-08 23:56:36.81	200.78	31.93	-41.2	-44.4	13.4	3.43e-05	0	57	0	968884224	54	5052
2026-01-08 23:56:37.82	200.77	31.72	-41.0	-44.2	13.7	6.80e-06	0	57	0	970981376	53	5219
2026-01-08 23:56:38.83	200.76	31.51	-41.0	-44.0	13.8	4.50e-06	0	57	0	973078528	53	5152
2026-01-08 23:56:39.84	200.75	31.31	-41.0	-44.2	13.6	1.37e-05	0	57	0	975175680	53	5226
2026-01-08 23:56:40.85	200.74	31.11	-41.3	-44.5	13.2	2.13e-05	0	57	0	977272832	53	5461
2026-01-08 23:56:41.86	200.74	30.91	-41.1	-44.3	13.5	2.28e-05	0	57	0	978321408	53	5309
2026-01-08 23:56:42.87	200.73	30.71	-41.0	-44.1	13.7	1.75e-05	0	57	0	980418560	53	5179
2026-01-08 23:56:43.88	200.72	30.51	-41.1	-44.4	13.4	9.90e-06	0	57	0	982515712	53	5344
2026-01-08 23:56:44.89	200.71	30.31	-41.2	-44.4	13.4	1.37e-05	0	57	0	984612864	53	5367
2026-01-08 23:56:45.90	200.70	30.12	-41.0	-44.1	13.7	6.10e-06	0	57	0	986710016	53	5195
2026-01-08 23:56:46.91	200.70	29.92	-41.1	-44.2	13.5	1.06e-05	0	57	0	987758592	53	5257
2026-01-08 23:56:47.91	200.69	29.73	-41.3	-44.6	13.1	1.52e-05	0	57	0	989855744	53	5490
2026-01-08 23:56:48.92	200.68	29.54	-41.7	-45.3	12.4	3.12e-05	0	57	0	991952896	53	5971
2026-01-08 23:56:49.93	200.67	29.35	-41.8	-45.5	12.2	1.52e-04	0	57	0	994050048	54	5758
2026-01-08 23:56:50.94	200.67	29.16	-42.2	-46.4	11.3	5.58e-04	0	57	0	996147200	55	6035
2026-01-08 23:56:51.95	200.66	28.98	-42.4	-46.8	10.9	1.89e-03	0	57	0	998244352	55	6281
2026-01-08 23:56:52.96	200.65	28.79	-42.4	-46.9	10.7	2.41e-03	0	57	0	999292928	55	6398
2026-01-08 23:56:53.97	200.64	28.60	-42.2	-46.4	11.3	1.72e-03	0	57	0	1001390080	55	6044
2026-01-08 23:56:54.98	200.64	28.42	-42.1	-46.1	11.6	6.64e-04	0	57	0	1003487232	55	5854
2026-01-08 23:56:55.98	200.63	28.24	-41.8	-45.6	12.1	1.69e-04	0	57	0	1005584384	55	5512
2026-01-08 23:56:56.99	200.62	28.06	-41.3	-44.6	13.2	8.08e-05	0	57	0	1006632960	54	5166
2026-01-08 23:56:58.00	200.62	27.88	-40.9	-43.9	13.8	3.80e-06	0	57	0	1008730112	53	5085
2026-01-08 23:56:59.01	200.61	27.70	-40.6	-43.5	14.2	2.20e-06	0	57	0	1010827264	53	4864
2026-01-08 23:57:00.02	200.60	27.52	-40.4	-43.1	14.7	7.00e-07	0	57	0	1012924416	52	4914
2026-01-08 23:57:01.03	200.60	27.34	-40.1	-42.7	15.0	0.00e+00	0	57	0	1015021568	52	4681
2026-01-08 23:57:02.04	200.59	27.17	-39.8	-42.3	15.5	0.00e+00	0	57	0	1016070144	51	4709
2026-01-08 23:57:03.05	200.59	26.99	-39.7	-42.1	15.7	0.00e+00	0	57	0	1018167296	51	4638
2026-01-08 23:57:04.06	200.58	26.82	-39.5	-41.7	16.1	0.00e+00	0	57	0	1020264448	50	4683
2026-01-08 23:57:05.07	200.57	26.65	-39.4	-41.6	16.3	0.00e+00	0	57	0	1022361600	50	4610
2026-01-08 23:57:06.08	200.57	26.47	-39.3	-41.5	16.3	0.00e+00	0	57	0	1024458752	50	4588
2026-01-08 23:57:07.09	200.56	26.30	-39.4	-41.7	16.1	0.00e+00	0	57	0	1026555904	50	4666
2026-01-08 23:57:08.10	200.56	26.14	-39.7	-42.1	15.7	0.00e+00	0	57	0	1027604480	50	4896
2026-01-08 23:57:09.10	200.55	25.97	-40.0	-42.5	15.4	0.00e+00	0	57	0	1029701632	50	5135
2026-01-08 23:57:10.11	200.55	25.80	-40.5	-43.3	14.6	0.00e+00	0	57	0	1031798784	51	5294
2026-01-08 23:57:11.12	200.54	25.64	-40.7	-43.7	14.1	1.50e-06	0	57	0	1033895936	52	5240
2026-01-08 23:57:12.13	200.54	25.47	-41.0	-44.2	13.6	7.60e-06	0	57	0	1035993088	52	5558
2026-01-08 23:57:13.14	200.53	25.31	-41.2	-44.6	13.2	1.29e-05	0	57	0	1037041664	53	5476
2026-01-08 23:57:14.15	200.53	25.14	-41.2	-44.6	13.0	3.89e-05	0	57	0	1039138816	53	5515
2026-01-08 23:57:15.16	200.52	24.98	-41.1	-44.5	13.3	2.59e-05	0	57	0	1041235968	53	5405
2026-01-08 23:57:16.17	200.52	24.82	-40.9	-44.0	13.6	1.60e-05	0	57	0	1043333120	53	5146
2026-01-08 23:57:17.18	200.51	24.66	-40.8	-43.9	13.8	6.80e-06	0	57	0	1045430272	53	5052
2026-01-08 23:57:18.19	200.51	24.50	-40.3	-43.1	14.6	7.00e-07	0	57	0	1046478848	52	4901
2026-01-08 23:57:19.20	200.50	24.34	-40.0	-42.6	15.1	0.00e+00	0	57	0	1048576000	52	4630
2026-01-08 23:57:20.21	200.50	24.19	-39.9	-42.4	15.4	0.00e+00	0	57	0	1050673152	51	4794
2026-01-08 23:57:21.22	200.49	24.03	-39.6	-42.0	15.8	0.00e+00	0	57	0	1052770304	51	4576
2026-01-08 23:57:22.23	200.49	23.87	-39.8	-42.2	15.6	0.00e+00	0	57	0	1054867456	51	4700
2026-01-08 23:57:23.24	200.48	23.72	-39.9	-42.4	15.4	7.00e-07	0	57	0	1055916032	51	4780
2026-01-08 23:57:24.25	200.48	23.57	-39.8	-42.3	15.5	0.00e+00	0	57	0	1058013184	51	4736
2026-01-08 23:57:25.26	200.48	23.41	-40.0	-42.6	15.2	0.00e+00	0	57	0	1060110336	51	4881
2026-01-08 23:57:26.27	200.47	23.26	-40.1	-42.8	15.0	0.00e+00	0	57	0	1062207488	51	4996
2026-01-08 23:57:27.28	200.47	23.11	-40.1	-42.8	15.0	0.00e+00	0	57	0	1064304640	51	4991
2026-01-08 23:57:28.29	200.46	22.96	-40.5	-43.3	14.5	7.00e-07	0	57	0	1065353216	51	5312
2026-01-08 23:57:29.30	200.46	22.81	-40.6	-43.4	14.4	0.00e+00	0	57	0	1067450368	51	5382
2026-01-08 23:57:30.31	200.46	22.67	-40.5	-43.2	14.6	7.00e-07	0	57	0	1069547520	51	5276
2026-01-08 23:57:31.32	200.45	22.52	-40.6	-43.5	14.2	7.00e-07	0	57	0	1071644672	51	5447
2026-01-08 23:57:32.32	200.45	22.37	-40.5	-43.3	14.5	7.00e-07	0	57	0	1073741824	51	5290
2026-01-08 23:57:33.33	200.44	22.23	-40.2	-42.8	15.0	0.00e+00	0	57	0	1074790400	51	5007
2026-01-08 23:57:34.34	200.44	22.08	-40.2	-42.8	15.0	0.00e+00	0	57	0	1076887552	51	5009
2026-01-08 23:57:35.35	200.44	21.94	-40.1	-42.6	15.1	7.00e-07	0	57	0	1078984704	51	4906
2026-01-08 23:57:36.36	200.43	21.80	-40.1	-42.6	15.2	0.00e+00	0	57	0	1081081856	51	4901
2026-01-08 23:57:37.37	200.43	21.65	-40.0	-42.6	15.1	0.00e+00	0	57	0	1083179008	51	4887
2026-01-08 23:57:38.38	200.43	21.51	-40.0	-42.6	15.2	0.00e+00	0	57	0	1084227584	51	4889
2026-01-08 23:57:39.39	200.42	21.37	-40.0	-42.5	15.2	0.00e+00	0	57	0	1086324736	51	4852
2026-01-08 23:57:40.40	200.42	21.23	-40.1	-42.7	15.1	0.00e+00	0	57	0	1088421888	51	4927
2026-01-08 23:57:41.41	200.42	21.09	-40.2	-42.9	14.9	0.00e+00	0	57	0	1090519040	51	5059
2026-01-08 23:57:42.42	200.41	20.95	-40.3	-43.1	14.7	0.00e+00	0	57	0	1092616192	51	5174
2026-01-08 23:57:43.43	200.41	20.82	-40.3	-43.0	14.7	0.00e+00	0	57	0	1094713344	51	5152
2026-01-08 23:57:44.44	200.41	20.68	-40.2	-42.9	14.9	7.00e-07	0	57	0	1095761920	51	5059
2026-01-08 23:57:45.45	200.40	20.54	-40.4	-43.2	14.5	1.50e-06	0	57	0	1097859072	51	5259
2026-01-08 23:57:46.46	200.40	20.41	-40.6	-43.5	14.2	0.00e+00	0	57	0	1099956224	51	5440
2026-01-08 23:57:47.47	200.40	20.27	-40.7	-43.6	14.1	7.00e-07	0	57	0	1102053376	51	5527
2026-01-08 23:57:48.48	200.40	20.14	-40.5	-43.4	14.2	2.20e-06	0	57	0	1104150528	52	5087
2026-01-08 23:57:49.49	200.39	20.00	-40.6	-43.5	14.1	6.80e-06	0	57	0	1105199104	52	5159
2026-01-08 23:57:50.49	200.39	19.87	-40.5	-43.5	14.2	7.00e-07	0	57	0	1107296256	52	5116
2026-01-08 23:57:51.50	200.39	19.74	-40.4	-43.3	14.3	3.80e-06	0	57	0	1109393408	52	5005
2026-01-08 23:57:52.51	200.38	19.61	-40.6	-43.7	14.0	2.20e-06	0	57	0	1111490560	52	5234
2026-01-08 23:57:53.52	200.38	19.48	-40.7	-43.7	14.0	2.20e-06	0	57	0	1113587712	52	5231
2026-01-08 23:57:54.53	200.38	19.35	-40.9	-44.0	13.6	5.30e-06	0	57	0	1114636288	52	5437
2026-01-08 23:57:55.54	200.38	19.22	-40.8	-44.0	13.6	3.80e-06	0	57	0	1116733440	52	5426
2026-01-08 23:57:56.55	200.37	19.09	-41.0	-44.2	13.4	1.14e-05	0	57	0	1118830592	52	5560
2026-01-08 23:57:57.56	200.37	18.96	-41.0	-44.3	13.3	2.36e-05	0	57	0	1120927744	52	5618
2026-01-08 23:57:58.57	200.37	18.84	-41.1	-44.4	13.2	1.67e-05	0	57	0	1123024896	52	5666
2026-01-08 23:57:59.58	200.37	18.71	-41.4	-45.1	12.6	4.57e-05	0	57	0	1124073472	53	5794
2026-01-08 23:58:00.59	200.37	18.58	-41.6	-45.3	12.3	1.71e-04	0	57	0	1126170624	53	5987
2026-01-08 23:58:01.60	200.36	18.46	-41.6	-45.3	12.2	1.77e-04	0	57	0	1128267776	53	5977
2026-01-08 23:58:02.61	200.36	18.34	-41.9	-46.1	11.5	3.33e-04	0	57	0	1130364928	54	6169
2026-01-08 23:58:03.62	200.36	18.21	-42.0	-46.1	11.4	9.67e-04	0	57	0	1132462080	54	6174
2026-01-08 23:58:04.63	200.36	18.09	-42.0	-46.1	11.4	1.08e-03	0	57	0	1133510656	54	6187
2026-01-08 23:58:05.64	200.35	17.97	-42.2	-46.7	10.8	1.61e-03	0	57	0	1135607808	54	6617
2026-01-08 23:58:06.64	200.35	17.84	-42.1	-46.4	11.1	1.85e-03	0	57	0	1137704960	55	6035
2026-01-08 23:58:07.65	200.35	17.72	-42.1	-46.4	11.0	1.68e-03	0	57	0	1139802112	55	6053
2026-01-08 23:58:08.66	200.35	17.60	-42.1	-46.4	11.1	2.83e-03	0	57	0	1141899264	55	6033
2026-01-08 23:58:09.67	200.35	17.48	-42.1	-46.5	11.0	1.81e-03	0	57	0	1142947840	55	6094
2026-01-08 23:58:10.68	200.34	17.36	-42.2	-46.7	10.8	1.99e-03	0	57	0	1145044992	55	6212
2026-01-08 23:58:11.69	200.34	17.24	-42.1	-46.4	11.1	2.00e-03	0	57	0	1147142144	55	6001
2026-01-08 23:58:12.70	200.34	17.12	-42.0	-46.3	11.1	1.73e-03	0	57	0	1149239296	55	5990
2026-01-08 23:58:13.71	200.34	17.01	-42.1	-46.5	10.9	1.75e-03	0	57	0	1151336448	55	6114
2026-01-08 23:58:14.72	200.34	16.89	-42.0	-46.2	11.4	8.09e-04	0	57	0	1152385024	55	5868
2026-01-08 23:58:15.73	200.34	16.77	-41.7	-45.7	11.8	7.88e-04	0	57	0	1154482176	55	5580
2026-01-08 23:58:16.74	200.33	16.66	-41.8	-45.9	11.6	7.05e-04	0	57	0	1156579328	55	5684
2026-01-08 23:58:17.75	200.33	16.54	-41.7	-45.7	11.8	6.03e-04	0	57	0	1158676480	55	5567
2026-01-08 23:58:18.76	200.33	16.42	-41.6	-45.5	12.0	4.10e-04	0	57	0	1160773632	55	5419
2026-01-08 23:58:19.77	200.33	16.31	-41.5	-45.3	12.3	1.83e-04	0	57	0	1162870784	55	5285
2026-01-08 23:58:20.78	200.33	16.20	-41.4	-45.0	12.5	1.13e-04	0	57	0	1163919360	54	5446
2026-01-08 23:58:21.79	200.33	16.08	-41.2	-44.7	12.8	8.16e-05	0	57	0	1166016512	54	5225
2026-01-08 23:58:22.80	200.32	15.97	-41.2	-44.7	12.8	8.69e-05	0	57	0	1168113664	54	5256
2026-01-08 23:58:23.81	200.32	15.86	-41.1	-44.5	13.0	5.11e-05	0	57	0	1170210816	54	5114
2026-01-08 23:58:24.82	200.32	15.74	-41.2	-44.7	12.9	5.34e-05	0	57	0	1172307968	54	5227
2026-01-08 23:58:25.83	200.32	15.63	-41.1	-44.4	13.0	6.40e-05	0	57	0	1173356544	54	5094
2026-01-08 23:58:26.83	200.32	15.52	-41.1	-44.5	13.0	2.21e-05	0	57	0	1175453696	53	5430
