passes_logs/2026/01/08/R2.0S_Moscow/R2.0S_Moscow__20260108_105658_FENGYUN_3D_rec.log

#Pass ID: 20260108_105658_FENGYUN 3D
#Satellite: FENGYUN 3D
#Configuration: FENGYUN 3D
#almurnet v.1.7.20251203
#Start time: 2026-01-08 10:58:20

#Version: 2.2.20231116
#Station: R2.0S_Moscow
#Location: 37.707566 lon 55.798166 lat
#TLE: 1 43010U 17072A   26006.26440730  .00000376  00000+0  19957-3 0  9994
#TLE: 2 43010  98.9925 337.9455 0002045 123.9195 236.2175 14.19693586422016

#Time	Az	El	Level	Level2	SNR	BER	BlckErr	Temp	State	Recorded	gain1	gain2
2026-01-08 10:58:20.13	127.27	7.49	-45.9	-64.8	3.8	7.45e-01	0	58	0	0	62	33478
2026-01-08 10:58:21.13	127.21	7.57	-45.4	-57.1	3.8	8.47e-01	0	59	104	0	62	13728
2026-01-08 10:58:22.14	127.15	7.64	-45.4	-57.0	3.8	8.46e-01	0	59	104	0	62	13718
2026-01-08 10:58:23.15	127.09	7.72	-45.4	-57.1	3.8	8.46e-01	0	59	104	0	62	13729
2026-01-08 10:58:24.16	127.03	7.79	-45.3	-57.0	3.8	8.47e-01	0	59	104	0	62	13686
2026-01-08 10:58:25.17	126.97	7.87	-45.3	-56.9	3.8	8.47e-01	0	59	104	0	62	13506
2026-01-08 10:58:26.18	126.90	7.94	-45.2	-56.9	3.8	8.45e-01	0	59	104	0	62	13443
2026-01-08 10:58:27.19	126.84	8.02	-45.1	-56.8	3.8	8.47e-01	0	59	104	0	62	13390
2026-01-08 10:58:28.20	126.78	8.10	-44.9	-56.7	3.8	8.45e-01	0	59	104	0	61	13935
2026-01-08 10:58:29.21	126.72	8.17	-44.7	-56.4	3.8	8.47e-01	0	59	104	0	60	14306
2026-01-08 10:58:30.22	126.65	8.25	-43.9	-56.0	3.8	8.47e-01	0	59	104	0	58	15233
2026-01-08 10:58:31.23	126.59	8.32	-38.1	-52.8	3.8	8.45e-01	0	59	104	0	52	15016
2026-01-08 10:58:32.24	126.52	8.40	-33.7	-49.8	3.9	8.46e-01	0	58	104	0	47	14067
2026-01-08 10:58:33.25	126.46	8.48	-43.0	-54.9	3.9	8.41e-01	0	59	104	0	55	15959
2026-01-08 10:58:34.26	126.40	8.55	-40.2	-53.7	4.0	8.45e-01	0	59	104	0	51	17669
2026-01-08 10:58:35.27	126.33	8.63	-42.2	-54.5	4.1	8.44e-01	0	59	104	0	54	16176
2026-01-08 10:58:36.28	126.26	8.71	-38.9	-53.9	3.9	8.46e-01	0	59	104	0	54	15163
2026-01-08 10:58:37.29	126.20	8.79	-40.4	-53.4	3.8	8.44e-01	0	59	104	0	55	13523
2026-01-08 10:58:38.30	126.13	8.86	-42.5	-54.3	3.8	8.45e-01	0	58	104	0	54	15763
2026-01-08 10:58:39.31	126.07	8.94	-42.9	-54.5	4.0	8.46e-01	0	59	104	0	55	15364
2026-01-08 10:58:40.32	126.00	9.02	-40.7	-53.3	3.9	8.45e-01	0	59	104	0	54	14177
2026-01-08 10:58:41.33	125.93	9.10	-41.7	-53.5	4.0	8.45e-01	0	58	104	0	43	27151
2026-01-08 10:58:42.34	125.86	9.18	-43.2	-53.5	3.9	8.45e-01	0	59	104	0	54	14511
2026-01-08 10:58:43.35	125.79	9.26	-41.7	-54.3	4.0	8.45e-01	0	59	104	0	55	15028
2026-01-08 10:58:44.36	125.73	9.34	-39.9	-53.2	4.2	8.44e-01	0	59	104	0	53	14788
2026-01-08 10:58:45.37	125.66	9.42	-40.1	-54.0	3.6	8.46e-01	0	59	104	0	55	14540
2026-01-08 10:58:46.38	125.59	9.50	-42.8	-54.9	3.9	8.45e-01	0	59	104	0	52	19082
2026-01-08 10:58:47.39	125.52	9.57	-42.9	-55.0	3.9	8.46e-01	0	59	104	0	55	16269
2026-01-08 10:58:48.40	125.45	9.65	-41.4	-54.8	3.6	8.46e-01	0	59	104	0	50	21157
2026-01-08 10:58:49.41	125.38	9.73	-42.3	-55.0	3.9	8.44e-01	0	59	104	0	55	16135
2026-01-08 10:58:50.42	125.31	9.82	-27.9	-45.0	4.0	8.46e-01	0	59	104	0	28	24324
2026-01-08 10:58:51.43	125.23	9.90	-42.6	-54.4	3.8	8.42e-01	0	59	104	0	52	17894
2026-01-08 10:58:52.44	125.16	9.98	-42.9	-53.7	3.8	8.46e-01	0	59	104	0	54	14833
2026-01-08 10:58:53.45	125.09	10.06	-43.3	-54.6	3.8	8.46e-01	0	59	104	0	54	16458
2026-01-08 10:58:54.46	125.02	10.14	-41.5	-53.2	4.0	8.45e-01	0	59	104	0	52	15604
2026-01-08 10:58:55.47	124.94	10.22	-41.5	-53.1	3.8	8.45e-01	0	59	104	0	47	20562
2026-01-08 10:58:56.48	124.87	10.30	-39.2	-52.3	3.8	8.45e-01	0	59	104	0	53	13265
2026-01-08 10:58:57.49	124.80	10.38	-37.5	-52.0	3.9	8.45e-01	0	59	104	0	54	12181
2026-01-08 10:58:58.50	124.72	10.47	-42.4	-51.9	3.8	8.45e-01	0	59	104	0	53	12749
2026-01-08 10:58:59.51	124.65	10.55	-39.5	-50.3	4.3	8.36e-01	0	59	0	0	53	10538
2026-01-08 10:59:00.52	124.57	10.63	-32.9	-45.9	4.3	8.37e-01	0	59	0	0	46	9549
2026-01-08 10:59:01.53	124.50	10.71	-39.1	-50.0	4.6	8.18e-01	0	59	0	0	53	10219
2026-01-08 10:59:02.54	124.42	10.80	-40.4	-49.3	4.7	7.96e-01	0	59	0	0	52	10047
2026-01-08 10:59:03.55	124.35	10.88	-38.2	-48.7	5.1	7.92e-01	0	59	0	0	52	9374
2026-01-08 10:59:04.56	124.27	10.96	-41.2	-48.4	5.4	7.31e-01	0	59	0	0	52	9065
2026-01-08 10:59:05.58	124.19	11.05	-41.8	-47.6	6.3	5.27e-01	0	59	0	2097152	54	7357
2026-01-08 10:59:06.58	124.11	11.13	-39.9	-46.8	6.4	4.53e-01	0	59	0	6291456	51	7953
2026-01-08 10:59:07.60	124.03	11.22	-39.8	-45.9	6.7	2.45e-01	0	59	0	10485760	48	8530
2026-01-08 10:59:08.61	123.95	11.30	-31.2	-42.6	5.7	5.69e-01	0	58	0	14680064	40	9250
2026-01-08 10:59:09.61	123.88	11.39	-35.2	-42.9	9.1	6.70e-02	0	59	0	18874368	46	6759
2026-01-08 10:59:10.62	123.80	11.47	-39.5	-43.1	10.3	3.75e-02	0	59	0	23068672	49	5805
2026-01-08 10:59:11.63	123.72	11.56	-39.3	-42.3	10.8	4.30e-02	0	59	0	29360128	48	5612
2026-01-08 10:59:12.64	123.64	11.64	-30.9	-39.9	8.5	2.42e-01	0	59	0	34603008	44	5370
2026-01-08 10:59:13.65	123.55	11.73	-38.1	-40.5	13.0	1.34e-02	0	59	0	39845888	46	5156
2026-01-08 10:59:14.66	123.47	11.81	-42.4	-51.3	4.1	7.34e-01	0	59	104	42991616	49	14940
2026-01-08 10:59:15.67	123.39	11.90	-42.5	-52.9	3.7	8.43e-01	0	59	104	42991616	50	16889
2026-01-08 10:59:16.68	123.31	11.99	-35.9	-39.2	13.9	1.62e-02	0	59	0	45088768	43	5255
2026-01-08 10:59:17.69	123.22	12.07	-39.8	-44.1	9.8	2.94e-02	0	59	0	50331648	51	5850
2026-01-08 10:59:18.70	123.14	12.16	-34.3	-40.0	12.0	7.61e-02	0	59	0	55574528	43	5754
2026-01-08 10:59:19.71	123.06	12.25	-37.5	-40.4	12.0	1.47e-01	0	59	0	60817408	45	5381
2026-01-08 10:59:20.72	122.97	12.33	-36.2	-39.3	12.0	1.25e-02	0	58	0	66060288	43	5281
2026-01-08 10:59:21.73	122.89	12.42	-30.4	-37.6	6.8	3.05e-01	0	59	0	71303168	32	8261
2026-01-08 10:59:22.74	122.80	12.51	-32.7	-38.2	6.6	6.03e-01	0	59	0	73400320	28	11090
2026-01-08 10:59:23.75	122.71	12.60	-30.2	-37.6	7.2	5.27e-01	0	59	0	75497472	29	9724
2026-01-08 10:59:24.76	122.63	12.69	-30.6	-38.4	8.3	4.96e-01	0	59	0	78643200	33	8552
2026-01-08 10:59:25.77	122.54	12.77	-32.5	-38.1	7.5	2.22e-01	0	59	0	81788928	34	7787
2026-01-08 10:59:26.78	122.45	12.86	-31.3	-38.0	8.4	6.05e-01	0	59	0	84934656	33	8114
2026-01-08 10:59:27.79	122.36	12.95	-34.1	-39.1	10.6	2.77e-01	0	59	0	89128960	41	5809
2026-01-08 10:59:28.80	122.28	13.04	-30.3	-38.4	8.6	6.35e-02	0	59	0	94371840	39	6030
2026-01-08 10:59:29.80	122.19	13.13	-36.0	-39.0	11.3	1.62e-01	0	59	0	98566144	42	5437
2026-01-08 10:59:30.81	122.10	13.22	-36.9	-39.4	13.6	6.02e-03	0	59	0	103809024	45	4786
2026-01-08 10:59:31.82	122.01	13.31	-37.0	-39.2	14.4	5.23e-03	0	59	0	110100480	44	4960
2026-01-08 10:59:32.83	121.91	13.40	-36.3	-38.8	14.0	4.58e-03	0	59	0	115343360	43	5006
2026-01-08 10:59:33.84	121.82	13.49	-36.6	-38.8	14.4	3.34e-03	0	59	0	121634816	43	5033
2026-01-08 10:59:34.85	121.73	13.58	-36.5	-39.0	14.0	8.58e-03	0	59	0	126877696	43	5101
2026-01-08 10:59:35.86	121.64	13.67	-36.7	-39.0	13.4	5.49e-03	0	59	0	132120576	43	5128
2026-01-08 10:59:36.87	121.54	13.77	-36.6	-39.1	14.2	3.14e-03	0	59	0	138412032	44	4915
2026-01-08 10:59:37.88	121.45	13.86	-36.9	-39.1	14.7	4.61e-03	0	59	0	143654912	44	4896
2026-01-08 10:59:38.89	121.36	13.95	-36.9	-39.1	14.6	3.15e-03	0	59	0	149946368	44	4922
2026-01-08 10:59:39.90	121.26	14.04	-37.1	-39.2	14.7	4.40e-03	0	59	0	155189248	44	4980
2026-01-08 10:59:40.91	121.16	14.14	-36.9	-39.2	14.6	2.81e-03	0	59	0	160432128	44	4929
2026-01-08 10:59:41.92	121.07	14.23	-36.1	-39.0	14.2	1.44e-03	0	59	0	166723584	44	4870
2026-01-08 10:59:42.93	120.97	14.32	-36.9	-39.1	14.9	1.86e-03	0	59	0	171966464	44	4877
2026-01-08 10:59:43.94	120.87	14.41	-36.9	-39.1	14.6	3.14e-03	0	59	0	178257920	44	4901
2026-01-08 10:59:44.95	120.77	14.51	-35.6	-38.8	13.2	5.29e-03	0	59	0	183500800	42	5312
2026-01-08 10:59:45.96	120.67	14.60	-37.0	-39.1	14.9	1.30e-02	0	59	0	188743680	44	4896
2026-01-08 10:59:46.97	120.57	14.70	-36.8	-38.9	15.0	9.70e-04	0	59	0	195035136	44	4800
2026-01-08 10:59:47.98	120.47	14.79	-35.9	-38.7	14.9	2.02e-03	0	58	0	200278016	43	4959
2026-01-08 10:59:48.99	120.37	14.89	-36.6	-38.6	14.9	8.24e-04	0	59	0	206569472	43	4920
2026-01-08 10:59:50.00	120.27	14.98	-36.1	-38.6	14.2	1.17e-02	0	59	0	211812352	42	5175
2026-01-08 10:59:51.01	120.17	15.08	-35.6	-38.4	12.9	4.64e-03	0	59	0	218103808	43	4788
2026-01-08 10:59:52.03	120.07	15.17	-36.6	-38.6	15.1	1.48e-03	0	59	0	223346688	43	4910
2026-01-08 10:59:53.03	119.96	15.27	-36.7	-38.6	15.0	1.15e-03	0	59	0	229638144	43	4919
2026-01-08 10:59:54.04	119.86	15.36	-36.5	-38.5	15.2	5.40e-03	0	59	0	234881024	43	4828
2026-01-08 10:59:55.05	119.75	15.46	-36.5	-38.5	14.9	8.59e-04	0	59	0	240123904	43	4826
2026-01-08 10:59:56.06	119.65	15.56	-34.7	-38.3	11.8	7.08e-03	0	59	0	246415360	38	6328
2026-01-08 10:59:57.07	119.54	15.66	-34.6	-38.1	13.4	9.20e-03	0	59	0	251658240	41	5197
2026-01-08 10:59:58.08	119.43	15.75	-36.2	-38.2	15.5	3.52e-04	0	59	0	257949696	43	4674
2026-01-08 10:59:59.09	119.33	15.85	-36.4	-38.2	15.7	3.41e-04	0	59	0	263192576	43	4677
2026-01-08 11:00:00.11	119.22	15.95	-36.3	-38.2	15.8	6.19e-04	0	59	0	268435456	43	4654
2026-01-08 11:00:01.11	119.11	16.05	-36.1	-38.2	15.9	9.61e-05	0	59	0	274726912	43	4690
2026-01-08 11:00:02.12	119.00	16.15	-35.9	-38.1	15.6	8.68e-03	0	59	0	279969792	42	4871
2026-01-08 11:00:03.13	118.89	16.24	-36.4	-38.2	16.0	1.96e-04	0	59	0	286261248	43	4675
2026-01-08 11:00:04.15	118.77	16.34	-36.1	-38.0	15.9	1.73e-04	0	59	0	291504128	43	4577
2026-01-08 11:00:05.16	118.66	16.44	-35.4	-38.1	15.6	1.38e-04	0	59	0	296747008	38	6171
2026-01-08 11:00:06.17	118.55	16.54	-36.2	-37.9	16.3	2.63e-05	0	59	0	303038464	43	4541
2026-01-08 11:00:07.18	118.43	16.64	-36.2	-37.9	16.3	1.60e-05	0	59	0	308281344	43	4527
2026-01-08 11:00:08.19	118.32	16.74	-36.3	-38.0	16.3	1.14e-05	0	59	0	314572800	43	4555
2026-01-08 11:00:09.20	118.20	16.84	-36.2	-37.9	16.4	4.00e-05	0	59	0	319815680	43	4507
2026-01-08 11:00:10.21	118.09	16.95	-36.2	-37.9	16.3	5.70e-06	0	59	0	325058560	42	4804
2026-01-08 11:00:11.22	117.97	17.05	-36.2	-37.9	16.0	1.48e-05	0	59	0	331350016	43	4500
2026-01-08 11:00:12.23	117.85	17.15	-36.2	-37.9	16.4	1.10e-06	0	59	0	336592896	43	4508
2026-01-08 11:00:13.24	117.73	17.25	-36.3	-38.0	16.4	0.00e+00	0	59	0	342884352	43	4548
2026-01-08 11:00:14.25	117.62	17.35	-36.1	-37.9	16.4	1.10e-06	0	59	0	348127232	43	4510
2026-01-08 11:00:15.26	117.49	17.45	-36.1	-37.9	16.3	0.00e+00	0	59	0	354418688	43	4511
2026-01-08 11:00:16.27	117.37	17.56	-36.2	-37.9	16.4	0.00e+00	0	59	0	359661568	43	4537
2026-01-08 11:00:17.28	117.25	17.66	-36.2	-37.9	16.2	0.00e+00	0	58	0	364904448	43	4535
2026-01-08 11:00:18.29	117.13	17.76	-36.3	-38.0	16.4	0.00e+00	0	59	0	371195904	43	4549
2026-01-08 11:00:19.29	117.01	17.87	-36.2	-37.9	16.4	0.00e+00	0	59	0	376438784	43	4521
2026-01-08 11:00:20.30	116.88	17.97	-36.2	-37.9	16.5	0.00e+00	0	59	0	382730240	43	4507
2026-01-08 11:00:21.32	116.76	18.07	-36.2	-37.9	16.5	0.00e+00	0	59	0	387973120	43	4508
2026-01-08 11:00:22.33	116.63	18.18	-36.0	-37.7	16.7	0.00e+00	0	59	0	393216000	43	4394
2026-01-08 11:00:23.34	116.50	18.28	-36.0	-37.7	16.7	0.00e+00	0	59	0	399507456	43	4397
2026-01-08 11:00:24.35	116.37	18.39	-35.9	-37.5	16.8	0.00e+00	0	59	0	404750336	43	4336
2026-01-08 11:00:25.36	116.24	18.49	-35.9	-37.5	16.9	0.00e+00	0	59	0	411041792	43	4325
2026-01-08 11:00:26.37	116.11	18.60	-35.9	-37.5	16.8	0.00e+00	0	59	0	416284672	43	4334
2026-01-08 11:00:27.38	115.98	18.71	-35.9	-37.5	16.9	0.00e+00	0	59	0	422576128	43	4326
2026-01-08 11:00:28.39	115.85	18.81	-35.8	-37.5	16.8	1.10e-06	0	59	0	427819008	43	4311
2026-01-08 11:00:29.39	115.72	18.92	-35.9	-37.5	16.9	0.00e+00	0	59	0	433061888	43	4295
2026-01-08 11:00:30.40	115.59	19.02	-35.9	-37.5	16.8	0.00e+00	0	59	0	439353344	43	4322
2026-01-08 11:00:31.41	115.45	19.13	-35.9	-37.5	16.9	1.10e-06	0	58	0	444596224	43	4327
2026-01-08 11:00:32.42	115.32	19.24	-35.9	-37.5	16.9	3.40e-06	0	59	0	450887680	43	4329
2026-01-08 11:00:33.43	115.18	19.35	-35.8	-37.5	16.9	2.20e-06	0	59	0	456130560	42	4546
2026-01-08 11:00:34.44	115.04	19.45	-35.8	-37.4	17.0	0.00e+00	0	59	0	462422016	42	4538
2026-01-08 11:00:35.45	114.90	19.56	-35.7	-37.3	16.9	0.00e+00	0	59	0	467664896	42	4470
2026-01-08 11:00:36.46	114.77	19.67	-35.7	-37.4	17.0	0.00e+00	0	59	0	472907776	42	4494
2026-01-08 11:00:37.47	114.62	19.78	-35.5	-37.2	17.2	2.20e-06	0	59	0	479199232	41	4671
2026-01-08 11:00:38.48	114.48	19.89	-35.6	-37.2	17.2	3.40e-06	0	59	0	484442112	41	4676
2026-01-08 11:00:39.49	114.34	20.00	-35.6	-37.2	17.2	0.00e+00	0	59	0	490733568	41	4678
2026-01-08 11:00:40.50	114.20	20.11	-35.6	-37.2	17.3	0.00e+00	0	59	0	495976448	41	4662
2026-01-08 11:00:41.51	114.05	20.22	-35.5	-37.0	17.4	0.00e+00	0	59	0	501219328	41	4594
2026-01-08 11:00:42.52	113.91	20.33	-35.4	-37.0	17.4	0.00e+00	0	58	0	507510784	41	4559
2026-01-08 11:00:43.53	113.76	20.44	-35.5	-37.0	17.4	0.00e+00	0	59	0	512753664	41	4576
2026-01-08 11:00:44.54	113.61	20.55	-35.5	-37.0	17.5	0.00e+00	0	59	0	519045120	41	4557
2026-01-08 11:00:45.55	113.46	20.66	-35.5	-37.0	17.4	0.00e+00	0	59	0	524288000	41	4576
2026-01-08 11:00:46.56	113.31	20.77	-35.5	-37.0	17.4	0.00e+00	0	59	0	530579456	41	4583
2026-01-08 11:00:47.57	113.16	20.89	-35.6	-37.1	17.3	0.00e+00	0	59	0	535822336	41	4619
2026-01-08 11:00:48.58	113.01	21.00	-35.6	-37.1	17.4	0.00e+00	0	59	0	541065216	41	4623
2026-01-08 11:00:49.59	112.86	21.11	-35.5	-37.1	17.4	0.00e+00	0	59	0	547356672	41	4614
2026-01-08 11:00:50.60	112.70	21.22	-35.4	-36.9	17.6	0.00e+00	0	59	0	552599552	41	4513
2026-01-08 11:00:51.61	112.55	21.34	-35.3	-36.9	17.6	0.00e+00	0	59	0	558891008	41	4500
2026-01-08 11:00:52.62	112.39	21.45	-35.2	-36.7	17.8	0.00e+00	0	59	0	564133888	41	4406
2026-01-08 11:00:53.63	112.23	21.56	-35.1	-36.6	17.9	0.00e+00	0	59	0	570425344	41	4348
2026-01-08 11:00:54.64	112.07	21.68	-35.1	-36.5	17.9	0.00e+00	0	59	0	575668224	41	4324
2026-01-08 11:00:55.65	111.91	21.79	-35.0	-36.4	18.0	0.00e+00	0	59	0	580911104	41	4284
2026-01-08 11:00:56.66	111.75	21.90	-34.9	-36.4	18.1	0.00e+00	0	59	0	587202560	41	4263
2026-01-08 11:00:57.67	111.59	22.02	-34.9	-36.4	18.1	0.00e+00	0	59	0	592445440	41	4263
2026-01-08 11:00:58.68	111.42	22.13	-35.0	-36.4	18.0	0.00e+00	0	59	0	598736896	41	4287
2026-01-08 11:00:59.69	111.26	22.25	-35.0	-36.5	17.9	0.00e+00	0	59	0	603979776	41	4317
2026-01-08 11:01:00.70	111.09	22.36	-35.1	-36.6	17.9	0.00e+00	0	59	0	609222656	41	4344
2026-01-08 11:01:01.71	110.92	22.48	-35.1	-36.6	17.9	0.00e+00	0	59	0	615514112	41	4364
2026-01-08 11:01:02.72	110.76	22.60	-35.2	-36.7	17.8	0.00e+00	0	59	0	620756992	41	4392
2026-01-08 11:01:03.73	110.59	22.71	-35.1	-36.6	17.9	0.00e+00	0	59	0	627048448	41	4344
2026-01-08 11:01:04.74	110.41	22.83	-35.1	-36.5	18.0	0.00e+00	0	59	0	632291328	41	4328
2026-01-08 11:01:05.75	110.24	22.95	-35.0	-36.4	18.0	0.00e+00	0	59	0	638582784	41	4289
2026-01-08 11:01:06.76	110.07	23.06	-34.9	-36.3	18.1	0.00e+00	0	58	0	643825664	41	4240
2026-01-08 11:01:07.77	109.89	23.18	-34.9	-36.3	18.2	0.00e+00	0	59	0	649068544	41	4223
2026-01-08 11:01:08.78	109.71	23.30	-34.8	-36.2	18.3	0.00e+00	0	59	0	655360000	41	4168
2026-01-08 11:01:09.79	109.54	23.41	-34.8	-36.3	18.2	0.00e+00	0	59	0	660602880	41	4194
2026-01-08 11:01:10.80	109.36	23.53	-34.8	-36.2	18.3	0.00e+00	0	59	0	666894336	41	4163
2026-01-08 11:01:11.81	109.18	23.65	-34.8	-36.2	18.2	0.00e+00	0	59	0	672137216	41	4176
2026-01-08 11:01:12.83	108.99	23.77	-34.9	-36.3	18.2	0.00e+00	0	59	0	677380096	41	4220
2026-01-08 11:01:13.83	108.81	23.89	-34.9	-36.4	18.1	0.00e+00	0	59	0	683671552	41	4274
2026-01-08 11:01:14.84	108.62	24.01	-35.0	-36.5	18.0	0.00e+00	0	59	0	688914432	41	4300
2026-01-08 11:01:15.85	108.44	24.12	-35.1	-36.6	17.9	0.00e+00	0	59	0	695205888	41	4343
2026-01-08 11:01:16.86	108.25	24.24	-35.0	-36.5	18.0	0.00e+00	0	59	0	700448768	41	4325
2026-01-08 11:01:17.87	108.06	24.36	-34.9	-36.3	18.1	0.00e+00	0	59	0	705691648	41	4240
2026-01-08 11:01:18.88	107.87	24.48	-34.9	-36.3	18.1	0.00e+00	0	59	0	711983104	41	4238
2026-01-08 11:01:19.89	107.68	24.60	-34.8	-36.3	18.2	0.00e+00	0	59	0	717225984	41	4203
2026-01-08 11:01:20.90	107.48	24.72	-34.7	-36.2	18.3	0.00e+00	0	59	0	723517440	41	4148
2026-01-08 11:01:21.91	107.29	24.84	-34.7	-36.1	18.4	0.00e+00	0	59	0	728760320	41	4123
2026-01-08 11:01:22.92	107.09	24.96	-34.6	-36.0	18.4	0.00e+00	0	59	0	735051776	41	4078
2026-01-08 11:01:23.93	106.89	25.08	-34.5	-35.9	18.6	0.00e+00	0	59	0	740294656	41	4026
2026-01-08 11:01:24.95	106.69	25.21	-34.5	-35.9	18.6	0.00e+00	0	59	0	745537536	40	4261
2026-01-08 11:01:25.96	106.49	25.33	-34.4	-35.8	18.7	0.00e+00	0	59	0	751828992	40	4225
2026-01-08 11:01:26.96	106.29	25.45	-34.4	-35.8	18.6	0.00e+00	0	59	0	757071872	40	4238
2026-01-08 11:01:27.97	106.09	25.57	-34.5	-35.8	18.6	0.00e+00	0	59	0	763363328	40	4242
2026-01-08 11:01:28.98	105.88	25.69	-34.5	-35.9	18.6	0.00e+00	0	59	0	768606208	40	4251
2026-01-08 11:01:29.99	105.67	25.81	-34.5	-35.9	18.6	0.00e+00	0	59	0	774897664	40	4266
2026-01-08 11:01:31.00	105.46	25.93	-34.6	-36.0	18.6	0.00e+00	0	59	0	780140544	40	4293
2026-01-08 11:01:32.01	105.25	26.05	-34.6	-36.0	18.5	0.00e+00	0	59	0	785383424	40	4328
2026-01-08 11:01:33.02	105.04	26.18	-34.6	-36.0	18.6	0.00e+00	0	59	0	791674880	40	4311
2026-01-08 11:01:34.03	104.82	26.30	-34.6	-36.0	18.5	0.00e+00	0	59	0	796917760	40	4331
2026-01-08 11:01:35.04	104.61	26.42	-34.6	-36.0	18.5	0.00e+00	0	59	0	803209216	40	4340
2026-01-08 11:01:36.05	104.39	26.54	-34.5	-35.9	18.6	0.00e+00	0	59	0	808452096	40	4284
2026-01-08 11:01:37.06	104.17	26.66	-34.4	-35.8	18.7	0.00e+00	0	59	0	813694976	40	4230
2026-01-08 11:01:38.07	103.95	26.79	-34.4	-35.7	18.8	0.00e+00	0	59	0	819986432	40	4182
2026-01-08 11:01:39.08	103.73	26.91	-34.3	-35.7	18.9	0.00e+00	0	59	0	825229312	40	4156
2026-01-08 11:01:40.09	103.50	27.03	-34.3	-35.7	18.8	0.00e+00	0	59	0	831520768	40	4166
2026-01-08 11:01:41.10	103.28	27.15	-34.3	-35.6	18.9	0.00e+00	0	59	0	836763648	40	4138
2026-01-08 11:01:42.11	103.05	27.28	-34.3	-35.6	18.9	0.00e+00	0	59	0	842006528	40	4143
2026-01-08 11:01:43.12	102.82	27.40	-34.3	-35.7	18.9	0.00e+00	0	59	0	848297984	40	4165
2026-01-08 11:01:44.13	102.59	27.52	-34.4	-35.7	18.8	0.00e+00	0	59	0	853540864	40	4186
2026-01-08 11:01:45.14	102.35	27.64	-34.4	-35.8	18.7	0.00e+00	0	59	0	859832320	40	4227
2026-01-08 11:01:46.15	102.12	27.77	-34.5	-35.8	18.7	0.00e+00	0	59	0	865075200	40	4239
2026-01-08 11:01:47.16	101.88	27.89	-34.4	-35.8	18.8	0.00e+00	0	59	0	871366656	40	4206
2026-01-08 11:01:48.18	101.64	28.01	-34.3	-35.6	18.9	0.00e+00	0	58	0	876609536	40	4128
2026-01-08 11:01:49.18	101.40	28.13	-34.2	-35.6	19.0	0.00e+00	0	59	0	882900992	40	4108
2026-01-08 11:01:50.20	101.16	28.26	-34.2	-35.5	19.0	0.00e+00	0	59	0	888143872	40	4096
2026-01-08 11:01:51.20	100.92	28.38	-34.2	-35.5	19.0	0.00e+00	0	59	0	893386752	40	4090
2026-01-08 11:01:52.21	100.67	28.50	-34.3	-35.7	18.9	0.00e+00	0	59	0	899678208	40	4146
2026-01-08 11:01:53.22	100.42	28.62	-34.4	-35.8	18.8	0.00e+00	0	59	0	904921088	40	4196
2026-01-08 11:01:54.23	100.17	28.75	-34.3	-35.7	18.9	0.00e+00	0	59	0	911212544	40	4163
2026-01-08 11:01:55.24	99.92	28.87	-34.3	-35.7	18.9	0.00e+00	0	59	0	916455424	40	4153
2026-01-08 11:01:56.25	99.67	28.99	-34.3	-35.7	18.9	0.00e+00	0	59	0	921698304	40	4162
2026-01-08 11:01:57.26	99.41	29.11	-34.4	-35.7	18.9	0.00e+00	0	59	0	927989760	40	4178
2026-01-08 11:01:58.27	99.15	29.24	-34.4	-35.7	18.8	0.00e+00	0	59	0	933232640	40	4188
2026-01-08 11:01:59.28	98.89	29.36	-34.3	-35.7	18.9	0.00e+00	0	59	0	939524096	40	4165
2026-01-08 11:02:00.29	98.63	29.48	-34.3	-35.6	19.0	0.00e+00	0	58	0	944766976	40	4127
2026-01-08 11:02:01.30	98.37	29.60	-34.3	-35.7	18.9	0.00e+00	0	59	0	950009856	40	4148
2026-01-08 11:02:02.31	98.10	29.72	-34.4	-35.7	18.9	0.00e+00	0	59	0	956301312	40	4183
2026-01-08 11:02:03.32	97.83	29.84	-34.3	-35.7	18.9	0.00e+00	0	59	0	961544192	40	4158
2026-01-08 11:02:04.33	97.56	29.96	-34.2	-35.5	19.0	0.00e+00	0	59	0	967835648	40	4097
2026-01-08 11:02:05.34	97.29	30.09	-34.1	-35.4	19.1	0.00e+00	0	59	0	973078528	40	4044
2026-01-08 11:02:06.35	97.02	30.21	-34.2	-35.5	19.1	0.00e+00	0	59	0	979369984	40	4073
2026-01-08 11:02:07.36	96.74	30.33	-34.1	-35.4	19.1	0.00e+00	0	59	0	984612864	40	4046
2026-01-08 11:02:08.37	96.47	30.45	-34.1	-35.5	19.1	0.00e+00	0	59	0	989855744	40	4057
2026-01-08 11:02:09.38	96.18	30.57	-34.2	-35.6	19.0	0.00e+00	0	59	0	996147200	40	4102
2026-01-08 11:02:10.39	95.90	30.69	-34.2	-35.6	19.0	0.00e+00	0	59	0	1001390080	40	4109
2026-01-08 11:02:11.40	95.62	30.81	-34.2	-35.6	19.0	0.00e+00	0	59	0	1007681536	40	4103
2026-01-08 11:02:12.41	95.33	30.92	-34.2	-35.6	19.0	0.00e+00	0	59	0	1012924416	40	4105
2026-01-08 11:02:13.42	95.04	31.04	-34.2	-35.5	19.1	0.00e+00	0	59	0	1018167296	40	4085
2026-01-08 11:02:14.43	94.75	31.16	-34.0	-35.3	19.3	0.00e+00	0	59	0	1024458752	40	3984
2026-01-08 11:02:15.44	94.46	31.28	-34.0	-35.3	19.4	0.00e+00	0	59	0	1029701632	39	4223
2026-01-08 11:02:16.45	94.17	31.40	-34.0	-35.3	19.3	0.00e+00	0	59	0	1035993088	39	4237
2026-01-08 11:02:17.46	93.87	31.51	-34.1	-35.4	19.2	0.00e+00	0	59	0	1041235968	39	4269
2026-01-08 11:02:18.47	93.57	31.63	-34.1	-35.4	19.2	0.00e+00	0	59	0	1046478848	39	4263
2026-01-08 11:02:19.48	93.27	31.75	-34.0	-35.3	19.3	0.00e+00	0	59	0	1052770304	39	4229
2026-01-08 11:02:20.49	92.96	31.86	-33.9	-35.2	19.5	0.00e+00	0	59	0	1058013184	39	4151
2026-01-08 11:02:21.50	92.66	31.98	-33.8	-35.0	19.6	0.00e+00	0	59	0	1064304640	39	4094
2026-01-08 11:02:22.51	92.35	32.09	-33.8	-35.1	19.5	0.00e+00	0	59	0	1069547520	39	4128
2026-01-08 11:02:23.51	92.04	32.21	-33.9	-35.3	19.4	0.00e+00	0	59	0	1075838976	39	4197
2026-01-08 11:02:24.53	91.73	32.32	-33.9	-35.2	19.5	0.00e+00	0	59	0	1081081856	39	4175
2026-01-08 11:02:25.53	91.42	32.43	-33.9	-35.2	19.5	0.00e+00	0	59	0	1087373312	39	4146
2026-01-08 11:02:26.55	91.10	32.55	-33.8	-35.1	19.6	0.00e+00	0	59	0	1092616192	39	4120
2026-01-08 11:02:27.55	90.78	32.66	-33.8	-35.1	19.5	0.00e+00	0	59	0	1097859072	39	4126
2026-01-08 11:02:28.56	90.46	32.77	-33.8	-35.1	19.5	0.00e+00	0	59	0	1104150528	39	4119
2026-01-08 11:02:29.58	90.13	32.88	-33.8	-35.1	19.5	0.00e+00	0	59	0	1109393408	39	4115
2026-01-08 11:02:30.59	89.81	32.99	-33.8	-35.1	19.5	0.00e+00	0	59	0	1115684864	39	4103
2026-01-08 11:02:31.60	89.48	33.10	-33.8	-35.1	19.5	0.00e+00	0	59	0	1120927744	39	4109
2026-01-08 11:02:32.61	89.15	33.21	-33.9	-35.2	19.4	0.00e+00	0	59	0	1126170624	39	4176
2026-01-08 11:02:33.62	88.82	33.32	-34.1	-35.4	19.2	0.00e+00	0	59	0	1132462080	39	4269
2026-01-08 11:02:34.63	88.48	33.43	-34.1	-35.5	19.2	0.00e+00	0	59	0	1137704960	39	4299
2026-01-08 11:02:35.64	88.15	33.53	-34.1	-35.4	19.3	0.00e+00	0	59	0	1143996416	39	4253
2026-01-08 11:02:36.65	87.81	33.64	-34.0	-35.3	19.5	0.00e+00	0	59	0	1149239296	39	4194
2026-01-08 11:02:37.66	87.47	33.75	-33.9	-35.2	19.5	0.00e+00	0	59	0	1154482176	39	4189
2026-01-08 11:02:38.67	87.12	33.85	-33.9	-35.2	19.5	0.00e+00	0	59	0	1160773632	39	4182
2026-01-08 11:02:39.68	86.78	33.95	-34.0	-35.3	19.4	0.00e+00	0	59	0	1166016512	39	4223
2026-01-08 11:02:40.68	86.43	34.06	-34.0	-35.3	19.4	0.00e+00	0	59	0	1172307968	39	4222
2026-01-08 11:02:41.70	86.08	34.16	-33.9	-35.2	19.5	0.00e+00	0	59	0	1177550848	39	4172
2026-01-08 11:02:42.71	85.73	34.26	-33.8	-35.1	19.5	0.00e+00	0	59	0	1183842304	39	4141
2026-01-08 11:02:43.71	85.38	34.36	-33.9	-35.2	19.5	0.00e+00	0	59	0	1189085184	39	4157
2026-01-08 11:02:44.72	85.02	34.46	-33.9	-35.2	19.4	0.00e+00	0	59	0	1194328064	39	4178
2026-01-08 11:02:45.73	84.66	34.56	-34.0	-35.3	19.4	0.00e+00	0	59	0	1200619520	39	4215
2026-01-08 11:02:46.74	84.30	34.65	-33.9	-35.2	19.4	0.00e+00	0	59	0	1205862400	39	4167
2026-01-08 11:02:47.75	83.94	34.75	-33.7	-35.0	19.6	0.00e+00	0	59	0	1212153856	39	4074
2026-01-08 11:02:48.76	83.57	34.85	-33.7	-35.0	19.7	0.00e+00	0	59	0	1217396736	39	4055
2026-01-08 11:02:49.77	83.20	34.94	-33.8	-35.1	19.6	0.00e+00	0	59	0	1222639616	39	4137
2026-01-08 11:02:50.78	82.84	35.03	-34.0	-35.3	19.4	0.00e+00	0	59	0	1228931072	39	4222
2026-01-08 11:02:51.79	82.46	35.13	-34.0	-35.4	19.3	0.00e+00	0	59	0	1234173952	39	4249
2026-01-08 11:02:52.80	82.09	35.22	-34.1	-35.4	19.3	0.00e+00	0	59	0	1240465408	39	4254
2026-01-08 11:02:53.81	81.71	35.31	-34.1	-35.4	19.3	0.00e+00	0	59	0	1245708288	39	4268
2026-01-08 11:02:54.82	81.34	35.39	-34.1	-35.4	19.3	0.00e+00	0	59	0	1250951168	39	4277
2026-01-08 11:02:55.83	80.96	35.48	-34.2	-35.5	19.2	0.00e+00	0	59	0	1257242624	39	4314
2026-01-08 11:02:56.83	80.58	35.57	-34.2	-35.5	19.2	0.00e+00	0	59	0	1262485504	39	4332
2026-01-08 11:02:57.85	80.19	35.65	-34.1	-35.4	19.3	0.00e+00	0	59	0	1268776960	39	4274
2026-01-08 11:02:58.85	79.81	35.74	-33.9	-35.2	19.5	0.00e+00	0	59	0	1274019840	39	4175
2026-01-08 11:02:59.87	79.42	35.82	-33.9	-35.1	19.6	0.00e+00	0	59	0	1280311296	39	4141
2026-01-08 11:03:00.88	79.03	35.90	-33.8	-35.1	19.7	0.00e+00	0	59	0	1285554176	39	4102
2026-01-08 11:03:01.89	78.64	35.98	-33.8	-35.1	19.6	0.00e+00	0	59	0	1291845632	39	4124
2026-01-08 11:03:02.89	78.25	36.06	-33.9	-35.2	19.6	0.00e+00	0	59	0	1297088512	39	4151
2026-01-08 11:03:03.90	77.85	36.14	-33.9	-35.2	19.5	0.00e+00	0	59	0	1302331392	39	4165
2026-01-08 11:03:04.91	77.45	36.21	-33.8	-35.1	19.6	0.00e+00	0	59	0	1308622848	39	4140
2026-01-08 11:03:05.92	77.06	36.29	-33.9	-35.2	19.6	0.00e+00	0	59	0	1313865728	39	4167
2026-01-08 11:03:06.93	76.65	36.36	-33.9	-35.2	19.6	0.00e+00	0	59	0	1320157184	39	4148
2026-01-08 11:03:07.94	76.25	36.43	-33.7	-35.0	19.7	0.00e+00	0	59	0	1325400064	39	4060
2026-01-08 11:03:08.95	75.85	36.50	-33.7	-34.9	19.8	0.00e+00	0	59	0	1330642944	39	4030
2026-01-08 11:03:09.96	75.44	36.57	-33.7	-35.0	19.8	0.00e+00	0	59	0	1336934400	39	4052
2026-01-08 11:03:10.97	75.03	36.64	-33.8	-35.1	19.7	0.00e+00	0	59	0	1342177280	39	4109
2026-01-08 11:03:11.98	74.62	36.70	-33.9	-35.2	19.5	0.00e+00	0	59	0	1348468736	39	4165
2026-01-08 11:03:12.99	74.21	36.77	-33.8	-35.1	19.6	0.00e+00	0	59	0	1353711616	39	4120
2026-01-08 11:03:14.00	73.80	36.83	-33.9	-35.1	19.6	0.00e+00	0	59	0	1358954496	39	4140
2026-01-08 11:03:15.01	73.38	36.89	-33.8	-35.1	19.7	0.00e+00	0	59	0	1365245952	39	4117
2026-01-08 11:03:16.02	72.97	36.95	-33.9	-35.2	19.6	0.00e+00	0	59	0	1370488832	39	4168
2026-01-08 11:03:17.03	72.55	37.01	-34.0	-35.3	19.4	0.00e+00	0	59	0	1376780288	39	4236
2026-01-08 11:03:18.04	72.13	37.06	-34.0	-35.3	19.5	0.00e+00	0	59	0	1382023168	39	4208
2026-01-08 11:03:19.05	71.71	37.12	-33.7	-34.9	19.8	0.00e+00	0	59	0	1388314624	39	4041
2026-01-08 11:03:20.06	71.29	37.17	-33.6	-34.8	19.9	0.00e+00	0	59	0	1393557504	39	3979
2026-01-08 11:03:21.07	70.87	37.22	-33.6	-34.9	19.9	0.00e+00	0	59	0	1398800384	39	4008
2026-01-08 11:03:22.08	70.44	37.27	-33.8	-35.1	19.7	0.00e+00	0	59	0	1405091840	39	4112
2026-01-08 11:03:23.09	70.02	37.32	-34.0	-35.3	19.5	0.00e+00	0	59	0	1410334720	39	4203
2026-01-08 11:03:24.10	69.59	37.36	-34.0	-35.3	19.4	0.00e+00	0	59	0	1416626176	39	4240
2026-01-08 11:03:25.11	69.16	37.41	-34.0	-35.4	19.4	0.00e+00	0	59	0	1421869056	39	4244
2026-01-08 11:03:26.12	68.73	37.45	-34.1	-35.4	19.3	0.00e+00	0	59	0	1427111936	39	4272
2026-01-08 11:03:27.13	68.30	37.49	-34.0	-35.3	19.4	0.00e+00	0	59	0	1433403392	39	4232
2026-01-08 11:03:28.14	67.87	37.53	-34.0	-35.3	19.5	0.00e+00	0	59	0	1438646272	39	4213
2026-01-08 11:03:29.15	67.44	37.57	-34.2	-35.5	19.3	0.00e+00	0	59	0	1444937728	39	4305
2026-01-08 11:03:30.17	67.00	37.60	-34.3	-35.6	19.2	0.00e+00	0	59	0	1450180608	39	4373
2026-01-08 11:03:31.18	66.57	37.64	-34.3	-35.7	19.1	0.00e+00	0	59	0	1455423488	39	4392
2026-01-08 11:03:32.19	66.13	37.67	-34.1	-35.4	19.3	0.00e+00	0	59	0	1461714944	39	4291
2026-01-08 11:03:33.20	65.70	37.70	-34.1	-35.4	19.4	0.00e+00	0	59	0	1466957824	39	4252
2026-01-08 11:03:34.21	65.26	37.72	-34.0	-35.3	19.5	0.00e+00	0	59	0	1473249280	39	4198
2026-01-08 11:03:35.22	64.83	37.75	-34.0	-35.2	19.5	0.00e+00	0	59	0	1478492160	39	4184
2026-01-08 11:03:36.23	64.39	37.77	-34.0	-35.3	19.4	0.00e+00	0	59	0	1484783616	39	4215
2026-01-08 11:03:37.24	63.95	37.80	-34.0	-35.3	19.4	0.00e+00	0	59	0	1490026496	39	4227
2026-01-08 11:03:38.25	63.51	37.82	-33.9	-35.2	19.5	0.00e+00	0	59	0	1496317952	39	4176
2026-01-08 11:03:39.26	63.07	37.83	-33.8	-35.1	19.6	0.00e+00	0	59	0	1501560832	39	4114
2026-01-08 11:03:40.27	62.63	37.85	-33.9	-35.2	19.5	0.00e+00	0	59	0	1506803712	39	4186
2026-01-08 11:03:41.28	62.19	37.86	-34.1	-35.5	19.3	0.00e+00	0	59	0	1513095168	39	4308
2026-01-08 11:03:42.29	61.75	37.88	-34.1	-35.4	19.3	0.00e+00	0	59	0	1518338048	39	4283
2026-01-08 11:03:43.30	61.31	37.89	-34.0	-35.3	19.5	0.00e+00	0	59	0	1524629504	39	4217
2026-01-08 11:03:44.31	60.87	37.90	-34.0	-35.3	19.5	0.00e+00	0	59	0	1529872384	39	4196
2026-01-08 11:03:45.32	60.43	37.90	-34.0	-35.3	19.4	0.00e+00	0	59	0	1535115264	39	4240
2026-01-08 11:03:46.33	59.98	37.91	-34.1	-35.4	19.4	0.00e+00	0	59	0	1541406720	39	4250
2026-01-08 11:03:47.34	59.54	37.91	-33.9	-35.2	19.5	0.00e+00	0	59	0	1546649600	39	4186
2026-01-08 11:03:48.35	59.10	37.91	-33.9	-35.2	19.6	0.00e+00	0	59	0	1552941056	39	4159
2026-01-08 11:03:49.36	58.66	37.91	-34.0	-35.3	19.5	0.00e+00	0	59	0	1558183936	39	4196
2026-01-08 11:03:50.38	58.21	37.91	-34.0	-35.3	19.4	0.00e+00	0	59	0	1563426816	39	4217
2026-01-08 11:03:51.39	57.77	37.90	-33.9	-35.2	19.5	0.00e+00	0	59	0	1569718272	39	4175
2026-01-08 11:03:52.40	57.33	37.90	-33.9	-35.2	19.5	0.00e+00	0	59	0	1574961152	39	4165
2026-01-08 11:03:53.41	56.89	37.89	-33.9	-35.2	19.6	0.00e+00	0	59	0	1581252608	39	4150
2026-01-08 11:03:54.42	56.45	37.88	-33.8	-35.1	19.6	0.00e+00	0	59	0	1586495488	39	4104
2026-01-08 11:03:55.43	56.01	37.86	-33.8	-35.1	19.6	0.00e+00	0	59	0	1592786944	39	4115
2026-01-08 11:03:56.44	55.57	37.85	-33.8	-35.0	19.7	0.00e+00	0	59	0	1598029824	39	4091
2026-01-08 11:03:57.45	55.13	37.83	-33.7	-34.9	19.8	0.00e+00	0	59	0	1604321280	39	4045
2026-01-08 11:03:58.46	54.69	37.81	-33.7	-34.9	19.8	0.00e+00	0	59	0	1609564160	39	4044
2026-01-08 11:03:59.47	54.25	37.79	-33.8	-35.0	19.7	0.00e+00	0	59	0	1614807040	39	4087
2026-01-08 11:04:00.48	53.81	37.77	-33.9	-35.2	19.6	0.00e+00	0	59	0	1621098496	39	4154
2026-01-08 11:04:01.49	53.37	37.75	-33.9	-35.2	19.6	0.00e+00	0	59	0	1626341376	39	4164
2026-01-08 11:04:02.50	52.94	37.72	-33.9	-35.2	19.6	0.00e+00	0	59	0	1632632832	39	4169
2026-01-08 11:04:03.51	52.50	37.69	-34.0	-35.3	19.5	0.00e+00	0	59	0	1637875712	39	4214
2026-01-08 11:04:04.52	52.07	37.66	-34.0	-35.3	19.5	0.00e+00	0	59	0	1643118592	39	4231
2026-01-08 11:04:05.53	51.63	37.63	-33.9	-35.2	19.5	0.00e+00	0	59	0	1649410048	39	4185
2026-01-08 11:04:06.54	51.20	37.60	-33.7	-35.0	19.7	0.00e+00	0	59	0	1654652928	39	4071
2026-01-08 11:04:07.55	50.76	37.56	-33.7	-35.0	19.8	0.00e+00	0	59	0	1660944384	39	4059
2026-01-08 11:04:08.56	50.33	37.53	-33.8	-35.1	19.7	0.00e+00	0	59	0	1666187264	39	4112
2026-01-08 11:04:09.57	49.90	37.49	-33.8	-35.0	19.7	0.00e+00	0	59	0	1671430144	39	4093
2026-01-08 11:04:10.58	49.47	37.45	-33.6	-34.8	19.9	0.00e+00	0	59	0	1677721600	39	4003
2026-01-08 11:04:11.59	49.04	37.40	-33.5	-34.7	20.0	0.00e+00	0	59	0	1682964480	39	3944
2026-01-08 11:04:12.60	48.62	37.36	-33.4	-34.7	20.1	0.00e+00	0	59	0	1689255936	38	4155
2026-01-08 11:04:13.61	48.19	37.31	-33.5	-34.7	20.0	0.00e+00	0	59	0	1694498816	38	4179
2026-01-08 11:04:14.62	47.77	37.27	-33.5	-34.7	20.1	0.00e+00	0	59	0	1700790272	38	4166
2026-01-08 11:04:15.63	47.34	37.22	-33.5	-34.7	20.1	0.00e+00	0	59	0	1706033152	38	4171
2026-01-08 11:04:16.64	46.92	37.17	-33.6	-34.8	20.0	0.00e+00	0	59	0	1712324608	38	4210
2026-01-08 11:04:17.65	46.50	37.11	-33.6	-34.8	20.0	0.00e+00	0	59	0	1717567488	38	4227
2026-01-08 11:04:18.66	46.08	37.06	-33.7	-34.9	19.8	0.00e+00	0	59	0	1722810368	38	4291
2026-01-08 11:04:19.67	45.66	37.00	-33.8	-35.1	19.7	0.00e+00	0	59	0	1729101824	38	4343
2026-01-08 11:04:20.68	45.25	36.94	-33.9	-35.2	19.6	0.00e+00	0	59	0	1734344704	38	4418
2026-01-08 11:04:21.69	44.83	36.88	-33.8	-35.1	19.6	0.00e+00	0	58	0	1740636160	38	4376
2026-01-08 11:04:22.70	44.42	36.82	-33.7	-35.0	19.8	0.00e+00	0	59	0	1745879040	38	4306
2026-01-08 11:04:23.71	44.00	36.76	-33.7	-34.9	19.8	0.00e+00	0	59	0	1751121920	38	4268
2026-01-08 11:04:24.72	43.59	36.70	-33.8	-35.1	19.7	0.00e+00	0	59	0	1757413376	38	4367
2026-01-08 11:04:25.73	43.19	36.63	-33.9	-35.2	19.6	0.00e+00	0	59	0	1762656256	38	4416
2026-01-08 11:04:26.74	42.78	36.56	-33.9	-35.2	19.6	0.00e+00	0	59	0	1768947712	38	4412
2026-01-08 11:04:27.74	42.38	36.50	-33.8	-35.1	19.7	0.00e+00	0	59	0	1774190592	38	4345
2026-01-08 11:04:28.76	41.97	36.43	-33.8	-35.0	19.7	0.00e+00	0	59	0	1779433472	38	4337
2026-01-08 11:04:29.77	41.57	36.35	-33.8	-35.0	19.8	0.00e+00	0	59	0	1785724928	38	4322
2026-01-08 11:04:30.78	41.17	36.28	-33.7	-35.0	19.9	0.00e+00	0	59	0	1790967808	38	4299
2026-01-08 11:04:31.79	40.77	36.21	-33.7	-35.0	19.8	0.00e+00	0	59	0	1797259264	38	4316
2026-01-08 11:04:32.80	40.37	36.13	-33.8	-35.0	19.8	0.00e+00	0	59	0	1802502144	38	4338
2026-01-08 11:04:33.81	39.98	36.05	-33.9	-35.2	19.6	0.00e+00	0	59	0	1808793600	38	4410
2026-01-08 11:04:34.82	39.59	35.98	-34.0	-35.3	19.5	0.00e+00	0	59	0	1814036480	38	4456
2026-01-08 11:04:35.83	39.20	35.90	-34.1	-35.5	19.3	0.00e+00	0	59	0	1820327936	38	4546
2026-01-08 11:04:36.84	38.81	35.81	-34.2	-35.6	19.3	0.00e+00	0	59	0	1825570816	38	4604
2026-01-08 11:04:37.85	38.42	35.73	-34.0	-35.3	19.5	0.00e+00	0	59	0	1830813696	39	4224
2026-01-08 11:04:38.86	38.04	35.65	-33.8	-35.1	19.7	0.00e+00	0	59	0	1837105152	39	4131
2026-01-08 11:04:39.88	37.65	35.56	-33.8	-35.1	19.7	0.00e+00	0	59	0	1842348032	39	4102
2026-01-08 11:04:40.89	37.27	35.48	-33.9	-35.2	19.6	0.00e+00	0	59	0	1848639488	39	4149
2026-01-08 11:04:41.90	36.89	35.39	-33.9	-35.2	19.6	0.00e+00	0	59	0	1853882368	39	4170
2026-01-08 11:04:42.91	36.51	35.30	-33.9	-35.2	19.6	0.00e+00	0	59	0	1859125248	39	4159
2026-01-08 11:04:43.92	36.14	35.21	-33.9	-35.1	20.1	0.00e+00	0	59	0	1865416704	39	4106
2026-01-08 11:04:44.93	35.77	35.12	-33.9	-35.0	20.1	0.00e+00	0	59	0	1870659584	39	4087
2026-01-08 11:04:45.94	35.40	35.03	-33.9	-35.1	20.1	0.00e+00	0	59	0	1876951040	39	4103
2026-01-08 11:04:46.95	35.03	34.93	-34.0	-35.1	20.1	0.00e+00	0	59	0	1882193920	39	4133
2026-01-08 11:04:47.96	34.66	34.84	-33.9	-35.0	20.2	0.00e+00	0	59	0	1887436800	39	4087
2026-01-08 11:04:48.98	34.29	34.74	-33.9	-35.0	20.2	0.00e+00	0	59	0	1893728256	39	4093
2026-01-08 11:04:49.99	33.93	34.65	-33.9	-35.1	20.1	0.00e+00	0	59	0	1898971136	39	4108
2026-01-08 11:04:51.00	33.57	34.55	-34.0	-35.1	20.1	0.00e+00	0	59	0	1905262592	39	4134
2026-01-08 11:04:52.01	33.21	34.45	-33.9	-35.1	20.1	0.00e+00	0	59	0	1910505472	39	4110
2026-01-08 11:04:53.02	32.86	34.35	-33.8	-35.0	20.2	0.00e+00	0	59	0	1916796928	39	4056
2026-01-08 11:04:54.03	32.51	34.25	-33.9	-35.0	20.2	0.00e+00	0	59	0	1922039808	39	4094
2026-01-08 11:04:55.04	32.16	34.15	-34.0	-35.1	20.1	0.00e+00	0	59	0	1928331264	39	4140
2026-01-08 11:04:56.05	31.81	34.05	-34.1	-35.2	20.0	0.00e+00	0	59	0	1933574144	39	4179
2026-01-08 11:04:57.06	31.46	33.95	-34.0	-35.1	20.0	0.00e+00	0	59	0	1938817024	39	4138
2026-01-08 11:04:58.07	31.12	33.84	-33.9	-35.0	20.1	0.00e+00	0	59	0	1945108480	39	4098
2026-01-08 11:04:59.08	30.77	33.74	-34.0	-35.1	20.1	0.00e+00	0	59	0	1950351360	39	4133
2026-01-08 11:05:00.09	30.43	33.64	-34.1	-35.3	19.9	0.00e+00	0	59	0	1956642816	39	4194
2026-01-08 11:05:01.10	30.10	33.53	-34.1	-35.3	19.9	0.00e+00	0	59	0	1961885696	39	4211
2026-01-08 11:05:02.11	29.76	33.42	-34.1	-35.2	20.0	0.00e+00	0	59	0	1967128576	39	4178
2026-01-08 11:05:03.13	29.42	33.31	-34.0	-35.2	20.0	0.00e+00	0	59	0	1973420032	39	4148
2026-01-08 11:05:04.14	29.09	33.21	-34.1	-35.3	19.9	0.00e+00	0	59	0	1978662912	39	4207
2026-01-08 11:05:05.15	28.77	33.10	-34.2	-35.4	19.8	0.00e+00	0	59	0	1984954368	39	4255
2026-01-08 11:05:06.16	28.44	32.99	-34.1	-35.2	19.9	0.00e+00	0	59	0	1990197248	39	4193
2026-01-08 11:05:07.17	28.11	32.88	-33.9	-35.1	20.1	0.00e+00	0	59	0	1995440128	39	4106
2026-01-08 11:05:08.18	27.79	32.77	-33.9	-35.0	20.1	0.00e+00	0	59	0	2001731584	39	4098
2026-01-08 11:05:09.19	27.47	32.66	-34.1	-35.2	20.0	0.00e+00	0	59	0	2006974464	39	4181
2026-01-08 11:05:10.20	27.15	32.54	-34.2	-35.4	19.7	0.00e+00	0	59	0	2013265920	39	4280
2026-01-08 11:05:11.22	26.84	32.43	-34.3	-35.5	19.7	0.00e+00	0	59	0	2018508800	39	4305
2026-01-08 11:05:12.23	26.52	32.32	-34.3	-35.5	19.7	0.00e+00	0	59	0	2024800256	39	4313
2026-01-08 11:05:13.24	26.21	32.20	-34.2	-35.4	19.8	0.00e+00	0	59	0	2030043136	39	4249
2026-01-08 11:05:14.25	25.90	32.09	-34.2	-35.3	19.8	0.00e+00	0	58	0	2036334592	39	4240
2026-01-08 11:05:15.26	25.60	31.97	-34.3	-35.5	19.7	0.00e+00	0	59	0	2041577472	39	4296
2026-01-08 11:05:16.27	25.29	31.86	-34.2	-35.4	19.8	0.00e+00	0	59	0	2046820352	39	4255
2026-01-08 11:05:17.28	24.99	31.74	-34.0	-35.2	19.9	0.00e+00	0	59	0	2053111808	39	4177
2026-01-08 11:05:18.29	24.69	31.63	-34.0	-35.1	20.0	0.00e+00	0	59	0	2058354688	39	4135
2026-01-08 11:05:19.30	24.39	31.51	-34.0	-35.1	20.0	0.00e+00	0	59	0	2064646144	39	4123
2026-01-08 11:05:20.31	24.10	31.40	-34.0	-35.1	20.0	0.00e+00	0	59	0	2069889024	39	4141
2026-01-08 11:05:21.32	23.80	31.28	-34.0	-35.1	20.0	0.00e+00	0	59	0	2075131904	39	4140
2026-01-08 11:05:22.34	23.51	31.16	-33.9	-35.1	20.1	0.00e+00	0	59	0	2081423360	39	4106
2026-01-08 11:05:23.35	23.22	31.04	-33.8	-35.0	20.2	0.00e+00	0	59	0	2086666240	39	4063
2026-01-08 11:05:24.36	22.93	30.92	-33.9	-35.1	20.1	0.00e+00	0	59	0	2092957696	39	4105
2026-01-08 11:05:25.37	22.65	30.80	-34.0	-35.2	20.0	0.00e+00	0	59	0	2098200576	39	4159
2026-01-08 11:05:26.38	22.36	30.69	-34.1	-35.3	19.8	0.00e+00	0	59	0	2104492032	39	4230
2026-01-08 11:05:27.39	22.08	30.57	-34.2	-35.4	19.8	0.00e+00	0	59	0	2109734912	39	4246
2026-01-08 11:05:28.40	21.80	30.45	-34.1	-35.3	19.8	0.00e+00	0	59	0	2114977792	39	4229
2026-01-08 11:05:29.41	21.53	30.33	-34.1	-35.2	19.9	0.00e+00	0	59	0	2121269248	39	4184
2026-01-08 11:05:30.42	21.25	30.21	-34.1	-35.3	19.8	0.00e+00	0	59	0	2126512128	39	4226
2026-01-08 11:05:31.43	20.98	30.09	-34.3	-35.5	19.7	0.00e+00	0	59	0	2132803584	39	4299
2026-01-08 11:05:32.44	20.71	29.97	-34.3	-35.5	19.6	0.00e+00	0	59	0	2138046464	39	4333
2026-01-08 11:05:33.45	20.44	29.85	-34.3	-35.5	19.6	0.00e+00	0	59	0	2144337920	39	4328
2026-01-08 11:05:34.46	20.18	29.73	-34.3	-35.5	19.7	0.00e+00	0	59	0	2149580800	39	4307
2026-01-08 11:05:35.47	19.91	29.60	-34.3	-35.5	19.7	0.00e+00	0	59	0	2154823680	39	4294
2026-01-08 11:05:36.48	19.65	29.48	-34.3	-35.5	19.7	0.00e+00	0	59	0	2161115136	39	4315
2026-01-08 11:05:37.49	19.39	29.36	-34.3	-35.5	19.6	0.00e+00	0	59	0	2166358016	39	4327
2026-01-08 11:05:38.50	19.13	29.24	-34.4	-35.6	19.6	0.00e+00	0	59	0	2172649472	39	4353
2026-01-08 11:05:39.51	18.87	29.12	-34.4	-35.6	19.5	0.00e+00	0	59	0	2177892352	39	4376
2026-01-08 11:05:40.52	18.62	29.00	-34.4	-35.6	19.5	0.00e+00	0	59	0	2183135232	39	4375
2026-01-08 11:05:41.53	18.37	28.88	-34.4	-35.6	19.5	0.00e+00	0	59	0	2189426688	39	4372
2026-01-08 11:05:42.54	18.12	28.75	-34.4	-35.6	19.5	0.00e+00	0	59	0	2194669568	39	4361
2026-01-08 11:05:43.55	17.87	28.63	-34.3	-35.6	19.6	0.00e+00	0	59	0	2200961024	39	4343
2026-01-08 11:05:44.56	17.62	28.51	-34.4	-35.6	19.6	0.00e+00	0	59	0	2206203904	39	4352
2026-01-08 11:05:45.57	17.38	28.39	-34.4	-35.6	19.5	0.00e+00	0	59	0	2211446784	39	4376
2026-01-08 11:05:46.58	17.13	28.27	-34.4	-35.6	19.5	0.00e+00	0	59	0	2217738240	39	4369
2026-01-08 11:05:47.59	16.89	28.14	-34.4	-35.5	19.6	0.00e+00	0	59	0	2222981120	39	4339
2026-01-08 11:05:48.61	16.65	28.02	-34.4	-35.6	19.5	0.00e+00	0	59	0	2229272576	39	4384
2026-01-08 11:05:49.62	16.41	27.90	-34.5	-35.8	19.4	0.00e+00	0	59	0	2234515456	39	4445
2026-01-08 11:05:50.63	16.18	27.78	-34.7	-35.9	19.2	0.00e+00	0	59	0	2240806912	39	4512
2026-01-08 11:05:51.64	15.94	27.65	-34.6	-35.9	19.2	0.00e+00	0	59	0	2246049792	39	4503
2026-01-08 11:05:52.65	15.71	27.53	-34.6	-35.8	19.3	0.00e+00	0	59	0	2252341248	39	4458
2026-01-08 11:05:53.66	15.48	27.41	-34.5	-35.7	19.4	0.00e+00	0	59	0	2257584128	39	4438
2026-01-08 11:05:54.67	15.25	27.29	-34.6	-35.8	19.3	0.00e+00	0	59	0	2262827008	39	4461
2026-01-08 11:05:55.68	15.03	27.16	-34.6	-35.8	19.3	0.00e+00	0	59	0	2269118464	39	4460
2026-01-08 11:05:56.69	14.80	27.04	-34.7	-35.9	19.2	0.00e+00	0	59	0	2274361344	39	4508
2026-01-08 11:05:57.70	14.58	26.92	-34.7	-35.9	19.2	0.00e+00	0	59	0	2280652800	39	4525
2026-01-08 11:05:58.71	14.36	26.80	-34.7	-36.0	19.1	0.00e+00	0	59	0	2285895680	39	4547
2026-01-08 11:05:59.72	14.14	26.68	-34.7	-36.0	19.1	0.00e+00	0	59	0	2291138560	39	4550
2026-01-08 11:06:00.73	13.92	26.56	-34.8	-36.0	19.0	0.00e+00	0	59	0	2297430016	40	4322
2026-01-08 11:06:01.74	13.70	26.43	-34.8	-36.1	19.0	0.00e+00	0	59	0	2302672896	40	4348
2026-01-08 11:06:02.75	13.49	26.31	-34.8	-36.1	18.9	0.00e+00	0	59	0	2308964352	40	4359
2026-01-08 11:06:03.76	13.28	26.19	-34.9	-36.1	18.9	0.00e+00	0	59	0	2314207232	40	4382
2026-01-08 11:06:04.77	13.06	26.07	-34.9	-36.2	18.9	0.00e+00	0	59	0	2319450112	40	4402
2026-01-08 11:06:05.78	12.85	25.95	-34.9	-36.1	18.9	0.00e+00	0	59	0	2325741568	40	4382
2026-01-08 11:06:06.79	12.65	25.83	-34.9	-36.1	18.9	0.00e+00	0	59	0	2330984448	40	4374
2026-01-08 11:06:07.81	12.44	25.71	-34.8	-36.1	18.9	0.00e+00	0	59	0	2337275904	40	4358
2026-01-08 11:06:08.81	12.23	25.59	-34.9	-36.1	18.9	0.00e+00	0	59	0	2342518784	40	4379
2026-01-08 11:06:09.83	12.03	25.46	-34.9	-36.2	18.8	0.00e+00	0	59	0	2348810240	40	4404
2026-01-08 11:06:10.84	11.83	25.34	-34.9	-36.2	18.8	0.00e+00	0	59	0	2354053120	40	4433
2026-01-08 11:06:11.85	11.63	25.22	-35.0	-36.2	18.8	0.00e+00	0	59	0	2360344576	40	4432
2026-01-08 11:06:12.86	11.43	25.10	-34.9	-36.2	18.8	0.00e+00	0	59	0	2365587456	40	4425
2026-01-08 11:06:13.87	11.23	24.98	-34.9	-36.2	18.8	0.00e+00	0	59	0	2370830336	40	4403
2026-01-08 11:06:14.88	11.04	24.86	-34.9	-36.2	18.8	0.00e+00	0	59	0	2377121792	40	4415
2026-01-08 11:06:15.89	10.84	24.74	-34.9	-36.1	18.8	0.00e+00	0	59	0	2382364672	40	4391
2026-01-08 11:06:16.90	10.65	24.62	-34.9	-36.1	18.8	0.00e+00	0	59	0	2388656128	40	4382
2026-01-08 11:06:17.91	10.46	24.51	-34.9	-36.1	18.8	0.00e+00	0	59	0	2393899008	40	4378
2026-01-08 11:06:18.92	10.27	24.39	-34.8	-36.1	18.9	0.00e+00	0	59	0	2399141888	40	4359
2026-01-08 11:06:19.93	10.08	24.27	-34.9	-36.1	18.8	0.00e+00	0	59	0	2405433344	40	4378
2026-01-08 11:06:20.94	9.89	24.15	-34.9	-36.1	18.8	0.00e+00	0	58	0	2410676224	40	4374
2026-01-08 11:06:21.95	9.71	24.03	-34.9	-36.1	18.8	0.00e+00	0	59	0	2416967680	40	4383
2026-01-08 11:06:22.95	9.53	23.91	-34.9	-36.1	18.8	0.00e+00	0	59	0	2422210560	40	4385
2026-01-08 11:06:23.97	9.34	23.79	-34.9	-36.2	18.7	0.00e+00	0	59	0	2427453440	40	4408
2026-01-08 11:06:24.98	9.16	23.68	-34.9	-36.2	18.8	0.00e+00	0	59	0	2433744896	40	4419
2026-01-08 11:06:25.99	8.98	23.56	-35.0	-36.3	18.7	0.00e+00	0	59	0	2438987776	40	4462
2026-01-08 11:06:27.00	8.80	23.44	-35.1	-36.4	18.6	0.00e+00	0	59	0	2445279232	40	4519
2026-01-08 11:06:28.01	8.63	23.32	-35.1	-36.4	18.5	0.00e+00	0	59	0	2450522112	40	4536
2026-01-08 11:06:29.02	8.45	23.21	-35.1	-36.5	18.5	0.00e+00	0	58	0	2456813568	40	4553
2026-01-08 11:06:30.03	8.28	23.09	-35.1	-36.4	18.5	0.00e+00	0	59	0	2462056448	40	4522
2026-01-08 11:06:31.04	8.10	22.97	-35.1	-36.4	18.6	0.00e+00	0	59	0	2468347904	40	4503
2026-01-08 11:06:32.05	7.93	22.86	-34.9	-36.2	18.7	0.00e+00	0	59	0	2473590784	40	4432
2026-01-08 11:06:33.06	7.76	22.74	-34.9	-36.2	18.7	0.00e+00	0	59	0	2478833664	40	4412
2026-01-08 11:06:34.08	7.59	22.63	-34.9	-36.2	18.7	0.00e+00	0	59	0	2485125120	40	4393
2026-01-08 11:06:35.08	7.42	22.51	-34.9	-36.2	18.7	0.00e+00	0	59	0	2490368000	40	4394
2026-01-08 11:06:36.09	7.26	22.40	-34.9	-36.2	18.7	0.00e+00	0	59	0	2496659456	40	4415
2026-01-08 11:06:37.10	7.09	22.28	-34.9	-36.1	18.7	0.00e+00	0	59	0	2501902336	40	4387
2026-01-08 11:06:38.11	6.93	22.17	-34.9	-36.2	18.7	0.00e+00	0	59	0	2507145216	40	4400
2026-01-08 11:06:39.12	6.77	22.05	-34.9	-36.1	18.7	0.00e+00	0	58	0	2513436672	40	4384
2026-01-08 11:06:40.12	6.61	21.94	-35.0	-36.3	18.6	0.00e+00	0	59	0	2518679552	40	4459
2026-01-08 11:06:41.13	6.45	21.83	-35.0	-36.3	18.6	0.00e+00	0	59	0	2524971008	40	4455
2026-01-08 11:06:42.14	6.29	21.71	-35.0	-36.3	18.5	0.00e+00	0	59	0	2530213888	40	4474
2026-01-08 11:06:43.15	6.13	21.60	-35.1	-36.4	18.5	0.00e+00	0	59	0	2535456768	40	4510
2026-01-08 11:06:44.16	5.97	21.49	-35.1	-36.5	18.4	0.00e+00	0	59	0	2541748224	40	4550
2026-01-08 11:06:45.16	5.82	21.37	-35.2	-36.5	18.3	0.00e+00	0	58	0	2546991104	40	4578
2026-01-08 11:06:46.18	5.66	21.26	-35.2	-36.5	18.3	0.00e+00	0	58	0	2553282560	41	4334
2026-01-08 11:06:47.19	5.51	21.15	-35.2	-36.6	18.3	0.00e+00	0	59	0	2558525440	41	4355
2026-01-08 11:06:48.20	5.36	21.04	-35.3	-36.6	18.2	0.00e+00	0	58	0	2564816896	41	4358
2026-01-08 11:06:49.21	5.20	20.93	-35.3	-36.6	18.2	0.00e+00	0	59	0	2570059776	41	4378
2026-01-08 11:06:50.22	5.05	20.81	-35.3	-36.7	18.1	0.00e+00	0	59	0	2575302656	41	4399
2026-01-08 11:06:51.23	4.91	20.70	-35.3	-36.7	18.1	0.00e+00	0	59	0	2581594112	41	4402
2026-01-08 11:06:52.24	4.76	20.59	-35.4	-36.7	18.1	0.00e+00	0	59	0	2586836992	41	4421
2026-01-08 11:06:53.25	4.61	20.48	-35.3	-36.6	18.1	0.00e+00	0	59	0	2593128448	41	4367
2026-01-08 11:06:54.26	4.47	20.37	-35.3	-36.7	18.1	0.00e+00	0	59	0	2598371328	41	4407
2026-01-08 11:06:55.27	4.32	20.26	-35.3	-36.6	18.1	0.00e+00	0	59	0	2603614208	41	4391
2026-01-08 11:06:56.27	4.18	20.15	-35.3	-36.7	18.1	0.00e+00	0	59	0	2609905664	41	4406
2026-01-08 11:06:57.28	4.04	20.04	-35.3	-36.6	18.1	0.00e+00	0	59	0	2615148544	41	4370
2026-01-08 11:06:58.29	3.89	19.93	-35.4	-36.7	18.0	0.00e+00	0	59	0	2621440000	41	4436
2026-01-08 11:06:59.30	3.75	19.83	-35.4	-36.8	18.0	0.00e+00	0	59	0	2626682880	41	4444
2026-01-08 11:07:00.31	3.61	19.72	-35.4	-36.8	17.9	0.00e+00	0	59	0	2631925760	41	4452
2026-01-08 11:07:01.32	3.48	19.61	-35.4	-36.8	18.0	0.00e+00	0	59	0	2638217216	41	4446
2026-01-08 11:07:02.33	3.34	19.50	-35.4	-36.8	17.9	0.00e+00	0	59	0	2643460096	41	4467
2026-01-08 11:07:03.34	3.20	19.39	-35.5	-36.9	17.8	0.00e+00	0	59	0	2649751552	41	4505
2026-01-08 11:07:04.35	3.07	19.29	-35.5	-36.9	17.8	0.00e+00	0	59	0	2654994432	41	4533
2026-01-08 11:07:05.35	2.93	19.18	-35.5	-36.9	17.8	0.00e+00	0	59	0	2661285888	41	4519
2026-01-08 11:07:06.36	2.80	19.07	-35.6	-37.0	17.7	0.00e+00	0	59	0	2666528768	41	4575
2026-01-08 11:07:07.37	2.67	18.97	-35.7	-37.1	17.6	0.00e+00	0	59	0	2671771648	41	4603
2026-01-08 11:07:08.39	2.53	18.86	-35.6	-37.0	17.6	0.00e+00	0	59	0	2678063104	41	4575
2026-01-08 11:07:09.40	2.40	18.75	-35.6	-37.1	17.6	0.00e+00	0	59	0	2683305984	41	4607
2026-01-08 11:07:10.40	2.28	18.65	-35.6	-37.0	17.6	0.00e+00	0	59	0	2689597440	41	4561
2026-01-08 11:07:11.41	2.15	18.54	-35.6	-37.0	17.6	0.00e+00	0	59	0	2694840320	41	4566
2026-01-08 11:07:12.42	2.02	18.44	-35.6	-37.0	17.6	0.00e+00	0	59	0	2700083200	41	4573
2026-01-08 11:07:13.42	1.89	18.34	-35.6	-37.0	17.6	0.00e+00	0	59	0	2706374656	41	4569
2026-01-08 11:07:14.43	1.77	18.23	-35.6	-37.0	17.6	0.00e+00	0	59	0	2711617536	41	4547
2026-01-08 11:07:15.44	1.64	18.13	-35.6	-37.0	17.5	0.00e+00	0	58	0	2717908992	41	4576
2026-01-08 11:07:16.45	1.52	18.02	-35.6	-37.0	17.5	0.00e+00	0	59	0	2723151872	41	4597
2026-01-08 11:07:17.46	1.39	17.92	-35.6	-37.1	17.4	0.00e+00	0	59	0	2728394752	41	4606
2026-01-08 11:07:18.47	1.27	17.82	-35.7	-37.1	17.4	0.00e+00	0	59	0	2734686208	41	4616
2026-01-08 11:07:19.48	1.15	17.71	-35.8	-37.3	17.2	0.00e+00	0	59	0	2739929088	42	4452
2026-01-08 11:07:20.49	1.03	17.61	-35.8	-37.3	17.2	0.00e+00	0	58	0	2746220544	42	4455
2026-01-08 11:07:21.50	0.91	17.51	-35.9	-37.4	17.0	0.00e+00	0	59	0	2751463424	42	4528
2026-01-08 11:07:22.50	0.79	17.41	-35.9	-37.4	17.0	0.00e+00	0	59	0	2757754880	42	4510
2026-01-08 11:07:23.51	0.67	17.31	-36.0	-37.5	16.9	0.00e+00	0	59	0	2762997760	42	4593
2026-01-08 11:07:24.53	0.55	17.21	-36.1	-37.6	16.7	0.00e+00	0	59	0	2769289216	42	4639
2026-01-08 11:07:25.53	0.44	17.11	-36.1	-37.6	16.7	0.00e+00	0	59	0	2774532096	42	4647
2026-01-08 11:07:26.54	0.32	17.00	-36.2	-37.7	16.6	0.00e+00	0	59	0	2779774976	42	4684
2026-01-08 11:07:27.56	0.20	16.90	-36.2	-37.8	16.5	0.00e+00	0	59	0	2786066432	43	4458
2026-01-08 11:07:28.57	0.09	16.80	-36.2	-37.7	16.6	0.00e+00	0	59	0	2791309312	43	4435
2026-01-08 11:07:29.58	359.98	16.70	-36.2	-37.7	16.5	0.00e+00	0	59	0	2797600768	43	4429
2026-01-08 11:07:30.58	359.86	16.60	-36.2	-37.8	16.4	0.00e+00	0	59	0	2802843648	43	4458
2026-01-08 11:07:31.59	359.75	16.50	-36.3	-37.9	16.3	0.00e+00	0	59	0	2808086528	43	4508
2026-01-08 11:07:32.60	359.64	16.41	-36.3	-37.9	16.3	0.00e+00	0	59	0	2814377984	43	4497
2026-01-08 11:07:33.61	359.53	16.31	-36.2	-37.7	16.4	0.00e+00	0	59	0	2819620864	43	4435
2026-01-08 11:07:34.62	359.42	16.21	-36.2	-37.8	16.3	0.00e+00	0	59	0	2825912320	43	4472
2026-01-08 11:07:35.64	359.31	16.11	-36.2	-37.8	16.4	0.00e+00	0	59	0	2831155200	43	4445
2026-01-08 11:07:36.65	359.20	16.01	-36.1	-37.7	16.4	0.00e+00	0	59	0	2836398080	43	4425
2026-01-08 11:07:37.66	359.09	15.91	-36.3	-37.9	16.2	0.00e+00	0	59	0	2842689536	43	4512
2026-01-08 11:07:38.67	358.99	15.82	-36.2	-37.8	16.2	0.00e+00	0	59	0	2847932416	43	4478
2026-01-08 11:07:39.68	358.88	15.72	-36.2	-37.8	16.2	0.00e+00	0	59	0	2854223872	43	4447
2026-01-08 11:07:40.69	358.78	15.62	-36.2	-37.8	16.1	0.00e+00	0	59	0	2859466752	43	4491
2026-01-08 11:07:41.70	358.67	15.53	-36.4	-38.0	15.9	0.00e+00	0	59	0	2865758208	43	4598
2026-01-08 11:07:42.71	358.57	15.43	-36.4	-38.1	15.8	0.00e+00	0	58	0	2871001088	43	4602
2026-01-08 11:07:43.72	358.46	15.33	-36.4	-38.1	15.7	0.00e+00	0	59	0	2877292544	43	4614
2026-01-08 11:07:44.73	358.36	15.24	-36.4	-38.1	15.7	0.00e+00	0	59	0	2882535424	43	4622
2026-01-08 11:07:45.74	358.26	15.14	-36.5	-38.3	15.5	0.00e+00	0	59	0	2887778304	43	4727
2026-01-08 11:07:46.75	358.16	15.05	-36.5	-38.2	15.5	0.00e+00	0	59	0	2894069760	43	4703
2026-01-08 11:07:47.76	358.06	14.95	-36.6	-38.4	15.3	0.00e+00	0	59	0	2899312640	43	4808
2026-01-08 11:07:48.78	357.96	14.86	-36.9	-38.8	15.0	0.00e+00	0	59	0	2905604096	44	4732
2026-01-08 11:07:49.79	357.86	14.76	-36.9	-38.8	15.0	0.00e+00	0	59	0	2910846976	44	4710
2026-01-08 11:07:50.80	357.76	14.67	-36.8	-38.7	15.0	0.00e+00	0	59	0	2916089856	44	4670
2026-01-08 11:07:51.81	357.66	14.58	-36.8	-38.6	15.1	0.00e+00	0	59	0	2922381312	44	4631
2026-01-08 11:07:52.82	357.56	14.48	-36.8	-38.7	14.9	0.00e+00	0	59	0	2927624192	44	4692
2026-01-08 11:07:53.83	357.47	14.39	-36.6	-38.4	15.2	0.00e+00	0	59	0	2933915648	44	4520
2026-01-08 11:07:54.84	357.37	14.30	-36.7	-38.6	14.9	0.00e+00	0	59	0	2939158528	44	4622
2026-01-08 11:07:55.85	357.27	14.20	-36.7	-38.6	14.8	0.00e+00	0	59	0	2944401408	44	4645
2026-01-08 11:07:56.86	357.18	14.11	-36.7	-38.7	14.8	1.10e-06	0	59	0	2950692864	44	4666
2026-01-08 11:07:57.87	357.08	14.02	-36.4	-38.3	15.0	0.00e+00	0	59	0	2955935744	44	4450
2026-01-08 11:07:58.88	356.99	13.93	-36.1	-38.0	15.2	0.00e+00	0	59	0	2962227200	44	4313
2026-01-08 11:07:59.89	356.90	13.84	-36.2	-38.1	15.0	0.00e+00	0	59	0	2967470080	44	4353
2026-01-08 11:08:00.90	356.81	13.75	-36.3	-38.2	14.8	0.00e+00	0	59	0	2973761536	44	4429
2026-01-08 11:08:01.91	356.71	13.65	-36.5	-38.5	14.4	0.00e+00	0	59	0	2979004416	44	4569
2026-01-08 11:08:02.92	356.62	13.56	-36.6	-38.8	14.0	2.20e-06	0	59	0	2985295872	44	4710
2026-01-08 11:08:03.93	356.53	13.47	-36.7	-38.9	13.7	3.40e-06	0	59	0	2990538752	44	4806
2026-01-08 11:08:04.94	356.44	13.38	-37.1	-39.5	13.0	1.25e-05	0	59	0	2995781632	44	5139
2026-01-08 11:08:05.95	356.35	13.29	-37.7	-40.4	11.9	2.24e-04	0	59	0	3002073088	45	5402
2026-01-08 11:08:06.96	356.26	13.20	-38.4	-41.7	10.3	1.98e-03	0	59	0	3007315968	47	5579
2026-01-08 11:08:07.97	356.17	13.11	-38.7	-42.4	9.4	1.07e-02	0	59	0	3013607424	47	6052
2026-01-08 11:08:08.98	356.09	13.03	-39.1	-43.3	8.4	2.91e-02	0	59	0	3018850304	48	6336
2026-01-08 11:08:09.99	356.00	12.94	-39.3	-44.0	7.6	7.53e-02	0	59	0	3024093184	49	6429
2026-01-08 11:08:11.00	355.91	12.85	-39.6	-45.2	6.3	1.93e-01	0	59	0	3030384640	49	7411
2026-01-08 11:08:12.01	355.82	12.76	-39.9	-46.4	5.4	4.66e-01	0	59	0	3034578944	50	8039
2026-01-08 11:08:13.03	355.74	12.67	-40.1	-47.9	4.6	7.94e-01	0	59	0	3034578944	50	9523
2026-01-08 11:08:14.04	355.65	12.58	-40.2	-49.3	4.1	8.36e-01	0	59	0	3034578944	51	10538
2026-01-08 11:08:15.05	355.57	12.49	-40.3	-50.5	3.8	8.45e-01	0	59	104	3034578944	51	12147
2026-01-08 11:08:16.06	355.48	12.41	-40.3	-51.2	3.8	8.46e-01	0	59	104	3034578944	51	13178
2026-01-08 11:08:17.07	355.40	12.32	-40.3	-51.7	3.8	8.46e-01	0	59	104	3034578944	51	13965
2026-01-08 11:08:18.08	355.32	12.23	-40.3	-51.9	3.8	8.46e-01	0	59	104	3034578944	51	14337
2026-01-08 11:08:19.09	355.23	12.15	-40.3	-52.0	3.8	8.47e-01	0	59	104	3034578944	51	14415
2026-01-08 11:08:20.10	355.15	12.06	-40.3	-52.0	3.8	8.47e-01	0	59	104	3034578944	51	14509
2026-01-08 11:08:21.11	355.07	11.97	-40.0	-51.8	3.8	8.46e-01	0	59	104	3034578944	51	14135
2026-01-08 11:08:22.12	354.99	11.89	-40.1	-51.8	3.8	8.47e-01	0	59	104	3034578944	51	14056
2026-01-08 11:08:23.13	354.91	11.80	-40.3	-52.2	3.8	8.46e-01	0	59	104	3034578944	51	14872
2026-01-08 11:08:24.14	354.83	11.72	-40.0	-51.8	3.8	8.46e-01	0	59	104	3034578944	51	14062
2026-01-08 11:08:25.15	354.75	11.63	-40.2	-52.2	3.8	8.45e-01	0	59	104	3034578944	51	14820
2026-01-08 11:08:26.16	354.67	11.55	-40.2	-52.0	3.8	8.45e-01	0	59	104	3034578944	51	14485
2026-01-08 11:08:27.17	354.59	11.46	-40.0	-51.7	3.8	8.46e-01	0	59	104	3034578944	51	13940
2026-01-08 11:08:28.18	354.51	11.38	-40.2	-52.0	3.8	8.46e-01	0	59	104	3034578944	51	14392
2026-01-08 11:08:29.19	354.44	11.29	-40.0	-51.7	3.8	8.46e-01	0	59	104	3034578944	51	13898
2026-01-08 11:08:30.20	354.36	11.21	-40.0	-51.7	3.8	8.47e-01	0	59	104	3034578944	51	14006
2026-01-08 11:08:31.21	354.28	11.13	-40.2	-51.9	3.8	8.46e-01	0	59	104	3034578944	51	14312
2026-01-08 11:08:32.22	354.20	11.04	-40.0	-51.7	3.8	8.47e-01	0	59	104	3034578944	51	14021
2026-01-08 11:08:33.23	354.13	10.96	-40.1	-51.9	3.8	8.46e-01	0	59	104	3034578944	51	14233
2026-01-08 11:08:34.24	354.05	10.88	-39.9	-51.9	3.8	8.47e-01	0	59	104	3034578944	51	14212
2026-01-08 11:08:35.25	353.98	10.79	-40.0	-51.7	3.8	8.46e-01	0	59	104	3034578944	51	13913
2026-01-08 11:08:36.26	353.90	10.71	-39.9	-51.9	3.8	8.46e-01	0	59	104	3034578944	51	14250
2026-01-08 11:08:37.27	353.83	10.63	-40.0	-51.6	3.8	8.46e-01	0	59	104	3034578944	51	13882
2026-01-08 11:08:38.28	353.76	10.55	-40.1	-51.8	3.8	8.47e-01	0	59	104	3034578944	51	14207
2026-01-08 11:08:39.28	353.68	10.47	-40.0	-51.7	3.8	8.46e-01	0	59	104	3034578944	51	14006
2026-01-08 11:08:40.29	353.61	10.38	-40.1	-51.8	3.8	8.46e-01	0	59	104	3034578944	51	14188
2026-01-08 11:08:41.30	353.54	10.30	-39.9	-51.8	3.8	8.45e-01	0	59	104	3034578944	51	14047
2026-01-08 11:08:42.31	353.47	10.22	-40.0	-51.9	3.8	8.47e-01	0	59	104	3034578944	51	14260
2026-01-08 11:08:43.32	353.39	10.14	-40.1	-51.8	3.8	8.46e-01	0	59	104	3034578944	51	14047
2026-01-08 11:08:44.33	353.32	10.06	-40.1	-51.9	3.8	8.45e-01	0	59	104	3034578944	51	14360
2026-01-08 11:08:45.34	353.25	9.98	-40.2	-51.8	3.8	8.48e-01	0	59	104	3034578944	51	14161
2026-01-08 11:08:46.35	353.18	9.90	-40.3	-52.0	3.8	8.46e-01	0	59	104	3034578944	51	14470
2026-01-08 11:08:47.36	353.11	9.82	-40.1	-51.8	3.8	8.46e-01	0	59	104	3034578944	51	14105
2026-01-08 11:08:48.37	353.04	9.74	-40.3	-52.0	3.8	8.46e-01	0	59	104	3034578944	51	14509
2026-01-08 11:08:49.38	352.97	9.66	-40.1	-51.8	3.8	8.45e-01	0	59	104	3034578944	51	14194
2026-01-08 11:08:50.39	352.91	9.58	-40.3	-52.1	3.8	8.47e-01	0	59	104	3034578944	51	14576
2026-01-08 11:08:51.40	352.84	9.50	-40.3	-52.0	3.8	8.46e-01	0	59	104	3034578944	51	14396
2026-01-08 11:08:52.41	352.77	9.42	-40.4	-52.1	3.8	8.45e-01	0	59	104	3034578944	51	14634
2026-01-08 11:08:53.42	352.70	9.34	-40.3	-52.0	3.8	8.45e-01	0	59	104	3034578944	51	14530
2026-01-08 11:08:54.43	352.63	9.26	-40.4	-52.0	3.8	8.46e-01	0	59	104	3034578944	51	14539
2026-01-08 11:08:55.44	352.57	9.19	-40.3	-52.0	3.8	8.45e-01	0	59	104	3034578944	51	14532
2026-01-08 11:08:56.45	352.50	9.11	-40.4	-52.1	3.8	8.47e-01	0	59	104	3034578944	51	14571
2026-01-08 11:08:57.46	352.44	9.03	-40.3	-52.1	3.8	8.47e-01	0	59	104	3034578944	51	14602
2026-01-08 11:08:58.47	352.37	8.95	-40.4	-52.1	3.8	8.46e-01	0	59	104	3034578944	51	14651
2026-01-08 11:08:59.48	352.30	8.87	-40.4	-52.1	3.8	8.46e-01	0	59	104	3034578944	51	14614
2026-01-08 11:09:00.49	352.24	8.80	-40.4	-52.2	3.8	8.46e-01	0	59	104	3034578944	51	14715
2026-01-08 11:09:01.50	352.17	8.72	-40.5	-52.2	3.8	8.45e-01	0	59	104	3034578944	51	14719
2026-01-08 11:09:02.51	352.11	8.64	-40.4	-52.1	3.8	8.45e-01	0	59	104	3034578944	51	14633
2026-01-08 11:09:03.51	352.05	8.57	-40.4	-52.1	3.8	8.47e-01	0	59	104	3034578944	51	14551
2026-01-08 11:09:04.53	351.98	8.49	-40.4	-52.1	3.8	8.47e-01	0	59	104	3034578944	51	14607
2026-01-08 11:09:05.53	351.92	8.41	-40.4	-52.1	3.8	8.46e-01	0	59	104	3034578944	51	14547
2026-01-08 11:09:06.54	351.86	8.34	-40.5	-52.1	3.8	8.45e-01	0	59	104	3034578944	51	14652
2026-01-08 11:09:07.55	351.80	8.26	-40.4	-52.1	3.8	8.45e-01	0	59	104	3034578944	51	14636
2026-01-08 11:09:08.56	351.73	8.18	-40.5	-52.1	3.8	8.46e-01	0	59	104	3034578944	51	14704
2026-01-08 11:09:09.57	351.67	8.11	-40.4	-52.1	3.8	8.46e-01	0	59	104	3034578944	51	14671
2026-01-08 11:09:10.58	351.61	8.03	-40.5	-52.1	3.8	8.45e-01	0	59	104	3034578944	51	14612
2026-01-08 11:09:11.59	351.55	7.96	-40.4	-52.1	3.8	8.46e-01	0	59	104	3034578944	51	14692
2026-01-08 11:09:12.61	351.49	7.88	-40.6	-52.3	3.8	8.46e-01	0	59	104	3034578944	52	14155
2026-01-08 11:09:13.62	351.43	7.81	-40.7	-52.5	3.8	8.47e-01	0	59	104	3034578944	52	14459
2026-01-08 11:09:14.63	351.37	7.73	-44.6	-56.1	3.8	8.46e-01	0	59	104	3034578944	59	14603
2026-01-08 11:09:15.63	351.31	7.66	-44.9	-56.6	3.8	8.46e-01	0	59	104	3034578944	60	14583
2026-01-08 11:09:16.65	351.25	7.58	-45.0	-56.7	3.8	8.45e-01	0	59	104	3034578944	60	14793
2026-01-08 11:09:17.66	351.19	7.51	-45.1	-56.8	3.8	8.46e-01	0	59	104	3034578944	60	14915
2026-01-08 11:09:18.67	351.13	7.44	-45.1	-56.8	3.8	8.46e-01	0	59	104	3034578944	60	15011
2026-01-08 11:09:19.67	351.07	7.36	-45.2	-56.9	3.8	8.47e-01	0	59	104	3034578944	60	15059
2026-01-08 11:09:20.68	351.01	7.29	-45.2	-56.9	3.8	8.46e-01	0	59	104	3034578944	60	15097
2026-01-08 11:09:21.69	350.96	7.22	-45.2	-56.9	3.8	8.46e-01	0	59	104	3034578944	60	15123
2026-01-08 11:09:22.70	350.90	7.14	-45.2	-56.8	3.8	8.47e-01	0	59	104	3034578944	60	15042
2026-01-08 11:09:23.71	350.84	7.07	-45.1	-56.8	3.8	8.46e-01	0	59	104	3034578944	60	14965
2026-01-08 11:09:24.72	350.78	7.00	-45.1	-56.8	3.8	8.45e-01	0	59	104	3034578944	60	14973
2026-01-08 11:09:25.73	350.73	6.92	-45.1	-56.7	3.8	8.45e-01	0	59	104	3034578944	60	14797
2026-01-08 11:09:26.74	350.67	6.85	-45.1	-56.7	3.8	8.46e-01	0	59	104	3034578944	60	14815
2026-01-08 11:09:27.75	350.62	6.78	-45.1	-56.7	3.8	8.46e-01	0	59	104	3034578944	60	14772
2026-01-08 11:09:28.76	350.56	6.71	-45.0	-56.7	3.8	8.45e-01	0	59	104	3034578944	60	14710
2026-01-08 11:09:29.77	350.50	6.64	-45.0	-56.6	3.8	8.46e-01	0	59	104	3034578944	60	14650
2026-01-08 11:09:30.78	350.45	6.56	-45.0	-56.6	3.8	8.47e-01	0	59	104	3034578944	60	14648
2026-01-08 11:09:31.80	350.39	6.49	-45.0	-56.6	3.8	8.46e-01	0	59	104	3034578944	60	14677
2026-01-08 11:09:32.81	350.34	6.42	-45.0	-56.6	3.8	8.46e-01	0	59	104	3034578944	60	14660
2026-01-08 11:09:33.82	350.29	6.35	-45.0	-56.6	3.8	8.46e-01	0	59	104	3034578944	60	14677
2026-01-08 11:09:34.83	350.23	6.28	-45.0	-56.6	3.8	8.45e-01	0	59	104	3034578944	60	14647
2026-01-08 11:09:35.84	350.18	6.21	-45.0	-56.6	3.8	8.47e-01	0	59	104	3034578944	60	14677
2026-01-08 11:09:36.85	350.12	6.14	-45.0	-56.6	3.8	8.47e-01	0	59	104	3034578944	60	14653
2026-01-08 11:09:37.86	350.07	6.07	-45.0	-56.6	3.8	8.47e-01	0	59	104	3034578944	60	14672
2026-01-08 11:09:38.87	350.02	6.00	-45.0	-56.6	3.8	8.45e-01	0	59	104	3034578944	60	14594
2026-01-08 11:09:39.88	349.97	5.92	-45.0	-56.6	3.8	8.46e-01	0	59	104	3034578944	60	14648
2026-01-08 11:09:40.89	349.91	5.85	-45.0	-56.6	3.8	8.46e-01	0	59	104	3034578944	60	14649
2026-01-08 11:09:41.90	349.86	5.78	-45.0	-56.6	3.8	8.47e-01	0	59	104	3034578944	60	14595
2026-01-08 11:09:42.91	349.81	5.71	-45.0	-56.6	3.8	8.45e-01	0	59	104	3034578944	60	14600
2026-01-08 11:09:43.92	349.76	5.65	-45.0	-56.6	3.8	8.47e-01	0	59	104	3034578944	60	14571
2026-01-08 11:09:44.93	349.71	5.58	-45.0	-56.6	3.8	8.46e-01	0	59	104	3034578944	60	14584
2026-01-08 11:09:45.95	349.66	5.51	-45.0	-56.6	3.8	8.46e-01	0	59	104	3034578944	60	14589
2026-01-08 11:09:46.96	349.60	5.44	-45.0	-56.6	3.8	8.45e-01	0	59	104	3034578944	60	14622
2026-01-08 11:09:47.97	349.55	5.37	-45.0	-56.6	3.8	8.46e-01	0	59	104	3034578944	60	14600
2026-01-08 11:09:48.98	349.50	5.30	-45.0	-56.6	3.8	8.45e-01	0	59	104	3034578944	60	14648
2026-01-08 11:09:49.99	349.45	5.23	-45.0	-56.6	3.8	8.45e-01	0	59	104	3034578944	60	14575
2026-01-08 11:09:51.00	349.40	5.16	-45.0	-56.6	3.8	8.46e-01	0	59	104	3034578944	60	14575
2026-01-08 11:09:52.01	349.36	5.09	-45.0	-56.6	3.8	8.45e-01	0	59	104	3034578944	60	14568
