passes_logs/2026/01/08/R2.0S_Moscow/R2.0S_Moscow__20260108_092640_NOAA_21_JPSS-2_rec.log

#Pass ID: 20260108_092640_NOAA 21 (JPSS-2)
#Satellite: NOAA 21 (JPSS-2)
#Configuration: NOAA-21
#almurnet v.1.7.20251203
#Start time: 2026-01-08 09:26:42

#Version: 2.2.20231116
#Station: R2.0S_Moscow
#Location: 37.707566 lon 55.798166 lat
#TLE: 1 54234U 22150A   26005.56767909  .00000152  00000+0  92756-4 0  9990
#TLE: 2 54234  98.7490 306.5820 0001036 340.2747  19.8389 14.19532370163472

#Time	Az	El	Level	Level2	SNR	BER	BlckErr	Temp	State	Recorded	gain1	gain2
2026-01-08 09:26:42.90	146.78	2.15	-43.8	-56.0	3.8	1.49e+00	0	47	0	0	58	15262
2026-01-08 09:26:43.90	146.76	2.22	-43.8	-55.9	3.8	1.49e+00	0	47	104	0	59	14345
2026-01-08 09:26:44.91	146.74	2.28	-43.8	-55.9	3.8	1.49e+00	0	47	104	0	59	14354
2026-01-08 09:26:45.92	146.72	2.35	-43.8	-55.9	3.8	1.49e+00	0	48	104	0	59	14362
2026-01-08 09:26:46.93	146.71	2.41	-43.8	-56.0	3.8	1.49e+00	0	47	104	0	59	14396
2026-01-08 09:26:47.94	146.69	2.48	-43.8	-55.9	3.8	1.49e+00	0	48	104	0	59	14322
2026-01-08 09:26:48.95	146.67	2.54	-43.8	-55.9	3.8	1.49e+00	0	47	104	0	58	15219
2026-01-08 09:26:49.96	146.65	2.61	-43.8	-55.9	3.8	1.49e+00	0	48	104	0	58	15210
2026-01-08 09:26:50.97	146.63	2.67	-43.4	-55.9	3.8	1.49e+00	0	48	104	0	58	15171
2026-01-08 09:26:51.98	146.61	2.74	-43.8	-55.9	3.8	1.49e+00	0	48	104	0	58	15182
2026-01-08 09:26:52.99	146.59	2.81	-43.6	-55.9	3.8	1.49e+00	0	48	104	0	58	15140
2026-01-08 09:26:54.00	146.57	2.87	-43.8	-55.9	3.8	1.49e+00	0	48	104	0	58	15220
2026-01-08 09:26:55.01	146.55	2.94	-43.8	-55.9	3.8	1.49e+00	0	48	104	0	58	15151
2026-01-08 09:26:56.01	146.53	3.01	-43.8	-55.9	3.8	1.49e+00	0	48	104	0	58	15136
2026-01-08 09:26:57.03	146.51	3.07	-43.8	-55.9	3.8	1.49e+00	0	48	104	0	58	15178
2026-01-08 09:26:58.04	146.49	3.14	-43.8	-55.9	3.8	1.49e+00	0	48	104	0	58	15183
2026-01-08 09:26:59.05	146.47	3.21	-43.8	-55.9	3.8	1.49e+00	0	48	104	0	58	15195
2026-01-08 09:27:00.06	146.45	3.27	-43.8	-55.9	3.8	1.49e+00	0	49	104	0	58	15167
2026-01-08 09:27:01.07	146.43	3.34	-43.8	-55.9	3.8	1.49e+00	0	48	104	0	58	15198
2026-01-08 09:27:02.07	146.41	3.41	-43.8	-55.9	3.8	1.49e+00	0	49	104	0	58	15203
2026-01-08 09:27:03.09	146.38	3.48	-43.8	-55.9	3.8	1.49e+00	0	49	104	0	58	15168
2026-01-08 09:27:04.10	146.36	3.54	-43.8	-55.9	3.8	1.49e+00	0	49	104	0	58	15156
2026-01-08 09:27:05.11	146.34	3.61	-43.8	-55.9	3.8	1.49e+00	0	49	104	0	58	15188
2026-01-08 09:27:06.11	146.32	3.68	-43.8	-56.0	3.8	1.49e+00	0	49	104	0	58	15226
2026-01-08 09:27:07.12	146.30	3.75	-43.8	-55.9	3.8	1.49e+00	0	49	104	0	58	15203
2026-01-08 09:27:08.13	146.28	3.82	-43.6	-55.9	3.8	1.49e+00	0	49	104	0	58	15203
2026-01-08 09:27:09.14	146.26	3.89	-43.8	-55.9	3.8	1.49e+00	0	49	104	0	58	15203
2026-01-08 09:27:10.15	146.24	3.95	-43.8	-55.9	3.8	1.49e+00	0	49	104	0	58	15204
2026-01-08 09:27:11.16	146.21	4.02	-43.8	-56.0	3.8	1.49e+00	0	49	104	0	58	15243
2026-01-08 09:27:12.17	146.19	4.09	-43.8	-55.9	3.8	1.49e+00	0	49	104	0	58	15176
2026-01-08 09:27:13.18	146.17	4.16	-43.8	-55.9	3.8	1.49e+00	0	49	104	0	58	15198
2026-01-08 09:27:14.19	146.15	4.23	-43.8	-55.9	3.8	1.49e+00	0	49	104	0	58	15126
2026-01-08 09:27:15.20	146.13	4.30	-43.8	-55.9	3.8	1.49e+00	0	49	104	0	58	15148
2026-01-08 09:27:16.21	146.10	4.37	-43.6	-55.9	3.8	1.49e+00	0	50	104	0	57	16043
2026-01-08 09:27:17.22	146.08	4.44	-43.6	-55.9	3.8	1.49e+00	0	50	104	0	58	15097
2026-01-08 09:27:18.23	146.06	4.51	-43.7	-55.9	3.8	1.49e+00	0	49	104	0	58	15098
2026-01-08 09:27:19.24	146.04	4.58	-43.7	-55.8	3.8	1.49e+00	0	50	104	0	58	15015
2026-01-08 09:27:20.25	146.01	4.65	-43.7	-55.8	3.8	1.49e+00	0	49	104	0	58	14991
2026-01-08 09:27:21.26	145.99	4.72	-43.7	-55.8	3.8	1.49e+00	0	50	104	0	58	14993
2026-01-08 09:27:22.27	145.97	4.80	-43.7	-55.8	3.8	1.49e+00	0	50	104	0	58	14906
2026-01-08 09:27:23.28	145.94	4.87	-43.7	-55.7	3.8	1.49e+00	0	50	104	0	58	14803
2026-01-08 09:27:24.29	145.92	4.94	-43.7	-55.7	3.8	1.49e+00	0	50	104	0	58	14773
2026-01-08 09:27:25.30	145.90	5.01	-43.7	-55.6	3.8	1.49e+00	0	50	104	0	58	14696
2026-01-08 09:27:26.31	145.87	5.08	-43.7	-55.6	3.8	1.49e+00	0	50	104	0	58	14708
2026-01-08 09:27:27.32	145.85	5.15	-43.7	-55.7	3.8	1.49e+00	0	50	104	0	58	14729
2026-01-08 09:27:28.33	145.83	5.23	-43.5	-55.6	3.8	1.49e+00	0	50	104	0	58	14685
2026-01-08 09:27:29.34	145.80	5.30	-43.7	-55.6	3.8	1.49e+00	0	50	104	0	58	14703
2026-01-08 09:27:30.35	145.78	5.37	-43.7	-55.6	3.8	1.49e+00	0	50	104	0	58	14681
2026-01-08 09:27:31.35	145.75	5.44	-43.7	-55.7	3.8	1.49e+00	0	50	104	0	58	14756
2026-01-08 09:27:32.36	145.73	5.52	-43.7	-55.7	3.8	1.49e+00	0	50	104	0	58	14803
2026-01-08 09:27:33.37	145.71	5.59	-43.7	-55.7	3.8	1.49e+00	0	50	104	0	58	14810
2026-01-08 09:27:34.38	145.68	5.66	-43.5	-55.7	3.8	1.49e+00	0	50	104	0	58	14763
2026-01-08 09:27:35.40	145.66	5.74	-43.7	-55.7	3.8	1.49e+00	0	51	104	0	58	14799
2026-01-08 09:27:36.40	145.63	5.81	-43.7	-55.7	3.8	1.49e+00	0	51	104	0	58	14877
2026-01-08 09:27:37.41	145.61	5.88	-43.7	-55.8	3.8	1.49e+00	0	51	104	0	58	14880
2026-01-08 09:27:38.42	145.58	5.96	-43.7	-55.7	3.8	1.49e+00	0	51	104	0	58	14835
2026-01-08 09:27:39.43	145.56	6.03	-43.7	-55.6	3.8	1.49e+00	0	51	104	0	58	14706
2026-01-08 09:27:40.44	145.53	6.11	-43.5	-55.5	3.8	1.49e+00	0	51	104	0	57	15355
2026-01-08 09:27:41.45	145.51	6.18	-43.6	-55.5	3.8	1.49e+00	0	51	104	0	57	15262
2026-01-08 09:27:42.46	145.48	6.26	-43.7	-55.4	3.8	1.49e+00	0	51	104	0	57	15069
2026-01-08 09:27:43.47	145.45	6.33	-43.7	-55.4	3.8	1.49e+00	0	51	104	0	57	15062
2026-01-08 09:27:44.48	145.43	6.41	-43.7	-55.4	3.8	1.49e+00	0	51	104	0	57	15154
2026-01-08 09:27:45.49	145.40	6.48	-43.7	-55.4	3.8	1.49e+00	0	51	104	0	57	15160
2026-01-08 09:27:46.50	145.38	6.56	-43.7	-55.6	3.8	1.49e+00	0	51	104	0	57	15405
2026-01-08 09:27:47.51	145.35	6.63	-43.7	-55.7	3.8	1.49e+00	0	51	104	0	58	14845
2026-01-08 09:27:48.52	145.32	6.71	-43.8	-55.8	3.8	1.49e+00	0	51	104	0	58	14925
2026-01-08 09:27:49.53	145.30	6.79	-43.7	-55.7	3.8	1.49e+00	0	51	104	0	58	14799
2026-01-08 09:27:50.54	145.27	6.86	-43.7	-55.5	3.8	1.49e+00	0	51	104	0	58	14404
2026-01-08 09:27:51.55	145.24	6.94	-43.6	-55.0	3.8	1.49e+00	0	51	104	0	58	13638
2026-01-08 09:27:52.56	145.21	7.02	-43.4	-54.2	3.8	1.49e+00	0	51	104	0	58	12384
2026-01-08 09:27:53.56	145.19	7.09	-43.4	-52.5	4.2	1.48e+00	0	51	104	0	58	10192
2026-01-08 09:27:54.57	145.16	7.17	-43.2	-51.3	4.1	1.30e+00	0	51	104	0	58	8891
2026-01-08 09:27:55.58	145.13	7.25	-42.9	-50.0	5.2	6.97e-01	0	51	0	1048576	57	8098
2026-01-08 09:27:56.59	145.10	7.33	-42.5	-48.8	6.0	3.99e-01	0	52	0	3145728	57	7113
2026-01-08 09:27:57.60	145.08	7.41	-42.0	-47.3	7.1	1.75e-01	0	51	0	7340032	55	6693
2026-01-08 09:27:58.61	145.05	7.49	-41.7	-46.2	8.2	7.48e-02	0	51	0	10485760	55	5899
2026-01-08 09:27:59.62	145.02	7.56	-41.2	-45.3	9.2	2.40e-02	0	51	0	13631488	53	5954
2026-01-08 09:28:00.63	144.99	7.64	-40.7	-44.4	10.1	7.80e-03	0	52	0	16777216	53	5372
2026-01-08 09:28:01.64	144.96	7.72	-40.5	-43.8	10.7	3.25e-03	0	52	0	19922944	52	5340
2026-01-08 09:28:02.65	144.93	7.80	-40.1	-43.1	11.4	9.03e-04	0	52	0	23068672	52	4922
2026-01-08 09:28:03.66	144.90	7.88	-39.7	-42.4	12.2	3.61e-04	0	52	0	26214400	51	4800
2026-01-08 09:28:04.67	144.88	7.96	-39.5	-42.2	12.4	1.58e-04	0	52	0	29360128	49	5263
2026-01-08 09:28:05.68	144.85	8.04	-39.3	-41.9	12.8	5.64e-05	0	52	0	32505856	49	5075
2026-01-08 09:28:06.69	144.82	8.12	-42.9	-49.7	5.8	1.88e-02	0	52	0	35651584	56	8288
2026-01-08 09:28:07.70	144.79	8.20	-42.5	-48.1	6.7	8.42e-01	0	52	104	35651584	57	6517
2026-01-08 09:28:08.71	144.76	8.28	-39.0	-41.4	13.4	1.36e-04	0	52	0	37748736	48	5051
2026-01-08 09:28:09.72	144.73	8.37	-41.1	-45.1	9.6	2.54e-04	0	52	0	40894464	52	6142
2026-01-08 09:28:10.73	144.70	8.45	-40.0	-42.9	11.9	1.34e-03	0	52	0	44040192	50	5344
2026-01-08 09:28:11.74	144.67	8.53	-39.8	-42.6	11.9	2.13e-02	0	52	0	47185920	51	4884
2026-01-08 09:28:12.75	144.64	8.61	-39.1	-41.6	13.1	3.50e-05	0	52	0	50331648	48	5167
2026-01-08 09:28:13.76	144.60	8.69	-38.9	-41.2	13.5	1.60e-05	0	52	0	53477376	49	4684
2026-01-08 09:28:14.77	144.57	8.78	-38.9	-41.3	13.4	2.05e-05	0	52	0	56623104	49	4727
2026-01-08 09:28:15.77	144.54	8.86	-39.1	-41.5	13.2	2.36e-05	0	52	0	59768832	49	4816
2026-01-08 09:28:16.78	144.51	8.94	-38.6	-41.0	13.7	6.80e-06	0	52	0	62914560	49	4587
2026-01-08 09:28:17.79	144.48	9.02	-38.7	-41.0	13.7	8.30e-06	0	52	0	66060288	49	4565
2026-01-08 09:28:18.81	144.45	9.11	-38.8	-41.0	13.7	7.60e-06	0	53	0	69206016	49	4595
2026-01-08 09:28:19.82	144.42	9.19	-38.7	-40.9	13.9	3.00e-06	0	52	0	72351744	49	4500
2026-01-08 09:28:20.83	144.38	9.28	-38.6	-40.7	14.0	7.00e-07	0	52	0	75497472	49	4438
2026-01-08 09:28:21.83	144.35	9.36	-38.6	-40.8	14.0	3.80e-06	0	52	0	78643200	49	4477
2026-01-08 09:28:22.84	144.32	9.44	-38.3	-40.7	14.1	7.00e-07	0	52	0	81788928	48	4677
2026-01-08 09:28:23.85	144.29	9.53	-38.4	-40.5	14.4	0.00e+00	0	52	0	84934656	48	4556
2026-01-08 09:28:24.86	144.25	9.62	-38.4	-40.5	14.4	7.00e-07	0	53	0	88080384	48	4571
2026-01-08 09:28:25.87	144.22	9.70	-38.4	-40.5	14.4	7.00e-07	0	52	0	91226112	48	4556
2026-01-08 09:28:26.88	144.19	9.79	-38.4	-40.4	14.5	1.50e-06	0	53	0	94371840	48	4540
2026-01-08 09:28:27.89	144.15	9.87	-38.4	-40.5	14.4	7.00e-07	0	53	0	97517568	48	4552
2026-01-08 09:28:28.90	144.12	9.96	-38.4	-40.4	14.6	7.00e-07	0	53	0	100663296	48	4506
2026-01-08 09:28:29.91	144.08	10.05	-38.3	-40.3	14.7	7.00e-07	0	52	0	103809024	48	4445
2026-01-08 09:28:30.92	144.05	10.13	-38.4	-40.4	14.6	7.00e-07	0	53	0	106954752	48	4513
2026-01-08 09:28:31.93	144.02	10.22	-38.3	-40.2	14.7	0.00e+00	0	53	0	110100480	48	4440
2026-01-08 09:28:32.94	143.98	10.31	-38.3	-40.3	14.7	0.00e+00	0	53	0	113246208	48	4458
2026-01-08 09:28:33.94	143.95	10.39	-38.3	-40.4	14.7	0.00e+00	0	53	0	116391936	48	4495
2026-01-08 09:28:34.95	143.91	10.48	-38.2	-40.1	14.9	0.00e+00	0	53	0	120586240	48	4386
2026-01-08 09:28:35.96	143.88	10.57	-38.1	-40.0	15.0	0.00e+00	0	53	0	123731968	48	4332
2026-01-08 09:28:36.97	143.84	10.66	-38.1	-40.0	15.0	0.00e+00	0	53	0	126877696	48	4338
2026-01-08 09:28:37.98	143.80	10.75	-38.2	-40.1	15.0	0.00e+00	0	53	0	128974848	48	4350
2026-01-08 09:28:38.99	143.77	10.84	-38.2	-40.1	15.0	0.00e+00	0	53	0	132120576	48	4353
2026-01-08 09:28:40.00	143.73	10.93	-38.2	-40.1	15.0	0.00e+00	0	53	0	136314880	48	4357
2026-01-08 09:28:41.01	143.70	11.02	-38.1	-40.0	15.1	0.00e+00	0	53	0	139460608	48	4321
2026-01-08 09:28:42.02	143.66	11.11	-38.0	-39.8	15.3	0.00e+00	0	53	0	142606336	48	4236
2026-01-08 09:28:43.03	143.62	11.20	-38.0	-40.0	15.1	0.00e+00	0	53	0	145752064	47	4552
2026-01-08 09:28:44.04	143.58	11.29	-37.9	-39.7	15.3	0.00e+00	0	53	0	148897792	47	4423
2026-01-08 09:28:45.05	143.55	11.38	-37.8	-39.7	15.4	0.00e+00	0	53	0	152043520	47	4401
2026-01-08 09:28:46.06	143.51	11.47	-37.9	-39.8	15.3	0.00e+00	0	53	0	155189248	47	4449
2026-01-08 09:28:47.07	143.47	11.57	-37.8	-39.6	15.5	0.00e+00	0	53	0	158334976	47	4375
2026-01-08 09:28:48.08	143.43	11.66	-37.7	-39.4	15.6	0.00e+00	0	53	0	161480704	47	4291
2026-01-08 09:28:49.09	143.39	11.75	-37.7	-39.6	15.6	0.00e+00	0	53	0	164626432	47	4342
2026-01-08 09:28:50.10	143.36	11.84	-37.6	-39.4	15.7	0.00e+00	0	53	0	167772160	47	4284
2026-01-08 09:28:51.11	143.32	11.94	-37.7	-39.5	15.7	0.00e+00	0	53	0	170917888	47	4292
2026-01-08 09:28:52.12	143.28	12.03	-37.6	-39.3	15.8	0.00e+00	0	54	0	174063616	47	4213
2026-01-08 09:28:53.13	143.24	12.13	-37.7	-39.5	15.7	0.00e+00	0	53	0	177209344	47	4311
2026-01-08 09:28:54.14	143.20	12.22	-37.6	-39.3	15.8	0.00e+00	0	53	0	180355072	47	4227
2026-01-08 09:28:55.15	143.16	12.31	-37.5	-39.2	16.0	0.00e+00	0	53	0	183500800	47	4166
2026-01-08 09:28:56.16	143.12	12.41	-37.6	-39.4	15.8	0.00e+00	0	53	0	186646528	47	4245
2026-01-08 09:28:57.16	143.08	12.50	-37.4	-39.1	16.0	0.00e+00	0	53	0	189792256	46	4390
2026-01-08 09:28:58.17	143.04	12.60	-37.5	-39.2	16.0	0.00e+00	0	53	0	192937984	46	4403
2026-01-08 09:28:59.18	142.99	12.70	-37.5	-39.2	16.0	0.00e+00	0	53	0	196083712	46	4422
2026-01-08 09:29:00.20	142.95	12.79	-37.5	-39.2	16.0	0.00e+00	0	54	0	199229440	46	4394
2026-01-08 09:29:01.20	142.91	12.89	-37.6	-39.3	15.9	0.00e+00	0	53	0	202375168	46	4454
2026-01-08 09:29:02.21	142.87	12.99	-37.4	-39.0	16.2	0.00e+00	0	54	0	205520896	46	4332
2026-01-08 09:29:03.22	142.83	13.09	-37.4	-39.1	16.1	0.00e+00	0	53	0	208666624	46	4374
2026-01-08 09:29:04.23	142.78	13.18	-37.5	-39.2	16.0	0.00e+00	0	54	0	211812352	46	4424
2026-01-08 09:29:05.24	142.74	13.28	-37.4	-39.1	16.1	0.00e+00	0	54	0	214958080	46	4366
2026-01-08 09:29:06.24	142.70	13.38	-37.4	-39.1	16.1	0.00e+00	0	54	0	218103808	46	4382
2026-01-08 09:29:07.25	142.65	13.48	-37.3	-39.0	16.3	0.00e+00	0	53	0	221249536	46	4308
2026-01-08 09:29:08.25	142.61	13.58	-37.3	-39.0	16.3	0.00e+00	0	53	0	224395264	46	4301
2026-01-08 09:29:09.26	142.57	13.68	-37.4	-39.1	16.2	0.00e+00	0	54	0	227540992	46	4356
2026-01-08 09:29:10.27	142.52	13.78	-37.3	-38.9	16.3	0.00e+00	0	54	0	230686720	46	4286
2026-01-08 09:29:11.28	142.48	13.88	-37.3	-38.9	16.4	0.00e+00	0	54	0	233832448	46	4274
2026-01-08 09:29:12.29	142.43	13.98	-37.5	-39.1	16.1	0.00e+00	0	54	0	236978176	46	4389
2026-01-08 09:29:13.30	142.39	14.08	-37.3	-39.0	16.3	0.00e+00	0	54	0	240123904	46	4304
2026-01-08 09:29:14.31	142.34	14.18	-37.4	-39.1	16.2	0.00e+00	0	54	0	243269632	46	4344
2026-01-08 09:29:15.32	142.29	14.29	-37.4	-39.1	16.3	0.00e+00	0	54	0	246415360	46	4346
2026-01-08 09:29:16.32	142.25	14.39	-37.3	-38.9	16.4	0.00e+00	0	54	0	249561088	46	4264
2026-01-08 09:29:17.33	142.20	14.49	-37.3	-39.0	16.3	0.00e+00	0	54	0	252706816	46	4315
2026-01-08 09:29:18.34	142.15	14.59	-37.4	-39.1	16.3	0.00e+00	0	54	0	255852544	46	4347
2026-01-08 09:29:19.35	142.11	14.70	-37.3	-39.0	16.4	0.00e+00	0	54	0	258998272	46	4299
2026-01-08 09:29:20.36	142.06	14.80	-37.5	-39.2	16.2	0.00e+00	0	54	0	262144000	46	4395
2026-01-08 09:29:21.37	142.01	14.91	-37.4	-39.1	16.3	0.00e+00	0	54	0	265289728	46	4347
2026-01-08 09:29:22.38	141.96	15.01	-37.5	-39.1	16.2	0.00e+00	0	54	0	268435456	46	4376
2026-01-08 09:29:23.39	141.91	15.12	-37.4	-39.1	16.3	0.00e+00	0	54	0	271581184	46	4357
2026-01-08 09:29:24.40	141.86	15.23	-37.4	-39.1	16.3	0.00e+00	0	54	0	274726912	46	4362
2026-01-08 09:29:25.41	141.81	15.33	-37.5	-39.1	16.3	0.00e+00	0	54	0	277872640	46	4372
2026-01-08 09:29:26.42	141.76	15.44	-37.5	-39.1	16.2	0.00e+00	0	54	0	281018368	46	4381
2026-01-08 09:29:27.43	141.71	15.55	-37.6	-39.2	16.1	0.00e+00	0	54	0	284164096	46	4441
2026-01-08 09:29:28.43	141.66	15.65	-37.5	-39.2	16.2	0.00e+00	0	54	0	287309824	46	4412
2026-01-08 09:29:29.44	141.61	15.76	-37.6	-39.2	16.2	0.00e+00	0	54	0	290455552	46	4435
2026-01-08 09:29:30.46	141.56	15.87	-37.6	-39.3	16.1	0.00e+00	0	54	0	293601280	46	4462
2026-01-08 09:29:31.46	141.51	15.98	-37.7	-39.4	16.0	0.00e+00	0	54	0	296747008	46	4529
2026-01-08 09:29:32.47	141.45	16.09	-37.6	-39.3	16.1	0.00e+00	0	54	0	299892736	46	4491
2026-01-08 09:29:33.49	141.40	16.20	-37.6	-39.3	16.1	0.00e+00	0	54	0	303038464	46	4493
2026-01-08 09:29:34.49	141.35	16.31	-37.6	-39.3	16.2	0.00e+00	0	54	0	306184192	46	4448
2026-01-08 09:29:35.50	141.29	16.42	-37.6	-39.3	16.1	0.00e+00	0	54	0	309329920	46	4493
2026-01-08 09:29:36.51	141.24	16.53	-37.6	-39.3	16.2	0.00e+00	0	54	0	312475648	46	4462
2026-01-08 09:29:37.52	141.19	16.65	-37.6	-39.3	16.2	0.00e+00	0	54	0	315621376	46	4465
2026-01-08 09:29:38.53	141.13	16.76	-37.7	-39.4	16.1	0.00e+00	0	54	0	318767104	46	4521
2026-01-08 09:29:39.54	141.08	16.87	-37.6	-39.3	16.2	0.00e+00	0	54	0	321912832	46	4454
2026-01-08 09:29:40.55	141.02	16.99	-37.6	-39.3	16.2	0.00e+00	0	54	0	325058560	46	4475
2026-01-08 09:29:41.56	140.96	17.10	-37.6	-39.3	16.1	0.00e+00	0	54	0	328204288	46	4476
2026-01-08 09:29:42.57	140.91	17.22	-37.6	-39.3	16.2	0.00e+00	0	54	0	331350016	46	4470
2026-01-08 09:29:43.58	140.85	17.33	-37.6	-39.3	16.2	0.00e+00	0	54	0	334495744	46	4479
2026-01-08 09:29:44.59	140.79	17.45	-37.7	-39.4	16.1	0.00e+00	0	54	0	337641472	46	4522
2026-01-08 09:29:45.60	140.73	17.56	-37.7	-39.4	16.1	0.00e+00	0	54	0	340787200	46	4501
2026-01-08 09:29:46.60	140.68	17.68	-37.8	-39.5	16.0	0.00e+00	0	54	0	343932928	46	4574
2026-01-08 09:29:47.61	140.62	17.80	-37.7	-39.4	16.1	0.00e+00	0	54	0	347078656	46	4514
2026-01-08 09:29:48.62	140.56	17.91	-37.7	-39.4	16.1	0.00e+00	0	54	0	350224384	46	4531
2026-01-08 09:29:49.63	140.50	18.03	-37.7	-39.4	16.2	0.00e+00	0	55	0	353370112	46	4505
2026-01-08 09:29:50.64	140.44	18.15	-37.7	-39.4	16.2	0.00e+00	0	54	0	356515840	46	4494
2026-01-08 09:29:51.65	140.38	18.27	-37.7	-39.4	16.2	0.00e+00	0	54	0	359661568	46	4501
2026-01-08 09:29:52.66	140.31	18.39	-37.8	-39.5	16.1	0.00e+00	0	54	0	362807296	46	4560
2026-01-08 09:29:53.67	140.25	18.51	-37.7	-39.4	16.2	0.00e+00	0	54	0	365953024	46	4516
2026-01-08 09:29:54.68	140.19	18.63	-37.8	-39.5	16.1	0.00e+00	0	54	0	369098752	46	4583
2026-01-08 09:29:55.69	140.13	18.76	-37.8	-39.5	16.1	0.00e+00	0	55	0	372244480	46	4596
2026-01-08 09:29:56.69	140.06	18.88	-37.8	-39.5	16.1	0.00e+00	0	55	0	375390208	46	4568
2026-01-08 09:29:57.71	140.00	19.00	-37.8	-39.5	16.1	0.00e+00	0	55	0	378535936	46	4573
2026-01-08 09:29:58.71	139.94	19.12	-37.7	-39.4	16.2	0.00e+00	0	54	0	381681664	46	4517
2026-01-08 09:29:59.72	139.87	19.25	-37.8	-39.5	16.1	0.00e+00	0	55	0	384827392	46	4568
2026-01-08 09:30:00.73	139.80	19.37	-37.7	-39.4	16.3	0.00e+00	0	54	0	387973120	46	4495
2026-01-08 09:30:01.74	139.74	19.50	-37.7	-39.4	16.2	0.00e+00	0	55	0	391118848	46	4503
2026-01-08 09:30:02.75	139.67	19.62	-37.7	-39.4	16.2	0.00e+00	0	55	0	394264576	46	4525
2026-01-08 09:30:03.76	139.60	19.75	-37.6	-39.3	16.3	0.00e+00	0	55	0	397410304	46	4467
2026-01-08 09:30:04.77	139.54	19.88	-37.5	-39.2	16.5	0.00e+00	0	55	0	400556032	46	4401
2026-01-08 09:30:05.78	139.47	20.00	-37.6	-39.2	16.4	0.00e+00	0	55	0	403701760	46	4412
2026-01-08 09:30:06.79	139.40	20.13	-37.4	-39.1	16.6	0.00e+00	0	55	0	406847488	46	4345
2026-01-08 09:30:07.80	139.33	20.26	-37.4	-39.0	16.6	0.00e+00	0	55	0	409993216	46	4322
2026-01-08 09:30:08.81	139.26	20.39	-37.4	-39.0	16.6	0.00e+00	0	55	0	413138944	46	4333
2026-01-08 09:30:09.82	139.19	20.52	-37.4	-39.0	16.7	0.00e+00	0	55	0	416284672	46	4304
2026-01-08 09:30:10.83	139.12	20.65	-37.5	-39.1	16.6	0.00e+00	0	55	0	419430400	46	4356
2026-01-08 09:30:11.84	139.04	20.78	-37.3	-38.9	16.8	0.00e+00	0	55	0	422576128	46	4256
2026-01-08 09:30:12.84	138.97	20.91	-37.2	-38.8	16.9	0.00e+00	0	55	0	425721856	46	4199
2026-01-08 09:30:13.86	138.90	21.05	-37.2	-38.8	16.9	0.00e+00	0	55	0	428867584	46	4223
2026-01-08 09:30:14.86	138.82	21.18	-37.2	-38.7	17.0	0.00e+00	0	55	0	432013312	46	4172
2026-01-08 09:30:15.87	138.75	21.31	-36.9	-38.4	17.2	0.00e+00	0	55	0	435159040	45	4278
2026-01-08 09:30:16.88	138.67	21.45	-36.9	-38.3	17.3	0.00e+00	0	55	0	438304768	45	4241
2026-01-08 09:30:17.89	138.60	21.58	-36.8	-38.3	17.3	0.00e+00	0	55	0	441450496	45	4228
2026-01-08 09:30:18.90	138.52	21.72	-36.8	-38.3	17.4	0.00e+00	0	55	0	444596224	45	4215
2026-01-08 09:30:19.91	138.44	21.85	-36.7	-38.2	17.5	0.00e+00	0	55	0	447741952	45	4176
2026-01-08 09:30:20.92	138.36	21.99	-36.6	-38.1	17.6	0.00e+00	0	55	0	450887680	45	4122
2026-01-08 09:30:21.93	138.28	22.13	-36.6	-38.1	17.6	0.00e+00	0	55	0	454033408	45	4107
2026-01-08 09:30:22.94	138.20	22.27	-36.5	-37.9	17.7	0.00e+00	0	55	0	457179136	45	4030
2026-01-08 09:30:23.95	138.12	22.41	-36.5	-37.9	17.8	0.00e+00	0	55	0	460324864	44	4263
2026-01-08 09:30:24.96	138.04	22.55	-36.4	-37.9	17.8	0.00e+00	0	55	0	463470592	44	4243
2026-01-08 09:30:25.97	137.96	22.69	-36.4	-37.8	17.9	0.00e+00	0	55	0	466616320	44	4211
2026-01-08 09:30:26.98	137.88	22.83	-36.5	-38.0	17.7	0.00e+00	0	55	0	469762048	44	4295
2026-01-08 09:30:27.99	137.79	22.97	-36.4	-37.8	17.9	0.00e+00	0	55	0	472907776	44	4217
2026-01-08 09:30:29.00	137.71	23.11	-36.4	-37.8	17.8	0.00e+00	0	55	0	476053504	44	4226
2026-01-08 09:30:30.01	137.62	23.26	-36.3	-37.7	17.9	0.00e+00	0	55	0	479199232	44	4181
2026-01-08 09:30:31.02	137.54	23.40	-36.3	-37.6	18.0	0.00e+00	0	55	0	482344960	44	4139
2026-01-08 09:30:32.03	137.45	23.55	-36.4	-37.8	17.9	0.00e+00	0	55	0	485490688	44	4212
2026-01-08 09:30:33.04	137.36	23.69	-36.4	-37.7	17.9	0.00e+00	0	55	0	488636416	44	4191
2026-01-08 09:30:34.05	137.28	23.84	-36.4	-37.8	17.9	0.00e+00	0	55	0	491782144	44	4239
2026-01-08 09:30:35.06	137.19	23.99	-36.4	-37.8	17.8	0.00e+00	0	55	0	494927872	44	4240
2026-01-08 09:30:36.07	137.10	24.13	-36.4	-37.8	17.9	0.00e+00	0	55	0	498073600	44	4215
2026-01-08 09:30:37.08	137.01	24.28	-36.5	-37.9	17.8	0.00e+00	0	55	0	501219328	44	4276
2026-01-08 09:30:38.09	136.91	24.43	-36.6	-38.1	17.7	0.00e+00	0	55	0	504365056	44	4345
2026-01-08 09:30:39.10	136.82	24.58	-36.6	-38.0	17.7	0.00e+00	0	55	0	508559360	44	4318
2026-01-08 09:30:40.11	136.73	24.73	-36.7	-38.1	17.6	0.00e+00	0	55	0	511705088	44	4364
2026-01-08 09:30:41.12	136.63	24.89	-36.7	-38.1	17.6	0.00e+00	0	55	0	514850816	44	4368
2026-01-08 09:30:42.13	136.54	25.04	-36.6	-38.1	17.7	0.00e+00	0	55	0	516947968	44	4353
2026-01-08 09:30:43.14	136.44	25.19	-36.7	-38.1	17.6	0.00e+00	0	55	0	520093696	44	4391
2026-01-08 09:30:44.15	136.34	25.35	-36.7	-38.1	17.6	0.00e+00	0	55	0	523239424	44	4390
2026-01-08 09:30:45.16	136.24	25.50	-36.7	-38.1	17.6	0.00e+00	0	55	0	527433728	44	4389
2026-01-08 09:30:46.17	136.14	25.66	-36.7	-38.1	17.7	0.00e+00	0	55	0	530579456	44	4363
2026-01-08 09:30:47.18	136.04	25.81	-36.8	-38.2	17.5	0.00e+00	0	55	0	533725184	44	4425
2026-01-08 09:30:48.19	135.94	25.97	-36.8	-38.2	17.6	0.00e+00	0	55	0	536870912	44	4418
2026-01-08 09:30:49.19	135.84	26.13	-36.8	-38.3	17.5	0.00e+00	0	55	0	538968064	44	4454
2026-01-08 09:30:50.21	135.74	26.29	-37.0	-38.4	17.4	0.00e+00	0	55	0	543162368	44	4534
2026-01-08 09:30:51.22	135.63	26.45	-37.0	-38.5	17.3	0.00e+00	0	55	0	546308096	44	4565
2026-01-08 09:30:52.23	135.52	26.61	-37.1	-38.6	17.2	0.00e+00	0	55	0	549453824	44	4606
2026-01-08 09:30:53.24	135.42	26.77	-37.2	-38.7	17.0	0.00e+00	0	55	0	552599552	44	4699
2026-01-08 09:30:54.25	135.31	26.93	-37.2	-38.7	17.1	0.00e+00	0	55	0	555745280	45	4431
2026-01-08 09:30:55.26	135.20	27.10	-37.3	-38.8	16.9	0.00e+00	0	55	0	558891008	45	4493
2026-01-08 09:30:56.26	135.09	27.26	-37.4	-38.9	16.9	0.00e+00	0	55	0	562036736	45	4539
2026-01-08 09:30:57.27	134.98	27.43	-37.4	-38.9	16.9	0.00e+00	0	55	0	565182464	45	4527
2026-01-08 09:30:58.28	134.87	27.59	-37.4	-38.9	16.9	0.00e+00	0	55	0	568328192	45	4542
2026-01-08 09:30:59.29	134.75	27.76	-37.3	-38.9	16.9	0.00e+00	0	55	0	571473920	45	4516
2026-01-08 09:31:00.30	134.64	27.93	-37.4	-38.9	16.9	0.00e+00	0	55	0	574619648	45	4536
2026-01-08 09:31:01.31	134.52	28.10	-37.4	-38.9	16.9	0.00e+00	0	55	0	577765376	45	4536
2026-01-08 09:31:02.31	134.41	28.26	-37.3	-38.9	17.0	0.00e+00	0	55	0	580911104	45	4507
2026-01-08 09:31:03.32	134.29	28.43	-37.4	-39.0	16.8	0.00e+00	0	55	0	584056832	45	4571
2026-01-08 09:31:04.33	134.17	28.61	-37.3	-38.9	17.0	0.00e+00	0	55	0	587202560	45	4510
2026-01-08 09:31:05.34	134.04	28.78	-37.4	-38.9	16.9	0.00e+00	0	55	0	590348288	45	4523
2026-01-08 09:31:06.35	133.92	28.95	-37.3	-38.8	17.0	0.00e+00	0	55	0	593494016	45	4464
2026-01-08 09:31:07.36	133.80	29.12	-37.2	-38.8	17.1	0.00e+00	0	55	0	596639744	45	4454
2026-01-08 09:31:08.37	133.67	29.30	-37.1	-38.6	17.2	0.00e+00	0	55	0	599785472	45	4370
2026-01-08 09:31:09.38	133.54	29.48	-37.1	-38.6	17.2	0.00e+00	0	55	0	602931200	45	4362
2026-01-08 09:31:10.39	133.42	29.65	-37.0	-38.5	17.3	0.00e+00	0	56	0	606076928	45	4315
2026-01-08 09:31:11.40	133.29	29.83	-37.1	-38.6	17.2	0.00e+00	0	55	0	609222656	45	4383
2026-01-08 09:31:12.41	133.16	30.01	-37.1	-38.6	17.3	0.00e+00	0	55	0	612368384	45	4351
2026-01-08 09:31:13.42	133.02	30.19	-37.1	-38.6	17.2	0.00e+00	0	55	0	615514112	45	4380
2026-01-08 09:31:14.43	132.89	30.37	-37.3	-38.8	17.1	0.00e+00	0	55	0	618659840	45	4463
2026-01-08 09:31:15.44	132.75	30.55	-37.3	-38.8	17.1	0.00e+00	0	55	0	621805568	45	4460
2026-01-08 09:31:16.44	132.62	30.73	-37.4	-38.9	17.0	0.00e+00	0	56	0	624951296	45	4541
2026-01-08 09:31:17.45	132.48	30.92	-37.5	-39.1	16.8	0.00e+00	0	56	0	628097024	45	4603
2026-01-08 09:31:18.46	132.34	31.10	-37.5	-39.0	16.8	0.00e+00	0	55	0	631242752	45	4592
2026-01-08 09:31:19.47	132.19	31.29	-37.5	-39.1	16.8	0.00e+00	0	55	0	634388480	45	4612
2026-01-08 09:31:20.48	132.05	31.47	-37.4	-39.0	16.9	0.00e+00	0	55	0	637534208	45	4557
2026-01-08 09:31:21.49	131.90	31.66	-37.4	-38.9	17.0	0.00e+00	0	55	0	640679936	45	4534
2026-01-08 09:31:22.50	131.76	31.85	-37.3	-38.8	17.1	0.00e+00	0	55	0	643825664	45	4492
2026-01-08 09:31:23.51	131.61	32.04	-37.2	-38.7	17.1	0.00e+00	0	55	0	646971392	45	4438
2026-01-08 09:31:24.52	131.46	32.23	-37.3	-38.8	17.1	0.00e+00	0	55	0	650117120	45	4456
2026-01-08 09:31:25.53	131.30	32.42	-37.3	-38.8	17.1	0.00e+00	0	56	0	653262848	45	4486
2026-01-08 09:31:26.54	131.15	32.61	-37.3	-38.8	17.0	0.00e+00	0	55	0	656408576	45	4489
2026-01-08 09:31:27.55	130.99	32.81	-37.5	-39.0	16.9	0.00e+00	0	55	0	659554304	45	4588
2026-01-08 09:31:28.56	130.84	33.00	-37.5	-39.0	16.8	0.00e+00	0	55	0	662700032	45	4591
2026-01-08 09:31:29.57	130.67	33.20	-37.6	-39.2	16.7	0.00e+00	0	56	0	665845760	45	4662
2026-01-08 09:31:30.58	130.51	33.39	-37.8	-39.4	16.5	0.00e+00	0	55	0	668991488	46	4539
2026-01-08 09:31:31.59	130.35	33.59	-37.8	-39.5	16.4	0.00e+00	0	56	0	672137216	46	4572
2026-01-08 09:31:32.60	130.18	33.79	-38.0	-39.7	16.2	0.00e+00	0	55	0	675282944	46	4699
2026-01-08 09:31:33.61	130.01	33.99	-38.2	-39.9	16.0	0.00e+00	0	56	0	678428672	46	4808
2026-01-08 09:31:34.62	129.84	34.19	-38.3	-40.0	15.9	0.00e+00	0	56	0	681574400	47	4594
2026-01-08 09:31:35.62	129.67	34.39	-38.3	-40.1	15.9	0.00e+00	0	56	0	684720128	47	4609
2026-01-08 09:31:36.63	129.50	34.59	-38.3	-40.1	15.9	0.00e+00	0	55	0	687865856	47	4601
2026-01-08 09:31:37.64	129.32	34.79	-38.2	-39.9	16.1	0.00e+00	0	56	0	691011584	47	4505
2026-01-08 09:31:38.65	129.14	35.00	-38.4	-40.1	15.8	0.00e+00	0	55	0	694157312	47	4629
2026-01-08 09:31:39.66	128.96	35.20	-38.2	-39.9	16.1	0.00e+00	0	55	0	697303040	47	4501
2026-01-08 09:31:40.66	128.78	35.41	-38.2	-39.9	16.1	0.00e+00	0	55	0	700448768	47	4510
2026-01-08 09:31:41.67	128.59	35.62	-38.3	-40.0	16.0	0.00e+00	0	55	0	703594496	47	4559
2026-01-08 09:31:42.68	128.40	35.82	-38.3	-40.0	16.0	0.00e+00	0	56	0	706740224	47	4572
2026-01-08 09:31:43.69	128.21	36.03	-38.3	-40.1	15.9	0.00e+00	0	56	0	709885952	47	4604
2026-01-08 09:31:44.70	128.02	36.24	-38.4	-40.2	15.8	0.00e+00	0	56	0	713031680	47	4679
2026-01-08 09:31:45.71	127.82	36.45	-38.4	-40.2	15.7	0.00e+00	0	56	0	716177408	47	4670
2026-01-08 09:31:46.72	127.62	36.67	-38.5	-40.3	15.6	0.00e+00	0	56	0	719323136	47	4720
2026-01-08 09:31:47.73	127.42	36.88	-38.4	-40.2	15.7	0.00e+00	0	56	0	722468864	47	4686
2026-01-08 09:31:48.74	127.22	37.09	-38.5	-40.2	15.7	0.00e+00	0	56	0	725614592	47	4705
2026-01-08 09:31:49.75	127.01	37.31	-38.4	-40.2	15.8	0.00e+00	0	56	0	728760320	47	4671
2026-01-08 09:31:50.76	126.80	37.53	-38.4	-40.2	15.8	0.00e+00	0	56	0	731906048	47	4678
2026-01-08 09:31:51.77	126.59	37.74	-38.4	-40.2	15.7	0.00e+00	0	56	0	735051776	47	4682
2026-01-08 09:31:52.78	126.37	37.96	-38.5	-40.4	15.4	4.50e-06	0	56	0	738197504	47	4761
2026-01-08 09:31:53.79	126.16	38.18	-38.5	-40.3	15.6	7.00e-07	0	55	0	741343232	47	4708
2026-01-08 09:31:54.80	125.93	38.40	-38.5	-40.3	15.7	0.00e+00	0	56	0	744488960	47	4746
2026-01-08 09:31:55.81	125.71	38.62	-38.6	-40.4	15.5	0.00e+00	0	56	0	747634688	47	4800
2026-01-08 09:31:56.82	125.48	38.84	-38.7	-40.5	15.5	0.00e+00	0	56	0	750780416	47	4835
2026-01-08 09:31:57.83	125.25	39.07	-38.6	-40.4	15.5	0.00e+00	0	56	0	753926144	47	4805
2026-01-08 09:31:58.84	125.02	39.29	-38.6	-40.4	15.5	0.00e+00	0	56	0	757071872	47	4807
2026-01-08 09:31:59.85	124.78	39.52	-38.6	-40.4	15.6	0.00e+00	0	56	0	760217600	47	4788
2026-01-08 09:32:00.86	124.54	39.74	-38.5	-40.3	15.7	0.00e+00	0	56	0	763363328	47	4725
2026-01-08 09:32:01.87	124.30	39.97	-38.7	-40.5	15.5	0.00e+00	0	56	0	766509056	47	4844
2026-01-08 09:32:02.87	124.05	40.19	-38.7	-40.5	15.4	0.00e+00	0	56	0	769654784	47	4859
2026-01-08 09:32:03.88	123.80	40.42	-38.8	-40.7	15.4	0.00e+00	0	56	0	772800512	48	4668
2026-01-08 09:32:04.89	123.55	40.65	-38.9	-40.8	15.3	0.00e+00	0	56	0	775946240	48	4711
2026-01-08 09:32:05.90	123.29	40.88	-38.9	-40.8	15.3	0.00e+00	0	56	0	779091968	48	4719
2026-01-08 09:32:06.91	123.03	41.11	-39.0	-40.8	15.2	0.00e+00	0	55	0	782237696	48	4759
2026-01-08 09:32:07.92	122.76	41.34	-39.0	-40.9	15.2	0.00e+00	0	56	0	785383424	48	4796
2026-01-08 09:32:08.93	122.49	41.57	-38.9	-40.7	15.4	0.00e+00	0	56	0	788529152	48	4695
2026-01-08 09:32:09.94	122.22	41.81	-39.1	-41.0	15.0	0.00e+00	0	56	0	791674880	48	4867
2026-01-08 09:32:10.95	121.94	42.04	-39.1	-41.1	15.1	0.00e+00	0	56	0	794820608	48	4885
2026-01-08 09:32:11.96	121.66	42.27	-39.3	-41.3	14.8	0.00e+00	0	56	0	797966336	49	4738
2026-01-08 09:32:12.97	121.38	42.51	-39.5	-41.6	14.5	0.00e+00	0	56	0	801112064	49	4871
2026-01-08 09:32:13.98	121.09	42.74	-39.7	-41.8	14.3	1.50e-06	0	56	0	804257792	49	5029
2026-01-08 09:32:14.99	120.79	42.98	-39.9	-42.2	13.9	3.00e-06	0	56	0	807403520	50	4931
2026-01-08 09:32:15.99	120.50	43.21	-39.8	-42.0	14.0	3.00e-06	0	56	0	810549248	50	4856
2026-01-08 09:32:17.00	120.19	43.45	-39.8	-41.9	14.1	2.20e-06	0	56	0	813694976	50	4799
2026-01-08 09:32:18.02	119.88	43.69	-39.6	-41.7	14.4	0.00e+00	0	56	0	816840704	50	4663
2026-01-08 09:32:19.02	119.57	43.93	-39.5	-41.5	14.6	1.50e-06	0	56	0	819986432	50	4554
2026-01-08 09:32:20.03	119.26	44.17	-39.8	-41.9	14.2	7.00e-07	0	56	0	823132160	50	4803
2026-01-08 09:32:21.05	118.93	44.41	-39.9	-42.0	14.1	2.20e-06	0	56	0	826277888	50	4864
2026-01-08 09:32:22.06	118.61	44.65	-40.0	-42.3	13.9	4.50e-06	0	56	0	829423616	50	4995
2026-01-08 09:32:23.07	118.28	44.89	-40.1	-42.4	13.7	2.20e-06	0	56	0	832569344	50	5088
2026-01-08 09:32:24.08	117.94	45.13	-40.2	-42.5	13.6	8.30e-06	0	56	0	835715072	51	4867
2026-01-08 09:32:25.09	117.60	45.37	-40.2	-42.5	13.7	5.30e-06	0	56	0	838860800	51	4818
2026-01-08 09:32:26.10	117.25	45.61	-39.8	-41.9	14.2	2.20e-06	0	56	0	842006528	51	4544
2026-01-08 09:32:27.11	116.90	45.85	-39.5	-41.4	14.6	2.20e-06	0	56	0	845152256	51	4285
2026-01-08 09:32:28.12	116.54	46.10	-39.5	-41.5	14.6	0.00e+00	0	56	0	848297984	50	4570
2026-01-08 09:32:29.13	116.18	46.34	-39.5	-41.5	14.6	1.50e-06	0	56	0	851443712	50	4566
2026-01-08 09:32:30.14	115.81	46.58	-39.7	-41.7	14.4	7.00e-07	0	56	0	854589440	50	4692
2026-01-08 09:32:31.14	115.44	46.82	-39.6	-41.7	14.5	0.00e+00	0	56	0	857735168	50	4672
2026-01-08 09:32:32.15	115.05	47.06	-39.7	-41.8	14.4	0.00e+00	0	56	0	860880896	50	4723
2026-01-08 09:32:33.16	114.67	47.30	-39.5	-41.5	14.6	7.00e-07	0	56	0	864026624	50	4581
2026-01-08 09:32:34.17	114.28	47.55	-39.6	-41.7	14.5	0.00e+00	0	56	0	867172352	50	4657
2026-01-08 09:32:35.18	113.88	47.79	-39.7	-41.8	14.4	7.00e-07	0	56	0	870318080	50	4743
2026-01-08 09:32:36.19	113.47	48.03	-39.8	-41.9	14.3	1.50e-06	0	56	0	873463808	50	4768
2026-01-08 09:32:37.20	113.06	48.27	-40.0	-42.3	13.9	5.30e-06	0	56	0	877658112	50	4984
2026-01-08 09:32:38.21	112.64	48.51	-40.1	-42.3	13.8	7.00e-07	0	56	0	879755264	50	5036
2026-01-08 09:32:39.21	112.22	48.75	-39.9	-42.1	14.0	7.00e-07	0	56	0	882900992	50	4883
2026-01-08 09:32:40.23	111.79	48.99	-39.7	-41.8	14.4	7.00e-07	0	56	0	886046720	50	4726
2026-01-08 09:32:41.24	111.35	49.23	-39.6	-41.7	14.4	1.50e-06	0	56	0	889192448	50	4680
2026-01-08 09:32:42.25	110.90	49.47	-39.6	-41.7	14.4	7.00e-07	0	56	0	892338176	50	4680
2026-01-08 09:32:43.25	110.45	49.71	-39.6	-41.7	14.5	7.00e-07	0	56	0	896532480	50	4671
2026-01-08 09:32:44.26	109.99	49.95	-39.4	-41.4	14.8	0.00e+00	0	56	0	899678208	50	4517
2026-01-08 09:32:45.27	109.53	50.18	-39.1	-41.0	15.1	0.00e+00	0	56	0	902823936	50	4333
2026-01-08 09:32:46.28	109.05	50.42	-39.1	-41.0	15.2	0.00e+00	0	56	0	904921088	50	4313
2026-01-08 09:32:47.29	108.57	50.66	-39.4	-41.4	14.7	0.00e+00	0	56	0	908066816	50	4537
2026-01-08 09:32:48.30	108.08	50.89	-39.4	-41.4	14.7	0.00e+00	0	56	0	912261120	50	4537
2026-01-08 09:32:49.31	107.59	51.12	-39.4	-41.4	14.8	0.00e+00	0	56	0	915406848	50	4505
2026-01-08 09:32:50.32	107.08	51.36	-39.1	-41.0	15.1	0.00e+00	0	56	0	918552576	50	4340
2026-01-08 09:32:51.33	106.57	51.59	-38.8	-40.6	15.5	0.00e+00	0	56	0	921698304	49	4386
2026-01-08 09:32:52.34	106.05	51.82	-38.9	-40.7	15.5	0.00e+00	0	56	0	924844032	49	4392
2026-01-08 09:32:53.35	105.52	52.04	-39.0	-40.8	15.3	0.00e+00	0	56	0	927989760	49	4482
2026-01-08 09:32:54.36	104.98	52.27	-39.2	-41.1	15.0	0.00e+00	0	56	0	931135488	49	4647
2026-01-08 09:32:55.37	104.44	52.50	-39.2	-41.2	15.0	0.00e+00	0	56	0	934281216	49	4667
2026-01-08 09:32:56.37	103.89	52.72	-39.1	-40.9	15.2	0.00e+00	0	56	0	937426944	49	4537
2026-01-08 09:32:57.38	103.33	52.94	-38.5	-40.3	15.9	0.00e+00	0	56	0	940572672	49	4194
2026-01-08 09:32:58.39	102.76	53.16	-38.5	-40.2	16.0	0.00e+00	0	56	0	943718400	48	4410
2026-01-08 09:32:59.40	102.18	53.38	-38.8	-40.6	15.6	0.00e+00	0	56	0	946864128	48	4615
2026-01-08 09:33:00.41	101.59	53.59	-38.9	-40.8	15.4	0.00e+00	0	56	0	950009856	48	4709
2026-01-08 09:33:01.42	101.00	53.81	-38.9	-40.8	15.4	0.00e+00	0	56	0	953155584	48	4749
2026-01-08 09:33:02.43	100.39	54.02	-38.7	-40.5	15.6	0.00e+00	0	56	0	956301312	48	4598
2026-01-08 09:33:03.44	99.78	54.23	-38.3	-40.0	16.1	0.00e+00	0	56	0	959447040	48	4326
2026-01-08 09:33:04.45	99.15	54.43	-38.2	-39.8	16.3	0.00e+00	0	56	0	962592768	48	4234
2026-01-08 09:33:05.46	98.52	54.63	-38.2	-39.8	16.3	0.00e+00	0	56	0	965738496	48	4240
2026-01-08 09:33:06.46	97.89	54.83	-37.9	-39.5	16.6	0.00e+00	0	56	0	968884224	47	4323
2026-01-08 09:33:07.47	97.24	55.03	-37.7	-39.3	16.8	0.00e+00	0	56	0	972029952	47	4210
2026-01-08 09:33:08.48	96.58	55.23	-37.3	-38.8	17.3	0.00e+00	0	56	0	975175680	46	4216
2026-01-08 09:33:09.49	95.91	55.42	-37.2	-38.6	17.4	0.00e+00	0	56	0	978321408	46	4143
2026-01-08 09:33:10.50	95.23	55.61	-37.2	-38.7	17.3	0.00e+00	0	56	0	981467136	46	4161
2026-01-08 09:33:11.51	94.54	55.79	-37.5	-39.1	16.9	0.00e+00	0	56	0	984612864	46	4347
2026-01-08 09:33:12.51	93.86	55.97	-37.7	-39.3	16.7	0.00e+00	0	56	0	987758592	46	4472
2026-01-08 09:33:13.52	93.15	56.15	-37.7	-39.3	16.8	0.00e+00	0	56	0	990904320	46	4451
2026-01-08 09:33:14.54	92.43	56.33	-37.8	-39.4	16.7	0.00e+00	0	56	0	994050048	46	4496
2026-01-08 09:33:15.55	91.71	56.50	-37.7	-39.3	16.8	0.00e+00	0	56	0	997195776	46	4470
2026-01-08 09:33:16.55	90.98	56.66	-37.8	-39.4	16.7	0.00e+00	0	56	0	1000341504	46	4500
2026-01-08 09:33:17.56	90.24	56.82	-37.7	-39.2	16.8	0.00e+00	0	56	0	1003487232	46	4441
2026-01-08 09:33:18.57	89.50	56.98	-37.1	-38.6	17.5	0.00e+00	0	56	0	1006632960	46	4118
2026-01-08 09:33:19.58	88.74	57.14	-36.9	-38.3	17.7	0.00e+00	0	56	0	1009778688	45	4217
2026-01-08 09:33:20.59	87.97	57.28	-36.9	-38.4	17.6	0.00e+00	0	56	0	1012924416	45	4251
2026-01-08 09:33:21.60	87.20	57.43	-36.9	-38.4	17.7	0.00e+00	0	56	0	1016070144	45	4243
2026-01-08 09:33:22.61	86.42	57.57	-36.9	-38.3	17.7	0.00e+00	0	56	0	1019215872	45	4200
2026-01-08 09:33:23.62	85.63	57.71	-36.7	-38.0	18.0	0.00e+00	0	56	0	1022361600	45	4096
2026-01-08 09:33:24.63	84.83	57.84	-36.7	-38.1	18.0	0.00e+00	0	56	0	1025507328	45	4126
2026-01-08 09:33:25.64	84.02	57.96	-36.9	-38.3	17.7	0.00e+00	0	56	0	1028653056	45	4228
2026-01-08 09:33:26.65	83.21	58.08	-37.0	-38.4	17.7	0.00e+00	0	56	0	1031798784	45	4280
2026-01-08 09:33:27.66	82.39	58.20	-37.1	-38.5	17.6	0.00e+00	0	56	0	1034944512	45	4315
2026-01-08 09:33:28.67	81.56	58.31	-37.0	-38.4	17.6	0.00e+00	0	56	0	1038090240	45	4252
2026-01-08 09:33:29.68	80.73	58.41	-37.1	-38.5	17.6	0.00e+00	0	56	0	1041235968	45	4334
2026-01-08 09:33:30.68	79.89	58.51	-37.4	-38.9	17.2	0.00e+00	0	56	0	1044381696	45	4516
2026-01-08 09:33:31.69	79.05	58.60	-37.4	-39.0	17.1	0.00e+00	0	56	0	1047527424	45	4546
2026-01-08 09:33:32.70	78.20	58.69	-37.3	-38.8	17.3	0.00e+00	0	56	0	1050673152	45	4481
2026-01-08 09:33:33.71	77.34	58.77	-37.3	-38.8	17.3	0.00e+00	0	56	0	1053818880	45	4479
2026-01-08 09:33:34.72	76.48	58.85	-37.6	-39.1	17.0	0.00e+00	0	56	0	1056964608	45	4635
2026-01-08 09:33:35.73	75.61	58.92	-37.6	-39.2	16.9	0.00e+00	0	56	0	1060110336	45	4658
2026-01-08 09:33:36.74	74.74	58.98	-37.4	-38.9	17.2	0.00e+00	0	56	0	1063256064	45	4535
2026-01-08 09:33:37.75	73.86	59.04	-37.4	-38.9	17.2	0.00e+00	0	56	0	1066401792	45	4534
2026-01-08 09:33:38.76	72.98	59.09	-37.6	-39.2	17.0	0.00e+00	0	56	0	1069547520	45	4673
2026-01-08 09:33:39.77	72.10	59.13	-37.7	-39.3	16.8	0.00e+00	0	56	0	1072693248	45	4726
2026-01-08 09:33:40.78	71.21	59.17	-37.2	-38.7	17.4	0.00e+00	0	56	0	1075838976	45	4409
2026-01-08 09:33:41.79	70.33	59.21	-36.9	-38.3	17.8	0.00e+00	0	56	0	1078984704	45	4200
2026-01-08 09:33:42.80	69.44	59.23	-36.8	-38.2	17.8	0.00e+00	0	56	0	1082130432	45	4191
2026-01-08 09:33:43.81	68.54	59.25	-36.9	-38.3	17.8	0.00e+00	0	56	0	1085276160	45	4239
2026-01-08 09:33:44.82	67.65	59.27	-36.8	-38.1	17.9	0.00e+00	0	56	0	1088421888	45	4145
2026-01-08 09:33:45.83	66.76	59.27	-36.5	-37.8	18.2	0.00e+00	0	56	0	1091567616	44	4215
2026-01-08 09:33:46.84	65.87	59.28	-36.5	-37.9	18.2	0.00e+00	0	56	0	1094713344	44	4260
2026-01-08 09:33:47.85	64.97	59.27	-36.7	-38.0	18.0	0.00e+00	0	56	0	1097859072	44	4329
2026-01-08 09:33:48.86	64.08	59.26	-36.9	-38.3	17.8	0.00e+00	0	56	0	1101004800	44	4458
2026-01-08 09:33:49.87	63.19	59.24	-37.0	-38.5	17.6	0.00e+00	0	56	0	1104150528	44	4560
2026-01-08 09:33:50.88	62.30	59.22	-37.1	-38.5	17.5	0.00e+00	0	56	0	1107296256	44	4583
2026-01-08 09:33:51.89	61.41	59.18	-37.3	-38.8	17.2	0.00e+00	0	56	0	1110441984	45	4482
2026-01-08 09:33:52.90	60.52	59.15	-37.5	-39.1	17.0	0.00e+00	0	56	0	1113587712	45	4621
2026-01-08 09:33:53.91	59.64	59.10	-37.5	-39.1	17.0	0.00e+00	0	56	0	1116733440	45	4621
2026-01-08 09:33:54.92	58.76	59.05	-37.0	-38.5	17.6	0.00e+00	0	56	0	1119879168	45	4293
2026-01-08 09:33:55.92	57.89	59.00	-36.8	-38.2	17.9	0.00e+00	0	56	0	1123024896	45	4164
2026-01-08 09:33:56.93	57.02	58.94	-37.0	-38.4	17.6	0.00e+00	0	56	0	1126170624	45	4260
2026-01-08 09:33:57.94	56.15	58.87	-36.9	-38.3	17.7	0.00e+00	0	56	0	1129316352	45	4218
2026-01-08 09:33:58.95	55.29	58.80	-37.0	-38.4	17.7	0.00e+00	0	56	0	1132462080	45	4270
2026-01-08 09:33:59.96	54.43	58.72	-37.1	-38.6	17.5	0.00e+00	0	56	0	1135607808	45	4357
2026-01-08 09:34:00.97	53.58	58.63	-37.4	-38.9	17.1	0.00e+00	0	56	0	1138753536	45	4534
2026-01-08 09:34:01.98	52.73	58.54	-37.3	-38.8	17.2	0.00e+00	0	56	0	1141899264	45	4472
2026-01-08 09:34:02.99	51.89	58.44	-37.1	-38.5	17.5	0.00e+00	0	56	0	1145044992	45	4330
2026-01-08 09:34:03.99	51.06	58.34	-37.3	-38.8	17.3	0.00e+00	0	56	0	1148190720	45	4443
2026-01-08 09:34:05.01	50.22	58.23	-37.6	-39.2	16.9	0.00e+00	0	56	0	1151336448	45	4678
2026-01-08 09:34:06.01	49.41	58.12	-37.8	-39.4	16.8	0.00e+00	0	56	0	1154482176	46	4518
2026-01-08 09:34:07.02	48.60	58.00	-37.6	-39.1	16.9	0.00e+00	0	56	0	1157627904	46	4388
2026-01-08 09:34:08.03	47.79	57.88	-37.6	-39.1	17.0	0.00e+00	0	56	0	1160773632	46	4377
2026-01-08 09:34:09.04	46.99	57.75	-37.5	-39.0	17.1	0.00e+00	0	56	0	1163919360	46	4317
2026-01-08 09:34:10.05	46.20	57.62	-37.4	-38.9	17.2	0.00e+00	0	56	0	1167065088	46	4244
2026-01-08 09:34:11.06	45.41	57.48	-37.5	-39.1	17.0	0.00e+00	0	56	0	1170210816	46	4349
2026-01-08 09:34:12.06	44.64	57.34	-37.7	-39.2	16.9	0.00e+00	0	56	0	1173356544	46	4438
2026-01-08 09:34:13.07	43.88	57.19	-37.7	-39.3	16.8	0.00e+00	0	56	0	1176502272	46	4455
2026-01-08 09:34:14.08	43.12	57.04	-37.5	-39.0	17.1	0.00e+00	0	56	0	1179648000	46	4302
2026-01-08 09:34:15.09	42.37	56.88	-37.6	-39.2	16.9	0.00e+00	0	56	0	1182793728	46	4414
2026-01-08 09:34:16.10	41.63	56.72	-37.8	-39.4	16.6	0.00e+00	0	56	0	1185939456	46	4529
2026-01-08 09:34:17.11	40.89	56.56	-37.9	-39.5	16.5	0.00e+00	0	56	0	1189085184	46	4594
2026-01-08 09:34:18.11	40.18	56.39	-38.0	-39.7	16.4	0.00e+00	0	56	0	1192230912	46	4662
2026-01-08 09:34:19.13	39.45	56.21	-37.9	-39.5	16.5	0.00e+00	0	56	0	1195376640	46	4589
2026-01-08 09:34:20.14	38.75	56.04	-38.0	-39.6	16.5	0.00e+00	0	56	0	1198522368	46	4622
2026-01-08 09:34:21.15	38.05	55.86	-38.0	-39.7	16.4	0.00e+00	0	56	0	1201668096	46	4671
2026-01-08 09:34:22.16	37.36	55.67	-38.4	-40.1	16.0	0.00e+00	0	56	0	1204813824	47	4633
2026-01-08 09:34:23.16	36.69	55.49	-38.8	-40.7	15.5	0.00e+00	0	56	0	1207959552	48	4653
2026-01-08 09:34:24.17	36.02	55.30	-38.9	-40.8	15.4	0.00e+00	0	56	0	1211105280	48	4716
2026-01-08 09:34:25.18	35.36	55.11	-39.1	-41.0	15.1	0.00e+00	0	56	0	1214251008	48	4838
2026-01-08 09:34:26.19	34.71	54.91	-38.7	-40.5	15.6	0.00e+00	0	56	0	1217396736	48	4555
2026-01-08 09:34:27.20	34.06	54.71	-37.9	-39.5	16.6	0.00e+00	0	56	0	1220542464	47	4315
2026-01-08 09:34:28.21	33.43	54.51	-37.8	-39.3	16.7	0.00e+00	0	56	0	1223688192	47	4224
2026-01-08 09:34:29.22	32.80	54.30	-38.5	-40.2	15.9	0.00e+00	0	56	0	1226833920	47	4686
2026-01-08 09:34:30.23	32.19	54.10	-39.1	-41.0	15.2	0.00e+00	0	56	0	1229979648	48	4833
2026-01-08 09:34:31.24	31.58	53.89	-39.5	-41.6	14.6	0.00e+00	0	56	0	1233125376	49	4874
2026-01-08 09:34:32.24	30.99	53.68	-39.9	-42.1	14.1	3.00e-06	0	56	0	1236271104	50	4885
2026-01-08 09:34:33.26	30.39	53.46	-39.4	-41.4	14.8	1.50e-06	0	56	0	1239416832	50	4530
2026-01-08 09:34:34.26	29.82	53.25	-38.4	-40.1	16.1	0.00e+00	0	56	0	1242562560	48	4342
2026-01-08 09:34:35.28	29.24	53.03	-37.8	-39.3	16.7	0.00e+00	0	56	0	1245708288	47	4230
2026-01-08 09:34:36.29	28.68	52.81	-37.8	-39.3	16.7	0.00e+00	0	56	0	1248854016	47	4223
2026-01-08 09:34:37.30	28.12	52.58	-38.5	-40.3	15.7	0.00e+00	0	56	0	1251999744	47	4726
2026-01-08 09:34:38.31	27.58	52.36	-39.8	-41.9	14.3	2.20e-06	0	56	0	1255145472	50	4788
2026-01-08 09:34:39.32	27.04	52.13	-39.8	-41.9	14.2	7.00e-07	0	56	0	1258291200	50	4806
2026-01-08 09:34:40.32	26.51	51.91	-38.8	-40.6	15.5	0.00e+00	0	56	0	1261436928	49	4352
2026-01-08 09:34:41.33	25.99	51.68	-38.3	-39.9	16.2	0.00e+00	0	56	0	1264582656	48	4258
2026-01-08 09:34:42.34	25.48	51.45	-38.3	-39.9	16.2	0.00e+00	0	56	0	1267728384	48	4288
2026-01-08 09:34:43.35	24.97	51.22	-38.3	-39.9	16.2	0.00e+00	0	56	0	1270874112	48	4273
2026-01-08 09:34:44.36	24.47	50.99	-38.5	-40.2	15.9	0.00e+00	0	56	0	1274019840	48	4410
2026-01-08 09:34:45.37	23.98	50.75	-39.0	-40.8	15.3	0.00e+00	0	56	0	1277165568	48	4758
2026-01-08 09:34:46.38	23.50	50.52	-39.7	-41.8	14.4	0.00e+00	0	56	0	1280311296	49	5004
2026-01-08 09:34:47.39	23.02	50.29	-40.0	-42.1	14.1	3.00e-06	0	56	0	1283457024	50	4911
2026-01-08 09:34:48.40	22.56	50.05	-39.6	-41.6	14.5	0.00e+00	0	56	0	1287651328	50	4618
2026-01-08 09:34:49.41	22.10	49.81	-38.9	-40.7	15.4	0.00e+00	0	56	0	1290797056	49	4407
2026-01-08 09:34:50.42	21.64	49.58	-38.8	-40.5	15.6	0.00e+00	0	56	0	1292894208	49	4325
2026-01-08 09:34:51.43	21.20	49.34	-38.9	-40.7	15.5	0.00e+00	0	56	0	1296039936	49	4411
2026-01-08 09:34:52.44	20.76	49.10	-39.3	-41.3	14.9	0.00e+00	0	56	0	1299185664	49	4721
2026-01-08 09:34:53.45	20.32	48.86	-39.8	-42.0	14.2	0.00e+00	0	56	0	1303379968	50	4837
2026-01-08 09:34:54.46	19.90	48.62	-40.1	-42.3	13.9	7.00e-07	0	56	0	1306525696	50	4990
2026-01-08 09:34:55.47	19.48	48.38	-40.2	-42.5	13.7	5.30e-06	0	56	0	1309671424	51	4858
2026-01-08 09:34:56.48	19.07	48.14	-40.3	-42.6	13.6	6.80e-06	0	56	0	1312817152	51	4897
2026-01-08 09:34:57.49	18.66	47.90	-39.8	-41.9	14.2	3.80e-06	0	56	0	1314914304	51	4533
2026-01-08 09:34:58.50	18.26	47.66	-39.0	-40.8	15.4	7.00e-07	0	56	0	1318060032	50	4235
2026-01-08 09:34:59.51	17.87	47.42	-38.5	-40.2	16.0	0.00e+00	0	56	0	1322254336	48	4398
2026-01-08 09:35:00.52	17.48	47.18	-38.8	-40.5	15.6	0.00e+00	0	56	0	1325400064	48	4587
2026-01-08 09:35:01.53	17.10	46.93	-39.5	-41.5	14.5	0.00e+00	0	56	0	1328545792	49	4850
2026-01-08 09:35:02.54	16.72	46.69	-40.4	-42.8	13.3	9.90e-06	0	56	0	1331691520	51	5005
2026-01-08 09:35:03.55	16.35	46.45	-40.8	-43.4	12.7	1.01e-04	0	56	0	1334837248	52	5062
2026-01-08 09:35:04.56	15.99	46.21	-40.5	-42.9	13.1	3.96e-05	0	56	0	1337982976	52	4799
2026-01-08 09:35:05.57	15.63	45.97	-40.0	-42.1	13.9	3.00e-06	0	57	0	1341128704	51	4642
2026-01-08 09:35:06.57	15.28	45.73	-39.7	-41.7	14.4	0.00e+00	0	56	0	1344274432	51	4414
2026-01-08 09:35:07.58	14.93	45.49	-39.6	-41.7	14.5	0.00e+00	0	56	0	1347420160	51	4396
2026-01-08 09:35:08.59	14.59	45.25	-39.3	-41.2	14.9	7.00e-07	0	56	0	1350565888	50	4441
2026-01-08 09:35:09.60	14.25	45.01	-39.0	-40.8	15.4	0.00e+00	0	56	0	1353711616	50	4218
2026-01-08 09:35:10.61	13.92	44.77	-38.8	-40.6	15.5	0.00e+00	0	56	0	1356857344	49	4351
2026-01-08 09:35:11.62	13.59	44.53	-39.2	-41.2	14.9	0.00e+00	0	56	0	1360003072	49	4652
2026-01-08 09:35:12.63	13.27	44.30	-40.1	-42.3	13.8	1.50e-06	0	56	0	1363148800	50	5017
2026-01-08 09:35:13.64	12.95	44.06	-40.9	-43.6	12.4	6.79e-05	0	56	0	1366294528	52	5177
2026-01-08 09:35:14.65	12.64	43.82	-40.8	-43.5	12.2	2.51e-04	0	56	0	1369440256	52	5133
2026-01-08 09:35:15.66	12.33	43.58	-40.0	-42.2	13.4	4.95e-05	0	56	0	1372585984	52	4409
2026-01-08 09:35:16.66	12.03	43.35	-39.6	-41.7	14.2	7.00e-07	0	56	0	1375731712	51	4396
2026-01-08 09:35:17.67	11.73	43.11	-39.6	-41.7	14.4	1.50e-06	0	56	0	1378877440	51	4408
2026-01-08 09:35:18.68	11.44	42.88	-39.8	-41.9	14.2	7.00e-07	0	56	0	1382023168	51	4507
2026-01-08 09:35:19.69	11.15	42.64	-40.1	-42.4	13.7	2.20e-06	0	56	0	1385168896	51	4776
2026-01-08 09:35:20.70	10.86	42.41	-40.7	-43.2	12.9	5.49e-05	0	57	0	1388314624	51	5260
2026-01-08 09:35:21.71	10.58	42.17	-40.8	-43.5	12.5	8.54e-05	0	56	0	1391460352	52	5147
2026-01-08 09:35:22.72	10.30	41.94	-40.6	-43.2	12.8	8.92e-05	0	56	0	1394606080	52	4951
2026-01-08 09:35:23.73	10.03	41.71	-40.6	-43.1	12.9	4.34e-05	0	56	0	1397751808	52	4894
2026-01-08 09:35:24.74	9.76	41.48	-40.5	-43.0	13.1	3.58e-05	0	57	0	1400897536	52	4822
2026-01-08 09:35:25.75	9.49	41.25	-40.3	-42.6	13.4	1.60e-05	0	57	0	1404043264	52	4644
2026-01-08 09:35:26.76	9.23	41.02	-40.0	-42.2	13.9	5.30e-06	0	56	0	1407188992	51	4678
2026-01-08 09:35:27.77	8.97	40.79	-39.4	-41.4	14.7	7.00e-07	0	56	0	1410334720	50	4531
2026-01-08 09:35:28.77	8.72	40.56	-39.0	-40.8	15.3	0.00e+00	0	56	0	1413480448	50	4224
2026-01-08 09:35:29.79	8.46	40.33	-38.6	-40.3	15.8	0.00e+00	0	57	0	1416626176	49	4233
2026-01-08 09:35:30.80	8.22	40.11	-38.5	-40.2	15.8	0.00e+00	0	56	0	1419771904	48	4438
2026-01-08 09:35:31.81	7.97	39.88	-38.5	-40.2	15.9	0.00e+00	0	56	0	1422917632	48	4414
2026-01-08 09:35:32.81	7.73	39.66	-38.9	-40.7	15.4	0.00e+00	0	57	0	1426063360	48	4662
2026-01-08 09:35:33.82	7.50	39.44	-39.6	-41.6	14.5	7.00e-07	0	57	0	1429209088	49	4892
2026-01-08 09:35:34.83	7.26	39.21	-40.2	-42.5	13.6	3.00e-06	0	56	0	1432354816	51	4865
2026-01-08 09:35:35.85	7.03	38.99	-40.8	-43.4	12.6	5.72e-05	0	56	0	1435500544	52	5092
2026-01-08 09:35:36.85	6.80	38.77	-40.8	-43.5	12.5	1.19e-04	0	56	0	1438646272	52	5147
2026-01-08 09:35:37.86	6.58	38.55	-40.5	-43.0	13.1	5.26e-05	0	56	0	1441792000	52	4829
2026-01-08 09:35:38.87	6.36	38.33	-39.9	-42.1	13.9	6.10e-06	0	56	0	1444937728	51	4644
2026-01-08 09:35:39.88	6.14	38.11	-39.5	-41.5	14.6	3.00e-06	0	56	0	1448083456	51	4324
2026-01-08 09:35:40.89	5.92	37.89	-39.0	-40.9	15.2	0.00e+00	0	56	0	1451229184	50	4271
2026-01-08 09:35:41.90	5.71	37.68	-38.8	-40.6	15.5	0.00e+00	0	56	0	1454374912	49	4348
2026-01-08 09:35:42.91	5.50	37.46	-38.5	-40.3	15.8	0.00e+00	0	57	0	1457520640	49	4207
2026-01-08 09:35:43.92	5.29	37.25	-38.2	-39.9	16.2	0.00e+00	0	56	0	1460666368	48	4263
2026-01-08 09:35:44.94	5.09	37.03	-37.9	-39.5	16.5	0.00e+00	0	56	0	1463812096	47	4302
2026-01-08 09:35:45.95	4.89	36.82	-37.6	-39.1	16.8	0.00e+00	0	57	0	1466957824	47	4140
2026-01-08 09:35:46.96	4.69	36.61	-37.5	-39.0	17.0	0.00e+00	0	56	0	1470103552	46	4318
2026-01-08 09:35:47.97	4.49	36.39	-37.5	-39.1	16.9	0.00e+00	0	57	0	1473249280	46	4352
2026-01-08 09:35:48.98	4.30	36.19	-37.8	-39.4	16.6	0.00e+00	0	57	0	1476395008	46	4508
2026-01-08 09:35:49.99	4.11	35.98	-38.1	-39.7	16.3	0.00e+00	0	56	0	1479540736	46	4697
2026-01-08 09:35:51.00	3.92	35.77	-38.5	-40.2	15.8	0.00e+00	0	57	0	1482686464	47	4693
2026-01-08 09:35:52.01	3.73	35.56	-38.9	-40.8	15.3	0.00e+00	0	57	0	1485832192	48	4735
2026-01-08 09:35:53.02	3.55	35.36	-39.1	-41.1	15.0	0.00e+00	0	56	0	1488977920	48	4900
2026-01-08 09:35:54.03	3.37	35.15	-39.1	-41.1	15.0	0.00e+00	0	56	0	1492123648	48	4909
2026-01-08 09:35:55.04	3.19	34.95	-39.1	-41.0	15.0	0.00e+00	0	56	0	1495269376	48	4846
2026-01-08 09:35:56.05	3.01	34.74	-38.7	-40.5	15.5	7.00e-07	0	57	0	1498415104	48	4586
2026-01-08 09:35:57.06	2.84	34.54	-38.4	-40.1	15.9	0.00e+00	0	57	0	1501560832	48	4363
2026-01-08 09:35:58.07	2.66	34.34	-38.2	-39.8	16.2	0.00e+00	0	57	0	1504706560	48	4231
2026-01-08 09:35:59.08	2.49	34.14	-38.1	-39.8	16.2	0.00e+00	0	56	0	1507852288	48	4212
2026-01-08 09:36:00.09	2.32	33.94	-37.9	-39.5	16.5	0.00e+00	0	57	0	1510998016	47	4301
2026-01-08 09:36:01.09	2.16	33.75	-37.7	-39.2	16.7	0.00e+00	0	57	0	1514143744	47	4187
2026-01-08 09:36:02.11	1.99	33.55	-37.7	-39.3	16.6	0.00e+00	0	56	0	1517289472	47	4202
2026-01-08 09:36:03.11	1.83	33.35	-37.8	-39.4	16.5	0.00e+00	0	57	0	1520435200	47	4261
2026-01-08 09:36:04.12	1.67	33.16	-37.8	-39.5	16.4	0.00e+00	0	57	0	1523580928	47	4301
2026-01-08 09:36:05.13	1.51	32.97	-37.9	-39.5	16.4	0.00e+00	0	57	0	1526726656	47	4316
2026-01-08 09:36:06.14	1.36	32.77	-37.9	-39.6	16.3	0.00e+00	0	57	0	1529872384	47	4354
2026-01-08 09:36:07.15	1.20	32.58	-38.0	-39.7	16.2	0.00e+00	0	56	0	1533018112	47	4403
2026-01-08 09:36:08.16	1.05	32.39	-38.1	-39.8	16.0	0.00e+00	0	56	0	1536163840	47	4486
2026-01-08 09:36:09.17	0.90	32.20	-38.1	-39.8	16.1	0.00e+00	0	57	0	1539309568	47	4475
2026-01-08 09:36:10.18	0.75	32.01	-37.9	-39.6	16.3	0.00e+00	0	57	0	1542455296	47	4349
2026-01-08 09:36:11.19	0.60	31.82	-37.8	-39.4	16.4	0.00e+00	0	57	0	1545601024	47	4284
2026-01-08 09:36:12.20	0.46	31.64	-37.7	-39.3	16.6	0.00e+00	0	56	0	1548746752	47	4218
2026-01-08 09:36:13.21	0.31	31.45	-37.6	-39.2	16.6	0.00e+00	0	57	0	1551892480	47	4188
2026-01-08 09:36:14.22	0.17	31.26	-37.6	-39.3	16.6	0.00e+00	0	57	0	1555038208	47	4195
2026-01-08 09:36:15.23	0.03	31.08	-37.5	-39.0	16.8	0.00e+00	0	57	0	1558183936	47	4098
2026-01-08 09:36:16.24	359.89	30.90	-37.5	-39.1	16.8	0.00e+00	0	56	0	1561329664	46	4342
2026-01-08 09:36:17.25	359.76	30.72	-37.5	-39.0	16.9	0.00e+00	0	57	0	1564475392	46	4329
2026-01-08 09:36:18.26	359.62	30.53	-37.4	-39.0	16.9	0.00e+00	0	57	0	1567621120	46	4304
2026-01-08 09:36:19.27	359.49	30.35	-37.5	-39.1	16.8	0.00e+00	0	57	0	1570766848	46	4362
2026-01-08 09:36:20.28	359.35	30.17	-37.6	-39.2	16.6	0.00e+00	0	57	0	1573912576	46	4439
2026-01-08 09:36:21.29	359.22	30.00	-37.9	-39.6	16.3	0.00e+00	0	57	0	1577058304	46	4602
2026-01-08 09:36:22.30	359.09	29.82	-38.0	-39.7	16.2	0.00e+00	0	57	0	1580204032	46	4658
2026-01-08 09:36:23.31	358.96	29.64	-38.1	-39.8	16.0	0.00e+00	0	56	0	1583349760	46	4756
2026-01-08 09:36:24.32	358.84	29.47	-38.1	-39.9	16.0	0.00e+00	0	56	0	1586495488	46	4773
2026-01-08 09:36:25.33	358.71	29.29	-38.2	-40.0	15.9	0.00e+00	0	56	0	1589641216	47	4560
2026-01-08 09:36:26.34	358.59	29.12	-38.2	-40.0	15.9	0.00e+00	0	56	0	1592786944	47	4564
2026-01-08 09:36:27.34	358.47	28.95	-38.2	-40.0	15.8	0.00e+00	0	57	0	1595932672	47	4586
2026-01-08 09:36:28.35	358.35	28.78	-38.2	-40.0	15.9	0.00e+00	0	57	0	1599078400	47	4563
2026-01-08 09:36:29.36	358.23	28.60	-38.3	-40.1	15.8	0.00e+00	0	57	0	1602224128	47	4615
2026-01-08 09:36:30.37	358.11	28.43	-38.2	-40.0	15.8	0.00e+00	0	56	0	1605369856	47	4570
2026-01-08 09:36:31.38	357.99	28.27	-38.1	-39.8	15.9	0.00e+00	0	56	0	1608515584	47	4485
2026-01-08 09:36:32.39	357.87	28.10	-37.9	-39.6	16.2	0.00e+00	0	57	0	1611661312	47	4341
2026-01-08 09:36:33.40	357.76	27.93	-37.8	-39.5	16.3	0.00e+00	0	57	0	1614807040	47	4305
2026-01-08 09:36:34.41	357.64	27.76	-37.7	-39.4	16.4	0.00e+00	0	57	0	1617952768	47	4271
2026-01-08 09:36:35.42	357.53	27.60	-37.8	-39.5	16.3	0.00e+00	0	57	0	1621098496	47	4305
2026-01-08 09:36:36.43	357.42	27.43	-37.5	-39.0	16.7	0.00e+00	0	57	0	1624244224	46	4339
2026-01-08 09:36:37.44	357.31	27.27	-37.1	-38.6	17.1	0.00e+00	0	57	0	1627389952	46	4136
2026-01-08 09:36:38.45	357.20	27.11	-36.9	-38.4	17.3	0.00e+00	0	57	0	1630535680	45	4267
2026-01-08 09:36:39.46	357.09	26.94	-36.8	-38.3	17.4	0.00e+00	0	57	0	1633681408	45	4200
2026-01-08 09:36:40.47	356.99	26.78	-37.0	-38.4	17.3	0.00e+00	0	57	0	1636827136	45	4290
2026-01-08 09:36:41.47	356.88	26.62	-36.9	-38.3	17.4	0.00e+00	0	56	0	1639972864	45	4238
2026-01-08 09:36:42.48	356.78	26.46	-36.9	-38.4	17.3	0.00e+00	0	57	0	1643118592	45	4252
2026-01-08 09:36:43.49	356.68	26.30	-36.9	-38.4	17.2	0.00e+00	0	57	0	1646264320	45	4269
2026-01-08 09:36:44.50	356.57	26.15	-37.0	-38.5	17.1	0.00e+00	0	57	0	1650458624	45	4310
2026-01-08 09:36:45.51	356.47	25.99	-37.0	-38.5	17.1	0.00e+00	0	57	0	1652555776	45	4313
2026-01-08 09:36:46.52	356.37	25.83	-37.0	-38.5	17.1	0.00e+00	0	56	0	1655701504	45	4305
2026-01-08 09:36:47.53	356.27	25.68	-37.1	-38.6	17.0	0.00e+00	0	56	0	1658847232	45	4357
2026-01-08 09:36:48.54	356.17	25.52	-37.0	-38.5	17.1	0.00e+00	0	57	0	1661992960	45	4320
2026-01-08 09:36:49.55	356.08	25.37	-36.9	-38.4	17.3	0.00e+00	0	57	0	1666187264	45	4248
2026-01-08 09:36:50.56	355.98	25.22	-36.8	-38.3	17.3	0.00e+00	0	57	0	1669332992	45	4226
2026-01-08 09:36:51.57	355.89	25.06	-37.0	-38.4	17.2	0.00e+00	0	56	0	1672478720	45	4291
2026-01-08 09:36:52.58	355.79	24.91	-36.9	-38.4	17.2	0.00e+00	0	56	0	1675624448	45	4279
2026-01-08 09:36:53.59	355.70	24.76	-37.1	-38.6	17.0	0.00e+00	0	57	0	1677721600	45	4356
2026-01-08 09:36:54.60	355.61	24.61	-37.1	-38.7	17.0	0.00e+00	0	57	0	1681915904	45	4395
2026-01-08 09:36:55.61	355.51	24.46	-37.2	-38.8	16.8	0.00e+00	0	57	0	1685061632	45	4472
2026-01-08 09:36:56.62	355.42	24.31	-37.4	-39.0	16.6	0.00e+00	0	56	0	1688207360	45	4549
2026-01-08 09:36:57.62	355.33	24.17	-37.4	-39.0	16.6	0.00e+00	0	57	0	1691353088	45	4583
2026-01-08 09:36:58.63	355.25	24.02	-37.4	-39.1	16.5	0.00e+00	0	57	0	1694498816	45	4617
2026-01-08 09:36:59.64	355.16	23.87	-37.6	-39.3	16.3	0.00e+00	0	56	0	1697644544	45	4723
2026-01-08 09:37:00.65	355.07	23.73	-37.6	-39.3	16.2	0.00e+00	0	57	0	1700790272	45	4724
2026-01-08 09:37:01.66	354.98	23.58	-37.6	-39.3	16.1	0.00e+00	0	57	0	1703936000	45	4738
2026-01-08 09:37:02.67	354.90	23.44	-37.4	-39.1	16.4	0.00e+00	0	57	0	1707081728	45	4604
2026-01-08 09:37:03.68	354.81	23.30	-37.4	-39.0	16.4	0.00e+00	0	56	0	1710227456	45	4585
2026-01-08 09:37:04.69	354.73	23.15	-37.5	-39.2	16.2	0.00e+00	0	57	0	1713373184	45	4661
2026-01-08 09:37:05.70	354.65	23.01	-37.3	-39.0	16.4	0.00e+00	0	57	0	1716518912	45	4563
2026-01-08 09:37:06.71	354.56	22.87	-37.3	-39.0	16.4	0.00e+00	0	56	0	1719664640	45	4551
2026-01-08 09:37:07.72	354.48	22.73	-37.6	-39.3	16.0	0.00e+00	0	56	0	1722810368	45	4719
2026-01-08 09:37:08.73	354.40	22.59	-37.6	-39.3	15.9	0.00e+00	0	57	0	1725956096	45	4750
2026-01-08 09:37:09.74	354.32	22.45	-37.4	-39.1	16.1	0.00e+00	0	56	0	1729101824	45	4625
2026-01-08 09:37:10.75	354.24	22.31	-37.3	-39.1	16.0	0.00e+00	0	57	0	1732247552	45	4615
2026-01-08 09:37:11.76	354.16	22.18	-37.4	-39.2	15.8	0.00e+00	0	56	0	1735393280	45	4665
2026-01-08 09:37:12.77	354.09	22.04	-37.3	-39.1	15.8	0.00e+00	0	56	0	1738539008	45	4644
2026-01-08 09:37:13.77	354.01	21.90	-37.3	-39.1	15.8	0.00e+00	0	57	0	1741684736	45	4621
2026-01-08 09:37:14.78	353.93	21.77	-37.2	-39.0	15.9	0.00e+00	0	57	0	1744830464	45	4552
2026-01-08 09:37:15.78	353.86	21.64	-37.2	-39.0	15.8	0.00e+00	0	56	0	1747976192	45	4562
2026-01-08 09:37:16.80	353.78	21.50	-37.3	-39.2	15.4	0.00e+00	0	57	0	1751121920	45	4698
2026-01-08 09:37:17.80	353.71	21.37	-37.6	-39.6	14.8	0.00e+00	0	56	0	1754267648	45	4924
2026-01-08 09:37:18.81	353.64	21.23	-37.9	-40.2	14.1	7.00e-07	0	56	0	1757413376	46	4956
2026-01-08 09:37:19.82	353.56	21.10	-38.4	-41.0	12.9	2.05e-05	0	57	0	1760559104	47	5157
2026-01-08 09:37:20.83	353.49	20.97	-38.9	-42.0	11.7	3.36e-04	0	57	0	1763704832	48	5414
2026-01-08 09:37:21.84	353.42	20.84	-39.4	-43.0	10.4	3.61e-03	0	57	0	1766850560	49	5758
2026-01-08 09:37:22.85	353.35	20.71	-39.8	-44.2	8.8	2.46e-02	0	57	0	1769996288	50	6253
2026-01-08 09:37:23.86	353.28	20.58	-40.1	-45.4	7.4	7.44e-02	0	57	0	1773142016	50	7131
2026-01-08 09:37:24.87	353.21	20.45	-40.3	-46.6	6.1	2.36e-01	0	56	0	1776287744	51	7784
2026-01-08 09:37:25.88	353.14	20.32	-40.5	-47.9	5.1	5.55e-01	0	57	0	1779433472	51	9056
2026-01-08 09:37:26.89	353.07	20.19	-40.6	-49.4	4.4	1.27e+00	0	57	104	1779433472	51	10697
2026-01-08 09:37:27.90	353.00	20.07	-40.6	-50.5	4.1	1.47e+00	0	57	104	1779433472	51	12177
2026-01-08 09:37:28.91	352.93	19.94	-40.7	-51.8	3.8	1.49e+00	0	57	104	1779433472	51	14128
2026-01-08 09:37:29.92	352.87	19.81	-40.6	-52.7	3.8	1.49e+00	0	57	104	1779433472	51	15658
2026-01-08 09:37:30.93	352.80	19.69	-40.7	-52.8	3.8	1.49e+00	0	57	104	1779433472	51	15798
2026-01-08 09:37:31.93	352.74	19.56	-40.5	-53.0	3.8	1.49e+00	0	57	104	1779433472	52	15280
2026-01-08 09:37:32.94	352.67	19.44	-40.5	-52.9	3.8	1.49e+00	0	57	104	1779433472	52	15223
2026-01-08 09:37:33.95	352.61	19.32	-40.7	-52.9	3.8	1.49e+00	0	57	104	1779433472	52	15128
2026-01-08 09:37:34.96	352.54	19.19	-40.6	-53.0	3.8	1.49e+00	0	57	104	1779433472	52	15283
2026-01-08 09:37:35.96	352.48	19.07	-40.6	-53.0	3.8	1.49e+00	0	57	104	1779433472	52	15291
2026-01-08 09:37:36.98	352.41	18.95	-40.5	-52.9	3.8	1.49e+00	0	57	104	1779433472	52	15180
2026-01-08 09:37:37.98	352.35	18.83	-40.6	-53.0	3.8	1.49e+00	0	57	104	1779433472	52	15305
2026-01-08 09:37:38.99	352.29	18.71	-40.5	-52.9	3.8	1.49e+00	0	57	104	1779433472	52	15156
2026-01-08 09:37:40.00	352.23	18.59	-40.5	-53.0	3.8	1.49e+00	0	57	104	1779433472	52	15378
2026-01-08 09:37:41.01	352.17	18.47	-40.5	-53.1	3.8	1.49e+00	0	57	104	1779433472	52	15420
2026-01-08 09:37:42.02	352.11	18.35	-40.4	-52.9	3.8	1.49e+00	0	57	104	1779433472	52	15137
2026-01-08 09:37:43.03	352.05	18.23	-40.3	-53.0	3.8	1.49e+00	0	57	104	1779433472	52	15378
2026-01-08 09:37:44.04	351.99	18.11	-40.4	-52.9	3.8	1.49e+00	0	57	104	1779433472	52	15070
2026-01-08 09:37:45.05	351.93	17.99	-40.5	-52.9	3.8	1.49e+00	0	57	104	1779433472	52	15191
2026-01-08 09:37:46.06	351.87	17.88	-40.5	-53.1	3.8	1.49e+00	0	57	104	1779433472	52	15551
2026-01-08 09:37:47.07	351.81	17.76	-40.6	-53.0	3.8	1.49e+00	0	57	104	1779433472	52	15283
2026-01-08 09:37:48.08	351.76	17.64	-40.4	-53.1	3.8	1.49e+00	0	57	104	1779433472	52	15509
2026-01-08 09:37:49.09	351.70	17.53	-39.8	-53.1	3.8	1.49e+00	0	57	104	1779433472	51	16412
2026-01-08 09:37:50.10	351.64	17.41	-40.6	-53.0	3.8	1.49e+00	0	57	104	1779433472	52	15295
2026-01-08 09:37:51.10	351.59	17.30	-39.7	-53.1	3.8	1.49e+00	0	57	104	1779433472	51	16373
2026-01-08 09:37:52.11	351.53	17.18	-40.7	-53.1	3.8	1.49e+00	0	57	104	1779433472	51	16322
2026-01-08 09:37:53.12	351.48	17.07	-40.4	-53.3	3.8	1.49e+00	0	57	104	1779433472	51	16869
2026-01-08 09:37:54.14	351.42	16.96	-40.3	-53.1	3.8	1.49e+00	0	57	104	1779433472	51	16449
2026-01-08 09:37:55.14	351.37	16.85	-40.2	-53.3	3.8	1.49e+00	0	57	104	1779433472	51	16850
2026-01-08 09:37:56.15	351.31	16.73	-40.3	-53.1	3.8	1.49e+00	0	57	104	1779433472	51	16355
2026-01-08 09:37:57.16	351.26	16.62	-40.2	-53.2	3.8	1.49e+00	0	57	104	1779433472	51	16616
2026-01-08 09:37:58.17	351.21	16.51	-40.3	-53.1	3.8	1.49e+00	0	57	104	1779433472	51	16365
2026-01-08 09:37:59.18	351.15	16.40	-40.5	-53.3	3.8	1.49e+00	0	57	104	1779433472	51	16719
2026-01-08 09:38:00.19	351.10	16.29	-40.0	-53.1	3.8	1.49e+00	0	57	104	1779433472	51	16318
2026-01-08 09:38:01.20	351.05	16.18	-39.9	-53.2	3.8	1.49e+00	0	57	104	1779433472	51	16567
2026-01-08 09:38:02.21	351.00	16.07	-40.4	-53.0	3.8	1.49e+00	0	57	104	1779433472	51	16239
2026-01-08 09:38:03.22	350.95	15.96	-40.1	-53.2	3.8	1.49e+00	0	57	104	1779433472	51	16561
2026-01-08 09:38:04.23	350.90	15.85	-40.5	-53.0	3.8	1.49e+00	0	57	104	1779433472	51	16219
2026-01-08 09:38:05.24	350.85	15.75	-40.6	-53.3	3.8	1.49e+00	0	57	104	1779433472	51	16713
2026-01-08 09:38:06.25	350.80	15.64	-39.8	-53.1	3.8	1.49e+00	0	57	104	1779433472	51	16431
2026-01-08 09:38:07.26	350.75	15.53	-40.6	-53.2	3.8	1.49e+00	0	57	104	1779433472	51	16634
2026-01-08 09:38:08.26	350.70	15.43	-39.8	-53.1	3.8	1.49e+00	0	57	104	1779433472	51	16470
2026-01-08 09:38:09.27	350.65	15.32	-40.5	-53.3	3.8	1.49e+00	0	57	104	1779433472	51	16758
2026-01-08 09:38:10.28	350.60	15.21	-40.6	-53.1	3.8	1.49e+00	0	57	104	1779433472	51	16383
2026-01-08 09:38:11.29	350.55	15.11	-40.5	-53.3	3.8	1.49e+00	0	57	104	1779433472	51	16810
2026-01-08 09:38:12.30	350.51	15.00	-40.7	-53.1	3.8	1.49e+00	0	57	104	1779433472	51	16395
2026-01-08 09:38:13.31	350.46	14.90	-40.6	-53.1	3.8	1.49e+00	0	57	104	1779433472	51	16393
2026-01-08 09:38:14.32	350.41	14.80	-40.6	-53.3	3.8	1.49e+00	0	57	104	1779433472	51	16772
2026-01-08 09:38:15.33	350.37	14.69	-40.6	-53.1	3.8	1.49e+00	0	57	104	1779433472	51	16477
2026-01-08 09:38:16.34	350.32	14.59	-40.6	-53.3	3.8	1.49e+00	0	57	104	1779433472	51	16777
2026-01-08 09:38:17.35	350.27	14.49	-40.3	-53.1	3.8	1.49e+00	0	57	104	1779433472	51	16425
