passes_logs/2026/01/08/R2.0S_Moscow/R2.0S_Moscow__20260108_104600_AQUA_rec.log

#Pass ID: 20260108_104600_AQUA
#Satellite: AQUA
#Configuration: AQUA
#almurnet v.1.7.20251203
#Start time: 2026-01-08 10:46:01

#Version: 2.2.20231116
#Station: R2.0S_Moscow
#Location: 37.707566 lon 55.798166 lat
#TLE: 1 27424U 02022A   26004.96787593  .00001598  00000+0  32997-3 0  9996
#TLE: 2 27424  98.4069 331.2279 0002002  90.2377   0.6092 14.61798176259425

#Time	Az	El	Level	Level2	SNR	BER	BlckErr	Temp	State	Recorded	gain1	gain2
2026-01-08 10:46:01.24	133.76	2.07	-16.9	-40.6	2.6	7.67e-01	0	49	0	0	2	65535
2026-01-08 10:46:02.25	133.71	2.13	-16.4	-41.1	3.2	7.74e-01	0	49	104	0	3	65535
2026-01-08 10:46:03.26	133.67	2.20	-14.5	-41.6	3.1	7.77e-01	0	49	104	0	4	65535
2026-01-08 10:46:04.27	133.62	2.26	-14.4	-42.1	2.3	7.76e-01	0	49	104	0	5	65535
2026-01-08 10:46:05.28	133.58	2.33	-17.4	-41.6	2.5	7.76e-01	0	50	104	0	4	65535
2026-01-08 10:46:06.29	133.53	2.39	-15.6	-39.6	2.3	7.77e-01	0	49	104	0	0	65535
2026-01-08 10:46:07.30	133.48	2.46	-16.0	-41.1	2.2	7.74e-01	0	50	104	0	3	65535
2026-01-08 10:46:08.31	133.43	2.52	-13.8	-39.6	3.8	7.81e-01	0	49	104	0	0	65535
2026-01-08 10:46:09.32	133.39	2.59	-17.1	-41.1	2.7	7.77e-01	0	50	104	0	3	65535
2026-01-08 10:46:10.33	133.34	2.66	-14.4	-40.1	5.4	7.68e-01	0	50	104	0	1	65535
2026-01-08 10:46:11.34	133.29	2.72	-15.3	-40.1	2.3	7.76e-01	0	50	104	0	1	65535
2026-01-08 10:46:12.35	133.24	2.79	-12.8	-39.6	3.3	7.75e-01	0	50	104	0	0	65535
2026-01-08 10:46:13.36	133.20	2.85	-16.6	-41.6	2.8	7.72e-01	0	50	104	0	4	65535
2026-01-08 10:46:14.37	133.15	2.92	-16.2	-39.6	3.4	7.68e-01	0	50	104	0	0	65535
2026-01-08 10:46:15.38	133.10	2.99	-13.5	-39.6	3.6	7.75e-01	0	50	104	0	0	65535
2026-01-08 10:46:16.39	133.05	3.05	-14.6	-41.1	3.8	7.77e-01	0	50	104	0	3	65535
2026-01-08 10:46:17.40	133.00	3.12	-13.5	-39.6	2.3	7.80e-01	0	50	104	0	0	65535
2026-01-08 10:46:18.41	132.95	3.19	-13.2	-39.6	2.6	7.75e-01	0	50	104	0	0	65535
2026-01-08 10:46:19.42	132.90	3.26	-16.3	-40.1	2.1	7.72e-01	0	50	104	0	1	65535
2026-01-08 10:46:20.43	132.85	3.32	-15.2	-41.1	2.6	7.75e-01	0	50	104	0	3	65535
2026-01-08 10:46:21.44	132.80	3.39	-17.0	-41.1	2.7	7.76e-01	0	50	104	0	3	65535
2026-01-08 10:46:22.45	132.75	3.46	-14.0	-39.6	1.9	7.85e-01	0	51	104	0	0	65535
2026-01-08 10:46:23.46	132.70	3.53	-17.1	-41.6	2.1	7.77e-01	0	51	104	0	4	65535
2026-01-08 10:46:24.47	132.65	3.59	-15.9	-40.6	2.5	7.80e-01	0	51	104	0	2	65535
2026-01-08 10:46:25.48	132.60	3.66	-16.2	-40.6	3.9	7.74e-01	0	51	104	0	2	65535
2026-01-08 10:46:26.49	132.54	3.73	-9.5	-39.6	4.4	7.85e-01	0	51	104	0	0	65535
2026-01-08 10:46:27.50	132.49	3.80	-11.2	-39.6	3.4	7.69e-01	0	51	104	0	0	65535
2026-01-08 10:46:28.51	132.44	3.87	-16.9	-39.6	2.7	7.80e-01	0	51	104	0	0	65535
2026-01-08 10:46:29.52	132.39	3.94	-16.0	-39.6	3.5	7.74e-01	0	51	104	0	0	65535
2026-01-08 10:46:30.53	132.33	4.01	-11.0	-39.6	3.9	7.86e-01	0	51	104	0	0	65535
2026-01-08 10:46:31.54	132.28	4.08	-17.7	-40.1	3.6	7.66e-01	0	51	104	0	1	65535
2026-01-08 10:46:32.55	132.23	4.15	-11.6	-40.5	3.2	7.75e-01	0	51	104	0	2	64799
2026-01-08 10:46:33.56	132.17	4.22	-16.6	-40.1	2.3	7.78e-01	0	51	104	0	1	65535
2026-01-08 10:46:34.57	132.12	4.29	-10.2	-39.6	3.6	7.82e-01	0	51	104	0	0	65535
2026-01-08 10:46:35.58	132.07	4.36	-16.2	-40.1	3.1	7.64e-01	0	51	104	0	1	65535
2026-01-08 10:46:36.59	132.01	4.43	-15.2	-41.6	2.6	7.71e-01	0	51	104	0	4	65535
2026-01-08 10:46:37.59	131.96	4.50	-15.3	-41.6	3.2	7.77e-01	0	51	104	0	4	65535
2026-01-08 10:46:38.60	131.90	4.57	-12.1	-39.6	3.2	7.82e-01	0	52	104	0	0	65535
2026-01-08 10:46:39.61	131.85	4.64	-15.6	-40.6	3.3	7.69e-01	0	52	104	0	2	65535
2026-01-08 10:46:40.62	131.79	4.71	-15.7	-41.1	2.7	7.74e-01	0	51	104	0	3	65530
2026-01-08 10:46:41.63	131.73	4.78	-12.7	-39.5	5.2	7.64e-01	0	52	104	0	0	64878
2026-01-08 10:46:42.64	131.68	4.85	-10.4	-39.6	3.1	7.60e-01	0	52	104	0	0	65535
2026-01-08 10:46:43.65	131.62	4.92	-17.9	-40.1	3.7	7.83e-01	0	52	104	0	1	65535
2026-01-08 10:46:44.66	131.56	4.99	-9.5	-39.6	3.7	7.81e-01	0	52	104	0	0	65534
2026-01-08 10:46:45.68	131.51	5.07	-16.2	-41.6	2.8	7.74e-01	0	52	104	0	4	65535
2026-01-08 10:46:46.68	131.45	5.14	-11.7	-39.6	3.1	7.87e-01	0	52	104	0	0	65535
2026-01-08 10:46:47.69	131.39	5.21	-13.8	-41.6	2.4	7.79e-01	0	52	104	0	4	65535
2026-01-08 10:46:48.70	131.33	5.28	-15.5	-41.6	2.7	7.70e-01	0	52	104	0	4	65535
2026-01-08 10:46:49.71	131.27	5.35	-14.5	-39.6	2.8	7.74e-01	0	52	104	0	0	65535
2026-01-08 10:46:50.72	131.21	5.43	-15.1	-40.6	1.4	7.77e-01	0	52	104	0	2	65535
2026-01-08 10:46:51.73	131.15	5.50	-15.9	-41.1	2.9	7.71e-01	0	52	104	0	3	65535
2026-01-08 10:46:52.74	131.10	5.57	-16.7	-41.1	2.8	7.78e-01	0	52	104	0	3	65535
2026-01-08 10:46:53.75	131.04	5.65	-14.4	-41.1	2.6	7.78e-01	0	52	104	0	3	65535
2026-01-08 10:46:54.76	130.97	5.72	-13.5	-39.6	3.4	7.77e-01	0	52	104	0	0	65535
2026-01-08 10:46:55.78	130.91	5.80	-14.5	-40.6	4.0	7.75e-01	0	52	104	0	2	65535
2026-01-08 10:46:56.79	130.85	5.87	-9.9	-39.6	3.4	7.84e-01	0	52	104	0	0	65535
2026-01-08 10:46:57.80	130.79	5.94	-15.5	-41.6	3.8	7.77e-01	0	53	104	0	4	65535
2026-01-08 10:46:58.81	130.73	6.02	-12.2	-39.6	3.2	7.83e-01	0	53	104	0	0	65535
2026-01-08 10:46:59.82	130.67	6.09	-11.7	-39.6	2.5	7.87e-01	0	53	104	0	0	65535
2026-01-08 10:47:00.83	130.60	6.17	-13.8	-40.9	3.3	7.74e-01	0	52	104	0	3	64022
2026-01-08 10:47:01.84	130.54	6.24	-12.6	-39.6	3.2	7.71e-01	0	53	104	0	0	65471
2026-01-08 10:47:02.85	130.48	6.32	-14.1	-39.6	3.3	7.69e-01	0	53	104	0	0	65026
2026-01-08 10:47:03.86	130.41	6.39	-18.3	-41.6	2.4	7.73e-01	0	53	104	0	4	65535
2026-01-08 10:47:04.87	130.35	6.47	-13.0	-39.6	3.2	7.67e-01	0	53	104	0	0	65525
2026-01-08 10:47:05.88	130.29	6.55	-14.5	-39.6	2.4	7.79e-01	0	53	104	0	0	65535
2026-01-08 10:47:06.89	130.22	6.62	-15.9	-41.1	3.0	7.78e-01	0	53	104	0	3	65535
2026-01-08 10:47:07.90	130.16	6.70	-16.3	-42.1	2.8	7.79e-01	0	53	104	0	5	65535
2026-01-08 10:47:08.91	130.09	6.77	-15.9	-40.6	3.1	7.70e-01	0	53	104	0	2	65535
2026-01-08 10:47:09.92	130.02	6.85	-16.4	-41.1	2.8	7.80e-01	0	53	104	0	3	65535
2026-01-08 10:47:10.93	129.96	6.93	-16.3	-40.6	3.1	7.70e-01	0	53	104	0	2	65533
2026-01-08 10:47:11.94	129.89	7.01	-12.9	-39.6	3.2	7.74e-01	0	53	104	0	0	65535
2026-01-08 10:47:12.95	129.82	7.08	-13.5	-40.5	4.3	7.74e-01	0	53	104	0	2	64260
2026-01-08 10:47:13.96	129.76	7.16	-17.0	-41.1	3.5	7.67e-01	0	53	104	0	3	65535
2026-01-08 10:47:14.97	129.69	7.24	-16.3	-41.1	3.4	7.71e-01	0	53	104	0	3	65535
2026-01-08 10:47:15.98	129.62	7.32	-15.9	-41.1	3.1	7.79e-01	0	53	104	0	3	65535
2026-01-08 10:47:16.99	129.55	7.40	-15.1	-42.1	3.1	7.66e-01	0	53	104	0	5	65392
2026-01-08 10:47:18.00	129.48	7.47	-16.4	-41.6	2.6	7.71e-01	0	53	104	0	4	65532
2026-01-08 10:47:19.01	129.41	7.55	-13.7	-40.1	2.9	7.77e-01	0	53	104	0	1	65535
2026-01-08 10:47:20.02	129.34	7.63	-14.7	-40.1	5.6	7.58e-01	0	53	104	0	1	65527
2026-01-08 10:47:21.03	129.27	7.71	-14.4	-40.1	2.1	7.79e-01	0	53	104	0	1	65535
2026-01-08 10:47:22.04	129.20	7.79	-17.0	-41.1	2.8	7.76e-01	0	54	104	0	3	65534
2026-01-08 10:47:23.05	129.13	7.87	-16.4	-42.6	3.5	7.79e-01	0	53	104	0	6	65535
2026-01-08 10:47:24.06	129.06	7.95	-14.2	-39.6	3.6	7.82e-01	0	54	104	0	0	65535
2026-01-08 10:47:25.07	128.99	8.03	-17.8	-40.6	3.4	7.70e-01	0	54	104	0	2	65535
2026-01-08 10:47:26.08	128.91	8.11	-16.8	-41.6	3.2	7.77e-01	0	53	104	0	4	65535
2026-01-08 10:47:27.08	128.84	8.19	-16.5	-39.6	3.5	7.58e-01	0	54	104	0	0	65535
2026-01-08 10:47:28.09	128.77	8.27	-15.5	-40.6	2.8	7.79e-01	0	54	104	0	2	65535
2026-01-08 10:47:29.10	128.69	8.35	-12.0	-41.6	4.3	7.73e-01	0	54	104	0	4	65527
2026-01-08 10:47:30.11	128.62	8.44	-15.6	-39.6	4.7	7.73e-01	0	53	104	0	0	65535
2026-01-08 10:47:31.12	128.54	8.52	-15.2	-40.7	5.2	7.77e-01	0	54	104	0	3	62246
2026-01-08 10:47:32.13	128.47	8.60	-15.9	-39.6	3.4	7.77e-01	0	54	104	0	0	65535
2026-01-08 10:47:33.14	128.39	8.68	-16.4	-39.6	4.4	7.64e-01	0	54	104	0	0	65535
2026-01-08 10:47:34.15	128.32	8.76	-14.8	-39.8	3.7	7.58e-01	0	54	104	0	1	63460
2026-01-08 10:47:35.16	128.24	8.85	-12.4	-40.0	3.9	7.58e-01	0	54	104	0	1	64426
2026-01-08 10:47:36.17	128.16	8.93	-10.7	-42.0	3.0	7.78e-01	0	54	104	0	5	64796
2026-01-08 10:47:37.18	128.08	9.01	-19.1	-42.1	5.0	7.73e-01	0	54	104	0	5	65535
2026-01-08 10:47:38.19	128.01	9.10	-11.4	-39.6	4.4	7.40e-01	0	54	104	0	0	65300
2026-01-08 10:47:39.20	127.93	9.18	-14.0	-38.5	4.5	7.43e-01	0	54	104	0	1	54312
2026-01-08 10:47:40.21	127.85	9.27	-15.9	-41.6	4.5	7.37e-01	0	54	104	0	4	65269
2026-01-08 10:47:41.22	127.77	9.35	-14.3	-42.1	4.1	7.39e-01	0	54	104	0	5	65535
2026-01-08 10:47:42.23	127.69	9.43	-12.2	-39.6	3.8	7.46e-01	0	54	104	0	0	65524
2026-01-08 10:47:43.24	127.61	9.52	-17.4	-41.9	7.4	6.54e-01	62	54	0	524288	7	56842
2026-01-08 10:47:44.25	127.52	9.61	-9.7	-39.6	6.9	6.88e-01	45	54	0	1572864	0	65428
2026-01-08 10:47:45.26	127.44	9.69	-16.5	-40.6	4.0	7.40e-01	0	54	104	1572864	2	65535
2026-01-08 10:47:46.27	127.36	9.78	-16.4	-40.7	5.0	7.37e-01	0	54	104	1572864	4	58840
2026-01-08 10:47:47.28	127.28	9.86	-14.8	-40.6	7.5	6.78e-01	1	54	0	1572864	2	65535
2026-01-08 10:47:48.29	127.19	9.95	-15.6	-43.7	7.7	6.46e-01	41	54	0	2097152	10	58649
2026-01-08 10:47:49.30	127.11	10.04	-16.4	-42.1	6.9	6.54e-01	59	54	0	2097152	5	65529
2026-01-08 10:47:50.31	127.02	10.12	-15.2	-42.9	7.9	6.51e-01	26	54	0	2097152	8	60045
2026-01-08 10:47:51.32	126.94	10.21	-17.2	-41.7	7.0	6.66e-01	2	54	104	2097152	8	52383
2026-01-08 10:47:52.33	126.85	10.30	-18.6	-42.6	4.5	7.26e-01	0	55	104	2097152	8	58533
2026-01-08 10:47:53.34	126.77	10.38	-19.4	-43.2	8.1	6.31e-01	90	55	0	2621440	11	52559
2026-01-08 10:47:54.35	126.68	10.47	-19.0	-41.7	7.8	6.42e-01	31	54	104	3145728	7	55567
2026-01-08 10:47:55.36	126.59	10.56	-20.9	-43.1	7.5	6.45e-01	90	54	0	3670016	7	65288
2026-01-08 10:47:56.38	126.50	10.65	-22.0	-43.6	8.1	6.41e-01	73	54	0	4718592	12	52151
2026-01-08 10:47:57.38	126.42	10.74	-19.7	-41.9	10.1	6.26e-01	92	55	0	4718592	11	45291
2026-01-08 10:47:58.40	126.32	10.83	-14.9	-40.2	9.0	6.52e-01	61	55	0	6291456	10	39449
2026-01-08 10:47:59.41	126.23	10.92	-19.1	-41.2	10.0	6.27e-01	92	55	0	6815744	13	36987
2026-01-08 10:48:00.41	126.15	11.01	-19.4	-44.0	4.9	7.11e-01	0	55	104	7864320	14	48281
2026-01-08 10:48:01.42	126.05	11.10	-18.3	-42.3	9.9	6.27e-01	90	55	0	8912896	15	37583
2026-01-08 10:48:02.44	125.96	11.19	-16.4	-39.6	4.2	7.47e-01	0	55	104	10485760	0	65535
2026-01-08 10:48:03.45	125.87	11.28	-24.7	-42.7	9.3	6.20e-01	81	55	104	10485760	21	27957
2026-01-08 10:48:04.46	125.78	11.37	-23.3	-41.7	11.0	6.20e-01	84	55	0	11534336	18	29520
2026-01-08 10:48:05.47	125.68	11.46	-23.8	-41.7	11.9	6.18e-01	90	55	0	13631488	24	20959
2026-01-08 10:48:06.47	125.59	11.55	-19.1	-39.6	6.4	7.14e-01	10	55	0	14155776	19	21798
2026-01-08 10:48:07.48	125.49	11.64	-25.8	-42.9	10.6	6.22e-01	85	55	0	14680064	25	22555
2026-01-08 10:48:08.49	125.40	11.74	-25.4	-42.6	9.4	6.34e-01	69	55	0	16777216	21	27673
2026-01-08 10:48:09.51	125.30	11.83	-25.7	-42.2	14.0	6.11e-01	33	55	0	18350080	32	14016
2026-01-08 10:48:10.52	125.20	11.92	-24.1	-42.4	4.6	7.41e-01	0	55	104	19922944	12	45054
2026-01-08 10:48:11.53	125.11	12.02	-25.7	-41.9	12.0	6.15e-01	27	55	0	20447232	26	19101
2026-01-08 10:48:12.54	125.01	12.11	-27.0	-42.7	5.0	7.08e-01	0	55	104	20971520	27	19643
2026-01-08 10:48:13.55	124.91	12.20	-31.4	-43.2	15.0	6.09e-01	13	55	0	22020096	39	10444
2026-01-08 10:48:14.56	124.81	12.30	-25.4	-41.8	9.6	6.12e-01	12	55	0	23592960	27	17732
2026-01-08 10:48:15.57	124.71	12.39	-36.0	-43.4	15.6	6.09e-01	6	55	0	25165824	43	8513
2026-01-08 10:48:16.58	124.61	12.49	-36.1	-43.5	16.2	6.11e-01	4	55	0	27262976	43	8585
2026-01-08 10:48:17.59	124.50	12.58	-35.2	-43.1	15.8	6.10e-01	10	55	0	28835840	41	9222
2026-01-08 10:48:18.60	124.40	12.68	-20.0	-40.6	8.4	6.56e-01	15	55	0	29360128	17	27568
2026-01-08 10:48:19.61	124.30	12.77	-34.6	-44.0	17.1	6.08e-01	2	55	0	30932992	46	7642
2026-01-08 10:48:20.62	124.19	12.87	-18.1	-41.8	8.6	6.46e-01	89	55	0	31457280	7	56466
2026-01-08 10:48:21.63	124.09	12.97	-36.0	-43.9	17.0	6.06e-01	3	55	0	33030144	47	7167
2026-01-08 10:48:22.64	123.98	13.06	-23.8	-41.2	10.9	6.32e-01	75	55	0	35127296	20	24930
2026-01-08 10:48:23.65	123.88	13.16	-37.9	-44.4	17.6	6.08e-01	0	55	0	37224448	51	5993
2026-01-08 10:48:24.66	123.77	13.26	-38.9	-43.9	16.8	6.06e-01	1	55	0	38797312	42	9541
2026-01-08 10:48:25.67	123.66	13.36	-40.6	-44.5	17.7	6.06e-01	0	55	0	40370176	49	6856
2026-01-08 10:48:26.68	123.55	13.45	-28.5	-43.1	9.1	6.21e-01	50	55	0	42467328	23	25896
2026-01-08 10:48:27.69	123.44	13.55	-39.2	-44.4	16.6	6.08e-01	0	55	0	44564480	50	6400
2026-01-08 10:48:28.69	123.33	13.65	-38.7	-44.4	17.5	6.08e-01	0	56	0	46137344	51	6001
2026-01-08 10:48:29.70	123.22	13.75	-33.0	-44.3	13.1	6.13e-01	2	55	0	48234496	39	11892
2026-01-08 10:48:30.71	123.11	13.85	-28.9	-42.4	12.3	6.11e-01	8	56	0	49807360	29	16954
2026-01-08 10:48:31.72	123.00	13.95	-32.3	-43.8	14.7	6.09e-01	0	55	0	51904512	38	11846
2026-01-08 10:48:32.73	122.89	14.05	-30.9	-43.0	12.8	6.12e-01	12	55	0	54001664	33	14511
2026-01-08 10:48:33.74	122.77	14.15	-35.1	-43.6	17.7	6.06e-01	0	56	0	55574528	47	6909
2026-01-08 10:48:34.75	122.66	14.25	-38.8	-43.0	17.0	6.07e-01	0	55	0	57671680	42	8646
2026-01-08 10:48:35.76	122.54	14.35	-35.6	-43.6	15.5	6.12e-01	2	55	0	59244544	42	9175
2026-01-08 10:48:36.77	122.42	14.45	-39.4	-43.7	17.7	6.05e-01	0	56	0	61341696	49	6228
2026-01-08 10:48:37.78	122.30	14.56	-38.4	-43.3	16.9	6.08e-01	0	56	0	63438848	46	7043
2026-01-08 10:48:38.79	122.19	14.66	-38.8	-43.1	17.1	6.05e-01	0	55	0	65011712	42	8704
2026-01-08 10:48:39.80	122.07	14.76	-38.1	-43.4	16.4	6.05e-01	0	55	0	67108864	48	6350
2026-01-08 10:48:40.81	121.95	14.86	-37.3	-43.5	18.5	6.06e-01	0	56	0	69206016	49	6101
2026-01-08 10:48:41.82	121.82	14.97	-33.0	-42.7	16.2	6.08e-01	0	56	0	70778880	43	7812
2026-01-08 10:48:42.83	121.70	15.07	-37.5	-42.2	16.4	6.07e-01	0	56	0	72876032	44	6992
2026-01-08 10:48:43.84	121.58	15.17	-39.3	-43.0	18.9	6.06e-01	0	56	0	74448896	49	5750
2026-01-08 10:48:44.85	121.45	15.28	-37.2	-42.7	18.1	6.06e-01	0	56	0	76546048	47	6211
2026-01-08 10:48:45.86	121.33	15.38	-37.6	-42.9	18.1	6.07e-01	0	56	0	78643200	48	5996
2026-01-08 10:48:46.87	121.20	15.49	-35.0	-42.7	17.0	6.07e-01	0	56	0	80216064	43	7837
2026-01-08 10:48:47.88	121.08	15.60	-31.1	-42.4	15.8	6.08e-01	0	56	0	82313216	37	10718
2026-01-08 10:48:48.89	120.95	15.70	-39.2	-42.7	19.7	6.07e-01	0	56	0	84410368	49	5550
2026-01-08 10:48:49.90	120.82	15.81	-38.9	-42.8	19.8	6.07e-01	0	56	0	85983232	50	5311
2026-01-08 10:48:50.91	120.69	15.91	-36.1	-42.2	18.9	6.05e-01	0	56	0	88080384	45	6645
2026-01-08 10:48:51.92	120.56	16.02	-39.1	-42.9	19.4	6.05e-01	0	56	0	89653248	50	5358
2026-01-08 10:48:52.93	120.42	16.13	-38.6	-42.8	19.4	6.08e-01	0	56	0	91750400	49	5593
2026-01-08 10:48:53.94	120.29	16.24	-40.0	-42.9	19.4	6.06e-01	0	56	0	93847552	50	5343
2026-01-08 10:48:54.95	120.16	16.34	-36.8	-42.7	19.0	6.08e-01	0	56	0	95420416	48	5867
2026-01-08 10:48:55.96	120.02	16.45	-39.9	-42.7	20.2	6.06e-01	0	56	0	97517568	50	5274
2026-01-08 10:48:56.97	119.89	16.56	-36.7	-42.4	19.2	6.08e-01	0	56	0	99090432	47	5994
2026-01-08 10:48:57.98	119.75	16.67	-38.6	-42.2	20.0	6.07e-01	0	56	0	101187584	49	5257
2026-01-08 10:48:58.99	119.61	16.78	-39.8	-42.7	20.4	6.07e-01	0	56	0	103284736	50	5231
2026-01-08 10:49:00.00	119.47	16.89	-38.3	-42.3	18.5	6.05e-01	0	56	0	104857600	44	7084
2026-01-08 10:49:01.01	119.33	17.00	-39.9	-42.7	20.4	6.09e-01	0	56	0	106954752	50	5248
2026-01-08 10:49:02.02	119.19	17.11	-39.9	-42.7	20.5	6.06e-01	0	56	0	108527616	50	5224
2026-01-08 10:49:03.03	119.04	17.22	-40.0	-42.8	20.2	6.06e-01	0	56	0	110624768	50	5309
2026-01-08 10:49:04.04	118.90	17.34	-40.2	-42.8	20.4	6.05e-01	0	56	0	112721920	51	5014
2026-01-08 10:49:05.05	118.76	17.45	-40.3	-42.9	20.3	6.07e-01	0	56	0	114294784	51	5088
2026-01-08 10:49:06.06	118.61	17.56	-40.3	-43.1	19.8	6.05e-01	0	56	0	116391936	51	5173
2026-01-08 10:49:07.07	118.46	17.67	-40.4	-43.2	20.0	6.08e-01	0	56	0	117964800	51	5265
2026-01-08 10:49:08.08	118.31	17.79	-40.4	-43.1	20.3	6.06e-01	0	56	0	120061952	51	5166
2026-01-08 10:49:09.09	118.16	17.90	-40.4	-43.1	20.3	6.06e-01	0	56	0	122159104	51	5177
2026-01-08 10:49:10.10	118.01	18.01	-40.5	-43.1	20.3	6.07e-01	0	56	0	123731968	51	5203
2026-01-08 10:49:11.11	117.86	18.13	-40.4	-43.0	20.4	6.05e-01	0	56	0	125829120	51	5126
2026-01-08 10:49:12.12	117.71	18.24	-40.4	-43.0	20.4	6.07e-01	0	56	0	127401984	51	5128
2026-01-08 10:49:13.13	117.55	18.36	-40.1	-43.0	20.4	6.06e-01	0	56	0	129499136	51	5149
2026-01-08 10:49:14.14	117.39	18.47	-40.4	-43.1	20.3	6.07e-01	0	56	0	131596288	51	5193
2026-01-08 10:49:15.15	117.24	18.59	-40.5	-43.1	20.4	6.06e-01	0	56	0	133169152	51	5167
2026-01-08 10:49:16.16	117.08	18.71	-40.4	-43.0	19.6	6.06e-01	0	56	0	135266304	51	5102
2026-01-08 10:49:17.17	116.92	18.82	-40.2	-42.8	20.6	6.06e-01	0	56	0	137363456	51	4991
2026-01-08 10:49:18.18	116.76	18.94	-40.2	-42.8	20.6	6.05e-01	0	56	0	138936320	51	4986
2026-01-08 10:49:19.19	116.59	19.06	-40.1	-42.7	20.7	6.06e-01	0	56	0	141033472	51	4952
2026-01-08 10:49:20.20	116.43	19.17	-40.2	-42.7	20.7	6.06e-01	0	56	0	142606336	51	4957
2026-01-08 10:49:21.21	116.26	19.29	-40.2	-42.7	20.7	6.05e-01	0	56	0	144703488	51	4960
2026-01-08 10:49:22.22	116.10	19.41	-40.2	-42.7	20.8	6.06e-01	0	56	0	146800640	50	5236
2026-01-08 10:49:23.23	115.93	19.53	-40.2	-42.7	20.8	6.06e-01	0	56	0	148373504	51	4941
2026-01-08 10:49:24.24	115.76	19.65	-40.2	-42.7	20.7	6.09e-01	0	56	0	150470656	51	4959
2026-01-08 10:49:25.25	115.59	19.77	-40.2	-42.8	20.7	6.07e-01	0	56	0	152567808	51	5018
2026-01-08 10:49:26.26	115.42	19.89	-40.2	-42.9	20.4	6.06e-01	0	56	0	154140672	51	5074
2026-01-08 10:49:27.27	115.24	20.01	-40.1	-43.0	20.3	6.06e-01	0	56	0	156237824	50	5408
2026-01-08 10:49:28.28	115.07	20.13	-40.0	-43.1	20.3	6.06e-01	0	56	0	157810688	51	5178
2026-01-08 10:49:29.29	114.89	20.25	-40.4	-43.0	20.5	6.03e-01	0	56	0	159907840	51	5119
2026-01-08 10:49:30.30	114.71	20.37	-40.5	-43.0	20.5	6.09e-01	0	56	0	162004992	51	5153
2026-01-08 10:49:31.31	114.53	20.50	-40.4	-43.1	20.4	6.07e-01	0	56	0	163577856	51	5184
2026-01-08 10:49:32.32	114.35	20.62	-40.5	-43.1	20.4	6.08e-01	0	56	0	165675008	51	5188
2026-01-08 10:49:33.33	114.17	20.74	-40.6	-43.3	20.3	6.06e-01	0	56	0	167247872	51	5293
2026-01-08 10:49:34.34	113.98	20.86	-40.7	-43.3	20.1	6.08e-01	0	56	0	169345024	52	5040
2026-01-08 10:49:35.35	113.80	20.99	-40.8	-43.5	20.0	6.04e-01	0	56	0	171442176	52	5127
2026-01-08 10:49:36.36	113.61	21.11	-40.8	-43.5	20.0	6.06e-01	0	56	0	173015040	52	5129
2026-01-08 10:49:37.37	113.42	21.23	-40.6	-43.2	20.2	6.06e-01	0	56	0	175112192	52	4974
2026-01-08 10:49:38.38	113.23	21.36	-40.6	-43.2	20.3	6.05e-01	0	56	0	176685056	52	4940
2026-01-08 10:49:39.39	113.04	21.48	-40.6	-43.2	20.3	6.07e-01	0	56	0	178782208	52	4978
2026-01-08 10:49:40.40	112.84	21.61	-40.6	-43.1	20.4	6.05e-01	0	56	0	180879360	52	4923
2026-01-08 10:49:41.41	112.65	21.73	-40.6	-43.2	20.3	6.07e-01	0	56	0	182452224	52	4948
2026-01-08 10:49:42.42	112.45	21.86	-40.6	-43.2	20.3	6.06e-01	0	56	0	184549376	52	4981
2026-01-08 10:49:43.43	112.25	21.98	-40.4	-43.0	20.6	6.05e-01	0	56	0	186122240	52	4819
2026-01-08 10:49:44.44	112.05	22.11	-40.4	-42.9	20.7	6.09e-01	0	56	0	188219392	52	4761
2026-01-08 10:49:45.45	111.85	22.24	-40.5	-43.0	20.6	6.04e-01	0	56	0	190316544	52	4836
2026-01-08 10:49:46.46	111.64	22.36	-40.5	-43.1	20.5	6.06e-01	0	56	0	191889408	52	4903
2026-01-08 10:49:47.47	111.44	22.49	-40.4	-42.9	20.6	6.06e-01	0	56	0	193986560	52	4809
2026-01-08 10:49:48.48	111.23	22.62	-40.4	-43.0	20.6	6.06e-01	0	56	0	195559424	52	4819
2026-01-08 10:49:49.49	111.02	22.75	-40.4	-42.9	20.7	6.08e-01	0	56	0	197656576	52	4788
2026-01-08 10:49:50.50	110.81	22.88	-40.5	-43.0	20.6	6.06e-01	0	56	0	199753728	51	5126
2026-01-08 10:49:51.50	110.60	23.00	-40.5	-43.1	20.6	6.08e-01	0	56	0	201326592	51	5168
2026-01-08 10:49:52.51	110.38	23.13	-40.6	-43.1	20.6	6.06e-01	0	56	0	203423744	51	5192
2026-01-08 10:49:53.52	110.16	23.26	-40.6	-43.1	20.5	6.09e-01	0	56	0	205520896	51	5200
2026-01-08 10:49:54.53	109.95	23.39	-40.5	-43.1	20.6	6.05e-01	0	57	0	207093760	51	5162
2026-01-08 10:49:55.54	109.72	23.52	-40.5	-43.1	20.6	6.06e-01	0	56	0	209190912	51	5173
2026-01-08 10:49:56.55	109.50	23.65	-40.6	-43.1	20.6	6.06e-01	0	57	0	210763776	51	5203
2026-01-08 10:49:57.56	109.28	23.78	-40.4	-43.0	20.6	6.06e-01	0	57	0	212860928	51	5158
2026-01-08 10:49:58.57	109.05	23.91	-39.5	-43.0	20.6	6.05e-01	0	56	0	214958080	51	5139
2026-01-08 10:49:59.58	108.82	24.04	-40.4	-42.9	20.8	6.06e-01	0	57	0	216530944	51	5079
2026-01-08 10:50:00.59	108.59	24.17	-40.5	-43.0	20.7	6.04e-01	0	56	0	218628096	51	5117
2026-01-08 10:50:01.60	108.36	24.30	-40.6	-43.1	20.6	6.08e-01	0	57	0	220725248	51	5178
2026-01-08 10:50:02.61	108.12	24.43	-40.5	-43.0	20.7	6.06e-01	0	57	0	222298112	51	5122
2026-01-08 10:50:03.62	107.89	24.56	-40.5	-43.0	20.7	6.07e-01	0	57	0	224395264	51	5113
2026-01-08 10:50:04.63	107.65	24.70	-40.5	-43.0	20.7	6.06e-01	0	57	0	225968128	51	5144
2026-01-08 10:50:05.65	107.40	24.83	-40.6	-43.1	20.6	6.09e-01	0	57	0	228065280	51	5169
2026-01-08 10:50:06.66	107.16	24.96	-40.5	-43.0	20.7	6.04e-01	0	57	0	230162432	51	5121
2026-01-08 10:50:07.67	106.91	25.09	-40.4	-42.9	20.8	6.06e-01	0	57	0	231735296	51	5094
2026-01-08 10:50:08.68	106.67	25.22	-40.5	-43.0	20.7	6.09e-01	0	57	0	233832448	51	5109
2026-01-08 10:50:09.69	106.42	25.36	-40.5	-43.0	20.7	6.07e-01	0	57	0	235405312	51	5117
2026-01-08 10:50:10.70	106.16	25.49	-40.5	-43.0	20.7	6.07e-01	0	57	0	237502464	51	5132
2026-01-08 10:50:11.71	105.91	25.62	-40.4	-42.9	20.8	6.04e-01	0	57	0	239599616	51	5053
2026-01-08 10:50:12.72	105.65	25.75	-40.3	-42.7	21.0	6.06e-01	0	57	0	241172480	51	4981
2026-01-08 10:50:13.73	105.40	25.89	-40.3	-42.6	21.1	6.05e-01	0	57	0	243269632	51	4910
2026-01-08 10:50:14.74	105.13	26.02	-40.3	-42.7	21.1	6.05e-01	0	57	0	245366784	51	4938
2026-01-08 10:50:15.75	104.87	26.15	-40.3	-42.6	21.1	6.08e-01	0	57	0	246939648	51	4907
2026-01-08 10:50:16.76	104.61	26.29	-40.3	-42.7	21.1	6.07e-01	0	57	0	249036800	51	4935
2026-01-08 10:50:17.77	104.34	26.42	-40.4	-42.8	20.9	6.08e-01	0	57	0	250609664	51	5006
2026-01-08 10:50:18.78	104.07	26.55	-40.5	-42.9	20.8	6.03e-01	0	57	0	252706816	51	5087
2026-01-08 10:50:19.79	103.79	26.69	-40.5	-42.9	20.8	6.03e-01	0	57	0	254803968	51	5070
2026-01-08 10:50:20.80	103.52	26.82	-40.3	-42.7	21.0	6.08e-01	0	57	0	256376832	51	4982
2026-01-08 10:50:21.81	103.24	26.95	-40.2	-42.6	21.2	6.05e-01	0	57	0	258473984	51	4875
2026-01-08 10:50:22.82	102.96	27.08	-40.1	-42.5	21.3	6.07e-01	0	57	0	260046848	51	4819
2026-01-08 10:50:23.83	102.68	27.22	-40.1	-42.5	21.3	6.05e-01	0	57	0	262144000	51	4818
2026-01-08 10:50:24.84	102.39	27.35	-40.2	-42.5	21.3	6.05e-01	0	57	0	264241152	51	4856
2026-01-08 10:50:25.85	102.11	27.48	-40.2	-42.5	21.3	6.07e-01	0	57	0	265814016	51	4846
2026-01-08 10:50:26.86	101.82	27.62	-40.1	-42.4	21.4	6.05e-01	0	57	0	267911168	51	4779
2026-01-08 10:50:27.87	101.53	27.75	-40.0	-42.2	21.5	6.07e-01	0	57	0	269484032	51	4696
2026-01-08 10:50:28.88	101.23	27.88	-40.0	-42.3	21.5	6.08e-01	0	57	0	271581184	51	4707
2026-01-08 10:50:29.89	100.93	28.01	-40.1	-42.3	21.5	6.03e-01	0	57	0	273678336	51	4745
2026-01-08 10:50:30.90	100.63	28.15	-40.2	-42.5	20.7	6.08e-01	0	57	0	275251200	51	4833
2026-01-08 10:50:31.91	100.33	28.28	-40.2	-42.5	21.3	6.07e-01	0	57	0	277348352	51	4833
2026-01-08 10:50:32.92	100.03	28.41	-40.1	-42.4	21.4	6.05e-01	0	57	0	278921216	51	4761
2026-01-08 10:50:33.93	99.72	28.54	-39.9	-42.1	21.7	6.05e-01	0	57	0	281018368	51	4635
2026-01-08 10:50:34.94	99.41	28.67	-39.8	-41.9	21.8	6.05e-01	0	57	0	283115520	51	4536
2026-01-08 10:50:35.95	99.09	28.81	-39.9	-42.1	21.7	6.06e-01	0	57	0	284688384	51	4615
2026-01-08 10:50:36.96	98.78	28.94	-40.0	-42.2	21.6	6.07e-01	0	57	0	286785536	51	4705
2026-01-08 10:50:37.97	98.46	29.07	-40.1	-42.4	21.4	6.06e-01	0	57	0	288882688	51	4772
2026-01-08 10:50:38.98	98.14	29.20	-40.1	-42.3	21.4	6.07e-01	0	57	0	290455552	51	4752
2026-01-08 10:50:39.98	97.82	29.33	-40.0	-42.3	21.5	6.07e-01	0	57	0	292552704	51	4714
2026-01-08 10:50:41.00	97.49	29.46	-39.9	-42.2	21.6	6.06e-01	0	57	0	294125568	51	4667
2026-01-08 10:50:42.01	97.16	29.59	-40.0	-42.3	21.5	6.05e-01	0	57	0	296222720	51	4720
2026-01-08 10:50:43.02	96.83	29.72	-40.0	-42.3	21.5	6.06e-01	0	57	0	298319872	51	4727
2026-01-08 10:50:44.03	96.49	29.84	-40.1	-42.4	21.4	6.05e-01	0	57	0	299892736	51	4780
2026-01-08 10:50:45.04	96.16	29.97	-40.0	-42.2	21.6	6.10e-01	0	57	0	301989888	51	4704
2026-01-08 10:50:46.05	95.81	30.10	-39.9	-42.1	21.7	6.07e-01	0	57	0	303562752	51	4648
2026-01-08 10:50:47.06	95.47	30.23	-39.9	-42.1	21.7	6.07e-01	0	57	0	305659904	51	4647
2026-01-08 10:50:48.07	95.13	30.35	-40.1	-42.3	21.5	6.06e-01	0	57	0	307757056	51	4741
2026-01-08 10:50:49.08	94.78	30.48	-40.1	-42.3	21.5	6.05e-01	0	57	0	309329920	51	4743
2026-01-08 10:50:50.09	94.43	30.60	-40.0	-42.2	21.6	6.06e-01	0	57	0	311427072	51	4668
2026-01-08 10:50:51.10	94.07	30.73	-39.7	-41.8	22.0	6.06e-01	0	57	0	313524224	51	4477
2026-01-08 10:50:52.11	93.71	30.85	-39.8	-41.9	21.9	6.06e-01	0	57	0	315097088	51	4527
2026-01-08 10:50:53.12	93.35	30.98	-39.8	-42.0	21.8	6.05e-01	0	57	0	317194240	51	4579
2026-01-08 10:50:54.13	92.99	31.10	-39.9	-42.1	21.8	6.06e-01	0	57	0	318767104	51	4600
2026-01-08 10:50:55.14	92.63	31.22	-40.0	-42.2	21.6	6.05e-01	0	57	0	320864256	51	4694
2026-01-08 10:50:56.15	92.26	31.34	-39.8	-42.0	21.9	6.05e-01	0	57	0	322961408	51	4559
2026-01-08 10:50:57.16	91.89	31.46	-39.9	-42.1	21.8	6.06e-01	0	57	0	324534272	51	4613
2026-01-08 10:50:58.17	91.51	31.58	-40.0	-42.2	21.7	6.07e-01	0	57	0	326631424	51	4666
2026-01-08 10:50:59.18	91.13	31.70	-39.8	-41.9	21.9	6.08e-01	0	57	0	328204288	51	4527
2026-01-08 10:51:00.19	90.75	31.82	-39.8	-42.0	21.9	6.06e-01	0	57	0	330301440	51	4571
2026-01-08 10:51:01.20	90.37	31.93	-39.9	-42.1	21.8	6.07e-01	0	57	0	332398592	51	4625
2026-01-08 10:51:02.21	89.99	32.05	-39.9	-42.1	21.8	6.06e-01	0	57	0	333971456	51	4607
2026-01-08 10:51:03.22	89.60	32.17	-39.9	-42.1	21.8	6.05e-01	0	57	0	336068608	51	4613
2026-01-08 10:51:04.23	89.21	32.28	-39.9	-42.1	21.8	6.07e-01	0	57	0	337641472	51	4621
2026-01-08 10:51:05.24	88.81	32.39	-40.0	-42.3	21.6	6.04e-01	0	57	0	339738624	51	4707
2026-01-08 10:51:06.25	88.42	32.50	-40.1	-42.3	21.5	6.06e-01	0	57	0	341835776	51	4749
2026-01-08 10:51:07.26	88.02	32.62	-40.0	-42.2	21.7	6.06e-01	0	57	0	343408640	51	4664
2026-01-08 10:51:08.27	87.61	32.73	-40.0	-42.2	21.7	6.07e-01	0	57	0	345505792	51	4661
2026-01-08 10:51:09.28	87.21	32.83	-40.0	-42.3	21.6	6.07e-01	0	57	0	347078656	51	4713
2026-01-08 10:51:10.29	86.80	32.94	-40.1	-42.3	21.6	6.07e-01	0	57	0	349175808	51	4722
2026-01-08 10:51:11.30	86.39	33.05	-40.1	-42.4	21.5	6.05e-01	0	57	0	351272960	51	4785
2026-01-08 10:51:12.31	85.98	33.15	-40.0	-42.3	21.6	6.06e-01	0	57	0	352845824	51	4707
2026-01-08 10:51:13.32	85.56	33.26	-40.1	-42.4	21.5	6.06e-01	0	57	0	354942976	51	4778
2026-01-08 10:51:14.33	85.14	33.36	-40.2	-42.4	21.4	6.06e-01	0	57	0	357040128	51	4797
2026-01-08 10:51:15.34	84.72	33.46	-40.1	-42.4	21.5	6.08e-01	0	57	0	358612992	51	4776
2026-01-08 10:51:16.35	84.29	33.56	-40.3	-42.5	21.4	6.06e-01	0	57	0	360710144	51	4867
2026-01-08 10:51:17.36	83.87	33.66	-40.1	-42.3	21.6	6.08e-01	0	57	0	362283008	51	4724
2026-01-08 10:51:18.37	83.44	33.75	-40.2	-42.5	21.4	6.04e-01	0	57	0	364380160	51	4837
2026-01-08 10:51:19.38	83.00	33.85	-40.3	-42.6	21.3	6.06e-01	0	57	0	366477312	51	4895
2026-01-08 10:51:20.39	82.57	33.94	-40.3	-42.5	21.4	6.06e-01	0	57	0	368050176	51	4870
2026-01-08 10:51:21.40	82.13	34.04	-40.1	-42.4	21.6	6.04e-01	0	57	0	370147328	51	4763
2026-01-08 10:51:22.41	81.69	34.13	-40.1	-42.4	21.5	6.04e-01	0	57	0	371720192	51	4787
2026-01-08 10:51:23.42	81.25	34.22	-40.4	-42.7	21.2	6.04e-01	0	57	0	373817344	51	4981
2026-01-08 10:51:24.43	80.80	34.30	-40.5	-42.8	21.1	6.07e-01	0	57	0	375914496	51	5033
2026-01-08 10:51:25.44	80.36	34.39	-40.4	-42.7	21.2	6.06e-01	0	57	0	377487360	51	4942
2026-01-08 10:51:26.45	79.91	34.47	-40.3	-42.6	21.3	6.07e-01	0	57	0	379584512	51	4899
2026-01-08 10:51:27.46	79.45	34.55	-40.6	-43.0	21.0	6.04e-01	0	57	0	381681664	51	5121
2026-01-08 10:51:28.47	79.00	34.64	-40.6	-43.0	21.0	6.05e-01	0	57	0	383254528	51	5136
2026-01-08 10:51:29.48	78.54	34.71	-40.6	-43.0	20.9	6.06e-01	0	57	0	385351680	51	5156
2026-01-08 10:51:30.49	78.08	34.79	-40.6	-43.0	21.0	6.08e-01	0	57	0	386924544	51	5106
2026-01-08 10:51:31.50	77.62	34.87	-40.6	-43.1	20.9	6.02e-01	0	57	0	389021696	51	5167
2026-01-08 10:51:32.51	77.16	34.94	-40.6	-43.0	21.0	6.06e-01	0	57	0	391118848	51	5116
2026-01-08 10:51:33.53	76.69	35.01	-40.5	-42.9	21.0	6.07e-01	0	57	0	392691712	51	5085
2026-01-08 10:51:34.53	76.23	35.08	-40.6	-43.1	20.9	6.06e-01	0	57	0	394788864	51	5167
2026-01-08 10:51:35.55	75.75	35.15	-40.7	-43.2	20.7	6.05e-01	0	57	0	396361728	52	4955
2026-01-08 10:51:36.55	75.29	35.21	-40.5	-42.8	21.1	6.07e-01	0	57	0	398458880	52	4747
2026-01-08 10:51:37.57	74.81	35.28	-40.6	-43.1	20.9	6.06e-01	0	57	0	400556032	52	4879
2026-01-08 10:51:38.58	74.33	35.34	-40.5	-42.9	21.0	6.04e-01	0	57	0	402128896	52	4783
2026-01-08 10:51:39.59	73.86	35.40	-40.6	-43.0	21.0	6.08e-01	0	57	0	404226048	52	4821
2026-01-08 10:51:40.60	73.38	35.45	-40.6	-43.0	21.0	6.07e-01	0	57	0	406323200	52	4828
2026-01-08 10:51:41.61	72.90	35.51	-40.7	-43.1	20.8	6.07e-01	0	57	0	407896064	52	4917
2026-01-08 10:51:42.61	72.42	35.56	-40.6	-43.0	21.0	6.07e-01	0	57	0	409993216	52	4822
2026-01-08 10:51:43.63	71.93	35.61	-40.4	-42.8	21.1	6.05e-01	0	57	0	411566080	52	4728
2026-01-08 10:51:44.63	71.45	35.66	-40.7	-43.1	20.8	6.06e-01	0	57	0	413663232	52	4917
2026-01-08 10:51:45.65	70.96	35.71	-40.6	-42.9	21.0	6.06e-01	0	57	0	415760384	52	4812
2026-01-08 10:51:46.65	70.48	35.75	-40.8	-43.3	20.6	6.07e-01	0	57	0	417333248	52	5019
2026-01-08 10:51:47.67	69.98	35.79	-40.5	-42.9	21.0	6.07e-01	0	57	0	419430400	52	4778
2026-01-08 10:51:48.68	69.49	35.83	-40.7	-43.2	20.8	6.06e-01	0	57	0	421003264	52	4930
2026-01-08 10:51:49.69	69.00	35.87	-40.7	-43.2	20.8	6.08e-01	0	57	0	423100416	52	4945
2026-01-08 10:51:50.70	68.51	35.90	-40.9	-43.4	20.5	6.05e-01	0	57	0	425197568	52	5098
2026-01-08 10:51:51.71	68.01	35.93	-40.6	-43.0	21.0	6.08e-01	0	57	0	426770432	52	4822
2026-01-08 10:51:52.72	67.52	35.96	-40.6	-43.0	21.0	6.05e-01	0	57	0	428867584	52	4835
2026-01-08 10:51:53.72	67.03	35.99	-40.7	-43.1	20.8	6.08e-01	0	57	0	430440448	52	4919
2026-01-08 10:51:54.73	66.53	36.02	-40.8	-43.3	20.7	6.08e-01	0	57	0	432537600	52	5017
2026-01-08 10:51:55.74	66.03	36.04	-40.9	-43.4	20.6	6.06e-01	0	57	0	434634752	52	5068
2026-01-08 10:51:56.75	65.54	36.06	-40.8	-43.3	20.6	6.07e-01	0	57	0	436207616	52	5002
2026-01-08 10:51:57.76	65.04	36.08	-40.8	-43.3	20.6	6.06e-01	0	57	0	438304768	52	5018
2026-01-08 10:51:58.77	64.54	36.10	-41.0	-43.7	20.3	6.05e-01	0	57	0	439877632	52	5226
2026-01-08 10:51:59.78	64.04	36.11	-40.8	-43.3	20.6	6.07e-01	0	57	0	441974784	52	5033
2026-01-08 10:52:00.79	63.54	36.12	-40.9	-43.4	20.5	6.09e-01	0	57	0	444071936	52	5083
2026-01-08 10:52:01.80	63.04	36.13	-40.8	-43.3	20.6	6.06e-01	0	57	0	445644800	52	5027
2026-01-08 10:52:02.81	62.54	36.13	-40.7	-43.2	20.8	6.06e-01	0	57	0	447741952	52	4961
2026-01-08 10:52:03.82	62.04	36.14	-41.0	-43.5	20.5	6.06e-01	0	58	0	449839104	52	5152
2026-01-08 10:52:04.83	61.54	36.14	-40.8	-43.4	20.6	6.06e-01	0	57	0	451411968	52	5054
2026-01-08 10:52:05.84	61.04	36.14	-40.7	-43.2	20.8	6.08e-01	0	57	0	453509120	52	4941
2026-01-08 10:52:06.85	60.54	36.13	-40.7	-43.2	20.8	6.07e-01	0	57	0	455081984	52	4931
2026-01-08 10:52:07.86	60.04	36.13	-40.7	-43.2	20.8	6.07e-01	0	57	0	457179136	52	4962
2026-01-08 10:52:08.87	59.54	36.12	-40.7	-43.2	20.8	6.04e-01	0	57	0	459276288	52	4946
2026-01-08 10:52:09.88	59.04	36.11	-40.9	-43.4	20.6	6.06e-01	0	57	0	460849152	52	5066
2026-01-08 10:52:10.89	58.54	36.10	-40.7	-43.1	20.9	6.07e-01	0	57	0	462946304	52	4924
2026-01-08 10:52:11.90	58.04	36.08	-40.7	-43.2	20.7	6.07e-01	0	57	0	464519168	52	4967
2026-01-08 10:52:12.91	57.54	36.06	-40.8	-43.3	20.7	6.05e-01	0	58	0	466616320	52	4994
2026-01-08 10:52:13.92	57.04	36.04	-40.8	-43.3	20.7	6.05e-01	0	57	0	468713472	52	5003
2026-01-08 10:52:14.93	56.55	36.02	-40.8	-43.3	20.7	6.04e-01	0	57	0	470286336	52	5009
2026-01-08 10:52:15.94	56.05	35.99	-40.8	-43.3	20.6	6.08e-01	0	57	0	472383488	52	5040
2026-01-08 10:52:16.95	55.56	35.96	-40.7	-43.2	20.8	6.05e-01	0	57	0	474480640	52	4941
2026-01-08 10:52:17.96	55.06	35.93	-40.8	-43.3	20.7	6.06e-01	0	58	0	476053504	52	4997
2026-01-08 10:52:18.97	54.57	35.90	-40.9	-43.4	20.6	6.07e-01	0	57	0	478150656	52	5055
2026-01-08 10:52:19.98	54.08	35.87	-40.9	-43.5	20.5	6.05e-01	0	57	0	479723520	52	5120
2026-01-08 10:52:20.99	53.59	35.83	-41.0	-43.6	20.4	6.05e-01	0	57	0	481820672	52	5188
2026-01-08 10:52:22.00	53.10	35.79	-41.1	-43.7	20.2	6.05e-01	0	58	0	483917824	53	4983
2026-01-08 10:52:23.01	52.61	35.75	-41.2	-43.9	20.1	6.05e-01	0	57	0	485490688	53	5050
2026-01-08 10:52:24.02	52.12	35.71	-41.1	-43.8	20.2	6.08e-01	0	57	0	487587840	53	5018
2026-01-08 10:52:25.03	51.63	35.66	-40.7	-43.1	20.8	6.05e-01	0	57	0	489684992	53	4642
2026-01-08 10:52:26.04	51.15	35.61	-40.7	-43.1	20.9	6.04e-01	0	57	0	491257856	53	4647
2026-01-08 10:52:27.05	50.67	35.56	-40.7	-43.1	20.9	6.05e-01	0	57	0	493355008	53	4631
2026-01-08 10:52:28.06	50.19	35.51	-40.8	-43.3	20.7	6.07e-01	0	57	0	494927872	53	4728
2026-01-08 10:52:29.07	49.71	35.45	-40.7	-43.2	20.8	6.04e-01	0	57	0	497025024	53	4680
2026-01-08 10:52:30.08	49.23	35.40	-40.8	-43.3	20.7	6.06e-01	0	57	0	499122176	53	4720
2026-01-08 10:52:31.09	48.75	35.34	-40.7	-43.2	20.8	6.08e-01	0	57	0	500695040	53	4665
2026-01-08 10:52:32.10	48.28	35.28	-40.9	-43.4	20.6	6.08e-01	0	57	0	502792192	53	4767
2026-01-08 10:52:33.11	47.80	35.21	-40.9	-43.5	20.5	6.07e-01	0	57	0	504365056	53	4836
2026-01-08 10:52:34.12	47.33	35.15	-40.7	-43.2	20.8	6.07e-01	0	58	0	506462208	53	4669
2026-01-08 10:52:35.13	46.86	35.08	-40.7	-43.2	20.8	6.06e-01	0	57	0	508559360	53	4664
2026-01-08 10:52:36.14	46.40	35.01	-40.8	-43.3	20.6	6.06e-01	0	58	0	510132224	53	4754
2026-01-08 10:52:37.15	45.93	34.94	-40.8	-43.3	20.6	6.06e-01	0	58	0	512229376	53	4758
2026-01-08 10:52:38.16	45.47	34.87	-40.8	-43.3	20.6	6.04e-01	0	58	0	513802240	53	4758
2026-01-08 10:52:39.17	45.01	34.79	-40.8	-43.2	20.7	6.05e-01	0	58	0	515899392	53	4697
2026-01-08 10:52:40.18	44.55	34.72	-40.7	-43.1	20.9	6.07e-01	0	58	0	517996544	53	4636
2026-01-08 10:52:41.19	44.10	34.64	-40.7	-43.2	20.8	6.05e-01	0	57	0	519569408	53	4674
2026-01-08 10:52:42.20	43.64	34.56	-40.8	-43.3	20.7	6.07e-01	0	57	0	521666560	53	4738
2026-01-08 10:52:43.21	43.19	34.47	-41.2	-53.1	3.3	7.44e-01	0	57	104	523239424	53	14585
2026-01-08 10:52:44.22	42.74	34.39	-41.2	-53.1	3.8	7.49e-01	0	58	104	523239424	53	14636
2026-01-08 10:52:45.23	42.30	34.31	-41.1	-53.0	3.8	7.46e-01	0	58	104	523239424	53	14394
2026-01-08 10:52:46.24	41.85	34.22	-41.1	-53.0	3.8	7.46e-01	0	58	104	523239424	53	14444
2026-01-08 10:52:47.25	41.41	34.13	-41.2	-53.0	4.0	7.39e-01	0	58	104	523239424	53	14429
2026-01-08 10:52:48.26	40.97	34.04	-44.2	-58.6	3.8	7.45e-01	0	58	104	523239424	60	18346
2026-01-08 10:52:49.27	40.54	33.95	-44.6	-59.5	3.8	7.42e-01	0	58	104	523239424	60	20365
2026-01-08 10:52:50.28	40.10	33.85	-42.7	-55.4	3.8	7.43e-01	0	57	104	523239424	57	15109
2026-01-08 10:52:51.29	39.67	33.76	-43.0	-55.8	3.9	7.42e-01	0	57	104	523239424	56	16744
2026-01-08 10:52:52.30	39.24	33.66	-41.5	-53.5	3.8	7.43e-01	0	58	104	523239424	54	14454
2026-01-08 10:52:53.31	38.82	33.56	-41.6	-53.6	3.9	7.41e-01	0	58	104	523239424	54	14587
2026-01-08 10:52:54.32	38.39	33.46	-41.4	-53.3	3.7	7.54e-01	0	57	104	523239424	54	14193
2026-01-08 10:52:55.33	37.97	33.36	-41.1	-52.7	4.2	7.32e-01	0	58	104	523239424	54	13168
2026-01-08 10:52:56.34	37.56	33.26	-42.3	-54.5	3.8	7.46e-01	0	58	104	523239424	56	14483
2026-01-08 10:52:57.35	37.14	33.16	-44.4	-58.9	3.8	7.44e-01	0	58	104	523239424	60	19121
2026-01-08 10:52:58.36	36.73	33.05	-42.3	-54.5	4.2	7.32e-01	0	57	104	523239424	56	14483
2026-01-08 10:52:59.37	36.32	32.95	-42.8	-55.3	3.9	7.41e-01	0	58	104	523239424	56	15882
2026-01-08 10:53:00.38	35.91	32.84	-41.3	-53.3	3.8	7.46e-01	0	58	104	523239424	54	14091
2026-01-08 10:53:01.39	35.51	32.73	-41.3	-53.1	3.8	7.48e-01	0	58	104	523239424	54	13820
2026-01-08 10:53:02.40	35.11	32.62	-41.1	-53.0	3.8	7.42e-01	0	58	104	523239424	54	13670
2026-01-08 10:53:03.41	34.71	32.51	-41.1	-53.1	3.8	7.44e-01	0	58	104	523239424	54	13746
2026-01-08 10:53:04.42	34.31	32.40	-41.2	-53.2	3.8	7.42e-01	0	58	104	523239424	54	14017
2026-01-08 10:53:05.43	33.92	32.29	-42.6	-55.1	3.8	7.45e-01	0	58	104	523239424	57	14586
2026-01-08 10:53:06.44	33.53	32.18	-41.1	-52.9	3.9	7.44e-01	0	58	104	523239424	54	13515
2026-01-08 10:53:07.45	33.14	32.06	-43.7	-57.1	3.8	7.46e-01	0	58	104	523239424	59	16454
2026-01-08 10:53:08.46	32.76	31.95	-41.2	-53.3	3.8	7.46e-01	0	58	104	523239424	54	14162
2026-01-08 10:53:09.47	32.38	31.83	-41.2	-53.2	3.8	7.42e-01	0	58	104	523239424	54	14024
2026-01-08 10:53:10.48	32.00	31.71	-41.7	-53.6	3.8	7.44e-01	0	58	104	523239424	54	14670
2026-01-08 10:53:11.49	31.62	31.59	-42.8	-55.4	3.8	7.44e-01	0	58	104	523239424	57	15195
2026-01-08 10:53:12.50	31.25	31.47	-41.5	-53.5	3.8	7.44e-01	0	58	104	523239424	55	13725
2026-01-08 10:53:13.51	30.88	31.35	-42.1	-54.4	3.8	7.43e-01	0	58	104	523239424	55	15053
2026-01-08 10:53:14.52	30.51	31.23	-41.2	-53.0	3.8	7.46e-01	0	58	104	523239424	54	13596
2026-01-08 10:53:15.53	30.15	31.11	-43.9	-57.6	3.9	7.45e-01	0	58	104	523239424	59	17286
2026-01-08 10:53:16.54	29.79	30.99	-41.3	-53.2	3.8	7.45e-01	0	57	104	523239424	54	13988
2026-01-08 10:53:17.55	29.43	30.87	-41.1	-53.0	3.8	7.46e-01	0	58	104	523239424	54	13657
2026-01-08 10:53:18.56	29.07	30.74	-41.7	-53.6	3.8	7.45e-01	0	58	104	523239424	54	14595
2026-01-08 10:53:19.57	28.72	30.62	-44.2	-58.4	3.8	7.43e-01	0	58	104	523239424	59	19048
2026-01-08 10:53:20.58	28.37	30.49	-41.5	-53.4	3.8	7.45e-01	0	58	104	523239424	54	14349
2026-01-08 10:53:21.59	28.02	30.37	-43.7	-57.2	3.8	7.43e-01	0	58	104	523239424	59	16552
2026-01-08 10:53:22.60	27.68	30.24	-41.1	-53.0	3.8	7.45e-01	0	58	104	523239424	54	13661
2026-01-08 10:53:23.61	27.33	30.12	-42.1	-54.3	3.8	7.46e-01	0	58	104	523239424	55	14908
2026-01-08 10:53:24.62	27.00	29.99	-41.2	-53.1	3.8	7.44e-01	0	58	104	523239424	54	13811
2026-01-08 10:53:25.63	26.66	29.86	-41.2	-53.2	3.8	7.41e-01	0	58	104	523239424	54	13976
2026-01-08 10:53:26.64	26.33	29.74	-41.0	-52.8	3.8	7.49e-01	0	58	104	523239424	54	13345
2026-01-08 10:53:27.65	25.99	29.61	-41.5	-53.5	3.8	7.45e-01	0	58	104	523239424	54	14414
2026-01-08 10:53:28.66	25.67	29.48	-42.1	-54.3	3.8	7.47e-01	0	58	104	523239424	54	15761
2026-01-08 10:53:29.67	25.34	29.35	-42.9	-55.5	3.8	7.46e-01	0	58	104	523239424	56	16167
2026-01-08 10:53:30.68	25.02	29.22	-42.8	-55.3	3.8	7.47e-01	0	58	104	523239424	55	16765
2026-01-08 10:53:31.69	24.70	29.09	-42.0	-54.3	3.8	7.47e-01	0	58	104	523239424	56	14093
2026-01-08 10:53:32.70	24.38	28.96	-41.2	-53.2	3.8	7.45e-01	0	58	104	523239424	54	13951
2026-01-08 10:53:33.71	24.07	28.83	-41.0	-52.9	3.8	7.45e-01	0	58	104	523239424	54	13455
2026-01-08 10:53:34.72	23.76	28.70	-43.3	-56.5	3.8	7.43e-01	0	58	104	523239424	57	17177
2026-01-08 10:53:35.73	23.45	28.57	-44.4	-58.6	3.8	7.45e-01	0	58	104	523239424	59	19420
2026-01-08 10:53:36.74	23.14	28.44	-44.1	-57.8	3.8	7.47e-01	0	58	104	523239424	58	18847
2026-01-08 10:53:37.75	22.84	28.31	-43.4	-56.5	3.8	7.46e-01	0	58	104	523239424	58	16217
2026-01-08 10:53:38.76	22.54	28.17	-41.2	-53.0	3.8	7.42e-01	0	58	104	523239424	54	13580
2026-01-08 10:53:39.77	22.24	28.04	-41.9	-54.1	3.8	7.42e-01	0	58	104	523239424	55	14687
2026-01-08 10:53:40.78	21.94	27.91	-41.2	-53.2	3.8	7.47e-01	0	58	104	523239424	54	14034
2026-01-08 10:53:41.79	21.65	27.78	-41.2	-53.2	3.8	7.48e-01	0	58	104	523239424	54	13914
2026-01-08 10:53:42.79	21.36	27.65	-41.2	-53.1	3.8	7.44e-01	0	58	104	523239424	54	13825
2026-01-08 10:53:43.80	21.07	27.52	-42.1	-54.4	3.8	7.44e-01	0	58	104	523239424	54	15974
2026-01-08 10:53:44.81	20.78	27.38	-42.9	-55.5	3.8	7.41e-01	0	58	104	523239424	56	16305
2026-01-08 10:53:45.82	20.50	27.25	-43.3	-56.5	3.8	7.48e-01	0	58	104	523239424	57	17176
2026-01-08 10:53:46.83	20.22	27.12	-44.7	-59.5	3.7	7.42e-01	0	58	104	523239424	60	20438
2026-01-08 10:53:47.84	19.94	26.99	-41.4	-53.4	3.8	7.46e-01	0	58	104	523239424	54	14364
2026-01-08 10:53:48.86	19.66	26.85	-41.3	-53.4	3.8	7.45e-01	0	58	104	523239424	54	14260
2026-01-08 10:53:49.86	19.39	26.72	-41.2	-53.2	3.8	7.45e-01	0	58	104	523239424	54	13903
2026-01-08 10:53:50.88	19.12	26.59	-43.9	-57.5	3.8	7.45e-01	0	58	104	523239424	58	18133
2026-01-08 10:53:51.89	18.85	26.46	-44.0	-57.8	3.8	7.47e-01	0	58	104	523239424	59	17859
2026-01-08 10:53:52.90	18.58	26.32	-44.9	-60.4	3.8	7.46e-01	0	58	104	523239424	60	22749
2026-01-08 10:53:53.91	18.32	26.19	-43.3	-56.5	3.8	7.40e-01	0	58	104	523239424	58	16261
2026-01-08 10:53:54.92	18.05	26.06	-42.0	-54.3	3.8	7.43e-01	0	58	104	523239424	54	15785
2026-01-08 10:53:55.93	17.79	25.93	-42.0	-54.2	3.8	7.45e-01	0	58	104	523239424	55	14812
2026-01-08 10:53:56.94	17.54	25.79	-41.5	-53.6	3.8	7.47e-01	0	58	104	523239424	54	14586
2026-01-08 10:53:57.95	17.28	25.66	-41.4	-53.4	3.8	7.47e-01	0	58	104	523239424	54	14336
2026-01-08 10:53:58.96	17.03	25.53	-41.3	-53.2	3.8	7.46e-01	0	58	104	523239424	54	14022
2026-01-08 10:53:59.96	16.78	25.40	-42.5	-55.1	3.8	7.45e-01	0	58	104	523239424	55	16339
2026-01-08 10:54:00.98	16.53	25.27	-43.4	-56.6	3.8	7.42e-01	0	58	104	523239424	57	17339
2026-01-08 10:54:01.99	16.28	25.14	-43.9	-57.6	3.8	7.45e-01	0	58	104	523239424	58	18507
2026-01-08 10:54:03.00	16.04	25.00	-45.2	-61.5	3.7	7.46e-01	0	58	104	523239424	60	25674
2026-01-08 10:54:04.01	15.80	24.87	-41.3	-53.3	3.8	7.46e-01	0	58	104	523239424	54	14061
2026-01-08 10:54:05.01	15.56	24.74	-41.4	-53.4	3.8	7.46e-01	0	58	104	523239424	54	14326
2026-01-08 10:54:06.02	15.32	24.61	-41.3	-53.3	3.8	7.46e-01	0	58	104	523239424	54	14094
2026-01-08 10:54:07.03	15.09	24.48	-42.3	-54.8	3.8	7.44e-01	0	58	104	523239424	55	15918
2026-01-08 10:54:08.04	14.85	24.35	-42.9	-55.7	3.8	7.43e-01	0	58	104	523239424	56	16650
2026-01-08 10:54:09.05	14.62	24.22	-43.4	-56.7	3.8	7.44e-01	0	58	104	523239424	57	17594
2026-01-08 10:54:10.06	14.39	24.09	-43.7	-57.2	3.8	7.43e-01	0	58	104	523239424	58	17576
2026-01-08 10:54:11.07	14.16	23.96	-45.2	-61.8	3.8	7.48e-01	0	58	104	523239424	60	26740
2026-01-08 10:54:12.08	13.94	23.83	-41.4	-53.7	3.9	7.49e-01	0	58	104	523239424	54	14736
2026-01-08 10:54:13.09	13.71	23.70	-41.6	-53.9	3.8	7.44e-01	0	58	104	523239424	54	15133
2026-01-08 10:54:14.10	13.49	23.57	-41.7	-53.9	3.8	7.45e-01	0	58	104	523239424	54	15106
2026-01-08 10:54:15.11	13.27	23.44	-44.3	-59.1	3.8	7.43e-01	0	58	104	523239424	60	19504
2026-01-08 10:54:16.12	13.05	23.32	-43.4	-56.6	3.8	7.45e-01	0	58	104	523239424	57	17426
2026-01-08 10:54:17.13	12.84	23.19	-45.2	-61.7	3.8	7.44e-01	0	58	104	523239424	61	24817
2026-01-08 10:54:18.14	12.62	23.06	-43.2	-56.3	3.8	7.45e-01	0	58	104	523239424	58	15772
2026-01-08 10:54:19.15	12.41	22.93	-42.8	-55.7	3.8	7.44e-01	0	58	104	523239424	56	16578
2026-01-08 10:54:20.16	12.20	22.80	-41.5	-53.6	3.8	7.42e-01	0	58	104	523239424	55	13879
2026-01-08 10:54:21.17	11.99	22.68	-41.6	-53.8	3.8	7.46e-01	0	58	104	523239424	55	14105
2026-01-08 10:54:22.18	11.79	22.55	-41.5	-53.6	3.8	7.45e-01	0	58	104	523239424	55	13860
2026-01-08 10:54:23.19	11.58	22.42	-41.1	-53.1	3.8	7.47e-01	0	58	104	523239424	54	13754
2026-01-08 10:54:24.20	11.38	22.30	-42.6	-55.4	3.9	7.41e-01	0	58	104	523239424	57	15106
2026-01-08 10:54:25.21	11.18	22.17	-45.1	-61.4	3.9	7.42e-01	0	58	104	523239424	60	25377
2026-01-08 10:54:26.22	10.98	22.04	-43.1	-56.2	3.8	7.42e-01	0	58	104	523239424	58	15693
2026-01-08 10:54:27.23	10.78	21.92	-42.8	-55.7	3.8	7.44e-01	0	58	104	523239424	56	16552
2026-01-08 10:54:28.24	10.58	21.79	-41.6	-53.8	3.8	7.44e-01	0	58	104	523239424	55	14112
2026-01-08 10:54:29.25	10.39	21.67	-41.5	-53.6	3.8	7.43e-01	0	58	104	523239424	55	13857
2026-01-08 10:54:30.26	10.19	21.55	-41.3	-53.2	3.8	7.46e-01	0	58	104	523239424	54	14045
2026-01-08 10:54:31.27	10.00	21.42	-41.0	-52.8	3.8	7.46e-01	0	58	104	523239424	54	13369
2026-01-08 10:54:32.28	9.81	21.30	-41.6	-53.8	3.8	7.44e-01	0	58	104	523239424	55	14125
2026-01-08 10:54:33.29	9.62	21.17	-44.8	-60.8	3.9	7.48e-01	0	58	104	523239424	60	23716
2026-01-08 10:54:34.30	9.44	21.05	-42.7	-55.6	3.8	7.45e-01	0	58	104	523239424	57	15549
2026-01-08 10:54:35.31	9.25	20.93	-42.5	-55.3	3.8	7.43e-01	0	58	104	523239424	55	16828
2026-01-08 10:54:36.32	9.07	20.81	-41.4	-53.6	3.8	7.41e-01	0	58	104	523239424	54	14583
2026-01-08 10:54:37.33	8.89	20.68	-41.3	-53.3	3.8	7.40e-01	0	58	104	523239424	54	14125
2026-01-08 10:54:38.34	8.71	20.56	-41.3	-53.4	3.8	7.43e-01	0	58	104	523239424	54	14222
2026-01-08 10:54:39.35	8.53	20.44	-41.4	-53.5	3.8	7.44e-01	0	58	104	523239424	54	14485
2026-01-08 10:54:40.36	8.35	20.32	-41.6	-53.9	3.9	7.41e-01	0	58	104	523239424	55	14289
2026-01-08 10:54:41.37	8.18	20.20	-42.6	-55.5	3.8	7.45e-01	0	58	104	523239424	57	15260
2026-01-08 10:54:42.38	8.00	20.08	-41.0	-52.9	3.9	7.47e-01	0	58	104	523239424	54	13549
2026-01-08 10:54:43.39	7.83	19.96	-44.1	-58.9	3.8	7.43e-01	0	58	104	523239424	60	19040
2026-01-08 10:54:44.40	7.66	19.84	-41.3	-53.3	3.8	7.46e-01	0	58	104	523239424	54	14170
2026-01-08 10:54:45.41	7.49	19.72	-41.3	-53.4	3.8	7.42e-01	0	58	104	523239424	54	14359
2026-01-08 10:54:46.42	7.32	19.60	-41.2	-53.3	3.9	7.45e-01	0	58	104	523239424	54	14113
2026-01-08 10:54:47.43	7.15	19.48	-43.0	-56.1	3.8	7.47e-01	0	58	104	523239424	56	17381
2026-01-08 10:54:48.44	6.98	19.37	-41.1	-53.0	3.9	7.44e-01	0	58	104	523239424	54	13681
2026-01-08 10:54:49.45	6.82	19.25	-44.2	-59.2	3.9	7.43e-01	0	58	104	523239424	60	19684
2026-01-08 10:54:50.46	6.66	19.13	-42.1	-54.5	3.8	7.39e-01	0	58	104	523239424	56	14495
2026-01-08 10:54:51.47	6.50	19.01	-42.2	-55.0	3.8	7.43e-01	0	58	104	523239424	55	16207
2026-01-08 10:54:52.48	6.34	18.90	-41.4	-53.7	3.8	7.43e-01	0	58	104	523239424	54	14875
2026-01-08 10:54:53.49	6.18	18.78	-41.3	-53.6	3.8	7.47e-01	0	58	104	523239424	54	14578
2026-01-08 10:54:54.50	6.02	18.67	-41.0	-53.1	3.8	7.45e-01	0	58	104	523239424	54	13730
2026-01-08 10:54:55.51	5.86	18.55	-41.2	-53.2	3.8	7.43e-01	0	58	104	523239424	53	14733
2026-01-08 10:54:56.52	5.71	18.44	-41.3	-53.3	3.9	7.40e-01	0	58	104	523239424	53	14886
2026-01-08 10:54:57.53	5.55	18.32	-44.2	-58.7	3.9	7.44e-01	0	58	104	523239424	59	19760
2026-01-08 10:54:58.54	5.40	18.21	-40.9	-53.2	3.8	7.45e-01	0	58	104	523239424	54	13913
2026-01-08 10:54:59.55	5.25	18.09	-41.7	-54.0	3.8	7.42e-01	0	58	104	523239424	55	14504
2026-01-08 10:55:00.56	5.10	17.98	-41.2	-53.4	3.8	7.44e-01	0	58	104	523239424	54	14223
2026-01-08 10:55:01.57	4.95	17.87	-41.3	-53.4	3.8	7.43e-01	0	58	104	523239424	54	14366
2026-01-08 10:55:02.58	4.80	17.75	-42.0	-54.5	3.8	7.48e-01	0	58	104	523239424	54	16171
2026-01-08 10:55:03.59	4.66	17.64	-41.2	-53.3	3.8	7.46e-01	0	58	104	523239424	54	14120
2026-01-08 10:55:04.60	4.51	17.53	-42.7	-55.6	3.8	7.44e-01	0	58	104	523239424	55	17331
2026-01-08 10:55:05.61	4.37	17.42	-43.7	-57.9	3.9	7.43e-01	0	58	104	523239424	59	18008
2026-01-08 10:55:06.62	4.22	17.31	-41.3	-53.6	3.9	7.45e-01	0	58	104	523239424	54	14692
2026-01-08 10:55:07.63	4.08	17.20	-41.9	-54.6	3.8	7.45e-01	0	58	104	523239424	55	15465
2026-01-08 10:55:08.64	3.94	17.09	-41.5	-53.9	3.8	7.44e-01	0	58	104	523239424	54	15115
2026-01-08 10:55:09.65	3.80	16.98	-41.2	-53.4	3.8	7.46e-01	0	58	104	523239424	54	14350
2026-01-08 10:55:10.66	3.66	16.87	-40.8	-52.9	3.8	7.43e-01	0	58	104	523239424	53	14213
2026-01-08 10:55:11.67	3.52	16.76	-41.4	-53.6	3.8	7.45e-01	0	58	104	523239424	53	15550
2026-01-08 10:55:12.68	3.39	16.65	-43.1	-56.6	3.8	7.43e-01	0	58	104	523239424	56	18379
2026-01-08 10:55:13.69	3.25	16.54	-43.3	-57.3	3.8	7.41e-01	0	58	104	523239424	58	17766
2026-01-08 10:55:14.70	3.12	16.43	-41.2	-53.6	3.8	7.44e-01	0	58	104	523239424	54	14615
2026-01-08 10:55:15.71	2.98	16.32	-41.8	-54.5	3.8	7.47e-01	0	58	104	523239424	55	15324
2026-01-08 10:55:16.72	2.85	16.22	-41.4	-53.9	3.8	7.47e-01	0	58	104	523239424	54	15208
2026-01-08 10:55:17.73	2.72	16.11	-41.2	-53.7	3.8	7.43e-01	0	58	104	523239424	54	14787
2026-01-08 10:55:18.74	2.59	16.00	-41.1	-53.5	3.8	7.45e-01	0	58	104	523239424	54	14528
2026-01-08 10:55:19.75	2.46	15.90	-41.9	-54.6	3.8	7.46e-01	0	58	104	523239424	54	16358
2026-01-08 10:55:20.76	2.33	15.79	-42.2	-55.5	3.8	7.47e-01	0	58	104	523239424	54	18251
2026-01-08 10:55:21.77	2.21	15.69	-41.7	-54.2	3.8	7.46e-01	0	58	104	523239424	55	14762
2026-01-08 10:55:22.78	2.08	15.58	-43.4	-58.9	3.7	7.46e-01	0	58	104	523239424	57	22651
2026-01-08 10:55:23.79	1.95	15.48	-40.7	-53.1	3.8	7.42e-01	0	58	104	523239424	53	14549
2026-01-08 10:55:24.80	1.83	15.37	-40.8	-53.2	3.8	7.46e-01	0	58	104	523239424	53	14831
2026-01-08 10:55:25.81	1.71	15.27	-40.7	-53.1	3.8	7.44e-01	0	58	104	523239424	53	14626
2026-01-08 10:55:26.82	1.58	15.16	-42.9	-57.1	3.8	7.40e-01	0	58	104	523239424	56	19499
2026-01-08 10:55:27.83	1.46	15.06	-41.4	-54.2	3.8	7.48e-01	0	58	104	523239424	53	16614
2026-01-08 10:55:28.84	1.34	14.96	-42.0	-56.3	3.8	7.43e-01	0	59	104	523239424	54	19970
2026-01-08 10:55:29.85	1.22	14.85	-41.5	-54.4	3.8	7.47e-01	0	58	104	523239424	54	15980
2026-01-08 10:55:30.86	1.10	14.75	-42.9	-60.3	3.7	7.46e-01	0	58	104	523239424	56	28217
2026-01-08 10:55:31.87	0.99	14.65	-40.0	-52.4	3.9	7.47e-01	0	58	104	523239424	52	14286
2026-01-08 10:55:32.88	0.87	14.55	-40.5	-53.0	3.8	7.42e-01	0	58	104	523239424	52	15383
2026-01-08 10:55:33.89	0.75	14.45	-40.6	-53.2	3.8	7.47e-01	0	58	104	523239424	52	15736
2026-01-08 10:55:34.90	0.64	14.35	-42.2	-58.9	3.8	7.46e-01	0	58	104	523239424	54	26999
2026-01-08 10:55:35.91	0.52	14.25	-41.6	-55.3	3.8	7.44e-01	0	58	104	523239424	54	17729
2026-01-08 10:55:36.92	0.41	14.15	-41.0	-55.9	3.8	7.44e-01	0	58	104	523239424	53	20284
2026-01-08 10:55:37.93	0.30	14.05	-41.2	-54.2	3.8	7.47e-01	0	58	104	523239424	52	17615
2026-01-08 10:55:38.94	0.19	13.95	-41.6	-59.1	3.8	7.43e-01	0	58	104	523239424	53	29169
2026-01-08 10:55:39.95	0.08	13.85	-40.3	-53.3	3.8	7.48e-01	0	58	104	523239424	52	15869
2026-01-08 10:55:40.96	359.97	13.75	-40.2	-53.4	3.8	7.44e-01	0	59	104	523239424	52	16095
2026-01-08 10:55:41.97	359.86	13.65	-40.3	-53.7	3.8	7.45e-01	0	58	104	523239424	52	16630
2026-01-08 10:55:42.98	359.75	13.55	-41.1	-58.3	3.8	7.46e-01	0	58	104	523239424	52	28066
2026-01-08 10:55:43.99	359.64	13.45	-42.2	-57.3	3.8	7.46e-01	0	58	104	523239424	54	22322
2026-01-08 10:55:45.00	359.53	13.36	-40.8	-59.8	3.8	7.46e-01	0	59	104	523239424	53	31668
2026-01-08 10:55:46.01	359.43	13.26	-41.2	-59.1	3.8	7.45e-01	0	58	104	523239424	53	29240
2026-01-08 10:55:47.02	359.32	13.16	-42.4	-58.9	3.8	7.46e-01	0	58	104	523239424	55	25492
2026-01-08 10:55:48.03	359.22	13.07	-42.1	-59.0	3.8	7.47e-01	0	58	104	523239424	55	25832
2026-01-08 10:55:49.04	359.11	12.97	-41.8	-59.0	3.8	7.43e-01	0	59	104	523239424	55	25674
2026-01-08 10:55:50.05	359.01	12.87	-41.7	-59.3	3.8	7.45e-01	0	58	104	523239424	55	26675
2026-01-08 10:55:51.06	358.91	12.78	-41.5	-59.6	3.8	7.43e-01	0	58	104	523239424	55	27461
2026-01-08 10:55:52.07	358.80	12.68	-42.1	-60.1	3.8	7.46e-01	0	58	104	523239424	55	29268
2026-01-08 10:55:53.08	358.70	12.59	-40.0	-59.8	3.8	7.46e-01	0	58	104	523239424	52	33522
2026-01-08 10:55:54.09	358.60	12.49	-40.5	-59.8	3.8	7.45e-01	0	58	104	523239424	52	33524
2026-01-08 10:55:55.10	358.50	12.40	-41.2	-60.4	3.8	7.42e-01	0	58	104	523239424	53	33787
2026-01-08 10:55:56.11	358.41	12.31	-40.4	-59.7	3.8	7.45e-01	0	58	104	523239424	52	33219
2026-01-08 10:55:57.12	358.31	12.21	-41.1	-60.2	3.8	7.45e-01	0	58	104	523239424	52	35196
2026-01-08 10:55:58.13	358.21	12.12	-41.4	-60.1	3.8	7.46e-01	0	58	104	523239424	53	32676
2026-01-08 10:55:59.14	358.11	12.03	-40.1	-59.8	3.8	7.45e-01	0	58	104	523239424	52	33319
2026-01-08 10:56:00.15	358.02	11.93	-40.3	-59.8	3.8	7.46e-01	0	59	104	523239424	52	33367
2026-01-08 10:56:01.16	357.92	11.84	-40.3	-59.8	3.8	7.45e-01	0	58	104	523239424	52	33327
2026-01-08 10:56:02.18	357.83	11.75	-40.3	-59.7	3.8	7.43e-01	0	58	104	523239424	52	33105
2026-01-08 10:56:03.19	357.73	11.66	-40.5	-59.7	3.8	7.50e-01	0	59	104	523239424	52	32990
2026-01-08 10:56:04.20	357.64	11.57	-40.3	-59.6	3.8	7.43e-01	0	58	104	523239424	52	32908
2026-01-08 10:56:05.21	357.55	11.48	-40.5	-59.9	3.8	7.43e-01	0	58	104	523239424	52	33898
2026-01-08 10:56:06.22	357.45	11.39	-40.8	-60.2	3.8	7.45e-01	0	58	104	523239424	52	34923
2026-01-08 10:56:07.23	357.36	11.29	-39.9	-59.7	3.8	7.44e-01	0	58	104	523239424	51	35241
2026-01-08 10:56:08.24	357.27	11.20	-39.8	-59.7	3.8	7.47e-01	0	58	104	523239424	51	35119
2026-01-08 10:56:09.25	357.18	11.12	-39.5	-59.7	3.8	7.46e-01	0	58	104	523239424	51	34962
2026-01-08 10:56:10.26	357.09	11.03	-39.4	-59.6	3.8	7.44e-01	0	58	104	523239424	50	36930
2026-01-08 10:56:11.27	357.00	10.94	-39.4	-59.6	3.8	7.46e-01	0	58	104	523239424	50	36917
2026-01-08 10:56:12.28	356.91	10.85	-39.3	-59.6	3.8	7.46e-01	0	58	104	523239424	50	36907
2026-01-08 10:56:13.29	356.83	10.76	-40.6	-59.8	3.8	7.42e-01	0	58	104	523239424	52	33347
2026-01-08 10:56:14.30	356.74	10.67	-38.7	-59.6	3.8	7.44e-01	0	59	104	523239424	49	38821
2026-01-08 10:56:15.31	356.65	10.58	-39.9	-59.7	3.8	7.45e-01	0	58	104	523239424	50	37207
2026-01-08 10:56:16.32	356.57	10.49	-38.8	-59.6	3.8	7.43e-01	0	58	104	523239424	49	38812
2026-01-08 10:56:17.33	356.48	10.41	-38.7	-59.6	3.8	7.47e-01	0	59	104	523239424	49	38791
2026-01-08 10:56:18.34	356.40	10.32	-38.7	-59.6	3.8	7.47e-01	0	58	104	523239424	49	38698
2026-01-08 10:56:19.36	356.31	10.23	-38.7	-59.6	3.8	7.45e-01	0	59	104	523239424	49	38858
2026-01-08 10:56:20.37	356.23	10.15	-39.1	-59.6	3.8	7.43e-01	0	59	104	523239424	50	36692
2026-01-08 10:56:21.38	356.14	10.06	-39.5	-59.6	3.8	7.44e-01	0	58	104	523239424	49	39103
2026-01-08 10:56:22.39	356.06	9.97	-39.6	-59.7	3.8	7.46e-01	0	58	104	523239424	51	35059
2026-01-08 10:56:23.39	355.98	9.89	-38.9	-59.6	3.8	7.43e-01	0	58	104	523239424	49	38968
2026-01-08 10:56:24.40	355.90	9.80	-39.7	-59.7	3.8	7.44e-01	0	58	104	523239424	51	35128
2026-01-08 10:56:25.41	355.82	9.72	-39.6	-59.7	3.8	7.44e-01	0	58	104	523239424	50	37027
2026-01-08 10:56:26.42	355.74	9.63	-39.6	-59.7	3.8	7.45e-01	0	58	104	523239424	50	37156
2026-01-08 10:56:27.43	355.66	9.55	-39.3	-59.6	3.8	7.44e-01	0	58	104	523239424	49	39058
2026-01-08 10:56:28.44	355.58	9.46	-39.7	-59.7	3.8	7.46e-01	0	58	104	523239424	50	37163
2026-01-08 10:56:29.45	355.50	9.38	-39.7	-59.7	3.8	7.43e-01	0	58	104	523239424	50	36996
2026-01-08 10:56:30.46	355.42	9.30	-39.8	-59.7	3.8	7.47e-01	0	58	104	523239424	51	35199
2026-01-08 10:56:31.47	355.34	9.21	-39.7	-59.7	3.8	7.45e-01	0	59	104	523239424	51	35245
2026-01-08 10:56:32.48	355.26	9.13	-39.8	-59.8	3.8	7.42e-01	0	59	104	523239424	51	35362
2026-01-08 10:56:33.49	355.19	9.05	-40.5	-59.8	3.8	7.43e-01	0	58	104	523239424	51	35633
2026-01-08 10:56:34.50	355.11	8.96	-40.1	-59.8	3.8	7.45e-01	0	58	104	523239424	52	33335
2026-01-08 10:56:35.51	355.04	8.88	-40.1	-59.8	3.8	7.46e-01	0	58	104	523239424	50	37496
2026-01-08 10:56:36.52	354.96	8.80	-40.3	-59.8	3.8	7.44e-01	0	58	104	523239424	52	33368
2026-01-08 10:56:37.53	354.88	8.72	-40.2	-59.7	3.8	7.45e-01	0	58	104	523239424	51	35260
2026-01-08 10:56:38.54	354.81	8.63	-40.5	-59.9	3.8	7.44e-01	0	58	104	523239424	51	35790
2026-01-08 10:56:39.55	354.74	8.55	-40.5	-59.8	3.8	7.44e-01	0	58	104	523239424	52	33555
2026-01-08 10:56:40.56	354.66	8.47	-40.7	-59.8	3.8	7.46e-01	0	58	104	523239424	52	33606
2026-01-08 10:56:41.57	354.59	8.39	-40.8	-59.7	3.8	7.47e-01	0	58	104	523239424	52	33259
2026-01-08 10:56:42.58	354.52	8.31	-40.8	-59.8	3.8	7.47e-01	0	59	104	523239424	52	33528
2026-01-08 10:56:43.59	354.45	8.23	-40.8	-59.8	3.8	7.47e-01	0	58	104	523239424	52	33414
2026-01-08 10:56:44.60	354.37	8.15	-40.8	-59.8	3.8	7.44e-01	0	58	104	523239424	52	33449
2026-01-08 10:56:45.61	354.30	8.07	-40.7	-59.8	3.8	7.45e-01	0	59	104	523239424	52	33555
2026-01-08 10:56:46.62	354.23	7.99	-40.7	-59.8	3.8	7.46e-01	0	59	104	523239424	52	33431
2026-01-08 10:56:47.63	354.16	7.91	-41.5	-60.5	3.8	7.42e-01	0	59	104	523239424	53	34466
2026-01-08 10:56:48.64	354.09	7.83	-43.1	-61.9	3.8	7.42e-01	0	58	104	523239424	56	33845
2026-01-08 10:56:49.65	354.02	7.75	-45.6	-64.4	3.8	7.52e-01	0	58	104	523239424	61	33768
2026-01-08 10:56:50.66	353.95	7.67	-45.9	-64.7	3.8	7.44e-01	0	58	104	523239424	62	33019
2026-01-08 10:56:51.67	353.88	7.59	-46.1	-64.8	3.8	7.45e-01	0	58	104	523239424	62	33460
2026-01-08 10:56:52.68	353.82	7.51	-46.1	-64.8	3.8	7.46e-01	0	59	104	523239424	62	33695
2026-01-08 10:56:53.69	353.75	7.44	-46.2	-64.9	3.8	7.43e-01	0	59	104	523239424	62	33977
2026-01-08 10:56:54.70	353.68	7.36	-46.2	-64.9	3.8	7.45e-01	0	58	104	523239424	62	34030
2026-01-08 10:56:55.71	353.61	7.28	-46.2	-65.0	3.8	7.46e-01	0	58	104	523239424	62	34149
2026-01-08 10:56:56.72	353.55	7.20	-46.2	-65.0	3.8	7.47e-01	0	58	104	523239424	62	34120
2026-01-08 10:56:57.73	353.48	7.13	-46.2	-65.0	3.8	7.44e-01	0	59	104	523239424	62	34147
2026-01-08 10:56:58.74	353.42	7.05	-46.1	-64.9	3.8	7.48e-01	0	59	104	523239424	62	33917
2026-01-08 10:56:59.75	353.35	6.97	-46.1	-64.9	3.8	7.45e-01	0	58	104	523239424	62	33962
2026-01-08 10:57:00.76	353.29	6.90	-46.1	-64.9	3.8	7.46e-01	0	58	104	523239424	62	33845
2026-01-08 10:57:01.77	353.22	6.82	-46.1	-64.9	3.8	7.47e-01	0	59	104	523239424	62	33851
2026-01-08 10:57:02.78	353.16	6.74	-46.0	-64.9	3.8	7.47e-01	0	58	104	523239424	62	33724
2026-01-08 10:57:03.79	353.09	6.67	-46.0	-64.8	3.8	7.45e-01	0	58	104	523239424	62	33683
2026-01-08 10:57:04.80	353.03	6.59	-46.0	-64.9	3.8	7.47e-01	0	58	104	523239424	62	33698
2026-01-08 10:57:05.81	352.97	6.52	-46.0	-64.8	3.8	7.45e-01	0	58	104	523239424	62	33653
2026-01-08 10:57:06.82	352.90	6.44	-46.0	-64.8	3.8	7.48e-01	0	59	104	523239424	62	33641
2026-01-08 10:57:07.83	352.84	6.37	-46.0	-64.8	3.8	7.45e-01	0	58	104	523239424	62	33658
2026-01-08 10:57:08.84	352.78	6.29	-46.0	-64.8	3.8	7.47e-01	0	58	104	523239424	62	33579
2026-01-08 10:57:09.85	352.72	6.22	-46.0	-64.8	3.8	7.47e-01	0	58	104	523239424	62	33607
2026-01-08 10:57:10.86	352.66	6.14	-46.0	-64.8	3.8	7.46e-01	0	59	104	523239424	62	33621
2026-01-08 10:57:11.87	352.60	6.07	-46.0	-64.8	3.8	7.44e-01	0	58	104	523239424	62	33561
2026-01-08 10:57:12.87	352.54	5.99	-46.0	-64.8	3.8	7.45e-01	0	59	104	523239424	62	33621
2026-01-08 10:57:13.88	352.48	5.92	-46.0	-64.8	3.8	7.43e-01	0	59	104	523239424	62	33559
2026-01-08 10:57:14.89	352.42	5.85	-46.0	-64.8	3.8	7.46e-01	0	59	104	523239424	62	33611
2026-01-08 10:57:15.90	352.36	5.77	-46.0	-64.8	3.8	7.43e-01	0	58	104	523239424	62	33594
2026-01-08 10:57:16.91	352.30	5.70	-46.0	-64.8	3.8	7.47e-01	0	59	104	523239424	62	33537
2026-01-08 10:57:17.92	352.24	5.63	-46.0	-64.8	3.8	7.49e-01	0	59	104	523239424	62	33498
2026-01-08 10:57:18.93	352.18	5.55	-46.0	-64.8	3.8	7.49e-01	0	59	104	523239424	62	33553
2026-01-08 10:57:19.94	352.12	5.48	-46.0	-64.8	3.8	7.44e-01	0	58	104	523239424	62	33582
2026-01-08 10:57:20.95	352.07	5.41	-46.0	-64.8	3.8	7.44e-01	0	58	104	523239424	62	33558
2026-01-08 10:57:21.96	352.01	5.34	-46.0	-64.8	3.8	7.47e-01	0	59	104	523239424	62	33480
2026-01-08 10:57:22.97	351.95	5.26	-46.0	-64.8	3.8	7.46e-01	0	59	104	523239424	62	33542
2026-01-08 10:57:23.98	351.90	5.19	-46.0	-64.8	3.8	7.45e-01	0	59	104	523239424	62	33494
2026-01-08 10:57:24.99	351.84	5.12	-46.0	-64.8	3.8	7.47e-01	0	59	104	523239424	62	33445
2026-01-08 10:57:26.00	351.78	5.05	-46.0	-64.8	3.8	7.47e-01	0	58	104	523239424	62	33524
2026-01-08 10:57:27.02	351.73	4.98	-46.0	-64.8	3.8	7.47e-01	0	58	104	523239424	62	33446
2026-01-08 10:57:28.03	351.67	4.91	-46.0	-64.8	3.8	7.47e-01	0	58	104	523239424	62	33507
2026-01-08 10:57:29.04	351.62	4.84	-46.0	-64.8	3.8	7.46e-01	0	59	104	523239424	62	33508
2026-01-08 10:57:30.05	351.56	4.76	-46.0	-64.8	3.8	7.44e-01	0	59	104	523239424	62	33489
2026-01-08 10:57:31.06	351.51	4.69	-46.0	-64.8	3.8	7.45e-01	0	59	104	523239424	62	33518
2026-01-08 10:57:32.07	351.45	4.62	-46.0	-64.8	3.8	7.48e-01	0	59	104	523239424	62	33472
2026-01-08 10:57:33.08	351.40	4.55	-46.0	-64.8	3.8	7.47e-01	0	59	104	523239424	62	33481
2026-01-08 10:57:34.09	351.35	4.48	-46.0	-64.8	3.8	7.45e-01	0	59	104	523239424	62	33538
2026-01-08 10:57:35.10	351.29	4.41	-46.0	-64.8	3.8	7.42e-01	0	58	104	523239424	62	33558
2026-01-08 10:57:36.11	351.24	4.34	-46.0	-64.8	3.8	7.44e-01	0	59	104	523239424	62	33473
2026-01-08 10:57:37.12	351.19	4.27	-46.0	-64.8	3.8	7.45e-01	0	59	104	523239424	62	33528
2026-01-08 10:57:38.13	351.14	4.20	-46.0	-64.8	3.8	7.43e-01	0	58	104	523239424	62	33441
2026-01-08 10:57:39.14	351.08	4.14	-46.0	-64.8	3.8	7.48e-01	0	59	104	523239424	62	33502
