passes_logs/2026/01/08/R2.0S_Moscow/R2.0S_Moscow__20260108_222717_NOAA_20_JPSS-1_rec.log

#Pass ID: 20260108_222717_NOAA 20 (JPSS-1)
#Satellite: NOAA 20 (JPSS-1)
#Configuration: NOAA 20
#almurnet v.1.7.20251203
#Start time: 2026-01-08 22:27:17

#Version: 2.2.20231116
#Station: R2.0S_Moscow
#Location: 37.707566 lon 55.798166 lat
#TLE: 1 43013U 17073A   26008.42245989  .00000120  00000+0  77990-4 0  9996
#TLE: 2 43013  98.7631 309.4315 0001737  48.7960 311.3365 14.19534455421802

#Time	Az	El	Level	Level2	SNR	BER	BlckErr	Temp	State	Recorded	gain1	gain2
2026-01-08 22:27:17.81	23.01	2.00	-41.8	-57.1	3.8	1.49e+00	0	48	0	0	55	20748
2026-01-08 22:27:18.82	23.07	2.06	-41.7	-57.2	3.8	1.49e+00	0	48	104	0	54	22034
2026-01-08 22:27:19.83	23.13	2.12	-41.7	-57.2	3.8	1.49e+00	0	48	104	0	54	22012
2026-01-08 22:27:20.84	23.19	2.18	-41.8	-57.1	3.8	1.49e+00	0	48	104	0	54	21985
2026-01-08 22:27:21.85	23.25	2.24	-41.6	-57.2	3.8	1.49e+00	0	48	104	0	54	22024
2026-01-08 22:27:22.86	23.31	2.30	-41.7	-57.2	3.8	1.49e+00	0	48	104	0	54	22035
2026-01-08 22:27:23.87	23.37	2.36	-41.8	-57.1	3.8	1.49e+00	0	48	104	0	54	21961
2026-01-08 22:27:24.88	23.43	2.41	-41.9	-57.1	3.8	1.49e+00	0	48	104	0	54	21963
2026-01-08 22:27:25.89	23.49	2.47	-41.9	-57.1	3.8	1.49e+00	0	48	104	0	54	21943
2026-01-08 22:27:26.90	23.55	2.53	-42.0	-57.1	3.8	1.49e+00	0	48	104	0	54	21990
2026-01-08 22:27:27.91	23.61	2.59	-41.8	-57.2	3.8	1.49e+00	0	48	104	0	54	22046
2026-01-08 22:27:28.93	23.67	2.65	-41.8	-57.1	3.8	1.49e+00	0	49	104	0	54	21994
2026-01-08 22:27:29.94	23.73	2.71	-41.9	-57.1	3.8	1.49e+00	0	49	104	0	54	22004
2026-01-08 22:27:30.95	23.80	2.77	-41.7	-57.1	3.8	1.49e+00	0	49	104	0	54	22007
2026-01-08 22:27:31.96	23.86	2.83	-42.0	-57.2	3.8	1.49e+00	0	49	104	0	54	22012
2026-01-08 22:27:32.97	23.92	2.89	-42.0	-57.2	3.8	1.49e+00	0	49	104	0	54	22041
2026-01-08 22:27:33.98	23.98	2.95	-41.7	-57.1	3.8	1.49e+00	0	49	104	0	54	21925
2026-01-08 22:27:34.99	24.05	3.01	-41.8	-57.1	3.8	1.49e+00	0	49	104	0	54	21976
2026-01-08 22:27:36.00	24.11	3.07	-42.0	-57.1	3.8	1.49e+00	0	49	104	0	54	21999
2026-01-08 22:27:37.01	24.17	3.13	-41.8	-57.1	3.8	1.49e+00	0	49	104	0	54	21981
2026-01-08 22:27:38.02	24.23	3.19	-41.7	-57.1	3.8	1.49e+00	0	49	104	0	54	21967
2026-01-08 22:27:39.03	24.30	3.25	-41.8	-57.1	3.8	1.49e+00	0	49	104	0	54	21979
2026-01-08 22:27:40.04	24.36	3.31	-41.9	-57.1	3.8	1.49e+00	0	49	104	0	54	21932
2026-01-08 22:27:41.05	24.43	3.37	-41.8	-57.1	3.8	1.49e+00	0	49	104	0	54	21988
2026-01-08 22:27:42.07	24.49	3.43	-41.7	-57.1	3.8	1.49e+00	0	49	104	0	54	21981
2026-01-08 22:27:43.08	24.56	3.49	-41.7	-57.1	3.8	1.49e+00	0	50	104	0	54	21994
2026-01-08 22:27:44.09	24.62	3.55	-41.8	-57.1	3.8	1.49e+00	0	49	104	0	54	21975
2026-01-08 22:27:45.10	24.69	3.61	-41.8	-57.2	3.8	1.49e+00	0	50	104	0	54	22009
2026-01-08 22:27:46.11	24.75	3.67	-41.9	-57.1	3.8	1.49e+00	0	50	104	0	54	21922
2026-01-08 22:27:47.12	24.82	3.74	-41.7	-57.1	3.8	1.49e+00	0	50	104	0	54	21929
2026-01-08 22:27:48.13	24.88	3.80	-41.9	-57.1	3.8	1.49e+00	0	50	104	0	54	21967
2026-01-08 22:27:49.14	24.95	3.86	-41.7	-57.1	3.8	1.49e+00	0	50	104	0	54	21950
2026-01-08 22:27:50.15	25.01	3.92	-41.9	-57.1	3.8	1.49e+00	0	50	104	0	54	21948
2026-01-08 22:27:51.16	25.08	3.98	-41.8	-57.1	3.8	1.49e+00	0	50	104	0	54	21939
2026-01-08 22:27:52.17	25.15	4.04	-41.8	-57.1	3.8	1.49e+00	0	50	104	0	54	21956
2026-01-08 22:27:53.18	25.21	4.10	-41.8	-57.1	3.8	1.49e+00	0	50	104	0	54	21950
2026-01-08 22:27:54.20	25.28	4.17	-41.7	-57.1	3.8	1.49e+00	0	50	104	0	54	21965
2026-01-08 22:27:55.21	25.35	4.23	-41.8	-57.1	3.8	1.49e+00	0	50	104	0	54	21910
2026-01-08 22:27:56.22	25.42	4.29	-41.8	-57.1	3.8	1.49e+00	0	50	104	0	54	21919
2026-01-08 22:27:57.23	25.49	4.35	-41.9	-57.1	3.8	1.49e+00	0	50	104	0	54	21959
2026-01-08 22:27:58.24	25.55	4.42	-41.8	-57.1	3.8	1.49e+00	0	50	104	0	54	21951
2026-01-08 22:27:59.25	25.62	4.48	-41.8	-57.1	3.8	1.49e+00	0	51	104	0	54	21985
2026-01-08 22:28:00.26	25.69	4.54	-41.8	-57.1	3.8	1.49e+00	0	51	104	0	54	21993
2026-01-08 22:28:01.27	25.76	4.60	-41.7	-57.1	3.8	1.49e+00	0	51	104	0	54	21924
2026-01-08 22:28:02.28	25.83	4.67	-41.8	-57.1	3.8	1.49e+00	0	50	104	0	54	21944
2026-01-08 22:28:03.29	25.90	4.73	-41.8	-57.1	3.8	1.49e+00	0	51	104	0	54	21976
2026-01-08 22:28:04.30	25.97	4.79	-41.6	-57.1	3.8	1.49e+00	0	51	104	0	54	21958
2026-01-08 22:28:05.32	26.04	4.86	-41.7	-57.2	3.8	1.49e+00	0	51	104	0	54	22013
2026-01-08 22:28:06.32	26.11	4.92	-41.9	-57.1	3.8	1.49e+00	0	51	104	0	54	22000
2026-01-08 22:28:07.34	26.18	4.98	-41.7	-57.1	3.8	1.49e+00	0	51	104	0	54	21976
2026-01-08 22:28:08.35	26.25	5.05	-41.8	-57.1	3.8	1.49e+00	0	51	104	0	54	21960
2026-01-08 22:28:09.36	26.33	5.11	-41.9	-57.1	3.8	1.49e+00	0	51	104	0	54	21970
2026-01-08 22:28:10.37	26.40	5.17	-42.0	-57.1	3.8	1.49e+00	0	51	104	0	54	21957
2026-01-08 22:28:11.38	26.47	5.24	-41.7	-57.1	3.8	1.49e+00	0	51	104	0	54	21987
2026-01-08 22:28:12.39	26.54	5.30	-41.9	-57.1	3.8	1.49e+00	0	51	104	0	54	21936
2026-01-08 22:28:13.40	26.62	5.37	-41.8	-57.1	3.8	1.49e+00	0	51	104	0	54	21990
2026-01-08 22:28:14.41	26.69	5.43	-41.9	-57.1	3.8	1.49e+00	0	51	104	0	54	21952
2026-01-08 22:28:15.43	26.76	5.49	-41.7	-57.1	3.8	1.49e+00	0	51	104	0	54	21925
2026-01-08 22:28:16.44	26.84	5.56	-41.9	-57.1	3.8	1.49e+00	0	51	104	0	54	22006
2026-01-08 22:28:17.45	26.91	5.62	-41.9	-57.1	3.8	1.49e+00	0	51	104	0	54	21987
2026-01-08 22:28:18.46	26.98	5.69	-41.7	-57.1	3.8	1.49e+00	0	51	104	0	54	21903
2026-01-08 22:28:19.47	27.06	5.75	-41.8	-57.1	3.8	1.49e+00	0	51	104	0	54	21902
2026-01-08 22:28:20.48	27.13	5.82	-41.6	-57.1	3.8	1.49e+00	0	52	104	0	54	21952
2026-01-08 22:28:21.49	27.21	5.88	-41.8	-57.1	3.8	1.49e+00	0	52	104	0	54	21889
2026-01-08 22:28:22.50	27.28	5.95	-41.9	-57.1	3.8	1.49e+00	0	52	104	0	54	21763
2026-01-08 22:28:23.51	27.36	6.01	-41.8	-57.0	3.8	1.49e+00	0	52	104	0	54	21721
2026-01-08 22:28:24.52	27.44	6.08	-41.8	-57.0	3.8	1.49e+00	0	52	104	0	54	21613
2026-01-08 22:28:25.53	27.51	6.15	-41.9	-57.0	3.8	1.49e+00	0	52	104	0	54	21658
2026-01-08 22:28:26.54	27.59	6.21	-41.8	-57.0	3.8	1.49e+00	0	52	104	0	54	21554
2026-01-08 22:28:27.56	27.67	6.28	-41.8	-57.1	3.8	1.49e+00	0	52	104	0	54	21799
2026-01-08 22:28:28.57	27.74	6.34	-41.8	-57.0	3.8	1.49e+00	0	52	104	0	54	21686
2026-01-08 22:28:29.58	27.82	6.41	-41.8	-57.1	3.8	1.49e+00	0	52	104	0	54	21798
2026-01-08 22:28:30.59	27.90	6.48	-41.9	-56.9	3.8	1.49e+00	0	52	104	0	54	21481
2026-01-08 22:28:31.60	27.98	6.54	-42.0	-56.9	3.8	1.49e+00	0	52	104	0	54	21299
2026-01-08 22:28:32.61	28.06	6.61	-41.9	-56.8	3.8	1.49e+00	0	52	104	0	54	21086
2026-01-08 22:28:33.62	28.14	6.68	-41.6	-56.6	3.8	1.49e+00	0	52	104	0	54	20768
2026-01-08 22:28:34.63	28.22	6.74	-41.7	-56.8	3.8	1.49e+00	0	52	104	0	54	21127
2026-01-08 22:28:35.64	28.30	6.81	-41.6	-56.6	3.8	1.49e+00	0	52	104	0	54	20690
2026-01-08 22:28:36.65	28.38	6.88	-41.7	-57.0	3.8	1.49e+00	0	52	104	0	54	21749
2026-01-08 22:28:37.67	28.46	6.94	-41.7	-57.1	3.8	1.49e+00	0	52	104	0	54	21771
2026-01-08 22:28:38.68	28.54	7.01	-41.9	-57.0	3.8	1.49e+00	0	52	104	0	54	21607
2026-01-08 22:28:39.69	28.62	7.08	-41.9	-56.3	3.8	1.49e+00	0	52	104	0	54	19975
2026-01-08 22:28:40.70	28.70	7.15	-41.5	-53.7	4.2	1.49e+00	0	52	104	0	54	14758
2026-01-08 22:28:41.70	28.78	7.21	-41.5	-51.6	5.0	1.09e+00	0	52	0	1048576	54	11654
2026-01-08 22:28:42.71	28.86	7.28	-41.2	-50.2	5.9	4.17e-01	0	52	0	3145728	54	9919
2026-01-08 22:28:43.73	28.95	7.35	-41.0	-48.9	6.9	2.42e-01	0	53	0	4194304	53	8976
2026-01-08 22:28:44.74	29.03	7.42	-40.5	-47.2	8.6	8.03e-02	0	52	0	6291456	53	7392
2026-01-08 22:28:45.75	29.11	7.49	-40.3	-45.7	10.1	1.72e-02	0	52	0	8388608	52	6636
2026-01-08 22:28:46.76	29.20	7.55	-39.9	-44.7	11.2	1.92e-03	0	53	0	10485760	51	6274
2026-01-08 22:28:47.77	29.28	7.62	-39.8	-44.4	11.6	6.48e-04	0	53	0	12582912	51	6021
2026-01-08 22:28:48.78	29.36	7.69	-39.9	-44.7	11.3	6.81e-04	0	53	0	13631488	51	6206
2026-01-08 22:28:49.79	29.45	7.76	-40.1	-45.3	10.7	2.03e-03	0	53	0	15728640	51	6650
2026-01-08 22:28:50.80	29.53	7.83	-40.3	-45.8	10.1	5.83e-03	0	53	0	17825792	51	7109
2026-01-08 22:28:51.81	29.62	7.90	-40.0	-45.3	10.6	5.07e-03	0	53	0	19922944	51	6719
2026-01-08 22:28:52.82	29.71	7.97	-40.2	-45.7	10.3	4.81e-03	0	53	0	22020096	51	6971
2026-01-08 22:28:53.83	29.79	8.04	-40.5	-46.4	9.5	1.03e-02	0	53	0	23068672	51	7575
2026-01-08 22:28:54.84	29.88	8.11	-40.4	-45.9	10.2	1.58e-02	0	53	0	25165824	52	6746
2026-01-08 22:28:55.85	29.97	8.17	-40.7	-54.8	3.8	7.68e-01	0	53	104	27262976	52	18784
2026-01-08 22:28:56.86	30.05	8.24	-41.5	-47.0	9.5	8.46e-01	0	53	0	27262976	53	7228
2026-01-08 22:28:57.87	30.14	8.31	-41.4	-46.7	9.8	2.49e-02	0	53	0	28311552	54	6646
2026-01-08 22:28:58.88	30.23	8.38	-41.8	-49.4	7.0	4.63e-03	0	53	0	30408704	54	9031
2026-01-08 22:28:59.89	30.32	8.45	-41.0	-46.0	10.3	6.19e-02	0	53	0	32505856	54	6093
2026-01-08 22:29:00.90	30.41	8.52	-40.8	-45.5	11.0	2.48e-03	0	53	0	34603008	53	6063
2026-01-08 22:29:01.91	30.50	8.60	-40.7	-45.1	11.4	1.44e-03	0	53	0	36700160	53	5842
2026-01-08 22:29:02.92	30.59	8.67	-40.7	-45.0	11.5	9.31e-04	0	53	0	37748736	53	5763
2026-01-08 22:29:03.93	30.68	8.74	-40.8	-45.3	11.3	9.73e-04	0	53	0	39845888	53	5936
2026-01-08 22:29:04.94	30.77	8.81	-40.8	-45.2	11.4	8.24e-04	0	53	0	41943040	53	5889
2026-01-08 22:29:05.95	30.86	8.88	-40.8	-45.2	11.5	6.74e-04	0	53	0	44040192	53	5868
2026-01-08 22:29:06.96	30.95	8.95	-40.9	-45.3	11.4	1.02e-03	0	53	0	46137344	53	5951
2026-01-08 22:29:07.97	31.04	9.02	-41.1	-45.7	11.0	1.08e-03	0	53	0	48234496	53	6213
2026-01-08 22:29:08.98	31.14	9.09	-40.9	-45.3	11.5	9.96e-04	0	53	0	49283072	53	5924
2026-01-08 22:29:09.99	31.23	9.16	-40.9	-45.2	11.6	1.14e-03	0	53	0	51380224	53	5877
2026-01-08 22:29:11.00	31.32	9.24	-40.8	-44.9	11.8	5.87e-04	0	53	0	53477376	53	5718
2026-01-08 22:29:12.01	31.42	9.31	-40.9	-45.1	11.6	7.39e-04	0	53	0	55574528	53	5850
2026-01-08 22:29:13.02	31.51	9.38	-40.9	-45.0	11.8	5.38e-04	0	53	0	57671680	53	5761
2026-01-08 22:29:14.03	31.60	9.45	-40.7	-44.7	12.1	2.88e-04	0	53	0	58720256	53	5539
2026-01-08 22:29:15.04	31.70	9.52	-40.6	-44.5	12.4	1.90e-04	0	54	0	60817408	53	5414
2026-01-08 22:29:16.05	31.80	9.60	-40.5	-44.2	12.6	1.91e-04	0	54	0	62914560	53	5277
2026-01-08 22:29:17.06	31.89	9.67	-40.5	-44.2	12.7	1.48e-04	0	54	0	65011712	53	5233
2026-01-08 22:29:18.07	31.99	9.74	-40.6	-44.4	12.4	6.86e-05	0	53	0	67108864	52	5709
2026-01-08 22:29:19.08	32.08	9.81	-40.5	-44.2	12.6	8.31e-05	0	53	0	68157440	52	5578
2026-01-08 22:29:20.08	32.18	9.89	-40.6	-44.3	12.6	7.32e-05	0	54	0	70254592	52	5624
2026-01-08 22:29:21.09	32.28	9.96	-40.6	-44.2	12.8	6.25e-05	0	54	0	72351744	52	5542
2026-01-08 22:29:22.10	32.38	10.03	-40.6	-44.2	12.8	6.48e-05	0	54	0	74448896	52	5545
2026-01-08 22:29:23.11	32.48	10.11	-40.6	-44.3	12.6	8.01e-05	0	54	0	76546048	52	5640
2026-01-08 22:29:24.12	32.58	10.18	-40.7	-44.4	12.6	9.53e-05	0	54	0	77594624	52	5659
2026-01-08 22:29:25.13	32.67	10.25	-40.7	-44.3	12.7	9.61e-05	0	54	0	79691776	52	5629
2026-01-08 22:29:26.14	32.78	10.33	-40.6	-44.3	12.7	8.54e-05	0	54	0	81788928	52	5619
2026-01-08 22:29:27.15	32.88	10.40	-40.7	-44.3	12.7	9.46e-05	0	54	0	83886080	52	5618
2026-01-08 22:29:28.16	32.98	10.48	-40.7	-44.4	12.7	7.40e-05	0	54	0	85983232	52	5668
2026-01-08 22:29:29.17	33.08	10.55	-40.8	-44.5	12.5	1.05e-04	0	54	0	87031808	52	5760
2026-01-08 22:29:30.18	33.18	10.62	-40.7	-44.3	12.8	9.23e-05	0	54	0	89128960	52	5606
2026-01-08 22:29:31.19	33.28	10.70	-40.7	-44.3	12.7	5.95e-05	0	54	0	91226112	52	5645
2026-01-08 22:29:32.20	33.39	10.77	-40.6	-44.1	12.9	6.71e-05	0	54	0	93323264	52	5520
2026-01-08 22:29:33.21	33.49	10.85	-40.6	-44.2	12.9	6.40e-05	0	54	0	95420416	52	5533
2026-01-08 22:29:34.22	33.59	10.92	-40.8	-44.4	12.7	4.65e-05	0	54	0	96468992	52	5664
2026-01-08 22:29:35.23	33.70	11.00	-40.7	-44.2	12.9	4.80e-05	0	54	0	98566144	52	5555
2026-01-08 22:29:36.24	33.80	11.07	-40.7	-44.2	12.9	3.66e-05	0	54	0	100663296	52	5585
2026-01-08 22:29:37.24	33.91	11.15	-40.7	-44.2	13.0	4.34e-05	0	54	0	102760448	52	5548
2026-01-08 22:29:38.26	34.02	11.23	-40.7	-44.3	12.9	4.50e-05	0	54	0	104857600	52	5626
2026-01-08 22:29:39.26	34.12	11.30	-40.7	-44.2	13.0	5.64e-05	0	54	0	105906176	52	5529
2026-01-08 22:29:40.27	34.23	11.38	-40.6	-44.0	13.1	2.44e-05	0	54	0	108003328	52	5457
2026-01-08 22:29:41.28	34.34	11.45	-40.6	-43.9	13.2	2.21e-05	0	54	0	110100480	52	5397
2026-01-08 22:29:42.29	34.45	11.53	-40.5	-43.8	13.4	1.22e-05	0	54	0	112197632	52	5309
2026-01-08 22:29:43.30	34.55	11.61	-40.5	-43.9	13.3	1.14e-05	0	54	0	114294784	52	5352
2026-01-08 22:29:44.31	34.66	11.68	-40.3	-43.5	13.7	9.10e-06	0	54	0	116391936	52	5102
2026-01-08 22:29:45.32	34.77	11.76	-40.4	-43.5	13.7	6.10e-06	0	54	0	117440512	52	5146
2026-01-08 22:29:46.33	34.88	11.84	-40.3	-43.5	13.7	5.30e-06	0	54	0	119537664	52	5127
2026-01-08 22:29:47.34	35.00	11.91	-40.3	-43.5	13.7	9.10e-06	0	54	0	121634816	52	5138
2026-01-08 22:29:48.35	35.11	11.99	-40.4	-43.6	13.6	3.00e-06	0	54	0	123731968	52	5203
2026-01-08 22:29:49.36	35.22	12.07	-40.4	-43.6	13.6	6.80e-06	0	54	0	125829120	52	5203
2026-01-08 22:29:50.37	35.33	12.14	-40.4	-43.6	13.6	7.60e-06	0	54	0	126877696	52	5217
2026-01-08 22:29:51.37	35.44	12.22	-40.4	-43.7	13.6	1.37e-05	0	54	0	128974848	52	5229
2026-01-08 22:29:52.38	35.56	12.30	-40.4	-43.7	13.5	9.10e-06	0	54	0	131072000	52	5239
2026-01-08 22:29:53.39	35.67	12.38	-40.5	-43.7	13.5	1.22e-05	0	54	0	133169152	52	5254
2026-01-08 22:29:54.40	35.79	12.46	-40.3	-43.4	13.8	3.00e-06	0	54	0	135266304	52	5096
2026-01-08 22:29:55.41	35.90	12.53	-40.3	-43.4	13.9	3.80e-06	0	54	0	136314880	52	5052
2026-01-08 22:29:56.42	36.02	12.61	-40.2	-43.3	14.0	2.20e-06	0	54	0	138412032	52	5023
2026-01-08 22:29:57.43	36.14	12.69	-40.3	-43.4	13.8	6.10e-06	0	54	0	140509184	52	5092
2026-01-08 22:29:58.44	36.25	12.77	-40.3	-43.4	13.9	4.50e-06	0	54	0	142606336	52	5043
2026-01-08 22:29:59.45	36.37	12.85	-40.3	-43.4	13.8	3.00e-06	0	55	0	144703488	52	5090
2026-01-08 22:30:00.46	36.49	12.93	-40.3	-43.4	13.9	3.80e-06	0	55	0	145752064	52	5053
2026-01-08 22:30:01.47	36.61	13.01	-40.4	-43.5	13.8	6.80e-06	0	55	0	147849216	52	5141
2026-01-08 22:30:02.48	36.73	13.09	-40.5	-43.7	13.5	1.50e-06	0	55	0	149946368	52	5274
2026-01-08 22:30:03.49	36.85	13.16	-40.5	-43.7	13.6	9.90e-06	0	55	0	152043520	52	5253
2026-01-08 22:30:04.50	36.97	13.24	-40.6	-43.8	13.4	1.22e-05	0	55	0	154140672	52	5336
2026-01-08 22:30:05.51	37.09	13.32	-40.6	-43.9	13.4	1.44e-05	0	54	0	155189248	52	5363
2026-01-08 22:30:06.52	37.22	13.40	-40.6	-43.9	13.4	1.60e-05	0	54	0	157286400	52	5366
2026-01-08 22:30:07.53	37.34	13.48	-40.6	-43.9	13.4	1.29e-05	0	55	0	159383552	52	5366
2026-01-08 22:30:08.53	37.46	13.56	-40.6	-43.9	13.4	1.29e-05	0	55	0	161480704	52	5352
2026-01-08 22:30:09.54	37.59	13.64	-40.6	-43.9	13.4	1.22e-05	0	55	0	163577856	52	5389
2026-01-08 22:30:10.55	37.71	13.72	-40.5	-43.7	13.7	7.60e-06	0	55	0	164626432	52	5232
2026-01-08 22:30:11.56	37.84	13.80	-40.5	-43.6	13.7	9.90e-06	0	55	0	166723584	52	5204
2026-01-08 22:30:12.58	37.96	13.89	-40.4	-43.5	13.8	6.80e-06	0	55	0	168820736	52	5144
2026-01-08 22:30:13.59	38.09	13.97	-40.5	-43.7	13.7	5.30e-06	0	55	0	170917888	52	5219
2026-01-08 22:30:14.60	38.22	14.05	-40.4	-43.5	13.8	2.20e-06	0	55	0	173015040	52	5131
2026-01-08 22:30:15.61	38.35	14.13	-40.4	-43.6	13.8	5.30e-06	0	55	0	174063616	52	5181
2026-01-08 22:30:16.62	38.48	14.21	-40.4	-43.6	13.8	1.50e-06	0	55	0	176160768	52	5178
2026-01-08 22:30:17.63	38.61	14.29	-40.4	-43.5	13.9	3.00e-06	0	55	0	178257920	52	5145
2026-01-08 22:30:18.64	38.74	14.37	-40.5	-43.6	13.8	3.00e-06	0	55	0	180355072	52	5189
2026-01-08 22:30:19.65	38.87	14.45	-40.5	-43.6	13.7	3.80e-06	0	55	0	182452224	52	5200
2026-01-08 22:30:20.65	39.00	14.54	-40.4	-43.6	13.8	3.00e-06	0	55	0	184549376	52	5170
2026-01-08 22:30:21.67	39.13	14.62	-40.4	-43.5	13.9	6.10e-06	0	55	0	185597952	52	5134
2026-01-08 22:30:22.68	39.27	14.70	-40.4	-43.5	14.0	2.20e-06	0	55	0	187695104	52	5113
2026-01-08 22:30:23.68	39.40	14.78	-40.3	-43.4	14.1	5.30e-06	0	55	0	189792256	52	5053
2026-01-08 22:30:24.69	39.53	14.86	-40.4	-43.4	14.0	7.00e-07	0	55	0	191889408	52	5087
2026-01-08 22:30:25.70	39.67	14.95	-40.3	-43.2	14.2	7.00e-07	0	55	0	193986560	52	4973
2026-01-08 22:30:26.71	39.80	15.03	-40.3	-43.2	14.2	2.20e-06	0	55	0	195035136	52	4977
2026-01-08 22:30:27.72	39.94	15.11	-40.3	-43.2	14.2	7.00e-07	0	55	0	197132288	52	4981
2026-01-08 22:30:28.74	40.08	15.20	-40.2	-43.1	14.4	0.00e+00	0	55	0	199229440	52	4896
2026-01-08 22:30:29.75	40.22	15.28	-40.2	-43.2	14.3	0.00e+00	0	55	0	201326592	52	4938
2026-01-08 22:30:30.76	40.36	15.36	-40.3	-43.2	14.3	7.00e-07	0	55	0	203423744	52	4963
2026-01-08 22:30:31.77	40.50	15.45	-40.3	-43.2	14.2	2.20e-06	0	55	0	204472320	52	4971
2026-01-08 22:30:32.77	40.64	15.53	-40.2	-43.1	14.4	7.00e-07	0	55	0	206569472	52	4889
2026-01-08 22:30:33.78	40.78	15.61	-40.3	-43.3	14.2	1.50e-06	0	55	0	208666624	52	5002
2026-01-08 22:30:34.79	40.92	15.70	-40.3	-43.2	14.3	2.20e-06	0	55	0	210763776	52	4958
2026-01-08 22:30:35.80	41.06	15.78	-40.3	-43.3	14.2	3.00e-06	0	55	0	212860928	52	5006
2026-01-08 22:30:36.81	41.21	15.86	-40.3	-43.3	14.3	0.00e+00	0	55	0	213909504	52	4990
2026-01-08 22:30:37.82	41.35	15.95	-40.3	-43.2	14.4	1.50e-06	0	55	0	216006656	52	4932
2026-01-08 22:30:38.83	41.50	16.03	-40.3	-43.2	14.3	7.00e-07	0	55	0	218103808	52	4953
2026-01-08 22:30:39.84	41.64	16.12	-40.2	-43.1	14.4	0.00e+00	0	55	0	220200960	52	4915
2026-01-08 22:30:40.85	41.79	16.20	-40.2	-43.1	14.4	0.00e+00	0	55	0	222298112	52	4902
2026-01-08 22:30:41.86	41.94	16.29	-40.2	-43.0	14.5	0.00e+00	0	55	0	223346688	52	4850
2026-01-08 22:30:42.87	42.08	16.37	-40.1	-43.0	14.6	0.00e+00	0	55	0	225443840	52	4823
2026-01-08 22:30:43.88	42.23	16.46	-40.1	-42.9	14.7	7.00e-07	0	55	0	227540992	52	4773
2026-01-08 22:30:44.89	42.38	16.54	-40.0	-42.8	14.8	0.00e+00	0	55	0	229638144	52	4722
2026-01-08 22:30:45.91	42.54	16.63	-40.0	-42.8	14.8	0.00e+00	0	55	0	231735296	52	4738
2026-01-08 22:30:46.91	42.69	16.71	-40.1	-42.9	14.8	0.00e+00	0	55	0	232783872	51	5043
2026-01-08 22:30:47.92	42.84	16.80	-40.1	-42.9	14.8	0.00e+00	0	55	0	234881024	51	5053
2026-01-08 22:30:48.93	42.99	16.88	-40.1	-42.8	14.9	0.00e+00	0	55	0	236978176	51	4998
2026-01-08 22:30:49.94	43.15	16.97	-40.1	-42.9	14.8	0.00e+00	0	55	0	239075328	51	5046
2026-01-08 22:30:50.95	43.30	17.05	-40.1	-42.8	14.8	0.00e+00	0	55	0	241172480	51	5034
2026-01-08 22:30:51.96	43.46	17.14	-40.1	-42.8	14.9	1.50e-06	0	55	0	242221056	51	5001
2026-01-08 22:30:52.97	43.61	17.22	-40.1	-42.7	14.9	0.00e+00	0	55	0	244318208	51	4977
2026-01-08 22:30:53.98	43.77	17.31	-40.2	-42.9	14.8	0.00e+00	0	55	0	246415360	51	5068
2026-01-08 22:30:54.99	43.93	17.40	-40.1	-42.8	15.0	0.00e+00	0	55	0	248512512	51	4987
2026-01-08 22:30:56.00	44.09	17.48	-40.1	-42.8	14.9	0.00e+00	0	55	0	250609664	51	5030
2026-01-08 22:30:57.01	44.25	17.57	-40.0	-42.7	15.0	7.00e-07	0	55	0	252706816	51	4955
2026-01-08 22:30:58.02	44.41	17.66	-40.1	-42.7	15.0	0.00e+00	0	56	0	253755392	51	4975
2026-01-08 22:30:59.02	44.57	17.74	-40.0	-42.7	15.0	0.00e+00	0	56	0	255852544	51	4960
2026-01-08 22:31:00.03	44.73	17.83	-40.1	-42.7	15.0	0.00e+00	0	55	0	257949696	51	4976
2026-01-08 22:31:01.04	44.90	17.91	-40.0	-42.7	15.1	0.00e+00	0	55	0	260046848	51	4927
2026-01-08 22:31:02.05	45.06	18.00	-40.0	-42.7	15.1	0.00e+00	0	55	0	261095424	51	4935
2026-01-08 22:31:03.06	45.23	18.09	-40.0	-42.7	15.1	0.00e+00	0	55	0	263192576	51	4928
2026-01-08 22:31:04.07	45.40	18.17	-40.0	-42.6	15.2	0.00e+00	0	55	0	265289728	51	4907
2026-01-08 22:31:05.08	45.56	18.26	-40.0	-42.6	15.2	0.00e+00	0	55	0	267386880	51	4883
2026-01-08 22:31:06.09	45.73	18.35	-39.9	-42.5	15.2	0.00e+00	0	55	0	269484032	51	4858
2026-01-08 22:31:07.10	45.90	18.44	-39.9	-42.4	15.4	0.00e+00	0	56	0	271581184	51	4807
2026-01-08 22:31:08.11	46.07	18.52	-40.0	-42.6	15.2	0.00e+00	0	56	0	272629760	51	4871
2026-01-08 22:31:09.12	46.24	18.61	-39.9	-42.5	15.3	0.00e+00	0	55	0	274726912	51	4827
2026-01-08 22:31:10.13	46.42	18.70	-39.9	-42.5	15.3	0.00e+00	0	55	0	276824064	51	4857
2026-01-08 22:31:11.14	46.59	18.78	-39.9	-42.4	15.4	0.00e+00	0	55	0	278921216	51	4812
2026-01-08 22:31:12.15	46.76	18.87	-39.9	-42.5	15.3	0.00e+00	0	55	0	281018368	51	4823
2026-01-08 22:31:13.16	46.94	18.96	-39.8	-42.3	15.5	0.00e+00	0	55	0	282066944	51	4712
2026-01-08 22:31:14.16	47.11	19.05	-39.8	-42.4	15.4	0.00e+00	0	55	0	284164096	51	4762
2026-01-08 22:31:15.17	47.29	19.13	-39.8	-42.3	15.5	0.00e+00	0	56	0	286261248	51	4721
2026-01-08 22:31:16.18	47.47	19.22	-39.7	-42.2	15.6	0.00e+00	0	56	0	288358400	51	4689
2026-01-08 22:31:17.19	47.65	19.31	-39.7	-42.1	15.7	0.00e+00	0	56	0	290455552	51	4649
2026-01-08 22:31:18.20	47.83	19.40	-39.6	-42.0	15.8	0.00e+00	0	56	0	291504128	51	4594
2026-01-08 22:31:19.21	48.01	19.48	-39.6	-42.0	15.8	0.00e+00	0	56	0	293601280	51	4595
2026-01-08 22:31:20.22	48.19	19.57	-39.6	-42.0	15.8	0.00e+00	0	56	0	295698432	51	4565
2026-01-08 22:31:21.23	48.37	19.66	-39.6	-42.0	15.8	0.00e+00	0	56	0	297795584	51	4587
2026-01-08 22:31:22.24	48.56	19.75	-39.7	-42.1	15.7	0.00e+00	0	55	0	299892736	51	4647
2026-01-08 22:31:23.25	48.74	19.84	-39.7	-42.1	15.7	0.00e+00	0	55	0	300941312	51	4619
2026-01-08 22:31:24.26	48.93	19.92	-39.6	-42.1	15.8	0.00e+00	0	56	0	303038464	51	4608
2026-01-08 22:31:25.27	49.12	20.01	-39.6	-42.0	15.8	0.00e+00	0	55	0	305135616	51	4579
2026-01-08 22:31:26.28	49.31	20.10	-39.6	-42.0	15.8	0.00e+00	0	55	0	307232768	51	4551
2026-01-08 22:31:27.29	49.50	20.19	-39.5	-41.9	16.0	0.00e+00	0	56	0	309329920	51	4499
2026-01-08 22:31:28.30	49.69	20.27	-39.5	-41.8	16.0	0.00e+00	0	56	0	310378496	50	4746
2026-01-08 22:31:29.31	49.88	20.36	-39.5	-41.9	16.0	0.00e+00	0	56	0	312475648	50	4769
2026-01-08 22:31:30.32	50.07	20.45	-39.5	-41.8	16.1	0.00e+00	0	56	0	314572800	50	4728
2026-01-08 22:31:31.33	50.26	20.54	-39.4	-41.7	16.1	0.00e+00	0	56	0	316669952	50	4702
2026-01-08 22:31:32.33	50.46	20.62	-39.5	-41.8	16.0	0.00e+00	0	56	0	318767104	50	4737
2026-01-08 22:31:33.35	50.66	20.71	-39.3	-41.6	16.2	0.00e+00	0	56	0	319815680	50	4649
2026-01-08 22:31:34.36	50.85	20.80	-39.3	-41.6	16.2	0.00e+00	0	55	0	321912832	50	4645
2026-01-08 22:31:35.37	51.05	20.89	-39.4	-41.7	16.1	0.00e+00	0	56	0	324009984	50	4671
2026-01-08 22:31:36.37	51.25	20.98	-39.4	-41.7	16.1	0.00e+00	0	56	0	326107136	50	4668
2026-01-08 22:31:37.38	51.45	21.06	-39.5	-41.9	16.0	0.00e+00	0	56	0	328204288	50	4761
2026-01-08 22:31:38.39	51.65	21.15	-39.6	-42.0	15.8	0.00e+00	0	56	0	329252864	50	4832
2026-01-08 22:31:39.41	51.85	21.24	-39.6	-42.0	15.8	0.00e+00	0	56	0	331350016	50	4867
2026-01-08 22:31:40.42	52.06	21.33	-39.7	-42.1	15.7	0.00e+00	0	56	0	333447168	50	4902
2026-01-08 22:31:41.43	52.26	21.41	-39.7	-42.1	15.7	0.00e+00	0	56	0	335544320	50	4902
2026-01-08 22:31:42.44	52.47	21.50	-39.6	-42.0	15.8	0.00e+00	0	56	0	337641472	50	4852
2026-01-08 22:31:43.45	52.68	21.59	-39.5	-41.9	15.9	0.00e+00	0	56	0	338690048	50	4786
2026-01-08 22:31:44.45	52.88	21.68	-39.5	-41.9	15.9	0.00e+00	0	56	0	340787200	50	4803
2026-01-08 22:31:45.46	53.09	21.76	-39.5	-41.9	15.9	0.00e+00	0	56	0	342884352	50	4796
2026-01-08 22:31:46.47	53.30	21.85	-39.6	-42.0	15.8	0.00e+00	0	56	0	344981504	50	4869
2026-01-08 22:31:47.48	53.51	21.94	-39.6	-42.1	15.7	0.00e+00	0	56	0	347078656	50	4881
2026-01-08 22:31:48.49	53.73	22.02	-39.7	-42.1	15.7	0.00e+00	0	56	0	349175808	50	4906
2026-01-08 22:31:49.50	53.94	22.11	-39.7	-42.1	15.7	0.00e+00	0	56	0	350224384	50	4907
2026-01-08 22:31:50.51	54.16	22.20	-39.7	-42.2	15.7	0.00e+00	0	56	0	352321536	50	4933
2026-01-08 22:31:51.52	54.37	22.28	-39.6	-42.1	15.8	0.00e+00	0	56	0	354418688	50	4885
2026-01-08 22:31:52.53	54.59	22.37	-39.6	-42.0	15.8	0.00e+00	0	56	0	356515840	50	4856
2026-01-08 22:31:53.54	54.81	22.46	-39.5	-41.9	16.0	0.00e+00	0	56	0	358612992	50	4768
2026-01-08 22:31:54.55	55.03	22.54	-39.5	-41.9	16.0	0.00e+00	0	56	0	359661568	50	4761
2026-01-08 22:31:55.56	55.25	22.63	-39.5	-41.8	16.0	0.00e+00	0	56	0	361758720	50	4736
2026-01-08 22:31:56.57	55.47	22.72	-39.4	-41.8	16.1	0.00e+00	0	56	0	363855872	50	4709
2026-01-08 22:31:57.57	55.70	22.80	-39.4	-41.7	16.1	0.00e+00	0	56	0	365953024	50	4698
2026-01-08 22:31:58.59	55.92	22.89	-39.4	-41.7	16.2	0.00e+00	0	56	0	368050176	50	4697
2026-01-08 22:31:59.59	56.15	22.97	-39.5	-41.8	16.0	0.00e+00	0	56	0	369098752	50	4757
2026-01-08 22:32:00.61	56.38	23.06	-39.6	-42.0	15.9	0.00e+00	0	56	0	371195904	50	4865
2026-01-08 22:32:01.61	56.60	23.14	-39.6	-42.0	15.9	0.00e+00	0	56	0	373293056	50	4858
2026-01-08 22:32:02.62	56.83	23.23	-39.7	-42.2	15.7	0.00e+00	0	56	0	375390208	50	4952
2026-01-08 22:32:03.63	57.06	23.31	-39.8	-42.3	15.6	0.00e+00	0	56	0	377487360	50	4985
2026-01-08 22:32:04.64	57.30	23.40	-39.8	-42.3	15.6	0.00e+00	0	56	0	378535936	50	5036
2026-01-08 22:32:05.65	57.53	23.48	-39.8	-42.2	15.6	0.00e+00	0	56	0	380633088	50	4982
2026-01-08 22:32:06.66	57.76	23.57	-39.8	-42.2	15.7	0.00e+00	0	56	0	382730240	50	4969
2026-01-08 22:32:07.67	58.00	23.65	-39.8	-42.3	15.6	0.00e+00	0	56	0	384827392	50	5021
2026-01-08 22:32:08.68	58.24	23.73	-39.9	-42.4	15.5	0.00e+00	0	56	0	386924544	50	5087
2026-01-08 22:32:09.69	58.47	23.82	-39.9	-42.5	15.4	0.00e+00	0	56	0	387973120	50	5117
2026-01-08 22:32:10.70	58.71	23.90	-40.0	-42.5	15.4	0.00e+00	0	56	0	390070272	50	5130
2026-01-08 22:32:11.71	58.96	23.98	-40.0	-42.6	15.3	0.00e+00	0	56	0	392167424	50	5193
2026-01-08 22:32:12.72	59.20	24.07	-40.1	-42.7	15.2	0.00e+00	0	56	0	394264576	50	5239
2026-01-08 22:32:13.73	59.44	24.15	-40.1	-42.7	15.2	0.00e+00	0	56	0	396361728	50	5241
2026-01-08 22:32:14.74	59.69	24.23	-40.1	-42.7	15.2	0.00e+00	0	56	0	397410304	50	5267
2026-01-08 22:32:15.74	59.93	24.31	-40.1	-42.8	15.1	0.00e+00	0	56	0	399507456	50	5294
2026-01-08 22:32:16.75	60.18	24.39	-40.2	-42.8	15.1	0.00e+00	0	56	0	401604608	50	5310
2026-01-08 22:32:17.76	60.43	24.48	-40.1	-42.7	15.2	0.00e+00	0	56	0	403701760	50	5268
2026-01-08 22:32:18.77	60.67	24.56	-40.1	-42.8	15.1	0.00e+00	0	56	0	405798912	50	5282
2026-01-08 22:32:19.78	60.93	24.64	-40.1	-42.7	15.2	0.00e+00	0	56	0	406847488	50	5250
2026-01-08 22:32:20.79	61.18	24.72	-40.1	-42.7	15.2	0.00e+00	0	56	0	408944640	50	5235
2026-01-08 22:32:21.80	61.43	24.80	-40.1	-42.8	15.1	0.00e+00	0	56	0	411041792	50	5285
2026-01-08 22:32:22.81	61.69	24.88	-40.3	-43.0	14.9	0.00e+00	0	56	0	413138944	51	5107
2026-01-08 22:32:23.82	61.94	24.96	-40.4	-43.1	14.8	0.00e+00	0	56	0	415236096	51	5204
2026-01-08 22:32:24.83	62.20	25.04	-40.5	-43.3	14.7	7.00e-07	0	56	0	417333248	51	5285
2026-01-08 22:32:25.84	62.46	25.12	-40.6	-43.4	14.4	0.00e+00	0	56	0	418381824	51	5393
2026-01-08 22:32:26.85	62.72	25.19	-40.6	-43.5	14.4	1.50e-06	0	56	0	420478976	51	5429
2026-01-08 22:32:27.86	62.98	25.27	-40.6	-43.6	14.2	7.00e-07	0	56	0	422576128	52	5192
2026-01-08 22:32:28.87	63.24	25.35	-40.7	-43.7	14.1	1.50e-06	0	56	0	424673280	52	5239
2026-01-08 22:32:29.88	63.51	25.43	-40.7	-43.7	14.1	3.80e-06	0	56	0	426770432	52	5266
2026-01-08 22:32:30.89	63.77	25.50	-40.8	-43.9	14.0	2.20e-06	0	56	0	427819008	52	5343
2026-01-08 22:32:31.90	64.04	25.58	-40.8	-43.8	14.0	2.20e-06	0	56	0	429916160	52	5327
2026-01-08 22:32:32.91	64.30	25.66	-40.8	-43.8	14.0	1.50e-06	0	56	0	432013312	52	5323
2026-01-08 22:32:33.91	64.57	25.73	-40.8	-43.9	13.9	7.00e-07	0	56	0	434110464	52	5368
2026-01-08 22:32:34.92	64.84	25.81	-40.8	-43.9	13.9	4.50e-06	0	56	0	436207616	52	5391
2026-01-08 22:32:35.93	65.11	25.88	-40.9	-44.1	13.8	3.00e-06	0	56	0	437256192	52	5467
2026-01-08 22:32:36.94	65.38	25.95	-40.9	-44.1	13.8	2.20e-06	0	56	0	439353344	52	5498
2026-01-08 22:32:37.95	65.66	26.03	-41.0	-44.1	13.7	6.10e-06	0	56	0	441450496	52	5513
2026-01-08 22:32:38.96	65.93	26.10	-41.1	-44.4	13.4	1.14e-05	0	56	0	443547648	52	5694
2026-01-08 22:32:39.97	66.21	26.17	-41.2	-44.5	13.3	1.75e-05	0	56	0	445644800	52	5755
2026-01-08 22:32:40.98	66.49	26.25	-41.3	-44.7	13.1	2.28e-05	0	56	0	446693376	53	5540
2026-01-08 22:32:41.99	66.77	26.32	-41.3	-44.7	13.1	2.28e-05	0	56	0	448790528	53	5544
2026-01-08 22:32:43.00	67.05	26.39	-41.3	-44.7	13.1	3.43e-05	0	56	0	450887680	53	5559
2026-01-08 22:32:44.01	67.33	26.46	-41.3	-44.8	13.0	3.12e-05	0	56	0	452984832	53	5609
2026-01-08 22:32:45.02	67.61	26.53	-41.3	-44.8	13.0	3.73e-05	0	56	0	455081984	53	5603
2026-01-08 22:32:46.03	67.89	26.60	-41.3	-44.7	13.0	5.26e-05	0	56	0	456130560	53	5579
2026-01-08 22:32:47.04	68.18	26.67	-41.3	-44.7	13.0	3.58e-05	0	56	0	458227712	53	5587
2026-01-08 22:32:48.05	68.47	26.74	-41.4	-44.9	12.9	4.42e-05	0	56	0	460324864	53	5675
2026-01-08 22:32:49.06	68.75	26.81	-41.4	-44.9	12.9	5.03e-05	0	56	0	462422016	53	5682
2026-01-08 22:32:50.07	69.04	26.87	-41.4	-45.0	12.8	5.41e-05	0	56	0	464519168	53	5745
2026-01-08 22:32:51.07	69.33	26.94	-41.4	-45.0	12.8	6.10e-05	0	56	0	465567744	53	5739
2026-01-08 22:32:52.08	69.62	27.01	-41.4	-44.9	12.8	5.87e-05	0	56	0	467664896	53	5662
2026-01-08 22:32:53.09	69.91	27.07	-41.3	-44.8	13.0	4.80e-05	0	56	0	469762048	53	5613
2026-01-08 22:32:54.10	70.20	27.14	-41.2	-44.6	13.2	2.97e-05	0	56	0	471859200	53	5493
2026-01-08 22:32:55.11	70.50	27.20	-41.2	-44.6	13.2	1.98e-05	0	56	0	473956352	53	5494
2026-01-08 22:32:56.12	70.80	27.26	-41.3	-44.7	13.1	2.82e-05	0	56	0	475004928	53	5566
2026-01-08 22:32:57.13	71.09	27.33	-41.4	-44.8	13.0	3.96e-05	0	56	0	477102080	53	5648
2026-01-08 22:32:58.14	71.39	27.39	-41.4	-44.9	13.0	4.11e-05	0	56	0	479199232	53	5658
2026-01-08 22:32:59.15	71.69	27.45	-41.4	-44.8	13.0	4.80e-05	0	56	0	481296384	53	5637
2026-01-08 22:33:00.16	71.99	27.51	-41.4	-44.9	12.9	3.66e-05	0	56	0	483393536	53	5698
2026-01-08 22:33:01.17	72.29	27.57	-41.4	-44.9	13.0	5.03e-05	0	56	0	485490688	53	5661
2026-01-08 22:33:02.18	72.59	27.63	-41.3	-44.7	13.1	3.66e-05	0	56	0	486539264	53	5570
2026-01-08 22:33:03.19	72.90	27.69	-41.2	-44.6	13.2	2.59e-05	0	56	0	488636416	53	5507
2026-01-08 22:33:04.20	73.20	27.75	-41.3	-44.6	13.2	2.44e-05	0	56	0	490733568	53	5513
2026-01-08 22:33:05.21	73.51	27.80	-41.4	-44.8	13.0	2.97e-05	0	56	0	492830720	53	5643
2026-01-08 22:33:06.22	73.81	27.86	-41.6	-45.2	12.6	6.17e-05	0	56	0	494927872	53	5899
2026-01-08 22:33:07.23	74.12	27.92	-41.7	-45.5	12.3	1.68e-04	0	56	0	495976448	54	5779
2026-01-08 22:33:08.24	74.43	27.97	-42.0	-46.1	11.7	3.50e-04	0	56	0	498073600	54	6147
2026-01-08 22:33:09.25	74.74	28.03	-42.1	-46.2	11.6	7.99e-04	0	56	0	500170752	54	6251
2026-01-08 22:33:10.26	75.05	28.08	-42.2	-46.5	11.3	1.04e-03	0	56	0	502267904	54	6460
2026-01-08 22:33:11.27	75.37	28.13	-42.2	-46.6	11.2	1.35e-03	0	56	0	504365056	55	6138
2026-01-08 22:33:12.28	75.68	28.18	-42.3	-46.7	11.1	1.75e-03	0	56	0	505413632	55	6233
2026-01-08 22:33:13.28	75.99	28.24	-42.2	-46.5	11.3	1.48e-03	0	56	0	507510784	55	6087
2026-01-08 22:33:14.29	76.31	28.29	-42.2	-46.4	11.3	1.30e-03	0	56	0	509607936	55	6052
2026-01-08 22:33:15.30	76.62	28.33	-42.1	-46.3	11.5	1.05e-03	0	56	0	511705088	55	5939
2026-01-08 22:33:16.31	76.94	28.38	-42.2	-46.4	11.4	9.80e-04	0	56	0	513802240	55	6013
2026-01-08 22:33:17.32	77.26	28.43	-42.0	-46.0	11.8	7.09e-04	0	56	0	514850816	55	5757
2026-01-08 22:33:18.33	77.58	28.48	-42.0	-45.9	11.9	4.18e-04	0	56	0	516947968	55	5721
2026-01-08 22:33:19.34	77.90	28.52	-41.9	-45.8	12.0	3.91e-04	0	56	0	519045120	55	5650
2026-01-08 22:33:20.35	78.22	28.57	-41.9	-45.7	12.1	3.51e-04	0	56	0	521142272	55	5574
2026-01-08 22:33:21.36	78.54	28.61	-41.7	-45.5	12.4	2.16e-04	0	56	0	523239424	55	5410
2026-01-08 22:33:22.37	78.86	28.66	-41.8	-45.6	12.3	1.80e-04	0	56	0	524288000	55	5473
2026-01-08 22:33:23.38	79.18	28.70	-41.7	-45.5	12.3	2.26e-04	0	56	0	526385152	55	5433
2026-01-08 22:33:24.39	79.51	28.74	-41.7	-45.5	12.3	2.02e-04	0	56	0	528482304	55	5415
2026-01-08 22:33:25.40	79.83	28.78	-41.8	-45.6	12.2	2.24e-04	0	56	0	530579456	55	5504
2026-01-08 22:33:26.41	80.16	28.82	-41.9	-45.8	12.0	2.71e-04	0	56	0	532676608	55	5647
2026-01-08 22:33:27.42	80.49	28.86	-42.1	-46.2	11.6	4.94e-04	0	56	0	533725184	55	5889
2026-01-08 22:33:28.43	80.81	28.90	-42.1	-46.4	11.5	7.77e-04	0	56	0	535822336	55	6000
2026-01-08 22:33:29.44	81.14	28.93	-42.2	-46.4	11.4	9.08e-04	0	56	0	537919488	55	6030
2026-01-08 22:33:30.44	81.47	28.97	-42.1	-46.2	11.5	8.99e-04	0	56	0	540016640	55	5921
2026-01-08 22:33:31.45	81.80	29.00	-42.1	-46.3	11.4	1.04e-03	0	56	0	542113792	55	5981
2026-01-08 22:33:32.46	82.13	29.04	-42.1	-46.1	11.7	5.55e-04	0	56	0	543162368	55	5851
2026-01-08 22:33:33.47	82.46	29.07	-42.0	-46.1	11.7	5.77e-04	0	56	0	545259520	55	5798
2026-01-08 22:33:34.48	82.79	29.10	-41.9	-45.7	12.1	4.19e-04	0	56	0	547356672	55	5591
2026-01-08 22:33:35.49	83.12	29.13	-41.9	-45.8	12.1	2.83e-04	0	56	0	549453824	55	5619
2026-01-08 22:33:36.50	83.46	29.16	-41.8	-45.6	12.2	2.24e-04	0	56	0	551550976	55	5506
2026-01-08 22:33:37.51	83.79	29.19	-41.7	-45.4	12.4	1.81e-04	0	57	0	553648128	55	5399
2026-01-08 22:33:38.52	84.12	29.22	-41.8	-45.5	12.4	1.42e-04	0	56	0	554696704	55	5431
2026-01-08 22:33:39.53	84.46	29.25	-41.8	-45.5	12.4	1.77e-04	0	56	0	556793856	55	5446
2026-01-08 22:33:40.54	84.79	29.27	-41.6	-45.3	12.6	1.46e-04	0	56	0	558891008	55	5309
2026-01-08 22:33:41.55	85.13	29.30	-41.7	-45.3	12.5	8.62e-05	0	56	0	560988160	55	5316
2026-01-08 22:33:42.56	85.47	29.32	-41.6	-45.2	12.7	8.62e-05	0	57	0	563085312	55	5223
2026-01-08 22:33:43.57	85.80	29.35	-41.6	-45.2	12.7	9.23e-05	0	56	0	564133888	55	5264
2026-01-08 22:33:44.58	86.14	29.37	-41.7	-45.4	12.5	9.07e-05	0	56	0	566231040	55	5345
2026-01-08 22:33:45.59	86.48	29.39	-41.7	-45.5	12.4	1.17e-04	0	56	0	568328192	55	5403
2026-01-08 22:33:46.59	86.81	29.41	-41.6	-45.2	12.8	8.08e-05	0	57	0	570425344	55	5223
2026-01-08 22:33:47.60	87.15	29.43	-41.4	-44.8	13.1	5.26e-05	0	56	0	572522496	54	5307
2026-01-08 22:33:48.61	87.49	29.44	-41.3	-44.6	13.4	2.13e-05	0	57	0	573571072	54	5169
2026-01-08 22:33:49.62	87.83	29.46	-41.2	-44.4	13.5	6.80e-06	0	56	0	575668224	54	5097
2026-01-08 22:33:50.63	88.17	29.48	-41.3	-44.6	13.3	1.22e-05	0	57	0	577765376	54	5212
2026-01-08 22:33:51.64	88.51	29.49	-41.6	-45.1	12.8	5.56e-05	0	56	0	579862528	54	5493
2026-01-08 22:33:52.65	88.85	29.50	-41.8	-45.6	12.3	1.30e-04	0	57	0	581959680	54	5825
2026-01-08 22:33:53.66	89.19	29.52	-42.0	-45.9	12.0	2.69e-04	0	57	0	583008256	54	6054
2026-01-08 22:33:54.67	89.53	29.53	-41.9	-45.7	12.2	3.00e-04	0	56	0	585105408	54	5892
2026-01-08 22:33:55.68	89.87	29.54	-41.6	-45.2	12.7	1.27e-04	0	56	0	587202560	54	5566
2026-01-08 22:33:56.69	90.21	29.55	-41.4	-44.9	13.0	5.26e-05	0	56	0	589299712	54	5363
2026-01-08 22:33:57.70	90.56	29.55	-41.2	-44.5	13.5	1.52e-05	0	56	0	591396864	54	5114
2026-01-08 22:33:58.71	90.90	29.56	-41.1	-44.2	13.7	7.60e-06	0	56	0	592445440	54	4955
2026-01-08 22:33:59.72	91.24	29.57	-40.9	-44.0	13.9	3.00e-06	0	57	0	594542592	53	5143
2026-01-08 22:34:00.73	91.58	29.57	-41.0	-44.1	13.8	3.80e-06	0	57	0	596639744	53	5185
2026-01-08 22:34:01.74	91.92	29.57	-41.1	-44.3	13.6	9.10e-06	0	56	0	598736896	53	5298
2026-01-08 22:34:02.74	92.26	29.58	-41.3	-44.6	13.3	8.30e-06	0	57	0	600834048	53	5489
2026-01-08 22:34:03.75	92.60	29.58	-41.4	-44.8	13.1	1.83e-05	0	56	0	601882624	53	5650
2026-01-08 22:34:04.76	92.95	29.58	-41.5	-45.1	12.8	4.88e-05	0	57	0	603979776	53	5790
2026-01-08 22:34:05.77	93.29	29.58	-41.5	-44.9	12.9	3.89e-05	0	57	0	606076928	53	5716
2026-01-08 22:34:06.78	93.63	29.58	-41.4	-44.9	13.0	4.73e-05	0	56	0	608174080	53	5683
2026-01-08 22:34:07.79	93.97	29.57	-41.3	-44.6	13.2	3.05e-05	0	57	0	610271232	53	5524
2026-01-08 22:34:08.80	94.31	29.57	-41.1	-44.3	13.6	1.22e-05	0	57	0	611319808	53	5324
2026-01-08 22:34:09.81	94.66	29.56	-41.1	-44.3	13.6	6.10e-06	0	57	0	613416960	53	5285
2026-01-08 22:34:10.82	95.00	29.56	-41.0	-44.2	13.7	6.80e-06	0	56	0	615514112	53	5255
2026-01-08 22:34:11.83	95.34	29.55	-41.1	-44.4	13.5	6.10e-06	0	57	0	617611264	53	5341
2026-01-08 22:34:12.84	95.68	29.54	-41.4	-44.8	13.2	1.44e-05	0	57	0	619708416	53	5608
2026-01-08 22:34:13.85	96.02	29.53	-41.7	-45.3	12.6	5.49e-05	0	57	0	620756992	53	5987
2026-01-08 22:34:14.86	96.36	29.52	-41.9	-45.8	12.0	2.53e-04	0	57	0	622854144	54	5981
2026-01-08 22:34:15.87	96.70	29.51	-42.1	-46.3	11.6	5.52e-04	0	56	0	624951296	54	6295
2026-01-08 22:34:16.88	97.04	29.50	-42.1	-46.2	11.7	7.01e-04	0	56	0	627048448	54	6251
2026-01-08 22:34:17.89	97.38	29.48	-41.9	-45.8	12.1	3.94e-04	0	57	0	629145600	54	5932
2026-01-08 22:34:18.90	97.72	29.47	-41.7	-45.3	12.6	1.40e-04	0	57	0	630194176	54	5649
2026-01-08 22:34:19.91	98.06	29.45	-41.5	-45.0	13.0	6.86e-05	0	56	0	632291328	54	5405
2026-01-08 22:34:20.92	98.40	29.43	-41.3	-44.7	13.2	2.44e-05	0	57	0	634388480	54	5245
2026-01-08 22:34:21.93	98.74	29.41	-41.5	-44.9	13.0	2.05e-05	0	57	0	636485632	54	5388
2026-01-08 22:34:22.94	99.08	29.40	-41.6	-45.2	12.7	5.95e-05	0	57	0	638582784	54	5543
2026-01-08 22:34:23.95	99.42	29.38	-41.9	-45.7	12.1	9.38e-05	0	57	0	639631360	54	5916
2026-01-08 22:34:24.95	99.75	29.35	-42.2	-46.5	11.3	6.29e-04	0	57	0	641728512	55	6089
2026-01-08 22:34:25.96	100.09	29.33	-42.4	-46.8	11.0	1.60e-03	0	57	0	643825664	55	6326
2026-01-08 22:34:26.97	100.43	29.31	-42.3	-46.7	11.1	2.08e-03	0	57	0	645922816	55	6264
2026-01-08 22:34:27.98	100.77	29.28	-42.1	-46.1	11.7	9.18e-04	0	57	0	648019968	55	5839
2026-01-08 22:34:28.99	101.10	29.26	-41.9	-45.8	12.1	4.07e-04	0	56	0	650117120	55	5609
2026-01-08 22:34:30.00	101.44	29.23	-41.8	-45.6	12.3	1.99e-04	0	57	0	651165696	55	5524
2026-01-08 22:34:31.01	101.77	29.20	-41.9	-45.9	12.0	3.26e-04	0	57	0	653262848	55	5673
2026-01-08 22:34:32.02	102.11	29.18	-42.0	-46.1	11.8	3.87e-04	0	56	0	655360000	55	5790
2026-01-08 22:34:33.03	102.44	29.15	-42.0	-46.0	11.8	5.29e-04	0	57	0	657457152	55	5742
2026-01-08 22:34:34.04	102.77	29.11	-41.8	-45.7	12.3	2.65e-04	0	56	0	659554304	55	5530
2026-01-08 22:34:35.05	103.11	29.08	-41.7	-45.4	12.5	1.31e-04	0	57	0	660602880	55	5349
2026-01-08 22:34:36.06	103.44	29.05	-41.5	-45.0	12.9	7.62e-05	0	57	0	662700032	55	5152
2026-01-08 22:34:37.07	103.77	29.02	-41.7	-45.4	12.5	8.31e-05	0	56	0	664797184	55	5355
2026-01-08 22:34:38.08	104.10	28.98	-41.8	-45.7	12.2	1.51e-04	0	56	0	666894336	55	5565
2026-01-08 22:34:39.09	104.43	28.95	-42.0	-46.1	11.8	3.53e-04	0	57	0	668991488	55	5799
2026-01-08 22:34:40.10	104.76	28.91	-42.2	-46.4	11.4	7.39e-04	0	57	0	670040064	55	6058
2026-01-08 22:34:41.11	105.09	28.87	-42.0	-46.1	11.8	8.26e-04	0	57	0	672137216	55	5795
2026-01-08 22:34:42.12	105.41	28.83	-41.9	-45.7	12.2	3.27e-04	0	57	0	674234368	55	5559
2026-01-08 22:34:43.13	105.74	28.79	-41.6	-45.2	12.7	1.68e-04	0	56	0	676331520	55	5225
2026-01-08 22:34:44.13	106.06	28.75	-41.4	-44.7	13.2	2.82e-05	0	57	0	678428672	54	5260
2026-01-08 22:34:45.14	106.39	28.71	-41.3	-44.6	13.3	2.44e-05	0	57	0	679477248	54	5182
2026-01-08 22:34:46.15	106.71	28.67	-41.2	-44.4	13.5	1.14e-05	0	57	0	681574400	54	5093
2026-01-08 22:34:47.16	107.04	28.63	-41.1	-44.3	13.6	3.80e-06	0	57	0	683671552	54	5030
2026-01-08 22:34:48.17	107.36	28.58	-41.0	-44.1	13.8	6.10e-06	0	57	0	685768704	54	4887
2026-01-08 22:34:49.18	107.68	28.54	-40.9	-44.1	13.9	3.00e-06	0	57	0	687865856	53	5160
2026-01-08 22:34:50.19	108.00	28.49	-40.9	-44.0	13.9	3.00e-06	0	57	0	688914432	53	5112
2026-01-08 22:34:51.20	108.32	28.45	-41.0	-44.1	13.8	3.00e-06	0	57	0	691011584	53	5188
2026-01-08 22:34:52.21	108.64	28.40	-41.1	-44.2	13.7	3.00e-06	0	56	0	693108736	53	5271
2026-01-08 22:34:53.22	108.96	28.35	-41.2	-44.4	13.5	7.60e-06	0	57	0	695205888	53	5375
2026-01-08 22:34:54.23	109.28	28.30	-41.3	-44.6	13.3	1.22e-05	0	57	0	697303040	53	5486
2026-01-08 22:34:55.24	109.59	28.25	-41.3	-44.7	13.2	1.44e-05	0	57	0	698351616	53	5543
2026-01-08 22:34:56.25	109.91	28.20	-41.3	-44.6	13.3	1.60e-05	0	57	0	700448768	53	5487
2026-01-08 22:34:57.26	110.22	28.15	-41.0	-44.1	13.8	6.80e-06	0	57	0	702545920	53	5186
2026-01-08 22:34:58.27	110.54	28.10	-40.8	-43.8	14.1	3.00e-06	0	57	0	704643072	53	5013
2026-01-08 22:34:59.28	110.85	28.04	-40.6	-43.5	14.3	1.50e-06	0	57	0	706740224	53	4868
2026-01-08 22:35:00.29	111.16	27.99	-40.5	-43.3	14.6	7.00e-07	0	57	0	707788800	53	4732
2026-01-08 22:35:01.29	111.47	27.93	-40.4	-43.2	14.7	7.00e-07	0	57	0	709885952	52	4965
2026-01-08 22:35:02.30	111.78	27.88	-40.4	-43.1	14.8	0.00e+00	0	57	0	711983104	52	4907
2026-01-08 22:35:03.31	112.09	27.82	-40.4	-43.2	14.8	0.00e+00	0	57	0	714080256	52	4942
2026-01-08 22:35:04.32	112.39	27.77	-40.5	-43.3	14.6	7.00e-07	0	57	0	716177408	52	5022
2026-01-08 22:35:05.33	112.70	27.71	-40.8	-43.8	14.1	7.00e-07	0	57	0	718274560	52	5309
2026-01-08 22:35:06.34	113.00	27.65	-41.0	-44.2	13.7	7.60e-06	0	57	0	719323136	52	5566
2026-01-08 22:35:07.35	113.31	27.59	-41.2	-44.5	13.4	6.80e-06	0	57	0	721420288	52	5743
2026-01-08 22:35:08.36	113.61	27.53	-41.2	-44.5	13.4	9.90e-06	0	57	0	723517440	53	5424
2026-01-08 22:35:09.37	113.91	27.47	-41.2	-44.5	13.4	1.90e-05	0	57	0	725614592	53	5434
2026-01-08 22:35:10.38	114.21	27.41	-41.3	-44.7	13.2	1.83e-05	0	57	0	727711744	53	5536
2026-01-08 22:35:11.39	114.51	27.34	-41.4	-44.8	13.1	2.67e-05	0	57	0	728760320	53	5618
2026-01-08 22:35:12.40	114.81	27.28	-41.3	-44.7	13.2	2.13e-05	0	57	0	730857472	53	5563
2026-01-08 22:35:13.41	115.11	27.22	-41.2	-44.5	13.4	1.29e-05	0	57	0	732954624	53	5420
2026-01-08 22:35:14.42	115.40	27.15	-41.0	-44.2	13.7	9.10e-06	0	56	0	735051776	53	5233
2026-01-08 22:35:15.43	115.70	27.09	-40.8	-43.9	13.9	4.50e-06	0	57	0	737148928	53	5069
2026-01-08 22:35:16.45	115.99	27.02	-40.8	-43.7	14.2	7.00e-07	0	57	0	738197504	53	4975
2026-01-08 22:35:17.45	116.28	26.96	-40.7	-43.7	14.2	0.00e+00	0	57	0	740294656	53	4933
2026-01-08 22:35:18.46	116.57	26.89	-40.7	-43.6	14.2	0.00e+00	0	57	0	742391808	53	4924
2026-01-08 22:35:19.47	116.86	26.82	-40.9	-44.0	13.9	7.00e-07	0	57	0	744488960	53	5106
2026-01-08 22:35:20.48	117.15	26.75	-41.1	-44.3	13.6	2.20e-06	0	57	0	746586112	53	5294
2026-01-08 22:35:21.49	117.44	26.68	-41.2	-44.5	13.4	1.29e-05	0	57	0	747634688	53	5407
2026-01-08 22:35:22.50	117.73	26.62	-41.2	-44.5	13.3	1.52e-05	0	57	0	749731840	53	5453
2026-01-08 22:35:23.51	118.01	26.55	-41.3	-44.7	13.2	2.21e-05	0	57	0	751828992	53	5556
2026-01-08 22:35:24.52	118.30	26.48	-41.3	-44.6	13.2	2.21e-05	0	57	0	753926144	53	5516
2026-01-08 22:35:25.53	118.58	26.40	-41.2	-44.6	13.3	2.36e-05	0	57	0	756023296	53	5484
2026-01-08 22:35:26.54	118.86	26.33	-41.2	-44.6	13.3	1.52e-05	0	57	0	757071872	53	5488
2026-01-08 22:35:27.55	119.14	26.26	-41.2	-44.6	13.3	1.37e-05	0	57	0	759169024	53	5494
2026-01-08 22:35:28.56	119.42	26.19	-41.1	-44.3	13.6	9.90e-06	0	57	0	761266176	53	5306
2026-01-08 22:35:29.57	119.70	26.12	-40.9	-44.0	13.8	2.20e-06	0	57	0	763363328	53	5145
2026-01-08 22:35:30.58	119.97	26.04	-40.9	-44.0	13.9	7.00e-07	0	57	0	765460480	53	5139
2026-01-08 22:35:31.58	120.25	25.97	-40.8	-43.8	14.1	3.80e-06	0	57	0	766509056	53	5006
2026-01-08 22:35:32.60	120.52	25.89	-40.8	-43.8	14.1	4.50e-06	0	57	0	768606208	53	4990
2026-01-08 22:35:33.61	120.80	25.82	-40.7	-43.6	14.2	2.20e-06	0	57	0	770703360	53	4910
2026-01-08 22:35:34.61	121.06	25.74	-40.5	-43.4	14.5	7.00e-07	0	57	0	772800512	53	4768
2026-01-08 22:35:35.62	121.33	25.67	-40.4	-43.1	14.8	7.00e-07	0	57	0	774897664	52	4888
2026-01-08 22:35:36.63	121.60	25.59	-40.2	-42.9	15.0	0.00e+00	0	57	0	775946240	52	4782
2026-01-08 22:35:37.64	121.87	25.51	-40.2	-42.8	15.1	0.00e+00	0	57	0	778043392	52	4738
2026-01-08 22:35:38.65	122.14	25.44	-40.2	-42.8	15.0	0.00e+00	0	57	0	780140544	52	4759
2026-01-08 22:35:39.66	122.40	25.36	-40.4	-43.3	14.6	0.00e+00	0	57	0	782237696	52	4986
2026-01-08 22:35:40.67	122.67	25.28	-40.6	-43.5	14.3	7.00e-07	0	57	0	784334848	52	5142
2026-01-08 22:35:41.68	122.93	25.20	-40.7	-43.6	14.2	7.00e-07	0	57	0	786432000	52	5213
2026-01-08 22:35:42.69	123.19	25.12	-40.5	-43.4	14.4	0.00e+00	0	57	0	787480576	52	5079
2026-01-08 22:35:43.70	123.45	25.05	-40.4	-43.1	14.7	0.00e+00	0	57	0	789577728	52	4923
2026-01-08 22:35:44.71	123.71	24.97	-40.3	-43.1	14.7	7.00e-07	0	57	0	791674880	52	4903
2026-01-08 22:35:45.72	123.97	24.89	-40.4	-43.2	14.6	0.00e+00	0	57	0	793772032	52	4958
2026-01-08 22:35:46.73	124.22	24.81	-40.5	-43.4	14.4	0.00e+00	0	57	0	795869184	52	5055
2026-01-08 22:35:47.74	124.48	24.73	-40.6	-43.5	14.4	7.00e-07	0	57	0	796917760	52	5111
2026-01-08 22:35:48.75	124.73	24.64	-40.5	-43.4	14.4	0.00e+00	0	57	0	799014912	52	5067
2026-01-08 22:35:49.76	124.98	24.56	-40.3	-43.0	14.8	7.00e-07	0	57	0	801112064	52	4859
2026-01-08 22:35:50.77	125.24	24.48	-40.1	-42.8	15.0	7.00e-07	0	57	0	803209216	52	4738
2026-01-08 22:35:51.78	125.48	24.40	-40.2	-42.9	14.9	0.00e+00	0	57	0	805306368	52	4812
2026-01-08 22:35:52.79	125.73	24.32	-40.3	-43.0	14.8	0.00e+00	0	57	0	806354944	52	4860
2026-01-08 22:35:53.80	125.98	24.24	-40.5	-43.4	14.4	1.50e-06	0	57	0	808452096	52	5097
2026-01-08 22:35:54.81	126.23	24.15	-40.7	-43.7	14.0	3.80e-06	0	57	0	810549248	52	5254
2026-01-08 22:35:55.82	126.47	24.07	-40.8	-43.8	14.0	4.50e-06	0	57	0	812646400	52	5335
2026-01-08 22:35:56.83	126.72	23.99	-40.6	-43.6	14.2	2.20e-06	0	57	0	814743552	52	5176
2026-01-08 22:35:57.84	126.96	23.90	-40.5	-43.3	14.5	0.00e+00	0	57	0	815792128	52	5039
2026-01-08 22:35:58.85	127.20	23.82	-40.3	-43.1	14.7	3.35e-05	0	57	0	817889280	52	4885
2026-01-08 22:35:59.85	127.44	23.74	-40.3	-43.0	14.8	7.60e-06	0	57	0	819986432	52	4870
2026-01-08 22:36:00.86	127.67	23.65	-40.7	-43.7	14.1	2.51e-05	0	57	0	822083584	52	5236
2026-01-08 22:36:01.87	127.91	23.57	-41.1	-44.4	13.5	5.64e-05	0	57	0	824180736	52	5670
2026-01-08 22:36:02.88	128.15	23.48	-41.3	-44.8	12.9	3.35e-05	0	57	0	825229312	53	5619
2026-01-08 22:36:03.89	128.38	23.40	-41.4	-45.0	12.7	6.40e-05	0	57	0	827326464	53	5782
2026-01-08 22:36:04.90	128.62	23.31	-41.3	-44.7	13.0	1.08e-04	0	57	0	829423616	53	5545
2026-01-08 22:36:05.91	128.85	23.23	-41.0	-44.4	13.3	2.59e-05	0	57	0	831520768	53	5381
2026-01-08 22:36:06.92	129.08	23.14	-41.0	-44.2	13.6	6.10e-05	0	57	0	833617920	53	5252
2026-01-08 22:36:07.93	129.31	23.05	-40.9	-44.0	13.7	6.10e-06	0	57	0	834666496	53	5136
2026-01-08 22:36:08.94	129.54	22.97	-41.1	-44.4	13.3	2.21e-04	0	57	0	836763648	53	5369
2026-01-08 22:36:09.95	129.76	22.88	-41.3	-44.8	12.9	5.59e-03	0	57	0	838860800	53	5617
2026-01-08 22:36:10.95	129.99	22.80	-41.3	-45.0	12.4	3.19e-03	0	57	0	840957952	53	5759
2026-01-08 22:36:11.96	130.21	22.71	-40.4	-44.5	13.0	1.41e-03	0	57	0	843055104	52	5755
2026-01-08 22:36:12.97	130.44	22.62	-40.7	-43.8	14.0	3.93e-03	0	57	0	844103680	52	5284
2026-01-08 22:36:13.98	130.66	22.54	-40.3	-43.4	14.3	1.50e-06	0	57	0	846200832	52	5077
2026-01-08 22:36:14.99	130.88	22.45	-40.4	-43.3	14.5	1.50e-06	0	57	0	848297984	52	5000
2026-01-08 22:36:16.00	131.10	22.36	-40.5	-43.4	14.5	2.06e-04	0	57	0	850395136	51	5344
2026-01-08 22:36:17.01	131.32	22.28	-40.7	-43.7	14.1	7.00e-07	0	57	0	852492288	52	5223
2026-01-08 22:36:18.02	131.54	22.19	-41.1	-44.3	13.4	1.06e-05	0	57	0	854589440	52	5654
2026-01-08 22:36:19.03	131.75	22.10	-41.3	-44.7	13.1	4.65e-05	0	57	0	855638016	53	5546
2026-01-08 22:36:20.04	131.97	22.01	-41.2	-44.6	13.1	3.58e-05	0	57	0	857735168	53	5481
2026-01-08 22:36:21.05	132.18	21.93	-41.0	-44.2	13.6	6.33e-05	0	57	0	859832320	53	5224
2026-01-08 22:36:22.06	132.40	21.84	-40.7	-43.7	14.0	4.50e-06	0	57	0	861929472	53	4957
2026-01-08 22:36:23.07	132.61	21.75	-40.6	-43.6	14.1	3.80e-06	0	57	0	864026624	52	5214
2026-01-08 22:36:24.08	132.82	21.66	-40.7	-43.7	14.1	2.20e-06	0	57	0	865075200	52	5236
2026-01-08 22:36:25.09	133.03	21.58	-40.8	-44.0	13.7	3.80e-06	0	57	0	867172352	52	5438
2026-01-08 22:36:26.10	133.24	21.49	-41.1	-44.5	13.2	5.18e-05	0	57	0	869269504	52	5771
2026-01-08 22:36:27.11	133.44	21.40	-41.3	-44.8	12.8	4.04e-05	0	57	0	871366656	53	5648
2026-01-08 22:36:28.11	133.65	21.31	-41.3	-44.8	12.9	4.80e-05	0	57	0	873463808	53	5606
2026-01-08 22:36:29.12	133.85	21.22	-41.0	-44.3	13.3	2.89e-05	0	57	0	874512384	53	5296
2026-01-08 22:36:30.13	134.06	21.14	-40.7	-43.8	13.9	9.90e-06	0	57	0	876609536	53	5019
2026-01-08 22:36:31.14	134.26	21.05	-40.4	-43.3	14.4	7.00e-07	0	57	0	878706688	52	5020
2026-01-08 22:36:32.15	134.46	20.96	-40.3	-43.1	14.6	7.00e-07	0	57	0	880803840	52	4913
2026-01-08 22:36:33.16	134.66	20.87	-40.3	-43.0	14.7	7.00e-07	0	57	0	882900992	52	4850
2026-01-08 22:36:34.17	134.86	20.78	-40.3	-43.1	14.6	7.00e-07	0	57	0	883949568	52	4915
2026-01-08 22:36:35.18	135.06	20.69	-40.3	-43.2	14.5	7.00e-07	0	57	0	886046720	52	4953
2026-01-08 22:36:36.19	135.25	20.60	-40.4	-43.3	14.4	0.00e+00	0	57	0	888143872	52	5035
2026-01-08 22:36:37.20	135.45	20.52	-40.4	-43.3	14.5	2.20e-06	0	57	0	890241024	52	4984
2026-01-08 22:36:38.20	135.64	20.43	-40.2	-43.0	14.7	0.00e+00	0	57	0	892338176	52	4824
2026-01-08 22:36:39.21	135.84	20.34	-40.1	-42.8	14.9	7.00e-07	0	57	0	893386752	52	4739
2026-01-08 22:36:40.22	136.03	20.25	-40.0	-42.7	15.0	3.00e-06	0	57	0	895483904	52	4662
2026-01-08 22:36:41.23	136.22	20.16	-40.1	-42.8	14.9	0.00e+00	0	57	0	897581056	52	4723
2026-01-08 22:36:42.25	136.41	20.07	-40.2	-42.9	14.8	1.50e-06	0	57	0	899678208	52	4807
2026-01-08 22:36:43.26	136.60	19.98	-40.3	-43.2	14.5	7.00e-07	0	57	0	901775360	52	4950
2026-01-08 22:36:44.26	136.79	19.90	-40.4	-43.3	14.4	1.50e-06	0	57	0	902823936	52	5032
2026-01-08 22:36:45.28	136.98	19.81	-40.5	-43.4	14.3	1.50e-06	0	57	0	904921088	52	5064
2026-01-08 22:36:46.29	137.16	19.72	-40.4	-43.3	14.4	7.00e-07	0	57	0	907018240	52	5029
2026-01-08 22:36:47.30	137.35	19.63	-40.3	-43.1	14.6	0.00e+00	0	57	0	909115392	52	4897
2026-01-08 22:36:48.31	137.53	19.54	-40.2	-43.1	14.6	0.00e+00	0	57	0	911212544	52	4881
2026-01-08 22:36:49.31	137.71	19.45	-40.2	-43.0	14.7	7.00e-07	0	57	0	912261120	52	4827
2026-01-08 22:36:50.32	137.90	19.37	-40.2	-42.9	14.8	2.20e-06	0	57	0	914358272	52	4786
2026-01-08 22:36:51.33	138.08	19.28	-40.1	-42.8	14.9	0.00e+00	0	57	0	916455424	52	4716
2026-01-08 22:36:52.34	138.26	19.19	-40.1	-42.7	15.0	0.00e+00	0	57	0	918552576	51	4964
2026-01-08 22:36:53.35	138.44	19.10	-39.9	-42.5	15.3	0.00e+00	0	57	0	920649728	51	4832
2026-01-08 22:36:54.36	138.61	19.01	-39.9	-42.4	15.3	7.00e-07	0	57	0	922746880	51	4809
2026-01-08 22:36:55.37	138.79	18.92	-39.8	-42.4	15.4	0.00e+00	0	57	0	923795456	51	4778
2026-01-08 22:36:56.38	138.97	18.84	-39.7	-42.2	15.6	0.00e+00	0	57	0	925892608	51	4678
2026-01-08 22:36:57.39	139.14	18.75	-39.6	-42.0	15.8	0.00e+00	0	57	0	927989760	51	4550
2026-01-08 22:36:58.40	139.32	18.66	-39.5	-41.9	15.9	0.00e+00	0	57	0	930086912	50	4773
2026-01-08 22:36:59.41	139.49	18.57	-39.5	-41.8	15.9	0.00e+00	0	57	0	932184064	50	4740
2026-01-08 22:37:00.42	139.66	18.48	-39.5	-41.9	15.9	0.00e+00	0	57	0	933232640	50	4770
2026-01-08 22:37:01.43	139.83	18.40	-39.6	-42.0	15.7	0.00e+00	0	57	0	935329792	50	4865
2026-01-08 22:37:02.43	140.00	18.31	-39.6	-42.1	15.6	0.00e+00	0	57	0	937426944	50	4901
2026-01-08 22:37:03.44	140.17	18.22	-39.8	-42.3	15.3	4.50e-06	0	57	0	939524096	50	5014
2026-01-08 22:37:04.45	140.34	18.13	-39.9	-42.5	15.2	1.50e-06	0	57	0	941621248	50	5115
2026-01-08 22:37:05.46	140.51	18.05	-39.8	-42.5	15.2	1.83e-05	0	57	0	942669824	50	5140
2026-01-08 22:37:06.47	140.67	17.96	-40.0	-42.7	15.0	0.00e+00	0	57	0	944766976	50	5220
2026-01-08 22:37:07.48	140.84	17.87	-40.1	-42.8	14.9	0.00e+00	0	57	0	946864128	50	5299
2026-01-08 22:37:08.49	141.00	17.78	-40.2	-42.9	14.8	0.00e+00	0	57	0	948961280	50	5356
2026-01-08 22:37:09.50	141.17	17.70	-40.1	-42.8	14.9	7.00e-07	0	57	0	951058432	50	5327
2026-01-08 22:37:10.51	141.33	17.61	-40.1	-42.9	14.8	0.00e+00	0	57	0	952107008	50	5360
2026-01-08 22:37:11.52	141.49	17.52	-40.0	-42.7	15.0	0.00e+00	0	57	0	954204160	50	5250
2026-01-08 22:37:12.52	141.65	17.44	-39.9	-42.6	15.1	0.00e+00	0	57	0	956301312	50	5163
2026-01-08 22:37:13.52	141.81	17.35	-39.8	-42.4	15.3	0.00e+00	0	57	0	958398464	50	5090
2026-01-08 22:37:14.53	141.97	17.26	-39.8	-42.3	15.3	0.00e+00	0	57	0	960495616	50	5034
2026-01-08 22:37:15.54	142.13	17.18	-39.8	-42.3	15.3	0.00e+00	0	57	0	961544192	50	5030
2026-01-08 22:37:16.55	142.28	17.09	-39.8	-42.4	15.3	0.00e+00	0	57	0	963641344	50	5065
2026-01-08 22:37:17.56	142.44	17.00	-39.8	-42.3	15.3	0.00e+00	0	57	0	965738496	50	5041
2026-01-08 22:37:18.57	142.60	16.92	-39.9	-42.4	15.2	0.00e+00	0	57	0	967835648	50	5097
2026-01-08 22:37:19.58	142.75	16.83	-39.9	-42.5	15.1	7.00e-07	0	57	0	969932800	50	5146
2026-01-08 22:37:20.59	142.90	16.74	-40.1	-42.8	14.9	0.00e+00	0	57	0	970981376	50	5318
2026-01-08 22:37:21.60	143.06	16.66	-40.1	-42.8	14.8	0.00e+00	0	57	0	973078528	50	5324
2026-01-08 22:37:22.61	143.21	16.57	-40.1	-42.8	14.9	0.00e+00	0	57	0	975175680	50	5301
2026-01-08 22:37:23.62	143.36	16.49	-40.1	-42.9	14.8	0.00e+00	0	57	0	977272832	50	5362
2026-01-08 22:37:24.63	143.51	16.40	-40.1	-42.9	14.8	0.00e+00	0	57	0	979369984	50	5347
2026-01-08 22:37:25.64	143.66	16.32	-40.1	-42.9	14.8	0.00e+00	0	57	0	980418560	50	5373
2026-01-08 22:37:26.65	143.81	16.23	-40.2	-43.0	14.7	7.00e-07	0	57	0	982515712	51	5116
2026-01-08 22:37:27.66	143.96	16.14	-40.2	-43.1	14.5	7.00e-07	0	57	0	984612864	51	5171
2026-01-08 22:37:28.66	144.10	16.06	-40.4	-43.3	14.4	1.50e-06	0	57	0	986710016	51	5292
2026-01-08 22:37:29.67	144.25	15.98	-40.5	-43.5	14.1	1.29e-05	0	57	0	988807168	51	5448
2026-01-08 22:37:30.68	144.40	15.89	-40.5	-43.5	14.1	7.00e-07	0	57	0	989855744	51	5441
2026-01-08 22:37:31.69	144.54	15.81	-40.7	-43.8	13.8	1.50e-06	0	57	0	991952896	51	5625
2026-01-08 22:37:32.70	144.68	15.72	-40.7	-43.9	13.6	7.60e-06	0	57	0	994050048	52	5363
2026-01-08 22:37:33.71	144.83	15.64	-40.6	-43.8	13.7	8.30e-06	0	57	0	996147200	52	5304
2026-01-08 22:37:34.72	144.97	15.55	-40.6	-43.7	13.8	5.30e-06	0	57	0	998244352	52	5238
2026-01-08 22:37:35.73	145.11	15.47	-40.4	-43.5	14.0	5.30e-06	0	57	0	999292928	52	5120
2026-01-08 22:37:36.74	145.25	15.38	-40.6	-43.7	13.8	1.50e-06	0	57	0	1001390080	52	5264
2026-01-08 22:37:37.75	145.39	15.30	-40.5	-43.5	13.9	4.50e-06	0	57	0	1003487232	52	5156
2026-01-08 22:37:38.76	145.53	15.21	-40.5	-43.6	13.9	0.00e+00	0	57	0	1005584384	52	5173
2026-01-08 22:37:39.77	145.67	15.13	-40.6	-43.7	13.8	7.60e-06	0	57	0	1007681536	52	5268
2026-01-08 22:37:40.78	145.81	15.05	-40.6	-43.8	13.6	4.50e-06	0	57	0	1008730112	52	5327
2026-01-08 22:37:41.79	145.95	14.96	-40.7	-43.9	13.5	3.28e-05	0	57	0	1010827264	52	5390
2026-01-08 22:37:42.80	146.08	14.88	-40.7	-44.1	13.4	1.90e-05	0	57	0	1012924416	52	5476
2026-01-08 22:37:43.81	146.22	14.80	-40.9	-44.2	13.2	1.06e-05	0	57	0	1015021568	52	5586
2026-01-08 22:37:44.82	146.35	14.71	-40.8	-44.4	13.0	5.11e-05	0	57	0	1017118720	52	5657
2026-01-08 22:37:45.82	146.48	14.63	-40.9	-44.4	13.0	7.24e-05	0	57	0	1019215872	52	5678
2026-01-08 22:37:46.84	146.62	14.55	-41.0	-44.5	13.0	5.72e-05	0	57	0	1020264448	52	5723
2026-01-08 22:37:47.84	146.75	14.47	-41.0	-44.6	12.8	7.55e-05	0	57	0	1022361600	52	5801
2026-01-08 22:37:48.85	146.88	14.38	-40.9	-44.4	13.0	3.66e-05	0	57	0	1024458752	52	5695
2026-01-08 22:37:49.86	147.01	14.30	-40.9	-44.4	13.0	4.73e-05	0	57	0	1026555904	52	5674
2026-01-08 22:37:50.87	147.14	14.22	-41.0	-44.6	12.8	4.42e-05	0	57	0	1028653056	52	5847
2026-01-08 22:37:51.88	147.27	14.14	-41.0	-44.4	12.9	5.49e-05	0	57	0	1029701632	52	5718
2026-01-08 22:37:52.89	147.40	14.05	-41.0	-44.5	12.9	4.04e-05	0	57	0	1031798784	52	5766
2026-01-08 22:37:53.90	147.53	13.97	-40.9	-44.3	13.1	4.42e-05	0	57	0	1033895936	52	5615
2026-01-08 22:37:54.91	147.66	13.89	-40.8	-44.1	13.3	2.05e-05	0	57	0	1035993088	52	5506
2026-01-08 22:37:55.92	147.79	13.81	-40.7	-43.9	13.5	2.21e-05	0	57	0	1038090240	52	5368
2026-01-08 22:37:56.93	147.91	13.73	-40.6	-43.8	13.6	5.30e-06	0	57	0	1039138816	52	5309
2026-01-08 22:37:57.94	148.04	13.65	-40.5	-43.7	13.7	1.14e-05	0	57	0	1041235968	52	5261
2026-01-08 22:37:58.95	148.16	13.56	-40.5	-43.6	13.7	1.37e-05	0	57	0	1043333120	52	5202
2026-01-08 22:37:59.96	148.29	13.48	-40.5	-43.7	13.6	1.90e-05	0	57	0	1045430272	52	5242
2026-01-08 22:38:00.97	148.41	13.40	-40.6	-43.9	13.4	3.43e-05	0	57	0	1047527424	52	5383
2026-01-08 22:38:01.98	148.54	13.32	-40.5	-43.7	13.6	1.29e-05	0	57	0	1048576000	52	5229
2026-01-08 22:38:02.99	148.66	13.24	-40.6	-43.9	13.5	1.14e-05	0	57	0	1050673152	52	5345
2026-01-08 22:38:04.00	148.78	13.16	-40.7	-44.0	13.3	1.60e-05	0	57	0	1052770304	52	5447
2026-01-08 22:38:05.00	148.90	13.08	-40.8	-44.2	13.1	2.82e-05	0	57	0	1054867456	52	5583
2026-01-08 22:38:06.01	149.02	13.00	-40.8	-44.3	12.9	4.73e-05	0	57	0	1056964608	52	5643
2026-01-08 22:38:07.02	149.14	12.92	-41.0	-44.7	12.5	1.15e-04	0	57	0	1058013184	52	5876
2026-01-08 22:38:08.03	149.26	12.84	-40.8	-44.3	12.9	5.10e-04	0	57	0	1060110336	52	5633
2026-01-08 22:38:09.04	149.38	12.76	-41.0	-44.7	12.5	5.96e-04	0	57	0	1062207488	52	5911
2026-01-08 22:38:10.05	149.50	12.68	-40.8	-44.4	12.8	9.25e-04	0	57	0	1064304640	52	5682
2026-01-08 22:38:11.06	149.62	12.60	-40.8	-44.4	12.8	3.07e-04	0	57	0	1066401792	52	5676
2026-01-08 22:38:12.07	149.73	12.52	-40.7	-44.1	13.1	8.46e-05	0	57	0	1067450368	52	5503
2026-01-08 22:38:13.08	149.85	12.44	-40.6	-43.9	13.4	2.05e-05	0	57	0	1069547520	52	5361
2026-01-08 22:38:14.09	149.96	12.37	-40.5	-43.8	13.5	9.10e-06	0	57	0	1071644672	52	5306
2026-01-08 22:38:15.09	150.08	12.29	-40.4	-43.5	13.8	4.50e-06	0	57	0	1073741824	52	5121
2026-01-08 22:38:16.10	150.19	12.21	-40.3	-43.4	14.0	2.20e-06	0	57	0	1075838976	52	5043
2026-01-08 22:38:17.11	150.31	12.13	-40.4	-43.6	13.7	3.80e-06	0	57	0	1076887552	52	5163
2026-01-08 22:38:18.12	150.42	12.05	-40.2	-43.3	14.0	2.20e-06	0	57	0	1078984704	52	5002
2026-01-08 22:38:19.13	150.53	11.97	-40.3	-43.4	13.9	3.00e-06	0	57	0	1081081856	52	5042
2026-01-08 22:38:20.14	150.64	11.90	-40.4	-43.6	13.7	6.10e-06	0	57	0	1083179008	52	5192
2026-01-08 22:38:21.15	150.76	11.82	-40.4	-43.6	13.5	9.90e-06	0	57	0	1085276160	52	5213
2026-01-08 22:38:22.16	150.87	11.74	-40.6	-43.8	13.4	9.90e-06	0	57	0	1087373312	52	5327
2026-01-08 22:38:23.17	150.98	11.66	-40.6	-43.9	13.4	7.60e-06	0	57	0	1088421888	52	5342
2026-01-08 22:38:24.18	151.09	11.59	-40.7	-44.1	13.1	3.12e-05	0	57	0	1090519040	52	5517
2026-01-08 22:38:25.19	151.20	11.51	-40.7	-44.1	13.1	3.35e-05	0	57	0	1092616192	52	5479
2026-01-08 22:38:26.20	151.31	11.43	-40.7	-44.2	13.0	1.90e-05	0	57	0	1094713344	52	5555
2026-01-08 22:38:27.21	151.41	11.35	-40.7	-44.1	13.1	3.35e-05	0	57	0	1096810496	52	5511
2026-01-08 22:38:28.22	151.52	11.28	-40.8	-44.2	13.0	4.04e-05	0	57	0	1097859072	52	5582
2026-01-08 22:38:29.22	151.63	11.20	-40.7	-44.1	13.1	4.04e-05	0	57	0	1099956224	52	5496
2026-01-08 22:38:30.24	151.74	11.12	-40.7	-44.1	13.1	2.74e-05	0	57	0	1102053376	52	5492
2026-01-08 22:38:31.24	151.84	11.05	-40.5	-43.8	13.3	2.13e-05	0	57	0	1104150528	52	5320
2026-01-08 22:38:32.25	151.95	10.97	-40.5	-43.7	13.5	1.06e-05	0	57	0	1106247680	52	5242
2026-01-08 22:38:33.26	152.05	10.90	-40.4	-43.5	13.7	7.60e-06	0	57	0	1107296256	52	5147
2026-01-08 22:38:34.27	152.16	10.82	-40.3	-43.4	13.8	4.50e-06	0	57	0	1109393408	52	5094
2026-01-08 22:38:35.28	152.26	10.75	-40.2	-43.3	13.8	4.50e-06	0	57	0	1111490560	52	5039
2026-01-08 22:38:36.29	152.36	10.67	-40.3	-43.5	13.6	7.60e-06	0	57	0	1113587712	52	5134
2026-01-08 22:38:37.30	152.47	10.59	-40.3	-43.5	13.6	4.50e-06	0	57	0	1115684864	52	5144
2026-01-08 22:38:38.31	152.57	10.52	-40.4	-43.6	13.5	9.90e-06	0	57	0	1116733440	52	5199
2026-01-08 22:38:39.32	152.67	10.44	-40.3	-43.5	13.7	9.10e-06	0	57	0	1118830592	52	5107
2026-01-08 22:38:40.33	152.77	10.37	-40.4	-43.7	13.4	5.30e-06	0	57	0	1120927744	52	5229
2026-01-08 22:38:41.34	152.87	10.29	-40.4	-43.7	13.3	1.60e-05	0	57	0	1123024896	52	5272
2026-01-08 22:38:42.34	152.97	10.22	-40.6	-44.0	13.1	2.44e-05	0	57	0	1125122048	52	5407
2026-01-08 22:38:43.35	153.07	10.15	-40.6	-44.0	13.1	2.59e-05	0	57	0	1126170624	52	5413
2026-01-08 22:38:44.36	153.17	10.07	-40.6	-44.0	13.1	2.67e-05	0	57	0	1128267776	52	5419
2026-01-08 22:38:45.37	153.27	10.00	-40.7	-44.2	12.8	6.86e-05	0	57	0	1130364928	52	5541
2026-01-08 22:38:46.38	153.37	9.92	-40.7	-44.2	12.9	6.17e-05	0	57	0	1132462080	52	5538
2026-01-08 22:38:47.39	153.47	9.85	-40.6	-44.1	12.8	5.49e-05	0	57	0	1134559232	52	5528
2026-01-08 22:38:48.40	153.56	9.78	-40.5	-43.9	13.1	3.58e-05	0	57	0	1135607808	52	5390
2026-01-08 22:38:49.41	153.66	9.70	-40.6	-44.1	12.8	6.02e-05	0	57	0	1137704960	52	5517
2026-01-08 22:38:50.42	153.76	9.63	-40.5	-43.9	13.0	5.87e-05	0	57	0	1139802112	52	5388
2026-01-08 22:38:51.43	153.85	9.55	-40.5	-44.0	13.0	4.73e-05	0	57	0	1141899264	52	5409
2026-01-08 22:38:52.44	153.95	9.48	-40.4	-43.8	13.2	2.44e-05	0	57	0	1143996416	52	5290
2026-01-08 22:38:53.45	154.05	9.41	-40.4	-43.7	13.2	2.82e-05	0	57	0	1145044992	52	5256
2026-01-08 22:38:54.46	154.14	9.34	-40.4	-43.7	13.2	1.83e-05	0	57	0	1147142144	52	5260
2026-01-08 22:38:55.47	154.23	9.26	-40.5	-43.9	13.0	2.97e-05	0	57	0	1149239296	52	5364
2026-01-08 22:38:56.48	154.33	9.19	-40.3	-43.6	13.2	4.19e-05	0	57	0	1151336448	52	5216
2026-01-08 22:38:57.49	154.42	9.12	-40.4	-43.8	13.1	3.12e-05	0	57	0	1153433600	52	5325
2026-01-08 22:38:58.50	154.51	9.05	-40.6	-44.2	12.7	6.17e-05	0	57	0	1155530752	52	5546
2026-01-08 22:38:59.51	154.61	8.97	-40.5	-44.0	12.9	5.34e-05	0	57	0	1156579328	52	5408
