passes_logs/2026/01/08/R2.0S_Moscow/R2.0S_Moscow__20260108_025206_FENGYUN_3E_rec.log

#Pass ID: 20260108_025206_FENGYUN 3E
#Satellite: FENGYUN 3E
#Configuration: FENGYUN 3E
#almurnet v.1.7.20251203
#Start time: 2026-01-08 03:00:03

#Version: 2.2.20231116
#Station: R2.0S_Moscow
#Location: 37.707566 lon 55.798166 lat
#TLE: 1 49008U 21062A   26006.26767912  .00000427  00000+0  22170-3 0  9993
#TLE: 2 49008  98.7475  11.4982 0001602 156.1158 204.0093 14.19885456233607

#Time	Az	El	Level	Level2	SNR	BER	BlckErr	Temp	State	Recorded	gain1	gain2
2026-01-08 03:00:03.37	117.62	30.82	-45.1	-56.7	3.8	8.46e-01	0	57	0	0	61	14035
2026-01-08 03:00:04.38	117.95	30.74	-45.9	-57.0	3.8	8.47e-01	0	58	104	0	62	12958
2026-01-08 03:00:05.39	118.28	30.66	-45.9	-57.0	3.8	8.45e-01	0	57	104	0	62	12935
2026-01-08 03:00:06.40	118.61	30.59	-45.9	-57.0	3.8	8.47e-01	0	57	104	0	62	12824
2026-01-08 03:00:07.41	118.93	30.51	-45.8	-56.6	3.8	8.46e-01	0	57	104	0	62	12270
2026-01-08 03:00:08.42	119.25	30.43	-45.7	-56.7	3.8	8.46e-01	0	57	104	0	62	12463
2026-01-08 03:00:09.43	119.58	30.35	-45.6	-56.6	3.8	8.47e-01	0	57	104	0	62	12367
2026-01-08 03:00:10.44	119.90	30.27	-45.5	-56.6	3.8	8.45e-01	0	58	104	0	62	12297
2026-01-08 03:00:11.45	120.21	30.18	-45.5	-56.6	3.8	8.47e-01	0	57	104	0	61	12966
2026-01-08 03:00:12.46	120.53	30.10	-45.5	-56.6	3.8	8.46e-01	0	58	104	0	61	13055
2026-01-08 03:00:13.47	120.85	30.02	-45.5	-56.6	3.8	8.47e-01	0	58	104	0	61	13091
2026-01-08 03:00:14.48	121.16	29.93	-45.5	-56.6	3.8	8.45e-01	0	57	104	0	61	13088
2026-01-08 03:00:15.49	121.47	29.85	-45.5	-56.6	3.8	8.46e-01	0	57	104	0	61	13063
2026-01-08 03:00:16.49	121.78	29.77	-45.5	-56.6	3.8	8.46e-01	0	57	104	0	61	12974
2026-01-08 03:00:17.50	122.09	29.68	-45.5	-56.6	3.8	8.45e-01	0	57	104	0	61	12988
2026-01-08 03:00:18.51	122.39	29.59	-45.5	-56.6	3.8	8.46e-01	0	58	104	0	61	12977
2026-01-08 03:00:19.52	122.70	29.51	-45.5	-56.6	3.8	8.45e-01	0	57	104	0	61	13029
2026-01-08 03:00:20.53	123.00	29.42	-45.5	-56.7	3.8	8.46e-01	0	57	104	0	61	13127
2026-01-08 03:00:21.55	123.31	29.33	-45.5	-56.6	3.8	8.46e-01	0	57	104	0	61	13088
2026-01-08 03:00:22.56	123.61	29.24	-45.5	-56.5	3.8	8.47e-01	0	58	104	0	61	12955
2026-01-08 03:00:23.56	123.91	29.15	-45.4	-56.4	3.8	8.45e-01	0	58	104	0	61	12742
2026-01-08 03:00:24.57	124.20	29.06	-45.4	-56.4	3.8	8.46e-01	0	57	104	0	61	12668
2026-01-08 03:00:25.58	124.50	28.97	-45.4	-56.3	3.8	8.46e-01	0	57	104	0	61	12623
2026-01-08 03:00:26.59	124.79	28.88	-45.5	-56.4	3.8	8.46e-01	0	57	104	0	61	12798
2026-01-08 03:00:27.61	125.09	28.79	-45.5	-56.5	3.8	8.47e-01	0	57	104	0	61	12957
2026-01-08 03:00:28.61	125.38	28.70	-45.5	-56.6	3.8	8.46e-01	0	57	104	0	61	13014
2026-01-08 03:00:29.62	125.67	28.60	-45.5	-56.6	3.8	8.46e-01	0	57	104	0	61	13108
2026-01-08 03:00:30.64	125.96	28.51	-45.5	-56.6	3.8	8.47e-01	0	57	104	0	61	13024
2026-01-08 03:00:31.65	126.24	28.42	-45.5	-56.5	3.8	8.48e-01	0	57	104	0	61	12834
2026-01-08 03:00:32.66	126.53	28.32	-45.4	-56.1	3.8	8.47e-01	0	57	104	0	61	12337
2026-01-08 03:00:33.67	126.81	28.23	-45.3	-55.7	3.8	8.46e-01	0	58	104	0	61	11750
2026-01-08 03:00:34.68	127.09	28.13	-45.3	-55.6	3.8	8.46e-01	0	57	104	0	61	11616
2026-01-08 03:00:35.69	127.37	28.04	-45.4	-56.0	3.8	8.46e-01	0	58	104	0	61	12189
2026-01-08 03:00:36.70	127.65	27.94	-45.5	-56.6	3.8	8.47e-01	0	57	104	0	61	12985
2026-01-08 03:00:37.71	127.93	27.85	-45.4	-56.1	3.8	8.45e-01	0	58	104	0	61	12346
2026-01-08 03:00:38.72	128.20	27.75	-45.2	-54.6	3.8	8.46e-01	0	58	104	0	61	10300
2026-01-08 03:00:39.73	128.47	27.66	-45.0	-52.9	4.2	8.39e-01	0	58	0	0	61	8554
2026-01-08 03:00:40.74	128.74	27.56	-44.9	-52.7	4.3	8.32e-01	0	58	0	0	60	8781
2026-01-08 03:00:41.75	129.01	27.46	-45.1	-53.7	4.0	8.40e-01	0	58	0	0	60	9933
2026-01-08 03:00:42.76	129.28	27.36	-45.4	-55.7	3.8	8.46e-01	0	58	104	0	60	12387
2026-01-08 03:00:43.76	129.55	27.27	-45.5	-56.5	3.8	8.45e-01	0	58	104	0	60	13659
2026-01-08 03:00:44.77	129.81	27.17	-45.2	-54.8	3.8	8.47e-01	0	58	104	0	60	11194
2026-01-08 03:00:45.78	130.08	27.07	-44.6	-51.3	4.8	8.06e-01	0	57	0	0	60	7484
2026-01-08 03:00:46.79	130.34	26.97	-43.7	-48.2	6.9	2.49e-01	0	58	0	3145728	58	5886
2026-01-08 03:00:47.80	130.60	26.87	-42.7	-46.2	8.9	4.88e-02	0	58	0	10485760	56	5233
2026-01-08 03:00:48.81	130.86	26.77	-42.1	-45.2	9.8	1.12e-02	0	58	0	17825792	55	4959
2026-01-08 03:00:49.82	131.11	26.67	-42.5	-45.8	9.2	1.48e-02	0	58	0	25165824	55	5302
2026-01-08 03:00:50.83	131.37	26.57	-43.9	-48.8	6.4	1.58e-01	0	58	0	32505856	57	6679
2026-01-08 03:00:51.84	131.62	26.47	-45.1	-53.0	4.2	8.29e-01	0	58	0	34603008	59	9616
2026-01-08 03:00:52.85	131.87	26.37	-43.2	-47.2	7.9	1.57e-01	0	57	0	37748736	57	5535
2026-01-08 03:00:53.85	132.12	26.27	-39.9	-41.8	13.4	1.45e-04	0	58	0	45088768	50	4471
2026-01-08 03:00:54.86	132.37	26.17	-37.1	-38.5	16.6	0.00e+00	0	57	0	52428800	45	4077
2026-01-08 03:00:55.87	132.62	26.07	-35.4	-36.5	18.4	0.00e+00	0	57	0	59768832	41	4084
2026-01-08 03:00:56.88	132.87	25.97	-34.6	-35.7	19.3	0.00e+00	0	57	0	67108864	40	3917
2026-01-08 03:00:57.89	133.11	25.87	-35.3	-36.5	18.5	0.00e+00	0	57	0	74448896	40	4295
2026-01-08 03:00:58.90	133.35	25.77	-37.0	-38.4	16.6	0.00e+00	0	58	0	81788928	43	4508
2026-01-08 03:00:59.91	133.60	25.67	-43.2	-47.3	7.9	2.37e-03	0	58	0	89128960	55	6303
2026-01-08 03:01:00.92	133.84	25.57	-40.3	-42.3	12.9	0.00e+00	0	58	0	95420416	50	4756
2026-01-08 03:01:01.93	134.07	25.46	-36.5	-37.8	17.2	0.00e+00	0	57	0	102760448	42	4472
2026-01-08 03:01:02.94	134.31	25.36	-35.0	-36.1	18.8	0.00e+00	0	58	0	110100480	41	3901
2026-01-08 03:01:03.95	134.55	25.26	-34.5	-35.6	19.3	0.00e+00	0	58	0	117440512	40	3894
2026-01-08 03:01:04.95	134.78	25.16	-34.4	-35.5	19.5	0.00e+00	0	57	0	123731968	39	4066
2026-01-08 03:01:05.96	135.01	25.06	-34.5	-35.6	19.4	0.00e+00	0	58	0	131072000	39	4106
2026-01-08 03:01:06.97	135.24	24.96	-34.4	-35.5	19.4	0.00e+00	0	58	0	139460608	39	4084
2026-01-08 03:01:07.98	135.47	24.85	-34.2	-35.3	19.7	0.00e+00	0	58	0	145752064	39	3966
2026-01-08 03:01:08.99	135.70	24.75	-34.1	-35.1	19.8	0.00e+00	0	58	0	153092096	39	3902
2026-01-08 03:01:10.00	135.93	24.65	-34.1	-35.1	19.8	0.00e+00	0	58	0	160432128	39	3896
2026-01-08 03:01:11.01	136.15	24.55	-34.1	-35.2	19.8	0.00e+00	0	58	0	167772160	39	3919
2026-01-08 03:01:12.02	136.38	24.44	-34.2	-35.3	19.7	0.00e+00	0	57	0	175112192	39	3966
2026-01-08 03:01:13.03	136.60	24.34	-34.3	-35.3	19.6	0.00e+00	0	57	0	182452224	39	3994
2026-01-08 03:01:14.04	136.82	24.24	-34.5	-35.5	19.4	0.00e+00	0	58	0	189792256	39	4087
2026-01-08 03:01:15.05	137.04	24.14	-34.6	-35.7	19.2	0.00e+00	0	58	0	197132288	39	4178
2026-01-08 03:01:16.06	137.26	24.03	-34.5	-35.6	19.3	0.00e+00	0	58	0	204472320	39	4119
2026-01-08 03:01:17.07	137.48	23.93	-34.4	-35.5	19.5	0.00e+00	0	57	0	211812352	39	4059
2026-01-08 03:01:18.08	137.69	23.83	-34.4	-35.5	19.4	0.00e+00	0	58	0	219152384	39	4085
2026-01-08 03:01:19.09	137.91	23.72	-34.5	-35.6	19.3	0.00e+00	0	58	0	226492416	39	4121
2026-01-08 03:01:20.10	138.12	23.62	-34.7	-35.8	19.2	0.00e+00	0	58	0	233832448	39	4201
2026-01-08 03:01:21.10	138.33	23.52	-34.6	-35.7	19.2	0.00e+00	0	58	0	241172480	39	4150
2026-01-08 03:01:22.11	138.54	23.42	-34.5	-35.6	19.3	0.00e+00	0	58	0	248512512	39	4132
2026-01-08 03:01:23.12	138.75	23.31	-34.5	-35.5	19.3	0.00e+00	0	58	0	255852544	39	4098
2026-01-08 03:01:24.13	138.96	23.21	-34.3	-35.4	19.5	0.00e+00	0	58	0	263192576	39	4034
2026-01-08 03:01:25.14	139.16	23.11	-34.3	-35.4	19.5	0.00e+00	0	58	0	270532608	39	4018
2026-01-08 03:01:26.15	139.37	23.01	-34.3	-35.4	19.5	0.00e+00	0	58	0	276824064	39	4028
2026-01-08 03:01:27.16	139.57	22.90	-34.3	-35.4	19.5	0.00e+00	0	58	0	284164096	39	4025
2026-01-08 03:01:28.17	139.77	22.80	-34.4	-35.5	19.4	0.00e+00	0	58	0	291504128	39	4079
2026-01-08 03:01:29.17	139.97	22.70	-34.5	-35.6	19.3	0.00e+00	0	58	0	298844160	39	4128
2026-01-08 03:01:30.18	140.17	22.60	-34.6	-35.7	19.3	0.00e+00	0	58	0	306184192	39	4146
2026-01-08 03:01:31.19	140.37	22.49	-34.6	-35.7	19.3	0.00e+00	0	57	0	313524224	39	4149
2026-01-08 03:01:32.20	140.57	22.39	-34.6	-35.7	19.2	0.00e+00	0	58	0	320864256	39	4168
2026-01-08 03:01:33.21	140.76	22.29	-34.6	-35.7	19.2	0.00e+00	0	58	0	328204288	39	4188
2026-01-08 03:01:34.22	140.96	22.19	-34.7	-35.8	19.1	0.00e+00	0	58	0	335544320	39	4212
2026-01-08 03:01:35.23	141.15	22.09	-34.6	-35.7	19.1	0.00e+00	0	58	0	342884352	39	4193
2026-01-08 03:01:36.24	141.34	21.98	-34.6	-35.7	19.1	0.00e+00	0	58	0	350224384	39	4186
2026-01-08 03:01:37.25	141.53	21.88	-34.6	-35.7	19.2	0.00e+00	0	58	0	357564416	39	4151
2026-01-08 03:01:38.26	141.72	21.78	-34.6	-35.7	19.2	0.00e+00	0	58	0	364904448	39	4165
2026-01-08 03:01:39.26	141.91	21.68	-34.6	-35.7	19.1	0.00e+00	0	57	0	372244480	39	4183
2026-01-08 03:01:40.27	142.10	21.58	-34.5	-35.6	19.2	0.00e+00	0	58	0	378535936	39	4132
2026-01-08 03:01:41.28	142.28	21.48	-34.5	-35.6	19.3	0.00e+00	0	58	0	386924544	39	4106
2026-01-08 03:01:42.29	142.47	21.38	-34.5	-35.6	19.3	0.00e+00	0	57	0	394264576	39	4099
2026-01-08 03:01:43.30	142.65	21.27	-34.5	-35.6	19.3	0.00e+00	0	57	0	400556032	39	4106
2026-01-08 03:01:44.31	142.83	21.17	-34.6	-35.7	19.2	0.00e+00	0	58	0	407896064	39	4154
2026-01-08 03:01:45.32	143.02	21.07	-34.6	-35.7	19.1	0.00e+00	0	58	0	415236096	39	4193
2026-01-08 03:01:46.33	143.20	20.97	-34.7	-35.8	19.0	0.00e+00	0	58	0	422576128	39	4210
2026-01-08 03:01:47.34	143.37	20.87	-34.8	-36.0	18.9	0.00e+00	0	58	0	429916160	39	4292
2026-01-08 03:01:48.35	143.55	20.77	-34.9	-36.1	18.7	0.00e+00	0	57	0	437256192	39	4361
2026-01-08 03:01:49.36	143.73	20.67	-35.1	-36.3	18.6	0.00e+00	0	58	0	444596224	39	4448
2026-01-08 03:01:50.37	143.91	20.57	-35.2	-36.4	18.5	0.00e+00	0	58	0	451936256	39	4524
2026-01-08 03:01:51.38	144.08	20.47	-35.2	-36.4	18.4	0.00e+00	0	58	0	459276288	40	4252
2026-01-08 03:01:52.39	144.25	20.37	-35.2	-36.4	18.4	0.00e+00	0	57	0	466616320	40	4282
2026-01-08 03:01:53.40	144.43	20.27	-35.2	-36.4	18.4	0.00e+00	0	58	0	473956352	40	4246
2026-01-08 03:01:54.40	144.60	20.17	-35.1	-36.3	18.5	0.00e+00	0	58	0	481296384	40	4230
2026-01-08 03:01:55.41	144.77	20.07	-35.1	-36.2	18.5	0.00e+00	0	58	0	488636416	40	4185
2026-01-08 03:01:56.42	144.93	19.97	-35.0	-36.2	18.6	0.00e+00	0	58	0	495976448	40	4167
2026-01-08 03:01:57.43	145.10	19.87	-34.9	-36.1	18.7	0.00e+00	0	58	0	503316480	40	4110
2026-01-08 03:01:58.44	145.27	19.77	-34.8	-36.0	18.7	0.00e+00	0	58	0	510656512	40	4066
2026-01-08 03:01:59.45	145.44	19.67	-34.8	-35.9	18.8	0.00e+00	0	58	0	517996544	40	4048
2026-01-08 03:02:00.45	145.60	19.57	-34.9	-36.0	18.7	0.00e+00	0	58	0	525336576	40	4082
2026-01-08 03:02:01.47	145.76	19.47	-34.8	-36.0	18.8	0.00e+00	0	57	0	531628032	40	4059
2026-01-08 03:02:02.48	145.93	19.38	-34.8	-36.0	18.8	0.00e+00	0	57	0	540016640	40	4055
2026-01-08 03:02:03.49	146.09	19.28	-34.9	-36.1	18.7	0.00e+00	0	58	0	547356672	40	4111
2026-01-08 03:02:04.49	146.25	19.18	-35.0	-36.1	18.6	0.00e+00	0	57	0	553648128	40	4135
2026-01-08 03:02:05.50	146.41	19.08	-35.0	-36.2	18.5	0.00e+00	0	58	0	560988160	40	4158
2026-01-08 03:02:06.51	146.57	18.98	-35.1	-36.3	18.4	0.00e+00	0	58	0	568328192	40	4203
2026-01-08 03:02:07.52	146.73	18.89	-35.1	-36.3	18.4	0.00e+00	0	58	0	575668224	40	4200
2026-01-08 03:02:08.53	146.88	18.79	-35.1	-36.3	18.4	0.00e+00	0	58	0	583008256	40	4194
2026-01-08 03:02:09.53	147.04	18.69	-35.2	-36.3	18.3	0.00e+00	0	58	0	590348288	40	4242
2026-01-08 03:02:10.54	147.19	18.60	-35.3	-36.5	18.2	0.00e+00	0	58	0	597688320	40	4299
2026-01-08 03:02:11.55	147.35	18.50	-35.3	-36.4	18.3	0.00e+00	0	57	0	605028352	40	4290
2026-01-08 03:02:12.56	147.50	18.40	-35.4	-36.6	18.1	0.00e+00	0	58	0	612368384	40	4355
2026-01-08 03:02:13.57	147.65	18.30	-35.3	-36.5	18.2	0.00e+00	0	58	0	619708416	40	4329
2026-01-08 03:02:14.58	147.80	18.21	-35.3	-36.5	18.2	0.00e+00	0	58	0	627048448	40	4311
2026-01-08 03:02:15.59	147.95	18.11	-35.4	-36.6	18.1	0.00e+00	0	58	0	634388480	40	4356
2026-01-08 03:02:16.60	148.10	18.02	-35.4	-36.6	18.1	0.00e+00	0	58	0	641728512	40	4369
2026-01-08 03:02:17.61	148.25	17.92	-35.4	-36.6	18.0	0.00e+00	0	58	0	649068544	40	4388
2026-01-08 03:02:18.61	148.40	17.83	-35.4	-36.6	18.1	0.00e+00	0	58	0	655360000	40	4355
2026-01-08 03:02:19.62	148.54	17.73	-35.3	-36.5	18.1	0.00e+00	0	58	0	663748608	40	4320
2026-01-08 03:02:20.63	148.69	17.63	-35.2	-36.4	18.3	0.00e+00	0	58	0	671088640	40	4270
2026-01-08 03:02:21.65	148.83	17.54	-35.2	-36.4	18.3	0.00e+00	0	58	0	677380096	40	4269
2026-01-08 03:02:22.65	148.98	17.44	-35.2	-36.4	18.3	0.00e+00	0	58	0	684720128	40	4268
2026-01-08 03:02:23.66	149.12	17.35	-35.1	-36.3	18.4	0.00e+00	0	58	0	692060160	40	4199
2026-01-08 03:02:24.67	149.26	17.26	-35.2	-36.3	18.3	0.00e+00	0	58	0	699400192	40	4223
2026-01-08 03:02:25.68	149.40	17.16	-35.2	-36.3	18.3	0.00e+00	0	58	0	706740224	40	4233
2026-01-08 03:02:26.69	149.54	17.07	-35.2	-36.3	18.3	0.00e+00	0	58	0	714080256	40	4239
2026-01-08 03:02:27.70	149.68	16.97	-35.2	-36.3	18.3	0.00e+00	0	58	0	721420288	40	4240
2026-01-08 03:02:28.71	149.82	16.88	-35.2	-36.4	18.2	0.00e+00	0	58	0	728760320	40	4253
2026-01-08 03:02:29.72	149.96	16.79	-35.3	-36.5	18.2	0.00e+00	0	58	0	736100352	40	4302
2026-01-08 03:02:30.73	150.10	16.69	-35.4	-36.6	18.1	0.00e+00	0	58	0	743440384	40	4341
2026-01-08 03:02:31.74	150.23	16.60	-35.3	-36.5	18.1	0.00e+00	0	58	0	750780416	40	4326
2026-01-08 03:02:32.75	150.37	16.51	-35.4	-36.6	18.0	0.00e+00	0	58	0	758120448	40	4351
2026-01-08 03:02:33.75	150.50	16.41	-35.4	-36.6	18.0	0.00e+00	0	58	0	765460480	40	4360
2026-01-08 03:02:34.76	150.64	16.32	-35.4	-36.6	18.0	0.00e+00	0	58	0	772800512	40	4385
2026-01-08 03:02:35.77	150.77	16.23	-35.5	-36.7	17.9	0.00e+00	0	58	0	780140544	40	4406
2026-01-08 03:02:36.78	150.90	16.14	-35.5	-36.7	17.9	0.00e+00	0	58	0	787480576	40	4418
2026-01-08 03:02:37.79	151.03	16.05	-35.5	-36.8	17.8	0.00e+00	0	58	0	794820608	40	4455
2026-01-08 03:02:38.80	151.16	15.95	-35.6	-36.8	17.8	0.00e+00	0	58	0	802160640	40	4492
2026-01-08 03:02:39.81	151.29	15.86	-35.6	-36.9	17.8	0.00e+00	0	58	0	808452096	40	4499
2026-01-08 03:02:40.82	151.42	15.77	-35.5	-36.7	17.8	0.00e+00	0	58	0	815792128	40	4440
2026-01-08 03:02:41.83	151.55	15.68	-35.5	-36.8	17.8	0.00e+00	0	58	0	824180736	40	4445
2026-01-08 03:02:42.84	151.68	15.59	-35.6	-36.8	17.7	0.00e+00	0	58	0	830472192	40	4491
2026-01-08 03:02:43.84	151.81	15.50	-35.6	-36.9	17.7	0.00e+00	0	58	0	837812224	40	4500
2026-01-08 03:02:44.85	151.93	15.41	-35.7	-36.9	17.6	0.00e+00	0	58	0	845152256	41	4288
2026-01-08 03:02:45.87	152.06	15.32	-35.6	-36.8	17.7	0.00e+00	0	58	0	852492288	41	4241
2026-01-08 03:02:46.87	152.18	15.23	-35.7	-36.9	17.7	0.00e+00	0	58	0	859832320	41	4277
2026-01-08 03:02:47.88	152.31	15.14	-35.8	-37.0	17.6	0.00e+00	0	58	0	867172352	41	4321
2026-01-08 03:02:48.89	152.43	15.05	-35.8	-37.1	17.5	0.00e+00	0	58	0	874512384	41	4349
2026-01-08 03:02:49.89	152.55	14.96	-35.9	-37.1	17.4	0.00e+00	0	58	0	881852416	41	4389
2026-01-08 03:02:50.90	152.67	14.87	-35.9	-37.2	17.3	0.00e+00	0	58	0	889192448	41	4439
2026-01-08 03:02:51.91	152.79	14.78	-35.9	-37.2	17.3	0.00e+00	0	58	0	896532480	41	4437
2026-01-08 03:02:52.92	152.91	14.69	-35.9	-37.2	17.3	0.00e+00	0	58	0	903872512	41	4439
2026-01-08 03:02:53.93	153.03	14.61	-36.0	-37.3	17.3	0.00e+00	0	58	0	911212544	41	4471
2026-01-08 03:02:54.94	153.15	14.52	-36.1	-37.4	17.2	0.00e+00	0	58	0	918552576	41	4522
2026-01-08 03:02:55.95	153.27	14.43	-36.2	-37.5	17.0	0.00e+00	0	58	0	925892608	42	4339
2026-01-08 03:02:56.96	153.39	14.34	-36.4	-37.7	16.9	0.00e+00	0	58	0	933232640	42	4414
2026-01-08 03:02:57.97	153.51	14.25	-36.4	-37.7	16.8	0.00e+00	0	58	0	939524096	42	4434
2026-01-08 03:02:58.98	153.62	14.17	-36.2	-37.5	17.0	0.00e+00	0	58	0	947912704	42	4340
2026-01-08 03:02:59.98	153.74	14.08	-36.2	-37.5	17.0	0.00e+00	0	58	0	954204160	42	4337
2026-01-08 03:03:01.00	153.85	13.99	-36.2	-37.6	17.0	0.00e+00	0	58	0	961544192	42	4342
2026-01-08 03:03:02.01	153.97	13.90	-36.1	-37.5	17.1	0.00e+00	0	58	0	968884224	42	4295
2026-01-08 03:03:03.02	154.08	13.82	-36.1	-37.4	17.2	0.00e+00	0	58	0	976224256	42	4249
2026-01-08 03:03:04.02	154.19	13.73	-36.1	-37.4	17.1	0.00e+00	0	58	0	983564288	42	4269
2026-01-08 03:03:05.03	154.31	13.65	-36.1	-37.4	17.2	0.00e+00	0	58	0	990904320	42	4259
2026-01-08 03:03:06.04	154.42	13.56	-36.2	-37.5	17.0	0.00e+00	0	58	0	998244352	42	4313
2026-01-08 03:03:07.05	154.53	13.47	-36.0	-37.4	17.2	0.00e+00	0	58	0	1005584384	42	4246
2026-01-08 03:03:08.06	154.64	13.39	-36.0	-37.4	17.2	0.00e+00	0	58	0	1012924416	42	4247
2026-01-08 03:03:09.06	154.75	13.30	-36.1	-37.4	17.1	0.00e+00	0	58	0	1020264448	42	4266
2026-01-08 03:03:10.07	154.86	13.22	-36.2	-37.5	17.0	0.00e+00	0	58	0	1027604480	42	4310
2026-01-08 03:03:11.08	154.97	13.13	-36.2	-37.6	17.0	0.00e+00	0	58	0	1034944512	42	4342
2026-01-08 03:03:12.09	155.08	13.05	-36.2	-37.5	17.0	0.00e+00	0	58	0	1042284544	42	4322
2026-01-08 03:03:13.11	155.18	12.96	-36.3	-37.6	16.9	0.00e+00	0	58	0	1049624576	42	4387
2026-01-08 03:03:14.11	155.29	12.88	-36.3	-37.6	16.8	0.00e+00	0	58	0	1056964608	42	4385
2026-01-08 03:03:15.12	155.40	12.80	-36.4	-37.7	16.7	0.00e+00	0	58	0	1063256064	42	4440
2026-01-08 03:03:16.13	155.50	12.71	-36.4	-37.8	16.7	0.00e+00	0	58	0	1071644672	42	4462
2026-01-08 03:03:17.14	155.61	12.63	-36.5	-37.8	16.7	0.00e+00	0	58	0	1078984704	42	4475
2026-01-08 03:03:18.15	155.71	12.54	-36.5	-37.9	16.6	0.00e+00	0	58	0	1085276160	42	4511
2026-01-08 03:03:19.16	155.82	12.46	-36.5	-37.9	16.6	0.00e+00	0	58	0	1092616192	42	4508
2026-01-08 03:03:20.17	155.92	12.38	-36.4	-37.8	16.6	0.00e+00	0	58	0	1099956224	42	4460
2026-01-08 03:03:21.18	156.02	12.29	-36.5	-37.8	16.6	0.00e+00	0	58	0	1107296256	42	4489
2026-01-08 03:03:22.19	156.13	12.21	-36.5	-37.9	16.5	0.00e+00	0	58	0	1114636288	42	4538
2026-01-08 03:03:23.20	156.23	12.13	-36.6	-38.0	16.4	0.00e+00	0	58	0	1121976320	42	4591
2026-01-08 03:03:24.21	156.33	12.05	-36.7	-38.1	16.3	0.00e+00	0	58	0	1129316352	42	4624
2026-01-08 03:03:25.21	156.43	11.96	-36.8	-38.2	16.1	0.00e+00	0	58	0	1136656384	43	4423
2026-01-08 03:03:26.22	156.53	11.88	-36.7	-38.2	16.2	0.00e+00	0	58	0	1143996416	43	4393
2026-01-08 03:03:27.24	156.63	11.80	-36.7	-38.1	16.3	0.00e+00	0	58	0	1151336448	43	4361
2026-01-08 03:03:28.24	156.73	11.72	-36.7	-38.1	16.2	0.00e+00	0	58	0	1158676480	43	4389
2026-01-08 03:03:29.25	156.83	11.64	-36.7	-38.1	16.2	0.00e+00	0	58	0	1166016512	43	4384
2026-01-08 03:03:30.26	156.92	11.56	-36.7	-38.2	16.2	0.00e+00	0	58	0	1173356544	43	4392
2026-01-08 03:03:31.27	157.02	11.48	-36.7	-38.2	16.2	0.00e+00	0	58	0	1180696576	43	4400
2026-01-08 03:03:32.28	157.12	11.40	-36.8	-38.2	16.1	0.00e+00	0	58	0	1188036608	43	4435
2026-01-08 03:03:33.29	157.22	11.31	-36.8	-38.2	16.1	0.00e+00	0	58	0	1195376640	43	4432
2026-01-08 03:03:34.29	157.31	11.23	-36.7	-38.1	16.2	0.00e+00	0	58	0	1202716672	43	4379
2026-01-08 03:03:35.30	157.41	11.15	-36.8	-38.2	16.1	0.00e+00	0	58	0	1210056704	43	4429
2026-01-08 03:03:36.31	157.50	11.07	-36.7	-38.2	16.1	0.00e+00	0	58	0	1216348160	43	4405
2026-01-08 03:03:37.32	157.60	10.99	-36.7	-38.2	16.1	0.00e+00	0	58	0	1223688192	43	4401
2026-01-08 03:03:38.33	157.69	10.92	-36.7	-38.2	16.1	0.00e+00	0	58	0	1232076800	43	4399
2026-01-08 03:03:39.34	157.78	10.84	-36.7	-38.1	16.2	0.00e+00	0	58	0	1238368256	43	4365
2026-01-08 03:03:40.35	157.88	10.76	-36.6	-38.0	16.2	0.00e+00	0	58	0	1245708288	43	4340
2026-01-08 03:03:41.36	157.97	10.68	-36.6	-38.0	16.2	0.00e+00	0	58	0	1253048320	43	4337
2026-01-08 03:03:42.37	158.06	10.60	-36.6	-38.1	16.2	0.00e+00	0	58	0	1260388352	43	4355
2026-01-08 03:03:43.38	158.15	10.52	-36.7	-38.1	16.1	0.00e+00	0	58	0	1267728384	43	4373
2026-01-08 03:03:44.39	158.24	10.44	-36.8	-38.3	15.9	0.00e+00	0	58	0	1275068416	43	4470
2026-01-08 03:03:45.40	158.34	10.36	-37.0	-38.5	15.7	0.00e+00	0	58	0	1282408448	43	4555
2026-01-08 03:03:46.41	158.43	10.28	-37.0	-38.5	15.7	0.00e+00	0	58	0	1289748480	43	4556
2026-01-08 03:03:47.42	158.52	10.21	-36.9	-38.4	15.8	0.00e+00	0	58	0	1297088512	43	4501
2026-01-08 03:03:48.42	158.60	10.13	-36.8	-38.3	15.9	0.00e+00	0	58	0	1304428544	43	4483
2026-01-08 03:03:49.43	158.69	10.05	-36.8	-38.3	15.8	0.00e+00	0	58	0	1311768576	43	4475
2026-01-08 03:03:50.44	158.78	9.97	-36.9	-38.4	15.8	0.00e+00	0	58	0	1319108608	43	4521
2026-01-08 03:03:51.45	158.87	9.90	-36.9	-38.4	15.8	0.00e+00	0	58	0	1326448640	43	4513
2026-01-08 03:03:52.46	158.96	9.82	-37.0	-38.5	15.6	0.00e+00	0	58	0	1333788672	43	4589
2026-01-08 03:03:53.47	159.04	9.74	-37.0	-38.5	15.6	0.00e+00	0	58	0	1340080128	43	4594
2026-01-08 03:03:54.48	159.13	9.67	-37.1	-38.6	15.5	0.00e+00	0	58	0	1348468736	43	4636
2026-01-08 03:03:55.49	159.22	9.59	-37.0	-38.5	15.6	0.00e+00	0	58	0	1355808768	43	4589
2026-01-08 03:03:56.50	159.30	9.51	-37.0	-38.5	15.5	0.00e+00	0	58	0	1362100224	43	4598
2026-01-08 03:03:57.51	159.39	9.44	-37.0	-38.6	15.5	0.00e+00	0	58	0	1369440256	43	4610
2026-01-08 03:03:58.52	159.47	9.36	-37.0	-38.5	15.6	0.00e+00	0	58	0	1376780288	43	4574
2026-01-08 03:03:59.52	159.56	9.29	-37.1	-38.6	15.4	0.00e+00	0	58	0	1384120320	43	4639
2026-01-08 03:04:00.53	159.64	9.21	-36.9	-38.4	15.6	0.00e+00	0	58	0	1391460352	43	4523
2026-01-08 03:04:01.54	159.72	9.14	-37.0	-38.5	15.5	0.00e+00	0	58	0	1398800384	43	4583
2026-01-08 03:04:02.56	159.81	9.06	-36.9	-38.5	15.6	0.00e+00	0	58	0	1406140416	43	4546
2026-01-08 03:04:03.56	159.89	8.99	-36.9	-38.4	15.7	0.00e+00	0	58	0	1413480448	43	4501
2026-01-08 03:04:04.57	159.97	8.91	-36.9	-38.5	15.6	0.00e+00	0	58	0	1420820480	43	4558
2026-01-08 03:04:05.58	160.05	8.84	-36.9	-38.4	15.6	0.00e+00	0	58	0	1428160512	43	4516
2026-01-08 03:04:06.59	160.14	8.76	-36.9	-38.5	15.5	0.00e+00	0	58	0	1435500544	43	4565
2026-01-08 03:04:07.60	160.22	8.69	-37.0	-38.6	15.4	0.00e+00	0	58	0	1442840576	43	4601
2026-01-08 03:04:08.61	160.30	8.61	-37.1	-38.7	15.3	0.00e+00	0	58	0	1450180608	43	4660
2026-01-08 03:04:09.61	160.38	8.54	-37.1	-38.6	15.3	0.00e+00	0	58	0	1457520640	43	4644
2026-01-08 03:04:10.62	160.46	8.47	-37.1	-38.6	15.3	0.00e+00	0	58	0	1464860672	43	4639
2026-01-08 03:04:11.63	160.54	8.39	-36.9	-38.5	15.5	0.00e+00	0	58	0	1472200704	43	4565
2026-01-08 03:04:12.64	160.62	8.32	-37.0	-38.5	15.4	0.00e+00	0	58	0	1479540736	43	4592
2026-01-08 03:04:13.65	160.70	8.25	-37.0	-38.5	15.4	0.00e+00	0	58	0	1486880768	43	4596
2026-01-08 03:04:14.65	160.77	8.17	-37.0	-38.6	15.3	0.00e+00	0	58	0	1493172224	43	4620
2026-01-08 03:04:15.67	160.85	8.10	-37.0	-38.6	15.4	0.00e+00	0	58	0	1500512256	43	4603
2026-01-08 03:04:16.67	160.93	8.03	-37.1	-38.6	15.3	0.00e+00	0	58	0	1507852288	43	4635
2026-01-08 03:04:17.68	161.01	7.95	-43.0	-48.1	6.6	0.00e+00	0	58	0	1515192320	55	6952
2026-01-08 03:04:18.69	161.08	7.88	-45.2	-56.0	3.8	8.47e-01	0	58	104	1515192320	59	13703
2026-01-08 03:04:19.70	161.16	7.81	-45.4	-56.5	3.8	8.46e-01	0	58	104	1515192320	60	13683
2026-01-08 03:04:20.71	161.24	7.74	-45.5	-56.7	3.8	8.46e-01	0	58	104	1515192320	60	13926
2026-01-08 03:04:21.72	161.31	7.67	-45.6	-56.7	3.8	8.45e-01	0	58	104	1515192320	60	14030
2026-01-08 03:04:22.73	161.39	7.59	-45.7	-56.8	3.8	8.46e-01	0	58	104	1515192320	60	14134
2026-01-08 03:04:23.74	161.46	7.52	-45.7	-56.8	3.8	8.46e-01	0	58	104	1515192320	61	13383
2026-01-08 03:04:24.75	161.54	7.45	-45.8	-56.9	3.8	8.46e-01	0	58	104	1515192320	61	13463
2026-01-08 03:04:25.76	161.61	7.38	-45.8	-56.8	3.8	8.45e-01	0	58	104	1515192320	61	13377
2026-01-08 03:04:26.77	161.69	7.31	-45.8	-56.9	3.8	8.46e-01	0	58	104	1515192320	61	13439
2026-01-08 03:04:27.78	161.76	7.24	-45.7	-56.8	3.8	8.45e-01	0	58	104	1515192320	61	13349
2026-01-08 03:04:28.79	161.83	7.17	-45.7	-56.8	3.8	8.47e-01	0	58	104	1515192320	61	13312
2026-01-08 03:04:29.79	161.91	7.10	-45.7	-56.8	3.8	8.46e-01	0	58	104	1515192320	61	13339
2026-01-08 03:04:30.80	161.98	7.03	-45.7	-56.8	3.8	8.46e-01	0	58	104	1515192320	61	13348
2026-01-08 03:04:31.81	162.05	6.95	-45.7	-56.7	3.8	8.47e-01	0	58	104	1515192320	61	13237
2026-01-08 03:04:32.82	162.12	6.88	-45.7	-56.8	3.8	8.46e-01	0	58	104	1515192320	61	13329
2026-01-08 03:04:33.83	162.20	6.81	-45.6	-56.7	3.8	8.46e-01	0	58	104	1515192320	61	13174
2026-01-08 03:04:34.84	162.27	6.74	-45.6	-56.7	3.8	8.47e-01	0	58	104	1515192320	61	13147
2026-01-08 03:04:35.85	162.34	6.67	-45.6	-56.6	3.8	8.46e-01	0	58	104	1515192320	61	13105
2026-01-08 03:04:36.86	162.41	6.61	-45.6	-56.7	3.8	8.46e-01	0	58	104	1515192320	61	13167
2026-01-08 03:04:37.87	162.48	6.54	-45.6	-56.7	3.8	8.46e-01	0	58	104	1515192320	61	13150
2026-01-08 03:04:38.88	162.55	6.47	-45.6	-56.7	3.8	8.46e-01	0	58	104	1515192320	61	13153
2026-01-08 03:04:39.88	162.62	6.40	-45.6	-56.7	3.8	8.46e-01	0	58	104	1515192320	61	13149
2026-01-08 03:04:40.89	162.69	6.33	-45.6	-56.6	3.8	8.46e-01	0	58	104	1515192320	61	13075
2026-01-08 03:04:41.90	162.76	6.26	-45.6	-56.7	3.8	8.48e-01	0	58	104	1515192320	61	13126
2026-01-08 03:04:42.90	162.83	6.19	-45.6	-56.7	3.8	8.46e-01	0	58	104	1515192320	61	13155
2026-01-08 03:04:43.91	162.90	6.12	-45.6	-56.7	3.8	8.46e-01	0	58	104	1515192320	61	13116
2026-01-08 03:04:44.92	162.96	6.05	-45.6	-56.6	3.8	8.45e-01	0	58	104	1515192320	61	13080
2026-01-08 03:04:45.93	163.03	5.99	-45.6	-56.7	3.8	8.46e-01	0	58	104	1515192320	61	13150
2026-01-08 03:04:46.94	163.10	5.92	-45.6	-56.6	3.8	8.47e-01	0	58	104	1515192320	61	13094
2026-01-08 03:04:47.95	163.17	5.85	-45.6	-56.6	3.8	8.47e-01	0	58	104	1515192320	61	13079
2026-01-08 03:04:48.96	163.23	5.78	-45.6	-56.6	3.8	8.46e-01	0	58	104	1515192320	61	13094
2026-01-08 03:04:49.97	163.30	5.71	-45.6	-56.6	3.8	8.47e-01	0	58	104	1515192320	61	13095
2026-01-08 03:04:50.98	163.37	5.65	-45.6	-56.6	3.8	8.47e-01	0	58	104	1515192320	61	13083
2026-01-08 03:04:51.99	163.43	5.58	-45.6	-56.6	3.8	8.45e-01	0	58	104	1515192320	61	13109
2026-01-08 03:04:53.00	163.50	5.51	-45.6	-56.6	3.8	8.47e-01	0	58	104	1515192320	61	13103
2026-01-08 03:04:54.01	163.57	5.45	-45.6	-56.7	3.8	8.47e-01	0	58	104	1515192320	61	13111
2026-01-08 03:04:55.02	163.63	5.38	-45.6	-56.6	3.8	8.44e-01	0	58	104	1515192320	61	13058
2026-01-08 03:04:56.02	163.69	5.31	-45.6	-56.7	3.8	8.47e-01	0	58	104	1515192320	61	13116
2026-01-08 03:04:57.03	163.76	5.25	-45.6	-56.6	3.8	8.45e-01	0	58	104	1515192320	61	13070
2026-01-08 03:04:58.04	163.82	5.18	-45.6	-56.7	3.8	8.46e-01	0	58	104	1515192320	61	13122
2026-01-08 03:04:59.05	163.89	5.11	-45.6	-56.6	3.8	8.46e-01	0	58	104	1515192320	61	13055
2026-01-08 03:05:00.06	163.95	5.05	-45.6	-56.7	3.8	8.45e-01	0	58	104	1515192320	61	13118
2026-01-08 03:05:01.07	164.02	4.98	-45.6	-56.6	3.8	8.47e-01	0	58	104	1515192320	61	13072
2026-01-08 03:05:02.08	164.08	4.91	-45.6	-56.6	3.8	8.45e-01	0	58	104	1515192320	61	13061
2026-01-08 03:05:03.09	164.14	4.85	-45.6	-56.6	3.8	8.46e-01	0	58	104	1515192320	61	13095
2026-01-08 03:05:04.10	164.21	4.78	-45.6	-56.6	3.8	8.46e-01	0	58	104	1515192320	61	13073
2026-01-08 03:05:05.11	164.27	4.72	-45.6	-56.6	3.8	8.45e-01	0	58	104	1515192320	61	13043
2026-01-08 03:05:06.12	164.33	4.65	-45.6	-56.6	3.8	8.45e-01	0	58	104	1515192320	61	13071
2026-01-08 03:05:07.13	164.39	4.59	-45.6	-56.6	3.8	8.46e-01	0	58	104	1515192320	61	13064
2026-01-08 03:05:08.14	164.45	4.52	-45.6	-56.6	3.8	8.46e-01	0	58	104	1515192320	61	13054
2026-01-08 03:05:09.15	164.52	4.46	-45.6	-56.6	3.8	8.45e-01	0	58	104	1515192320	61	13037
2026-01-08 03:05:10.16	164.58	4.39	-45.6	-56.6	3.8	8.46e-01	0	58	104	1515192320	61	13048
2026-01-08 03:05:11.17	164.64	4.33	-45.6	-56.6	3.8	8.46e-01	0	58	104	1515192320	61	13052
2026-01-08 03:05:12.18	164.70	4.26	-45.5	-56.6	3.8	8.45e-01	0	58	104	1515192320	61	13063
2026-01-08 03:05:13.19	164.76	4.20	-45.6	-56.6	3.8	8.46e-01	0	58	104	1515192320	61	13059
2026-01-08 03:05:14.20	164.82	4.13	-45.5	-56.6	3.8	8.46e-01	0	58	104	1515192320	61	13041
2026-01-08 03:05:15.21	164.88	4.07	-45.5	-56.6	3.8	8.47e-01	0	58	104	1515192320	61	13097
2026-01-08 03:05:16.22	164.94	4.00	-45.5	-56.6	3.8	8.46e-01	0	58	104	1515192320	61	13033
2026-01-08 03:05:17.23	165.00	3.94	-45.5	-56.6	3.8	8.46e-01	0	58	104	1515192320	61	13029
2026-01-08 03:05:18.24	165.06	3.88	-45.6	-56.6	3.8	8.46e-01	0	58	104	1515192320	61	13070
2026-01-08 03:05:19.25	165.12	3.81	-45.5	-56.6	3.8	8.45e-01	0	58	104	1515192320	61	13028
2026-01-08 03:05:20.26	165.18	3.75	-45.5	-56.6	3.8	8.47e-01	0	58	104	1515192320	61	13044
2026-01-08 03:05:21.26	165.23	3.69	-45.5	-56.6	3.8	8.45e-01	0	58	104	1515192320	61	13104
2026-01-08 03:05:22.27	165.29	3.62	-45.5	-56.6	3.8	8.45e-01	0	58	104	1515192320	61	13023
2026-01-08 03:05:23.28	165.35	3.56	-45.5	-56.6	3.8	8.46e-01	0	58	104	1515192320	61	13009
2026-01-08 03:05:24.29	165.41	3.50	-45.5	-56.6	3.8	8.45e-01	0	58	104	1515192320	61	13008
2026-01-08 03:05:25.30	165.47	3.43	-45.5	-56.6	3.8	8.46e-01	0	58	104	1515192320	61	13027
2026-01-08 03:05:26.31	165.52	3.37	-45.5	-56.6	3.8	8.47e-01	0	58	104	1515192320	61	13080
2026-01-08 03:05:27.32	165.58	3.31	-45.5	-56.6	3.8	8.47e-01	0	58	104	1515192320	61	12991
2026-01-08 03:05:28.33	165.64	3.24	-45.5	-56.6	3.8	8.47e-01	0	58	104	1515192320	61	13061
2026-01-08 03:05:29.34	165.69	3.18	-45.5	-56.6	3.8	8.45e-01	0	58	104	1515192320	61	13072
2026-01-08 03:05:30.35	165.75	3.12	-45.5	-56.6	3.8	8.46e-01	0	58	104	1515192320	61	13065
2026-01-08 03:05:31.36	165.81	3.06	-45.5	-56.6	3.8	8.47e-01	0	58	104	1515192320	61	13048
2026-01-08 03:05:32.37	165.86	2.99	-45.5	-56.6	3.8	8.46e-01	0	58	104	1515192320	61	13040
2026-01-08 03:05:33.37	165.92	2.93	-45.5	-56.6	3.8	8.46e-01	0	58	104	1515192320	61	13058
2026-01-08 03:05:34.38	165.97	2.87	-45.5	-56.6	3.8	8.47e-01	0	58	104	1515192320	61	13027
2026-01-08 03:05:35.39	166.03	2.81	-45.5	-56.6	3.8	8.46e-01	0	58	104	1515192320	61	13029
2026-01-08 03:05:36.40	166.08	2.75	-45.5	-56.6	3.8	8.46e-01	0	58	104	1515192320	61	13001
2026-01-08 03:05:37.41	166.14	2.69	-45.5	-56.6	3.8	8.47e-01	0	58	104	1515192320	61	13012
2026-01-08 03:05:38.42	166.19	2.62	-45.5	-56.6	3.8	8.46e-01	0	58	104	1515192320	61	12982
2026-01-08 03:05:39.43	166.25	2.56	-45.5	-56.6	3.8	8.46e-01	0	58	104	1515192320	61	12969
2026-01-08 03:05:40.44	166.30	2.50	-45.5	-56.6	3.8	8.46e-01	0	58	104	1515192320	61	12982
2026-01-08 03:05:41.45	166.36	2.44	-45.5	-56.6	3.8	8.46e-01	0	58	104	1515192320	61	12986
2026-01-08 03:05:42.46	166.41	2.38	-45.5	-56.6	3.8	8.46e-01	0	58	104	1515192320	61	13032
2026-01-08 03:05:43.47	166.46	2.32	-45.5	-56.6	3.8	8.46e-01	0	58	104	1515192320	61	13013
2026-01-08 03:05:44.48	166.52	2.26	-45.5	-56.6	3.8	8.47e-01	0	58	104	1515192320	61	13009
2026-01-08 03:05:45.49	166.57	2.20	-45.5	-56.6	3.8	8.45e-01	0	58	104	1515192320	61	12977
2026-01-08 03:05:46.50	166.62	2.14	-45.5	-56.6	3.8	8.46e-01	0	58	104	1515192320	61	13002
2026-01-08 03:05:47.51	166.68	2.08	-45.5	-56.6	3.8	8.47e-01	0	58	104	1515192320	61	13042
2026-01-08 03:05:48.52	166.73	2.02	-45.5	-56.6	3.8	8.46e-01	0	58	104	1515192320	61	13039
2026-01-08 03:05:49.53	166.78	1.96	-45.5	-56.5	3.8	8.46e-01	0	58	104	1515192320	61	12956

#Closed at: 2026-01-08 03:05:49
#Recorded file [1515 MB]: D:/lorett/data/31039_260108_060003.dat