passes_logs/2026/01/08/R2.0S_Moscow/R2.0S_Moscow__20260108_081730_SUOMI_NPP_rec.log

#Pass ID: 20260108_081730_SUOMI NPP
#Satellite: SUOMI NPP
#Configuration: NPP
#almurnet v.1.7.20251203
#Start time: 2026-01-08 08:17:32

#Version: 2.2.20231116
#Station: R2.0S_Moscow
#Location: 37.707566 lon 55.798166 lat
#TLE: 1 37849U 11061A   26005.94084933  .00000134  00000+0  84554-4 0  9990
#TLE: 2 37849  98.7803 308.0679 0002567  79.1029 281.0436 14.19522657735426

#Time	Az	El	Level	Level2	SNR	BER	BlckErr	Temp	State	Recorded	gain1	gain2
2026-01-08 08:17:32.42	110.53	2.12	-36.8	-51.2	4.0	1.50e+00	0	47	0	0	43	20791
2026-01-08 08:17:33.42	110.46	2.17	-36.5	-50.6	4.1	1.50e+00	0	48	104	0	43	19480
2026-01-08 08:17:34.43	110.39	2.23	-37.3	-52.9	3.9	1.50e+00	0	47	104	0	44	24092
2026-01-08 08:17:35.44	110.32	2.29	-35.1	-50.8	4.2	1.50e+00	0	48	104	0	42	21226
2026-01-08 08:17:36.44	110.25	2.34	-32.9	-50.9	4.2	1.50e+00	0	47	104	0	42	21287
2026-01-08 08:17:37.45	110.18	2.40	-36.3	-50.8	4.1	1.50e+00	0	48	104	0	39	25229
2026-01-08 08:17:38.45	110.11	2.46	-36.5	-51.8	4.1	1.50e+00	0	48	104	0	42	23645
2026-01-08 08:17:39.46	110.04	2.51	-36.6	-51.7	4.2	1.50e+00	0	48	104	0	42	23457
2026-01-08 08:17:40.47	109.97	2.57	-36.2	-52.7	4.2	1.50e+00	0	48	104	0	43	24938
2026-01-08 08:17:41.48	109.90	2.63	-35.9	-52.0	4.2	1.50e+00	0	48	104	0	43	23012
2026-01-08 08:17:42.48	109.83	2.68	-36.0	-52.3	4.3	1.50e+00	0	48	104	0	43	23816
2026-01-08 08:17:43.49	109.75	2.74	-36.9	-53.1	4.0	1.50e+00	0	48	104	0	44	24463
2026-01-08 08:17:44.50	109.68	2.80	-35.6	-51.8	4.1	1.50e+00	0	48	104	0	42	23687
2026-01-08 08:17:45.51	109.61	2.86	-34.3	-51.9	4.0	1.50e+00	0	48	104	0	39	28605
2026-01-08 08:17:46.51	109.54	2.91	-32.6	-50.7	4.3	1.50e+00	0	48	104	0	42	20826
2026-01-08 08:17:47.52	109.46	2.97	-35.1	-52.1	4.1	1.50e+00	0	49	0	0	41	26043
2026-01-08 08:17:48.53	109.39	3.03	-32.3	-50.0	4.1	1.50e+00	0	48	104	0	37	25627
2026-01-08 08:17:49.53	109.32	3.09	-34.7	-49.9	3.8	1.50e+00	0	49	104	0	40	21427
2026-01-08 08:17:50.54	109.24	3.14	-35.1	-52.4	4.0	1.50e+00	0	49	104	0	41	26804
2026-01-08 08:17:51.54	109.17	3.20	-28.4	-47.7	3.9	1.50e+00	0	49	104	0	30	29686
2026-01-08 08:17:52.55	109.09	3.26	-34.8	-49.1	3.7	1.50e+00	0	49	104	0	35	25865
2026-01-08 08:17:53.56	109.02	3.32	-25.8	-45.8	4.1	1.50e+00	0	49	104	0	40	13328
2026-01-08 08:17:54.57	108.94	3.37	-31.5	-48.7	4.1	1.50e+00	0	49	104	0	32	29605
2026-01-08 08:17:55.57	108.87	3.43	-31.2	-48.7	4.0	1.50e+00	0	49	104	0	30	33098
2026-01-08 08:17:56.58	108.79	3.49	-36.6	-50.6	4.0	1.51e+00	0	49	104	0	40	23151
2026-01-08 08:17:57.59	108.72	3.55	-35.8	-51.0	4.1	1.50e+00	0	49	104	0	39	25700
2026-01-08 08:17:58.60	108.64	3.61	-36.0	-52.3	4.0	1.50e+00	0	49	104	0	41	26484
2026-01-08 08:17:59.61	108.56	3.67	-35.1	-52.0	4.1	1.50e+00	0	49	104	0	42	24257
2026-01-08 08:18:00.61	108.49	3.72	-36.4	-50.5	4.2	1.50e+00	0	49	104	0	41	21560
2026-01-08 08:18:01.62	108.41	3.78	-37.1	-50.4	4.0	1.50e+00	0	49	104	0	42	20135
2026-01-08 08:18:02.62	108.33	3.84	-28.2	-47.1	3.7	1.50e+00	0	49	104	0	30	27530
2026-01-08 08:18:03.63	108.25	3.90	-36.4	-50.5	4.1	1.50e+00	0	49	104	0	41	21654
2026-01-08 08:18:04.64	108.17	3.96	-34.9	-50.2	4.2	1.50e+00	0	50	104	0	40	22028
2026-01-08 08:18:05.65	108.10	4.02	-33.9	-51.2	4.0	1.50e+00	0	49	104	0	40	24697
2026-01-08 08:18:06.65	108.02	4.08	-33.5	-50.7	4.1	1.50e+00	0	50	104	0	41	22109
2026-01-08 08:18:07.66	107.94	4.14	-31.5	-50.6	3.9	1.50e+00	0	50	104	0	33	34830
2026-01-08 08:18:08.67	107.86	4.20	-26.2	-43.9	4.0	1.50e+00	0	50	104	0	38	12029
2026-01-08 08:18:09.68	107.78	4.25	-35.2	-51.5	3.7	1.50e+00	0	50	104	0	39	27149
2026-01-08 08:18:10.69	107.70	4.31	-25.0	-44.1	3.9	1.50e+00	0	50	104	0	37	13061
2026-01-08 08:18:11.69	107.62	4.37	-35.9	-50.7	4.2	1.50e+00	0	50	104	0	42	20933
2026-01-08 08:18:12.70	107.53	4.43	-27.7	-48.3	4.2	1.50e+00	0	50	104	0	42	15886
2026-01-08 08:18:13.71	107.45	4.49	-32.0	-49.7	4.1	1.50e+00	0	50	104	0	39	22053
2026-01-08 08:18:14.72	107.37	4.55	-36.2	-51.4	4.1	1.50e+00	0	50	104	0	38	28560
2026-01-08 08:18:15.73	107.29	4.61	-35.5	-51.7	4.2	1.50e+00	0	50	104	0	41	24952
2026-01-08 08:18:16.74	107.21	4.67	-36.8	-51.7	4.1	1.50e+00	0	50	104	0	41	24738
2026-01-08 08:18:17.75	107.12	4.73	-35.1	-50.7	4.1	1.50e+00	0	50	104	0	42	20876
2026-01-08 08:18:18.75	107.04	4.79	-35.6	-50.8	4.1	1.50e+00	0	50	104	0	40	23754
2026-01-08 08:18:19.76	106.96	4.85	-35.4	-51.9	4.1	1.50e+00	0	50	104	0	44	21460
2026-01-08 08:18:20.78	106.87	4.91	-36.2	-50.1	4.2	1.50e+00	0	50	104	0	41	20748
2026-01-08 08:18:21.78	106.79	4.97	-37.2	-51.4	4.1	1.50e+00	0	50	104	0	40	25403
2026-01-08 08:18:22.79	106.70	5.03	-36.3	-51.9	4.0	1.50e+00	0	50	104	0	41	25493
2026-01-08 08:18:23.80	106.62	5.09	-36.6	-52.0	4.2	1.50e+00	0	51	104	0	42	24350
2026-01-08 08:18:24.81	106.53	5.15	-36.8	-52.0	4.0	1.50e+00	0	50	104	0	43	22931
2026-01-08 08:18:25.82	106.45	5.21	-35.4	-51.9	4.0	1.50e+00	0	51	104	0	42	24054
2026-01-08 08:18:26.83	106.36	5.27	-33.1	-50.7	4.1	1.50e+00	0	51	104	0	40	23440
2026-01-08 08:18:27.84	106.27	5.34	-33.7	-49.6	4.1	1.50e+00	0	51	104	0	39	21992
2026-01-08 08:18:28.85	106.19	5.40	-29.0	-46.0	4.0	1.50e+00	0	51	104	0	41	12822
2026-01-08 08:18:29.85	106.10	5.46	-36.4	-51.9	4.2	1.50e+00	0	51	104	0	41	25470
2026-01-08 08:18:30.86	106.01	5.52	-35.2	-51.3	4.3	1.50e+00	0	51	104	0	41	23780
2026-01-08 08:18:31.87	105.93	5.58	-36.2	-49.8	4.1	1.50e+00	0	51	104	0	39	22271
2026-01-08 08:18:32.88	105.84	5.64	-36.2	-50.2	4.0	1.50e+00	0	51	104	0	41	20868
2026-01-08 08:18:33.89	105.75	5.70	-34.8	-49.5	4.0	1.50e+00	0	51	104	0	38	22793
2026-01-08 08:18:34.90	105.66	5.76	-34.8	-51.3	4.0	1.50e+00	0	51	104	0	42	22308
2026-01-08 08:18:35.91	105.57	5.82	-35.0	-50.6	4.0	1.50e+00	0	51	104	0	43	19497
2026-01-08 08:18:36.92	105.48	5.89	-35.0	-50.5	4.0	1.50e+00	0	51	104	0	43	19244
2026-01-08 08:18:37.92	105.39	5.95	-36.0	-52.1	4.0	1.50e+00	0	51	104	0	42	24489
2026-01-08 08:18:38.93	105.30	6.01	-32.6	-49.9	4.3	1.50e+00	0	51	104	0	34	30124
2026-01-08 08:18:39.94	105.21	6.07	-27.8	-49.4	4.1	1.50e+00	0	51	104	0	33	30149
2026-01-08 08:18:40.95	105.12	6.13	-30.6	-49.8	4.2	1.50e+00	0	51	104	0	32	33581
2026-01-08 08:18:41.96	105.02	6.19	-35.4	-51.0	4.2	1.50e+00	0	52	104	0	40	24359
2026-01-08 08:18:42.97	104.93	6.26	-37.5	-51.7	4.1	1.50e+00	0	52	104	0	43	22225
2026-01-08 08:18:43.98	104.84	6.32	-35.8	-50.5	4.0	1.50e+00	0	51	104	0	39	24152
2026-01-08 08:18:44.99	104.75	6.38	-37.0	-50.9	4.1	1.50e+00	0	52	104	0	41	22735
2026-01-08 08:18:46.00	104.65	6.44	-30.3	-51.3	4.1	1.50e+00	0	51	104	0	36	31709
2026-01-08 08:18:47.01	104.56	6.50	-33.0	-50.2	3.7	1.50e+00	0	52	104	0	42	19731
2026-01-08 08:18:48.02	104.46	6.57	-35.5	-50.8	3.9	1.50e+00	0	52	104	0	43	19851
2026-01-08 08:18:49.02	104.37	6.63	-35.7	-51.5	4.2	1.50e+00	0	51	104	0	41	24361
2026-01-08 08:18:50.03	104.27	6.69	-33.4	-50.7	4.2	1.50e+00	0	52	104	0	43	19789
2026-01-08 08:18:51.04	104.18	6.75	-28.4	-47.9	4.1	1.50e+00	0	52	104	0	27	35965
2026-01-08 08:18:52.05	104.08	6.82	-35.2	-51.2	3.9	1.50e+00	0	52	104	0	35	32991
2026-01-08 08:18:53.06	103.99	6.88	-31.5	-49.8	4.2	1.50e+00	0	52	104	0	34	29692
2026-01-08 08:18:54.07	103.89	6.94	-32.8	-49.2	4.0	1.50e+00	0	52	104	0	34	27710
2026-01-08 08:18:55.07	103.79	7.00	-32.8	-50.0	3.8	1.50e+00	0	52	104	0	35	29003
2026-01-08 08:18:56.08	103.70	7.07	-34.3	-51.0	4.2	1.50e+00	0	52	104	0	41	22786
2026-01-08 08:18:57.09	103.60	7.13	-34.8	-50.6	4.1	1.50e+00	0	52	104	0	39	24656
2026-01-08 08:18:58.10	103.50	7.19	-36.1	-52.4	4.2	1.50e+00	0	52	104	0	41	26860
2026-01-08 08:18:59.11	103.40	7.26	-35.7	-51.6	4.1	1.50e+00	0	52	104	0	43	21777
2026-01-08 08:19:00.11	103.30	7.32	-34.2	-51.9	4.0	1.50e+00	0	52	104	0	41	25321
2026-01-08 08:19:01.12	103.20	7.38	-37.4	-51.7	4.3	1.50e+00	0	52	104	0	44	20957
2026-01-08 08:19:02.13	103.10	7.45	-34.5	-50.1	4.3	1.50e+00	0	52	104	0	40	21781
2026-01-08 08:19:03.15	103.00	7.51	-34.9	-49.8	4.2	1.50e+00	0	52	104	0	39	22391
2026-01-08 08:19:04.15	102.90	7.57	-35.8	-49.5	4.2	1.49e+00	0	52	104	0	41	19256
2026-01-08 08:19:05.16	102.80	7.64	-34.0	-48.4	4.5	1.48e+00	0	52	104	0	39	19075
2026-01-08 08:19:06.17	102.69	7.70	-30.6	-46.8	4.4	1.44e+00	0	53	104	0	38	16877
2026-01-08 08:19:07.17	102.59	7.76	-30.5	-44.3	6.0	1.01e+00	0	52	0	0	37	13267
2026-01-08 08:19:08.17	102.49	7.83	-33.4	-43.8	7.0	5.42e-01	0	52	0	2097152	38	11954
2026-01-08 08:19:09.18	102.39	7.89	-35.1	-44.3	6.6	4.94e-01	0	52	0	3145728	40	11167
2026-01-08 08:19:10.19	102.28	7.95	-35.2	-44.1	6.2	4.17e-01	0	52	0	4194304	37	13073
2026-01-08 08:19:11.20	102.18	8.02	-34.9	-44.6	4.8	1.00e+00	0	52	104	5242880	37	13870
2026-01-08 08:19:12.21	102.07	8.08	-38.2	-52.9	4.2	1.50e+00	0	52	104	5242880	45	22747
2026-01-08 08:19:13.21	101.97	8.15	-37.1	-47.3	4.3	1.48e+00	0	52	104	5242880	42	14158
2026-01-08 08:19:14.22	101.86	8.21	-35.9	-45.9	6.0	1.08e+00	0	53	0	5242880	38	15088
2026-01-08 08:19:15.23	101.76	8.27	-36.2	-48.6	4.7	5.82e-01	0	53	0	6291456	43	15441
2026-01-08 08:19:16.24	101.65	8.34	-32.9	-47.1	4.5	1.24e+00	0	53	104	7340032	40	15420
2026-01-08 08:19:17.25	101.54	8.40	-35.8	-46.2	4.7	1.40e+00	0	52	104	7340032	40	14019
2026-01-08 08:19:18.25	101.44	8.47	-33.5	-46.5	5.1	8.60e-01	0	53	0	7340032	40	14390
2026-01-08 08:19:19.26	101.33	8.53	-36.1	-48.1	4.7	1.15e+00	0	53	0	9437184	42	15455
2026-01-08 08:19:20.27	101.22	8.60	-26.6	-42.9	4.5	1.41e+00	0	53	104	9437184	39	10137
2026-01-08 08:19:21.28	101.11	8.66	-35.7	-48.9	4.3	1.47e+00	0	53	104	9437184	41	17917
2026-01-08 08:19:22.28	101.00	8.73	-33.9	-47.2	3.9	1.48e+00	0	53	104	9437184	40	15641
2026-01-08 08:19:23.30	100.89	8.79	-36.1	-49.0	4.3	1.48e+00	0	53	104	9437184	40	19218
2026-01-08 08:19:24.31	100.78	8.86	-30.5	-48.0	4.3	1.49e+00	0	53	104	9437184	35	22803
2026-01-08 08:19:25.32	100.67	8.92	-34.0	-47.6	4.8	1.48e+00	0	53	104	9437184	38	18459
2026-01-08 08:19:26.33	100.55	8.99	-35.1	-47.5	4.5	1.45e+00	0	53	104	9437184	40	16137
2026-01-08 08:19:27.33	100.44	9.05	-34.8	-47.4	4.5	1.46e+00	0	53	104	9437184	39	16948
2026-01-08 08:19:28.34	100.33	9.12	-35.4	-47.1	4.5	1.45e+00	0	53	104	9437184	39	16344
2026-01-08 08:19:29.35	100.22	9.18	-34.8	-46.8	4.6	1.43e+00	0	53	104	9437184	39	15930
2026-01-08 08:19:30.36	100.10	9.25	-34.3	-46.0	4.5	1.43e+00	0	53	104	9437184	39	14527
2026-01-08 08:19:31.36	99.99	9.31	-35.7	-46.2	4.7	1.40e+00	0	53	104	9437184	40	13938
2026-01-08 08:19:32.37	99.87	9.38	-35.7	-46.3	4.7	1.41e+00	0	53	104	9437184	39	14980
2026-01-08 08:19:33.38	99.76	9.44	-35.7	-46.3	4.4	1.43e+00	0	53	104	9437184	37	16831
2026-01-08 08:19:34.39	99.64	9.51	-29.2	-46.9	4.5	1.46e+00	0	53	104	9437184	39	15950
2026-01-08 08:19:35.40	99.53	9.57	-36.3	-49.3	4.2	1.47e+00	0	53	104	9437184	40	20006
2026-01-08 08:19:36.40	99.41	9.64	-34.9	-48.7	4.0	1.50e+00	0	53	104	9437184	38	20932
2026-01-08 08:19:37.41	99.29	9.70	-33.6	-47.0	4.3	1.48e+00	0	53	104	9437184	35	20513
2026-01-08 08:19:38.42	99.18	9.77	-32.3	-45.9	4.5	1.40e+00	0	53	104	9437184	37	16117
2026-01-08 08:19:39.42	99.06	9.84	-34.7	-45.3	5.6	1.34e+00	0	53	104	9437184	39	13294
2026-01-08 08:19:40.43	98.94	9.90	-33.7	-45.9	4.7	1.17e+00	0	53	104	9437184	38	15137
2026-01-08 08:19:41.44	98.82	9.97	-30.4	-43.6	4.7	1.07e+00	0	53	0	9437184	34	14593
2026-01-08 08:19:42.45	98.70	10.03	-33.8	-45.6	6.4	6.86e-01	0	54	0	11534336	41	12272
2026-01-08 08:19:43.45	98.58	10.10	-33.6	-45.4	6.3	5.72e-01	0	53	0	13631488	41	12075
2026-01-08 08:19:44.46	98.46	10.17	-29.8	-43.8	4.7	6.83e-01	0	53	0	14680064	29	19934
2026-01-08 08:19:45.47	98.34	10.23	-36.1	-46.3	6.1	7.40e-01	0	54	0	16777216	43	11888
2026-01-08 08:19:46.48	98.21	10.30	-37.5	-46.9	6.3	5.87e-01	0	53	0	18874368	45	11365
2026-01-08 08:19:47.49	98.09	10.36	-37.3	-46.0	6.4	7.01e-01	0	54	0	19922944	45	10242
2026-01-08 08:19:48.50	97.97	10.43	-37.5	-45.8	6.9	3.23e-01	0	54	0	22020096	45	10003
2026-01-08 08:19:49.51	97.84	10.50	-32.2	-44.8	6.7	3.52e-01	0	54	0	24117248	44	9467
2026-01-08 08:19:50.52	97.72	10.56	-38.3	-45.8	7.3	2.91e-01	0	54	0	26214400	47	8954
2026-01-08 08:19:51.53	97.59	10.63	-38.2	-45.7	7.8	2.90e-01	0	53	0	28311552	49	7877
2026-01-08 08:19:52.54	97.46	10.70	-33.3	-44.9	6.5	3.02e-01	0	53	0	29360128	46	8534
2026-01-08 08:19:53.54	97.34	10.76	-38.6	-46.8	6.2	2.64e-01	0	54	0	31457280	48	9496
2026-01-08 08:19:54.55	97.21	10.83	-39.8	-46.9	7.5	2.07e-01	0	54	0	33554432	51	8069
2026-01-08 08:19:55.56	97.08	10.90	-39.5	-46.8	8.0	1.45e-01	0	54	0	35651584	51	7955
2026-01-08 08:19:56.56	96.96	10.96	-39.3	-45.7	9.3	6.22e-02	0	54	0	37748736	51	7002
2026-01-08 08:19:57.57	96.83	11.03	-38.7	-45.7	9.1	6.52e-02	0	54	0	38797312	49	7840
2026-01-08 08:19:58.58	96.70	11.10	-40.8	-45.8	9.7	3.46e-02	0	54	0	40894464	51	7077
2026-01-08 08:19:59.58	96.57	11.16	-40.5	-45.9	9.8	1.75e-02	0	54	0	42991616	52	6773
2026-01-08 08:20:00.59	96.44	11.23	-40.6	-46.3	8.9	2.19e-02	0	54	0	45088768	51	7538
2026-01-08 08:20:01.60	96.31	11.30	-41.3	-47.4	8.3	5.18e-02	0	54	0	47185920	53	7625
2026-01-08 08:20:02.60	96.18	11.36	-41.2	-47.7	8.1	8.07e-02	0	54	0	48234496	53	7879
2026-01-08 08:20:03.61	96.04	11.43	-41.3	-47.5	8.3	6.43e-02	0	54	0	50331648	53	7688
2026-01-08 08:20:04.62	95.91	11.50	-41.2	-46.9	8.9	3.17e-02	0	54	0	52428800	53	7197
2026-01-08 08:20:05.63	95.78	11.56	-41.1	-46.8	9.0	2.59e-02	0	54	0	54525952	53	7121
2026-01-08 08:20:06.64	95.64	11.63	-41.1	-47.1	8.7	3.32e-02	0	54	0	56623104	53	7339
2026-01-08 08:20:07.65	95.51	11.70	-41.0	-46.8	9.1	2.90e-02	0	54	0	57671680	53	7072
2026-01-08 08:20:08.65	95.37	11.76	-41.1	-46.3	9.7	1.31e-02	0	54	0	59768832	53	6712
2026-01-08 08:20:09.66	95.24	11.83	-41.0	-46.1	9.9	1.01e-02	0	54	0	61865984	53	6508
2026-01-08 08:20:10.67	95.10	11.90	-41.1	-46.4	9.7	1.01e-02	0	54	0	63963136	53	6725
2026-01-08 08:20:11.67	94.96	11.96	-41.3	-46.6	9.4	1.32e-02	0	54	0	66060288	53	6946
2026-01-08 08:20:12.68	94.83	12.03	-41.4	-46.9	9.1	2.09e-02	0	54	0	67108864	53	7182
2026-01-08 08:20:13.69	94.69	12.10	-41.1	-46.1	10.0	1.38e-02	0	54	0	69206016	53	6506
2026-01-08 08:20:14.70	94.55	12.17	-41.1	-46.0	10.0	6.91e-03	0	54	0	71303168	53	6483
2026-01-08 08:20:15.71	94.41	12.23	-41.1	-46.1	10.0	6.14e-03	0	54	0	73400320	53	6504
2026-01-08 08:20:16.71	94.27	12.30	-41.1	-46.1	10.0	5.78e-03	0	54	0	75497472	53	6518
2026-01-08 08:20:17.72	94.13	12.37	-41.1	-45.9	10.2	6.48e-03	0	54	0	76546048	53	6395
2026-01-08 08:20:18.73	93.98	12.44	-41.0	-45.7	10.4	4.95e-03	0	54	0	78643200	53	6258
2026-01-08 08:20:19.73	93.84	12.50	-40.9	-45.5	10.6	4.52e-03	0	54	0	80740352	53	6119
2026-01-08 08:20:20.74	93.70	12.57	-40.9	-45.5	10.8	3.79e-03	0	54	0	82837504	53	6071
2026-01-08 08:20:21.75	93.56	12.64	-40.9	-45.5	10.7	2.87e-03	0	54	0	84934656	53	6129
2026-01-08 08:20:22.76	93.41	12.70	-41.0	-45.8	10.3	4.27e-03	0	54	0	85983232	53	6344
2026-01-08 08:20:23.77	93.27	12.77	-41.0	-45.8	10.3	4.40e-03	0	54	0	88080384	53	6344
2026-01-08 08:20:24.77	93.12	12.84	-40.9	-45.5	10.7	3.17e-03	0	54	0	90177536	53	6105
2026-01-08 08:20:25.78	92.97	12.91	-41.0	-45.7	10.5	2.88e-03	0	54	0	92274688	53	6253
2026-01-08 08:20:26.79	92.83	12.97	-40.9	-45.7	10.5	3.87e-03	0	54	0	94371840	53	6209
2026-01-08 08:20:27.80	92.68	13.04	-41.0	-45.9	10.1	6.89e-03	0	54	0	95420416	53	6414
2026-01-08 08:20:28.80	92.53	13.11	-41.0	-46.1	10.0	7.64e-03	0	54	0	97517568	53	6501
2026-01-08 08:20:29.81	92.38	13.17	-41.1	-46.3	9.8	7.91e-03	0	54	0	99614720	53	6708
2026-01-08 08:20:30.82	92.23	13.24	-41.0	-45.9	10.2	6.76e-03	0	55	0	101711872	53	6403
2026-01-08 08:20:31.83	92.08	13.31	-40.9	-45.8	10.3	5.40e-03	0	54	0	103809024	53	6286
2026-01-08 08:20:32.83	91.93	13.38	-40.9	-45.5	10.6	6.04e-03	0	55	0	104857600	53	6100
2026-01-08 08:20:33.84	91.78	13.44	-40.8	-45.2	11.0	2.59e-03	0	54	0	106954752	53	5881
2026-01-08 08:20:34.85	91.63	13.51	-40.8	-45.4	10.8	2.08e-03	0	54	0	109051904	53	6021
2026-01-08 08:20:35.86	91.47	13.58	-40.9	-45.6	10.5	4.24e-03	0	54	0	111149056	53	6196
2026-01-08 08:20:36.86	91.32	13.64	-40.8	-45.5	10.7	4.17e-03	0	55	0	113246208	53	6124
2026-01-08 08:20:37.87	91.16	13.71	-40.5	-44.9	11.2	2.01e-03	0	55	0	114294784	53	5659
2026-01-08 08:20:38.88	91.01	13.78	-40.3	-44.5	11.4	8.73e-04	0	54	0	116391936	52	5771
2026-01-08 08:20:39.89	90.85	13.85	-40.2	-44.3	11.7	7.54e-04	0	55	0	118489088	52	5638
2026-01-08 08:20:40.90	90.69	13.91	-40.2	-44.5	11.5	6.62e-04	0	55	0	120586240	52	5740
2026-01-08 08:20:41.90	90.54	13.98	-40.4	-44.9	11.1	1.31e-03	0	55	0	122683392	52	6025
2026-01-08 08:20:42.91	90.38	14.05	-40.5	-45.0	11.0	1.88e-03	0	55	0	124780544	52	6096
2026-01-08 08:20:43.92	90.22	14.11	-40.4	-44.9	11.0	1.93e-03	0	55	0	125829120	52	6008
2026-01-08 08:20:44.93	90.06	14.18	-40.2	-44.4	11.5	1.08e-03	0	55	0	127926272	52	5715
2026-01-08 08:20:45.94	89.90	14.25	-40.1	-44.2	11.8	4.36e-04	0	55	0	130023424	52	5562
2026-01-08 08:20:46.95	89.74	14.32	-40.1	-44.1	12.0	2.88e-04	0	55	0	132120576	52	5485
2026-01-08 08:20:47.96	89.57	14.38	-40.1	-43.8	12.3	1.72e-04	0	55	0	133169152	51	5653
2026-01-08 08:20:48.96	89.41	14.45	-40.2	-44.1	12.1	1.36e-04	0	55	0	135266304	51	5798
2026-01-08 08:20:49.97	89.25	14.52	-40.4	-44.5	11.6	3.62e-04	0	55	0	137363456	51	6113
2026-01-08 08:20:50.98	89.08	14.58	-40.6	-45.0	11.1	9.19e-04	0	55	0	139460608	51	6485
2026-01-08 08:20:51.98	88.92	14.65	-40.7	-45.3	10.6	2.41e-03	0	55	0	141557760	52	6333
2026-01-08 08:20:52.99	88.75	14.72	-40.7	-45.4	10.5	4.05e-03	0	55	0	142606336	52	6366
2026-01-08 08:20:54.00	88.59	14.78	-40.7	-45.4	10.4	4.33e-03	0	55	0	144703488	52	6400
2026-01-08 08:20:55.01	88.42	14.85	-40.6	-45.3	10.5	4.00e-03	0	55	0	146800640	52	6340
2026-01-08 08:20:56.02	88.25	14.92	-40.5	-45.2	10.5	3.81e-03	0	55	0	148897792	52	6235
2026-01-08 08:20:57.02	88.08	14.98	-40.6	-45.5	10.2	4.47e-03	0	55	0	150994944	52	6474
2026-01-08 08:20:58.03	87.91	15.05	-40.7	-46.1	9.5	1.04e-02	0	55	0	153092096	52	6886
2026-01-08 08:20:59.04	87.74	15.11	-40.7	-46.2	9.3	1.61e-02	0	55	0	154140672	52	6983
2026-01-08 08:21:00.05	87.57	15.18	-40.7	-46.4	9.1	2.28e-02	0	55	0	156237824	52	7124
2026-01-08 08:21:01.06	87.40	15.25	-40.6	-46.2	9.2	2.06e-02	0	55	0	158334976	52	6960
2026-01-08 08:21:02.07	87.23	15.31	-40.8	-46.8	8.4	3.77e-02	0	55	0	160432128	52	7532
2026-01-08 08:21:03.07	87.05	15.38	-40.8	-47.1	8.1	5.95e-02	0	55	0	162529280	52	7766
2026-01-08 08:21:04.08	86.88	15.44	-40.8	-47.3	7.8	7.54e-02	0	55	0	163577856	52	7957
2026-01-08 08:21:05.09	86.71	15.51	-40.7	-47.1	7.9	7.70e-02	0	55	0	165675008	52	7790
2026-01-08 08:21:06.10	86.53	15.57	-40.7	-47.1	7.9	7.07e-02	0	55	0	167772160	52	7730
2026-01-08 08:21:07.10	86.35	15.64	-40.6	-47.0	7.9	8.02e-02	0	55	0	169869312	52	7718
2026-01-08 08:21:08.11	86.18	15.71	-40.7	-47.4	7.6	9.33e-02	0	55	0	171966464	52	7999
2026-01-08 08:21:09.12	86.00	15.77	-40.7	-47.5	7.4	8.91e-02	0	55	0	173015040	52	8131
2026-01-08 08:21:10.13	85.82	15.84	-40.5	-46.9	8.0	1.01e-01	0	55	0	175112192	52	7602
2026-01-08 08:21:11.14	85.64	15.90	-40.4	-46.2	8.8	4.26e-02	0	55	0	177209344	52	6984
2026-01-08 08:21:12.15	85.46	15.97	-40.4	-46.1	8.9	3.19e-02	0	55	0	179306496	52	6895
2026-01-08 08:21:13.16	85.28	16.03	-40.3	-45.9	9.2	2.39e-02	0	55	0	181403648	52	6731
2026-01-08 08:21:14.16	85.10	16.10	-40.5	-46.4	8.7	2.70e-02	0	55	0	182452224	52	7122
2026-01-08 08:21:15.17	84.91	16.16	-40.5	-46.3	8.9	3.05e-02	0	55	0	184549376	52	7084
2026-01-08 08:21:16.18	84.73	16.22	-40.4	-45.8	9.4	2.28e-02	0	55	0	186646528	52	6655
2026-01-08 08:21:17.19	84.54	16.29	-40.3	-45.4	9.9	1.15e-02	0	55	0	188743680	52	6362
2026-01-08 08:21:18.19	84.36	16.35	-40.4	-45.3	10.2	7.74e-03	0	55	0	190840832	52	6286
2026-01-08 08:21:19.21	84.17	16.42	-40.5	-45.4	10.1	5.78e-03	0	55	0	191889408	52	6371
2026-01-08 08:21:20.22	83.98	16.48	-40.5	-45.4	10.2	5.50e-03	0	55	0	193986560	52	6372
2026-01-08 08:21:21.22	83.80	16.55	-40.6	-45.5	10.2	5.75e-03	0	55	0	196083712	52	6439
2026-01-08 08:21:22.23	83.61	16.61	-40.4	-44.8	10.9	5.04e-03	0	55	0	198180864	52	5979
2026-01-08 08:21:23.24	83.42	16.67	-40.4	-44.9	10.9	2.49e-03	0	55	0	200278016	52	6023
2026-01-08 08:21:24.25	83.23	16.74	-40.3	-44.5	11.3	1.60e-03	0	55	0	201326592	52	5787
2026-01-08 08:21:25.25	83.04	16.80	-40.2	-44.2	11.7	1.10e-03	0	55	0	203423744	52	5585
2026-01-08 08:21:26.26	82.85	16.86	-40.1	-44.0	12.0	4.94e-04	0	55	0	205520896	52	5456
2026-01-08 08:21:27.27	82.66	16.92	-40.0	-43.8	12.3	1.85e-04	0	55	0	207618048	52	5290
2026-01-08 08:21:28.28	82.46	16.99	-40.0	-43.5	12.7	1.14e-04	0	55	0	209715200	51	5447
2026-01-08 08:21:29.29	82.27	17.05	-39.9	-43.5	12.8	7.17e-05	0	55	0	210763776	51	5406
2026-01-08 08:21:30.30	82.07	17.11	-39.9	-43.4	12.9	4.50e-05	0	55	0	212860928	51	5377
2026-01-08 08:21:31.31	81.88	17.17	-40.1	-43.7	12.5	6.33e-05	0	55	0	214958080	51	5575
2026-01-08 08:21:32.31	81.68	17.24	-40.1	-43.8	12.5	9.68e-05	0	55	0	217055232	51	5601
2026-01-08 08:21:33.32	81.48	17.30	-40.1	-43.9	12.3	1.52e-04	0	55	0	219152384	51	5677
2026-01-08 08:21:34.33	81.29	17.36	-40.0	-43.7	12.4	1.87e-04	0	55	0	220200960	51	5554
2026-01-08 08:21:35.34	81.09	17.42	-39.9	-43.7	12.2	1.86e-04	0	55	0	222298112	51	5588
2026-01-08 08:21:36.35	80.89	17.48	-39.9	-43.8	12.0	2.23e-04	0	55	0	224395264	51	5623
2026-01-08 08:21:37.36	80.69	17.54	-39.8	-43.9	11.8	3.42e-04	0	55	0	226492416	51	5663
2026-01-08 08:21:38.36	80.49	17.60	-39.7	-43.9	11.7	4.87e-04	0	55	0	228589568	51	5664
2026-01-08 08:21:39.37	80.28	17.66	-39.7	-43.8	11.5	6.38e-04	0	55	0	229638144	51	5653
2026-01-08 08:21:40.38	80.08	17.73	-39.6	-44.0	11.3	1.10e-03	0	55	0	231735296	51	5730
2026-01-08 08:21:41.38	79.88	17.78	-39.7	-44.2	11.0	1.60e-03	0	55	0	233832448	51	5858
2026-01-08 08:21:42.39	79.67	17.84	-39.8	-44.4	10.6	2.28e-03	0	55	0	235929600	51	6047
2026-01-08 08:21:43.40	79.47	17.90	-39.8	-44.6	10.4	3.96e-03	0	56	0	238026752	51	6187
2026-01-08 08:21:44.41	79.26	17.96	-39.8	-44.6	10.5	3.91e-03	0	55	0	239075328	51	6149
2026-01-08 08:21:45.42	79.05	18.02	-39.9	-44.6	10.4	4.39e-03	0	55	0	241172480	51	6196
2026-01-08 08:21:46.43	78.84	18.08	-39.9	-44.6	10.4	4.22e-03	0	55	0	243269632	51	6186
2026-01-08 08:21:47.44	78.64	18.14	-39.9	-44.8	10.4	3.78e-03	0	55	0	245366784	51	6278
2026-01-08 08:21:48.45	78.43	18.20	-40.0	-45.0	10.2	5.86e-03	0	55	0	247463936	51	6449
2026-01-08 08:21:49.45	78.22	18.26	-40.1	-45.0	10.1	6.60e-03	0	55	0	248512512	51	6487
2026-01-08 08:21:50.46	78.01	18.32	-40.1	-45.0	10.2	6.00e-03	0	55	0	250609664	51	6467
2026-01-08 08:21:51.47	77.79	18.37	-40.2	-44.9	10.5	4.80e-03	0	55	0	252706816	51	6403
2026-01-08 08:21:52.48	77.58	18.43	-40.2	-44.8	10.6	4.34e-03	0	55	0	254803968	51	6347
2026-01-08 08:21:53.49	77.37	18.49	-40.1	-44.7	10.8	2.07e-03	0	55	0	256901120	51	6262
2026-01-08 08:21:54.50	77.15	18.54	-40.0	-44.6	11.0	2.02e-03	0	55	0	257949696	51	6157
2026-01-08 08:21:55.50	76.94	18.60	-40.0	-44.5	11.0	2.07e-03	0	55	0	260046848	51	6115
2026-01-08 08:21:56.51	76.72	18.66	-40.0	-44.5	11.1	1.73e-03	0	55	0	262144000	51	6089
2026-01-08 08:21:57.52	76.50	18.71	-40.0	-44.6	10.9	1.95e-03	0	55	0	264241152	51	6200
2026-01-08 08:21:58.52	76.29	18.77	-39.8	-44.1	11.5	1.26e-03	0	56	0	266338304	51	5815
2026-01-08 08:21:59.53	76.07	18.82	-39.7	-44.0	11.5	8.41e-04	0	56	0	267386880	51	5748
2026-01-08 08:22:00.54	75.85	18.88	-39.6	-43.8	11.7	6.23e-04	0	56	0	269484032	51	5651
2026-01-08 08:22:01.55	75.63	18.93	-39.5	-43.6	11.8	5.68e-04	0	56	0	271581184	51	5528
2026-01-08 08:22:02.56	75.41	18.99	-39.4	-43.2	12.3	4.20e-04	0	56	0	273678336	50	5587
2026-01-08 08:22:03.57	75.19	19.04	-39.4	-43.3	12.3	2.71e-04	0	56	0	275775488	50	5606
2026-01-08 08:22:04.57	74.97	19.09	-39.3	-43.1	12.5	1.43e-04	0	56	0	277872640	50	5499
2026-01-08 08:22:05.58	74.74	19.15	-39.3	-42.8	12.9	8.31e-05	0	56	0	278921216	50	5331
2026-01-08 08:22:06.59	74.52	19.20	-39.2	-42.6	13.1	3.89e-05	0	56	0	281018368	50	5193
2026-01-08 08:22:07.60	74.29	19.25	-39.2	-42.7	13.2	2.28e-05	0	55	0	283115520	50	5226
2026-01-08 08:22:08.61	74.07	19.31	-39.3	-42.7	13.1	1.67e-05	0	56	0	285212672	50	5259
2026-01-08 08:22:09.61	73.84	19.36	-39.3	-42.8	13.1	3.89e-05	0	55	0	287309824	50	5323
2026-01-08 08:22:10.62	73.62	19.41	-39.4	-43.0	13.0	3.58e-05	0	55	0	288358400	50	5416
2026-01-08 08:22:11.63	73.39	19.46	-39.4	-42.8	13.2	3.73e-05	0	56	0	290455552	50	5327
2026-01-08 08:22:12.64	73.16	19.51	-39.5	-43.0	13.0	3.43e-05	0	56	0	292552704	50	5439
2026-01-08 08:22:13.65	72.93	19.56	-39.6	-43.1	12.9	4.88e-05	0	56	0	294649856	50	5525
2026-01-08 08:22:14.65	72.70	19.61	-39.6	-43.2	13.0	4.65e-05	0	56	0	295698432	50	5544
2026-01-08 08:22:15.66	72.47	19.66	-39.3	-42.7	13.4	2.13e-05	0	56	0	297795584	50	5228
2026-01-08 08:22:16.67	72.24	19.71	-39.4	-42.7	13.4	9.10e-06	0	55	0	299892736	50	5279
2026-01-08 08:22:17.68	72.00	19.76	-39.5	-43.0	13.3	1.98e-05	0	56	0	301989888	50	5413
2026-01-08 08:22:18.68	71.77	19.81	-39.6	-43.1	13.2	1.75e-05	0	56	0	304087040	50	5466
2026-01-08 08:22:19.69	71.54	19.86	-39.7	-43.2	13.1	3.20e-05	0	56	0	306184192	50	5547
2026-01-08 08:22:20.70	71.30	19.91	-39.6	-42.9	13.5	2.13e-05	0	56	0	307232768	50	5363
2026-01-08 08:22:21.71	71.07	19.95	-39.6	-42.9	13.6	9.90e-06	0	55	0	309329920	50	5384
2026-01-08 08:22:22.72	70.83	20.00	-39.5	-42.7	13.9	6.80e-06	0	55	0	311427072	50	5268
2026-01-08 08:22:23.72	70.60	20.05	-39.6	-42.9	13.8	3.80e-06	0	55	0	313524224	50	5346
2026-01-08 08:22:24.73	70.36	20.09	-39.5	-42.5	14.2	1.50e-06	0	56	0	315621376	50	5126
2026-01-08 08:22:25.74	70.12	20.14	-39.4	-42.3	14.5	1.50e-06	0	56	0	316669952	50	5025
2026-01-08 08:22:26.75	69.88	20.18	-39.4	-42.2	14.8	7.00e-07	0	56	0	318767104	50	4931
2026-01-08 08:22:27.75	69.64	20.23	-39.1	-41.7	15.3	0.00e+00	0	56	0	320864256	50	4705
2026-01-08 08:22:28.76	69.40	20.27	-39.0	-41.5	15.5	0.00e+00	0	56	0	322961408	50	4592
2026-01-08 08:22:29.77	69.16	20.32	-38.9	-41.4	15.7	0.00e+00	0	55	0	325058560	49	4807
2026-01-08 08:22:30.78	68.92	20.36	-39.0	-41.5	15.7	0.00e+00	0	56	0	326107136	49	4854
2026-01-08 08:22:31.78	68.68	20.40	-38.8	-41.2	16.1	0.00e+00	0	55	0	328204288	49	4675
2026-01-08 08:22:32.79	68.44	20.44	-39.0	-41.4	16.0	0.00e+00	0	56	0	330301440	49	4767
2026-01-08 08:22:33.80	68.19	20.49	-39.0	-41.4	16.0	0.00e+00	0	56	0	332398592	49	4768
2026-01-08 08:22:34.81	67.95	20.53	-38.8	-41.1	16.3	0.00e+00	0	56	0	334495744	49	4629
2026-01-08 08:22:35.82	67.70	20.57	-38.7	-41.0	16.4	0.00e+00	0	56	0	335544320	49	4567
2026-01-08 08:22:36.83	67.46	20.61	-38.5	-40.6	16.8	0.00e+00	0	56	0	337641472	48	4629
2026-01-08 08:22:37.83	67.21	20.65	-38.6	-40.8	16.7	0.00e+00	0	56	0	339738624	48	4743
2026-01-08 08:22:38.83	66.97	20.69	-38.9	-41.2	16.4	0.00e+00	0	56	0	341835776	48	4938
2026-01-08 08:22:39.84	66.72	20.73	-39.1	-41.4	16.1	0.00e+00	0	56	0	343932928	48	5082
2026-01-08 08:22:40.85	66.47	20.77	-39.0	-41.3	16.3	0.00e+00	0	56	0	344981504	48	4990
2026-01-08 08:22:41.86	66.22	20.80	-39.2	-41.6	15.9	0.00e+00	0	56	0	347078656	49	4926
2026-01-08 08:22:42.87	65.97	20.84	-39.4	-42.0	15.6	0.00e+00	0	56	0	349175808	49	5114
2026-01-08 08:22:43.88	65.72	20.88	-39.6	-42.3	15.3	0.00e+00	0	56	0	351272960	49	5281
2026-01-08 08:22:44.89	65.47	20.92	-39.8	-42.5	15.1	0.00e+00	0	56	0	353370112	50	5152
2026-01-08 08:22:45.90	65.22	20.95	-39.8	-42.6	15.0	0.00e+00	0	56	0	354418688	50	5180
2026-01-08 08:22:46.90	64.97	20.99	-39.9	-42.7	14.8	0.00e+00	0	56	0	356515840	50	5260
2026-01-08 08:22:47.91	64.72	21.02	-40.0	-42.8	14.8	0.00e+00	0	56	0	358612992	50	5295
2026-01-08 08:22:48.92	64.46	21.06	-40.2	-43.1	14.5	0.00e+00	0	56	0	360710144	50	5494
2026-01-08 08:22:49.93	64.21	21.09	-40.2	-43.2	14.4	0.00e+00	0	56	0	362807296	51	5265
2026-01-08 08:22:50.94	63.95	21.12	-40.4	-43.5	14.1	1.50e-06	0	56	0	363855872	51	5458
2026-01-08 08:22:51.95	63.70	21.16	-40.3	-43.3	14.2	7.00e-07	0	56	0	365953024	51	5335
2026-01-08 08:22:52.95	63.45	21.19	-40.2	-43.2	14.4	1.50e-06	0	56	0	368050176	51	5260
2026-01-08 08:22:53.96	63.19	21.22	-40.1	-43.0	14.6	0.00e+00	0	56	0	370147328	51	5113
2026-01-08 08:22:54.97	62.93	21.25	-40.0	-42.9	14.7	0.00e+00	0	56	0	372244480	51	5065
2026-01-08 08:22:55.98	62.68	21.28	-39.9	-42.8	14.9	0.00e+00	0	55	0	373293056	51	4994
2026-01-08 08:22:56.98	62.42	21.31	-39.8	-42.6	15.1	0.00e+00	0	56	0	375390208	51	4872
2026-01-08 08:22:57.99	62.16	21.34	-39.8	-42.5	15.0	0.00e+00	0	56	0	377487360	51	4851
2026-01-08 08:22:59.00	61.90	21.37	-39.9	-42.6	14.9	0.00e+00	0	56	0	379584512	51	4926
2026-01-08 08:23:00.01	61.64	21.40	-39.9	-42.8	14.8	7.00e-07	0	56	0	381681664	51	5016
2026-01-08 08:23:01.01	61.39	21.42	-40.1	-43.1	14.5	0.00e+00	0	56	0	382730240	51	5193
2026-01-08 08:23:02.02	61.13	21.45	-40.3	-43.4	14.2	0.00e+00	0	56	0	384827392	51	5400
2026-01-08 08:23:03.03	60.87	21.48	-40.4	-43.6	14.0	7.00e-07	0	56	0	386924544	51	5481
2026-01-08 08:23:04.04	60.61	21.50	-40.5	-43.7	13.9	2.20e-06	0	56	0	389021696	51	5575
2026-01-08 08:23:05.05	60.35	21.53	-40.3	-43.5	14.1	1.50e-06	0	56	0	391118848	51	5419
2026-01-08 08:23:06.06	60.08	21.55	-40.2	-43.3	14.4	7.00e-07	0	56	0	392167424	51	5290
2026-01-08 08:23:07.06	59.82	21.58	-40.0	-42.9	14.7	0.00e+00	0	56	0	394264576	51	5062
2026-01-08 08:23:08.07	59.56	21.60	-40.0	-42.8	14.8	0.00e+00	0	56	0	396361728	51	5023
2026-01-08 08:23:09.08	59.30	21.62	-40.1	-42.9	14.7	7.00e-07	0	56	0	398458880	51	5087
2026-01-08 08:23:10.08	59.04	21.65	-40.2	-43.1	14.5	7.00e-07	0	56	0	400556032	51	5181
2026-01-08 08:23:11.08	58.78	21.67	-40.4	-43.4	14.2	0.00e+00	0	56	0	401604608	51	5389
2026-01-08 08:23:12.09	58.51	21.69	-40.4	-43.4	14.2	0.00e+00	0	56	0	403701760	51	5401
2026-01-08 08:23:13.10	58.25	21.71	-40.3	-43.4	14.2	1.50e-06	0	56	0	405798912	51	5369
2026-01-08 08:23:14.11	57.98	21.73	-40.2	-43.2	14.4	0.00e+00	0	56	0	407896064	51	5237
2026-01-08 08:23:15.11	57.72	21.75	-40.0	-42.9	14.7	1.50e-06	0	56	0	409993216	51	5070
2026-01-08 08:23:16.12	57.46	21.76	-39.8	-42.6	15.1	0.00e+00	0	56	0	411041792	51	4880
2026-01-08 08:23:17.12	57.19	21.78	-40.0	-42.8	14.8	0.00e+00	0	56	0	413138944	51	5022
2026-01-08 08:23:18.13	56.93	21.80	-40.1	-43.0	14.6	0.00e+00	0	56	0	415236096	51	5154
2026-01-08 08:23:19.14	56.66	21.82	-40.3	-43.4	14.1	0.00e+00	0	56	0	417333248	51	5389
2026-01-08 08:23:20.15	56.39	21.83	-40.6	-43.9	13.7	1.50e-06	0	56	0	419430400	51	5715
2026-01-08 08:23:21.16	56.13	21.85	-40.7	-44.2	13.4	3.00e-06	0	56	0	420478976	51	5868
2026-01-08 08:23:22.17	55.86	21.86	-40.6	-44.1	13.4	7.60e-06	0	56	0	422576128	52	5513
2026-01-08 08:23:23.18	55.59	21.87	-40.7	-44.2	13.3	1.67e-05	0	56	0	424673280	52	5555
2026-01-08 08:23:24.19	55.33	21.89	-40.8	-44.4	13.1	2.05e-05	0	56	0	426770432	52	5721
2026-01-08 08:23:25.19	55.06	21.90	-40.8	-44.5	13.1	3.20e-05	0	56	0	428867584	52	5735
2026-01-08 08:23:26.20	54.79	21.91	-40.9	-44.6	12.9	4.88e-05	0	56	0	429916160	52	5843
2026-01-08 08:23:27.21	54.53	21.92	-40.8	-44.4	13.2	3.20e-05	0	56	0	432013312	52	5678
2026-01-08 08:23:28.22	54.26	21.93	-40.6	-44.1	13.4	9.90e-06	0	56	0	434110464	52	5495
2026-01-08 08:23:29.23	53.99	21.94	-40.4	-43.7	13.9	6.10e-06	0	56	0	436207616	52	5262
2026-01-08 08:23:30.24	53.72	21.95	-40.3	-43.5	14.0	8.30e-06	0	56	0	438304768	52	5141
2026-01-08 08:23:31.25	53.45	21.96	-40.1	-43.1	14.4	2.20e-06	0	56	0	439353344	52	4906
2026-01-08 08:23:32.25	53.19	21.97	-39.9	-42.8	14.8	0.00e+00	0	56	0	441450496	51	5006
2026-01-08 08:23:33.26	52.92	21.98	-39.6	-42.2	15.3	0.00e+00	0	56	0	443547648	51	4693
2026-01-08 08:23:34.27	52.65	21.98	-39.6	-42.3	15.3	0.00e+00	0	56	0	445644800	51	4752
2026-01-08 08:23:35.28	52.38	21.99	-39.4	-42.1	15.5	0.00e+00	0	56	0	447741952	50	4876
2026-01-08 08:23:36.29	52.11	21.99	-39.6	-42.4	15.3	0.00e+00	0	56	0	448790528	50	5042
2026-01-08 08:23:37.30	51.84	22.00	-39.6	-42.3	15.3	0.00e+00	0	56	0	450887680	50	5033
2026-01-08 08:23:38.30	51.57	22.00	-39.4	-42.1	15.6	0.00e+00	0	56	0	452984832	50	4873
2026-01-08 08:23:39.31	51.30	22.01	-39.4	-42.1	15.6	0.00e+00	0	56	0	455081984	50	4883
2026-01-08 08:23:40.32	51.03	22.01	-39.5	-42.1	15.5	0.00e+00	0	56	0	457179136	50	4881
2026-01-08 08:23:41.32	50.77	22.01	-39.6	-42.3	15.3	0.00e+00	0	56	0	459276288	50	5038
2026-01-08 08:23:42.33	50.50	22.01	-39.7	-42.5	15.1	0.00e+00	0	56	0	460324864	50	5128
2026-01-08 08:23:43.34	50.23	22.01	-40.0	-42.9	14.8	0.00e+00	0	56	0	462422016	50	5366
2026-01-08 08:23:44.35	49.96	22.01	-40.0	-42.9	14.8	0.00e+00	0	56	0	464519168	50	5374
2026-01-08 08:23:45.36	49.69	22.01	-40.1	-43.0	14.7	0.00e+00	0	56	0	466616320	50	5461
2026-01-08 08:23:46.36	49.42	22.01	-39.9	-42.8	14.9	0.00e+00	0	56	0	468713472	50	5283
2026-01-08 08:23:47.37	49.15	22.01	-40.0	-43.0	14.7	0.00e+00	0	56	0	469762048	50	5418
2026-01-08 08:23:48.38	48.88	22.00	-40.0	-42.9	14.9	1.50e-06	0	56	0	471859200	50	5355
2026-01-08 08:23:49.39	48.61	22.00	-39.8	-42.5	15.1	0.00e+00	0	56	0	473956352	50	5143
2026-01-08 08:23:50.40	48.34	22.00	-39.6	-42.3	15.4	0.00e+00	0	56	0	476053504	50	4998
2026-01-08 08:23:51.41	48.07	21.99	-39.4	-41.9	15.8	0.00e+00	0	56	0	478150656	50	4766
2026-01-08 08:23:52.42	47.80	21.99	-39.3	-41.8	15.9	0.00e+00	0	56	0	479199232	50	4733
2026-01-08 08:23:53.43	47.54	21.98	-39.4	-42.0	15.8	0.00e+00	0	56	0	481296384	50	4815
2026-01-08 08:23:54.44	47.27	21.97	-39.6	-42.2	15.6	0.00e+00	0	56	0	483393536	50	4930
2026-01-08 08:23:55.44	47.00	21.97	-39.6	-42.2	15.5	0.00e+00	0	56	0	485490688	50	4975
2026-01-08 08:23:56.45	46.73	21.96	-39.6	-42.2	15.6	0.00e+00	0	56	0	487587840	50	4962
2026-01-08 08:23:57.45	46.47	21.95	-39.4	-41.8	15.9	0.00e+00	0	56	0	488636416	50	4742
2026-01-08 08:23:58.46	46.20	21.94	-39.2	-41.6	16.2	0.00e+00	0	56	0	490733568	50	4623
2026-01-08 08:23:59.47	45.93	21.93	-39.1	-41.4	16.4	0.00e+00	0	56	0	492830720	50	4518
2026-01-08 08:24:00.48	45.66	21.92	-39.1	-41.3	16.4	0.00e+00	0	56	0	494927872	49	4756
2026-01-08 08:24:01.48	45.40	21.91	-39.1	-41.4	16.3	0.00e+00	0	56	0	497025024	49	4805
2026-01-08 08:24:02.49	45.13	21.89	-39.4	-41.9	15.9	0.00e+00	0	56	0	498073600	49	5060
2026-01-08 08:24:03.50	44.86	21.88	-39.2	-41.6	16.1	0.00e+00	0	56	0	500170752	49	4894
2026-01-08 08:24:04.51	44.59	21.87	-39.2	-41.6	16.1	0.00e+00	0	56	0	502267904	49	4879
2026-01-08 08:24:05.52	44.33	21.85	-39.1	-41.5	16.3	0.00e+00	0	56	0	504365056	49	4825
2026-01-08 08:24:06.52	44.06	21.84	-39.0	-41.2	16.5	0.00e+00	0	56	0	506462208	49	4705
2026-01-08 08:24:07.53	43.80	21.82	-38.7	-40.9	16.7	0.00e+00	0	56	0	507510784	49	4514
2026-01-08 08:24:08.54	43.53	21.81	-38.8	-41.0	16.7	0.00e+00	0	56	0	509607936	49	4577
2026-01-08 08:24:09.55	43.27	21.79	-38.9	-41.1	16.7	0.00e+00	0	56	0	511705088	49	4631
2026-01-08 08:24:10.56	43.00	21.77	-38.9	-41.1	16.6	0.00e+00	0	56	0	513802240	49	4624
2026-01-08 08:24:11.56	42.74	21.75	-39.0	-41.2	16.5	0.00e+00	0	56	0	515899392	49	4689
2026-01-08 08:24:12.57	42.47	21.74	-39.0	-41.3	16.4	0.00e+00	0	56	0	516947968	49	4753
2026-01-08 08:24:13.58	42.21	21.72	-39.2	-41.5	16.2	0.00e+00	0	56	0	519045120	49	4866
2026-01-08 08:24:14.59	41.94	21.70	-39.2	-41.5	16.2	0.00e+00	0	56	0	521142272	49	4840
2026-01-08 08:24:15.59	41.68	21.68	-39.4	-41.8	16.0	0.00e+00	0	56	0	523239424	49	5030
2026-01-08 08:24:16.60	41.42	21.66	-39.2	-41.5	16.2	0.00e+00	0	56	0	525336576	49	4862
2026-01-08 08:24:17.60	41.16	21.63	-39.1	-41.4	16.3	0.00e+00	0	56	0	526385152	49	4790
2026-01-08 08:24:18.61	40.90	21.61	-39.1	-41.3	16.4	0.00e+00	0	56	0	528482304	49	4752
2026-01-08 08:24:19.62	40.63	21.59	-38.9	-41.1	16.6	0.00e+00	0	56	0	530579456	49	4602
2026-01-08 08:24:20.62	40.37	21.56	-38.9	-41.2	16.6	0.00e+00	0	56	0	532676608	49	4653
2026-01-08 08:24:21.63	40.11	21.54	-38.7	-40.8	16.9	0.00e+00	0	56	0	534773760	49	4489
2026-01-08 08:24:22.64	39.85	21.52	-38.8	-41.0	16.7	0.00e+00	0	56	0	535822336	49	4583
2026-01-08 08:24:23.65	39.59	21.49	-38.8	-40.9	16.8	0.00e+00	0	56	0	537919488	49	4537
2026-01-08 08:24:24.65	39.33	21.46	-38.7	-40.8	16.8	0.00e+00	0	56	0	540016640	49	4488
2026-01-08 08:24:25.67	39.07	21.44	-38.9	-41.1	16.6	0.00e+00	0	56	0	542113792	49	4638
2026-01-08 08:24:26.67	38.81	21.41	-39.1	-41.5	16.2	0.00e+00	0	56	0	544210944	49	4825
2026-01-08 08:24:27.68	38.56	21.38	-39.4	-41.9	15.8	0.00e+00	0	56	0	545259520	49	5054
2026-01-08 08:24:28.69	38.30	21.35	-39.6	-42.2	15.5	0.00e+00	0	56	0	547356672	49	5231
2026-01-08 08:24:29.69	38.04	21.32	-39.7	-42.4	15.4	0.00e+00	0	56	0	549453824	50	5048
2026-01-08 08:24:30.70	37.79	21.30	-39.7	-42.2	15.5	0.00e+00	0	56	0	551550976	50	4982
2026-01-08 08:24:31.71	37.53	21.27	-39.4	-41.8	15.9	0.00e+00	0	56	0	553648128	50	4726
2026-01-08 08:24:32.72	37.27	21.23	-39.3	-41.7	16.0	0.00e+00	0	56	0	554696704	50	4701
2026-01-08 08:24:33.72	37.02	21.20	-39.4	-41.8	15.9	0.00e+00	0	56	0	556793856	50	4728
2026-01-08 08:24:34.73	36.76	21.17	-39.4	-41.9	15.8	0.00e+00	0	56	0	558891008	50	4800
2026-01-08 08:24:35.74	36.51	21.14	-39.6	-42.2	15.6	0.00e+00	0	56	0	560988160	50	4948
2026-01-08 08:24:36.75	36.25	21.11	-39.8	-42.5	15.2	0.00e+00	0	56	0	563085312	50	5151
2026-01-08 08:24:37.75	36.00	21.07	-40.0	-42.8	14.9	0.00e+00	0	56	0	564133888	50	5310
2026-01-08 08:24:38.76	35.75	21.04	-40.0	-42.8	14.9	0.00e+00	0	56	0	566231040	50	5333
2026-01-08 08:24:39.76	35.50	21.00	-40.1	-42.9	14.8	0.00e+00	0	56	0	568328192	51	5085
2026-01-08 08:24:40.77	35.25	20.97	-40.3	-43.3	14.5	0.00e+00	0	56	0	570425344	51	5307
2026-01-08 08:24:41.78	35.00	20.93	-40.4	-43.5	14.2	7.00e-07	0	56	0	572522496	51	5451
2026-01-08 08:24:42.79	34.75	20.90	-40.6	-43.7	14.0	7.00e-07	0	56	0	573571072	51	5580
2026-01-08 08:24:43.79	34.50	20.86	-40.6	-43.8	13.8	7.60e-06	0	56	0	575668224	52	5335
2026-01-08 08:24:44.80	34.25	20.82	-40.6	-43.9	13.8	5.30e-06	0	56	0	577765376	52	5347
2026-01-08 08:24:45.81	34.00	20.79	-40.5	-43.7	14.0	1.50e-06	0	56	0	579862528	52	5240
2026-01-08 08:24:46.82	33.75	20.75	-40.5	-43.6	14.0	3.80e-06	0	56	0	581959680	52	5193
2026-01-08 08:24:47.83	33.50	20.71	-40.3	-43.4	14.3	1.50e-06	0	56	0	583008256	52	5078
2026-01-08 08:24:48.84	33.26	20.67	-40.2	-43.1	14.5	0.00e+00	0	56	0	585105408	52	4914
2026-01-08 08:24:49.84	33.01	20.63	-40.1	-42.9	14.9	0.00e+00	0	56	0	587202560	51	5058
2026-01-08 08:24:50.85	32.77	20.59	-40.1	-43.0	14.8	7.00e-07	0	56	0	589299712	51	5105
2026-01-08 08:24:51.86	32.52	20.55	-40.1	-43.0	14.7	7.00e-07	0	56	0	591396864	51	5150
2026-01-08 08:24:52.86	32.28	20.51	-40.3	-43.2	14.6	0.00e+00	0	56	0	592445440	51	5278
2026-01-08 08:24:53.87	32.04	20.47	-40.4	-43.5	14.2	7.00e-07	0	56	0	594542592	51	5451
2026-01-08 08:24:54.88	31.79	20.42	-40.3	-43.3	14.4	1.50e-06	0	56	0	596639744	51	5334
2026-01-08 08:24:55.89	31.55	20.38	-40.2	-43.1	14.6	2.20e-06	0	56	0	598736896	51	5182
2026-01-08 08:24:56.89	31.31	20.34	-39.9	-42.6	15.1	0.00e+00	0	56	0	600834048	51	4922
2026-01-08 08:24:57.90	31.07	20.29	-39.8	-42.4	15.3	0.00e+00	0	56	0	601882624	51	4802
2026-01-08 08:24:58.91	30.83	20.25	-39.8	-42.5	15.3	0.00e+00	0	56	0	603979776	51	4820
2026-01-08 08:24:59.92	30.59	20.21	-39.8	-42.5	15.3	0.00e+00	0	56	0	606076928	51	4820
2026-01-08 08:25:00.93	30.35	20.16	-39.6	-42.2	15.5	0.00e+00	0	56	0	608174080	51	4689
2026-01-08 08:25:01.94	30.11	20.12	-39.8	-42.5	15.2	0.00e+00	0	56	0	610271232	51	4853
2026-01-08 08:25:02.95	29.88	20.07	-39.5	-42.1	15.6	0.00e+00	0	56	0	611319808	51	4630
2026-01-08 08:25:03.96	29.64	20.02	-39.6	-42.3	15.5	0.00e+00	0	56	0	613416960	50	4985
2026-01-08 08:25:04.96	29.41	19.98	-39.6	-42.3	15.4	0.00e+00	0	56	0	615514112	50	4984
2026-01-08 08:25:05.97	29.17	19.93	-39.7	-42.4	15.3	0.00e+00	0	56	0	617611264	50	5084
2026-01-08 08:25:06.98	28.94	19.88	-39.8	-42.5	15.2	0.00e+00	0	56	0	619708416	50	5146
2026-01-08 08:25:07.99	28.70	19.84	-40.0	-42.8	15.0	0.00e+00	0	56	0	620756992	50	5315
2026-01-08 08:25:08.99	28.47	19.79	-40.1	-43.0	14.7	7.00e-07	0	56	0	622854144	50	5443
2026-01-08 08:25:10.00	28.24	19.74	-40.5	-43.7	14.1	0.00e+00	0	56	0	624951296	51	5549
2026-01-08 08:25:11.01	28.01	19.69	-40.7	-44.1	13.7	5.30e-06	0	56	0	627048448	51	5801
2026-01-08 08:25:12.02	27.78	19.64	-40.7	-44.1	13.6	1.37e-05	0	56	0	629145600	52	5489
2026-01-08 08:25:13.03	27.55	19.59	-40.5	-43.9	13.8	6.80e-06	0	56	0	630194176	52	5343
2026-01-08 08:25:14.04	27.32	19.54	-40.5	-43.8	13.8	3.00e-06	0	56	0	632291328	52	5307
2026-01-08 08:25:15.05	27.09	19.49	-40.6	-44.0	13.6	8.30e-06	0	56	0	634388480	52	5431
2026-01-08 08:25:16.05	26.86	19.44	-40.7	-44.1	13.6	6.10e-06	0	56	0	636485632	52	5481
2026-01-08 08:25:17.06	26.64	19.39	-41.0	-44.8	12.8	1.90e-05	0	56	0	638582784	52	5960
2026-01-08 08:25:18.07	26.41	19.34	-41.2	-45.2	12.4	8.92e-05	0	56	0	640679936	52	6241
2026-01-08 08:25:19.08	26.19	19.28	-41.4	-45.7	11.9	2.66e-04	0	56	0	641728512	53	6213
2026-01-08 08:25:20.09	25.96	19.23	-41.4	-45.7	11.9	4.77e-04	0	56	0	643825664	53	6217
2026-01-08 08:25:21.10	25.74	19.18	-41.5	-45.8	11.8	6.87e-04	0	56	0	645922816	53	6293
2026-01-08 08:25:22.11	25.51	19.12	-41.3	-45.5	12.0	4.94e-04	0	56	0	648019968	53	6078
2026-01-08 08:25:23.12	25.29	19.07	-41.1	-45.0	12.6	9.76e-05	0	56	0	650117120	53	5747
2026-01-08 08:25:24.12	25.07	19.02	-41.0	-44.8	12.9	7.01e-05	0	56	0	651165696	53	5598
2026-01-08 08:25:25.13	24.85	18.96	-40.8	-44.2	13.4	1.75e-05	0	56	0	653262848	53	5265
2026-01-08 08:25:26.14	24.63	18.91	-40.3	-43.4	14.2	5.30e-06	0	56	0	655360000	52	5095
2026-01-08 08:25:27.15	24.41	18.85	-40.1	-43.0	14.7	1.50e-06	0	56	0	657457152	51	5123
2026-01-08 08:25:28.16	24.20	18.80	-39.7	-42.4	15.2	0.00e+00	0	56	0	658505728	51	4786
2026-01-08 08:25:29.17	23.98	18.74	-39.6	-42.3	15.4	0.00e+00	0	56	0	660602880	51	4708
2026-01-08 08:25:30.18	23.76	18.69	-39.3	-41.9	15.7	0.00e+00	0	56	0	662700032	50	4777
2026-01-08 08:25:31.18	23.55	18.63	-39.3	-41.9	15.9	0.00e+00	0	56	0	664797184	50	4760
2026-01-08 08:25:32.19	23.33	18.58	-39.4	-41.9	15.8	0.00e+00	0	56	0	666894336	50	4790
2026-01-08 08:25:33.20	23.12	18.52	-39.2	-41.6	16.0	0.00e+00	0	56	0	668991488	50	4644
2026-01-08 08:25:34.21	22.90	18.46	-39.4	-42.0	15.7	0.00e+00	0	56	0	670040064	50	4829
2026-01-08 08:25:35.22	22.69	18.41	-39.6	-42.2	15.4	0.00e+00	0	56	0	672137216	50	4982
2026-01-08 08:25:36.23	22.48	18.35	-39.5	-42.1	15.5	0.00e+00	0	56	0	674234368	50	4920
2026-01-08 08:25:37.23	22.27	18.29	-39.4	-42.0	15.6	0.00e+00	0	56	0	676331520	50	4859
2026-01-08 08:25:38.24	22.06	18.23	-39.3	-41.9	15.8	0.00e+00	0	56	0	678428672	50	4760
2026-01-08 08:25:39.25	21.85	18.18	-39.2	-41.8	15.9	0.00e+00	0	56	0	679477248	50	4714
2026-01-08 08:25:40.26	21.64	18.12	-39.1	-41.6	16.0	0.00e+00	0	56	0	681574400	50	4618
2026-01-08 08:25:41.27	21.44	18.06	-39.1	-41.5	16.1	0.00e+00	0	56	0	683671552	50	4564
2026-01-08 08:25:42.28	21.23	18.00	-39.1	-41.6	16.1	0.00e+00	0	56	0	685768704	50	4599
2026-01-08 08:25:43.28	21.02	17.94	-39.5	-42.1	15.6	0.00e+00	0	56	0	687865856	50	4880
2026-01-08 08:25:44.29	20.82	17.88	-39.8	-42.5	15.1	0.00e+00	0	57	0	688914432	50	5154
2026-01-08 08:25:45.30	20.62	17.82	-40.0	-43.0	14.6	0.00e+00	0	56	0	691011584	50	5430
2026-01-08 08:25:46.31	20.41	17.76	-40.3	-43.5	14.2	7.00e-07	0	56	0	693108736	51	5411
2026-01-08 08:25:47.32	20.21	17.70	-40.6	-44.0	13.7	3.00e-06	0	56	0	695205888	51	5725
2026-01-08 08:25:48.33	20.01	17.64	-40.6	-44.1	13.5	1.06e-05	0	56	0	697303040	51	5801
2026-01-08 08:25:49.34	19.81	17.58	-40.7	-44.3	13.2	2.28e-05	0	56	0	698351616	52	5650
2026-01-08 08:25:50.35	19.61	17.52	-40.5	-43.9	13.6	7.60e-06	0	56	0	700448768	52	5400
2026-01-08 08:25:51.36	19.41	17.46	-40.3	-43.6	13.9	5.30e-06	0	56	0	702545920	52	5212
2026-01-08 08:25:52.36	19.21	17.40	-40.2	-43.5	14.0	3.80e-06	0	56	0	704643072	52	5104
2026-01-08 08:25:53.37	19.01	17.34	-40.1	-43.2	14.3	7.00e-07	0	56	0	706740224	52	4945
2026-01-08 08:25:54.38	18.81	17.28	-40.1	-43.1	14.4	7.00e-07	0	56	0	707788800	52	4926
2026-01-08 08:25:55.39	18.62	17.21	-40.0	-43.0	14.5	7.00e-07	0	56	0	709885952	51	5130
2026-01-08 08:25:56.40	18.42	17.15	-39.9	-42.8	14.8	0.00e+00	0	56	0	711983104	51	4999
2026-01-08 08:25:57.40	18.23	17.09	-39.8	-42.6	15.0	0.00e+00	0	56	0	714080256	51	4876
2026-01-08 08:25:58.41	18.04	17.03	-39.6	-42.4	15.2	0.00e+00	0	56	0	716177408	51	4766
2026-01-08 08:25:59.42	17.84	16.97	-39.4	-42.1	15.5	0.00e+00	0	56	0	717225984	50	4884
2026-01-08 08:26:00.43	17.65	16.90	-39.5	-42.2	15.4	0.00e+00	0	56	0	719323136	50	4946
2026-01-08 08:26:01.44	17.46	16.84	-39.4	-42.0	15.5	0.00e+00	0	56	0	721420288	50	4857
2026-01-08 08:26:02.45	17.27	16.78	-39.5	-42.2	15.3	0.00e+00	0	56	0	723517440	50	4973
2026-01-08 08:26:03.46	17.08	16.71	-39.8	-42.6	14.9	0.00e+00	0	56	0	725614592	50	5207
2026-01-08 08:26:04.46	16.89	16.65	-39.9	-42.9	14.7	0.00e+00	0	56	0	726663168	50	5373
2026-01-08 08:26:05.47	16.70	16.59	-40.1	-43.2	14.3	0.00e+00	0	56	0	728760320	50	5586
2026-01-08 08:26:06.48	16.52	16.52	-40.3	-43.4	14.1	1.50e-06	0	56	0	730857472	51	5394
2026-01-08 08:26:07.48	16.33	16.46	-40.2	-43.4	14.1	1.50e-06	0	56	0	732954624	51	5346
2026-01-08 08:26:08.49	16.15	16.40	-40.2	-43.3	14.3	2.20e-06	0	56	0	735051776	51	5300
2026-01-08 08:26:09.50	15.96	16.33	-40.1	-43.2	14.4	0.00e+00	0	56	0	736100352	51	5231
2026-01-08 08:26:10.51	15.78	16.27	-40.2	-43.2	14.3	7.00e-07	0	56	0	738197504	51	5263
2026-01-08 08:26:11.52	15.59	16.20	-40.1	-43.2	14.4	1.50e-06	0	56	0	740294656	51	5232
2026-01-08 08:26:12.53	15.41	16.14	-40.2	-43.3	14.3	7.00e-07	0	56	0	742391808	51	5293
2026-01-08 08:26:13.53	15.23	16.08	-40.2	-43.4	14.2	0.00e+00	0	56	0	744488960	51	5348
2026-01-08 08:26:14.54	15.05	16.01	-40.3	-43.4	14.1	2.20e-06	0	56	0	745537536	51	5395
2026-01-08 08:26:15.55	14.87	15.95	-40.3	-43.5	14.0	2.20e-06	0	56	0	747634688	51	5425
2026-01-08 08:26:16.56	14.69	15.88	-40.3	-43.4	14.2	4.50e-06	0	56	0	749731840	51	5355
2026-01-08 08:26:17.57	14.51	15.82	-40.3	-43.4	14.1	7.00e-07	0	56	0	751828992	51	5397
2026-01-08 08:26:18.58	14.33	15.75	-40.2	-43.3	14.2	2.20e-06	0	56	0	753926144	51	5327
2026-01-08 08:26:19.58	14.16	15.69	-40.2	-43.3	14.2	2.20e-06	0	56	0	754974720	51	5303
2026-01-08 08:26:20.59	13.98	15.62	-40.2	-43.3	14.2	2.20e-06	0	56	0	757071872	51	5308
2026-01-08 08:26:21.60	13.81	15.56	-40.1	-43.1	14.5	0.00e+00	0	56	0	759169024	51	5173
2026-01-08 08:26:22.60	13.63	15.49	-39.9	-42.7	14.8	7.00e-07	0	56	0	761266176	51	4961
2026-01-08 08:26:23.61	13.46	15.43	-39.7	-42.5	15.0	0.00e+00	0	56	0	763363328	51	4857
2026-01-08 08:26:24.62	13.29	15.36	-39.6	-42.3	15.2	0.00e+00	0	56	0	765460480	51	4730
2026-01-08 08:26:25.63	13.11	15.29	-39.5	-42.1	15.4	0.00e+00	0	56	0	766509056	50	4876
2026-01-08 08:26:26.64	12.94	15.23	-39.4	-42.1	15.4	0.00e+00	0	56	0	768606208	50	4871
2026-01-08 08:26:27.65	12.77	15.16	-39.5	-42.2	15.3	0.00e+00	0	56	0	770703360	50	4939
2026-01-08 08:26:28.65	12.60	15.10	-39.7	-42.4	15.1	0.00e+00	0	56	0	772800512	50	5064
2026-01-08 08:26:29.66	12.44	15.03	-39.7	-42.4	15.1	0.00e+00	0	56	0	774897664	50	5066
2026-01-08 08:26:30.67	12.27	14.97	-39.6	-42.2	15.3	0.00e+00	0	56	0	775946240	50	4964
2026-01-08 08:26:31.68	12.10	14.90	-39.3	-41.8	15.6	0.00e+00	0	56	0	778043392	50	4759
2026-01-08 08:26:32.69	11.93	14.83	-39.1	-41.6	15.9	0.00e+00	0	56	0	780140544	50	4610
2026-01-08 08:26:33.70	11.77	14.77	-38.9	-41.2	16.2	0.00e+00	0	56	0	782237696	49	4677
2026-01-08 08:26:34.70	11.60	14.70	-38.8	-41.1	16.4	0.00e+00	0	56	0	783286272	49	4604
2026-01-08 08:26:35.71	11.44	14.63	-38.7	-41.0	16.4	0.00e+00	0	56	0	785383424	49	4554
2026-01-08 08:26:36.72	11.27	14.57	-38.8	-41.0	16.3	0.00e+00	0	56	0	787480576	49	4596
2026-01-08 08:26:37.73	11.11	14.50	-38.9	-41.2	16.1	0.00e+00	0	56	0	789577728	49	4705
2026-01-08 08:26:38.74	10.95	14.43	-39.0	-41.4	16.0	0.00e+00	0	56	0	791674880	49	4778
2026-01-08 08:26:39.74	10.79	14.37	-39.2	-41.7	15.7	0.00e+00	0	57	0	793772032	49	4946
2026-01-08 08:26:40.75	10.63	14.30	-39.4	-41.9	15.4	0.00e+00	0	56	0	794820608	49	5095
2026-01-08 08:26:41.76	10.47	14.24	-39.4	-42.0	15.3	0.00e+00	0	56	0	796917760	49	5132
2026-01-08 08:26:42.77	10.31	14.17	-39.2	-41.8	15.5	0.00e+00	0	57	0	799014912	49	4985
2026-01-08 08:26:43.77	10.15	14.10	-39.4	-42.0	15.2	0.00e+00	0	56	0	801112064	49	5155
2026-01-08 08:26:44.78	9.99	14.04	-39.6	-42.4	14.7	0.00e+00	0	56	0	803209216	49	5401
2026-01-08 08:26:45.79	9.83	13.97	-39.6	-42.4	14.8	0.00e+00	0	56	0	804257792	49	5344
2026-01-08 08:26:46.80	9.68	13.90	-39.4	-42.1	15.0	0.00e+00	0	56	0	806354944	49	5187
2026-01-08 08:26:47.81	9.52	13.83	-39.3	-42.0	15.1	0.00e+00	0	56	0	808452096	49	5131
2026-01-08 08:26:48.82	9.37	13.77	-39.2	-41.8	15.2	0.00e+00	0	56	0	810549248	49	4996
2026-01-08 08:26:49.83	9.21	13.70	-39.0	-41.5	15.5	0.00e+00	0	56	0	812646400	49	4855
2026-01-08 08:26:50.84	9.06	13.63	-39.2	-41.8	15.2	0.00e+00	0	56	0	813694976	49	5002
2026-01-08 08:26:51.85	8.91	13.57	-39.0	-41.5	15.5	0.00e+00	0	56	0	815792128	49	4845
2026-01-08 08:26:52.85	8.75	13.50	-39.0	-41.5	15.4	0.00e+00	0	56	0	817889280	49	4862
2026-01-08 08:26:53.86	8.60	13.43	-38.9	-41.5	15.4	0.00e+00	0	56	0	819986432	49	4835
2026-01-08 08:26:54.87	8.45	13.37	-39.0	-41.7	15.1	0.00e+00	0	56	0	822083584	49	4959
2026-01-08 08:26:55.88	8.30	13.30	-39.1	-42.0	14.8	0.00e+00	0	56	0	823132160	49	5101
2026-01-08 08:26:56.88	8.15	13.23	-39.5	-42.6	14.1	0.00e+00	0	56	0	825229312	49	5470
2026-01-08 08:26:57.89	8.01	13.16	-39.5	-42.7	14.0	7.00e-07	0	56	0	827326464	49	5541
2026-01-08 08:26:58.90	7.86	13.10	-39.6	-42.9	13.7	6.10e-06	0	56	0	829423616	49	5687
2026-01-08 08:26:59.91	7.71	13.03	-39.7	-43.1	13.5	1.06e-05	0	56	0	831520768	50	5499
2026-01-08 08:27:00.92	7.56	12.96	-39.7	-43.1	13.4	1.29e-05	0	56	0	832569344	50	5496
2026-01-08 08:27:01.93	7.42	12.90	-39.6	-42.9	13.6	1.06e-05	0	56	0	834666496	50	5366
2026-01-08 08:27:02.93	7.27	12.83	-39.4	-42.7	13.8	3.00e-06	0	56	0	836763648	50	5221
2026-01-08 08:27:03.94	7.13	12.76	-39.5	-42.9	13.6	3.00e-06	0	57	0	838860800	50	5357
2026-01-08 08:27:04.94	6.99	12.70	-39.4	-42.6	13.8	3.80e-06	0	56	0	840957952	50	5197
2026-01-08 08:27:05.95	6.84	12.63	-39.2	-42.3	14.1	3.80e-06	0	56	0	842006528	50	5012
2026-01-08 08:27:06.96	6.70	12.56	-39.0	-42.1	14.1	3.00e-06	0	56	0	844103680	50	4908
2026-01-08 08:27:07.97	6.56	12.49	-38.7	-41.6	14.5	0.00e+00	0	56	0	846200832	49	4901
2026-01-08 08:27:08.98	6.42	12.43	-38.6	-41.5	14.4	0.00e+00	0	56	0	848297984	49	4869
2026-01-08 08:27:09.99	6.28	12.36	-38.7	-41.8	14.1	1.50e-06	0	56	0	850395136	49	4998
2026-01-08 08:27:11.00	6.14	12.29	-38.8	-42.2	13.5	3.00e-06	0	57	0	851443712	49	5226
2026-01-08 08:27:12.00	6.00	12.23	-38.9	-42.4	13.2	2.36e-05	0	56	0	853540864	49	5352
2026-01-08 08:27:13.01	5.86	12.16	-39.4	-43.5	12.0	1.33e-04	0	56	0	855638016	49	6081
2026-01-08 08:27:14.02	5.72	12.09	-39.8	-44.5	10.7	8.00e-04	0	56	0	857735168	50	6434
2026-01-08 08:27:15.02	5.58	12.03	-40.1	-45.6	9.5	8.66e-03	0	56	0	859832320	50	7288
2026-01-08 08:27:16.03	5.45	11.96	-40.4	-46.9	8.0	4.06e-02	0	56	0	860880896	51	8012
2026-01-08 08:27:17.04	5.31	11.89	-40.5	-47.8	6.9	1.08e-01	0	57	0	862978048	51	8953
2026-01-08 08:27:18.04	5.18	11.83	-40.5	-48.8	5.9	3.10e-01	0	56	0	865075200	51	9973
2026-01-08 08:27:19.05	5.04	11.76	-40.6	-49.9	5.1	5.33e-01	0	56	0	867172352	51	11385
2026-01-08 08:27:20.06	4.91	11.69	-40.6	-51.5	4.3	8.79e-01	0	56	0	869269504	51	13587
2026-01-08 08:27:21.07	4.77	11.63	-40.6	-52.6	3.9	1.45e+00	0	57	104	869269504	51	15509
2026-01-08 08:27:22.07	4.64	11.56	-40.5	-53.7	3.8	1.49e+00	0	56	104	869269504	51	17527
2026-01-08 08:27:23.08	4.51	11.49	-40.5	-54.3	3.8	1.49e+00	0	56	104	869269504	51	18821
2026-01-08 08:27:24.09	4.38	11.43	-40.4	-54.7	3.8	1.49e+00	0	56	104	869269504	51	19698
2026-01-08 08:27:25.10	4.25	11.36	-40.3	-54.8	3.8	1.49e+00	0	56	104	869269504	51	20000
2026-01-08 08:27:26.11	4.12	11.29	-40.3	-54.8	3.8	1.49e+00	0	57	104	869269504	51	20041
2026-01-08 08:27:27.12	3.99	11.23	-40.3	-54.9	3.8	1.49e+00	0	56	104	869269504	51	20188
2026-01-08 08:27:28.13	3.86	11.16	-40.0	-54.6	3.8	1.49e+00	0	56	104	869269504	51	19531
2026-01-08 08:27:29.14	3.73	11.09	-40.2	-55.0	3.8	1.49e+00	0	56	104	869269504	51	20331
2026-01-08 08:27:30.15	3.60	11.03	-40.0	-54.6	3.8	1.49e+00	0	56	104	869269504	51	19489
2026-01-08 08:27:31.15	3.47	10.96	-40.1	-54.9	3.8	1.49e+00	0	56	104	869269504	51	20136
2026-01-08 08:27:32.16	3.35	10.89	-40.0	-54.6	3.8	1.49e+00	0	56	104	869269504	51	19490
2026-01-08 08:27:33.17	3.22	10.83	-39.9	-54.5	3.8	1.49e+00	0	57	104	869269504	51	19371
2026-01-08 08:27:34.18	3.09	10.76	-40.1	-54.7	3.8	1.49e+00	0	57	104	869269504	51	19687
2026-01-08 08:27:35.19	2.97	10.69	-39.9	-54.5	3.8	1.49e+00	0	56	104	869269504	51	19253
2026-01-08 08:27:36.20	2.84	10.63	-40.0	-54.7	3.8	1.49e+00	0	56	104	869269504	51	19722
2026-01-08 08:27:37.20	2.72	10.56	-40.0	-54.7	3.8	1.49e+00	0	56	104	869269504	51	19697
2026-01-08 08:27:38.21	2.60	10.50	-39.9	-54.5	3.8	1.49e+00	0	56	104	869269504	51	19232
2026-01-08 08:27:39.22	2.48	10.43	-40.0	-54.7	3.8	1.49e+00	0	57	104	869269504	51	19627
2026-01-08 08:27:40.23	2.35	10.36	-39.9	-54.5	3.8	1.49e+00	0	56	104	869269504	51	19252
2026-01-08 08:27:41.24	2.23	10.30	-39.8	-54.5	3.8	1.49e+00	0	56	104	869269504	51	19214
2026-01-08 08:27:42.25	2.11	10.23	-39.9	-54.5	3.8	1.49e+00	0	57	104	869269504	51	19336
2026-01-08 08:27:43.26	1.99	10.17	-39.8	-54.4	3.8	1.49e+00	0	56	104	869269504	51	19167
2026-01-08 08:27:44.27	1.87	10.10	-39.9	-54.5	3.8	1.49e+00	0	57	104	869269504	51	19296
2026-01-08 08:27:45.28	1.75	10.03	-39.9	-54.5	3.8	1.49e+00	0	57	104	869269504	51	19319
2026-01-08 08:27:46.29	1.63	9.97	-39.9	-54.5	3.8	1.49e+00	0	57	104	869269504	51	19237
2026-01-08 08:27:47.30	1.51	9.90	-39.9	-54.5	3.8	1.49e+00	0	57	104	869269504	51	19324
2026-01-08 08:27:48.31	1.39	9.84	-39.8	-54.5	3.8	1.49e+00	0	57	104	869269504	51	19317
2026-01-08 08:27:49.32	1.28	9.77	-39.7	-54.5	3.8	1.49e+00	0	56	104	869269504	51	19183
2026-01-08 08:27:50.33	1.16	9.71	-39.8	-54.5	3.8	1.49e+00	0	56	104	869269504	51	19172
2026-01-08 08:27:51.34	1.04	9.64	-39.6	-54.5	3.8	1.49e+00	0	56	104	869269504	51	19184
2026-01-08 08:27:52.34	0.93	9.58	-39.8	-54.4	3.8	1.49e+00	0	56	104	869269504	51	19098
2026-01-08 08:27:53.35	0.81	9.51	-39.8	-54.5	3.8	1.49e+00	0	56	104	869269504	51	19300
2026-01-08 08:27:54.36	0.70	9.44	-39.6	-54.4	3.8	1.49e+00	0	57	104	869269504	51	19141
2026-01-08 08:27:55.38	0.58	9.38	-39.7	-54.5	3.8	1.49e+00	0	57	104	869269504	51	19301
2026-01-08 08:27:56.38	0.47	9.31	-39.6	-54.5	3.8	1.49e+00	0	57	104	869269504	51	19198
2026-01-08 08:27:57.39	0.36	9.25	-39.6	-54.5	3.8	1.49e+00	0	57	104	869269504	51	19247
2026-01-08 08:27:58.40	0.25	9.18	-39.6	-54.5	3.8	1.49e+00	0	57	104	869269504	51	19185
2026-01-08 08:27:59.41	0.13	9.12	-39.5	-54.5	3.8	1.49e+00	0	56	104	869269504	50	20401
2026-01-08 08:28:00.42	0.02	9.05	-39.7	-54.5	3.8	1.49e+00	0	56	104	869269504	50	20400
2026-01-08 08:28:01.43	359.91	8.99	-39.6	-54.5	3.8	1.49e+00	0	57	104	869269504	50	20480
2026-01-08 08:28:02.44	359.80	8.92	-39.6	-54.5	3.8	1.49e+00	0	57	104	869269504	50	20515
2026-01-08 08:28:03.44	359.69	8.86	-39.5	-54.5	3.8	1.49e+00	0	56	104	869269504	50	20492
2026-01-08 08:28:04.45	359.58	8.80	-39.5	-54.5	3.8	1.49e+00	0	57	104	869269504	50	20344
2026-01-08 08:28:05.47	359.47	8.73	-39.4	-54.5	3.8	1.49e+00	0	56	104	869269504	50	20446
2026-01-08 08:28:06.47	359.36	8.67	-39.4	-54.5	3.8	1.49e+00	0	57	104	869269504	50	20366
2026-01-08 08:28:07.48	359.26	8.60	-39.4	-54.4	3.8	1.49e+00	0	57	104	869269504	50	20254
2026-01-08 08:28:08.49	359.15	8.54	-39.4	-54.5	3.8	1.49e+00	0	56	104	869269504	50	20387
2026-01-08 08:28:09.50	359.04	8.47	-39.4	-54.5	3.8	1.49e+00	0	56	104	869269504	50	20449
2026-01-08 08:28:10.51	358.94	8.41	-39.4	-54.4	3.8	1.49e+00	0	57	104	869269504	50	20279
2026-01-08 08:28:11.52	358.83	8.34	-39.4	-54.4	3.8	1.49e+00	0	56	104	869269504	50	20289
2026-01-08 08:28:12.52	358.73	8.28	-38.9	-54.2	3.8	1.49e+00	0	57	104	869269504	49	21012
2026-01-08 08:28:13.53	358.62	8.22	-39.0	-54.3	3.8	1.49e+00	0	56	104	869269504	48	22443
2026-01-08 08:28:14.54	358.52	8.15	-38.9	-54.3	3.8	1.49e+00	0	57	104	869269504	49	21213
2026-01-08 08:28:15.55	358.41	8.09	-38.6	-54.3	3.8	1.49e+00	0	57	104	869269504	48	22352
2026-01-08 08:28:16.55	358.31	8.03	-39.4	-54.5	3.8	1.49e+00	0	57	104	869269504	49	21576
2026-01-08 08:28:17.56	358.21	7.96	-41.1	-55.7	3.8	1.49e+00	0	57	104	869269504	52	20985
2026-01-08 08:28:18.57	358.10	7.90	-44.7	-59.1	3.8	1.49e+00	0	57	104	869269504	59	20602
2026-01-08 08:28:19.58	358.00	7.83	-44.9	-59.5	3.8	1.49e+00	0	57	104	869269504	60	20432
2026-01-08 08:28:20.58	357.90	7.77	-45.0	-59.6	3.8	1.49e+00	0	57	104	869269504	60	20686
2026-01-08 08:28:21.59	357.80	7.71	-45.1	-59.7	3.8	1.49e+00	0	56	104	869269504	60	20988
2026-01-08 08:28:22.60	357.70	7.64	-45.2	-59.9	3.8	1.49e+00	0	57	104	869269504	61	20134
2026-01-08 08:28:23.61	357.60	7.58	-45.2	-59.9	3.8	1.49e+00	0	57	104	869269504	61	20109
2026-01-08 08:28:24.61	357.50	7.52	-45.2	-59.9	3.8	1.49e+00	0	56	104	869269504	61	20079
2026-01-08 08:28:25.62	357.40	7.45	-45.3	-59.9	3.8	1.49e+00	0	57	104	869269504	61	20159
2026-01-08 08:28:26.63	357.30	7.39	-45.3	-59.9	3.8	1.49e+00	0	56	104	869269504	61	20102
2026-01-08 08:28:27.64	357.20	7.33	-45.1	-59.8	3.8	1.49e+00	0	57	104	869269504	61	19955
2026-01-08 08:28:28.65	357.10	7.27	-45.1	-59.8	3.8	1.49e+00	0	56	104	869269504	60	21052
2026-01-08 08:28:29.66	357.00	7.20	-45.1	-59.7	3.8	1.49e+00	0	57	104	869269504	60	20957
2026-01-08 08:28:30.67	356.91	7.14	-45.1	-59.7	3.8	1.49e+00	0	57	104	869269504	60	20946
2026-01-08 08:28:31.68	356.81	7.08	-45.1	-59.7	3.8	1.49e+00	0	57	104	869269504	60	20889
2026-01-08 08:28:32.69	356.71	7.01	-45.1	-59.6	3.8	1.49e+00	0	57	104	869269504	60	20762
2026-01-08 08:28:33.70	356.62	6.95	-45.1	-59.6	3.8	1.49e+00	0	57	104	869269504	60	20731
2026-01-08 08:28:34.71	356.52	6.89	-45.1	-59.6	3.8	1.49e+00	0	57	104	869269504	60	20714
2026-01-08 08:28:35.72	356.43	6.83	-45.1	-59.6	3.8	1.49e+00	0	57	104	869269504	60	20758
2026-01-08 08:28:36.73	356.33	6.76	-45.0	-59.6	3.8	1.49e+00	0	57	104	869269504	60	20706
2026-01-08 08:28:37.74	356.24	6.70	-45.0	-59.6	3.8	1.49e+00	0	56	104	869269504	60	20729
2026-01-08 08:28:38.74	356.15	6.64	-45.0	-59.6	3.8	1.49e+00	0	57	104	869269504	60	20659
2026-01-08 08:28:39.75	356.05	6.58	-45.0	-59.6	3.8	1.49e+00	0	56	104	869269504	60	20693
2026-01-08 08:28:40.76	355.96	6.52	-45.0	-59.6	3.8	1.49e+00	0	57	104	869269504	60	20694
2026-01-08 08:28:41.77	355.87	6.45	-45.0	-59.6	3.8	1.49e+00	0	57	104	869269504	60	20709
2026-01-08 08:28:42.78	355.77	6.39	-45.0	-59.6	3.8	1.49e+00	0	57	104	869269504	60	20673
2026-01-08 08:28:43.79	355.68	6.33	-45.0	-59.6	3.8	1.49e+00	0	57	104	869269504	60	20712
2026-01-08 08:28:44.80	355.59	6.27	-45.0	-59.6	3.8	1.49e+00	0	57	104	869269504	60	20655
2026-01-08 08:28:45.81	355.50	6.21	-45.0	-59.6	3.8	1.49e+00	0	57	104	869269504	60	20643
2026-01-08 08:28:46.82	355.41	6.14	-45.0	-59.6	3.8	1.49e+00	0	56	104	869269504	60	20646
2026-01-08 08:28:47.83	355.32	6.08	-45.0	-59.6	3.8	1.49e+00	0	57	104	869269504	60	20644
2026-01-08 08:28:48.83	355.23	6.02	-45.0	-59.6	3.8	1.49e+00	0	57	104	869269504	60	20605
2026-01-08 08:28:49.85	355.14	5.96	-45.0	-59.6	3.8	1.49e+00	0	57	104	869269504	60	20630
2026-01-08 08:28:50.86	355.05	5.90	-45.0	-59.6	3.8	1.49e+00	0	57	104	869269504	60	20743
2026-01-08 08:28:51.87	354.96	5.84	-45.0	-59.6	3.8	1.49e+00	0	57	104	869269504	60	20619
2026-01-08 08:28:52.87	354.87	5.78	-45.0	-59.6	3.8	1.49e+00	0	57	104	869269504	60	20679
2026-01-08 08:28:53.88	354.79	5.72	-45.0	-59.6	3.8	1.49e+00	0	57	104	869269504	60	20634
2026-01-08 08:28:54.89	354.70	5.65	-45.0	-59.6	3.8	1.49e+00	0	57	104	869269504	60	20622
2026-01-08 08:28:55.90	354.61	5.59	-45.0	-59.6	3.8	1.49e+00	0	57	104	869269504	60	20656
2026-01-08 08:28:56.91	354.52	5.53	-45.0	-59.6	3.8	1.49e+00	0	56	104	869269504	60	20602
2026-01-08 08:28:57.92	354.44	5.47	-45.0	-59.6	3.8	1.49e+00	0	57	104	869269504	60	20589
2026-01-08 08:28:58.93	354.35	5.41	-45.0	-59.6	3.8	1.49e+00	0	57	104	869269504	60	20620
2026-01-08 08:28:59.94	354.27	5.35	-45.0	-59.6	3.8	1.49e+00	0	57	104	869269504	60	20580
2026-01-08 08:29:00.94	354.18	5.29	-45.0	-59.6	3.8	1.49e+00	0	57	104	869269504	60	20623
2026-01-08 08:29:01.95	354.10	5.23	-45.0	-59.6	3.8	1.49e+00	0	57	104	869269504	60	20644
2026-01-08 08:29:02.96	354.01	5.17	-45.0	-59.6	3.8	1.49e+00	0	57	104	869269504	60	20564
2026-01-08 08:29:03.97	353.93	5.11	-45.0	-59.6	3.8	1.49e+00	0	57	104	869269504	60	20669
2026-01-08 08:29:04.98	353.84	5.05	-45.0	-59.6	3.8	1.49e+00	0	57	104	869269504	60	20609
2026-01-08 08:29:05.98	353.76	4.99	-45.0	-59.6	3.8	1.49e+00	0	57	104	869269504	60	20609
2026-01-08 08:29:06.99	353.68	4.93	-45.0	-59.6	3.8	1.49e+00	0	57	104	869269504	60	20598
2026-01-08 08:29:07.99	353.60	4.87	-45.0	-59.6	3.8	1.49e+00	0	57	104	869269504	60	20586
2026-01-08 08:29:08.99	353.52	4.81	-45.0	-59.6	3.8	1.49e+00	0	57	104	869269504	60	20665
2026-01-08 08:29:10.00	353.43	4.75	-45.0	-59.6	3.8	1.49e+00	0	57	104	869269504	60	20613
2026-01-08 08:29:11.01	353.35	4.69	-45.0	-59.6	3.8	1.49e+00	0	57	104	869269504	60	20612
2026-01-08 08:29:12.01	353.27	4.63	-45.0	-59.6	3.8	1.49e+00	0	57	104	869269504	60	20626
2026-01-08 08:29:13.02	353.19	4.57	-45.0	-59.6	3.8	1.49e+00	0	57	104	869269504	60	20637
2026-01-08 08:29:14.03	353.11	4.51	-45.0	-59.6	3.8	1.49e+00	0	57	104	869269504	60	20604
2026-01-08 08:29:15.03	353.03	4.45	-45.0	-59.6	3.8	1.49e+00	0	57	104	869269504	60	20626
