passes_logs/2026/01/08/R2.0S_Moscow/R2.0S_Moscow__20260108_074845_NOAA_21_JPSS-2_rec.log

#Pass ID: 20260108_074845_NOAA 21 (JPSS-2)
#Satellite: NOAA 21 (JPSS-2)
#Configuration: NOAA-21
#almurnet v.1.7.20251203
#Start time: 2026-01-08 07:48:46

#Version: 2.2.20231116
#Station: R2.0S_Moscow
#Location: 37.707566 lon 55.798166 lat
#TLE: 1 54234U 22150A   26005.56767909  .00000152  00000+0  92756-4 0  9990
#TLE: 2 54234  98.7490 306.5820 0001036 340.2747  19.8389 14.19532370163472

#Time	Az	El	Level	Level2	SNR	BER	BlckErr	Temp	State	Recorded	gain1	gain2
2026-01-08 07:48:46.42	98.30	2.05	-40.1	-52.5	3.8	1.49e+00	0	47	0	0	51	15352
2026-01-08 07:48:47.42	98.21	2.10	-40.1	-52.5	3.8	1.49e+00	0	47	104	0	51	15365
2026-01-08 07:48:48.43	98.13	2.15	-40.1	-52.6	3.8	1.49e+00	0	47	104	0	51	15410
2026-01-08 07:48:49.45	98.04	2.20	-40.0	-52.5	3.8	1.49e+00	0	47	104	0	51	15391
2026-01-08 07:48:50.45	97.96	2.25	-40.0	-52.5	3.8	1.49e+00	0	47	104	0	51	15351
2026-01-08 07:48:51.47	97.88	2.31	-40.0	-52.5	3.8	1.49e+00	0	47	104	0	51	15380
2026-01-08 07:48:52.48	97.79	2.36	-40.0	-52.6	3.8	1.49e+00	0	48	104	0	51	15404
2026-01-08 07:48:53.49	97.71	2.41	-40.0	-52.5	3.8	1.49e+00	0	48	104	0	51	15383
2026-01-08 07:48:54.50	97.62	2.46	-40.0	-52.5	3.8	1.49e+00	0	48	104	0	51	15330
2026-01-08 07:48:55.51	97.53	2.51	-40.0	-52.5	3.8	1.49e+00	0	48	104	0	51	15357
2026-01-08 07:48:56.52	97.45	2.57	-40.0	-52.5	3.8	1.49e+00	0	48	104	0	51	15372
2026-01-08 07:48:57.53	97.36	2.62	-40.0	-52.5	3.8	1.49e+00	0	48	104	0	51	15390
2026-01-08 07:48:58.54	97.28	2.67	-40.0	-52.5	3.8	1.49e+00	0	48	104	0	51	15367
2026-01-08 07:48:59.55	97.19	2.72	-40.0	-52.5	3.8	1.49e+00	0	48	104	0	51	15391
2026-01-08 07:49:00.56	97.10	2.78	-40.1	-52.5	3.8	1.49e+00	0	48	104	0	51	15365
2026-01-08 07:49:01.57	97.01	2.83	-40.1	-52.5	3.8	1.49e+00	0	48	104	0	51	15363
2026-01-08 07:49:02.58	96.92	2.88	-40.0	-52.5	3.8	1.49e+00	0	48	104	0	51	15367
2026-01-08 07:49:03.59	96.84	2.93	-40.0	-52.5	3.8	1.49e+00	0	48	104	0	51	15348
2026-01-08 07:49:04.60	96.75	2.99	-40.0	-52.5	3.8	1.49e+00	0	48	104	0	51	15379
2026-01-08 07:49:05.61	96.66	3.04	-40.0	-52.5	3.8	1.49e+00	0	48	104	0	51	15370
2026-01-08 07:49:06.62	96.57	3.09	-40.1	-52.5	3.8	1.49e+00	0	48	104	0	51	15346
2026-01-08 07:49:07.63	96.48	3.15	-40.0	-52.5	3.8	1.49e+00	0	48	104	0	51	15343
2026-01-08 07:49:08.64	96.39	3.20	-40.1	-52.5	3.8	1.49e+00	0	49	104	0	51	15387
2026-01-08 07:49:09.65	96.30	3.25	-40.0	-52.6	3.8	1.49e+00	0	49	104	0	51	15407
2026-01-08 07:49:10.66	96.21	3.30	-40.0	-52.5	3.8	1.49e+00	0	49	104	0	51	15361
2026-01-08 07:49:11.67	96.12	3.36	-40.1	-52.6	3.8	1.49e+00	0	49	104	0	51	15406
2026-01-08 07:49:12.68	96.03	3.41	-40.0	-52.5	3.8	1.49e+00	0	49	104	0	51	15338
2026-01-08 07:49:13.69	95.94	3.46	-40.1	-52.5	3.8	1.49e+00	0	49	104	0	51	15387
2026-01-08 07:49:14.70	95.84	3.52	-40.0	-52.5	3.8	1.49e+00	0	49	104	0	51	15319
2026-01-08 07:49:15.71	95.75	3.57	-40.0	-52.5	3.8	1.49e+00	0	49	104	0	51	15347
2026-01-08 07:49:16.72	95.66	3.62	-40.0	-52.5	3.8	1.49e+00	0	49	104	0	51	15347
2026-01-08 07:49:17.72	95.57	3.67	-40.0	-52.5	3.8	1.49e+00	0	49	104	0	51	15346
2026-01-08 07:49:18.73	95.47	3.73	-40.0	-52.5	3.8	1.49e+00	0	49	104	0	51	15372
2026-01-08 07:49:19.74	95.38	3.78	-40.0	-52.5	3.8	1.49e+00	0	49	104	0	51	15360
2026-01-08 07:49:20.75	95.29	3.83	-40.0	-52.5	3.8	1.49e+00	0	49	104	0	51	15356
2026-01-08 07:49:21.76	95.19	3.89	-40.0	-52.5	3.8	1.49e+00	0	49	104	0	51	15337
2026-01-08 07:49:22.77	95.10	3.94	-40.0	-52.6	3.8	1.49e+00	0	49	104	0	51	15406
2026-01-08 07:49:23.78	95.00	3.99	-40.0	-52.5	3.8	1.49e+00	0	49	104	0	51	15369
2026-01-08 07:49:24.79	94.91	4.05	-40.0	-52.6	3.8	1.49e+00	0	50	104	0	51	15410
2026-01-08 07:49:25.80	94.81	4.10	-40.0	-52.5	3.8	1.49e+00	0	49	104	0	51	15363
2026-01-08 07:49:26.81	94.71	4.15	-40.0	-52.5	3.8	1.49e+00	0	50	104	0	51	15361
2026-01-08 07:49:27.82	94.62	4.21	-40.1	-52.5	3.8	1.49e+00	0	50	104	0	51	15376
2026-01-08 07:49:28.83	94.52	4.26	-40.0	-52.5	3.8	1.49e+00	0	50	104	0	51	15364
2026-01-08 07:49:29.84	94.42	4.31	-40.0	-52.6	3.8	1.49e+00	0	50	104	0	51	15409
2026-01-08 07:49:30.85	94.33	4.37	-40.0	-52.5	3.8	1.49e+00	0	50	104	0	51	15359
2026-01-08 07:49:31.86	94.23	4.42	-40.0	-52.5	3.8	1.49e+00	0	50	104	0	51	15377
2026-01-08 07:49:32.87	94.13	4.48	-40.0	-52.5	3.8	1.49e+00	0	50	104	0	51	15349
2026-01-08 07:49:33.89	94.03	4.53	-40.0	-52.5	3.8	1.49e+00	0	50	104	0	51	15398
2026-01-08 07:49:34.89	93.93	4.58	-40.0	-52.5	3.8	1.49e+00	0	50	104	0	51	15348
2026-01-08 07:49:35.90	93.83	4.64	-40.1	-52.5	3.8	1.49e+00	0	50	104	0	51	15401
2026-01-08 07:49:36.91	93.73	4.69	-40.0	-52.5	3.8	1.49e+00	0	50	104	0	51	15393
2026-01-08 07:49:37.92	93.63	4.74	-40.1	-52.5	3.8	1.49e+00	0	50	104	0	51	15357
2026-01-08 07:49:38.93	93.53	4.80	-40.0	-52.5	3.8	1.49e+00	0	51	104	0	51	15353
2026-01-08 07:49:39.94	93.43	4.85	-40.0	-52.5	3.8	1.49e+00	0	50	104	0	51	15352
2026-01-08 07:49:40.95	93.33	4.90	-40.0	-52.5	3.8	1.49e+00	0	51	104	0	51	15345
2026-01-08 07:49:41.96	93.23	4.96	-40.0	-52.5	3.8	1.49e+00	0	50	104	0	51	15390
2026-01-08 07:49:42.97	93.12	5.01	-40.0	-52.5	3.8	1.49e+00	0	51	104	0	51	15365
2026-01-08 07:49:43.98	93.02	5.07	-40.0	-52.5	3.8	1.49e+00	0	51	104	0	51	15321
2026-01-08 07:49:44.99	92.92	5.12	-40.0	-52.5	3.8	1.49e+00	0	51	104	0	51	15342
2026-01-08 07:49:46.00	92.82	5.17	-40.1	-52.5	3.8	1.49e+00	0	51	104	0	51	15366
2026-01-08 07:49:47.01	92.71	5.23	-40.0	-52.5	3.8	1.49e+00	0	51	104	0	51	15381
2026-01-08 07:49:48.02	92.61	5.28	-40.0	-52.5	3.8	1.49e+00	0	51	104	0	51	15386
2026-01-08 07:49:49.03	92.50	5.34	-40.0	-52.5	3.8	1.49e+00	0	51	104	0	51	15355
2026-01-08 07:49:50.04	92.40	5.39	-40.0	-52.5	3.8	1.49e+00	0	51	104	0	51	15352
2026-01-08 07:49:51.05	92.29	5.44	-40.0	-52.5	3.8	1.49e+00	0	51	104	0	51	15349
2026-01-08 07:49:52.06	92.19	5.50	-40.1	-52.5	3.8	1.49e+00	0	51	104	0	51	15309
2026-01-08 07:49:53.07	92.08	5.55	-40.0	-52.5	3.8	1.49e+00	0	51	104	0	51	15373
2026-01-08 07:49:54.08	91.98	5.61	-40.0	-52.5	3.8	1.49e+00	0	51	104	0	51	15370
2026-01-08 07:49:55.09	91.87	5.66	-40.0	-52.5	3.8	1.49e+00	0	51	104	0	51	15349
2026-01-08 07:49:56.10	91.76	5.71	-40.0	-52.5	3.8	1.49e+00	0	51	104	0	51	15314
2026-01-08 07:49:57.11	91.65	5.77	-40.0	-52.5	3.8	1.49e+00	0	51	104	0	51	15333
2026-01-08 07:49:58.12	91.55	5.82	-40.0	-52.5	3.8	1.49e+00	0	51	104	0	51	15350
2026-01-08 07:49:59.13	91.44	5.88	-40.1	-52.5	3.8	1.49e+00	0	51	104	0	51	15364
2026-01-08 07:50:00.14	91.33	5.93	-40.0	-52.5	3.8	1.49e+00	0	51	104	0	51	15337
2026-01-08 07:50:01.15	91.22	5.99	-40.0	-52.5	3.8	1.49e+00	0	51	104	0	51	15344
2026-01-08 07:50:02.16	91.11	6.04	-40.0	-52.5	3.8	1.49e+00	0	51	104	0	51	15360
2026-01-08 07:50:03.17	91.00	6.09	-40.0	-52.5	3.8	1.49e+00	0	51	104	0	51	15316
2026-01-08 07:50:04.18	90.89	6.15	-40.0	-52.5	3.8	1.49e+00	0	51	104	0	51	15307
2026-01-08 07:50:05.19	90.78	6.20	-40.0	-52.5	3.8	1.49e+00	0	52	104	0	51	15301
2026-01-08 07:50:06.20	90.67	6.26	-40.0	-52.5	3.8	1.49e+00	0	51	104	0	51	15319
2026-01-08 07:50:07.22	90.55	6.31	-40.0	-52.5	3.8	1.49e+00	0	52	104	0	51	15343
2026-01-08 07:50:08.22	90.44	6.37	-40.0	-52.5	3.8	1.49e+00	0	52	104	0	51	15353
2026-01-08 07:50:09.24	90.33	6.42	-40.0	-52.5	3.8	1.49e+00	0	52	104	0	51	15340
2026-01-08 07:50:10.25	90.21	6.47	-40.0	-52.5	3.8	1.49e+00	0	52	104	0	51	15344
2026-01-08 07:50:11.26	90.10	6.53	-40.1	-52.5	3.8	1.49e+00	0	52	104	0	51	15347
2026-01-08 07:50:12.27	89.99	6.58	-40.0	-52.5	3.8	1.49e+00	0	52	104	0	51	15358
2026-01-08 07:50:13.28	89.87	6.64	-40.0	-52.5	3.8	1.49e+00	0	52	104	0	51	15320
2026-01-08 07:50:14.29	89.76	6.69	-40.0	-52.5	3.8	1.49e+00	0	52	104	0	51	15336
2026-01-08 07:50:15.30	89.64	6.75	-40.1	-52.5	3.8	1.49e+00	0	52	104	0	51	15329
2026-01-08 07:50:16.31	89.53	6.80	-40.0	-52.5	3.8	1.49e+00	0	52	104	0	51	15345
2026-01-08 07:50:17.32	89.41	6.86	-40.0	-52.5	3.8	1.49e+00	0	52	104	0	51	15365
2026-01-08 07:50:18.33	89.29	6.91	-40.0	-52.5	3.8	1.49e+00	0	52	104	0	51	15354
2026-01-08 07:50:19.34	89.18	6.96	-40.0	-52.5	3.8	1.49e+00	0	52	104	0	51	15361
2026-01-08 07:50:20.35	89.06	7.02	-40.0	-52.5	3.8	1.49e+00	0	52	104	0	51	15332
2026-01-08 07:50:21.36	88.94	7.07	-40.0	-52.5	3.8	1.49e+00	0	52	104	0	51	15385
2026-01-08 07:50:22.38	88.82	7.13	-40.0	-52.5	3.8	1.49e+00	0	52	104	0	51	15343
2026-01-08 07:50:23.38	88.70	7.18	-40.0	-52.5	3.8	1.49e+00	0	52	104	0	51	15332
2026-01-08 07:50:24.40	88.58	7.24	-40.0	-52.6	3.8	1.49e+00	0	52	104	0	51	15410
2026-01-08 07:50:25.41	88.46	7.29	-40.0	-52.5	3.8	1.49e+00	0	52	104	0	51	15336
2026-01-08 07:50:26.42	88.34	7.35	-40.0	-52.5	3.8	1.49e+00	0	52	104	0	51	15375
2026-01-08 07:50:27.43	88.22	7.40	-40.0	-52.5	3.8	1.49e+00	0	52	104	0	51	15368
2026-01-08 07:50:28.44	88.10	7.45	-40.0	-52.5	3.8	1.49e+00	0	52	104	0	51	15340
2026-01-08 07:50:29.45	87.98	7.51	-40.0	-52.5	3.8	1.49e+00	0	53	104	0	51	15339
2026-01-08 07:50:30.46	87.86	7.56	-40.0	-52.5	3.8	1.49e+00	0	52	104	0	51	15337
2026-01-08 07:50:31.47	87.74	7.62	-40.0	-52.5	3.8	1.49e+00	0	52	104	0	51	15316
2026-01-08 07:50:32.48	87.61	7.67	-40.0	-52.5	3.8	1.49e+00	0	52	104	0	51	15330
2026-01-08 07:50:33.49	87.49	7.73	-40.1	-52.5	3.8	1.49e+00	0	53	104	0	51	15335
2026-01-08 07:50:34.50	87.37	7.78	-40.0	-52.5	3.8	1.49e+00	0	52	104	0	51	15328
2026-01-08 07:50:35.51	87.24	7.84	-40.0	-52.5	3.8	1.49e+00	0	53	104	0	51	15313
2026-01-08 07:50:36.52	87.12	7.89	-40.0	-52.5	3.8	1.49e+00	0	53	104	0	51	15382
2026-01-08 07:50:37.53	86.99	7.94	-40.0	-52.5	3.8	1.49e+00	0	53	104	0	51	15339
2026-01-08 07:50:38.54	86.87	8.00	-40.0	-52.5	3.8	1.49e+00	0	53	104	0	51	15335
2026-01-08 07:50:39.55	86.74	8.05	-40.2	-52.7	3.8	1.49e+00	0	53	104	0	51	15723
2026-01-08 07:50:40.56	86.61	8.11	-40.1	-52.8	3.8	1.49e+00	0	53	104	0	51	15806
2026-01-08 07:50:41.57	86.49	8.16	-40.0	-52.6	3.8	1.49e+00	0	53	104	0	51	15471
2026-01-08 07:50:42.58	86.36	8.22	-40.2	-52.7	3.8	1.49e+00	0	53	104	0	51	15694
2026-01-08 07:50:43.59	86.23	8.27	-40.0	-52.6	3.8	1.49e+00	0	53	104	0	51	15505
2026-01-08 07:50:44.60	86.10	8.32	-40.0	-52.7	3.8	1.49e+00	0	53	104	0	51	15587
2026-01-08 07:50:45.61	85.97	8.38	-39.9	-52.6	3.8	1.49e+00	0	53	104	0	51	15484
2026-01-08 07:50:46.63	85.84	8.43	-39.9	-52.5	3.8	1.49e+00	0	53	104	0	51	15396
2026-01-08 07:50:47.63	85.71	8.49	-39.9	-52.7	3.8	1.49e+00	0	53	104	0	51	15587
2026-01-08 07:50:48.65	85.58	8.54	-39.9	-52.6	3.8	1.49e+00	0	53	104	0	51	15503
2026-01-08 07:50:49.66	85.45	8.59	-39.9	-52.6	3.8	1.49e+00	0	53	104	0	51	15513
2026-01-08 07:50:50.67	85.32	8.65	-39.9	-52.7	3.8	1.49e+00	0	53	104	0	51	15700
2026-01-08 07:50:51.68	85.18	8.70	-39.9	-52.5	3.8	1.49e+00	0	53	104	0	51	15272
2026-01-08 07:50:52.69	85.05	8.76	-39.9	-52.6	3.8	1.49e+00	0	53	104	0	51	15518
2026-01-08 07:50:53.70	84.92	8.81	-39.9	-52.5	3.8	1.49e+00	0	53	104	0	51	15236
2026-01-08 07:50:54.70	84.79	8.86	-40.0	-52.4	3.8	1.49e+00	0	53	104	0	51	15155
2026-01-08 07:50:55.72	84.65	8.92	-40.0	-52.5	3.8	1.49e+00	0	53	104	0	51	15332
2026-01-08 07:50:56.73	84.52	8.97	-40.0	-52.4	3.8	1.49e+00	0	53	104	0	51	15147
2026-01-08 07:50:57.74	84.38	9.03	-40.0	-52.5	3.8	1.49e+00	0	53	104	0	51	15266
2026-01-08 07:50:58.75	84.25	9.08	-40.1	-52.5	3.8	1.49e+00	0	53	104	0	51	15325
2026-01-08 07:50:59.75	84.11	9.13	-40.1	-52.4	3.8	1.49e+00	0	53	104	0	51	15150
2026-01-08 07:51:00.76	83.97	9.19	-40.0	-52.5	3.8	1.49e+00	0	53	104	0	51	15226
2026-01-08 07:51:01.78	83.84	9.24	-40.0	-52.4	3.8	1.49e+00	0	53	104	0	51	15109
2026-01-08 07:51:02.78	83.70	9.29	-40.0	-52.3	3.8	1.49e+00	0	53	104	0	51	15003
2026-01-08 07:51:03.80	83.56	9.35	-40.0	-52.4	3.8	1.49e+00	0	53	104	0	51	15141
2026-01-08 07:51:04.81	83.42	9.40	-40.0	-52.3	3.8	1.49e+00	0	53	104	0	51	14991
2026-01-08 07:51:05.81	83.28	9.45	-39.9	-52.4	3.8	1.49e+00	0	53	104	0	51	15060
2026-01-08 07:51:06.83	83.14	9.51	-40.0	-52.5	3.8	1.49e+00	0	54	104	0	51	15230
2026-01-08 07:51:07.84	83.00	9.56	-40.0	-52.3	3.8	1.49e+00	0	53	104	0	51	14992
2026-01-08 07:51:08.84	82.86	9.62	-40.1	-52.4	3.8	1.49e+00	0	53	104	0	51	15174
2026-01-08 07:51:09.86	82.72	9.67	-40.0	-52.3	3.8	1.49e+00	0	53	104	0	51	15005
2026-01-08 07:51:10.87	82.58	9.72	-40.1	-52.4	3.8	1.49e+00	0	53	104	0	51	15137
2026-01-08 07:51:11.87	82.44	9.77	-39.9	-52.3	3.8	1.49e+00	0	54	104	0	51	14967
2026-01-08 07:51:12.89	82.29	9.83	-40.1	-52.4	3.8	1.49e+00	0	54	104	0	51	15083
2026-01-08 07:51:13.90	82.15	9.88	-39.9	-52.3	3.8	1.49e+00	0	53	104	0	51	15026
2026-01-08 07:51:14.91	82.01	9.93	-40.2	-52.5	3.8	1.49e+00	0	54	104	0	51	15310
2026-01-08 07:51:15.92	81.86	9.99	-40.0	-52.3	3.8	1.49e+00	0	53	104	0	51	15019
2026-01-08 07:51:16.93	81.72	10.04	-40.2	-52.5	3.8	1.49e+00	0	54	104	0	51	15260
2026-01-08 07:51:17.94	81.57	10.09	-40.1	-52.4	3.8	1.49e+00	0	54	104	0	51	15072
2026-01-08 07:51:18.95	81.42	10.15	-40.1	-52.5	3.8	1.49e+00	0	54	104	0	51	15247
2026-01-08 07:51:19.96	81.28	10.20	-40.1	-52.4	3.8	1.49e+00	0	53	104	0	51	15111
2026-01-08 07:51:20.97	81.13	10.25	-40.1	-52.5	3.8	1.49e+00	0	54	104	0	51	15290
2026-01-08 07:51:21.98	80.98	10.30	-40.1	-52.4	3.8	1.49e+00	0	54	104	0	51	15074
2026-01-08 07:51:22.99	80.83	10.36	-40.2	-52.6	3.8	1.49e+00	0	54	104	0	51	15405
2026-01-08 07:51:24.00	80.69	10.41	-40.0	-52.4	3.8	1.49e+00	0	54	104	0	51	15217
2026-01-08 07:51:25.01	80.54	10.46	-40.3	-52.6	3.8	1.49e+00	0	54	104	0	51	15405
2026-01-08 07:51:26.02	80.39	10.51	-40.0	-52.5	3.8	1.49e+00	0	54	104	0	51	15345
2026-01-08 07:51:27.02	80.24	10.57	-40.3	-52.6	3.8	1.49e+00	0	54	104	0	51	15434
2026-01-08 07:51:28.04	80.09	10.62	-40.1	-52.4	3.8	1.49e+00	0	54	104	0	51	15161
2026-01-08 07:51:29.05	79.93	10.67	-40.3	-52.6	3.8	1.49e+00	0	54	104	0	51	15522
2026-01-08 07:51:30.06	79.78	10.72	-40.1	-52.5	3.8	1.49e+00	0	54	104	0	51	15272
2026-01-08 07:51:31.07	79.63	10.77	-40.3	-52.7	3.8	1.49e+00	0	54	104	0	51	15649
2026-01-08 07:51:32.08	79.48	10.83	-40.3	-52.6	3.8	1.49e+00	0	54	104	0	51	15473
2026-01-08 07:51:33.08	79.32	10.88	-40.3	-52.7	3.8	1.49e+00	0	54	104	0	51	15626
2026-01-08 07:51:34.10	79.17	10.93	-40.4	-52.7	3.8	1.49e+00	0	54	104	0	51	15660
2026-01-08 07:51:35.11	79.01	10.98	-40.5	-52.8	3.8	1.49e+00	0	54	104	0	51	15914
2026-01-08 07:51:36.12	78.86	11.03	-40.3	-52.6	3.8	1.49e+00	0	54	104	0	51	15436
2026-01-08 07:51:37.13	78.70	11.08	-40.6	-52.9	3.8	1.49e+00	0	54	104	0	51	15979
2026-01-08 07:51:38.14	78.55	11.13	-40.3	-52.6	3.8	1.49e+00	0	54	104	0	51	15485
2026-01-08 07:51:39.15	78.39	11.19	-40.5	-52.8	3.8	1.49e+00	0	54	104	0	51	15905
2026-01-08 07:51:40.16	78.23	11.24	-40.5	-52.9	3.8	1.49e+00	0	54	104	0	51	16116
2026-01-08 07:51:41.17	78.07	11.29	-40.5	-52.9	3.8	1.49e+00	0	54	104	0	51	16082
2026-01-08 07:51:42.18	77.92	11.34	-40.6	-53.0	3.8	1.49e+00	0	54	104	0	51	16279
2026-01-08 07:51:43.19	77.76	11.39	-40.7	-52.9	3.8	1.49e+00	0	54	104	0	52	15211
2026-01-08 07:51:44.20	77.60	11.44	-40.5	-52.8	3.8	1.49e+00	0	54	104	0	52	14947
2026-01-08 07:51:45.21	77.44	11.49	-40.7	-53.0	3.8	1.49e+00	0	54	104	0	52	15365
2026-01-08 07:51:46.22	77.28	11.54	-40.5	-52.8	3.8	1.49e+00	0	54	104	0	52	14971
2026-01-08 07:51:47.23	77.11	11.59	-40.6	-52.9	3.8	1.49e+00	0	54	104	0	52	15128
2026-01-08 07:51:48.24	76.95	11.64	-40.8	-53.1	3.8	1.49e+00	0	54	104	0	52	15515
2026-01-08 07:51:49.25	76.79	11.69	-40.7	-53.0	3.8	1.49e+00	0	54	104	0	52	15242
2026-01-08 07:51:50.26	76.63	11.74	-41.0	-53.3	3.8	1.49e+00	0	54	104	0	52	15798
2026-01-08 07:51:51.27	76.46	11.79	-40.9	-53.4	3.8	1.49e+00	0	54	104	0	52	15971
2026-01-08 07:51:52.28	76.30	11.84	-40.7	-53.0	3.8	1.49e+00	0	54	104	0	52	15334
2026-01-08 07:51:53.29	76.13	11.89	-41.0	-53.4	3.8	1.49e+00	0	54	104	0	52	16045
2026-01-08 07:51:54.30	75.97	11.94	-40.8	-53.1	3.8	1.49e+00	0	54	104	0	52	15469
2026-01-08 07:51:55.31	75.80	11.99	-40.8	-53.3	3.8	1.49e+00	0	55	104	0	52	15893
2026-01-08 07:51:56.32	75.64	12.04	-41.1	-53.5	3.8	1.49e+00	0	54	104	0	52	16255
2026-01-08 07:51:57.33	75.47	12.09	-41.0	-53.4	3.8	1.49e+00	0	54	104	0	52	16050
2026-01-08 07:51:58.34	75.30	12.13	-41.1	-53.5	3.8	1.49e+00	0	54	104	0	52	16202
2026-01-08 07:51:59.35	75.13	12.18	-41.1	-53.4	3.8	1.49e+00	0	54	104	0	52	15945
2026-01-08 07:52:00.36	74.97	12.23	-41.0	-53.4	3.8	1.49e+00	0	55	104	0	52	16036
2026-01-08 07:52:01.37	74.80	12.28	-41.0	-53.3	3.8	1.49e+00	0	54	104	0	52	15890
2026-01-08 07:52:02.38	74.63	12.33	-41.1	-53.4	3.8	1.49e+00	0	55	104	0	52	16077
2026-01-08 07:52:03.39	74.46	12.38	-41.0	-53.4	3.8	1.49e+00	0	55	104	0	52	16030
2026-01-08 07:52:04.40	74.29	12.42	-40.9	-53.3	3.8	1.49e+00	0	55	104	0	52	15860
2026-01-08 07:52:05.41	74.11	12.47	-41.0	-53.3	3.8	1.49e+00	0	54	104	0	52	15918
2026-01-08 07:52:06.42	73.94	12.52	-40.7	-53.1	3.8	1.49e+00	0	55	104	0	52	15521
2026-01-08 07:52:07.43	73.77	12.57	-40.7	-53.1	3.8	1.49e+00	0	55	104	0	52	15465
2026-01-08 07:52:08.44	73.60	12.61	-40.8	-53.2	3.8	1.49e+00	0	55	104	0	52	15655
2026-01-08 07:52:09.45	73.42	12.66	-40.6	-53.0	3.8	1.49e+00	0	55	104	0	52	15324
2026-01-08 07:52:10.46	73.25	12.71	-40.8	-53.2	3.8	1.49e+00	0	55	104	0	52	15668
2026-01-08 07:52:11.47	73.07	12.75	-40.6	-53.0	3.8	1.49e+00	0	55	104	0	52	15354
2026-01-08 07:52:12.48	72.90	12.80	-40.6	-53.0	3.8	1.49e+00	0	55	104	0	52	15277
2026-01-08 07:52:13.49	72.72	12.85	-40.6	-53.0	3.8	1.49e+00	0	55	104	0	52	15248
2026-01-08 07:52:14.50	72.55	12.89	-40.8	-53.1	3.8	1.49e+00	0	55	104	0	52	15551
2026-01-08 07:52:15.51	72.37	12.94	-40.7	-53.0	3.8	1.49e+00	0	55	104	0	52	15373
2026-01-08 07:52:16.52	72.19	12.99	-40.6	-53.0	3.8	1.49e+00	0	55	104	0	52	15368
2026-01-08 07:52:17.53	72.01	13.03	-40.7	-53.1	3.8	1.49e+00	0	55	104	0	52	15464
2026-01-08 07:52:18.54	71.83	13.08	-40.7	-53.0	3.8	1.49e+00	0	55	104	0	52	15256
2026-01-08 07:52:19.55	71.65	13.12	-40.8	-53.2	3.8	1.49e+00	0	55	104	0	52	15637
2026-01-08 07:52:20.56	71.48	13.17	-40.9	-53.2	3.8	1.49e+00	0	55	104	0	52	15740
2026-01-08 07:52:21.57	71.29	13.21	-40.9	-53.3	3.8	1.49e+00	0	55	104	0	52	15763
2026-01-08 07:52:22.58	71.11	13.26	-41.0	-53.3	3.8	1.49e+00	0	55	104	0	52	15934
2026-01-08 07:52:23.59	70.93	13.30	-41.0	-53.3	3.8	1.49e+00	0	55	104	0	52	15857
2026-01-08 07:52:24.60	70.75	13.35	-41.1	-53.5	3.8	1.49e+00	0	55	104	0	52	16177
2026-01-08 07:52:25.61	70.57	13.39	-41.1	-53.4	3.8	1.49e+00	0	55	104	0	53	15148
2026-01-08 07:52:26.62	70.38	13.43	-41.1	-53.2	3.8	1.49e+00	0	55	104	0	53	14718
2026-01-08 07:52:27.63	70.20	13.48	-41.1	-53.2	3.8	1.49e+00	0	55	104	0	53	14862
2026-01-08 07:52:28.64	70.02	13.52	-41.2	-52.4	3.8	1.49e+00	0	55	104	0	53	13438
2026-01-08 07:52:29.65	69.83	13.56	-41.1	-53.0	3.8	1.49e+00	0	55	104	0	53	14526
2026-01-08 07:52:30.66	69.65	13.61	-41.2	-52.9	3.8	1.49e+00	0	55	104	0	53	14215
2026-01-08 07:52:31.67	69.46	13.65	-41.2	-52.1	3.8	1.49e+00	0	55	104	0	53	12981
2026-01-08 07:52:32.68	69.27	13.69	-41.1	-51.4	3.9	1.49e+00	0	55	104	0	53	12034
2026-01-08 07:52:33.69	69.09	13.73	-41.1	-50.0	4.3	1.46e+00	0	55	104	0	53	10286
2026-01-08 07:52:34.70	68.90	13.78	-41.0	-49.9	4.0	1.14e+00	0	55	104	0	53	10068
2026-01-08 07:52:35.71	68.71	13.82	-41.0	-48.6	4.9	1.13e+00	0	55	104	0	53	8703
2026-01-08 07:52:36.72	68.52	13.86	-41.4	-50.3	4.0	1.09e+00	0	55	104	0	53	10567
2026-01-08 07:52:37.73	68.33	13.90	-40.8	-51.4	3.9	1.00e+00	0	55	104	0	53	11964
2026-01-08 07:52:38.75	68.14	13.94	-40.7	-48.1	4.2	1.49e+00	0	55	104	0	53	8250
2026-01-08 07:52:39.76	67.95	13.98	-40.3	-46.1	6.6	1.83e-01	0	55	0	2097152	51	7311
2026-01-08 07:52:40.76	67.76	14.02	-40.0	-45.4	7.1	3.66e-01	0	55	0	5242880	52	6362
2026-01-08 07:52:41.77	67.57	14.06	-39.6	-43.9	8.7	4.00e-02	0	55	0	8388608	51	5718
2026-01-08 07:52:42.78	67.38	14.10	-39.3	-43.2	9.6	1.73e-02	0	55	0	11534336	50	5579
2026-01-08 07:52:43.79	67.19	14.14	-39.2	-42.9	10.0	8.22e-03	0	55	0	14680064	50	5394
2026-01-08 07:52:44.80	67.00	14.18	-39.0	-42.6	10.4	4.71e-03	0	55	0	17825792	50	5186
2026-01-08 07:52:45.81	66.80	14.22	-38.9	-42.3	10.8	3.23e-03	0	55	0	20971520	49	5327
2026-01-08 07:52:46.82	66.61	14.26	-39.1	-42.5	10.8	3.08e-03	0	55	0	24117248	49	5414
2026-01-08 07:52:47.83	66.42	14.30	-38.9	-42.0	11.4	2.06e-03	0	55	0	27262976	49	5138
2026-01-08 07:52:48.84	66.22	14.34	-38.2	-40.8	12.9	1.06e-04	0	55	0	30408704	48	4741
2026-01-08 07:52:49.85	66.03	14.38	-37.7	-40.0	14.0	6.10e-06	0	55	0	33554432	47	4562
2026-01-08 07:52:50.86	65.83	14.42	-37.5	-39.7	14.4	0.00e+00	0	55	0	36700160	47	4392
2026-01-08 07:52:51.87	65.63	14.45	-37.1	-39.1	15.0	0.00e+00	0	55	0	39845888	46	4365
2026-01-08 07:52:52.88	65.44	14.49	-37.3	-39.3	14.9	0.00e+00	0	55	0	42991616	46	4459
2026-01-08 07:52:53.89	65.24	14.53	-37.8	-39.9	14.5	0.00e+00	0	55	0	46137344	46	4800
2026-01-08 07:52:54.89	65.04	14.57	-37.8	-39.9	14.6	0.00e+00	0	55	0	49283072	46	4807
2026-01-08 07:52:55.90	64.85	14.60	-37.7	-39.7	14.8	7.00e-07	0	55	0	52428800	46	4690
2026-01-08 07:52:56.92	64.65	14.64	-37.6	-39.5	15.1	0.00e+00	0	55	0	55574528	46	4598
2026-01-08 07:52:57.93	64.45	14.68	-37.7	-39.7	15.0	0.00e+00	0	55	0	58720256	46	4678
2026-01-08 07:52:58.94	64.25	14.71	-37.9	-39.9	14.9	0.00e+00	0	55	0	61865984	46	4801
2026-01-08 07:52:59.94	64.05	14.75	-38.3	-40.4	14.4	0.00e+00	0	55	0	65011712	47	4764
2026-01-08 07:53:00.96	63.85	14.78	-38.2	-40.2	14.6	0.00e+00	0	55	0	68157440	47	4695
2026-01-08 07:53:01.96	63.65	14.82	-38.0	-40.0	14.9	0.00e+00	0	55	0	71303168	47	4581
2026-01-08 07:53:02.97	63.44	14.85	-38.1	-40.1	14.9	0.00e+00	0	55	0	74448896	47	4610
2026-01-08 07:53:03.98	63.24	14.89	-37.9	-39.7	15.2	7.00e-07	0	55	0	77594624	47	4440
2026-01-08 07:53:04.99	63.04	14.92	-37.8	-39.7	15.3	0.00e+00	0	55	0	80740352	47	4424
2026-01-08 07:53:06.00	62.84	14.95	-37.9	-39.8	15.3	0.00e+00	0	55	0	83886080	47	4453
2026-01-08 07:53:07.01	62.63	14.99	-37.9	-39.7	15.3	0.00e+00	0	55	0	87031808	47	4440
2026-01-08 07:53:08.02	62.43	15.02	-37.9	-39.7	15.3	0.00e+00	0	55	0	90177536	47	4440
2026-01-08 07:53:09.03	62.23	15.05	-37.8	-39.6	15.5	0.00e+00	0	55	0	93323264	47	4381
2026-01-08 07:53:10.05	62.02	15.08	-37.7	-39.5	15.6	0.00e+00	0	55	0	96468992	47	4327
2026-01-08 07:53:11.05	61.82	15.12	-37.7	-39.5	15.6	0.00e+00	0	55	0	99614720	47	4329
2026-01-08 07:53:12.06	61.61	15.15	-37.6	-39.4	15.7	0.00e+00	0	55	0	102760448	47	4272
2026-01-08 07:53:13.07	61.40	15.18	-37.7	-39.5	15.7	0.00e+00	0	55	0	105906176	47	4293
2026-01-08 07:53:14.08	61.20	15.21	-37.7	-39.5	15.7	0.00e+00	0	55	0	109051904	47	4304
2026-01-08 07:53:15.09	60.99	15.24	-37.8	-39.6	15.6	0.00e+00	0	55	0	112197632	47	4344
2026-01-08 07:53:16.10	60.78	15.27	-37.8	-39.6	15.6	0.00e+00	0	55	0	115343360	47	4349
2026-01-08 07:53:17.11	60.57	15.30	-37.8	-39.6	15.6	0.00e+00	0	55	0	118489088	47	4373
2026-01-08 07:53:18.12	60.37	15.33	-37.8	-39.6	15.6	0.00e+00	0	55	0	121634816	47	4364
2026-01-08 07:53:19.13	60.16	15.36	-37.8	-39.6	15.5	0.00e+00	0	55	0	124780544	47	4388
2026-01-08 07:53:20.14	59.95	15.39	-37.9	-39.7	15.5	0.00e+00	0	55	0	127926272	47	4411
2026-01-08 07:53:21.15	59.74	15.42	-37.9	-39.7	15.5	0.00e+00	0	55	0	131072000	47	4417
2026-01-08 07:53:22.16	59.53	15.45	-37.8	-39.6	15.6	0.00e+00	0	55	0	134217728	47	4361
2026-01-08 07:53:23.16	59.32	15.47	-37.8	-39.6	15.6	0.00e+00	0	55	0	137363456	47	4362
2026-01-08 07:53:24.17	59.11	15.50	-37.7	-39.4	15.8	0.00e+00	0	55	0	140509184	47	4286
2026-01-08 07:53:25.18	58.90	15.53	-37.7	-39.5	15.7	0.00e+00	0	55	0	143654912	47	4323
2026-01-08 07:53:26.19	58.69	15.56	-37.7	-39.4	15.8	0.00e+00	0	55	0	146800640	47	4268
2026-01-08 07:53:27.20	58.48	15.58	-37.6	-39.3	15.9	0.00e+00	0	55	0	149946368	47	4221
2026-01-08 07:53:28.20	58.27	15.61	-37.4	-39.1	16.1	0.00e+00	0	55	0	153092096	46	4384
2026-01-08 07:53:29.21	58.05	15.63	-37.5	-39.2	16.0	0.00e+00	0	55	0	156237824	46	4416
2026-01-08 07:53:30.22	57.84	15.66	-37.5	-39.2	16.1	0.00e+00	0	55	0	159383552	46	4393
2026-01-08 07:53:31.23	57.63	15.69	-37.4	-39.1	16.1	0.00e+00	0	55	0	162529280	46	4383
2026-01-08 07:53:32.25	57.41	15.71	-37.6	-39.3	15.9	0.00e+00	0	55	0	165675008	46	4465
2026-01-08 07:53:33.25	57.20	15.73	-37.5	-39.2	16.0	0.00e+00	0	55	0	168820736	46	4413
2026-01-08 07:53:34.26	56.99	15.76	-37.5	-39.2	16.0	0.00e+00	0	55	0	171966464	46	4429
2026-01-08 07:53:35.28	56.77	15.78	-37.5	-39.2	16.0	0.00e+00	0	55	0	175112192	46	4430
2026-01-08 07:53:36.28	56.56	15.80	-37.5	-39.2	16.0	0.00e+00	0	55	0	178257920	46	4431
2026-01-08 07:53:37.29	56.34	15.83	-37.5	-39.2	16.0	0.00e+00	0	55	0	181403648	46	4434
2026-01-08 07:53:38.30	56.12	15.85	-37.5	-39.2	16.0	0.00e+00	0	55	0	184549376	46	4424
2026-01-08 07:53:39.31	55.91	15.87	-37.5	-39.2	16.1	0.00e+00	0	55	0	187695104	46	4415
2026-01-08 07:53:40.33	55.69	15.89	-37.6	-39.3	16.0	0.00e+00	0	55	0	190840832	46	4458
2026-01-08 07:53:41.33	55.48	15.91	-37.6	-39.3	16.0	0.00e+00	0	55	0	193986560	46	4448
2026-01-08 07:53:42.34	55.26	15.94	-37.7	-39.4	15.9	0.00e+00	0	55	0	197132288	46	4511
2026-01-08 07:53:43.35	55.04	15.96	-37.6	-39.4	15.9	0.00e+00	0	55	0	200278016	46	4502
2026-01-08 07:53:44.36	54.82	15.98	-37.6	-39.4	15.9	0.00e+00	0	56	0	203423744	46	4509
2026-01-08 07:53:45.37	54.61	16.00	-37.6	-39.4	15.9	0.00e+00	0	55	0	206569472	46	4507
2026-01-08 07:53:46.38	54.39	16.01	-37.7	-39.4	15.9	0.00e+00	0	55	0	209715200	46	4536
2026-01-08 07:53:47.39	54.17	16.03	-37.7	-39.4	15.9	0.00e+00	0	56	0	212860928	46	4525
2026-01-08 07:53:48.40	53.95	16.05	-37.7	-39.4	15.9	0.00e+00	0	55	0	216006656	46	4523
2026-01-08 07:53:49.41	53.73	16.07	-37.5	-39.2	16.1	0.00e+00	0	55	0	219152384	46	4411
2026-01-08 07:53:50.42	53.51	16.09	-37.5	-39.1	16.2	0.00e+00	0	56	0	222298112	46	4381
2026-01-08 07:53:51.43	53.29	16.10	-37.4	-39.1	16.2	0.00e+00	0	55	0	225443840	46	4382
2026-01-08 07:53:52.44	53.07	16.12	-37.4	-39.0	16.3	0.00e+00	0	56	0	228589568	46	4332
2026-01-08 07:53:53.45	52.86	16.14	-37.4	-39.1	16.2	0.00e+00	0	56	0	231735296	46	4365
2026-01-08 07:53:54.46	52.63	16.15	-37.3	-39.0	16.3	0.00e+00	0	55	0	234881024	46	4302
2026-01-08 07:53:55.47	52.41	16.17	-37.3	-38.9	16.4	0.00e+00	0	55	0	238026752	46	4270
2026-01-08 07:53:56.48	52.19	16.18	-37.3	-38.9	16.4	0.00e+00	0	55	0	241172480	46	4276
2026-01-08 07:53:57.49	51.97	16.20	-37.4	-39.1	16.2	0.00e+00	0	55	0	244318208	46	4379
2026-01-08 07:53:58.50	51.75	16.21	-37.5	-39.2	16.1	0.00e+00	0	55	0	247463936	46	4412
2026-01-08 07:53:59.51	51.53	16.23	-37.6	-39.3	16.0	0.00e+00	0	55	0	250609664	46	4477
2026-01-08 07:54:00.52	51.31	16.24	-37.8	-39.5	15.8	0.00e+00	0	55	0	253755392	46	4577
2026-01-08 07:54:01.53	51.09	16.25	-37.9	-39.7	15.6	0.00e+00	0	55	0	256901120	46	4681
2026-01-08 07:54:02.54	50.87	16.27	-37.9	-39.7	15.6	0.00e+00	0	55	0	260046848	46	4678
2026-01-08 07:54:03.55	50.64	16.28	-37.9	-39.7	15.6	0.00e+00	0	55	0	263192576	46	4675
2026-01-08 07:54:04.56	50.42	16.29	-37.8	-39.6	15.7	0.00e+00	0	55	0	266338304	46	4629
2026-01-08 07:54:05.57	50.20	16.30	-37.8	-39.6	15.7	0.00e+00	0	56	0	269484032	46	4628
2026-01-08 07:54:06.58	49.98	16.31	-37.8	-39.6	15.7	0.00e+00	0	56	0	273678336	46	4617
2026-01-08 07:54:07.59	49.76	16.32	-37.7	-39.5	15.9	0.00e+00	0	55	0	276824064	46	4551
2026-01-08 07:54:08.60	49.53	16.33	-37.8	-39.5	15.8	0.00e+00	0	56	0	279969792	46	4573
2026-01-08 07:54:09.60	49.31	16.34	-37.8	-39.6	15.8	0.00e+00	0	55	0	282066944	46	4600
2026-01-08 07:54:10.61	49.09	16.35	-37.8	-39.6	15.7	0.00e+00	0	56	0	285212672	46	4625
2026-01-08 07:54:11.63	48.86	16.36	-37.9	-39.7	15.6	0.00e+00	0	56	0	289406976	46	4691
2026-01-08 07:54:12.64	48.64	16.37	-38.0	-39.8	15.5	0.00e+00	0	55	0	292552704	46	4744
2026-01-08 07:54:13.65	48.42	16.37	-38.0	-39.8	15.6	0.00e+00	0	56	0	295698432	46	4719
2026-01-08 07:54:14.65	48.20	16.38	-37.9	-39.7	15.7	0.00e+00	0	56	0	298844160	46	4666
2026-01-08 07:54:15.66	47.97	16.39	-37.9	-39.7	15.7	0.00e+00	0	55	0	301989888	46	4665
2026-01-08 07:54:16.67	47.75	16.40	-37.8	-39.5	15.8	0.00e+00	0	55	0	304087040	46	4587
2026-01-08 07:54:17.69	47.52	16.40	-37.8	-39.5	15.8	0.00e+00	0	56	0	308281344	46	4592
2026-01-08 07:54:18.69	47.30	16.41	-37.7	-39.5	15.9	0.00e+00	0	56	0	311427072	46	4558
2026-01-08 07:54:19.71	47.07	16.41	-37.7	-39.4	15.9	0.00e+00	0	56	0	314572800	46	4537
2026-01-08 07:54:20.72	46.85	16.42	-37.7	-39.4	15.9	0.00e+00	0	56	0	317718528	46	4525
2026-01-08 07:54:21.73	46.63	16.42	-37.7	-39.4	15.9	0.00e+00	0	55	0	320864256	46	4519
2026-01-08 07:54:22.74	46.40	16.42	-37.7	-39.4	15.9	0.00e+00	0	56	0	324009984	46	4533
2026-01-08 07:54:23.75	46.18	16.43	-37.8	-39.6	15.8	0.00e+00	0	56	0	327155712	46	4610
2026-01-08 07:54:24.76	45.95	16.43	-37.8	-39.6	15.8	0.00e+00	0	56	0	330301440	46	4600
2026-01-08 07:54:25.77	45.73	16.43	-37.8	-39.5	15.8	0.00e+00	0	56	0	333447168	46	4589
2026-01-08 07:54:26.78	45.51	16.44	-37.7	-39.5	15.9	0.00e+00	0	56	0	336592896	46	4549
2026-01-08 07:54:27.79	45.28	16.44	-37.8	-39.6	15.8	0.00e+00	0	55	0	339738624	46	4610
2026-01-08 07:54:28.80	45.06	16.44	-37.9	-39.7	15.7	0.00e+00	0	56	0	342884352	46	4656
2026-01-08 07:54:29.81	44.83	16.44	-37.8	-39.6	15.7	0.00e+00	0	55	0	346030080	46	4636
2026-01-08 07:54:30.81	44.61	16.44	-37.8	-39.6	15.8	0.00e+00	0	56	0	349175808	46	4627
2026-01-08 07:54:31.83	44.38	16.44	-37.7	-39.4	15.9	0.00e+00	0	55	0	352321536	46	4534
2026-01-08 07:54:32.84	44.16	16.44	-37.7	-39.4	15.9	0.00e+00	0	56	0	355467264	46	4521
2026-01-08 07:54:33.85	43.94	16.44	-37.6	-39.3	16.1	0.00e+00	0	56	0	358612992	46	4474
2026-01-08 07:54:34.86	43.71	16.44	-37.6	-39.3	16.1	0.00e+00	0	55	0	361758720	46	4451
2026-01-08 07:54:35.87	43.49	16.43	-37.5	-39.2	16.2	0.00e+00	0	56	0	364904448	46	4416
2026-01-08 07:54:36.88	43.26	16.43	-37.5	-39.2	16.2	0.00e+00	0	55	0	368050176	46	4405
2026-01-08 07:54:37.89	43.04	16.43	-37.5	-39.1	16.2	0.00e+00	0	56	0	371195904	46	4385
2026-01-08 07:54:38.90	42.82	16.42	-37.5	-39.2	16.2	0.00e+00	0	56	0	374341632	46	4398
2026-01-08 07:54:39.91	42.59	16.42	-37.5	-39.2	16.2	0.00e+00	0	56	0	377487360	46	4415
2026-01-08 07:54:40.92	42.37	16.42	-37.5	-39.1	16.2	0.00e+00	0	56	0	380633088	46	4390
2026-01-08 07:54:41.93	42.14	16.41	-37.5	-39.2	16.2	0.00e+00	0	56	0	383778816	46	4408
2026-01-08 07:54:42.94	41.92	16.41	-37.5	-39.2	16.2	0.00e+00	0	56	0	386924544	46	4401
2026-01-08 07:54:43.95	41.70	16.40	-37.5	-39.2	16.1	0.00e+00	0	56	0	390070272	46	4436
2026-01-08 07:54:44.96	41.47	16.40	-37.6	-39.3	16.0	0.00e+00	0	56	0	393216000	46	4489
2026-01-08 07:54:45.97	41.25	16.39	-37.7	-39.4	16.0	0.00e+00	0	56	0	396361728	46	4513
2026-01-08 07:54:46.98	41.03	16.38	-37.6	-39.3	16.0	0.00e+00	0	56	0	399507456	46	4485
2026-01-08 07:54:47.98	40.80	16.37	-37.6	-39.3	16.1	0.00e+00	0	56	0	402653184	46	4446
2026-01-08 07:54:49.00	40.58	16.37	-37.5	-39.2	16.1	0.00e+00	0	56	0	405798912	46	4433
2026-01-08 07:54:50.01	40.36	16.36	-37.5	-39.2	16.2	0.00e+00	0	56	0	408944640	46	4405
2026-01-08 07:54:51.01	40.13	16.35	-37.5	-39.2	16.1	0.00e+00	0	56	0	412090368	46	4431
2026-01-08 07:54:52.03	39.91	16.34	-37.6	-39.3	16.1	0.00e+00	0	56	0	415236096	46	4444
2026-01-08 07:54:53.04	39.69	16.33	-37.6	-39.2	16.2	0.00e+00	0	55	0	418381824	46	4433
2026-01-08 07:54:54.05	39.46	16.32	-37.5	-39.1	16.2	0.00e+00	0	56	0	421527552	46	4389
2026-01-08 07:54:55.05	39.24	16.31	-37.5	-39.1	16.2	0.00e+00	0	56	0	424673280	46	4389
2026-01-08 07:54:56.06	39.02	16.30	-37.5	-39.2	16.2	0.00e+00	0	56	0	427819008	46	4402
2026-01-08 07:54:57.07	38.80	16.29	-37.5	-39.2	16.2	0.00e+00	0	56	0	430964736	46	4404
2026-01-08 07:54:58.08	38.58	16.28	-37.5	-39.2	16.2	0.00e+00	0	56	0	434110464	46	4435
2026-01-08 07:54:59.09	38.36	16.27	-37.6	-39.3	16.1	0.00e+00	0	56	0	437256192	46	4466
2026-01-08 07:55:00.10	38.14	16.25	-37.7	-39.4	16.0	0.00e+00	0	56	0	440401920	46	4529
2026-01-08 07:55:01.11	37.91	16.24	-37.8	-39.5	15.8	0.00e+00	0	56	0	443547648	46	4597
2026-01-08 07:55:02.12	37.69	16.23	-37.9	-39.7	15.7	0.00e+00	0	56	0	446693376	46	4663
2026-01-08 07:55:03.13	37.47	16.21	-37.8	-39.6	15.8	0.00e+00	0	56	0	449839104	46	4633
2026-01-08 07:55:04.14	37.25	16.20	-37.8	-39.5	15.9	0.00e+00	0	56	0	452984832	46	4577
2026-01-08 07:55:05.15	37.03	16.18	-37.7	-39.4	15.9	0.00e+00	0	56	0	456130560	46	4522
2026-01-08 07:55:06.16	36.81	16.17	-37.6	-39.3	16.1	0.00e+00	0	56	0	459276288	46	4483
2026-01-08 07:55:07.17	36.59	16.15	-37.5	-39.2	16.1	0.00e+00	0	56	0	462422016	46	4431
2026-01-08 07:55:08.18	36.37	16.14	-37.5	-39.3	16.1	0.00e+00	0	56	0	465567744	46	4445
2026-01-08 07:55:09.19	36.15	16.12	-37.5	-39.2	16.2	0.00e+00	0	56	0	468713472	46	4427
2026-01-08 07:55:10.20	35.93	16.10	-37.6	-39.3	16.1	0.00e+00	0	56	0	471859200	46	4454
2026-01-08 07:55:11.21	35.71	16.09	-37.7	-39.5	15.9	0.00e+00	0	56	0	475004928	46	4550
2026-01-08 07:55:12.23	35.49	16.07	-37.8	-39.6	15.8	0.00e+00	0	56	0	478150656	46	4610
2026-01-08 07:55:13.24	35.27	16.05	-37.9	-39.7	15.7	0.00e+00	0	56	0	481296384	46	4674
2026-01-08 07:55:14.25	35.06	16.03	-37.9	-39.7	15.7	0.00e+00	0	56	0	484442112	46	4659
2026-01-08 07:55:15.25	34.84	16.01	-37.8	-39.6	15.8	0.00e+00	0	56	0	487587840	46	4635
2026-01-08 07:55:16.27	34.62	15.99	-37.8	-39.5	15.8	0.00e+00	0	56	0	490733568	46	4592
2026-01-08 07:55:17.28	34.40	15.98	-37.6	-39.4	16.0	0.00e+00	0	56	0	493879296	46	4501
2026-01-08 07:55:18.29	34.19	15.96	-37.6	-39.3	16.1	0.00e+00	0	56	0	497025024	46	4468
2026-01-08 07:55:19.30	33.97	15.93	-37.7	-39.4	16.0	0.00e+00	0	56	0	500170752	46	4508
2026-01-08 07:55:20.31	33.75	15.91	-37.6	-39.3	16.1	0.00e+00	0	56	0	503316480	46	4463
2026-01-08 07:55:21.32	33.54	15.89	-37.6	-39.3	16.1	0.00e+00	0	56	0	506462208	46	4473
2026-01-08 07:55:22.33	33.32	15.87	-37.6	-39.3	16.1	0.00e+00	0	56	0	509607936	46	4459
2026-01-08 07:55:23.34	33.10	15.85	-37.6	-39.3	16.1	0.00e+00	0	56	0	512753664	46	4465
2026-01-08 07:55:24.35	32.89	15.83	-37.5	-39.2	16.1	0.00e+00	0	56	0	515899392	46	4422
2026-01-08 07:55:25.36	32.67	15.80	-37.6	-39.3	16.1	0.00e+00	0	56	0	519045120	46	4452
2026-01-08 07:55:26.37	32.46	15.78	-37.6	-39.3	16.1	0.00e+00	0	56	0	522190848	46	4456
2026-01-08 07:55:27.38	32.25	15.76	-37.7	-39.4	15.9	0.00e+00	0	56	0	525336576	46	4545
2026-01-08 07:55:28.39	32.03	15.73	-37.7	-39.4	16.0	0.00e+00	0	56	0	528482304	46	4516
2026-01-08 07:55:29.40	31.82	15.71	-37.6	-39.4	16.0	0.00e+00	0	56	0	531628032	46	4508
2026-01-08 07:55:30.41	31.61	15.68	-37.6	-39.3	16.1	0.00e+00	0	56	0	534773760	46	4456
2026-01-08 07:55:31.42	31.39	15.66	-37.6	-39.3	16.1	0.00e+00	0	56	0	537919488	46	4460
2026-01-08 07:55:32.43	31.18	15.63	-37.6	-39.3	16.1	0.00e+00	0	56	0	541065216	46	4468
2026-01-08 07:55:33.44	30.97	15.61	-37.5	-39.2	16.2	0.00e+00	0	56	0	544210944	46	4393
2026-01-08 07:55:34.45	30.76	15.58	-37.5	-39.2	16.2	0.00e+00	0	56	0	547356672	46	4401
2026-01-08 07:55:35.46	30.55	15.56	-37.5	-39.1	16.2	0.00e+00	0	56	0	550502400	46	4390
2026-01-08 07:55:36.47	30.33	15.53	-37.4	-39.1	16.3	0.00e+00	0	56	0	553648128	46	4344
2026-01-08 07:55:37.48	30.12	15.50	-37.4	-39.1	16.3	0.00e+00	0	56	0	556793856	46	4374
2026-01-08 07:55:38.49	29.91	15.47	-37.4	-39.1	16.2	0.00e+00	0	56	0	559939584	46	4369
2026-01-08 07:55:39.50	29.70	15.45	-37.5	-39.2	16.1	0.00e+00	0	56	0	563085312	46	4433
2026-01-08 07:55:40.51	29.50	15.42	-37.5	-39.2	16.1	0.00e+00	0	56	0	566231040	46	4441
2026-01-08 07:55:41.52	29.29	15.39	-37.6	-39.3	16.0	0.00e+00	0	56	0	569376768	46	4488
2026-01-08 07:55:42.53	29.08	15.36	-37.6	-39.3	16.1	0.00e+00	0	56	0	572522496	46	4460
2026-01-08 07:55:43.53	28.87	15.33	-37.6	-39.3	16.0	0.00e+00	0	56	0	575668224	46	4467
2026-01-08 07:55:44.54	28.66	15.30	-37.7	-39.4	15.9	0.00e+00	0	56	0	578813952	46	4527
2026-01-08 07:55:45.55	28.46	15.27	-37.8	-39.5	15.8	0.00e+00	0	56	0	581959680	46	4590
2026-01-08 07:55:46.56	28.25	15.24	-37.7	-39.4	15.9	0.00e+00	0	56	0	585105408	46	4531
2026-01-08 07:55:47.57	28.04	15.21	-37.7	-39.5	15.8	0.00e+00	0	56	0	588251136	46	4564
2026-01-08 07:55:48.58	27.84	15.18	-37.8	-39.5	15.8	0.00e+00	0	56	0	592445440	46	4586
2026-01-08 07:55:49.59	27.63	15.15	-37.7	-39.4	15.9	0.00e+00	0	56	0	595591168	46	4511
2026-01-08 07:55:50.60	27.43	15.12	-37.7	-39.4	16.0	0.00e+00	0	56	0	597688320	46	4509
2026-01-08 07:55:51.61	27.22	15.08	-37.6	-39.3	16.1	0.00e+00	0	56	0	600834048	46	4456
2026-01-08 07:55:52.62	27.02	15.05	-37.6	-39.3	16.0	0.00e+00	0	56	0	603979776	46	4485
2026-01-08 07:55:53.63	26.81	15.02	-37.6	-39.3	16.0	0.00e+00	0	56	0	608174080	46	4488
2026-01-08 07:55:54.64	26.61	14.99	-37.6	-39.4	16.0	0.00e+00	0	56	0	611319808	46	4512
2026-01-08 07:55:55.65	26.41	14.95	-37.7	-39.4	15.9	0.00e+00	0	56	0	614465536	46	4518
2026-01-08 07:55:56.66	26.21	14.92	-37.7	-39.5	15.8	0.00e+00	0	56	0	617611264	46	4560
2026-01-08 07:55:57.67	26.00	14.89	-37.7	-39.5	15.9	0.00e+00	0	56	0	619708416	46	4546
2026-01-08 07:55:58.68	25.80	14.85	-37.8	-39.5	15.8	0.00e+00	0	56	0	623902720	46	4591
2026-01-08 07:55:59.69	25.60	14.82	-37.8	-39.5	15.8	0.00e+00	0	56	0	627048448	46	4583
2026-01-08 07:56:00.70	25.40	14.78	-37.7	-39.5	15.8	0.00e+00	0	56	0	630194176	46	4566
2026-01-08 07:56:01.71	25.20	14.75	-37.8	-39.5	15.8	0.00e+00	0	56	0	633339904	46	4580
2026-01-08 07:56:02.72	25.00	14.71	-37.8	-39.5	15.7	0.00e+00	0	56	0	636485632	46	4588
2026-01-08 07:56:03.73	24.80	14.68	-37.7	-39.4	15.8	0.00e+00	0	56	0	639631360	46	4536
2026-01-08 07:56:04.74	24.61	14.64	-37.8	-39.5	15.7	0.00e+00	0	56	0	642777088	46	4587
2026-01-08 07:56:05.75	24.41	14.60	-37.7	-39.5	15.7	0.00e+00	0	56	0	645922816	46	4573
2026-01-08 07:56:06.76	24.21	14.57	-37.8	-39.6	15.7	0.00e+00	0	56	0	649068544	46	4605
2026-01-08 07:56:07.77	24.01	14.53	-37.8	-39.6	15.6	0.00e+00	0	56	0	652214272	46	4629
2026-01-08 07:56:08.78	23.82	14.49	-37.8	-39.5	15.7	0.00e+00	0	56	0	655360000	46	4597
2026-01-08 07:56:09.79	23.62	14.46	-37.9	-39.7	15.5	0.00e+00	0	56	0	658505728	46	4700
2026-01-08 07:56:10.80	23.42	14.42	-37.9	-39.7	15.5	0.00e+00	0	56	0	661651456	46	4684
2026-01-08 07:56:11.81	23.23	14.38	-37.9	-39.7	15.5	0.00e+00	0	56	0	664797184	46	4676
2026-01-08 07:56:12.82	23.04	14.34	-37.9	-39.7	15.6	0.00e+00	0	56	0	667942912	46	4659
2026-01-08 07:56:13.83	22.84	14.30	-37.8	-39.6	15.6	0.00e+00	0	56	0	671088640	46	4626
2026-01-08 07:56:14.84	22.65	14.26	-37.7	-39.5	15.8	0.00e+00	0	56	0	674234368	46	4553
2026-01-08 07:56:15.85	22.45	14.23	-37.7	-39.4	15.8	0.00e+00	0	56	0	677380096	46	4545
2026-01-08 07:56:16.86	22.26	14.19	-37.7	-39.5	15.7	0.00e+00	0	56	0	680525824	46	4570
2026-01-08 07:56:17.87	22.07	14.15	-37.8	-39.6	15.7	0.00e+00	0	56	0	683671552	46	4612
2026-01-08 07:56:18.88	21.88	14.11	-37.7	-39.5	15.7	0.00e+00	0	56	0	686817280	46	4577
2026-01-08 07:56:19.89	21.69	14.07	-37.7	-39.5	15.7	0.00e+00	0	56	0	689963008	46	4580
2026-01-08 07:56:20.90	21.50	14.03	-37.8	-39.6	15.6	0.00e+00	0	56	0	693108736	46	4651
2026-01-08 07:56:21.91	21.31	13.99	-38.0	-39.8	15.4	0.00e+00	0	56	0	696254464	46	4752
2026-01-08 07:56:22.92	21.12	13.94	-38.0	-39.9	15.3	0.00e+00	0	56	0	699400192	46	4776
2026-01-08 07:56:23.93	20.93	13.90	-38.0	-39.8	15.3	0.00e+00	0	56	0	702545920	46	4759
2026-01-08 07:56:24.94	20.74	13.86	-37.8	-39.7	15.5	0.00e+00	0	56	0	705691648	46	4658
2026-01-08 07:56:25.95	20.55	13.82	-37.8	-39.6	15.6	0.00e+00	0	56	0	708837376	46	4633
2026-01-08 07:56:26.96	20.37	13.78	-37.7	-39.4	15.8	0.00e+00	0	56	0	711983104	46	4543
2026-01-08 07:56:27.97	20.18	13.74	-37.6	-39.4	15.8	0.00e+00	0	56	0	715128832	46	4511
2026-01-08 07:56:28.98	19.99	13.69	-37.6	-39.3	15.9	0.00e+00	0	56	0	718274560	46	4474
2026-01-08 07:56:29.99	19.81	13.65	-37.6	-39.4	15.8	0.00e+00	0	56	0	721420288	46	4505
2026-01-08 07:56:31.00	19.62	13.61	-37.6	-39.4	15.8	0.00e+00	0	56	0	724566016	46	4527
2026-01-08 07:56:32.01	19.44	13.57	-37.6	-39.4	15.7	0.00e+00	0	56	0	727711744	46	4522
2026-01-08 07:56:33.03	19.25	13.52	-37.7	-39.4	15.7	0.00e+00	0	56	0	730857472	46	4542
2026-01-08 07:56:34.03	19.07	13.48	-37.8	-39.6	15.5	0.00e+00	0	56	0	734003200	46	4642
2026-01-08 07:56:35.04	18.89	13.44	-37.8	-39.7	15.5	0.00e+00	0	56	0	737148928	46	4655
2026-01-08 07:56:36.05	18.71	13.39	-37.9	-39.8	15.4	0.00e+00	0	56	0	740294656	46	4715
2026-01-08 07:56:37.06	18.53	13.35	-37.9	-39.8	15.4	0.00e+00	0	56	0	743440384	46	4736
2026-01-08 07:56:38.07	18.34	13.31	-37.9	-39.8	15.3	0.00e+00	0	56	0	746586112	46	4745
2026-01-08 07:56:39.08	18.16	13.26	-37.9	-39.8	15.4	0.00e+00	0	56	0	749731840	46	4727
2026-01-08 07:56:40.09	17.98	13.22	-37.9	-39.8	15.4	0.00e+00	0	56	0	752877568	46	4725
2026-01-08 07:56:41.10	17.80	13.17	-38.0	-39.8	15.3	0.00e+00	0	56	0	756023296	46	4747
2026-01-08 07:56:42.11	17.63	13.13	-38.0	-39.8	15.3	0.00e+00	0	56	0	759169024	46	4756
2026-01-08 07:56:43.12	17.45	13.08	-38.1	-40.0	15.2	0.00e+00	0	56	0	762314752	46	4824
2026-01-08 07:56:44.13	17.27	13.04	-38.1	-40.0	15.1	7.00e-07	0	56	0	765460480	46	4857
2026-01-08 07:56:45.14	17.09	12.99	-38.1	-40.1	15.1	0.00e+00	0	56	0	768606208	46	4877
2026-01-08 07:56:46.15	16.92	12.94	-38.2	-40.2	15.0	0.00e+00	0	56	0	771751936	47	4652
2026-01-08 07:56:47.16	16.74	12.90	-38.3	-40.3	14.8	0.00e+00	0	56	0	774897664	47	4750
2026-01-08 07:56:48.17	16.56	12.85	-38.4	-40.5	14.6	0.00e+00	0	56	0	778043392	47	4837
2026-01-08 07:56:49.18	16.39	12.81	-38.5	-40.6	14.5	7.00e-07	0	56	0	781189120	47	4906
2026-01-08 07:56:50.19	16.21	12.76	-38.5	-40.6	14.5	1.50e-06	0	56	0	784334848	47	4886
2026-01-08 07:56:51.20	16.04	12.71	-38.5	-40.6	14.5	7.00e-07	0	56	0	787480576	47	4887
2026-01-08 07:56:52.20	15.87	12.67	-38.4	-40.4	14.7	0.00e+00	0	56	0	790626304	47	4799
2026-01-08 07:56:53.21	15.70	12.62	-38.4	-40.4	14.7	0.00e+00	0	56	0	793772032	47	4778
2026-01-08 07:56:54.23	15.52	12.57	-38.2	-40.1	14.9	0.00e+00	0	56	0	796917760	47	4637
2026-01-08 07:56:55.23	15.35	12.53	-38.1	-40.1	14.9	7.00e-07	0	56	0	800063488	47	4626
2026-01-08 07:56:56.24	15.18	12.48	-38.2	-40.1	14.9	0.00e+00	0	56	0	803209216	47	4642
2026-01-08 07:56:57.26	15.01	12.43	-38.3	-40.3	14.8	0.00e+00	0	56	0	806354944	47	4709
2026-01-08 07:56:58.26	14.84	12.38	-38.0	-39.9	15.1	0.00e+00	0	56	0	809500672	47	4511
2026-01-08 07:56:59.27	14.67	12.34	-38.0	-39.9	15.1	0.00e+00	0	56	0	812646400	47	4502
2026-01-08 07:57:00.29	14.50	12.29	-37.9	-39.8	15.3	0.00e+00	0	56	0	815792128	47	4457
2026-01-08 07:57:01.29	14.33	12.24	-38.0	-39.9	15.1	0.00e+00	0	56	0	818937856	47	4518
2026-01-08 07:57:02.31	14.16	12.19	-37.9	-39.8	15.2	0.00e+00	0	56	0	822083584	47	4463
2026-01-08 07:57:03.31	14.00	12.14	-37.9	-39.8	15.2	0.00e+00	0	56	0	825229312	47	4466
2026-01-08 07:57:04.32	13.83	12.09	-38.0	-40.0	15.0	0.00e+00	0	56	0	828375040	47	4555
2026-01-08 07:57:05.33	13.67	12.04	-38.0	-39.9	15.1	0.00e+00	0	56	0	831520768	47	4505
2026-01-08 07:57:06.34	13.50	12.00	-38.0	-40.0	14.9	0.00e+00	0	56	0	834666496	47	4577
2026-01-08 07:57:07.35	13.34	11.95	-38.1	-40.1	14.8	0.00e+00	0	56	0	837812224	47	4630
2026-01-08 07:57:08.36	13.17	11.90	-38.1	-40.1	14.8	0.00e+00	0	56	0	840957952	47	4618
2026-01-08 07:57:09.37	13.01	11.85	-38.3	-40.3	14.5	0.00e+00	0	56	0	844103680	47	4745
2026-01-08 07:57:10.38	12.84	11.80	-38.3	-40.4	14.3	0.00e+00	0	56	0	847249408	47	4798
2026-01-08 07:57:11.39	12.68	11.75	-38.4	-40.5	14.2	2.20e-06	0	56	0	850395136	47	4862
2026-01-08 07:57:12.40	12.52	11.70	-38.4	-40.6	14.1	2.20e-06	0	56	0	853540864	47	4920
2026-01-08 07:57:13.41	12.36	11.65	-38.3	-40.5	14.1	2.20e-06	0	56	0	856686592	47	4851
2026-01-08 07:57:14.42	12.20	11.60	-38.4	-40.6	14.0	3.00e-06	0	56	0	859832320	47	4892
2026-01-08 07:57:15.43	12.04	11.55	-38.3	-40.5	14.0	3.80e-06	0	56	0	862978048	47	4843
2026-01-08 07:57:16.44	11.88	11.50	-38.2	-40.4	14.0	2.20e-06	0	56	0	866123776	47	4787
2026-01-08 07:57:17.45	11.72	11.45	-38.0	-40.2	14.1	1.50e-06	0	56	0	869269504	47	4694
2026-01-08 07:57:18.46	11.56	11.40	-37.9	-40.2	14.0	2.20e-06	0	56	0	872415232	47	4660
2026-01-08 07:57:19.47	11.40	11.35	-38.1	-40.4	13.8	2.20e-06	0	56	0	875560960	47	4763
2026-01-08 07:57:20.48	11.24	11.30	-38.3	-40.7	13.3	6.10e-06	0	56	0	878706688	47	4969
2026-01-08 07:57:21.49	11.09	11.25	-38.6	-41.3	12.5	5.49e-05	0	56	0	881852416	47	5337
2026-01-08 07:57:22.50	10.93	11.20	-39.1	-42.2	11.4	7.12e-04	0	56	0	884998144	48	5577
2026-01-08 07:57:23.51	10.77	11.15	-39.4	-43.0	10.3	3.68e-03	0	56	0	888143872	49	5764
2026-01-08 07:57:24.52	10.62	11.09	-39.7	-43.8	9.3	1.24e-02	0	56	0	891289600	49	6306
2026-01-08 07:57:25.53	10.46	11.04	-40.0	-44.8	8.0	4.64e-02	0	56	0	894435328	50	6695
2026-01-08 07:57:26.54	10.31	10.99	-40.2	-45.9	6.8	1.43e-01	0	56	0	897581056	50	7587
2026-01-08 07:57:27.55	10.16	10.94	-40.3	-46.8	5.8	3.30e-01	0	56	0	900726784	51	7943
2026-01-08 07:57:28.56	10.00	10.89	-40.4	-48.2	4.8	6.78e-01	0	56	0	903872512	51	9334
2026-01-08 07:57:29.57	9.85	10.84	-40.5	-49.5	4.3	1.45e+00	0	56	104	904921088	51	10822
2026-01-08 07:57:30.58	9.70	10.79	-40.5	-51.0	3.8	1.48e+00	0	56	104	904921088	51	12864
2026-01-08 07:57:31.59	9.55	10.73	-40.5	-51.4	3.9	1.49e+00	0	56	104	904921088	51	13557
2026-01-08 07:57:32.60	9.39	10.68	-40.7	-51.1	3.8	1.49e+00	0	56	104	904921088	52	12360
2026-01-08 07:57:33.61	9.24	10.63	-40.0	-52.0	3.8	1.48e+00	0	56	104	904921088	52	13573
2026-01-08 07:57:34.62	9.09	10.58	-40.1	-52.0	3.8	1.49e+00	0	56	104	904921088	51	14508
2026-01-08 07:57:35.63	8.95	10.53	-40.8	-51.3	3.8	1.49e+00	0	56	104	904921088	52	12649
2026-01-08 07:57:36.63	8.80	10.48	-41.2	-52.3	3.8	1.49e+00	0	56	104	904921088	53	13276
2026-01-08 07:57:37.65	8.65	10.42	-40.9	-52.5	3.8	1.49e+00	0	56	104	904921088	53	13584
2026-01-08 07:57:38.65	8.50	10.37	-40.8	-52.5	3.8	1.49e+00	0	56	104	904921088	53	13629
2026-01-08 07:57:39.66	8.35	10.32	-40.6	-52.3	3.8	1.49e+00	0	56	104	904921088	53	13328
2026-01-08 07:57:40.67	8.21	10.27	-40.1	-52.4	3.8	1.49e+00	0	56	104	904921088	52	14258
2026-01-08 07:57:41.68	8.06	10.21	-39.9	-52.3	3.8	1.49e+00	0	56	104	904921088	51	14989
2026-01-08 07:57:42.69	7.92	10.16	-40.1	-52.2	3.8	1.49e+00	0	56	104	904921088	51	14780
2026-01-08 07:57:43.70	7.77	10.11	-39.9	-52.3	3.8	1.49e+00	0	56	104	904921088	51	14926
2026-01-08 07:57:44.71	7.63	10.06	-40.1	-52.4	3.8	1.49e+00	0	56	104	904921088	51	15092
2026-01-08 07:57:45.72	7.48	10.00	-39.9	-52.3	3.8	1.49e+00	0	56	104	904921088	51	14896
2026-01-08 07:57:46.73	7.34	9.95	-39.9	-52.2	3.8	1.49e+00	0	56	104	904921088	51	14833
2026-01-08 07:57:47.74	7.20	9.90	-39.9	-52.3	3.8	1.49e+00	0	56	104	904921088	51	14991
2026-01-08 07:57:48.75	7.05	9.84	-39.9	-52.2	3.8	1.49e+00	0	56	104	904921088	51	14844
2026-01-08 07:57:49.76	6.91	9.79	-39.9	-52.3	3.8	1.49e+00	0	56	104	904921088	51	14910
2026-01-08 07:57:50.77	6.77	9.74	-40.1	-52.5	3.8	1.49e+00	0	56	104	904921088	51	15247
2026-01-08 07:57:51.78	6.63	9.69	-39.8	-52.2	3.8	1.49e+00	0	56	104	904921088	51	14753
2026-01-08 07:57:52.79	6.49	9.63	-40.1	-52.4	3.8	1.49e+00	0	56	104	904921088	51	15218
2026-01-08 07:57:53.80	6.35	9.58	-39.8	-52.2	3.8	1.49e+00	0	56	104	904921088	51	14765
2026-01-08 07:57:54.81	6.21	9.53	-39.8	-52.1	3.8	1.49e+00	0	57	104	904921088	51	14668
2026-01-08 07:57:55.82	6.07	9.47	-39.9	-52.2	3.8	1.49e+00	0	56	104	904921088	51	14867
2026-01-08 07:57:56.83	5.93	9.42	-39.7	-52.1	3.8	1.49e+00	0	56	104	904921088	51	14629
2026-01-08 07:57:57.84	5.80	9.37	-39.8	-52.2	3.8	1.49e+00	0	56	104	904921088	51	14810
2026-01-08 07:57:58.85	5.66	9.31	-40.0	-52.4	3.8	1.49e+00	0	56	104	904921088	51	15139
2026-01-08 07:57:59.86	5.52	9.26	-39.8	-52.1	3.8	1.49e+00	0	56	104	904921088	51	14657
2026-01-08 07:58:00.87	5.39	9.21	-39.9	-52.3	3.8	1.49e+00	0	56	104	904921088	51	14955
2026-01-08 07:58:01.88	5.25	9.15	-39.7	-52.1	3.8	1.49e+00	0	56	104	904921088	51	14672
2026-01-08 07:58:02.89	5.11	9.10	-39.8	-52.1	3.8	1.49e+00	0	56	104	904921088	51	14703
2026-01-08 07:58:03.90	4.98	9.05	-39.8	-52.1	3.8	1.49e+00	0	56	104	904921088	51	14651
2026-01-08 07:58:04.91	4.85	8.99	-39.8	-52.2	3.8	1.49e+00	0	56	104	904921088	51	14731
2026-01-08 07:58:05.93	4.71	8.94	-39.7	-52.1	3.8	1.49e+00	0	56	104	904921088	51	14610
2026-01-08 07:58:06.93	4.58	8.88	-39.9	-52.3	3.8	1.49e+00	0	56	104	904921088	51	14913
2026-01-08 07:58:07.94	4.45	8.83	-39.8	-52.2	3.8	1.49e+00	0	57	104	904921088	51	14712
2026-01-08 07:58:08.96	4.31	8.78	-39.9	-52.3	3.8	1.49e+00	0	56	104	904921088	51	14939
2026-01-08 07:58:09.96	4.18	8.72	-39.8	-52.2	3.8	1.49e+00	0	56	104	904921088	51	14759
2026-01-08 07:58:10.97	4.05	8.67	-39.8	-52.1	3.8	1.49e+00	0	56	104	904921088	51	14699
2026-01-08 07:58:11.99	3.92	8.61	-39.8	-52.1	3.8	1.49e+00	0	56	104	904921088	51	14697
2026-01-08 07:58:12.99	3.79	8.56	-39.7	-52.1	3.8	1.49e+00	0	56	104	904921088	51	14614
2026-01-08 07:58:14.01	3.66	8.51	-39.8	-52.1	3.8	1.49e+00	0	57	104	904921088	51	14690
2026-01-08 07:58:15.02	3.53	8.45	-39.8	-52.2	3.8	1.49e+00	0	56	104	904921088	51	14830
2026-01-08 07:58:16.03	3.40	8.40	-39.8	-52.2	3.8	1.49e+00	0	56	104	904921088	51	14761
2026-01-08 07:58:17.04	3.27	8.35	-39.8	-52.2	3.8	1.49e+00	0	57	104	904921088	51	14775
2026-01-08 07:58:18.05	3.15	8.29	-39.8	-52.1	3.8	1.49e+00	0	56	104	904921088	51	14698
2026-01-08 07:58:19.06	3.02	8.24	-39.8	-52.2	3.8	1.49e+00	0	57	104	904921088	51	14816
2026-01-08 07:58:20.07	2.89	8.18	-39.8	-52.1	3.8	1.49e+00	0	57	104	904921088	51	14702
2026-01-08 07:58:21.08	2.77	8.13	-39.7	-52.2	3.8	1.49e+00	0	57	104	904921088	51	14866
2026-01-08 07:58:22.09	2.64	8.07	-39.7	-52.1	3.8	1.49e+00	0	56	104	904921088	51	14631
2026-01-08 07:58:23.10	2.52	8.02	-39.9	-52.2	3.8	1.49e+00	0	56	104	904921088	51	14849
2026-01-08 07:58:24.11	2.39	7.97	-40.4	-52.8	3.8	1.49e+00	0	56	104	904921088	51	15824
2026-01-08 07:58:25.12	2.27	7.91	-44.6	-56.7	3.8	1.49e+00	0	56	104	904921088	59	15711
2026-01-08 07:58:26.13	2.14	7.86	-44.9	-57.3	3.8	1.49e+00	0	56	104	904921088	60	15834
2026-01-08 07:58:27.14	2.02	7.80	-45.0	-57.4	3.8	1.49e+00	0	56	104	904921088	60	16078
2026-01-08 07:58:28.15	1.90	7.75	-45.1	-57.5	3.8	1.49e+00	0	57	104	904921088	60	16244
2026-01-08 07:58:29.16	1.77	7.70	-45.2	-57.6	3.8	1.49e+00	0	57	104	904921088	60	16442
2026-01-08 07:58:30.17	1.65	7.64	-45.3	-57.7	3.8	1.49e+00	0	56	104	904921088	61	15739
2026-01-08 07:58:31.18	1.53	7.59	-45.3	-57.7	3.8	1.49e+00	0	56	104	904921088	61	15666
2026-01-08 07:58:32.19	1.41	7.53	-45.3	-57.7	3.8	1.49e+00	0	57	104	904921088	61	15683
2026-01-08 07:58:33.21	1.29	7.48	-45.3	-57.7	3.8	1.49e+00	0	57	104	904921088	61	15669
2026-01-08 07:58:34.21	1.17	7.42	-44.9	-57.6	3.8	1.49e+00	0	56	104	904921088	61	15542
2026-01-08 07:58:35.23	1.05	7.37	-45.2	-57.6	3.8	1.49e+00	0	56	104	904921088	61	15423
2026-01-08 07:58:36.24	0.93	7.32	-45.1	-57.5	3.8	1.49e+00	0	56	104	904921088	61	15376
2026-01-08 07:58:37.24	0.81	7.26	-45.1	-57.5	3.8	1.49e+00	0	57	104	904921088	61	15359
2026-01-08 07:58:38.25	0.69	7.21	-45.1	-57.5	3.8	1.49e+00	0	56	104	904921088	61	15262
2026-01-08 07:58:39.27	0.57	7.15	-45.1	-57.4	3.8	1.49e+00	0	56	104	904921088	61	15208
2026-01-08 07:58:40.27	0.46	7.10	-45.1	-57.4	3.8	1.49e+00	0	56	104	904921088	61	15127
2026-01-08 07:58:41.29	0.34	7.04	-45.1	-57.4	3.8	1.49e+00	0	57	104	904921088	61	15178
2026-01-08 07:58:42.30	0.22	6.99	-45.1	-57.4	3.8	1.49e+00	0	57	104	904921088	61	15181
2026-01-08 07:58:43.31	0.11	6.94	-45.1	-57.4	3.8	1.49e+00	0	57	104	904921088	61	15173
2026-01-08 07:58:44.32	359.99	6.88	-45.1	-57.4	3.8	1.49e+00	0	57	104	904921088	61	15168
2026-01-08 07:58:45.33	359.88	6.83	-45.1	-57.4	3.8	1.49e+00	0	56	104	904921088	61	15155
2026-01-08 07:58:46.34	359.76	6.77	-45.1	-57.4	3.8	1.49e+00	0	56	104	904921088	61	15166
2026-01-08 07:58:47.35	359.65	6.72	-45.1	-57.4	3.8	1.49e+00	0	56	104	904921088	61	15194
2026-01-08 07:58:48.36	359.53	6.67	-45.1	-57.4	3.8	1.49e+00	0	57	104	904921088	60	16103
2026-01-08 07:58:49.37	359.42	6.61	-45.1	-57.4	3.8	1.49e+00	0	57	104	904921088	60	16085
2026-01-08 07:58:50.38	359.31	6.56	-45.1	-57.4	3.8	1.49e+00	0	57	104	904921088	60	16055
2026-01-08 07:58:51.39	359.20	6.50	-45.1	-57.4	3.8	1.49e+00	0	56	104	904921088	60	16056
2026-01-08 07:58:52.40	359.08	6.45	-45.1	-57.4	3.8	1.49e+00	0	56	104	904921088	60	16095
2026-01-08 07:58:53.41	358.97	6.39	-45.1	-57.4	3.8	1.49e+00	0	56	104	904921088	60	16030
2026-01-08 07:58:54.42	358.86	6.34	-45.0	-57.4	3.8	1.49e+00	0	56	104	904921088	60	16036
2026-01-08 07:58:55.43	358.75	6.29	-45.0	-57.4	3.8	1.49e+00	0	57	104	904921088	60	16003
2026-01-08 07:58:56.44	358.64	6.23	-45.0	-57.4	3.8	1.49e+00	0	57	104	904921088	60	16015
2026-01-08 07:58:57.45	358.53	6.18	-45.0	-57.4	3.8	1.49e+00	0	56	104	904921088	60	16015
2026-01-08 07:58:58.46	358.42	6.12	-45.0	-57.4	3.8	1.49e+00	0	56	104	904921088	60	16015
2026-01-08 07:58:59.47	358.31	6.07	-45.0	-57.4	3.8	1.49e+00	0	57	104	904921088	60	16053
2026-01-08 07:59:00.48	358.20	6.02	-45.0	-57.4	3.8	1.49e+00	0	56	104	904921088	60	16034
2026-01-08 07:59:01.49	358.09	5.96	-45.0	-57.4	3.8	1.49e+00	0	57	104	904921088	60	16023
2026-01-08 07:59:02.50	357.99	5.91	-45.0	-57.4	3.8	1.49e+00	0	57	104	904921088	60	16010
2026-01-08 07:59:03.51	357.88	5.85	-45.0	-57.4	3.8	1.49e+00	0	57	104	904921088	60	16012
2026-01-08 07:59:04.52	357.77	5.80	-44.6	-57.4	3.8	1.49e+00	0	56	104	904921088	60	15977
2026-01-08 07:59:05.53	357.66	5.75	-45.0	-57.4	3.8	1.49e+00	0	57	104	904921088	60	16020
2026-01-08 07:59:06.54	357.56	5.69	-45.0	-57.4	3.8	1.49e+00	0	57	104	904921088	60	16040
2026-01-08 07:59:07.55	357.45	5.64	-45.0	-57.4	3.8	1.49e+00	0	57	104	904921088	60	16008
2026-01-08 07:59:08.56	357.35	5.58	-45.0	-57.4	3.8	1.49e+00	0	56	104	904921088	60	15996
2026-01-08 07:59:09.57	357.24	5.53	-45.0	-57.4	3.8	1.49e+00	0	57	104	904921088	60	15998
2026-01-08 07:59:10.58	357.14	5.48	-45.0	-57.4	3.8	1.49e+00	0	57	104	904921088	60	16003
2026-01-08 07:59:11.59	357.03	5.42	-45.0	-57.4	3.8	1.49e+00	0	57	104	904921088	60	15976
2026-01-08 07:59:12.60	356.93	5.37	-45.0	-57.3	3.8	1.49e+00	0	57	104	904921088	60	15941
2026-01-08 07:59:13.61	356.83	5.31	-45.0	-57.4	3.8	1.49e+00	0	57	104	904921088	60	15970
2026-01-08 07:59:14.62	356.72	5.26	-45.0	-57.4	3.8	1.49e+00	0	56	104	904921088	60	15957
2026-01-08 07:59:15.63	356.62	5.21	-45.0	-57.4	3.8	1.49e+00	0	57	104	904921088	60	15990
2026-01-08 07:59:16.64	356.52	5.15	-45.0	-57.4	3.8	1.49e+00	0	57	104	904921088	60	15958
2026-01-08 07:59:17.65	356.42	5.10	-45.0	-57.4	3.8	1.49e+00	0	57	104	904921088	60	15996
2026-01-08 07:59:18.66	356.32	5.05	-45.0	-57.4	3.8	1.49e+00	0	57	104	904921088	60	15977
2026-01-08 07:59:19.67	356.21	4.99	-44.9	-57.3	3.8	1.49e+00	0	57	104	904921088	60	15938
2026-01-08 07:59:20.68	356.11	4.94	-45.0	-57.3	3.8	1.49e+00	0	57	104	904921088	60	15942
2026-01-08 07:59:21.70	356.01	4.88	-45.0	-57.4	3.8	1.49e+00	0	56	104	904921088	60	15952
2026-01-08 07:59:22.70	355.91	4.83	-45.0	-57.4	3.8	1.49e+00	0	56	104	904921088	60	15978
2026-01-08 07:59:23.71	355.81	4.78	-45.0	-57.4	3.8	1.49e+00	0	56	104	904921088	60	15980
2026-01-08 07:59:24.72	355.71	4.72	-45.0	-57.4	3.8	1.49e+00	0	57	104	904921088	60	15949
2026-01-08 07:59:25.73	355.62	4.67	-45.0	-57.4	3.8	1.49e+00	0	57	104	904921088	60	15965
2026-01-08 07:59:26.74	355.52	4.62	-45.0	-57.4	3.8	1.49e+00	0	57	104	904921088	60	15956
2026-01-08 07:59:27.75	355.42	4.56	-45.0	-57.4	3.8	1.49e+00	0	57	104	904921088	60	15975
2026-01-08 07:59:28.76	355.32	4.51	-45.0	-57.4	3.8	1.49e+00	0	57	104	904921088	60	15966
2026-01-08 07:59:29.77	355.22	4.46	-45.0	-57.4	3.8	1.49e+00	0	57	104	904921088	60	16036
2026-01-08 07:59:30.78	355.13	4.40	-45.0	-57.4	3.8	1.49e+00	0	57	104	904921088	60	15984
2026-01-08 07:59:31.79	355.03	4.35	-45.0	-57.4	3.8	1.49e+00	0	56	104	904921088	60	15971
2026-01-08 07:59:32.80	354.93	4.30	-45.0	-57.4	3.8	1.49e+00	0	57	104	904921088	60	15960
2026-01-08 07:59:33.81	354.84	4.24	-45.0	-57.4	3.8	1.49e+00	0	57	104	904921088	60	15961
2026-01-08 07:59:34.82	354.74	4.19	-45.0	-57.4	3.8	1.49e+00	0	57	104	904921088	60	16009
2026-01-08 07:59:35.83	354.65	4.14	-45.0	-57.4	3.8	1.49e+00	0	57	104	904921088	60	15988
2026-01-08 07:59:36.84	354.55	4.08	-45.0	-57.4	3.8	1.49e+00	0	57	104	904921088	60	15982
2026-01-08 07:59:37.86	354.46	4.03	-45.0	-57.4	3.8	1.49e+00	0	57	104	904921088	60	15946
2026-01-08 07:59:38.87	354.36	3.98	-45.0	-57.4	3.8	1.49e+00	0	57	104	904921088	60	15959
2026-01-08 07:59:39.88	354.27	3.92	-45.0	-57.4	3.8	1.49e+00	0	57	104	904921088	60	15953
2026-01-08 07:59:40.89	354.18	3.87	-45.0	-57.3	3.8	1.49e+00	0	57	104	904921088	60	15941
2026-01-08 07:59:41.90	354.08	3.82	-45.0	-57.3	3.8	1.49e+00	0	57	104	904921088	60	15907
2026-01-08 07:59:42.91	353.99	3.76	-45.0	-57.4	3.8	1.49e+00	0	57	104	904921088	60	15959
2026-01-08 07:59:43.92	353.90	3.71	-45.0	-57.3	3.8	1.49e+00	0	57	104	904921088	60	15917
2026-01-08 07:59:44.93	353.81	3.66	-45.0	-57.3	3.8	1.49e+00	0	57	104	904921088	60	15913
2026-01-08 07:59:45.94	353.72	3.60	-45.0	-57.3	3.8	1.49e+00	0	57	104	904921088	60	15926
2026-01-08 07:59:46.95	353.62	3.55	-45.0	-57.3	3.8	1.49e+00	0	57	104	904921088	60	15941
2026-01-08 07:59:47.96	353.53	3.50	-45.0	-57.3	3.8	1.49e+00	0	57	104	904921088	60	15923
2026-01-08 07:59:48.97	353.44	3.45	-45.0	-57.4	3.8	1.49e+00	0	57	104	904921088	60	15965
2026-01-08 07:59:49.98	353.35	3.39	-45.0	-57.3	3.8	1.49e+00	0	57	104	904921088	60	15909
2026-01-08 07:59:50.99	353.26	3.34	-45.0	-57.4	3.8	1.49e+00	0	57	104	904921088	60	15971
2026-01-08 07:59:52.00	353.17	3.29	-45.0	-57.4	3.8	1.49e+00	0	57	104	904921088	60	15948
2026-01-08 07:59:53.01	353.08	3.24	-45.0	-57.3	3.8	1.49e+00	0	57	104	904921088	60	15906
2026-01-08 07:59:54.02	353.00	3.18	-45.0	-57.4	3.8	1.49e+00	0	57	104	904921088	60	15967
2026-01-08 07:59:55.03	352.91	3.13	-45.0	-57.4	3.8	1.49e+00	0	57	104	904921088	60	15960
2026-01-08 07:59:56.04	352.82	3.08	-45.0	-57.4	3.8	1.49e+00	0	57	104	904921088	60	15989
2026-01-08 07:59:57.05	352.73	3.02	-45.0	-57.3	3.8	1.49e+00	0	57	104	904921088	60	15937
2026-01-08 07:59:58.06	352.64	2.97	-45.0	-57.4	3.8	1.49e+00	0	57	104	904921088	60	15955
2026-01-08 07:59:59.07	352.56	2.92	-45.0	-57.4	3.8	1.49e+00	0	57	104	904921088	60	15952
2026-01-08 08:00:00.08	352.47	2.87	-45.0	-57.4	3.8	1.49e+00	0	57	104	904921088	60	15980
2026-01-08 08:00:01.09	352.38	2.81	-45.0	-57.3	3.8	1.49e+00	0	57	104	904921088	60	15933
2026-01-08 08:00:02.10	352.30	2.76	-45.0	-57.3	3.8	1.49e+00	0	57	104	904921088	60	15940
2026-01-08 08:00:03.11	352.21	2.71	-45.0	-57.3	3.8	1.49e+00	0	57	104	904921088	60	15929
2026-01-08 08:00:04.12	352.13	2.66	-45.0	-57.3	3.8	1.49e+00	0	57	104	904921088	60	15904
2026-01-08 08:00:05.13	352.04	2.61	-45.0	-57.4	3.8	1.49e+00	0	57	104	904921088	60	15955
2026-01-08 08:00:06.14	351.95	2.55	-45.0	-57.3	3.8	1.49e+00	0	57	104	904921088	60	15921
2026-01-08 08:00:07.15	351.87	2.50	-45.0	-57.4	3.8	1.49e+00	0	57	104	904921088	60	15965
2026-01-08 08:00:08.16	351.79	2.45	-45.0	-57.3	3.8	1.49e+00	0	57	104	904921088	60	15933
2026-01-08 08:00:09.17	351.70	2.40	-45.0	-57.3	3.8	1.49e+00	0	57	104	904921088	60	15935
2026-01-08 08:00:10.18	351.62	2.34	-45.0	-57.4	3.8	1.49e+00	0	57	104	904921088	60	15944
2026-01-08 08:00:11.19	351.53	2.29	-45.0	-57.3	3.8	1.49e+00	0	57	104	904921088	60	15929
2026-01-08 08:00:12.20	351.45	2.24	-45.0	-57.3	3.8	1.49e+00	0	57	104	904921088	60	15911
2026-01-08 08:00:13.21	351.37	2.19	-45.0	-57.3	3.8	1.49e+00	0	57	104	904921088	60	15934
2026-01-08 08:00:14.22	351.29	2.14	-45.0	-57.3	3.8	1.49e+00	0	57	104	904921088	60	15910
2026-01-08 08:00:15.23	351.20	2.08	-45.0	-57.3	3.8	1.49e+00	0	57	104	904921088	60	15888
2026-01-08 08:00:16.24	351.12	2.03	-45.0	-57.3	3.8	1.49e+00	0	57	104	904921088	60	15933
2026-01-08 08:00:17.25	351.04	1.98	-45.0	-57.3	3.8	1.49e+00	0	57	104	904921088	60	15909
2026-01-08 08:00:18.27	350.96	1.93	-45.0	-57.3	3.8	1.49e+00	0	57	104	904921088	60	15901

#Closed at: 2026-01-08 08:00:19
#Recorded file [904 MB]: D:/lorett/data/31039_260108_104846.dat