passes_logs/2026/01/08/R2.0S_Moscow/R2.0S_Moscow__20260108_110736_NOAA_21_JPSS-2_rec.log

#Pass ID: 20260108_110736_NOAA 21 (JPSS-2)
#Satellite: NOAA 21 (JPSS-2)
#Configuration: NOAA-21
#almurnet v.1.7.20251203
#Start time: 2026-01-08 11:10:48

#Version: 2.2.20231116
#Station: R2.0S_Moscow
#Location: 37.707566 lon 55.798166 lat
#TLE: 1 54234U 22150A   26005.56767909  .00000152  00000+0  92756-4 0  9990
#TLE: 2 54234  98.7490 306.5820 0001036 340.2747  19.8389 14.19532370163472

#Time	Az	El	Level	Level2	SNR	BER	BlckErr	Temp	State	Recorded	gain1	gain2
2026-01-08 11:10:48.02	213.79	15.57	-45.0	-56.5	3.8	8.46e-01	0	58	0	0	60	14522
2026-01-08 11:10:49.02	213.93	15.65	-45.2	-57.5	3.8	1.49e+00	0	59	104	0	62	14395
2026-01-08 11:10:50.03	214.07	15.74	-45.2	-57.5	3.8	1.49e+00	0	59	104	0	62	14440
2026-01-08 11:10:51.04	214.21	15.82	-45.2	-57.5	3.8	1.49e+00	0	59	104	0	62	14489
2026-01-08 11:10:52.05	214.35	15.91	-45.1	-57.4	3.8	1.49e+00	0	59	104	0	62	14333
2026-01-08 11:10:53.06	214.49	16.00	-45.1	-57.4	3.8	1.49e+00	0	59	104	0	62	14282
2026-01-08 11:10:54.07	214.64	16.08	-45.1	-57.4	3.8	1.49e+00	0	59	104	0	62	14282
2026-01-08 11:10:55.09	214.78	16.17	-45.0	-57.3	3.8	1.49e+00	0	59	104	0	62	14171
2026-01-08 11:10:56.10	214.93	16.26	-45.0	-57.2	3.8	1.49e+00	0	59	104	0	62	13992
2026-01-08 11:10:57.11	215.07	16.34	-44.9	-57.2	3.8	1.49e+00	0	59	104	0	61	14796
2026-01-08 11:10:58.11	215.22	16.43	-44.9	-57.2	3.8	1.49e+00	0	59	104	0	61	14751
2026-01-08 11:10:59.13	215.37	16.52	-44.9	-57.1	3.8	1.49e+00	0	59	104	0	61	14705
2026-01-08 11:11:00.14	215.52	16.61	-44.8	-57.1	3.8	1.49e+00	0	59	104	0	61	14672
2026-01-08 11:11:01.15	215.67	16.69	-44.9	-57.1	3.8	1.49e+00	0	59	104	0	61	14673
2026-01-08 11:11:02.16	215.82	16.78	-44.9	-57.1	3.8	1.49e+00	0	59	104	0	61	14591
2026-01-08 11:11:03.17	215.97	16.87	-44.8	-57.1	3.8	1.49e+00	0	59	104	0	61	14558
2026-01-08 11:11:04.18	216.12	16.96	-44.8	-57.1	3.8	1.49e+00	0	59	104	0	61	14635
2026-01-08 11:11:05.19	216.27	17.04	-44.9	-57.2	3.8	1.49e+00	0	59	104	0	61	14740
2026-01-08 11:11:06.20	216.43	17.13	-44.9	-57.2	3.8	1.49e+00	0	59	104	0	61	14720
2026-01-08 11:11:07.21	216.58	17.22	-44.8	-57.1	3.8	1.49e+00	0	59	104	0	61	14672
2026-01-08 11:11:08.22	216.74	17.31	-44.8	-57.0	3.8	1.49e+00	0	59	104	0	61	14455
2026-01-08 11:11:09.23	216.89	17.40	-44.8	-56.8	3.8	1.49e+00	0	59	104	0	61	14197
2026-01-08 11:11:10.24	217.05	17.49	-44.8	-56.7	3.8	1.49e+00	0	59	104	0	61	13985
2026-01-08 11:11:11.25	217.21	17.57	-44.8	-56.7	3.8	1.49e+00	0	59	104	0	61	13928
2026-01-08 11:11:12.26	217.37	17.66	-44.8	-56.7	3.8	1.49e+00	0	59	104	0	61	14007
2026-01-08 11:11:13.27	217.53	17.75	-44.8	-56.8	3.8	1.49e+00	0	59	104	0	61	14174
2026-01-08 11:11:14.29	217.69	17.84	-44.8	-56.9	3.8	1.49e+00	0	59	104	0	61	14326
2026-01-08 11:11:15.30	217.85	17.93	-44.8	-56.9	3.8	1.49e+00	0	59	104	0	61	14252
2026-01-08 11:11:16.31	218.02	18.02	-44.8	-56.8	3.8	1.49e+00	0	59	104	0	61	14117
2026-01-08 11:11:17.32	218.18	18.11	-44.8	-56.7	3.8	1.49e+00	0	59	104	0	61	14005
2026-01-08 11:11:18.33	218.34	18.20	-44.8	-56.7	3.8	1.49e+00	0	59	104	0	61	13924
2026-01-08 11:11:19.34	218.51	18.29	-44.8	-56.7	3.8	1.49e+00	0	59	104	0	61	14044
2026-01-08 11:11:20.35	218.68	18.38	-44.8	-56.9	3.8	1.49e+00	0	59	104	0	61	14216
2026-01-08 11:11:21.36	218.84	18.47	-44.8	-56.9	3.8	1.49e+00	0	59	104	0	61	14258
2026-01-08 11:11:22.37	219.01	18.56	-44.8	-56.8	3.8	1.49e+00	0	59	104	0	61	14193
2026-01-08 11:11:23.38	219.18	18.65	-44.8	-56.7	3.8	1.49e+00	0	59	104	0	61	14019
2026-01-08 11:11:24.40	219.35	18.74	-44.8	-56.7	3.8	1.49e+00	0	59	104	0	61	13966
2026-01-08 11:11:25.41	219.53	18.83	-44.8	-56.6	3.8	1.49e+00	0	59	104	0	61	13794
2026-01-08 11:11:26.42	219.70	18.92	-44.7	-56.1	3.8	1.49e+00	0	59	104	0	61	13095
2026-01-08 11:11:27.43	219.87	19.01	-44.6	-55.1	3.8	1.49e+00	0	59	104	0	61	11565
2026-01-08 11:11:28.44	220.05	19.10	-44.4	-53.4	4.0	1.46e+00	0	59	104	0	60	10066
2026-01-08 11:11:29.45	220.22	19.19	-44.0	-50.9	5.4	6.85e-01	0	59	0	1048576	60	7595
2026-01-08 11:11:30.46	220.40	19.28	-43.6	-49.1	6.6	2.69e-01	0	59	0	3145728	59	6563
2026-01-08 11:11:31.47	220.58	19.37	-43.1	-47.7	8.0	9.48e-02	0	59	0	7340032	58	5914
2026-01-08 11:11:32.48	220.75	19.46	-42.7	-46.8	8.9	3.42e-02	0	59	0	10485760	57	5646
2026-01-08 11:11:33.50	220.94	19.55	-42.3	-46.1	9.7	1.36e-02	0	59	0	13631488	56	5500
2026-01-08 11:11:34.51	221.12	19.64	-42.1	-45.6	10.2	6.51e-03	0	59	0	16777216	56	5187
2026-01-08 11:11:35.52	221.30	19.73	-41.7	-45.0	10.7	3.78e-03	0	59	0	19922944	55	5111
2026-01-08 11:11:36.53	221.48	19.82	-41.4	-44.5	11.1	1.94e-03	0	59	0	23068672	54	5157
2026-01-08 11:11:37.54	221.66	19.92	-41.1	-44.0	11.7	7.98e-04	0	59	0	26214400	54	4818
2026-01-08 11:11:38.55	221.85	20.01	-40.7	-43.4	12.3	2.43e-04	0	59	0	29360128	53	4784
2026-01-08 11:11:39.56	222.03	20.10	-40.2	-42.7	13.1	5.41e-05	0	59	0	32505856	52	4674
2026-01-08 11:11:40.57	222.22	20.19	-39.9	-42.2	13.7	1.14e-05	0	59	0	35651584	51	4663
2026-01-08 11:11:41.58	222.41	20.28	-39.7	-41.9	14.0	1.50e-06	0	59	0	38797312	51	4497
2026-01-08 11:11:42.59	222.60	20.37	-43.5	-48.8	7.7	7.00e-07	0	59	0	41943040	57	7121
2026-01-08 11:11:43.60	222.79	20.46	-39.6	-41.8	13.9	1.47e+00	0	59	104	41943040	51	4462
2026-01-08 11:11:44.61	222.98	20.55	-39.0	-41.6	5.2	1.47e+00	0	59	104	41943040	50	4626
2026-01-08 11:11:45.62	223.17	20.64	-40.5	-43.0	12.9	1.90e-05	0	59	0	44040192	51	5123
2026-01-08 11:11:46.63	223.37	20.73	-38.4	-40.2	15.7	5.30e-06	0	59	0	47185920	48	4409
2026-01-08 11:11:47.64	223.56	20.82	-38.8	-40.7	15.1	3.00e-06	0	59	0	50331648	49	4413
2026-01-08 11:11:48.65	223.76	20.92	-38.3	-40.1	15.7	0.00e+00	0	59	0	53477376	48	4357
2026-01-08 11:11:49.66	223.95	21.01	-38.3	-40.0	15.8	0.00e+00	0	58	0	56623104	48	4322
2026-01-08 11:11:50.67	224.15	21.10	-38.3	-40.0	15.8	0.00e+00	0	59	0	59768832	48	4319
2026-01-08 11:11:51.68	224.35	21.19	-38.3	-40.0	15.9	0.00e+00	0	59	0	62914560	48	4308
2026-01-08 11:11:52.69	224.55	21.28	-38.2	-39.9	16.0	0.00e+00	0	59	0	66060288	48	4243
2026-01-08 11:11:53.70	224.75	21.37	-38.1	-39.8	16.1	0.00e+00	0	59	0	69206016	48	4209
2026-01-08 11:11:54.71	224.95	21.46	-38.1	-39.8	16.0	0.00e+00	0	59	0	72351744	48	4215
2026-01-08 11:11:55.72	225.16	21.55	-38.2	-39.9	16.0	0.00e+00	0	59	0	75497472	48	4249
2026-01-08 11:11:56.73	225.36	21.64	-38.2	-39.9	15.9	0.00e+00	0	59	0	78643200	48	4267
2026-01-08 11:11:57.74	225.57	21.73	-38.1	-39.8	16.0	0.00e+00	0	59	0	81788928	48	4226
2026-01-08 11:11:58.75	225.78	21.82	-38.2	-39.9	16.0	0.00e+00	0	59	0	84934656	48	4252
2026-01-08 11:11:59.76	225.98	21.91	-38.1	-39.9	16.0	0.00e+00	0	59	0	88080384	48	4243
2026-01-08 11:12:00.75	226.19	22.00	-38.2	-39.9	16.0	0.00e+00	0	59	0	91226112	48	4254
2026-01-08 11:12:01.77	226.40	22.10	-38.2	-39.9	15.9	0.00e+00	0	59	0	94371840	48	4272
2026-01-08 11:12:02.78	226.62	22.19	-38.1	-39.8	16.1	0.00e+00	0	59	0	97517568	48	4214
2026-01-08 11:12:03.79	226.83	22.28	-38.1	-39.8	16.1	0.00e+00	0	59	0	100663296	48	4214
2026-01-08 11:12:04.80	227.04	22.37	-38.1	-39.8	16.0	0.00e+00	0	59	0	103809024	48	4231
2026-01-08 11:12:05.81	227.26	22.46	-38.1	-39.8	16.1	0.00e+00	0	59	0	106954752	48	4215
2026-01-08 11:12:06.82	227.48	22.55	-38.1	-39.7	16.1	0.00e+00	0	59	0	110100480	48	4191
2026-01-08 11:12:07.83	227.69	22.64	-38.1	-39.7	16.1	0.00e+00	0	59	0	113246208	48	4174
2026-01-08 11:12:08.84	227.91	22.73	-37.9	-39.5	16.2	0.00e+00	0	59	0	116391936	47	4330
2026-01-08 11:12:09.85	228.13	22.82	-37.9	-39.5	16.2	0.00e+00	0	59	0	119537664	47	4328
2026-01-08 11:12:10.86	228.36	22.91	-37.8	-39.5	16.3	0.00e+00	0	59	0	122683392	47	4292
2026-01-08 11:12:11.88	228.58	23.00	-37.8	-39.5	16.3	0.00e+00	0	59	0	125829120	47	4296
2026-01-08 11:12:12.89	228.80	23.09	-37.9	-39.5	16.2	0.00e+00	0	59	0	128974848	47	4331
2026-01-08 11:12:13.90	229.03	23.18	-37.9	-39.6	16.1	0.00e+00	0	59	0	132120576	47	4378
2026-01-08 11:12:14.91	229.26	23.26	-38.0	-39.6	16.1	0.00e+00	0	59	0	135266304	47	4390
2026-01-08 11:12:15.92	229.49	23.35	-38.0	-39.7	16.1	0.00e+00	0	59	0	138412032	47	4404
2026-01-08 11:12:16.93	229.71	23.44	-38.0	-39.7	16.0	0.00e+00	0	59	0	141557760	47	4433
2026-01-08 11:12:17.94	229.95	23.53	-38.1	-39.8	16.0	0.00e+00	0	59	0	144703488	47	4445
2026-01-08 11:12:18.95	230.18	23.62	-38.1	-39.8	16.0	0.00e+00	0	59	0	147849216	47	4478
2026-01-08 11:12:19.96	230.41	23.71	-38.1	-39.8	15.9	0.00e+00	0	59	0	150994944	47	4483
2026-01-08 11:12:20.97	230.65	23.80	-38.2	-39.9	15.8	0.00e+00	0	59	0	154140672	47	4538
2026-01-08 11:12:21.99	230.88	23.88	-38.2	-39.9	15.8	0.00e+00	0	59	0	157286400	47	4543
2026-01-08 11:12:23.00	231.12	23.97	-38.3	-40.0	15.8	0.00e+00	0	59	0	160432128	47	4578
2026-01-08 11:12:24.01	231.36	24.06	-38.3	-40.1	15.7	0.00e+00	0	59	0	163577856	47	4614
2026-01-08 11:12:25.02	231.60	24.15	-38.3	-40.1	15.6	0.00e+00	0	59	0	166723584	47	4641
2026-01-08 11:12:26.03	231.84	24.23	-38.4	-40.2	15.6	0.00e+00	0	59	0	169869312	47	4679
2026-01-08 11:12:27.04	232.08	24.32	-38.5	-40.3	15.5	0.00e+00	0	59	0	173015040	47	4710
2026-01-08 11:12:28.05	232.33	24.41	-38.5	-40.3	15.5	0.00e+00	0	59	0	176160768	47	4712
2026-01-08 11:12:29.06	232.57	24.49	-38.2	-40.0	15.8	0.00e+00	0	59	0	179306496	47	4575
2026-01-08 11:12:30.07	232.82	24.58	-38.1	-39.8	15.9	0.00e+00	0	59	0	182452224	47	4480
2026-01-08 11:12:31.08	233.06	24.67	-38.1	-39.8	15.9	0.00e+00	0	59	0	185597952	47	4491
2026-01-08 11:12:32.09	233.31	24.75	-38.2	-40.0	15.8	0.00e+00	0	59	0	188743680	47	4566
2026-01-08 11:12:33.11	233.57	24.84	-38.2	-39.9	15.9	0.00e+00	0	59	0	191889408	47	4518
2026-01-08 11:12:34.12	233.82	24.92	-38.1	-39.8	15.9	0.00e+00	0	59	0	195035136	47	4492
2026-01-08 11:12:35.13	234.07	25.01	-38.2	-39.9	15.8	0.00e+00	0	59	0	198180864	47	4527
2026-01-08 11:12:36.14	234.32	25.09	-38.2	-40.0	15.8	0.00e+00	0	59	0	201326592	47	4557
2026-01-08 11:12:37.15	234.58	25.18	-38.4	-40.2	15.6	0.00e+00	0	59	0	204472320	47	4656
2026-01-08 11:12:38.16	234.84	25.26	-38.5	-40.3	15.5	0.00e+00	0	59	0	207618048	47	4737
2026-01-08 11:12:39.17	235.09	25.34	-38.6	-40.4	15.4	0.00e+00	0	59	0	210763776	47	4786
2026-01-08 11:12:40.18	235.35	25.43	-38.5	-40.3	15.5	0.00e+00	0	59	0	213909504	47	4732
2026-01-08 11:12:41.19	235.62	25.51	-38.4	-40.1	15.6	0.00e+00	0	59	0	217055232	47	4645
2026-01-08 11:12:42.20	235.88	25.59	-38.3	-40.0	15.7	0.00e+00	0	59	0	220200960	47	4592
2026-01-08 11:12:43.21	236.14	25.67	-38.3	-40.0	15.7	0.00e+00	0	58	0	223346688	47	4577
2026-01-08 11:12:44.22	236.41	25.75	-38.3	-40.1	15.7	0.00e+00	0	58	0	226492416	47	4621
2026-01-08 11:12:45.23	236.67	25.83	-38.3	-40.0	15.7	0.00e+00	0	59	0	229638144	47	4588
2026-01-08 11:12:46.24	236.94	25.92	-38.3	-40.1	15.7	0.00e+00	0	59	0	232783872	47	4613
2026-01-08 11:12:47.25	237.21	26.00	-38.3	-40.0	15.8	0.00e+00	0	59	0	235929600	47	4590
2026-01-08 11:12:48.27	237.48	26.08	-38.3	-40.0	15.7	0.00e+00	0	59	0	239075328	47	4596
2026-01-08 11:12:49.27	237.75	26.15	-38.3	-40.1	15.7	0.00e+00	0	59	0	242221056	47	4599
2026-01-08 11:12:50.29	238.02	26.23	-38.2	-39.9	15.8	0.00e+00	0	58	0	245366784	47	4536
2026-01-08 11:12:51.30	238.30	26.31	-38.2	-39.9	15.8	0.00e+00	0	58	0	248512512	47	4521
2026-01-08 11:12:52.31	238.57	26.39	-38.2	-39.9	15.9	0.00e+00	0	59	0	251658240	47	4528
2026-01-08 11:12:53.32	238.85	26.47	-38.3	-40.0	15.7	0.00e+00	0	58	0	254803968	47	4581
2026-01-08 11:12:54.33	239.13	26.55	-38.3	-40.1	15.7	0.00e+00	0	59	0	257949696	47	4604
2026-01-08 11:12:55.34	239.41	26.62	-38.3	-40.1	15.7	7.00e-07	0	59	0	261095424	47	4621
2026-01-08 11:12:56.35	239.69	26.70	-38.3	-40.0	15.7	0.00e+00	0	59	0	264241152	47	4595
2026-01-08 11:12:57.36	239.97	26.77	-38.3	-40.0	15.7	0.00e+00	0	59	0	267386880	47	4598
2026-01-08 11:12:58.37	240.25	26.85	-38.3	-40.0	15.7	0.00e+00	0	59	0	271581184	47	4582
2026-01-08 11:12:59.38	240.54	26.92	-38.2	-39.9	15.9	0.00e+00	0	58	0	274726912	47	4544
2026-01-08 11:13:00.40	240.83	27.00	-38.3	-40.0	15.8	0.00e+00	0	59	0	276824064	47	4569
2026-01-08 11:13:01.41	241.12	27.07	-38.3	-40.0	15.8	0.00e+00	0	59	0	279969792	47	4572
2026-01-08 11:13:02.42	241.40	27.14	-38.1	-39.8	15.9	0.00e+00	0	59	0	283115520	47	4493
2026-01-08 11:13:03.43	241.69	27.22	-38.1	-39.8	16.0	0.00e+00	0	59	0	287309824	47	4469
2026-01-08 11:13:04.44	241.99	27.29	-38.0	-39.7	16.0	0.00e+00	0	59	0	290455552	47	4430
2026-01-08 11:13:05.45	242.28	27.36	-38.0	-39.7	16.0	0.00e+00	0	59	0	293601280	47	4423
2026-01-08 11:13:06.46	242.57	27.43	-38.1	-39.8	16.0	0.00e+00	0	58	0	296747008	47	4442
2026-01-08 11:13:07.47	242.87	27.50	-38.2	-39.9	15.8	0.00e+00	0	58	0	299892736	47	4518
2026-01-08 11:13:08.48	243.16	27.57	-38.3	-40.1	15.7	0.00e+00	0	59	0	303038464	47	4611
2026-01-08 11:13:09.49	243.46	27.64	-38.2	-40.0	15.8	0.00e+00	0	59	0	306184192	47	4546
2026-01-08 11:13:10.50	243.76	27.71	-38.2	-39.9	15.8	0.00e+00	0	59	0	309329920	47	4524
2026-01-08 11:13:11.51	244.06	27.77	-38.1	-39.8	15.9	0.00e+00	0	59	0	312475648	47	4474
2026-01-08 11:13:12.53	244.36	27.84	-37.9	-39.6	16.2	0.00e+00	0	58	0	315621376	47	4353
2026-01-08 11:13:13.53	244.66	27.91	-37.9	-39.6	16.2	0.00e+00	0	58	0	318767104	47	4366
2026-01-08 11:13:14.54	244.97	27.97	-38.1	-39.8	16.0	0.00e+00	0	59	0	321912832	47	4445
2026-01-08 11:13:15.55	245.27	28.04	-38.2	-39.9	15.8	0.00e+00	0	59	0	325058560	47	4535
2026-01-08 11:13:16.56	245.58	28.10	-38.3	-40.1	15.7	0.00e+00	0	59	0	328204288	47	4618
2026-01-08 11:13:17.57	245.88	28.16	-38.4	-40.3	15.5	0.00e+00	0	59	0	331350016	47	4707
2026-01-08 11:13:18.58	246.19	28.22	-38.5	-40.4	15.4	0.00e+00	0	59	0	334495744	47	4762
2026-01-08 11:13:19.60	246.50	28.29	-38.5	-40.3	15.4	0.00e+00	0	59	0	337641472	47	4751
2026-01-08 11:13:20.60	246.81	28.35	-38.5	-40.3	15.5	0.00e+00	0	59	0	340787200	47	4722
2026-01-08 11:13:21.62	247.13	28.41	-38.3	-40.1	15.7	0.00e+00	0	59	0	343932928	47	4607
2026-01-08 11:13:22.63	247.44	28.47	-38.2	-39.9	15.8	0.00e+00	0	58	0	347078656	47	4531
2026-01-08 11:13:23.64	247.75	28.53	-38.2	-40.0	15.8	0.00e+00	0	59	0	350224384	47	4551
2026-01-08 11:13:24.65	248.07	28.58	-38.3	-40.1	15.6	0.00e+00	0	59	0	353370112	47	4620
2026-01-08 11:13:25.66	248.38	28.64	-38.3	-40.1	15.6	0.00e+00	0	59	0	356515840	47	4630
2026-01-08 11:13:26.67	248.70	28.70	-38.4	-40.1	15.6	0.00e+00	0	59	0	359661568	47	4651
2026-01-08 11:13:27.68	249.02	28.75	-38.3	-40.1	15.7	0.00e+00	0	59	0	362807296	47	4610
2026-01-08 11:13:28.69	249.34	28.81	-38.3	-40.1	15.6	0.00e+00	0	59	0	365953024	47	4633
2026-01-08 11:13:29.70	249.66	28.86	-38.4	-40.1	15.6	7.00e-07	0	59	0	369098752	47	4648
2026-01-08 11:13:30.71	249.98	28.91	-38.2	-39.9	15.8	0.00e+00	0	59	0	372244480	47	4541
2026-01-08 11:13:31.72	250.30	28.96	-38.2	-39.9	15.8	0.00e+00	0	59	0	375390208	47	4530
2026-01-08 11:13:32.73	250.63	29.01	-38.1	-39.8	15.9	0.00e+00	0	59	0	378535936	47	4479
2026-01-08 11:13:33.74	250.95	29.06	-38.2	-39.9	15.8	0.00e+00	0	59	0	381681664	47	4536
2026-01-08 11:13:34.75	251.28	29.11	-38.2	-39.9	15.9	0.00e+00	0	59	0	384827392	47	4518
2026-01-08 11:13:35.76	251.61	29.16	-38.3	-40.0	15.7	0.00e+00	0	59	0	387973120	47	4595
2026-01-08 11:13:36.78	251.94	29.21	-38.3	-40.1	15.7	0.00e+00	0	59	0	391118848	47	4632
2026-01-08 11:13:37.79	252.26	29.26	-38.4	-40.2	15.6	0.00e+00	0	59	0	394264576	47	4685
2026-01-08 11:13:38.80	252.59	29.30	-38.4	-40.2	15.6	0.00e+00	0	59	0	397410304	47	4657
2026-01-08 11:13:39.81	252.92	29.35	-38.4	-40.2	15.6	0.00e+00	0	59	0	400556032	47	4679
2026-01-08 11:13:40.82	253.26	29.39	-38.5	-40.3	15.4	0.00e+00	0	59	0	403701760	47	4736
2026-01-08 11:13:41.83	253.59	29.43	-38.5	-40.3	15.5	0.00e+00	0	59	0	406847488	47	4715
2026-01-08 11:13:42.84	253.92	29.47	-38.4	-40.1	15.7	0.00e+00	0	59	0	409993216	47	4646
2026-01-08 11:13:43.85	254.25	29.51	-38.3	-40.1	15.7	0.00e+00	0	59	0	413138944	47	4621
2026-01-08 11:13:44.86	254.59	29.55	-38.3	-40.1	15.7	0.00e+00	0	59	0	416284672	47	4599
2026-01-08 11:13:45.87	254.92	29.59	-38.4	-40.2	15.5	7.00e-07	0	59	0	419430400	47	4704
2026-01-08 11:13:46.88	255.26	29.63	-38.5	-40.3	15.4	0.00e+00	0	59	0	422576128	47	4744
2026-01-08 11:13:47.89	255.60	29.67	-38.5	-40.3	15.4	0.00e+00	0	59	0	425721856	47	4758
2026-01-08 11:13:48.90	255.93	29.70	-38.5	-40.4	15.4	0.00e+00	0	59	0	428867584	47	4761
2026-01-08 11:13:49.91	256.27	29.74	-38.5	-40.4	15.4	0.00e+00	0	59	0	432013312	47	4762
2026-01-08 11:13:50.92	256.61	29.77	-38.6	-40.4	15.3	0.00e+00	0	58	0	435159040	47	4798
2026-01-08 11:13:51.94	256.95	29.80	-38.6	-40.5	15.3	0.00e+00	0	59	0	438304768	47	4841
2026-01-08 11:13:52.95	257.29	29.83	-38.8	-40.6	15.2	0.00e+00	0	59	0	441450496	48	4643
2026-01-08 11:13:53.96	257.64	29.87	-38.8	-40.6	15.2	0.00e+00	0	59	0	444596224	48	4644
2026-01-08 11:13:54.97	257.98	29.89	-38.7	-40.5	15.4	0.00e+00	0	59	0	447741952	48	4562
2026-01-08 11:13:55.98	258.32	29.92	-38.6	-40.4	15.5	0.00e+00	0	58	0	450887680	48	4518
2026-01-08 11:13:56.99	258.66	29.95	-38.6	-40.4	15.4	0.00e+00	0	59	0	454033408	48	4533
2026-01-08 11:13:58.00	259.00	29.98	-38.7	-40.6	15.3	0.00e+00	0	58	0	457179136	48	4612
2026-01-08 11:13:59.01	259.35	30.00	-38.9	-40.8	15.1	0.00e+00	0	59	0	460324864	48	4722
2026-01-08 11:14:00.02	259.69	30.03	-38.9	-40.8	15.1	0.00e+00	0	58	0	463470592	48	4735
2026-01-08 11:14:01.03	260.04	30.05	-38.7	-40.5	15.3	0.00e+00	0	59	0	466616320	48	4584
2026-01-08 11:14:02.03	260.38	30.07	-38.6	-40.4	15.5	0.00e+00	0	59	0	469762048	48	4499
2026-01-08 11:14:03.04	260.72	30.09	-38.6	-40.4	15.5	0.00e+00	0	59	0	472907776	48	4501
2026-01-08 11:14:04.05	261.07	30.11	-38.5	-40.3	15.6	0.00e+00	0	59	0	476053504	48	4473
2026-01-08 11:14:05.06	261.42	30.13	-38.7	-40.5	15.4	0.00e+00	0	59	0	479199232	48	4556
2026-01-08 11:14:06.07	261.76	30.15	-38.8	-40.7	15.2	0.00e+00	0	59	0	482344960	48	4671
2026-01-08 11:14:07.08	262.11	30.16	-38.9	-40.8	15.1	7.00e-07	0	59	0	485490688	48	4732
2026-01-08 11:14:08.09	262.46	30.18	-38.7	-40.6	15.3	0.00e+00	0	59	0	488636416	48	4611
2026-01-08 11:14:09.10	262.81	30.19	-38.5	-40.3	15.6	0.00e+00	0	58	0	491782144	48	4471
2026-01-08 11:14:10.11	263.15	30.20	-38.5	-40.2	15.6	0.00e+00	0	58	0	494927872	48	4423
2026-01-08 11:14:11.12	263.50	30.21	-38.5	-40.3	15.6	0.00e+00	0	59	0	498073600	48	4452
2026-01-08 11:14:12.13	263.85	30.23	-38.6	-40.3	15.5	0.00e+00	0	58	0	501219328	48	4481
2026-01-08 11:14:13.15	264.20	30.23	-38.5	-40.3	15.6	0.00e+00	0	59	0	504365056	48	4475
2026-01-08 11:14:14.16	264.55	30.24	-38.5	-40.3	15.5	0.00e+00	0	59	0	507510784	48	4487
2026-01-08 11:14:15.17	264.90	30.25	-38.5	-40.2	15.6	0.00e+00	0	59	0	510656512	48	4433
2026-01-08 11:14:16.18	265.25	30.26	-38.5	-40.3	15.6	0.00e+00	0	59	0	513802240	48	4459
2026-01-08 11:14:17.19	265.60	30.26	-38.6	-40.3	15.5	0.00e+00	0	59	0	516947968	48	4492
2026-01-08 11:14:18.20	265.95	30.26	-38.7	-40.5	15.4	0.00e+00	0	58	0	520093696	48	4564
2026-01-08 11:14:19.21	266.30	30.27	-38.7	-40.6	15.3	0.00e+00	0	59	0	523239424	48	4611
2026-01-08 11:14:20.22	266.65	30.27	-38.7	-40.5	15.3	0.00e+00	0	58	0	526385152	48	4592
2026-01-08 11:14:21.23	267.00	30.27	-38.8	-40.6	15.3	0.00e+00	0	58	0	529530880	48	4629
2026-01-08 11:14:22.24	267.35	30.27	-38.8	-40.7	15.1	0.00e+00	0	58	0	532676608	48	4687
2026-01-08 11:14:23.25	267.70	30.27	-38.8	-40.6	15.2	0.00e+00	0	59	0	535822336	48	4649
2026-01-08 11:14:24.27	268.05	30.26	-38.7	-40.5	15.3	0.00e+00	0	58	0	538968064	48	4591
2026-01-08 11:14:25.28	268.40	30.26	-38.6	-40.4	15.4	0.00e+00	0	59	0	543162368	48	4541
2026-01-08 11:14:26.29	268.75	30.25	-38.6	-40.4	15.5	0.00e+00	0	58	0	545259520	48	4531
2026-01-08 11:14:27.30	269.10	30.25	-38.4	-40.2	15.7	0.00e+00	0	59	0	548405248	48	4406
2026-01-08 11:14:28.31	269.44	30.24	-38.4	-40.1	15.8	0.00e+00	0	58	0	551550976	48	4354
2026-01-08 11:14:29.32	269.79	30.23	-38.4	-40.1	15.7	0.00e+00	0	59	0	555745280	48	4378
2026-01-08 11:14:30.33	270.14	30.22	-38.6	-40.3	15.6	0.00e+00	0	59	0	558891008	48	4479
2026-01-08 11:14:31.34	270.49	30.21	-38.7	-40.6	15.3	0.00e+00	0	59	0	562036736	48	4613
2026-01-08 11:14:32.35	270.84	30.20	-38.8	-40.6	15.2	0.00e+00	0	59	0	565182464	48	4639
2026-01-08 11:14:33.36	271.19	30.18	-38.8	-40.7	15.2	0.00e+00	0	58	0	567279616	48	4653
2026-01-08 11:14:34.37	271.53	30.17	-38.8	-40.6	15.3	0.00e+00	0	59	0	571473920	48	4641
2026-01-08 11:14:35.39	271.88	30.15	-38.7	-40.6	15.3	0.00e+00	0	58	0	574619648	48	4604
2026-01-08 11:14:36.40	272.23	30.13	-38.7	-40.5	15.4	0.00e+00	0	58	0	577765376	48	4557
2026-01-08 11:14:37.41	272.58	30.12	-38.6	-40.4	15.4	0.00e+00	0	59	0	580911104	48	4545
2026-01-08 11:14:38.42	272.92	30.10	-38.6	-40.4	15.4	0.00e+00	0	59	0	584056832	48	4542
2026-01-08 11:14:39.43	273.27	30.08	-38.7	-40.5	15.3	0.00e+00	0	58	0	587202560	48	4583
2026-01-08 11:14:40.44	273.61	30.06	-38.8	-40.7	15.2	0.00e+00	0	59	0	590348288	48	4667
2026-01-08 11:14:41.45	273.96	30.03	-38.9	-40.8	15.0	0.00e+00	0	58	0	593494016	48	4750
2026-01-08 11:14:42.46	274.30	30.01	-38.8	-40.6	15.3	0.00e+00	0	59	0	596639744	48	4625
2026-01-08 11:14:43.47	274.64	29.98	-38.7	-40.5	15.4	0.00e+00	0	59	0	599785472	48	4560
2026-01-08 11:14:44.48	274.99	29.96	-38.7	-40.6	15.3	0.00e+00	0	59	0	602931200	48	4609
2026-01-08 11:14:45.49	275.33	29.93	-38.7	-40.5	15.4	0.00e+00	0	59	0	606076928	48	4576
2026-01-08 11:14:46.50	275.67	29.90	-38.7	-40.5	15.4	0.00e+00	0	58	0	609222656	48	4590
2026-01-08 11:14:47.52	276.02	29.88	-38.6	-40.5	15.4	0.00e+00	0	58	0	612368384	48	4555
2026-01-08 11:14:48.53	276.36	29.85	-38.7	-40.6	15.3	0.00e+00	0	58	0	615514112	48	4600
2026-01-08 11:14:49.54	276.70	29.81	-38.6	-40.4	15.4	0.00e+00	0	58	0	618659840	48	4540
2026-01-08 11:14:50.55	277.04	29.78	-38.6	-40.5	15.4	0.00e+00	0	59	0	621805568	48	4549
2026-01-08 11:14:51.56	277.37	29.75	-38.7	-40.5	15.3	0.00e+00	0	58	0	624951296	48	4595
2026-01-08 11:14:52.57	277.71	29.72	-38.8	-40.7	15.2	0.00e+00	0	59	0	628097024	48	4658
2026-01-08 11:14:53.58	278.05	29.68	-38.7	-40.5	15.3	0.00e+00	0	59	0	631242752	48	4586
2026-01-08 11:14:54.59	278.38	29.64	-38.5	-40.3	15.5	0.00e+00	0	58	0	634388480	48	4485
2026-01-08 11:14:55.60	278.72	29.61	-38.6	-40.5	15.4	0.00e+00	0	58	0	637534208	48	4547
2026-01-08 11:14:56.61	279.06	29.57	-38.8	-40.6	15.2	0.00e+00	0	58	0	640679936	48	4645
2026-01-08 11:14:57.62	279.39	29.53	-38.8	-40.6	15.2	0.00e+00	0	58	0	643825664	48	4627
2026-01-08 11:14:58.64	279.73	29.49	-38.7	-40.5	15.3	0.00e+00	0	58	0	646971392	48	4579
2026-01-08 11:14:59.65	280.06	29.45	-38.6	-40.4	15.4	0.00e+00	0	58	0	650117120	48	4527
2026-01-08 11:15:00.66	280.39	29.41	-38.6	-40.3	15.5	0.00e+00	0	59	0	653262848	48	4490
2026-01-08 11:15:01.67	280.72	29.36	-38.5	-40.2	15.6	0.00e+00	0	58	0	656408576	48	4426
2026-01-08 11:15:02.68	281.05	29.32	-38.6	-40.4	15.5	0.00e+00	0	59	0	659554304	48	4506
2026-01-08 11:15:03.69	281.38	29.27	-38.7	-40.5	15.3	0.00e+00	0	58	0	662700032	48	4596
2026-01-08 11:15:04.70	281.71	29.23	-38.7	-40.6	15.3	0.00e+00	0	58	0	665845760	48	4611
2026-01-08 11:15:05.71	282.03	29.18	-38.5	-40.3	15.6	0.00e+00	0	58	0	668991488	48	4458
2026-01-08 11:15:06.72	282.36	29.13	-38.3	-40.0	15.8	0.00e+00	0	58	0	672137216	48	4325
2026-01-08 11:15:07.73	282.69	29.08	-38.2	-39.9	15.9	0.00e+00	0	58	0	675282944	48	4281
2026-01-08 11:15:08.74	283.01	29.04	-38.3	-40.0	15.9	0.00e+00	0	58	0	678428672	48	4299
2026-01-08 11:15:09.75	283.33	28.98	-38.4	-40.2	15.7	0.00e+00	0	59	0	681574400	48	4394
2026-01-08 11:15:10.76	283.65	28.93	-38.4	-40.2	15.7	0.00e+00	0	59	0	684720128	48	4419
2026-01-08 11:15:11.77	283.98	28.88	-38.6	-40.4	15.4	0.00e+00	0	58	0	687865856	48	4529
2026-01-08 11:15:12.79	284.30	28.83	-38.6	-40.4	15.4	0.00e+00	0	59	0	691011584	48	4537
2026-01-08 11:15:13.80	284.62	28.77	-38.5	-40.3	15.6	0.00e+00	0	59	0	694157312	48	4471
2026-01-08 11:15:14.81	284.94	28.72	-38.5	-40.3	15.6	0.00e+00	0	58	0	697303040	48	4443
2026-01-08 11:15:15.82	285.25	28.66	-38.5	-40.3	15.6	0.00e+00	0	58	0	700448768	48	4471
2026-01-08 11:15:16.83	285.57	28.61	-38.6	-40.4	15.5	0.00e+00	0	59	0	703594496	48	4520
2026-01-08 11:15:17.84	285.88	28.55	-38.6	-40.4	15.5	0.00e+00	0	59	0	706740224	48	4496
2026-01-08 11:15:18.85	286.20	28.49	-38.6	-40.3	15.5	0.00e+00	0	59	0	709885952	48	4490
2026-01-08 11:15:19.86	286.51	28.43	-38.5	-40.2	15.6	0.00e+00	0	59	0	713031680	48	4439
2026-01-08 11:15:20.87	286.82	28.37	-38.5	-40.3	15.5	0.00e+00	0	58	0	716177408	48	4475
2026-01-08 11:15:21.87	287.13	28.31	-38.5	-40.2	15.6	0.00e+00	0	59	0	719323136	48	4437
2026-01-08 11:15:22.89	287.44	28.25	-38.3	-40.0	15.8	0.00e+00	0	59	0	722468864	48	4331
2026-01-08 11:15:23.90	287.75	28.19	-38.3	-40.0	15.8	0.00e+00	0	58	0	725614592	48	4332
2026-01-08 11:15:24.91	288.05	28.13	-38.3	-40.0	15.8	0.00e+00	0	59	0	728760320	48	4312
2026-01-08 11:15:25.92	288.36	28.07	-38.3	-40.0	15.8	0.00e+00	0	58	0	731906048	48	4322
2026-01-08 11:15:26.92	288.66	28.00	-38.3	-40.0	15.9	0.00e+00	0	59	0	735051776	48	4309
2026-01-08 11:15:27.94	288.96	27.94	-38.3	-40.0	15.9	0.00e+00	0	59	0	738197504	48	4301
2026-01-08 11:15:28.95	289.27	27.87	-38.3	-40.0	15.9	0.00e+00	0	58	0	741343232	48	4311
2026-01-08 11:15:29.96	289.57	27.81	-38.3	-40.1	15.8	0.00e+00	0	59	0	744488960	48	4354
2026-01-08 11:15:30.97	289.87	27.74	-38.4	-40.1	15.7	0.00e+00	0	59	0	747634688	48	4386
2026-01-08 11:15:31.98	290.16	27.67	-38.3	-40.0	15.8	0.00e+00	0	59	0	750780416	48	4337
2026-01-08 11:15:32.99	290.46	27.60	-38.2	-40.0	15.9	0.00e+00	0	59	0	753926144	48	4294
2026-01-08 11:15:34.00	290.76	27.54	-38.2	-39.9	15.9	0.00e+00	0	58	0	757071872	48	4285
2026-01-08 11:15:35.01	291.05	27.47	-38.2	-39.9	15.9	0.00e+00	0	59	0	760217600	48	4249
2026-01-08 11:15:36.02	291.34	27.40	-38.2	-39.9	15.9	0.00e+00	0	59	0	763363328	48	4250
2026-01-08 11:15:37.03	291.64	27.33	-38.2	-39.9	15.9	0.00e+00	0	59	0	766509056	48	4278
2026-01-08 11:15:38.04	291.93	27.25	-38.2	-39.9	15.9	0.00e+00	0	59	0	769654784	48	4254
2026-01-08 11:15:39.05	292.22	27.18	-38.2	-39.9	15.9	0.00e+00	0	59	0	772800512	48	4285
2026-01-08 11:15:40.06	292.50	27.11	-38.3	-40.0	15.8	0.00e+00	0	59	0	775946240	48	4334
2026-01-08 11:15:41.07	292.79	27.04	-38.3	-40.0	15.8	0.00e+00	0	59	0	779091968	48	4298
2026-01-08 11:15:42.08	293.08	26.96	-38.3	-40.0	15.8	0.00e+00	0	58	0	782237696	48	4318
2026-01-08 11:15:43.09	293.36	26.89	-38.3	-40.0	15.8	0.00e+00	0	59	0	785383424	48	4319
2026-01-08 11:15:44.11	293.64	26.82	-38.3	-40.0	15.8	0.00e+00	0	59	0	788529152	48	4319
2026-01-08 11:15:45.12	293.93	26.74	-38.3	-40.0	15.8	0.00e+00	0	59	0	791674880	48	4310
2026-01-08 11:15:46.13	294.21	26.67	-38.2	-39.9	15.9	0.00e+00	0	59	0	794820608	48	4275
2026-01-08 11:15:47.14	294.49	26.59	-38.2	-39.9	15.9	0.00e+00	0	58	0	797966336	48	4265
2026-01-08 11:15:48.15	294.76	26.51	-38.2	-39.9	15.9	0.00e+00	0	58	0	801112064	48	4270
2026-01-08 11:15:49.16	295.04	26.44	-38.3	-40.0	15.7	0.00e+00	0	59	0	804257792	48	4331
2026-01-08 11:15:50.17	295.31	26.36	-38.2	-39.9	15.9	0.00e+00	0	58	0	808452096	48	4261
2026-01-08 11:15:51.18	295.59	26.28	-38.2	-39.9	15.8	0.00e+00	0	59	0	811597824	48	4291
2026-01-08 11:15:52.19	295.86	26.20	-38.3	-40.0	15.8	0.00e+00	0	59	0	813694976	48	4323
2026-01-08 11:15:53.20	296.13	26.12	-38.3	-40.1	15.7	0.00e+00	0	59	0	816840704	48	4361
2026-01-08 11:15:54.21	296.40	26.05	-38.4	-40.2	15.6	0.00e+00	0	59	0	819986432	48	4417
2026-01-08 11:15:55.22	296.67	25.97	-38.6	-40.4	15.4	0.00e+00	0	59	0	824180736	48	4509
2026-01-08 11:15:56.23	296.93	25.89	-38.6	-40.4	15.4	0.00e+00	0	58	0	827326464	48	4504
2026-01-08 11:15:57.25	297.20	25.80	-38.5	-40.3	15.5	0.00e+00	0	59	0	830472192	48	4466
2026-01-08 11:15:58.25	297.46	25.72	-38.3	-40.1	15.6	0.00e+00	0	58	0	833617920	48	4364
2026-01-08 11:15:59.27	297.73	25.64	-38.2	-39.9	15.9	0.00e+00	0	59	0	835715072	48	4283
2026-01-08 11:16:00.28	297.99	25.56	-38.2	-39.9	15.9	0.00e+00	0	58	0	839909376	48	4263
2026-01-08 11:16:01.29	298.25	25.48	-38.1	-39.8	15.9	0.00e+00	0	59	0	843055104	48	4227
2026-01-08 11:16:02.30	298.51	25.40	-38.2	-39.9	15.8	0.00e+00	0	58	0	846200832	48	4289
2026-01-08 11:16:03.31	298.77	25.31	-38.3	-40.0	15.8	0.00e+00	0	59	0	849346560	48	4331
2026-01-08 11:16:04.32	299.02	25.23	-38.3	-40.0	15.7	0.00e+00	0	59	0	852492288	48	4340
2026-01-08 11:16:05.33	299.28	25.15	-38.3	-40.1	15.6	0.00e+00	0	58	0	855638016	48	4367
2026-01-08 11:16:06.34	299.53	25.06	-38.4	-40.2	15.6	0.00e+00	0	59	0	858783744	48	4398
2026-01-08 11:16:07.35	299.79	24.98	-38.4	-40.3	15.5	0.00e+00	0	58	0	861929472	48	4449
2026-01-08 11:16:08.36	300.04	24.90	-38.3	-40.1	15.7	0.00e+00	0	59	0	865075200	48	4368
2026-01-08 11:16:09.37	300.29	24.81	-38.2	-40.0	15.7	0.00e+00	0	58	0	868220928	48	4317
2026-01-08 11:16:10.38	300.53	24.73	-38.1	-39.9	15.9	0.00e+00	0	59	0	871366656	48	4243
2026-01-08 11:16:11.39	300.78	24.64	-38.1	-39.8	15.9	0.00e+00	0	59	0	874512384	48	4236
2026-01-08 11:16:12.40	301.03	24.56	-38.1	-39.8	15.9	0.00e+00	0	59	0	877658112	48	4230
2026-01-08 11:16:13.41	301.27	24.47	-37.9	-39.6	16.0	0.00e+00	0	59	0	880803840	47	4360
2026-01-08 11:16:14.42	301.51	24.39	-37.8	-39.4	16.2	0.00e+00	0	59	0	883949568	47	4280
2026-01-08 11:16:15.43	301.76	24.30	-37.9	-39.6	16.0	0.00e+00	0	58	0	887095296	47	4364
2026-01-08 11:16:16.43	301.99	24.21	-38.0	-39.7	15.9	0.00e+00	0	59	0	890241024	47	4437
2026-01-08 11:16:17.45	302.24	24.13	-38.0	-39.8	15.8	0.00e+00	0	59	0	893386752	47	4452
2026-01-08 11:16:18.46	302.47	24.04	-38.1	-39.8	15.8	0.00e+00	0	59	0	896532480	47	4469
2026-01-08 11:16:19.47	302.71	23.95	-38.1	-39.8	15.8	0.00e+00	0	59	0	899678208	47	4469
2026-01-08 11:16:20.48	302.95	23.87	-38.0	-39.7	16.0	0.00e+00	0	58	0	902823936	47	4400
2026-01-08 11:16:21.49	303.18	23.78	-37.9	-39.6	16.0	0.00e+00	0	59	0	905969664	47	4382
2026-01-08 11:16:22.50	303.41	23.69	-38.0	-39.7	16.0	0.00e+00	0	59	0	909115392	47	4397
2026-01-08 11:16:23.51	303.64	23.60	-38.0	-39.7	15.9	0.00e+00	0	59	0	912261120	47	4429
2026-01-08 11:16:24.52	303.87	23.52	-38.1	-39.9	15.8	0.00e+00	0	59	0	915406848	47	4502
2026-01-08 11:16:25.53	304.10	23.43	-38.1	-39.8	15.8	0.00e+00	0	59	0	918552576	47	4470
2026-01-08 11:16:26.54	304.33	23.34	-38.0	-39.8	15.8	0.00e+00	0	58	0	921698304	47	4452
2026-01-08 11:16:27.55	304.56	23.25	-38.0	-39.8	15.8	0.00e+00	0	58	0	924844032	47	4463
2026-01-08 11:16:28.57	304.78	23.16	-38.1	-39.9	15.8	0.00e+00	0	58	0	927989760	47	4496
2026-01-08 11:16:29.58	305.01	23.07	-38.2	-39.9	15.7	0.00e+00	0	58	0	931135488	47	4545
2026-01-08 11:16:30.59	305.23	22.99	-38.2	-40.0	15.6	0.00e+00	0	59	0	934281216	47	4579
2026-01-08 11:16:31.60	305.45	22.90	-38.3	-40.1	15.5	0.00e+00	0	59	0	937426944	47	4647
2026-01-08 11:16:32.61	305.67	22.81	-38.3	-40.1	15.5	0.00e+00	0	58	0	940572672	47	4650
2026-01-08 11:16:33.62	305.89	22.72	-38.2	-39.9	15.6	0.00e+00	0	58	0	943718400	47	4544
2026-01-08 11:16:34.63	306.11	22.63	-38.0	-39.7	15.9	0.00e+00	0	58	0	946864128	47	4409
2026-01-08 11:16:35.64	306.33	22.54	-37.9	-39.6	16.0	0.00e+00	0	59	0	950009856	47	4352
2026-01-08 11:16:36.65	306.54	22.45	-37.9	-39.6	16.0	0.00e+00	0	58	0	953155584	47	4358
2026-01-08 11:16:37.66	306.76	22.36	-38.0	-39.7	15.9	0.00e+00	0	59	0	956301312	47	4426
2026-01-08 11:16:38.67	306.97	22.27	-38.1	-39.8	15.8	0.00e+00	0	58	0	959447040	47	4481
2026-01-08 11:16:39.68	307.18	22.18	-37.9	-39.6	16.0	0.00e+00	0	58	0	962592768	47	4357
2026-01-08 11:16:40.69	307.39	22.09	-37.8	-39.5	16.1	0.00e+00	0	58	0	965738496	47	4327
2026-01-08 11:16:41.71	307.60	22.00	-37.8	-39.5	16.1	0.00e+00	0	59	0	968884224	47	4315
2026-01-08 11:16:42.71	307.81	21.91	-37.8	-39.5	16.0	0.00e+00	0	58	0	972029952	47	4327
2026-01-08 11:16:43.73	308.02	21.82	-37.9	-39.5	16.1	0.00e+00	0	58	0	975175680	47	4334
2026-01-08 11:16:44.74	308.22	21.73	-37.8	-39.5	16.1	0.00e+00	0	59	0	978321408	47	4329
2026-01-08 11:16:45.75	308.43	21.64	-37.8	-39.5	16.1	0.00e+00	0	59	0	981467136	47	4320
2026-01-08 11:16:46.76	308.63	21.55	-37.9	-39.6	16.0	0.00e+00	0	59	0	984612864	47	4374
2026-01-08 11:16:47.77	308.83	21.46	-37.9	-39.6	15.9	0.00e+00	0	59	0	987758592	47	4378
2026-01-08 11:16:48.78	309.03	21.37	-37.9	-39.6	15.9	0.00e+00	0	59	0	990904320	47	4391
2026-01-08 11:16:49.79	309.23	21.28	-37.9	-39.7	15.9	0.00e+00	0	59	0	994050048	47	4400
2026-01-08 11:16:50.80	309.43	21.19	-38.1	-39.8	15.7	0.00e+00	0	59	0	997195776	47	4486
2026-01-08 11:16:51.81	309.63	21.10	-38.1	-39.8	15.8	0.00e+00	0	59	0	1000341504	47	4473
2026-01-08 11:16:52.82	309.83	21.01	-38.1	-39.9	15.7	0.00e+00	0	58	0	1003487232	47	4500
2026-01-08 11:16:53.83	310.02	20.92	-38.2	-39.9	15.6	0.00e+00	0	58	0	1006632960	47	4538
2026-01-08 11:16:54.84	310.22	20.83	-38.2	-40.0	15.5	0.00e+00	0	59	0	1009778688	47	4578
2026-01-08 11:16:55.85	310.41	20.74	-38.2	-40.0	15.6	0.00e+00	0	59	0	1012924416	47	4565
2026-01-08 11:16:56.87	310.60	20.65	-38.2	-39.9	15.6	0.00e+00	0	58	0	1016070144	47	4537
2026-01-08 11:16:57.87	310.79	20.56	-38.2	-39.9	15.6	0.00e+00	0	59	0	1019215872	47	4539
2026-01-08 11:16:58.88	310.98	20.47	-38.2	-40.0	15.6	0.00e+00	0	59	0	1022361600	47	4573
2026-01-08 11:16:59.89	311.17	20.38	-38.3	-40.1	15.5	0.00e+00	0	58	0	1025507328	47	4605
2026-01-08 11:17:00.90	311.36	20.29	-38.3	-40.1	15.4	0.00e+00	0	59	0	1028653056	47	4637
2026-01-08 11:17:01.91	311.55	20.20	-38.3	-40.1	15.5	0.00e+00	0	59	0	1031798784	47	4610
2026-01-08 11:17:02.92	311.73	20.11	-38.2	-39.9	15.6	0.00e+00	0	59	0	1034944512	47	4539
2026-01-08 11:17:03.93	311.92	20.02	-38.2	-39.9	15.6	0.00e+00	0	59	0	1038090240	47	4539
2026-01-08 11:17:04.95	312.10	19.93	-38.2	-40.0	15.6	0.00e+00	0	59	0	1041235968	47	4559
2026-01-08 11:17:05.96	312.28	19.84	-38.2	-40.0	15.5	0.00e+00	0	58	0	1044381696	47	4568
2026-01-08 11:17:06.97	312.47	19.75	-38.2	-40.0	15.6	0.00e+00	0	58	0	1047527424	47	4558
2026-01-08 11:17:07.98	312.65	19.66	-38.3	-40.1	15.4	0.00e+00	0	58	0	1050673152	47	4627
2026-01-08 11:17:08.99	312.83	19.57	-38.4	-40.2	15.3	0.00e+00	0	59	0	1053818880	47	4675
2026-01-08 11:17:10.00	313.00	19.48	-38.4	-40.3	15.3	0.00e+00	0	58	0	1056964608	47	4718
2026-01-08 11:17:11.01	313.18	19.39	-38.3	-40.1	15.4	0.00e+00	0	58	0	1060110336	47	4625
2026-01-08 11:17:12.02	313.36	19.30	-38.2	-40.0	15.5	0.00e+00	0	59	0	1063256064	47	4592
2026-01-08 11:17:13.03	313.53	19.21	-38.2	-40.0	15.5	0.00e+00	0	58	0	1066401792	47	4588
2026-01-08 11:17:14.04	313.71	19.12	-38.2	-40.0	15.5	0.00e+00	0	59	0	1069547520	47	4579
2026-01-08 11:17:15.05	313.88	19.03	-38.3	-40.2	15.3	0.00e+00	0	58	0	1072693248	47	4673
2026-01-08 11:17:16.07	314.05	18.94	-38.4	-40.3	15.2	0.00e+00	0	59	0	1075838976	47	4735
2026-01-08 11:17:17.08	314.23	18.85	-38.5	-40.5	15.1	0.00e+00	0	58	0	1080033280	47	4819
2026-01-08 11:17:18.09	314.40	18.76	-38.3	-40.2	15.3	0.00e+00	0	58	0	1082130432	47	4667
2026-01-08 11:17:19.10	314.57	18.67	-38.3	-40.2	15.3	0.00e+00	0	58	0	1085276160	47	4678
2026-01-08 11:17:20.11	314.73	18.59	-38.3	-40.2	15.3	0.00e+00	0	58	0	1088421888	47	4669
2026-01-08 11:17:21.12	314.90	18.50	-38.4	-40.3	15.2	0.00e+00	0	59	0	1092616192	47	4722
2026-01-08 11:17:22.13	315.07	18.41	-38.6	-40.5	15.0	0.00e+00	0	58	0	1095761920	47	4843
2026-01-08 11:17:23.14	315.23	18.32	-38.6	-40.5	15.0	0.00e+00	0	59	0	1098907648	47	4843
2026-01-08 11:17:24.15	315.40	18.23	-38.7	-40.7	14.8	0.00e+00	0	59	0	1102053376	47	4943
2026-01-08 11:17:25.16	315.56	18.14	-38.8	-40.8	14.8	7.00e-07	0	58	0	1104150528	48	4732
2026-01-08 11:17:26.17	315.72	18.05	-38.8	-40.7	14.8	0.00e+00	0	59	0	1108344832	48	4697
2026-01-08 11:17:27.19	315.89	17.96	-38.8	-40.7	14.8	0.00e+00	0	58	0	1111490560	48	4693
2026-01-08 11:17:28.20	316.05	17.88	-38.8	-40.8	14.8	1.50e-06	0	58	0	1114636288	48	4714
2026-01-08 11:17:29.21	316.21	17.79	-38.8	-40.8	14.8	0.00e+00	0	59	0	1117782016	48	4728
2026-01-08 11:17:30.22	316.37	17.70	-38.9	-41.0	14.6	0.00e+00	0	59	0	1120927744	48	4823
2026-01-08 11:17:31.22	316.52	17.61	-38.9	-41.0	14.6	1.50e-06	0	59	0	1124073472	48	4833
2026-01-08 11:17:32.23	316.68	17.53	-38.9	-41.0	14.6	1.50e-06	0	58	0	1127219200	48	4826
2026-01-08 11:17:33.25	316.84	17.44	-38.9	-41.0	14.6	0.00e+00	0	58	0	1130364928	48	4816
2026-01-08 11:17:34.25	316.99	17.35	-38.9	-40.9	14.7	0.00e+00	0	59	0	1133510656	48	4785
2026-01-08 11:17:35.27	317.15	17.26	-38.8	-40.8	14.8	0.00e+00	0	58	0	1136656384	48	4755
2026-01-08 11:17:36.28	317.30	17.17	-38.9	-40.9	14.7	0.00e+00	0	58	0	1139802112	48	4769
2026-01-08 11:17:37.29	317.46	17.09	-38.8	-40.8	14.8	7.00e-07	0	58	0	1142947840	48	4715
2026-01-08 11:17:38.30	317.61	17.00	-38.8	-40.8	14.7	1.50e-06	0	58	0	1146093568	48	4756
2026-01-08 11:17:39.31	317.76	16.91	-38.7	-40.7	14.9	1.50e-06	0	58	0	1149239296	48	4668
2026-01-08 11:17:40.32	317.91	16.83	-38.6	-40.5	15.1	0.00e+00	0	58	0	1152385024	48	4573
2026-01-08 11:17:41.33	318.06	16.74	-38.5	-40.4	15.1	0.00e+00	0	58	0	1155530752	48	4532
2026-01-08 11:17:42.34	318.21	16.65	-38.5	-40.3	15.2	0.00e+00	0	58	0	1158676480	48	4464
2026-01-08 11:17:43.35	318.36	16.57	-38.4	-40.3	15.3	0.00e+00	0	58	0	1161822208	48	4455
2026-01-08 11:17:44.36	318.50	16.48	-38.4	-40.3	15.3	0.00e+00	0	59	0	1164967936	48	4447
2026-01-08 11:17:45.37	318.65	16.39	-38.5	-40.3	15.2	0.00e+00	0	58	0	1168113664	48	4482
2026-01-08 11:17:46.38	318.80	16.31	-38.6	-40.5	15.1	0.00e+00	0	59	0	1171259392	48	4557
2026-01-08 11:17:47.39	318.94	16.22	-38.5	-40.4	15.1	0.00e+00	0	58	0	1174405120	48	4530
2026-01-08 11:17:48.40	319.08	16.14	-38.5	-40.3	15.2	0.00e+00	0	58	0	1177550848	48	4471
2026-01-08 11:17:49.41	319.23	16.05	-38.4	-40.3	15.2	0.00e+00	0	58	0	1180696576	48	4465
2026-01-08 11:17:50.42	319.37	15.96	-38.5	-40.3	15.2	0.00e+00	0	58	0	1183842304	48	4487
2026-01-08 11:17:51.43	319.51	15.88	-38.5	-40.4	15.1	0.00e+00	0	58	0	1186988032	48	4502
2026-01-08 11:17:52.44	319.65	15.79	-38.6	-40.5	15.0	0.00e+00	0	58	0	1190133760	48	4552
2026-01-08 11:17:53.45	319.79	15.71	-38.7	-40.6	14.9	0.00e+00	0	58	0	1193279488	48	4636
2026-01-08 11:17:54.46	319.93	15.62	-38.8	-40.8	14.7	0.00e+00	0	58	0	1196425216	48	4739
2026-01-08 11:17:55.47	320.07	15.54	-38.8	-40.7	14.7	0.00e+00	0	58	0	1199570944	48	4704
2026-01-08 11:17:56.48	320.21	15.45	-38.9	-40.9	14.6	0.00e+00	0	59	0	1202716672	48	4806
2026-01-08 11:17:57.49	320.34	15.37	-38.9	-41.0	14.5	0.00e+00	0	58	0	1205862400	48	4820
2026-01-08 11:17:58.51	320.48	15.29	-38.9	-41.0	14.6	0.00e+00	0	58	0	1209008128	48	4815
2026-01-08 11:17:59.51	320.62	15.20	-38.9	-40.9	14.6	0.00e+00	0	59	0	1212153856	48	4762
2026-01-08 11:18:00.52	320.75	15.12	-38.9	-40.9	14.6	0.00e+00	0	58	0	1215299584	48	4811
2026-01-08 11:18:01.53	320.88	15.03	-38.9	-40.9	14.6	7.00e-07	0	58	0	1218445312	48	4777
2026-01-08 11:18:02.54	321.02	14.95	-39.0	-41.1	14.4	7.00e-07	0	58	0	1221591040	48	4878
2026-01-08 11:18:03.55	321.15	14.87	-38.9	-41.0	14.5	7.00e-07	0	59	0	1224736768	48	4817
2026-01-08 11:18:04.56	321.28	14.78	-38.9	-40.9	14.6	0.00e+00	0	58	0	1227882496	48	4778
2026-01-08 11:18:05.57	321.41	14.70	-38.7	-40.7	14.8	0.00e+00	0	58	0	1231028224	48	4685
2026-01-08 11:18:06.58	321.54	14.62	-38.8	-40.9	14.6	7.00e-07	0	58	0	1234173952	48	4760
2026-01-08 11:18:07.58	321.67	14.53	-38.8	-40.8	14.6	7.00e-07	0	58	0	1237319680	48	4753
2026-01-08 11:18:08.59	321.80	14.45	-38.9	-40.9	14.6	0.00e+00	0	58	0	1240465408	48	4776
2026-01-08 11:18:09.60	321.93	14.37	-38.8	-40.8	14.7	0.00e+00	0	58	0	1243611136	48	4714
2026-01-08 11:18:10.61	322.06	14.29	-39.0	-41.0	14.5	7.00e-07	0	58	0	1246756864	48	4834
2026-01-08 11:18:11.62	322.18	14.20	-39.0	-41.0	14.4	0.00e+00	0	59	0	1249902592	48	4859
2026-01-08 11:18:12.63	322.31	14.12	-39.2	-41.3	14.1	2.20e-06	0	59	0	1253048320	48	5006
2026-01-08 11:18:13.64	322.43	14.04	-39.2	-41.3	14.1	1.50e-06	0	59	0	1256194048	48	5013
2026-01-08 11:18:14.65	322.56	13.96	-39.2	-41.3	14.1	0.00e+00	0	58	0	1259339776	48	5015
2026-01-08 11:18:15.66	322.68	13.88	-39.1	-41.3	14.2	1.50e-06	0	58	0	1262485504	48	4986
2026-01-08 11:18:16.67	322.81	13.79	-39.1	-41.2	14.2	0.00e+00	0	59	0	1265631232	48	4948
2026-01-08 11:18:17.68	322.93	13.71	-39.1	-41.2	14.2	1.50e-06	0	58	0	1268776960	48	4933
2026-01-08 11:18:18.69	323.05	13.63	-39.2	-41.3	14.0	1.50e-06	0	59	0	1271922688	48	5039
2026-01-08 11:18:19.70	323.17	13.55	-39.1	-41.3	14.1	3.00e-06	0	58	0	1275068416	49	4706
2026-01-08 11:18:20.71	323.30	13.47	-39.2	-41.4	14.0	2.20e-06	0	59	0	1278214144	49	4785
2026-01-08 11:18:21.72	323.42	13.39	-39.2	-41.4	14.0	1.50e-06	0	58	0	1281359872	49	4783
2026-01-08 11:18:22.73	323.54	13.31	-39.2	-41.4	14.0	3.80e-06	0	58	0	1284505600	49	4777
2026-01-08 11:18:23.74	323.65	13.23	-39.3	-41.5	13.9	3.80e-06	0	58	0	1287651328	49	4843
2026-01-08 11:18:24.74	323.77	13.15	-39.3	-41.5	13.8	4.50e-06	0	59	0	1290797056	49	4855
2026-01-08 11:18:25.76	323.89	13.07	-39.2	-41.4	14.0	3.80e-06	0	59	0	1293942784	49	4803
2026-01-08 11:18:26.77	324.01	12.99	-39.2	-41.4	13.9	2.20e-06	0	58	0	1297088512	49	4797
2026-01-08 11:18:27.78	324.12	12.91	-39.2	-41.4	14.0	7.00e-07	0	58	0	1300234240	49	4787
2026-01-08 11:18:28.79	324.24	12.83	-39.3	-41.5	13.9	3.00e-06	0	58	0	1303379968	49	4857
2026-01-08 11:18:29.80	324.36	12.75	-39.3	-41.4	13.9	3.00e-06	0	59	0	1306525696	49	4804
2026-01-08 11:18:30.81	324.47	12.67	-39.3	-41.6	13.8	2.20e-06	0	58	0	1309671424	49	4871
2026-01-08 11:18:31.82	324.58	12.59	-39.2	-41.4	14.0	4.50e-06	0	59	0	1312817152	49	4765
2026-01-08 11:18:32.83	324.70	12.51	-39.2	-41.3	14.0	7.00e-07	0	58	0	1315962880	49	4735
2026-01-08 11:18:33.83	324.81	12.43	-39.2	-41.4	13.9	3.00e-06	0	58	0	1319108608	49	4789
2026-01-08 11:18:34.84	324.92	12.35	-39.2	-41.3	14.0	4.50e-06	0	58	0	1322254336	49	4746
2026-01-08 11:18:35.85	325.03	12.27	-39.3	-41.5	13.9	5.30e-06	0	59	0	1325400064	49	4820
2026-01-08 11:18:36.86	325.15	12.20	-39.2	-41.4	13.9	4.50e-06	0	58	0	1328545792	49	4803
2026-01-08 11:18:37.87	325.26	12.12	-39.4	-41.6	13.7	4.50e-06	0	58	0	1331691520	49	4924
2026-01-08 11:18:38.88	325.37	12.04	-39.3	-41.5	13.8	6.80e-06	0	59	0	1334837248	49	4859
2026-01-08 11:18:39.89	325.48	11.96	-39.4	-41.6	13.7	9.10e-06	0	59	0	1337982976	49	4925
2026-01-08 11:18:40.90	325.59	11.88	-39.3	-41.6	13.7	3.00e-06	0	59	0	1341128704	49	4876
2026-01-08 11:18:41.91	325.69	11.81	-39.5	-41.8	13.5	1.29e-05	0	59	0	1344274432	49	5021
2026-01-08 11:18:42.92	325.80	11.73	-39.4	-41.7	13.6	1.06e-05	0	59	0	1347420160	49	4936
2026-01-08 11:18:43.93	325.91	11.65	-39.5	-41.8	13.4	1.29e-05	0	58	0	1350565888	49	5031
2026-01-08 11:18:44.94	326.02	11.57	-39.5	-41.8	13.5	6.80e-06	0	59	0	1353711616	49	4989
2026-01-08 11:18:45.95	326.12	11.50	-39.4	-41.8	13.5	9.10e-06	0	59	0	1356857344	49	4990
2026-01-08 11:18:46.97	326.23	11.42	-39.6	-42.0	13.2	1.60e-05	0	58	0	1360003072	49	5152
2026-01-08 11:18:47.98	326.34	11.34	-39.6	-42.0	13.2	2.28e-05	0	59	0	1363148800	49	5157
2026-01-08 11:18:48.99	326.44	11.27	-39.8	-42.3	13.0	3.66e-05	0	59	0	1366294528	50	5008
2026-01-08 11:18:49.99	326.54	11.19	-39.6	-42.0	13.2	2.05e-05	0	59	0	1369440256	50	4855
2026-01-08 11:18:51.00	326.65	11.11	-39.7	-42.1	13.1	2.74e-05	0	58	0	1372585984	50	4915
2026-01-08 11:18:52.01	326.75	11.04	-39.7	-42.1	13.2	2.51e-05	0	58	0	1375731712	50	4878
2026-01-08 11:18:53.02	326.85	10.96	-39.7	-42.1	13.2	2.36e-05	0	59	0	1378877440	50	4875
2026-01-08 11:18:54.03	326.96	10.89	-39.5	-41.8	13.5	1.67e-05	0	59	0	1382023168	50	4717
2026-01-08 11:18:55.04	327.06	10.81	-39.5	-41.8	13.4	1.06e-05	0	59	0	1385168896	50	4753
2026-01-08 11:18:56.05	327.16	10.73	-39.6	-41.9	13.3	1.83e-05	0	59	0	1388314624	50	4800
2026-01-08 11:18:57.06	327.26	10.66	-39.5	-41.9	13.3	1.14e-05	0	59	0	1391460352	50	4762
2026-01-08 11:18:58.07	327.36	10.58	-39.6	-41.9	13.3	1.98e-05	0	59	0	1395654656	50	4799
2026-01-08 11:18:59.08	327.46	10.51	-39.5	-41.8	13.4	1.67e-05	0	58	0	1397751808	50	4745
2026-01-08 11:19:00.09	327.56	10.43	-39.6	-42.0	13.2	2.97e-05	0	58	0	1400897536	50	4852
2026-01-08 11:19:01.10	327.66	10.36	-39.4	-41.8	13.4	1.75e-05	0	58	0	1404043264	50	4709
2026-01-08 11:19:02.11	327.76	10.29	-39.5	-41.8	13.4	1.14e-05	0	58	0	1407188992	50	4729
2026-01-08 11:19:03.12	327.85	10.21	-39.6	-41.9	13.2	2.59e-05	0	58	0	1410334720	50	4808
2026-01-08 11:19:04.13	327.95	10.14	-39.6	-42.0	13.2	2.51e-05	0	58	0	1414529024	50	4837
2026-01-08 11:19:05.14	328.05	10.06	-39.6	-42.1	13.1	4.11e-05	0	59	0	1417674752	50	4871
2026-01-08 11:19:06.15	328.14	9.99	-39.7	-42.2	13.0	3.50e-05	0	58	0	1419771904	50	4946
2026-01-08 11:19:07.15	328.24	9.92	-39.7	-42.2	13.0	3.66e-05	0	59	0	1422917632	50	4927
2026-01-08 11:19:08.16	328.33	9.84	-39.6	-42.0	13.1	5.56e-05	0	59	0	1426063360	50	4865
2026-01-08 11:19:09.17	328.43	9.77	-39.7	-42.1	13.0	2.36e-05	0	58	0	1430257664	50	4917
2026-01-08 11:19:10.18	328.52	9.70	-39.6	-42.1	13.0	3.66e-05	0	58	0	1433403392	50	4876
2026-01-08 11:19:11.19	328.62	9.62	-39.7	-42.2	12.8	4.88e-05	0	58	0	1436549120	50	4959
2026-01-08 11:19:12.20	328.71	9.55	-39.7	-42.2	12.9	4.42e-05	0	58	0	1439694848	50	4971
2026-01-08 11:19:13.21	328.81	9.48	-39.7	-42.3	12.8	6.40e-05	0	58	0	1442840576	50	4990
2026-01-08 11:19:14.22	328.90	9.40	-39.8	-42.3	12.7	6.48e-05	0	58	0	1444937728	50	5032
2026-01-08 11:19:15.23	328.99	9.33	-39.6	-42.2	12.9	5.03e-05	0	58	0	1449132032	50	4929
2026-01-08 11:19:16.24	329.08	9.26	-39.5	-42.0	13.1	4.19e-05	0	58	0	1452277760	50	4828
2026-01-08 11:19:17.25	329.17	9.19	-39.7	-42.2	12.8	3.89e-05	0	59	0	1455423488	50	4967
2026-01-08 11:19:18.26	329.26	9.11	-39.6	-42.1	12.9	4.04e-05	0	59	0	1458569216	50	4893
2026-01-08 11:19:19.27	329.36	9.04	-39.6	-42.1	12.9	3.28e-05	0	58	0	1461714944	50	4889
2026-01-08 11:19:20.27	329.44	8.97	-39.8	-42.4	12.6	8.85e-05	0	59	0	1464860672	50	5059
2026-01-08 11:19:21.28	329.53	8.90	-39.9	-42.5	12.5	1.05e-04	0	58	0	1468006400	50	5122
2026-01-08 11:19:22.29	329.62	8.83	-39.8	-42.5	12.5	9.61e-05	0	59	0	1471152128	50	5107
2026-01-08 11:19:23.30	329.71	8.76	-39.8	-42.5	12.5	1.11e-04	0	58	0	1474297856	50	5113
2026-01-08 11:19:24.31	329.80	8.69	-39.7	-42.3	12.7	8.62e-05	0	59	0	1477443584	50	5016
2026-01-08 11:19:25.32	329.89	8.62	-39.8	-42.4	12.5	1.22e-04	0	59	0	1480589312	50	5089
2026-01-08 11:19:26.33	329.98	8.54	-39.9	-42.6	12.3	1.71e-04	0	58	0	1483735040	50	5200
2026-01-08 11:19:27.34	330.06	8.47	-40.0	-42.7	12.2	2.09e-04	0	59	0	1486880768	50	5239
2026-01-08 11:19:28.35	330.15	8.40	-39.9	-42.6	12.2	2.20e-04	0	58	0	1490026496	50	5213
2026-01-08 11:19:29.36	330.24	8.33	-40.0	-42.8	12.1	2.22e-04	0	58	0	1493172224	50	5318
2026-01-08 11:19:30.37	330.32	8.26	-39.9	-42.6	12.3	1.69e-04	0	58	0	1496317952	50	5181
2026-01-08 11:19:31.38	330.41	8.19	-39.8	-42.5	12.4	1.63e-04	0	58	0	1499463680	50	5129
2026-01-08 11:19:32.39	330.50	8.12	-39.9	-42.7	12.2	1.65e-04	0	58	0	1502609408	50	5243
2026-01-08 11:19:33.40	330.58	8.05	-39.8	-42.4	12.4	1.50e-04	0	59	0	1505755136	50	5075
2026-01-08 11:19:34.41	330.67	7.98	-39.8	-42.5	12.4	1.27e-04	0	59	0	1508900864	50	5122
2026-01-08 11:19:35.42	330.75	7.91	-44.4	-56.2	3.8	1.49e+00	0	59	104	1508900864	59	14809
2026-01-08 11:19:36.43	330.83	7.84	-44.6	-56.7	3.8	1.49e+00	0	58	104	1508900864	59	15686
2026-01-08 11:19:37.44	330.92	7.77	-44.7	-57.0	3.8	1.49e+00	0	59	104	1508900864	60	15396
2026-01-08 11:19:38.45	331.00	7.70	-44.9	-57.2	3.8	1.49e+00	0	59	104	1508900864	60	15719
2026-01-08 11:19:39.46	331.08	7.64	-45.0	-57.3	3.8	1.49e+00	0	59	104	1508900864	60	15893
2026-01-08 11:19:40.47	331.17	7.57	-45.1	-57.4	3.8	1.49e+00	0	59	104	1508900864	60	16105
2026-01-08 11:19:41.48	331.25	7.50	-45.1	-57.5	3.8	1.49e+00	0	59	104	1508900864	60	16231
2026-01-08 11:19:42.49	331.33	7.43	-44.9	-57.5	3.8	1.49e+00	0	58	104	1508900864	60	16233
2026-01-08 11:19:43.50	331.41	7.36	-44.6	-57.5	3.8	1.49e+00	0	59	104	1508900864	60	16176
2026-01-08 11:19:44.51	331.49	7.29	-45.1	-57.5	3.8	1.49e+00	0	59	104	1508900864	60	16208
2026-01-08 11:19:45.52	331.57	7.22	-45.1	-57.4	3.8	1.49e+00	0	59	104	1508900864	60	16122
2026-01-08 11:19:46.54	331.65	7.16	-45.1	-57.4	3.8	1.49e+00	0	59	104	1508900864	60	16096
2026-01-08 11:19:47.55	331.73	7.09	-45.1	-57.5	3.8	1.49e+00	0	59	104	1508900864	60	16165
2026-01-08 11:19:48.56	331.81	7.02	-45.1	-57.5	3.8	1.49e+00	0	59	104	1508900864	60	16135
2026-01-08 11:19:49.57	331.89	6.95	-45.1	-57.4	3.8	1.49e+00	0	59	104	1508900864	60	16018
2026-01-08 11:19:50.58	331.97	6.88	-45.1	-57.4	3.8	1.49e+00	0	59	104	1508900864	60	16059
2026-01-08 11:19:51.59	332.05	6.82	-45.0	-57.4	3.8	1.49e+00	0	59	104	1508900864	60	15967
2026-01-08 11:19:52.60	332.13	6.75	-45.0	-57.4	3.8	1.49e+00	0	59	104	1508900864	60	15989
2026-01-08 11:19:53.61	332.20	6.68	-45.0	-57.4	3.8	1.49e+00	0	59	104	1508900864	60	15992
2026-01-08 11:19:54.62	332.28	6.62	-45.0	-57.3	3.8	1.49e+00	0	59	104	1508900864	60	15939
2026-01-08 11:19:55.63	332.36	6.55	-45.0	-57.4	3.8	1.49e+00	0	59	104	1508900864	60	15960
2026-01-08 11:19:56.64	332.44	6.48	-45.0	-57.3	3.8	1.49e+00	0	59	104	1508900864	60	15905
2026-01-08 11:19:57.65	332.51	6.42	-45.0	-57.3	3.8	1.49e+00	0	59	104	1508900864	60	15930
2026-01-08 11:19:58.66	332.59	6.35	-45.0	-57.3	3.8	1.49e+00	0	59	104	1508900864	60	15912
2026-01-08 11:19:59.67	332.66	6.28	-45.0	-57.3	3.8	1.49e+00	0	59	104	1508900864	60	15930
2026-01-08 11:20:00.68	332.74	6.22	-45.0	-57.4	3.8	1.49e+00	0	59	104	1508900864	60	15952
2026-01-08 11:20:01.69	332.81	6.15	-45.0	-57.3	3.8	1.49e+00	0	59	104	1508900864	60	15936
2026-01-08 11:20:02.70	332.89	6.08	-45.0	-57.3	3.8	1.49e+00	0	59	104	1508900864	60	15937
2026-01-08 11:20:03.71	332.96	6.02	-45.0	-57.3	3.8	1.49e+00	0	59	104	1508900864	60	15931
2026-01-08 11:20:04.73	333.04	5.95	-45.0	-57.3	3.8	1.49e+00	0	59	104	1508900864	60	15902
2026-01-08 11:20:05.74	333.11	5.89	-45.0	-57.3	3.8	1.49e+00	0	59	104	1508900864	60	15905
2026-01-08 11:20:06.75	333.19	5.82	-45.0	-57.4	3.8	1.49e+00	0	59	104	1508900864	60	16019
2026-01-08 11:20:07.76	333.26	5.76	-45.0	-57.3	3.8	1.49e+00	0	59	104	1508900864	60	15899
2026-01-08 11:20:08.77	333.33	5.69	-45.0	-57.3	3.8	1.49e+00	0	59	104	1508900864	60	15887
2026-01-08 11:20:09.78	333.41	5.63	-45.0	-57.3	3.8	1.49e+00	0	59	104	1508900864	60	15909
2026-01-08 11:20:10.79	333.48	5.56	-45.0	-57.3	3.8	1.49e+00	0	59	104	1508900864	60	15885
2026-01-08 11:20:11.80	333.55	5.50	-45.0	-57.3	3.8	1.49e+00	0	59	104	1508900864	60	15877
2026-01-08 11:20:12.81	333.62	5.43	-45.0	-57.3	3.8	1.49e+00	0	59	104	1508900864	60	15890
2026-01-08 11:20:13.82	333.69	5.37	-45.0	-57.3	3.8	1.49e+00	0	59	104	1508900864	60	15867
2026-01-08 11:20:14.83	333.76	5.30	-45.0	-57.3	3.8	1.49e+00	0	59	104	1508900864	60	15907
2026-01-08 11:20:15.84	333.83	5.24	-45.0	-57.3	3.8	1.49e+00	0	59	104	1508900864	60	15890
2026-01-08 11:20:16.85	333.91	5.17	-45.0	-57.3	3.8	1.49e+00	0	59	104	1508900864	60	15877
2026-01-08 11:20:17.86	333.98	5.11	-45.0	-57.3	3.8	1.49e+00	0	59	104	1508900864	60	15903
2026-01-08 11:20:18.87	334.05	5.05	-45.0	-57.3	3.8	1.49e+00	0	59	104	1508900864	60	15914
2026-01-08 11:20:19.89	334.12	4.98	-45.0	-57.3	3.8	1.49e+00	0	59	104	1508900864	60	15805
2026-01-08 11:20:20.90	334.19	4.92	-45.0	-57.3	3.8	1.49e+00	0	59	104	1508900864	60	15863
2026-01-08 11:20:21.91	334.25	4.85	-45.0	-57.3	3.8	1.49e+00	0	59	104	1508900864	60	15847
2026-01-08 11:20:22.92	334.32	4.79	-45.0	-57.3	3.8	1.49e+00	0	59	104	1508900864	60	15858
2026-01-08 11:20:23.93	334.39	4.73	-44.9	-57.3	3.8	1.49e+00	0	59	104	1508900864	60	15824
2026-01-08 11:20:24.94	334.46	4.66	-45.0	-57.3	3.8	1.49e+00	0	59	104	1508900864	60	15844
2026-01-08 11:20:25.95	334.53	4.60	-45.0	-57.3	3.8	1.49e+00	0	59	104	1508900864	60	15812
2026-01-08 11:20:26.96	334.60	4.54	-44.9	-57.3	3.8	1.49e+00	0	59	104	1508900864	60	15827
2026-01-08 11:20:27.97	334.66	4.48	-44.9	-57.3	3.8	1.49e+00	0	59	104	1508900864	60	15836
2026-01-08 11:20:28.98	334.73	4.41	-45.0	-57.3	3.8	1.49e+00	0	59	104	1508900864	60	15878
2026-01-08 11:20:29.99	334.80	4.35	-44.9	-57.3	3.8	1.49e+00	0	59	104	1508900864	60	15824
2026-01-08 11:20:31.01	334.87	4.29	-44.9	-57.3	3.8	1.49e+00	0	59	104	1508900864	60	15836
2026-01-08 11:20:32.02	334.93	4.22	-44.9	-57.3	3.8	1.49e+00	0	59	104	1508900864	60	15827
2026-01-08 11:20:33.03	335.00	4.16	-44.9	-57.3	3.8	1.49e+00	0	59	104	1508900864	60	15827
2026-01-08 11:20:34.04	335.06	4.10	-45.0	-57.3	3.8	1.49e+00	0	59	104	1508900864	60	15843
2026-01-08 11:20:35.05	335.13	4.04	-44.9	-57.3	3.8	1.49e+00	0	59	104	1508900864	60	15852
2026-01-08 11:20:36.06	335.20	3.98	-44.8	-57.3	3.8	1.49e+00	0	59	104	1508900864	60	15790
2026-01-08 11:20:37.07	335.26	3.91	-44.9	-57.3	3.8	1.49e+00	0	59	104	1508900864	60	15830
2026-01-08 11:20:38.08	335.33	3.85	-44.9	-57.3	3.8	1.49e+00	0	59	104	1508900864	60	15819
2026-01-08 11:20:39.09	335.39	3.79	-44.9	-57.3	3.8	1.49e+00	0	59	104	1508900864	60	15865
2026-01-08 11:20:40.10	335.45	3.73	-44.9	-57.3	3.8	1.49e+00	0	59	104	1508900864	60	15768
2026-01-08 11:20:41.11	335.52	3.67	-44.9	-57.3	3.8	1.49e+00	0	59	104	1508900864	60	15824
2026-01-08 11:20:42.12	335.58	3.61	-44.9	-57.3	3.8	1.49e+00	0	59	104	1508900864	60	15790
2026-01-08 11:20:43.13	335.65	3.55	-44.9	-57.3	3.8	1.49e+00	0	59	104	1508900864	60	15823
2026-01-08 11:20:44.14	335.71	3.49	-44.9	-57.3	3.8	1.49e+00	0	59	104	1508900864	60	15829
2026-01-08 11:20:45.15	335.77	3.42	-44.9	-57.3	3.8	1.49e+00	0	59	104	1508900864	60	15781
2026-01-08 11:20:46.17	335.84	3.36	-44.9	-57.3	3.8	1.49e+00	0	59	104	1508900864	60	15802
2026-01-08 11:20:47.18	335.90	3.30	-44.9	-57.3	3.8	1.49e+00	0	59	104	1508900864	60	15826
2026-01-08 11:20:48.18	335.96	3.24	-44.9	-57.2	3.8	1.49e+00	0	59	104	1508900864	60	15747
2026-01-08 11:20:49.19	336.02	3.18	-44.9	-57.3	3.8	1.49e+00	0	59	104	1508900864	60	15793
2026-01-08 11:20:50.21	336.09	3.12	-44.8	-57.3	3.8	1.49e+00	0	59	104	1508900864	60	15777
2026-01-08 11:20:51.22	336.15	3.06	-44.9	-57.3	3.8	1.49e+00	0	59	104	1508900864	60	15792
2026-01-08 11:20:52.23	336.21	3.00	-44.8	-57.3	3.8	1.49e+00	0	59	104	1508900864	60	15800
2026-01-08 11:20:53.24	336.27	2.94	-44.9	-57.3	3.8	1.49e+00	0	59	104	1508900864	60	15809
2026-01-08 11:20:54.25	336.33	2.88	-44.9	-57.3	3.8	1.49e+00	0	59	104	1508900864	60	15787
2026-01-08 11:20:55.26	336.39	2.82	-44.9	-57.3	3.8	1.49e+00	0	59	104	1508900864	60	15833
2026-01-08 11:20:56.27	336.45	2.76	-44.9	-57.3	3.8	1.49e+00	0	59	104	1508900864	60	15782
2026-01-08 11:20:57.28	336.51	2.70	-44.9	-57.3	3.8	1.49e+00	0	59	104	1508900864	60	15789
2026-01-08 11:20:58.29	336.57	2.64	-44.9	-57.3	3.8	1.49e+00	0	59	104	1508900864	60	15794
2026-01-08 11:20:59.30	336.63	2.58	-44.9	-57.3	3.8	1.49e+00	0	59	104	1508900864	60	15792
2026-01-08 11:21:00.31	336.69	2.52	-44.9	-57.3	3.8	1.49e+00	0	59	104	1508900864	60	15789
2026-01-08 11:21:01.32	336.75	2.46	-44.9	-57.3	3.8	1.49e+00	0	59	104	1508900864	60	15767
2026-01-08 11:21:02.34	336.81	2.40	-44.9	-57.3	3.8	1.49e+00	0	59	104	1508900864	60	15765
2026-01-08 11:21:03.35	336.87	2.34	-44.9	-57.3	3.8	1.49e+00	0	59	104	1508900864	60	15770
2026-01-08 11:21:04.36	336.93	2.29	-44.9	-57.3	3.8	1.49e+00	0	59	104	1508900864	60	15807
2026-01-08 11:21:05.37	336.99	2.23	-44.9	-57.3	3.8	1.49e+00	0	59	104	1508900864	60	15762
2026-01-08 11:21:06.38	337.05	2.17	-44.9	-57.3	3.8	1.49e+00	0	59	104	1508900864	60	15793
2026-01-08 11:21:07.39	337.11	2.11	-44.9	-57.3	3.8	1.49e+00	0	59	104	1508900864	60	15798
2026-01-08 11:21:08.40	337.16	2.05	-44.9	-57.3	3.8	1.49e+00	0	59	104	1508900864	60	15787
2026-01-08 11:21:09.41	337.22	1.99	-44.9	-57.3	3.8	1.49e+00	0	59	104	1508900864	60	15796
2026-01-08 11:21:10.42	337.28	1.93	-44.9	-57.3	3.8	1.49e+00	0	59	104	1508900864	60	15800

#Closed at: 2026-01-08 11:21:10
#Recorded file [1508 MB]: D:/lorett/data/31039_260108_141047.dat