passes_logs/2026/01/08/R2.0S_Moscow/R2.0S_Moscow__20260108_010551_FENGYUN_3D_rec.log

#Pass ID: 20260108_010551_FENGYUN 3D
#Satellite: FENGYUN 3D
#Configuration: FENGYUN 3D
#almurnet v.1.7.20251203
#Start time: 2026-01-08 01:05:51

#Version: 2.2.20231116
#Station: R2.0S_Moscow
#Location: 37.707566 lon 55.798166 lat
#TLE: 1 43010U 17072A   26006.26440730  .00000376  00000+0  19957-3 0  9994
#TLE: 2 43010  98.9925 337.9455 0002045 123.9195 236.2175 14.19693586422016

#Time	Az	El	Level	Level2	SNR	BER	BlckErr	Temp	State	Recorded	gain1	gain2
2026-01-08 01:05:51.72	19.78	2.01	-40.7	-53.1	3.8	8.45e-01	0	47	0	0	53	14706
2026-01-08 01:05:52.71	19.81	2.07	-40.7	-53.1	3.8	8.46e-01	0	47	104	0	52	15522
2026-01-08 01:05:53.72	19.84	2.13	-40.7	-53.1	3.8	8.46e-01	0	47	104	0	52	15523
2026-01-08 01:05:54.73	19.88	2.19	-40.7	-53.2	3.8	8.46e-01	0	47	104	0	52	15604
2026-01-08 01:05:55.74	19.91	2.26	-40.7	-53.1	3.8	8.47e-01	0	47	104	0	52	15536
2026-01-08 01:05:56.75	19.94	2.32	-40.7	-53.1	3.8	8.46e-01	0	47	104	0	52	15535
2026-01-08 01:05:57.76	19.98	2.38	-40.7	-53.2	3.8	8.47e-01	0	47	104	0	52	15595
2026-01-08 01:05:58.77	20.01	2.45	-40.7	-53.1	3.8	8.46e-01	0	47	104	0	52	15544
2026-01-08 01:05:59.77	20.04	2.51	-40.7	-53.1	3.8	8.46e-01	0	47	104	0	52	15499
2026-01-08 01:06:00.78	20.08	2.57	-40.7	-53.1	3.8	8.46e-01	0	47	104	0	52	15561
2026-01-08 01:06:01.79	20.11	2.64	-40.7	-53.2	3.8	8.46e-01	0	47	104	0	52	15599
2026-01-08 01:06:02.81	20.15	2.70	-40.8	-53.1	3.8	8.47e-01	0	47	104	0	52	15533
2026-01-08 01:06:03.82	20.18	2.76	-40.7	-53.2	3.8	8.47e-01	0	48	104	0	52	15581
2026-01-08 01:06:04.82	20.22	2.83	-40.7	-53.1	3.8	8.46e-01	0	48	104	0	52	15523
2026-01-08 01:06:05.83	20.25	2.89	-40.7	-53.1	3.8	8.46e-01	0	48	104	0	52	15550
2026-01-08 01:06:06.84	20.28	2.96	-40.8	-53.1	3.8	8.45e-01	0	48	104	0	52	15510
2026-01-08 01:06:07.85	20.32	3.02	-40.7	-53.1	3.8	8.46e-01	0	48	104	0	52	15545
2026-01-08 01:06:08.86	20.35	3.09	-40.8	-53.1	3.8	8.46e-01	0	48	104	0	52	15546
2026-01-08 01:06:09.87	20.39	3.15	-40.8	-53.1	3.8	8.47e-01	0	48	104	0	52	15512
2026-01-08 01:06:10.87	20.42	3.22	-40.8	-53.1	3.8	8.46e-01	0	48	104	0	52	15549
2026-01-08 01:06:11.88	20.46	3.28	-40.7	-53.1	3.8	8.47e-01	0	48	104	0	52	15556
2026-01-08 01:06:12.89	20.50	3.35	-40.7	-53.1	3.8	8.46e-01	0	49	104	0	52	15552
2026-01-08 01:06:13.90	20.53	3.41	-40.7	-53.1	3.8	8.46e-01	0	48	104	0	52	15466
2026-01-08 01:06:14.91	20.57	3.48	-40.7	-53.1	3.8	8.46e-01	0	49	104	0	52	15538
2026-01-08 01:06:15.92	20.60	3.54	-40.7	-53.1	3.8	8.47e-01	0	48	104	0	52	15490
2026-01-08 01:06:16.93	20.64	3.61	-40.7	-53.1	3.8	8.47e-01	0	49	104	0	52	15496
2026-01-08 01:06:17.94	20.68	3.68	-40.8	-53.1	3.8	8.46e-01	0	49	104	0	52	15536
2026-01-08 01:06:18.95	20.71	3.74	-40.7	-53.1	3.8	8.45e-01	0	49	104	0	52	15560
2026-01-08 01:06:19.96	20.75	3.81	-40.7	-53.1	3.8	8.45e-01	0	49	104	0	52	15525
2026-01-08 01:06:20.97	20.78	3.87	-40.7	-53.1	3.8	8.46e-01	0	49	104	0	52	15517
2026-01-08 01:06:21.98	20.82	3.94	-40.7	-53.1	3.8	8.45e-01	0	49	104	0	52	15524
2026-01-08 01:06:22.99	20.86	4.01	-40.7	-53.1	3.8	8.46e-01	0	49	104	0	52	15474
2026-01-08 01:06:24.00	20.90	4.08	-40.7	-53.1	3.8	8.47e-01	0	49	104	0	52	15536
2026-01-08 01:06:25.00	20.93	4.14	-40.7	-53.1	3.8	8.47e-01	0	49	104	0	52	15505
2026-01-08 01:06:26.02	20.97	4.21	-40.7	-53.1	3.8	8.48e-01	0	49	104	0	52	15512
2026-01-08 01:06:27.02	21.01	4.28	-40.7	-53.1	3.8	8.47e-01	0	49	104	0	52	15557
2026-01-08 01:06:28.03	21.05	4.35	-40.7	-53.1	3.8	8.46e-01	0	49	104	0	52	15539
2026-01-08 01:06:29.04	21.08	4.41	-40.7	-53.1	3.8	8.45e-01	0	49	104	0	52	15485
2026-01-08 01:06:30.05	21.12	4.48	-40.7	-53.1	3.8	8.46e-01	0	50	104	0	52	15508
2026-01-08 01:06:31.06	21.16	4.55	-40.8	-53.1	3.8	8.46e-01	0	49	104	0	52	15511
2026-01-08 01:06:32.07	21.20	4.62	-40.7	-53.1	3.8	8.46e-01	0	50	104	0	52	15540
2026-01-08 01:06:33.08	21.24	4.69	-40.7	-53.1	3.8	8.46e-01	0	50	104	0	52	15575
2026-01-08 01:06:34.09	21.27	4.75	-40.7	-53.1	3.8	8.45e-01	0	50	104	0	52	15546
2026-01-08 01:06:35.10	21.31	4.82	-40.7	-53.1	3.8	8.45e-01	0	50	104	0	52	15567
2026-01-08 01:06:36.11	21.35	4.89	-40.7	-53.1	3.8	8.46e-01	0	50	104	0	52	15524
2026-01-08 01:06:37.12	21.39	4.96	-40.7	-53.1	3.8	8.47e-01	0	50	104	0	52	15530
2026-01-08 01:06:38.13	21.43	5.03	-40.7	-53.1	3.8	8.46e-01	0	50	104	0	52	15525
2026-01-08 01:06:39.14	21.47	5.10	-40.7	-53.1	3.8	8.47e-01	0	50	104	0	52	15540
2026-01-08 01:06:40.15	21.51	5.17	-40.7	-53.1	3.8	8.47e-01	0	50	104	0	52	15499
2026-01-08 01:06:41.16	21.55	5.24	-40.7	-53.1	3.8	8.46e-01	0	50	104	0	52	15494
2026-01-08 01:06:42.17	21.59	5.31	-40.7	-53.1	3.8	8.47e-01	0	50	104	0	52	15488
2026-01-08 01:06:43.17	21.63	5.38	-40.7	-53.1	3.8	8.46e-01	0	50	104	0	52	15500
2026-01-08 01:06:44.18	21.67	5.45	-40.7	-53.1	3.8	8.47e-01	0	50	104	0	52	15500
2026-01-08 01:06:45.19	21.71	5.52	-40.7	-53.1	3.8	8.47e-01	0	50	104	0	52	15497
2026-01-08 01:06:46.20	21.75	5.59	-40.7	-53.1	3.8	8.45e-01	0	50	104	0	52	15505
2026-01-08 01:06:47.21	21.79	5.66	-40.7	-53.1	3.8	8.45e-01	0	50	104	0	52	15537
2026-01-08 01:06:48.22	21.83	5.73	-40.7	-53.1	3.8	8.47e-01	0	50	104	0	52	15519
2026-01-08 01:06:49.23	21.87	5.81	-40.7	-53.1	3.8	8.45e-01	0	51	104	0	52	15495
2026-01-08 01:06:50.24	21.92	5.88	-40.7	-53.1	3.8	8.45e-01	0	51	104	0	52	15497
2026-01-08 01:06:51.25	21.96	5.95	-40.7	-53.1	3.8	8.47e-01	0	51	104	0	52	15501
2026-01-08 01:06:52.26	22.00	6.02	-40.7	-53.1	3.8	8.46e-01	0	51	104	0	52	15485
2026-01-08 01:06:53.27	22.04	6.09	-40.7	-53.1	3.8	8.45e-01	0	51	104	0	52	15444
2026-01-08 01:06:54.27	22.08	6.16	-40.7	-53.1	3.8	8.47e-01	0	51	104	0	52	15481
2026-01-08 01:06:55.28	22.12	6.24	-40.7	-53.1	3.8	8.47e-01	0	51	104	0	52	15430
2026-01-08 01:06:56.29	22.17	6.31	-40.7	-53.1	3.8	8.47e-01	0	51	104	0	52	15456
2026-01-08 01:06:57.30	22.21	6.38	-40.7	-53.1	3.8	8.45e-01	0	51	104	0	52	15480
2026-01-08 01:06:58.31	22.25	6.46	-40.7	-53.1	3.8	8.46e-01	0	51	104	0	52	15509
2026-01-08 01:06:59.32	22.30	6.53	-40.7	-53.1	3.8	8.46e-01	0	51	104	0	52	15410
2026-01-08 01:07:00.33	22.34	6.60	-40.7	-53.1	3.8	8.46e-01	0	51	104	0	52	15404
2026-01-08 01:07:01.34	22.38	6.68	-40.7	-53.1	3.8	8.47e-01	0	51	104	0	52	15433
2026-01-08 01:07:02.35	22.43	6.75	-40.7	-53.0	3.8	8.46e-01	0	51	104	0	52	15335
2026-01-08 01:07:03.36	22.47	6.82	-40.7	-52.9	3.8	8.46e-01	0	51	104	0	52	15175
2026-01-08 01:07:04.37	22.51	6.90	-40.7	-52.7	3.8	8.46e-01	0	51	104	0	52	14871
2026-01-08 01:07:05.38	22.56	6.97	-40.7	-52.6	3.8	8.46e-01	0	51	104	0	52	14643
2026-01-08 01:07:06.39	22.60	7.05	-40.7	-52.6	3.8	8.45e-01	0	52	104	0	52	14581
2026-01-08 01:07:07.40	22.65	7.12	-40.7	-52.5	3.8	8.46e-01	0	52	104	0	52	14539
2026-01-08 01:07:08.41	22.69	7.20	-40.7	-52.3	3.8	8.47e-01	0	51	104	0	52	14191
2026-01-08 01:07:09.42	22.74	7.27	-40.6	-51.8	3.8	8.46e-01	0	52	104	0	52	13369
2026-01-08 01:07:10.42	22.78	7.35	-40.5	-51.0	3.8	8.46e-01	0	51	104	0	52	12182
2026-01-08 01:07:11.43	22.83	7.42	-40.5	-50.3	3.9	8.42e-01	0	52	104	0	52	11252
2026-01-08 01:07:12.44	22.87	7.50	-40.4	-49.7	4.1	8.39e-01	0	52	0	0	52	10496
2026-01-08 01:07:13.44	22.92	7.57	-40.3	-49.1	4.3	8.32e-01	0	52	0	0	52	9726
2026-01-08 01:07:14.45	22.96	7.65	-40.2	-48.4	4.6	8.25e-01	0	52	0	0	52	9042
2026-01-08 01:07:15.46	23.01	7.73	-40.0	-47.4	5.1	7.79e-01	0	52	0	0	51	8505
2026-01-08 01:07:16.47	23.06	7.80	-39.8	-46.2	6.0	6.01e-01	0	52	0	2097152	51	7374
2026-01-08 01:07:17.48	23.10	7.88	-39.4	-45.1	6.8	2.17e-01	0	52	0	7340032	50	6897
2026-01-08 01:07:18.49	23.15	7.96	-39.1	-44.1	7.8	1.22e-01	0	52	0	12582912	50	6158
2026-01-08 01:07:19.50	23.20	8.04	-38.7	-43.1	8.8	4.85e-02	0	52	0	18874368	49	5842
2026-01-08 01:07:20.51	23.25	8.11	-38.4	-41.3	11.9	1.47e-02	0	52	0	24117248	48	5033
2026-01-08 01:07:21.52	23.29	8.19	-37.5	-40.2	12.7	3.53e-03	0	52	0	30408704	46	4940
2026-01-08 01:07:22.52	23.34	8.27	-36.8	-39.4	12.8	5.66e-01	0	52	0	33554432	45	4807
2026-01-08 01:07:23.53	23.39	8.35	-38.1	-40.5	13.3	2.86e-05	0	52	0	38797312	46	5121
2026-01-08 01:07:24.54	23.44	8.43	-36.1	-38.0	15.3	2.30e-04	0	52	0	45088768	44	4335
2026-01-08 01:07:25.55	23.49	8.51	-36.8	-39.4	13.0	1.58e-02	0	52	0	50331648	45	4795
2026-01-08 01:07:26.56	23.53	8.58	-36.8	-38.8	14.7	0.00e+00	0	52	0	56623104	44	4737
2026-01-08 01:07:27.58	23.58	8.66	-37.1	-39.2	14.4	1.10e-06	0	52	0	61865984	44	4948
2026-01-08 01:07:28.58	23.63	8.74	-37.4	-39.5	14.1	4.50e-06	0	52	0	68157440	45	4837
2026-01-08 01:07:29.60	23.68	8.82	-37.0	-39.0	14.7	0.00e+00	0	52	0	73400320	45	4552
2026-01-08 01:07:30.61	23.73	8.90	-36.7	-38.5	15.1	0.00e+00	0	52	0	78643200	45	4336
2026-01-08 01:07:31.61	23.78	8.98	-36.7	-38.6	15.1	0.00e+00	0	52	0	84934656	45	4349
2026-01-08 01:07:32.62	23.83	9.06	-36.9	-38.8	14.9	0.00e+00	0	52	0	90177536	45	4475
2026-01-08 01:07:33.63	23.88	9.14	-36.9	-38.8	14.9	0.00e+00	0	52	0	96468992	45	4483
2026-01-08 01:07:34.64	23.93	9.23	-36.8	-38.7	15.0	0.00e+00	0	52	0	101711872	45	4399
2026-01-08 01:07:35.65	23.99	9.31	-36.8	-38.7	15.1	0.00e+00	0	53	0	106954752	45	4395
2026-01-08 01:07:36.66	24.04	9.39	-36.8	-38.6	15.1	0.00e+00	0	53	0	113246208	45	4371
2026-01-08 01:07:37.67	24.09	9.47	-36.7	-38.5	15.3	0.00e+00	0	52	0	118489088	45	4306
2026-01-08 01:07:38.68	24.14	9.55	-36.5	-38.2	15.6	0.00e+00	0	53	0	124780544	45	4186
2026-01-08 01:07:39.69	24.19	9.63	-36.4	-38.1	15.7	0.00e+00	0	53	0	130023424	44	4386
2026-01-08 01:07:40.70	24.25	9.72	-36.5	-38.2	15.7	0.00e+00	0	53	0	135266304	44	4422
2026-01-08 01:07:41.71	24.30	9.80	-36.5	-38.2	15.8	0.00e+00	0	53	0	141557760	44	4393
2026-01-08 01:07:42.72	24.35	9.88	-36.5	-38.2	15.8	0.00e+00	0	53	0	146800640	44	4408
2026-01-08 01:07:43.72	24.40	9.96	-36.5	-38.1	15.9	0.00e+00	0	53	0	153092096	44	4379
2026-01-08 01:07:44.73	24.46	10.05	-36.4	-38.0	16.0	0.00e+00	0	53	0	158334976	44	4330
2026-01-08 01:07:45.74	24.51	10.13	-36.5	-38.1	15.9	0.00e+00	0	53	0	164626432	44	4383
2026-01-08 01:07:46.75	24.57	10.22	-36.3	-37.9	16.2	0.00e+00	0	53	0	169869312	44	4280
2026-01-08 01:07:47.76	24.62	10.30	-36.4	-38.0	16.1	0.00e+00	0	53	0	175112192	44	4325
2026-01-08 01:07:48.77	24.67	10.39	-36.3	-37.9	16.2	0.00e+00	0	53	0	181403648	44	4288
2026-01-08 01:07:49.78	24.73	10.47	-36.4	-38.0	16.2	0.00e+00	0	53	0	186646528	44	4308
2026-01-08 01:07:50.79	24.78	10.56	-36.4	-37.9	16.2	0.00e+00	0	53	0	192937984	44	4288
2026-01-08 01:07:51.80	24.84	10.64	-36.3	-37.9	16.3	0.00e+00	0	53	0	198180864	44	4268
2026-01-08 01:07:52.81	24.90	10.73	-36.4	-37.9	16.3	0.00e+00	0	53	0	204472320	44	4291
2026-01-08 01:07:53.82	24.95	10.81	-36.3	-37.8	16.4	0.00e+00	0	53	0	209715200	44	4239
2026-01-08 01:07:54.83	25.01	10.90	-36.2	-37.7	16.5	0.00e+00	0	53	0	214958080	44	4188
2026-01-08 01:07:55.84	25.07	10.99	-36.2	-37.7	16.5	0.00e+00	0	53	0	221249536	44	4191
2026-01-08 01:07:56.85	25.12	11.07	-36.2	-37.7	16.5	0.00e+00	0	53	0	226492416	44	4188
2026-01-08 01:07:57.86	25.18	11.16	-36.2	-37.7	16.6	0.00e+00	0	53	0	232783872	44	4162
2026-01-08 01:07:58.86	25.24	11.25	-36.1	-37.7	16.7	0.00e+00	0	53	0	238026752	44	4150
2026-01-08 01:07:59.87	25.29	11.33	-36.1	-37.6	16.7	0.00e+00	0	53	0	243269632	44	4126
2026-01-08 01:08:00.88	25.35	11.42	-36.1	-37.6	16.7	0.00e+00	0	53	0	249561088	44	4131
2026-01-08 01:08:01.89	25.41	11.51	-36.1	-37.6	16.7	0.00e+00	0	53	0	254803968	44	4128
2026-01-08 01:08:02.90	25.47	11.60	-36.1	-37.6	16.8	0.00e+00	0	53	0	261095424	44	4124
2026-01-08 01:08:03.91	25.53	11.69	-36.1	-37.6	16.8	0.00e+00	0	53	0	266338304	44	4126
2026-01-08 01:08:04.91	25.59	11.78	-36.1	-37.6	16.8	0.00e+00	0	53	0	272629760	44	4123
2026-01-08 01:08:05.92	25.65	11.87	-36.1	-37.6	16.8	0.00e+00	0	53	0	277872640	44	4144
2026-01-08 01:08:06.93	25.71	11.96	-36.1	-37.6	16.8	0.00e+00	0	53	0	283115520	44	4116
2026-01-08 01:08:07.94	25.77	12.05	-36.0	-37.5	16.9	0.00e+00	0	53	0	289406976	44	4074
2026-01-08 01:08:08.95	25.83	12.14	-36.0	-37.5	16.9	0.00e+00	0	53	0	294649856	44	4087
2026-01-08 01:08:09.96	25.89	12.23	-36.0	-37.5	17.0	0.00e+00	0	53	0	300941312	44	4065
2026-01-08 01:08:10.97	25.95	12.32	-35.8	-37.3	17.0	0.00e+00	0	53	0	306184192	43	4234
2026-01-08 01:08:11.98	26.02	12.41	-35.8	-37.3	17.0	0.00e+00	0	53	0	311427072	43	4211
2026-01-08 01:08:12.99	26.08	12.50	-35.8	-37.3	17.1	0.00e+00	0	53	0	317718528	43	4198
2026-01-08 01:08:14.00	26.14	12.59	-35.8	-37.2	17.1	0.00e+00	0	53	0	322961408	43	4169
2026-01-08 01:08:15.01	26.21	12.68	-35.8	-37.3	17.1	0.00e+00	0	54	0	329252864	43	4194
2026-01-08 01:08:16.02	26.27	12.78	-35.7	-37.2	17.2	0.00e+00	0	54	0	334495744	43	4151
2026-01-08 01:08:17.02	26.33	12.87	-35.8	-37.2	17.1	0.00e+00	0	54	0	339738624	43	4184
2026-01-08 01:08:18.03	26.40	12.96	-35.7	-37.2	17.2	0.00e+00	0	54	0	346030080	43	4160
2026-01-08 01:08:19.04	26.46	13.06	-35.7	-37.2	17.2	0.00e+00	0	54	0	351272960	43	4167
2026-01-08 01:08:20.05	26.53	13.15	-35.8	-37.2	17.1	0.00e+00	0	54	0	357564416	43	4179
2026-01-08 01:08:21.06	26.59	13.24	-35.8	-37.2	17.1	0.00e+00	0	54	0	362807296	43	4185
2026-01-08 01:08:22.07	26.66	13.34	-35.8	-37.2	17.2	0.00e+00	0	54	0	369098752	43	4167
2026-01-08 01:08:23.08	26.72	13.43	-35.8	-37.2	17.2	0.00e+00	0	54	0	374341632	43	4170
2026-01-08 01:08:24.09	26.79	13.53	-35.8	-37.3	17.2	0.00e+00	0	54	0	379584512	43	4206
2026-01-08 01:08:25.10	26.86	13.63	-35.8	-37.2	17.2	0.00e+00	0	54	0	385875968	43	4181
2026-01-08 01:08:26.11	26.92	13.72	-35.7	-37.2	17.3	0.00e+00	0	54	0	391118848	43	4148
2026-01-08 01:08:27.12	26.99	13.82	-35.7	-37.1	17.3	0.00e+00	0	54	0	397410304	43	4123
2026-01-08 01:08:28.13	27.06	13.91	-35.6	-37.0	17.5	0.00e+00	0	54	0	402653184	43	4069
2026-01-08 01:08:29.13	27.13	14.01	-35.5	-36.9	17.6	0.00e+00	0	54	0	407896064	43	4036
2026-01-08 01:08:30.14	27.20	14.11	-35.5	-36.8	17.6	0.00e+00	0	54	0	414187520	42	4241
2026-01-08 01:08:31.15	27.27	14.21	-35.4	-36.7	17.8	0.00e+00	0	54	0	419430400	42	4193
2026-01-08 01:08:32.16	27.34	14.30	-35.3	-36.6	17.9	0.00e+00	0	54	0	425721856	42	4143
2026-01-08 01:08:33.17	27.41	14.40	-35.2	-36.6	18.0	0.00e+00	0	54	0	430964736	42	4108
2026-01-08 01:08:34.18	27.48	14.50	-35.2	-36.6	18.0	0.00e+00	0	54	0	436207616	42	4104
2026-01-08 01:08:35.19	27.55	14.60	-35.2	-36.5	18.0	0.00e+00	0	54	0	442499072	42	4094
2026-01-08 01:08:36.20	27.62	14.70	-35.2	-36.5	18.1	0.00e+00	0	54	0	447741952	42	4073
2026-01-08 01:08:37.21	27.69	14.80	-35.2	-36.5	18.1	0.00e+00	0	54	0	454033408	42	4068
2026-01-08 01:08:38.22	27.77	14.90	-35.1	-36.4	18.2	0.00e+00	0	54	0	459276288	42	4024
2026-01-08 01:08:39.23	27.84	15.00	-35.1	-36.4	18.1	0.00e+00	0	54	0	465567744	42	4048
2026-01-08 01:08:40.24	27.91	15.10	-35.1	-36.4	18.2	0.00e+00	0	54	0	470810624	42	4025
2026-01-08 01:08:41.25	27.99	15.20	-35.1	-36.4	18.2	0.00e+00	0	54	0	476053504	42	4011
2026-01-08 01:08:42.26	28.06	15.31	-35.1	-36.5	18.1	0.00e+00	0	54	0	482344960	42	4055
2026-01-08 01:08:43.26	28.14	15.41	-35.1	-36.4	18.2	0.00e+00	0	54	0	487587840	42	4027
2026-01-08 01:08:44.27	28.21	15.51	-35.1	-36.4	18.2	0.00e+00	0	54	0	493879296	42	4041
2026-01-08 01:08:45.27	28.29	15.61	-35.1	-36.4	18.2	0.00e+00	0	54	0	499122176	42	4024
2026-01-08 01:08:46.29	28.36	15.72	-35.1	-36.4	18.2	0.00e+00	0	54	0	504365056	42	4015
2026-01-08 01:08:47.30	28.44	15.82	-35.1	-36.4	18.2	0.00e+00	0	54	0	510656512	42	4019
2026-01-08 01:08:48.30	28.52	15.92	-35.0	-36.3	18.3	0.00e+00	0	54	0	515899392	42	3977
2026-01-08 01:08:49.31	28.60	16.03	-34.9	-36.2	18.3	0.00e+00	0	54	0	522190848	41	4192
2026-01-08 01:08:50.33	28.68	16.13	-34.9	-36.1	18.5	0.00e+00	0	54	0	527433728	41	4141
2026-01-08 01:08:51.33	28.75	16.24	-34.9	-36.1	18.5	0.00e+00	0	54	0	532676608	41	4144
2026-01-08 01:08:52.34	28.83	16.34	-34.8	-36.1	18.5	0.00e+00	0	54	0	538968064	41	4121
2026-01-08 01:08:53.35	28.91	16.45	-34.7	-36.0	18.6	0.00e+00	0	54	0	544210944	41	4075
2026-01-08 01:08:54.36	28.99	16.56	-34.8	-36.0	18.6	0.00e+00	0	54	0	550502400	41	4092
2026-01-08 01:08:55.37	29.08	16.66	-34.7	-36.0	18.6	0.00e+00	0	54	0	555745280	41	4073
2026-01-08 01:08:56.38	29.16	16.77	-34.7	-36.0	18.6	0.00e+00	0	54	0	562036736	41	4054
2026-01-08 01:08:57.39	29.24	16.88	-34.7	-36.0	18.6	0.00e+00	0	55	0	567279616	41	4062
2026-01-08 01:08:58.39	29.32	16.99	-34.7	-36.0	18.6	0.00e+00	0	54	0	572522496	41	4080
2026-01-08 01:08:59.40	29.40	17.10	-34.7	-36.0	18.7	0.00e+00	0	54	0	578813952	41	4061
2026-01-08 01:09:00.41	29.49	17.20	-34.7	-36.0	18.7	0.00e+00	0	54	0	584056832	41	4069
2026-01-08 01:09:01.42	29.57	17.31	-34.7	-35.9	18.7	0.00e+00	0	55	0	590348288	41	4043
2026-01-08 01:09:02.43	29.66	17.42	-34.7	-35.9	18.7	0.00e+00	0	54	0	595591168	41	4041
2026-01-08 01:09:03.44	29.74	17.53	-34.6	-35.8	18.8	0.00e+00	0	54	0	600834048	41	3997
2026-01-08 01:09:04.44	29.83	17.64	-34.6	-35.8	18.8	0.00e+00	0	54	0	607125504	41	3980
2026-01-08 01:09:05.45	29.92	17.76	-34.5	-35.7	18.9	0.00e+00	0	54	0	612368384	41	3954
2026-01-08 01:09:06.47	30.01	17.87	-34.5	-35.7	19.0	0.00e+00	0	54	0	618659840	41	3945
2026-01-08 01:09:07.47	30.09	17.98	-34.4	-35.6	19.1	0.00e+00	0	54	0	623902720	40	4128
2026-01-08 01:09:08.48	30.18	18.09	-34.4	-35.6	19.1	0.00e+00	0	54	0	629145600	40	4121
2026-01-08 01:09:09.49	30.27	18.21	-34.4	-35.6	19.1	0.00e+00	0	54	0	635437056	40	4136
2026-01-08 01:09:10.50	30.36	18.32	-34.4	-35.6	19.1	0.00e+00	0	54	0	640679936	40	4143
2026-01-08 01:09:11.51	30.45	18.43	-34.4	-35.7	19.1	0.00e+00	0	55	0	646971392	40	4155
2026-01-08 01:09:12.52	30.54	18.55	-34.5	-35.7	19.0	0.00e+00	0	54	0	652214272	40	4167
2026-01-08 01:09:13.53	30.63	18.66	-34.5	-35.7	19.0	0.00e+00	0	54	0	658505728	40	4184
2026-01-08 01:09:14.54	30.73	18.78	-34.5	-35.8	19.0	0.00e+00	0	54	0	663748608	40	4211
2026-01-08 01:09:15.55	30.82	18.90	-34.5	-35.8	19.0	0.00e+00	0	55	0	668991488	40	4205
2026-01-08 01:09:16.56	30.92	19.01	-34.5	-35.7	19.0	0.00e+00	0	55	0	675282944	40	4193
2026-01-08 01:09:17.57	31.01	19.13	-34.5	-35.7	19.1	0.00e+00	0	55	0	680525824	40	4170
2026-01-08 01:09:18.58	31.11	19.25	-34.5	-35.7	19.1	0.00e+00	0	55	0	686817280	40	4173
2026-01-08 01:09:19.58	31.20	19.36	-34.4	-35.7	19.1	0.00e+00	0	55	0	692060160	40	4146
2026-01-08 01:09:20.60	31.30	19.48	-34.4	-35.6	19.2	0.00e+00	0	55	0	697303040	40	4112
2026-01-08 01:09:21.60	31.39	19.60	-34.3	-35.5	19.3	0.00e+00	0	55	0	703594496	40	4059
2026-01-08 01:09:22.61	31.49	19.72	-34.2	-35.4	19.4	0.00e+00	0	55	0	708837376	40	4036
2026-01-08 01:09:23.62	31.59	19.84	-34.2	-35.4	19.4	0.00e+00	0	54	0	715128832	40	4019
2026-01-08 01:09:24.63	31.69	19.96	-34.2	-35.4	19.4	0.00e+00	0	55	0	720371712	40	4007
2026-01-08 01:09:25.64	31.79	20.08	-34.2	-35.4	19.4	0.00e+00	0	55	0	725614592	40	4007
2026-01-08 01:09:26.65	31.89	20.20	-34.2	-35.4	19.4	0.00e+00	0	55	0	731906048	40	4029
2026-01-08 01:09:27.66	32.00	20.33	-34.2	-35.4	19.4	0.00e+00	0	55	0	737148928	40	4050
2026-01-08 01:09:28.67	32.10	20.45	-34.2	-35.4	19.4	0.00e+00	0	55	0	743440384	40	4045
2026-01-08 01:09:29.68	32.20	20.57	-34.2	-35.4	19.4	0.00e+00	0	55	0	748683264	40	4036
2026-01-08 01:09:30.69	32.31	20.70	-34.3	-35.5	19.3	0.00e+00	0	55	0	754974720	40	4060
2026-01-08 01:09:31.70	32.41	20.82	-34.2	-35.4	19.4	0.00e+00	0	55	0	760217600	40	4034
2026-01-08 01:09:32.71	32.52	20.94	-34.1	-35.4	19.4	0.00e+00	0	55	0	766509056	40	4009
2026-01-08 01:09:33.71	32.62	21.07	-34.1	-35.2	19.5	0.00e+00	0	55	0	771751936	40	3958
2026-01-08 01:09:34.72	32.73	21.19	-34.0	-35.2	19.6	0.00e+00	0	55	0	776994816	40	3944
2026-01-08 01:09:35.73	32.84	21.32	-34.1	-35.3	19.6	0.00e+00	0	55	0	783286272	39	4196
2026-01-08 01:09:36.74	32.95	21.45	-34.0	-35.2	19.7	0.00e+00	0	55	0	788529152	39	4169
2026-01-08 01:09:37.75	33.06	21.57	-34.0	-35.1	19.7	0.00e+00	0	55	0	793772032	39	4139
2026-01-08 01:09:38.76	33.17	21.70	-33.9	-35.1	19.8	0.00e+00	0	55	0	800063488	39	4123
2026-01-08 01:09:39.77	33.28	21.83	-33.9	-35.1	19.8	0.00e+00	0	55	0	805306368	39	4122
2026-01-08 01:09:40.78	33.40	21.96	-33.9	-35.1	19.8	0.00e+00	0	55	0	811597824	39	4116
2026-01-08 01:09:41.79	33.51	22.09	-33.9	-35.1	19.8	0.00e+00	0	55	0	816840704	39	4108
2026-01-08 01:09:42.80	33.63	22.22	-34.0	-35.1	19.8	0.00e+00	0	55	0	822083584	39	4136
2026-01-08 01:09:43.80	33.74	22.35	-33.9	-35.1	19.8	0.00e+00	0	55	0	828375040	39	4123
2026-01-08 01:09:44.81	33.86	22.48	-34.0	-35.1	19.8	0.00e+00	0	55	0	833617920	39	4142
2026-01-08 01:09:45.82	33.97	22.61	-33.9	-35.1	19.8	0.00e+00	0	55	0	839909376	39	4120
2026-01-08 01:09:46.83	34.09	22.74	-33.9	-35.0	19.9	0.00e+00	0	55	0	845152256	39	4078
2026-01-08 01:09:47.84	34.21	22.88	-33.8	-35.0	19.9	0.00e+00	0	55	0	851443712	39	4074
2026-01-08 01:09:48.85	34.33	23.01	-33.7	-34.8	20.1	0.00e+00	0	55	0	856686592	39	4003
2026-01-08 01:09:49.86	34.45	23.14	-33.7	-34.8	20.1	0.00e+00	0	55	0	862978048	39	3982
2026-01-08 01:09:50.87	34.58	23.28	-33.6	-34.8	20.2	0.00e+00	0	55	0	868220928	39	3970
2026-01-08 01:09:51.88	34.70	23.41	-33.6	-34.7	20.2	0.00e+00	0	55	0	873463808	39	3952
2026-01-08 01:09:52.89	34.83	23.55	-33.6	-34.7	20.2	0.00e+00	0	55	0	879755264	39	3943
2026-01-08 01:09:53.89	34.95	23.68	-33.6	-34.7	20.2	0.00e+00	0	55	0	884998144	39	3951
2026-01-08 01:09:54.90	35.08	23.82	-33.6	-34.7	20.2	0.00e+00	0	55	0	890241024	39	3936
2026-01-08 01:09:55.91	35.20	23.96	-33.6	-34.7	20.3	0.00e+00	0	55	0	896532480	39	3929
2026-01-08 01:09:56.92	35.33	24.10	-33.5	-34.6	20.4	0.00e+00	0	55	0	901775360	38	4108
2026-01-08 01:09:57.92	35.46	24.23	-33.4	-34.5	20.4	0.00e+00	0	55	0	908066816	38	4070
2026-01-08 01:09:58.93	35.59	24.37	-33.3	-34.4	20.5	0.00e+00	0	55	0	913309696	38	4025
2026-01-08 01:09:59.94	35.73	24.51	-33.3	-34.4	20.6	0.00e+00	0	55	0	918552576	38	4013
2026-01-08 01:10:00.95	35.86	24.65	-33.2	-34.3	20.6	0.00e+00	0	55	0	924844032	38	4003
2026-01-08 01:10:01.96	35.99	24.80	-33.3	-34.4	20.5	0.00e+00	0	55	0	930086912	38	4051
2026-01-08 01:10:02.96	36.13	24.94	-33.4	-34.5	20.5	0.00e+00	0	55	0	936378368	38	4080
2026-01-08 01:10:03.97	36.27	25.08	-33.4	-34.5	20.4	0.00e+00	0	55	0	941621248	38	4093
2026-01-08 01:10:04.98	36.40	25.22	-33.4	-34.5	20.5	0.00e+00	0	55	0	947912704	38	4057
2026-01-08 01:10:05.99	36.54	25.36	-33.3	-34.4	20.6	0.00e+00	0	55	0	953155584	38	4037
2026-01-08 01:10:07.00	36.68	25.51	-33.3	-34.4	20.6	0.00e+00	0	55	0	958398464	38	4043
2026-01-08 01:10:08.01	36.82	25.65	-33.3	-34.5	20.5	0.00e+00	0	55	0	964689920	38	4064
2026-01-08 01:10:09.02	36.97	25.80	-33.4	-34.5	20.5	0.00e+00	0	55	0	969932800	38	4097
2026-01-08 01:10:10.03	37.11	25.94	-33.4	-34.5	20.5	0.00e+00	0	55	0	976224256	38	4079
2026-01-08 01:10:11.04	37.26	26.09	-33.3	-34.5	20.5	0.00e+00	0	55	0	981467136	38	4056
2026-01-08 01:10:12.05	37.41	26.24	-33.3	-34.4	20.6	0.00e+00	0	55	0	986710016	38	4015
2026-01-08 01:10:13.06	37.55	26.39	-33.2	-34.3	20.7	0.00e+00	0	55	0	993001472	38	3965
2026-01-08 01:10:14.07	37.70	26.53	-33.1	-34.2	20.7	0.00e+00	0	55	0	998244352	38	3954
2026-01-08 01:10:15.08	37.85	26.68	-33.1	-34.2	20.8	0.00e+00	0	55	0	1004535808	38	3951
2026-01-08 01:10:16.09	38.01	26.83	-33.2	-34.3	20.8	0.00e+00	0	55	0	1009778688	38	3959
2026-01-08 01:10:17.10	38.16	26.98	-33.1	-34.2	20.8	0.00e+00	0	55	0	1015021568	38	3925
2026-01-08 01:10:18.11	38.32	27.14	-33.0	-34.1	20.9	0.00e+00	0	55	0	1021313024	38	3897
2026-01-08 01:10:19.11	38.47	27.29	-33.0	-34.1	20.9	0.00e+00	0	55	0	1026555904	38	3895
2026-01-08 01:10:20.12	38.63	27.44	-33.0	-34.1	20.9	0.00e+00	0	55	0	1032847360	38	3876
2026-01-08 01:10:21.13	38.79	27.59	-33.0	-34.1	20.9	0.00e+00	0	55	0	1038090240	38	3896
2026-01-08 01:10:22.14	38.95	27.74	-33.1	-34.2	20.8	0.00e+00	0	55	0	1044381696	38	3928
2026-01-08 01:10:23.15	39.11	27.90	-33.2	-34.3	20.7	0.00e+00	0	55	0	1049624576	38	3988
2026-01-08 01:10:24.16	39.28	28.05	-33.2	-34.3	20.8	0.00e+00	0	55	0	1055916032	38	3986
2026-01-08 01:10:25.17	39.44	28.21	-33.2	-34.3	20.7	0.00e+00	0	56	0	1061158912	38	3982
2026-01-08 01:10:26.18	39.61	28.36	-33.2	-34.3	20.8	0.00e+00	0	55	0	1066401792	38	3975
2026-01-08 01:10:27.18	39.78	28.52	-33.1	-34.3	20.8	0.00e+00	0	55	0	1072693248	38	3962
2026-01-08 01:10:28.19	39.95	28.68	-33.1	-34.2	20.8	0.00e+00	0	55	0	1077936128	38	3948
2026-01-08 01:10:29.20	40.12	28.83	-33.2	-34.3	20.8	0.00e+00	0	55	0	1083179008	38	3973
2026-01-08 01:10:30.21	40.29	28.99	-33.2	-34.3	20.8	0.00e+00	0	55	0	1089470464	38	3962
2026-01-08 01:10:31.22	40.47	29.15	-33.1	-34.2	20.8	0.00e+00	0	56	0	1094713344	38	3940
2026-01-08 01:10:32.22	40.64	29.31	-33.1	-34.2	20.9	0.00e+00	0	55	0	1101004800	38	3921
2026-01-08 01:10:33.23	40.82	29.47	-33.1	-34.1	20.9	0.00e+00	0	55	0	1106247680	38	3913
2026-01-08 01:10:34.24	41.00	29.63	-33.1	-34.1	20.9	0.00e+00	0	56	0	1111490560	38	3909
2026-01-08 01:10:35.25	41.19	29.79	-33.1	-34.1	20.9	0.00e+00	0	55	0	1117782016	38	3912
2026-01-08 01:10:36.27	41.37	29.96	-33.1	-34.2	20.9	0.00e+00	0	55	0	1123024896	38	3939
2026-01-08 01:10:37.27	41.56	30.12	-33.1	-34.2	20.9	0.00e+00	0	56	0	1129316352	38	3932
2026-01-08 01:10:38.28	41.74	30.28	-33.1	-34.2	20.9	0.00e+00	0	56	0	1134559232	38	3920
2026-01-08 01:10:39.29	41.93	30.45	-33.1	-34.2	20.9	0.00e+00	0	55	0	1139802112	38	3915
2026-01-08 01:10:40.30	42.13	30.61	-33.1	-34.1	20.9	0.00e+00	0	56	0	1146093568	38	3913
2026-01-08 01:10:41.31	42.32	30.78	-33.1	-34.2	20.9	0.00e+00	0	55	0	1152385024	38	3937
2026-01-08 01:10:42.32	42.51	30.94	-33.1	-34.2	20.9	0.00e+00	0	55	0	1157627904	38	3940
2026-01-08 01:10:43.33	42.71	31.11	-33.1	-34.2	20.9	0.00e+00	0	56	0	1162870784	38	3940
2026-01-08 01:10:44.34	42.91	31.27	-33.1	-34.2	20.9	0.00e+00	0	55	0	1169162240	38	3915
2026-01-08 01:10:45.35	43.11	31.44	-32.9	-34.0	21.1	0.00e+00	0	55	0	1174405120	37	4066
2026-01-08 01:10:46.36	43.32	31.61	-32.8	-33.8	21.2	0.00e+00	0	55	0	1180696576	37	3981
2026-01-08 01:10:47.37	43.52	31.78	-32.7	-33.8	21.3	0.00e+00	0	56	0	1185939456	37	3985
2026-01-08 01:10:48.38	43.73	31.95	-32.8	-33.8	21.2	0.00e+00	0	56	0	1191182336	37	3992
2026-01-08 01:10:49.39	43.94	32.12	-32.7	-33.9	20.7	0.00e+00	0	55	0	1197473792	37	4016
2026-01-08 01:10:50.40	44.15	32.29	-32.7	-33.9	20.6	0.00e+00	0	56	0	1202716672	37	4016
2026-01-08 01:10:51.41	44.37	32.46	-32.8	-34.0	20.6	0.00e+00	0	56	0	1209008128	37	4053
2026-01-08 01:10:52.42	44.58	32.63	-32.8	-34.0	20.5	0.00e+00	0	56	0	1214251008	37	4076
2026-01-08 01:10:53.43	44.80	32.80	-32.9	-34.1	20.5	0.00e+00	0	55	0	1219493888	37	4110
2026-01-08 01:10:54.43	45.02	32.98	-32.8	-34.0	20.5	0.00e+00	0	55	0	1225785344	37	4095
2026-01-08 01:10:55.44	45.24	33.15	-32.9	-34.1	20.4	0.00e+00	0	56	0	1231028224	37	4121
2026-01-08 01:10:56.45	45.47	33.32	-32.8	-34.0	20.5	0.00e+00	0	56	0	1237319680	37	4071
2026-01-08 01:10:57.46	45.70	33.50	-32.7	-33.9	20.6	0.00e+00	0	56	0	1242562560	37	4042
2026-01-08 01:10:58.47	45.93	33.67	-32.6	-33.8	20.7	0.00e+00	0	55	0	1248854016	37	3983
2026-01-08 01:10:59.48	46.16	33.85	-32.6	-33.8	20.7	0.00e+00	0	55	0	1254096896	37	3967
2026-01-08 01:11:00.50	46.40	34.02	-32.5	-33.7	20.7	0.00e+00	0	56	0	1259339776	37	3952
2026-01-08 01:11:01.50	46.64	34.20	-32.5	-33.8	20.7	0.00e+00	0	56	0	1265631232	37	3959
2026-01-08 01:11:02.51	46.88	34.38	-32.6	-33.8	20.7	0.00e+00	0	55	0	1270874112	37	3981
2026-01-08 01:11:03.52	47.12	34.55	-32.7	-33.9	20.5	0.00e+00	0	56	0	1277165568	37	4049
2026-01-08 01:11:04.53	47.37	34.73	-32.9	-34.1	20.4	0.00e+00	0	56	0	1282408448	37	4122
2026-01-08 01:11:05.54	47.61	34.91	-32.9	-34.2	20.3	0.00e+00	0	56	0	1287651328	37	4164
2026-01-08 01:11:06.55	47.87	35.09	-32.9	-34.2	20.3	0.00e+00	0	56	0	1293942784	37	4159
2026-01-08 01:11:07.56	48.12	35.27	-32.9	-34.1	20.4	0.00e+00	0	56	0	1299185664	37	4123
2026-01-08 01:11:08.56	48.37	35.44	-32.7	-34.0	20.5	0.00e+00	0	55	0	1305477120	37	4054
2026-01-08 01:11:09.58	48.63	35.62	-32.6	-33.8	20.7	0.00e+00	0	56	0	1310720000	37	3978
2026-01-08 01:11:10.59	48.90	35.81	-32.5	-33.6	20.9	0.00e+00	0	56	0	1315962880	37	3908
2026-01-08 01:11:11.60	49.16	35.99	-32.5	-33.6	20.9	0.00e+00	0	56	0	1322254336	36	4130
2026-01-08 01:11:12.61	49.43	36.17	-32.5	-33.6	20.9	0.00e+00	0	56	0	1327497216	36	4137
2026-01-08 01:11:13.61	49.70	36.35	-32.5	-33.7	20.8	0.00e+00	0	56	0	1333788672	36	4165
2026-01-08 01:11:14.62	49.97	36.53	-32.6	-33.8	20.8	0.00e+00	0	56	0	1339031552	36	4197
2026-01-08 01:11:15.63	50.25	36.71	-32.7	-33.9	20.7	0.00e+00	0	56	0	1345323008	36	4249
2026-01-08 01:11:16.64	50.53	36.89	-32.7	-33.9	20.6	0.00e+00	0	56	0	1350565888	36	4278
2026-01-08 01:11:17.65	50.81	37.07	-32.7	-33.9	20.6	0.00e+00	0	56	0	1355808768	36	4290
2026-01-08 01:11:18.66	51.10	37.26	-32.6	-33.8	20.7	0.00e+00	0	56	0	1362100224	36	4223
2026-01-08 01:11:19.67	51.39	37.44	-32.5	-33.7	20.9	0.00e+00	0	56	0	1367343104	36	4156
2026-01-08 01:11:20.68	51.68	37.62	-32.3	-33.5	21.1	0.00e+00	0	56	0	1373634560	36	4064
2026-01-08 01:11:21.69	51.98	37.80	-32.3	-33.4	21.1	0.00e+00	0	56	0	1378877440	36	4034
2026-01-08 01:11:22.70	52.28	37.99	-32.4	-33.5	21.0	0.00e+00	0	56	0	1384120320	36	4081
2026-01-08 01:11:23.71	52.58	38.17	-32.5	-33.7	20.8	0.00e+00	0	56	0	1390411776	36	4186
2026-01-08 01:11:24.72	52.88	38.36	-32.8	-34.0	20.6	0.00e+00	0	56	0	1395654656	36	4305
2026-01-08 01:11:25.72	53.19	38.54	-32.8	-34.0	20.6	0.00e+00	0	56	0	1401946112	36	4328
2026-01-08 01:11:26.73	53.50	38.72	-32.6	-33.8	20.8	0.00e+00	0	56	0	1407188992	36	4207
2026-01-08 01:11:27.74	53.82	38.91	-32.4	-33.5	21.0	0.00e+00	0	56	0	1412431872	36	4091
2026-01-08 01:11:28.75	54.14	39.09	-32.3	-33.5	21.1	0.00e+00	0	56	0	1418723328	36	4060
2026-01-08 01:11:29.76	54.46	39.27	-32.3	-33.5	21.2	0.00e+00	0	56	0	1423966208	36	4054
2026-01-08 01:11:30.77	54.79	39.46	-32.3	-33.4	21.2	0.00e+00	0	56	0	1430257664	36	4033
2026-01-08 01:11:31.78	55.12	39.64	-32.5	-33.6	21.0	0.00e+00	0	56	0	1435500544	36	4124
2026-01-08 01:11:32.79	55.46	39.82	-32.8	-34.0	20.7	0.00e+00	0	56	0	1441792000	36	4298
2026-01-08 01:11:33.79	55.79	40.01	-33.0	-34.3	20.4	0.00e+00	0	56	0	1447034880	36	4462
2026-01-08 01:11:34.80	56.13	40.19	-33.1	-34.3	20.4	0.00e+00	0	56	0	1452277760	36	4469
2026-01-08 01:11:35.81	56.48	40.37	-32.9	-34.1	20.5	0.00e+00	0	55	0	1458569216	36	4390
2026-01-08 01:11:36.82	56.83	40.56	-32.7	-33.9	20.7	0.00e+00	0	56	0	1463812096	36	4284
2026-01-08 01:11:37.83	57.18	40.74	-32.7	-33.8	20.8	0.00e+00	0	56	0	1470103552	36	4240
2026-01-08 01:11:38.84	57.54	40.92	-32.6	-33.8	20.9	0.00e+00	0	56	0	1475346432	36	4206
2026-01-08 01:11:39.85	57.90	41.10	-32.6	-33.8	20.8	0.00e+00	0	56	0	1480589312	36	4212
2026-01-08 01:11:40.86	58.27	41.29	-32.8	-34.0	20.7	0.00e+00	0	56	0	1486880768	36	4308
2026-01-08 01:11:41.87	58.64	41.47	-32.9	-34.1	20.5	0.00e+00	0	56	0	1492123648	36	4381
2026-01-08 01:11:42.88	59.01	41.65	-32.9	-34.1	20.6	0.00e+00	0	56	0	1498415104	36	4351
2026-01-08 01:11:43.89	59.39	41.83	-32.7	-33.9	20.7	0.00e+00	0	56	0	1503657984	36	4283
2026-01-08 01:11:44.90	59.77	42.01	-32.7	-33.9	20.7	0.00e+00	0	56	0	1508900864	36	4278
2026-01-08 01:11:45.91	60.16	42.19	-32.8	-34.0	20.7	0.00e+00	0	56	0	1515192320	36	4306
2026-01-08 01:11:46.92	60.55	42.37	-32.7	-33.9	20.8	0.00e+00	0	56	0	1520435200	36	4282
2026-01-08 01:11:47.93	60.94	42.55	-32.7	-33.8	20.8	0.00e+00	0	56	0	1526726656	36	4227
2026-01-08 01:11:48.93	61.34	42.72	-32.6	-33.8	20.8	0.00e+00	0	56	0	1531969536	36	4213
2026-01-08 01:11:49.94	61.74	42.90	-32.7	-33.9	20.7	0.00e+00	0	56	0	1538260992	36	4270
2026-01-08 01:11:50.95	62.15	43.08	-32.8	-34.0	20.7	0.00e+00	0	56	0	1543503872	36	4303
2026-01-08 01:11:51.96	62.56	43.25	-32.9	-34.0	20.6	0.00e+00	0	56	0	1549795328	36	4331
2026-01-08 01:11:52.97	62.98	43.43	-32.8	-34.0	20.7	0.00e+00	0	56	0	1555038208	36	4309
2026-01-08 01:11:53.98	63.40	43.60	-32.8	-34.0	20.7	0.00e+00	0	56	0	1560281088	36	4301
2026-01-08 01:11:54.99	63.83	43.77	-32.8	-34.0	20.7	0.00e+00	0	56	0	1566572544	36	4302
2026-01-08 01:11:56.00	64.26	43.95	-32.8	-34.0	20.7	0.00e+00	0	56	0	1571815424	36	4323
2026-01-08 01:11:57.01	64.70	44.12	-32.9	-34.1	20.7	0.00e+00	0	56	0	1578106880	36	4341
2026-01-08 01:11:58.02	65.14	44.29	-33.0	-34.2	20.6	0.00e+00	0	56	0	1583349760	36	4393
2026-01-08 01:11:59.03	65.58	44.46	-33.1	-34.4	20.4	0.00e+00	0	56	0	1588592640	36	4494
2026-01-08 01:12:00.04	66.03	44.62	-33.2	-34.4	20.4	0.00e+00	0	56	0	1594884096	36	4519
2026-01-08 01:12:01.03	66.48	44.79	-33.0	-34.2	20.5	0.00e+00	0	56	0	1600126976	36	4421
2026-01-08 01:12:02.04	66.94	44.95	-32.9	-34.1	20.6	0.00e+00	0	56	0	1605369856	36	4357
2026-01-08 01:12:03.05	67.40	45.12	-33.0	-34.2	20.5	0.00e+00	0	56	0	1611661312	36	4392
2026-01-08 01:12:04.06	67.87	45.28	-33.1	-34.3	20.4	0.00e+00	0	56	0	1616904192	36	4471
2026-01-08 01:12:05.07	68.34	45.44	-33.2	-34.4	20.3	0.00e+00	0	56	0	1623195648	36	4527
2026-01-08 01:12:06.08	68.82	45.60	-33.2	-34.4	20.4	0.00e+00	0	56	0	1628438528	36	4512
2026-01-08 01:12:07.09	69.30	45.76	-33.1	-34.3	20.4	0.00e+00	0	56	0	1634729984	36	4479
2026-01-08 01:12:08.10	69.79	45.92	-33.0	-34.2	20.5	0.00e+00	0	56	0	1639972864	36	4426
2026-01-08 01:12:09.11	70.28	46.07	-33.0	-34.2	20.6	0.00e+00	0	56	0	1646264320	36	4414
2026-01-08 01:12:10.12	70.78	46.22	-33.2	-34.4	20.4	0.00e+00	0	56	0	1651507200	36	4498
2026-01-08 01:12:11.13	71.28	46.38	-33.1	-34.3	20.6	0.00e+00	0	56	0	1656750080	36	4443
2026-01-08 01:12:12.14	71.79	46.53	-32.9	-34.0	20.8	0.00e+00	0	56	0	1663041536	36	4329
2026-01-08 01:12:13.15	72.30	46.67	-32.8	-33.9	20.9	0.00e+00	0	56	0	1668284416	36	4291
2026-01-08 01:12:14.15	72.81	46.82	-32.7	-33.9	21.0	0.00e+00	0	56	0	1673527296	36	4251
2026-01-08 01:12:15.16	73.33	46.96	-32.8	-34.0	20.9	0.00e+00	0	56	0	1679818752	36	4296
2026-01-08 01:12:16.17	73.86	47.10	-33.1	-34.3	20.6	0.00e+00	0	56	0	1685061632	36	4454
2026-01-08 01:12:17.18	74.39	47.24	-33.1	-34.3	20.6	0.00e+00	0	56	0	1691353088	36	4447
2026-01-08 01:12:18.19	74.93	47.38	-33.0	-34.1	20.7	0.00e+00	0	56	0	1696595968	36	4387
2026-01-08 01:12:19.20	75.47	47.52	-33.1	-34.3	20.5	0.00e+00	0	56	0	1701838848	36	4467
2026-01-08 01:12:20.21	76.01	47.65	-33.1	-34.3	20.5	0.00e+00	0	56	0	1708130304	36	4446
2026-01-08 01:12:21.22	76.56	47.78	-32.9	-34.0	20.8	0.00e+00	0	56	0	1713373184	36	4320
2026-01-08 01:12:22.23	77.11	47.91	-32.8	-34.0	20.8	0.00e+00	0	56	0	1719664640	36	4299
2026-01-08 01:12:23.24	77.67	48.03	-32.9	-34.1	20.7	0.00e+00	0	56	0	1724907520	36	4376
2026-01-08 01:12:24.25	78.24	48.16	-32.9	-34.1	20.7	0.00e+00	0	56	0	1731198976	36	4363
2026-01-08 01:12:25.25	78.80	48.28	-32.9	-34.1	20.7	0.00e+00	0	56	0	1736441856	36	4366
2026-01-08 01:12:26.26	79.37	48.39	-32.9	-34.1	20.8	0.00e+00	0	56	0	1742733312	36	4371
2026-01-08 01:12:27.28	79.95	48.51	-33.0	-34.2	20.7	0.00e+00	0	56	0	1747976192	36	4395
2026-01-08 01:12:28.28	80.53	48.62	-33.0	-34.2	20.7	0.00e+00	0	56	0	1753219072	36	4394
2026-01-08 01:12:29.29	81.11	48.73	-33.0	-34.2	20.7	0.00e+00	0	56	0	1759510528	36	4418
2026-01-08 01:12:30.30	81.70	48.84	-33.1	-34.3	20.6	0.00e+00	0	56	0	1764753408	36	4445
2026-01-08 01:12:31.31	82.29	48.94	-33.0	-34.2	20.7	0.00e+00	0	56	0	1771044864	36	4396
2026-01-08 01:12:32.32	82.89	49.04	-33.0	-34.1	20.7	0.00e+00	0	56	0	1776287744	36	4376
2026-01-08 01:12:33.33	83.49	49.14	-33.0	-34.2	20.7	0.00e+00	0	56	0	1781530624	36	4413
2026-01-08 01:12:34.34	84.09	49.23	-33.1	-34.3	20.5	0.00e+00	0	56	0	1787822080	36	4485
2026-01-08 01:12:35.35	84.70	49.33	-33.2	-34.4	20.4	0.00e+00	0	56	0	1793064960	36	4513
2026-01-08 01:12:36.36	85.31	49.41	-33.1	-34.4	20.5	0.00e+00	0	56	0	1799356416	36	4495
2026-01-08 01:12:37.37	85.93	49.50	-32.9	-34.1	20.7	0.00e+00	0	56	0	1804599296	36	4358
2026-01-08 01:12:38.38	86.54	49.58	-32.9	-34.1	20.7	0.00e+00	0	56	0	1809842176	36	4361
2026-01-08 01:12:39.39	87.17	49.66	-33.1	-34.3	20.5	0.00e+00	0	56	0	1816133632	36	4487
2026-01-08 01:12:40.40	87.79	49.73	-33.2	-34.4	20.4	0.00e+00	0	56	0	1821376512	37	4269
2026-01-08 01:12:41.41	88.42	49.80	-33.0	-34.1	20.7	0.00e+00	0	56	0	1827667968	37	4138
2026-01-08 01:12:42.42	89.05	49.87	-32.9	-34.0	20.8	0.00e+00	0	56	0	1832910848	37	4097
2026-01-08 01:12:43.43	89.68	49.94	-32.8	-34.0	20.9	0.00e+00	0	56	0	1839202304	37	4058
2026-01-08 01:12:44.44	90.32	50.00	-32.8	-34.0	20.9	0.00e+00	0	56	0	1844445184	37	4064
2026-01-08 01:12:45.45	90.96	50.05	-33.2	-34.4	20.5	0.00e+00	0	56	0	1849688064	37	4251
2026-01-08 01:12:46.46	91.60	50.11	-33.3	-34.5	20.4	0.00e+00	0	56	0	1855979520	37	4298
2026-01-08 01:12:47.47	92.24	50.16	-33.1	-34.3	20.5	0.00e+00	0	56	0	1861222400	37	4210
2026-01-08 01:12:48.47	92.88	50.20	-33.2	-34.4	20.4	0.00e+00	0	56	0	1867513856	37	4268
2026-01-08 01:12:49.49	93.53	50.25	-33.4	-34.6	20.2	0.00e+00	0	56	0	1872756736	37	4385
2026-01-08 01:12:50.49	94.17	50.28	-33.1	-34.3	20.5	0.00e+00	0	56	0	1877999616	37	4236
2026-01-08 01:12:51.50	94.82	50.32	-32.8	-34.0	20.9	0.00e+00	0	56	0	1884291072	37	4058
2026-01-08 01:12:52.52	95.48	50.35	-32.8	-33.9	20.9	0.00e+00	0	56	0	1889533952	37	4035
2026-01-08 01:12:53.52	96.13	50.38	-32.9	-34.1	20.7	0.00e+00	0	56	0	1895825408	37	4116
2026-01-08 01:12:54.53	96.78	50.40	-33.1	-34.2	20.6	0.00e+00	0	56	0	1901068288	37	4179
2026-01-08 01:12:55.54	97.44	50.42	-33.3	-34.5	20.4	0.00e+00	0	56	0	1906311168	37	4295
2026-01-08 01:12:56.55	98.09	50.44	-33.3	-34.5	20.3	0.00e+00	0	56	0	1912602624	37	4337
2026-01-08 01:12:57.56	98.75	50.45	-33.1	-34.3	20.5	0.00e+00	0	56	0	1917845504	37	4224
2026-01-08 01:12:58.56	99.40	50.45	-33.0	-34.2	20.6	0.00e+00	0	56	0	1924136960	37	4166
2026-01-08 01:12:59.57	100.06	50.46	-33.1	-34.3	20.6	0.00e+00	0	56	0	1929379840	37	4202
2026-01-08 01:13:00.59	100.72	50.46	-33.2	-34.3	20.5	0.00e+00	0	56	0	1935671296	37	4239
2026-01-08 01:13:01.60	101.38	50.45	-33.2	-34.4	20.5	0.00e+00	0	56	0	1940914176	37	4259
2026-01-08 01:13:02.61	102.03	50.45	-33.0	-34.2	20.6	0.00e+00	0	56	0	1947205632	37	4183
2026-01-08 01:13:03.61	102.68	50.44	-32.9	-34.0	20.8	0.00e+00	0	56	0	1952448512	37	4083
2026-01-08 01:13:04.63	103.34	50.42	-32.9	-34.0	20.8	0.00e+00	0	56	0	1957691392	37	4089
2026-01-08 01:13:05.63	103.99	50.40	-33.1	-34.3	20.6	0.00e+00	0	56	0	1963982848	37	4225
2026-01-08 01:13:06.65	104.65	50.38	-33.2	-34.4	20.4	0.00e+00	0	56	0	1969225728	37	4285
2026-01-08 01:13:07.66	105.31	50.35	-33.1	-34.3	20.5	0.00e+00	0	56	0	1975517184	37	4237
2026-01-08 01:13:08.66	105.95	50.32	-33.0	-34.2	20.6	0.00e+00	0	56	0	1980760064	37	4169
2026-01-08 01:13:09.68	106.61	50.28	-32.9	-34.0	20.8	0.00e+00	0	56	0	1986002944	37	4081
2026-01-08 01:13:10.69	107.26	50.24	-32.8	-33.9	20.9	0.00e+00	0	56	0	1992294400	37	4045
2026-01-08 01:13:11.70	107.90	50.20	-33.0	-34.2	20.7	0.00e+00	0	56	0	1997537280	37	4155
2026-01-08 01:13:12.71	108.55	50.16	-33.0	-34.2	20.6	0.00e+00	0	56	0	2003828736	37	4171
2026-01-08 01:13:13.72	109.19	50.11	-33.0	-34.1	20.7	0.00e+00	0	56	0	2009071616	37	4123
2026-01-08 01:13:14.72	109.83	50.05	-33.1	-34.3	20.6	0.00e+00	0	56	0	2014314496	37	4206
2026-01-08 01:13:15.74	110.47	50.00	-33.3	-34.5	20.4	0.00e+00	0	56	0	2020605952	37	4301
2026-01-08 01:13:16.75	111.11	49.93	-33.2	-34.5	20.4	0.00e+00	0	56	0	2025848832	37	4294
2026-01-08 01:13:17.75	111.74	49.87	-33.0	-34.2	20.6	0.00e+00	0	56	0	2032140288	37	4185
2026-01-08 01:13:18.76	112.37	49.80	-32.9	-34.1	20.7	0.00e+00	0	56	0	2037383168	37	4129
2026-01-08 01:13:19.77	113.00	49.73	-32.9	-34.0	20.7	0.00e+00	0	56	0	2043674624	37	4090
2026-01-08 01:13:20.78	113.62	49.66	-32.8	-34.0	20.8	0.00e+00	0	56	0	2048917504	37	4074
2026-01-08 01:13:21.80	114.25	49.58	-32.8	-34.0	20.8	0.00e+00	0	56	0	2054160384	37	4078
2026-01-08 01:13:22.81	114.87	49.50	-33.0	-34.2	20.6	0.00e+00	0	56	0	2060451840	37	4173
2026-01-08 01:13:23.82	115.49	49.41	-33.3	-34.5	20.3	0.00e+00	0	56	0	2065694720	37	4309
2026-01-08 01:13:24.82	116.09	49.32	-33.5	-34.7	20.1	0.00e+00	0	56	0	2071986176	37	4427
2026-01-08 01:13:25.83	116.70	49.23	-33.4	-34.6	20.2	0.00e+00	0	56	0	2077229056	37	4360
2026-01-08 01:13:26.84	117.31	49.14	-33.2	-34.4	20.5	0.00e+00	0	56	0	2082471936	37	4260
2026-01-08 01:13:27.85	117.91	49.04	-33.1	-34.3	20.5	0.00e+00	0	56	0	2088763392	37	4231
2026-01-08 01:13:28.86	118.50	48.94	-33.1	-34.3	20.6	0.00e+00	0	56	0	2094006272	37	4198
2026-01-08 01:13:29.87	119.10	48.83	-33.1	-34.3	20.5	0.00e+00	0	56	0	2100297728	37	4198
2026-01-08 01:13:30.88	119.69	48.73	-33.3	-34.5	20.4	0.00e+00	0	56	0	2105540608	37	4309
2026-01-08 01:13:31.89	120.27	48.62	-33.3	-34.5	20.3	0.00e+00	0	56	0	2110783488	37	4328
2026-01-08 01:13:32.90	120.85	48.50	-33.1	-34.3	20.5	0.00e+00	0	56	0	2117074944	37	4230
2026-01-08 01:13:33.91	121.43	48.39	-33.1	-34.2	20.6	0.00e+00	0	56	0	2122317824	37	4190
2026-01-08 01:13:34.92	122.00	48.27	-33.2	-34.3	20.5	0.00e+00	0	56	0	2128609280	37	4239
2026-01-08 01:13:35.93	122.57	48.15	-33.4	-34.6	20.3	0.00e+00	0	56	0	2133852160	37	4386
2026-01-08 01:13:36.94	123.14	48.03	-33.4	-34.7	20.2	0.00e+00	0	56	0	2140143616	37	4396
2026-01-08 01:13:37.95	123.70	47.90	-33.3	-34.5	20.3	0.00e+00	0	56	0	2145386496	37	4321
2026-01-08 01:13:38.96	124.25	47.77	-33.1	-34.2	20.5	0.00e+00	0	56	0	2151677952	37	4193
2026-01-08 01:13:39.98	124.81	47.64	-32.9	-34.1	20.7	0.00e+00	0	56	0	2156920832	37	4124
2026-01-08 01:13:40.99	125.35	47.50	-33.0	-34.1	20.7	0.00e+00	0	56	0	2162163712	37	4142
2026-01-08 01:13:41.99	125.89	47.37	-32.9	-34.1	20.7	0.00e+00	0	56	0	2168455168	37	4121
2026-01-08 01:13:43.00	126.42	47.23	-32.8	-33.9	20.8	0.00e+00	0	56	0	2173698048	37	4045
2026-01-08 01:13:44.01	126.96	47.09	-32.7	-33.9	20.9	0.00e+00	0	56	0	2179989504	37	4015
2026-01-08 01:13:45.02	127.48	46.95	-33.0	-34.1	20.6	0.00e+00	0	56	0	2185232384	37	4143
2026-01-08 01:13:46.03	128.01	46.81	-33.2	-34.4	20.4	0.00e+00	0	56	0	2190475264	37	4253
2026-01-08 01:13:47.04	128.52	46.66	-33.1	-34.4	20.4	0.00e+00	0	56	0	2196766720	37	4248
2026-01-08 01:13:48.05	129.04	46.51	-33.1	-34.3	20.4	0.00e+00	0	56	0	2202009600	37	4214
2026-01-08 01:13:49.06	129.54	46.36	-33.1	-34.3	20.5	0.00e+00	0	56	0	2208301056	37	4204
2026-01-08 01:13:50.07	130.05	46.21	-33.0	-34.1	20.6	0.00e+00	0	56	0	2213543936	37	4135
2026-01-08 01:13:51.08	130.55	46.05	-32.9	-34.0	20.7	0.00e+00	0	56	0	2218786816	37	4088
2026-01-08 01:13:52.09	131.04	45.90	-32.8	-34.0	20.7	0.00e+00	0	56	0	2225078272	37	4083
2026-01-08 01:13:53.10	131.53	45.74	-32.9	-34.1	20.7	0.00e+00	0	56	0	2230321152	37	4101
2026-01-08 01:13:54.11	132.01	45.58	-32.9	-34.1	20.6	0.00e+00	0	56	0	2236612608	37	4136
2026-01-08 01:13:55.12	132.49	45.42	-33.1	-34.3	20.5	0.00e+00	0	56	0	2241855488	37	4204
2026-01-08 01:13:56.13	132.96	45.26	-33.2	-34.4	20.4	0.00e+00	0	56	0	2248146944	37	4269
2026-01-08 01:13:57.14	133.43	45.10	-33.2	-34.4	20.4	0.00e+00	0	56	0	2253389824	37	4261
2026-01-08 01:13:58.15	133.90	44.93	-33.2	-34.4	20.4	0.00e+00	0	56	0	2258632704	37	4253
2026-01-08 01:13:59.16	134.36	44.76	-33.2	-34.4	20.4	0.00e+00	0	56	0	2264924160	37	4269
2026-01-08 01:14:00.17	134.81	44.60	-33.4	-34.6	20.1	0.00e+00	0	56	0	2270167040	37	4391
2026-01-08 01:14:01.18	135.26	44.43	-33.5	-34.8	20.0	0.00e+00	0	56	0	2276458496	37	4462
2026-01-08 01:14:02.19	135.71	44.26	-33.3	-34.5	20.2	0.00e+00	0	56	0	2281701376	37	4337
2026-01-08 01:14:03.20	136.15	44.09	-33.1	-34.4	20.3	0.00e+00	0	56	0	2286944256	37	4258
2026-01-08 01:14:04.21	136.59	43.92	-33.1	-34.3	20.3	0.00e+00	0	56	0	2293235712	37	4230
2026-01-08 01:14:05.22	137.02	43.74	-33.1	-34.3	20.3	0.00e+00	0	56	0	2298478592	37	4228
2026-01-08 01:14:06.22	137.44	43.57	-33.0	-34.2	20.5	0.00e+00	0	56	0	2304770048	37	4176
2026-01-08 01:14:07.23	137.86	43.40	-32.9	-34.1	20.6	0.00e+00	0	56	0	2310012928	37	4102
2026-01-08 01:14:08.24	138.28	43.22	-32.9	-34.1	20.6	0.00e+00	0	56	0	2315255808	37	4105
2026-01-08 01:14:09.25	138.70	43.04	-33.1	-34.3	20.4	0.00e+00	0	56	0	2321547264	37	4230
2026-01-08 01:14:10.26	139.11	42.87	-33.3	-34.6	20.2	0.00e+00	0	56	0	2326790144	37	4364
2026-01-08 01:14:11.27	139.51	42.69	-33.4	-34.6	20.1	0.00e+00	0	56	0	2333081600	37	4379
2026-01-08 01:14:12.28	139.91	42.51	-33.2	-34.4	20.3	0.00e+00	0	56	0	2338324480	37	4284
2026-01-08 01:14:13.29	140.31	42.33	-33.0	-34.2	20.5	0.00e+00	0	56	0	2344615936	37	4158
2026-01-08 01:14:14.30	140.70	42.15	-32.9	-34.1	20.5	0.00e+00	0	56	0	2349858816	37	4124
2026-01-08 01:14:15.31	141.09	41.97	-32.9	-34.1	20.5	0.00e+00	0	56	0	2356150272	37	4136
2026-01-08 01:14:16.31	141.46	41.79	-33.0	-34.2	20.4	0.00e+00	0	56	0	2361393152	37	4175
2026-01-08 01:14:17.33	141.85	41.61	-33.1	-34.3	20.3	0.00e+00	0	56	0	2366636032	37	4238
2026-01-08 01:14:18.33	142.22	41.43	-33.0	-34.3	20.3	0.00e+00	0	56	0	2372927488	37	4217
2026-01-08 01:14:19.34	142.59	41.24	-32.9	-34.2	20.5	0.00e+00	0	56	0	2378170368	37	4151
2026-01-08 01:14:20.35	142.95	41.06	-32.8	-34.0	20.6	0.00e+00	0	56	0	2383413248	37	4063
2026-01-08 01:14:21.36	143.32	40.88	-32.7	-33.8	20.8	0.00e+00	0	56	0	2389704704	37	3998
2026-01-08 01:14:22.37	143.68	40.69	-32.7	-33.9	20.7	0.00e+00	0	56	0	2394947584	37	4034
2026-01-08 01:14:23.38	144.03	40.51	-32.8	-34.0	20.7	0.00e+00	0	56	0	2401239040	37	4088
2026-01-08 01:14:24.39	144.38	40.32	-32.8	-34.0	20.6	0.00e+00	0	56	0	2406481920	37	4095
2026-01-08 01:14:25.40	144.73	40.14	-32.8	-33.9	20.7	0.00e+00	0	56	0	2411724800	37	4048
2026-01-08 01:14:26.41	145.07	39.96	-32.6	-33.8	20.8	0.00e+00	0	56	0	2418016256	37	3992
2026-01-08 01:14:27.42	145.41	39.77	-32.6	-33.8	20.8	0.00e+00	0	56	0	2423259136	37	3983
2026-01-08 01:14:28.43	145.74	39.59	-32.6	-33.8	20.8	0.00e+00	0	56	0	2429550592	37	3989
2026-01-08 01:14:29.43	146.07	39.40	-32.7	-33.9	20.8	0.00e+00	0	56	0	2434793472	37	4018
2026-01-08 01:14:30.45	146.40	39.22	-32.8	-33.9	20.7	0.00e+00	0	56	0	2441084928	37	4050
2026-01-08 01:14:31.46	146.73	39.03	-32.8	-34.0	20.7	0.00e+00	0	56	0	2446327808	37	4063
2026-01-08 01:14:32.47	147.05	38.85	-32.7	-33.9	20.7	0.00e+00	0	56	0	2452619264	37	4037
2026-01-08 01:14:33.47	147.36	38.66	-32.7	-33.9	20.7	0.00e+00	0	56	0	2457862144	37	4049
2026-01-08 01:14:34.48	147.67	38.48	-32.8	-34.0	20.7	0.00e+00	0	57	0	2463105024	37	4064
2026-01-08 01:14:35.49	147.98	38.29	-32.7	-33.9	20.7	0.00e+00	0	56	0	2469396480	37	4045
2026-01-08 01:14:36.50	148.29	38.11	-32.6	-33.8	20.8	0.00e+00	0	56	0	2474639360	37	3983
2026-01-08 01:14:37.51	148.59	37.92	-32.5	-33.6	20.9	0.00e+00	0	56	0	2480930816	36	4130
2026-01-08 01:14:38.52	148.89	37.74	-32.4	-33.6	21.0	0.00e+00	0	56	0	2486173696	36	4102
2026-01-08 01:14:39.53	149.19	37.56	-32.4	-33.5	21.0	0.00e+00	0	56	0	2491416576	36	4093
2026-01-08 01:14:40.54	149.48	37.37	-32.5	-33.7	20.9	0.00e+00	0	56	0	2497708032	36	4174
2026-01-08 01:14:41.55	149.77	37.19	-32.6	-33.8	20.8	0.00e+00	0	56	0	2502950912	36	4230
2026-01-08 01:14:42.56	150.06	37.00	-32.7	-33.9	20.7	0.00e+00	0	56	0	2509242368	36	4280
2026-01-08 01:14:43.57	150.34	36.82	-32.8	-34.0	20.7	0.00e+00	0	56	0	2514485248	36	4295
2026-01-08 01:14:44.58	150.62	36.64	-32.7	-33.9	20.7	0.00e+00	0	56	0	2519728128	36	4279
2026-01-08 01:14:45.58	150.90	36.46	-32.6	-33.8	20.8	0.00e+00	0	56	0	2526019584	36	4227
2026-01-08 01:14:46.59	151.17	36.27	-32.5	-33.7	20.9	0.00e+00	0	56	0	2531262464	36	4168
2026-01-08 01:14:47.60	151.44	36.09	-32.5	-33.6	21.0	0.00e+00	0	56	0	2537553920	36	4144
2026-01-08 01:14:48.61	151.71	35.91	-32.5	-33.7	20.9	0.00e+00	0	56	0	2542796800	36	4170
2026-01-08 01:14:49.62	151.98	35.73	-32.7	-33.8	20.8	0.00e+00	0	56	0	2548039680	36	4234
2026-01-08 01:14:50.63	152.24	35.55	-32.8	-34.0	20.6	0.00e+00	0	56	0	2554331136	36	4299
2026-01-08 01:14:51.64	152.50	35.37	-32.9	-34.1	20.5	0.00e+00	0	56	0	2559574016	36	4372
2026-01-08 01:14:52.65	152.75	35.19	-32.9	-34.1	20.5	0.00e+00	0	56	0	2565865472	36	4381
2026-01-08 01:14:53.66	153.01	35.01	-32.9	-34.1	20.5	0.00e+00	0	56	0	2571108352	36	4355
2026-01-08 01:14:54.66	153.26	34.83	-32.8	-34.0	20.6	0.00e+00	0	56	0	2577399808	36	4314
2026-01-08 01:14:55.67	153.51	34.65	-32.7	-33.9	20.6	0.00e+00	0	56	0	2582642688	36	4277
2026-01-08 01:14:56.68	153.75	34.47	-32.7	-33.9	20.7	0.00e+00	0	56	0	2587885568	36	4250
2026-01-08 01:14:57.69	153.99	34.29	-32.7	-33.9	20.7	0.00e+00	0	56	0	2594177024	36	4255
2026-01-08 01:14:58.70	154.24	34.11	-32.7	-33.9	20.6	0.00e+00	0	56	0	2599419904	36	4270
2026-01-08 01:14:59.71	154.47	33.94	-32.8	-34.0	20.6	0.00e+00	0	56	0	2605711360	36	4298
2026-01-08 01:15:00.72	154.71	33.76	-32.8	-34.0	20.6	0.00e+00	0	56	0	2610954240	36	4309
2026-01-08 01:15:01.73	154.94	33.58	-32.8	-34.0	20.6	0.00e+00	0	56	0	2616197120	36	4318
2026-01-08 01:15:02.74	155.17	33.41	-32.8	-34.0	20.6	0.00e+00	0	56	0	2622488576	36	4309
2026-01-08 01:15:03.75	155.40	33.23	-32.8	-34.0	20.6	0.00e+00	0	56	0	2627731456	36	4304
2026-01-08 01:15:04.76	155.63	33.06	-32.8	-34.0	20.6	0.00e+00	0	56	0	2634022912	36	4299
2026-01-08 01:15:05.77	155.85	32.88	-32.8	-34.0	20.5	0.00e+00	0	56	0	2639265792	36	4325
2026-01-08 01:15:06.78	156.07	32.71	-32.9	-34.1	20.4	0.00e+00	0	56	0	2644508672	36	4367
2026-01-08 01:15:07.79	156.29	32.54	-33.0	-34.2	20.4	0.00e+00	0	56	0	2650800128	36	4424
2026-01-08 01:15:08.80	156.51	32.36	-33.0	-34.3	20.3	0.00e+00	0	56	0	2656043008	36	4443
2026-01-08 01:15:09.81	156.72	32.19	-33.1	-34.3	20.2	0.00e+00	0	56	0	2662334464	36	4472
2026-01-08 01:15:10.82	156.93	32.02	-33.1	-34.4	20.2	0.00e+00	0	56	0	2667577344	36	4509
2026-01-08 01:15:11.83	157.14	31.85	-33.2	-34.5	20.0	0.00e+00	0	56	0	2673868800	36	4570
2026-01-08 01:15:12.84	157.35	31.68	-33.3	-34.6	19.9	0.00e+00	0	56	0	2679111680	37	4347
2026-01-08 01:15:13.84	157.56	31.51	-33.3	-34.6	19.9	0.00e+00	0	56	0	2684354560	37	4374
2026-01-08 01:15:14.85	157.76	31.34	-33.4	-34.7	19.8	0.00e+00	0	56	0	2690646016	37	4412
2026-01-08 01:15:15.86	157.96	31.17	-33.4	-34.7	19.8	0.00e+00	0	56	0	2695888896	37	4404
2026-01-08 01:15:16.87	158.16	31.01	-33.4	-34.7	19.9	0.00e+00	0	56	0	2702180352	37	4398
2026-01-08 01:15:17.88	158.36	30.84	-33.3	-34.6	19.9	0.00e+00	0	56	0	2707423232	37	4381
2026-01-08 01:15:18.89	158.55	30.67	-33.4	-34.7	19.9	0.00e+00	0	56	0	2712666112	37	4394
2026-01-08 01:15:19.90	158.75	30.51	-33.3	-34.6	19.9	0.00e+00	0	56	0	2718957568	37	4383
2026-01-08 01:15:20.91	158.94	30.34	-33.3	-34.6	19.9	0.00e+00	0	56	0	2724200448	37	4360
2026-01-08 01:15:21.92	159.13	30.17	-33.3	-34.6	19.9	0.00e+00	0	56	0	2730491904	37	4367
2026-01-08 01:15:22.93	159.32	30.01	-33.3	-34.6	19.9	0.00e+00	0	56	0	2735734784	37	4379
2026-01-08 01:15:23.94	159.50	29.85	-33.3	-34.6	19.9	0.00e+00	0	56	0	2740977664	37	4373
2026-01-08 01:15:24.94	159.69	29.68	-33.4	-34.7	19.9	0.00e+00	0	56	0	2747269120	37	4394
2026-01-08 01:15:25.95	159.87	29.52	-33.4	-34.7	19.8	0.00e+00	0	56	0	2752512000	37	4439
2026-01-08 01:15:26.96	160.05	29.36	-33.4	-34.7	19.8	0.00e+00	0	56	0	2758803456	37	4432
2026-01-08 01:15:27.97	160.23	29.20	-33.4	-34.7	19.8	0.00e+00	0	56	0	2764046336	37	4435
2026-01-08 01:15:28.97	160.40	29.04	-33.4	-34.7	19.8	0.00e+00	0	56	0	2770337792	37	4424
2026-01-08 01:15:29.98	160.58	28.88	-33.4	-34.6	19.9	0.00e+00	0	56	0	2775580672	37	4384
2026-01-08 01:15:30.99	160.75	28.72	-33.3	-34.6	19.9	0.00e+00	0	56	0	2780823552	37	4372
2026-01-08 01:15:32.00	160.92	28.56	-33.3	-34.6	20.0	0.00e+00	0	56	0	2787115008	37	4346
2026-01-08 01:15:33.01	161.09	28.40	-33.3	-34.6	20.0	0.00e+00	0	56	0	2792357888	37	4341
2026-01-08 01:15:34.02	161.26	28.25	-33.3	-34.6	20.0	0.00e+00	0	56	0	2798649344	37	4346
2026-01-08 01:15:35.03	161.43	28.09	-33.2	-34.5	20.0	0.00e+00	0	56	0	2803892224	37	4319
2026-01-08 01:15:36.04	161.60	27.93	-33.2	-34.5	20.0	0.00e+00	0	56	0	2809135104	37	4315
2026-01-08 01:15:37.05	161.76	27.78	-33.2	-34.5	20.1	0.00e+00	0	56	0	2815426560	37	4303
2026-01-08 01:15:38.06	161.92	27.62	-33.2	-34.5	20.1	0.00e+00	0	56	0	2820669440	37	4309
2026-01-08 01:15:39.07	162.08	27.47	-33.2	-34.5	20.1	0.00e+00	0	57	0	2826960896	37	4307
2026-01-08 01:15:40.08	162.24	27.31	-33.2	-34.5	20.1	0.00e+00	0	56	0	2832203776	37	4305
2026-01-08 01:15:41.09	162.40	27.16	-33.2	-34.5	20.0	0.00e+00	0	56	0	2837446656	37	4313
2026-01-08 01:15:42.09	162.56	27.01	-33.2	-34.5	20.1	0.00e+00	0	56	0	2843738112	37	4292
2026-01-08 01:15:43.10	162.71	26.86	-33.2	-34.4	20.1	0.00e+00	0	56	0	2848980992	37	4268
2026-01-08 01:15:44.11	162.86	26.71	-33.1	-34.4	20.2	0.00e+00	0	56	0	2855272448	37	4243
2026-01-08 01:15:45.11	163.01	26.56	-33.1	-34.4	20.1	0.00e+00	0	56	0	2860515328	37	4251
2026-01-08 01:15:46.13	163.17	26.41	-33.2	-34.4	20.1	0.00e+00	0	56	0	2866806784	37	4272
2026-01-08 01:15:47.13	163.32	26.26	-33.2	-34.4	20.1	0.00e+00	0	56	0	2872049664	37	4281
2026-01-08 01:15:48.14	163.46	26.11	-33.3	-34.5	20.0	0.00e+00	0	56	0	2877292544	37	4336
2026-01-08 01:15:49.15	163.61	25.96	-33.3	-34.6	20.0	0.00e+00	0	56	0	2883584000	37	4341
2026-01-08 01:15:50.16	163.76	25.82	-33.4	-34.7	19.8	0.00e+00	0	56	0	2888826880	37	4407
2026-01-08 01:15:51.17	163.90	25.67	-33.4	-34.7	19.8	0.00e+00	0	56	0	2895118336	37	4435
2026-01-08 01:15:52.17	164.04	25.52	-33.5	-34.8	19.7	0.00e+00	0	57	0	2900361216	37	4459
2026-01-08 01:15:53.18	164.18	25.38	-33.5	-34.8	19.7	0.00e+00	0	56	0	2905604096	37	4459
2026-01-08 01:15:54.19	164.32	25.23	-33.5	-34.8	19.7	0.00e+00	0	56	0	2911895552	37	4470
2026-01-08 01:15:55.20	164.46	25.09	-33.5	-34.8	19.7	0.00e+00	0	56	0	2917138432	37	4456
2026-01-08 01:15:56.21	164.60	24.95	-33.4	-34.7	19.8	0.00e+00	0	56	0	2923429888	37	4439
2026-01-08 01:15:57.22	164.74	24.80	-33.4	-34.7	19.8	0.00e+00	0	56	0	2928672768	37	4417
2026-01-08 01:15:58.23	164.87	24.66	-33.3	-34.6	19.9	0.00e+00	0	56	0	2933915648	37	4366
2026-01-08 01:15:59.24	165.01	24.52	-33.3	-34.6	19.9	0.00e+00	0	56	0	2940207104	37	4361
2026-01-08 01:16:00.25	165.14	24.38	-33.3	-34.6	19.9	0.00e+00	0	56	0	2945449984	37	4355
2026-01-08 01:16:01.26	165.27	24.24	-33.3	-34.6	19.9	0.00e+00	0	56	0	2951741440	37	4361
2026-01-08 01:16:02.27	165.40	24.10	-33.4	-34.7	19.8	0.00e+00	0	56	0	2956984320	37	4399
2026-01-08 01:16:03.28	165.53	23.96	-33.5	-34.7	19.7	0.00e+00	0	56	0	2963275776	37	4436
2026-01-08 01:16:04.28	165.66	23.82	-33.6	-34.9	19.6	0.00e+00	0	56	0	2968518656	37	4494
2026-01-08 01:16:05.29	165.79	23.68	-33.7	-35.0	19.5	0.00e+00	0	56	0	2973761536	37	4547
2026-01-08 01:16:06.30	165.91	23.54	-33.8	-35.1	19.4	0.00e+00	0	56	0	2980052992	38	4380
2026-01-08 01:16:07.31	166.04	23.41	-34.0	-35.3	19.2	0.00e+00	0	56	0	2985295872	38	4473
2026-01-08 01:16:08.32	166.16	23.27	-34.0	-35.4	19.2	0.00e+00	0	56	0	2991587328	38	4496
2026-01-08 01:16:09.33	166.29	23.13	-34.1	-35.5	19.1	0.00e+00	0	56	0	2996830208	38	4551
2026-01-08 01:16:10.34	166.41	23.00	-34.1	-35.5	19.0	0.00e+00	0	57	0	3002073088	38	4571
2026-01-08 01:16:11.35	166.53	22.86	-34.2	-35.6	18.9	0.00e+00	0	56	0	3008364544	38	4608
2026-01-08 01:16:12.35	166.65	22.73	-34.2	-35.6	19.0	0.00e+00	0	56	0	3013607424	38	4606
2026-01-08 01:16:13.36	166.77	22.60	-34.1	-35.5	19.0	0.00e+00	0	56	0	3019898880	38	4558
2026-01-08 01:16:14.37	166.89	22.46	-34.0	-35.4	19.1	0.00e+00	0	56	0	3025141760	38	4521
2026-01-08 01:16:15.38	167.00	22.33	-34.1	-35.5	19.1	0.00e+00	0	56	0	3030384640	38	4547
2026-01-08 01:16:16.39	167.12	22.20	-34.1	-35.5	19.0	0.00e+00	0	57	0	3036676096	38	4556
2026-01-08 01:16:17.40	167.23	22.07	-34.0	-35.4	19.1	0.00e+00	0	56	0	3041918976	38	4503
2026-01-08 01:16:18.41	167.35	21.94	-34.0	-35.4	19.1	0.00e+00	0	56	0	3048210432	38	4504
2026-01-08 01:16:19.42	167.46	21.81	-34.0	-35.4	19.1	0.00e+00	0	57	0	3053453312	38	4496
2026-01-08 01:16:20.43	167.57	21.68	-34.1	-35.4	19.1	0.00e+00	0	56	0	3059744768	38	4526
2026-01-08 01:16:21.44	167.69	21.55	-34.1	-35.4	19.1	0.00e+00	0	56	0	3064987648	38	4519
2026-01-08 01:16:22.45	167.80	21.42	-34.1	-35.4	19.1	0.00e+00	0	57	0	3070230528	38	4539
2026-01-08 01:16:23.46	167.91	21.29	-34.1	-35.5	19.0	0.00e+00	0	56	0	3076521984	38	4575
2026-01-08 01:16:24.47	168.02	21.16	-34.2	-35.6	18.9	0.00e+00	0	56	0	3081764864	38	4606
2026-01-08 01:16:25.47	168.12	21.04	-34.2	-35.6	18.9	0.00e+00	0	57	0	3088056320	39	4346
2026-01-08 01:16:26.48	168.23	20.91	-34.2	-35.6	18.9	0.00e+00	0	56	0	3093299200	39	4374
2026-01-08 01:16:27.48	168.34	20.79	-34.3	-35.6	18.9	0.00e+00	0	56	0	3098542080	39	4387
2026-01-08 01:16:28.49	168.44	20.66	-34.3	-35.7	18.8	0.00e+00	0	56	0	3104833536	39	4432
2026-01-08 01:16:29.50	168.55	20.54	-34.3	-35.7	18.8	0.00e+00	0	57	0	3110076416	39	4412
2026-01-08 01:16:30.51	168.65	20.41	-34.3	-35.7	18.8	0.00e+00	0	56	0	3116367872	39	4428
2026-01-08 01:16:31.52	168.75	20.29	-34.3	-35.7	18.8	0.00e+00	0	56	0	3121610752	39	4424
2026-01-08 01:16:32.53	168.86	20.17	-34.4	-35.7	18.8	0.00e+00	0	57	0	3126853632	39	4437
2026-01-08 01:16:33.54	168.96	20.04	-34.4	-35.8	18.7	0.00e+00	0	56	0	3133145088	39	4452
2026-01-08 01:16:34.55	169.06	19.92	-34.4	-35.8	18.7	0.00e+00	0	56	0	3138387968	39	4459
2026-01-08 01:16:35.56	169.16	19.80	-34.4	-35.8	18.7	0.00e+00	0	56	0	3144679424	39	4478
2026-01-08 01:16:36.57	169.26	19.68	-34.4	-35.8	18.7	0.00e+00	0	56	0	3149922304	39	4478
2026-01-08 01:16:37.58	169.36	19.56	-34.5	-35.9	18.6	0.00e+00	0	56	0	3156213760	39	4544
2026-01-08 01:16:38.58	169.45	19.44	-34.6	-36.0	18.5	0.00e+00	0	56	0	3161456640	39	4582
2026-01-08 01:16:39.59	169.55	19.32	-34.6	-36.0	18.5	0.00e+00	0	57	0	3166699520	39	4590
2026-01-08 01:16:40.60	169.65	19.20	-34.7	-36.1	18.3	0.00e+00	0	56	0	3172990976	39	4647
2026-01-08 01:16:41.61	169.74	19.08	-34.7	-36.1	18.3	0.00e+00	0	57	0	3178233856	40	4363
2026-01-08 01:16:42.62	169.84	18.96	-34.7	-36.1	18.3	0.00e+00	0	56	0	3184525312	40	4364
2026-01-08 01:16:43.63	169.93	18.85	-34.7	-36.2	18.2	0.00e+00	0	57	0	3189768192	40	4399
2026-01-08 01:16:44.64	170.02	18.73	-34.7	-36.1	18.2	0.00e+00	0	57	0	3195011072	40	4388
2026-01-08 01:16:45.65	170.12	18.61	-34.7	-36.2	18.2	0.00e+00	0	56	0	3201302528	40	4409
2026-01-08 01:16:46.66	170.21	18.50	-34.8	-36.2	18.2	0.00e+00	0	56	0	3206545408	40	4432
2026-01-08 01:16:47.67	170.30	18.38	-34.7	-36.2	18.2	0.00e+00	0	56	0	3212836864	40	4400
2026-01-08 01:16:48.68	170.39	18.27	-34.7	-36.1	18.2	0.00e+00	0	56	0	3218079744	40	4385
2026-01-08 01:16:49.69	170.48	18.15	-34.7	-36.1	18.3	0.00e+00	0	56	0	3223322624	40	4372
2026-01-08 01:16:50.70	170.57	18.04	-34.7	-36.1	18.3	0.00e+00	0	56	0	3229614080	40	4346
2026-01-08 01:16:51.71	170.66	17.92	-34.6	-36.1	18.3	0.00e+00	0	57	0	3234856960	40	4343
2026-01-08 01:16:52.72	170.75	17.81	-34.7	-36.1	18.3	0.00e+00	0	56	0	3241148416	40	4344
2026-01-08 01:16:53.72	170.83	17.70	-34.7	-36.1	18.3	0.00e+00	0	56	0	3246391296	40	4356
2026-01-08 01:16:54.73	170.92	17.58	-34.8	-36.2	18.2	0.00e+00	0	56	0	3252682752	40	4425
2026-01-08 01:16:55.74	171.01	17.47	-34.7	-36.2	18.2	0.00e+00	0	56	0	3257925632	40	4396
2026-01-08 01:16:56.75	171.09	17.36	-34.8	-36.2	18.2	0.00e+00	0	56	0	3263168512	40	4412
2026-01-08 01:16:57.76	171.18	17.25	-34.8	-36.2	18.1	0.00e+00	0	56	0	3269459968	40	4439
2026-01-08 01:16:58.77	171.26	17.14	-34.9	-36.3	18.0	0.00e+00	0	56	0	3274702848	40	4480
2026-01-08 01:16:59.78	171.35	17.03	-35.0	-36.5	17.9	0.00e+00	0	57	0	3280994304	40	4552
2026-01-08 01:17:00.79	171.43	16.92	-35.1	-36.5	17.9	0.00e+00	0	57	0	3286237184	40	4582
2026-01-08 01:17:01.80	171.51	16.81	-35.1	-36.6	17.8	0.00e+00	0	57	0	3291480064	40	4632
2026-01-08 01:17:02.81	171.60	16.70	-35.2	-36.7	17.7	0.00e+00	0	56	0	3297771520	40	4685
2026-01-08 01:17:03.82	171.68	16.59	-35.3	-36.8	17.5	0.00e+00	0	57	0	3303014400	41	4489
2026-01-08 01:17:04.83	171.76	16.48	-35.3	-36.9	17.5	0.00e+00	0	56	0	3309305856	41	4507
2026-01-08 01:17:05.84	171.84	16.38	-35.4	-36.9	17.5	0.00e+00	0	56	0	3314548736	41	4516
2026-01-08 01:17:06.84	171.92	16.27	-35.5	-37.1	17.3	0.00e+00	0	56	0	3319791616	41	4612
2026-01-08 01:17:07.85	172.00	16.16	-35.5	-37.0	17.3	0.00e+00	0	56	0	3326083072	41	4597
2026-01-08 01:17:08.86	172.08	16.06	-35.6	-37.1	17.2	0.00e+00	0	56	0	3331325952	41	4651
2026-01-08 01:17:09.87	172.15	15.95	-35.6	-37.2	17.2	0.00e+00	0	56	0	3337617408	41	4667
2026-01-08 01:17:10.88	172.23	15.85	-35.6	-37.2	17.1	0.00e+00	0	57	0	3342860288	41	4678
2026-01-08 01:17:11.89	172.31	15.74	-35.7	-37.3	17.1	0.00e+00	0	57	0	3349151744	41	4707
2026-01-08 01:17:12.90	172.39	15.64	-35.7	-37.3	17.0	0.00e+00	0	56	0	3354394624	42	4474
2026-01-08 01:17:13.90	172.46	15.53	-35.7	-37.3	17.0	0.00e+00	0	57	0	3359637504	42	4454
2026-01-08 01:17:14.91	172.54	15.43	-35.7	-37.3	17.0	0.00e+00	0	56	0	3365928960	42	4477
2026-01-08 01:17:15.92	172.61	15.33	-35.8	-37.4	17.0	0.00e+00	0	56	0	3371171840	42	4504
2026-01-08 01:17:16.93	172.69	15.22	-35.7	-37.3	17.0	0.00e+00	0	56	0	3377463296	42	4476
2026-01-08 01:17:17.94	172.76	15.12	-35.8	-37.4	16.9	0.00e+00	0	56	0	3382706176	42	4537
2026-01-08 01:17:18.94	172.84	15.02	-35.7	-37.3	17.0	0.00e+00	0	56	0	3387949056	42	4471
2026-01-08 01:17:19.95	172.91	14.92	-35.8	-37.4	16.9	0.00e+00	0	56	0	3394240512	42	4503
2026-01-08 01:17:20.96	172.98	14.81	-35.8	-37.4	16.9	0.00e+00	0	57	0	3399483392	42	4502
2026-01-08 01:17:21.97	173.05	14.71	-35.8	-37.4	16.9	0.00e+00	0	56	0	3405774848	42	4517
2026-01-08 01:17:22.98	173.13	14.61	-35.8	-37.4	16.9	0.00e+00	0	57	0	3411017728	42	4516
2026-01-08 01:17:23.99	173.20	14.51	-35.9	-37.5	16.8	0.00e+00	0	56	0	3416260608	42	4556
2026-01-08 01:17:25.00	173.27	14.41	-35.9	-37.5	16.8	0.00e+00	0	57	0	3422552064	42	4567
2026-01-08 01:17:26.01	173.34	14.31	-35.9	-37.5	16.7	0.00e+00	0	56	0	3427794944	42	4593
2026-01-08 01:17:27.02	173.41	14.21	-35.9	-37.6	16.7	0.00e+00	0	56	0	3434086400	42	4602
2026-01-08 01:17:28.03	173.48	14.11	-35.9	-37.5	16.7	0.00e+00	0	56	0	3439329280	42	4583
