passes_logs/2026/01/08/R2.0S_Moscow/R2.0S_Moscow__20260108_014610_SUOMI_NPP_rec.log

#Pass ID: 20260108_014610_SUOMI NPP
#Satellite: SUOMI NPP
#Configuration: NPP
#almurnet v.1.7.20251203
#Start time: 2026-01-08 01:46:10

#Version: 2.2.20231116
#Station: R2.0S_Moscow
#Location: 37.707566 lon 55.798166 lat
#TLE: 1 37849U 11061A   26005.94084933  .00000134  00000+0  84554-4 0  9990
#TLE: 2 37849  98.7803 308.0679 0002567  79.1029 281.0436 14.19522657735426

#Time	Az	El	Level	Level2	SNR	BER	BlckErr	Temp	State	Recorded	gain1	gain2
2026-01-08 01:46:10.44	9.32	1.98	-39.3	-54.4	3.8	1.49e+00	0	46	0	0	50	20103
2026-01-08 01:46:11.46	9.25	2.04	-39.3	-54.4	3.8	1.49e+00	0	47	104	0	49	21396
2026-01-08 01:46:12.47	9.17	2.09	-39.3	-54.4	3.8	1.49e+00	0	47	104	0	49	21271
2026-01-08 01:46:13.48	9.09	2.15	-39.3	-54.3	3.8	1.49e+00	0	47	104	0	49	21260
2026-01-08 01:46:14.49	9.01	2.20	-39.3	-54.4	3.8	1.49e+00	0	47	104	0	49	21263
2026-01-08 01:46:15.50	8.93	2.25	-39.3	-54.3	3.8	1.49e+00	0	47	104	0	49	21243
2026-01-08 01:46:16.51	8.85	2.31	-39.3	-54.3	3.8	1.49e+00	0	47	104	0	49	21233
2026-01-08 01:46:17.52	8.77	2.36	-39.3	-54.3	3.8	1.49e+00	0	47	104	0	49	21238
2026-01-08 01:46:18.53	8.70	2.41	-39.3	-54.4	3.8	1.49e+00	0	47	104	0	49	21269
2026-01-08 01:46:19.54	8.62	2.47	-39.3	-54.4	3.8	1.49e+00	0	47	104	0	49	21300
2026-01-08 01:46:20.55	8.54	2.52	-39.3	-54.3	3.8	1.49e+00	0	47	104	0	49	21238
2026-01-08 01:46:21.56	8.45	2.57	-39.3	-54.3	3.8	1.49e+00	0	47	104	0	49	21176
2026-01-08 01:46:22.57	8.37	2.63	-39.3	-54.3	3.8	1.49e+00	0	48	104	0	49	21232
2026-01-08 01:46:23.58	8.29	2.68	-39.3	-54.3	3.8	1.49e+00	0	48	104	0	49	21218
2026-01-08 01:46:24.59	8.21	2.74	-39.3	-54.3	3.8	1.49e+00	0	48	104	0	49	21215
2026-01-08 01:46:25.60	8.13	2.79	-39.3	-54.3	3.8	1.49e+00	0	48	104	0	49	21230
2026-01-08 01:46:26.61	8.05	2.84	-39.3	-54.3	3.8	1.49e+00	0	48	104	0	49	21194
2026-01-08 01:46:27.62	7.97	2.90	-39.3	-54.3	3.8	1.49e+00	0	48	104	0	49	21190
2026-01-08 01:46:28.62	7.88	2.95	-39.3	-54.3	3.8	1.49e+00	0	48	104	0	49	21212
2026-01-08 01:46:29.64	7.80	3.01	-39.3	-54.3	3.8	1.49e+00	0	48	104	0	49	21230
2026-01-08 01:46:30.65	7.72	3.06	-39.2	-54.3	3.8	1.49e+00	0	48	104	0	49	21214
2026-01-08 01:46:31.66	7.63	3.12	-39.3	-54.3	3.8	1.49e+00	0	48	104	0	49	21234
2026-01-08 01:46:32.66	7.55	3.17	-39.3	-54.3	3.8	1.49e+00	0	48	104	0	49	21208
2026-01-08 01:46:33.67	7.47	3.22	-39.3	-54.3	3.8	1.49e+00	0	48	104	0	49	21258
2026-01-08 01:46:34.68	7.38	3.28	-39.3	-54.3	3.8	1.49e+00	0	49	104	0	49	21192
2026-01-08 01:46:35.69	7.30	3.33	-39.3	-54.3	3.8	1.49e+00	0	48	104	0	49	21202
2026-01-08 01:46:36.70	7.21	3.39	-39.3	-54.3	3.8	1.49e+00	0	49	104	0	49	21175
2026-01-08 01:46:37.71	7.13	3.44	-39.3	-54.3	3.8	1.49e+00	0	49	104	0	49	21243
2026-01-08 01:46:38.72	7.04	3.50	-39.2	-54.3	3.8	1.49e+00	0	49	104	0	49	21248
2026-01-08 01:46:39.73	6.95	3.55	-39.3	-54.3	3.8	1.49e+00	0	49	104	0	49	21165
2026-01-08 01:46:40.74	6.87	3.61	-39.3	-54.3	3.8	1.49e+00	0	49	104	0	49	21203
2026-01-08 01:46:41.75	6.78	3.66	-39.3	-54.3	3.8	1.49e+00	0	49	104	0	49	21153
2026-01-08 01:46:42.76	6.69	3.72	-39.3	-54.3	3.8	1.49e+00	0	49	104	0	49	21227
2026-01-08 01:46:43.77	6.61	3.77	-39.3	-54.3	3.8	1.49e+00	0	49	104	0	49	21230
2026-01-08 01:46:44.78	6.52	3.83	-39.3	-54.3	3.8	1.49e+00	0	49	104	0	49	21216
2026-01-08 01:46:45.79	6.43	3.88	-39.3	-54.3	3.8	1.49e+00	0	49	104	0	49	21190
2026-01-08 01:46:46.80	6.34	3.94	-39.3	-54.3	3.8	1.49e+00	0	49	104	0	49	21241
2026-01-08 01:46:47.81	6.25	3.99	-39.3	-54.3	3.8	1.49e+00	0	49	104	0	49	21210
2026-01-08 01:46:48.82	6.16	4.05	-39.3	-54.3	3.8	1.49e+00	0	49	104	0	49	21186
2026-01-08 01:46:49.83	6.07	4.10	-39.3	-54.3	3.8	1.49e+00	0	49	104	0	49	21182
2026-01-08 01:46:50.84	5.98	4.16	-39.3	-54.3	3.8	1.49e+00	0	49	104	0	49	21183
2026-01-08 01:46:51.84	5.89	4.21	-39.3	-54.3	3.8	1.49e+00	0	50	104	0	49	21148
2026-01-08 01:46:52.85	5.80	4.27	-39.3	-54.3	3.8	1.49e+00	0	50	104	0	49	21162
2026-01-08 01:46:53.86	5.71	4.32	-39.3	-54.3	3.8	1.49e+00	0	50	104	0	49	21168
2026-01-08 01:46:54.87	5.62	4.38	-39.3	-54.3	3.8	1.49e+00	0	49	104	0	49	21151
2026-01-08 01:46:55.88	5.53	4.43	-39.3	-54.3	3.8	1.49e+00	0	50	104	0	49	21199
2026-01-08 01:46:56.89	5.44	4.49	-39.3	-54.3	3.8	1.49e+00	0	50	104	0	49	21138
2026-01-08 01:46:57.91	5.34	4.54	-39.3	-54.3	3.8	1.49e+00	0	50	104	0	49	21194
2026-01-08 01:46:58.91	5.25	4.60	-39.3	-54.3	3.8	1.49e+00	0	50	104	0	49	21199
2026-01-08 01:46:59.92	5.16	4.65	-39.3	-54.3	3.8	1.49e+00	0	50	104	0	49	21212
2026-01-08 01:47:00.94	5.06	4.71	-39.3	-54.3	3.8	1.49e+00	0	50	104	0	49	21143
2026-01-08 01:47:01.94	4.97	4.77	-39.3	-54.3	3.8	1.49e+00	0	50	104	0	49	21186
2026-01-08 01:47:02.95	4.88	4.82	-39.3	-54.3	3.8	1.49e+00	0	50	104	0	49	21169
2026-01-08 01:47:03.96	4.78	4.88	-39.3	-54.3	3.8	1.49e+00	0	50	104	0	49	21204
2026-01-08 01:47:04.97	4.69	4.93	-39.3	-54.3	3.8	1.49e+00	0	50	104	0	49	21231
2026-01-08 01:47:05.98	4.59	4.99	-39.3	-54.3	3.8	1.49e+00	0	50	104	0	49	21145
2026-01-08 01:47:06.99	4.50	5.04	-39.3	-54.3	3.8	1.49e+00	0	50	104	0	49	21221
2026-01-08 01:47:08.00	4.40	5.10	-39.3	-54.3	3.8	1.49e+00	0	50	104	0	49	21169
2026-01-08 01:47:09.01	4.30	5.16	-39.3	-54.3	3.8	1.49e+00	0	50	104	0	49	21157
2026-01-08 01:47:10.02	4.21	5.21	-39.3	-54.3	3.8	1.49e+00	0	51	104	0	49	21156
2026-01-08 01:47:11.03	4.11	5.27	-39.3	-54.3	3.8	1.49e+00	0	51	104	0	49	21193
2026-01-08 01:47:12.03	4.01	5.32	-39.3	-54.3	3.8	1.49e+00	0	51	104	0	49	21177
2026-01-08 01:47:13.04	3.91	5.38	-39.3	-54.3	3.8	1.49e+00	0	51	104	0	49	21186
2026-01-08 01:47:14.05	3.81	5.44	-39.3	-54.3	3.8	1.49e+00	0	51	104	0	49	21173
2026-01-08 01:47:15.06	3.72	5.49	-39.3	-54.3	3.8	1.49e+00	0	51	104	0	49	21167
2026-01-08 01:47:16.07	3.62	5.55	-39.3	-54.3	3.8	1.49e+00	0	50	104	0	49	21171
2026-01-08 01:47:17.08	3.52	5.61	-39.2	-54.3	3.8	1.49e+00	0	51	104	0	49	21196
2026-01-08 01:47:18.09	3.42	5.66	-39.3	-54.3	3.8	1.49e+00	0	51	104	0	49	21174
2026-01-08 01:47:19.10	3.32	5.72	-39.3	-54.3	3.8	1.49e+00	0	51	104	0	49	21209
2026-01-08 01:47:20.11	3.22	5.77	-39.3	-54.3	3.8	1.49e+00	0	51	104	0	49	21223
2026-01-08 01:47:21.12	3.11	5.83	-39.3	-54.3	3.8	1.49e+00	0	51	104	0	49	21170
2026-01-08 01:47:22.13	3.01	5.89	-39.3	-54.3	3.8	1.49e+00	0	51	104	0	49	21170
2026-01-08 01:47:23.14	2.91	5.94	-39.3	-54.3	3.8	1.49e+00	0	51	104	0	49	21163
2026-01-08 01:47:24.15	2.81	6.00	-39.3	-54.3	3.8	1.49e+00	0	51	104	0	49	21135
2026-01-08 01:47:25.16	2.70	6.06	-39.3	-54.3	3.8	1.49e+00	0	51	104	0	49	21160
2026-01-08 01:47:26.17	2.60	6.11	-39.3	-54.3	3.8	1.49e+00	0	51	104	0	49	21219
2026-01-08 01:47:27.17	2.50	6.17	-39.3	-54.3	3.8	1.49e+00	0	51	104	0	49	21159
2026-01-08 01:47:28.18	2.39	6.23	-39.3	-54.3	3.8	1.49e+00	0	51	104	0	49	21190
2026-01-08 01:47:29.19	2.29	6.28	-39.3	-54.3	3.8	1.49e+00	0	51	104	0	49	21201
2026-01-08 01:47:30.20	2.18	6.34	-39.3	-54.3	3.8	1.49e+00	0	51	104	0	49	21188
2026-01-08 01:47:31.21	2.08	6.40	-39.3	-54.3	3.8	1.49e+00	0	51	104	0	49	21164
2026-01-08 01:47:32.22	1.97	6.45	-39.3	-54.3	3.8	1.49e+00	0	52	104	0	49	21223
2026-01-08 01:47:33.23	1.87	6.51	-39.3	-54.3	3.8	1.49e+00	0	51	104	0	49	21204
2026-01-08 01:47:34.24	1.76	6.57	-39.3	-54.3	3.8	1.49e+00	0	51	104	0	49	21180
2026-01-08 01:47:35.25	1.65	6.62	-39.3	-54.3	3.8	1.49e+00	0	51	104	0	49	21183
2026-01-08 01:47:36.26	1.54	6.68	-39.3	-54.3	3.8	1.49e+00	0	52	104	0	49	21237
2026-01-08 01:47:37.27	1.44	6.74	-39.3	-54.3	3.8	1.49e+00	0	52	104	0	49	21205
2026-01-08 01:47:38.28	1.33	6.80	-39.3	-54.3	3.8	1.49e+00	0	52	104	0	49	21111
2026-01-08 01:47:39.29	1.22	6.85	-39.3	-54.3	3.8	1.49e+00	0	52	104	0	49	21158
2026-01-08 01:47:40.30	1.11	6.91	-39.3	-54.3	3.8	1.49e+00	0	52	104	0	49	21150
2026-01-08 01:47:41.30	1.00	6.97	-39.3	-54.3	3.8	1.49e+00	0	52	104	0	49	21187
2026-01-08 01:47:42.31	0.89	7.02	-39.3	-54.3	3.8	1.49e+00	0	52	104	0	49	21146
2026-01-08 01:47:43.32	0.78	7.08	-39.3	-54.3	3.8	1.49e+00	0	52	104	0	49	21100
2026-01-08 01:47:44.33	0.67	7.14	-39.3	-54.3	3.8	1.49e+00	0	52	104	0	49	21188
2026-01-08 01:47:45.34	0.56	7.20	-39.3	-54.3	3.8	1.49e+00	0	52	104	0	49	21216
2026-01-08 01:47:46.35	0.44	7.25	-39.3	-54.3	3.8	1.49e+00	0	52	104	0	49	21165
2026-01-08 01:47:47.36	0.33	7.31	-39.3	-54.3	3.8	1.49e+00	0	52	104	0	49	21191
2026-01-08 01:47:48.37	0.22	7.37	-39.3	-54.3	3.8	1.49e+00	0	52	104	0	49	21148
2026-01-08 01:47:49.38	0.11	7.42	-39.3	-54.3	3.8	1.49e+00	0	52	104	0	49	21163
2026-01-08 01:47:50.39	359.99	7.48	-39.3	-54.3	3.8	1.49e+00	0	52	104	0	49	21164
2026-01-08 01:47:51.40	359.88	7.54	-39.2	-54.3	3.8	1.49e+00	0	52	104	0	49	21189
2026-01-08 01:47:52.40	359.76	7.60	-39.3	-54.3	3.8	1.49e+00	0	52	104	0	49	21173
2026-01-08 01:47:53.41	359.65	7.65	-39.3	-54.3	3.8	1.49e+00	0	52	104	0	49	21223
2026-01-08 01:47:54.42	359.53	7.71	-39.3	-54.3	3.8	1.49e+00	0	52	104	0	49	21132
2026-01-08 01:47:55.43	359.42	7.77	-39.3	-54.3	3.8	1.49e+00	0	52	104	0	49	21183
2026-01-08 01:47:56.44	359.30	7.83	-39.3	-54.3	3.8	1.49e+00	0	52	104	0	49	21173
2026-01-08 01:47:57.45	359.18	7.88	-39.3	-54.3	3.8	1.49e+00	0	52	104	0	49	21155
2026-01-08 01:47:58.46	359.06	7.94	-39.3	-54.3	3.8	1.49e+00	0	52	104	0	49	21164
2026-01-08 01:47:59.47	358.95	8.00	-39.3	-54.3	3.8	1.49e+00	0	53	104	0	49	21157
2026-01-08 01:48:00.48	358.83	8.06	-39.2	-54.3	3.8	1.49e+00	0	52	104	0	49	21148
2026-01-08 01:48:01.49	358.71	8.11	-39.2	-54.4	3.8	1.49e+00	0	52	104	0	49	21275
2026-01-08 01:48:02.50	358.59	8.17	-39.3	-54.4	3.8	1.49e+00	0	52	104	0	49	21276
2026-01-08 01:48:03.50	358.47	8.23	-38.4	-54.3	3.8	1.49e+00	0	52	104	0	48	22356
2026-01-08 01:48:04.51	358.35	8.28	-38.8	-54.4	3.8	1.49e+00	0	52	104	0	48	22525
2026-01-08 01:48:05.52	358.23	8.34	-38.8	-54.3	3.8	1.49e+00	0	52	104	0	49	21209
2026-01-08 01:48:06.53	358.11	8.40	-38.7	-54.3	3.8	1.49e+00	0	53	104	0	49	21259
2026-01-08 01:48:07.54	357.98	8.46	-39.2	-54.4	3.8	1.49e+00	0	53	104	0	49	21282
2026-01-08 01:48:08.55	357.86	8.51	-38.5	-54.3	3.8	1.49e+00	0	53	104	0	49	21186
2026-01-08 01:48:09.56	357.74	8.57	-38.6	-54.3	3.8	1.49e+00	0	52	104	0	48	22422
2026-01-08 01:48:10.57	357.61	8.63	-38.5	-54.3	3.8	1.49e+00	0	53	104	0	48	22368
2026-01-08 01:48:11.58	357.49	8.69	-39.1	-54.3	3.8	1.49e+00	0	53	104	0	48	22368
2026-01-08 01:48:12.59	357.37	8.74	-38.8	-54.3	3.8	1.49e+00	0	53	104	0	49	21217
2026-01-08 01:48:13.60	357.24	8.80	-39.2	-54.3	3.8	1.49e+00	0	53	104	0	48	22405
2026-01-08 01:48:14.61	357.11	8.86	-39.0	-54.3	3.8	1.49e+00	0	53	104	0	49	21196
2026-01-08 01:48:15.62	356.99	8.92	-38.8	-54.3	3.8	1.49e+00	0	53	104	0	49	21191
2026-01-08 01:48:16.63	356.86	8.98	-39.4	-54.3	3.8	1.49e+00	0	53	104	0	49	21078
2026-01-08 01:48:17.64	356.73	9.03	-39.3	-54.3	3.8	1.49e+00	0	53	104	0	49	21066
2026-01-08 01:48:18.64	356.61	9.09	-39.6	-54.3	3.8	1.49e+00	0	53	104	0	49	21064
2026-01-08 01:48:19.66	356.48	9.15	-39.6	-54.4	3.8	1.49e+00	0	53	104	0	50	20092
2026-01-08 01:48:20.67	356.35	9.21	-39.5	-54.3	3.8	1.49e+00	0	53	104	0	50	20001
2026-01-08 01:48:21.68	356.22	9.26	-39.3	-54.3	3.8	1.49e+00	0	53	104	0	50	20039
2026-01-08 01:48:22.69	356.09	9.32	-39.5	-54.3	3.8	1.49e+00	0	53	104	0	50	19960
2026-01-08 01:48:23.70	355.96	9.38	-38.7	-54.3	3.8	1.49e+00	0	53	104	0	49	21074
2026-01-08 01:48:24.71	355.83	9.44	-39.7	-54.4	3.8	1.49e+00	0	53	104	0	49	21314
2026-01-08 01:48:25.72	355.70	9.49	-39.1	-54.3	3.8	1.49e+00	0	53	104	0	50	20035
2026-01-08 01:48:26.72	355.57	9.55	-39.7	-54.4	3.8	1.49e+00	0	53	104	0	50	20216
2026-01-08 01:48:27.73	355.44	9.61	-39.8	-54.4	3.8	1.49e+00	0	53	104	0	50	20242
2026-01-08 01:48:28.74	355.30	9.66	-39.4	-54.4	3.8	1.49e+00	0	53	104	0	50	20158
2026-01-08 01:48:29.75	355.17	9.72	-39.9	-54.4	3.8	1.49e+00	0	53	104	0	50	20295
2026-01-08 01:48:30.76	355.03	9.78	-39.5	-54.4	3.8	1.49e+00	0	53	104	0	50	20170
2026-01-08 01:48:31.77	354.90	9.84	-39.8	-54.5	3.8	1.49e+00	0	53	104	0	50	20314
2026-01-08 01:48:32.78	354.76	9.89	-39.8	-54.4	3.8	1.49e+00	0	53	104	0	50	20257
2026-01-08 01:48:33.79	354.63	9.95	-39.9	-54.4	3.8	1.49e+00	0	53	104	0	50	20268
2026-01-08 01:48:34.80	354.49	10.01	-39.8	-54.4	3.8	1.49e+00	0	53	104	0	50	20242
2026-01-08 01:48:35.81	354.36	10.07	-39.9	-54.5	3.8	1.49e+00	0	53	104	0	50	20418
2026-01-08 01:48:36.82	354.22	10.12	-39.9	-54.5	3.8	1.49e+00	0	53	104	0	50	20348
2026-01-08 01:48:37.83	354.08	10.18	-39.9	-54.6	3.8	1.49e+00	0	54	104	0	50	20551
2026-01-08 01:48:38.83	353.94	10.24	-39.9	-54.5	3.8	1.49e+00	0	53	104	0	50	20304
2026-01-08 01:48:39.84	353.80	10.29	-39.8	-54.5	3.8	1.49e+00	0	53	104	0	50	20500
2026-01-08 01:48:40.86	353.66	10.35	-40.0	-54.5	3.8	1.49e+00	0	53	104	0	50	20527
2026-01-08 01:48:41.87	353.52	10.41	-39.6	-54.6	3.8	1.49e+00	0	54	104	0	50	20603
2026-01-08 01:48:42.88	353.38	10.47	-40.1	-54.7	3.8	1.49e+00	0	54	104	0	50	20788
2026-01-08 01:48:43.89	353.24	10.52	-40.2	-54.8	3.8	1.49e+00	0	53	104	0	51	20042
2026-01-08 01:48:44.90	353.10	10.58	-39.9	-54.5	3.8	1.49e+00	0	54	104	0	51	19357
2026-01-08 01:48:45.91	352.96	10.64	-40.3	-55.0	3.8	1.49e+00	0	54	104	0	51	20319
2026-01-08 01:48:46.92	352.81	10.69	-39.9	-54.6	3.8	1.49e+00	0	54	104	0	51	19427
2026-01-08 01:48:47.93	352.67	10.75	-39.8	-55.0	3.8	1.49e+00	0	54	104	0	51	20408
2026-01-08 01:48:48.94	352.53	10.81	-40.4	-54.9	3.8	1.49e+00	0	54	104	0	51	20211
2026-01-08 01:48:49.95	352.38	10.87	-40.2	-55.2	3.8	1.49e+00	0	54	104	0	51	20863
2026-01-08 01:48:50.96	352.24	10.92	-40.3	-54.9	3.8	1.49e+00	0	54	104	0	51	20145
2026-01-08 01:48:51.97	352.09	10.98	-40.5	-55.0	3.8	1.49e+00	0	54	104	0	51	20432
2026-01-08 01:48:52.98	351.95	11.04	-40.2	-54.9	3.8	1.49e+00	0	54	104	0	51	20083
2026-01-08 01:48:53.98	351.80	11.09	-40.6	-55.1	3.8	1.49e+00	0	54	104	0	51	20726
2026-01-08 01:48:55.00	351.65	11.15	-40.3	-54.9	3.8	1.49e+00	0	54	104	0	51	20287
2026-01-08 01:48:56.01	351.50	11.21	-40.6	-55.1	3.8	1.49e+00	0	54	104	0	51	20682
2026-01-08 01:48:57.01	351.36	11.26	-40.3	-54.9	3.8	1.49e+00	0	54	104	0	51	20076
2026-01-08 01:48:58.02	351.21	11.32	-40.6	-55.1	3.8	1.49e+00	0	54	104	0	51	20577
2026-01-08 01:48:59.03	351.06	11.37	-40.4	-55.0	3.8	1.49e+00	0	54	104	0	51	20349
2026-01-08 01:49:00.04	350.91	11.43	-40.6	-55.3	3.8	1.49e+00	0	54	104	0	51	21137
2026-01-08 01:49:01.05	350.75	11.49	-40.4	-54.9	3.8	1.49e+00	0	54	104	0	52	19087
2026-01-08 01:49:02.06	350.60	11.54	-40.4	-55.1	3.8	1.49e+00	0	54	104	0	52	19555
2026-01-08 01:49:03.07	350.45	11.60	-40.5	-55.0	3.8	1.49e+00	0	54	104	0	52	19320
2026-01-08 01:49:04.08	350.30	11.65	-40.4	-55.1	3.8	1.49e+00	0	54	104	0	52	19474
2026-01-08 01:49:05.09	350.14	11.71	-40.2	-54.9	3.8	1.49e+00	0	54	104	0	52	19008
2026-01-08 01:49:06.10	349.99	11.77	-40.3	-55.1	3.8	1.49e+00	0	54	104	0	52	19436
2026-01-08 01:49:07.11	349.84	11.82	-40.3	-54.9	3.8	1.49e+00	0	54	104	0	52	19106
2026-01-08 01:49:08.12	349.68	11.88	-40.4	-55.3	3.8	1.49e+00	0	54	104	0	52	19960
2026-01-08 01:49:09.13	349.52	11.93	-40.5	-55.2	3.8	1.49e+00	0	54	104	0	52	19770
2026-01-08 01:49:10.14	349.37	11.99	-40.6	-55.5	3.8	1.49e+00	0	54	104	0	52	20374
2026-01-08 01:49:11.15	349.21	12.04	-40.4	-55.1	3.8	1.49e+00	0	54	104	0	52	19532
2026-01-08 01:49:12.15	349.05	12.10	-40.2	-55.3	3.8	1.49e+00	0	54	104	0	52	19916
2026-01-08 01:49:13.16	348.90	12.15	-40.8	-55.3	3.8	1.49e+00	0	54	104	0	52	20010
2026-01-08 01:49:14.17	348.74	12.21	-40.6	-55.6	3.8	1.49e+00	0	54	104	0	52	20541
2026-01-08 01:49:15.18	348.58	12.26	-40.9	-55.5	3.8	1.49e+00	0	54	104	0	52	20339
2026-01-08 01:49:16.19	348.42	12.32	-41.0	-55.7	3.8	1.49e+00	0	54	104	0	52	20806
2026-01-08 01:49:17.20	348.26	12.37	-40.5	-55.4	3.8	1.49e+00	0	54	104	0	52	20124
2026-01-08 01:49:18.21	348.10	12.43	-41.0	-55.7	3.8	1.49e+00	0	54	104	0	52	20893
2026-01-08 01:49:19.22	347.93	12.48	-40.6	-55.6	3.8	1.49e+00	0	54	104	0	52	20542
2026-01-08 01:49:20.23	347.77	12.54	-41.2	-55.8	3.8	1.49e+00	0	54	104	0	52	21124
2026-01-08 01:49:21.24	347.61	12.59	-40.9	-55.5	3.8	1.49e+00	0	54	104	0	52	20333
2026-01-08 01:49:22.25	347.44	12.65	-41.1	-55.8	3.8	1.49e+00	0	54	104	0	52	21079
2026-01-08 01:49:23.26	347.28	12.70	-41.0	-55.5	3.8	1.49e+00	0	54	104	0	52	20448
2026-01-08 01:49:24.27	347.12	12.76	-41.1	-55.7	3.8	1.49e+00	0	54	104	0	52	20997
2026-01-08 01:49:25.28	346.95	12.81	-41.0	-55.6	3.8	1.49e+00	0	54	104	0	52	20767
2026-01-08 01:49:26.29	346.78	12.86	-41.0	-55.6	3.8	1.49e+00	0	54	104	0	52	20774
2026-01-08 01:49:27.30	346.62	12.92	-41.1	-55.7	3.8	1.49e+00	0	54	104	0	52	20975
2026-01-08 01:49:28.31	346.45	12.97	-41.2	-55.8	3.8	1.49e+00	0	55	104	0	53	19969
2026-01-08 01:49:29.32	346.28	13.02	-40.8	-55.4	3.8	1.49e+00	0	54	104	0	53	19160
2026-01-08 01:49:30.33	346.11	13.08	-41.0	-55.7	3.8	1.49e+00	0	54	104	0	53	19626
2026-01-08 01:49:31.34	345.94	13.13	-40.5	-55.1	3.8	1.49e+00	0	55	104	0	53	18514
2026-01-08 01:49:32.35	345.77	13.18	-40.5	-55.1	3.8	1.49e+00	0	55	104	0	52	19437
2026-01-08 01:49:33.36	345.60	13.24	-40.7	-55.3	3.8	1.49e+00	0	55	104	0	52	20018
2026-01-08 01:49:34.37	345.43	13.29	-40.4	-55.1	3.8	1.49e+00	0	54	104	0	52	19455
2026-01-08 01:49:35.38	345.26	13.34	-40.4	-55.0	3.8	1.49e+00	0	54	104	0	52	19352
2026-01-08 01:49:36.39	345.09	13.40	-40.5	-55.1	3.8	1.49e+00	0	54	104	0	52	19482
2026-01-08 01:49:37.40	344.91	13.45	-40.6	-55.2	3.8	1.49e+00	0	54	104	0	52	19747
2026-01-08 01:49:38.41	344.74	13.50	-40.8	-55.3	3.8	1.49e+00	0	55	104	0	52	19957
2026-01-08 01:49:39.42	344.57	13.55	-40.6	-55.3	3.8	1.49e+00	0	54	104	0	52	20018
2026-01-08 01:49:40.43	344.39	13.60	-40.9	-55.4	3.8	1.49e+00	0	54	104	0	52	20283
2026-01-08 01:49:41.44	344.21	13.66	-40.9	-55.4	3.8	1.49e+00	0	54	104	0	52	20295
2026-01-08 01:49:42.45	344.04	13.71	-40.7	-55.4	3.8	1.49e+00	0	55	104	0	52	20104
2026-01-08 01:49:43.46	343.86	13.76	-40.8	-55.4	3.8	1.49e+00	0	55	104	0	52	20176
2026-01-08 01:49:44.47	343.68	13.81	-40.5	-55.3	3.8	1.49e+00	0	55	104	0	52	19889
2026-01-08 01:49:45.48	343.51	13.86	-40.6	-55.2	3.8	1.49e+00	0	55	104	0	52	19762
2026-01-08 01:49:46.49	343.33	13.91	-40.4	-55.2	3.8	1.49e+00	0	54	104	0	52	19698
2026-01-08 01:49:47.50	343.15	13.96	-40.7	-55.3	3.8	1.49e+00	0	55	104	0	52	19870
2026-01-08 01:49:48.51	342.97	14.01	-40.6	-55.3	3.8	1.49e+00	0	55	104	0	52	19863
2026-01-08 01:49:49.52	342.79	14.06	-40.6	-55.3	3.8	1.49e+00	0	55	104	0	52	19915
2026-01-08 01:49:50.52	342.61	14.11	-40.7	-55.3	3.8	1.49e+00	0	55	104	0	52	19897
2026-01-08 01:49:51.53	342.43	14.16	-40.4	-55.2	3.8	1.49e+00	0	55	104	0	52	19749
2026-01-08 01:49:52.54	342.24	14.21	-40.6	-55.2	3.8	1.49e+00	0	55	104	0	52	19757
2026-01-08 01:49:53.55	342.06	14.26	-40.5	-55.2	3.8	1.49e+00	0	54	104	0	52	19645
2026-01-08 01:49:54.56	341.88	14.31	-40.4	-55.1	3.8	1.49e+00	0	55	104	0	52	19408
2026-01-08 01:49:55.57	341.69	14.36	-40.2	-55.1	3.8	1.49e+00	0	55	104	0	51	20573
2026-01-08 01:49:56.57	341.51	14.41	-40.4	-55.1	3.8	1.49e+00	0	55	104	0	51	20582
2026-01-08 01:49:57.59	341.32	14.46	-40.3	-55.0	3.8	1.49e+00	0	55	104	0	51	20448
2026-01-08 01:49:58.59	341.14	14.51	-40.3	-55.0	3.8	1.49e+00	0	55	104	0	51	20455
2026-01-08 01:49:59.60	340.95	14.56	-40.4	-55.0	3.8	1.49e+00	0	55	104	0	51	20336
2026-01-08 01:50:00.62	340.76	14.61	-40.5	-55.0	3.8	1.49e+00	0	55	104	0	51	20505
2026-01-08 01:50:01.63	340.57	14.66	-40.4	-54.9	3.8	1.49e+00	0	55	104	0	51	20256
2026-01-08 01:50:02.63	340.39	14.70	-40.6	-54.9	3.8	1.49e+00	0	55	104	0	51	20271
2026-01-08 01:50:03.64	340.20	14.75	-40.9	-54.5	3.8	1.49e+00	0	55	104	0	52	18286
2026-01-08 01:50:04.65	340.01	14.80	-40.4	-54.6	3.8	1.49e+00	0	55	104	0	52	18325
2026-01-08 01:50:05.66	339.82	14.85	-40.5	-53.5	3.8	1.49e+00	0	55	104	0	52	16239
2026-01-08 01:50:06.67	339.62	14.89	-40.9	-50.8	4.8	1.13e+00	0	55	0	0	52	11921
2026-01-08 01:50:07.68	339.43	14.94	-40.7	-48.9	6.1	5.22e-01	0	55	0	2097152	52	9550
2026-01-08 01:50:08.69	339.24	14.99	-40.4	-46.6	8.3	1.65e-01	0	55	0	4194304	52	7369
2026-01-08 01:50:09.70	339.05	15.03	-39.9	-44.7	10.7	8.24e-03	0	55	0	6291456	51	6258
2026-01-08 01:50:10.71	338.85	15.08	-39.3	-43.2	12.5	6.36e-04	0	55	0	7340032	50	5550
2026-01-08 01:50:11.72	338.66	15.12	-38.8	-42.2	13.7	3.81e-05	0	55	0	9437184	49	5236
2026-01-08 01:50:12.73	338.46	15.17	-38.6	-41.8	14.2	0.00e+00	0	55	0	11534336	49	5029
2026-01-08 01:50:13.74	338.27	15.21	-38.8	-42.0	14.4	0.00e+00	0	55	0	13631488	49	5112
2026-01-08 01:50:14.74	338.07	15.26	-39.3	-42.7	13.8	7.00e-07	0	55	0	15728640	49	5573
2026-01-08 01:50:15.76	337.88	15.30	-39.7	-43.3	13.4	1.60e-05	0	55	0	16777216	49	5939
2026-01-08 01:50:16.76	337.68	15.35	-39.7	-43.1	13.6	9.10e-06	0	55	0	18874368	50	5520
2026-01-08 01:50:17.78	337.48	15.39	-39.7	-43.1	13.7	6.80e-06	0	55	0	20971520	50	5496
2026-01-08 01:50:18.79	337.28	15.44	-39.4	-42.5	14.3	7.00e-07	0	55	0	23068672	50	5150
2026-01-08 01:50:19.79	337.08	15.48	-39.6	-42.6	14.4	7.00e-07	0	55	0	25165824	50	5197
2026-01-08 01:50:20.80	336.89	15.52	-40.0	-43.2	13.9	0.00e+00	0	55	0	26214400	50	5579
2026-01-08 01:50:21.81	336.68	15.57	-39.9	-43.0	14.2	4.50e-06	0	55	0	28311552	50	5449
2026-01-08 01:50:22.82	336.48	15.61	-39.9	-43.0	14.2	0.00e+00	0	55	0	30408704	50	5449
2026-01-08 01:50:23.83	336.28	15.65	-40.2	-43.5	13.9	5.30e-06	0	55	0	32505856	50	5726
2026-01-08 01:50:24.84	336.08	15.70	-40.0	-43.1	14.3	3.00e-06	0	55	0	34603008	50	5495
2026-01-08 01:50:25.85	335.88	15.74	-39.8	-42.8	14.6	0.00e+00	0	55	0	35651584	50	5290
2026-01-08 01:50:26.86	335.67	15.78	-39.6	-42.4	15.0	0.00e+00	0	55	0	37748736	50	5074
2026-01-08 01:50:27.87	335.47	15.82	-39.5	-42.1	15.3	0.00e+00	0	55	0	39845888	50	4915
2026-01-08 01:50:28.88	335.27	15.86	-39.4	-42.1	15.4	0.00e+00	0	55	0	41943040	50	4878
2026-01-08 01:50:29.89	335.06	15.90	-39.4	-42.0	15.6	0.00e+00	0	55	0	44040192	50	4825
2026-01-08 01:50:30.90	334.86	15.94	-39.4	-42.0	15.5	0.00e+00	0	55	0	45088768	50	4828
2026-01-08 01:50:31.91	334.65	15.98	-39.4	-42.0	15.5	0.00e+00	0	55	0	47185920	50	4853
2026-01-08 01:50:32.91	334.45	16.02	-39.6	-42.3	15.2	0.00e+00	0	55	0	49283072	50	5024
2026-01-08 01:50:33.92	334.24	16.06	-39.7	-42.4	15.2	0.00e+00	0	55	0	51380224	50	5074
2026-01-08 01:50:34.93	334.03	16.10	-39.5	-42.1	15.5	0.00e+00	0	55	0	53477376	50	4882
2026-01-08 01:50:35.94	333.82	16.14	-39.6	-42.2	15.4	0.00e+00	0	55	0	54525952	50	4950
2026-01-08 01:50:36.95	333.61	16.18	-39.5	-42.1	15.5	0.00e+00	0	55	0	56623104	50	4876
2026-01-08 01:50:37.96	333.40	16.22	-39.3	-41.7	15.8	0.00e+00	0	55	0	58720256	50	4689
2026-01-08 01:50:38.97	333.19	16.26	-39.3	-41.8	15.8	0.00e+00	0	55	0	60817408	50	4710
2026-01-08 01:50:39.98	332.98	16.30	-39.4	-41.9	15.8	0.00e+00	0	55	0	62914560	50	4784
2026-01-08 01:50:40.99	332.77	16.33	-39.4	-41.9	15.7	0.00e+00	0	55	0	63963136	50	4813
2026-01-08 01:50:42.00	332.56	16.37	-39.6	-42.2	15.4	0.00e+00	0	55	0	66060288	50	4970
2026-01-08 01:50:43.01	332.35	16.41	-39.8	-42.6	15.0	0.00e+00	0	55	0	68157440	50	5194
2026-01-08 01:50:44.02	332.14	16.44	-40.1	-43.0	14.7	0.00e+00	0	55	0	70254592	50	5464
2026-01-08 01:50:45.02	331.93	16.48	-40.1	-43.1	14.5	7.00e-07	0	55	0	72351744	51	5210
2026-01-08 01:50:46.04	331.71	16.51	-40.2	-43.2	14.4	0.00e+00	0	55	0	73400320	51	5254
2026-01-08 01:50:47.04	331.50	16.55	-40.1	-43.0	14.7	7.00e-07	0	55	0	75497472	51	5139
2026-01-08 01:50:48.05	331.28	16.58	-39.9	-42.7	15.0	0.00e+00	0	55	0	77594624	51	4946
2026-01-08 01:50:49.06	331.07	16.62	-39.8	-42.5	15.2	0.00e+00	0	56	0	79691776	51	4853
2026-01-08 01:50:50.07	330.85	16.65	-39.7	-42.4	15.3	0.00e+00	0	55	0	81788928	51	4787
2026-01-08 01:50:51.08	330.64	16.69	-39.6	-42.3	15.5	0.00e+00	0	55	0	83886080	51	4711
2026-01-08 01:50:52.09	330.42	16.72	-39.6	-42.2	15.5	0.00e+00	0	55	0	84934656	51	4673
2026-01-08 01:50:53.10	330.20	16.75	-39.7	-42.3	15.4	0.00e+00	0	55	0	87031808	51	4759
2026-01-08 01:50:54.11	329.99	16.79	-39.5	-42.0	15.7	0.00e+00	0	55	0	89128960	51	4598
2026-01-08 01:50:55.12	329.77	16.82	-39.3	-41.7	16.0	0.00e+00	0	55	0	91226112	50	4688
2026-01-08 01:50:56.13	329.55	16.85	-39.1	-41.5	16.3	0.00e+00	0	55	0	93323264	50	4554
2026-01-08 01:50:57.14	329.33	16.88	-38.8	-41.0	16.7	0.00e+00	0	55	0	94371840	49	4583
2026-01-08 01:50:58.15	329.11	16.91	-38.7	-40.9	16.9	0.00e+00	0	56	0	96468992	49	4499
2026-01-08 01:50:59.16	328.89	16.94	-38.5	-40.6	17.1	0.00e+00	0	55	0	98566144	49	4368
2026-01-08 01:51:00.17	328.67	16.97	-38.6	-40.7	17.1	0.00e+00	0	56	0	100663296	49	4407
2026-01-08 01:51:01.18	328.45	17.01	-38.8	-40.9	16.8	0.00e+00	0	55	0	102760448	49	4542
2026-01-08 01:51:02.19	328.23	17.03	-38.9	-41.1	16.7	0.00e+00	0	55	0	103809024	49	4621
2026-01-08 01:51:03.20	328.01	17.06	-39.0	-41.2	16.6	0.00e+00	0	55	0	105906176	49	4678
2026-01-08 01:51:04.21	327.78	17.09	-39.2	-41.5	16.3	0.00e+00	0	55	0	108003328	49	4827
2026-01-08 01:51:05.22	327.56	17.12	-39.3	-41.6	16.2	0.00e+00	0	55	0	110100480	49	4922
2026-01-08 01:51:06.22	327.34	17.15	-39.2	-41.6	16.2	0.00e+00	0	56	0	112197632	49	4885
2026-01-08 01:51:07.24	327.11	17.18	-39.4	-41.8	16.0	0.00e+00	0	55	0	113246208	49	5017
2026-01-08 01:51:08.25	326.89	17.20	-39.3	-41.7	16.1	0.00e+00	0	56	0	115343360	49	4931
2026-01-08 01:51:09.26	326.67	17.23	-39.3	-41.7	16.1	0.00e+00	0	55	0	117440512	49	4970
2026-01-08 01:51:10.26	326.44	17.26	-39.4	-41.9	15.9	0.00e+00	0	55	0	119537664	49	5070
2026-01-08 01:51:11.27	326.22	17.28	-39.5	-42.0	15.8	0.00e+00	0	55	0	121634816	49	5102
2026-01-08 01:51:12.28	325.99	17.31	-39.6	-42.2	15.6	0.00e+00	0	56	0	122683392	49	5229
2026-01-08 01:51:13.29	325.77	17.33	-39.9	-42.5	15.2	0.00e+00	0	55	0	124780544	50	5153
2026-01-08 01:51:14.30	325.54	17.36	-40.1	-43.0	14.8	0.00e+00	0	55	0	126877696	50	5425
2026-01-08 01:51:15.31	325.31	17.38	-40.0	-42.8	15.0	0.00e+00	0	55	0	128974848	50	5326
2026-01-08 01:51:16.32	325.09	17.41	-40.2	-43.1	14.7	0.00e+00	0	55	0	131072000	50	5516
2026-01-08 01:51:17.33	324.86	17.43	-40.3	-43.2	14.5	2.20e-06	0	55	0	132120576	51	5243
2026-01-08 01:51:18.34	324.63	17.45	-40.3	-43.2	14.6	7.00e-07	0	56	0	134217728	51	5237
2026-01-08 01:51:19.35	324.40	17.47	-40.1	-43.0	14.8	0.00e+00	0	55	0	136314880	51	5124
2026-01-08 01:51:20.36	324.18	17.50	-40.1	-42.9	14.8	0.00e+00	0	55	0	138412032	51	5098
2026-01-08 01:51:21.37	323.95	17.52	-40.2	-43.0	14.8	0.00e+00	0	55	0	140509184	51	5147
2026-01-08 01:51:22.38	323.72	17.54	-40.1	-43.0	14.8	0.00e+00	0	55	0	141557760	51	5124
2026-01-08 01:51:23.39	323.49	17.56	-40.2	-43.1	14.7	0.00e+00	0	55	0	143654912	51	5185
2026-01-08 01:51:24.40	323.26	17.58	-40.1	-43.0	14.8	0.00e+00	0	56	0	145752064	51	5121
2026-01-08 01:51:25.41	323.03	17.60	-40.3	-43.2	14.6	7.00e-07	0	56	0	147849216	51	5225
2026-01-08 01:51:26.42	322.80	17.62	-40.1	-42.9	14.8	0.00e+00	0	55	0	149946368	51	5091
2026-01-08 01:51:27.43	322.57	17.64	-39.9	-42.5	15.2	0.00e+00	0	56	0	152043520	51	4868
2026-01-08 01:51:28.44	322.34	17.66	-39.6	-42.2	15.5	0.00e+00	0	56	0	153092096	51	4671
2026-01-08 01:51:29.45	322.11	17.67	-39.5	-42.0	15.7	0.00e+00	0	56	0	155189248	51	4589
2026-01-08 01:51:30.45	321.88	17.69	-39.5	-41.9	15.9	0.00e+00	0	55	0	157286400	50	4799
2026-01-08 01:51:31.47	321.64	17.71	-39.4	-41.9	15.9	0.00e+00	0	56	0	159383552	50	4778
2026-01-08 01:51:32.48	321.41	17.73	-39.4	-41.9	15.9	0.00e+00	0	56	0	161480704	50	4793
2026-01-08 01:51:33.48	321.18	17.74	-39.4	-41.8	15.9	0.00e+00	0	56	0	162529280	50	4759
2026-01-08 01:51:34.49	320.95	17.76	-39.5	-41.9	15.9	0.00e+00	0	56	0	164626432	50	4798
2026-01-08 01:51:35.50	320.72	17.77	-39.5	-42.1	15.6	0.00e+00	0	56	0	166723584	50	4874
2026-01-08 01:51:36.51	320.48	17.79	-39.6	-42.2	15.6	0.00e+00	0	56	0	168820736	50	4936
2026-01-08 01:51:37.52	320.25	17.80	-39.8	-42.4	15.4	0.00e+00	0	56	0	170917888	50	5073
2026-01-08 01:51:38.53	320.02	17.81	-39.8	-42.5	15.3	0.00e+00	0	56	0	171966464	50	5111
2026-01-08 01:51:39.54	319.78	17.83	-39.9	-42.6	15.1	0.00e+00	0	56	0	174063616	50	5206
2026-01-08 01:51:40.55	319.55	17.84	-40.0	-42.8	15.0	0.00e+00	0	56	0	176160768	50	5316
2026-01-08 01:51:41.56	319.31	17.85	-40.2	-43.2	14.6	0.00e+00	0	56	0	178257920	51	5225
2026-01-08 01:51:42.57	319.08	17.86	-40.3	-43.3	14.4	0.00e+00	0	56	0	180355072	51	5313
2026-01-08 01:51:43.58	318.85	17.88	-40.3	-43.4	14.4	7.00e-07	0	56	0	181403648	51	5376
2026-01-08 01:51:44.59	318.61	17.89	-40.4	-43.6	14.2	3.00e-06	0	56	0	183500800	51	5492
2026-01-08 01:51:45.60	318.38	17.90	-40.6	-43.9	13.8	3.00e-06	0	56	0	185597952	51	5722
2026-01-08 01:51:46.61	318.14	17.91	-40.5	-43.9	13.8	5.30e-06	0	56	0	187695104	52	5348
2026-01-08 01:51:47.62	317.91	17.92	-40.6	-44.0	13.7	9.90e-06	0	56	0	189792256	52	5453
2026-01-08 01:51:48.63	317.67	17.92	-40.6	-44.0	13.7	6.80e-06	0	55	0	190840832	52	5410
2026-01-08 01:51:49.64	317.44	17.93	-40.7	-44.2	13.5	5.30e-06	0	56	0	192937984	52	5556
2026-01-08 01:51:50.64	317.20	17.94	-40.6	-44.1	13.6	7.60e-06	0	56	0	195035136	52	5498
2026-01-08 01:51:51.65	316.97	17.95	-40.5	-43.9	13.8	6.10e-06	0	56	0	197132288	52	5374
2026-01-08 01:51:52.66	316.73	17.95	-40.4	-43.7	13.9	2.20e-06	0	56	0	199229440	52	5273
2026-01-08 01:51:53.66	316.50	17.96	-40.3	-43.5	14.1	2.20e-06	0	56	0	200278016	52	5156
2026-01-08 01:51:54.67	316.26	17.97	-40.2	-43.4	14.3	7.00e-07	0	56	0	202375168	52	5042
2026-01-08 01:51:55.68	316.03	17.97	-40.0	-42.9	14.7	1.50e-06	0	56	0	204472320	51	5097
2026-01-08 01:51:56.69	315.79	17.98	-39.9	-42.8	14.8	7.00e-07	0	56	0	206569472	51	5024
2026-01-08 01:51:57.70	315.55	17.98	-39.8	-42.6	15.1	7.00e-07	0	56	0	208666624	51	4910
2026-01-08 01:51:58.71	315.32	17.98	-39.9	-42.8	14.9	0.00e+00	0	56	0	209715200	51	5006
2026-01-08 01:51:59.72	315.08	17.99	-40.1	-43.0	14.8	0.00e+00	0	56	0	211812352	51	5143
2026-01-08 01:52:00.73	314.84	17.99	-39.8	-42.6	15.1	7.00e-07	0	56	0	213909504	51	4896
2026-01-08 01:52:01.74	314.61	17.99	-39.6	-42.2	15.5	0.00e+00	0	56	0	216006656	51	4692
2026-01-08 01:52:02.75	314.37	17.99	-39.6	-42.3	15.5	0.00e+00	0	56	0	218103808	51	4721
2026-01-08 01:52:03.76	314.13	18.00	-39.7	-42.4	15.4	0.00e+00	0	56	0	220200960	51	4764
2026-01-08 01:52:04.77	313.90	18.00	-39.8	-42.5	15.2	0.00e+00	0	56	0	221249536	51	4835
2026-01-08 01:52:05.78	313.66	18.00	-39.9	-42.7	15.0	0.00e+00	0	56	0	223346688	51	4964
2026-01-08 01:52:06.79	313.43	18.00	-40.0	-42.8	15.0	0.00e+00	0	56	0	225443840	51	5014
2026-01-08 01:52:07.80	313.19	18.00	-40.0	-42.8	15.0	0.00e+00	0	56	0	227540992	51	5006
2026-01-08 01:52:08.80	312.95	17.99	-40.0	-42.9	14.8	0.00e+00	0	56	0	229638144	51	5095
2026-01-08 01:52:09.81	312.72	17.99	-40.2	-43.2	14.6	0.00e+00	0	56	0	230686720	51	5229
2026-01-08 01:52:10.82	312.48	17.99	-40.1	-43.1	14.6	1.50e-06	0	56	0	232783872	51	5170
2026-01-08 01:52:11.83	312.25	17.99	-40.1	-43.1	14.6	1.50e-06	0	56	0	234881024	51	5187
2026-01-08 01:52:12.84	312.01	17.98	-40.1	-43.1	14.8	7.00e-07	0	56	0	236978176	51	5175
2026-01-08 01:52:13.85	311.77	17.98	-40.1	-43.0	14.7	0.00e+00	0	56	0	239075328	51	5110
2026-01-08 01:52:14.86	311.54	17.98	-40.1	-43.0	14.7	1.50e-06	0	56	0	240123904	51	5119
2026-01-08 01:52:15.87	311.30	17.97	-40.1	-43.0	14.7	0.00e+00	0	56	0	242221056	51	5146
2026-01-08 01:52:16.88	311.06	17.97	-40.1	-43.0	14.8	0.00e+00	0	56	0	244318208	51	5124
2026-01-08 01:52:17.89	310.83	17.96	-40.1	-43.0	14.8	0.00e+00	0	56	0	246415360	51	5143
2026-01-08 01:52:18.90	310.59	17.96	-40.2	-43.1	14.6	0.00e+00	0	56	0	248512512	51	5210
2026-01-08 01:52:19.91	310.36	17.95	-40.1	-43.0	14.7	0.00e+00	0	56	0	249561088	51	5147
2026-01-08 01:52:20.92	310.12	17.94	-40.2	-43.2	14.6	2.20e-06	0	56	0	251658240	51	5271
2026-01-08 01:52:21.93	309.88	17.93	-40.3	-43.4	14.3	1.50e-06	0	56	0	253755392	51	5397
2026-01-08 01:52:22.94	309.65	17.93	-40.5	-43.8	14.0	2.20e-06	0	56	0	255852544	51	5615
2026-01-08 01:52:23.95	309.41	17.92	-40.6	-44.0	13.7	4.50e-06	0	56	0	257949696	52	5405
2026-01-08 01:52:24.96	309.18	17.91	-40.8	-44.3	13.4	9.90e-06	0	56	0	258998272	52	5608
2026-01-08 01:52:25.96	308.95	17.90	-40.8	-44.3	13.3	1.75e-05	0	56	0	261095424	52	5654
2026-01-08 01:52:26.97	308.71	17.89	-40.7	-44.1	13.6	2.21e-05	0	56	0	263192576	52	5494
2026-01-08 01:52:27.98	308.48	17.88	-40.6	-44.0	13.7	4.50e-06	0	56	0	265289728	52	5444
2026-01-08 01:52:28.99	308.24	17.87	-40.4	-43.7	13.9	4.50e-06	0	56	0	267386880	52	5243
2026-01-08 01:52:30.00	308.01	17.85	-40.3	-43.4	14.2	3.00e-06	0	56	0	268435456	52	5078
2026-01-08 01:52:31.01	307.77	17.84	-40.0	-43.0	14.7	0.00e+00	0	56	0	270532608	52	4833
2026-01-08 01:52:32.02	307.54	17.83	-40.0	-42.9	14.8	0.00e+00	0	56	0	272629760	51	5074
2026-01-08 01:52:33.03	307.30	17.82	-39.7	-42.4	15.3	7.00e-07	0	56	0	274726912	51	4810
2026-01-08 01:52:34.04	307.07	17.80	-39.7	-42.4	15.3	0.00e+00	0	56	0	276824064	51	4811
2026-01-08 01:52:35.05	306.84	17.79	-39.7	-42.5	15.3	0.00e+00	0	56	0	277872640	51	4815
2026-01-08 01:52:36.06	306.60	17.77	-39.7	-42.5	15.3	0.00e+00	0	56	0	279969792	51	4832
2026-01-08 01:52:37.06	306.37	17.76	-39.8	-42.5	15.2	0.00e+00	0	56	0	282066944	51	4870
2026-01-08 01:52:38.08	306.14	17.74	-39.8	-42.6	15.2	0.00e+00	0	56	0	284164096	51	4888
2026-01-08 01:52:39.08	305.91	17.73	-39.8	-42.5	15.3	0.00e+00	0	56	0	286261248	51	4827
2026-01-08 01:52:40.09	305.68	17.71	-39.8	-42.5	15.2	0.00e+00	0	56	0	287309824	51	4827
2026-01-08 01:52:41.10	305.44	17.69	-39.9	-42.3	15.5	7.00e-07	0	56	0	289406976	51	4749
2026-01-08 01:52:42.11	305.21	17.68	-39.9	-42.3	15.5	0.00e+00	0	56	0	291504128	51	4746
2026-01-08 01:52:43.12	304.98	17.66	-39.8	-42.2	15.6	0.00e+00	0	56	0	293601280	51	4702
2026-01-08 01:52:44.13	304.75	17.64	-39.8	-42.2	15.6	0.00e+00	0	56	0	295698432	51	4695
2026-01-08 01:52:45.14	304.52	17.62	-39.9	-42.4	15.5	0.00e+00	0	56	0	296747008	51	4782
2026-01-08 01:52:46.15	304.29	17.60	-39.6	-42.0	15.8	0.00e+00	0	56	0	298844160	51	4582
2026-01-08 01:52:47.16	304.06	17.58	-39.6	-41.9	15.9	0.00e+00	0	56	0	300941312	51	4538
2026-01-08 01:52:48.16	303.83	17.56	-39.4	-41.7	16.1	0.00e+00	0	56	0	303038464	50	4697
2026-01-08 01:52:49.17	303.60	17.54	-39.3	-41.6	16.3	0.00e+00	0	56	0	305135616	50	4613
2026-01-08 01:52:50.18	303.37	17.52	-39.3	-41.5	16.3	0.00e+00	0	56	0	306184192	50	4591
2026-01-08 01:52:51.19	303.14	17.50	-39.1	-41.3	16.6	0.00e+00	0	56	0	308281344	50	4446
2026-01-08 01:52:52.20	302.91	17.48	-39.0	-41.1	16.7	0.00e+00	0	56	0	310378496	49	4620
2026-01-08 01:52:53.21	302.68	17.46	-39.0	-41.2	16.6	0.00e+00	0	56	0	312475648	49	4672
2026-01-08 01:52:54.22	302.46	17.43	-39.1	-41.2	16.5	0.00e+00	0	56	0	314572800	49	4703
2026-01-08 01:52:55.23	302.23	17.41	-39.2	-41.4	16.4	0.00e+00	0	56	0	315621376	49	4769
2026-01-08 01:52:56.24	302.00	17.39	-39.2	-41.4	16.4	0.00e+00	0	56	0	317718528	49	4761
2026-01-08 01:52:57.25	301.77	17.36	-39.2	-41.4	16.4	0.00e+00	0	56	0	319815680	49	4774
2026-01-08 01:52:58.26	301.55	17.34	-39.3	-41.5	16.2	0.00e+00	0	56	0	321912832	49	4861
2026-01-08 01:52:59.27	301.32	17.31	-39.4	-41.7	16.0	0.00e+00	0	56	0	324009984	49	4976
2026-01-08 01:53:00.28	301.09	17.29	-39.5	-41.9	15.9	0.00e+00	0	56	0	326107136	49	5080
2026-01-08 01:53:01.29	300.87	17.26	-39.8	-42.3	15.5	0.00e+00	0	56	0	327155712	50	5036
2026-01-08 01:53:02.30	300.64	17.23	-39.9	-42.5	15.3	0.00e+00	0	56	0	329252864	50	5129
2026-01-08 01:53:03.31	300.42	17.21	-39.9	-42.5	15.3	0.00e+00	0	56	0	331350016	50	5142
2026-01-08 01:53:04.31	300.20	17.18	-39.9	-42.5	15.4	0.00e+00	0	56	0	333447168	50	5113
2026-01-08 01:53:05.32	299.97	17.15	-39.9	-42.5	15.3	0.00e+00	0	56	0	335544320	50	5137
2026-01-08 01:53:06.33	299.75	17.12	-39.8	-42.3	15.6	0.00e+00	0	56	0	336592896	50	4988
2026-01-08 01:53:07.34	299.53	17.10	-40.0	-42.7	15.1	0.00e+00	0	56	0	338690048	50	5233
2026-01-08 01:53:08.35	299.30	17.07	-40.0	-42.6	15.3	0.00e+00	0	56	0	340787200	50	5170
2026-01-08 01:53:09.36	299.08	17.04	-39.9	-42.5	15.3	0.00e+00	0	56	0	342884352	50	5120
2026-01-08 01:53:10.37	298.86	17.01	-39.9	-42.5	15.3	0.00e+00	0	56	0	344981504	50	5123
2026-01-08 01:53:11.38	298.64	16.98	-39.9	-42.5	15.3	0.00e+00	0	56	0	346030080	50	5129
2026-01-08 01:53:12.39	298.42	16.95	-40.0	-42.7	15.1	0.00e+00	0	56	0	348127232	50	5226
2026-01-08 01:53:13.40	298.20	16.92	-40.1	-42.7	15.1	0.00e+00	0	56	0	350224384	50	5248
2026-01-08 01:53:14.41	297.98	16.89	-40.3	-43.1	14.7	0.00e+00	0	56	0	352321536	51	5164
2026-01-08 01:53:15.41	297.76	16.85	-40.2	-43.0	14.8	0.00e+00	0	56	0	354418688	51	5116
2026-01-08 01:53:16.42	297.54	16.82	-40.1	-42.8	15.0	0.00e+00	0	56	0	355467264	51	4990
2026-01-08 01:53:17.43	297.32	16.79	-40.0	-42.6	15.1	1.50e-06	0	56	0	357564416	51	4920
2026-01-08 01:53:18.44	297.10	16.76	-40.1	-42.7	15.0	0.00e+00	0	56	0	359661568	51	4971
2026-01-08 01:53:19.45	296.89	16.72	-40.0	-42.6	15.1	0.00e+00	0	56	0	361758720	51	4917
2026-01-08 01:53:20.46	296.67	16.69	-40.2	-42.9	14.9	0.00e+00	0	56	0	363855872	51	5051
2026-01-08 01:53:21.47	296.45	16.66	-40.2	-43.0	14.8	0.00e+00	0	56	0	364904448	51	5118
2026-01-08 01:53:22.48	296.23	16.62	-40.1	-42.8	14.9	0.00e+00	0	56	0	367001600	51	5017
2026-01-08 01:53:23.48	296.02	16.59	-40.2	-43.0	14.8	0.00e+00	0	56	0	369098752	51	5112
2026-01-08 01:53:24.50	295.80	16.55	-40.1	-42.8	15.0	7.00e-07	0	56	0	371195904	51	4994
2026-01-08 01:53:25.51	295.59	16.52	-40.1	-42.8	14.9	0.00e+00	0	56	0	373293056	51	5012
2026-01-08 01:53:26.52	295.37	16.48	-40.1	-42.7	15.0	0.00e+00	0	56	0	374341632	51	4970
2026-01-08 01:53:27.52	295.16	16.45	-40.3	-43.0	14.8	0.00e+00	0	56	0	376438784	51	5151
2026-01-08 01:53:28.53	294.95	16.41	-40.2	-43.0	14.8	7.00e-07	0	56	0	378535936	51	5113
2026-01-08 01:53:29.54	294.74	16.37	-40.4	-43.3	14.4	0.00e+00	0	56	0	380633088	51	5312
2026-01-08 01:53:30.55	294.53	16.34	-40.6	-43.6	14.1	7.00e-07	0	56	0	382730240	51	5487
2026-01-08 01:53:31.56	294.31	16.30	-40.5	-43.5	14.2	1.50e-06	0	56	0	383778816	51	5424
2026-01-08 01:53:32.57	294.10	16.26	-40.6	-43.7	14.0	1.50e-06	0	56	0	385875968	51	5554
2026-01-08 01:53:33.58	293.89	16.22	-40.3	-43.2	14.5	1.50e-06	0	56	0	387973120	51	5237
2026-01-08 01:53:34.59	293.68	16.18	-40.4	-43.3	14.4	3.00e-06	0	56	0	390070272	51	5311
2026-01-08 01:53:35.60	293.47	16.15	-40.4	-43.3	14.4	7.00e-07	0	56	0	392167424	51	5314
2026-01-08 01:53:36.60	293.27	16.11	-40.3	-43.1	14.6	7.00e-07	0	56	0	394264576	51	5201
2026-01-08 01:53:37.61	293.06	16.07	-40.3	-43.1	14.5	1.50e-06	0	56	0	395313152	51	5207
2026-01-08 01:53:38.62	292.85	16.03	-40.3	-43.2	14.5	0.00e+00	0	56	0	397410304	51	5219
2026-01-08 01:53:39.63	292.64	15.99	-40.3	-43.1	14.6	0.00e+00	0	56	0	399507456	51	5180
2026-01-08 01:53:40.64	292.43	15.95	-40.1	-42.8	14.8	0.00e+00	0	56	0	401604608	51	5035
2026-01-08 01:53:41.65	292.23	15.91	-40.0	-42.7	14.9	0.00e+00	0	56	0	403701760	51	4968
2026-01-08 01:53:42.66	292.02	15.87	-40.1	-42.8	14.9	0.00e+00	0	56	0	404750336	51	4986
2026-01-08 01:53:43.66	291.82	15.83	-40.1	-42.8	14.9	7.00e-07	0	56	0	406847488	51	5016
2026-01-08 01:53:44.67	291.62	15.78	-40.0	-42.7	14.9	0.00e+00	0	56	0	408944640	51	4935
2026-01-08 01:53:45.68	291.41	15.74	-40.0	-42.6	15.0	0.00e+00	0	56	0	411041792	51	4910
2026-01-08 01:53:46.69	291.21	15.70	-39.8	-42.3	15.3	0.00e+00	0	56	0	412090368	51	4724
2026-01-08 01:53:47.70	291.01	15.66	-39.5	-41.9	15.7	0.00e+00	0	56	0	414187520	51	4534
2026-01-08 01:53:48.71	290.80	15.61	-39.4	-41.8	15.9	0.00e+00	0	56	0	416284672	50	4728
2026-01-08 01:53:49.72	290.60	15.57	-39.4	-41.7	15.9	0.00e+00	0	56	0	418381824	50	4678
2026-01-08 01:53:50.73	290.40	15.53	-39.4	-41.8	15.9	0.00e+00	0	56	0	420478976	50	4729
2026-01-08 01:53:51.74	290.20	15.48	-39.4	-41.7	15.9	0.00e+00	0	56	0	422576128	50	4689
2026-01-08 01:53:52.75	290.00	15.44	-39.6	-42.0	15.6	0.00e+00	0	56	0	423624704	50	4865
2026-01-08 01:53:53.75	289.80	15.40	-39.5	-41.9	15.7	0.00e+00	0	56	0	425721856	50	4795
2026-01-08 01:53:54.77	289.60	15.35	-39.6	-42.1	15.5	0.00e+00	0	56	0	427819008	50	4881
2026-01-08 01:53:55.77	289.41	15.31	-39.5	-41.9	15.7	0.00e+00	0	56	0	429916160	50	4784
2026-01-08 01:53:56.79	289.21	15.26	-39.5	-41.9	15.7	0.00e+00	0	56	0	432013312	50	4807
2026-01-08 01:53:57.80	289.01	15.22	-39.7	-42.3	15.3	0.00e+00	0	56	0	433061888	50	4984
2026-01-08 01:53:58.80	288.82	15.17	-39.8	-42.5	15.1	0.00e+00	0	56	0	435159040	50	5115
2026-01-08 01:53:59.82	288.62	15.13	-40.2	-43.1	14.4	0.00e+00	0	56	0	437256192	51	5206
2026-01-08 01:54:00.82	288.42	15.08	-40.5	-43.5	14.1	1.50e-06	0	56	0	439353344	51	5423
2026-01-08 01:54:01.83	288.23	15.04	-40.7	-43.8	13.7	3.00e-06	0	56	0	441450496	51	5640
2026-01-08 01:54:02.84	288.04	14.99	-40.6	-43.7	13.7	4.50e-06	0	56	0	442499072	52	5258
2026-01-08 01:54:03.85	287.84	14.94	-40.6	-43.8	13.7	3.00e-06	0	56	0	444596224	52	5281
2026-01-08 01:54:04.86	287.65	14.90	-40.3	-43.3	14.1	2.20e-06	0	56	0	446693376	52	5000
2026-01-08 01:54:05.86	287.46	14.85	-40.4	-43.4	14.0	7.00e-07	0	56	0	448790528	52	5085
2026-01-08 01:54:06.87	287.27	14.80	-40.3	-43.2	14.2	0.00e+00	0	56	0	450887680	52	4975
2026-01-08 01:54:07.88	287.08	14.75	-40.1	-43.0	14.5	0.00e+00	0	56	0	451936256	52	4831
2026-01-08 01:54:08.89	286.89	14.71	-40.2	-43.1	14.4	0.00e+00	0	56	0	454033408	52	4883
2026-01-08 01:54:09.90	286.70	14.66	-40.3	-43.3	14.1	0.00e+00	0	56	0	456130560	52	4989
2026-01-08 01:54:10.91	286.51	14.61	-40.3	-43.3	14.1	0.00e+00	0	56	0	458227712	52	5008
2026-01-08 01:54:11.92	286.32	14.56	-40.4	-43.4	14.0	1.50e-06	0	56	0	460324864	52	5071
2026-01-08 01:54:12.93	286.13	14.51	-40.5	-43.6	13.9	3.00e-06	0	56	0	461373440	52	5172
2026-01-08 01:54:13.93	285.95	14.46	-40.5	-43.6	13.8	4.50e-06	0	56	0	463470592	52	5199
2026-01-08 01:54:14.94	285.76	14.42	-40.5	-43.6	13.8	6.10e-06	0	56	0	465567744	52	5181
2026-01-08 01:54:15.95	285.58	14.37	-40.3	-43.3	14.0	3.80e-06	0	56	0	467664896	52	5028
2026-01-08 01:54:16.96	285.39	14.32	-40.3	-43.2	14.2	1.50e-06	0	56	0	469762048	52	4975
2026-01-08 01:54:17.97	285.21	14.27	-40.3	-43.3	14.1	3.80e-06	0	56	0	470810624	52	4996
2026-01-08 01:54:18.98	285.02	14.22	-40.2	-43.1	14.3	7.00e-07	0	56	0	472907776	52	4889
2026-01-08 01:54:19.99	284.84	14.17	-40.3	-43.3	14.1	2.20e-06	0	56	0	475004928	52	5009
2026-01-08 01:54:21.00	284.66	14.12	-40.3	-43.2	14.1	3.00e-06	0	56	0	477102080	52	4983
2026-01-08 01:54:22.01	284.47	14.07	-40.2	-43.2	14.2	1.50e-06	0	56	0	479199232	52	4939
2026-01-08 01:54:23.02	284.29	14.02	-40.1	-43.0	14.3	0.00e+00	0	56	0	480247808	52	4867
2026-01-08 01:54:24.03	284.11	13.97	-40.1	-43.0	14.4	7.00e-07	0	56	0	482344960	52	4858
2026-01-08 01:54:25.04	283.93	13.91	-40.0	-42.8	14.7	0.00e+00	0	56	0	484442112	51	5006
2026-01-08 01:54:26.05	283.75	13.86	-40.0	-42.7	14.8	7.00e-07	0	56	0	486539264	51	4947
2026-01-08 01:54:27.06	283.57	13.81	-39.9	-42.6	14.9	7.00e-07	0	56	0	488636416	51	4890
2026-01-08 01:54:28.06	283.40	13.76	-39.9	-42.6	14.8	0.00e+00	0	56	0	490733568	51	4913
2026-01-08 01:54:29.07	283.22	13.71	-40.1	-42.9	14.6	0.00e+00	0	56	0	491782144	51	5049
2026-01-08 01:54:30.08	283.04	13.66	-40.4	-43.3	14.1	7.00e-07	0	56	0	493879296	51	5332
2026-01-08 01:54:31.09	282.86	13.61	-40.4	-43.3	14.1	7.00e-07	0	56	0	495976448	51	5326
2026-01-08 01:54:32.10	282.69	13.55	-40.4	-43.5	14.0	7.00e-07	0	56	0	498073600	51	5413
2026-01-08 01:54:33.11	282.51	13.50	-40.4	-43.5	14.0	3.00e-06	0	56	0	500170752	51	5413
2026-01-08 01:54:34.12	282.34	13.45	-40.5	-43.5	13.9	3.00e-06	0	56	0	501219328	51	5440
2026-01-08 01:54:35.13	282.16	13.40	-40.5	-43.5	13.9	1.50e-06	0	56	0	503316480	51	5435
2026-01-08 01:54:36.14	281.99	13.34	-40.3	-43.2	14.2	2.20e-06	0	56	0	505413632	51	5272
2026-01-08 01:54:37.15	281.82	13.29	-40.3	-43.3	14.1	0.00e+00	0	56	0	507510784	51	5321
2026-01-08 01:54:38.16	281.65	13.24	-40.2	-43.1	14.3	1.50e-06	0	56	0	509607936	51	5178
2026-01-08 01:54:39.17	281.47	13.18	-40.2	-43.1	14.3	7.00e-07	0	56	0	510656512	51	5172
2026-01-08 01:54:40.17	281.30	13.13	-40.4	-43.3	14.1	3.00e-06	0	56	0	512753664	51	5320
2026-01-08 01:54:41.19	281.13	13.08	-40.3	-43.3	14.1	1.50e-06	0	56	0	514850816	51	5299
2026-01-08 01:54:42.20	280.96	13.02	-40.6	-43.8	13.7	3.80e-06	0	56	0	516947968	51	5635
2026-01-08 01:54:43.20	280.80	12.97	-40.7	-43.8	13.6	5.30e-06	0	56	0	519045120	51	5647
2026-01-08 01:54:44.21	280.63	12.92	-40.9	-44.4	12.9	3.28e-05	0	56	0	520093696	52	5694
2026-01-08 01:54:45.22	280.46	12.86	-41.1	-44.8	12.5	1.11e-04	0	56	0	522190848	53	5644
2026-01-08 01:54:46.23	280.29	12.81	-41.7	-46.1	11.2	9.19e-04	0	56	0	524288000	53	6509
2026-01-08 01:54:47.24	280.13	12.76	-41.9	-46.6	10.7	2.42e-03	0	56	0	526385152	54	6535
2026-01-08 01:54:48.25	279.96	12.70	-42.0	-46.9	10.3	2.77e-03	0	56	0	528482304	54	6747
2026-01-08 01:54:49.25	279.80	12.65	-42.1	-47.2	10.0	6.80e-03	0	56	0	529530880	54	7006
2026-01-08 01:54:50.26	279.63	12.59	-42.1	-47.1	10.1	6.56e-03	0	56	0	531628032	54	6919
2026-01-08 01:54:51.27	279.47	12.54	-41.9	-46.6	10.6	5.64e-03	0	56	0	533725184	54	6530
2026-01-08 01:54:52.27	279.31	12.48	-41.9	-46.5	10.7	3.22e-03	0	56	0	535822336	54	6452
2026-01-08 01:54:53.28	279.14	12.43	-41.9	-46.5	10.7	2.42e-03	0	56	0	537919488	54	6460
2026-01-08 01:54:54.29	278.98	12.37	-41.6	-45.9	11.2	1.45e-03	0	56	0	538968064	54	6050
2026-01-08 01:54:55.30	278.82	12.32	-41.6	-45.8	11.3	1.21e-03	0	56	0	541065216	54	5990
2026-01-08 01:54:56.31	278.66	12.26	-41.6	-45.8	11.4	1.13e-03	0	56	0	543162368	54	5954
2026-01-08 01:54:57.32	278.50	12.21	-41.5	-45.6	11.6	7.16e-04	0	56	0	545259520	54	5806
2026-01-08 01:54:58.33	278.34	12.15	-41.2	-45.1	12.2	5.59e-04	0	56	0	547356672	54	5480
2026-01-08 01:54:59.33	278.18	12.10	-41.1	-44.8	12.4	1.69e-04	0	56	0	548405248	54	5313
2026-01-08 01:55:00.34	278.02	12.04	-40.9	-44.5	12.6	1.27e-04	0	56	0	550502400	53	5446
2026-01-08 01:55:01.35	277.86	11.99	-40.7	-44.2	13.0	3.81e-05	0	56	0	552599552	53	5239
2026-01-08 01:55:02.36	277.71	11.93	-40.6	-44.0	13.1	2.67e-05	0	56	0	554696704	53	5141
2026-01-08 01:55:03.37	277.55	11.88	-40.6	-44.1	13.1	2.74e-05	0	56	0	556793856	53	5164
2026-01-08 01:55:04.38	277.39	11.82	-40.7	-44.2	13.0	3.58e-05	0	56	0	557842432	53	5222
2026-01-08 01:55:05.39	277.24	11.76	-40.7	-44.2	12.9	4.11e-05	0	56	0	559939584	53	5236
2026-01-08 01:55:06.40	277.08	11.71	-40.9	-44.6	12.5	9.30e-05	0	56	0	562036736	53	5493
2026-01-08 01:55:07.40	276.93	11.65	-40.9	-44.6	12.5	1.40e-04	0	56	0	564133888	53	5475
2026-01-08 01:55:08.41	276.77	11.60	-40.9	-44.5	12.5	1.08e-04	0	56	0	566231040	53	5458
2026-01-08 01:55:09.42	276.62	11.54	-40.9	-44.5	12.5	1.07e-04	0	56	0	567279616	53	5457
2026-01-08 01:55:10.43	276.47	11.48	-40.6	-44.1	12.9	9.99e-05	0	56	0	569376768	53	5201
2026-01-08 01:55:11.44	276.32	11.43	-40.6	-44.1	13.0	4.57e-05	0	56	0	571473920	53	5185
2026-01-08 01:55:12.45	276.17	11.37	-40.4	-43.8	13.3	2.44e-05	0	56	0	573571072	52	5301
2026-01-08 01:55:13.46	276.01	11.32	-40.4	-43.7	13.4	1.14e-05	0	56	0	575668224	52	5223
2026-01-08 01:55:14.47	275.86	11.26	-40.3	-43.5	13.6	9.90e-06	0	56	0	576716800	52	5114
2026-01-08 01:55:15.48	275.71	11.20	-40.2	-43.5	13.5	9.10e-06	0	56	0	578813952	52	5137
2026-01-08 01:55:16.48	275.57	11.15	-40.2	-43.4	13.6	9.10e-06	0	56	0	580911104	52	5083
2026-01-08 01:55:17.49	275.42	11.09	-40.2	-43.4	13.5	7.60e-06	0	56	0	583008256	52	5065
2026-01-08 01:55:18.50	275.27	11.03	-40.2	-43.5	13.4	1.44e-05	0	56	0	585105408	52	5121
2026-01-08 01:55:19.51	275.12	10.98	-40.2	-43.4	13.4	1.29e-05	0	56	0	587202560	52	5096
2026-01-08 01:55:20.52	274.98	10.92	-40.2	-43.6	13.3	1.75e-05	0	56	0	588251136	52	5161
2026-01-08 01:55:21.53	274.83	10.86	-40.3	-43.8	13.0	2.21e-05	0	56	0	590348288	52	5303
2026-01-08 01:55:22.54	274.68	10.81	-40.4	-44.0	12.7	5.87e-05	0	56	0	592445440	52	5422
2026-01-08 01:55:23.55	274.54	10.75	-40.5	-44.2	12.4	8.54e-05	0	56	0	594542592	52	5582
2026-01-08 01:55:24.56	274.39	10.69	-40.7	-44.6	12.0	2.28e-04	0	56	0	596639744	52	5799
2026-01-08 01:55:25.57	274.25	10.63	-40.8	-44.9	11.6	5.19e-04	0	56	0	597688320	52	6051
2026-01-08 01:55:26.58	274.11	10.58	-40.9	-45.2	11.2	9.09e-04	0	56	0	599785472	52	6257
2026-01-08 01:55:27.59	273.96	10.52	-40.9	-45.3	11.0	1.41e-03	0	56	0	601882624	52	6346
2026-01-08 01:55:28.60	273.82	10.46	-40.9	-45.5	10.9	2.05e-03	0	56	0	603979776	52	6425
2026-01-08 01:55:29.61	273.68	10.41	-40.9	-45.5	10.8	2.26e-03	0	56	0	606076928	52	6455
2026-01-08 01:55:30.62	273.54	10.35	-41.0	-45.7	10.5	2.69e-03	0	56	0	607125504	52	6579
2026-01-08 01:55:31.63	273.40	10.29	-41.0	-45.8	10.4	4.24e-03	0	56	0	609222656	52	6711
2026-01-08 01:55:32.64	273.26	10.23	-41.1	-45.9	10.3	5.05e-03	0	56	0	611319808	52	6774
2026-01-08 01:55:33.64	273.12	10.18	-41.1	-46.1	10.1	6.53e-03	0	56	0	613416960	52	6908
2026-01-08 01:55:34.65	272.98	10.12	-41.1	-46.1	10.0	8.42e-03	0	56	0	615514112	52	6943
2026-01-08 01:55:35.66	272.84	10.06	-41.0	-46.1	10.0	8.71e-03	0	56	0	616562688	52	6897
2026-01-08 01:55:36.67	272.71	10.00	-41.1	-46.2	9.9	7.60e-03	0	56	0	618659840	52	6987
2026-01-08 01:55:37.68	272.57	9.95	-41.0	-46.1	9.9	7.78e-03	0	56	0	620756992	52	6917
2026-01-08 01:55:38.69	272.43	9.89	-41.0	-46.0	10.1	6.78e-03	0	56	0	622854144	52	6802
2026-01-08 01:55:39.70	272.30	9.83	-40.8	-45.7	10.4	5.96e-03	0	56	0	624951296	52	6581
2026-01-08 01:55:40.71	272.16	9.77	-40.8	-45.5	10.5	4.45e-03	0	56	0	625999872	52	6458
2026-01-08 01:55:41.72	272.02	9.72	-40.7	-45.4	10.5	4.14e-03	0	56	0	628097024	52	6399
2026-01-08 01:55:42.72	271.89	9.66	-40.7	-45.3	10.6	3.46e-03	0	56	0	630194176	52	6329
2026-01-08 01:55:43.73	271.76	9.60	-40.6	-45.2	10.8	3.17e-03	0	56	0	632291328	52	6225
2026-01-08 01:55:44.74	271.62	9.54	-40.5	-45.1	10.8	2.75e-03	0	56	0	634388480	52	6179
2026-01-08 01:55:45.75	271.49	9.49	-40.6	-45.2	10.7	3.49e-03	0	56	0	635437056	52	6261
2026-01-08 01:55:46.76	271.36	9.43	-40.6	-45.4	10.4	3.49e-03	0	56	0	637534208	52	6415
2026-01-08 01:55:47.77	271.23	9.37	-40.6	-45.5	10.2	5.00e-03	0	56	0	639631360	52	6468
2026-01-08 01:55:48.78	271.10	9.31	-40.7	-45.7	10.0	7.00e-03	0	56	0	641728512	52	6592
2026-01-08 01:55:49.79	270.96	9.26	-40.8	-45.9	9.9	9.93e-03	0	56	0	643825664	52	6757
2026-01-08 01:55:50.80	270.83	9.20	-40.8	-46.0	9.7	1.15e-02	0	56	0	644874240	52	6873
2026-01-08 01:55:51.81	270.70	9.14	-40.8	-46.2	9.5	1.26e-02	0	56	0	646971392	52	6963
2026-01-08 01:55:52.82	270.58	9.08	-40.7	-46.1	9.3	1.54e-02	0	56	0	649068544	52	6924
2026-01-08 01:55:53.82	270.45	9.03	-40.7	-46.3	9.1	1.96e-02	0	56	0	651165696	52	7083
2026-01-08 01:55:54.83	270.32	8.97	-40.7	-46.4	9.0	2.46e-02	0	56	0	653262848	52	7125
2026-01-08 01:55:55.84	270.19	8.91	-40.7	-46.6	8.6	3.23e-02	0	56	0	655360000	52	7354
2026-01-08 01:55:56.85	270.06	8.85	-40.7	-46.7	8.5	3.75e-02	0	56	0	656408576	52	7403
2026-01-08 01:55:57.86	269.94	8.80	-40.7	-46.9	8.3	4.31e-02	0	56	0	658505728	52	7571
2026-01-08 01:55:58.87	269.81	8.74	-40.7	-47.2	7.9	6.33e-02	0	56	0	660602880	52	7817
2026-01-08 01:55:59.88	269.69	8.68	-40.7	-47.4	7.6	8.89e-02	0	56	0	662700032	52	8057
2026-01-08 01:56:00.89	269.56	8.62	-40.7	-47.9	7.0	1.44e-01	0	56	0	663748608	52	8536
2026-01-08 01:56:01.90	269.44	8.56	-40.7	-48.2	6.7	1.79e-01	0	56	0	665845760	52	8785
2026-01-08 01:56:02.91	269.31	8.51	-40.8	-48.7	6.1	2.42e-01	0	56	0	667942912	52	9352
2026-01-08 01:56:03.92	269.19	8.45	-40.7	-49.1	5.8	3.40e-01	0	56	0	670040064	52	9791
2026-01-08 01:56:04.92	269.07	8.39	-40.8	-49.7	5.3	5.01e-01	0	56	0	672137216	52	10524
2026-01-08 01:56:05.93	268.94	8.33	-40.7	-50.2	5.0	6.52e-01	0	57	0	673185792	52	11110
2026-01-08 01:56:06.94	268.82	8.28	-40.7	-50.6	4.8	7.59e-01	0	56	0	675282944	52	11606
2026-01-08 01:56:07.95	268.70	8.22	-40.7	-51.1	4.5	9.94e-01	0	56	0	677380096	52	12345
2026-01-08 01:56:08.96	268.58	8.16	-40.7	-51.4	4.3	1.22e+00	0	56	0	679477248	52	12762
2026-01-08 01:56:09.97	268.46	8.10	-40.7	-51.6	4.2	1.34e+00	0	56	0	679477248	52	13092
2026-01-08 01:56:10.98	268.34	8.05	-40.7	-51.9	4.2	1.40e+00	0	56	0	679477248	52	13464
2026-01-08 01:56:11.99	268.22	7.99	-44.1	-58.4	3.8	1.39e+00	0	56	104	679477248	58	20249
2026-01-08 01:56:13.00	268.10	7.93	-44.7	-59.1	3.8	1.49e+00	0	56	104	679477248	59	20705
2026-01-08 01:56:14.01	267.98	7.87	-44.8	-59.4	3.8	1.49e+00	0	56	104	679477248	60	20199
2026-01-08 01:56:15.01	267.86	7.82	-44.9	-59.6	3.8	1.49e+00	0	56	104	679477248	60	20547
2026-01-08 01:56:16.02	267.74	7.76	-45.0	-59.7	3.8	1.49e+00	0	56	104	679477248	60	20815
2026-01-08 01:56:17.03	267.63	7.70	-45.1	-59.7	3.8	1.49e+00	0	56	104	679477248	60	20883
2026-01-08 01:56:18.04	267.51	7.64	-45.1	-59.8	3.8	1.49e+00	0	56	104	679477248	60	21105
2026-01-08 01:56:19.05	267.39	7.59	-45.2	-59.8	3.8	1.49e+00	0	56	104	679477248	60	21189
2026-01-08 01:56:20.06	267.28	7.53	-45.2	-59.8	3.8	1.49e+00	0	56	104	679477248	60	21246
2026-01-08 01:56:21.07	267.16	7.47	-45.2	-59.8	3.8	1.49e+00	0	56	104	679477248	60	21230
2026-01-08 01:56:22.08	267.05	7.41	-45.2	-59.8	3.8	1.49e+00	0	56	104	679477248	60	21174
2026-01-08 01:56:23.09	266.93	7.36	-45.1	-59.8	3.8	1.49e+00	0	56	104	679477248	60	21127
2026-01-08 01:56:24.09	266.82	7.30	-45.1	-59.8	3.8	1.49e+00	0	57	104	679477248	60	21085
2026-01-08 01:56:25.10	266.71	7.24	-45.1	-59.8	3.8	1.49e+00	0	56	104	679477248	60	21135
2026-01-08 01:56:26.11	266.59	7.18	-45.1	-59.8	3.8	1.49e+00	0	56	104	679477248	60	21068
2026-01-08 01:56:27.12	266.48	7.13	-45.1	-59.8	3.8	1.49e+00	0	57	104	679477248	60	21146
2026-01-08 01:56:28.13	266.37	7.07	-45.1	-59.8	3.8	1.49e+00	0	56	104	679477248	60	21130
2026-01-08 01:56:29.14	266.26	7.01	-45.1	-59.8	3.8	1.49e+00	0	56	104	679477248	60	21026
2026-01-08 01:56:30.15	266.14	6.96	-45.1	-59.8	3.8	1.49e+00	0	56	104	679477248	60	21075
2026-01-08 01:56:31.16	266.03	6.90	-45.1	-59.8	3.8	1.49e+00	0	56	104	679477248	60	21087
2026-01-08 01:56:32.17	265.92	6.84	-45.1	-59.8	3.8	1.49e+00	0	57	104	679477248	60	21065
2026-01-08 01:56:33.18	265.81	6.78	-45.1	-59.8	3.8	1.49e+00	0	57	104	679477248	60	21052
2026-01-08 01:56:34.19	265.70	6.73	-45.1	-59.8	3.8	1.49e+00	0	57	104	679477248	60	21052
2026-01-08 01:56:35.20	265.59	6.67	-45.1	-59.8	3.8	1.49e+00	0	56	104	679477248	60	21078
2026-01-08 01:56:36.21	265.49	6.61	-45.1	-59.8	3.8	1.49e+00	0	56	104	679477248	60	21089
2026-01-08 01:56:37.22	265.38	6.55	-45.1	-59.8	3.8	1.49e+00	0	56	104	679477248	60	21043
2026-01-08 01:56:38.23	265.27	6.50	-45.1	-59.8	3.8	1.49e+00	0	56	104	679477248	60	21059
2026-01-08 01:56:39.24	265.16	6.44	-45.1	-59.8	3.8	1.49e+00	0	56	104	679477248	60	21028
2026-01-08 01:56:40.25	265.06	6.38	-45.1	-59.8	3.8	1.49e+00	0	56	104	679477248	60	21070
2026-01-08 01:56:41.26	264.95	6.33	-45.1	-59.8	3.8	1.49e+00	0	56	104	679477248	60	21053
2026-01-08 01:56:42.27	264.84	6.27	-45.1	-59.7	3.8	1.49e+00	0	56	104	679477248	60	21002
2026-01-08 01:56:43.28	264.74	6.21	-45.1	-59.8	3.8	1.49e+00	0	56	104	679477248	60	21029
2026-01-08 01:56:44.29	264.63	6.16	-45.1	-59.8	3.8	1.49e+00	0	56	104	679477248	60	21044
2026-01-08 01:56:45.30	264.53	6.10	-45.1	-59.8	3.8	1.49e+00	0	56	104	679477248	60	21047
2026-01-08 01:56:46.31	264.42	6.04	-45.1	-59.8	3.8	1.49e+00	0	57	104	679477248	60	21037
2026-01-08 01:56:47.32	264.32	5.99	-45.1	-59.7	3.8	1.49e+00	0	57	104	679477248	60	20991
2026-01-08 01:56:48.33	264.21	5.93	-45.1	-59.8	3.8	1.49e+00	0	56	104	679477248	60	21065
2026-01-08 01:56:49.33	264.11	5.87	-45.1	-59.7	3.8	1.49e+00	0	57	104	679477248	60	20953
2026-01-08 01:56:50.34	264.01	5.82	-45.1	-59.8	3.8	1.49e+00	0	56	104	679477248	60	21031
2026-01-08 01:56:51.35	263.91	5.76	-45.1	-59.7	3.8	1.49e+00	0	57	104	679477248	60	20992
2026-01-08 01:56:52.36	263.80	5.70	-45.1	-59.7	3.8	1.49e+00	0	56	104	679477248	60	20986
2026-01-08 01:56:53.37	263.70	5.65	-45.1	-59.7	3.8	1.49e+00	0	56	104	679477248	60	20993
2026-01-08 01:56:54.38	263.60	5.59	-45.1	-59.7	3.8	1.49e+00	0	56	104	679477248	60	20982
2026-01-08 01:56:55.39	263.50	5.53	-45.1	-59.7	3.8	1.49e+00	0	56	104	679477248	60	20990
2026-01-08 01:56:56.40	263.40	5.48	-45.1	-59.7	3.8	1.49e+00	0	56	104	679477248	60	20992
2026-01-08 01:56:57.41	263.30	5.42	-45.1	-59.8	3.8	1.49e+00	0	56	104	679477248	60	21023
2026-01-08 01:56:58.42	263.20	5.36	-45.1	-59.7	3.8	1.49e+00	0	57	104	679477248	60	21009
2026-01-08 01:56:59.43	263.10	5.31	-45.1	-59.7	3.8	1.49e+00	0	56	104	679477248	60	20966
2026-01-08 01:57:00.44	263.00	5.25	-45.1	-59.8	3.8	1.49e+00	0	57	104	679477248	60	21050
2026-01-08 01:57:01.45	262.90	5.20	-45.1	-59.7	3.8	1.49e+00	0	56	104	679477248	60	21006
2026-01-08 01:57:02.46	262.81	5.14	-45.1	-59.7	3.8	1.49e+00	0	56	104	679477248	60	20986
2026-01-08 01:57:03.47	262.71	5.08	-45.1	-59.7	3.8	1.49e+00	0	57	104	679477248	60	20999
2026-01-08 01:57:04.48	262.61	5.03	-45.1	-59.7	3.8	1.49e+00	0	57	104	679477248	60	20988
2026-01-08 01:57:05.49	262.51	4.97	-45.1	-59.7	3.8	1.49e+00	0	56	104	679477248	60	21012
2026-01-08 01:57:06.50	262.42	4.92	-45.1	-59.7	3.8	1.49e+00	0	56	104	679477248	60	20959
2026-01-08 01:57:07.51	262.32	4.86	-45.1	-59.7	3.8	1.49e+00	0	56	104	679477248	60	20994
2026-01-08 01:57:08.52	262.23	4.80	-45.1	-59.7	3.8	1.49e+00	0	56	104	679477248	60	20971
2026-01-08 01:57:09.53	262.13	4.75	-45.1	-59.7	3.8	1.49e+00	0	56	104	679477248	60	20951
2026-01-08 01:57:10.53	262.04	4.69	-45.1	-59.7	3.8	1.49e+00	0	56	104	679477248	60	20950
2026-01-08 01:57:11.54	261.94	4.64	-45.0	-59.7	3.8	1.49e+00	0	56	104	679477248	60	20952
2026-01-08 01:57:12.55	261.85	4.58	-45.1	-59.7	3.8	1.49e+00	0	56	104	679477248	60	21007
2026-01-08 01:57:13.56	261.75	4.53	-45.0	-59.7	3.8	1.49e+00	0	56	104	679477248	60	20964
2026-01-08 01:57:14.57	261.66	4.47	-45.1	-59.8	3.8	1.49e+00	0	57	104	679477248	60	21037
2026-01-08 01:57:15.58	261.57	4.41	-45.0	-59.7	3.8	1.49e+00	0	57	104	679477248	60	20971
2026-01-08 01:57:16.60	261.47	4.36	-45.0	-59.7	3.8	1.49e+00	0	56	104	679477248	60	20926
2026-01-08 01:57:17.61	261.38	4.30	-45.0	-59.7	3.8	1.49e+00	0	56	104	679477248	60	21001
2026-01-08 01:57:18.62	261.29	4.25	-45.0	-59.7	3.8	1.49e+00	0	56	104	679477248	60	20966
2026-01-08 01:57:19.62	261.20	4.19	-45.1	-59.7	3.8	1.49e+00	0	56	104	679477248	60	20965
2026-01-08 01:57:20.64	261.10	4.14	-45.0	-59.7	3.8	1.49e+00	0	56	104	679477248	60	20940
2026-01-08 01:57:21.65	261.01	4.08	-45.0	-59.7	3.8	1.49e+00	0	57	104	679477248	60	20938
2026-01-08 01:57:22.66	260.92	4.03	-45.0	-59.7	3.8	1.49e+00	0	56	104	679477248	60	21007
2026-01-08 01:57:23.67	260.83	3.97	-45.0	-59.7	3.8	1.49e+00	0	57	104	679477248	60	20928
2026-01-08 01:57:24.68	260.74	3.92	-45.1	-59.7	3.8	1.49e+00	0	56	104	679477248	60	21004
2026-01-08 01:57:25.69	260.65	3.86	-45.0	-59.7	3.8	1.49e+00	0	56	104	679477248	60	21003
2026-01-08 01:57:26.70	260.56	3.81	-45.1	-59.7	3.8	1.49e+00	0	56	104	679477248	60	21000
2026-01-08 01:57:27.71	260.47	3.75	-45.0	-59.7	3.8	1.49e+00	0	57	104	679477248	60	20921
2026-01-08 01:57:28.72	260.39	3.70	-45.1	-59.7	3.8	1.49e+00	0	56	104	679477248	60	20954
2026-01-08 01:57:29.73	260.30	3.64	-45.0	-59.7	3.8	1.49e+00	0	56	104	679477248	60	20956
2026-01-08 01:57:30.74	260.21	3.59	-45.0	-59.7	3.8	1.49e+00	0	56	104	679477248	60	21007
2026-01-08 01:57:31.75	260.12	3.53	-45.0	-59.8	3.8	1.49e+00	0	57	104	679477248	60	21021
2026-01-08 01:57:32.76	260.03	3.48	-45.0	-59.7	3.8	1.49e+00	0	56	104	679477248	60	20857
2026-01-08 01:57:33.77	259.95	3.42	-45.0	-59.7	3.8	1.49e+00	0	57	104	679477248	60	20951
2026-01-08 01:57:34.78	259.86	3.37	-45.0	-59.7	3.8	1.49e+00	0	57	104	679477248	60	20958
2026-01-08 01:57:35.79	259.78	3.31	-45.0	-59.7	3.8	1.49e+00	0	57	104	679477248	60	20930
2026-01-08 01:57:36.80	259.69	3.26	-45.0	-59.7	3.8	1.49e+00	0	57	104	679477248	60	20954
2026-01-08 01:57:37.81	259.60	3.20	-45.1	-59.7	3.8	1.49e+00	0	57	104	679477248	60	20983
2026-01-08 01:57:38.82	259.52	3.15	-45.1	-59.7	3.8	1.49e+00	0	56	104	679477248	60	20925
2026-01-08 01:57:39.83	259.43	3.09	-45.0	-59.7	3.8	1.49e+00	0	56	104	679477248	60	20964
2026-01-08 01:57:40.84	259.35	3.04	-45.0	-59.7	3.8	1.49e+00	0	57	104	679477248	60	20904
2026-01-08 01:57:41.85	259.26	2.98	-45.0	-59.7	3.8	1.49e+00	0	57	104	679477248	60	20971
2026-01-08 01:57:42.86	259.18	2.93	-45.0	-59.7	3.8	1.49e+00	0	57	104	679477248	60	20919
2026-01-08 01:57:43.87	259.10	2.88	-45.0	-59.7	3.8	1.49e+00	0	56	104	679477248	60	20916
2026-01-08 01:57:44.88	259.01	2.82	-45.0	-59.7	3.8	1.49e+00	0	56	104	679477248	60	20899
2026-01-08 01:57:45.89	258.93	2.77	-45.0	-59.7	3.8	1.49e+00	0	57	104	679477248	60	20901
2026-01-08 01:57:46.90	258.85	2.71	-45.0	-59.7	3.8	1.49e+00	0	56	104	679477248	60	20970
2026-01-08 01:57:47.91	258.76	2.66	-45.0	-59.7	3.8	1.49e+00	0	57	104	679477248	60	20923
2026-01-08 01:57:48.91	258.68	2.61	-45.0	-59.7	3.8	1.49e+00	0	57	104	679477248	60	20962
2026-01-08 01:57:49.93	258.60	2.55	-45.0	-59.7	3.8	1.49e+00	0	56	104	679477248	60	20979
2026-01-08 01:57:50.94	258.52	2.50	-45.0	-59.7	3.8	1.49e+00	0	57	104	679477248	60	20973
2026-01-08 01:57:51.95	258.44	2.44	-45.0	-59.7	3.8	1.49e+00	0	57	104	679477248	60	20950
2026-01-08 01:57:52.95	258.36	2.39	-45.0	-59.7	3.8	1.49e+00	0	57	104	679477248	60	20950
2026-01-08 01:57:53.96	258.28	2.34	-45.0	-59.7	3.8	1.49e+00	0	56	104	679477248	60	20842
2026-01-08 01:57:54.97	258.20	2.28	-45.0	-59.7	3.8	1.49e+00	0	56	104	679477248	60	20921
2026-01-08 01:57:55.98	258.12	2.23	-45.0	-59.7	3.8	1.49e+00	0	57	104	679477248	60	21002
2026-01-08 01:57:56.99	258.04	2.18	-45.0	-59.7	3.8	1.49e+00	0	57	104	679477248	60	20946
2026-01-08 01:57:58.00	257.96	2.12	-45.0	-59.7	3.8	1.49e+00	0	56	104	679477248	60	20933
2026-01-08 01:57:59.01	257.88	2.07	-45.0	-59.7	3.8	1.49e+00	0	56	104	679477248	60	20890
2026-01-08 01:58:00.02	257.80	2.02	-45.0	-59.7	3.8	1.49e+00	0	56	104	679477248	60	20919

#Closed at: 2026-01-08 01:58:01
