passes_logs/2026/01/08/R2.0S_Moscow/R2.0S_Moscow__20260108_160507_FENGYUN_3E_rec.log

#Pass ID: 20260108_160507_FENGYUN 3E
#Satellite: FENGYUN 3E
#Configuration: FENGYUN 3E
#almurnet v.1.7.20251203
#Start time: 2026-01-08 16:05:08

#Version: 2.2.20231116
#Station: R2.0S_Moscow
#Location: 37.707566 lon 55.798166 lat
#TLE: 1 49008U 21062A   26007.88844255 -.00000338  00000+0 -13865-3 0  9992
#TLE: 2 49008  98.7481  13.0996 0001694 151.5348 208.5921 14.19883289233834

#Time	Az	El	Level	Level2	SNR	BER	BlckErr	Temp	State	Recorded	gain1	gain2
2026-01-08 16:05:08.53	219.05	2.08	-44.3	-55.2	3.8	8.47e-01	0	48	0	0	59	12491
2026-01-08 16:05:09.54	219.14	2.13	-44.3	-55.2	3.8	8.46e-01	0	48	104	0	59	12458
2026-01-08 16:05:10.54	219.23	2.18	-44.3	-55.2	3.8	8.46e-01	0	48	104	0	59	12469
2026-01-08 16:05:11.55	219.31	2.23	-44.3	-55.2	3.8	8.46e-01	0	48	104	0	59	12473
2026-01-08 16:05:12.56	219.40	2.28	-44.3	-55.2	3.8	8.45e-01	0	48	104	0	59	12474
2026-01-08 16:05:13.57	219.49	2.33	-44.3	-55.2	3.8	8.46e-01	0	49	104	0	59	12460
2026-01-08 16:05:14.58	219.58	2.38	-44.3	-55.2	3.8	8.47e-01	0	49	104	0	59	12481
2026-01-08 16:05:15.59	219.67	2.43	-44.3	-55.2	3.8	8.45e-01	0	49	104	0	59	12476
2026-01-08 16:05:16.61	219.76	2.49	-44.3	-55.2	3.8	8.46e-01	0	49	104	0	59	12473
2026-01-08 16:05:17.62	219.85	2.54	-44.3	-55.2	3.8	8.45e-01	0	49	104	0	59	12491
2026-01-08 16:05:18.63	219.94	2.59	-44.3	-55.2	3.8	8.46e-01	0	49	104	0	59	12455
2026-01-08 16:05:19.64	220.03	2.64	-44.3	-55.2	3.8	8.46e-01	0	49	104	0	59	12442
2026-01-08 16:05:20.65	220.12	2.69	-44.3	-55.2	3.8	8.46e-01	0	49	104	0	59	12461
2026-01-08 16:05:21.66	220.21	2.74	-44.3	-55.2	3.8	8.46e-01	0	49	104	0	59	12485
2026-01-08 16:05:22.67	220.31	2.79	-44.3	-55.2	3.8	8.45e-01	0	49	104	0	59	12480
2026-01-08 16:05:23.68	220.40	2.84	-44.3	-55.2	3.8	8.47e-01	0	49	104	0	59	12486
2026-01-08 16:05:24.69	220.49	2.90	-44.3	-55.2	3.8	8.48e-01	0	50	104	0	59	12462
2026-01-08 16:05:25.70	220.58	2.95	-44.3	-55.2	3.8	8.45e-01	0	50	104	0	59	12485
2026-01-08 16:05:26.71	220.68	3.00	-44.3	-55.3	3.8	8.46e-01	0	49	104	0	59	12529
2026-01-08 16:05:27.72	220.77	3.05	-44.3	-55.2	3.8	8.46e-01	0	50	104	0	59	12462
2026-01-08 16:05:28.73	220.86	3.10	-44.3	-55.2	3.8	8.46e-01	0	50	104	0	59	12507
2026-01-08 16:05:29.74	220.96	3.15	-44.3	-55.2	3.8	8.46e-01	0	50	104	0	59	12459
2026-01-08 16:05:30.75	221.05	3.20	-44.3	-55.2	3.8	8.44e-01	0	50	104	0	59	12499
2026-01-08 16:05:31.76	221.14	3.26	-44.3	-55.2	3.8	8.46e-01	0	50	104	0	59	12432
2026-01-08 16:05:32.77	221.24	3.31	-44.3	-55.2	3.8	8.46e-01	0	50	104	0	59	12451
2026-01-08 16:05:33.78	221.33	3.36	-44.3	-55.2	3.8	8.46e-01	0	50	104	0	59	12487
2026-01-08 16:05:34.79	221.43	3.41	-44.3	-55.2	3.8	8.45e-01	0	50	104	0	59	12443
2026-01-08 16:05:35.80	221.52	3.46	-44.3	-55.2	3.8	8.45e-01	0	50	104	0	59	12495
2026-01-08 16:05:36.81	221.62	3.51	-44.3	-55.2	3.8	8.46e-01	0	50	104	0	59	12508
2026-01-08 16:05:37.82	221.72	3.56	-44.3	-55.2	3.8	8.46e-01	0	50	104	0	59	12509
2026-01-08 16:05:38.83	221.81	3.62	-44.3	-55.2	3.8	8.46e-01	0	50	104	0	59	12478
2026-01-08 16:05:39.84	221.91	3.67	-44.3	-55.2	3.8	8.45e-01	0	50	104	0	59	12422
2026-01-08 16:05:40.85	222.01	3.72	-44.3	-55.2	3.8	8.47e-01	0	50	104	0	59	12505
2026-01-08 16:05:41.87	222.11	3.77	-44.3	-55.2	3.8	8.47e-01	0	51	104	0	59	12443
2026-01-08 16:05:42.88	222.20	3.82	-44.3	-55.2	3.8	8.47e-01	0	51	104	0	59	12492
2026-01-08 16:05:43.89	222.30	3.88	-44.3	-55.2	3.8	8.47e-01	0	51	104	0	59	12423
2026-01-08 16:05:44.90	222.40	3.93	-44.3	-55.2	3.8	8.46e-01	0	51	104	0	59	12478
2026-01-08 16:05:45.91	222.50	3.98	-44.3	-55.2	3.8	8.46e-01	0	51	104	0	59	12480
2026-01-08 16:05:46.92	222.60	4.03	-44.3	-55.2	3.8	8.47e-01	0	51	104	0	59	12498
2026-01-08 16:05:47.93	222.70	4.08	-44.3	-55.2	3.8	8.46e-01	0	51	104	0	59	12500
2026-01-08 16:05:48.94	222.80	4.14	-44.3	-55.2	3.8	8.45e-01	0	51	104	0	59	12488
2026-01-08 16:05:49.95	222.90	4.19	-44.3	-55.2	3.8	8.47e-01	0	51	104	0	59	12517
2026-01-08 16:05:50.96	223.00	4.24	-44.3	-55.2	3.8	8.46e-01	0	51	104	0	59	12504
2026-01-08 16:05:51.98	223.10	4.29	-44.3	-55.3	3.8	8.46e-01	0	51	104	0	59	12525
2026-01-08 16:05:52.98	223.20	4.34	-44.3	-55.2	3.8	8.46e-01	0	51	104	0	59	12502
2026-01-08 16:05:53.99	223.30	4.40	-44.3	-55.2	3.8	8.45e-01	0	51	104	0	59	12460
2026-01-08 16:05:55.01	223.41	4.45	-44.3	-55.2	3.8	8.47e-01	0	51	104	0	59	12516
2026-01-08 16:05:56.02	223.51	4.50	-44.3	-55.2	3.8	8.47e-01	0	51	104	0	59	12453
2026-01-08 16:05:57.03	223.61	4.55	-44.3	-55.2	3.8	8.46e-01	0	51	104	0	59	12414
2026-01-08 16:05:58.04	223.72	4.61	-44.3	-55.2	3.8	8.45e-01	0	51	104	0	59	12386
2026-01-08 16:05:59.05	223.82	4.66	-44.3	-55.2	3.8	8.47e-01	0	52	104	0	59	12445
2026-01-08 16:06:00.06	223.92	4.71	-44.3	-55.2	3.8	8.46e-01	0	52	104	0	59	12417
2026-01-08 16:06:01.07	224.03	4.76	-44.3	-55.1	3.8	8.46e-01	0	52	104	0	59	12359
2026-01-08 16:06:02.08	224.13	4.82	-44.3	-55.2	3.8	8.46e-01	0	52	104	0	59	12385
2026-01-08 16:06:03.09	224.24	4.87	-44.3	-55.1	3.8	8.46e-01	0	52	104	0	59	12286
2026-01-08 16:06:04.10	224.34	4.92	-44.3	-55.1	3.8	8.46e-01	0	52	104	0	59	12322
2026-01-08 16:06:05.12	224.45	4.97	-44.3	-55.1	3.8	8.46e-01	0	52	104	0	59	12356
2026-01-08 16:06:06.13	224.55	5.03	-44.3	-55.1	3.8	8.46e-01	0	52	104	0	59	12325
2026-01-08 16:06:07.14	224.66	5.08	-44.3	-55.2	3.8	8.46e-01	0	52	104	0	59	12394
2026-01-08 16:06:08.15	224.77	5.13	-44.3	-55.2	3.8	8.46e-01	0	52	104	0	59	12427
2026-01-08 16:06:09.16	224.87	5.18	-44.3	-55.2	3.8	8.47e-01	0	52	104	0	59	12501
2026-01-08 16:06:10.17	224.98	5.24	-44.3	-55.2	3.8	8.48e-01	0	52	104	0	59	12445
2026-01-08 16:06:11.18	225.09	5.29	-44.3	-55.3	3.8	8.46e-01	0	52	104	0	59	12539
2026-01-08 16:06:12.19	225.20	5.34	-44.3	-55.2	3.8	8.46e-01	0	52	104	0	59	12428
2026-01-08 16:06:13.20	225.31	5.39	-44.3	-55.1	3.8	8.47e-01	0	52	104	0	59	12312
2026-01-08 16:06:14.21	225.42	5.45	-44.3	-55.0	3.8	8.46e-01	0	52	104	0	59	12122
2026-01-08 16:06:15.22	225.52	5.50	-44.2	-54.8	3.8	8.47e-01	0	52	104	0	59	11868
2026-01-08 16:06:16.23	225.63	5.55	-44.2	-54.7	3.8	8.46e-01	0	52	104	0	59	11761
2026-01-08 16:06:17.24	225.74	5.61	-44.2	-54.7	3.8	8.46e-01	0	53	104	0	59	11686
2026-01-08 16:06:18.25	225.86	5.66	-44.2	-54.7	3.8	8.46e-01	0	53	104	0	59	11685
2026-01-08 16:06:19.26	225.97	5.71	-44.2	-54.7	3.8	8.46e-01	0	53	104	0	59	11708
2026-01-08 16:06:20.27	226.08	5.76	-44.2	-54.8	3.8	8.47e-01	0	53	104	0	59	11892
2026-01-08 16:06:21.28	226.19	5.82	-44.3	-54.9	3.8	8.44e-01	0	53	104	0	59	12080
2026-01-08 16:06:22.29	226.30	5.87	-44.3	-55.1	3.8	8.47e-01	0	53	104	0	59	12306
2026-01-08 16:06:23.30	226.41	5.92	-44.3	-55.1	3.8	8.46e-01	0	53	104	0	59	12357
2026-01-08 16:06:24.31	226.53	5.97	-44.3	-55.2	3.8	8.45e-01	0	53	104	0	59	12416
2026-01-08 16:06:25.33	226.64	6.03	-44.3	-55.1	3.8	8.46e-01	0	53	104	0	59	12305
2026-01-08 16:06:26.34	226.75	6.08	-44.3	-55.0	3.8	8.47e-01	0	53	104	0	59	12194
2026-01-08 16:06:27.35	226.87	6.13	-44.3	-55.0	3.8	8.47e-01	0	53	104	0	59	12171
2026-01-08 16:06:28.36	226.98	6.19	-44.3	-55.0	3.8	8.47e-01	0	53	104	0	59	12174
2026-01-08 16:06:29.37	227.10	6.24	-44.2	-55.0	3.8	8.45e-01	0	53	104	0	59	12140
2026-01-08 16:06:30.38	227.21	6.29	-44.3	-55.0	3.8	8.47e-01	0	53	104	0	59	12117
2026-01-08 16:06:31.39	227.33	6.35	-44.2	-54.9	3.8	8.46e-01	0	53	104	0	59	12048
2026-01-08 16:06:32.40	227.44	6.40	-44.3	-55.0	3.8	8.46e-01	0	53	104	0	59	12104
2026-01-08 16:06:33.41	227.56	6.45	-44.3	-55.0	3.8	8.47e-01	0	53	104	0	59	12120
2026-01-08 16:06:34.42	227.68	6.50	-44.2	-55.0	3.8	8.46e-01	0	53	104	0	59	12177
2026-01-08 16:06:35.43	227.80	6.56	-44.2	-54.9	3.8	8.46e-01	0	53	104	0	59	11986
2026-01-08 16:06:36.44	227.91	6.61	-44.2	-54.9	3.8	8.47e-01	0	54	104	0	59	12094
2026-01-08 16:06:37.45	228.03	6.66	-44.3	-55.0	3.8	8.45e-01	0	53	104	0	59	12212
2026-01-08 16:06:38.46	228.15	6.72	-44.3	-55.1	3.8	8.46e-01	0	53	104	0	59	12289
2026-01-08 16:06:39.47	228.27	6.77	-44.2	-55.0	3.8	8.46e-01	0	54	104	0	59	12188
2026-01-08 16:06:40.48	228.39	6.82	-44.2	-54.8	3.8	8.47e-01	0	53	104	0	59	11878
2026-01-08 16:06:41.49	228.51	6.88	-44.2	-54.3	3.8	8.47e-01	0	54	104	0	59	11165
2026-01-08 16:06:42.50	228.63	6.93	-44.0	-53.2	3.8	8.46e-01	0	54	104	0	59	9839
2026-01-08 16:06:43.51	228.75	6.98	-43.8	-51.9	3.9	8.42e-01	0	54	104	0	58	9012
2026-01-08 16:06:44.53	228.87	7.03	-43.5	-50.4	4.6	8.25e-01	0	54	0	0	58	7599
2026-01-08 16:06:45.54	228.99	7.09	-43.2	-49.2	5.3	7.55e-01	0	54	0	0	57	6980
2026-01-08 16:06:46.55	229.11	7.14	-42.8	-48.0	6.1	3.37e-01	0	53	0	3145728	56	6471
2026-01-08 16:06:47.56	229.24	7.19	-42.5	-47.2	6.8	2.03e-01	0	54	0	10485760	56	5876
2026-01-08 16:06:48.57	229.36	7.25	-42.0	-46.3	7.5	1.24e-01	0	54	0	17825792	55	5595
2026-01-08 16:06:49.58	229.48	7.30	-41.8	-45.8	8.0	7.83e-02	0	54	0	25165824	54	5594
2026-01-08 16:06:50.59	229.61	7.35	-41.6	-45.3	8.5	4.73e-02	0	54	0	32505856	54	5307
2026-01-08 16:06:51.60	229.73	7.41	-41.4	-44.9	8.9	3.27e-02	0	54	0	39845888	53	5374
2026-01-08 16:06:52.61	229.86	7.46	-41.3	-44.7	9.1	2.52e-02	0	54	0	47185920	53	5236
2026-01-08 16:06:53.62	229.98	7.51	-41.0	-44.2	9.6	1.48e-02	0	54	0	54525952	53	4967
2026-01-08 16:06:54.63	230.11	7.56	-40.8	-43.8	9.9	1.04e-02	0	54	0	61865984	52	5041
2026-01-08 16:06:55.64	230.23	7.62	-40.5	-43.2	10.7	4.53e-03	0	54	0	69206016	51	4980
2026-01-08 16:06:56.65	230.36	7.67	-40.3	-43.0	11.0	2.52e-03	0	54	0	76546048	51	4832
2026-01-08 16:06:57.66	230.48	7.72	-40.0	-42.5	11.5	1.19e-03	0	54	0	83886080	51	4566
2026-01-08 16:06:58.67	230.61	7.78	-39.6	-41.9	12.1	3.27e-04	0	54	0	90177536	50	4500
2026-01-08 16:06:59.68	230.74	7.83	-39.3	-41.5	12.5	1.59e-04	0	54	0	97517568	49	4598
2026-01-08 16:07:00.69	230.87	7.88	-39.1	-41.1	12.9	7.20e-05	0	54	0	105906176	49	4379
2026-01-08 16:07:01.70	231.00	7.94	-38.9	-41.0	13.1	3.89e-05	0	54	0	112197632	48	4547
2026-01-08 16:07:02.71	231.12	7.99	-39.1	-41.2	12.9	4.69e-05	0	54	0	119537664	48	4664
2026-01-08 16:07:03.73	231.26	8.04	-44.4	-53.8	3.8	3.65e-01	0	54	104	125829120	58	11209
2026-01-08 16:07:04.74	231.39	8.09	-40.4	-43.1	10.7	6.35e-01	0	54	104	125829120	52	4610
2026-01-08 16:07:05.75	231.52	8.15	-40.4	-43.1	11.1	8.58e-05	0	54	0	131072000	50	5160
2026-01-08 16:07:06.76	231.65	8.20	-44.2	-55.1	3.8	8.42e-01	0	54	104	136314880	57	13842
2026-01-08 16:07:07.76	231.78	8.25	-37.9	-39.7	14.3	8.66e-03	0	54	0	136314880	46	4396
2026-01-08 16:07:08.77	231.91	8.31	-38.5	-40.3	13.9	3.54e-05	0	54	0	143654912	48	4231
2026-01-08 16:07:09.79	232.04	8.36	-38.3	-40.2	13.8	4.50e-06	0	54	0	152043520	47	4427
2026-01-08 16:07:10.80	232.17	8.41	-38.0	-39.8	14.3	0.00e+00	0	54	0	158334976	47	4212
2026-01-08 16:07:11.80	232.31	8.46	-38.0	-39.8	14.3	0.00e+00	0	54	0	165675008	46	4463
2026-01-08 16:07:12.81	232.44	8.52	-37.9	-39.7	14.4	0.00e+00	0	54	0	173015040	46	4403
2026-01-08 16:07:13.81	232.57	8.57	-37.7	-39.4	14.6	1.10e-06	0	55	0	180355072	46	4266
2026-01-08 16:07:14.82	232.71	8.62	-37.6	-39.2	14.8	1.10e-06	0	55	0	187695104	46	4175
2026-01-08 16:07:15.83	232.84	8.67	-37.6	-39.2	14.8	0.00e+00	0	55	0	195035136	46	4191
2026-01-08 16:07:16.84	232.98	8.73	-37.6	-39.2	14.8	0.00e+00	0	55	0	202375168	46	4176
2026-01-08 16:07:17.85	233.11	8.78	-37.4	-39.0	15.0	0.00e+00	0	55	0	209715200	45	4340
2026-01-08 16:07:18.86	233.25	8.83	-37.4	-39.1	15.0	0.00e+00	0	55	0	217055232	45	4348
2026-01-08 16:07:19.87	233.39	8.88	-37.4	-39.0	15.1	0.00e+00	0	55	0	224395264	45	4303
2026-01-08 16:07:20.88	233.52	8.94	-37.4	-39.0	15.1	0.00e+00	0	54	0	231735296	45	4316
2026-01-08 16:07:21.89	233.66	8.99	-37.4	-39.0	15.1	0.00e+00	0	55	0	239075328	45	4327
2026-01-08 16:07:22.90	233.80	9.04	-37.4	-39.0	15.1	1.10e-06	0	55	0	246415360	45	4318
2026-01-08 16:07:23.91	233.94	9.09	-37.4	-39.0	15.1	0.00e+00	0	55	0	253755392	45	4336
2026-01-08 16:07:24.92	234.08	9.15	-37.4	-39.1	15.0	0.00e+00	0	55	0	261095424	45	4347
2026-01-08 16:07:25.93	234.22	9.20	-37.4	-39.0	15.0	0.00e+00	0	55	0	268435456	45	4340
2026-01-08 16:07:26.94	234.36	9.25	-37.4	-38.9	15.2	0.00e+00	0	55	0	275775488	45	4288
2026-01-08 16:07:27.95	234.50	9.30	-37.3	-38.9	15.2	0.00e+00	0	55	0	283115520	45	4262
2026-01-08 16:07:28.96	234.64	9.36	-37.3	-38.9	15.2	0.00e+00	0	55	0	289406976	45	4260
2026-01-08 16:07:29.97	234.78	9.41	-37.2	-38.8	15.3	0.00e+00	0	55	0	296747008	45	4223
2026-01-08 16:07:30.98	234.92	9.46	-37.3	-38.9	15.3	1.10e-06	0	55	0	305135616	45	4246
2026-01-08 16:07:31.99	235.07	9.51	-37.1	-38.6	15.5	0.00e+00	0	55	0	311427072	45	4145
2026-01-08 16:07:33.00	235.21	9.56	-37.1	-38.6	15.5	0.00e+00	0	55	0	318767104	45	4129
2026-01-08 16:07:34.01	235.35	9.62	-37.1	-38.6	15.5	0.00e+00	0	55	0	326107136	45	4124
2026-01-08 16:07:35.02	235.50	9.67	-37.1	-38.7	15.4	0.00e+00	0	55	0	333447168	45	4157
2026-01-08 16:07:36.03	235.64	9.72	-37.1	-38.6	15.5	0.00e+00	0	55	0	340787200	45	4123
2026-01-08 16:07:37.04	235.79	9.77	-37.2	-38.7	15.4	0.00e+00	0	55	0	348127232	45	4168
2026-01-08 16:07:38.05	235.93	9.82	-37.2	-38.7	15.4	0.00e+00	0	55	0	355467264	45	4177
2026-01-08 16:07:39.06	236.08	9.88	-37.2	-38.7	15.5	0.00e+00	0	55	0	362807296	45	4168
2026-01-08 16:07:40.07	236.23	9.93	-37.1	-38.7	15.5	0.00e+00	0	55	0	370147328	45	4148
2026-01-08 16:07:41.08	236.37	9.98	-37.2	-38.7	15.4	0.00e+00	0	55	0	377487360	45	4173
2026-01-08 16:07:42.09	236.52	10.03	-37.2	-38.7	15.4	0.00e+00	0	55	0	384827392	45	4181
2026-01-08 16:07:43.10	236.67	10.08	-37.2	-38.7	15.4	0.00e+00	0	55	0	392167424	45	4175
2026-01-08 16:07:44.11	236.82	10.13	-37.2	-38.7	15.4	0.00e+00	0	55	0	399507456	45	4181
2026-01-08 16:07:45.12	236.97	10.19	-37.3	-38.8	15.4	0.00e+00	0	55	0	406847488	45	4220
2026-01-08 16:07:46.13	237.12	10.24	-37.2	-38.7	15.4	0.00e+00	0	55	0	414187520	45	4193
2026-01-08 16:07:47.14	237.27	10.29	-37.2	-38.7	15.5	0.00e+00	0	55	0	421527552	45	4182
2026-01-08 16:07:48.15	237.42	10.34	-37.2	-38.8	15.4	0.00e+00	0	55	0	428867584	45	4199
2026-01-08 16:07:49.16	237.57	10.39	-37.1	-38.7	15.5	0.00e+00	0	55	0	435159040	45	4167
2026-01-08 16:07:50.17	237.72	10.44	-37.2	-38.7	15.5	0.00e+00	0	55	0	442499072	45	4183
2026-01-08 16:07:51.18	237.87	10.49	-37.2	-38.7	15.5	0.00e+00	0	55	0	450887680	45	4174
2026-01-08 16:07:52.19	238.03	10.54	-37.2	-38.8	15.4	0.00e+00	0	55	0	457179136	45	4194
2026-01-08 16:07:53.20	238.18	10.59	-37.1	-38.6	15.6	0.00e+00	0	55	0	464519168	45	4126
2026-01-08 16:07:54.21	238.33	10.64	-37.1	-38.6	15.6	0.00e+00	0	56	0	471859200	45	4108
2026-01-08 16:07:55.22	238.49	10.70	-37.0	-38.5	15.7	0.00e+00	0	55	0	479199232	44	4305
2026-01-08 16:07:56.23	238.64	10.75	-37.0	-38.5	15.8	0.00e+00	0	55	0	486539264	44	4296
2026-01-08 16:07:57.24	238.80	10.80	-36.9	-38.4	15.8	0.00e+00	0	55	0	493879296	44	4279
2026-01-08 16:07:58.25	238.95	10.85	-37.0	-38.4	15.8	0.00e+00	0	55	0	501219328	44	4286
2026-01-08 16:07:59.26	239.11	10.90	-37.0	-38.4	15.8	0.00e+00	0	55	0	508559360	44	4290
2026-01-08 16:08:00.27	239.27	10.95	-36.9	-38.4	15.9	0.00e+00	0	56	0	515899392	44	4244
2026-01-08 16:08:01.28	239.42	11.00	-36.9	-38.3	15.9	0.00e+00	0	55	0	523239424	44	4234
2026-01-08 16:08:02.29	239.58	11.05	-36.8	-38.3	16.0	0.00e+00	0	55	0	530579456	44	4203
2026-01-08 16:08:03.30	239.74	11.10	-36.8	-38.3	16.0	0.00e+00	0	55	0	537919488	44	4200
2026-01-08 16:08:04.31	239.90	11.15	-36.9	-38.4	15.9	0.00e+00	0	56	0	545259520	44	4250
2026-01-08 16:08:05.32	240.06	11.20	-36.9	-38.3	15.9	0.00e+00	0	56	0	552599552	44	4231
2026-01-08 16:08:06.33	240.22	11.25	-36.8	-38.3	16.0	0.00e+00	0	56	0	559939584	44	4214
2026-01-08 16:08:07.34	240.38	11.30	-36.9	-38.4	15.8	0.00e+00	0	56	0	567279616	44	4279
2026-01-08 16:08:08.34	240.54	11.35	-36.9	-38.4	15.9	0.00e+00	0	56	0	574619648	44	4271
2026-01-08 16:08:09.35	240.70	11.40	-36.9	-38.5	15.8	0.00e+00	0	56	0	581959680	44	4296
2026-01-08 16:08:10.36	240.86	11.44	-36.9	-38.3	15.9	0.00e+00	0	56	0	588251136	44	4233
2026-01-08 16:08:11.37	241.03	11.49	-36.9	-38.4	15.9	0.00e+00	0	56	0	596639744	44	4275
2026-01-08 16:08:12.38	241.19	11.54	-36.9	-38.4	15.9	1.10e-06	0	56	0	603979776	44	4244
2026-01-08 16:08:13.39	241.35	11.59	-36.9	-38.3	16.0	0.00e+00	0	56	0	610271232	44	4230
2026-01-08 16:08:14.40	241.52	11.64	-36.7	-38.2	16.1	0.00e+00	0	56	0	617611264	44	4169
2026-01-08 16:08:15.41	241.68	11.69	-36.7	-38.2	16.1	0.00e+00	0	56	0	624951296	44	4164
2026-01-08 16:08:16.42	241.85	11.74	-36.8	-38.2	16.0	0.00e+00	0	56	0	632291328	44	4192
2026-01-08 16:08:17.43	242.01	11.79	-36.7	-38.1	16.2	0.00e+00	0	56	0	639631360	44	4134
2026-01-08 16:08:18.44	242.18	11.84	-36.7	-38.2	16.1	0.00e+00	0	56	0	646971392	44	4165
2026-01-08 16:08:19.45	242.35	11.88	-36.7	-38.2	16.1	0.00e+00	0	56	0	654311424	44	4151
2026-01-08 16:08:20.46	242.51	11.93	-36.8	-38.3	16.1	0.00e+00	0	56	0	661651456	44	4201
2026-01-08 16:08:21.47	242.68	11.98	-36.8	-38.3	16.0	0.00e+00	0	56	0	668991488	44	4198
2026-01-08 16:08:22.48	242.85	12.03	-36.8	-38.3	16.0	0.00e+00	0	56	0	676331520	44	4211
2026-01-08 16:08:23.49	243.02	12.08	-36.8	-38.3	16.1	0.00e+00	0	56	0	683671552	44	4194
2026-01-08 16:08:24.50	243.19	12.12	-36.8	-38.2	16.1	0.00e+00	0	56	0	691011584	44	4181
2026-01-08 16:08:25.50	243.36	12.17	-36.7	-38.1	16.2	0.00e+00	0	56	0	698351616	44	4132
2026-01-08 16:08:26.51	243.53	12.22	-36.6	-38.0	16.3	0.00e+00	0	56	0	705691648	44	4098
2026-01-08 16:08:27.52	243.70	12.26	-36.6	-38.1	16.2	0.00e+00	0	56	0	713031680	44	4109
2026-01-08 16:08:28.53	243.87	12.31	-36.5	-37.9	16.4	0.00e+00	0	56	0	720371712	44	4034
2026-01-08 16:08:29.54	244.04	12.36	-36.6	-38.0	16.3	0.00e+00	0	56	0	727711744	44	4098
2026-01-08 16:08:30.55	244.22	12.41	-36.6	-38.0	16.3	0.00e+00	0	56	0	735051776	44	4080
2026-01-08 16:08:31.56	244.39	12.45	-36.6	-38.0	16.4	0.00e+00	0	56	0	741343232	44	4059
2026-01-08 16:08:32.57	244.56	12.50	-36.5	-37.9	16.4	0.00e+00	0	56	0	748683264	44	4033
2026-01-08 16:08:33.58	244.74	12.54	-36.6	-38.0	16.3	0.00e+00	0	56	0	756023296	44	4094
2026-01-08 16:08:34.59	244.91	12.59	-36.5	-38.0	16.4	0.00e+00	0	56	0	763363328	44	4056
2026-01-08 16:08:35.60	245.09	12.64	-36.5	-37.9	16.4	0.00e+00	0	56	0	770703360	44	4036
2026-01-08 16:08:36.61	245.27	12.68	-36.4	-37.8	16.3	0.00e+00	0	56	0	778043392	43	4226
2026-01-08 16:08:37.62	245.44	12.73	-36.3	-37.7	16.5	0.00e+00	0	56	0	785383424	43	4155
2026-01-08 16:08:38.63	245.62	12.77	-36.2	-37.6	16.5	0.00e+00	0	56	0	792723456	43	4125
2026-01-08 16:08:39.64	245.80	12.82	-36.3	-37.7	16.5	0.00e+00	0	56	0	800063488	43	4171
2026-01-08 16:08:40.65	245.97	12.86	-36.3	-37.7	16.4	0.00e+00	0	56	0	807403520	43	4165
2026-01-08 16:08:41.66	246.15	12.91	-36.3	-37.7	16.5	0.00e+00	0	56	0	814743552	43	4174
2026-01-08 16:08:42.67	246.33	12.95	-36.3	-37.7	16.5	0.00e+00	0	56	0	822083584	43	4174
2026-01-08 16:08:43.68	246.51	13.00	-36.4	-37.8	16.4	0.00e+00	0	56	0	829423616	43	4225
2026-01-08 16:08:44.69	246.69	13.04	-36.4	-37.8	16.4	0.00e+00	0	56	0	836763648	43	4194
2026-01-08 16:08:45.70	246.87	13.09	-36.3	-37.6	16.6	0.00e+00	0	56	0	844103680	43	4143
2026-01-08 16:08:46.71	247.05	13.13	-36.3	-37.6	16.6	0.00e+00	0	56	0	851443712	43	4135
2026-01-08 16:08:47.72	247.24	13.18	-36.2	-37.6	16.6	0.00e+00	0	56	0	858783744	43	4122
2026-01-08 16:08:48.73	247.42	13.22	-36.2	-37.6	16.6	0.00e+00	0	56	0	866123776	43	4123
2026-01-08 16:08:49.74	247.60	13.26	-36.2	-37.5	16.7	0.00e+00	0	56	0	873463808	43	4085
2026-01-08 16:08:50.74	247.78	13.31	-36.1	-37.4	16.8	0.00e+00	0	56	0	880803840	43	4019
2026-01-08 16:08:51.75	247.97	13.35	-36.1	-37.4	16.7	0.00e+00	0	56	0	887095296	43	4050
2026-01-08 16:08:52.76	248.15	13.39	-36.2	-37.5	16.6	0.00e+00	0	56	0	894435328	43	4089
2026-01-08 16:08:53.77	248.34	13.44	-36.2	-37.5	16.7	0.00e+00	0	56	0	902823936	43	4083
2026-01-08 16:08:54.78	248.52	13.48	-36.2	-37.6	16.6	0.00e+00	0	56	0	909115392	43	4116
2026-01-08 16:08:55.79	248.71	13.52	-36.2	-37.6	16.6	0.00e+00	0	56	0	916455424	43	4110
2026-01-08 16:08:56.80	248.89	13.56	-36.2	-37.5	16.7	0.00e+00	0	56	0	923795456	43	4093
2026-01-08 16:08:57.81	249.08	13.61	-36.0	-37.4	16.8	0.00e+00	0	56	0	931135488	43	4012
2026-01-08 16:08:58.82	249.27	13.65	-36.0	-37.4	16.9	0.00e+00	0	56	0	938475520	43	4005
2026-01-08 16:08:59.83	249.46	13.69	-35.9	-37.3	16.9	0.00e+00	0	56	0	945815552	42	4204
2026-01-08 16:09:00.84	249.64	13.73	-35.9	-37.2	17.0	0.00e+00	0	56	0	953155584	42	4187
2026-01-08 16:09:01.86	249.84	13.77	-36.0	-37.3	17.0	0.00e+00	0	56	0	960495616	42	4203
2026-01-08 16:09:02.86	250.02	13.81	-35.9	-37.2	17.0	0.00e+00	0	56	0	967835648	42	4148
2026-01-08 16:09:03.87	250.21	13.85	-35.9	-37.2	17.0	0.00e+00	0	56	0	975175680	42	4180
2026-01-08 16:09:04.88	250.40	13.89	-35.9	-37.2	17.0	0.00e+00	0	57	0	982515712	42	4161
2026-01-08 16:09:05.89	250.59	13.93	-35.9	-37.2	17.0	0.00e+00	0	56	0	989855744	42	4170
2026-01-08 16:09:06.90	250.79	13.97	-35.9	-37.2	17.0	0.00e+00	0	56	0	997195776	42	4149
2026-01-08 16:09:07.91	250.98	14.01	-35.9	-37.2	17.0	0.00e+00	0	57	0	1004535808	42	4180
2026-01-08 16:09:08.92	251.17	14.05	-35.8	-37.1	17.1	0.00e+00	0	56	0	1011875840	42	4143
2026-01-08 16:09:09.93	251.36	14.09	-35.8	-37.1	17.1	0.00e+00	0	56	0	1019215872	42	4131
2026-01-08 16:09:10.94	251.56	14.13	-35.8	-37.1	17.1	0.00e+00	0	56	0	1026555904	42	4139
2026-01-08 16:09:11.95	251.75	14.17	-35.9	-37.2	17.1	0.00e+00	0	56	0	1033895936	42	4158
2026-01-08 16:09:12.96	251.95	14.21	-35.9	-37.2	17.0	0.00e+00	0	56	0	1040187392	42	4170
2026-01-08 16:09:13.97	252.14	14.25	-36.0	-37.3	17.0	0.00e+00	0	56	0	1047527424	42	4215
2026-01-08 16:09:14.98	252.34	14.29	-35.9	-37.3	17.0	0.00e+00	0	56	0	1055916032	42	4203
2026-01-08 16:09:15.99	252.53	14.32	-36.0	-37.3	16.9	0.00e+00	0	57	0	1062207488	42	4230
2026-01-08 16:09:17.00	252.73	14.36	-36.0	-37.4	16.9	0.00e+00	0	56	0	1069547520	42	4254
2026-01-08 16:09:18.01	252.93	14.40	-36.1	-37.4	16.8	0.00e+00	0	57	0	1076887552	42	4279
2026-01-08 16:09:19.01	253.12	14.44	-36.1	-37.5	16.7	0.00e+00	0	56	0	1084227584	42	4302
2026-01-08 16:09:20.02	253.32	14.47	-36.0	-37.3	16.9	0.00e+00	0	56	0	1091567616	42	4226
2026-01-08 16:09:21.03	253.52	14.51	-36.0	-37.3	17.0	0.00e+00	0	56	0	1098907648	42	4211
2026-01-08 16:09:22.04	253.72	14.55	-35.9	-37.3	17.0	0.00e+00	0	57	0	1106247680	42	4205
2026-01-08 16:09:23.05	253.92	14.58	-35.9	-37.3	17.0	0.00e+00	0	57	0	1113587712	42	4202
2026-01-08 16:09:24.06	254.12	14.62	-35.9	-37.3	17.0	0.00e+00	0	57	0	1120927744	42	4202
2026-01-08 16:09:25.07	254.32	14.65	-36.0	-37.3	16.9	0.00e+00	0	57	0	1128267776	42	4225
2026-01-08 16:09:26.08	254.52	14.69	-36.0	-37.3	16.9	0.00e+00	0	57	0	1135607808	42	4232
2026-01-08 16:09:27.09	254.72	14.72	-35.9	-37.2	17.0	0.00e+00	0	57	0	1142947840	42	4180
2026-01-08 16:09:28.10	254.92	14.76	-35.9	-37.2	17.0	0.00e+00	0	57	0	1150287872	42	4187
2026-01-08 16:09:29.11	255.12	14.79	-35.9	-37.2	17.1	0.00e+00	0	57	0	1157627904	42	4149
2026-01-08 16:09:30.12	255.32	14.83	-35.9	-37.2	17.0	0.00e+00	0	57	0	1163919360	42	4183
2026-01-08 16:09:31.13	255.53	14.86	-35.8	-37.1	17.1	0.00e+00	0	57	0	1172307968	42	4142
2026-01-08 16:09:32.13	255.73	14.89	-35.8	-37.1	17.2	0.00e+00	0	57	0	1179648000	42	4108
2026-01-08 16:09:33.15	255.94	14.93	-35.8	-37.1	17.2	0.00e+00	0	57	0	1185939456	42	4101
2026-01-08 16:09:34.15	256.14	14.96	-35.7	-37.0	17.3	0.00e+00	0	57	0	1193279488	42	4072
2026-01-08 16:09:35.17	256.34	14.99	-35.8	-37.0	17.2	0.00e+00	0	57	0	1200619520	42	4093
2026-01-08 16:09:36.18	256.55	15.03	-35.7	-37.0	17.3	0.00e+00	0	57	0	1207959552	42	4068
2026-01-08 16:09:37.18	256.75	15.06	-35.7	-37.0	17.2	0.00e+00	0	56	0	1215299584	42	4092
2026-01-08 16:09:38.19	256.96	15.09	-35.8	-37.0	17.2	0.00e+00	0	57	0	1222639616	42	4086
2026-01-08 16:09:39.21	257.17	15.12	-35.8	-37.1	17.1	0.00e+00	0	57	0	1229979648	42	4144
2026-01-08 16:09:40.22	257.37	15.15	-35.8	-37.1	17.1	0.00e+00	0	57	0	1237319680	42	4130
2026-01-08 16:09:41.22	257.58	15.18	-35.8	-37.1	17.1	0.00e+00	0	57	0	1244659712	42	4136
2026-01-08 16:09:42.23	257.79	15.21	-35.7	-37.0	17.3	0.00e+00	0	57	0	1251999744	42	4066
2026-01-08 16:09:43.24	258.00	15.24	-35.7	-37.0	17.3	0.00e+00	0	57	0	1259339776	42	4071
2026-01-08 16:09:44.25	258.20	15.27	-35.7	-37.0	17.2	0.00e+00	0	57	0	1266679808	42	4064
2026-01-08 16:09:45.26	258.41	15.30	-35.7	-36.9	17.3	0.00e+00	0	57	0	1274019840	42	4044
2026-01-08 16:09:46.27	258.62	15.33	-35.7	-37.0	17.3	0.00e+00	0	57	0	1281359872	42	4052
2026-01-08 16:09:47.28	258.83	15.36	-35.7	-37.0	17.3	0.00e+00	0	57	0	1288699904	42	4064
2026-01-08 16:09:48.29	259.04	15.39	-35.8	-37.1	17.2	0.00e+00	0	57	0	1296039936	42	4100
2026-01-08 16:09:49.30	259.25	15.42	-35.8	-37.1	17.1	0.00e+00	0	57	0	1303379968	42	4125
2026-01-08 16:09:50.31	259.46	15.45	-35.9	-37.2	17.1	0.00e+00	0	57	0	1310720000	42	4159
2026-01-08 16:09:51.32	259.67	15.47	-35.9	-37.2	17.1	0.00e+00	0	57	0	1317011456	42	4176
2026-01-08 16:09:52.33	259.89	15.50	-35.8	-37.1	17.2	0.00e+00	0	57	0	1325400064	42	4126
2026-01-08 16:09:53.34	260.10	15.53	-35.7	-37.0	17.2	0.00e+00	0	57	0	1332740096	42	4082
2026-01-08 16:09:54.35	260.31	15.56	-35.7	-36.9	17.3	0.00e+00	0	57	0	1339031552	42	4050
2026-01-08 16:09:55.36	260.52	15.58	-35.6	-36.9	17.4	0.00e+00	0	57	0	1346371584	42	4021
2026-01-08 16:09:56.37	260.74	15.61	-35.6	-36.8	17.4	0.00e+00	0	57	0	1353711616	42	3998
2026-01-08 16:09:57.38	260.95	15.63	-35.5	-36.8	17.5	0.00e+00	0	57	0	1361051648	42	3970
2026-01-08 16:09:58.39	261.16	15.66	-35.5	-36.8	17.5	0.00e+00	0	57	0	1368391680	42	3977
2026-01-08 16:09:59.40	261.38	15.68	-35.6	-36.9	17.4	0.00e+00	0	57	0	1375731712	42	4026
2026-01-08 16:10:00.41	261.59	15.71	-35.6	-36.8	17.4	0.00e+00	0	57	0	1383071744	42	4001
2026-01-08 16:10:01.42	261.81	15.73	-35.6	-36.9	17.4	0.00e+00	0	57	0	1390411776	42	4008
2026-01-08 16:10:02.43	262.02	15.76	-35.7	-36.9	17.3	0.00e+00	0	57	0	1397751808	42	4050
2026-01-08 16:10:03.44	262.24	15.78	-35.7	-37.0	17.3	0.00e+00	0	57	0	1405091840	42	4070
2026-01-08 16:10:04.45	262.45	15.80	-35.8	-37.1	17.2	0.00e+00	0	57	0	1412431872	42	4102
2026-01-08 16:10:05.46	262.67	15.83	-35.7	-37.0	17.3	0.00e+00	0	57	0	1419771904	42	4061
2026-01-08 16:10:06.48	262.89	15.85	-35.7	-37.0	17.3	0.00e+00	0	57	0	1427111936	42	4080
2026-01-08 16:10:07.49	263.11	15.87	-35.7	-37.0	17.3	0.00e+00	0	57	0	1434451968	42	4055
2026-01-08 16:10:08.50	263.32	15.89	-35.6	-36.8	17.5	0.00e+00	0	57	0	1441792000	42	3988
2026-01-08 16:10:09.51	263.54	15.91	-35.6	-36.9	17.4	0.00e+00	0	57	0	1449132032	42	4013
2026-01-08 16:10:10.52	263.76	15.93	-35.5	-36.8	17.4	0.00e+00	0	57	0	1456472064	42	3983
2026-01-08 16:10:11.53	263.98	15.95	-35.6	-36.8	17.5	0.00e+00	0	57	0	1463812096	42	3986
2026-01-08 16:10:12.54	264.19	15.97	-35.6	-36.8	17.4	0.00e+00	0	57	0	1471152128	42	3997
2026-01-08 16:10:13.54	264.41	15.99	-35.6	-36.9	17.4	0.00e+00	0	57	0	1478492160	42	4029
2026-01-08 16:10:14.55	264.63	16.01	-35.7	-37.0	17.3	0.00e+00	0	57	0	1484783616	42	4079
2026-01-08 16:10:15.56	264.85	16.03	-35.8	-37.1	17.2	0.00e+00	0	57	0	1492123648	42	4108
2026-01-08 16:10:16.57	265.07	16.05	-35.9	-37.2	17.1	0.00e+00	0	57	0	1499463680	42	4146
2026-01-08 16:10:17.58	265.29	16.07	-35.9	-37.1	17.1	0.00e+00	0	57	0	1506803712	42	4144
2026-01-08 16:10:18.59	265.51	16.09	-35.8	-37.1	17.2	0.00e+00	0	57	0	1514143744	42	4138
2026-01-08 16:10:19.60	265.73	16.10	-35.8	-37.1	17.2	0.00e+00	0	57	0	1521483776	42	4119
2026-01-08 16:10:20.61	265.95	16.12	-35.7	-37.0	17.3	0.00e+00	0	57	0	1528823808	42	4063
2026-01-08 16:10:21.62	266.17	16.14	-35.6	-36.8	17.4	0.00e+00	0	57	0	1536163840	42	3991
2026-01-08 16:10:22.63	266.39	16.15	-35.5	-36.8	17.5	0.00e+00	0	57	0	1543503872	42	3959
2026-01-08 16:10:23.64	266.61	16.17	-35.5	-36.7	17.5	0.00e+00	0	57	0	1550843904	41	4170
2026-01-08 16:10:24.64	266.83	16.19	-35.4	-36.7	17.6	0.00e+00	0	57	0	1558183936	41	4152
2026-01-08 16:10:25.65	267.05	16.20	-35.5	-36.7	17.6	0.00e+00	0	57	0	1565523968	41	4176
2026-01-08 16:10:26.66	267.27	16.22	-35.5	-36.7	17.5	0.00e+00	0	57	0	1572864000	41	4172
2026-01-08 16:10:27.68	267.50	16.23	-35.6	-36.8	17.5	0.00e+00	0	57	0	1580204032	41	4231
2026-01-08 16:10:28.69	267.72	16.24	-35.5	-36.8	17.5	0.00e+00	0	57	0	1587544064	41	4201
2026-01-08 16:10:29.70	267.94	16.26	-35.6	-36.8	17.4	0.00e+00	0	57	0	1594884096	41	4236
2026-01-08 16:10:30.70	268.16	16.27	-35.6	-36.8	17.4	0.00e+00	0	57	0	1602224128	41	4230
2026-01-08 16:10:31.71	268.38	16.28	-35.5	-36.8	17.5	0.00e+00	0	57	0	1609564160	41	4198
2026-01-08 16:10:32.72	268.61	16.30	-35.5	-36.8	17.5	0.00e+00	0	57	0	1615855616	41	4219
2026-01-08 16:10:33.73	268.83	16.31	-35.5	-36.8	17.4	0.00e+00	0	57	0	1624244224	41	4221
2026-01-08 16:10:34.74	269.05	16.32	-35.6	-36.8	17.4	0.00e+00	0	57	0	1631584256	41	4233
2026-01-08 16:10:35.75	269.28	16.33	-35.6	-36.9	17.4	0.00e+00	0	57	0	1637875712	41	4285
2026-01-08 16:10:36.76	269.50	16.34	-35.6	-36.9	17.3	0.00e+00	0	57	0	1645215744	41	4277
2026-01-08 16:10:37.77	269.72	16.35	-35.7	-37.0	17.3	0.00e+00	0	57	0	1652555776	41	4317
2026-01-08 16:10:38.78	269.95	16.36	-35.7	-37.0	17.3	0.00e+00	0	57	0	1659895808	41	4306
2026-01-08 16:10:39.79	270.17	16.37	-35.7	-37.0	17.3	0.00e+00	0	57	0	1667235840	41	4311
2026-01-08 16:10:40.80	270.39	16.38	-35.6	-36.9	17.3	0.00e+00	0	57	0	1674575872	41	4261
2026-01-08 16:10:41.81	270.62	16.39	-35.6	-36.9	17.3	0.00e+00	0	57	0	1681915904	41	4260
2026-01-08 16:10:42.82	270.84	16.40	-35.5	-36.8	17.4	0.00e+00	0	57	0	1689255936	41	4219
2026-01-08 16:10:43.83	271.07	16.41	-35.5	-36.8	17.5	0.00e+00	0	57	0	1696595968	41	4202
2026-01-08 16:10:44.84	271.29	16.41	-35.5	-36.7	17.5	0.00e+00	0	57	0	1703936000	41	4183
2026-01-08 16:10:45.85	271.52	16.42	-35.5	-36.7	17.5	0.00e+00	0	57	0	1711276032	41	4181
2026-01-08 16:10:46.86	271.74	16.43	-35.5	-36.7	17.5	0.00e+00	0	57	0	1718616064	41	4176
2026-01-08 16:10:47.87	271.97	16.43	-35.5	-36.7	17.5	0.00e+00	0	57	0	1725956096	41	4184
2026-01-08 16:10:48.88	272.19	16.44	-35.5	-36.7	17.5	0.00e+00	0	57	0	1733296128	41	4188
2026-01-08 16:10:49.89	272.42	16.44	-35.4	-36.7	17.5	0.00e+00	0	57	0	1740636160	41	4154
2026-01-08 16:10:50.90	272.64	16.45	-35.5	-36.8	17.5	0.00e+00	0	57	0	1747976192	41	4195
2026-01-08 16:10:51.91	272.87	16.45	-35.5	-36.8	17.5	0.00e+00	0	57	0	1755316224	41	4196
2026-01-08 16:10:52.92	273.09	16.46	-35.5	-36.8	17.4	0.00e+00	0	57	0	1761607680	41	4206
2026-01-08 16:10:53.93	273.32	16.46	-35.6	-36.9	17.3	0.00e+00	0	57	0	1769996288	41	4254
2026-01-08 16:10:54.94	273.54	16.46	-35.6	-36.9	17.3	0.00e+00	0	57	0	1777336320	41	4270
2026-01-08 16:10:55.95	273.77	16.47	-35.6	-36.9	17.3	0.00e+00	0	57	0	1783627776	41	4272
2026-01-08 16:10:56.96	273.99	16.47	-35.7	-36.9	17.2	0.00e+00	0	57	0	1790967808	41	4282
2026-01-08 16:10:57.97	274.22	16.47	-35.5	-36.8	17.4	0.00e+00	0	57	0	1798307840	41	4206
2026-01-08 16:10:58.97	274.44	16.47	-35.6	-36.9	17.3	0.00e+00	0	57	0	1805647872	41	4254
2026-01-08 16:10:59.98	274.67	16.47	-35.6	-36.9	17.3	0.00e+00	0	57	0	1812987904	41	4249
2026-01-08 16:11:01.00	274.89	16.47	-35.6	-36.8	17.4	0.00e+00	0	57	0	1820327936	41	4238
2026-01-08 16:11:02.00	275.12	16.47	-35.5	-36.8	17.4	0.00e+00	0	57	0	1827667968	41	4212
2026-01-08 16:11:03.01	275.34	16.47	-35.6	-36.9	17.3	0.00e+00	0	57	0	1835008000	41	4258
2026-01-08 16:11:04.02	275.57	16.47	-35.6	-36.9	17.3	0.00e+00	0	57	0	1842348032	41	4260
2026-01-08 16:11:05.03	275.79	16.47	-35.5	-36.8	17.4	0.00e+00	0	57	0	1849688064	41	4222
2026-01-08 16:11:06.04	276.02	16.47	-35.5	-36.8	17.4	0.00e+00	0	57	0	1857028096	41	4225
2026-01-08 16:11:07.05	276.24	16.47	-35.5	-36.8	17.4	0.00e+00	0	57	0	1864368128	41	4206
2026-01-08 16:11:08.06	276.47	16.47	-35.5	-36.7	17.5	0.00e+00	0	57	0	1871708160	41	4179
2026-01-08 16:11:09.07	276.69	16.47	-35.4	-36.7	17.5	0.00e+00	0	57	0	1879048192	41	4172
2026-01-08 16:11:10.08	276.92	16.46	-35.4	-36.6	17.6	0.00e+00	0	57	0	1886388224	41	4121
2026-01-08 16:11:11.09	277.14	16.46	-35.4	-36.6	17.6	0.00e+00	0	57	0	1893728256	41	4120
2026-01-08 16:11:12.10	277.37	16.45	-35.4	-36.6	17.6	0.00e+00	0	57	0	1901068288	41	4130
2026-01-08 16:11:13.11	277.59	16.45	-35.4	-36.6	17.6	0.00e+00	0	57	0	1908408320	41	4130
2026-01-08 16:11:14.12	277.82	16.45	-35.5	-36.7	17.5	0.00e+00	0	57	0	1914699776	41	4177
2026-01-08 16:11:15.13	278.04	16.44	-35.5	-36.7	17.5	0.00e+00	0	57	0	1923088384	41	4178
2026-01-08 16:11:16.14	278.27	16.43	-35.5	-36.8	17.4	0.00e+00	0	57	0	1930428416	41	4209
2026-01-08 16:11:17.15	278.49	16.43	-35.5	-36.8	17.4	0.00e+00	0	57	0	1936719872	41	4216
2026-01-08 16:11:18.16	278.72	16.42	-35.5	-36.8	17.4	0.00e+00	0	57	0	1944059904	41	4224
2026-01-08 16:11:19.17	278.94	16.42	-35.6	-36.9	17.2	0.00e+00	0	57	0	1951399936	41	4282
2026-01-08 16:11:20.18	279.17	16.41	-35.7	-37.0	17.2	0.00e+00	0	57	0	1958739968	41	4319
2026-01-08 16:11:21.19	279.39	16.40	-35.7	-37.0	17.2	0.00e+00	0	57	0	1966080000	41	4302
2026-01-08 16:11:22.19	279.61	16.39	-35.7	-37.0	17.2	0.00e+00	0	57	0	1973420032	41	4321
2026-01-08 16:11:23.20	279.84	16.38	-35.6	-36.9	17.3	0.00e+00	0	57	0	1980760064	41	4278
2026-01-08 16:11:24.21	280.06	16.38	-35.7	-37.0	17.2	0.00e+00	0	57	0	1988100096	41	4320
2026-01-08 16:11:25.22	280.28	16.37	-35.7	-37.0	17.2	0.00e+00	0	57	0	1995440128	41	4313
2026-01-08 16:11:26.23	280.51	16.36	-35.7	-37.0	17.1	0.00e+00	0	57	0	2002780160	41	4327
2026-01-08 16:11:27.24	280.73	16.35	-35.6	-36.9	17.2	0.00e+00	0	57	0	2010120192	41	4285
2026-01-08 16:11:28.25	280.95	16.34	-35.6	-36.9	17.2	0.00e+00	0	57	0	2017460224	41	4273
2026-01-08 16:11:29.26	281.18	16.33	-35.7	-37.0	17.2	0.00e+00	0	57	0	2024800256	41	4292
2026-01-08 16:11:30.27	281.40	16.31	-35.6	-36.9	17.2	0.00e+00	0	57	0	2032140288	41	4268
2026-01-08 16:11:31.28	281.62	16.30	-35.6	-36.8	17.3	0.00e+00	0	57	0	2039480320	41	4237
2026-01-08 16:11:32.29	281.85	16.29	-35.5	-36.8	17.4	0.00e+00	0	57	0	2046820352	41	4228
2026-01-08 16:11:33.30	282.07	16.28	-35.6	-36.8	17.3	0.00e+00	0	57	0	2054160384	41	4236
2026-01-08 16:11:34.31	282.29	16.26	-35.6	-36.9	17.3	0.00e+00	0	57	0	2060451840	41	4271
2026-01-08 16:11:35.32	282.51	16.25	-35.6	-36.9	17.3	0.00e+00	0	57	0	2067791872	41	4260
2026-01-08 16:11:36.33	282.73	16.24	-35.6	-36.9	17.2	0.00e+00	0	57	0	2076180480	41	4265
2026-01-08 16:11:37.34	282.96	16.22	-35.6	-36.9	17.2	0.00e+00	0	57	0	2082471936	41	4281
2026-01-08 16:11:38.35	283.18	16.21	-35.6	-36.9	17.3	0.00e+00	0	57	0	2089811968	41	4269
2026-01-08 16:11:39.36	283.40	16.19	-35.6	-36.9	17.2	0.00e+00	0	57	0	2097152000	41	4270
2026-01-08 16:11:40.37	283.62	16.18	-35.6	-36.9	17.2	0.00e+00	0	57	0	2104492032	41	4284
2026-01-08 16:11:41.38	283.84	16.16	-35.6	-36.9	17.3	0.00e+00	0	57	0	2111832064	41	4244
2026-01-08 16:11:42.39	284.06	16.15	-35.6	-36.8	17.3	0.00e+00	0	57	0	2119172096	41	4235
2026-01-08 16:11:43.40	284.28	16.13	-35.5	-36.8	17.3	0.00e+00	0	57	0	2126512128	41	4223
2026-01-08 16:11:44.41	284.50	16.11	-35.6	-36.9	17.3	0.00e+00	0	57	0	2133852160	41	4270
2026-01-08 16:11:45.42	284.72	16.10	-35.6	-36.9	17.3	0.00e+00	0	57	0	2141192192	41	4247
2026-01-08 16:11:46.43	284.94	16.08	-35.6	-36.8	17.3	0.00e+00	0	57	0	2148532224	41	4235
2026-01-08 16:11:47.44	285.16	16.06	-35.6	-36.9	17.2	0.00e+00	0	57	0	2155872256	41	4267
2026-01-08 16:11:48.45	285.38	16.04	-35.6	-36.9	17.2	0.00e+00	0	57	0	2163212288	41	4275
2026-01-08 16:11:49.46	285.60	16.02	-35.6	-36.9	17.2	0.00e+00	0	57	0	2170552320	41	4257
2026-01-08 16:11:50.47	285.82	16.00	-35.7	-37.0	17.2	0.00e+00	0	57	0	2177892352	41	4297
2026-01-08 16:11:51.48	286.03	15.98	-35.7	-37.0	17.1	0.00e+00	0	57	0	2185232384	41	4323
2026-01-08 16:11:52.49	286.25	15.96	-35.7	-37.1	17.1	0.00e+00	0	57	0	2192572416	41	4351
2026-01-08 16:11:53.50	286.47	15.94	-35.8	-37.1	17.0	0.00e+00	0	57	0	2199912448	41	4363
2026-01-08 16:11:54.51	286.69	15.92	-35.8	-37.1	17.0	0.00e+00	0	57	0	2207252480	41	4346
2026-01-08 16:11:55.52	286.90	15.90	-35.7	-37.0	17.1	0.00e+00	0	57	0	2213543936	41	4337
2026-01-08 16:11:56.53	287.12	15.88	-35.7	-37.0	17.1	0.00e+00	0	57	0	2221932544	41	4327
2026-01-08 16:11:57.54	287.34	15.86	-35.8	-37.1	17.0	0.00e+00	0	57	0	2229272576	41	4388
2026-01-08 16:11:58.55	287.55	15.84	-35.8	-37.1	17.1	0.00e+00	0	57	0	2235564032	41	4345
2026-01-08 16:11:59.56	287.77	15.81	-35.8	-37.1	17.0	0.00e+00	0	57	0	2242904064	41	4373
2026-01-08 16:12:00.56	287.98	15.79	-35.8	-37.2	17.0	0.00e+00	0	57	0	2250244096	41	4394
2026-01-08 16:12:01.58	288.20	15.77	-35.9	-37.2	16.9	0.00e+00	0	57	0	2257584128	41	4423
2026-01-08 16:12:02.58	288.41	15.75	-35.9	-37.2	16.9	0.00e+00	0	57	0	2264924160	41	4424
2026-01-08 16:12:03.59	288.63	15.72	-35.9	-37.2	16.8	0.00e+00	0	57	0	2272264192	41	4440
2026-01-08 16:12:04.60	288.84	15.70	-35.9	-37.2	16.9	0.00e+00	0	57	0	2279604224	41	4403
2026-01-08 16:12:05.61	289.05	15.67	-35.8	-37.1	16.9	0.00e+00	0	57	0	2286944256	41	4391
2026-01-08 16:12:06.62	289.27	15.65	-35.8	-37.1	17.0	0.00e+00	0	57	0	2294284288	41	4384
2026-01-08 16:12:07.63	289.48	15.62	-35.8	-37.1	17.0	0.00e+00	0	57	0	2301624320	41	4377
2026-01-08 16:12:08.64	289.69	15.60	-35.8	-37.1	17.0	0.00e+00	0	57	0	2308964352	41	4371
2026-01-08 16:12:09.65	289.91	15.57	-35.8	-37.1	17.0	0.00e+00	0	57	0	2316304384	41	4387
2026-01-08 16:12:10.66	290.12	15.54	-35.8	-37.1	16.9	0.00e+00	0	57	0	2323644416	41	4391
2026-01-08 16:12:11.67	290.33	15.52	-35.9	-37.2	16.9	0.00e+00	0	57	0	2330984448	41	4413
2026-01-08 16:12:12.68	290.54	15.49	-35.9	-37.2	16.9	0.00e+00	0	57	0	2338324480	41	4425
2026-01-08 16:12:13.69	290.75	15.46	-35.9	-37.2	16.8	0.00e+00	0	57	0	2345664512	41	4430
2026-01-08 16:12:14.70	290.96	15.44	-35.9	-37.2	16.9	0.00e+00	0	57	0	2353004544	41	4419
2026-01-08 16:12:15.71	291.17	15.41	-35.8	-37.2	16.9	0.00e+00	0	57	0	2359296000	41	4399
2026-01-08 16:12:16.72	291.38	15.38	-35.8	-37.2	16.9	0.00e+00	0	57	0	2366636032	41	4401
2026-01-08 16:12:17.73	291.59	15.35	-35.8	-37.2	16.9	0.00e+00	0	57	0	2375024640	41	4401
2026-01-08 16:12:18.73	291.80	15.32	-35.8	-37.1	17.0	0.00e+00	0	57	0	2381316096	41	4357
2026-01-08 16:12:19.75	292.01	15.29	-35.8	-37.2	16.9	0.00e+00	0	57	0	2388656128	41	4405
2026-01-08 16:12:20.76	292.22	15.26	-35.9	-37.2	16.9	0.00e+00	0	58	0	2395996160	41	4415
2026-01-08 16:12:21.77	292.42	15.23	-35.9	-37.3	16.8	0.00e+00	0	57	0	2403336192	41	4450
2026-01-08 16:12:22.78	292.63	15.20	-36.0	-37.4	16.7	0.00e+00	0	57	0	2410676224	41	4512
2026-01-08 16:12:23.79	292.84	15.17	-36.0	-37.4	16.7	0.00e+00	0	57	0	2418016256	41	4513
2026-01-08 16:12:24.80	293.04	15.14	-36.1	-37.5	16.6	0.00e+00	0	57	0	2425356288	41	4566
2026-01-08 16:12:25.81	293.25	15.11	-36.2	-37.5	16.6	0.00e+00	0	58	0	2432696320	41	4597
2026-01-08 16:12:26.82	293.46	15.08	-36.3	-37.7	16.4	0.00e+00	0	57	0	2440036352	42	4401
2026-01-08 16:12:27.83	293.66	15.05	-36.2	-37.6	16.5	0.00e+00	0	57	0	2447376384	42	4389
2026-01-08 16:12:28.84	293.87	15.01	-36.3	-37.7	16.4	0.00e+00	0	57	0	2454716416	42	4407
2026-01-08 16:12:29.85	294.07	14.98	-36.2	-37.6	16.5	0.00e+00	0	58	0	2462056448	42	4373
2026-01-08 16:12:30.86	294.27	14.95	-36.2	-37.6	16.5	0.00e+00	0	57	0	2469396480	42	4370
2026-01-08 16:12:31.87	294.48	14.92	-36.2	-37.6	16.5	0.00e+00	0	58	0	2476736512	42	4359
2026-01-08 16:12:32.88	294.68	14.88	-36.1	-37.5	16.6	0.00e+00	0	57	0	2484076544	42	4321
2026-01-08 16:12:33.89	294.88	14.85	-36.1	-37.5	16.6	0.00e+00	0	57	0	2491416576	42	4292
2026-01-08 16:12:34.90	295.08	14.82	-36.1	-37.5	16.6	0.00e+00	0	57	0	2498756608	42	4315
2026-01-08 16:12:35.90	295.28	14.78	-36.1	-37.5	16.6	0.00e+00	0	57	0	2506096640	42	4298
2026-01-08 16:12:36.91	295.49	14.75	-36.1	-37.5	16.6	0.00e+00	0	57	0	2512388096	42	4296
2026-01-08 16:12:37.92	295.69	14.71	-36.0	-37.4	16.7	0.00e+00	0	57	0	2519728128	42	4252
2026-01-08 16:12:38.93	295.89	14.68	-36.0	-37.3	16.7	0.00e+00	0	57	0	2528116736	42	4225
2026-01-08 16:12:39.94	296.09	14.64	-36.0	-37.3	16.7	0.00e+00	0	57	0	2534408192	42	4232
2026-01-08 16:12:40.95	296.29	14.61	-36.0	-37.3	16.7	0.00e+00	0	58	0	2541748224	42	4239
2026-01-08 16:12:41.96	296.48	14.57	-36.1	-37.4	16.6	0.00e+00	0	58	0	2549088256	42	4264
2026-01-08 16:12:42.97	296.68	14.54	-36.1	-37.4	16.7	0.00e+00	0	58	0	2556428288	42	4273
2026-01-08 16:12:43.98	296.88	14.50	-36.1	-37.4	16.6	0.00e+00	0	57	0	2563768320	42	4278
2026-01-08 16:12:44.99	297.08	14.46	-36.1	-37.4	16.6	0.00e+00	0	58	0	2571108352	42	4288
2026-01-08 16:12:46.00	297.27	14.43	-36.1	-37.5	16.6	0.00e+00	0	57	0	2578448384	42	4323
2026-01-08 16:12:47.01	297.47	14.39	-36.1	-37.5	16.5	0.00e+00	0	57	0	2585788416	42	4326
2026-01-08 16:12:48.02	297.67	14.35	-36.1	-37.5	16.6	0.00e+00	0	57	0	2593128448	42	4292
2026-01-08 16:12:49.03	297.86	14.31	-36.1	-37.5	16.6	0.00e+00	0	57	0	2600468480	42	4315
2026-01-08 16:12:50.04	298.06	14.28	-36.1	-37.5	16.6	0.00e+00	0	57	0	2607808512	42	4318
2026-01-08 16:12:51.05	298.25	14.24	-36.2	-37.6	16.5	0.00e+00	0	57	0	2615148544	42	4373
2026-01-08 16:12:52.06	298.45	14.20	-36.2	-37.6	16.5	0.00e+00	0	57	0	2622488576	42	4375
2026-01-08 16:12:53.07	298.64	14.16	-36.3	-37.7	16.4	0.00e+00	0	57	0	2629828608	42	4429
2026-01-08 16:12:54.08	298.83	14.12	-36.3	-37.7	16.4	0.00e+00	0	57	0	2637168640	42	4422
2026-01-08 16:12:55.09	299.03	14.08	-36.3	-37.7	16.4	0.00e+00	0	57	0	2644508672	42	4428
2026-01-08 16:12:56.10	299.22	14.04	-36.4	-37.8	16.3	0.00e+00	0	58	0	2651848704	42	4474
2026-01-08 16:12:57.11	299.41	14.01	-36.4	-37.8	16.3	0.00e+00	0	57	0	2658140160	42	4472
2026-01-08 16:12:58.12	299.60	13.97	-36.5	-37.9	16.2	0.00e+00	0	57	0	2665480192	42	4506
2026-01-08 16:12:59.12	299.79	13.93	-36.4	-37.8	16.3	0.00e+00	0	57	0	2673868800	42	4466
2026-01-08 16:13:00.13	299.98	13.89	-36.4	-37.8	16.3	0.00e+00	0	57	0	2680160256	42	4476
2026-01-08 16:13:01.14	300.17	13.85	-36.4	-37.8	16.3	0.00e+00	0	57	0	2687500288	42	4485
2026-01-08 16:13:02.15	300.36	13.81	-36.4	-37.8	16.3	0.00e+00	0	57	0	2694840320	42	4477
2026-01-08 16:13:03.16	300.55	13.76	-36.5	-37.9	16.2	0.00e+00	0	58	0	2702180352	42	4528
2026-01-08 16:13:04.17	300.73	13.72	-36.4	-37.9	16.2	0.00e+00	0	58	0	2709520384	42	4502
2026-01-08 16:13:05.18	300.92	13.68	-36.4	-37.8	16.3	0.00e+00	0	57	0	2716860416	42	4477
2026-01-08 16:13:06.19	301.11	13.64	-36.4	-37.8	16.3	0.00e+00	0	58	0	2724200448	42	4455
2026-01-08 16:13:07.20	301.29	13.60	-36.4	-37.8	16.3	0.00e+00	0	58	0	2731540480	42	4482
2026-01-08 16:13:08.21	301.48	13.56	-36.4	-37.8	16.3	0.00e+00	0	57	0	2738880512	42	4460
2026-01-08 16:13:09.22	301.67	13.52	-36.3	-37.7	16.3	0.00e+00	0	58	0	2746220544	42	4436
2026-01-08 16:13:10.23	301.85	13.47	-36.3	-37.7	16.4	0.00e+00	0	57	0	2753560576	42	4423
2026-01-08 16:13:11.24	302.04	13.43	-36.3	-37.7	16.4	0.00e+00	0	58	0	2760900608	42	4425
2026-01-08 16:13:12.25	302.22	13.39	-36.4	-37.8	16.3	0.00e+00	0	57	0	2768240640	42	4462
2026-01-08 16:13:13.26	302.40	13.35	-36.4	-37.8	16.2	0.00e+00	0	57	0	2775580672	42	4476
2026-01-08 16:13:14.27	302.59	13.30	-36.4	-37.9	16.2	0.00e+00	0	57	0	2782920704	42	4494
2026-01-08 16:13:15.28	302.77	13.26	-36.4	-37.8	16.3	0.00e+00	0	58	0	2790260736	42	4475
2026-01-08 16:13:16.29	302.95	13.22	-36.4	-37.8	16.3	0.00e+00	0	57	0	2797600768	42	4471
2026-01-08 16:13:17.30	303.13	13.17	-36.4	-37.8	16.2	0.00e+00	0	57	0	2804940800	42	4490
2026-01-08 16:13:18.31	303.31	13.13	-36.4	-37.8	16.2	0.00e+00	0	58	0	2811232256	42	4488
2026-01-08 16:13:19.32	303.49	13.08	-36.4	-37.8	16.3	0.00e+00	0	57	0	2818572288	42	4464
2026-01-08 16:13:20.33	303.67	13.04	-36.3	-37.8	16.3	0.00e+00	0	57	0	2826960896	42	4442
2026-01-08 16:13:21.34	303.85	13.00	-36.4	-37.8	16.3	0.00e+00	0	57	0	2833252352	42	4487
2026-01-08 16:13:22.35	304.03	12.95	-36.4	-37.8	16.3	0.00e+00	0	58	0	2840592384	42	4460
2026-01-08 16:13:23.36	304.21	12.91	-36.4	-37.8	16.3	0.00e+00	0	58	0	2847932416	42	4467
2026-01-08 16:13:24.37	304.39	12.86	-36.4	-37.8	16.3	0.00e+00	0	57	0	2855272448	42	4473
2026-01-08 16:13:25.38	304.56	12.82	-36.5	-37.9	16.1	0.00e+00	0	57	0	2862612480	42	4539
2026-01-08 16:13:26.39	304.74	12.77	-36.6	-38.0	16.1	0.00e+00	0	58	0	2869952512	42	4578
2026-01-08 16:13:27.40	304.92	12.73	-36.6	-38.1	16.0	0.00e+00	0	58	0	2877292544	42	4622
2026-01-08 16:13:28.41	305.09	12.68	-36.7	-38.2	15.9	0.00e+00	0	57	0	2884632576	42	4654
2026-01-08 16:13:29.42	305.27	12.64	-36.7	-38.2	15.9	0.00e+00	0	57	0	2891972608	43	4415
2026-01-08 16:13:30.43	305.44	12.59	-36.7	-38.2	15.8	0.00e+00	0	57	0	2899312640	43	4437
2026-01-08 16:13:31.44	305.61	12.55	-36.8	-38.3	15.8	0.00e+00	0	57	0	2906652672	43	4451
2026-01-08 16:13:32.45	305.79	12.50	-36.8	-38.3	15.8	0.00e+00	0	58	0	2913992704	43	4445
2026-01-08 16:13:33.46	305.96	12.45	-36.8	-38.3	15.7	0.00e+00	0	57	0	2921332736	43	4479
2026-01-08 16:13:34.47	306.13	12.41	-36.8	-38.3	15.7	0.00e+00	0	58	0	2928672768	43	4474
2026-01-08 16:13:35.48	306.30	12.36	-36.8	-38.2	15.8	0.00e+00	0	58	0	2936012800	43	4437
2026-01-08 16:13:36.49	306.48	12.31	-36.7	-38.2	15.9	1.10e-06	0	57	0	2943352832	43	4419
2026-01-08 16:13:37.50	306.65	12.27	-36.7	-38.2	15.8	0.00e+00	0	58	0	2950692864	43	4419
2026-01-08 16:13:38.51	306.82	12.22	-36.7	-38.2	15.9	0.00e+00	0	57	0	2958032896	43	4397
2026-01-08 16:13:39.52	306.99	12.17	-36.7	-38.1	15.9	0.00e+00	0	58	0	2964324352	43	4386
2026-01-08 16:13:40.53	307.16	12.13	-36.7	-38.2	15.8	0.00e+00	0	58	0	2972712960	43	4413
2026-01-08 16:13:41.54	307.32	12.08	-36.7	-38.1	15.9	0.00e+00	0	58	0	2979004416	43	4384
2026-01-08 16:13:42.55	307.49	12.03	-36.7	-38.2	15.9	0.00e+00	0	58	0	2986344448	43	4393
2026-01-08 16:13:43.56	307.66	11.98	-36.7	-38.2	15.8	0.00e+00	0	58	0	2993684480	43	4435
2026-01-08 16:13:44.57	307.83	11.94	-36.8	-38.3	15.7	0.00e+00	0	58	0	3001024512	43	4467
2026-01-08 16:13:45.58	307.99	11.89	-36.9	-38.4	15.6	0.00e+00	0	57	0	3008364544	43	4520
2026-01-08 16:13:46.58	308.16	11.84	-36.9	-38.4	15.6	0.00e+00	0	58	0	3015704576	43	4519
2026-01-08 16:13:47.60	308.33	11.79	-36.9	-38.5	15.5	0.00e+00	0	57	0	3023044608	43	4555
2026-01-08 16:13:48.60	308.49	11.75	-36.9	-38.4	15.6	0.00e+00	0	58	0	3030384640	43	4543
2026-01-08 16:13:49.61	308.65	11.70	-36.9	-38.4	15.6	0.00e+00	0	58	0	3037724672	43	4531
2026-01-08 16:13:50.62	308.82	11.65	-36.9	-38.4	15.6	0.00e+00	0	57	0	3045064704	43	4532
2026-01-08 16:13:51.63	308.98	11.60	-36.9	-38.4	15.6	0.00e+00	0	57	0	3052404736	43	4512
2026-01-08 16:13:52.64	309.14	11.55	-36.9	-38.4	15.6	0.00e+00	0	57	0	3059744768	43	4507
2026-01-08 16:13:53.65	309.31	11.50	-36.9	-38.4	15.6	0.00e+00	0	58	0	3067084800	43	4519
2026-01-08 16:13:54.66	309.47	11.45	-36.9	-38.4	15.6	0.00e+00	0	58	0	3074424832	43	4516
2026-01-08 16:13:55.67	309.63	11.41	-36.9	-38.4	15.5	0.00e+00	0	57	0	3081764864	43	4539
2026-01-08 16:13:56.68	309.79	11.36	-36.9	-38.4	15.6	0.00e+00	0	58	0	3089104896	43	4535
2026-01-08 16:13:57.69	309.95	11.31	-37.0	-38.5	15.4	0.00e+00	0	58	0	3096444928	43	4574
2026-01-08 16:13:58.70	310.11	11.26	-37.0	-38.5	15.4	0.00e+00	0	58	0	3103784960	43	4589
2026-01-08 16:13:59.71	310.27	11.21	-37.1	-38.6	15.3	0.00e+00	0	58	0	3110076416	43	4638
2026-01-08 16:14:00.71	310.43	11.16	-37.1	-38.6	15.3	0.00e+00	0	58	0	3117416448	43	4648
2026-01-08 16:14:01.72	310.58	11.11	-37.1	-38.7	15.3	0.00e+00	0	58	0	3124756480	43	4683
2026-01-08 16:14:02.73	310.74	11.06	-37.1	-38.7	15.3	0.00e+00	0	57	0	3132096512	43	4685
2026-01-08 16:14:03.74	310.90	11.01	-37.2	-38.8	15.2	0.00e+00	0	58	0	3139436544	43	4708
2026-01-08 16:14:04.75	311.05	10.96	-37.2	-38.8	15.2	0.00e+00	0	58	0	3146776576	43	4715
2026-01-08 16:14:05.76	311.21	10.91	-37.2	-38.8	15.2	0.00e+00	0	57	0	3154116608	43	4713
2026-01-08 16:14:06.77	311.37	10.86	-37.1	-38.8	15.2	0.00e+00	0	58	0	3161456640	43	4707
2026-01-08 16:14:07.78	311.52	10.81	-37.1	-38.7	15.3	0.00e+00	0	58	0	3168796672	43	4654
2026-01-08 16:14:08.79	311.68	10.76	-37.1	-38.7	15.3	0.00e+00	0	58	0	3176136704	43	4685
2026-01-08 16:14:09.79	311.83	10.71	-37.0	-38.6	15.4	0.00e+00	0	58	0	3183476736	43	4606
2026-01-08 16:14:10.80	311.98	10.66	-37.0	-38.5	15.4	0.00e+00	0	58	0	3190816768	43	4586
2026-01-08 16:14:11.82	312.14	10.61	-36.9	-38.5	15.5	0.00e+00	0	58	0	3198156800	43	4558
2026-01-08 16:14:12.83	312.29	10.56	-36.9	-38.5	15.5	0.00e+00	0	58	0	3205496832	43	4554
2026-01-08 16:14:13.83	312.44	10.51	-37.0	-38.6	15.4	0.00e+00	0	58	0	3212836864	43	4600
2026-01-08 16:14:14.84	312.59	10.46	-37.0	-38.5	15.4	0.00e+00	0	58	0	3220176896	43	4578
2026-01-08 16:14:15.85	312.74	10.41	-37.1	-38.7	15.2	0.00e+00	0	58	0	3227516928	43	4675
2026-01-08 16:14:16.86	312.89	10.36	-37.2	-38.7	15.1	0.00e+00	0	57	0	3234856960	43	4697
2026-01-08 16:14:17.87	313.04	10.31	-37.3	-38.9	15.1	0.00e+00	0	58	0	3241148416	44	4545
2026-01-08 16:14:18.88	313.19	10.26	-37.5	-39.1	15.0	1.10e-06	0	58	0	3249537024	44	4624
2026-01-08 16:14:19.89	313.34	10.21	-37.5	-39.1	14.9	0.00e+00	0	58	0	3256877056	44	4634
2026-01-08 16:14:20.90	313.49	10.16	-37.6	-39.2	14.8	0.00e+00	0	58	0	3263168512	44	4704
2026-01-08 16:14:21.91	313.64	10.11	-37.5	-39.2	14.9	0.00e+00	0	58	0	3270508544	44	4668
2026-01-08 16:14:22.92	313.78	10.05	-37.6	-39.2	14.8	0.00e+00	0	58	0	3277848576	44	4700
2026-01-08 16:14:23.93	313.93	10.00	-37.6	-39.3	14.7	0.00e+00	0	58	0	3285188608	44	4746
2026-01-08 16:14:24.94	314.08	9.95	-37.6	-39.3	14.8	0.00e+00	0	58	0	3292528640	44	4737
2026-01-08 16:14:25.94	314.22	9.90	-37.7	-39.4	14.6	0.00e+00	0	58	0	3299868672	45	4511
2026-01-08 16:14:26.96	314.37	9.85	-37.7	-39.4	14.6	0.00e+00	0	58	0	3307208704	45	4514
2026-01-08 16:14:27.97	314.51	9.80	-37.5	-39.2	14.9	0.00e+00	0	57	0	3314548736	45	4394
2026-01-08 16:14:28.97	314.66	9.75	-37.7	-39.3	14.7	0.00e+00	0	58	0	3321888768	45	4492
2026-01-08 16:14:29.99	314.80	9.70	-37.7	-39.3	14.7	0.00e+00	0	58	0	3329228800	45	4493
2026-01-08 16:14:30.99	314.95	9.64	-37.4	-39.1	14.9	0.00e+00	0	58	0	3336568832	45	4358
2026-01-08 16:14:32.00	315.09	9.59	-37.4	-39.1	15.0	0.00e+00	0	58	0	3343908864	45	4350
2026-01-08 16:14:33.01	315.23	9.54	-37.5	-39.1	14.9	0.00e+00	0	58	0	3351248896	45	4361
2026-01-08 16:14:34.02	315.37	9.49	-37.2	-38.8	15.2	0.00e+00	0	58	0	3358588928	45	4212
2026-01-08 16:14:35.03	315.51	9.44	-37.2	-38.8	15.2	0.00e+00	0	58	0	3365928960	45	4223
2026-01-08 16:14:36.04	315.66	9.39	-37.2	-38.8	15.2	0.00e+00	0	58	0	3373268992	45	4211
2026-01-08 16:14:37.05	315.80	9.34	-37.2	-38.8	15.2	0.00e+00	0	58	0	3380609024	45	4231
2026-01-08 16:14:38.06	315.94	9.28	-37.3	-38.9	15.1	0.00e+00	0	58	0	3386900480	45	4251
2026-01-08 16:14:39.07	316.08	9.23	-37.3	-38.9	15.1	0.00e+00	0	58	0	3394240512	45	4287
2026-01-08 16:14:40.08	316.22	9.18	-37.3	-38.9	15.1	0.00e+00	0	58	0	3402629120	45	4267
2026-01-08 16:14:41.09	316.35	9.13	-37.4	-39.0	14.9	0.00e+00	0	58	0	3408920576	45	4337
2026-01-08 16:14:42.10	316.49	9.08	-37.5	-39.2	14.8	0.00e+00	0	58	0	3416260608	45	4411
2026-01-08 16:14:43.11	316.63	9.02	-37.5	-39.2	14.7	0.00e+00	0	58	0	3423600640	45	4434
2026-01-08 16:14:44.12	316.77	8.97	-37.7	-39.4	14.5	0.00e+00	0	58	0	3430940672	45	4535
2026-01-08 16:14:45.13	316.90	8.92	-37.6	-39.2	14.7	0.00e+00	0	58	0	3438280704	45	4433
2026-01-08 16:14:46.14	317.04	8.87	-37.6	-39.3	14.6	1.10e-06	0	58	0	3445620736	45	4492
2026-01-08 16:14:47.15	317.18	8.82	-37.8	-39.6	14.3	2.20e-06	0	58	0	3452960768	45	4625
2026-01-08 16:14:48.16	317.31	8.76	-37.9	-39.6	14.3	1.10e-06	0	58	0	3460300800	45	4646
2026-01-08 16:14:49.18	317.45	8.71	-38.0	-39.8	14.1	1.10e-06	0	58	0	3467640832	45	4719
2026-01-08 16:14:50.18	317.58	8.66	-37.9	-39.8	14.2	3.40e-06	0	58	0	3474980864	45	4709
2026-01-08 16:14:51.19	317.71	8.61	-37.9	-39.7	14.2	2.20e-06	0	58	0	3482320896	45	4686
2026-01-08 16:14:52.20	317.85	8.56	-38.0	-39.8	14.1	0.00e+00	0	58	0	3489660928	45	4711
2026-01-08 16:14:53.21	317.98	8.50	-38.0	-39.8	14.1	5.70e-06	0	58	0	3497000960	45	4751
2026-01-08 16:14:54.22	318.11	8.45	-37.9	-39.7	14.2	3.40e-06	0	58	0	3504340992	45	4681
2026-01-08 16:14:55.23	318.25	8.40	-37.9	-39.7	14.2	0.00e+00	0	58	0	3511681024	45	4673
2026-01-08 16:14:56.24	318.38	8.35	-37.8	-39.6	14.3	0.00e+00	0	58	0	3519021056	45	4601
2026-01-08 16:14:57.25	318.51	8.29	-37.9	-39.7	14.2	1.10e-06	0	58	0	3526361088	45	4659
2026-01-08 16:14:58.26	318.64	8.24	-37.8	-39.6	14.3	0.00e+00	0	58	0	3533701120	45	4634
2026-01-08 16:14:59.27	318.77	8.19	-37.8	-39.5	14.4	0.00e+00	0	58	0	3539992576	45	4580
2026-01-08 16:15:00.28	318.90	8.14	-37.5	-39.2	14.7	0.00e+00	0	58	0	3548381184	45	4438
2026-01-08 16:15:01.29	319.03	8.09	-37.7	-39.4	14.5	0.00e+00	0	58	0	3555721216	45	4504
2026-01-08 16:15:02.30	319.16	8.03	-37.8	-39.6	14.3	0.00e+00	0	58	0	3562012672	45	4644
2026-01-08 16:15:03.31	319.29	7.98	-44.5	-54.8	3.8	8.41e-01	0	58	104	3565158400	58	12568
2026-01-08 16:15:04.32	319.41	7.93	-44.8	-55.3	3.8	8.47e-01	0	58	104	3565158400	59	12656
2026-01-08 16:15:05.33	319.54	7.88	-45.0	-55.8	3.8	8.47e-01	0	58	104	3565158400	59	13402
2026-01-08 16:15:06.34	319.67	7.82	-45.2	-56.1	3.8	8.46e-01	0	58	104	3565158400	59	13832
2026-01-08 16:15:07.35	319.80	7.77	-45.2	-56.4	3.8	8.47e-01	0	58	104	3565158400	60	13553
2026-01-08 16:15:08.36	319.92	7.72	-45.3	-56.4	3.8	8.46e-01	0	58	104	3565158400	60	13549
2026-01-08 16:15:09.37	320.05	7.67	-45.3	-56.5	3.8	8.46e-01	0	58	104	3565158400	60	13666
2026-01-08 16:15:10.38	320.17	7.61	-45.3	-56.5	3.8	8.46e-01	0	58	104	3565158400	60	13681
2026-01-08 16:15:11.39	320.30	7.56	-45.3	-56.5	3.8	8.46e-01	0	58	104	3565158400	60	13658
2026-01-08 16:15:12.40	320.42	7.51	-45.2	-56.5	3.8	8.47e-01	0	58	104	3565158400	60	13632
2026-01-08 16:15:13.42	320.55	7.46	-45.2	-56.4	3.8	8.46e-01	0	58	104	3565158400	60	13549
2026-01-08 16:15:14.43	320.67	7.40	-44.9	-56.3	3.8	8.46e-01	0	58	104	3565158400	60	13307
2026-01-08 16:15:15.44	320.80	7.35	-45.2	-56.4	3.8	8.46e-01	0	58	104	3565158400	60	13473
2026-01-08 16:15:16.45	320.92	7.30	-45.2	-56.4	3.8	8.47e-01	0	58	104	3565158400	60	13449
2026-01-08 16:15:17.46	321.04	7.25	-45.2	-56.4	3.8	8.47e-01	0	58	104	3565158400	60	13477
2026-01-08 16:15:18.47	321.16	7.19	-45.2	-56.4	3.8	8.46e-01	0	58	104	3565158400	60	13451
2026-01-08 16:15:19.48	321.28	7.14	-45.2	-56.4	3.8	8.45e-01	0	58	104	3565158400	60	13514
2026-01-08 16:15:20.49	321.41	7.09	-45.2	-56.4	3.8	8.46e-01	0	58	104	3565158400	60	13442
2026-01-08 16:15:21.50	321.53	7.04	-45.2	-56.4	3.8	8.45e-01	0	58	104	3565158400	60	13455
2026-01-08 16:15:22.51	321.65	6.98	-45.2	-56.4	3.8	8.46e-01	0	58	104	3565158400	60	13494
2026-01-08 16:15:23.52	321.77	6.93	-45.2	-56.4	3.8	8.47e-01	0	58	104	3565158400	60	13504
2026-01-08 16:15:24.53	321.89	6.88	-45.2	-56.4	3.8	8.47e-01	0	58	104	3565158400	60	13460
2026-01-08 16:15:25.54	322.01	6.83	-45.2	-56.4	3.8	8.47e-01	0	58	104	3565158400	60	13449
2026-01-08 16:15:26.55	322.12	6.78	-45.2	-56.4	3.8	8.45e-01	0	58	104	3565158400	60	13504
2026-01-08 16:15:27.56	322.24	6.72	-45.2	-56.3	3.8	8.45e-01	0	58	104	3565158400	60	13413
2026-01-08 16:15:28.58	322.36	6.67	-45.2	-56.4	3.8	8.46e-01	0	58	104	3565158400	60	13470
2026-01-08 16:15:29.59	322.48	6.62	-45.2	-56.4	3.8	8.46e-01	0	58	104	3565158400	60	13473
2026-01-08 16:15:30.60	322.60	6.57	-45.2	-56.4	3.8	8.46e-01	0	58	104	3565158400	60	13453
2026-01-08 16:15:31.61	322.71	6.51	-45.2	-56.4	3.8	8.46e-01	0	58	104	3565158400	60	13422
2026-01-08 16:15:32.62	322.83	6.46	-45.2	-56.4	3.8	8.47e-01	0	58	104	3565158400	60	13442
2026-01-08 16:15:33.63	322.94	6.41	-45.2	-56.4	3.8	8.46e-01	0	58	104	3565158400	60	13445
2026-01-08 16:15:34.64	323.06	6.36	-45.2	-56.4	3.8	8.46e-01	0	58	104	3565158400	60	13445
2026-01-08 16:15:35.65	323.18	6.30	-45.2	-56.3	3.8	8.46e-01	0	58	104	3565158400	60	13395
2026-01-08 16:15:36.66	323.29	6.25	-45.2	-56.4	3.8	8.47e-01	0	58	104	3565158400	60	13455
2026-01-08 16:15:37.67	323.40	6.20	-45.2	-56.4	3.8	8.46e-01	0	58	104	3565158400	60	13429
2026-01-08 16:15:38.68	323.52	6.15	-45.2	-56.4	3.8	8.45e-01	0	58	104	3565158400	60	13439
2026-01-08 16:15:39.69	323.63	6.09	-45.2	-56.4	3.8	8.46e-01	0	58	104	3565158400	60	13453
2026-01-08 16:15:40.71	323.75	6.04	-45.2	-56.4	3.8	8.45e-01	0	58	104	3565158400	60	13440
2026-01-08 16:15:41.71	323.86	5.99	-45.2	-56.4	3.8	8.45e-01	0	58	104	3565158400	60	13419
2026-01-08 16:15:42.72	323.97	5.94	-45.2	-56.4	3.8	8.46e-01	0	58	104	3565158400	60	13431
2026-01-08 16:15:43.73	324.08	5.89	-45.2	-56.4	3.8	8.46e-01	0	58	104	3565158400	60	13437
2026-01-08 16:15:44.75	324.19	5.83	-45.2	-56.4	3.8	8.45e-01	0	58	104	3565158400	60	13452
2026-01-08 16:15:45.76	324.31	5.78	-45.2	-56.3	3.8	8.46e-01	0	58	104	3565158400	60	13408
2026-01-08 16:15:46.76	324.41	5.73	-45.1	-56.4	3.8	8.46e-01	0	58	104	3565158400	60	13458
2026-01-08 16:15:47.78	324.53	5.68	-45.2	-56.4	3.8	8.47e-01	0	58	104	3565158400	60	13442
2026-01-08 16:15:48.79	324.64	5.62	-45.2	-56.4	3.8	8.47e-01	0	58	104	3565158400	60	13505
2026-01-08 16:15:49.80	324.75	5.57	-45.2	-56.4	3.8	8.47e-01	0	58	104	3565158400	60	13431
2026-01-08 16:15:50.81	324.86	5.52	-45.2	-56.4	3.8	8.46e-01	0	58	104	3565158400	60	13462
2026-01-08 16:15:51.82	324.96	5.47	-45.2	-56.4	3.8	8.46e-01	0	58	104	3565158400	60	13423
2026-01-08 16:15:52.83	325.07	5.42	-45.2	-56.4	3.8	8.47e-01	0	58	104	3565158400	60	13439
2026-01-08 16:15:53.84	325.18	5.36	-44.7	-56.2	3.8	8.47e-01	0	58	104	3565158400	60	13236
2026-01-08 16:15:54.85	325.29	5.31	-45.1	-56.4	3.8	8.45e-01	0	58	104	3565158400	60	13428
2026-01-08 16:15:55.86	325.40	5.26	-45.1	-56.3	3.8	8.46e-01	0	58	104	3565158400	60	13378
2026-01-08 16:15:56.87	325.50	5.21	-45.2	-56.4	3.8	8.46e-01	0	58	104	3565158400	60	13462
2026-01-08 16:15:57.89	325.61	5.16	-45.2	-56.3	3.8	8.46e-01	0	58	104	3565158400	60	13409
2026-01-08 16:15:58.90	325.72	5.10	-45.2	-56.4	3.8	8.45e-01	0	58	104	3565158400	60	13427
2026-01-08 16:15:59.91	325.82	5.05	-45.2	-56.3	3.8	8.45e-01	0	58	104	3565158400	60	13413
2026-01-08 16:16:00.92	325.93	5.00	-45.2	-56.4	3.8	8.46e-01	0	58	104	3565158400	60	13432
2026-01-08 16:16:01.93	326.03	4.95	-45.2	-56.4	3.8	8.47e-01	0	58	104	3565158400	60	13442
2026-01-08 16:16:02.94	326.14	4.90	-45.2	-56.3	3.8	8.45e-01	0	58	104	3565158400	60	13399
2026-01-08 16:16:03.95	326.24	4.84	-44.9	-56.2	3.8	8.46e-01	0	58	104	3565158400	60	13232
2026-01-08 16:16:04.96	326.35	4.79	-45.3	-56.1	3.8	8.46e-01	0	58	104	3565158400	59	13816
2026-01-08 16:16:05.97	326.45	4.74	-45.2	-56.4	3.8	8.47e-01	0	58	104	3565158400	60	13430
2026-01-08 16:16:06.98	326.56	4.69	-45.2	-56.4	3.8	8.46e-01	0	58	104	3565158400	60	13419
2026-01-08 16:16:07.99	326.66	4.64	-45.2	-56.4	3.8	8.46e-01	0	58	104	3565158400	60	13442
2026-01-08 16:16:09.00	326.76	4.59	-45.1	-56.4	3.8	8.44e-01	0	58	104	3565158400	60	13420
2026-01-08 16:16:10.01	326.86	4.53	-45.2	-56.3	3.8	8.46e-01	0	58	104	3565158400	60	13378
2026-01-08 16:16:11.02	326.97	4.48	-45.1	-56.4	3.8	8.46e-01	0	58	104	3565158400	60	13436
2026-01-08 16:16:12.04	327.07	4.43	-45.2	-56.3	3.8	8.46e-01	0	58	104	3565158400	60	13401
2026-01-08 16:16:13.05	327.17	4.38	-45.2	-56.4	3.8	8.45e-01	0	58	104	3565158400	60	13491
2026-01-08 16:16:14.06	327.27	4.33	-45.2	-56.3	3.8	8.47e-01	0	58	104	3565158400	60	13385
2026-01-08 16:16:15.07	327.37	4.28	-45.2	-56.4	3.8	8.46e-01	0	58	104	3565158400	60	13481
2026-01-08 16:16:16.08	327.47	4.22	-45.2	-56.3	3.8	8.47e-01	0	58	104	3565158400	60	13411
2026-01-08 16:16:17.09	327.57	4.17	-45.1	-56.3	3.8	8.46e-01	0	58	104	3565158400	60	13388
2026-01-08 16:16:18.10	327.67	4.12	-45.2	-56.3	3.8	8.46e-01	0	58	104	3565158400	60	13385
2026-01-08 16:16:19.11	327.77	4.07	-45.2	-56.4	3.8	8.47e-01	0	58	104	3565158400	60	13416
2026-01-08 16:16:20.12	327.87	4.02	-45.2	-56.3	3.8	8.46e-01	0	58	104	3565158400	60	13406
2026-01-08 16:16:21.13	327.97	3.97	-45.2	-56.4	3.8	8.47e-01	0	58	104	3565158400	60	13436
2026-01-08 16:16:22.14	328.07	3.92	-45.2	-56.4	3.8	8.46e-01	0	58	104	3565158400	60	13436
2026-01-08 16:16:23.15	328.17	3.87	-45.2	-56.4	3.8	8.46e-01	0	58	104	3565158400	60	13428
2026-01-08 16:16:24.17	328.26	3.81	-45.1	-56.3	3.8	8.45e-01	0	58	104	3565158400	60	13404
2026-01-08 16:16:25.18	328.36	3.76	-45.2	-56.4	3.8	8.46e-01	0	58	104	3565158400	60	13433
2026-01-08 16:16:26.19	328.46	3.71	-45.2	-56.3	3.8	8.46e-01	0	58	104	3565158400	60	13356
2026-01-08 16:16:27.20	328.56	3.66	-45.2	-56.3	3.8	8.46e-01	0	58	104	3565158400	60	13351
2026-01-08 16:16:28.21	328.65	3.61	-45.2	-56.4	3.8	8.45e-01	0	58	104	3565158400	60	13423
2026-01-08 16:16:29.21	328.75	3.56	-45.2	-56.4	3.8	8.46e-01	0	58	104	3565158400	60	13429
2026-01-08 16:16:30.22	328.84	3.51	-45.1	-56.4	3.8	8.47e-01	0	58	104	3565158400	60	13415
2026-01-08 16:16:31.23	328.94	3.46	-45.1	-56.3	3.8	8.47e-01	0	58	104	3565158400	60	13381
2026-01-08 16:16:32.24	329.03	3.41	-45.1	-56.4	3.8	8.45e-01	0	58	104	3565158400	60	13462
2026-01-08 16:16:33.25	329.13	3.35	-45.2	-56.3	3.8	8.47e-01	0	58	104	3565158400	60	13368
2026-01-08 16:16:34.27	329.22	3.30	-45.2	-56.3	3.8	8.46e-01	0	58	104	3565158400	60	13381
2026-01-08 16:16:35.28	329.32	3.25	-45.2	-56.3	3.8	8.47e-01	0	58	104	3565158400	60	13361
2026-01-08 16:16:36.29	329.41	3.20	-45.2	-56.4	3.8	8.46e-01	0	58	104	3565158400	60	13457
2026-01-08 16:16:37.30	329.51	3.15	-45.2	-56.3	3.8	8.47e-01	0	58	104	3565158400	60	13394
2026-01-08 16:16:38.31	329.60	3.10	-45.2	-56.3	3.8	8.46e-01	0	58	104	3565158400	60	13392
2026-01-08 16:16:39.32	329.69	3.05	-45.2	-56.3	3.8	8.47e-01	0	58	104	3565158400	60	13393
2026-01-08 16:16:40.33	329.79	3.00	-45.2	-56.4	3.8	8.47e-01	0	58	104	3565158400	60	13420
2026-01-08 16:16:41.34	329.88	2.95	-44.9	-56.3	3.8	8.46e-01	0	58	104	3565158400	60	13294
