passes_logs/2026/01/08/R2.0S_Moscow/R2.0S_Moscow__20260108_083733_NOAA_20_JPSS-1_rec.log

#Pass ID: 20260108_083733_NOAA 20 (JPSS-1)
#Satellite: NOAA 20 (JPSS-1)
#Configuration: NOAA 20
#almurnet v.1.7.20251203
#Start time: 2026-01-08 08:37:34

#Version: 2.2.20231116
#Station: R2.0S_Moscow
#Location: 37.707566 lon 55.798166 lat
#TLE: 1 43013U 17073A   26006.30790171  .00000126  00000+0  80695-4 0  9991
#TLE: 2 43013  98.7629 307.3394 0001808  51.8724 308.2615 14.19533762421505

#Time	Az	El	Level	Level2	SNR	BER	BlckErr	Temp	State	Recorded	gain1	gain2
2026-01-08 08:37:34.89	122.72	2.09	-24.0	-41.4	4.2	1.50e+00	0	47	0	0	17	30278
2026-01-08 08:37:35.89	122.67	2.15	-21.6	-39.3	3.8	1.50e+00	0	48	104	0	16	25102
2026-01-08 08:37:36.90	122.62	2.21	-23.9	-41.6	4.1	1.50e+00	0	48	104	0	18	29017
2026-01-08 08:37:37.91	122.56	2.27	-19.3	-39.0	3.9	1.50e+00	0	48	104	0	15	25690
2026-01-08 08:37:38.92	122.51	2.33	-24.0	-41.6	3.8	1.50e+00	0	48	104	0	18	29197
2026-01-08 08:37:39.93	122.45	2.39	-23.6	-41.7	3.9	1.50e+00	0	48	104	0	16	32940
2026-01-08 08:37:40.94	122.40	2.45	-20.2	-37.5	3.9	1.50e+00	0	48	104	0	11	27359
2026-01-08 08:37:41.95	122.34	2.51	-21.3	-37.3	3.8	1.50e+00	0	48	104	0	12	25064
2026-01-08 08:37:42.96	122.29	2.58	-24.3	-42.0	4.1	1.50e+00	0	48	104	0	19	28835
2026-01-08 08:37:43.97	122.23	2.64	-22.2	-39.9	3.7	1.50e+00	0	48	104	0	15	28667
2026-01-08 08:37:44.98	122.18	2.70	-21.8	-38.2	4.0	1.50e+00	0	48	104	0	10	31201
2026-01-08 08:37:45.99	122.12	2.76	-22.0	-39.1	3.7	1.51e+00	0	48	104	0	13	29278
2026-01-08 08:37:47.00	122.07	2.82	-16.1	-33.9	4.1	1.51e+00	0	48	104	0	10	19027
2026-01-08 08:37:48.01	122.01	2.88	-20.0	-38.2	4.0	1.50e+00	0	49	104	0	12	27770
2026-01-08 08:37:49.02	121.95	2.94	-20.7	-39.3	3.9	1.51e+00	0	48	104	0	14	28145
2026-01-08 08:37:50.02	121.90	3.00	-21.8	-40.0	4.0	1.50e+00	0	49	104	0	15	28865
2026-01-08 08:37:51.03	121.84	3.07	-21.1	-39.1	3.8	1.50e+00	0	49	104	0	14	27681
2026-01-08 08:37:52.04	121.78	3.13	-22.5	-40.7	3.9	1.51e+00	0	49	104	0	15	31395
2026-01-08 08:37:53.05	121.72	3.19	-18.8	-38.0	4.0	1.50e+00	0	49	104	0	12	27317
2026-01-08 08:37:54.05	121.67	3.25	-21.2	-38.6	3.9	1.50e+00	0	49	104	0	13	27395
2026-01-08 08:37:55.06	121.61	3.31	-21.6	-38.3	4.0	1.50e+00	0	49	104	0	13	26604
2026-01-08 08:37:56.07	121.55	3.38	-23.5	-41.6	3.9	1.51e+00	0	49	104	0	15	34518
2026-01-08 08:37:57.08	121.49	3.44	-23.3	-41.3	3.9	1.50e+00	0	49	104	0	14	35613
2026-01-08 08:37:58.09	121.43	3.50	-15.6	-35.2	3.8	1.51e+00	0	49	104	0	8	24845
2026-01-08 08:37:59.10	121.37	3.56	-20.7	-37.5	4.0	1.50e+00	0	49	104	0	11	27104
2026-01-08 08:38:00.11	121.31	3.63	-21.8	-39.4	3.9	1.50e+00	0	49	104	0	14	28605
2026-01-08 08:38:01.12	121.25	3.69	-18.3	-36.7	4.1	1.50e+00	0	49	104	0	11	24756
2026-01-08 08:38:02.13	121.19	3.75	-18.2	-34.5	3.8	1.50e+00	0	49	104	0	8	23020
2026-01-08 08:38:03.14	121.13	3.82	-18.4	-36.8	4.0	1.50e+00	0	50	104	0	12	23852
2026-01-08 08:38:04.15	121.07	3.88	-23.3	-40.9	4.0	1.50e+00	0	50	104	0	15	31839
2026-01-08 08:38:05.16	121.01	3.94	-24.0	-41.3	3.9	1.50e+00	0	49	104	0	15	33573
2026-01-08 08:38:06.16	120.95	4.01	-13.4	-31.3	3.7	1.50e+00	0	50	104	0	1	23605
2026-01-08 08:38:07.18	120.89	4.07	-22.0	-35.3	3.8	1.50e+00	0	50	104	0	5	29983
2026-01-08 08:38:08.18	120.83	4.13	-21.3	-37.7	4.1	1.50e+00	0	50	104	0	11	27782
2026-01-08 08:38:09.19	120.77	4.20	-21.8	-38.7	3.6	1.50e+00	0	50	104	0	12	29468
2026-01-08 08:38:10.20	120.71	4.26	-13.0	-31.5	3.7	1.50e+00	0	50	104	0	0	25727
2026-01-08 08:38:11.21	120.64	4.33	-21.4	-39.5	4.0	1.50e+00	0	50	104	0	15	27108
2026-01-08 08:38:12.22	120.58	4.39	-21.8	-39.9	4.0	1.51e+00	0	50	104	0	13	32076
2026-01-08 08:38:13.23	120.52	4.45	-21.4	-38.9	3.9	1.50e+00	0	50	104	0	12	30130
2026-01-08 08:38:14.24	120.45	4.52	-17.7	-36.1	3.4	1.50e+00	0	50	104	0	8	27499
2026-01-08 08:38:15.25	120.39	4.58	-21.4	-39.6	3.9	1.50e+00	0	50	104	0	13	30964
2026-01-08 08:38:16.26	120.33	4.65	-22.0	-39.6	4.1	1.50e+00	0	50	104	0	16	26045
2026-01-08 08:38:17.27	120.26	4.71	-19.1	-36.4	3.7	1.50e+00	0	50	104	0	8	28428
2026-01-08 08:38:18.27	120.20	4.78	-22.5	-40.8	3.8	1.51e+00	0	50	104	0	13	35327
2026-01-08 08:38:19.29	120.13	4.84	-23.5	-40.5	4.0	1.51e+00	0	50	104	0	15	30685
2026-01-08 08:38:20.30	120.07	4.91	-19.4	-37.5	3.9	1.51e+00	0	50	104	0	15	21634
2026-01-08 08:38:21.30	120.00	4.97	-15.0	-32.3	4.0	1.50e+00	0	50	104	0	8	17864
2026-01-08 08:38:22.31	119.94	5.04	-13.0	-32.3	3.8	1.50e+00	0	50	104	0	0	28070
2026-01-08 08:38:23.32	119.87	5.11	-17.0	-36.6	4.0	1.50e+00	0	51	104	0	7	31041
2026-01-08 08:38:24.33	119.81	5.17	-15.5	-33.0	4.1	1.51e+00	0	51	104	0	3	25786
2026-01-08 08:38:25.34	119.74	5.24	-24.1	-41.7	3.9	1.51e+00	0	51	104	0	17	31102
2026-01-08 08:38:26.35	119.67	5.30	-15.3	-31.9	3.9	1.50e+00	0	51	104	0	2	24086
2026-01-08 08:38:27.36	119.60	5.37	-22.2	-38.2	4.3	1.50e+00	0	51	104	0	12	27885
2026-01-08 08:38:28.37	119.54	5.44	-21.1	-38.1	4.0	1.51e+00	0	51	104	0	11	29037
2026-01-08 08:38:29.38	119.47	5.50	-16.7	-35.6	4.0	1.50e+00	0	51	104	0	12	20705
2026-01-08 08:38:30.39	119.40	5.57	-15.5	-33.3	3.9	1.50e+00	0	51	104	0	3	26583
2026-01-08 08:38:31.40	119.33	5.64	-21.5	-40.3	4.1	1.50e+00	0	51	104	0	14	31678
2026-01-08 08:38:32.41	119.26	5.70	-22.1	-38.3	3.9	1.50e+00	0	51	104	0	15	23846
2026-01-08 08:38:33.42	119.19	5.77	-20.8	-38.9	4.0	1.50e+00	0	51	104	0	16	24091
2026-01-08 08:38:34.43	119.13	5.84	-15.2	-33.1	4.0	1.50e+00	0	51	104	0	3	25889
2026-01-08 08:38:35.44	119.06	5.90	-21.3	-38.6	4.0	1.50e+00	0	51	104	0	13	27461
2026-01-08 08:38:36.45	118.99	5.97	-16.7	-34.9	3.9	1.51e+00	0	51	104	0	5	28604
2026-01-08 08:38:37.46	118.91	6.04	-19.6	-36.9	3.8	1.51e+00	0	51	104	0	10	26852
2026-01-08 08:38:38.47	118.84	6.11	-12.5	-31.3	3.8	1.50e+00	0	51	104	0	0	25174
2026-01-08 08:38:39.48	118.77	6.17	-21.0	-38.9	3.9	1.50e+00	0	51	104	0	13	28619
2026-01-08 08:38:40.49	118.70	6.24	-22.5	-38.0	3.8	1.50e+00	0	51	104	0	9	32294
2026-01-08 08:38:41.50	118.63	6.31	-20.0	-38.1	3.9	1.50e+00	0	51	104	0	10	30965
2026-01-08 08:38:42.51	118.56	6.38	-12.7	-31.4	3.8	1.50e+00	0	51	104	0	0	25472
2026-01-08 08:38:43.52	118.48	6.45	-17.9	-34.1	4.0	1.50e+00	0	51	104	0	10	19517
2026-01-08 08:38:44.53	118.41	6.51	-23.0	-40.4	3.9	1.50e+00	0	51	104	0	15	30239
2026-01-08 08:38:45.54	118.34	6.58	-22.9	-40.3	3.9	1.51e+00	0	52	104	0	15	29812
2026-01-08 08:38:46.55	118.27	6.65	-21.7	-37.8	4.1	1.51e+00	0	52	104	0	8	33664
2026-01-08 08:38:47.56	118.19	6.72	-19.9	-37.0	3.7	1.50e+00	0	52	104	0	11	25569
2026-01-08 08:38:48.57	118.12	6.79	-19.0	-34.9	3.9	1.50e+00	0	52	104	0	8	24119
2026-01-08 08:38:49.58	118.04	6.86	-22.7	-39.6	4.0	1.50e+00	0	52	104	0	13	30749
2026-01-08 08:38:50.58	117.97	6.93	-21.2	-38.6	4.0	1.51e+00	0	52	104	0	8	36829
2026-01-08 08:38:51.60	117.89	7.00	-22.4	-40.2	3.8	1.51e+00	0	52	104	0	15	29450
2026-01-08 08:38:52.61	117.82	7.07	-19.5	-37.8	3.9	1.50e+00	0	52	104	0	14	23758
2026-01-08 08:38:53.62	117.74	7.14	-22.6	-39.9	3.9	1.50e+00	0	52	104	0	14	30133
2026-01-08 08:38:54.62	117.66	7.21	-21.6	-39.2	4.1	1.51e+00	0	52	104	0	14	27721
2026-01-08 08:38:55.63	117.59	7.28	-23.2	-40.5	4.0	1.50e+00	0	52	104	0	15	30433
2026-01-08 08:38:56.64	117.51	7.35	-20.2	-38.0	4.0	1.50e+00	0	52	0	0	13	25687
2026-01-08 08:38:57.65	117.43	7.42	-22.8	-39.4	4.1	1.50e+00	0	52	104	0	15	26816
2026-01-08 08:38:58.66	117.35	7.49	-22.1	-39.1	3.9	1.50e+00	0	52	104	0	9	36695
2026-01-08 08:38:59.67	117.28	7.56	-21.0	-38.2	4.1	1.50e+00	0	52	104	0	13	26266
2026-01-08 08:39:00.68	117.20	7.63	-18.8	-34.7	4.0	1.50e+00	0	52	104	0	7	24945
2026-01-08 08:39:01.69	117.12	7.70	-18.5	-35.9	3.8	1.50e+00	0	52	104	0	8	26785
2026-01-08 08:39:02.70	117.04	7.77	-21.9	-38.0	4.0	1.50e+00	0	52	104	0	12	27232
2026-01-08 08:39:03.71	116.96	7.84	-21.6	-36.5	3.8	1.50e+00	0	52	104	0	8	28805
2026-01-08 08:39:04.72	116.88	7.91	-19.7	-38.7	4.3	1.49e+00	0	52	104	0	17	22082
2026-01-08 08:39:05.72	116.80	7.98	-17.4	-34.8	4.0	1.50e+00	0	52	104	0	11	19918
2026-01-08 08:39:06.73	116.72	8.05	-19.0	-36.4	3.9	1.50e+00	0	52	104	0	11	24011
2026-01-08 08:39:07.73	116.63	8.13	-21.7	-39.4	3.8	1.50e+00	0	52	104	0	13	30071
2026-01-08 08:39:08.74	116.55	8.20	-15.0	-31.3	4.1	1.50e+00	0	53	104	0	5	18775
2026-01-08 08:39:09.75	116.47	8.27	-18.4	-33.9	4.1	1.51e+00	0	52	104	0	6	24037
2026-01-08 08:39:10.76	116.39	8.34	-21.3	-39.3	4.0	1.51e+00	0	53	104	0	14	28250
2026-01-08 08:39:11.77	116.30	8.41	-19.8	-36.4	4.0	1.50e+00	0	52	104	0	10	25530
2026-01-08 08:39:12.78	116.22	8.49	-13.1	-32.9	3.7	1.50e+00	0	53	104	0	5	22645
2026-01-08 08:39:13.79	116.14	8.56	-19.8	-36.6	4.0	1.50e+00	0	53	104	0	10	26110
2026-01-08 08:39:14.79	116.05	8.63	-20.0	-37.7	3.9	1.50e+00	0	53	104	0	8	33132
2026-01-08 08:39:15.80	115.97	8.70	-15.8	-33.3	3.9	1.50e+00	0	53	104	0	8	19909
2026-01-08 08:39:16.81	115.88	8.78	-15.1	-33.5	3.8	1.50e+00	0	53	104	0	3	27282
2026-01-08 08:39:17.82	115.80	8.85	-20.9	-37.6	4.0	1.50e+00	0	53	104	0	10	29287
2026-01-08 08:39:18.83	115.71	8.92	-19.4	-35.8	3.8	1.50e+00	0	53	104	0	8	26613
2026-01-08 08:39:19.84	115.62	9.00	-20.0	-36.1	4.0	1.50e+00	0	53	104	0	11	23197
2026-01-08 08:39:20.85	115.53	9.07	-11.7	-31.5	3.7	1.50e+00	0	53	104	0	0	25610
2026-01-08 08:39:21.86	115.45	9.14	-13.7	-32.3	4.1	1.50e+00	0	53	104	0	7	18747
2026-01-08 08:39:22.87	115.36	9.22	-21.4	-36.3	4.0	1.50e+00	0	53	104	0	10	24997
2026-01-08 08:39:23.88	115.27	9.29	-20.4	-37.6	3.7	1.50e+00	0	53	104	0	12	26099
2026-01-08 08:39:24.89	115.18	9.37	-15.2	-32.6	3.9	1.50e+00	0	53	104	0	1	27460
2026-01-08 08:39:25.90	115.09	9.44	-23.1	-39.9	4.1	1.50e+00	0	53	104	0	18	24127
2026-01-08 08:39:26.91	115.00	9.52	-24.5	-41.4	3.5	1.50e+00	0	53	104	0	20	25555
2026-01-08 08:39:27.92	114.91	9.59	-16.4	-35.0	3.9	1.50e+00	0	53	104	0	8	24286
2026-01-08 08:39:28.93	114.82	9.67	-17.0	-34.9	3.7	1.50e+00	0	53	104	0	5	28444
2026-01-08 08:39:29.94	114.73	9.74	-14.4	-33.6	3.8	1.50e+00	0	53	104	0	7	21998
2026-01-08 08:39:30.94	114.64	9.81	-22.2	-39.8	3.9	1.50e+00	0	53	104	0	13	31547
2026-01-08 08:39:31.96	114.54	9.89	-17.1	-37.6	4.0	1.50e+00	0	53	104	0	14	23291
2026-01-08 08:39:32.96	114.45	9.97	-16.1	-33.2	3.8	1.50e+00	0	53	104	0	1	29363
2026-01-08 08:39:33.97	114.36	10.04	-34.8	-49.0	4.0	1.48e+00	0	53	104	0	39	20383
2026-01-08 08:39:34.98	114.26	10.12	-31.4	-46.3	4.0	1.47e+00	0	53	104	0	31	23760
2026-01-08 08:39:35.99	114.17	10.19	-24.3	-38.2	3.9	1.50e+00	0	53	104	0	14	24795
2026-01-08 08:39:37.00	114.07	10.27	-16.0	-32.8	3.7	1.50e+00	0	53	104	0	3	25159
2026-01-08 08:39:38.01	113.98	10.35	-19.8	-36.3	3.9	1.50e+00	0	53	104	0	11	23655
2026-01-08 08:39:39.02	113.88	10.42	-21.3	-37.6	4.2	1.50e+00	0	53	104	0	20	16357
2026-01-08 08:39:40.03	113.79	10.50	-20.0	-35.9	4.0	1.50e+00	0	54	104	0	11	22711
2026-01-08 08:39:41.04	113.69	10.58	-22.5	-37.0	3.8	1.50e+00	0	54	104	0	12	24191
2026-01-08 08:39:42.05	113.59	10.65	-37.7	-51.3	4.2	1.46e+00	0	54	104	0	46	17694
2026-01-08 08:39:43.06	113.49	10.73	-32.2	-45.9	3.7	1.46e+00	0	54	104	0	33	20291
2026-01-08 08:39:44.07	113.40	10.81	-28.6	-44.9	3.8	1.50e+00	0	54	104	0	22	34067
2026-01-08 08:39:45.08	113.30	10.88	-20.4	-38.2	3.7	1.50e+00	0	54	104	0	12	27849
2026-01-08 08:39:46.09	113.20	10.96	-20.0	-36.1	3.9	1.50e+00	0	54	104	0	13	20663
2026-01-08 08:39:47.10	113.10	11.04	-28.8	-43.6	3.8	1.50e+00	0	54	104	0	26	23290
2026-01-08 08:39:48.10	113.00	11.12	-22.9	-36.4	3.8	1.51e+00	0	54	0	0	17	16894
2026-01-08 08:39:49.11	112.90	11.20	-33.3	-46.1	4.5	1.50e+00	0	54	104	0	37	16416
2026-01-08 08:39:50.12	112.79	11.27	-39.4	-54.7	3.8	6.91e-01	0	54	104	0	45	27869
2026-01-08 08:39:51.13	112.69	11.35	-39.6	-48.6	6.6	2.43e-01	0	54	0	0	40	18306
2026-01-08 08:39:52.14	112.59	11.43	-36.6	-47.6	6.2	1.18e-01	58	54	0	1048576	43	13800
2026-01-08 08:39:53.15	112.48	11.51	-38.6	-44.4	10.8	9.27e-02	0	54	0	3145728	47	7628
2026-01-08 08:39:54.16	112.38	11.59	-39.2	-44.4	11.5	4.05e-02	0	54	0	5242880	48	7167
2026-01-08 08:39:55.17	112.28	11.67	-38.5	-44.4	10.8	5.44e-02	0	54	0	7340032	47	7600
2026-01-08 08:39:56.17	112.17	11.75	-38.6	-44.9	9.9	2.67e-02	0	54	0	8388608	46	8512
2026-01-08 08:39:57.18	112.07	11.82	-40.5	-45.1	11.0	6.49e-02	0	54	0	10485760	48	7767
2026-01-08 08:39:58.19	111.96	11.90	-37.5	-44.6	9.6	5.39e-02	0	54	0	12582912	41	10981
2026-01-08 08:39:59.20	111.85	11.98	-32.9	-44.0	9.5	1.95e-02	0	54	0	14680064	39	11501
2026-01-08 08:40:00.21	111.75	12.06	-39.7	-44.7	11.8	2.30e-02	0	54	0	16777216	50	6642
2026-01-08 08:40:01.22	111.64	12.14	-40.5	-44.4	12.4	3.79e-02	0	54	0	17825792	49	6799
2026-01-08 08:40:02.23	111.53	12.22	-35.1	-44.0	11.2	2.01e-03	0	54	0	19922944	43	9142
2026-01-08 08:40:03.24	111.42	12.30	-40.3	-44.6	12.3	1.02e-02	0	54	0	22020096	51	6188
2026-01-08 08:40:04.25	111.31	12.38	-40.1	-44.6	12.4	5.72e-03	0	54	0	24117248	50	6497
2026-01-08 08:40:05.25	111.20	12.46	-39.7	-44.5	12.4	5.33e-03	0	54	0	26214400	50	6440
2026-01-08 08:40:06.26	111.09	12.55	-38.1	-44.3	12.0	4.48e-03	0	54	0	28311552	47	7485
2026-01-08 08:40:07.27	110.98	12.63	-40.6	-44.2	13.1	6.73e-04	0	54	0	29360128	52	5544
2026-01-08 08:40:08.28	110.86	12.71	-39.5	-43.8	12.8	9.54e-04	0	54	0	31457280	51	5628
2026-01-08 08:40:09.29	110.75	12.79	-40.9	-44.3	13.0	4.80e-05	0	54	0	33554432	52	5650
2026-01-08 08:40:10.30	110.64	12.87	-40.8	-44.3	13.0	3.73e-05	0	54	0	35651584	52	5607
2026-01-08 08:40:11.31	110.52	12.95	-40.8	-44.2	13.1	2.89e-05	0	54	0	37748736	52	5547
2026-01-08 08:40:12.32	110.41	13.03	-40.8	-44.2	13.1	2.51e-05	0	54	0	38797312	52	5572
2026-01-08 08:40:13.33	110.29	13.12	-40.8	-44.2	13.2	3.20e-05	0	54	0	40894464	52	5533
2026-01-08 08:40:14.34	110.18	13.20	-40.9	-44.4	12.9	3.28e-05	0	54	0	42991616	52	5709
2026-01-08 08:40:15.35	110.06	13.28	-40.9	-44.4	12.8	4.11e-05	0	54	0	45088768	52	5721
2026-01-08 08:40:16.36	109.94	13.36	-40.7	-44.1	13.2	3.81e-05	0	54	0	47185920	52	5493
2026-01-08 08:40:17.37	109.82	13.45	-40.8	-44.1	13.2	2.44e-05	0	54	0	48234496	52	5496
2026-01-08 08:40:18.38	109.70	13.53	-40.7	-44.0	13.3	1.90e-05	0	54	0	50331648	52	5441
2026-01-08 08:40:19.39	109.58	13.61	-40.6	-43.8	13.5	1.06e-05	0	54	0	52428800	52	5336
2026-01-08 08:40:20.40	109.46	13.69	-40.7	-44.0	13.4	1.29e-05	0	54	0	54525952	52	5416
2026-01-08 08:40:21.41	109.34	13.78	-40.8	-44.2	13.2	1.98e-05	0	54	0	56623104	52	5579
2026-01-08 08:40:22.42	109.22	13.86	-40.9	-44.3	13.1	2.44e-05	0	54	0	57671680	52	5620
2026-01-08 08:40:23.43	109.10	13.94	-40.9	-44.3	13.1	3.43e-05	0	54	0	59768832	52	5636
2026-01-08 08:40:24.44	108.97	14.03	-40.8	-44.2	13.2	2.13e-05	0	54	0	61865984	52	5554
2026-01-08 08:40:25.44	108.85	14.11	-40.9	-44.3	13.1	3.96e-05	0	54	0	63963136	52	5647
2026-01-08 08:40:26.45	108.73	14.19	-40.8	-44.2	13.2	2.67e-05	0	54	0	66060288	52	5558
2026-01-08 08:40:27.46	108.60	14.28	-40.9	-44.2	13.2	1.60e-05	0	54	0	67108864	52	5584
2026-01-08 08:40:28.47	108.48	14.36	-40.9	-44.3	13.2	3.58e-05	0	54	0	69206016	52	5605
2026-01-08 08:40:29.48	108.35	14.45	-40.8	-44.1	13.3	2.97e-05	0	54	0	71303168	52	5515
2026-01-08 08:40:30.49	108.22	14.53	-40.6	-44.0	13.2	2.21e-05	0	54	0	73400320	52	5462
2026-01-08 08:40:31.50	108.09	14.62	-40.6	-44.0	13.4	1.29e-05	0	55	0	75497472	52	5424
2026-01-08 08:40:32.51	107.96	14.70	-40.3	-43.7	13.7	9.90e-06	0	54	0	76546048	51	5581
2026-01-08 08:40:33.52	107.83	14.79	-40.6	-43.7	13.8	7.60e-06	0	54	0	78643200	51	5578
2026-01-08 08:40:34.53	107.70	14.87	-40.6	-43.7	13.8	5.30e-06	0	54	0	80740352	51	5554
2026-01-08 08:40:35.54	107.57	14.96	-40.5	-43.6	14.0	2.59e-05	0	54	0	82837504	51	5472
2026-01-08 08:40:36.55	107.44	15.04	-40.6	-43.6	13.9	2.20e-06	0	54	0	84934656	51	5504
2026-01-08 08:40:37.56	107.31	15.13	-40.6	-43.7	13.8	6.80e-06	0	54	0	85983232	51	5556
2026-01-08 08:40:38.57	107.17	15.21	-40.6	-43.7	13.8	6.10e-06	0	55	0	88080384	51	5561
2026-01-08 08:40:39.58	107.04	15.30	-40.4	-43.6	13.9	3.80e-06	0	55	0	90177536	51	5478
2026-01-08 08:40:40.59	106.91	15.39	-40.4	-43.4	14.1	1.83e-05	0	55	0	92274688	51	5379
2026-01-08 08:40:41.59	106.77	15.47	-40.5	-43.5	14.1	1.75e-05	0	55	0	94371840	51	5419
2026-01-08 08:40:42.60	106.63	15.56	-40.0	-43.4	14.0	4.50e-06	0	54	0	96468992	50	5659
2026-01-08 08:40:43.61	106.50	15.64	-40.4	-43.4	14.2	7.00e-07	0	55	0	97517568	51	5342
2026-01-08 08:40:44.62	106.36	15.73	-40.5	-43.5	14.1	4.57e-05	0	55	0	99614720	51	5439
2026-01-08 08:40:45.63	106.22	15.82	-40.5	-43.5	14.1	7.60e-06	0	55	0	101711872	51	5433
2026-01-08 08:40:46.64	106.08	15.91	-40.5	-43.5	14.2	1.98e-04	0	55	0	103809024	51	5407
2026-01-08 08:40:47.65	105.94	15.99	-40.4	-43.3	14.3	1.14e-05	0	55	0	105906176	51	5337
2026-01-08 08:40:48.66	105.80	16.08	-40.1	-43.2	14.4	1.50e-06	0	55	0	106954752	51	5258
2026-01-08 08:40:49.67	105.65	16.17	-40.3	-43.1	14.4	1.44e-05	0	55	0	109051904	51	5211
2026-01-08 08:40:50.68	105.51	16.25	-40.3	-43.1	14.5	6.10e-06	0	55	0	111149056	51	5212
2026-01-08 08:40:51.69	105.37	16.34	-40.3	-43.1	14.6	0.00e+00	0	54	0	113246208	51	5169
2026-01-08 08:40:52.70	105.22	16.43	-40.2	-43.1	14.6	7.00e-07	0	55	0	115343360	51	5172
2026-01-08 08:40:53.71	105.08	16.52	-40.2	-42.9	14.7	1.37e-05	0	55	0	116391936	51	5081
2026-01-08 08:40:54.72	104.93	16.61	-40.3	-43.1	14.5	0.00e+00	0	55	0	118489088	51	5215
2026-01-08 08:40:55.73	104.78	16.69	-40.3	-43.2	14.5	7.00e-07	0	55	0	120586240	51	5245
2026-01-08 08:40:56.73	104.63	16.78	-40.4	-43.2	14.4	0.00e+00	0	55	0	122683392	51	5271
2026-01-08 08:40:57.74	104.48	16.87	-40.4	-43.3	14.4	0.00e+00	0	54	0	124780544	51	5314
2026-01-08 08:40:58.75	104.33	16.96	-40.4	-43.3	14.4	7.00e-07	0	55	0	125829120	51	5281
2026-01-08 08:40:59.76	104.18	17.05	-40.3	-43.1	14.6	7.00e-07	0	55	0	127926272	51	5198
2026-01-08 08:41:00.77	104.03	17.13	-40.3	-43.1	14.6	0.00e+00	0	55	0	130023424	51	5173
2026-01-08 08:41:01.78	103.88	17.22	-40.3	-43.1	14.6	7.00e-07	0	55	0	132120576	51	5189
2026-01-08 08:41:02.79	103.72	17.31	-40.4	-43.2	14.5	0.00e+00	0	55	0	134217728	51	5256
2026-01-08 08:41:03.80	103.57	17.40	-40.4	-43.2	14.5	3.80e-06	0	55	0	135266304	51	5257
2026-01-08 08:41:04.80	103.42	17.49	-40.3	-43.1	14.6	7.00e-07	0	55	0	137363456	51	5213
2026-01-08 08:41:05.81	103.26	17.58	-40.3	-43.1	14.6	0.00e+00	0	55	0	139460608	51	5210
2026-01-08 08:41:06.82	103.10	17.67	-40.3	-43.2	14.6	0.00e+00	0	55	0	141557760	51	5219
2026-01-08 08:41:07.84	102.94	17.76	-40.3	-43.1	14.6	1.50e-06	0	55	0	143654912	51	5216
2026-01-08 08:41:08.85	102.78	17.85	-40.4	-43.3	14.5	7.00e-07	0	55	0	144703488	51	5298
2026-01-08 08:41:09.86	102.62	17.94	-40.3	-43.1	14.7	0.00e+00	0	55	0	146800640	51	5177
2026-01-08 08:41:10.86	102.46	18.03	-40.4	-43.2	14.6	0.00e+00	0	55	0	148897792	51	5243
2026-01-08 08:41:11.87	102.30	18.12	-40.4	-43.2	14.6	7.00e-07	0	55	0	150994944	51	5221
2026-01-08 08:41:12.89	102.13	18.21	-40.4	-43.3	14.4	0.00e+00	0	55	0	153092096	51	5292
2026-01-08 08:41:13.89	101.97	18.30	-40.3	-43.4	14.3	0.00e+00	0	55	0	154140672	51	5365
2026-01-08 08:41:14.90	101.81	18.39	-40.4	-43.3	14.4	1.50e-06	0	55	0	156237824	51	5297
2026-01-08 08:41:15.91	101.64	18.48	-40.4	-43.3	14.5	7.00e-07	0	55	0	158334976	51	5281
2026-01-08 08:41:16.92	101.47	18.57	-40.4	-43.2	14.5	3.00e-06	0	55	0	160432128	51	5267
2026-01-08 08:41:17.93	101.30	18.66	-40.4	-43.3	14.5	1.50e-06	0	55	0	162529280	51	5314
2026-01-08 08:41:18.94	101.13	18.75	-40.5	-43.4	14.4	7.00e-07	0	55	0	163577856	51	5371
2026-01-08 08:41:19.95	100.96	18.84	-40.5	-43.4	14.3	7.00e-07	0	55	0	165675008	51	5401
2026-01-08 08:41:20.96	100.79	18.93	-40.5	-43.6	14.1	0.00e+00	0	55	0	167772160	51	5475
2026-01-08 08:41:21.97	100.62	19.02	-40.6	-43.5	14.2	7.00e-07	0	55	0	169869312	51	5464
2026-01-08 08:41:22.98	100.45	19.11	-40.6	-43.6	14.1	1.50e-06	0	55	0	171966464	52	5188
2026-01-08 08:41:23.99	100.27	19.20	-40.6	-43.6	14.1	1.50e-06	0	55	0	173015040	52	5181
2026-01-08 08:41:25.00	100.10	19.29	-40.6	-43.6	14.1	3.00e-06	0	55	0	175112192	52	5189
2026-01-08 08:41:26.00	99.92	19.38	-40.6	-43.7	14.0	1.50e-06	0	55	0	177209344	52	5254
2026-01-08 08:41:27.01	99.74	19.47	-40.6	-43.6	14.2	2.20e-06	0	55	0	179306496	52	5160
2026-01-08 08:41:28.02	99.57	19.56	-40.6	-43.6	14.1	2.20e-06	0	55	0	181403648	52	5174
2026-01-08 08:41:29.03	99.39	19.65	-40.5	-43.4	14.3	7.00e-07	0	55	0	183500800	52	5091
2026-01-08 08:41:30.04	99.21	19.74	-40.5	-43.4	14.3	7.00e-07	0	55	0	184549376	52	5053
2026-01-08 08:41:31.05	99.02	19.83	-40.4	-43.3	14.4	0.00e+00	0	55	0	186646528	52	5000
2026-01-08 08:41:32.06	98.84	19.93	-40.5	-43.4	14.3	2.20e-06	0	55	0	188743680	52	5095
2026-01-08 08:41:33.07	98.66	20.02	-40.5	-43.3	14.4	7.00e-07	0	55	0	190840832	52	5032
2026-01-08 08:41:34.08	98.47	20.11	-40.4	-43.3	14.4	7.00e-07	0	55	0	192937984	52	5023
2026-01-08 08:41:35.09	98.28	20.20	-40.4	-43.2	14.5	1.50e-06	0	55	0	193986560	52	4971
2026-01-08 08:41:36.10	98.10	20.29	-40.4	-43.2	14.5	0.00e+00	0	55	0	196083712	52	4983
2026-01-08 08:41:37.11	97.91	20.38	-40.3	-43.1	14.6	0.00e+00	0	55	0	198180864	52	4922
2026-01-08 08:41:38.12	97.72	20.47	-40.3	-43.1	14.7	0.00e+00	0	55	0	200278016	52	4875
2026-01-08 08:41:39.13	97.53	20.56	-40.3	-43.0	14.7	0.00e+00	0	55	0	202375168	52	4868
2026-01-08 08:41:40.14	97.34	20.65	-40.3	-43.1	14.7	7.00e-07	0	55	0	203423744	52	4881
2026-01-08 08:41:41.15	97.14	20.74	-40.2	-43.0	14.8	0.00e+00	0	55	0	205520896	52	4827
2026-01-08 08:41:42.16	96.95	20.84	-40.3	-43.1	14.6	1.50e-06	0	55	0	207618048	52	4893
2026-01-08 08:41:43.17	96.75	20.93	-40.3	-43.0	14.7	0.00e+00	0	55	0	209715200	52	4854
2026-01-08 08:41:44.17	96.56	21.02	-40.3	-43.0	14.7	0.00e+00	0	55	0	211812352	52	4866
2026-01-08 08:41:45.18	96.36	21.11	-40.2	-43.0	14.7	1.50e-06	0	55	0	212860928	52	4837
2026-01-08 08:41:46.19	96.16	21.20	-40.2	-42.9	14.9	0.00e+00	0	55	0	214958080	52	4770
2026-01-08 08:41:47.20	95.96	21.29	-40.2	-42.9	14.8	7.00e-07	0	55	0	217055232	52	4766
2026-01-08 08:41:48.21	95.76	21.38	-40.1	-42.9	14.9	0.00e+00	0	55	0	219152384	52	4766
2026-01-08 08:41:49.22	95.56	21.47	-40.1	-42.8	14.9	0.00e+00	0	55	0	221249536	52	4732
2026-01-08 08:41:50.23	95.35	21.56	-40.0	-42.6	15.1	0.00e+00	0	55	0	222298112	52	4629
2026-01-08 08:41:51.24	95.15	21.65	-40.0	-42.6	15.2	0.00e+00	0	55	0	224395264	51	4883
2026-01-08 08:41:52.25	94.94	21.74	-40.1	-42.7	15.1	0.00e+00	0	55	0	226492416	51	4931
2026-01-08 08:41:53.26	94.74	21.83	-40.1	-42.7	15.1	0.00e+00	0	56	0	228589568	51	4947
2026-01-08 08:41:54.27	94.53	21.92	-40.0	-42.6	15.2	7.00e-07	0	55	0	230686720	51	4896
2026-01-08 08:41:55.28	94.32	22.01	-39.9	-42.5	15.3	0.00e+00	0	55	0	231735296	51	4830
2026-01-08 08:41:56.29	94.11	22.10	-40.0	-42.6	15.2	0.00e+00	0	55	0	233832448	51	4888
2026-01-08 08:41:57.30	93.89	22.19	-39.9	-42.4	15.4	0.00e+00	0	55	0	235929600	51	4807
2026-01-08 08:41:58.30	93.68	22.28	-39.9	-42.4	15.4	0.00e+00	0	55	0	238026752	51	4763
2026-01-08 08:41:59.31	93.47	22.37	-39.8	-42.2	15.6	0.00e+00	0	56	0	240123904	51	4686
2026-01-08 08:42:00.32	93.25	22.46	-39.6	-42.0	15.8	0.00e+00	0	56	0	241172480	51	4591
2026-01-08 08:42:01.33	93.03	22.55	-39.5	-41.9	15.9	0.00e+00	0	55	0	243269632	51	4526
2026-01-08 08:42:02.34	92.82	22.64	-39.5	-41.9	15.9	0.00e+00	0	56	0	245366784	51	4509
2026-01-08 08:42:03.35	92.60	22.73	-39.5	-41.8	16.0	0.00e+00	0	55	0	247463936	50	4758
2026-01-08 08:42:04.36	92.37	22.82	-39.5	-41.9	15.9	0.00e+00	0	55	0	249561088	50	4789
2026-01-08 08:42:05.37	92.15	22.91	-39.5	-41.8	16.0	0.00e+00	0	56	0	251658240	50	4731
2026-01-08 08:42:06.38	91.93	23.00	-39.6	-42.0	15.8	0.00e+00	0	55	0	252706816	50	4832
2026-01-08 08:42:07.39	91.70	23.09	-39.6	-42.0	15.7	0.00e+00	0	56	0	254803968	50	4859
2026-01-08 08:42:08.40	91.48	23.18	-39.6	-42.0	15.7	0.00e+00	0	56	0	256901120	50	4854
2026-01-08 08:42:09.41	91.25	23.26	-39.5	-41.9	15.9	0.00e+00	0	56	0	258998272	50	4787
2026-01-08 08:42:10.42	91.02	23.35	-39.5	-41.8	16.0	0.00e+00	0	56	0	261095424	50	4726
2026-01-08 08:42:11.42	90.79	23.44	-39.4	-41.7	16.1	0.00e+00	0	56	0	262144000	50	4672
2026-01-08 08:42:12.43	90.56	23.53	-39.4	-41.7	16.1	0.00e+00	0	56	0	264241152	50	4668
2026-01-08 08:42:13.44	90.33	23.62	-39.4	-41.8	16.0	0.00e+00	0	56	0	266338304	50	4715
2026-01-08 08:42:14.45	90.10	23.70	-39.4	-41.7	16.1	0.00e+00	0	56	0	268435456	50	4665
2026-01-08 08:42:15.46	89.86	23.79	-39.4	-41.8	16.0	0.00e+00	0	56	0	270532608	50	4720
2026-01-08 08:42:16.46	89.63	23.88	-39.4	-41.7	16.0	0.00e+00	0	56	0	271581184	50	4698
2026-01-08 08:42:17.48	89.39	23.96	-39.5	-41.8	16.0	0.00e+00	0	56	0	273678336	50	4747
2026-01-08 08:42:18.48	89.15	24.05	-39.5	-41.8	15.9	0.00e+00	0	55	0	275775488	50	4752
2026-01-08 08:42:19.49	88.91	24.14	-39.4	-41.7	16.1	0.00e+00	0	55	0	277872640	50	4682
2026-01-08 08:42:20.50	88.67	24.22	-39.5	-41.8	16.0	0.00e+00	0	56	0	279969792	50	4733
2026-01-08 08:42:21.51	88.42	24.31	-39.6	-41.9	15.9	0.00e+00	0	56	0	281018368	50	4807
2026-01-08 08:42:22.52	88.18	24.39	-39.6	-42.0	15.8	0.00e+00	0	56	0	283115520	50	4848
2026-01-08 08:42:23.53	87.93	24.48	-39.7	-42.1	15.8	0.00e+00	0	56	0	285212672	50	4877
2026-01-08 08:42:24.54	87.69	24.56	-39.7	-42.2	15.7	0.00e+00	0	56	0	287309824	50	4940
2026-01-08 08:42:25.55	87.44	24.65	-39.7	-42.1	15.7	0.00e+00	0	56	0	289406976	50	4911
2026-01-08 08:42:26.56	87.19	24.73	-39.7	-42.1	15.7	0.00e+00	0	56	0	290455552	50	4918
2026-01-08 08:42:27.57	86.94	24.81	-39.8	-42.3	15.5	0.00e+00	0	56	0	292552704	50	5019
2026-01-08 08:42:28.58	86.68	24.90	-39.8	-42.3	15.6	0.00e+00	0	56	0	294649856	50	4997
2026-01-08 08:42:29.59	86.43	24.98	-39.9	-42.4	15.5	0.00e+00	0	56	0	296747008	50	5054
2026-01-08 08:42:30.60	86.17	25.06	-39.9	-42.4	15.4	0.00e+00	0	56	0	298844160	50	5077
2026-01-08 08:42:31.61	85.92	25.15	-39.9	-42.4	15.5	0.00e+00	0	56	0	299892736	50	5066
2026-01-08 08:42:32.62	85.66	25.23	-39.9	-42.4	15.5	0.00e+00	0	56	0	301989888	50	5086
2026-01-08 08:42:33.63	85.40	25.31	-39.9	-42.4	15.5	0.00e+00	0	56	0	304087040	50	5075
2026-01-08 08:42:34.63	85.14	25.39	-39.9	-42.4	15.5	0.00e+00	0	56	0	306184192	50	5052
2026-01-08 08:42:35.64	84.88	25.47	-39.9	-42.3	15.5	0.00e+00	0	56	0	308281344	50	5034
2026-01-08 08:42:36.65	84.62	25.55	-39.9	-42.4	15.5	0.00e+00	0	56	0	309329920	50	5046
2026-01-08 08:42:37.66	84.35	25.63	-39.9	-42.4	15.4	0.00e+00	0	56	0	311427072	50	5096
2026-01-08 08:42:38.67	84.09	25.71	-40.0	-42.6	15.3	0.00e+00	0	56	0	313524224	50	5187
2026-01-08 08:42:39.68	83.82	25.79	-40.1	-42.8	15.1	0.00e+00	0	56	0	315621376	50	5289
2026-01-08 08:42:40.69	83.55	25.87	-40.2	-42.9	15.0	0.00e+00	0	56	0	317718528	51	5085
2026-01-08 08:42:41.70	83.28	25.95	-40.2	-42.9	15.0	0.00e+00	0	56	0	318767104	51	5072
2026-01-08 08:42:42.71	83.01	26.02	-40.2	-42.8	15.1	0.00e+00	0	56	0	320864256	51	5003
2026-01-08 08:42:43.72	82.74	26.10	-40.2	-42.8	15.1	0.00e+00	0	56	0	322961408	51	4994
2026-01-08 08:42:44.73	82.46	26.18	-40.1	-42.8	15.1	0.00e+00	0	56	0	325058560	51	4986
2026-01-08 08:42:45.74	82.19	26.25	-40.0	-42.6	15.3	0.00e+00	0	56	0	327155712	51	4887
2026-01-08 08:42:46.75	81.91	26.33	-40.0	-42.5	15.5	0.00e+00	0	56	0	329252864	51	4824
2026-01-08 08:42:47.76	81.63	26.41	-39.9	-42.4	15.5	0.00e+00	0	56	0	330301440	51	4778
2026-01-08 08:42:48.76	81.36	26.48	-39.8	-42.2	15.8	0.00e+00	0	56	0	332398592	51	4669
2026-01-08 08:42:49.77	81.07	26.55	-39.9	-42.3	15.6	0.00e+00	0	56	0	334495744	51	4743
2026-01-08 08:42:50.78	80.79	26.63	-39.8	-42.2	15.7	0.00e+00	0	56	0	336592896	51	4702
2026-01-08 08:42:51.79	80.51	26.70	-39.8	-42.1	15.8	0.00e+00	0	56	0	337641472	51	4645
2026-01-08 08:42:52.80	80.23	26.77	-39.8	-42.3	15.7	0.00e+00	0	56	0	339738624	51	4718
2026-01-08 08:42:53.81	79.94	26.84	-39.9	-42.3	15.6	0.00e+00	0	56	0	341835776	51	4734
2026-01-08 08:42:54.82	79.65	26.91	-40.0	-42.5	15.5	0.00e+00	0	56	0	343932928	51	4830
2026-01-08 08:42:55.83	79.36	26.99	-40.0	-42.4	15.5	0.00e+00	0	56	0	346030080	51	4813
2026-01-08 08:42:56.84	79.07	27.06	-40.1	-42.7	15.2	0.00e+00	0	56	0	348127232	51	4948
2026-01-08 08:42:57.85	78.78	27.12	-40.1	-42.7	15.3	0.00e+00	0	56	0	349175808	51	4949
2026-01-08 08:42:58.85	78.49	27.19	-40.1	-42.7	15.3	0.00e+00	0	56	0	351272960	51	4960
2026-01-08 08:42:59.87	78.20	27.26	-40.1	-42.6	15.3	0.00e+00	0	56	0	353370112	51	4899
2026-01-08 08:43:00.87	77.91	27.33	-40.1	-42.6	15.4	0.00e+00	0	56	0	355467264	51	4912
2026-01-08 08:43:01.88	77.61	27.39	-40.1	-42.6	15.4	0.00e+00	0	56	0	357564416	51	4895
2026-01-08 08:43:02.89	77.31	27.46	-40.1	-42.7	15.3	0.00e+00	0	56	0	358612992	51	4944
2026-01-08 08:43:03.90	77.01	27.53	-40.2	-42.8	15.1	0.00e+00	0	56	0	360710144	51	5024
2026-01-08 08:43:04.91	76.72	27.59	-40.3	-42.9	15.1	0.00e+00	0	56	0	362807296	51	5089
2026-01-08 08:43:05.92	76.41	27.65	-40.4	-43.1	14.9	0.00e+00	0	56	0	364904448	51	5187
2026-01-08 08:43:06.93	76.11	27.72	-40.5	-43.2	14.8	0.00e+00	0	56	0	367001600	51	5246
2026-01-08 08:43:07.94	75.81	27.78	-40.3	-43.0	15.0	0.00e+00	0	56	0	368050176	51	5102
2026-01-08 08:43:08.95	75.50	27.84	-40.4	-43.1	15.0	7.00e-07	0	56	0	370147328	51	5175
2026-01-08 08:43:09.96	75.20	27.90	-40.4	-43.1	14.9	0.00e+00	0	56	0	372244480	51	5172
2026-01-08 08:43:10.97	74.89	27.96	-40.4	-43.1	14.9	0.00e+00	0	56	0	374341632	51	5181
2026-01-08 08:43:11.98	74.58	28.02	-40.4	-43.1	14.9	0.00e+00	0	56	0	376438784	51	5207
2026-01-08 08:43:12.99	74.28	28.08	-40.4	-43.0	15.0	0.00e+00	0	56	0	377487360	51	5140
2026-01-08 08:43:13.99	73.97	28.14	-40.5	-43.3	14.8	0.00e+00	0	56	0	379584512	51	5303
2026-01-08 08:43:15.00	73.66	28.19	-40.6	-43.4	14.7	0.00e+00	0	56	0	381681664	51	5341
2026-01-08 08:43:16.01	73.35	28.25	-40.7	-43.5	14.4	7.00e-07	0	56	0	383778816	52	5150
2026-01-08 08:43:17.02	73.03	28.31	-40.7	-43.6	14.4	1.50e-06	0	56	0	385875968	52	5176
2026-01-08 08:43:18.03	72.72	28.36	-40.7	-43.6	14.4	0.00e+00	0	56	0	386924544	52	5177
2026-01-08 08:43:19.04	72.40	28.41	-40.8	-43.7	14.3	1.50e-06	0	56	0	389021696	52	5244
2026-01-08 08:43:20.05	72.09	28.47	-40.7	-43.6	14.4	7.00e-07	0	56	0	391118848	52	5176
2026-01-08 08:43:21.06	71.77	28.52	-40.7	-43.5	14.4	0.00e+00	0	56	0	393216000	52	5155
2026-01-08 08:43:22.07	71.45	28.57	-40.7	-43.6	14.3	0.00e+00	0	56	0	395313152	52	5195
2026-01-08 08:43:23.08	71.13	28.62	-40.8	-43.7	14.3	3.80e-06	0	56	0	396361728	52	5243
2026-01-08 08:43:24.09	70.81	28.67	-40.8	-43.8	14.2	1.50e-06	0	56	0	398458880	52	5290
2026-01-08 08:43:25.10	70.49	28.72	-40.8	-43.7	14.3	7.00e-07	0	56	0	400556032	52	5230
2026-01-08 08:43:26.11	70.17	28.76	-40.7	-43.6	14.4	7.00e-07	0	56	0	402653184	52	5190
2026-01-08 08:43:27.12	69.84	28.81	-40.8	-43.7	14.3	1.50e-06	0	56	0	404750336	52	5237
2026-01-08 08:43:28.13	69.52	28.85	-40.8	-43.7	14.3	0.00e+00	0	56	0	405798912	52	5247
2026-01-08 08:43:29.14	69.19	28.90	-40.8	-43.8	14.2	1.50e-06	0	56	0	407896064	52	5306
2026-01-08 08:43:30.15	68.87	28.94	-40.9	-43.8	14.1	1.50e-06	0	56	0	409993216	52	5339
2026-01-08 08:43:31.16	68.54	28.98	-41.0	-44.0	13.9	1.50e-06	0	56	0	412090368	52	5436
2026-01-08 08:43:32.17	68.21	29.03	-40.9	-43.9	14.1	7.00e-07	0	56	0	414187520	52	5366
2026-01-08 08:43:33.18	67.88	29.07	-40.9	-43.9	14.1	3.00e-06	0	56	0	416284672	52	5351
2026-01-08 08:43:34.18	67.56	29.11	-40.8	-43.7	14.3	7.00e-07	0	56	0	417333248	52	5239
2026-01-08 08:43:35.19	67.23	29.14	-40.8	-43.6	14.4	1.50e-06	0	56	0	419430400	52	5205
2026-01-08 08:43:36.20	66.90	29.18	-41.0	-44.0	14.0	7.00e-07	0	56	0	421527552	52	5442
2026-01-08 08:43:37.21	66.56	29.22	-41.1	-44.2	13.8	6.10e-06	0	56	0	423624704	52	5561
2026-01-08 08:43:38.22	66.23	29.25	-41.2	-44.3	13.7	6.80e-06	0	56	0	425721856	52	5637
2026-01-08 08:43:39.23	65.90	29.29	-41.1	-44.2	13.8	3.00e-06	0	56	0	426770432	53	5261
2026-01-08 08:43:40.24	65.56	29.32	-41.2	-44.4	13.6	4.50e-06	0	56	0	428867584	53	5375
2026-01-08 08:43:41.25	65.23	29.35	-41.3	-44.4	13.5	8.30e-06	0	56	0	430964736	53	5400
2026-01-08 08:43:42.26	64.89	29.38	-41.2	-44.3	13.7	6.10e-06	0	56	0	433061888	53	5303
2026-01-08 08:43:43.27	64.56	29.41	-41.3	-44.5	13.5	8.30e-06	0	56	0	435159040	53	5427
2026-01-08 08:43:44.27	64.22	29.44	-41.3	-44.6	13.4	1.44e-05	0	56	0	436207616	53	5494
2026-01-08 08:43:45.28	63.89	29.47	-41.5	-44.9	13.1	1.90e-05	0	56	0	438304768	53	5659
2026-01-08 08:43:46.30	63.55	29.50	-41.4	-44.7	13.2	2.59e-05	0	56	0	440401920	53	5590
2026-01-08 08:43:47.30	63.21	29.52	-41.2	-44.4	13.6	1.22e-05	0	56	0	442499072	53	5397
2026-01-08 08:43:48.31	62.87	29.55	-41.4	-44.7	13.3	1.67e-05	0	56	0	444596224	53	5559
2026-01-08 08:43:49.32	62.53	29.57	-41.5	-44.8	13.2	1.90e-05	0	56	0	445644800	53	5650
2026-01-08 08:43:50.33	62.19	29.59	-41.4	-44.8	13.2	3.12e-05	0	56	0	447741952	53	5631
2026-01-08 08:43:51.34	61.85	29.62	-41.3	-44.5	13.5	8.30e-06	0	56	0	449839104	53	5445
2026-01-08 08:43:52.34	61.52	29.64	-41.2	-44.3	13.7	7.60e-06	0	56	0	451936256	53	5328
2026-01-08 08:43:53.35	61.17	29.66	-41.3	-44.5	13.6	9.10e-06	0	56	0	454033408	53	5420
2026-01-08 08:43:54.36	60.83	29.67	-41.4	-44.8	13.2	1.98e-05	0	56	0	455081984	53	5606
2026-01-08 08:43:55.37	60.49	29.69	-41.5	-44.9	13.1	3.28e-05	0	56	0	457179136	53	5719
2026-01-08 08:43:56.37	60.15	29.71	-41.5	-44.9	13.1	3.50e-05	0	56	0	459276288	53	5708
2026-01-08 08:43:57.37	59.81	29.72	-41.5	-44.8	13.2	2.59e-05	0	56	0	461373440	53	5642
2026-01-08 08:43:58.37	59.47	29.73	-41.5	-44.9	13.1	2.82e-05	0	56	0	463470592	53	5658
2026-01-08 08:43:59.38	59.13	29.75	-41.6	-45.1	13.0	3.66e-05	0	56	0	464519168	53	5792
2026-01-08 08:44:00.39	58.79	29.76	-41.5	-44.9	13.0	4.42e-05	0	56	0	466616320	53	5718
2026-01-08 08:44:01.40	58.44	29.77	-41.6	-45.1	12.9	4.19e-05	0	56	0	468713472	53	5817
2026-01-08 08:44:02.41	58.10	29.78	-41.6	-45.0	13.0	3.43e-05	0	56	0	470810624	53	5751
2026-01-08 08:44:03.41	57.76	29.78	-41.6	-45.0	12.9	4.11e-05	0	56	0	472907776	53	5788
2026-01-08 08:44:04.42	57.42	29.79	-41.7	-45.3	12.8	5.56e-05	0	56	0	473956352	53	5936
2026-01-08 08:44:05.43	57.07	29.80	-41.6	-45.1	13.0	6.33e-05	0	56	0	476053504	54	5475
2026-01-08 08:44:06.43	56.73	29.80	-41.5	-44.9	13.1	2.67e-05	0	56	0	478150656	54	5367
2026-01-08 08:44:07.43	56.39	29.80	-41.4	-44.6	13.5	1.75e-05	0	56	0	480247808	54	5194
2026-01-08 08:44:08.44	56.05	29.81	-41.3	-44.4	13.7	1.14e-05	0	56	0	482344960	54	5084
2026-01-08 08:44:09.44	55.71	29.81	-41.3	-44.6	13.4	6.80e-06	0	56	0	483393536	54	5172
2026-01-08 08:44:10.45	55.36	29.81	-41.3	-44.6	13.5	9.10e-06	0	56	0	485490688	54	5178
2026-01-08 08:44:11.45	55.02	29.81	-41.3	-44.4	13.6	1.06e-05	0	56	0	487587840	54	5089
2026-01-08 08:44:12.46	54.68	29.80	-41.1	-44.1	13.9	6.10e-06	0	56	0	489684992	54	4924
2026-01-08 08:44:13.47	54.33	29.80	-41.0	-44.0	14.1	7.00e-07	0	56	0	491782144	54	4827
2026-01-08 08:44:14.47	53.99	29.79	-41.1	-44.1	14.0	3.80e-06	0	56	0	492830720	53	5174
2026-01-08 08:44:15.48	53.65	29.79	-41.0	-44.0	14.0	2.20e-06	0	56	0	494927872	53	5155
2026-01-08 08:44:16.49	53.30	29.78	-41.0	-44.0	14.0	1.50e-06	0	56	0	497025024	53	5157
2026-01-08 08:44:17.49	52.96	29.77	-41.0	-44.0	14.1	7.00e-07	0	56	0	499122176	53	5120
2026-01-08 08:44:18.50	52.62	29.76	-40.8	-43.7	14.4	3.00e-06	0	56	0	501219328	53	4943
2026-01-08 08:44:19.50	52.28	29.75	-40.7	-43.5	14.6	0.00e+00	0	56	0	502267904	53	4823
2026-01-08 08:44:20.51	51.94	29.74	-40.7	-43.5	14.6	0.00e+00	0	56	0	504365056	53	4815
2026-01-08 08:44:21.52	51.59	29.73	-40.7	-43.5	14.5	7.00e-07	0	56	0	506462208	53	4868
2026-01-08 08:44:22.53	51.25	29.71	-40.9	-43.8	14.3	7.00e-07	0	56	0	508559360	53	5004
2026-01-08 08:44:23.54	50.91	29.70	-40.9	-43.9	14.2	0.00e+00	0	56	0	510656512	53	5064
2026-01-08 08:44:24.54	50.57	29.68	-40.9	-43.9	14.2	4.50e-06	0	56	0	511705088	53	5046
2026-01-08 08:44:25.55	50.23	29.67	-41.0	-44.0	14.0	7.00e-07	0	56	0	513802240	53	5131
2026-01-08 08:44:26.56	49.89	29.65	-41.1	-44.1	13.9	2.20e-06	0	56	0	515899392	53	5198
2026-01-08 08:44:27.56	49.55	29.63	-41.0	-44.0	14.0	7.00e-07	0	56	0	517996544	53	5151
2026-01-08 08:44:28.57	49.21	29.61	-40.9	-43.8	14.3	4.50e-06	0	56	0	520093696	53	4995
2026-01-08 08:44:29.57	48.87	29.59	-40.8	-43.6	14.5	7.00e-07	0	56	0	521142272	53	4911
2026-01-08 08:44:30.58	48.54	29.56	-40.8	-43.6	14.5	0.00e+00	0	56	0	523239424	53	4911
2026-01-08 08:44:31.59	48.20	29.54	-40.9	-43.9	14.2	1.50e-06	0	56	0	525336576	53	5049
2026-01-08 08:44:32.60	47.86	29.51	-40.8	-43.6	14.5	1.50e-06	0	56	0	527433728	53	4922
2026-01-08 08:44:33.61	47.52	29.49	-40.7	-43.5	14.6	7.00e-07	0	56	0	529530880	53	4829
2026-01-08 08:44:34.62	47.18	29.46	-40.6	-43.3	14.7	2.20e-06	0	56	0	530579456	53	4750
2026-01-08 08:44:35.63	46.85	29.43	-40.7	-43.4	14.6	0.00e+00	0	56	0	532676608	53	4798
2026-01-08 08:44:36.64	46.51	29.40	-40.8	-43.7	14.4	2.20e-06	0	56	0	534773760	53	4959
2026-01-08 08:44:37.64	46.18	29.37	-41.0	-44.0	14.1	1.50e-06	0	56	0	536870912	53	5143
2026-01-08 08:44:38.65	45.84	29.34	-40.9	-43.7	14.4	3.00e-06	0	56	0	538968064	53	4976
2026-01-08 08:44:39.65	45.51	29.31	-40.7	-43.5	14.6	0.00e+00	0	56	0	540016640	53	4858
2026-01-08 08:44:40.66	45.18	29.27	-40.5	-43.2	14.9	0.00e+00	0	56	0	542113792	53	4698
2026-01-08 08:44:41.67	44.85	29.24	-40.5	-43.1	15.0	0.00e+00	0	56	0	544210944	52	4914
2026-01-08 08:44:42.68	44.52	29.20	-40.6	-43.3	14.8	0.00e+00	0	56	0	546308096	52	5003
2026-01-08 08:44:43.69	44.19	29.17	-40.7	-43.5	14.7	0.00e+00	0	56	0	548405248	52	5112
2026-01-08 08:44:44.69	43.86	29.13	-40.9	-43.7	14.4	0.00e+00	0	56	0	549453824	52	5270
2026-01-08 08:44:45.70	43.53	29.09	-40.9	-43.8	14.3	7.00e-07	0	56	0	551550976	52	5314
2026-01-08 08:44:46.71	43.20	29.05	-40.9	-43.8	14.3	0.00e+00	0	56	0	553648128	52	5286
2026-01-08 08:44:47.71	42.88	29.01	-41.0	-44.0	14.2	1.50e-06	0	56	0	555745280	52	5412
2026-01-08 08:44:48.72	42.55	28.97	-41.1	-44.1	14.0	3.00e-06	0	56	0	557842432	52	5491
2026-01-08 08:44:49.72	42.23	28.93	-41.2	-44.3	13.9	3.00e-06	0	56	0	558891008	52	5611
2026-01-08 08:44:50.73	41.90	28.88	-41.2	-44.4	13.7	5.30e-06	0	56	0	560988160	53	5351
2026-01-08 08:44:51.73	41.58	28.84	-41.3	-44.6	13.6	7.60e-06	0	56	0	563085312	53	5476
2026-01-08 08:44:52.74	41.26	28.79	-41.4	-44.7	13.4	6.80e-06	0	56	0	565182464	53	5588
2026-01-08 08:44:53.74	40.94	28.75	-41.4	-44.7	13.4	1.90e-05	0	56	0	567279616	53	5565
2026-01-08 08:44:54.75	40.62	28.70	-41.4	-44.6	13.5	8.30e-06	0	56	0	568328192	53	5493
2026-01-08 08:44:55.76	40.30	28.65	-41.4	-44.6	13.5	1.22e-05	0	56	0	570425344	53	5502
2026-01-08 08:44:56.76	39.98	28.60	-41.4	-44.6	13.5	5.30e-06	0	56	0	572522496	53	5525
2026-01-08 08:44:57.75	39.67	28.55	-41.4	-44.7	13.4	1.44e-05	0	56	0	574619648	53	5535
2026-01-08 08:44:58.75	39.35	28.50	-41.4	-44.7	13.4	3.80e-06	0	56	0	576716800	53	5568
2026-01-08 08:44:59.75	39.04	28.45	-41.4	-44.7	13.5	1.14e-05	0	56	0	577765376	53	5537
2026-01-08 08:45:00.75	38.73	28.40	-41.4	-44.7	13.4	1.37e-05	0	56	0	579862528	53	5570
2026-01-08 08:45:01.75	38.42	28.34	-41.4	-44.6	13.5	9.90e-06	0	56	0	581959680	53	5493
2026-01-08 08:45:02.74	38.11	28.29	-41.3	-44.6	13.6	1.22e-05	0	56	0	584056832	53	5468
2026-01-08 08:45:03.74	37.80	28.24	-41.4	-44.7	13.4	1.14e-05	0	56	0	585105408	53	5557
2026-01-08 08:45:04.74	37.49	28.18	-41.6	-45.0	13.1	1.90e-05	0	56	0	587202560	53	5742
2026-01-08 08:45:05.74	37.19	28.12	-41.7	-45.1	13.0	4.19e-05	0	56	0	589299712	53	5843
2026-01-08 08:45:06.73	36.88	28.07	-41.8	-45.3	12.9	3.50e-05	0	56	0	591396864	54	5613
2026-01-08 08:45:07.74	36.57	28.01	-41.6	-45.0	13.1	3.73e-05	0	56	0	593494016	54	5452
2026-01-08 08:45:08.73	36.27	27.95	-41.6	-44.9	13.2	3.73e-05	0	56	0	594542592	54	5397
2026-01-08 08:45:09.73	35.97	27.89	-41.6	-45.0	13.1	2.74e-05	0	56	0	596639744	54	5456
2026-01-08 08:45:10.73	35.67	27.83	-41.5	-44.9	13.3	2.21e-05	0	56	0	598736896	54	5344
2026-01-08 08:45:11.73	35.37	27.77	-41.5	-44.9	13.3	2.59e-05	0	56	0	600834048	54	5346
2026-01-08 08:45:12.73	35.07	27.71	-41.5	-44.9	13.2	1.67e-05	0	56	0	602931200	54	5358
2026-01-08 08:45:13.73	34.77	27.65	-41.4	-44.6	13.5	1.67e-05	0	56	0	603979776	54	5183
2026-01-08 08:45:14.72	34.48	27.58	-41.3	-44.4	13.8	9.10e-06	0	56	0	606076928	54	5057
2026-01-08 08:45:15.72	34.18	27.52	-41.2	-44.3	13.9	5.30e-06	0	56	0	608174080	54	5009
2026-01-08 08:45:16.72	33.89	27.46	-41.3	-44.4	13.8	1.50e-06	0	56	0	610271232	54	5055
2026-01-08 08:45:17.73	33.59	27.39	-41.3	-44.4	13.8	3.80e-06	0	56	0	611319808	54	5058
2026-01-08 08:45:18.72	33.30	27.32	-41.2	-44.3	13.8	5.30e-06	0	56	0	613416960	54	4990
2026-01-08 08:45:19.73	33.01	27.26	-41.2	-44.2	13.8	3.00e-06	0	56	0	615514112	54	4983
2026-01-08 08:45:20.72	32.72	27.19	-41.3	-44.5	13.6	9.10e-06	0	56	0	617611264	54	5151
2026-01-08 08:45:21.72	32.44	27.12	-41.3	-44.5	13.6	1.06e-05	0	56	0	619708416	54	5142
2026-01-08 08:45:22.72	32.15	27.05	-41.2	-44.3	13.8	6.10e-06	0	56	0	620756992	54	4998
2026-01-08 08:45:23.72	31.86	26.99	-41.0	-44.0	14.1	3.00e-06	0	56	0	622854144	54	4854
2026-01-08 08:45:24.71	31.58	26.92	-40.9	-43.8	14.2	2.20e-06	0	56	0	624951296	53	5034
2026-01-08 08:45:25.71	31.30	26.85	-40.8	-43.7	14.4	7.00e-07	0	56	0	627048448	53	4938
2026-01-08 08:45:26.70	31.02	26.78	-40.7	-43.5	14.6	1.50e-06	0	56	0	629145600	53	4818
2026-01-08 08:45:27.69	30.74	26.71	-40.7	-43.5	14.6	0.00e+00	0	56	0	630194176	53	4842
2026-01-08 08:45:28.70	30.46	26.63	-40.8	-43.7	14.4	7.00e-07	0	56	0	632291328	53	4948
2026-01-08 08:45:29.69	30.18	26.56	-40.8	-43.7	14.4	0.00e+00	0	56	0	634388480	53	4952
2026-01-08 08:45:30.68	29.91	26.49	-40.9	-43.9	14.2	1.50e-06	0	56	0	636485632	53	5051
2026-01-08 08:45:31.69	29.63	26.41	-40.9	-43.9	14.2	1.50e-06	0	56	0	637534208	53	5054
2026-01-08 08:45:32.69	29.36	26.34	-40.9	-43.9	14.2	7.00e-07	0	56	0	639631360	53	5069
2026-01-08 08:45:33.70	29.08	26.26	-40.8	-43.7	14.4	7.00e-07	0	56	0	641728512	53	4970
2026-01-08 08:45:34.71	28.81	26.19	-40.8	-43.7	14.4	0.00e+00	0	56	0	643825664	53	4940
2026-01-08 08:45:35.72	28.53	26.11	-40.6	-43.4	14.7	0.00e+00	0	56	0	645922816	53	4810
2026-01-08 08:45:36.72	28.27	26.04	-40.6	-43.4	14.7	0.00e+00	0	56	0	646971392	53	4779
2026-01-08 08:45:37.72	28.00	25.96	-40.6	-43.3	14.8	0.00e+00	0	56	0	649068544	53	4732
2026-01-08 08:45:38.71	27.73	25.88	-40.4	-43.1	15.0	7.00e-07	0	56	0	651165696	52	4900
2026-01-08 08:45:39.71	27.47	25.81	-40.3	-43.0	15.2	0.00e+00	0	56	0	653262848	52	4816
2026-01-08 08:45:40.71	27.21	25.73	-40.3	-43.0	15.1	0.00e+00	0	56	0	655360000	52	4816
2026-01-08 08:45:41.71	26.94	25.65	-40.3	-42.9	15.2	0.00e+00	0	56	0	656408576	52	4804
2026-01-08 08:45:42.70	26.68	25.57	-40.4	-43.0	15.1	7.00e-07	0	56	0	658505728	52	4844
2026-01-08 08:45:43.71	26.42	25.49	-40.4	-43.1	15.0	0.00e+00	0	56	0	660602880	52	4871
2026-01-08 08:45:44.70	26.17	25.41	-40.3	-42.9	15.2	0.00e+00	0	56	0	662700032	52	4780
2026-01-08 08:45:45.69	25.91	25.33	-40.2	-42.8	15.3	0.00e+00	0	57	0	663748608	52	4721
2026-01-08 08:45:46.68	25.66	25.25	-40.2	-42.7	15.4	0.00e+00	0	56	0	665845760	52	4691
2026-01-08 08:45:47.67	25.41	25.17	-40.2	-42.7	15.4	0.00e+00	0	56	0	667942912	52	4673
2026-01-08 08:45:48.67	25.15	25.09	-40.1	-42.7	15.4	0.00e+00	0	57	0	670040064	52	4658
2026-01-08 08:45:49.67	24.90	25.01	-40.1	-42.6	15.5	0.00e+00	0	57	0	672137216	52	4610
2026-01-08 08:45:50.66	24.65	24.93	-40.0	-42.5	15.6	0.00e+00	0	56	0	673185792	52	4580
2026-01-08 08:45:51.65	24.41	24.85	-40.0	-42.5	15.7	0.00e+00	0	56	0	675282944	51	4829
2026-01-08 08:45:52.64	24.16	24.77	-40.0	-42.4	15.8	0.00e+00	0	56	0	677380096	51	4775
2026-01-08 08:45:53.63	23.92	24.69	-40.0	-42.5	15.7	0.00e+00	0	56	0	679477248	51	4826
2026-01-08 08:45:54.63	23.67	24.60	-39.9	-42.3	15.8	0.00e+00	0	57	0	680525824	51	4744
2026-01-08 08:45:55.62	23.43	24.52	-39.8	-42.2	15.9	0.00e+00	0	56	0	682622976	51	4679
2026-01-08 08:45:56.62	23.19	24.44	-39.7	-42.1	16.1	0.00e+00	0	56	0	684720128	51	4606
2026-01-08 08:45:57.62	22.95	24.35	-39.6	-41.8	16.3	0.00e+00	0	56	0	686817280	51	4470
2026-01-08 08:45:58.61	22.71	24.27	-39.6	-41.8	16.3	0.00e+00	0	56	0	688914432	51	4484
2026-01-08 08:45:59.61	22.47	24.18	-39.6	-41.8	16.4	0.00e+00	0	56	0	689963008	51	4455
2026-01-08 08:46:00.61	22.23	24.10	-39.4	-41.6	16.6	0.00e+00	0	56	0	692060160	50	4609
2026-01-08 08:46:01.61	21.99	24.01	-39.4	-41.6	16.5	0.00e+00	0	56	0	694157312	50	4632
2026-01-08 08:46:02.61	21.76	23.93	-39.3	-41.5	16.7	0.00e+00	0	56	0	696254464	50	4558
2026-01-08 08:46:03.61	21.53	23.84	-39.3	-41.5	16.7	0.00e+00	0	56	0	698351616	50	4547
2026-01-08 08:46:04.61	21.29	23.76	-39.3	-41.5	16.6	0.00e+00	0	56	0	699400192	50	4574
2026-01-08 08:46:05.60	21.06	23.67	-39.4	-41.5	16.6	0.00e+00	0	56	0	701497344	50	4590
2026-01-08 08:46:06.61	20.83	23.58	-39.3	-41.5	16.6	0.00e+00	0	57	0	703594496	50	4583
2026-01-08 08:46:07.60	20.61	23.50	-39.4	-41.6	16.6	0.00e+00	0	56	0	705691648	50	4606
2026-01-08 08:46:08.60	20.38	23.41	-39.3	-41.5	16.7	0.00e+00	0	56	0	706740224	50	4547
2026-01-08 08:46:09.60	20.15	23.33	-39.2	-41.3	16.8	0.00e+00	0	56	0	708837376	50	4478
2026-01-08 08:46:10.60	19.93	23.24	-39.1	-41.1	17.0	0.00e+00	0	56	0	710934528	50	4387
2026-01-08 08:46:11.60	19.70	23.15	-38.9	-41.0	17.1	0.00e+00	0	56	0	713031680	49	4555
2026-01-08 08:46:12.61	19.48	23.06	-38.7	-40.7	17.4	0.00e+00	0	56	0	715128832	49	4423
2026-01-08 08:46:13.61	19.26	22.98	-38.7	-40.7	17.5	0.00e+00	0	56	0	716177408	49	4392
2026-01-08 08:46:14.62	19.04	22.89	-38.6	-40.6	17.6	0.00e+00	0	56	0	718274560	49	4347
2026-01-08 08:46:15.62	18.82	22.80	-38.6	-40.6	17.5	0.00e+00	0	56	0	720371712	49	4347
2026-01-08 08:46:16.63	18.60	22.71	-38.7	-40.6	17.5	0.00e+00	0	56	0	722468864	49	4366
2026-01-08 08:46:17.63	18.38	22.62	-38.7	-40.6	17.5	0.00e+00	0	57	0	724566016	49	4373
2026-01-08 08:46:18.64	18.17	22.53	-38.7	-40.7	17.4	0.00e+00	0	57	0	725614592	49	4413
2026-01-08 08:46:19.64	17.95	22.44	-38.7	-40.6	17.5	0.00e+00	0	57	0	727711744	49	4387
2026-01-08 08:46:20.65	17.74	22.35	-38.7	-40.7	17.4	0.00e+00	0	56	0	729808896	49	4397
2026-01-08 08:46:21.66	17.53	22.27	-38.6	-40.6	17.5	0.00e+00	0	56	0	731906048	49	4351
2026-01-08 08:46:22.66	17.32	22.18	-38.6	-40.5	17.6	0.00e+00	0	57	0	734003200	49	4309
2026-01-08 08:46:23.67	17.11	22.09	-38.5	-40.4	17.7	0.00e+00	0	57	0	735051776	48	4515
2026-01-08 08:46:24.68	16.90	22.00	-38.5	-40.4	17.6	0.00e+00	0	57	0	737148928	48	4540
2026-01-08 08:46:25.68	16.69	21.91	-38.5	-40.5	17.6	0.00e+00	0	57	0	739246080	48	4546
2026-01-08 08:46:26.69	16.48	21.82	-38.6	-40.5	17.6	0.00e+00	0	56	0	741343232	48	4559
2026-01-08 08:46:27.70	16.28	21.73	-38.6	-40.5	17.6	0.00e+00	0	56	0	743440384	48	4579
2026-01-08 08:46:28.70	16.08	21.64	-38.7	-40.7	17.4	0.00e+00	0	56	0	744488960	48	4663
2026-01-08 08:46:29.71	15.87	21.55	-38.7	-40.7	17.4	0.00e+00	0	56	0	746586112	48	4698
2026-01-08 08:46:30.72	15.67	21.46	-38.8	-40.8	17.3	0.00e+00	0	56	0	748683264	48	4722
2026-01-08 08:46:31.73	15.47	21.37	-38.8	-40.8	17.3	0.00e+00	0	57	0	750780416	48	4725
2026-01-08 08:46:32.74	15.27	21.28	-38.9	-40.9	17.2	0.00e+00	0	56	0	752877568	48	4773
2026-01-08 08:46:33.74	15.07	21.19	-38.9	-40.9	17.2	0.00e+00	0	57	0	753926144	48	4790
2026-01-08 08:46:34.75	14.88	21.10	-38.9	-40.9	17.2	0.00e+00	0	56	0	756023296	48	4775
2026-01-08 08:46:35.76	14.68	21.01	-38.9	-40.9	17.2	0.00e+00	0	57	0	758120448	48	4779
2026-01-08 08:46:36.77	14.49	20.92	-38.9	-40.9	17.2	0.00e+00	0	57	0	760217600	48	4774
2026-01-08 08:46:37.78	14.29	20.83	-39.0	-41.1	17.0	0.00e+00	0	57	0	762314752	48	4873
2026-01-08 08:46:38.77	14.10	20.74	-39.1	-41.2	16.9	0.00e+00	0	57	0	763363328	48	4927
2026-01-08 08:46:39.76	13.91	20.65	-39.1	-41.2	16.9	0.00e+00	0	56	0	765460480	48	4948
2026-01-08 08:46:40.76	13.73	20.56	-39.1	-41.2	16.9	0.00e+00	0	56	0	767557632	48	4965
2026-01-08 08:46:41.75	13.54	20.47	-39.1	-41.2	16.8	0.00e+00	0	57	0	769654784	48	4960
2026-01-08 08:46:42.75	13.35	20.38	-39.1	-41.2	16.8	0.00e+00	0	57	0	771751936	48	4964
2026-01-08 08:46:43.74	13.17	20.29	-39.1	-41.2	16.9	0.00e+00	0	56	0	772800512	48	4950
2026-01-08 08:46:44.74	12.99	20.20	-39.1	-41.2	16.9	0.00e+00	0	57	0	774897664	48	4949
2026-01-08 08:46:45.73	12.81	20.11	-39.2	-41.3	16.8	0.00e+00	0	56	0	776994816	48	5019
2026-01-08 08:46:46.73	12.62	20.02	-39.2	-41.3	16.7	0.00e+00	0	56	0	779091968	49	4759
2026-01-08 08:46:47.73	12.44	19.93	-39.3	-41.5	16.5	0.00e+00	0	57	0	780140544	49	4860
2026-01-08 08:46:48.73	12.26	19.84	-39.5	-41.8	16.3	0.00e+00	0	57	0	782237696	49	4987
2026-01-08 08:46:49.73	12.08	19.75	-39.6	-42.0	16.1	0.00e+00	0	57	0	784334848	49	5114
2026-01-08 08:46:50.72	11.91	19.67	-39.6	-42.0	16.1	0.00e+00	0	57	0	786432000	49	5115
2026-01-08 08:46:51.71	11.73	19.58	-39.6	-41.9	16.1	0.00e+00	0	57	0	788529152	49	5091
2026-01-08 08:46:52.70	11.56	19.49	-39.6	-41.9	16.1	0.00e+00	0	56	0	789577728	49	5074
2026-01-08 08:46:53.70	11.39	19.40	-39.6	-41.9	16.2	0.00e+00	0	57	0	791674880	49	5043
2026-01-08 08:46:54.70	11.21	19.31	-39.7	-42.0	16.0	0.00e+00	0	56	0	793772032	49	5144
2026-01-08 08:46:55.69	11.04	19.22	-39.7	-42.0	16.0	0.00e+00	0	57	0	795869184	49	5122
2026-01-08 08:46:56.68	10.87	19.13	-39.6	-42.0	16.0	0.00e+00	0	56	0	796917760	49	5111
2026-01-08 08:46:57.68	10.70	19.04	-39.8	-42.2	15.8	0.00e+00	0	57	0	799014912	50	4949
2026-01-08 08:46:58.67	10.53	18.96	-39.8	-42.3	15.8	0.00e+00	0	57	0	801112064	50	4998
2026-01-08 08:46:59.66	10.37	18.87	-39.8	-42.2	15.8	0.00e+00	0	56	0	803209216	50	4976
2026-01-08 08:47:00.66	10.20	18.78	-39.8	-42.3	15.7	0.00e+00	0	56	0	805306368	50	5000
2026-01-08 08:47:01.66	10.03	18.69	-39.9	-42.3	15.7	0.00e+00	0	57	0	806354944	50	5014
2026-01-08 08:47:02.65	9.87	18.60	-39.9	-42.3	15.7	0.00e+00	0	56	0	808452096	50	5041
2026-01-08 08:47:03.65	9.70	18.51	-39.9	-42.3	15.7	0.00e+00	0	56	0	810549248	50	5031
2026-01-08 08:47:04.64	9.54	18.42	-39.9	-42.4	15.6	0.00e+00	0	56	0	812646400	50	5093
2026-01-08 08:47:05.64	9.38	18.34	-40.0	-42.5	15.5	0.00e+00	0	57	0	813694976	50	5107
2026-01-08 08:47:06.64	9.22	18.25	-40.0	-42.5	15.5	0.00e+00	0	56	0	815792128	50	5143
2026-01-08 08:47:07.64	9.06	18.16	-39.9	-42.4	15.6	0.00e+00	0	56	0	817889280	50	5071
2026-01-08 08:47:08.63	8.90	18.07	-40.0	-42.5	15.5	0.00e+00	0	57	0	819986432	50	5117
2026-01-08 08:47:09.63	8.74	17.98	-39.9	-42.4	15.6	0.00e+00	0	57	0	822083584	50	5069
2026-01-08 08:47:10.62	8.58	17.89	-39.9	-42.4	15.5	0.00e+00	0	57	0	823132160	50	5087
2026-01-08 08:47:11.61	8.43	17.81	-40.0	-42.5	15.4	0.00e+00	0	56	0	825229312	50	5113
2026-01-08 08:47:12.61	8.27	17.72	-40.0	-42.6	15.4	0.00e+00	0	57	0	827326464	50	5178
2026-01-08 08:47:13.61	8.12	17.63	-40.0	-42.6	15.3	0.00e+00	0	56	0	829423616	50	5193
2026-01-08 08:47:14.61	7.96	17.54	-40.0	-42.6	15.3	0.00e+00	0	57	0	830472192	50	5180
2026-01-08 08:47:15.60	7.81	17.46	-40.1	-42.7	15.1	0.00e+00	0	56	0	832569344	50	5265
2026-01-08 08:47:16.60	7.66	17.37	-40.1	-42.7	15.2	0.00e+00	0	56	0	834666496	50	5230
2026-01-08 08:47:17.60	7.51	17.28	-40.0	-42.6	15.2	0.00e+00	0	56	0	836763648	50	5213
2026-01-08 08:47:18.60	7.36	17.19	-40.0	-42.6	15.3	0.00e+00	0	57	0	838860800	50	5179
2026-01-08 08:47:19.60	7.21	17.11	-40.0	-42.6	15.2	0.00e+00	0	56	0	839909376	50	5194
2026-01-08 08:47:20.60	7.06	17.02	-40.1	-42.7	15.1	0.00e+00	0	57	0	842006528	50	5245
2026-01-08 08:47:21.61	6.91	16.93	-40.2	-42.9	14.9	0.00e+00	0	57	0	844103680	51	5090
2026-01-08 08:47:22.61	6.76	16.84	-40.2	-43.0	14.8	0.00e+00	0	56	0	846200832	51	5112
2026-01-08 08:47:23.62	6.62	16.76	-40.3	-43.0	14.7	0.00e+00	0	56	0	848297984	51	5148
2026-01-08 08:47:24.63	6.47	16.67	-40.4	-43.3	14.5	0.00e+00	0	56	0	849346560	51	5284
2026-01-08 08:47:25.64	6.32	16.58	-40.4	-43.3	14.4	0.00e+00	0	57	0	851443712	51	5308
2026-01-08 08:47:26.64	6.18	16.49	-40.4	-43.3	14.4	7.00e-07	0	57	0	853540864	51	5292
2026-01-08 08:47:27.65	6.04	16.41	-40.4	-43.3	14.4	7.00e-07	0	57	0	855638016	51	5305
2026-01-08 08:47:28.66	5.89	16.32	-40.4	-43.3	14.3	7.00e-07	0	56	0	857735168	51	5324
2026-01-08 08:47:29.67	5.75	16.23	-40.4	-43.2	14.4	0.00e+00	0	57	0	858783744	51	5266
2026-01-08 08:47:30.68	5.61	16.15	-40.4	-43.3	14.3	0.00e+00	0	56	0	860880896	51	5333
2026-01-08 08:47:31.68	5.47	16.06	-40.4	-43.3	14.4	1.50e-06	0	56	0	862978048	51	5282
2026-01-08 08:47:32.69	5.33	15.97	-40.4	-43.3	14.3	7.00e-07	0	56	0	865075200	51	5295
2026-01-08 08:47:33.70	5.19	15.89	-40.4	-43.3	14.3	1.50e-06	0	57	0	867172352	51	5285
2026-01-08 08:47:34.71	5.05	15.80	-40.5	-43.4	14.1	1.50e-06	0	57	0	868220928	51	5382
2026-01-08 08:47:35.72	4.92	15.71	-40.4	-43.4	14.1	2.20e-06	0	57	0	870318080	51	5365
2026-01-08 08:47:36.72	4.78	15.63	-40.4	-43.4	14.1	7.00e-07	0	56	0	872415232	51	5385
2026-01-08 08:47:37.73	4.64	15.54	-40.6	-43.7	13.7	3.00e-06	0	57	0	874512384	51	5574
2026-01-08 08:47:38.74	4.51	15.46	-40.5	-43.5	13.9	5.30e-06	0	57	0	876609536	51	5440
2026-01-08 08:47:39.75	4.37	15.37	-40.4	-43.5	13.8	4.50e-06	0	57	0	877658112	51	5455
2026-01-08 08:47:40.76	4.24	15.29	-40.5	-43.8	13.5	6.80e-06	0	56	0	879755264	51	5605
2026-01-08 08:47:41.76	4.11	15.20	-40.5	-43.7	13.6	1.14e-05	0	56	0	881852416	51	5566
2026-01-08 08:47:42.77	3.98	15.12	-40.3	-43.4	13.8	9.10e-06	0	57	0	883949568	51	5397
2026-01-08 08:47:43.77	3.85	15.03	-40.3	-43.5	13.7	2.20e-06	0	57	0	886046720	51	5443
2026-01-08 08:47:44.78	3.72	14.95	-40.4	-43.8	13.3	8.30e-06	0	57	0	887095296	51	5605
2026-01-08 08:47:45.78	3.59	14.86	-40.5	-43.9	13.2	1.37e-05	0	57	0	889192448	51	5658
2026-01-08 08:47:46.78	3.46	14.78	-40.3	-43.6	13.4	1.44e-05	0	56	0	891289600	51	5517
2026-01-08 08:47:47.79	3.33	14.69	-40.2	-43.4	13.5	9.90e-06	0	56	0	893386752	51	5394
2026-01-08 08:47:48.79	3.21	14.61	-40.2	-43.5	13.4	1.06e-05	0	57	0	895483904	51	5444
2026-01-08 08:47:49.80	3.08	14.53	-40.3	-43.8	13.1	2.28e-05	0	56	0	896532480	51	5618
2026-01-08 08:47:50.81	2.96	14.44	-40.3	-43.9	12.9	3.96e-05	0	56	0	898629632	51	5672
2026-01-08 08:47:51.81	2.83	14.36	-40.4	-44.0	12.8	5.95e-05	0	57	0	900726784	51	5739
2026-01-08 08:47:52.82	2.71	14.27	-40.4	-44.1	12.6	9.91e-05	0	56	0	902823936	51	5810
2026-01-08 08:47:53.83	2.58	14.19	-40.2	-43.7	13.0	6.71e-05	0	57	0	904921088	51	5545
2026-01-08 08:47:54.84	2.46	14.11	-40.1	-43.5	13.2	2.36e-05	0	57	0	905969664	51	5439
2026-01-08 08:47:55.84	2.34	14.03	-40.0	-43.4	13.3	2.28e-05	0	56	0	908066816	51	5388
2026-01-08 08:47:56.85	2.22	13.94	-39.8	-43.1	13.5	9.10e-06	0	57	0	910163968	51	5162
2026-01-08 08:47:57.86	2.10	13.86	-39.5	-42.8	13.7	3.00e-06	0	56	0	912261120	51	4992
2026-01-08 08:47:58.86	1.98	13.78	-39.8	-43.4	13.0	9.90e-06	0	57	0	914358272	51	5361
2026-01-08 08:47:59.87	1.86	13.69	-40.0	-44.0	12.3	1.17e-04	0	56	0	915406848	51	5736
2026-01-08 08:48:00.88	1.74	13.61	-40.3	-44.7	11.3	6.71e-04	0	56	0	917504000	51	6269
2026-01-08 08:48:01.89	1.62	13.53	-40.5	-45.6	10.3	2.22e-03	0	57	0	919601152	51	6912
2026-01-08 08:48:02.90	1.50	13.45	-40.7	-46.4	9.2	1.48e-02	0	57	0	921698304	52	7165
2026-01-08 08:48:03.91	1.39	13.36	-40.8	-47.2	8.2	3.77e-02	0	57	0	923795456	52	7882
2026-01-08 08:48:04.91	1.27	13.28	-40.9	-48.2	7.1	9.06e-02	0	57	0	924844032	52	8820
2026-01-08 08:48:05.92	1.16	13.20	-41.0	-49.2	6.0	2.01e-01	0	57	0	926941184	52	9902
2026-01-08 08:48:06.93	1.04	13.12	-41.0	-50.4	5.2	5.33e-01	0	56	0	929038336	52	11347
2026-01-08 08:48:07.94	0.93	13.04	-41.0	-51.4	4.6	8.19e-01	0	57	0	931135488	52	12748
2026-01-08 08:48:08.95	0.81	12.96	-40.9	-52.2	4.3	1.17e+00	0	57	0	932184064	52	13907
2026-01-08 08:48:09.96	0.70	12.88	-40.9	-52.5	4.1	1.41e+00	0	57	0	932184064	52	14473
2026-01-08 08:48:10.96	0.59	12.80	-40.8	-52.8	4.0	1.47e+00	0	57	104	932184064	52	14948
2026-01-08 08:48:11.98	0.48	12.71	-40.6	-53.0	3.8	1.48e+00	0	57	104	932184064	52	15300
2026-01-08 08:48:12.98	0.37	12.63	-40.5	-53.3	3.9	1.48e+00	0	57	104	932184064	52	15841
2026-01-08 08:48:13.99	0.26	12.55	-40.4	-53.8	3.8	1.49e+00	0	57	104	932184064	52	16705
2026-01-08 08:48:15.00	0.15	12.47	-40.3	-54.2	3.8	1.49e+00	0	57	104	932184064	52	17536
2026-01-08 08:48:16.01	0.04	12.39	-40.3	-54.4	3.8	1.49e+00	0	57	104	932184064	52	18069
2026-01-08 08:48:17.02	359.93	12.31	-40.2	-54.6	3.8	1.49e+00	0	57	104	932184064	52	18306
2026-01-08 08:48:18.03	359.82	12.23	-40.2	-54.8	3.8	1.49e+00	0	57	104	932184064	52	18811
2026-01-08 08:48:19.03	359.72	12.15	-39.6	-54.6	3.8	1.49e+00	0	57	104	932184064	51	19492
2026-01-08 08:48:20.04	359.61	12.08	-40.5	-54.9	3.8	1.49e+00	0	57	104	932184064	51	20280
2026-01-08 08:48:21.05	359.50	12.00	-39.8	-54.7	3.8	1.49e+00	0	57	104	932184064	51	19663
2026-01-08 08:48:22.06	359.40	11.92	-40.3	-54.8	3.8	1.49e+00	0	57	104	932184064	51	20035
2026-01-08 08:48:23.07	359.29	11.84	-39.7	-54.6	3.8	1.49e+00	0	57	104	932184064	51	19530
2026-01-08 08:48:24.08	359.19	11.76	-39.6	-54.6	3.8	1.49e+00	0	57	104	932184064	51	19490
2026-01-08 08:48:25.09	359.09	11.68	-39.9	-54.7	3.8	1.49e+00	0	56	104	932184064	51	19773
2026-01-08 08:48:26.10	358.98	11.60	-39.6	-54.6	3.8	1.49e+00	0	57	104	932184064	51	19393
2026-01-08 08:48:27.11	358.88	11.52	-39.8	-54.6	3.8	1.49e+00	0	57	104	932184064	51	19596
2026-01-08 08:48:28.12	358.78	11.44	-40.0	-54.8	3.8	1.49e+00	0	57	104	932184064	51	19958
2026-01-08 08:48:29.13	358.68	11.37	-39.5	-54.5	3.8	1.49e+00	0	57	104	932184064	51	19233
2026-01-08 08:48:30.13	358.58	11.29	-40.0	-54.8	3.8	1.49e+00	0	57	104	932184064	51	19956
2026-01-08 08:48:31.14	358.48	11.21	-39.6	-54.5	3.8	1.49e+00	0	57	104	932184064	51	19190
2026-01-08 08:48:32.15	358.38	11.13	-39.7	-54.6	3.8	1.49e+00	0	57	104	932184064	51	19410
2026-01-08 08:48:33.16	358.28	11.06	-39.5	-54.6	3.8	1.49e+00	0	57	104	932184064	51	19450
2026-01-08 08:48:34.17	358.18	10.98	-39.5	-54.5	3.8	1.49e+00	0	57	104	932184064	51	19244
2026-01-08 08:48:35.18	358.08	10.90	-39.6	-54.6	3.8	1.49e+00	0	57	104	932184064	51	19441
2026-01-08 08:48:36.19	357.98	10.82	-39.9	-54.6	3.8	1.49e+00	0	57	104	932184064	51	19522
2026-01-08 08:48:37.20	357.88	10.75	-39.5	-54.5	3.8	1.49e+00	0	57	104	932184064	50	20328
2026-01-08 08:48:38.21	357.79	10.67	-39.9	-54.6	3.8	1.49e+00	0	57	104	932184064	50	20679
2026-01-08 08:48:39.22	357.69	10.59	-39.2	-54.4	3.8	1.49e+00	0	57	104	932184064	50	20256
2026-01-08 08:48:40.23	357.60	10.52	-38.9	-54.4	3.8	1.49e+00	0	57	104	932184064	49	21398
2026-01-08 08:48:41.24	357.50	10.44	-39.7	-54.6	3.8	1.49e+00	0	57	104	932184064	50	20564
2026-01-08 08:48:42.25	357.41	10.37	-38.8	-54.4	3.8	1.49e+00	0	57	104	932184064	49	21325
2026-01-08 08:48:43.26	357.31	10.29	-39.7	-54.5	3.8	1.49e+00	0	57	104	932184064	50	20483
2026-01-08 08:48:44.27	357.22	10.21	-39.4	-54.5	3.8	1.49e+00	0	57	104	932184064	50	20325
2026-01-08 08:48:45.28	357.13	10.14	-38.9	-54.4	3.8	1.49e+00	0	57	104	932184064	49	21380
2026-01-08 08:48:46.29	357.03	10.06	-39.1	-54.4	3.8	1.49e+00	0	57	104	932184064	49	21476
2026-01-08 08:48:47.30	356.94	9.99	-39.1	-54.4	3.8	1.49e+00	0	57	104	932184064	49	21333
2026-01-08 08:48:48.31	356.85	9.91	-38.8	-54.3	3.8	1.49e+00	0	57	104	932184064	49	21202
2026-01-08 08:48:49.31	356.76	9.84	-38.9	-54.4	3.8	1.49e+00	0	57	104	932184064	49	21308
2026-01-08 08:48:50.32	356.67	9.76	-39.1	-54.3	3.8	1.49e+00	0	57	104	932184064	49	21182
2026-01-08 08:48:51.33	356.58	9.69	-38.9	-54.4	3.8	1.49e+00	0	57	104	932184064	49	21352
2026-01-08 08:48:52.34	356.49	9.61	-38.6	-54.4	3.8	1.49e+00	0	57	104	932184064	49	21316
2026-01-08 08:48:53.35	356.40	9.54	-39.5	-54.3	3.8	1.49e+00	0	57	104	932184064	49	21249
2026-01-08 08:48:54.36	356.31	9.47	-38.7	-54.4	3.8	1.49e+00	0	57	104	932184064	49	21302
2026-01-08 08:48:55.37	356.22	9.39	-39.7	-54.4	3.8	1.49e+00	0	57	104	932184064	49	21284
2026-01-08 08:48:56.37	356.14	9.32	-39.6	-54.4	3.8	1.49e+00	0	57	104	932184064	50	20286
2026-01-08 08:48:57.38	356.05	9.24	-39.0	-54.3	3.8	1.49e+00	0	57	104	932184064	49	21164
2026-01-08 08:48:58.40	355.96	9.17	-39.7	-54.5	3.8	1.49e+00	0	57	104	932184064	50	20322
2026-01-08 08:48:59.40	355.88	9.10	-38.8	-54.3	3.8	1.49e+00	0	57	104	932184064	49	21253
2026-01-08 08:49:00.41	355.79	9.02	-39.4	-54.4	3.8	1.49e+00	0	57	104	932184064	49	21484
2026-01-08 08:49:01.42	355.71	8.95	-39.8	-54.5	3.8	1.49e+00	0	57	104	932184064	50	20341
2026-01-08 08:49:02.43	355.62	8.88	-39.6	-54.5	3.8	1.49e+00	0	57	104	932184064	50	20456
2026-01-08 08:49:03.44	355.54	8.81	-39.8	-54.5	3.8	1.49e+00	0	57	104	932184064	50	20516
2026-01-08 08:49:04.45	355.45	8.73	-39.8	-54.6	3.8	1.49e+00	0	57	104	932184064	50	20666
2026-01-08 08:49:05.46	355.37	8.66	-39.8	-54.5	3.8	1.49e+00	0	57	104	932184064	50	20470
2026-01-08 08:49:06.47	355.29	8.59	-39.9	-54.6	3.8	1.49e+00	0	57	104	932184064	50	20644
2026-01-08 08:49:07.48	355.20	8.52	-39.6	-54.4	3.8	1.49e+00	0	57	104	932184064	50	20298
2026-01-08 08:49:08.48	355.12	8.44	-39.9	-54.6	3.8	1.49e+00	0	57	104	932184064	50	20725
2026-01-08 08:49:09.49	355.04	8.37	-39.9	-54.6	3.8	1.49e+00	0	57	104	932184064	50	20742
2026-01-08 08:49:10.50	354.96	8.30	-39.9	-54.6	3.8	1.49e+00	0	57	104	932184064	50	20766
2026-01-08 08:49:11.51	354.88	8.23	-39.9	-54.5	3.8	1.49e+00	0	57	104	932184064	50	20456
2026-01-08 08:49:12.52	354.80	8.16	-39.9	-54.6	3.8	1.49e+00	0	57	104	932184064	50	20600
2026-01-08 08:49:13.53	354.72	8.09	-39.9	-54.6	3.8	1.49e+00	0	57	104	932184064	50	20629
2026-01-08 08:49:14.54	354.64	8.01	-40.0	-54.6	3.8	1.49e+00	0	57	104	932184064	50	20633
2026-01-08 08:49:15.55	354.56	7.94	-41.0	-55.9	3.9	1.49e+00	0	57	104	932184064	52	21383
2026-01-08 08:49:16.56	354.48	7.87	-43.9	-58.4	3.8	1.49e+00	0	57	104	932184064	58	20124
2026-01-08 08:49:17.57	354.40	7.80	-44.7	-59.3	3.8	1.49e+00	0	57	104	932184064	60	19951
2026-01-08 08:49:18.58	354.32	7.73	-44.9	-59.5	3.8	1.49e+00	0	57	104	932184064	60	20367
