passes_logs/2026/01/08/R2.0S_Moscow/R2.0S_Moscow__20260108_220645_SUOMI_NPP_rec.log

#Pass ID: 20260108_220645_SUOMI NPP
#Satellite: SUOMI NPP
#Configuration: NPP
#almurnet v.1.7.20251203
#Start time: 2026-01-08 22:06:45

#Version: 2.2.20231116
#Station: R2.0S_Moscow
#Location: 37.707566 lon 55.798166 lat
#TLE: 1 37849U 11061A   26008.05542337  .00000108  00000+0  71976-4 0  9997
#TLE: 2 37849  98.7805 310.1641 0002540  75.6410 284.5048 14.19523335735721

#Time	Az	El	Level	Level2	SNR	BER	BlckErr	Temp	State	Recorded	gain1	gain2
2026-01-08 22:06:45.56	26.49	2.02	-40.8	-56.0	3.8	1.49e+00	0	46	0	0	53	20365
2026-01-08 22:06:46.57	26.57	2.08	-40.8	-56.0	3.8	1.49e+00	0	47	104	0	53	20415
2026-01-08 22:06:47.58	26.65	2.13	-40.8	-56.0	3.8	1.49e+00	0	47	104	0	53	20383
2026-01-08 22:06:48.60	26.72	2.18	-40.8	-56.0	3.8	1.49e+00	0	47	104	0	53	20372
2026-01-08 22:06:49.61	26.80	2.24	-40.8	-56.0	3.8	1.49e+00	0	47	104	0	53	20406
2026-01-08 22:06:50.62	26.88	2.29	-40.8	-56.0	3.8	1.49e+00	0	47	104	0	53	20401
2026-01-08 22:06:51.63	26.96	2.34	-40.7	-56.0	3.8	1.49e+00	0	47	104	0	53	20439
2026-01-08 22:06:52.64	27.04	2.40	-40.8	-56.0	3.8	1.49e+00	0	47	104	0	53	20358
2026-01-08 22:06:53.65	27.12	2.45	-40.8	-56.0	3.8	1.49e+00	0	47	104	0	53	20367
2026-01-08 22:06:54.66	27.20	2.50	-40.8	-56.0	3.8	1.49e+00	0	48	104	0	53	20385
2026-01-08 22:06:55.67	27.28	2.56	-40.8	-56.0	3.8	1.49e+00	0	48	104	0	53	20372
2026-01-08 22:06:56.68	27.36	2.61	-40.8	-56.0	3.8	1.49e+00	0	47	104	0	53	20394
2026-01-08 22:06:57.69	27.44	2.67	-40.8	-56.0	3.8	1.49e+00	0	47	104	0	53	20311
2026-01-08 22:06:58.70	27.52	2.72	-40.7	-55.9	3.8	1.49e+00	0	48	104	0	53	20295
2026-01-08 22:06:59.71	27.61	2.77	-40.8	-56.0	3.8	1.49e+00	0	48	104	0	53	20361
2026-01-08 22:07:00.72	27.69	2.83	-40.8	-56.0	3.8	1.49e+00	0	48	104	0	53	20325
2026-01-08 22:07:01.73	27.77	2.88	-40.8	-56.0	3.8	1.49e+00	0	48	104	0	53	20377
2026-01-08 22:07:02.74	27.85	2.94	-40.8	-56.0	3.8	1.49e+00	0	48	104	0	53	20335
2026-01-08 22:07:03.75	27.93	2.99	-40.8	-56.0	3.8	1.49e+00	0	48	104	0	53	20401
2026-01-08 22:07:04.76	28.02	3.04	-40.8	-56.0	3.8	1.49e+00	0	48	104	0	53	20354
2026-01-08 22:07:05.77	28.10	3.10	-40.8	-56.0	3.8	1.49e+00	0	48	104	0	53	20355
2026-01-08 22:07:06.78	28.18	3.15	-40.8	-56.0	3.8	1.49e+00	0	48	104	0	53	20350
2026-01-08 22:07:07.79	28.27	3.21	-40.8	-56.0	3.8	1.49e+00	0	48	104	0	53	20388
2026-01-08 22:07:08.80	28.35	3.26	-40.8	-56.0	3.8	1.49e+00	0	48	104	0	53	20350
2026-01-08 22:07:09.81	28.44	3.32	-40.8	-56.0	3.8	1.49e+00	0	48	104	0	53	20308
2026-01-08 22:07:10.83	28.52	3.37	-40.8	-56.0	3.8	1.49e+00	0	49	104	0	53	20346
2026-01-08 22:07:11.84	28.61	3.43	-40.8	-56.0	3.8	1.49e+00	0	49	104	0	53	20350
2026-01-08 22:07:12.85	28.69	3.48	-40.8	-56.0	3.8	1.49e+00	0	49	104	0	53	20318
2026-01-08 22:07:13.85	28.78	3.54	-40.8	-56.0	3.8	1.49e+00	0	49	104	0	53	20378
2026-01-08 22:07:14.86	28.86	3.59	-40.8	-56.0	3.8	1.49e+00	0	49	104	0	53	20385
2026-01-08 22:07:15.87	28.95	3.65	-40.8	-56.0	3.8	1.49e+00	0	49	104	0	53	20375
2026-01-08 22:07:16.88	29.04	3.70	-40.8	-56.0	3.8	1.49e+00	0	49	104	0	53	20346
2026-01-08 22:07:17.89	29.12	3.76	-40.8	-56.0	3.8	1.49e+00	0	49	104	0	53	20369
2026-01-08 22:07:18.90	29.21	3.81	-40.8	-56.0	3.8	1.49e+00	0	49	104	0	53	20378
2026-01-08 22:07:19.91	29.30	3.87	-40.7	-56.0	3.8	1.49e+00	0	49	104	0	53	20345
2026-01-08 22:07:20.92	29.38	3.92	-40.8	-56.0	3.8	1.49e+00	0	49	104	0	53	20360
2026-01-08 22:07:21.93	29.47	3.98	-40.8	-56.0	3.8	1.49e+00	0	49	104	0	53	20375
2026-01-08 22:07:22.94	29.56	4.03	-40.8	-56.0	3.8	1.49e+00	0	49	104	0	53	20320
2026-01-08 22:07:23.95	29.65	4.09	-40.8	-56.0	3.8	1.49e+00	0	49	104	0	53	20372
2026-01-08 22:07:24.96	29.74	4.14	-40.8	-56.0	3.8	1.49e+00	0	49	104	0	53	20362
2026-01-08 22:07:25.97	29.83	4.20	-40.7	-56.0	3.8	1.49e+00	0	49	104	0	53	20364
2026-01-08 22:07:26.98	29.92	4.25	-40.8	-56.0	3.8	1.49e+00	0	49	104	0	53	20321
2026-01-08 22:07:27.99	30.01	4.31	-40.8	-56.0	3.8	1.49e+00	0	49	104	0	53	20339
2026-01-08 22:07:29.00	30.10	4.37	-40.8	-55.9	3.8	1.49e+00	0	50	104	0	53	20302
2026-01-08 22:07:30.01	30.19	4.42	-40.7	-56.0	3.8	1.49e+00	0	50	104	0	53	20361
2026-01-08 22:07:31.02	30.28	4.48	-40.8	-56.0	3.8	1.49e+00	0	50	104	0	53	20395
2026-01-08 22:07:32.03	30.37	4.53	-40.8	-55.9	3.8	1.49e+00	0	50	104	0	53	20284
2026-01-08 22:07:33.04	30.46	4.59	-40.8	-56.0	3.8	1.49e+00	0	50	104	0	53	20320
2026-01-08 22:07:34.05	30.55	4.65	-40.8	-56.0	3.8	1.49e+00	0	50	104	0	53	20315
2026-01-08 22:07:35.06	30.65	4.70	-40.8	-56.0	3.8	1.49e+00	0	50	104	0	53	20388
2026-01-08 22:07:36.07	30.74	4.76	-40.8	-56.0	3.8	1.49e+00	0	50	104	0	53	20333
2026-01-08 22:07:37.08	30.83	4.81	-40.8	-56.0	3.8	1.49e+00	0	50	104	0	53	20339
2026-01-08 22:07:38.09	30.93	4.87	-40.8	-56.0	3.8	1.49e+00	0	50	104	0	53	20372
2026-01-08 22:07:39.10	31.02	4.93	-40.8	-56.0	3.8	1.49e+00	0	50	104	0	53	20307
2026-01-08 22:07:40.11	31.11	4.98	-40.8	-56.0	3.8	1.49e+00	0	50	104	0	53	20351
2026-01-08 22:07:41.12	31.21	5.04	-40.8	-56.0	3.8	1.49e+00	0	50	104	0	53	20361
2026-01-08 22:07:42.13	31.30	5.10	-40.8	-56.0	3.8	1.49e+00	0	50	104	0	53	20368
2026-01-08 22:07:43.14	31.40	5.15	-40.8	-56.0	3.8	1.49e+00	0	51	104	0	53	20374
2026-01-08 22:07:44.15	31.49	5.21	-40.8	-55.9	3.8	1.49e+00	0	50	104	0	53	20281
2026-01-08 22:07:45.16	31.59	5.27	-40.8	-56.0	3.8	1.49e+00	0	51	104	0	53	20337
2026-01-08 22:07:46.17	31.68	5.32	-40.8	-55.9	3.8	1.49e+00	0	50	104	0	53	20248
2026-01-08 22:07:47.19	31.78	5.38	-40.8	-56.0	3.8	1.49e+00	0	51	104	0	53	20337
2026-01-08 22:07:48.20	31.88	5.44	-40.8	-56.0	3.8	1.49e+00	0	51	104	0	53	20330
2026-01-08 22:07:49.21	31.97	5.49	-40.8	-56.0	3.8	1.49e+00	0	51	104	0	53	20352
2026-01-08 22:07:50.22	32.07	5.55	-40.8	-56.0	3.8	1.49e+00	0	51	104	0	53	20349
2026-01-08 22:07:51.23	32.17	5.61	-40.8	-56.0	3.8	1.49e+00	0	51	104	0	53	20369
2026-01-08 22:07:52.24	32.27	5.66	-40.8	-56.0	3.8	1.49e+00	0	51	104	0	53	20326
2026-01-08 22:07:53.25	32.37	5.72	-40.8	-55.9	3.8	1.49e+00	0	51	104	0	53	20297
2026-01-08 22:07:54.26	32.47	5.78	-40.8	-55.9	3.8	1.49e+00	0	51	104	0	53	20281
2026-01-08 22:07:55.27	32.57	5.84	-40.8	-56.0	3.8	1.49e+00	0	51	104	0	53	20316
2026-01-08 22:07:56.28	32.66	5.89	-40.8	-55.9	3.8	1.49e+00	0	51	104	0	53	20271
2026-01-08 22:07:57.29	32.76	5.95	-40.8	-56.0	3.8	1.49e+00	0	51	104	0	53	20355
2026-01-08 22:07:58.30	32.87	6.01	-40.8	-55.9	3.8	1.49e+00	0	51	104	0	53	20291
2026-01-08 22:07:59.31	32.97	6.07	-40.8	-55.9	3.8	1.49e+00	0	51	104	0	53	20257
2026-01-08 22:08:00.32	33.07	6.12	-40.8	-56.0	3.8	1.49e+00	0	51	104	0	53	20306
2026-01-08 22:08:01.33	33.17	6.18	-40.8	-55.9	3.8	1.49e+00	0	51	104	0	53	20273
2026-01-08 22:08:02.34	33.27	6.24	-40.8	-55.9	3.8	1.49e+00	0	51	104	0	53	20278
2026-01-08 22:08:03.35	33.37	6.30	-40.8	-56.0	3.8	1.49e+00	0	51	104	0	53	20335
2026-01-08 22:08:04.36	33.48	6.35	-40.8	-56.0	3.8	1.49e+00	0	52	104	0	53	20317
2026-01-08 22:08:05.37	33.58	6.41	-40.8	-55.9	3.8	1.49e+00	0	51	104	0	53	20196
2026-01-08 22:08:06.38	33.68	6.47	-40.8	-55.9	3.8	1.49e+00	0	51	104	0	53	20107
2026-01-08 22:08:07.39	33.79	6.53	-40.8	-55.9	3.8	1.49e+00	0	52	104	0	53	20097
2026-01-08 22:08:08.40	33.89	6.59	-40.8	-55.9	3.8	1.49e+00	0	51	104	0	53	20152
2026-01-08 22:08:09.41	34.00	6.64	-40.8	-55.9	3.8	1.49e+00	0	52	104	0	53	20240
2026-01-08 22:08:10.42	34.10	6.70	-40.8	-55.9	3.8	1.49e+00	0	52	104	0	53	20109
2026-01-08 22:08:11.43	34.21	6.76	-40.8	-56.0	3.8	1.49e+00	0	52	104	0	53	20324
2026-01-08 22:08:12.44	34.31	6.82	-40.8	-55.9	3.8	1.49e+00	0	52	104	0	53	20241
2026-01-08 22:08:13.45	34.42	6.88	-40.8	-56.0	3.8	1.49e+00	0	52	104	0	53	20316
2026-01-08 22:08:14.46	34.53	6.94	-40.8	-55.9	3.8	1.49e+00	0	52	104	0	53	20088
2026-01-08 22:08:15.47	34.63	6.99	-40.8	-55.9	3.8	1.49e+00	0	52	104	0	53	20239
2026-01-08 22:08:16.48	34.74	7.05	-40.8	-56.0	3.8	1.49e+00	0	52	104	0	53	20319
2026-01-08 22:08:17.49	34.85	7.11	-40.7	-55.8	3.8	1.49e+00	0	52	104	0	53	20039
2026-01-08 22:08:18.51	34.96	7.17	-40.7	-55.9	3.8	1.49e+00	0	52	104	0	53	20289
2026-01-08 22:08:19.52	35.07	7.23	-40.7	-55.8	3.8	1.49e+00	0	52	104	0	53	20012
2026-01-08 22:08:20.53	35.18	7.29	-40.8	-55.9	3.8	1.49e+00	0	52	104	0	53	20126
2026-01-08 22:08:21.54	35.28	7.35	-40.8	-55.7	3.8	1.49e+00	0	52	104	0	53	19750
2026-01-08 22:08:22.55	35.39	7.40	-40.8	-55.8	3.8	1.49e+00	0	52	104	0	53	19853
2026-01-08 22:08:23.56	35.51	7.46	-40.8	-55.6	3.8	1.49e+00	0	52	104	0	53	19521
2026-01-08 22:08:24.57	35.62	7.52	-40.7	-55.3	3.8	1.49e+00	0	52	104	0	53	18878
2026-01-08 22:08:25.58	35.73	7.58	-40.7	-55.4	3.8	1.49e+00	0	52	104	0	53	19004
2026-01-08 22:08:26.59	35.84	7.64	-40.6	-53.8	3.8	1.49e+00	0	52	104	0	53	15904
2026-01-08 22:08:27.60	35.95	7.70	-40.6	-52.6	4.2	1.43e+00	0	52	0	0	53	13770
2026-01-08 22:08:28.61	36.06	7.76	-40.6	-53.1	3.9	1.42e+00	0	52	104	0	53	14543
2026-01-08 22:08:29.62	36.18	7.82	-40.6	-53.0	3.9	1.46e+00	0	52	104	0	53	14426
2026-01-08 22:08:30.63	36.29	7.88	-40.5	-51.8	4.4	1.38e+00	0	52	0	0	53	12598
2026-01-08 22:08:31.64	36.40	7.93	-40.4	-50.5	5.0	8.62e-01	0	52	0	1048576	52	11467
2026-01-08 22:08:32.66	36.52	7.99	-40.3	-49.7	5.4	6.19e-01	0	52	0	3145728	52	10471
2026-01-08 22:08:33.67	36.64	8.05	-40.1	-47.5	7.3	2.47e-01	0	52	0	5242880	52	8159
2026-01-08 22:08:34.68	36.75	8.11	-40.2	-45.4	10.1	3.41e-02	0	52	0	7340032	51	6775
2026-01-08 22:08:35.69	36.87	8.17	-40.0	-47.3	7.7	5.84e-03	0	53	0	9437184	51	8423
2026-01-08 22:08:36.70	36.98	8.23	-40.2	-50.7	4.8	5.01e-01	0	52	0	10485760	51	12491
2026-01-08 22:08:37.71	37.10	8.29	-40.3	-44.6	11.8	4.60e-01	0	53	0	12582912	51	6139
2026-01-08 22:08:38.72	37.22	8.35	-40.4	-45.0	10.9	6.25e-02	0	53	0	14680064	52	6128
2026-01-08 22:08:39.73	37.33	8.41	-40.6	-45.6	10.4	2.84e-03	0	52	0	16777216	52	6505
2026-01-08 22:08:40.73	37.45	8.47	-40.4	-44.9	11.1	2.16e-03	0	53	0	17825792	52	6060
2026-01-08 22:08:41.74	37.57	8.53	-40.3	-44.7	11.6	8.77e-04	0	53	0	19922944	52	5861
2026-01-08 22:08:42.76	37.69	8.59	-40.3	-44.5	11.7	5.48e-04	0	53	0	22020096	52	5757
2026-01-08 22:08:43.77	37.81	8.65	-40.3	-44.6	11.6	4.82e-04	0	53	0	24117248	52	5820
2026-01-08 22:08:44.78	37.93	8.71	-40.4	-44.8	11.5	8.97e-04	0	53	0	26214400	52	5952
2026-01-08 22:08:45.79	38.05	8.77	-40.4	-44.8	11.6	1.13e-03	0	53	0	27262976	52	5925
2026-01-08 22:08:46.80	38.17	8.83	-40.5	-44.9	11.4	5.59e-04	0	53	0	29360128	52	6028
2026-01-08 22:08:47.81	38.29	8.89	-40.4	-44.7	11.7	4.32e-04	0	53	0	31457280	52	5889
2026-01-08 22:08:48.82	38.41	8.95	-40.4	-44.7	11.7	7.17e-04	0	53	0	33554432	52	5891
2026-01-08 22:08:49.82	38.53	9.01	-40.4	-44.7	11.7	5.45e-04	0	53	0	35651584	52	5899
2026-01-08 22:08:50.83	38.66	9.07	-40.4	-44.6	11.8	5.19e-04	0	53	0	36700160	52	5837
2026-01-08 22:08:51.84	38.78	9.13	-40.6	-44.9	11.5	7.04e-04	0	53	0	38797312	52	6049
2026-01-08 22:08:52.85	38.90	9.19	-40.4	-44.6	11.9	3.65e-04	0	53	0	40894464	52	5808
2026-01-08 22:08:53.86	39.03	9.25	-40.6	-44.8	11.6	5.87e-04	0	53	0	42991616	52	5968
2026-01-08 22:08:54.87	39.15	9.31	-40.6	-44.8	11.7	5.68e-04	0	53	0	45088768	52	5951
2026-01-08 22:08:55.88	39.28	9.37	-40.6	-44.8	11.7	6.50e-04	0	53	0	46137344	52	5960
2026-01-08 22:08:56.89	39.40	9.43	-40.7	-44.9	11.6	7.64e-04	0	53	0	48234496	52	6056
2026-01-08 22:08:57.90	39.53	9.49	-40.7	-45.0	11.6	6.51e-04	0	53	0	50331648	52	6102
2026-01-08 22:08:58.91	39.66	9.55	-40.7	-45.0	11.5	6.19e-04	0	53	0	52428800	52	6115
2026-01-08 22:08:59.92	39.78	9.61	-40.7	-44.9	11.8	6.28e-04	0	53	0	54525952	52	5996
2026-01-08 22:09:00.93	39.91	9.67	-40.8	-44.9	11.6	4.82e-04	0	54	0	55574528	52	6036
2026-01-08 22:09:01.94	40.04	9.73	-40.8	-44.9	11.7	4.55e-04	0	53	0	57671680	52	6051
2026-01-08 22:09:02.95	40.17	9.79	-40.8	-44.9	11.8	5.17e-04	0	53	0	59768832	52	5995
2026-01-08 22:09:03.96	40.30	9.85	-40.7	-44.7	12.0	3.08e-04	0	53	0	61865984	52	5914
2026-01-08 22:09:04.97	40.43	9.91	-40.7	-44.7	12.0	3.28e-04	0	53	0	63963136	52	5860
2026-01-08 22:09:05.98	40.56	9.97	-40.7	-44.8	11.9	4.10e-04	0	53	0	65011712	52	5951
2026-01-08 22:09:06.99	40.69	10.03	-40.7	-44.8	12.0	3.97e-04	0	54	0	67108864	52	5933
2026-01-08 22:09:08.00	40.82	10.09	-40.8	-44.8	12.0	3.57e-04	0	53	0	69206016	52	5935
2026-01-08 22:09:09.01	40.95	10.15	-40.8	-44.9	11.9	3.33e-04	0	53	0	71303168	52	5998
2026-01-08 22:09:10.02	41.09	10.21	-40.7	-44.7	12.0	3.09e-04	0	54	0	73400320	52	5922
2026-01-08 22:09:11.03	41.22	10.27	-40.8	-44.9	11.9	4.64e-04	0	54	0	75497472	52	5996
2026-01-08 22:09:12.04	41.35	10.33	-40.6	-44.6	12.2	4.40e-04	0	54	0	76546048	52	5799
2026-01-08 22:09:13.05	41.49	10.39	-40.7	-44.7	12.0	3.90e-04	0	54	0	78643200	52	5909
2026-01-08 22:09:14.06	41.62	10.45	-40.7	-44.6	12.2	2.09e-04	0	54	0	80740352	52	5810
2026-01-08 22:09:15.07	41.76	10.51	-40.7	-44.6	12.1	2.43e-04	0	54	0	82837504	52	5854
2026-01-08 22:09:16.08	41.89	10.57	-40.7	-44.6	12.2	1.88e-04	0	54	0	84934656	52	5818
2026-01-08 22:09:17.09	42.03	10.63	-40.7	-44.6	12.2	1.47e-04	0	54	0	85983232	52	5826
2026-01-08 22:09:18.10	42.16	10.69	-40.6	-44.4	12.4	1.79e-04	0	54	0	88080384	52	5665
2026-01-08 22:09:19.10	42.30	10.75	-40.5	-44.1	12.7	7.55e-05	0	54	0	90177536	52	5527
2026-01-08 22:09:20.11	42.44	10.81	-40.5	-44.2	12.7	8.85e-05	0	54	0	92274688	52	5560
2026-01-08 22:09:21.12	42.58	10.87	-40.4	-44.0	12.9	4.80e-05	0	54	0	94371840	52	5437
2026-01-08 22:09:22.13	42.71	10.93	-40.4	-44.0	12.8	6.40e-05	0	54	0	95420416	52	5435
2026-01-08 22:09:23.14	42.85	10.99	-40.3	-43.9	13.0	3.89e-05	0	54	0	97517568	52	5366
2026-01-08 22:09:24.15	42.99	11.06	-40.4	-44.0	12.9	3.28e-05	0	54	0	99614720	52	5443
2026-01-08 22:09:25.16	43.13	11.12	-40.3	-43.8	13.1	3.12e-05	0	54	0	101711872	52	5321
2026-01-08 22:09:26.17	43.28	11.18	-40.3	-43.8	13.1	3.96e-05	0	54	0	103809024	52	5307
2026-01-08 22:09:27.18	43.42	11.24	-40.4	-43.9	13.0	2.89e-05	0	54	0	104857600	52	5381
2026-01-08 22:09:28.19	43.56	11.30	-40.3	-43.8	13.1	2.97e-05	0	54	0	106954752	52	5338
2026-01-08 22:09:29.19	43.70	11.36	-40.4	-44.0	12.9	3.89e-05	0	54	0	109051904	52	5449
2026-01-08 22:09:30.20	43.84	11.42	-40.4	-43.9	13.0	4.80e-05	0	54	0	111149056	52	5399
2026-01-08 22:09:31.21	43.99	11.48	-40.5	-44.1	12.9	2.74e-05	0	54	0	113246208	52	5502
2026-01-08 22:09:32.22	44.13	11.54	-40.4	-43.9	13.0	6.02e-05	0	54	0	114294784	52	5385
2026-01-08 22:09:33.23	44.28	11.60	-40.6	-44.2	12.7	6.17e-05	0	54	0	116391936	52	5585
2026-01-08 22:09:34.24	44.42	11.66	-40.6	-44.2	12.7	5.72e-05	0	54	0	118489088	52	5586
2026-01-08 22:09:35.25	44.57	11.72	-40.5	-44.2	12.8	5.26e-05	0	54	0	120586240	52	5531
2026-01-08 22:09:36.26	44.72	11.78	-40.6	-44.3	12.7	5.34e-05	0	54	0	122683392	52	5634
2026-01-08 22:09:37.27	44.86	11.84	-40.6	-44.2	12.8	3.66e-05	0	54	0	123731968	52	5576
2026-01-08 22:09:38.27	45.01	11.90	-40.5	-44.1	12.9	4.57e-05	0	54	0	125829120	52	5519
2026-01-08 22:09:39.28	45.16	11.96	-40.4	-44.0	13.0	3.73e-05	0	54	0	127926272	52	5425
2026-01-08 22:09:40.30	45.31	12.02	-40.4	-43.9	13.1	3.28e-05	0	54	0	130023424	52	5363
2026-01-08 22:09:41.30	45.46	12.08	-40.3	-43.8	13.2	2.59e-05	0	54	0	132120576	52	5303
2026-01-08 22:09:42.31	45.61	12.14	-40.3	-43.8	13.2	1.52e-05	0	54	0	133169152	52	5322
2026-01-08 22:09:43.32	45.76	12.20	-40.3	-43.8	13.2	2.05e-05	0	54	0	135266304	52	5292
2026-01-08 22:09:44.34	45.91	12.26	-40.4	-43.8	13.2	1.75e-05	0	54	0	137363456	52	5328
2026-01-08 22:09:45.35	46.07	12.32	-40.3	-43.8	13.3	2.05e-05	0	54	0	139460608	52	5309
2026-01-08 22:09:46.35	46.22	12.38	-40.4	-43.8	13.2	1.83e-05	0	54	0	141557760	52	5336
2026-01-08 22:09:47.36	46.37	12.44	-40.5	-44.1	13.0	1.75e-05	0	54	0	143654912	52	5479
2026-01-08 22:09:48.37	46.52	12.50	-40.4	-43.9	13.1	1.83e-05	0	54	0	144703488	52	5386
2026-01-08 22:09:49.38	46.68	12.56	-40.3	-43.7	13.3	2.74e-05	0	54	0	146800640	52	5279
2026-01-08 22:09:50.39	46.83	12.62	-40.2	-43.6	13.4	1.90e-05	0	54	0	148897792	52	5182
2026-01-08 22:09:51.40	46.99	12.68	-40.2	-43.5	13.5	1.29e-05	0	55	0	150994944	52	5118
2026-01-08 22:09:52.41	47.15	12.74	-40.0	-43.3	13.8	5.30e-06	0	54	0	153092096	52	4996
2026-01-08 22:09:53.42	47.30	12.80	-40.1	-43.3	13.9	3.80e-06	0	54	0	154140672	51	5289
2026-01-08 22:09:54.43	47.46	12.86	-40.0	-43.1	14.0	3.80e-06	0	54	0	156237824	51	5217
2026-01-08 22:09:55.43	47.62	12.92	-39.9	-42.9	14.2	3.80e-06	0	54	0	158334976	51	5092
2026-01-08 22:09:56.44	47.78	12.98	-40.0	-43.2	13.9	2.20e-06	0	54	0	160432128	51	5226
2026-01-08 22:09:57.45	47.94	13.04	-40.0	-43.2	14.0	2.20e-06	0	54	0	162529280	51	5229
2026-01-08 22:09:58.46	48.10	13.10	-40.2	-43.5	13.7	8.30e-06	0	54	0	163577856	51	5407
2026-01-08 22:09:59.47	48.26	13.16	-40.2	-43.5	13.6	4.50e-06	0	55	0	165675008	51	5453
2026-01-08 22:10:00.48	48.42	13.22	-40.2	-43.6	13.6	9.10e-06	0	54	0	167772160	51	5493
2026-01-08 22:10:01.49	48.58	13.28	-40.3	-43.7	13.5	1.52e-05	0	55	0	169869312	51	5531
2026-01-08 22:10:02.50	48.75	13.34	-40.3	-43.7	13.5	1.44e-05	0	55	0	171966464	51	5534
2026-01-08 22:10:03.51	48.91	13.40	-40.3	-43.7	13.5	1.29e-05	0	55	0	173015040	51	5537
2026-01-08 22:10:04.51	49.07	13.46	-40.3	-43.7	13.5	3.80e-06	0	55	0	175112192	51	5545
2026-01-08 22:10:05.52	49.24	13.52	-40.2	-43.5	13.7	8.30e-06	0	55	0	177209344	51	5421
2026-01-08 22:10:06.53	49.40	13.58	-40.0	-43.2	14.0	4.50e-06	0	54	0	179306496	51	5250
2026-01-08 22:10:07.54	49.57	13.63	-39.9	-43.1	14.0	4.50e-06	0	55	0	181403648	51	5213
2026-01-08 22:10:08.55	49.73	13.69	-39.9	-43.1	14.1	0.00e+00	0	55	0	182452224	51	5177
2026-01-08 22:10:09.56	49.90	13.75	-39.9	-43.0	14.1	1.50e-06	0	55	0	184549376	51	5153
2026-01-08 22:10:10.57	50.07	13.81	-39.9	-43.0	14.1	1.50e-06	0	54	0	186646528	51	5149
2026-01-08 22:10:11.58	50.24	13.87	-39.8	-42.9	14.3	1.50e-06	0	54	0	188743680	51	5071
2026-01-08 22:10:12.59	50.41	13.93	-39.9	-43.0	14.2	1.50e-06	0	55	0	190840832	51	5111
2026-01-08 22:10:13.60	50.58	13.99	-39.9	-43.1	14.1	7.00e-07	0	55	0	191889408	51	5176
2026-01-08 22:10:14.61	50.75	14.05	-39.9	-43.0	14.2	2.20e-06	0	55	0	193986560	51	5109
2026-01-08 22:10:15.62	50.92	14.10	-39.8	-42.9	14.3	2.20e-06	0	55	0	196083712	51	5076
2026-01-08 22:10:16.63	51.09	14.16	-39.9	-43.1	14.1	2.20e-06	0	55	0	198180864	51	5163
2026-01-08 22:10:17.64	51.26	14.22	-39.9	-43.0	14.1	1.50e-06	0	55	0	200278016	51	5153
2026-01-08 22:10:18.65	51.44	14.28	-39.9	-43.0	14.1	1.50e-06	0	55	0	201326592	51	5153
2026-01-08 22:10:19.66	51.61	14.34	-40.0	-43.2	14.0	4.50e-06	0	54	0	203423744	51	5232
2026-01-08 22:10:20.67	51.78	14.40	-40.0	-43.2	14.0	7.00e-07	0	55	0	205520896	51	5250
2026-01-08 22:10:21.68	51.96	14.45	-40.1	-43.4	13.8	3.00e-06	0	55	0	207618048	51	5353
2026-01-08 22:10:22.68	52.13	14.51	-40.1	-43.4	13.8	3.80e-06	0	55	0	209715200	51	5374
2026-01-08 22:10:23.69	52.31	14.57	-40.1	-43.4	13.8	3.80e-06	0	55	0	210763776	51	5358
2026-01-08 22:10:24.70	52.49	14.63	-40.0	-43.3	13.9	2.20e-06	0	55	0	212860928	51	5291
2026-01-08 22:10:25.71	52.67	14.68	-40.0	-43.2	14.0	3.00e-06	0	55	0	214958080	51	5269
2026-01-08 22:10:26.72	52.84	14.74	-40.0	-43.1	14.0	2.20e-06	0	55	0	217055232	51	5204
2026-01-08 22:10:27.73	53.02	14.80	-39.9	-43.0	14.2	1.50e-06	0	55	0	219152384	51	5151
2026-01-08 22:10:28.74	53.20	14.85	-39.9	-43.0	14.2	7.00e-07	0	55	0	220200960	51	5122
2026-01-08 22:10:29.75	53.38	14.91	-39.9	-43.0	14.2	1.50e-06	0	55	0	222298112	51	5132
2026-01-08 22:10:30.76	53.56	14.97	-40.1	-43.3	14.0	7.00e-07	0	55	0	224395264	51	5292
2026-01-08 22:10:31.77	53.75	15.02	-40.2	-43.5	13.8	3.00e-06	0	55	0	226492416	51	5416
2026-01-08 22:10:32.78	53.93	15.08	-40.4	-43.8	13.4	1.14e-05	0	55	0	228589568	51	5639
2026-01-08 22:10:33.79	54.11	15.14	-40.4	-43.8	13.4	1.75e-05	0	55	0	229638144	51	5645
2026-01-08 22:10:34.80	54.30	15.19	-40.2	-43.6	13.6	9.90e-06	0	55	0	231735296	51	5490
2026-01-08 22:10:35.81	54.48	15.25	-40.3	-43.8	13.5	1.29e-05	0	55	0	233832448	51	5593
2026-01-08 22:10:36.82	54.67	15.31	-40.4	-43.8	13.4	6.80e-06	0	55	0	235929600	51	5638
2026-01-08 22:10:37.83	54.85	15.36	-40.3	-43.7	13.5	2.36e-05	0	55	0	238026752	51	5554
2026-01-08 22:10:38.84	55.04	15.42	-40.4	-43.9	13.3	1.75e-05	0	55	0	240123904	51	5675
2026-01-08 22:10:39.85	55.23	15.47	-40.5	-44.0	13.2	1.90e-05	0	55	0	241172480	51	5756
2026-01-08 22:10:40.85	55.41	15.53	-40.4	-43.9	13.2	2.51e-05	0	55	0	243269632	51	5709
2026-01-08 22:10:41.86	55.60	15.58	-40.7	-44.3	12.9	3.28e-05	0	55	0	245366784	51	5991
2026-01-08 22:10:42.87	55.79	15.64	-40.7	-44.4	12.8	5.34e-05	0	55	0	247463936	51	6046
2026-01-08 22:10:43.88	55.98	15.69	-40.7	-44.5	12.7	7.01e-05	0	55	0	249561088	52	5725
2026-01-08 22:10:44.89	56.17	15.75	-40.7	-44.5	12.6	1.24e-04	0	55	0	250609664	52	5743
2026-01-08 22:10:45.90	56.36	15.80	-40.7	-44.5	12.6	9.23e-05	0	55	0	252706816	52	5750
2026-01-08 22:10:46.91	56.55	15.86	-40.7	-44.5	12.6	8.77e-05	0	55	0	254803968	52	5747
2026-01-08 22:10:47.92	56.75	15.91	-40.7	-44.5	12.7	9.00e-05	0	55	0	256901120	52	5753
2026-01-08 22:10:48.93	56.94	15.96	-40.7	-44.5	12.6	8.31e-05	0	55	0	258998272	52	5763
2026-01-08 22:10:49.94	57.13	16.02	-40.6	-44.3	12.8	6.94e-05	0	55	0	260046848	52	5610
2026-01-08 22:10:50.95	57.33	16.07	-40.7	-44.4	12.8	7.47e-05	0	55	0	262144000	52	5681
2026-01-08 22:10:51.96	57.52	16.12	-40.6	-44.3	12.9	4.80e-05	0	55	0	264241152	52	5622
2026-01-08 22:10:52.97	57.72	16.18	-40.7	-44.4	12.8	7.24e-05	0	55	0	266338304	52	5685
2026-01-08 22:10:53.98	57.92	16.23	-40.6	-44.3	12.9	4.80e-05	0	55	0	268435456	52	5595
2026-01-08 22:10:54.99	58.11	16.28	-40.5	-44.1	13.1	1.83e-05	0	55	0	269484032	52	5471
2026-01-08 22:10:56.00	58.31	16.34	-40.7	-44.4	12.8	3.96e-05	0	55	0	271581184	52	5686
2026-01-08 22:10:57.01	58.51	16.39	-40.6	-44.4	12.8	6.40e-05	0	55	0	273678336	52	5687
2026-01-08 22:10:58.01	58.71	16.44	-40.7	-44.5	12.7	5.49e-05	0	55	0	275775488	52	5751
2026-01-08 22:10:59.02	58.91	16.49	-40.7	-44.5	12.7	5.26e-05	0	55	0	277872640	52	5769
2026-01-08 22:11:00.03	59.11	16.54	-40.7	-44.5	12.6	1.05e-04	0	55	0	278921216	52	5749
2026-01-08 22:11:01.04	59.31	16.59	-40.8	-44.7	12.5	8.31e-05	0	55	0	281018368	52	5863
2026-01-08 22:11:02.05	59.51	16.65	-40.8	-44.5	12.6	9.53e-05	0	55	0	283115520	52	5787
2026-01-08 22:11:03.06	59.72	16.70	-40.7	-44.4	12.9	4.11e-05	0	55	0	285212672	52	5659
2026-01-08 22:11:04.07	59.92	16.75	-40.7	-44.5	12.8	3.05e-05	0	55	0	287309824	52	5726
2026-01-08 22:11:05.08	60.13	16.80	-40.8	-44.6	12.6	6.40e-05	0	55	0	288358400	52	5802
2026-01-08 22:11:06.09	60.33	16.85	-40.8	-44.5	12.6	6.86e-05	0	55	0	290455552	52	5783
2026-01-08 22:11:07.10	60.54	16.90	-40.9	-44.8	12.4	1.28e-04	0	55	0	292552704	52	5960
2026-01-08 22:11:08.11	60.74	16.95	-41.0	-45.1	12.1	2.21e-04	0	55	0	294649856	52	6149
2026-01-08 22:11:09.12	60.95	17.00	-41.1	-45.2	11.9	2.72e-04	0	55	0	296747008	52	6260
2026-01-08 22:11:10.13	61.16	17.05	-41.0	-45.0	12.1	2.30e-04	0	55	0	297795584	52	6131
2026-01-08 22:11:11.14	61.37	17.10	-40.9	-44.8	12.4	2.79e-04	0	55	0	299892736	52	5986
2026-01-08 22:11:12.15	61.57	17.15	-40.8	-44.7	12.5	1.42e-04	0	56	0	301989888	52	5877
2026-01-08 22:11:13.16	61.78	17.19	-40.8	-44.5	12.7	8.08e-05	0	55	0	304087040	52	5767
2026-01-08 22:11:14.17	61.99	17.24	-40.5	-44.1	13.1	4.57e-05	0	55	0	306184192	52	5501
2026-01-08 22:11:15.18	62.20	17.29	-40.6	-44.2	13.0	2.44e-05	0	55	0	308281344	52	5534
2026-01-08 22:11:16.18	62.41	17.34	-40.7	-44.3	12.9	3.12e-05	0	55	0	309329920	52	5618
2026-01-08 22:11:17.19	62.63	17.38	-40.5	-44.1	13.1	4.73e-05	0	55	0	311427072	52	5481
2026-01-08 22:11:18.20	62.84	17.43	-40.7	-44.3	12.9	4.65e-05	0	55	0	313524224	52	5629
2026-01-08 22:11:19.21	63.05	17.48	-40.6	-44.1	13.1	2.97e-05	0	55	0	315621376	52	5500
2026-01-08 22:11:20.22	63.27	17.53	-40.5	-44.0	13.2	2.59e-05	0	55	0	317718528	52	5424
2026-01-08 22:11:21.23	63.48	17.57	-40.5	-43.9	13.3	1.52e-05	0	55	0	318767104	52	5382
2026-01-08 22:11:22.24	63.70	17.62	-40.3	-43.7	13.5	2.05e-05	0	55	0	320864256	52	5243
2026-01-08 22:11:23.25	63.91	17.66	-40.4	-43.7	13.5	9.10e-06	0	55	0	322961408	52	5257
2026-01-08 22:11:24.26	64.13	17.71	-40.6	-44.1	13.1	1.22e-05	0	56	0	325058560	52	5483
2026-01-08 22:11:25.26	64.35	17.75	-40.7	-44.4	12.8	2.74e-05	0	56	0	327155712	52	5664
2026-01-08 22:11:26.27	64.56	17.80	-40.7	-44.3	13.0	4.80e-05	0	55	0	328204288	52	5602
2026-01-08 22:11:27.28	64.78	17.84	-40.7	-44.3	12.9	3.43e-05	0	56	0	330301440	52	5630
2026-01-08 22:11:28.29	65.00	17.89	-40.5	-43.9	13.2	2.89e-05	0	55	0	332398592	52	5391
2026-01-08 22:11:29.30	65.22	17.93	-40.3	-43.6	13.6	9.90e-06	0	56	0	334495744	52	5188
2026-01-08 22:11:30.31	65.44	17.97	-40.2	-43.4	13.8	3.80e-06	0	56	0	336592896	52	5085
2026-01-08 22:11:31.32	65.66	18.02	-40.0	-43.0	14.3	2.20e-06	0	55	0	337641472	51	5130
2026-01-08 22:11:32.33	65.89	18.06	-40.0	-43.0	14.2	2.20e-06	0	56	0	339738624	51	5143
2026-01-08 22:11:33.34	66.11	18.10	-40.0	-43.1	14.2	1.50e-06	0	55	0	341835776	51	5162
2026-01-08 22:11:34.35	66.33	18.14	-40.3	-43.5	13.8	1.50e-06	0	55	0	343932928	51	5424
2026-01-08 22:11:35.36	66.55	18.19	-40.3	-43.6	13.7	6.10e-06	0	55	0	346030080	51	5476
2026-01-08 22:11:36.37	66.78	18.23	-40.4	-43.7	13.5	1.52e-05	0	55	0	347078656	51	5581
2026-01-08 22:11:37.38	67.00	18.27	-40.5	-43.9	13.4	9.90e-06	0	56	0	349175808	51	5665
2026-01-08 22:11:38.39	67.23	18.31	-40.4	-43.7	13.5	7.60e-06	0	56	0	351272960	51	5553
2026-01-08 22:11:39.40	67.46	18.35	-40.3	-43.6	13.5	1.22e-05	0	55	0	353370112	51	5501
2026-01-08 22:11:40.41	67.68	18.39	-40.3	-43.6	13.6	1.06e-05	0	56	0	355467264	51	5467
2026-01-08 22:11:41.42	67.91	18.43	-40.2	-43.6	13.5	8.30e-06	0	56	0	356515840	51	5468
2026-01-08 22:11:42.42	68.13	18.47	-40.1	-43.3	13.6	5.30e-06	0	55	0	358612992	51	5333
2026-01-08 22:11:43.43	68.36	18.51	-40.1	-43.3	13.6	6.80e-06	0	55	0	360710144	51	5334
2026-01-08 22:11:44.44	68.59	18.54	-39.9	-43.2	13.7	4.50e-06	0	55	0	362807296	51	5226
2026-01-08 22:11:45.45	68.82	18.58	-39.9	-43.2	13.4	1.22e-05	0	56	0	364904448	51	5279
2026-01-08 22:11:46.46	69.05	18.62	-39.9	-43.2	13.5	1.22e-05	0	55	0	365953024	51	5237
2026-01-08 22:11:47.47	69.28	18.66	-39.7	-43.0	13.5	1.44e-05	0	55	0	368050176	51	5123
2026-01-08 22:11:48.48	69.51	18.69	-39.7	-43.1	13.3	1.37e-05	0	56	0	370147328	51	5193
2026-01-08 22:11:49.49	69.75	18.73	-39.9	-43.5	12.8	4.27e-05	0	55	0	372244480	51	5435
2026-01-08 22:11:50.50	69.98	18.77	-39.9	-43.7	12.5	9.68e-05	0	56	0	374341632	51	5547
2026-01-08 22:11:51.51	70.21	18.80	-40.0	-43.9	12.2	1.82e-04	0	56	0	376438784	51	5710
2026-01-08 22:11:52.52	70.44	18.84	-40.2	-44.3	11.7	4.17e-04	0	56	0	377487360	51	5964
2026-01-08 22:11:53.53	70.68	18.87	-40.1	-44.3	11.6	5.77e-04	0	56	0	379584512	51	5989
2026-01-08 22:11:54.54	70.91	18.91	-40.1	-44.4	11.5	7.51e-04	0	56	0	381681664	51	6006
2026-01-08 22:11:55.55	71.15	18.94	-40.0	-44.2	11.7	7.09e-04	0	56	0	383778816	51	5877
2026-01-08 22:11:56.55	71.38	18.97	-39.9	-44.1	11.6	6.90e-04	0	56	0	385875968	51	5846
2026-01-08 22:11:57.57	71.62	19.01	-40.0	-44.5	11.2	1.07e-03	0	55	0	386924544	51	6080
2026-01-08 22:11:58.57	71.85	19.04	-40.1	-44.6	11.1	1.68e-03	0	56	0	389021696	51	6163
2026-01-08 22:11:59.59	72.09	19.07	-40.1	-44.7	11.0	2.09e-03	0	56	0	391118848	51	6270
2026-01-08 22:12:00.58	72.32	19.10	-40.2	-44.7	11.0	2.20e-03	0	56	0	393216000	51	6249
2026-01-08 22:12:01.59	72.56	19.14	-40.1	-44.6	11.1	1.65e-03	0	56	0	394264576	51	6191
2026-01-08 22:12:02.60	72.80	19.17	-40.1	-44.6	11.2	1.24e-03	0	56	0	396361728	51	6147
2026-01-08 22:12:03.60	73.04	19.20	-40.1	-44.5	11.3	1.34e-03	0	56	0	398458880	51	6108
2026-01-08 22:12:04.61	73.28	19.23	-40.2	-44.5	11.3	1.15e-03	0	56	0	400556032	51	6112
2026-01-08 22:12:05.62	73.52	19.26	-40.2	-44.7	11.2	1.52e-03	0	56	0	402653184	51	6215
2026-01-08 22:12:06.63	73.76	19.29	-40.2	-44.6	11.1	1.63e-03	0	56	0	404750336	51	6200
2026-01-08 22:12:07.64	74.00	19.31	-40.1	-44.6	11.2	1.36e-03	0	56	0	405798912	51	6143
2026-01-08 22:12:08.65	74.24	19.34	-39.9	-44.1	11.6	8.15e-04	0	56	0	407896064	51	5837
2026-01-08 22:12:09.66	74.48	19.37	-39.8	-44.0	11.8	5.55e-04	0	56	0	409993216	51	5726
2026-01-08 22:12:10.67	74.72	19.40	-39.8	-43.9	11.8	4.08e-04	0	56	0	412090368	51	5695
2026-01-08 22:12:11.68	74.97	19.42	-39.8	-43.9	11.8	4.26e-04	0	56	0	414187520	51	5690
2026-01-08 22:12:12.69	75.21	19.45	-40.0	-44.3	11.4	8.06e-04	0	56	0	415236096	51	5953
2026-01-08 22:12:13.70	75.45	19.48	-40.1	-44.6	11.1	1.53e-03	0	56	0	417333248	51	6190
2026-01-08 22:12:14.71	75.70	19.50	-40.2	-44.8	11.0	2.17e-03	0	56	0	419430400	51	6331
2026-01-08 22:12:15.72	75.94	19.53	-40.2	-44.7	11.1	1.66e-03	0	56	0	421527552	51	6225
2026-01-08 22:12:16.73	76.18	19.55	-40.3	-44.8	11.0	1.33e-03	0	56	0	423624704	51	6303
2026-01-08 22:12:17.74	76.43	19.58	-40.2	-44.6	11.3	1.24e-03	0	56	0	424673280	51	6141
2026-01-08 22:12:18.75	76.67	19.60	-40.2	-44.7	11.2	1.28e-03	0	56	0	426770432	51	6242
2026-01-08 22:12:19.76	76.92	19.62	-40.3	-44.8	11.1	1.51e-03	0	56	0	428867584	51	6341
2026-01-08 22:12:20.77	77.17	19.64	-40.4	-45.0	11.1	1.89e-03	0	56	0	430964736	51	6421
2026-01-08 22:12:21.78	77.41	19.67	-40.6	-45.2	10.8	2.62e-03	0	56	0	433061888	51	6630
2026-01-08 22:12:22.79	77.66	19.69	-40.6	-45.2	10.9	2.12e-03	0	56	0	434110464	51	6585
2026-01-08 22:12:23.80	77.91	19.71	-40.5	-45.0	11.1	1.67e-03	0	56	0	436207616	51	6458
2026-01-08 22:12:24.81	78.15	19.73	-40.3	-44.6	11.6	9.70e-04	0	56	0	438304768	51	6138
2026-01-08 22:12:25.82	78.40	19.75	-40.4	-44.5	11.7	5.03e-04	0	56	0	440401920	51	6100
2026-01-08 22:12:26.83	78.65	19.77	-40.3	-44.4	11.6	5.39e-04	0	56	0	442499072	51	6055
2026-01-08 22:12:27.84	78.90	19.79	-40.4	-44.6	11.5	8.20e-04	0	56	0	443547648	51	6163
2026-01-08 22:12:28.84	79.14	19.81	-40.3	-44.6	11.4	7.97e-04	0	56	0	445644800	51	6152
2026-01-08 22:12:29.85	79.39	19.82	-40.3	-44.7	11.2	1.01e-03	0	56	0	447741952	51	6226
2026-01-08 22:12:30.86	79.64	19.84	-40.3	-44.7	11.3	1.42e-03	0	56	0	449839104	51	6214
2026-01-08 22:12:31.87	79.89	19.86	-40.3	-44.6	11.4	1.33e-03	0	56	0	451936256	51	6152
2026-01-08 22:12:32.88	80.14	19.87	-40.2	-44.3	11.8	7.80e-04	0	56	0	452984832	51	5932
2026-01-08 22:12:33.89	80.39	19.89	-40.2	-44.2	12.0	4.16e-04	0	56	0	455081984	51	5887
2026-01-08 22:12:34.90	80.64	19.91	-40.3	-44.2	12.0	2.53e-04	0	56	0	457179136	51	5901
2026-01-08 22:12:35.91	80.89	19.92	-40.4	-44.2	12.2	2.15e-04	0	56	0	459276288	51	5881
2026-01-08 22:12:36.92	81.14	19.93	-40.5	-44.4	12.2	2.49e-04	0	56	0	461373440	51	5999
2026-01-08 22:12:37.93	81.39	19.95	-40.7	-44.6	12.0	3.97e-04	0	56	0	462422016	51	6163
2026-01-08 22:12:38.93	81.64	19.96	-40.6	-44.5	12.1	3.33e-04	0	56	0	464519168	52	5751
2026-01-08 22:12:39.94	81.89	19.97	-40.6	-44.5	12.2	2.72e-04	0	56	0	466616320	52	5729
2026-01-08 22:12:40.95	82.15	19.99	-40.7	-44.5	12.1	2.17e-04	0	56	0	468713472	52	5763
2026-01-08 22:12:41.96	82.40	20.00	-40.7	-44.4	12.3	1.81e-04	0	56	0	470810624	52	5721
2026-01-08 22:12:42.97	82.65	20.01	-40.7	-44.4	12.3	2.06e-04	0	56	0	472907776	52	5720
2026-01-08 22:12:43.98	82.90	20.02	-40.7	-44.6	12.2	2.48e-04	0	56	0	473956352	52	5797
2026-01-08 22:12:44.99	83.15	20.03	-40.7	-44.4	12.3	1.77e-04	0	56	0	476053504	52	5712
2026-01-08 22:12:46.00	83.41	20.04	-40.6	-44.3	12.4	1.46e-04	0	56	0	478150656	52	5610
2026-01-08 22:12:47.01	83.66	20.05	-40.3	-43.8	12.8	6.63e-05	0	56	0	480247808	52	5335
2026-01-08 22:12:48.02	83.91	20.06	-40.2	-43.7	12.8	6.33e-05	0	56	0	482344960	52	5263
2026-01-08 22:12:49.03	84.17	20.06	-40.3	-43.9	12.6	5.87e-05	0	56	0	483393536	52	5373
2026-01-08 22:12:50.04	84.42	20.07	-40.3	-44.0	12.4	1.16e-04	0	56	0	485490688	52	5459
2026-01-08 22:12:51.05	84.67	20.08	-40.4	-44.4	11.9	3.75e-04	0	56	0	487587840	52	5670
2026-01-08 22:12:52.06	84.93	20.08	-40.5	-44.7	11.5	5.58e-04	0	56	0	489684992	52	5867
2026-01-08 22:12:53.07	85.18	20.09	-40.5	-44.8	11.3	1.03e-03	0	56	0	491782144	52	5979
2026-01-08 22:12:54.08	85.43	20.09	-40.5	-44.8	11.3	1.18e-03	0	56	0	492830720	52	5940
2026-01-08 22:12:55.09	85.69	20.10	-40.4	-44.7	11.3	1.09e-03	0	56	0	494927872	52	5889
2026-01-08 22:12:56.10	85.94	20.10	-40.4	-44.8	11.3	1.27e-03	0	56	0	497025024	52	5932
2026-01-08 22:12:57.11	86.19	20.11	-40.4	-44.8	11.1	1.44e-03	0	56	0	499122176	52	5977
2026-01-08 22:12:58.12	86.45	20.11	-40.5	-45.2	10.8	2.00e-03	0	56	0	501219328	52	6228
2026-01-08 22:12:59.13	86.70	20.11	-40.6	-45.4	10.5	3.20e-03	0	56	0	502267904	52	6369
2026-01-08 22:13:00.14	86.95	20.11	-40.6	-45.5	10.4	4.11e-03	0	56	0	504365056	52	6433
2026-01-08 22:13:01.15	87.21	20.11	-40.6	-45.4	10.5	4.21e-03	0	56	0	506462208	52	6374
2026-01-08 22:13:02.16	87.46	20.11	-40.5	-45.2	10.8	3.37e-03	0	56	0	508559360	52	6211
2026-01-08 22:13:03.17	87.72	20.11	-40.5	-45.0	10.9	2.39e-03	0	56	0	510656512	52	6128
2026-01-08 22:13:04.17	87.97	20.11	-40.5	-44.9	11.1	1.99e-03	0	56	0	511705088	52	6047
2026-01-08 22:13:05.18	88.22	20.11	-40.6	-44.9	11.2	1.65e-03	0	56	0	513802240	52	6059
2026-01-08 22:13:06.19	88.48	20.11	-40.7	-45.1	11.2	1.56e-03	0	56	0	515899392	52	6166
2026-01-08 22:13:07.20	88.73	20.11	-40.8	-45.1	11.2	1.29e-03	0	56	0	517996544	52	6134
2026-01-08 22:13:08.21	88.98	20.11	-40.6	-44.7	11.7	8.64e-04	0	56	0	520093696	52	5898
2026-01-08 22:13:09.22	89.24	20.10	-40.5	-44.4	12.2	4.32e-04	0	56	0	521142272	52	5705
2026-01-08 22:13:10.23	89.49	20.10	-40.3	-43.9	12.7	1.50e-04	0	56	0	523239424	52	5390
2026-01-08 22:13:11.24	89.75	20.09	-40.3	-43.7	13.1	6.02e-05	0	56	0	525336576	52	5234
2026-01-08 22:13:12.25	90.00	20.09	-40.2	-43.4	13.5	1.75e-05	0	56	0	527433728	52	5090
2026-01-08 22:13:13.26	90.25	20.08	-40.2	-43.3	13.7	1.06e-05	0	56	0	529530880	52	5035
2026-01-08 22:13:14.27	90.51	20.08	-40.2	-43.3	13.8	3.80e-06	0	56	0	530579456	52	5009
2026-01-08 22:13:15.28	90.76	20.07	-40.3	-43.4	13.8	6.10e-06	0	56	0	532676608	52	5055
2026-01-08 22:13:16.29	91.01	20.06	-40.3	-43.5	13.8	3.80e-06	0	56	0	534773760	52	5101
2026-01-08 22:13:17.30	91.27	20.05	-40.4	-43.5	13.7	5.30e-06	0	56	0	536870912	52	5154
2026-01-08 22:13:18.31	91.52	20.05	-40.5	-43.6	13.6	4.50e-06	0	56	0	538968064	52	5218
2026-01-08 22:13:19.32	91.77	20.04	-40.6	-43.8	13.5	4.50e-06	0	56	0	540016640	52	5306
2026-01-08 22:13:20.33	92.02	20.03	-40.6	-43.8	13.5	1.60e-05	0	56	0	542113792	52	5332
2026-01-08 22:13:21.34	92.28	20.02	-40.5	-43.7	13.6	9.10e-06	0	56	0	544210944	52	5263
2026-01-08 22:13:22.35	92.53	20.01	-40.5	-43.6	13.8	4.50e-06	0	56	0	546308096	52	5196
2026-01-08 22:13:23.36	92.78	20.00	-40.4	-43.4	14.0	3.80e-06	0	56	0	548405248	52	5083
2026-01-08 22:13:24.37	93.03	19.99	-40.3	-43.3	14.1	0.00e+00	0	56	0	550502400	52	5009
2026-01-08 22:13:25.38	93.29	19.97	-40.3	-43.2	14.3	3.00e-06	0	56	0	551550976	52	4933
2026-01-08 22:13:26.39	93.54	19.96	-40.3	-43.2	14.2	0.00e+00	0	56	0	553648128	52	4966
2026-01-08 22:13:27.40	93.79	19.95	-40.2	-43.1	14.4	0.00e+00	0	56	0	555745280	52	4892
2026-01-08 22:13:28.41	94.04	19.93	-40.4	-43.5	14.0	3.00e-06	0	56	0	557842432	52	5104
2026-01-08 22:13:29.42	94.29	19.92	-40.3	-43.2	14.2	0.00e+00	0	56	0	559939584	52	4980
2026-01-08 22:13:30.43	94.54	19.90	-40.4	-43.3	14.1	0.00e+00	0	56	0	560988160	52	5036
2026-01-08 22:13:31.44	94.79	19.89	-40.3	-43.2	14.3	1.50e-06	0	56	0	563085312	52	4948
2026-01-08 22:13:32.45	95.04	19.87	-40.3	-43.2	14.2	0.00e+00	0	56	0	565182464	52	4953
2026-01-08 22:13:33.46	95.29	19.86	-40.2	-43.0	14.5	0.00e+00	0	56	0	567279616	52	4834
2026-01-08 22:13:34.47	95.54	19.84	-40.1	-42.9	14.6	0.00e+00	0	56	0	569376768	52	4788
2026-01-08 22:13:35.48	95.79	19.82	-40.0	-42.7	14.7	7.00e-07	0	56	0	570425344	52	4702
2026-01-08 22:13:36.49	96.04	19.80	-40.1	-42.8	14.7	7.00e-07	0	56	0	572522496	51	5028
2026-01-08 22:13:37.50	96.29	19.79	-40.3	-43.1	14.4	7.00e-07	0	56	0	574619648	51	5202
2026-01-08 22:13:38.51	96.54	19.77	-40.4	-43.3	14.3	0.00e+00	0	56	0	576716800	51	5332
2026-01-08 22:13:39.52	96.79	19.75	-40.5	-43.5	14.1	1.50e-06	0	56	0	578813952	51	5434
2026-01-08 22:13:40.53	97.04	19.73	-40.4	-43.3	14.3	5.30e-06	0	56	0	579862528	51	5318
2026-01-08 22:13:41.54	97.28	19.71	-40.4	-43.3	14.3	1.50e-06	0	56	0	581959680	51	5329
2026-01-08 22:13:42.55	97.53	19.68	-40.4	-43.4	14.2	1.50e-06	0	56	0	584056832	51	5383
2026-01-08 22:13:43.56	97.78	19.66	-40.6	-43.6	14.0	3.80e-06	0	56	0	586153984	51	5494
2026-01-08 22:13:44.57	98.03	19.64	-40.7	-43.8	13.7	6.10e-06	0	56	0	588251136	52	5311
2026-01-08 22:13:45.58	98.27	19.62	-40.9	-44.3	13.2	6.10e-06	0	56	0	589299712	52	5610
2026-01-08 22:13:46.58	98.52	19.60	-40.9	-44.3	13.2	2.13e-05	0	56	0	591396864	52	5648
2026-01-08 22:13:47.60	98.76	19.57	-41.0	-44.4	13.1	1.22e-05	0	56	0	593494016	52	5700
2026-01-08 22:13:48.61	99.01	19.55	-40.8	-44.1	13.4	1.67e-05	0	56	0	595591168	52	5492
2026-01-08 22:13:49.62	99.25	19.52	-40.5	-43.6	13.9	7.60e-06	0	56	0	597688320	52	5188
2026-01-08 22:13:50.63	99.50	19.50	-40.3	-43.2	14.3	2.20e-06	0	56	0	598736896	52	4982
2026-01-08 22:13:51.64	99.74	19.47	-40.1	-42.8	14.6	1.50e-06	0	56	0	600834048	52	4756
2026-01-08 22:13:52.65	99.99	19.45	-40.1	-42.8	14.9	7.00e-07	0	56	0	602931200	51	4995
2026-01-08 22:13:53.65	100.23	19.42	-40.2	-43.0	14.6	0.00e+00	0	56	0	605028352	51	5140
2026-01-08 22:13:54.66	100.47	19.39	-40.2	-43.0	14.5	0.00e+00	0	56	0	607125504	51	5157
2026-01-08 22:13:55.67	100.71	19.37	-40.3	-43.2	14.4	0.00e+00	0	56	0	608174080	51	5240
2026-01-08 22:13:56.68	100.96	19.34	-40.3	-43.1	14.5	7.00e-07	0	56	0	610271232	51	5204
2026-01-08 22:13:57.69	101.20	19.31	-40.1	-42.9	14.7	7.00e-07	0	56	0	612368384	51	5092
2026-01-08 22:13:58.70	101.44	19.28	-39.8	-42.6	15.0	0.00e+00	0	56	0	614465536	51	4887
2026-01-08 22:13:59.70	101.68	19.25	-40.0	-42.7	14.9	0.00e+00	0	56	0	616562688	51	4952
2026-01-08 22:14:00.71	101.92	19.22	-40.0	-42.9	14.7	0.00e+00	0	56	0	618659840	50	5363
2026-01-08 22:14:01.71	102.15	19.19	-40.2	-43.0	14.7	2.20e-06	0	56	0	619708416	50	5422
2026-01-08 22:14:02.72	102.39	19.16	-40.1	-42.9	14.7	1.50e-06	0	56	0	621805568	51	5093
2026-01-08 22:14:03.74	102.64	19.13	-40.1	-43.0	14.6	2.20e-06	0	56	0	623902720	51	5119
2026-01-08 22:14:04.75	102.87	19.10	-40.0	-42.9	14.7	0.00e+00	0	56	0	625999872	51	5068
2026-01-08 22:14:05.75	103.11	19.07	-40.1	-42.8	14.8	0.00e+00	0	56	0	628097024	51	5008
2026-01-08 22:14:06.76	103.35	19.03	-39.9	-42.6	15.0	0.00e+00	0	56	0	629145600	51	4905
2026-01-08 22:14:07.77	103.58	19.00	-39.9	-42.5	15.1	0.00e+00	0	57	0	631242752	51	4826
2026-01-08 22:14:08.78	103.82	18.97	-39.8	-42.4	15.2	0.00e+00	0	56	0	633339904	51	4778
2026-01-08 22:14:09.79	104.06	18.93	-39.9	-42.5	15.2	0.00e+00	0	57	0	635437056	51	4827
2026-01-08 22:14:10.80	104.29	18.90	-39.8	-42.3	15.2	0.00e+00	0	56	0	637534208	51	4754
2026-01-08 22:14:11.81	104.53	18.86	-39.9	-42.4	15.2	0.00e+00	0	56	0	638582784	51	4812
2026-01-08 22:14:12.82	104.76	18.83	-39.9	-42.6	15.0	0.00e+00	0	56	0	640679936	51	4877
2026-01-08 22:14:13.83	105.00	18.79	-39.9	-42.6	15.1	0.00e+00	0	56	0	642777088	51	4885
2026-01-08 22:14:14.83	105.23	18.76	-40.0	-42.6	15.0	0.00e+00	0	56	0	644874240	51	4914
2026-01-08 22:14:15.84	105.46	18.72	-40.0	-42.6	15.0	0.00e+00	0	56	0	646971392	51	4912
2026-01-08 22:14:16.85	105.69	18.68	-40.0	-42.7	14.9	0.00e+00	0	56	0	648019968	51	4981
2026-01-08 22:14:17.86	105.92	18.65	-40.1	-42.8	14.9	0.00e+00	0	56	0	650117120	51	4989
2026-01-08 22:14:18.87	106.16	18.61	-40.1	-42.8	14.8	0.00e+00	0	57	0	652214272	51	5037
2026-01-08 22:14:19.88	106.39	18.57	-40.3	-43.1	14.5	0.00e+00	0	56	0	654311424	51	5162
2026-01-08 22:14:20.89	106.62	18.53	-40.4	-43.2	14.3	0.00e+00	0	57	0	656408576	51	5270
2026-01-08 22:14:21.90	106.85	18.50	-40.5	-43.5	14.1	7.00e-07	0	56	0	657457152	51	5454
2026-01-08 22:14:22.91	107.08	18.46	-40.4	-43.3	14.3	2.20e-06	0	56	0	659554304	51	5315
2026-01-08 22:14:23.92	107.30	18.42	-40.3	-43.2	14.4	7.00e-07	0	56	0	661651456	51	5274
2026-01-08 22:14:24.93	107.53	18.38	-40.3	-43.3	14.4	0.00e+00	0	56	0	663748608	51	5281
2026-01-08 22:14:25.94	107.76	18.34	-40.3	-43.2	14.4	0.00e+00	0	56	0	665845760	51	5252
2026-01-08 22:14:26.95	107.99	18.30	-40.3	-43.2	14.5	0.00e+00	0	56	0	666894336	51	5234
2026-01-08 22:14:27.96	108.21	18.25	-40.3	-43.2	14.4	0.00e+00	0	56	0	668991488	51	5275
2026-01-08 22:14:28.96	108.44	18.21	-40.4	-43.3	14.4	3.00e-06	0	56	0	671088640	51	5300
2026-01-08 22:14:29.97	108.66	18.17	-40.3	-43.2	14.4	7.00e-07	0	56	0	673185792	51	5259
2026-01-08 22:14:30.98	108.88	18.13	-40.4	-43.3	14.4	7.00e-07	0	56	0	675282944	51	5286
2026-01-08 22:14:31.99	109.11	18.09	-40.5	-43.5	14.1	0.00e+00	0	56	0	676331520	51	5403
2026-01-08 22:14:33.00	109.33	18.05	-40.5	-43.6	14.0	1.50e-06	0	56	0	678428672	51	5466
2026-01-08 22:14:34.01	109.55	18.00	-40.7	-43.8	13.7	3.00e-06	0	56	0	680525824	52	5306
2026-01-08 22:14:35.02	109.78	17.96	-40.8	-44.1	13.4	1.29e-05	0	57	0	682622976	52	5527
2026-01-08 22:14:36.03	110.00	17.91	-40.8	-44.0	13.4	8.30e-06	0	56	0	684720128	52	5455
2026-01-08 22:14:37.04	110.22	17.87	-40.6	-43.8	13.7	9.90e-06	0	57	0	685768704	52	5306
2026-01-08 22:14:38.05	110.44	17.83	-40.6	-43.6	13.9	6.10e-06	0	56	0	687865856	52	5216
2026-01-08 22:14:39.06	110.66	17.78	-40.6	-43.7	13.8	6.10e-06	0	56	0	689963008	52	5244
2026-01-08 22:14:40.07	110.88	17.74	-40.7	-43.8	13.7	6.10e-06	0	56	0	692060160	52	5330
2026-01-08 22:14:41.08	111.09	17.69	-40.8	-44.0	13.5	1.06e-05	0	57	0	694157312	52	5440
2026-01-08 22:14:42.08	111.31	17.65	-41.0	-44.3	13.1	2.13e-05	0	56	0	695205888	52	5639
2026-01-08 22:14:43.09	111.53	17.60	-40.9	-44.3	13.1	2.05e-05	0	56	0	697303040	52	5648
2026-01-08 22:14:44.10	111.74	17.55	-40.8	-44.1	13.3	1.98e-05	0	56	0	699400192	52	5524
2026-01-08 22:14:45.11	111.96	17.51	-40.6	-43.7	13.7	8.30e-06	0	56	0	701497344	52	5253
2026-01-08 22:14:46.12	112.17	17.46	-40.6	-43.6	13.9	1.14e-05	0	56	0	703594496	52	5203
2026-01-08 22:14:47.13	112.39	17.41	-40.7	-43.9	13.6	9.90e-06	0	57	0	704643072	52	5377
2026-01-08 22:14:48.14	112.60	17.37	-40.8	-44.0	13.5	8.30e-06	0	56	0	706740224	52	5425
2026-01-08 22:14:49.15	112.81	17.32	-40.9	-44.3	13.3	1.67e-05	0	56	0	708837376	52	5600
2026-01-08 22:14:50.16	113.03	17.27	-41.1	-44.6	12.9	2.21e-05	0	56	0	710934528	52	5823
2026-01-08 22:14:51.17	113.24	17.22	-41.2	-44.8	12.7	7.09e-05	0	57	0	713031680	52	5965
2026-01-08 22:14:52.18	113.45	17.17	-41.2	-44.7	12.8	7.32e-05	0	56	0	715128832	53	5566
2026-01-08 22:14:53.19	113.66	17.12	-41.2	-44.9	12.5	8.01e-05	0	56	0	716177408	53	5664
2026-01-08 22:14:54.20	113.87	17.07	-41.1	-44.6	12.9	6.48e-05	0	56	0	718274560	53	5497
2026-01-08 22:14:55.21	114.08	17.02	-40.8	-44.2	13.2	3.96e-05	0	56	0	720371712	53	5245
2026-01-08 22:14:56.21	114.28	16.98	-40.9	-44.2	13.3	3.35e-05	0	56	0	722468864	53	5270
2026-01-08 22:14:57.22	114.49	16.93	-40.7	-44.0	13.5	6.80e-06	0	57	0	724566016	53	5117
2026-01-08 22:14:58.23	114.70	16.88	-40.8	-44.1	13.4	1.67e-05	0	56	0	725614592	53	5206
2026-01-08 22:14:59.24	114.91	16.82	-41.0	-44.4	13.1	4.65e-05	0	56	0	727711744	52	5714
2026-01-08 22:15:00.25	115.11	16.77	-40.9	-44.4	13.1	3.73e-05	0	56	0	729808896	52	5695
2026-01-08 22:15:01.26	115.32	16.72	-40.8	-44.4	13.0	1.06e-04	0	56	0	731906048	52	5694
2026-01-08 22:15:02.27	115.52	16.67	-40.7	-44.3	13.1	3.96e-05	0	56	0	734003200	52	5602
2026-01-08 22:15:03.28	115.72	16.62	-40.8	-44.1	13.3	4.19e-05	0	56	0	735051776	52	5507
2026-01-08 22:15:04.29	115.93	16.57	-40.8	-44.2	13.2	3.50e-05	0	57	0	737148928	52	5575
2026-01-08 22:15:05.30	116.13	16.52	-40.7	-44.0	13.4	6.17e-05	0	56	0	739246080	52	5452
2026-01-08 22:15:06.31	116.33	16.46	-40.7	-44.2	12.5	1.22e-04	0	56	0	741343232	51	5907
2026-01-08 22:15:07.32	116.53	16.41	-40.9	-44.3	13.1	9.30e-05	0	56	0	743440384	52	5617
2026-01-08 22:15:08.33	116.73	16.36	-40.1	-44.8	12.5	1.75e-04	0	57	0	744488960	52	5978
2026-01-08 22:15:09.34	116.93	16.31	-41.2	-45.1	12.3	4.36e-04	0	56	0	746586112	52	6135
2026-01-08 22:15:10.35	117.13	16.25	-41.3	-45.3	12.1	4.00e-04	0	56	0	748683264	53	5930
2026-01-08 22:15:11.36	117.33	16.20	-41.3	-45.3	12.0	7.84e-04	0	57	0	750780416	53	5958
2026-01-08 22:15:12.37	117.53	16.15	-41.2	-45.1	12.2	5.54e-04	0	56	0	752877568	53	5803
2026-01-08 22:15:13.38	117.72	16.09	-41.1	-44.8	12.5	1.85e-04	0	56	0	753926144	53	5633
2026-01-08 22:15:14.39	117.92	16.04	-41.0	-44.7	12.6	1.63e-04	0	56	0	756023296	52	5882
2026-01-08 22:15:15.40	118.11	15.99	-41.0	-44.7	12.6	2.26e-04	0	57	0	758120448	52	5874
2026-01-08 22:15:16.41	118.31	15.93	-41.0	-44.6	12.7	7.32e-05	0	57	0	760217600	52	5808
2026-01-08 22:15:17.42	118.50	15.88	-40.8	-44.4	13.0	1.83e-04	0	57	0	762314752	52	5713
2026-01-08 22:15:18.42	118.69	15.82	-40.9	-44.4	12.8	9.00e-05	0	57	0	763363328	52	5690
2026-01-08 22:15:19.43	118.89	15.77	-40.9	-44.3	12.9	5.66e-04	0	56	0	765460480	52	5624
2026-01-08 22:15:20.44	119.08	15.71	-40.9	-44.4	12.7	4.61e-04	0	56	0	767557632	51	6048
2026-01-08 22:15:21.45	119.27	15.66	-39.8	-43.9	13.4	6.75e-04	0	56	0	769654784	51	5673
2026-01-08 22:15:22.46	119.46	15.60	-40.5	-43.8	13.5	1.01e-04	0	56	0	771751936	51	5647
2026-01-08 22:15:23.47	119.65	15.55	-40.3	-43.7	13.7	1.60e-04	0	56	0	772800512	51	5532
2026-01-08 22:15:24.48	119.84	15.49	-39.1	-43.6	12.9	1.91e-04	0	56	0	774897664	49	6161
2026-01-08 22:15:25.49	120.03	15.44	-40.6	-43.9	13.4	1.01e-03	0	57	0	776994816	51	5711
2026-01-08 22:15:26.50	120.22	15.38	-37.5	-43.4	12.9	2.30e-03	0	56	0	779091968	48	6364
2026-01-08 22:15:27.51	120.40	15.32	-38.8	-44.0	12.9	8.47e-03	0	57	0	781189120	50	6122
2026-01-08 22:15:28.52	120.59	15.27	-39.1	-44.3	12.1	3.09e-03	0	56	0	783286272	50	6284
2026-01-08 22:15:29.53	120.78	15.21	-38.1	-44.0	12.5	8.31e-03	0	56	0	784334848	49	6433
2026-01-08 22:15:30.54	120.96	15.15	-34.4	-44.0	12.0	1.21e-02	0	56	0	786432000	46	7698
2026-01-08 22:15:31.55	121.15	15.10	-35.6	-43.8	11.8	8.55e-03	0	56	0	788529152	43	8909
2026-01-08 22:15:32.56	121.33	15.04	-37.0	-44.3	11.9	1.53e-02	0	57	0	790626304	44	8961
2026-01-08 22:15:33.57	121.51	14.98	-34.2	-43.8	11.5	2.32e-02	0	56	0	792723456	40	10623
2026-01-08 22:15:34.58	121.70	14.93	-37.7	-44.1	9.4	1.82e-02	0	57	0	793772032	43	9191
2026-01-08 22:15:35.59	121.88	14.87	-32.4	-44.3	10.1	3.18e-02	0	56	0	795869184	38	12630
2026-01-08 22:15:36.59	122.06	14.81	-31.9	-44.1	10.4	4.53e-02	0	57	0	797966336	38	12362
2026-01-08 22:15:37.60	122.24	14.75	-40.1	-44.8	11.1	6.77e-02	0	57	0	800063488	48	7504
2026-01-08 22:15:38.61	122.42	14.70	-39.8	-44.6	11.3	4.22e-02	0	56	0	802160640	47	7770
2026-01-08 22:15:39.62	122.60	14.64	-39.8	-44.5	12.4	3.66e-02	0	56	0	803209216	50	6447
2026-01-08 22:15:40.63	122.77	14.58	-38.5	-44.2	11.5	1.50e-02	0	56	0	805306368	45	8359
2026-01-08 22:15:41.64	122.95	14.52	-39.8	-44.5	9.9	2.72e-02	0	56	0	807403520	45	8563
2026-01-08 22:15:42.65	123.13	14.47	-39.1	-44.4	12.5	2.18e-02	0	56	0	809500672	50	6351
2026-01-08 22:15:43.66	123.31	14.41	-32.2	-44.1	11.0	7.89e-03	0	57	0	811597824	46	7721
2026-01-08 22:15:44.67	123.48	14.35	-39.1	-44.3	12.4	7.01e-03	0	56	0	812646400	49	6701
2026-01-08 22:15:45.68	123.66	14.29	-40.0	-44.4	12.4	1.32e-02	0	57	0	814743552	50	6393
2026-01-08 22:15:46.69	123.83	14.23	-39.9	-44.5	12.5	6.32e-03	0	57	0	816840704	51	6124
2026-01-08 22:15:47.70	124.00	14.17	-40.2	-44.3	12.5	9.20e-03	0	57	0	818937856	51	5951
2026-01-08 22:15:48.71	124.18	14.11	-34.6	-43.7	9.8	1.09e-02	0	56	0	821035008	40	10462
2026-01-08 22:15:49.72	124.35	14.06	-40.2	-43.7	13.3	3.03e-02	0	57	0	822083584	51	5583
2026-01-08 22:15:50.73	124.52	14.00	-39.8	-43.4	13.5	1.50e-03	0	57	0	824180736	50	5661
2026-01-08 22:15:51.74	124.69	13.94	-40.0	-43.2	14.0	1.74e-03	0	56	0	826277888	50	5572
2026-01-08 22:15:52.75	124.86	13.88	-39.2	-43.1	13.7	1.17e-03	0	57	0	828375040	49	5803
2026-01-08 22:15:53.76	125.03	13.82	-39.7	-43.4	13.6	6.72e-03	0	57	0	830472192	50	5667
2026-01-08 22:15:54.77	125.20	13.76	-40.3	-43.8	12.7	3.08e-02	0	56	0	831520768	51	5652
2026-01-08 22:15:55.78	125.37	13.70	-40.4	-44.0	12.9	4.39e-03	0	57	0	833617920	51	5762
2026-01-08 22:15:56.79	125.54	13.64	-39.8	-44.4	12.2	5.66e-03	0	56	0	835715072	51	5998
2026-01-08 22:15:57.80	125.71	13.58	-40.8	-44.8	12.0	1.95e-02	0	56	0	837812224	52	5947
2026-01-08 22:15:58.81	125.87	13.52	-39.7	-44.8	11.3	2.45e-02	0	57	0	839909376	50	6665
2026-01-08 22:15:59.82	126.04	13.46	-39.8	-44.5	11.2	9.04e-02	0	56	0	840957952	47	7644
2026-01-08 22:16:00.82	126.20	13.40	-39.1	-44.2	9.7	3.49e-02	0	56	0	843055104	47	7375
2026-01-08 22:16:01.83	126.37	13.34	-35.7	-43.5	9.8	2.38e-01	0	56	0	845152256	48	6441
2026-01-08 22:16:02.84	126.53	13.28	-38.9	-43.5	11.7	6.23e-02	0	57	0	847249408	49	6128
2026-01-08 22:16:03.85	126.69	13.22	-27.7	-40.1	11.0	7.93e-01	0	57	104	848297984	46	4887
2026-01-08 22:16:04.86	126.86	13.16	-37.8	-42.6	11.7	1.38e-01	0	57	0	849346560	46	6527
2026-01-08 22:16:05.87	127.02	13.10	-37.5	-42.2	11.2	1.20e-01	0	56	0	851443712	45	6604
2026-01-08 22:16:06.88	127.18	13.04	-37.1	-42.7	10.2	1.99e-01	0	56	0	853540864	45	7024
2026-01-08 22:16:07.89	127.34	12.98	-34.4	-42.6	10.5	1.86e-01	0	57	0	854589440	44	7297
2026-01-08 22:16:08.90	127.50	12.92	-36.4	-42.3	9.4	2.53e-01	0	57	0	856686592	41	8397
2026-01-08 22:16:09.91	127.66	12.86	-26.1	-39.1	7.7	3.15e-01	0	57	0	858783744	34	8710
2026-01-08 22:16:10.92	127.82	12.80	-34.6	-42.2	8.4	3.33e-01	0	57	0	860880896	36	11031
2026-01-08 22:16:11.93	127.98	12.74	-32.6	-41.7	8.1	4.51e-01	0	56	0	861929472	35	11054
2026-01-08 22:16:12.94	128.13	12.68	-20.0	-34.4	4.1	1.36e+00	0	57	104	861929472	20	11414
2026-01-08 22:16:13.95	128.29	12.62	-19.9	-34.0	4.4	1.34e+00	0	56	104	861929472	24	8656
2026-01-08 22:16:14.95	128.44	12.56	-31.1	-41.3	5.7	1.21e+00	0	56	104	861929472	33	11875
2026-01-08 22:16:15.96	128.60	12.50	-29.7	-40.9	5.5	1.25e+00	0	56	104	861929472	31	12722
2026-01-08 22:16:16.97	128.76	12.44	-24.5	-38.2	4.9	1.23e+00	0	57	104	861929472	23	14807
2026-01-08 22:16:17.98	128.91	12.38	-26.1	-40.4	5.6	1.27e+00	0	56	104	861929472	25	16891
2026-01-08 22:16:18.99	129.06	12.32	-28.5	-40.4	5.4	1.27e+00	0	56	104	861929472	27	15126
2026-01-08 22:16:20.00	129.22	12.26	-25.6	-39.2	5.2	1.26e+00	0	57	104	861929472	23	16629
2026-01-08 22:16:21.01	129.37	12.19	-22.1	-37.0	4.2	1.41e+00	0	57	104	861929472	16	19280
2026-01-08 22:16:22.02	129.52	12.13	-29.0	-42.0	5.5	1.42e+00	0	57	104	861929472	27	18120
2026-01-08 22:16:23.03	129.67	12.07	-28.0	-40.3	5.4	1.30e+00	0	57	104	861929472	23	18937
2026-01-08 22:16:24.04	129.82	12.01	-25.6	-41.0	5.4	1.32e+00	0	57	104	861929472	22	21618
2026-01-08 22:16:25.05	129.97	11.95	-26.4	-40.4	5.4	1.30e+00	0	57	104	861929472	25	17036
2026-01-08 22:16:26.06	130.12	11.89	-25.4	-40.5	5.2	1.35e+00	0	57	104	861929472	23	19284
2026-01-08 22:16:27.07	130.27	11.83	-22.3	-38.2	4.8	1.35e+00	0	57	104	861929472	21	16635
2026-01-08 22:16:28.08	130.42	11.77	-27.0	-40.7	5.1	1.38e+00	0	57	104	861929472	21	22029
2026-01-08 22:16:29.08	130.57	11.71	-19.5	-34.7	3.8	1.45e+00	0	57	104	861929472	15	15598
2026-01-08 22:16:30.09	130.71	11.65	-23.0	-36.5	4.7	1.46e+00	0	57	104	861929472	18	16154
2026-01-08 22:16:31.11	130.86	11.59	-21.0	-33.4	4.5	1.43e+00	0	57	104	861929472	17	11972
2026-01-08 22:16:32.12	131.01	11.52	-23.9	-37.3	4.5	1.44e+00	0	57	104	861929472	17	18895
2026-01-08 22:16:33.13	131.15	11.46	-21.7	-35.1	3.9	1.46e+00	0	57	104	861929472	15	16451
2026-01-08 22:16:34.14	131.30	11.40	-20.2	-34.6	4.1	1.45e+00	0	57	104	861929472	12	18416
2026-01-08 22:16:35.15	131.44	11.34	-24.7	-36.8	4.6	1.46e+00	0	56	104	861929472	19	15935
2026-01-08 22:16:36.16	131.59	11.28	-22.3	-37.1	4.8	1.33e+00	0	57	104	861929472	19	16338
2026-01-08 22:16:37.17	131.73	11.22	-27.1	-38.5	5.3	1.33e+00	0	56	104	861929472	23	15349
2026-01-08 22:16:38.18	131.87	11.16	-22.5	-35.5	4.4	1.38e+00	0	57	104	861929472	18	14422
2026-01-08 22:16:39.18	132.01	11.10	-23.2	-38.2	5.0	1.35e+00	0	56	104	861929472	19	18560
2026-01-08 22:16:40.19	132.15	11.04	-21.8	-36.2	4.8	1.35e+00	0	57	104	861929472	21	13187
2026-01-08 22:16:41.21	132.29	10.97	-24.8	-39.0	5.0	1.36e+00	0	56	104	861929472	22	17190
2026-01-08 22:16:42.21	132.43	10.91	-25.3	-38.3	5.0	1.37e+00	0	56	104	861929472	19	18869
2026-01-08 22:16:43.23	132.57	10.85	-22.9	-35.6	4.0	1.42e+00	0	57	104	861929472	15	17425
2026-01-08 22:16:44.23	132.71	10.79	-24.4	-38.4	4.8	1.46e+00	0	57	104	861929472	18	20229
2026-01-08 22:16:45.24	132.85	10.73	-23.1	-35.4	4.0	1.48e+00	0	57	104	861929472	14	18082
2026-01-08 22:16:46.25	132.99	10.67	-26.2	-37.8	3.8	1.49e+00	0	57	104	861929472	11	28101
2026-01-08 22:16:47.26	133.13	10.61	-22.0	-35.6	4.0	1.50e+00	0	57	104	861929472	15	17338
2026-01-08 22:16:48.27	133.26	10.55	-20.1	-36.9	3.8	1.51e+00	0	57	104	861929472	11	25394
2026-01-08 22:16:49.28	133.40	10.49	-17.9	-37.0	4.2	1.51e+00	0	57	104	861929472	16	19323
2026-01-08 22:16:50.29	133.54	10.43	-28.2	-41.2	3.6	1.50e+00	0	57	104	861929472	10	43921
2026-01-08 22:16:51.30	133.67	10.36	-29.6	-43.9	4.0	1.51e+00	0	56	104	861929472	24	26888
2026-01-08 22:16:52.31	133.80	10.30	-23.5	-39.2	4.0	1.51e+00	0	57	104	861929472	22	17625
2026-01-08 22:16:53.32	133.94	10.24	-23.2	-38.2	3.3	1.51e+00	0	57	104	861929472	15	23445
2026-01-08 22:16:54.33	134.07	10.18	-21.7	-34.6	3.8	1.50e+00	0	57	104	861929472	13	17344
2026-01-08 22:16:55.34	134.21	10.12	-23.1	-39.9	3.6	1.51e+00	0	57	0	861929472	20	21481
2026-01-08 22:16:56.35	134.34	10.06	-23.3	-38.5	3.5	1.51e+00	0	57	104	861929472	16	22816
2026-01-08 22:16:57.36	134.47	10.00	-21.1	-36.8	3.7	1.51e+00	0	57	104	861929472	15	19950
2026-01-08 22:16:58.37	134.60	9.94	-22.2	-39.2	3.7	1.51e+00	0	57	104	861929472	20	19732
2026-01-08 22:16:59.38	134.73	9.88	-29.2	-49.3	4.1	1.50e+00	0	57	104	861929472	40	19848
2026-01-08 22:17:00.39	134.86	9.82	-16.8	-36.5	3.7	1.51e+00	0	57	104	861929472	14	20338
2026-01-08 22:17:01.40	134.99	9.75	-28.6	-43.9	4.0	1.51e+00	0	57	104	861929472	27	22772
2026-01-08 22:17:02.41	135.12	9.69	-24.9	-41.2	3.5	1.51e+00	0	57	104	861929472	12	39319
2026-01-08 22:17:03.42	135.25	9.63	-20.7	-39.2	4.5	1.51e+00	0	57	104	861929472	11	33241
2026-01-08 22:17:04.43	135.38	9.57	-17.3	-36.3	4.3	1.51e+00	0	57	104	861929472	8	28059
2026-01-08 22:17:05.44	135.51	9.51	-21.6	-37.9	5.2	1.51e+00	0	57	104	861929472	4	42533
2026-01-08 22:17:06.46	135.64	9.45	-31.0	-48.6	3.8	1.51e+00	0	57	104	861929472	34	26071
2026-01-08 22:17:07.47	135.76	9.39	-40.5	-53.7	3.6	1.50e+00	0	56	104	861929472	43	27932
2026-01-08 22:17:08.47	135.89	9.33	-26.4	-41.2	4.3	1.51e+00	0	57	104	861929472	26	17628
2026-01-08 22:17:09.48	136.01	9.27	-37.8	-53.7	4.3	1.50e+00	0	57	104	861929472	46	23372
2026-01-08 22:17:10.50	136.14	9.21	-28.0	-45.5	4.1	1.51e+00	0	57	104	861929472	28	25841
2026-01-08 22:17:11.50	136.26	9.15	-29.9	-45.1	3.5	1.51e+00	0	57	104	861929472	29	23311
2026-01-08 22:17:12.51	136.39	9.09	-30.2	-48.5	3.8	1.51e+00	0	57	104	861929472	26	40941
2026-01-08 22:17:13.52	136.51	9.03	-31.1	-47.7	4.4	1.51e+00	0	57	104	861929472	32	26245
2026-01-08 22:17:14.53	136.63	8.97	-40.3	-56.1	3.8	1.50e+00	0	57	104	861929472	51	23095
2026-01-08 22:17:15.54	136.76	8.90	-40.7	-55.3	3.9	1.49e+00	0	57	104	861929472	51	21166
2026-01-08 22:17:16.55	136.88	8.84	-37.9	-53.4	3.9	1.50e+00	0	57	104	861929472	49	19003
2026-01-08 22:17:17.56	137.00	8.78	-39.6	-55.3	4.0	1.50e+00	0	57	104	861929472	51	21230
2026-01-08 22:17:18.57	137.12	8.72	-40.9	-54.8	3.9	1.50e+00	0	57	104	861929472	51	19970
2026-01-08 22:17:19.58	137.24	8.66	-39.4	-55.7	3.8	1.50e+00	0	57	104	861929472	50	23487
2026-01-08 22:17:20.59	137.36	8.60	-39.7	-55.6	4.0	1.49e+00	0	57	104	861929472	52	20603
2026-01-08 22:17:21.61	137.48	8.54	-40.8	-55.8	3.9	1.49e+00	0	57	104	861929472	52	21054
2026-01-08 22:17:22.61	137.60	8.48	-40.4	-55.8	3.8	1.49e+00	0	57	104	861929472	52	21167
2026-01-08 22:17:23.62	137.72	8.42	-40.7	-56.0	3.8	1.49e+00	0	57	104	861929472	52	21625
2026-01-08 22:17:24.63	137.84	8.36	-40.9	-56.1	3.7	1.49e+00	0	57	104	861929472	52	21827
2026-01-08 22:17:25.64	137.96	8.30	-40.4	-55.6	3.9	1.49e+00	0	57	104	861929472	52	20751
2026-01-08 22:17:26.65	138.07	8.24	-41.1	-54.8	4.2	1.49e+00	0	57	104	861929472	49	22375
2026-01-08 22:17:27.66	138.19	8.18	-41.3	-56.3	3.7	1.49e+00	0	57	104	861929472	54	19979
2026-01-08 22:17:28.67	138.31	8.12	-41.8	-56.4	3.9	1.49e+00	0	57	104	861929472	53	21293
2026-01-08 22:17:29.68	138.42	8.06	-38.1	-56.1	3.8	1.49e+00	0	57	104	861929472	50	24607
2026-01-08 22:17:30.69	138.54	8.00	-39.6	-54.2	3.9	1.50e+00	0	57	104	861929472	48	22181
2026-01-08 22:17:31.70	138.65	7.94	-41.7	-58.1	3.8	1.51e+00	0	57	104	861929472	56	21916
2026-01-08 22:17:32.71	138.77	7.88	-44.6	-58.9	3.8	1.49e+00	0	57	104	861929472	59	20170
2026-01-08 22:17:33.72	138.88	7.82	-44.8	-59.4	3.8	1.49e+00	0	57	104	861929472	60	20092
2026-01-08 22:17:34.73	139.00	7.76	-44.9	-59.5	3.8	1.49e+00	0	57	104	861929472	60	20492
2026-01-08 22:17:35.74	139.11	7.70	-45.0	-59.6	3.8	1.49e+00	0	57	104	861929472	60	20646
2026-01-08 22:17:36.75	139.22	7.64	-45.1	-59.7	3.8	1.49e+00	0	57	104	861929472	60	20821
2026-01-08 22:17:37.76	139.34	7.58	-45.1	-59.7	3.8	1.49e+00	0	57	104	861929472	60	20947
2026-01-08 22:17:38.77	139.45	7.52	-45.1	-59.7	3.8	1.49e+00	0	57	104	861929472	60	20994
2026-01-08 22:17:39.78	139.56	7.46	-45.1	-59.7	3.8	1.49e+00	0	57	104	861929472	60	20984
2026-01-08 22:17:40.79	139.67	7.41	-45.0	-59.6	3.8	1.49e+00	0	57	104	861929472	60	20735
2026-01-08 22:17:41.80	139.78	7.35	-45.0	-59.6	3.8	1.49e+00	0	57	104	861929472	60	20567
2026-01-08 22:17:42.81	139.89	7.29	-44.9	-59.5	3.8	1.49e+00	0	57	104	861929472	60	20349
2026-01-08 22:17:43.82	140.00	7.23	-44.9	-59.4	3.8	1.49e+00	0	57	104	861929472	60	20252
2026-01-08 22:17:44.83	140.11	7.17	-44.9	-59.4	3.8	1.49e+00	0	57	104	861929472	60	20142
2026-01-08 22:17:45.84	140.22	7.11	-44.8	-59.3	3.8	1.49e+00	0	57	104	861929472	60	20053
2026-01-08 22:17:46.85	140.33	7.05	-44.8	-59.3	3.8	1.49e+00	0	57	104	861929472	60	20046
2026-01-08 22:17:47.86	140.44	6.99	-44.8	-59.3	3.8	1.49e+00	0	57	104	861929472	60	20065
2026-01-08 22:17:48.87	140.54	6.93	-44.7	-59.3	3.8	1.49e+00	0	57	104	861929472	60	19996
2026-01-08 22:17:49.88	140.65	6.87	-44.8	-59.3	3.8	1.49e+00	0	57	104	861929472	60	19984
2026-01-08 22:17:50.90	140.76	6.81	-44.8	-59.3	3.8	1.49e+00	0	57	104	861929472	60	20070
2026-01-08 22:17:51.91	140.87	6.75	-44.8	-59.3	3.8	1.49e+00	0	57	104	861929472	60	20010
2026-01-08 22:17:52.92	140.97	6.69	-44.8	-59.3	3.8	1.49e+00	0	57	104	861929472	60	20028
2026-01-08 22:17:53.93	141.08	6.64	-44.8	-59.3	3.8	1.49e+00	0	57	104	861929472	60	20043
2026-01-08 22:17:54.94	141.18	6.58	-44.8	-59.3	3.8	1.49e+00	0	57	104	861929472	60	19974
2026-01-08 22:17:55.95	141.29	6.52	-44.7	-59.3	3.8	1.49e+00	0	57	104	861929472	60	20046
2026-01-08 22:17:56.96	141.39	6.46	-44.7	-59.3	3.8	1.49e+00	0	57	104	861929472	60	19939
2026-01-08 22:17:57.97	141.50	6.40	-44.8	-59.3	3.8	1.49e+00	0	57	104	861929472	60	19955
2026-01-08 22:17:58.98	141.60	6.34	-44.8	-59.3	3.8	1.49e+00	0	57	104	861929472	60	20012
2026-01-08 22:17:59.99	141.70	6.28	-44.8	-59.3	3.8	1.49e+00	0	57	104	861929472	60	20018
2026-01-08 22:18:01.00	141.80	6.23	-44.8	-59.3	3.8	1.49e+00	0	57	104	861929472	60	19980
2026-01-08 22:18:02.01	141.91	6.17	-44.8	-59.3	3.8	1.49e+00	0	57	104	861929472	60	19944
2026-01-08 22:18:03.02	142.01	6.11	-44.8	-59.3	3.8	1.49e+00	0	57	104	861929472	60	20010
2026-01-08 22:18:04.03	142.11	6.05	-44.8	-59.3	3.8	1.49e+00	0	57	104	861929472	60	19996
2026-01-08 22:18:05.04	142.21	5.99	-44.8	-59.3	3.8	1.49e+00	0	57	104	861929472	60	19956
2026-01-08 22:18:06.05	142.31	5.93	-44.8	-59.3	3.8	1.49e+00	0	57	104	861929472	60	20026
2026-01-08 22:18:07.06	142.41	5.88	-44.8	-59.3	3.8	1.49e+00	0	57	104	861929472	60	20007
2026-01-08 22:18:08.07	142.51	5.82	-44.8	-59.3	3.8	1.49e+00	0	57	104	861929472	60	20002
2026-01-08 22:18:09.08	142.61	5.76	-44.8	-59.3	3.8	1.49e+00	0	57	104	861929472	60	19947
2026-01-08 22:18:10.09	142.71	5.70	-44.8	-59.3	3.8	1.49e+00	0	57	104	861929472	60	19987
2026-01-08 22:18:11.10	142.81	5.64	-44.8	-59.3	3.8	1.49e+00	0	57	104	861929472	60	19941
2026-01-08 22:18:12.11	142.91	5.59	-44.8	-59.3	3.8	1.49e+00	0	57	104	861929472	60	19929
2026-01-08 22:18:13.12	143.01	5.53	-44.8	-59.3	3.8	1.49e+00	0	57	104	861929472	60	19976
2026-01-08 22:18:14.14	143.11	5.47	-44.8	-59.3	3.8	1.49e+00	0	57	104	861929472	60	19973
2026-01-08 22:18:15.15	143.20	5.41	-44.8	-59.3	3.8	1.49e+00	0	57	104	861929472	60	19953
2026-01-08 22:18:16.16	143.30	5.36	-44.8	-59.3	3.8	1.49e+00	0	57	104	861929472	60	19965
2026-01-08 22:18:17.17	143.40	5.30	-44.8	-59.3	3.8	1.49e+00	0	57	104	861929472	60	20006
2026-01-08 22:18:18.18	143.49	5.24	-44.6	-59.3	3.8	1.49e+00	0	57	104	861929472	60	19933
2026-01-08 22:18:19.19	143.59	5.18	-44.8	-59.3	3.8	1.49e+00	0	57	104	861929472	60	19935
2026-01-08 22:18:20.20	143.68	5.13	-44.8	-59.3	3.8	1.49e+00	0	57	104	861929472	60	19953
2026-01-08 22:18:21.21	143.78	5.07	-44.8	-59.3	3.8	1.49e+00	0	57	104	861929472	60	19933
2026-01-08 22:18:22.22	143.87	5.01	-44.8	-59.3	3.8	1.49e+00	0	57	104	861929472	60	19943
2026-01-08 22:18:23.23	143.97	4.95	-44.8	-59.3	3.8	1.49e+00	0	57	104	861929472	60	19914
2026-01-08 22:18:24.24	144.06	4.90	-44.8	-59.3	3.8	1.49e+00	0	57	104	861929472	60	19951
2026-01-08 22:18:25.25	144.16	4.84	-44.8	-59.3	3.8	1.49e+00	0	57	104	861929472	60	19963
2026-01-08 22:18:26.26	144.25	4.78	-44.8	-59.3	3.8	1.49e+00	0	57	104	861929472	60	19918
2026-01-08 22:18:27.27	144.34	4.73	-44.8	-59.3	3.8	1.49e+00	0	57	104	861929472	60	19983
