passes_logs/2026/01/08/R2.0S_Moscow/R2.0S_Moscow__20260108_231708_NOAA_21_JPSS-2_rec.log

#Pass ID: 20260108_231708_NOAA 21 (JPSS-2)
#Satellite: NOAA 21 (JPSS-2)
#Configuration: NOAA-21
#almurnet v.1.7.20251203
#Start time: 2026-01-08 23:17:08

#Version: 2.2.20231116
#Station: R2.0S_Moscow
#Location: 37.707566 lon 55.798166 lat
#TLE: 1 54234U 22150A   26008.45757862  .00000119  00000+0  77172-4 0  9996
#TLE: 2 54234  98.7494 309.4367 0000894 328.2777  31.8345 14.19533328163889

#Time	Az	El	Level	Level2	SNR	BER	BlckErr	Temp	State	Recorded	gain1	gain2
2026-01-08 23:17:08.89	17.95	2.03	-40.4	-53.4	3.8	1.49e+00	0	47	0	0	52	16010
2026-01-08 23:17:09.89	17.97	2.09	-40.5	-53.5	3.8	1.49e+00	0	47	104	0	51	17198
2026-01-08 23:17:10.90	17.99	2.16	-40.4	-53.5	3.8	1.49e+00	0	47	104	0	51	17171
2026-01-08 23:17:11.91	18.02	2.22	-40.5	-53.5	3.8	1.49e+00	0	48	104	0	51	17107
2026-01-08 23:17:12.92	18.04	2.28	-40.5	-53.5	3.8	1.49e+00	0	48	104	0	51	17118
2026-01-08 23:17:13.93	18.06	2.35	-40.5	-53.5	3.8	1.49e+00	0	48	104	0	51	17089
2026-01-08 23:17:14.94	18.08	2.41	-40.5	-53.5	3.8	1.49e+00	0	48	104	0	51	17118
2026-01-08 23:17:15.95	18.10	2.48	-40.5	-53.5	3.8	1.49e+00	0	48	104	0	51	17127
2026-01-08 23:17:16.96	18.12	2.54	-40.5	-53.5	3.8	1.49e+00	0	48	104	0	51	17103
2026-01-08 23:17:17.98	18.15	2.61	-40.4	-53.5	3.8	1.49e+00	0	48	104	0	51	17088
2026-01-08 23:17:18.99	18.17	2.67	-40.5	-53.5	3.8	1.49e+00	0	48	104	0	51	17112
2026-01-08 23:17:20.00	18.19	2.74	-40.4	-53.5	3.8	1.49e+00	0	48	104	0	51	17096
2026-01-08 23:17:21.01	18.21	2.80	-40.4	-53.5	3.8	1.49e+00	0	48	104	0	51	17133
2026-01-08 23:17:22.02	18.23	2.87	-40.4	-53.5	3.8	1.49e+00	0	48	104	0	51	17117
2026-01-08 23:17:23.03	18.25	2.93	-40.5	-53.4	3.8	1.49e+00	0	48	104	0	51	17082
2026-01-08 23:17:24.04	18.28	3.00	-40.4	-53.4	3.8	1.49e+00	0	48	104	0	51	17067
2026-01-08 23:17:25.05	18.30	3.07	-40.4	-53.5	3.8	1.49e+00	0	48	104	0	51	17109
2026-01-08 23:17:26.05	18.32	3.13	-40.4	-53.4	3.8	1.49e+00	0	49	104	0	51	17077
2026-01-08 23:17:27.06	18.34	3.20	-40.5	-53.4	3.8	1.49e+00	0	49	104	0	51	17060
2026-01-08 23:17:28.07	18.37	3.26	-40.4	-53.4	3.8	1.49e+00	0	49	104	0	51	17079
2026-01-08 23:17:29.08	18.39	3.33	-40.5	-53.5	3.8	1.49e+00	0	49	104	0	51	17084
2026-01-08 23:17:30.09	18.41	3.40	-40.4	-53.4	3.8	1.49e+00	0	49	104	0	51	17082
2026-01-08 23:17:31.10	18.43	3.46	-40.5	-53.5	3.8	1.49e+00	0	49	104	0	51	17121
2026-01-08 23:17:32.11	18.46	3.53	-40.5	-53.4	3.8	1.49e+00	0	49	104	0	51	17055
2026-01-08 23:17:33.12	18.48	3.60	-40.5	-53.5	3.8	1.49e+00	0	49	104	0	51	17103
2026-01-08 23:17:34.14	18.50	3.67	-40.4	-53.4	3.8	1.49e+00	0	49	104	0	51	17077
2026-01-08 23:17:35.15	18.53	3.73	-40.4	-53.4	3.8	1.49e+00	0	49	104	0	51	17049
2026-01-08 23:17:36.16	18.55	3.80	-40.4	-53.5	3.8	1.49e+00	0	49	104	0	51	17110
2026-01-08 23:17:37.17	18.57	3.87	-40.4	-53.4	3.8	1.49e+00	0	50	104	0	51	17083
2026-01-08 23:17:38.18	18.59	3.94	-40.4	-53.5	3.8	1.49e+00	0	50	104	0	51	17094
2026-01-08 23:17:39.19	18.62	4.01	-40.4	-53.4	3.8	1.49e+00	0	50	104	0	51	17048
2026-01-08 23:17:40.20	18.64	4.07	-40.4	-53.4	3.8	1.49e+00	0	50	104	0	51	17072
2026-01-08 23:17:41.21	18.67	4.14	-40.4	-53.5	3.8	1.49e+00	0	50	104	0	51	17112
2026-01-08 23:17:42.22	18.69	4.21	-40.5	-53.5	3.8	1.49e+00	0	50	104	0	51	17095
2026-01-08 23:17:43.23	18.71	4.28	-40.4	-53.4	3.8	1.49e+00	0	50	104	0	51	17067
2026-01-08 23:17:44.24	18.74	4.35	-40.5	-53.4	3.8	1.49e+00	0	50	104	0	51	17033
2026-01-08 23:17:45.25	18.76	4.42	-40.5	-53.4	3.8	1.49e+00	0	50	104	0	51	17056
2026-01-08 23:17:46.26	18.78	4.49	-40.5	-53.5	3.8	1.49e+00	0	50	104	0	51	17088
2026-01-08 23:17:47.27	18.81	4.56	-40.5	-53.4	3.8	1.49e+00	0	50	104	0	51	17071
2026-01-08 23:17:48.28	18.83	4.63	-40.4	-53.4	3.8	1.49e+00	0	50	104	0	51	17074
2026-01-08 23:17:49.29	18.86	4.70	-40.4	-53.4	3.8	1.49e+00	0	50	104	0	51	17031
2026-01-08 23:17:50.31	18.88	4.77	-40.4	-53.4	3.8	1.49e+00	0	50	104	0	51	17078
2026-01-08 23:17:51.32	18.91	4.84	-40.4	-53.4	3.8	1.49e+00	0	50	104	0	51	17069
2026-01-08 23:17:52.32	18.93	4.91	-40.5	-53.4	3.8	1.49e+00	0	50	104	0	51	17051
2026-01-08 23:17:53.34	18.96	4.98	-40.5	-53.4	3.8	1.49e+00	0	51	104	0	51	17068
2026-01-08 23:17:54.35	18.98	5.05	-40.5	-53.4	3.8	1.49e+00	0	50	104	0	51	17059
2026-01-08 23:17:55.36	19.00	5.12	-40.5	-53.4	3.8	1.49e+00	0	50	104	0	51	17052
2026-01-08 23:17:56.37	19.03	5.19	-40.5	-53.4	3.8	1.49e+00	0	50	104	0	51	17067
2026-01-08 23:17:57.38	19.05	5.26	-40.5	-53.4	3.8	1.49e+00	0	51	104	0	51	17002
2026-01-08 23:17:58.39	19.08	5.34	-40.5	-53.5	3.8	1.49e+00	0	51	104	0	51	17108
2026-01-08 23:17:59.40	19.11	5.41	-40.4	-53.4	3.8	1.49e+00	0	51	104	0	51	17045
2026-01-08 23:18:00.41	19.13	5.48	-40.5	-53.4	3.8	1.49e+00	0	51	104	0	51	17046
2026-01-08 23:18:01.42	19.16	5.55	-40.4	-53.5	3.8	1.49e+00	0	51	104	0	51	17099
2026-01-08 23:18:02.43	19.18	5.62	-40.4	-53.4	3.8	1.49e+00	0	51	104	0	51	17060
2026-01-08 23:18:03.44	19.21	5.70	-40.5	-53.4	3.8	1.49e+00	0	51	104	0	51	17052
2026-01-08 23:18:04.45	19.23	5.77	-40.4	-53.4	3.8	1.49e+00	0	51	104	0	51	17075
2026-01-08 23:18:05.46	19.26	5.84	-40.4	-53.4	3.8	1.49e+00	0	51	104	0	51	17065
2026-01-08 23:18:06.47	19.28	5.92	-40.4	-53.4	3.8	1.49e+00	0	51	104	0	51	17067
2026-01-08 23:18:07.48	19.31	5.99	-40.5	-53.5	3.8	1.49e+00	0	51	104	0	51	17110
2026-01-08 23:18:08.49	19.34	6.06	-40.5	-53.4	3.8	1.49e+00	0	51	104	0	51	17070
2026-01-08 23:18:09.50	19.36	6.14	-40.4	-53.4	3.8	1.49e+00	0	51	104	0	51	17058
2026-01-08 23:18:10.51	19.39	6.21	-40.4	-53.4	3.8	1.49e+00	0	51	104	0	51	17024
2026-01-08 23:18:11.52	19.42	6.29	-40.4	-53.4	3.8	1.49e+00	0	51	104	0	51	17021
2026-01-08 23:18:12.53	19.44	6.36	-40.5	-53.5	3.8	1.49e+00	0	51	104	0	51	17086
2026-01-08 23:18:13.54	19.47	6.43	-40.4	-53.4	3.8	1.49e+00	0	52	104	0	51	17049
2026-01-08 23:18:14.55	19.50	6.51	-40.5	-53.4	3.8	1.49e+00	0	51	104	0	51	17026
2026-01-08 23:18:15.56	19.52	6.58	-40.5	-53.4	3.8	1.49e+00	0	51	104	0	51	17033
2026-01-08 23:18:16.57	19.55	6.66	-40.4	-53.4	3.8	1.49e+00	0	51	104	0	51	16995
2026-01-08 23:18:17.58	19.58	6.73	-40.4	-53.3	3.8	1.49e+00	0	52	104	0	51	16844
2026-01-08 23:18:18.59	19.61	6.81	-40.4	-53.3	3.8	1.49e+00	0	52	104	0	51	16828
2026-01-08 23:18:19.61	19.63	6.89	-40.4	-53.3	3.8	1.49e+00	0	52	104	0	51	16773
2026-01-08 23:18:20.61	19.66	6.96	-40.5	-53.3	3.8	1.49e+00	0	52	104	0	51	16728
2026-01-08 23:18:21.62	19.69	7.04	-40.5	-53.2	3.8	1.49e+00	0	52	104	0	51	16601
2026-01-08 23:18:22.64	19.72	7.12	-40.4	-53.1	3.8	1.49e+00	0	52	104	0	51	16465
2026-01-08 23:18:23.65	19.74	7.19	-40.4	-53.1	3.8	1.49e+00	0	52	104	0	51	16370
2026-01-08 23:18:24.66	19.77	7.27	-40.4	-53.1	3.8	1.49e+00	0	52	104	0	51	16347
2026-01-08 23:18:25.67	19.80	7.35	-40.4	-53.0	3.8	1.49e+00	0	52	104	0	51	16189
2026-01-08 23:18:26.68	19.83	7.42	-40.4	-52.9	3.8	1.49e+00	0	52	104	0	51	16029
2026-01-08 23:18:27.69	19.86	7.50	-40.4	-52.8	3.8	1.49e+00	0	52	104	0	51	15812
2026-01-08 23:18:28.70	19.89	7.58	-40.4	-52.6	3.8	1.49e+00	0	52	104	0	51	15517
2026-01-08 23:18:29.71	19.91	7.66	-40.4	-52.6	3.8	1.49e+00	0	52	104	0	51	15542
2026-01-08 23:18:30.72	19.94	7.74	-40.4	-52.7	3.8	1.49e+00	0	52	104	0	51	15616
2026-01-08 23:18:31.73	19.97	7.82	-40.4	-52.6	3.8	1.49e+00	0	52	104	0	51	15480
2026-01-08 23:18:32.74	20.00	7.89	-40.4	-52.5	3.8	1.49e+00	0	52	104	0	51	15278
2026-01-08 23:18:33.75	20.03	7.97	-40.4	-52.3	3.8	1.49e+00	0	52	104	0	51	14970
2026-01-08 23:18:34.76	20.06	8.05	-40.3	-51.8	3.8	1.49e+00	0	52	104	0	51	14094
2026-01-08 23:18:35.77	20.09	8.13	-40.5	-48.9	4.7	1.43e+00	2	53	104	0	51	10141
2026-01-08 23:18:36.78	20.12	8.21	-40.4	-52.5	3.8	1.29e+00	0	52	104	1048576	51	15305
2026-01-08 23:18:37.79	20.15	8.29	-40.4	-46.8	6.5	1.20e+00	0	52	0	1048576	51	7958
2026-01-08 23:18:38.80	20.18	8.37	-40.9	-45.2	8.9	5.25e-02	0	52	0	4194304	52	6218
2026-01-08 23:18:39.81	20.21	8.45	-40.1	-49.0	4.5	5.20e-02	0	53	0	7340032	51	10264
2026-01-08 23:18:40.82	20.24	8.54	-39.5	-44.0	9.2	7.49e-01	0	53	104	7340032	51	5728
2026-01-08 23:18:41.83	20.27	8.62	-39.2	-42.7	10.9	1.89e-03	0	53	0	9437184	50	5252
2026-01-08 23:18:42.84	20.30	8.70	-39.0	-42.1	11.9	5.27e-04	0	53	0	13631488	50	4875
2026-01-08 23:18:43.85	20.33	8.78	-39.4	-42.6	11.5	7.55e-04	0	53	0	16777216	50	5168
2026-01-08 23:18:44.86	20.36	8.86	-39.8	-43.2	10.9	1.24e-03	0	53	0	19922944	50	5566
2026-01-08 23:18:45.87	20.39	8.94	-40.1	-43.8	10.4	4.74e-03	0	53	0	23068672	50	5935
2026-01-08 23:18:46.88	20.42	9.03	-40.0	-43.5	10.8	3.39e-03	0	53	0	26214400	50	5733
2026-01-08 23:18:47.89	20.45	9.11	-40.0	-43.3	11.0	1.86e-03	0	53	0	28311552	50	5649
2026-01-08 23:18:48.90	20.49	9.19	-39.9	-43.1	11.2	1.47e-03	0	53	0	32505856	50	5503
2026-01-08 23:18:49.91	20.52	9.28	-40.0	-43.4	11.0	1.38e-03	0	53	0	35651584	50	5659
2026-01-08 23:18:50.92	20.55	9.36	-40.0	-43.3	11.0	2.47e-03	0	53	0	38797312	50	5651
2026-01-08 23:18:51.93	20.58	9.44	-40.0	-43.3	11.1	1.42e-03	0	53	0	41943040	50	5593
2026-01-08 23:18:52.93	20.61	9.53	-40.0	-43.3	11.2	1.25e-03	0	53	0	45088768	50	5602
2026-01-08 23:18:53.94	20.65	9.61	-39.9	-43.1	11.3	1.49e-03	0	53	0	48234496	50	5496
2026-01-08 23:18:54.95	20.68	9.70	-39.8	-42.9	11.6	7.99e-04	0	53	0	51380224	50	5373
2026-01-08 23:18:55.96	20.71	9.78	-39.9	-43.1	11.4	8.71e-04	0	53	0	54525952	50	5489
2026-01-08 23:18:56.97	20.74	9.87	-40.0	-43.2	11.3	9.86e-04	0	53	0	57671680	50	5570
2026-01-08 23:18:57.97	20.78	9.95	-39.8	-42.8	11.8	6.67e-04	0	53	0	60817408	50	5324
2026-01-08 23:18:58.98	20.81	10.04	-39.6	-42.4	12.3	2.97e-04	0	53	0	63963136	50	5045
2026-01-08 23:18:59.99	20.84	10.12	-39.6	-42.4	12.3	1.25e-04	0	53	0	67108864	50	5082
2026-01-08 23:19:01.00	20.87	10.21	-39.4	-42.1	12.6	8.77e-05	0	53	0	70254592	50	4883
2026-01-08 23:19:02.01	20.91	10.30	-39.3	-41.9	12.9	4.95e-05	0	53	0	73400320	50	4802
2026-01-08 23:19:03.02	20.94	10.38	-39.3	-41.8	13.0	5.64e-05	0	53	0	76546048	50	4731
2026-01-08 23:19:04.04	20.98	10.47	-39.3	-41.8	13.0	4.27e-05	0	53	0	79691776	50	4741
2026-01-08 23:19:05.05	21.01	10.56	-39.3	-41.8	13.0	4.65e-05	0	53	0	82837504	50	4731
2026-01-08 23:19:06.06	21.04	10.65	-39.2	-41.7	13.2	3.28e-05	0	54	0	85983232	50	4670
2026-01-08 23:19:07.07	21.08	10.73	-39.3	-41.8	13.0	2.82e-05	0	53	0	89128960	50	4757
2026-01-08 23:19:08.08	21.11	10.82	-39.1	-41.5	13.4	1.83e-05	0	53	0	92274688	50	4569
2026-01-08 23:19:09.09	21.15	10.91	-39.1	-41.5	13.4	1.90e-05	0	53	0	95420416	50	4554
2026-01-08 23:19:10.10	21.18	11.00	-39.0	-41.3	13.6	8.30e-06	0	53	0	98566144	49	4733
2026-01-08 23:19:11.11	21.22	11.09	-38.9	-41.2	13.7	4.50e-06	0	53	0	101711872	49	4697
2026-01-08 23:19:12.12	21.25	11.18	-39.0	-41.3	13.6	9.90e-06	0	54	0	104857600	49	4719
2026-01-08 23:19:13.13	21.29	11.27	-39.0	-41.3	13.6	4.50e-06	0	54	0	108003328	49	4731
2026-01-08 23:19:14.14	21.32	11.36	-38.9	-41.1	13.8	5.30e-06	0	53	0	111149056	49	4634
2026-01-08 23:19:15.15	21.36	11.45	-38.6	-40.8	14.2	1.50e-06	0	54	0	114294784	49	4463
2026-01-08 23:19:16.16	21.40	11.54	-38.5	-40.6	14.4	0.00e+00	0	54	0	117440512	49	4367
2026-01-08 23:19:17.17	21.43	11.63	-38.4	-40.5	14.6	7.00e-07	0	54	0	120586240	48	4557
2026-01-08 23:19:18.17	21.47	11.72	-38.3	-40.4	14.7	7.00e-07	0	53	0	123731968	48	4496
2026-01-08 23:19:19.18	21.51	11.82	-38.3	-40.3	14.8	0.00e+00	0	54	0	126877696	48	4470
2026-01-08 23:19:20.19	21.54	11.91	-38.3	-40.2	14.8	0.00e+00	0	54	0	130023424	48	4429
2026-01-08 23:19:21.20	21.58	12.00	-38.2	-40.2	14.9	7.00e-07	0	54	0	133169152	48	4405
2026-01-08 23:19:22.21	21.62	12.10	-38.3	-40.3	14.8	0.00e+00	0	54	0	136314880	48	4468
2026-01-08 23:19:23.22	21.65	12.19	-38.3	-40.2	14.9	0.00e+00	0	54	0	139460608	48	4424
2026-01-08 23:19:24.23	21.69	12.28	-38.2	-40.1	15.0	0.00e+00	0	54	0	142606336	48	4384
2026-01-08 23:19:25.24	21.73	12.38	-38.3	-40.2	14.9	0.00e+00	0	54	0	145752064	48	4415
2026-01-08 23:19:26.25	21.77	12.47	-38.2	-40.1	15.0	0.00e+00	0	54	0	148897792	48	4389
2026-01-08 23:19:27.26	21.81	12.57	-38.2	-40.2	15.0	0.00e+00	0	54	0	152043520	48	4392
2026-01-08 23:19:28.27	21.85	12.66	-38.2	-40.1	15.1	0.00e+00	0	54	0	155189248	48	4372
2026-01-08 23:19:29.29	21.88	12.76	-38.1	-40.0	15.2	0.00e+00	0	54	0	158334976	48	4326
2026-01-08 23:19:30.30	21.92	12.85	-38.1	-40.0	15.2	0.00e+00	0	54	0	161480704	48	4330
2026-01-08 23:19:31.31	21.96	12.95	-38.2	-40.1	15.1	0.00e+00	0	54	0	164626432	48	4366
2026-01-08 23:19:32.31	22.00	13.05	-38.2	-40.1	15.1	7.00e-07	0	54	0	167772160	48	4360
2026-01-08 23:19:33.32	22.04	13.14	-38.1	-40.0	15.2	0.00e+00	0	54	0	170917888	48	4336
2026-01-08 23:19:34.33	22.08	13.24	-38.1	-40.0	15.2	0.00e+00	0	54	0	174063616	48	4315
2026-01-08 23:19:35.34	22.12	13.34	-38.1	-40.0	15.3	7.00e-07	0	54	0	177209344	48	4312
2026-01-08 23:19:36.35	22.16	13.44	-38.1	-40.0	15.2	0.00e+00	0	54	0	180355072	48	4307
2026-01-08 23:19:37.36	22.20	13.54	-38.1	-39.9	15.3	0.00e+00	0	54	0	183500800	48	4285
2026-01-08 23:19:38.37	22.24	13.64	-38.1	-40.0	15.3	0.00e+00	0	54	0	186646528	48	4293
2026-01-08 23:19:39.38	22.28	13.73	-38.1	-39.9	15.3	0.00e+00	0	54	0	189792256	48	4273
2026-01-08 23:19:40.39	22.33	13.83	-38.1	-39.9	15.4	0.00e+00	0	54	0	192937984	48	4270
2026-01-08 23:19:41.40	22.37	13.93	-38.0	-39.8	15.5	0.00e+00	0	54	0	196083712	48	4221
2026-01-08 23:19:42.40	22.41	14.03	-38.0	-39.8	15.4	0.00e+00	0	54	0	199229440	47	4483
2026-01-08 23:19:43.41	22.45	14.14	-37.9	-39.8	15.4	0.00e+00	0	54	0	202375168	47	4467
2026-01-08 23:19:44.42	22.49	14.24	-37.9	-39.8	15.4	0.00e+00	0	54	0	205520896	47	4447
2026-01-08 23:19:45.43	22.54	14.34	-37.9	-39.8	15.4	0.00e+00	0	54	0	208666624	47	4454
2026-01-08 23:19:46.44	22.58	14.44	-37.9	-39.8	15.4	0.00e+00	0	54	0	211812352	47	4460
2026-01-08 23:19:47.45	22.62	14.54	-37.9	-39.7	15.5	0.00e+00	0	54	0	214958080	47	4430
2026-01-08 23:19:48.46	22.67	14.65	-37.8	-39.6	15.6	0.00e+00	0	54	0	218103808	47	4385
2026-01-08 23:19:49.47	22.71	14.75	-37.8	-39.6	15.5	0.00e+00	0	54	0	221249536	47	4391
2026-01-08 23:19:50.48	22.75	14.85	-37.8	-39.6	15.6	0.00e+00	0	54	0	224395264	47	4389
2026-01-08 23:19:51.49	22.80	14.96	-37.9	-39.7	15.5	0.00e+00	0	54	0	227540992	47	4412
2026-01-08 23:19:52.50	22.84	15.06	-37.8	-39.6	15.6	0.00e+00	0	54	0	230686720	47	4371
2026-01-08 23:19:53.50	22.89	15.17	-37.8	-39.6	15.7	0.00e+00	0	54	0	233832448	47	4352
2026-01-08 23:19:54.51	22.93	15.27	-37.8	-39.6	15.7	0.00e+00	0	54	0	236978176	47	4350
2026-01-08 23:19:55.52	22.98	15.38	-37.7	-39.5	15.8	0.00e+00	0	55	0	240123904	47	4306
2026-01-08 23:19:56.53	23.02	15.49	-37.7	-39.5	15.8	0.00e+00	0	54	0	243269632	47	4304
2026-01-08 23:19:57.54	23.07	15.59	-37.8	-39.6	15.7	0.00e+00	0	54	0	246415360	47	4342
2026-01-08 23:19:58.55	23.12	15.70	-37.7	-39.5	15.8	0.00e+00	0	55	0	249561088	47	4306
2026-01-08 23:19:59.56	23.16	15.81	-37.8	-39.6	15.7	0.00e+00	0	55	0	252706816	47	4351
2026-01-08 23:20:00.57	23.21	15.92	-37.8	-39.5	15.7	0.00e+00	0	54	0	255852544	47	4340
2026-01-08 23:20:01.58	23.26	16.03	-37.8	-39.6	15.7	0.00e+00	0	54	0	258998272	47	4371
2026-01-08 23:20:02.58	23.30	16.14	-37.8	-39.6	15.7	0.00e+00	0	55	0	262144000	47	4357
2026-01-08 23:20:03.60	23.35	16.25	-37.9	-39.7	15.7	0.00e+00	0	54	0	265289728	47	4397
2026-01-08 23:20:04.61	23.40	16.36	-37.9	-39.6	15.7	0.00e+00	0	55	0	268435456	47	4387
2026-01-08 23:20:05.62	23.45	16.47	-37.9	-39.7	15.7	0.00e+00	0	55	0	271581184	47	4398
2026-01-08 23:20:06.63	23.50	16.58	-37.9	-39.7	15.6	0.00e+00	0	54	0	274726912	47	4441
2026-01-08 23:20:07.63	23.55	16.69	-37.9	-39.8	15.6	0.00e+00	0	55	0	277872640	47	4447
2026-01-08 23:20:08.64	23.60	16.80	-38.0	-39.8	15.6	0.00e+00	0	55	0	281018368	47	4463
2026-01-08 23:20:09.65	23.65	16.92	-38.1	-39.9	15.5	0.00e+00	0	55	0	284164096	47	4541
2026-01-08 23:20:10.66	23.70	17.03	-38.0	-39.9	15.5	0.00e+00	0	55	0	287309824	47	4506
2026-01-08 23:20:11.67	23.75	17.14	-38.0	-39.8	15.6	0.00e+00	0	55	0	290455552	47	4485
2026-01-08 23:20:12.68	23.80	17.26	-38.0	-39.9	15.5	0.00e+00	0	55	0	293601280	47	4499
2026-01-08 23:20:13.69	23.85	17.37	-38.0	-39.9	15.6	0.00e+00	0	55	0	296747008	47	4494
2026-01-08 23:20:14.70	23.90	17.49	-38.1	-39.9	15.5	0.00e+00	0	55	0	299892736	47	4535
2026-01-08 23:20:15.71	23.95	17.60	-38.1	-39.9	15.5	0.00e+00	0	55	0	303038464	47	4529
2026-01-08 23:20:16.72	24.01	17.72	-38.1	-39.9	15.5	0.00e+00	0	55	0	306184192	47	4524
2026-01-08 23:20:17.73	24.06	17.84	-38.1	-39.9	15.5	0.00e+00	0	55	0	309329920	47	4532
2026-01-08 23:20:18.74	24.11	17.96	-38.1	-39.9	15.5	0.00e+00	0	55	0	312475648	47	4534
2026-01-08 23:20:19.75	24.16	18.07	-38.1	-39.9	15.5	0.00e+00	0	55	0	315621376	47	4535
2026-01-08 23:20:20.75	24.22	18.19	-38.1	-40.0	15.5	0.00e+00	0	55	0	318767104	47	4556
2026-01-08 23:20:21.76	24.27	18.31	-38.1	-40.0	15.4	0.00e+00	0	55	0	321912832	47	4573
2026-01-08 23:20:22.77	24.33	18.43	-38.1	-40.0	15.5	0.00e+00	0	55	0	325058560	47	4560
2026-01-08 23:20:23.78	24.38	18.55	-38.2	-40.1	15.4	0.00e+00	0	55	0	328204288	47	4601
2026-01-08 23:20:24.79	24.44	18.67	-38.1	-40.0	15.4	0.00e+00	0	55	0	331350016	47	4568
2026-01-08 23:20:25.80	24.49	18.79	-38.2	-40.1	15.3	0.00e+00	0	55	0	334495744	47	4622
2026-01-08 23:20:26.81	24.55	18.92	-38.2	-40.0	15.4	0.00e+00	0	55	0	337641472	47	4590
2026-01-08 23:20:27.82	24.61	19.04	-38.1	-39.9	15.5	0.00e+00	0	55	0	340787200	47	4537
2026-01-08 23:20:28.83	24.66	19.16	-38.1	-39.9	15.5	0.00e+00	0	55	0	343932928	47	4525
2026-01-08 23:20:29.84	24.72	19.29	-38.1	-39.9	15.5	0.00e+00	0	55	0	347078656	47	4516
2026-01-08 23:20:30.85	24.78	19.41	-38.0	-39.8	15.6	0.00e+00	0	55	0	350224384	47	4492
2026-01-08 23:20:31.86	24.84	19.54	-38.0	-39.8	15.6	0.00e+00	0	55	0	353370112	47	4487
2026-01-08 23:20:32.87	24.90	19.66	-38.0	-39.7	15.7	0.00e+00	0	55	0	356515840	47	4439
2026-01-08 23:20:33.88	24.96	19.79	-37.9	-39.7	15.8	0.00e+00	0	55	0	359661568	47	4427
2026-01-08 23:20:34.89	25.02	19.91	-37.9	-39.7	15.8	0.00e+00	0	55	0	362807296	47	4395
2026-01-08 23:20:35.90	25.08	20.04	-37.8	-39.5	16.0	0.00e+00	0	55	0	367001600	47	4316
2026-01-08 23:20:36.91	25.14	20.17	-37.7	-39.4	16.1	0.00e+00	0	55	0	369098752	47	4256
2026-01-08 23:20:37.91	25.20	20.30	-37.6	-39.3	16.2	0.00e+00	0	55	0	372244480	47	4230
2026-01-08 23:20:38.92	25.26	20.43	-37.6	-39.2	16.3	0.00e+00	0	55	0	375390208	47	4175
2026-01-08 23:20:39.93	25.32	20.56	-37.5	-39.1	16.4	0.00e+00	0	55	0	378535936	46	4379
2026-01-08 23:20:40.94	25.38	20.69	-37.4	-39.0	16.5	0.00e+00	0	55	0	382730240	46	4331
2026-01-08 23:20:41.95	25.45	20.82	-37.3	-38.9	16.6	0.00e+00	0	55	0	385875968	46	4285
2026-01-08 23:20:42.96	25.51	20.95	-37.3	-38.8	16.7	0.00e+00	0	55	0	389021696	46	4236
2026-01-08 23:20:43.97	25.57	21.08	-37.1	-38.6	16.9	0.00e+00	0	55	0	391118848	46	4136
2026-01-08 23:20:44.98	25.64	21.22	-37.0	-38.5	17.0	0.00e+00	0	55	0	394264576	45	4312
2026-01-08 23:20:45.99	25.70	21.35	-36.9	-38.5	17.1	0.00e+00	0	55	0	397410304	45	4298
2026-01-08 23:20:47.00	25.77	21.49	-36.9	-38.5	17.1	0.00e+00	0	55	0	401604608	45	4294
2026-01-08 23:20:48.01	25.84	21.62	-36.9	-38.4	17.1	0.00e+00	0	55	0	404750336	45	4277
2026-01-08 23:20:49.02	25.90	21.76	-36.8	-38.3	17.3	0.00e+00	0	55	0	407896064	45	4204
2026-01-08 23:20:50.03	25.97	21.89	-36.7	-38.2	17.3	0.00e+00	0	55	0	411041792	45	4168
2026-01-08 23:20:51.04	26.04	22.03	-36.6	-38.1	17.4	0.00e+00	0	55	0	414187520	45	4127
2026-01-08 23:20:52.05	26.11	22.17	-36.6	-38.0	17.5	0.00e+00	0	55	0	417333248	45	4097
2026-01-08 23:20:53.06	26.18	22.31	-36.6	-38.0	17.5	0.00e+00	0	55	0	420478976	45	4080
2026-01-08 23:20:54.07	26.25	22.45	-36.6	-38.0	17.5	0.00e+00	0	55	0	423624704	45	4096
2026-01-08 23:20:55.08	26.32	22.59	-36.6	-38.1	17.5	0.00e+00	0	55	0	426770432	45	4116
2026-01-08 23:20:56.08	26.39	22.73	-36.6	-38.0	17.5	0.00e+00	0	55	0	429916160	45	4098
2026-01-08 23:20:57.09	26.46	22.87	-36.6	-38.0	17.5	0.00e+00	0	55	0	433061888	45	4098
2026-01-08 23:20:58.10	26.53	23.01	-36.6	-38.0	17.5	0.00e+00	0	55	0	436207616	45	4092
2026-01-08 23:20:59.11	26.60	23.16	-36.6	-38.1	17.5	0.00e+00	0	55	0	439353344	45	4116
2026-01-08 23:21:00.12	26.68	23.30	-36.5	-38.0	17.6	0.00e+00	0	55	0	442499072	45	4064
2026-01-08 23:21:01.13	26.75	23.45	-36.6	-38.1	17.5	0.00e+00	0	55	0	445644800	45	4104
2026-01-08 23:21:02.14	26.83	23.59	-36.7	-38.2	17.4	0.00e+00	0	55	0	448790528	45	4158
2026-01-08 23:21:03.15	26.90	23.74	-36.7	-38.2	17.4	0.00e+00	0	55	0	451936256	45	4183
2026-01-08 23:21:04.16	26.98	23.89	-36.7	-38.2	17.4	0.00e+00	0	55	0	455081984	45	4181
2026-01-08 23:21:05.17	27.05	24.03	-36.8	-38.3	17.3	0.00e+00	0	56	0	458227712	45	4197
2026-01-08 23:21:06.18	27.13	24.18	-36.8	-38.3	17.3	0.00e+00	0	55	0	461373440	45	4211
2026-01-08 23:21:07.19	27.21	24.33	-36.8	-38.3	17.3	0.00e+00	0	56	0	464519168	45	4238
2026-01-08 23:21:08.20	27.29	24.48	-36.9	-38.4	17.2	0.00e+00	0	55	0	467664896	45	4251
2026-01-08 23:21:09.21	27.37	24.64	-36.9	-38.5	17.2	0.00e+00	0	55	0	470810624	45	4294
2026-01-08 23:21:10.22	27.45	24.79	-37.0	-38.5	17.1	0.00e+00	0	55	0	473956352	45	4340
2026-01-08 23:21:11.23	27.53	24.94	-37.1	-38.7	17.0	0.00e+00	0	55	0	477102080	45	4396
2026-01-08 23:21:12.24	27.61	25.09	-37.1	-38.7	17.0	0.00e+00	0	55	0	480247808	45	4398
2026-01-08 23:21:13.24	27.69	25.25	-37.2	-38.8	16.9	0.00e+00	0	55	0	483393536	45	4448
2026-01-08 23:21:14.25	27.77	25.40	-37.2	-38.8	16.9	0.00e+00	0	55	0	486539264	45	4449
2026-01-08 23:21:15.26	27.86	25.56	-37.2	-38.8	16.8	0.00e+00	0	56	0	489684992	45	4470
2026-01-08 23:21:16.27	27.94	25.72	-37.3	-38.9	16.7	0.00e+00	0	56	0	492830720	45	4519
2026-01-08 23:21:17.28	28.03	25.87	-37.4	-39.0	16.7	0.00e+00	0	56	0	495976448	45	4578
2026-01-08 23:21:18.29	28.12	26.03	-37.5	-39.1	16.6	0.00e+00	0	56	0	499122176	45	4622
2026-01-08 23:21:19.30	28.20	26.19	-37.6	-39.2	16.5	0.00e+00	0	55	0	502267904	45	4672
2026-01-08 23:21:20.31	28.29	26.35	-37.6	-39.3	16.5	0.00e+00	0	55	0	505413632	45	4706
2026-01-08 23:21:21.32	28.38	26.52	-37.6	-39.3	16.4	0.00e+00	0	56	0	508559360	45	4731
2026-01-08 23:21:22.33	28.47	26.68	-37.7	-39.4	16.3	0.00e+00	0	55	0	511705088	45	4780
2026-01-08 23:21:23.34	28.56	26.84	-37.8	-39.4	16.3	0.00e+00	0	56	0	514850816	46	4541
2026-01-08 23:21:24.35	28.65	27.01	-37.9	-39.6	16.1	0.00e+00	0	56	0	517996544	46	4605
2026-01-08 23:21:25.36	28.74	27.17	-38.0	-39.7	16.0	0.00e+00	0	56	0	521142272	46	4692
2026-01-08 23:21:26.37	28.84	27.34	-38.0	-39.8	16.0	0.00e+00	0	56	0	524288000	46	4718
2026-01-08 23:21:27.38	28.93	27.51	-38.0	-39.8	16.0	0.00e+00	0	56	0	527433728	46	4717
2026-01-08 23:21:28.39	29.03	27.67	-38.0	-39.7	16.0	0.00e+00	0	56	0	530579456	46	4702
2026-01-08 23:21:29.40	29.12	27.84	-38.1	-39.9	15.9	0.00e+00	0	56	0	533725184	46	4766
2026-01-08 23:21:30.41	29.22	28.01	-38.0	-39.8	16.0	0.00e+00	0	56	0	536870912	46	4726
2026-01-08 23:21:31.42	29.32	28.18	-38.0	-39.7	16.0	0.00e+00	0	56	0	540016640	46	4680
2026-01-08 23:21:32.43	29.42	28.36	-38.1	-39.8	15.9	0.00e+00	0	56	0	543162368	46	4749
2026-01-08 23:21:33.44	29.52	28.53	-38.1	-39.8	15.9	0.00e+00	0	56	0	546308096	46	4732
2026-01-08 23:21:34.45	29.62	28.70	-38.0	-39.7	16.0	0.00e+00	0	56	0	549453824	46	4698
2026-01-08 23:21:35.46	29.72	28.88	-37.9	-39.6	16.1	0.00e+00	0	56	0	552599552	46	4635
2026-01-08 23:21:36.47	29.83	29.06	-37.9	-39.6	16.2	0.00e+00	0	56	0	555745280	46	4618
2026-01-08 23:21:37.48	29.93	29.23	-37.9	-39.5	16.2	0.00e+00	0	56	0	558891008	46	4590
2026-01-08 23:21:38.49	30.04	29.41	-37.8	-39.5	16.3	0.00e+00	0	56	0	562036736	46	4565
2026-01-08 23:21:39.50	30.14	29.59	-37.8	-39.5	16.3	0.00e+00	0	56	0	565182464	46	4579
2026-01-08 23:21:40.51	30.25	29.77	-37.8	-39.5	16.2	0.00e+00	0	56	0	568328192	46	4568
2026-01-08 23:21:41.52	30.36	29.95	-37.7	-39.4	16.4	0.00e+00	0	56	0	571473920	46	4501
2026-01-08 23:21:42.53	30.47	30.13	-37.7	-39.4	16.4	0.00e+00	0	56	0	574619648	46	4497
2026-01-08 23:21:43.54	30.58	30.32	-37.7	-39.3	16.5	0.00e+00	0	56	0	577765376	46	4456
2026-01-08 23:21:44.55	30.70	30.50	-37.7	-39.4	16.4	0.00e+00	0	56	0	580911104	46	4495
2026-01-08 23:21:45.56	30.81	30.69	-37.6	-39.3	16.5	0.00e+00	0	56	0	584056832	46	4442
2026-01-08 23:21:46.57	30.93	30.87	-37.6	-39.2	16.5	0.00e+00	0	56	0	587202560	46	4433
2026-01-08 23:21:47.57	31.04	31.06	-37.6	-39.3	16.5	0.00e+00	0	56	0	590348288	46	4444
2026-01-08 23:21:48.58	31.16	31.25	-37.7	-39.4	16.4	0.00e+00	0	56	0	593494016	46	4511
2026-01-08 23:21:49.59	31.28	31.44	-37.6	-39.2	16.6	0.00e+00	0	56	0	596639744	46	4416
2026-01-08 23:21:50.60	31.40	31.63	-37.5	-39.1	16.6	0.00e+00	0	56	0	599785472	46	4386
2026-01-08 23:21:51.62	31.52	31.82	-37.6	-39.2	16.6	0.00e+00	0	56	0	602931200	46	4407
2026-01-08 23:21:52.63	31.65	32.02	-37.6	-39.2	16.6	0.00e+00	0	56	0	606076928	46	4404
2026-01-08 23:21:53.64	31.77	32.21	-37.6	-39.2	16.6	0.00e+00	0	56	0	609222656	46	4404
2026-01-08 23:21:54.64	31.90	32.40	-37.6	-39.2	16.6	0.00e+00	0	56	0	612368384	46	4407
2026-01-08 23:21:55.65	32.02	32.60	-37.7	-39.3	16.5	0.00e+00	0	56	0	615514112	46	4454
2026-01-08 23:21:56.66	32.15	32.80	-37.6	-39.2	16.5	0.00e+00	0	56	0	618659840	46	4440
2026-01-08 23:21:57.67	32.28	33.00	-37.7	-39.3	16.5	0.00e+00	0	56	0	621805568	46	4456
2026-01-08 23:21:58.68	32.42	33.20	-37.7	-39.4	16.4	0.00e+00	0	56	0	624951296	46	4512
2026-01-08 23:21:59.69	32.55	33.40	-37.8	-39.5	16.3	0.00e+00	0	56	0	628097024	46	4561
2026-01-08 23:22:00.70	32.69	33.60	-37.9	-39.6	16.2	0.00e+00	0	56	0	631242752	46	4637
2026-01-08 23:22:01.71	32.82	33.81	-37.9	-39.6	16.2	0.00e+00	0	56	0	634388480	46	4621
2026-01-08 23:22:02.72	32.96	34.01	-38.1	-39.8	16.0	0.00e+00	0	56	0	637534208	46	4750
2026-01-08 23:22:03.72	33.10	34.21	-38.2	-40.0	15.8	0.00e+00	0	56	0	640679936	46	4828
2026-01-08 23:22:04.73	33.24	34.42	-38.3	-40.1	15.7	0.00e+00	0	56	0	643825664	47	4616
2026-01-08 23:22:05.74	33.39	34.63	-38.5	-40.3	15.5	0.00e+00	0	56	0	646971392	47	4751
2026-01-08 23:22:06.75	33.53	34.84	-38.7	-40.6	15.2	0.00e+00	0	56	0	650117120	47	4917
2026-01-08 23:22:07.76	33.68	35.05	-39.0	-40.9	15.0	0.00e+00	0	56	0	653262848	48	4812
2026-01-08 23:22:08.77	33.83	35.26	-39.2	-41.2	14.7	1.50e-06	0	56	0	656408576	49	4684
2026-01-08 23:22:09.78	33.98	35.48	-39.3	-41.4	14.6	0.00e+00	0	56	0	659554304	49	4770
2026-01-08 23:22:10.79	34.14	35.69	-39.4	-41.5	14.4	0.00e+00	0	56	0	662700032	49	4861
2026-01-08 23:22:11.80	34.29	35.91	-39.6	-41.7	14.2	0.00e+00	0	56	0	665845760	49	4943
2026-01-08 23:22:12.81	34.45	36.12	-39.7	-41.8	14.1	2.20e-06	0	56	0	668991488	49	5030
2026-01-08 23:22:13.82	34.61	36.34	-39.8	-42.0	14.0	3.80e-06	0	56	0	672137216	50	4821
2026-01-08 23:22:14.83	34.77	36.56	-39.7	-41.9	14.1	3.00e-06	0	56	0	675282944	50	4784
2026-01-08 23:22:15.84	34.93	36.78	-39.7	-41.9	14.1	2.20e-06	0	56	0	678428672	50	4776
2026-01-08 23:22:16.85	35.10	37.00	-39.6	-41.8	14.2	3.80e-06	0	56	0	681574400	50	4720
2026-01-08 23:22:17.86	35.27	37.23	-39.6	-41.8	14.1	3.00e-06	0	56	0	684720128	50	4733
2026-01-08 23:22:18.87	35.44	37.45	-39.6	-41.7	14.2	7.00e-07	0	56	0	687865856	50	4701
2026-01-08 23:22:19.88	35.61	37.68	-39.6	-41.7	14.2	0.00e+00	0	56	0	691011584	50	4663
2026-01-08 23:22:20.89	35.79	37.91	-39.7	-41.8	14.1	7.00e-07	0	56	0	694157312	50	4757
2026-01-08 23:22:21.89	35.96	38.13	-39.7	-41.9	14.1	2.20e-06	0	56	0	697303040	50	4772
2026-01-08 23:22:22.90	36.14	38.36	-39.6	-41.8	14.2	7.00e-07	0	56	0	700448768	50	4722
2026-01-08 23:22:23.91	36.33	38.59	-39.6	-41.8	14.2	3.80e-06	0	56	0	703594496	50	4732
2026-01-08 23:22:24.92	36.51	38.82	-39.7	-41.8	14.2	1.50e-06	0	56	0	706740224	50	4748
2026-01-08 23:22:25.93	36.70	39.06	-39.6	-41.7	14.2	7.00e-07	0	56	0	709885952	50	4678
2026-01-08 23:22:26.94	36.89	39.29	-39.4	-41.4	14.5	0.00e+00	0	56	0	713031680	50	4540
2026-01-08 23:22:27.95	37.08	39.53	-39.3	-41.4	14.6	7.00e-07	0	56	0	716177408	50	4496
2026-01-08 23:22:28.96	37.28	39.76	-39.2	-41.2	14.7	0.00e+00	0	56	0	719323136	50	4436
2026-01-08 23:22:29.97	37.48	40.00	-39.3	-41.2	14.7	0.00e+00	0	56	0	722468864	50	4437
2026-01-08 23:22:30.98	37.68	40.24	-39.2	-41.2	14.8	0.00e+00	0	56	0	725614592	50	4423
2026-01-08 23:22:31.99	37.88	40.48	-39.2	-41.1	14.8	0.00e+00	0	56	0	729808896	50	4372
2026-01-08 23:22:33.00	38.09	40.73	-39.3	-41.2	14.7	0.00e+00	0	56	0	731906048	50	4438
2026-01-08 23:22:34.01	38.30	40.97	-39.3	-41.3	14.7	7.00e-07	0	56	0	735051776	50	4463
2026-01-08 23:22:35.02	38.52	41.21	-39.2	-41.2	14.8	0.00e+00	0	56	0	738197504	50	4414
2026-01-08 23:22:36.03	38.73	41.46	-39.2	-41.2	14.8	0.00e+00	0	56	0	741343232	50	4398
2026-01-08 23:22:37.04	38.95	41.71	-39.3	-41.3	14.8	0.00e+00	0	56	0	745537536	50	4447
2026-01-08 23:22:38.05	39.18	41.95	-39.2	-41.2	14.8	0.00e+00	0	56	0	748683264	50	4419
2026-01-08 23:22:39.06	39.40	42.20	-39.2	-41.2	14.8	0.00e+00	0	56	0	751828992	50	4400
2026-01-08 23:22:40.07	39.63	42.46	-39.3	-41.3	14.7	7.00e-07	0	56	0	754974720	50	4470
2026-01-08 23:22:41.08	39.87	42.71	-39.5	-41.5	14.5	7.00e-07	0	56	0	757071872	50	4576
2026-01-08 23:22:42.09	40.11	42.96	-39.7	-41.8	14.2	1.50e-06	0	56	0	760217600	50	4738
2026-01-08 23:22:43.10	40.35	43.21	-40.0	-42.3	13.7	2.20e-06	0	56	0	764411904	50	5016
2026-01-08 23:22:44.11	40.59	43.47	-40.2	-42.5	13.5	6.80e-06	0	56	0	767557632	50	5157
2026-01-08 23:22:45.12	40.84	43.73	-40.4	-42.8	13.2	1.52e-05	0	56	0	770703360	51	5003
2026-01-08 23:22:46.13	41.09	43.98	-40.5	-43.0	13.0	3.58e-05	0	56	0	773849088	51	5120
2026-01-08 23:22:47.13	41.35	44.24	-40.6	-43.2	12.9	4.88e-05	0	56	0	776994816	51	5225
2026-01-08 23:22:48.14	41.61	44.50	-40.7	-43.3	12.7	7.93e-05	0	56	0	780140544	52	5011
2026-01-08 23:22:49.15	41.88	44.76	-40.8	-43.5	12.5	1.11e-04	0	56	0	783286272	52	5112
2026-01-08 23:22:50.16	42.15	45.02	-40.5	-43.1	12.7	9.53e-05	0	56	0	786432000	52	4911
2026-01-08 23:22:51.17	42.42	45.29	-40.5	-43.1	12.8	1.06e-04	0	56	0	789577728	52	4921
2026-01-08 23:22:52.18	42.70	45.55	-40.5	-43.1	12.8	5.79e-05	0	56	0	792723456	52	4891
2026-01-08 23:22:53.19	42.98	45.82	-40.4	-42.9	13.0	3.50e-05	0	56	0	795869184	52	4784
2026-01-08 23:22:54.20	43.27	46.08	-40.3	-42.8	13.1	2.59e-05	0	56	0	799014912	52	4722
2026-01-08 23:22:55.21	43.56	46.35	-40.3	-42.7	13.2	3.81e-05	0	56	0	802160640	52	4672
2026-01-08 23:22:56.22	43.86	46.62	-40.3	-42.8	13.2	3.66e-05	0	56	0	805306368	52	4706
2026-01-08 23:22:57.23	44.17	46.89	-40.2	-42.6	13.4	1.75e-05	0	56	0	808452096	52	4619
2026-01-08 23:22:58.24	44.47	47.16	-40.0	-42.3	13.8	6.80e-06	0	56	0	811597824	51	4719
2026-01-08 23:22:59.25	44.79	47.43	-39.6	-41.8	14.3	2.20e-06	0	57	0	814743552	51	4449
2026-01-08 23:23:00.26	45.11	47.70	-39.4	-41.4	14.6	0.00e+00	0	56	0	817889280	50	4516
2026-01-08 23:23:01.27	45.43	47.97	-39.3	-41.2	14.8	0.00e+00	0	56	0	821035008	50	4433
2026-01-08 23:23:02.28	45.76	48.24	-39.3	-41.3	14.7	0.00e+00	0	57	0	824180736	50	4450
2026-01-08 23:23:03.29	46.10	48.52	-39.5	-41.5	14.5	0.00e+00	0	56	0	827326464	50	4597
2026-01-08 23:23:04.29	46.44	48.79	-39.7	-41.9	14.2	1.50e-06	0	56	0	830472192	50	4761
2026-01-08 23:23:05.30	46.79	49.06	-39.8	-42.0	14.1	1.50e-06	0	56	0	833617920	50	4831
2026-01-08 23:23:06.31	47.14	49.34	-39.8	-41.9	14.1	4.50e-06	0	56	0	836763648	50	4806
2026-01-08 23:23:07.32	47.50	49.62	-39.7	-41.9	14.2	7.00e-07	0	57	0	839909376	50	4764
2026-01-08 23:23:08.33	47.87	49.89	-39.5	-41.6	14.5	7.00e-07	0	57	0	843055104	50	4621
2026-01-08 23:23:09.34	48.24	50.17	-39.6	-41.7	14.3	3.00e-06	0	56	0	846200832	50	4696
2026-01-08 23:23:10.35	48.62	50.45	-39.6	-41.7	14.3	2.20e-06	0	56	0	849346560	50	4689
2026-01-08 23:23:11.36	49.01	50.73	-39.5	-41.6	14.4	0.00e+00	0	56	0	852492288	50	4642
2026-01-08 23:23:12.37	49.41	51.00	-39.3	-41.3	14.7	0.00e+00	0	56	0	855638016	50	4490
2026-01-08 23:23:13.38	49.81	51.28	-39.1	-41.0	15.1	0.00e+00	0	56	0	858783744	50	4309
2026-01-08 23:23:14.39	50.22	51.56	-39.0	-40.9	15.2	0.00e+00	0	56	0	861929472	49	4500
2026-01-08 23:23:15.40	50.64	51.84	-38.9	-40.8	15.3	0.00e+00	0	56	0	865075200	49	4446
2026-01-08 23:23:16.41	51.06	52.12	-38.9	-40.8	15.3	0.00e+00	0	56	0	868220928	49	4471
2026-01-08 23:23:17.42	51.49	52.40	-38.9	-40.8	15.2	0.00e+00	0	56	0	871366656	49	4486
2026-01-08 23:23:18.43	51.94	52.68	-38.8	-40.7	15.4	0.00e+00	0	56	0	874512384	49	4426
2026-01-08 23:23:19.44	52.39	52.95	-38.6	-40.3	15.7	0.00e+00	0	57	0	877658112	49	4238
2026-01-08 23:23:20.45	52.84	53.23	-38.3	-40.0	16.0	0.00e+00	0	56	0	880803840	48	4316
2026-01-08 23:23:21.46	53.31	53.51	-38.2	-39.9	16.1	0.00e+00	0	56	0	883949568	48	4254
2026-01-08 23:23:22.47	53.79	53.79	-38.2	-39.9	16.2	0.00e+00	0	56	0	887095296	48	4268
2026-01-08 23:23:23.48	54.27	54.07	-37.9	-39.5	16.4	0.00e+00	0	57	0	890241024	47	4333
2026-01-08 23:23:24.49	54.77	54.34	-38.1	-39.8	16.2	0.00e+00	0	56	0	893386752	47	4459
2026-01-08 23:23:25.50	55.27	54.62	-38.0	-39.7	16.3	0.00e+00	0	56	0	896532480	47	4416
2026-01-08 23:23:26.51	55.79	54.89	-37.7	-39.3	16.6	0.00e+00	0	57	0	899678208	47	4229
2026-01-08 23:23:27.52	56.31	55.17	-37.5	-39.1	16.9	0.00e+00	0	56	0	902823936	47	4106
2026-01-08 23:23:28.53	56.85	55.44	-37.5	-39.0	16.9	0.00e+00	0	56	0	905969664	46	4340
2026-01-08 23:23:29.54	57.39	55.71	-37.1	-38.6	17.2	0.00e+00	0	56	0	909115392	46	4135
2026-01-08 23:23:30.54	57.94	55.98	-37.2	-38.7	17.3	0.00e+00	0	57	0	912261120	46	4163
2026-01-08 23:23:31.55	58.51	56.25	-37.5	-39.0	16.9	0.00e+00	0	57	0	915406848	46	4319
2026-01-08 23:23:32.56	59.08	56.52	-37.5	-39.0	16.9	0.00e+00	0	56	0	918552576	46	4337
2026-01-08 23:23:33.57	59.67	56.79	-37.7	-39.2	16.7	0.00e+00	0	56	0	921698304	46	4441
2026-01-08 23:23:34.58	60.27	57.05	-37.8	-39.4	16.4	0.00e+00	0	57	0	924844032	46	4521
2026-01-08 23:23:35.59	60.88	57.32	-37.9	-39.5	16.4	0.00e+00	0	56	0	927989760	46	4591
2026-01-08 23:23:36.60	61.51	57.58	-37.6	-39.2	16.8	0.00e+00	0	57	0	931135488	46	4409
2026-01-08 23:23:37.61	62.14	57.84	-37.3	-38.8	17.1	0.00e+00	0	56	0	934281216	46	4235
2026-01-08 23:23:38.62	62.79	58.10	-37.2	-38.7	17.2	0.00e+00	0	56	0	937426944	46	4155
2026-01-08 23:23:39.63	63.45	58.35	-37.1	-38.6	17.3	0.00e+00	0	56	0	940572672	46	4126
2026-01-08 23:23:40.64	64.12	58.60	-37.2	-38.7	17.3	0.00e+00	0	56	0	943718400	46	4153
2026-01-08 23:23:41.65	64.81	58.85	-37.3	-38.8	17.1	0.00e+00	0	56	0	946864128	46	4228
2026-01-08 23:23:42.66	65.50	59.10	-37.4	-39.0	17.0	0.00e+00	0	56	0	950009856	46	4299
2026-01-08 23:23:43.67	66.21	59.35	-37.3	-38.9	17.1	0.00e+00	0	56	0	953155584	46	4244
2026-01-08 23:23:44.67	66.93	59.59	-37.3	-38.8	17.1	0.00e+00	0	57	0	956301312	46	4207
2026-01-08 23:23:45.68	67.67	59.82	-37.0	-38.5	17.4	0.00e+00	0	56	0	959447040	46	4071
2026-01-08 23:23:46.69	68.42	60.06	-37.0	-38.5	17.4	0.00e+00	0	56	0	962592768	45	4329
2026-01-08 23:23:47.70	69.19	60.29	-37.2	-38.7	17.2	0.00e+00	0	57	0	965738496	45	4406
2026-01-08 23:23:48.71	69.97	60.52	-36.9	-38.3	17.6	0.00e+00	0	57	0	968884224	45	4225
2026-01-08 23:23:49.72	70.76	60.74	-36.5	-37.8	18.0	0.00e+00	0	57	0	972029952	45	3999
2026-01-08 23:23:50.73	71.57	60.96	-36.1	-37.4	18.4	0.00e+00	0	57	0	975175680	44	4049
2026-01-08 23:23:51.74	72.39	61.18	-36.1	-37.4	18.5	0.00e+00	0	57	0	978321408	44	4007
2026-01-08 23:23:52.75	73.22	61.39	-36.2	-37.5	18.4	0.00e+00	0	57	0	981467136	44	4070
2026-01-08 23:23:53.76	74.07	61.59	-36.3	-37.6	18.2	0.00e+00	0	57	0	984612864	44	4145
2026-01-08 23:23:54.77	74.93	61.79	-36.4	-37.8	18.1	0.00e+00	0	57	0	987758592	44	4213
2026-01-08 23:23:55.78	75.81	61.99	-36.3	-37.7	18.2	0.00e+00	0	56	0	990904320	44	4150
2026-01-08 23:23:56.79	76.70	62.18	-36.4	-37.7	18.1	0.00e+00	0	56	0	994050048	44	4185
2026-01-08 23:23:57.79	77.60	62.36	-36.3	-37.7	18.1	0.00e+00	0	57	0	997195776	44	4160
2026-01-08 23:23:58.80	78.52	62.54	-36.3	-37.6	18.2	0.00e+00	0	56	0	1000341504	44	4131
2026-01-08 23:23:59.81	79.45	62.72	-36.6	-38.0	17.9	0.00e+00	0	57	0	1003487232	44	4316
2026-01-08 23:24:00.82	80.39	62.89	-36.9	-38.4	17.5	0.00e+00	0	56	0	1006632960	44	4514
2026-01-08 23:24:01.83	81.35	63.05	-37.0	-38.5	17.4	0.00e+00	0	57	0	1009778688	44	4587
2026-01-08 23:24:02.84	82.32	63.21	-36.9	-38.4	17.5	0.00e+00	0	57	0	1012924416	44	4509
2026-01-08 23:24:03.85	83.31	63.35	-36.8	-38.2	17.6	0.00e+00	0	57	0	1016070144	44	4422
2026-01-08 23:24:04.86	84.30	63.50	-36.9	-38.3	17.5	0.00e+00	0	56	0	1019215872	44	4465
2026-01-08 23:24:05.87	85.31	63.63	-36.8	-38.2	17.7	0.00e+00	0	57	0	1022361600	44	4423
2026-01-08 23:24:06.88	86.33	63.76	-36.9	-38.4	17.5	0.00e+00	0	57	0	1025507328	44	4497
2026-01-08 23:24:07.89	87.36	63.88	-36.5	-37.9	17.9	0.00e+00	0	57	0	1028653056	44	4279
2026-01-08 23:24:08.90	88.40	64.00	-36.4	-37.7	18.0	0.00e+00	0	56	0	1031798784	44	4185
2026-01-08 23:24:09.91	89.45	64.10	-36.3	-37.6	18.1	0.00e+00	0	56	0	1034944512	44	4140
2026-01-08 23:24:10.92	90.51	64.20	-36.2	-37.5	18.2	0.00e+00	0	57	0	1038090240	44	4078
2026-01-08 23:24:11.93	91.58	64.30	-36.2	-37.5	18.2	0.00e+00	0	57	0	1041235968	44	4093
2026-01-08 23:24:12.94	92.66	64.38	-36.1	-37.4	18.3	0.00e+00	0	57	0	1044381696	44	4049
2026-01-08 23:24:13.95	93.75	64.45	-37.0	-38.4	17.3	0.00e+00	0	57	0	1047527424	44	4534
2026-01-08 23:24:14.95	94.83	64.52	-37.1	-38.6	17.2	0.00e+00	0	57	0	1050673152	44	4633
2026-01-08 23:24:15.96	95.92	64.58	-36.7	-38.1	17.8	0.00e+00	0	57	0	1053818880	44	4353
2026-01-08 23:24:16.97	97.03	64.63	-36.7	-38.1	17.6	0.00e+00	0	57	0	1056964608	44	4362
2026-01-08 23:24:17.98	98.13	64.67	-36.8	-38.2	17.6	0.00e+00	0	57	0	1060110336	44	4428
2026-01-08 23:24:18.99	99.25	64.71	-36.6	-38.1	17.7	0.00e+00	0	57	0	1063256064	44	4359
2026-01-08 23:24:20.00	100.36	64.73	-36.7	-38.2	17.7	0.00e+00	0	57	0	1066401792	44	4398
2026-01-08 23:24:21.01	101.48	64.75	-36.7	-38.0	17.7	0.00e+00	0	57	0	1069547520	44	4340
2026-01-08 23:24:22.02	102.59	64.76	-36.5	-37.9	17.8	0.00e+00	0	57	0	1072693248	44	4247
2026-01-08 23:24:23.03	103.71	64.76	-36.2	-37.6	18.2	0.00e+00	0	57	0	1075838976	44	4104
2026-01-08 23:24:24.04	104.83	64.75	-36.3	-37.7	18.1	0.00e+00	0	57	0	1078984704	44	4166
2026-01-08 23:24:25.05	105.95	64.73	-36.9	-38.3	17.4	0.00e+00	0	57	0	1082130432	44	4487
2026-01-08 23:24:26.06	107.06	64.71	-37.5	-39.1	16.7	0.00e+00	0	57	0	1085276160	45	4611
2026-01-08 23:24:27.07	108.17	64.68	-37.4	-38.9	16.9	0.00e+00	0	57	0	1088421888	45	4545
2026-01-08 23:24:28.08	109.28	64.63	-36.8	-38.3	17.5	0.00e+00	0	57	0	1091567616	45	4213
2026-01-08 23:24:29.09	110.39	64.58	-36.1	-37.4	18.3	0.00e+00	0	57	0	1094713344	44	4049
2026-01-08 23:24:30.10	111.48	64.52	-35.8	-37.1	18.5	0.00e+00	0	57	0	1097859072	43	4133
2026-01-08 23:24:31.11	112.58	64.46	-36.0	-37.3	18.3	0.00e+00	0	57	0	1101004800	43	4238
2026-01-08 23:24:32.12	113.66	64.38	-36.5	-37.9	17.7	0.00e+00	0	57	0	1104150528	43	4538
2026-01-08 23:24:33.12	114.73	64.30	-36.5	-37.9	17.8	0.00e+00	0	57	0	1107296256	43	4511
2026-01-08 23:24:34.13	115.80	64.21	-36.4	-37.8	17.8	0.00e+00	0	57	0	1110441984	43	4490
2026-01-08 23:24:35.14	116.86	64.11	-36.2	-37.6	18.1	0.00e+00	0	57	0	1114636288	43	4352
2026-01-08 23:24:36.15	117.91	64.00	-36.6	-38.1	17.4	0.00e+00	0	57	0	1117782016	43	4609
2026-01-08 23:24:37.16	118.95	63.89	-37.1	-38.6	17.0	0.00e+00	0	57	0	1119879168	44	4648
2026-01-08 23:24:38.17	119.99	63.77	-37.4	-39.0	16.7	0.00e+00	0	57	0	1123024896	45	4573
2026-01-08 23:24:39.18	121.01	63.64	-37.4	-38.9	16.8	0.00e+00	0	57	0	1126170624	45	4528
2026-01-08 23:24:40.19	122.02	63.50	-37.1	-38.6	17.1	0.00e+00	0	57	0	1129316352	45	4344
2026-01-08 23:24:41.20	123.01	63.36	-36.6	-38.0	17.6	0.00e+00	0	57	0	1133510656	45	4091
2026-01-08 23:24:42.21	124.00	63.21	-36.2	-37.5	18.2	0.00e+00	0	57	0	1136656384	44	4086
2026-01-08 23:24:43.22	124.97	63.05	-36.2	-37.5	18.2	0.00e+00	0	57	0	1139802112	44	4089
2026-01-08 23:24:44.23	125.93	62.89	-36.9	-38.3	17.5	0.00e+00	0	57	0	1142947840	44	4475
2026-01-08 23:24:45.24	126.88	62.72	-37.2	-38.7	17.1	0.00e+00	0	57	0	1145044992	45	4408
2026-01-08 23:24:46.25	127.81	62.55	-36.5	-37.9	17.8	0.00e+00	0	57	0	1149239296	45	4013
2026-01-08 23:24:47.26	128.73	62.37	-36.1	-37.4	18.2	0.00e+00	0	57	0	1152385024	44	4034
2026-01-08 23:24:48.27	129.64	62.18	-36.5	-37.9	17.9	0.00e+00	0	57	0	1155530752	44	4253
2026-01-08 23:24:49.28	130.53	61.99	-36.8	-38.2	17.5	0.00e+00	0	57	0	1158676480	44	4407
2026-01-08 23:24:50.29	131.41	61.80	-37.3	-38.8	17.0	0.00e+00	0	57	0	1161822208	45	4472
2026-01-08 23:24:51.29	132.27	61.60	-38.0	-39.7	16.1	0.00e+00	0	57	0	1164967936	46	4694
2026-01-08 23:24:52.30	133.12	61.39	-37.8	-39.5	16.3	0.00e+00	0	57	0	1168113664	46	4586
2026-01-08 23:24:53.31	133.96	61.18	-36.8	-38.2	17.5	0.00e+00	0	57	0	1171259392	45	4161
2026-01-08 23:24:54.32	134.78	60.96	-35.6	-36.9	18.7	0.00e+00	0	57	0	1174405120	43	4024
2026-01-08 23:24:55.33	135.59	60.74	-35.9	-37.2	18.4	0.00e+00	0	57	0	1177550848	43	4147
2026-01-08 23:24:56.34	136.38	60.52	-37.3	-38.8	17.0	0.00e+00	0	57	0	1180696576	45	4476
2026-01-08 23:24:57.35	137.16	60.29	-38.0	-39.7	16.1	0.00e+00	0	57	0	1183842304	46	4696
2026-01-08 23:24:58.36	137.93	60.06	-38.1	-39.8	16.0	0.00e+00	0	57	0	1186988032	47	4489
2026-01-08 23:24:59.37	138.68	59.82	-37.9	-39.6	16.1	0.00e+00	0	57	0	1190133760	47	4351
2026-01-08 23:25:00.38	139.42	59.58	-37.1	-38.5	17.2	0.00e+00	0	57	0	1193279488	46	4090
2026-01-08 23:25:01.39	140.15	59.34	-36.3	-37.7	18.1	0.00e+00	0	57	0	1196425216	44	4152
2026-01-08 23:25:02.40	140.86	59.10	-36.6	-38.0	17.8	0.00e+00	0	57	0	1199570944	44	4304
2026-01-08 23:25:03.41	141.56	58.85	-37.5	-39.0	16.8	0.00e+00	0	57	0	1202716672	45	4579
2026-01-08 23:25:04.43	142.25	58.60	-38.5	-40.3	15.5	0.00e+00	0	57	0	1205862400	47	4738
2026-01-08 23:25:05.44	142.93	58.34	-38.6	-40.5	15.5	0.00e+00	0	57	0	1209008128	48	4565
2026-01-08 23:25:06.44	143.58	58.09	-37.5	-39.1	16.5	0.00e+00	0	57	0	1212153856	47	4119
2026-01-08 23:25:07.45	144.23	57.83	-36.7	-38.1	17.4	0.00e+00	0	57	0	1215299584	45	4104
2026-01-08 23:25:08.47	144.87	57.57	-36.4	-37.7	17.9	0.00e+00	0	57	0	1218445312	44	4192
2026-01-08 23:25:09.48	145.50	57.31	-36.8	-38.2	17.6	0.00e+00	0	57	0	1221591040	44	4397
2026-01-08 23:25:10.48	146.11	57.04	-37.6	-39.2	16.5	0.00e+00	0	57	0	1224736768	45	4668
2026-01-08 23:25:11.50	146.71	56.77	-38.5	-40.3	15.5	0.00e+00	0	57	0	1227882496	47	4728
2026-01-08 23:25:12.50	147.30	56.51	-38.8	-40.7	15.2	0.00e+00	0	57	0	1231028224	48	4662
2026-01-08 23:25:13.51	147.87	56.24	-38.7	-40.6	15.3	7.00e-07	0	57	0	1234173952	48	4636
2026-01-08 23:25:14.52	148.44	55.97	-38.2	-39.8	16.1	0.00e+00	0	57	0	1237319680	48	4233
2026-01-08 23:25:15.53	149.00	55.70	-37.8	-39.4	16.4	0.00e+00	0	57	0	1240465408	47	4275
2026-01-08 23:25:16.54	149.54	55.42	-37.7	-39.3	16.5	0.00e+00	0	57	0	1243611136	47	4218
2026-01-08 23:25:17.55	150.08	55.15	-38.7	-40.5	15.3	0.00e+00	0	57	0	1246756864	47	4831
2026-01-08 23:25:18.56	150.60	54.87	-39.5	-41.6	14.0	7.00e-07	0	57	0	1249902592	49	4905
2026-01-08 23:25:19.57	151.12	54.60	-39.7	-41.8	13.9	3.00e-06	0	57	0	1253048320	50	4753
2026-01-08 23:25:20.58	151.62	54.32	-39.6	-41.7	14.1	2.20e-06	0	57	0	1256194048	50	4689
2026-01-08 23:25:21.59	152.12	54.04	-39.5	-41.6	14.1	2.20e-06	0	57	0	1259339776	50	4608
2026-01-08 23:25:22.60	152.60	53.76	-38.7	-40.6	15.2	7.00e-07	0	57	0	1262485504	49	4355
2026-01-08 23:25:23.61	153.08	53.49	-38.1	-39.8	16.0	0.00e+00	0	57	0	1265631232	48	4222
2026-01-08 23:25:24.62	153.55	53.21	-38.0	-39.6	16.1	0.00e+00	0	57	0	1268776960	47	4380
2026-01-08 23:25:25.63	154.01	52.93	-37.9	-39.5	16.2	0.00e+00	0	57	0	1271922688	47	4323
2026-01-08 23:25:26.64	154.46	52.65	-38.5	-40.3	15.5	0.00e+00	0	57	0	1275068416	47	4734
2026-01-08 23:25:27.65	154.90	52.37	-39.0	-40.9	14.9	0.00e+00	0	57	0	1278214144	48	4814
2026-01-08 23:25:28.66	155.34	52.09	-39.3	-41.3	14.6	7.00e-07	0	57	0	1281359872	49	4728
2026-01-08 23:25:29.67	155.76	51.81	-39.5	-41.6	13.9	2.20e-06	0	57	0	1284505600	49	4913
2026-01-08 23:25:30.68	156.18	51.53	-39.7	-42.0	13.5	1.06e-05	0	57	0	1287651328	50	4826
2026-01-08 23:25:31.68	156.59	51.25	-39.8	-42.0	13.7	9.90e-06	0	57	0	1290797056	50	4848
2026-01-08 23:25:32.69	156.99	50.97	-39.4	-41.4	14.4	7.00e-07	0	57	0	1293942784	50	4533
2026-01-08 23:25:33.70	157.39	50.69	-39.2	-41.2	14.7	0.00e+00	0	57	0	1297088512	50	4438
2026-01-08 23:25:34.71	157.77	50.41	-39.6	-41.8	14.1	7.00e-07	0	57	0	1300234240	50	4711
2026-01-08 23:25:35.72	158.16	50.13	-39.9	-42.2	13.7	1.06e-05	0	57	0	1303379968	50	4937
2026-01-08 23:25:36.73	158.53	49.85	-40.0	-42.3	13.4	1.29e-05	0	57	0	1306525696	50	5038
2026-01-08 23:25:37.74	158.90	49.58	-40.2	-42.6	13.2	3.35e-05	0	57	0	1309671424	51	4912
2026-01-08 23:25:38.75	159.26	49.30	-40.4	-42.9	12.8	4.19e-05	0	57	0	1312817152	51	5096
2026-01-08 23:25:39.76	159.61	49.02	-40.1	-42.4	13.4	2.36e-05	0	57	0	1315962880	51	4791
2026-01-08 23:25:40.77	159.96	48.75	-39.4	-41.5	14.3	2.20e-06	0	57	0	1319108608	50	4582
2026-01-08 23:25:41.77	160.30	48.47	-38.7	-40.6	15.3	0.00e+00	0	57	0	1322254336	49	4356
2026-01-08 23:25:42.78	160.64	48.20	-38.5	-40.2	15.6	0.00e+00	0	57	0	1325400064	48	4416
2026-01-08 23:25:43.79	160.97	47.92	-38.7	-40.5	15.2	0.00e+00	0	57	0	1328545792	48	4594
2026-01-08 23:25:44.81	161.30	47.65	-39.6	-41.7	14.0	0.00e+00	0	57	0	1331691520	49	4975
2026-01-08 23:25:45.81	161.61	47.38	-40.4	-42.9	12.9	2.28e-05	0	57	0	1334837248	51	5045
2026-01-08 23:25:46.82	161.93	47.11	-40.3	-42.8	13.0	3.81e-05	0	57	0	1337982976	51	4993
2026-01-08 23:25:47.83	162.24	46.83	-40.1	-42.4	13.3	1.90e-05	0	57	0	1341128704	51	4784
2026-01-08 23:25:48.84	162.54	46.56	-39.9	-42.2	13.6	1.06e-05	0	57	0	1344274432	51	4652
2026-01-08 23:25:49.85	162.84	46.29	-39.7	-41.8	14.0	3.00e-06	0	57	0	1347420160	51	4459
2026-01-08 23:25:50.86	163.13	46.03	-39.6	-41.7	14.1	0.00e+00	0	57	0	1350565888	51	4409
2026-01-08 23:25:51.87	163.42	45.76	-39.8	-42.0	13.8	2.20e-06	0	57	0	1353711616	51	4583
2026-01-08 23:25:52.88	163.71	45.49	-40.0	-42.2	13.6	6.80e-06	0	57	0	1356857344	51	4699
2026-01-08 23:25:53.89	163.98	45.23	-40.1	-42.4	13.4	1.37e-05	0	57	0	1360003072	51	4806
2026-01-08 23:25:54.90	164.26	44.96	-40.3	-42.8	13.0	3.81e-05	0	57	0	1363148800	51	5012
2026-01-08 23:25:55.91	164.53	44.70	-40.2	-42.6	13.2	2.74e-05	0	57	0	1366294528	51	4900
2026-01-08 23:25:56.92	164.80	44.44	-40.2	-42.6	13.2	1.60e-05	0	57	0	1369440256	51	4894
2026-01-08 23:25:57.93	165.06	44.18	-40.6	-43.1	12.6	5.11e-05	0	57	0	1372585984	51	5215
2026-01-08 23:25:58.93	165.31	43.92	-40.6	-43.3	12.3	1.59e-04	0	57	0	1375731712	52	5000
2026-01-08 23:25:59.94	165.56	43.66	-40.5	-43.1	12.6	1.37e-04	0	57	0	1378877440	52	4891
2026-01-08 23:26:00.95	165.81	43.40	-40.2	-42.6	13.1	4.73e-05	0	57	0	1382023168	52	4617
2026-01-08 23:26:01.96	166.06	43.15	-39.9	-42.1	13.6	1.22e-05	0	57	0	1385168896	51	4633
2026-01-08 23:26:02.97	166.30	42.89	-39.5	-41.6	14.2	3.00e-06	0	57	0	1388314624	51	4362
2026-01-08 23:26:03.99	166.54	42.63	-39.3	-41.3	14.5	0.00e+00	0	57	0	1391460352	50	4463
2026-01-08 23:26:05.00	166.78	42.38	-39.4	-41.5	14.3	7.00e-07	0	57	0	1394606080	50	4571
2026-01-08 23:26:06.00	167.00	42.13	-39.7	-41.9	13.9	3.80e-06	0	57	0	1397751808	50	4785
2026-01-08 23:26:07.01	167.23	41.88	-39.7	-41.9	13.9	7.00e-07	0	57	0	1400897536	50	4792
2026-01-08 23:26:08.03	167.46	41.63	-39.6	-41.8	14.0	3.00e-06	0	57	0	1404043264	50	4709
2026-01-08 23:26:09.04	167.68	41.38	-39.5	-41.6	14.2	0.00e+00	0	57	0	1407188992	50	4620
2026-01-08 23:26:10.05	167.89	41.13	-39.5	-41.7	14.1	1.50e-06	0	57	0	1410334720	50	4655
2026-01-08 23:26:11.05	168.11	40.89	-39.4	-41.5	14.3	7.00e-07	0	57	0	1413480448	50	4581
2026-01-08 23:26:12.06	168.32	40.64	-39.3	-41.3	14.4	2.20e-06	0	57	0	1416626176	50	4486
2026-01-08 23:26:13.08	168.53	40.40	-39.3	-41.3	14.5	7.00e-07	0	57	0	1419771904	50	4468
2026-01-08 23:26:14.09	168.73	40.16	-39.4	-41.5	14.3	2.20e-06	0	57	0	1422917632	50	4572
2026-01-08 23:26:15.09	168.93	39.92	-39.7	-41.8	14.0	7.00e-07	0	57	0	1426063360	50	4751
2026-01-08 23:26:16.10	169.13	39.68	-40.0	-42.3	13.4	1.29e-05	0	57	0	1429209088	50	5023
2026-01-08 23:26:17.12	169.33	39.44	-40.1	-42.4	13.4	1.75e-05	0	57	0	1432354816	50	5087
2026-01-08 23:26:18.12	169.52	39.20	-40.1	-42.4	13.3	1.75e-05	0	57	0	1435500544	50	5100
2026-01-08 23:26:19.13	169.71	38.97	-39.9	-42.2	13.6	8.30e-06	0	57	0	1438646272	50	4934
2026-01-08 23:26:20.14	169.90	38.73	-39.6	-41.7	14.1	1.50e-06	0	57	0	1441792000	50	4661
2026-01-08 23:26:21.16	170.08	38.50	-39.4	-41.5	14.3	0.00e+00	0	57	0	1444937728	50	4557
2026-01-08 23:26:22.17	170.27	38.27	-39.4	-41.5	14.2	7.00e-07	0	57	0	1448083456	50	4591
2026-01-08 23:26:23.17	170.44	38.04	-39.4	-41.5	14.2	1.50e-06	0	57	0	1451229184	50	4565
2026-01-08 23:26:24.18	170.62	37.81	-39.4	-41.5	14.2	1.50e-06	0	57	0	1454374912	50	4564
2026-01-08 23:26:25.19	170.80	37.58	-39.4	-41.5	14.2	7.00e-07	0	57	0	1458569216	50	4547
2026-01-08 23:26:26.20	170.97	37.35	-39.3	-41.4	14.3	0.00e+00	0	57	0	1460666368	50	4514
2026-01-08 23:26:27.21	171.14	37.13	-39.1	-41.0	14.6	0.00e+00	0	57	0	1463812096	50	4339
2026-01-08 23:26:28.22	171.31	36.90	-38.9	-40.8	14.9	0.00e+00	0	57	0	1466957824	49	4474
2026-01-08 23:26:29.23	171.47	36.68	-38.8	-40.6	15.1	0.00e+00	0	57	0	1470103552	49	4375
2026-01-08 23:26:30.24	171.64	36.46	-38.5	-40.3	15.4	0.00e+00	0	57	0	1473249280	49	4204
2026-01-08 23:26:31.25	171.80	36.24	-38.4	-40.2	15.6	0.00e+00	0	57	0	1477443584	48	4409
2026-01-08 23:26:32.26	171.96	36.02	-38.3	-40.1	15.7	0.00e+00	0	57	0	1480589312	48	4343
2026-01-08 23:26:33.27	172.12	35.80	-38.3	-40.0	15.7	0.00e+00	0	57	0	1482686464	48	4332
2026-01-08 23:26:34.28	172.27	35.58	-38.2	-39.9	15.8	0.00e+00	0	57	0	1485832192	48	4264
2026-01-08 23:26:35.29	172.42	35.37	-38.3	-40.0	15.7	0.00e+00	0	57	0	1488977920	48	4323
2026-01-08 23:26:36.29	172.57	35.16	-38.3	-40.0	15.7	0.00e+00	0	57	0	1493172224	48	4339
2026-01-08 23:26:37.30	172.72	34.94	-38.3	-40.0	15.7	0.00e+00	0	57	0	1496317952	48	4314
2026-01-08 23:26:38.31	172.87	34.73	-38.2	-40.0	15.7	0.00e+00	0	57	0	1499463680	48	4300
2026-01-08 23:26:39.32	173.02	34.52	-38.4	-40.1	15.6	0.00e+00	0	57	0	1502609408	48	4381
2026-01-08 23:26:40.33	173.16	34.31	-38.7	-40.5	15.2	0.00e+00	0	57	0	1505755136	48	4590
2026-01-08 23:26:41.34	173.30	34.10	-39.1	-41.1	14.6	0.00e+00	0	57	0	1508900864	48	4921
2026-01-08 23:26:42.35	173.44	33.90	-39.4	-41.5	14.2	1.50e-06	0	57	0	1512046592	49	4842
2026-01-08 23:26:43.36	173.58	33.69	-39.5	-41.7	14.1	1.50e-06	0	57	0	1515192320	49	4927
2026-01-08 23:26:44.37	173.72	33.49	-39.4	-41.5	14.1	7.00e-07	0	57	0	1518338048	49	4859
2026-01-08 23:26:45.38	173.86	33.28	-39.3	-41.4	14.2	7.00e-07	0	57	0	1521483776	49	4800
2026-01-08 23:26:46.39	173.99	33.08	-39.0	-41.0	14.7	7.00e-07	0	57	0	1524629504	49	4546
2026-01-08 23:26:47.40	174.12	32.88	-38.7	-40.6	15.0	0.00e+00	0	57	0	1527775232	49	4368
2026-01-08 23:26:48.41	174.25	32.68	-38.5	-40.4	15.3	0.00e+00	0	57	0	1530920960	49	4247
2026-01-08 23:26:49.42	174.38	32.48	-38.2	-39.9	15.7	0.00e+00	0	57	0	1534066688	48	4275
2026-01-08 23:26:50.43	174.51	32.28	-37.8	-39.5	16.1	0.00e+00	0	57	0	1537212416	47	4306
2026-01-08 23:26:51.44	174.63	32.09	-37.4	-39.0	16.5	0.00e+00	0	57	0	1540358144	46	4339
2026-01-08 23:26:52.45	174.76	31.89	-37.5	-39.1	16.5	0.00e+00	0	57	0	1543503872	46	4352
2026-01-08 23:26:53.46	174.88	31.70	-37.4	-39.0	16.5	0.00e+00	0	57	0	1546649600	46	4334
2026-01-08 23:26:54.47	175.00	31.50	-37.4	-39.0	16.5	0.00e+00	0	57	0	1549795328	46	4317
2026-01-08 23:26:55.48	175.12	31.31	-37.3	-38.9	16.6	0.00e+00	0	57	0	1552941056	46	4263
2026-01-08 23:26:56.49	175.24	31.12	-37.3	-38.9	16.6	0.00e+00	0	57	0	1556086784	46	4266
2026-01-08 23:26:57.49	175.36	30.93	-37.3	-38.8	16.7	0.00e+00	0	57	0	1559232512	46	4223
2026-01-08 23:26:58.50	175.48	30.74	-37.3	-38.9	16.6	0.00e+00	0	57	0	1562378240	46	4272
2026-01-08 23:26:59.51	175.59	30.56	-37.4	-38.9	16.6	0.00e+00	0	57	0	1565523968	46	4287
2026-01-08 23:27:00.52	175.70	30.37	-37.4	-39.0	16.5	0.00e+00	0	57	0	1568669696	46	4331
2026-01-08 23:27:01.53	175.82	30.19	-37.5	-39.1	16.4	0.00e+00	0	57	0	1571815424	46	4360
2026-01-08 23:27:02.54	175.93	30.00	-37.6	-39.3	16.2	0.00e+00	0	57	0	1574961152	46	4450
2026-01-08 23:27:03.55	176.04	29.82	-37.8	-39.5	16.0	0.00e+00	0	57	0	1578106880	46	4563
2026-01-08 23:27:04.56	176.15	29.64	-38.0	-39.7	15.8	0.00e+00	0	57	0	1581252608	46	4686
2026-01-08 23:27:05.57	176.25	29.45	-38.1	-39.9	15.7	0.00e+00	0	57	0	1584398336	46	4773
2026-01-08 23:27:06.58	176.36	29.27	-38.2	-40.0	15.6	0.00e+00	0	57	0	1587544064	47	4556
2026-01-08 23:27:07.59	176.47	29.10	-38.2	-40.0	15.5	0.00e+00	0	57	0	1590689792	47	4568
2026-01-08 23:27:08.60	176.57	28.92	-38.3	-40.1	15.5	0.00e+00	0	57	0	1593835520	47	4622
2026-01-08 23:27:09.61	176.67	28.74	-38.3	-40.2	15.4	0.00e+00	0	57	0	1596981248	47	4656
2026-01-08 23:27:10.62	176.78	28.56	-38.3	-40.2	15.4	0.00e+00	0	57	0	1600126976	47	4653
2026-01-08 23:27:11.63	176.88	28.39	-38.2	-40.0	15.5	0.00e+00	0	57	0	1603272704	47	4582
2026-01-08 23:27:12.64	176.98	28.22	-38.2	-40.0	15.5	0.00e+00	0	57	0	1606418432	47	4578
2026-01-08 23:27:13.65	177.08	28.04	-38.1	-39.9	15.5	0.00e+00	0	57	0	1609564160	47	4544
2026-01-08 23:27:14.66	177.17	27.87	-38.0	-39.7	15.8	0.00e+00	0	57	0	1612709888	47	4441
2026-01-08 23:27:15.67	177.27	27.70	-37.9	-39.7	15.8	0.00e+00	0	57	0	1615855616	47	4403
2026-01-08 23:27:16.68	177.37	27.53	-37.9	-39.6	15.8	0.00e+00	0	57	0	1619001344	47	4384
2026-01-08 23:27:17.69	177.46	27.36	-37.8	-39.5	15.9	0.00e+00	0	57	0	1622147072	47	4335
2026-01-08 23:27:18.71	177.56	27.19	-37.7	-39.4	16.0	0.00e+00	0	57	0	1625292800	47	4285
2026-01-08 23:27:19.72	177.65	27.02	-37.6	-39.3	16.2	0.00e+00	0	57	0	1628438528	47	4197
2026-01-08 23:27:20.73	177.74	26.86	-37.5	-39.1	16.4	0.00e+00	0	57	0	1631584256	46	4365
2026-01-08 23:27:21.74	177.83	26.69	-37.3	-38.9	16.5	0.00e+00	0	57	0	1634729984	46	4289
2026-01-08 23:27:22.75	177.92	26.53	-37.2	-38.7	16.7	0.00e+00	0	57	0	1637875712	46	4190
2026-01-08 23:27:23.76	178.01	26.37	-37.0	-38.5	16.9	0.00e+00	0	57	0	1641021440	46	4074
2026-01-08 23:27:24.76	178.10	26.21	-36.9	-38.3	17.1	0.00e+00	0	57	0	1644167168	45	4235
2026-01-08 23:27:25.78	178.19	26.04	-36.7	-38.2	17.2	0.00e+00	0	57	0	1647312896	45	4163
2026-01-08 23:27:26.79	178.27	25.88	-36.6	-38.0	17.3	0.00e+00	0	57	0	1650458624	45	4089
2026-01-08 23:27:27.80	178.36	25.72	-36.5	-38.0	17.4	0.00e+00	0	57	0	1653604352	45	4069
2026-01-08 23:27:28.81	178.44	25.56	-36.5	-37.9	17.4	0.00e+00	0	57	0	1656750080	45	4048
2026-01-08 23:27:29.82	178.53	25.41	-36.6	-38.0	17.4	0.00e+00	0	57	0	1659895808	45	4072
2026-01-08 23:27:30.83	178.61	25.25	-36.7	-38.1	17.2	0.00e+00	0	57	0	1663041536	45	4142
2026-01-08 23:27:31.84	178.70	25.09	-36.8	-38.3	17.1	0.00e+00	0	57	0	1666187264	45	4209
2026-01-08 23:27:32.85	178.78	24.94	-36.8	-38.3	17.1	0.00e+00	0	57	0	1669332992	45	4235
2026-01-08 23:27:33.86	178.86	24.78	-36.9	-38.4	16.9	0.00e+00	0	57	0	1672478720	45	4284
2026-01-08 23:27:34.87	178.94	24.63	-36.9	-38.5	16.9	0.00e+00	0	57	0	1675624448	45	4299
2026-01-08 23:27:35.88	179.02	24.48	-37.0	-38.5	16.9	0.00e+00	0	57	0	1678770176	45	4308
2026-01-08 23:27:36.88	179.10	24.33	-36.9	-38.4	16.9	0.00e+00	0	57	0	1681915904	45	4279
2026-01-08 23:27:37.90	179.18	24.17	-36.9	-38.5	16.9	0.00e+00	0	57	0	1685061632	45	4294
2026-01-08 23:27:38.91	179.25	24.02	-37.0	-38.5	16.9	0.00e+00	0	57	0	1688207360	45	4335
2026-01-08 23:27:39.92	179.33	23.87	-37.0	-38.6	16.8	0.00e+00	0	57	0	1691353088	45	4361
2026-01-08 23:27:40.93	179.41	23.72	-37.1	-38.7	16.7	0.00e+00	0	57	0	1694498816	45	4422
2026-01-08 23:27:41.94	179.48	23.58	-37.2	-38.7	16.6	0.00e+00	0	57	0	1697644544	45	4440
2026-01-08 23:27:42.95	179.56	23.43	-37.3	-38.9	16.5	0.00e+00	0	57	0	1700790272	45	4506
2026-01-08 23:27:43.95	179.63	23.28	-37.3	-39.0	16.4	0.00e+00	0	57	0	1703936000	45	4552
2026-01-08 23:27:44.96	179.70	23.14	-37.3	-39.0	16.4	0.00e+00	0	57	0	1707081728	45	4547
2026-01-08 23:27:45.97	179.78	22.99	-37.3	-38.9	16.5	0.00e+00	0	57	0	1710227456	45	4524
2026-01-08 23:27:46.98	179.85	22.85	-37.4	-39.0	16.3	0.00e+00	0	57	0	1713373184	45	4590
2026-01-08 23:27:47.99	179.92	22.71	-37.4	-39.0	16.3	0.00e+00	0	57	0	1716518912	45	4581
2026-01-08 23:27:49.00	179.99	22.56	-37.3	-39.0	16.4	0.00e+00	0	57	0	1719664640	45	4554
2026-01-08 23:27:50.01	180.06	22.42	-37.4	-39.0	16.3	0.00e+00	0	57	0	1722810368	45	4582
2026-01-08 23:27:51.02	180.13	22.28	-37.4	-39.0	16.3	0.00e+00	0	57	0	1725956096	45	4594
2026-01-08 23:27:52.03	180.20	22.14	-37.4	-39.1	16.2	0.00e+00	0	57	0	1729101824	45	4621
2026-01-08 23:27:53.04	180.27	22.00	-37.5	-39.2	16.2	0.00e+00	0	57	0	1732247552	45	4661
2026-01-08 23:27:54.05	180.34	21.86	-37.6	-39.3	16.1	0.00e+00	0	57	0	1735393280	45	4719
2026-01-08 23:27:55.06	180.40	21.72	-37.5	-39.2	16.1	0.00e+00	0	57	0	1738539008	45	4659
2026-01-08 23:27:56.07	180.47	21.59	-37.3	-38.9	16.4	0.00e+00	0	57	0	1741684736	45	4544
2026-01-08 23:27:57.08	180.54	21.45	-37.3	-38.9	16.4	0.00e+00	0	57	0	1744830464	45	4507
2026-01-08 23:27:58.09	180.60	21.31	-37.2	-38.8	16.5	0.00e+00	0	57	0	1747976192	45	4473
2026-01-08 23:27:59.10	180.67	21.18	-37.2	-38.8	16.5	0.00e+00	0	57	0	1751121920	45	4470
2026-01-08 23:28:00.11	180.73	21.04	-37.2	-38.8	16.5	0.00e+00	0	57	0	1754267648	45	4492
2026-01-08 23:28:01.12	180.80	20.91	-37.2	-38.8	16.5	0.00e+00	0	57	0	1757413376	45	4489
2026-01-08 23:28:02.13	180.86	20.78	-37.3	-38.9	16.4	0.00e+00	0	57	0	1760559104	45	4545
2026-01-08 23:28:03.13	180.92	20.65	-37.3	-39.0	16.3	0.00e+00	0	57	0	1763704832	45	4563
2026-01-08 23:28:04.14	180.98	20.51	-37.3	-38.9	16.4	0.00e+00	0	57	0	1766850560	45	4539
2026-01-08 23:28:05.15	181.05	20.38	-37.4	-39.0	16.2	0.00e+00	0	57	0	1769996288	45	4598
2026-01-08 23:28:06.16	181.11	20.25	-37.4	-39.1	16.2	0.00e+00	0	57	0	1773142016	45	4622
2026-01-08 23:28:07.17	181.17	20.12	-37.4	-39.1	16.2	0.00e+00	0	57	0	1776287744	45	4628
2026-01-08 23:28:08.18	181.23	19.99	-37.4	-39.1	16.2	0.00e+00	0	57	0	1779433472	45	4622
2026-01-08 23:28:09.19	181.29	19.86	-37.5	-39.1	16.2	0.00e+00	0	57	0	1782579200	45	4641
2026-01-08 23:28:10.19	181.35	19.74	-37.5	-39.2	16.1	0.00e+00	0	57	0	1785724928	45	4666
2026-01-08 23:28:11.21	181.41	19.61	-37.5	-39.2	16.0	0.00e+00	0	57	0	1788870656	45	4697
2026-01-08 23:28:12.22	181.47	19.48	-37.3	-39.0	16.3	0.00e+00	0	57	0	1792016384	45	4559
2026-01-08 23:28:13.23	181.52	19.36	-37.3	-39.0	16.3	0.00e+00	0	57	0	1795162112	45	4576
2026-01-08 23:28:14.24	181.58	19.23	-37.4	-39.1	16.2	0.00e+00	0	57	0	1798307840	45	4614
2026-01-08 23:28:15.25	181.64	19.11	-37.4	-39.1	16.2	0.00e+00	0	57	0	1801453568	45	4633
2026-01-08 23:28:16.26	181.70	18.98	-37.4	-39.1	16.2	0.00e+00	0	57	0	1804599296	45	4610
2026-01-08 23:28:17.27	181.75	18.86	-37.4	-39.1	16.1	0.00e+00	0	57	0	1807745024	45	4636
2026-01-08 23:28:18.28	181.81	18.73	-37.3	-39.0	16.2	0.00e+00	0	57	0	1810890752	45	4568
2026-01-08 23:28:19.28	181.86	18.61	-37.4	-39.1	16.1	0.00e+00	0	57	0	1814036480	45	4634
2026-01-08 23:28:20.29	181.92	18.49	-37.5	-39.2	16.0	0.00e+00	0	57	0	1818230784	45	4686
2026-01-08 23:28:21.30	181.97	18.37	-37.5	-39.3	16.0	0.00e+00	0	57	0	1821376512	45	4709
2026-01-08 23:28:22.31	182.03	18.25	-37.4	-39.1	16.1	0.00e+00	0	57	0	1823473664	45	4625
2026-01-08 23:28:23.32	182.08	18.13	-37.4	-39.1	16.1	0.00e+00	0	57	0	1826619392	45	4628
2026-01-08 23:28:24.33	182.14	18.01	-37.4	-39.0	16.2	0.00e+00	0	57	0	1829765120	45	4580
2026-01-08 23:28:25.34	182.19	17.89	-37.5	-39.1	16.1	0.00e+00	0	57	0	1832910848	45	4643
2026-01-08 23:28:26.35	182.24	17.77	-37.5	-39.2	16.1	0.00e+00	0	57	0	1837105152	45	4652
2026-01-08 23:28:27.36	182.29	17.65	-37.4	-39.1	16.2	0.00e+00	0	57	0	1840250880	45	4620
2026-01-08 23:28:28.37	182.35	17.53	-37.5	-39.2	16.1	0.00e+00	0	57	0	1843396608	45	4661
2026-01-08 23:28:29.37	182.40	17.42	-37.5	-39.1	16.1	0.00e+00	0	57	0	1845493760	45	4651
2026-01-08 23:28:30.39	182.45	17.30	-37.5	-39.1	16.1	7.00e-07	0	57	0	1848639488	45	4646
2026-01-08 23:28:31.40	182.50	17.19	-37.5	-39.2	16.0	0.00e+00	0	57	0	1852833792	45	4690
2026-01-08 23:28:32.41	182.55	17.07	-37.6	-39.3	16.0	0.00e+00	0	57	0	1855979520	45	4722
2026-01-08 23:28:33.41	182.60	16.96	-37.7	-39.4	15.9	0.00e+00	0	57	0	1859125248	45	4783
2026-01-08 23:28:34.42	182.65	16.84	-37.7	-39.4	15.8	0.00e+00	0	57	0	1862270976	45	4800
2026-01-08 23:28:35.43	182.70	16.73	-37.8	-39.5	15.8	0.00e+00	0	57	0	1865416704	46	4577
2026-01-08 23:28:36.44	182.75	16.61	-37.7	-39.4	15.8	0.00e+00	0	57	0	1868562432	46	4539
2026-01-08 23:28:37.45	182.80	16.50	-37.7	-39.4	15.8	0.00e+00	0	57	0	1871708160	46	4542
2026-01-08 23:28:38.46	182.85	16.39	-37.7	-39.5	15.8	0.00e+00	0	57	0	1874853888	46	4549
2026-01-08 23:28:39.47	182.89	16.28	-37.8	-39.6	15.7	0.00e+00	0	57	0	1877999616	46	4605
2026-01-08 23:28:40.48	182.94	16.17	-37.7	-39.5	15.8	0.00e+00	0	57	0	1881145344	46	4561
2026-01-08 23:28:41.49	182.99	16.06	-37.7	-39.4	15.9	0.00e+00	0	57	0	1884291072	46	4517
2026-01-08 23:28:42.50	183.04	15.95	-37.7	-39.5	15.8	0.00e+00	0	57	0	1887436800	46	4553
2026-01-08 23:28:43.51	183.08	15.84	-37.8	-39.5	15.7	0.00e+00	0	57	0	1890582528	46	4573
2026-01-08 23:28:44.52	183.13	15.73	-37.8	-39.6	15.7	0.00e+00	0	57	0	1893728256	46	4615
2026-01-08 23:28:45.53	183.18	15.62	-37.9	-39.7	15.5	0.00e+00	0	57	0	1896873984	46	4703
2026-01-08 23:28:46.54	183.22	15.51	-37.9	-39.7	15.6	0.00e+00	0	57	0	1900019712	46	4665
2026-01-08 23:28:47.55	183.27	15.40	-37.9	-39.7	15.5	0.00e+00	0	57	0	1903165440	46	4686
