passes_logs/2026/01/08/R2.0S_Moscow/R2.0S_Moscow__20260108_061259_FENGYUN_3E_rec.log

#Pass ID: 20260108_061259_FENGYUN 3E
#Satellite: FENGYUN 3E
#Configuration: FENGYUN 3E
#almurnet v.1.7.20251203
#Start time: 2026-01-08 06:13:00

#Version: 2.2.20231116
#Station: R2.0S_Moscow
#Location: 37.707566 lon 55.798166 lat
#TLE: 1 49008U 21062A   26006.26767912  .00000427  00000+0  22170-3 0  9993
#TLE: 2 49008  98.7475  11.4982 0001602 156.1158 204.0093 14.19885456233607

#Time	Az	El	Level	Level2	SNR	BER	BlckErr	Temp	State	Recorded	gain1	gain2
2026-01-08 06:13:00.12	8.55	2.03	-39.9	-51.1	3.8	8.45e-01	0	47	0	0	49	13752
2026-01-08 06:13:01.12	8.46	2.08	-39.9	-51.1	3.8	8.46e-01	0	47	104	0	50	12978
2026-01-08 06:13:02.13	8.38	2.13	-39.9	-51.1	3.8	8.47e-01	0	47	104	0	50	12993
2026-01-08 06:13:03.14	8.29	2.18	-39.9	-51.1	3.8	8.47e-01	0	47	104	0	50	12969
2026-01-08 06:13:04.15	8.21	2.23	-39.9	-51.1	3.8	8.47e-01	0	47	104	0	50	12977
2026-01-08 06:13:05.16	8.12	2.28	-39.9	-51.1	3.8	8.47e-01	0	47	104	0	50	12997
2026-01-08 06:13:06.18	8.03	2.33	-39.9	-51.1	3.8	8.46e-01	0	47	104	0	50	12998
2026-01-08 06:13:07.18	7.94	2.38	-39.9	-51.1	3.8	8.45e-01	0	48	104	0	50	13012
2026-01-08 06:13:08.19	7.86	2.43	-39.9	-51.1	3.8	8.47e-01	0	48	104	0	50	12997
2026-01-08 06:13:09.20	7.77	2.48	-39.9	-51.1	3.8	8.47e-01	0	48	104	0	50	12985
2026-01-08 06:13:10.22	7.68	2.53	-39.9	-51.1	3.8	8.47e-01	0	48	104	0	50	12962
2026-01-08 06:13:11.23	7.59	2.58	-39.9	-51.1	3.8	8.44e-01	0	48	104	0	50	12982
2026-01-08 06:13:12.24	7.50	2.63	-39.9	-51.1	3.8	8.46e-01	0	48	104	0	50	12981
2026-01-08 06:13:13.25	7.41	2.69	-39.9	-51.1	3.8	8.46e-01	0	48	104	0	50	12988
2026-01-08 06:13:14.26	7.32	2.74	-39.9	-51.1	3.8	8.46e-01	0	48	104	0	50	13001
2026-01-08 06:13:15.27	7.23	2.79	-39.9	-51.1	3.8	8.45e-01	0	48	104	0	50	13020
2026-01-08 06:13:16.28	7.14	2.84	-39.9	-51.1	3.8	8.47e-01	0	48	104	0	50	12985
2026-01-08 06:13:17.29	7.05	2.89	-39.9	-51.1	3.8	8.47e-01	0	48	104	0	50	12987
2026-01-08 06:13:18.30	6.96	2.94	-39.9	-51.1	3.8	8.45e-01	0	48	104	0	50	13015
2026-01-08 06:13:19.31	6.87	2.99	-39.9	-51.1	3.8	8.46e-01	0	48	104	0	50	12993
2026-01-08 06:13:20.32	6.78	3.04	-39.9	-51.1	3.8	8.46e-01	0	48	104	0	50	12986
2026-01-08 06:13:21.33	6.68	3.09	-39.9	-51.1	3.8	8.46e-01	0	49	104	0	50	12997
2026-01-08 06:13:22.34	6.59	3.14	-39.9	-51.1	3.8	8.46e-01	0	49	104	0	50	12970
2026-01-08 06:13:23.35	6.50	3.20	-39.9	-51.1	3.8	8.47e-01	0	49	104	0	50	12976
2026-01-08 06:13:24.36	6.40	3.25	-39.9	-51.0	3.8	8.46e-01	0	49	104	0	50	12957
2026-01-08 06:13:25.37	6.31	3.30	-39.9	-51.0	3.8	8.45e-01	0	49	104	0	50	12953
2026-01-08 06:13:26.38	6.22	3.35	-39.9	-51.0	3.8	8.47e-01	0	49	104	0	50	12941
2026-01-08 06:13:27.39	6.12	3.40	-39.9	-51.0	3.8	8.47e-01	0	49	104	0	50	12948
2026-01-08 06:13:28.40	6.03	3.45	-39.9	-51.1	3.8	8.46e-01	0	49	104	0	50	12978
2026-01-08 06:13:29.42	5.93	3.50	-39.9	-51.0	3.8	8.46e-01	0	49	104	0	50	12947
2026-01-08 06:13:30.42	5.84	3.55	-39.9	-51.1	3.8	8.45e-01	0	49	104	0	50	12983
2026-01-08 06:13:31.44	5.74	3.61	-39.9	-51.1	3.8	8.47e-01	0	49	104	0	50	12964
2026-01-08 06:13:32.45	5.65	3.66	-39.9	-51.1	3.8	8.46e-01	0	49	104	0	50	12962
2026-01-08 06:13:33.46	5.55	3.71	-39.9	-51.1	3.8	8.46e-01	0	49	104	0	50	12966
2026-01-08 06:13:34.47	5.45	3.76	-39.9	-51.0	3.8	8.46e-01	0	50	104	0	50	12931
2026-01-08 06:13:35.48	5.36	3.81	-39.9	-51.0	3.8	8.47e-01	0	49	104	0	50	12950
2026-01-08 06:13:36.49	5.26	3.86	-39.9	-51.1	3.8	8.47e-01	0	50	104	0	50	12975
2026-01-08 06:13:37.50	5.16	3.91	-39.9	-51.0	3.8	8.46e-01	0	50	104	0	50	12919
2026-01-08 06:13:38.51	5.06	3.97	-39.9	-51.1	3.8	8.46e-01	0	49	104	0	50	12968
2026-01-08 06:13:39.52	4.97	4.02	-39.9	-51.0	3.8	8.45e-01	0	50	104	0	50	12945
2026-01-08 06:13:40.53	4.87	4.07	-39.9	-51.1	3.8	8.46e-01	0	50	104	0	50	12988
2026-01-08 06:13:41.54	4.77	4.12	-39.9	-51.0	3.8	8.46e-01	0	50	104	0	50	12938
2026-01-08 06:13:42.55	4.67	4.17	-39.9	-51.0	3.8	8.46e-01	0	50	104	0	50	12934
2026-01-08 06:13:43.56	4.57	4.22	-39.9	-51.1	3.8	8.48e-01	0	50	104	0	50	12978
2026-01-08 06:13:44.57	4.47	4.28	-39.9	-51.0	3.8	8.46e-01	0	50	104	0	50	12947
2026-01-08 06:13:45.58	4.37	4.33	-39.9	-51.0	3.8	8.45e-01	0	50	104	0	50	12951
2026-01-08 06:13:46.59	4.27	4.38	-39.9	-51.0	3.8	8.46e-01	0	50	104	0	50	12928
2026-01-08 06:13:47.60	4.17	4.43	-39.9	-51.0	3.8	8.46e-01	0	50	104	0	50	12931
2026-01-08 06:13:48.61	4.06	4.48	-39.9	-51.0	3.8	8.46e-01	0	50	104	0	50	12947
2026-01-08 06:13:49.62	3.96	4.53	-39.9	-51.0	3.8	8.46e-01	0	50	104	0	50	12929
2026-01-08 06:13:50.63	3.86	4.59	-39.9	-51.1	3.8	8.46e-01	0	50	104	0	50	12990
2026-01-08 06:13:51.65	3.76	4.64	-39.9	-51.1	3.8	8.45e-01	0	51	104	0	50	12971
2026-01-08 06:13:52.65	3.65	4.69	-39.9	-51.0	3.8	8.46e-01	0	50	104	0	50	12945
2026-01-08 06:13:53.67	3.55	4.74	-39.9	-51.0	3.8	8.46e-01	0	51	104	0	50	12918
2026-01-08 06:13:54.68	3.45	4.79	-39.9	-51.0	3.8	8.46e-01	0	51	104	0	50	12924
2026-01-08 06:13:55.69	3.34	4.84	-39.9	-51.0	3.8	8.46e-01	0	51	104	0	50	12947
2026-01-08 06:13:56.70	3.24	4.90	-39.9	-51.1	3.8	8.47e-01	0	51	104	0	50	12970
2026-01-08 06:13:57.71	3.13	4.95	-39.9	-51.0	3.8	8.46e-01	0	51	104	0	50	12933
2026-01-08 06:13:58.72	3.03	5.00	-39.9	-51.0	3.8	8.46e-01	0	51	104	0	50	12938
2026-01-08 06:13:59.73	2.92	5.05	-39.9	-51.0	3.8	8.46e-01	0	51	104	0	50	12946
2026-01-08 06:14:00.73	2.82	5.10	-39.9	-51.0	3.8	8.45e-01	0	51	104	0	50	12946
2026-01-08 06:14:01.73	2.71	5.15	-39.9	-51.0	3.8	8.45e-01	0	51	104	0	50	12950
2026-01-08 06:14:02.74	2.60	5.21	-39.9	-51.1	3.8	8.46e-01	0	51	104	0	50	12982
2026-01-08 06:14:03.76	2.49	5.26	-39.9	-51.0	3.8	8.47e-01	0	51	104	0	50	12936
2026-01-08 06:14:04.77	2.39	5.31	-39.9	-51.0	3.8	8.46e-01	0	51	104	0	50	12927
2026-01-08 06:14:05.78	2.28	5.36	-39.9	-51.0	3.8	8.46e-01	0	51	104	0	50	12957
2026-01-08 06:14:06.78	2.17	5.41	-39.9	-51.0	3.8	8.46e-01	0	51	104	0	50	12913
2026-01-08 06:14:07.80	2.06	5.46	-39.9	-51.0	3.8	8.46e-01	0	51	104	0	50	12911
2026-01-08 06:14:08.81	1.95	5.52	-39.8	-51.0	3.8	8.46e-01	0	52	104	0	50	12957
2026-01-08 06:14:09.82	1.84	5.57	-39.9	-51.0	3.8	8.46e-01	0	52	104	0	50	12941
2026-01-08 06:14:10.83	1.73	5.62	-39.8	-51.0	3.8	8.46e-01	0	52	104	0	50	12951
2026-01-08 06:14:11.84	1.62	5.67	-39.9	-51.0	3.8	8.46e-01	0	52	104	0	50	12936
2026-01-08 06:14:12.85	1.51	5.72	-39.9	-51.1	3.8	8.46e-01	0	52	104	0	50	12973
2026-01-08 06:14:13.86	1.40	5.78	-39.9	-51.0	3.8	8.47e-01	0	52	104	0	50	12905
2026-01-08 06:14:14.87	1.29	5.83	-39.9	-51.1	3.8	8.46e-01	0	52	104	0	50	12964
2026-01-08 06:14:15.88	1.17	5.88	-39.9	-51.0	3.8	8.46e-01	0	52	104	0	50	12951
2026-01-08 06:14:16.89	1.06	5.93	-39.9	-51.0	3.8	8.45e-01	0	52	104	0	50	12933
2026-01-08 06:14:17.90	0.95	5.98	-39.9	-51.0	3.8	8.46e-01	0	52	104	0	50	12958
2026-01-08 06:14:18.91	0.84	6.03	-39.9	-51.0	3.8	8.47e-01	0	52	104	0	50	12949
2026-01-08 06:14:19.92	0.72	6.09	-39.9	-51.0	3.8	8.46e-01	0	52	104	0	50	12948
2026-01-08 06:14:20.93	0.61	6.14	-39.9	-51.0	3.8	8.45e-01	0	52	104	0	50	12888
2026-01-08 06:14:21.94	0.49	6.19	-39.9	-51.0	3.8	8.46e-01	0	52	104	0	50	12902
2026-01-08 06:14:22.95	0.38	6.24	-39.9	-51.0	3.8	8.46e-01	0	52	104	0	50	12912
2026-01-08 06:14:23.96	0.26	6.29	-39.9	-51.0	3.8	8.45e-01	0	52	104	0	50	12921
2026-01-08 06:14:24.97	0.15	6.35	-39.9	-51.0	3.8	8.47e-01	0	52	104	0	50	12934
2026-01-08 06:14:25.98	0.03	6.40	-39.9	-51.0	3.8	8.46e-01	0	52	104	0	50	12943
2026-01-08 06:14:26.99	359.91	6.45	-39.8	-51.0	3.8	8.45e-01	0	52	104	0	50	12901
2026-01-08 06:14:28.00	359.80	6.50	-39.9	-51.0	3.8	8.47e-01	0	52	104	0	50	12947
2026-01-08 06:14:29.01	359.68	6.55	-39.9	-51.0	3.8	8.46e-01	0	52	104	0	50	12894
2026-01-08 06:14:30.02	359.56	6.60	-39.8	-51.0	3.8	8.48e-01	0	52	104	0	50	12913
2026-01-08 06:14:31.03	359.44	6.66	-39.9	-51.0	3.8	8.46e-01	0	52	104	0	50	12870
2026-01-08 06:14:32.04	359.32	6.71	-39.9	-51.0	3.8	8.47e-01	0	52	104	0	50	12953
2026-01-08 06:14:33.05	359.20	6.76	-39.9	-51.0	3.8	8.47e-01	0	53	104	0	50	12919
2026-01-08 06:14:34.06	359.08	6.81	-39.9	-51.0	3.8	8.45e-01	0	52	104	0	50	12944
2026-01-08 06:14:35.07	358.96	6.86	-39.9	-51.0	3.8	8.46e-01	0	52	104	0	50	12912
2026-01-08 06:14:36.08	358.84	6.91	-39.9	-51.0	3.8	8.46e-01	0	52	104	0	50	12870
2026-01-08 06:14:37.09	358.72	6.97	-39.9	-51.0	3.8	8.46e-01	0	53	104	0	50	12914
2026-01-08 06:14:38.10	358.60	7.02	-39.8	-51.0	3.8	8.46e-01	0	53	104	0	50	12905
2026-01-08 06:14:39.11	358.48	7.07	-39.9	-51.0	3.8	8.46e-01	0	53	104	0	50	12931
2026-01-08 06:14:40.12	358.35	7.12	-39.9	-51.0	3.8	8.46e-01	0	53	104	0	50	12899
2026-01-08 06:14:41.13	358.23	7.17	-39.9	-51.0	3.8	8.46e-01	0	53	104	0	50	12942
2026-01-08 06:14:42.14	358.11	7.22	-39.8	-51.0	3.8	8.47e-01	0	53	104	0	50	12911
2026-01-08 06:14:43.15	357.98	7.28	-39.9	-51.0	3.8	8.46e-01	0	53	104	0	50	12876
2026-01-08 06:14:44.16	357.86	7.33	-39.9	-51.0	3.8	8.46e-01	0	53	104	0	50	12956
2026-01-08 06:14:45.17	357.73	7.38	-39.9	-51.1	3.8	8.47e-01	0	53	104	0	50	12970
2026-01-08 06:14:46.18	357.61	7.43	-39.9	-51.0	3.8	8.46e-01	0	53	104	0	50	12935
2026-01-08 06:14:47.19	357.48	7.48	-39.9	-51.0	3.8	8.46e-01	0	53	104	0	50	12947
2026-01-08 06:14:48.20	357.36	7.53	-39.9	-51.0	3.8	8.46e-01	0	53	104	0	50	12918
2026-01-08 06:14:49.21	357.23	7.58	-39.9	-51.0	3.8	8.47e-01	0	53	104	0	50	12909
2026-01-08 06:14:50.22	357.10	7.64	-39.9	-51.0	3.8	8.47e-01	0	53	104	0	50	12952
2026-01-08 06:14:51.23	356.98	7.69	-39.8	-51.0	3.8	8.46e-01	0	53	104	0	50	12923
2026-01-08 06:14:52.24	356.85	7.74	-39.9	-51.0	3.8	8.47e-01	0	53	104	0	50	12901
2026-01-08 06:14:53.25	356.72	7.79	-39.8	-51.0	3.8	8.46e-01	0	53	104	0	50	12942
2026-01-08 06:14:54.26	356.59	7.84	-39.8	-51.0	3.8	8.45e-01	0	53	104	0	50	12934
2026-01-08 06:14:55.27	356.46	7.89	-39.9	-51.0	3.8	8.45e-01	0	53	104	0	50	12949
2026-01-08 06:14:56.28	356.33	7.94	-39.9	-51.0	3.8	8.45e-01	0	53	104	0	50	12884
2026-01-08 06:14:57.29	356.20	7.99	-39.9	-51.0	3.8	8.46e-01	0	53	104	0	50	12957
2026-01-08 06:14:58.30	356.07	8.05	-39.9	-51.0	3.8	8.46e-01	0	53	104	0	50	12959
2026-01-08 06:14:59.31	355.94	8.10	-40.1	-51.2	3.8	8.47e-01	0	53	104	0	50	13136
2026-01-08 06:15:00.32	355.81	8.15	-40.2	-51.3	3.8	8.46e-01	0	53	104	0	50	13344
2026-01-08 06:15:01.33	355.67	8.20	-40.0	-51.1	3.8	8.45e-01	0	53	104	0	50	13038
2026-01-08 06:15:02.34	355.54	8.25	-40.2	-51.2	3.8	8.47e-01	0	53	104	0	50	13186
2026-01-08 06:15:03.35	355.41	8.30	-40.3	-51.2	3.8	8.46e-01	0	53	104	0	50	13246
2026-01-08 06:15:04.36	355.27	8.35	-40.1	-51.2	3.8	8.47e-01	0	53	104	0	50	13185
2026-01-08 06:15:05.37	355.14	8.40	-40.3	-51.3	3.8	8.46e-01	0	54	104	0	50	13271
2026-01-08 06:15:06.38	355.01	8.45	-40.3	-51.3	3.8	8.47e-01	0	53	104	0	50	13371
2026-01-08 06:15:07.39	354.87	8.50	-40.3	-51.3	3.8	8.46e-01	0	54	104	0	50	13368
2026-01-08 06:15:08.40	354.74	8.55	-40.3	-51.4	3.8	8.46e-01	0	54	104	0	50	13419
2026-01-08 06:15:09.42	354.60	8.60	-40.2	-51.3	3.8	8.46e-01	0	54	104	0	50	13337
2026-01-08 06:15:10.42	354.46	8.65	-40.2	-51.2	3.8	8.46e-01	0	54	104	0	50	13236
2026-01-08 06:15:11.44	354.32	8.71	-40.4	-51.3	3.8	8.46e-01	0	54	104	0	50	13348
2026-01-08 06:15:12.45	354.19	8.76	-40.2	-51.3	3.8	8.45e-01	0	54	104	0	50	13284
2026-01-08 06:15:13.46	354.05	8.81	-40.4	-51.4	3.8	8.46e-01	0	54	104	0	50	13434
2026-01-08 06:15:14.47	353.91	8.86	-40.4	-51.4	3.8	8.46e-01	0	54	104	0	50	13478
2026-01-08 06:15:15.48	353.77	8.91	-40.3	-51.3	3.8	8.46e-01	0	54	104	0	50	13406
2026-01-08 06:15:16.49	353.63	8.96	-40.4	-51.4	3.8	8.46e-01	0	54	104	0	50	13458
2026-01-08 06:15:17.50	353.49	9.01	-40.2	-51.2	3.8	8.46e-01	0	54	104	0	50	13142
2026-01-08 06:15:18.51	353.35	9.06	-40.4	-51.4	3.8	8.46e-01	0	54	104	0	50	13459
2026-01-08 06:15:19.52	353.21	9.11	-40.5	-51.5	3.8	8.45e-01	0	54	104	0	50	13586
2026-01-08 06:15:20.53	353.07	9.16	-40.6	-51.5	3.8	8.47e-01	0	54	104	0	50	13692
2026-01-08 06:15:21.54	352.93	9.21	-40.8	-51.7	3.8	8.46e-01	0	54	104	0	51	13166
2026-01-08 06:15:22.55	352.78	9.26	-40.7	-51.7	3.8	8.46e-01	0	54	104	0	51	13121
2026-01-08 06:15:23.56	352.64	9.31	-40.8	-51.7	3.8	8.46e-01	0	54	104	0	51	13174
2026-01-08 06:15:24.57	352.50	9.36	-40.8	-51.7	3.8	8.46e-01	0	54	104	0	51	13188
2026-01-08 06:15:25.58	352.35	9.40	-40.7	-51.6	3.8	8.45e-01	0	54	104	0	51	13056
2026-01-08 06:15:26.59	352.21	9.45	-40.8	-51.7	3.8	8.46e-01	0	54	104	0	51	13126
2026-01-08 06:15:27.60	352.06	9.50	-40.7	-51.7	3.8	8.46e-01	0	54	104	0	51	13166
2026-01-08 06:15:28.61	351.92	9.55	-40.7	-51.6	3.8	8.46e-01	0	54	104	0	51	13100
2026-01-08 06:15:29.62	351.77	9.60	-40.8	-51.7	3.8	8.46e-01	0	54	104	0	51	13241
2026-01-08 06:15:30.63	351.63	9.65	-40.7	-51.7	3.8	8.47e-01	0	54	104	0	51	13181
2026-01-08 06:15:31.64	351.48	9.70	-40.7	-51.7	3.8	8.46e-01	0	54	104	0	51	13206
2026-01-08 06:15:32.65	351.33	9.75	-40.7	-51.6	3.8	8.47e-01	0	54	104	0	51	13097
2026-01-08 06:15:33.66	351.18	9.80	-40.5	-51.5	3.8	8.47e-01	0	54	104	0	51	12875
2026-01-08 06:15:34.67	351.03	9.85	-40.9	-51.9	3.8	8.47e-01	0	54	104	0	51	13486
2026-01-08 06:15:35.68	350.89	9.90	-40.7	-51.6	3.8	8.47e-01	0	54	104	0	51	13091
2026-01-08 06:15:36.69	350.74	9.94	-41.1	-52.0	3.8	8.45e-01	0	54	104	0	51	13640
2026-01-08 06:15:37.70	350.59	9.99	-40.9	-51.9	3.8	8.45e-01	0	54	104	0	51	13429
2026-01-08 06:15:38.71	350.44	10.04	-40.9	-51.9	3.8	8.46e-01	0	54	104	0	51	13494
2026-01-08 06:15:39.72	350.28	10.09	-40.8	-51.7	3.8	8.47e-01	0	54	104	0	51	13190
2026-01-08 06:15:40.73	350.13	10.14	-41.0	-51.9	3.8	8.46e-01	0	54	104	0	51	13497
2026-01-08 06:15:41.75	349.98	10.19	-40.7	-51.8	3.8	8.47e-01	0	54	104	0	51	13315
2026-01-08 06:15:42.76	349.83	10.23	-40.9	-51.7	3.8	8.46e-01	0	54	104	0	51	13246
2026-01-08 06:15:43.77	349.67	10.28	-40.7	-51.7	3.8	8.47e-01	0	54	104	0	51	13154
2026-01-08 06:15:44.78	349.52	10.33	-40.9	-51.8	3.8	8.46e-01	0	54	104	0	51	13320
2026-01-08 06:15:45.79	349.37	10.38	-41.2	-52.1	3.8	8.46e-01	0	54	104	0	51	13831
2026-01-08 06:15:46.80	349.21	10.43	-40.6	-51.6	3.8	8.47e-01	0	54	104	0	52	12303
2026-01-08 06:15:47.81	349.06	10.47	-41.2	-52.1	3.8	8.47e-01	0	54	104	0	52	13094
2026-01-08 06:15:48.82	348.90	10.52	-40.7	-51.6	3.8	8.47e-01	0	55	104	0	52	12336
2026-01-08 06:15:49.83	348.74	10.57	-40.8	-51.7	3.8	8.47e-01	0	55	104	0	52	12478
2026-01-08 06:15:50.84	348.59	10.61	-41.0	-51.9	3.8	8.46e-01	0	55	104	0	52	12710
2026-01-08 06:15:51.85	348.43	10.66	-40.8	-51.7	3.8	8.47e-01	0	55	104	0	52	12494
2026-01-08 06:15:52.86	348.27	10.71	-41.0	-51.8	3.8	8.46e-01	0	55	104	0	52	12656
2026-01-08 06:15:53.87	348.11	10.76	-41.0	-52.0	3.8	8.47e-01	0	55	104	0	52	12835
2026-01-08 06:15:54.88	347.95	10.80	-41.1	-52.1	3.8	8.46e-01	0	55	104	0	52	13020
2026-01-08 06:15:55.89	347.80	10.85	-41.3	-52.2	3.8	8.45e-01	0	55	104	0	52	13209
2026-01-08 06:15:56.90	347.64	10.89	-41.2	-52.2	3.8	8.47e-01	0	55	104	0	52	13143
2026-01-08 06:15:57.91	347.48	10.94	-41.4	-52.3	3.8	8.46e-01	0	55	104	0	52	13389
2026-01-08 06:15:58.92	347.31	10.99	-41.3	-52.2	3.8	8.47e-01	0	55	104	0	52	13166
2026-01-08 06:15:59.93	347.15	11.03	-41.3	-52.3	3.8	8.45e-01	0	55	104	0	52	13373
2026-01-08 06:16:00.94	346.99	11.08	-41.3	-52.2	3.8	8.47e-01	0	55	104	0	52	13132
2026-01-08 06:16:01.95	346.83	11.12	-41.3	-52.3	3.8	8.47e-01	0	55	104	0	52	13308
2026-01-08 06:16:02.96	346.67	11.17	-41.2	-52.0	3.8	8.47e-01	0	55	104	0	52	12909
2026-01-08 06:16:03.97	346.50	11.22	-41.3	-52.3	3.8	8.47e-01	0	55	104	0	52	13271
2026-01-08 06:16:04.98	346.34	11.26	-41.0	-51.9	3.8	8.47e-01	0	55	104	0	52	12707
2026-01-08 06:16:05.99	346.17	11.31	-40.8	-51.9	3.8	8.46e-01	0	55	104	0	52	12678
2026-01-08 06:16:07.00	346.01	11.35	-41.3	-52.3	3.8	8.45e-01	0	55	104	0	52	13390
2026-01-08 06:16:08.01	345.84	11.40	-40.9	-51.8	3.8	8.45e-01	0	55	104	0	52	12637
2026-01-08 06:16:09.02	345.68	11.44	-41.3	-52.3	3.8	8.47e-01	0	55	104	0	52	13309
2026-01-08 06:16:10.03	345.51	11.49	-40.8	-51.8	3.8	8.47e-01	0	55	104	0	52	12656
2026-01-08 06:16:11.04	345.34	11.53	-40.6	-51.6	3.8	8.46e-01	0	55	104	0	52	12322
2026-01-08 06:16:12.05	345.18	11.57	-40.7	-51.8	3.8	8.46e-01	0	55	104	0	52	12581
2026-01-08 06:16:13.06	345.01	11.62	-40.8	-51.7	3.8	8.46e-01	0	55	104	0	52	12408
2026-01-08 06:16:14.07	344.84	11.66	-41.1	-52.0	3.8	8.47e-01	0	55	104	0	52	12867
2026-01-08 06:16:15.08	344.67	11.71	-40.8	-51.9	3.8	8.46e-01	0	55	104	0	52	12665
2026-01-08 06:16:16.09	344.50	11.75	-40.9	-51.9	3.8	8.46e-01	0	55	104	0	52	12696
2026-01-08 06:16:17.10	344.33	11.79	-40.9	-51.8	3.8	8.45e-01	0	55	104	0	52	12656
2026-01-08 06:16:18.11	344.16	11.84	-41.0	-51.9	3.8	8.46e-01	0	55	104	0	52	12794
2026-01-08 06:16:19.12	343.99	11.88	-40.8	-51.6	3.8	8.46e-01	0	55	104	0	52	12342
2026-01-08 06:16:20.13	343.82	11.92	-40.9	-51.9	3.8	8.46e-01	0	55	104	0	52	12697
2026-01-08 06:16:21.14	343.64	11.96	-40.6	-51.6	3.8	8.46e-01	0	55	104	0	52	12280
2026-01-08 06:16:22.15	343.47	12.01	-40.8	-51.7	3.8	8.46e-01	0	55	104	0	52	12501
2026-01-08 06:16:23.16	343.30	12.05	-41.0	-51.9	3.8	8.46e-01	0	55	104	0	52	12775
2026-01-08 06:16:24.17	343.12	12.09	-40.8	-51.7	3.8	8.46e-01	0	55	104	0	52	12510
2026-01-08 06:16:25.18	342.95	12.13	-40.8	-51.8	3.8	8.45e-01	0	55	104	0	52	12549
2026-01-08 06:16:26.19	342.77	12.18	-40.9	-51.8	3.8	8.46e-01	0	55	104	0	52	12583
2026-01-08 06:16:27.21	342.60	12.22	-40.8	-51.7	3.8	8.45e-01	0	55	104	0	52	12514
2026-01-08 06:16:28.21	342.42	12.26	-40.8	-51.8	3.8	8.46e-01	0	55	104	0	52	12645
2026-01-08 06:16:29.22	342.25	12.30	-40.7	-51.6	3.8	8.46e-01	0	55	104	0	52	12295
2026-01-08 06:16:30.24	342.07	12.34	-40.5	-51.6	3.8	8.46e-01	0	55	104	0	51	13035
2026-01-08 06:16:31.25	341.89	12.38	-40.9	-51.8	3.8	8.47e-01	0	55	104	0	51	13335
2026-01-08 06:16:32.26	341.71	12.42	-40.5	-51.5	3.8	8.47e-01	0	55	104	0	51	12928
2026-01-08 06:16:33.27	341.54	12.46	-40.7	-51.8	3.8	8.47e-01	0	55	104	0	51	13329
2026-01-08 06:16:34.28	341.36	12.50	-40.1	-51.6	3.8	8.46e-01	0	55	104	0	51	12998
2026-01-08 06:16:35.29	341.18	12.54	-40.6	-51.5	3.8	8.45e-01	0	55	104	0	51	12947
2026-01-08 06:16:36.30	341.00	12.58	-40.2	-51.5	3.8	8.47e-01	0	55	104	0	51	12927
2026-01-08 06:16:37.31	340.82	12.62	-40.7	-51.5	3.8	8.47e-01	0	55	104	0	51	12936
2026-01-08 06:16:38.32	340.64	12.66	-40.7	-51.3	3.8	8.47e-01	0	55	104	0	51	12537
2026-01-08 06:16:39.33	340.45	12.70	-40.5	-51.5	3.8	8.46e-01	0	55	104	0	51	12941
2026-01-08 06:16:40.34	340.27	12.74	-40.8	-50.5	3.8	8.45e-01	0	55	104	0	51	11506
2026-01-08 06:16:41.35	340.09	12.78	-40.5	-51.3	3.8	8.45e-01	0	55	104	0	51	12605
2026-01-08 06:16:42.36	339.91	12.82	-41.2	-49.8	3.8	8.45e-01	0	55	104	0	52	10029
2026-01-08 06:16:43.37	339.72	12.86	-41.6	-49.9	3.9	8.46e-01	0	55	104	0	53	9574
2026-01-08 06:16:44.38	339.54	12.89	-40.5	-45.2	6.7	2.50e-01	0	55	0	3145728	52	5857
2026-01-08 06:16:45.39	339.36	12.93	-40.0	-43.5	8.7	5.77e-02	0	55	0	9437184	51	5153
2026-01-08 06:16:46.40	339.17	12.97	-39.2	-41.9	10.7	7.48e-03	0	55	0	16777216	49	4783
2026-01-08 06:16:47.41	338.99	13.01	-38.2	-40.4	12.4	2.66e-04	0	55	0	24117248	47	4499
2026-01-08 06:16:48.42	338.80	13.04	-37.5	-39.4	13.6	2.05e-05	0	55	0	31457280	46	4267
2026-01-08 06:16:49.43	338.61	13.08	-37.1	-38.8	14.3	0.00e+00	0	55	0	38797312	45	4219
2026-01-08 06:16:50.44	338.43	13.12	-36.7	-38.4	14.9	0.00e+00	0	55	0	46137344	44	4248
2026-01-08 06:16:51.45	338.24	13.15	-36.0	-37.5	15.6	0.00e+00	0	55	0	53477376	43	4083
2026-01-08 06:16:52.46	338.05	13.19	-35.8	-37.2	16.0	0.00e+00	0	55	0	60817408	42	4175
2026-01-08 06:16:53.47	337.87	13.22	-35.7	-37.1	16.1	0.00e+00	0	55	0	68157440	42	4142
2026-01-08 06:16:54.48	337.68	13.26	-36.0	-37.5	15.9	0.00e+00	0	55	0	75497472	42	4313
2026-01-08 06:16:55.48	337.49	13.30	-36.3	-37.8	15.7	0.00e+00	0	55	0	82837504	42	4483
2026-01-08 06:16:56.50	337.30	13.33	-36.4	-37.9	15.7	0.00e+00	0	56	0	90177536	42	4511
2026-01-08 06:16:57.51	337.11	13.37	-36.0	-37.4	16.3	0.00e+00	0	56	0	97517568	42	4257
2026-01-08 06:16:58.51	336.92	13.40	-36.1	-37.5	16.3	0.00e+00	0	55	0	104857600	42	4324
2026-01-08 06:16:59.53	336.73	13.43	-36.2	-37.7	16.2	0.00e+00	0	55	0	112197632	42	4393
2026-01-08 06:17:00.54	336.54	13.47	-35.7	-37.1	16.8	0.00e+00	0	56	0	119537664	42	4111
2026-01-08 06:17:01.55	336.34	13.50	-35.9	-37.2	16.8	0.00e+00	0	55	0	126877696	42	4181
2026-01-08 06:17:02.56	336.15	13.54	-35.7	-37.0	17.0	0.00e+00	0	56	0	133169152	42	4074
2026-01-08 06:17:03.57	335.96	13.57	-35.7	-37.0	17.0	0.00e+00	0	56	0	140509184	42	4079
2026-01-08 06:17:04.58	335.77	13.60	-35.8	-37.1	17.0	0.00e+00	0	56	0	148897792	42	4117
2026-01-08 06:17:05.59	335.57	13.63	-35.8	-37.2	16.8	0.00e+00	0	56	0	155189248	42	4159
2026-01-08 06:17:06.60	335.38	13.67	-35.8	-37.1	17.0	0.00e+00	0	55	0	162529280	42	4110
2026-01-08 06:17:07.61	335.19	13.70	-35.8	-37.2	16.9	0.00e+00	0	55	0	169869312	42	4146
2026-01-08 06:17:08.62	334.99	13.73	-35.7	-37.0	17.0	0.00e+00	0	56	0	177209344	42	4093
2026-01-08 06:17:09.63	334.80	13.76	-35.7	-37.0	17.0	0.00e+00	0	56	0	184549376	42	4091
2026-01-08 06:17:10.64	334.60	13.79	-35.8	-37.1	17.0	0.00e+00	0	55	0	191889408	42	4113
2026-01-08 06:17:11.65	334.40	13.82	-35.7	-37.0	17.1	0.00e+00	0	56	0	199229440	42	4084
2026-01-08 06:17:12.66	334.21	13.86	-35.8	-37.1	17.1	0.00e+00	0	55	0	206569472	42	4113
2026-01-08 06:17:13.67	334.01	13.89	-35.7	-37.0	17.1	0.00e+00	0	56	0	213909504	42	4067
2026-01-08 06:17:14.68	333.81	13.92	-35.6	-36.9	17.3	0.00e+00	0	56	0	221249536	42	4010
2026-01-08 06:17:15.69	333.62	13.95	-35.5	-36.8	17.3	0.00e+00	0	56	0	228589568	42	3986
2026-01-08 06:17:16.70	333.42	13.97	-35.5	-36.8	17.3	0.00e+00	0	56	0	235929600	42	3974
2026-01-08 06:17:17.71	333.22	14.00	-35.5	-36.7	17.4	0.00e+00	0	56	0	243269632	41	4176
2026-01-08 06:17:18.72	333.02	14.03	-35.4	-36.7	17.5	0.00e+00	0	56	0	250609664	41	4147
2026-01-08 06:17:19.73	332.82	14.06	-35.4	-36.7	17.5	0.00e+00	0	56	0	257949696	41	4160
2026-01-08 06:17:20.74	332.62	14.09	-35.4	-36.6	17.5	0.00e+00	0	56	0	265289728	41	4145
2026-01-08 06:17:21.75	332.42	14.12	-35.3	-36.6	17.6	0.00e+00	0	56	0	272629760	41	4111
2026-01-08 06:17:22.76	332.22	14.14	-35.3	-36.5	17.6	0.00e+00	0	56	0	279969792	41	4087
2026-01-08 06:17:23.77	332.02	14.17	-35.3	-36.6	17.6	0.00e+00	0	56	0	286261248	41	4105
2026-01-08 06:17:24.78	331.82	14.20	-35.4	-36.6	17.6	0.00e+00	0	56	0	294649856	41	4122
2026-01-08 06:17:25.79	331.62	14.23	-35.4	-36.6	17.6	0.00e+00	0	56	0	301989888	41	4123
2026-01-08 06:17:26.80	331.42	14.25	-35.4	-36.6	17.6	0.00e+00	0	56	0	308281344	41	4117
2026-01-08 06:17:27.81	331.21	14.28	-35.3	-36.6	17.6	0.00e+00	0	56	0	315621376	41	4110
2026-01-08 06:17:28.82	331.01	14.30	-35.4	-36.6	17.6	0.00e+00	0	55	0	322961408	41	4120
2026-01-08 06:17:29.83	330.81	14.33	-35.4	-36.6	17.5	0.00e+00	0	56	0	330301440	41	4144
2026-01-08 06:17:30.84	330.60	14.35	-35.4	-36.6	17.6	0.00e+00	0	56	0	337641472	41	4135
2026-01-08 06:17:31.85	330.40	14.38	-35.3	-36.6	17.7	0.00e+00	0	56	0	344981504	41	4106
2026-01-08 06:17:32.86	330.20	14.40	-35.3	-36.6	17.6	0.00e+00	0	56	0	352321536	41	4112
2026-01-08 06:17:33.87	329.99	14.43	-35.3	-36.5	17.8	0.00e+00	0	56	0	359661568	41	4059
2026-01-08 06:17:34.88	329.79	14.45	-35.2	-36.4	17.8	0.00e+00	0	56	0	367001600	41	4031
2026-01-08 06:17:35.89	329.58	14.47	-35.1	-36.3	18.0	0.00e+00	0	56	0	374341632	41	3983
2026-01-08 06:17:36.90	329.38	14.50	-35.1	-36.3	18.0	0.00e+00	0	56	0	381681664	41	3963
2026-01-08 06:17:37.91	329.17	14.52	-35.0	-36.2	18.0	0.00e+00	0	56	0	389021696	41	3949
2026-01-08 06:17:38.92	328.97	14.54	-35.0	-36.2	18.0	0.00e+00	0	56	0	396361728	41	3948
2026-01-08 06:17:39.93	328.76	14.56	-35.1	-36.3	17.9	0.00e+00	0	56	0	403701760	41	4004
2026-01-08 06:17:40.94	328.55	14.58	-35.1	-36.3	18.0	0.00e+00	0	56	0	411041792	41	3967
2026-01-08 06:17:41.95	328.35	14.61	-35.0	-36.2	18.0	0.00e+00	0	56	0	418381824	41	3947
2026-01-08 06:17:42.96	328.14	14.63	-35.1	-36.3	18.0	0.00e+00	0	56	0	425721856	41	3974
2026-01-08 06:17:43.97	327.93	14.65	-35.1	-36.3	18.0	0.00e+00	0	56	0	433061888	41	3976
2026-01-08 06:17:44.98	327.72	14.67	-35.1	-36.3	18.0	0.00e+00	0	56	0	440401920	41	3978
2026-01-08 06:17:46.00	327.51	14.69	-35.2	-36.4	17.9	0.00e+00	0	56	0	447741952	41	4016
2026-01-08 06:17:47.00	327.31	14.71	-35.2	-36.4	17.9	0.00e+00	0	56	0	454033408	41	4012
2026-01-08 06:17:48.02	327.10	14.73	-35.2	-36.4	17.9	0.00e+00	0	56	0	461373440	41	4007
2026-01-08 06:17:49.02	326.89	14.74	-35.1	-36.3	18.0	0.00e+00	0	56	0	469762048	41	3990
2026-01-08 06:17:50.03	326.68	14.76	-35.2	-36.4	17.9	0.00e+00	0	56	0	476053504	41	4013
2026-01-08 06:17:51.05	326.47	14.78	-35.2	-36.4	17.9	0.00e+00	0	56	0	483393536	41	4018
2026-01-08 06:17:52.06	326.26	14.80	-35.2	-36.4	17.9	0.00e+00	0	56	0	490733568	41	4016
2026-01-08 06:17:53.07	326.05	14.82	-35.1	-36.3	18.0	0.00e+00	0	56	0	498073600	41	3988
2026-01-08 06:17:54.08	325.84	14.83	-35.0	-36.2	18.1	0.00e+00	0	56	0	505413632	41	3939
2026-01-08 06:17:55.09	325.63	14.85	-35.0	-36.2	18.1	0.00e+00	0	56	0	512753664	40	4152
2026-01-08 06:17:56.09	325.42	14.86	-35.0	-36.2	18.1	0.00e+00	0	56	0	520093696	40	4152
2026-01-08 06:17:57.10	325.21	14.88	-34.9	-36.1	18.2	0.00e+00	0	56	0	527433728	40	4135
2026-01-08 06:17:58.11	325.00	14.90	-35.0	-36.2	18.1	0.00e+00	0	56	0	534773760	40	4162
2026-01-08 06:17:59.12	324.79	14.91	-35.0	-36.2	18.1	0.00e+00	0	56	0	542113792	40	4153
2026-01-08 06:18:00.13	324.57	14.92	-34.9	-36.1	18.2	0.00e+00	0	56	0	549453824	40	4107
2026-01-08 06:18:01.13	324.36	14.94	-34.9	-36.0	18.3	0.00e+00	0	56	0	556793856	40	4094
2026-01-08 06:18:02.14	324.15	14.95	-34.9	-36.1	18.2	0.00e+00	0	56	0	564133888	40	4100
2026-01-08 06:18:03.15	323.94	14.97	-35.0	-36.1	18.2	0.00e+00	0	56	0	571473920	40	4142
2026-01-08 06:18:04.17	323.73	14.98	-35.0	-36.2	18.1	0.00e+00	0	56	0	578813952	40	4155
2026-01-08 06:18:05.17	323.52	14.99	-35.1	-36.3	18.0	0.00e+00	0	56	0	586153984	40	4223
2026-01-08 06:18:06.19	323.30	15.00	-35.2	-36.4	17.9	0.00e+00	0	56	0	593494016	40	4267
2026-01-08 06:18:07.20	323.09	15.02	-35.3	-36.5	17.8	0.00e+00	0	56	0	600834048	40	4313
2026-01-08 06:18:08.21	322.87	15.03	-35.2	-36.4	17.9	0.00e+00	0	56	0	607125504	40	4286
2026-01-08 06:18:09.22	322.66	15.04	-35.2	-36.5	17.9	0.00e+00	0	56	0	614465536	40	4294
2026-01-08 06:18:10.23	322.45	15.05	-35.3	-36.6	17.8	0.00e+00	0	56	0	622854144	40	4356
2026-01-08 06:18:11.24	322.23	15.06	-35.2	-36.4	17.9	0.00e+00	0	56	0	629145600	40	4284
2026-01-08 06:18:12.25	322.02	15.07	-35.2	-36.4	17.9	0.00e+00	0	56	0	636485632	40	4257
2026-01-08 06:18:13.26	321.81	15.08	-35.1	-36.3	18.0	0.00e+00	0	56	0	643825664	40	4203
2026-01-08 06:18:14.27	321.59	15.09	-35.0	-36.2	18.1	0.00e+00	0	56	0	651165696	40	4152
2026-01-08 06:18:15.28	321.38	15.10	-35.0	-36.2	18.1	0.00e+00	0	56	0	658505728	40	4159
2026-01-08 06:18:16.29	321.16	15.10	-35.0	-36.2	18.2	0.00e+00	0	56	0	665845760	40	4154
2026-01-08 06:18:17.30	320.95	15.11	-34.9	-36.1	18.3	0.00e+00	0	56	0	673185792	40	4109
2026-01-08 06:18:18.31	320.74	15.12	-34.9	-36.1	18.2	0.00e+00	0	56	0	680525824	40	4110
2026-01-08 06:18:19.32	320.52	15.13	-34.9	-36.1	18.2	0.00e+00	0	56	0	687865856	40	4106
2026-01-08 06:18:20.33	320.31	15.13	-34.9	-36.0	18.3	0.00e+00	0	56	0	695205888	40	4083
2026-01-08 06:18:21.34	320.09	15.14	-34.9	-36.0	18.3	0.00e+00	0	56	0	702545920	40	4098
2026-01-08 06:18:22.35	319.88	15.15	-34.9	-36.0	18.3	0.00e+00	0	56	0	709885952	40	4090
2026-01-08 06:18:23.36	319.66	15.15	-34.9	-36.0	18.3	0.00e+00	0	56	0	717225984	40	4092
2026-01-08 06:18:24.37	319.45	15.16	-34.8	-36.0	18.3	0.00e+00	0	56	0	724566016	40	4071
2026-01-08 06:18:25.38	319.23	15.16	-34.9	-36.1	18.2	0.00e+00	0	56	0	731906048	40	4109
2026-01-08 06:18:26.39	319.02	15.16	-34.8	-36.0	18.3	0.00e+00	0	56	0	739246080	40	4074
2026-01-08 06:18:27.40	318.80	15.17	-34.8	-36.0	18.3	0.00e+00	0	56	0	746586112	40	4073
2026-01-08 06:18:28.41	318.58	15.17	-34.9	-36.0	18.3	0.00e+00	0	56	0	752877568	40	4091
2026-01-08 06:18:29.42	318.37	15.18	-34.9	-36.1	18.3	0.00e+00	0	56	0	760217600	40	4102
2026-01-08 06:18:30.43	318.15	15.18	-35.0	-36.2	18.2	0.00e+00	0	56	0	768606208	40	4146
2026-01-08 06:18:31.44	317.94	15.18	-35.0	-36.1	18.2	0.00e+00	0	56	0	774897664	40	4141
2026-01-08 06:18:32.45	317.72	15.18	-35.1	-36.3	18.1	0.00e+00	0	56	0	782237696	40	4197
2026-01-08 06:18:33.46	317.51	15.18	-35.1	-36.3	18.0	0.00e+00	0	56	0	789577728	40	4215
2026-01-08 06:18:34.47	317.29	15.18	-35.2	-36.4	17.9	0.00e+00	0	56	0	796917760	40	4260
2026-01-08 06:18:35.48	317.08	15.18	-35.2	-36.4	17.9	0.00e+00	0	56	0	804257792	40	4253
2026-01-08 06:18:36.49	316.86	15.19	-35.2	-36.4	17.9	0.00e+00	0	56	0	811597824	40	4278
2026-01-08 06:18:37.50	316.65	15.18	-35.2	-36.4	17.9	0.00e+00	0	56	0	818937856	40	4255
2026-01-08 06:18:38.51	316.43	15.18	-35.2	-36.4	17.9	0.00e+00	0	56	0	826277888	40	4265
2026-01-08 06:18:39.52	316.21	15.18	-35.2	-36.4	17.9	0.00e+00	0	56	0	833617920	40	4262
2026-01-08 06:18:40.53	316.00	15.18	-35.2	-36.4	17.9	0.00e+00	0	56	0	840957952	40	4259
2026-01-08 06:18:41.54	315.78	15.18	-35.1	-36.3	18.0	0.00e+00	0	56	0	848297984	40	4212
2026-01-08 06:18:42.55	315.57	15.18	-35.1	-36.3	18.0	0.00e+00	0	56	0	855638016	40	4233
2026-01-08 06:18:43.56	315.35	15.18	-35.2	-36.4	18.0	0.00e+00	0	56	0	862978048	40	4253
2026-01-08 06:18:44.57	315.14	15.17	-35.1	-36.3	18.0	0.00e+00	0	56	0	870318080	40	4221
2026-01-08 06:18:45.58	314.92	15.17	-35.1	-36.3	18.0	0.00e+00	0	56	0	877658112	40	4221
2026-01-08 06:18:46.59	314.71	15.16	-35.1	-36.3	18.0	0.00e+00	0	56	0	884998144	40	4222
2026-01-08 06:18:47.60	314.49	15.16	-35.1	-36.3	18.0	0.00e+00	0	56	0	892338176	40	4214
2026-01-08 06:18:48.61	314.27	15.16	-35.1	-36.2	18.1	0.00e+00	0	56	0	899678208	40	4193
2026-01-08 06:18:49.62	314.06	15.15	-35.0	-36.2	18.1	0.00e+00	0	56	0	907018240	40	4181
2026-01-08 06:18:50.63	313.84	15.15	-34.9	-36.1	18.2	0.00e+00	0	56	0	914358272	40	4126
2026-01-08 06:18:51.64	313.63	15.14	-34.9	-36.0	18.3	0.00e+00	0	56	0	921698304	40	4091
2026-01-08 06:18:52.65	313.41	15.13	-34.8	-36.0	18.3	0.00e+00	0	56	0	927989760	40	4068
2026-01-08 06:18:53.66	313.20	15.13	-34.8	-36.0	18.3	0.00e+00	0	56	0	935329792	40	4076
2026-01-08 06:18:54.68	312.98	15.12	-34.8	-36.0	18.3	0.00e+00	0	56	0	943718400	40	4062
2026-01-08 06:18:55.69	312.77	15.11	-34.8	-36.0	18.3	0.00e+00	0	56	0	950009856	40	4057
2026-01-08 06:18:56.70	312.55	15.10	-34.8	-36.0	18.3	0.00e+00	0	56	0	957349888	40	4069
2026-01-08 06:18:57.71	312.34	15.10	-34.8	-35.9	18.4	0.00e+00	0	56	0	964689920	40	4032
2026-01-08 06:18:58.72	312.12	15.09	-34.8	-35.9	18.4	0.00e+00	0	56	0	972029952	40	4031
2026-01-08 06:18:59.73	311.91	15.08	-34.8	-36.0	18.3	0.00e+00	0	56	0	979369984	40	4064
2026-01-08 06:19:00.74	311.70	15.07	-34.8	-35.9	18.4	0.00e+00	0	56	0	986710016	40	4049
2026-01-08 06:19:01.75	311.48	15.06	-34.8	-36.0	18.3	0.00e+00	0	56	0	994050048	40	4069
2026-01-08 06:19:02.76	311.27	15.05	-34.8	-35.9	18.3	0.00e+00	0	56	0	1001390080	40	4041
2026-01-08 06:19:03.77	311.06	15.04	-34.7	-35.9	18.4	0.00e+00	0	56	0	1008730112	40	4024
2026-01-08 06:19:04.78	310.84	15.03	-34.8	-35.9	18.4	0.00e+00	0	56	0	1016070144	40	4025
2026-01-08 06:19:05.79	310.63	15.01	-34.7	-35.9	18.4	0.00e+00	0	56	0	1023410176	40	4019
2026-01-08 06:19:06.80	310.42	15.00	-34.8	-35.9	18.3	0.00e+00	0	56	0	1030750208	40	4046
2026-01-08 06:19:07.81	310.20	14.99	-34.8	-36.0	18.3	0.00e+00	0	56	0	1038090240	40	4080
2026-01-08 06:19:08.82	309.99	14.98	-34.8	-36.0	18.3	0.00e+00	0	56	0	1045430272	40	4067
2026-01-08 06:19:09.83	309.78	14.96	-34.8	-36.0	18.3	0.00e+00	0	56	0	1052770304	40	4064
2026-01-08 06:19:10.84	309.56	14.95	-34.9	-36.0	18.3	0.00e+00	0	56	0	1060110336	40	4097
2026-01-08 06:19:11.85	309.35	14.94	-34.8	-36.0	18.3	0.00e+00	0	56	0	1067450368	40	4071
2026-01-08 06:19:12.86	309.14	14.92	-34.8	-35.9	18.4	0.00e+00	0	56	0	1073741824	40	4036
2026-01-08 06:19:13.87	308.93	14.91	-34.9	-36.0	18.3	0.00e+00	0	56	0	1081081856	40	4087
2026-01-08 06:19:14.88	308.72	14.89	-34.9	-36.0	18.3	0.00e+00	0	56	0	1089470464	40	4096
2026-01-08 06:19:15.89	308.50	14.88	-35.0	-36.2	18.1	0.00e+00	0	56	0	1095761920	40	4148
2026-01-08 06:19:16.90	308.29	14.86	-35.0	-36.1	18.1	0.00e+00	0	56	0	1103101952	40	4145
2026-01-08 06:19:17.91	308.08	14.85	-35.0	-36.2	18.1	0.00e+00	0	56	0	1110441984	40	4176
2026-01-08 06:19:18.92	307.87	14.83	-35.0	-36.2	18.1	0.00e+00	0	56	0	1117782016	40	4182
2026-01-08 06:19:19.93	307.66	14.81	-35.0	-36.2	18.1	0.00e+00	0	56	0	1125122048	40	4168
2026-01-08 06:19:20.94	307.45	14.80	-35.0	-36.1	18.2	0.00e+00	0	56	0	1132462080	40	4130
2026-01-08 06:19:21.95	307.24	14.78	-35.0	-36.2	18.1	0.00e+00	0	56	0	1139802112	40	4157
2026-01-08 06:19:22.96	307.03	14.76	-34.9	-36.1	18.1	0.00e+00	0	56	0	1147142144	40	4132
2026-01-08 06:19:23.97	306.82	14.74	-35.0	-36.2	18.1	0.00e+00	0	56	0	1154482176	40	4166
2026-01-08 06:19:24.98	306.61	14.72	-35.0	-36.1	18.1	0.00e+00	0	56	0	1161822208	40	4141
2026-01-08 06:19:25.98	306.41	14.70	-34.9	-36.1	18.1	0.00e+00	0	56	0	1169162240	40	4137
2026-01-08 06:19:27.00	306.19	14.69	-34.9	-36.1	18.2	0.00e+00	0	56	0	1176502272	40	4125
2026-01-08 06:19:28.01	305.99	14.67	-34.9	-36.1	18.1	0.00e+00	0	56	0	1183842304	40	4128
2026-01-08 06:19:29.02	305.78	14.65	-34.9	-36.1	18.2	0.00e+00	0	56	0	1191182336	40	4124
2026-01-08 06:19:30.03	305.57	14.62	-35.0	-36.2	18.0	0.00e+00	0	56	0	1198522368	40	4189
2026-01-08 06:19:31.04	305.36	14.60	-35.1	-36.3	18.0	0.00e+00	0	56	0	1205862400	40	4200
2026-01-08 06:19:32.05	305.16	14.58	-35.1	-36.3	18.0	0.00e+00	0	56	0	1213202432	40	4216
2026-01-08 06:19:33.06	304.95	14.56	-35.1	-36.3	18.0	0.00e+00	0	56	0	1220542464	40	4204
2026-01-08 06:19:34.06	304.74	14.54	-35.1	-36.3	17.9	0.00e+00	0	56	0	1226833920	40	4237
2026-01-08 06:19:35.07	304.54	14.52	-35.0	-36.2	18.0	0.00e+00	0	56	0	1235222528	40	4165
2026-01-08 06:19:36.08	304.33	14.49	-35.1	-36.3	18.0	0.00e+00	0	56	0	1242562560	40	4198
2026-01-08 06:19:37.09	304.13	14.47	-35.1	-36.3	18.0	0.00e+00	0	56	0	1248854016	40	4203
2026-01-08 06:19:38.10	303.92	14.45	-35.1	-36.3	18.0	0.00e+00	0	56	0	1256194048	40	4206
2026-01-08 06:19:39.12	303.71	14.42	-35.0	-36.1	18.1	0.00e+00	0	56	0	1263534080	40	4139
2026-01-08 06:19:40.13	303.51	14.40	-35.0	-36.2	18.0	0.00e+00	0	56	0	1270874112	40	4188
2026-01-08 06:19:41.13	303.31	14.38	-35.1	-36.3	18.0	0.00e+00	0	56	0	1278214144	40	4200
2026-01-08 06:19:42.14	303.10	14.35	-35.0	-36.2	18.0	0.00e+00	0	56	0	1285554176	40	4186
2026-01-08 06:19:43.15	302.90	14.33	-35.1	-36.3	18.0	0.00e+00	0	56	0	1292894208	40	4201
2026-01-08 06:19:44.16	302.69	14.30	-35.1	-36.3	17.9	0.00e+00	0	56	0	1300234240	40	4207
2026-01-08 06:19:45.17	302.49	14.28	-35.1	-36.3	17.9	0.00e+00	0	56	0	1307574272	40	4237
2026-01-08 06:19:46.18	302.29	14.25	-35.1	-36.3	17.9	0.00e+00	0	56	0	1314914304	40	4232
2026-01-08 06:19:47.19	302.09	14.22	-35.2	-36.4	17.8	0.00e+00	0	56	0	1322254336	40	4255
2026-01-08 06:19:48.20	301.88	14.20	-35.2	-36.4	17.8	0.00e+00	0	56	0	1329594368	40	4276
2026-01-08 06:19:49.21	301.68	14.17	-35.1	-36.3	17.9	0.00e+00	0	56	0	1336934400	40	4212
2026-01-08 06:19:50.22	301.48	14.14	-35.0	-36.2	18.0	0.00e+00	0	56	0	1344274432	40	4176
2026-01-08 06:19:51.23	301.28	14.11	-35.0	-36.2	18.0	0.00e+00	0	56	0	1351614464	40	4183
2026-01-08 06:19:52.24	301.08	14.09	-35.0	-36.2	18.0	0.00e+00	0	56	0	1358954496	40	4162
2026-01-08 06:19:53.25	300.88	14.06	-34.9	-36.1	18.1	0.00e+00	0	56	0	1366294528	40	4128
2026-01-08 06:19:54.26	300.68	14.03	-35.0	-36.2	18.0	0.00e+00	0	56	0	1373634560	40	4158
2026-01-08 06:19:55.27	300.48	14.00	-34.9	-36.1	18.0	0.00e+00	0	56	0	1379926016	40	4125
2026-01-08 06:19:56.28	300.28	13.97	-35.0	-36.2	18.0	0.00e+00	0	56	0	1388314624	40	4157
2026-01-08 06:19:57.29	300.08	13.94	-35.0	-36.2	18.0	0.00e+00	0	56	0	1395654656	40	4164
2026-01-08 06:19:58.30	299.88	13.91	-35.0	-36.2	17.9	0.00e+00	0	56	0	1401946112	40	4186
2026-01-08 06:19:59.31	299.69	13.88	-35.1	-36.3	17.8	0.00e+00	0	56	0	1409286144	40	4233
2026-01-08 06:20:00.32	299.49	13.85	-35.2	-36.4	17.7	0.00e+00	0	56	0	1416626176	40	4270
2026-01-08 06:20:01.33	299.29	13.82	-35.3	-36.5	17.7	0.00e+00	0	56	0	1423966208	40	4306
2026-01-08 06:20:02.34	299.09	13.79	-35.3	-36.5	17.6	0.00e+00	0	56	0	1431306240	40	4322
2026-01-08 06:20:03.34	298.90	13.76	-35.3	-36.6	17.6	0.00e+00	0	57	0	1438646272	40	4353
2026-01-08 06:20:04.36	298.70	13.73	-35.3	-36.6	17.5	0.00e+00	0	56	0	1445986304	40	4361
2026-01-08 06:20:05.36	298.51	13.70	-35.5	-36.8	17.3	0.00e+00	0	56	0	1453326336	40	4447
2026-01-08 06:20:06.38	298.31	13.66	-35.3	-36.5	17.6	0.00e+00	0	56	0	1460666368	40	4320
2026-01-08 06:20:07.38	298.12	13.63	-35.2	-36.4	17.7	0.00e+00	0	56	0	1468006400	40	4276
2026-01-08 06:20:08.40	297.92	13.60	-35.1	-36.3	17.7	0.00e+00	0	56	0	1475346432	40	4221
2026-01-08 06:20:09.41	297.73	13.56	-35.1	-36.3	17.7	0.00e+00	0	56	0	1482686464	40	4222
2026-01-08 06:20:10.42	297.54	13.53	-35.0	-36.3	17.8	0.00e+00	0	56	0	1490026496	40	4194
2026-01-08 06:20:11.43	297.34	13.50	-35.1	-36.4	17.6	0.00e+00	0	56	0	1497366528	40	4246
2026-01-08 06:20:12.44	297.15	13.46	-35.1	-36.3	17.6	0.00e+00	0	56	0	1504706560	40	4235
2026-01-08 06:20:13.45	296.96	13.43	-35.1	-36.4	17.6	0.00e+00	0	56	0	1512046592	40	4252
2026-01-08 06:20:14.46	296.77	13.40	-35.1	-36.4	17.5	0.00e+00	0	56	0	1519386624	40	4264
2026-01-08 06:20:15.47	296.58	13.36	-35.1	-36.3	17.5	0.00e+00	0	56	0	1525678080	40	4242
2026-01-08 06:20:16.48	296.39	13.33	-35.1	-36.3	17.6	0.00e+00	0	56	0	1534066688	40	4242
2026-01-08 06:20:17.49	296.20	13.29	-35.1	-36.3	17.5	0.00e+00	0	57	0	1541406720	40	4225
2026-01-08 06:20:18.50	296.01	13.26	-35.1	-36.3	17.5	0.00e+00	0	57	0	1547698176	40	4219
2026-01-08 06:20:19.51	295.82	13.22	-35.1	-36.4	17.5	0.00e+00	0	56	0	1555038208	40	4247
2026-01-08 06:20:20.52	295.63	13.18	-35.1	-36.3	17.5	0.00e+00	0	57	0	1562378240	40	4233
2026-01-08 06:20:21.53	295.44	13.15	-35.1	-36.4	17.4	0.00e+00	0	56	0	1569718272	40	4248
2026-01-08 06:20:22.54	295.25	13.11	-35.1	-36.4	17.4	0.00e+00	0	56	0	1577058304	40	4248
2026-01-08 06:20:23.55	295.07	13.07	-35.2	-36.4	17.3	0.00e+00	0	56	0	1584398336	40	4281
2026-01-08 06:20:24.56	294.88	13.04	-35.2	-36.5	17.2	0.00e+00	0	56	0	1591738368	40	4294
2026-01-08 06:20:25.57	294.69	13.00	-35.3	-36.6	16.9	0.00e+00	0	57	0	1599078400	40	4366
2026-01-08 06:20:26.58	294.51	12.96	-35.4	-36.8	16.7	0.00e+00	0	56	0	1606418432	40	4463
2026-01-08 06:20:27.59	294.32	12.93	-35.6	-37.0	16.5	0.00e+00	0	56	0	1613758464	40	4549
2026-01-08 06:20:28.60	294.14	12.89	-35.8	-37.2	16.1	0.00e+00	0	57	0	1621098496	41	4417
2026-01-08 06:20:29.61	293.95	12.85	-35.9	-37.4	15.9	0.00e+00	0	56	0	1628438528	41	4529
2026-01-08 06:20:30.62	293.77	12.81	-36.2	-37.7	15.4	1.10e-06	0	56	0	1635778560	41	4704
2026-01-08 06:20:31.63	293.58	12.77	-36.4	-38.0	15.1	0.00e+00	0	57	0	1643118592	42	4598
2026-01-08 06:20:32.64	293.40	12.73	-36.6	-38.3	14.7	1.10e-06	0	57	0	1650458624	42	4731
2026-01-08 06:20:33.65	293.22	12.69	-36.7	-38.5	14.4	2.20e-06	0	56	0	1657798656	43	4563
2026-01-08 06:20:34.66	293.04	12.65	-37.0	-38.8	14.0	1.10e-06	0	56	0	1665138688	43	4720
2026-01-08 06:20:35.67	292.86	12.62	-37.0	-38.9	13.8	3.40e-06	0	57	0	1672478720	43	4783
2026-01-08 06:20:36.68	292.67	12.58	-37.1	-38.9	13.8	5.70e-06	0	56	0	1679818752	43	4796
2026-01-08 06:20:37.69	292.49	12.54	-37.1	-39.1	13.6	1.14e-05	0	57	0	1687158784	43	4881
2026-01-08 06:20:38.70	292.31	12.50	-37.4	-39.3	13.5	1.25e-05	0	57	0	1694498816	44	4725
2026-01-08 06:20:39.70	292.14	12.46	-37.4	-39.3	13.6	1.71e-05	0	57	0	1700790272	44	4711
2026-01-08 06:20:40.72	291.96	12.41	-37.4	-39.3	13.7	1.10e-06	0	57	0	1708130304	44	4715
2026-01-08 06:20:41.73	291.78	12.37	-37.5	-39.4	13.6	1.37e-05	0	57	0	1716518912	44	4777
2026-01-08 06:20:42.74	291.60	12.33	-37.6	-39.5	13.5	1.02e-05	0	57	0	1722810368	44	4833
2026-01-08 06:20:43.75	291.42	12.29	-37.6	-39.6	13.4	1.02e-05	0	57	0	1730150400	44	4897
2026-01-08 06:20:44.75	291.25	12.25	-37.7	-39.7	13.3	2.28e-05	0	56	0	1737490432	45	4665
2026-01-08 06:20:45.76	291.07	12.21	-37.8	-39.9	13.1	3.08e-05	0	56	0	1744830464	45	4772
2026-01-08 06:20:46.77	290.89	12.17	-37.7	-39.8	13.1	2.40e-05	0	57	0	1752170496	45	4723
2026-01-08 06:20:47.78	290.72	12.13	-37.8	-39.9	12.8	5.26e-05	0	57	0	1759510528	45	4766
2026-01-08 06:20:48.79	290.54	12.08	-37.8	-39.9	12.7	7.89e-05	0	57	0	1766850560	45	4789
2026-01-08 06:20:49.80	290.37	12.04	-37.8	-40.0	12.6	8.58e-05	0	57	0	1774190592	45	4827
2026-01-08 06:20:50.81	290.19	12.00	-37.9	-40.1	12.4	1.54e-04	0	57	0	1781530624	45	4925
2026-01-08 06:20:51.82	290.02	11.96	-38.0	-40.3	12.1	2.57e-04	0	57	0	1788870656	45	5007
2026-01-08 06:20:52.83	289.85	11.91	-38.1	-40.5	11.9	4.55e-04	0	57	0	1796210688	45	5123
2026-01-08 06:20:53.84	289.67	11.87	-38.2	-40.7	11.5	8.24e-04	0	57	0	1803550720	46	4978
2026-01-08 06:20:54.85	289.50	11.83	-38.4	-41.0	11.1	1.52e-03	0	57	0	1810890752	46	5144
2026-01-08 06:20:55.86	289.33	11.78	-38.7	-41.5	10.6	3.67e-03	0	57	0	1818230784	46	5419
2026-01-08 06:20:56.87	289.16	11.74	-38.8	-41.8	10.2	5.94e-03	0	57	0	1824522240	47	5287
2026-01-08 06:20:57.88	288.99	11.70	-39.0	-42.2	9.6	1.24e-02	0	57	0	1832910848	47	5543
2026-01-08 06:20:58.89	288.82	11.65	-39.2	-42.5	9.1	2.09e-02	0	57	0	1840250880	47	5785
2026-01-08 06:20:59.90	288.65	11.61	-39.4	-43.0	8.7	3.37e-02	0	57	0	1846542336	48	5784
2026-01-08 06:21:00.91	288.48	11.56	-39.6	-43.5	8.1	5.92e-02	0	57	0	1853882368	48	6105
2026-01-08 06:21:01.92	288.31	11.52	-39.7	-43.9	7.7	9.12e-02	0	57	0	1861222400	48	6358
2026-01-08 06:21:02.93	288.14	11.48	-39.9	-44.4	7.0	1.44e-01	0	57	0	1868562432	49	6399
2026-01-08 06:21:03.94	287.98	11.43	-40.0	-44.9	6.5	2.29e-01	0	57	0	1875902464	49	6781
2026-01-08 06:21:04.95	287.81	11.39	-40.1	-45.5	5.9	3.38e-01	0	57	0	1883242496	49	7252
2026-01-08 06:21:05.96	287.64	11.34	-40.3	-45.9	5.6	6.33e-01	0	57	0	1889533952	50	7201
2026-01-08 06:21:06.97	287.48	11.30	-40.4	-46.5	5.1	7.38e-01	0	57	0	1891631104	50	7714
2026-01-08 06:21:07.98	287.31	11.25	-40.5	-46.9	4.9	7.82e-01	0	57	0	1891631104	50	8056
2026-01-08 06:21:08.99	287.15	11.21	-40.5	-47.2	4.7	8.01e-01	0	57	0	1891631104	50	8362
2026-01-08 06:21:10.00	286.98	11.16	-40.5	-47.5	4.6	8.16e-01	0	57	0	1891631104	50	8631
2026-01-08 06:21:11.01	286.82	11.11	-40.6	-47.8	4.4	8.23e-01	0	57	0	1891631104	50	8887
2026-01-08 06:21:12.01	286.66	11.07	-40.6	-48.0	4.4	8.29e-01	0	57	0	1891631104	50	9119
2026-01-08 06:21:13.02	286.50	11.02	-40.6	-48.2	4.3	8.32e-01	0	57	0	1891631104	50	9328
2026-01-08 06:21:14.03	286.33	10.98	-40.7	-48.5	4.2	8.36e-01	0	57	0	1891631104	50	9715
2026-01-08 06:21:15.04	286.17	10.93	-40.7	-48.8	4.1	8.38e-01	0	57	0	1891631104	50	9980
2026-01-08 06:21:16.05	286.01	10.88	-40.7	-48.8	4.1	8.40e-01	0	57	0	1891631104	50	9977
2026-01-08 06:21:17.06	285.85	10.84	-40.7	-48.9	4.1	8.41e-01	0	57	0	1891631104	50	10159
2026-01-08 06:21:18.07	285.69	10.79	-40.7	-48.5	4.2	8.36e-01	0	57	0	1891631104	50	9661
2026-01-08 06:21:19.08	285.53	10.74	-40.7	-48.0	4.4	8.32e-01	0	57	0	1891631104	51	8597
2026-01-08 06:21:20.09	285.37	10.70	-40.7	-47.6	4.6	8.17e-01	0	57	0	1891631104	51	8256
2026-01-08 06:21:21.10	285.21	10.65	-40.8	-47.3	4.8	7.95e-01	0	57	0	1891631104	51	7974
2026-01-08 06:21:22.11	285.05	10.60	-40.9	-47.1	5.1	7.71e-01	0	57	0	1892679680	51	7739
2026-01-08 06:21:23.12	284.90	10.56	-40.9	-46.8	5.3	7.38e-01	0	57	0	1892679680	51	7499
2026-01-08 06:21:24.13	284.74	10.51	-40.9	-46.5	5.6	6.81e-01	0	57	0	1895825408	51	7210
2026-01-08 06:21:25.14	284.58	10.46	-40.9	-46.1	6.0	3.63e-01	0	57	0	1902116864	51	6928
2026-01-08 06:21:26.15	284.43	10.41	-40.9	-45.8	6.4	2.86e-01	0	57	0	1909456896	51	6707
2026-01-08 06:21:27.16	284.27	10.36	-40.9	-45.4	6.9	2.03e-01	0	57	0	1916796928	51	6410
2026-01-08 06:21:28.17	284.12	10.32	-40.9	-45.1	7.4	1.27e-01	0	57	0	1924136960	51	6151
2026-01-08 06:21:29.18	283.96	10.27	-41.0	-45.1	7.6	1.01e-01	0	57	0	1931476992	51	6168
2026-01-08 06:21:30.19	283.81	10.22	-40.9	-44.7	8.0	7.29e-02	0	57	0	1938817024	51	5907
2026-01-08 06:21:31.20	283.65	10.17	-40.8	-44.6	8.3	5.86e-02	0	57	0	1945108480	51	5811
2026-01-08 06:21:32.21	283.50	10.12	-40.9	-44.7	8.3	5.38e-02	0	57	0	1952448512	51	5868
2026-01-08 06:21:33.22	283.35	10.08	-40.7	-44.3	8.6	4.23e-02	0	57	0	1959788544	51	5634
2026-01-08 06:21:34.23	283.20	10.03	-40.5	-43.9	9.1	2.59e-02	0	57	0	1967128576	51	5366
2026-01-08 06:21:35.24	283.04	9.98	-40.3	-43.6	9.4	1.80e-02	0	57	0	1974468608	51	5167
2026-01-08 06:21:36.25	282.89	9.93	-40.1	-43.2	9.8	1.22e-02	0	57	0	1981808640	51	4962
2026-01-08 06:21:37.26	282.74	9.88	-39.9	-42.9	10.2	7.35e-03	0	57	0	1989148672	50	5047
2026-01-08 06:21:38.27	282.59	9.83	-39.5	-42.2	10.8	4.07e-03	0	57	0	1996488704	50	4684
2026-01-08 06:21:39.28	282.44	9.78	-39.0	-41.5	11.4	1.36e-03	0	57	0	2003828736	49	4584
2026-01-08 06:21:40.29	282.29	9.73	-38.7	-41.2	11.7	8.23e-04	0	57	0	2011168768	48	4659
2026-01-08 06:21:41.30	282.15	9.69	-38.7	-41.2	11.6	6.72e-04	0	57	0	2018508800	48	4655
2026-01-08 06:21:42.31	282.00	9.64	-38.6	-41.1	11.6	7.62e-04	0	57	0	2025848832	48	4618
2026-01-08 06:21:43.32	281.85	9.59	-38.6	-41.1	11.4	1.14e-03	0	57	0	2033188864	48	4627
2026-01-08 06:21:44.33	281.70	9.54	-38.7	-41.4	11.0	1.85e-03	0	57	0	2040528896	48	4779
2026-01-08 06:21:45.34	281.56	9.49	-39.0	-41.8	10.5	3.81e-03	0	57	0	2047868928	48	5034
2026-01-08 06:21:46.35	281.41	9.44	-39.2	-42.2	10.1	6.48e-03	0	57	0	2055208960	48	5220
2026-01-08 06:21:47.36	281.27	9.39	-39.4	-42.6	9.5	1.29e-02	0	57	0	2062548992	48	5516
2026-01-08 06:21:48.37	281.12	9.34	-39.5	-42.8	9.3	1.89e-02	0	57	0	2068840448	48	5642
2026-01-08 06:21:49.38	280.98	9.29	-39.5	-43.0	9.0	2.48e-02	0	57	0	2077229056	48	5769
2026-01-08 06:21:50.39	280.83	9.24	-39.6	-43.1	8.9	3.09e-02	0	57	0	2084569088	48	5835
2026-01-08 06:21:51.40	280.69	9.19	-39.6	-43.2	8.7	3.36e-02	0	57	0	2090860544	48	5888
2026-01-08 06:21:52.41	280.55	9.14	-39.6	-43.3	8.5	4.30e-02	0	57	0	2098200576	48	5992
2026-01-08 06:21:53.42	280.40	9.09	-39.7	-43.7	8.0	6.39e-02	0	57	0	2105540608	49	5889
2026-01-08 06:21:54.43	280.26	9.04	-39.9	-44.1	7.6	1.01e-01	0	57	0	2112880640	49	6153
2026-01-08 06:21:55.44	280.12	8.99	-40.0	-44.6	7.0	1.45e-01	0	57	0	2120220672	49	6499
2026-01-08 06:21:56.45	279.98	8.94	-40.1	-44.9	6.6	1.97e-01	0	57	0	2127560704	49	6775
2026-01-08 06:21:57.46	279.84	8.89	-40.2	-45.5	6.1	2.95e-01	0	57	0	2134900736	49	7213
2026-01-08 06:21:58.47	279.70	8.84	-40.3	-45.7	5.9	3.93e-01	0	57	0	2142240768	50	7008
2026-01-08 06:21:59.48	279.56	8.79	-40.3	-46.3	5.4	6.90e-01	0	57	0	2146435072	50	7460
2026-01-08 06:22:00.49	279.42	8.74	-40.4	-46.6	5.2	7.44e-01	0	57	0	2148532224	50	7735
2026-01-08 06:22:01.50	279.28	8.69	-40.4	-47.1	4.8	7.83e-01	0	57	0	2149580800	50	8259
2026-01-08 06:22:02.51	279.14	8.64	-40.5	-47.5	4.6	8.10e-01	0	57	0	2149580800	50	8605
2026-01-08 06:22:03.52	279.01	8.59	-40.5	-48.1	4.4	8.27e-01	0	57	0	2149580800	50	9191
2026-01-08 06:22:04.53	278.87	8.54	-40.6	-48.5	4.2	8.35e-01	0	57	0	2149580800	50	9632
2026-01-08 06:22:05.54	278.73	8.48	-40.6	-49.0	4.1	8.39e-01	0	57	0	2149580800	50	10240
2026-01-08 06:22:06.55	278.60	8.43	-40.6	-49.4	3.8	8.43e-01	0	57	104	2149580800	50	10663
2026-01-08 06:22:07.57	278.46	8.38	-40.6	-49.7	3.8	8.43e-01	0	57	104	2149580800	50	11032
2026-01-08 06:22:08.57	278.33	8.33	-40.6	-49.8	3.9	8.43e-01	0	57	104	2149580800	50	11227
2026-01-08 06:22:09.59	278.19	8.28	-40.6	-50.0	3.9	8.45e-01	0	57	104	2149580800	50	11431
2026-01-08 06:22:10.60	278.06	8.23	-40.6	-50.1	3.8	8.45e-01	0	57	104	2149580800	50	11679
2026-01-08 06:22:11.61	277.92	8.18	-40.5	-50.4	3.8	8.45e-01	0	57	104	2149580800	50	11974
2026-01-08 06:22:12.62	277.79	8.13	-40.5	-50.4	3.8	8.47e-01	0	57	104	2149580800	50	12055
2026-01-08 06:22:13.63	277.66	8.08	-40.5	-50.5	3.8	8.46e-01	0	57	104	2149580800	50	12183
2026-01-08 06:22:14.64	277.52	8.03	-40.5	-50.5	3.8	8.47e-01	0	57	104	2149580800	50	12185
2026-01-08 06:22:15.65	277.39	7.97	-41.9	-52.9	3.9	8.45e-01	0	57	104	2149580800	53	13554
2026-01-08 06:22:16.66	277.26	7.92	-44.8	-55.6	3.8	8.45e-01	0	57	104	2149580800	59	13106
2026-01-08 06:22:17.66	277.13	7.87	-45.2	-56.1	3.8	8.47e-01	0	57	104	2149580800	59	13736
2026-01-08 06:22:18.67	277.00	7.82	-45.2	-56.4	3.8	8.46e-01	0	57	104	2149580800	60	13541
2026-01-08 06:22:19.68	276.87	7.77	-45.3	-56.5	3.8	8.46e-01	0	57	104	2149580800	60	13617
2026-01-08 06:22:20.69	276.74	7.72	-45.4	-56.5	3.8	8.47e-01	0	57	104	2149580800	60	13716
2026-01-08 06:22:21.70	276.61	7.67	-45.5	-56.6	3.8	8.46e-01	0	57	104	2149580800	60	13810
2026-01-08 06:22:22.71	276.48	7.61	-45.5	-56.6	3.8	8.45e-01	0	57	104	2149580800	60	13885
2026-01-08 06:22:23.72	276.36	7.56	-45.5	-56.7	3.8	8.47e-01	0	57	104	2149580800	60	13932
2026-01-08 06:22:24.73	276.23	7.51	-45.5	-56.7	3.8	8.46e-01	0	57	104	2149580800	60	13912
2026-01-08 06:22:25.74	276.10	7.46	-45.5	-56.6	3.8	8.47e-01	0	57	104	2149580800	60	13858
2026-01-08 06:22:26.75	275.97	7.41	-45.5	-56.6	3.8	8.47e-01	0	57	104	2149580800	60	13783
2026-01-08 06:22:27.76	275.85	7.36	-45.4	-56.6	3.8	8.46e-01	0	57	104	2149580800	60	13803
2026-01-08 06:22:28.77	275.72	7.31	-45.4	-56.5	3.8	8.46e-01	0	57	104	2149580800	60	13719
2026-01-08 06:22:29.78	275.60	7.25	-45.4	-56.6	3.8	8.47e-01	0	57	104	2149580800	60	13755
2026-01-08 06:22:30.79	275.47	7.20	-45.4	-56.5	3.8	8.46e-01	0	57	104	2149580800	60	13724
2026-01-08 06:22:31.80	275.35	7.15	-45.4	-56.6	3.8	8.45e-01	0	57	104	2149580800	60	13733
2026-01-08 06:22:32.81	275.22	7.10	-45.4	-56.5	3.8	8.45e-01	0	57	104	2149580800	60	13583
2026-01-08 06:22:33.82	275.10	7.05	-45.4	-56.6	3.8	8.45e-01	0	57	104	2149580800	60	13727
2026-01-08 06:22:34.83	274.98	7.00	-45.4	-56.5	3.8	8.46e-01	0	57	104	2149580800	60	13699
2026-01-08 06:22:35.84	274.85	6.94	-45.4	-56.5	3.8	8.47e-01	0	57	104	2149580800	60	13694
2026-01-08 06:22:36.85	274.73	6.89	-45.4	-56.5	3.8	8.47e-01	0	57	104	2149580800	60	13654
2026-01-08 06:22:37.86	274.61	6.84	-45.4	-56.5	3.8	8.46e-01	0	57	104	2149580800	60	13644
2026-01-08 06:22:38.87	274.49	6.79	-45.4	-56.5	3.8	8.45e-01	0	57	104	2149580800	60	13597
2026-01-08 06:22:39.88	274.37	6.74	-45.4	-56.5	3.8	8.45e-01	0	57	104	2149580800	60	13675
2026-01-08 06:22:40.89	274.25	6.68	-45.4	-56.5	3.8	8.47e-01	0	57	104	2149580800	60	13609
2026-01-08 06:22:41.90	274.13	6.63	-45.4	-56.5	3.8	8.46e-01	0	57	104	2149580800	60	13691
2026-01-08 06:22:42.91	274.01	6.58	-45.4	-56.5	3.8	8.46e-01	0	57	104	2149580800	60	13618
2026-01-08 06:22:43.92	273.89	6.53	-45.4	-56.5	3.8	8.45e-01	0	57	104	2149580800	60	13617
2026-01-08 06:22:44.92	273.77	6.48	-45.4	-56.5	3.8	8.46e-01	0	57	104	2149580800	60	13574
2026-01-08 06:22:45.94	273.65	6.42	-45.4	-56.5	3.8	8.46e-01	0	57	104	2149580800	60	13584
2026-01-08 06:22:46.95	273.53	6.37	-45.4	-56.5	3.8	8.45e-01	0	57	104	2149580800	60	13585
2026-01-08 06:22:47.95	273.42	6.32	-45.4	-56.5	3.8	8.47e-01	0	57	104	2149580800	60	13620
2026-01-08 06:22:48.97	273.30	6.27	-45.4	-56.5	3.8	8.47e-01	0	57	104	2149580800	60	13602
2026-01-08 06:22:49.98	273.18	6.22	-45.4	-56.5	3.8	8.46e-01	0	57	104	2149580800	60	13581
2026-01-08 06:22:50.99	273.07	6.16	-45.4	-56.5	3.8	8.47e-01	0	57	104	2149580800	60	13661
2026-01-08 06:22:52.00	272.95	6.11	-45.4	-56.5	3.8	8.46e-01	0	57	104	2149580800	60	13648
2026-01-08 06:22:53.01	272.84	6.06	-45.4	-56.5	3.8	8.47e-01	0	57	104	2149580800	60	13604
2026-01-08 06:22:54.02	272.72	6.01	-45.4	-56.5	3.8	8.46e-01	0	57	104	2149580800	60	13634
2026-01-08 06:22:55.02	272.61	5.96	-45.4	-56.5	3.8	8.46e-01	0	57	104	2149580800	60	13602
2026-01-08 06:22:56.03	272.49	5.91	-45.3	-56.5	3.8	8.47e-01	0	57	104	2149580800	60	13632
2026-01-08 06:22:57.04	272.38	5.85	-45.4	-56.5	3.8	8.46e-01	0	57	104	2149580800	60	13618
2026-01-08 06:22:58.05	272.27	5.80	-45.4	-56.5	3.8	8.46e-01	0	57	104	2149580800	60	13607
2026-01-08 06:22:59.06	272.15	5.75	-45.4	-56.5	3.8	8.45e-01	0	57	104	2149580800	60	13670
2026-01-08 06:23:00.07	272.04	5.70	-45.3	-56.5	3.8	8.45e-01	0	57	104	2149580800	60	13572
2026-01-08 06:23:01.08	271.93	5.65	-45.4	-56.4	3.8	8.46e-01	0	57	104	2149580800	60	13543
2026-01-08 06:23:02.09	271.82	5.59	-45.4	-56.5	3.8	8.47e-01	0	57	104	2149580800	60	13594
2026-01-08 06:23:03.10	271.71	5.54	-45.4	-56.5	3.8	8.46e-01	0	57	104	2149580800	60	13618
2026-01-08 06:23:04.11	271.60	5.49	-45.4	-56.5	3.8	8.46e-01	0	57	104	2149580800	60	13621
2026-01-08 06:23:05.12	271.49	5.44	-45.4	-56.5	3.8	8.46e-01	0	57	104	2149580800	60	13645
2026-01-08 06:23:06.13	271.38	5.39	-45.3	-56.5	3.8	8.46e-01	0	57	104	2149580800	60	13611
2026-01-08 06:23:07.15	271.27	5.33	-45.3	-56.4	3.8	8.46e-01	0	57	104	2149580800	60	13549
2026-01-08 06:23:08.16	271.16	5.28	-45.3	-56.4	3.8	8.47e-01	0	57	104	2149580800	60	13561
2026-01-08 06:23:09.16	271.05	5.23	-45.3	-56.5	3.8	8.45e-01	0	57	104	2149580800	60	13577
2026-01-08 06:23:10.17	270.94	5.18	-45.3	-56.3	3.8	8.45e-01	0	57	104	2149580800	60	13319
2026-01-08 06:23:11.18	270.83	5.13	-45.3	-56.5	3.8	8.45e-01	0	57	104	2149580800	60	13627
2026-01-08 06:23:12.20	270.72	5.07	-45.3	-56.4	3.8	8.47e-01	0	57	104	2149580800	60	13543
2026-01-08 06:23:13.21	270.62	5.02	-45.3	-56.5	3.8	8.45e-01	0	57	104	2149580800	60	13596
2026-01-08 06:23:14.22	270.51	4.97	-45.3	-56.4	3.8	8.46e-01	0	57	104	2149580800	60	13535
2026-01-08 06:23:15.23	270.40	4.92	-45.3	-56.4	3.8	8.46e-01	0	57	104	2149580800	60	13552
2026-01-08 06:23:16.24	270.30	4.87	-45.3	-56.4	3.8	8.46e-01	0	57	104	2149580800	60	13513
2026-01-08 06:23:17.25	270.19	4.81	-45.3	-56.5	3.8	8.45e-01	0	57	104	2149580800	60	13610
2026-01-08 06:23:18.26	270.09	4.76	-45.3	-56.5	3.8	8.46e-01	0	57	104	2149580800	60	13589
2026-01-08 06:23:19.27	269.98	4.71	-45.3	-56.5	3.8	8.47e-01	0	57	104	2149580800	60	13643
2026-01-08 06:23:20.28	269.88	4.66	-45.3	-56.4	3.8	8.45e-01	0	57	104	2149580800	60	13569
2026-01-08 06:23:21.29	269.77	4.61	-45.3	-56.5	3.8	8.46e-01	0	57	104	2149580800	60	13602
2026-01-08 06:23:22.30	269.67	4.56	-45.3	-56.4	3.8	8.46e-01	0	57	104	2149580800	60	13541
2026-01-08 06:23:23.31	269.57	4.50	-45.3	-56.4	3.8	8.46e-01	0	57	104	2149580800	60	13520
2026-01-08 06:23:24.32	269.46	4.45	-45.3	-56.4	3.8	8.46e-01	0	57	104	2149580800	60	13545
2026-01-08 06:23:25.33	269.36	4.40	-45.3	-56.5	3.8	8.44e-01	0	57	104	2149580800	60	13578
2026-01-08 06:23:26.34	269.26	4.35	-45.3	-56.4	3.8	8.47e-01	0	57	104	2149580800	60	13548
2026-01-08 06:23:27.35	269.16	4.30	-45.3	-56.4	3.8	8.47e-01	0	57	104	2149580800	60	13560
2026-01-08 06:23:28.36	269.05	4.24	-45.3	-56.4	3.8	8.47e-01	0	57	104	2149580800	60	13538
2026-01-08 06:23:29.37	268.95	4.19	-45.3	-56.5	3.8	8.47e-01	0	57	104	2149580800	60	13591
2026-01-08 06:23:30.38	268.85	4.14	-45.3	-56.4	3.8	8.46e-01	0	57	104	2149580800	60	13556
2026-01-08 06:23:31.39	268.75	4.09	-45.3	-56.4	3.8	8.46e-01	0	57	104	2149580800	60	13484
2026-01-08 06:23:32.40	268.65	4.04	-45.3	-56.4	3.8	8.46e-01	0	57	104	2149580800	60	13501
2026-01-08 06:23:33.41	268.55	3.99	-45.3	-56.4	3.8	8.45e-01	0	57	104	2149580800	60	13563
2026-01-08 06:23:34.42	268.45	3.93	-45.3	-56.5	3.8	8.45e-01	0	57	104	2149580800	60	13621
2026-01-08 06:23:35.43	268.35	3.88	-45.3	-56.4	3.8	8.45e-01	0	57	104	2149580800	60	13549
2026-01-08 06:23:36.44	268.25	3.83	-45.3	-56.4	3.8	8.45e-01	0	57	104	2149580800	60	13504
2026-01-08 06:23:37.45	268.16	3.78	-45.3	-56.4	3.8	8.46e-01	0	57	104	2149580800	60	13545
2026-01-08 06:23:38.46	268.06	3.73	-45.3	-56.4	3.8	8.45e-01	0	57	104	2149580800	60	13484
2026-01-08 06:23:39.47	267.96	3.68	-45.3	-56.4	3.8	8.46e-01	0	57	104	2149580800	60	13544
2026-01-08 06:23:40.48	267.86	3.63	-45.3	-56.5	3.8	8.46e-01	0	57	104	2149580800	60	13585
2026-01-08 06:23:41.50	267.77	3.57	-45.3	-56.4	3.8	8.46e-01	0	57	104	2149580800	60	13489
2026-01-08 06:23:42.51	267.67	3.52	-45.3	-56.4	3.8	8.46e-01	0	57	104	2149580800	60	13493
2026-01-08 06:23:43.52	267.57	3.47	-45.3	-56.4	3.8	8.47e-01	0	57	104	2149580800	60	13519
2026-01-08 06:23:44.53	267.48	3.42	-45.3	-56.4	3.8	8.46e-01	0	57	104	2149580800	60	13539
2026-01-08 06:23:45.54	267.38	3.37	-45.3	-56.4	3.8	8.46e-01	0	57	104	2149580800	60	13480
2026-01-08 06:23:46.55	267.29	3.32	-45.3	-56.4	3.8	8.46e-01	0	57	104	2149580800	60	13513
2026-01-08 06:23:47.56	267.19	3.26	-45.3	-56.4	3.8	8.45e-01	0	57	104	2149580800	60	13534
2026-01-08 06:23:48.57	267.10	3.21	-45.3	-56.5	3.8	8.45e-01	0	57	104	2149580800	60	13581
2026-01-08 06:23:49.58	267.00	3.16	-45.3	-56.4	3.8	8.45e-01	0	57	104	2149580800	60	13554
2026-01-08 06:23:50.59	266.91	3.11	-45.3	-56.4	3.8	8.46e-01	0	57	104	2149580800	60	13535
2026-01-08 06:23:51.60	266.82	3.06	-45.3	-56.4	3.8	8.45e-01	0	57	104	2149580800	60	13549
2026-01-08 06:23:52.61	266.72	3.01	-45.3	-56.4	3.8	8.48e-01	0	57	104	2149580800	60	13492
2026-01-08 06:23:53.62	266.63	2.96	-45.3	-56.4	3.8	8.45e-01	0	57	104	2149580800	60	13536
2026-01-08 06:23:54.63	266.54	2.91	-45.3	-56.4	3.8	8.46e-01	0	57	104	2149580800	60	13534
2026-01-08 06:23:55.64	266.44	2.86	-45.3	-56.4	3.8	8.45e-01	0	57	104	2149580800	60	13480
2026-01-08 06:23:56.65	266.35	2.80	-45.3	-56.4	3.8	8.46e-01	0	57	104	2149580800	60	13529
2026-01-08 06:23:57.66	266.26	2.75	-45.3	-56.4	3.8	8.46e-01	0	57	104	2149580800	60	13478
2026-01-08 06:23:58.67	266.17	2.70	-45.3	-56.4	3.8	8.48e-01	0	57	104	2149580800	60	13498
2026-01-08 06:23:59.68	266.08	2.65	-45.3	-56.4	3.8	8.47e-01	0	57	104	2149580800	60	13480
2026-01-08 06:24:00.69	265.99	2.60	-45.3	-56.4	3.8	8.47e-01	0	57	104	2149580800	60	13553
2026-01-08 06:24:01.70	265.90	2.55	-45.3	-56.4	3.8	8.47e-01	0	57	104	2149580800	60	13516
2026-01-08 06:24:02.71	265.81	2.50	-45.3	-56.4	3.8	8.46e-01	0	57	104	2149580800	60	13434
2026-01-08 06:24:03.72	265.72	2.45	-45.3	-56.4	3.8	8.47e-01	0	57	104	2149580800	60	13507
2026-01-08 06:24:04.73	265.63	2.40	-45.3	-56.4	3.8	8.45e-01	0	57	104	2149580800	60	13537
2026-01-08 06:24:05.74	265.54	2.35	-45.3	-56.4	3.8	8.46e-01	0	57	104	2149580800	60	13521
2026-01-08 06:24:06.75	265.45	2.29	-45.3	-56.4	3.8	8.46e-01	0	57	104	2149580800	60	13516
2026-01-08 06:24:07.76	265.36	2.24	-45.3	-56.4	3.8	8.46e-01	0	57	104	2149580800	60	13499
2026-01-08 06:24:08.77	265.28	2.19	-45.3	-56.4	3.8	8.46e-01	0	57	104	2149580800	60	13452
2026-01-08 06:24:09.78	265.19	2.14	-45.3	-56.3	3.8	8.47e-01	0	57	104	2149580800	60	13414
2026-01-08 06:24:10.79	265.10	2.09	-45.3	-56.4	3.8	8.46e-01	0	57	104	2149580800	60	13530
2026-01-08 06:24:11.80	265.01	2.04	-45.3	-56.4	3.8	8.46e-01	0	57	104	2149580800	60	13506
2026-01-08 06:24:12.81	264.93	1.99	-45.3	-56.4	3.8	8.45e-01	0	57	104	2149580800	60	13507
2026-01-08 06:24:13.82	264.84	1.94	-45.3	-56.4	3.8	8.47e-01	0	57	104	2149580800	60	13531

#Closed at: 2026-01-08 06:24:14
#Recorded file [2149 MB]: D:/lorett/data/31039_260108_091259.dat