passes_logs/2025/01/09/SPB_Silybum_02/SPB_Silybum_02__20250109_034613_SUOMI_NPP_rec.log

#Pass ID: 20250109_034613_SUOMI NPP
#Satellite: SUOMI NPP
#Configuration: NPP
#Start time: 2025-01-09 03:46:11

#Version: 2.0.20230423
#Station: SPB_Silybum_02
#Location: 30.233357 lon 59.946436 lat
#TLE: 1 37849U 11061A   25008.15329241  .00000250  00000+0  13932-3 0  9999
#TLE: 2 37849  98.7439 309.2289 0001915  51.2946 308.8402 14.19535012683945

#Time	Az	El	Level	Level2	SNR	BER	Gain	Gain2
2025-01-09 03:46:13.42	15.53	4.01	
2025-01-09 03:46:13.63	15.50	4.02	
2025-01-09 03:46:13.83	15.48	4.03	
2025-01-09 03:46:14.04	15.46	4.04	
2025-01-09 03:46:14.24	15.43	4.05	
2025-01-09 03:46:14.44	15.41	4.06	
2025-01-09 03:46:14.65	15.39	4.06	
2025-01-09 03:46:14.86	15.36	4.07	
2025-01-09 03:46:15.06	15.34	4.08	
2025-01-09 03:46:15.27	15.32	4.09	
2025-01-09 03:46:15.47	15.29	4.10	
2025-01-09 03:46:15.69	15.27	4.11	
2025-01-09 03:46:15.89	15.25	4.12	
2025-01-09 03:46:16.10	15.22	4.13	
2025-01-09 03:46:16.30	15.20	4.14	
2025-01-09 03:46:16.51	15.17	4.14	
2025-01-09 03:46:16.71	15.15	4.15	
2025-01-09 03:46:16.92	15.13	4.16	
2025-01-09 03:46:17.12	15.10	4.17	
2025-01-09 03:46:17.33	15.08	4.18	
2025-01-09 03:46:17.53	15.06	4.19	
2025-01-09 03:46:17.74	15.03	4.20	
2025-01-09 03:46:17.95	15.01	4.21	
2025-01-09 03:46:18.15	14.99	4.21	
2025-01-09 03:46:18.36	14.96	4.22	
2025-01-09 03:46:18.56	14.94	4.23	
2025-01-09 03:46:18.77	14.91	4.24	
2025-01-09 03:46:18.97	14.89	4.25	
2025-01-09 03:46:19.18	14.87	4.26	
2025-01-09 03:46:19.38	14.84	4.27	
2025-01-09 03:46:19.59	14.82	4.28	
2025-01-09 03:46:19.79	14.80	4.28	
2025-01-09 03:46:20.00	14.77	4.29	
2025-01-09 03:46:20.20	14.75	4.30	
2025-01-09 03:46:20.41	14.72	4.31	
2025-01-09 03:46:20.61	14.70	4.32	
2025-01-09 03:46:20.82	14.68	4.33	
2025-01-09 03:46:21.02	14.65	4.34	
2025-01-09 03:46:21.23	14.63	4.35	
2025-01-09 03:46:21.43	14.61	4.35	
2025-01-09 03:46:21.64	14.58	4.36	
2025-01-09 03:46:21.84	14.56	4.37	
2025-01-09 03:46:22.05	14.53	4.38	
2025-01-09 03:46:22.25	14.51	4.39	
2025-01-09 03:46:22.46	14.49	4.40	
2025-01-09 03:46:22.66	14.46	4.41	
2025-01-09 03:46:22.87	14.44	4.42	
2025-01-09 03:46:23.07	14.41	4.42	
2025-01-09 03:46:23.27	14.39	4.43	
2025-01-09 03:46:23.48	14.37	4.44	
2025-01-09 03:46:23.69	14.34	4.45	
2025-01-09 03:46:23.89	14.32	4.46	
2025-01-09 03:46:24.10	14.29	4.47	
2025-01-09 03:46:24.30	14.27	4.48	
2025-01-09 03:46:24.51	14.25	4.49	
2025-01-09 03:46:24.71	14.22	4.49	
2025-01-09 03:46:24.92	14.20	4.50	
2025-01-09 03:46:25.12	14.17	4.51	
2025-01-09 03:46:25.33	14.15	4.52	
2025-01-09 03:46:25.53	14.13	4.53	
2025-01-09 03:46:25.74	14.10	4.54	
2025-01-09 03:46:25.95	14.08	4.55	
2025-01-09 03:46:26.15	14.05	4.56	
2025-01-09 03:46:26.36	14.03	4.56	
2025-01-09 03:46:26.56	14.00	4.57	
2025-01-09 03:46:26.76	13.98	4.58	
2025-01-09 03:46:26.97	13.96	4.59	
2025-01-09 03:46:27.17	13.93	4.60	
2025-01-09 03:46:27.38	13.91	4.61	
2025-01-09 03:46:27.59	13.88	4.62	
2025-01-09 03:46:27.79	13.86	4.63	
2025-01-09 03:46:28.00	13.83	4.63	
2025-01-09 03:46:28.21	13.81	4.64	
2025-01-09 03:46:28.42	13.78	4.65	
2025-01-09 03:46:28.63	13.76	4.66	
2025-01-09 03:46:28.83	13.73	4.67	
2025-01-09 03:46:29.04	13.71	4.68	
2025-01-09 03:46:29.24	13.69	4.69	
2025-01-09 03:46:29.45	13.66	4.70	
2025-01-09 03:46:29.65	13.64	4.70	
2025-01-09 03:46:29.86	13.61	4.71	
2025-01-09 03:46:30.07	13.59	4.72	
2025-01-09 03:46:30.27	13.56	4.73	
2025-01-09 03:46:30.47	13.54	4.74	
2025-01-09 03:46:30.68	13.51	4.75	
2025-01-09 03:46:30.89	13.49	4.76	
2025-01-09 03:46:31.09	13.46	4.76	
2025-01-09 03:46:31.30	13.44	4.77	
2025-01-09 03:46:31.50	13.42	4.78	
2025-01-09 03:46:31.71	13.39	4.79	
2025-01-09 03:46:31.91	13.37	4.80	
2025-01-09 03:46:32.12	13.34	4.81	
2025-01-09 03:46:32.32	13.32	4.82	
2025-01-09 03:46:32.53	13.29	4.83	
2025-01-09 03:46:32.73	13.27	4.83	
2025-01-09 03:46:32.94	13.24	4.84	
2025-01-09 03:46:33.15	13.22	4.85	
2025-01-09 03:46:33.35	13.19	4.86	
2025-01-09 03:46:33.57	13.17	4.87	
2025-01-09 03:46:33.77	13.14	4.88	
2025-01-09 03:46:33.98	13.12	4.89	
2025-01-09 03:46:34.18	13.09	4.89	
2025-01-09 03:46:34.39	13.07	4.90	
2025-01-09 03:46:34.59	13.04	4.91	
2025-01-09 03:46:34.80	13.02	4.92	
2025-01-09 03:46:35.01	12.99	4.93	
2025-01-09 03:46:35.21	12.97	4.94	
2025-01-09 03:46:35.42	12.94	4.95	
2025-01-09 03:46:35.62	12.92	4.96	
2025-01-09 03:46:35.83	12.89	4.96	
2025-01-09 03:46:36.03	12.87	4.97	
2025-01-09 03:46:36.24	12.84	4.98	
2025-01-09 03:46:36.44	12.82	4.99	
2025-01-09 03:46:36.64	12.79	5.00	
2025-01-09 03:46:36.85	12.77	5.01	
2025-01-09 03:46:37.06	12.74	5.02	
2025-01-09 03:46:37.26	12.72	5.02	
2025-01-09 03:46:37.47	12.69	5.03	
2025-01-09 03:46:37.68	12.67	5.04	
2025-01-09 03:46:37.88	12.64	5.05	
2025-01-09 03:46:38.09	12.62	5.06	
2025-01-09 03:46:38.29	12.59	5.07	
2025-01-09 03:46:38.50	12.57	5.08	
2025-01-09 03:46:38.70	12.54	5.08	
2025-01-09 03:46:38.91	12.52	5.09	
2025-01-09 03:46:39.11	12.49	5.10	
2025-01-09 03:46:39.32	12.47	5.11	
2025-01-09 03:46:39.52	12.44	5.12	
2025-01-09 03:46:39.73	12.42	5.13	
2025-01-09 03:46:39.93	12.39	5.14	
2025-01-09 03:46:40.14	12.37	5.14	
2025-01-09 03:46:40.35	12.34	5.15	
2025-01-09 03:46:40.55	12.32	5.16	
2025-01-09 03:46:40.76	12.29	5.17	
2025-01-09 03:46:40.96	12.26	5.18	
2025-01-09 03:46:41.16	12.24	5.19	
2025-01-09 03:46:41.37	12.21	5.20	
2025-01-09 03:46:41.58	12.19	5.20	
2025-01-09 03:46:41.78	12.16	5.21	
2025-01-09 03:46:41.98	12.14	5.22	
2025-01-09 03:46:42.19	12.11	5.23	
2025-01-09 03:46:42.39	12.09	5.24	
2025-01-09 03:46:42.60	12.06	5.25	
2025-01-09 03:46:42.80	12.04	5.26	
2025-01-09 03:46:43.01	12.01	5.26	
2025-01-09 03:46:43.21	11.99	5.27	
2025-01-09 03:46:43.42	11.96	5.28	
2025-01-09 03:46:43.62	11.94	5.29	
2025-01-09 03:46:43.83	11.91	5.30	
2025-01-09 03:46:44.04	11.88	5.31	
2025-01-09 03:46:44.24	11.86	5.32	
2025-01-09 03:46:44.45	11.83	5.32	
2025-01-09 03:46:44.65	11.81	5.33	
2025-01-09 03:46:44.86	11.78	5.34	
2025-01-09 03:46:45.06	11.76	5.35	
2025-01-09 03:46:45.26	11.73	5.36	
2025-01-09 03:46:45.47	11.70	5.37	
2025-01-09 03:46:45.67	11.68	5.37	
2025-01-09 03:46:45.88	11.65	5.38	
2025-01-09 03:46:46.08	11.63	5.39	
2025-01-09 03:46:46.29	11.60	5.40	
2025-01-09 03:46:46.49	11.58	5.41	
2025-01-09 03:46:46.70	11.55	5.42	
2025-01-09 03:46:46.90	11.53	5.43	
2025-01-09 03:46:47.11	11.50	5.43	
2025-01-09 03:46:47.31	11.47	5.44	
2025-01-09 03:46:47.52	11.45	5.45	
2025-01-09 03:46:47.72	11.42	5.46	
2025-01-09 03:46:47.93	11.40	5.47	
2025-01-09 03:46:48.13	11.37	5.48	
2025-01-09 03:46:48.34	11.34	5.48	
2025-01-09 03:46:48.56	11.32	5.49	
2025-01-09 03:46:48.76	11.29	5.50	
2025-01-09 03:46:48.97	11.26	5.51	
2025-01-09 03:46:49.18	11.24	5.52	
2025-01-09 03:46:49.38	11.21	5.53	
2025-01-09 03:46:49.58	11.19	5.54	
2025-01-09 03:46:49.79	11.16	5.54	
2025-01-09 03:46:49.99	11.14	5.55	
2025-01-09 03:46:50.20	11.11	5.56	
2025-01-09 03:46:50.40	11.08	5.57	
2025-01-09 03:46:50.62	11.06	5.58	
2025-01-09 03:46:50.83	11.03	5.59	
2025-01-09 03:46:51.03	11.00	5.60	
2025-01-09 03:46:51.24	10.98	5.60	
2025-01-09 03:46:51.44	10.95	5.61	
2025-01-09 03:46:51.65	10.93	5.62	
2025-01-09 03:46:51.85	10.90	5.63	
2025-01-09 03:46:52.06	10.87	5.64	
2025-01-09 03:46:52.26	10.85	5.65	
2025-01-09 03:46:52.47	10.82	5.65	
2025-01-09 03:46:52.67	10.80	5.66	
2025-01-09 03:46:52.88	10.77	5.67	
2025-01-09 03:46:53.08	10.74	5.68	
2025-01-09 03:46:53.28	10.72	5.69	
2025-01-09 03:46:53.49	10.69	5.70	
2025-01-09 03:46:53.69	10.66	5.70	
2025-01-09 03:46:53.90	10.64	5.71	
2025-01-09 03:46:54.10	10.61	5.72	
2025-01-09 03:46:54.31	10.59	5.73	
2025-01-09 03:46:54.51	10.56	5.74	
2025-01-09 03:46:54.72	10.53	5.75	
2025-01-09 03:46:54.93	10.51	5.75	
2025-01-09 03:46:55.14	10.48	5.76	
2025-01-09 03:46:55.35	10.45	5.77	
2025-01-09 03:46:55.55	10.43	5.78	
2025-01-09 03:46:55.76	10.40	5.79	
2025-01-09 03:46:55.96	10.37	5.80	
2025-01-09 03:46:56.17	10.35	5.81	
2025-01-09 03:46:56.37	10.32	5.81	
2025-01-09 03:46:56.58	10.29	5.82	
2025-01-09 03:46:56.79	10.27	5.83	
2025-01-09 03:46:56.99	10.24	5.84	
2025-01-09 03:46:57.19	10.21	5.85	
2025-01-09 03:46:57.40	10.19	5.86	
2025-01-09 03:46:57.61	10.16	5.86	
2025-01-09 03:46:57.81	10.13	5.87	
2025-01-09 03:46:58.01	10.11	5.88	
2025-01-09 03:46:58.22	10.08	5.89	
2025-01-09 03:46:58.42	10.06	5.90	
2025-01-09 03:46:58.63	10.03	5.91	
2025-01-09 03:46:58.84	10.00	5.91	
2025-01-09 03:46:59.04	9.97	5.92	
2025-01-09 03:46:59.25	9.95	5.93	
2025-01-09 03:46:59.45	9.92	5.94	
2025-01-09 03:46:59.66	9.89	5.95	
2025-01-09 03:46:59.86	9.87	5.96	
2025-01-09 03:47:00.07	9.84	5.96	
2025-01-09 03:47:00.27	9.81	5.97	
2025-01-09 03:47:00.48	9.79	5.98	
2025-01-09 03:47:00.68	9.76	5.99	
2025-01-09 03:47:00.89	9.73	6.00	
2025-01-09 03:47:01.10	9.71	6.01	
2025-01-09 03:47:01.30	9.68	6.01	
2025-01-09 03:47:01.51	9.65	6.02	
2025-01-09 03:47:01.71	9.63	6.03	
2025-01-09 03:47:01.92	9.60	6.04	
2025-01-09 03:47:02.13	9.57	6.05	
2025-01-09 03:47:02.33	9.54	6.05	
2025-01-09 03:47:02.54	9.52	6.06	
2025-01-09 03:47:02.74	9.49	6.07	
2025-01-09 03:47:02.95	9.46	6.08	
2025-01-09 03:47:03.16	9.44	6.09	
2025-01-09 03:47:03.36	9.41	6.10	
2025-01-09 03:47:03.56	9.38	6.10	
2025-01-09 03:47:03.77	9.36	6.11	
2025-01-09 03:47:03.97	9.33	6.12	
2025-01-09 03:47:04.18	9.30	6.13	
2025-01-09 03:47:04.39	9.27	6.14	
2025-01-09 03:47:04.59	9.25	6.15	
2025-01-09 03:47:04.80	9.22	6.15	
2025-01-09 03:47:05.00	9.19	6.16	
2025-01-09 03:47:05.21	9.17	6.17	
2025-01-09 03:47:05.41	9.14	6.18	
2025-01-09 03:47:05.62	9.11	6.19	
2025-01-09 03:47:05.82	9.08	6.19	
2025-01-09 03:47:06.03	9.06	6.20	
2025-01-09 03:47:06.24	9.03	6.21	
2025-01-09 03:47:06.44	9.00	6.22	
2025-01-09 03:47:06.64	8.98	6.23	
2025-01-09 03:47:06.85	8.95	6.24	
2025-01-09 03:47:07.06	8.92	6.24	
2025-01-09 03:47:07.26	8.89	6.25	
2025-01-09 03:47:07.47	8.87	6.26	
2025-01-09 03:47:07.67	8.84	6.27	
2025-01-09 03:47:07.88	8.81	6.28	
2025-01-09 03:47:08.08	8.78	6.28	
2025-01-09 03:47:08.29	8.76	6.29	
2025-01-09 03:47:08.49	8.73	6.30	
2025-01-09 03:47:08.70	8.70	6.31	
2025-01-09 03:47:08.90	8.67	6.32	
2025-01-09 03:47:09.11	8.65	6.33	
2025-01-09 03:47:09.31	8.62	6.33	
2025-01-09 03:47:09.52	8.59	6.34	
2025-01-09 03:47:09.73	8.56	6.35	
2025-01-09 03:47:09.93	8.54	6.36	
2025-01-09 03:47:10.14	8.51	6.37	
2025-01-09 03:47:10.34	8.48	6.37	
2025-01-09 03:47:10.55	8.45	6.38	
2025-01-09 03:47:10.75	8.43	6.39	
2025-01-09 03:47:10.96	8.40	6.40	
2025-01-09 03:47:11.16	8.37	6.41	
2025-01-09 03:47:11.37	8.34	6.41	
2025-01-09 03:47:11.58	8.32	6.42	
2025-01-09 03:47:11.78	8.29	6.43	
2025-01-09 03:47:11.99	8.26	6.44	
2025-01-09 03:47:12.19	8.23	6.45	
2025-01-09 03:47:12.40	8.20	6.46	
2025-01-09 03:47:12.60	8.18	6.46	
2025-01-09 03:47:12.81	8.15	6.47	
2025-01-09 03:47:13.01	8.12	6.48	
2025-01-09 03:47:13.22	8.09	6.49	
2025-01-09 03:47:13.42	8.07	6.50	
2025-01-09 03:47:13.63	8.04	6.50	
2025-01-09 03:47:13.83	8.01	6.51	
2025-01-09 03:47:14.04	7.98	6.52	
2025-01-09 03:47:14.24	7.96	6.53	
2025-01-09 03:47:14.44	7.93	6.54	
2025-01-09 03:47:14.65	7.90	6.54	
2025-01-09 03:47:14.85	7.87	6.55	
2025-01-09 03:47:15.05	7.85	6.56	
2025-01-09 03:47:15.26	7.82	6.57	
2025-01-09 03:47:15.46	7.79	6.58	
2025-01-09 03:47:15.67	7.76	6.58	
2025-01-09 03:47:15.87	7.73	6.59	
2025-01-09 03:47:16.08	7.71	6.60	
2025-01-09 03:47:16.28	7.68	6.61	
2025-01-09 03:47:16.49	7.65	6.62	
2025-01-09 03:47:16.69	7.62	6.62	
2025-01-09 03:47:16.90	7.59	6.63	
2025-01-09 03:47:17.10	7.57	6.64	
2025-01-09 03:47:17.31	7.54	6.65	
2025-01-09 03:47:17.51	7.51	6.66	
2025-01-09 03:47:17.72	7.48	6.66	
2025-01-09 03:47:17.93	7.45	6.67	
2025-01-09 03:47:18.13	7.43	6.68	
2025-01-09 03:47:18.33	7.40	6.69	
2025-01-09 03:47:18.54	7.37	6.70	
2025-01-09 03:47:18.74	7.34	6.70	
2025-01-09 03:47:18.95	7.31	6.71	
2025-01-09 03:47:19.15	7.29	6.72	
2025-01-09 03:47:19.36	7.26	6.73	
2025-01-09 03:47:19.56	7.23	6.74	
2025-01-09 03:47:19.77	7.20	6.74	
2025-01-09 03:47:19.97	7.17	6.75	
2025-01-09 03:47:20.18	7.14	6.76	
2025-01-09 03:47:20.38	7.12	6.77	
2025-01-09 03:47:20.59	7.09	6.77	
2025-01-09 03:47:20.79	7.06	6.78	
2025-01-09 03:47:21.00	7.03	6.79	
2025-01-09 03:47:21.20	7.00	6.80	
2025-01-09 03:47:21.41	6.97	6.81	
2025-01-09 03:47:21.62	6.94	6.81	
2025-01-09 03:47:21.82	6.92	6.82	
2025-01-09 03:47:22.03	6.89	6.83	
2025-01-09 03:47:22.23	6.86	6.84	
2025-01-09 03:47:22.44	6.83	6.85	
2025-01-09 03:47:22.64	6.80	6.85	
2025-01-09 03:47:22.85	6.77	6.86	
2025-01-09 03:47:23.06	6.74	6.87	
2025-01-09 03:47:23.26	6.72	6.88	
2025-01-09 03:47:23.47	6.69	6.89	
2025-01-09 03:47:23.67	6.66	6.89	
2025-01-09 03:47:23.88	6.63	6.90	
2025-01-09 03:47:24.08	6.60	6.91	
2025-01-09 03:47:24.29	6.57	6.92	
2025-01-09 03:47:24.49	6.55	6.92	
2025-01-09 03:47:24.69	6.52	6.93	
2025-01-09 03:47:24.90	6.49	6.94	
2025-01-09 03:47:25.11	6.46	6.95	
2025-01-09 03:47:25.31	6.43	6.96	
2025-01-09 03:47:25.52	6.40	6.96	
2025-01-09 03:47:25.72	6.37	6.97	
2025-01-09 03:47:25.93	6.34	6.98	
2025-01-09 03:47:26.13	6.32	6.99	
2025-01-09 03:47:26.34	6.29	7.00	
2025-01-09 03:47:26.54	6.26	7.00	
2025-01-09 03:47:26.75	6.23	7.01	
2025-01-09 03:47:26.95	6.20	7.02	
2025-01-09 03:47:27.16	6.17	7.03	
2025-01-09 03:47:27.36	6.14	7.03	
2025-01-09 03:47:27.57	6.11	7.04	
2025-01-09 03:47:27.77	6.09	7.05	
2025-01-09 03:47:27.98	6.06	7.06	
2025-01-09 03:47:28.18	6.03	7.07	
2025-01-09 03:47:28.38	6.00	7.07	
2025-01-09 03:47:28.59	5.97	7.08	
2025-01-09 03:47:28.80	5.94	7.09	
2025-01-09 03:47:29.00	5.91	7.10	
2025-01-09 03:47:29.20	5.88	7.10	
2025-01-09 03:47:29.41	5.86	7.11	
2025-01-09 03:47:29.62	5.83	7.12	
2025-01-09 03:47:29.82	5.80	7.13	
2025-01-09 03:47:30.03	5.77	7.13	
2025-01-09 03:47:30.23	5.74	7.14	
2025-01-09 03:47:30.44	5.71	7.15	
2025-01-09 03:47:30.64	5.68	7.16	
2025-01-09 03:47:30.85	5.65	7.17	
2025-01-09 03:47:31.05	5.62	7.17	
2025-01-09 03:47:31.26	5.59	7.18	
2025-01-09 03:47:31.47	5.56	7.19	
2025-01-09 03:47:31.67	5.53	7.20	
2025-01-09 03:47:31.88	5.50	7.20	
2025-01-09 03:47:32.09	5.48	7.21	
2025-01-09 03:47:32.30	5.45	7.22	
2025-01-09 03:47:32.50	5.42	7.23	
2025-01-09 03:47:32.71	5.39	7.24	
2025-01-09 03:47:32.92	5.36	7.24	
2025-01-09 03:47:33.12	5.33	7.25	
2025-01-09 03:47:33.32	5.30	7.26	
2025-01-09 03:47:33.53	5.27	7.27	
2025-01-09 03:47:33.74	5.24	7.27	
2025-01-09 03:47:33.94	5.21	7.28	
2025-01-09 03:47:34.15	5.18	7.29	
2025-01-09 03:47:34.36	5.15	7.30	
2025-01-09 03:47:34.57	5.12	7.30	
2025-01-09 03:47:34.78	5.09	7.31	
2025-01-09 03:47:34.98	5.06	7.32	
2025-01-09 03:47:35.19	5.03	7.33	
2025-01-09 03:47:35.39	5.00	7.33	
2025-01-09 03:47:35.60	4.97	7.34	
2025-01-09 03:47:35.80	4.94	7.35	
2025-01-09 03:47:36.01	4.91	7.36	
2025-01-09 03:47:36.21	4.89	7.37	
2025-01-09 03:47:36.42	4.86	7.37	
2025-01-09 03:47:36.62	4.83	7.38	
2025-01-09 03:47:36.83	4.80	7.39	
2025-01-09 03:47:37.03	4.77	7.40	
2025-01-09 03:47:37.24	4.74	7.40	
2025-01-09 03:47:37.44	4.71	7.41	
2025-01-09 03:47:37.65	4.68	7.42	
2025-01-09 03:47:37.85	4.65	7.43	
2025-01-09 03:47:38.06	4.62	7.43	
2025-01-09 03:47:38.26	4.59	7.44	
2025-01-09 03:47:38.47	4.56	7.45	
2025-01-09 03:47:38.67	4.53	7.46	
2025-01-09 03:47:38.88	4.50	7.46	
2025-01-09 03:47:39.08	4.47	7.47	
2025-01-09 03:47:39.29	4.44	7.48	
2025-01-09 03:47:39.49	4.41	7.49	
2025-01-09 03:47:39.69	4.38	7.49	
2025-01-09 03:47:39.90	4.35	7.50	
2025-01-09 03:47:40.11	4.32	7.51	
2025-01-09 03:47:40.31	4.29	7.52	
2025-01-09 03:47:40.52	4.26	7.52	
2025-01-09 03:47:40.72	4.23	7.53	
2025-01-09 03:47:40.93	4.20	7.54	
2025-01-09 03:47:41.13	4.17	7.55	
2025-01-09 03:47:41.34	4.14	7.55	
2025-01-09 03:47:41.54	4.11	7.56	
2025-01-09 03:47:41.75	4.08	7.57	
2025-01-09 03:47:41.95	4.05	7.58	
2025-01-09 03:47:42.16	4.02	7.58	
2025-01-09 03:47:42.36	3.99	7.59	
2025-01-09 03:47:42.57	3.96	7.60	
2025-01-09 03:47:42.77	3.93	7.60	
2025-01-09 03:47:42.98	3.90	7.61	
2025-01-09 03:47:43.18	3.87	7.62	
2025-01-09 03:47:43.39	3.84	7.63	
2025-01-09 03:47:43.59	3.81	7.63	
2025-01-09 03:47:43.80	3.78	7.64	
2025-01-09 03:47:44.00	3.75	7.65	
2025-01-09 03:47:44.20	3.72	7.66	
2025-01-09 03:47:44.41	3.69	7.66	
2025-01-09 03:47:44.61	3.66	7.67	
2025-01-09 03:47:44.82	3.63	7.68	
2025-01-09 03:47:45.03	3.60	7.69	
2025-01-09 03:47:45.23	3.57	7.69	
2025-01-09 03:47:45.44	3.54	7.70	
2025-01-09 03:47:45.64	3.51	7.71	
2025-01-09 03:47:45.85	3.48	7.72	
2025-01-09 03:47:46.05	3.45	7.72	
2025-01-09 03:47:46.26	3.42	7.73	
2025-01-09 03:47:46.46	3.39	7.74	
2025-01-09 03:47:46.67	3.36	7.74	
2025-01-09 03:47:46.87	3.33	7.75	
2025-01-09 03:47:47.08	3.30	7.76	
2025-01-09 03:47:47.28	3.27	7.77	
2025-01-09 03:47:47.49	3.24	7.77	
2025-01-09 03:47:47.69	3.21	7.78	
2025-01-09 03:47:47.90	3.18	7.79	
2025-01-09 03:47:48.10	3.15	7.80	
2025-01-09 03:47:48.31	3.12	7.80	
2025-01-09 03:47:48.52	3.09	7.81	
2025-01-09 03:47:48.72	3.06	7.82	
2025-01-09 03:47:48.93	3.03	7.82	
2025-01-09 03:47:49.14	2.99	7.83	
2025-01-09 03:47:49.34	2.96	7.84	
2025-01-09 03:47:49.54	2.93	7.85	
2025-01-09 03:47:49.75	2.90	7.85	
2025-01-09 03:47:49.96	2.87	7.86	
2025-01-09 03:47:50.16	2.84	7.87	
2025-01-09 03:47:50.36	2.81	7.88	
2025-01-09 03:47:50.57	2.78	7.88	
2025-01-09 03:47:50.77	2.75	7.89	
2025-01-09 03:47:50.98	2.72	7.90	
2025-01-09 03:47:51.19	2.69	7.90	
2025-01-09 03:47:51.39	2.66	7.91	
2025-01-09 03:47:51.59	2.63	7.92	
2025-01-09 03:47:51.80	2.60	7.93	
2025-01-09 03:47:52.00	2.57	7.93	
2025-01-09 03:47:52.21	2.54	7.94	
2025-01-09 03:47:52.41	2.51	7.95	
2025-01-09 03:47:52.62	2.47	7.95	
2025-01-09 03:47:52.83	2.44	7.96	
2025-01-09 03:47:53.03	2.41	7.97	
2025-01-09 03:47:53.24	2.38	7.98	
2025-01-09 03:47:53.44	2.35	7.98	
2025-01-09 03:47:53.64	2.32	7.99	
2025-01-09 03:47:53.85	2.29	8.00	
2025-01-09 03:47:54.05	2.26	8.00	
2025-01-09 03:47:54.26	2.23	8.01	
2025-01-09 03:47:54.47	2.20	8.02	
2025-01-09 03:47:54.67	2.17	8.03	
2025-01-09 03:47:54.88	2.13	8.03	
2025-01-09 03:47:55.08	2.10	8.04	
2025-01-09 03:47:55.29	2.07	8.05	
2025-01-09 03:47:55.49	2.04	8.05	
2025-01-09 03:47:55.70	2.01	8.06	
2025-01-09 03:47:55.90	1.98	8.07	
2025-01-09 03:47:56.11	1.95	8.08	
2025-01-09 03:47:56.31	1.92	8.08	
2025-01-09 03:47:56.52	1.89	8.09	
2025-01-09 03:47:56.72	1.86	8.10	
2025-01-09 03:47:56.93	1.83	8.10	
2025-01-09 03:47:57.13	1.79	8.11	
2025-01-09 03:47:57.34	1.76	8.12	
2025-01-09 03:47:57.55	1.73	8.12	
2025-01-09 03:47:57.75	1.70	8.13	
2025-01-09 03:47:57.95	1.67	8.14	
2025-01-09 03:47:58.16	1.64	8.15	
2025-01-09 03:47:58.37	1.61	8.15	
2025-01-09 03:47:58.57	1.58	8.16	
2025-01-09 03:47:58.77	1.55	8.17	
2025-01-09 03:47:58.98	1.51	8.17	
2025-01-09 03:47:59.19	1.48	8.18	
2025-01-09 03:47:59.39	1.45	8.19	
2025-01-09 03:47:59.60	1.42	8.19	
2025-01-09 03:47:59.80	1.39	8.20	
2025-01-09 03:48:00.01	1.36	8.21	
2025-01-09 03:48:00.21	1.33	8.21	
2025-01-09 03:48:00.42	1.29	8.22	
2025-01-09 03:48:00.62	1.26	8.23	
2025-01-09 03:48:00.83	1.23	8.24	
2025-01-09 03:48:01.04	1.20	8.24	
2025-01-09 03:48:01.25	1.17	8.25	
2025-01-09 03:48:01.45	1.14	8.26	
2025-01-09 03:48:01.66	1.10	8.26	
2025-01-09 03:48:01.87	1.07	8.27	
2025-01-09 03:48:02.08	1.04	8.28	
2025-01-09 03:48:02.29	1.01	8.28	
2025-01-09 03:48:02.50	0.98	8.29	
2025-01-09 03:48:02.70	0.94	8.30	
2025-01-09 03:48:02.91	0.91	8.31	
2025-01-09 03:48:03.11	0.88	8.31	
2025-01-09 03:48:03.31	0.85	8.32	
2025-01-09 03:48:03.52	0.82	8.33	
2025-01-09 03:48:03.73	0.79	8.33	
2025-01-09 03:48:03.93	0.76	8.34	
2025-01-09 03:48:04.14	0.72	8.35	
2025-01-09 03:48:04.34	0.69	8.35	
2025-01-09 03:48:04.55	0.66	8.36	
2025-01-09 03:48:04.75	0.63	8.37	
2025-01-09 03:48:04.96	0.60	8.37	
2025-01-09 03:48:05.16	0.57	8.38	
2025-01-09 03:48:05.37	0.53	8.39	
2025-01-09 03:48:05.58	0.50	8.39	
2025-01-09 03:48:05.78	0.47	8.40	
2025-01-09 03:48:05.99	0.44	8.41	
2025-01-09 03:48:06.19	0.41	8.41	
2025-01-09 03:48:06.40	0.37	8.42	
2025-01-09 03:48:06.60	0.34	8.43	
2025-01-09 03:48:06.80	0.31	8.43	
2025-01-09 03:48:07.01	0.28	8.44	
2025-01-09 03:48:07.22	0.25	8.45	
2025-01-09 03:48:07.42	0.22	8.45	
2025-01-09 03:48:07.63	0.18	8.46	
2025-01-09 03:48:07.83	0.15	8.47	
2025-01-09 03:48:08.04	0.12	8.47	
2025-01-09 03:48:08.24	0.09	8.48	
2025-01-09 03:48:08.46	0.05	8.49	
2025-01-09 03:48:08.67	0.02	8.49	
2025-01-09 03:48:08.87	359.99	8.50	
2025-01-09 03:48:09.08	359.96	8.51	
2025-01-09 03:48:09.28	359.93	8.51	
2025-01-09 03:48:09.49	359.89	8.52	
2025-01-09 03:48:09.69	359.86	8.53	
2025-01-09 03:48:09.90	359.83	8.53	
2025-01-09 03:48:10.10	359.80	8.54	
2025-01-09 03:48:10.31	359.77	8.55	
2025-01-09 03:48:10.51	359.73	8.55	
2025-01-09 03:48:10.72	359.70	8.56	
2025-01-09 03:48:10.92	359.67	8.57	
2025-01-09 03:48:11.13	359.64	8.57	
2025-01-09 03:48:11.33	359.61	8.58	
2025-01-09 03:48:11.54	359.57	8.59	
2025-01-09 03:48:11.74	359.54	8.59	
2025-01-09 03:48:11.95	359.51	8.60	
2025-01-09 03:48:12.16	359.48	8.61	
2025-01-09 03:48:12.36	359.44	8.61	
2025-01-09 03:48:12.57	359.41	8.62	
2025-01-09 03:48:12.77	359.38	8.63	
2025-01-09 03:48:12.97	359.35	8.63	
2025-01-09 03:48:13.18	359.32	8.64	
2025-01-09 03:48:13.39	359.28	8.65	
2025-01-09 03:48:13.59	359.25	8.65	
2025-01-09 03:48:13.80	359.22	8.66	
2025-01-09 03:48:14.00	359.19	8.67	
2025-01-09 03:48:14.20	359.15	8.67	
2025-01-09 03:48:14.41	359.12	8.68	
2025-01-09 03:48:14.63	359.09	8.69	
2025-01-09 03:48:14.83	359.06	8.69	
2025-01-09 03:48:15.03	359.02	8.70	
2025-01-09 03:48:15.24	358.99	8.70	
2025-01-09 03:48:15.44	358.96	8.71	
2025-01-09 03:48:15.65	358.93	8.72	
2025-01-09 03:48:15.85	358.89	8.72	
2025-01-09 03:48:16.06	358.86	8.73	
2025-01-09 03:48:16.26	358.83	8.74	
2025-01-09 03:48:16.47	358.80	8.74	
2025-01-09 03:48:16.67	358.76	8.75	
2025-01-09 03:48:16.88	358.73	8.76	
2025-01-09 03:48:17.08	358.70	8.76	
2025-01-09 03:48:17.29	358.67	8.77	
2025-01-09 03:48:17.49	358.63	8.77	
2025-01-09 03:48:17.70	358.60	8.78	
2025-01-09 03:48:17.90	358.57	8.79	
2025-01-09 03:48:18.11	358.54	8.79	
2025-01-09 03:48:18.31	358.50	8.80	
2025-01-09 03:48:18.52	358.47	8.81	
2025-01-09 03:48:18.72	358.44	8.81	
2025-01-09 03:48:18.93	358.41	8.82	
2025-01-09 03:48:19.13	358.37	8.83	
2025-01-09 03:48:19.34	358.34	8.83	
2025-01-09 03:48:19.54	358.31	8.84	
2025-01-09 03:48:19.75	358.27	8.84	
2025-01-09 03:48:19.95	358.24	8.85	
2025-01-09 03:48:20.16	358.21	8.86	
2025-01-09 03:48:20.36	358.18	8.86	
2025-01-09 03:48:20.57	358.14	8.87	
2025-01-09 03:48:20.78	358.11	8.88	
2025-01-09 03:48:20.98	358.08	8.88	
2025-01-09 03:48:21.19	358.04	8.89	
2025-01-09 03:48:21.39	358.01	8.89	
2025-01-09 03:48:21.60	357.98	8.90	
2025-01-09 03:48:21.80	357.95	8.91	
2025-01-09 03:48:22.01	357.91	8.91	
2025-01-09 03:48:22.21	357.88	8.92	
2025-01-09 03:48:22.42	357.85	8.93	
2025-01-09 03:48:22.62	357.82	8.93	
2025-01-09 03:48:22.83	357.78	8.94	
2025-01-09 03:48:23.03	357.75	8.94	
2025-01-09 03:48:23.24	357.72	8.95	
2025-01-09 03:48:23.44	357.68	8.96	
2025-01-09 03:48:23.65	357.65	8.96	
2025-01-09 03:48:23.85	357.62	8.97	
2025-01-09 03:48:24.06	357.58	8.97	
2025-01-09 03:48:24.27	357.55	8.98	
2025-01-09 03:48:24.47	357.52	8.99	
2025-01-09 03:48:24.68	357.48	8.99	
2025-01-09 03:48:24.88	357.45	9.00	
2025-01-09 03:48:25.09	357.42	9.00	
2025-01-09 03:48:25.29	357.39	9.01	
2025-01-09 03:48:25.50	357.35	9.02	
2025-01-09 03:48:25.70	357.32	9.02	
2025-01-09 03:48:25.91	357.29	9.03	
2025-01-09 03:48:26.11	357.25	9.04	
2025-01-09 03:48:26.32	357.22	9.04	
2025-01-09 03:48:26.52	357.19	9.05	
2025-01-09 03:48:26.73	357.15	9.05	
2025-01-09 03:48:26.93	357.12	9.06	
2025-01-09 03:48:27.14	357.09	9.07	
2025-01-09 03:48:27.34	357.05	9.07	
2025-01-09 03:48:27.54	357.02	9.08	
2025-01-09 03:48:27.75	356.99	9.08	
2025-01-09 03:48:27.95	356.95	9.09	
2025-01-09 03:48:28.16	356.92	9.10	
2025-01-09 03:48:28.37	356.89	9.10	
2025-01-09 03:48:28.57	356.85	9.11	
2025-01-09 03:48:28.79	356.82	9.11	
2025-01-09 03:48:28.99	356.79	9.12	
2025-01-09 03:48:29.20	356.75	9.13	
2025-01-09 03:48:29.41	356.72	9.13	
2025-01-09 03:48:29.61	356.68	9.14	
2025-01-09 03:48:29.81	356.65	9.14	
2025-01-09 03:48:30.02	356.62	9.15	
2025-01-09 03:48:30.23	356.58	9.15	
2025-01-09 03:48:30.43	356.55	9.16	
2025-01-09 03:48:30.64	356.52	9.17	
2025-01-09 03:48:30.84	356.48	9.17	
2025-01-09 03:48:31.04	356.45	9.18	
2025-01-09 03:48:31.25	356.42	9.18	
2025-01-09 03:48:31.46	356.38	9.19	
2025-01-09 03:48:31.66	356.35	9.20	
2025-01-09 03:48:31.86	356.32	9.20	
2025-01-09 03:48:32.07	356.28	9.21	
2025-01-09 03:48:32.28	356.25	9.21	
2025-01-09 03:48:32.48	356.22	9.22	
2025-01-09 03:48:32.69	356.18	9.22	
2025-01-09 03:48:32.89	356.15	9.23	
2025-01-09 03:48:33.09	356.12	9.24	
2025-01-09 03:48:33.30	356.08	9.24	
2025-01-09 03:48:33.50	356.05	9.25	
2025-01-09 03:48:33.71	356.01	9.25	
2025-01-09 03:48:33.91	355.98	9.26	
2025-01-09 03:48:34.12	355.95	9.27	
2025-01-09 03:48:34.32	355.91	9.27	
2025-01-09 03:48:34.53	355.88	9.28	
2025-01-09 03:48:34.73	355.85	9.28	
2025-01-09 03:48:34.94	355.81	9.29	
2025-01-09 03:48:35.14	355.78	9.29	
2025-01-09 03:48:35.35	355.74	9.30	
2025-01-09 03:48:35.55	355.71	9.30	
2025-01-09 03:48:35.76	355.68	9.31	
2025-01-09 03:48:35.97	355.64	9.32	
2025-01-09 03:48:36.17	355.61	9.32	
2025-01-09 03:48:36.38	355.57	9.33	
2025-01-09 03:48:36.58	355.54	9.33	
2025-01-09 03:48:36.79	355.51	9.34	
2025-01-09 03:48:37.00	355.47	9.34	
2025-01-09 03:48:37.20	355.44	9.35	
2025-01-09 03:48:37.40	355.41	9.36	
2025-01-09 03:48:37.61	355.37	9.36	
2025-01-09 03:48:37.81	355.34	9.37	
2025-01-09 03:48:38.02	355.30	9.37	
2025-01-09 03:48:38.22	355.27	9.38	
2025-01-09 03:48:38.43	355.24	9.38	
2025-01-09 03:48:38.63	355.20	9.39	
2025-01-09 03:48:38.84	355.17	9.39	
2025-01-09 03:48:39.04	355.13	9.40	
2025-01-09 03:48:39.25	355.10	9.41	
2025-01-09 03:48:39.45	355.07	9.41	
2025-01-09 03:48:39.66	355.03	9.42	
2025-01-09 03:48:39.86	355.00	9.42	
2025-01-09 03:48:40.07	354.96	9.43	
2025-01-09 03:48:40.28	354.93	9.43	
2025-01-09 03:48:40.48	354.90	9.44	
2025-01-09 03:48:40.69	354.86	9.44	
2025-01-09 03:48:40.89	354.83	9.45	
2025-01-09 03:48:41.10	354.79	9.46	
2025-01-09 03:48:41.30	354.76	9.46	
2025-01-09 03:48:41.51	354.72	9.47	
2025-01-09 03:48:41.71	354.69	9.47	
2025-01-09 03:48:41.92	354.66	9.48	
2025-01-09 03:48:42.12	354.62	9.48	
2025-01-09 03:48:42.33	354.59	9.49	
2025-01-09 03:48:42.55	354.55	9.49	
2025-01-09 03:48:42.75	354.52	9.50	
2025-01-09 03:48:42.96	354.48	9.50	
2025-01-09 03:48:43.16	354.45	9.51	
2025-01-09 03:48:43.37	354.41	9.52	
2025-01-09 03:48:43.57	354.38	9.52	
2025-01-09 03:48:43.78	354.34	9.53	
2025-01-09 03:48:43.98	354.31	9.53	
2025-01-09 03:48:44.19	354.28	9.54	
2025-01-09 03:48:44.40	354.24	9.54	
2025-01-09 03:48:44.60	354.21	9.55	
2025-01-09 03:48:44.81	354.17	9.55	
2025-01-09 03:48:45.01	354.14	9.56	
2025-01-09 03:48:45.22	354.10	9.56	
2025-01-09 03:48:45.43	354.07	9.57	
2025-01-09 03:48:45.63	354.03	9.57	
2025-01-09 03:48:45.83	354.00	9.58	
2025-01-09 03:48:46.04	353.97	9.58	
2025-01-09 03:48:46.25	353.93	9.59	
2025-01-09 03:48:46.45	353.90	9.59	
2025-01-09 03:48:46.66	353.86	9.60	
2025-01-09 03:48:46.86	353.83	9.60	
2025-01-09 03:48:47.06	353.79	9.61	
2025-01-09 03:48:47.27	353.76	9.62	
2025-01-09 03:48:47.48	353.72	9.62	
2025-01-09 03:48:47.68	353.69	9.63	
2025-01-09 03:48:47.89	353.65	9.63	
2025-01-09 03:48:48.09	353.62	9.64	
2025-01-09 03:48:48.30	353.58	9.64	
2025-01-09 03:48:48.50	353.55	9.65	
2025-01-09 03:48:48.71	353.52	9.65	
2025-01-09 03:48:48.91	353.48	9.66	
2025-01-09 03:48:49.12	353.45	9.66	
2025-01-09 03:48:49.32	353.41	9.67	
2025-01-09 03:48:49.53	353.38	9.67	
2025-01-09 03:48:49.74	353.34	9.68	
2025-01-09 03:48:49.94	353.31	9.68	
2025-01-09 03:48:50.15	353.27	9.69	
2025-01-09 03:48:50.35	353.24	9.69	
2025-01-09 03:48:50.56	353.20	9.70	
2025-01-09 03:48:50.76	353.17	9.70	
2025-01-09 03:48:50.97	353.13	9.71	
2025-01-09 03:48:51.17	353.10	9.71	
2025-01-09 03:48:51.38	353.06	9.72	
2025-01-09 03:48:51.58	353.03	9.72	
2025-01-09 03:48:51.79	352.99	9.73	
2025-01-09 03:48:51.99	352.96	9.73	
2025-01-09 03:48:52.20	352.92	9.74	
2025-01-09 03:48:52.40	352.89	9.74	
2025-01-09 03:48:52.61	352.85	9.75	
2025-01-09 03:48:52.81	352.82	9.75	
2025-01-09 03:48:53.02	352.79	9.76	
2025-01-09 03:48:53.24	352.75	9.76	
2025-01-09 03:48:53.44	352.71	9.77	
2025-01-09 03:48:53.65	352.68	9.77	
2025-01-09 03:48:53.85	352.64	9.78	
2025-01-09 03:48:54.06	352.61	9.78	
2025-01-09 03:48:54.26	352.57	9.79	
2025-01-09 03:48:54.47	352.54	9.79	
2025-01-09 03:48:54.67	352.50	9.80	
2025-01-09 03:48:54.88	352.47	9.80	
2025-01-09 03:48:55.09	352.43	9.81	
2025-01-09 03:48:55.29	352.40	9.81	
2025-01-09 03:48:55.49	352.36	9.82	
2025-01-09 03:48:55.70	352.33	9.82	
2025-01-09 03:48:55.91	352.29	9.83	
2025-01-09 03:48:56.11	352.26	9.83	
2025-01-09 03:48:56.31	352.22	9.83	
2025-01-09 03:48:56.52	352.19	9.84	
2025-01-09 03:48:56.73	352.15	9.84	
2025-01-09 03:48:56.93	352.12	9.85	
2025-01-09 03:48:57.14	352.08	9.85	
2025-01-09 03:48:57.34	352.05	9.86	
2025-01-09 03:48:57.55	352.01	9.86	
2025-01-09 03:48:57.75	351.98	9.87	
2025-01-09 03:48:57.96	351.94	9.87	
2025-01-09 03:48:58.16	351.91	9.88	
2025-01-09 03:48:58.37	351.87	9.88	
2025-01-09 03:48:58.57	351.84	9.89	
2025-01-09 03:48:58.78	351.80	9.89	
2025-01-09 03:48:58.98	351.77	9.90	
2025-01-09 03:48:59.19	351.73	9.90	
2025-01-09 03:48:59.39	351.70	9.91	
2025-01-09 03:48:59.60	351.66	9.91	
2025-01-09 03:48:59.80	351.63	9.91	
2025-01-09 03:49:00.01	351.59	9.92	
2025-01-09 03:49:00.21	351.55	9.92	
2025-01-09 03:49:00.42	351.52	9.93	
2025-01-09 03:49:00.62	351.48	9.93	
2025-01-09 03:49:00.83	351.45	9.94	
2025-01-09 03:49:01.03	351.41	9.94	
2025-01-09 03:49:01.24	351.38	9.95	
2025-01-09 03:49:01.45	351.34	9.95	
2025-01-09 03:49:01.65	351.31	9.96	
2025-01-09 03:49:01.85	351.27	9.96	
2025-01-09 03:49:02.06	351.24	9.97	
2025-01-09 03:49:02.26	351.20	9.97	
2025-01-09 03:49:02.47	351.17	9.97	
2025-01-09 03:49:02.68	351.13	9.98	
2025-01-09 03:49:02.88	351.09	9.98	
2025-01-09 03:49:03.08	351.06	9.99	
2025-01-09 03:49:03.29	351.02	9.99	
2025-01-09 03:49:03.49	350.99	10.00	
2025-01-09 03:49:03.70	350.95	10.00	
2025-01-09 03:49:03.90	350.92	10.01	
2025-01-09 03:49:04.11	350.88	10.01	
2025-01-09 03:49:04.31	350.85	10.01	
2025-01-09 03:49:04.52	350.81	10.02	
2025-01-09 03:49:04.73	350.77	10.02	
2025-01-09 03:49:04.93	350.74	10.03	
2025-01-09 03:49:05.14	350.70	10.03	
2025-01-09 03:49:05.34	350.67	10.04	
2025-01-09 03:49:05.55	350.63	10.04	
2025-01-09 03:49:05.76	350.60	10.05	
2025-01-09 03:49:05.96	350.56	10.05	
2025-01-09 03:49:06.16	350.53	10.05	
2025-01-09 03:49:06.37	350.49	10.06	
2025-01-09 03:49:06.57	350.46	10.06	
2025-01-09 03:49:06.78	350.42	10.07	
2025-01-09 03:49:06.98	350.38	10.07	
2025-01-09 03:49:07.19	350.35	10.08	
2025-01-09 03:49:07.39	350.31	10.08	
2025-01-09 03:49:07.60	350.28	10.08	
2025-01-09 03:49:07.80	350.24	10.09	
2025-01-09 03:49:08.01	350.20	10.09	
2025-01-09 03:49:08.22	350.17	10.10	
2025-01-09 03:49:08.42	350.13	10.10	
2025-01-09 03:49:08.63	350.10	10.10	
2025-01-09 03:49:08.83	350.06	10.11	
2025-01-09 03:49:09.04	350.03	10.11	
2025-01-09 03:49:09.25	349.99	10.12	
2025-01-09 03:49:09.46	349.95	10.12	
2025-01-09 03:49:09.66	349.92	10.13	
2025-01-09 03:49:09.87	349.88	10.13	
2025-01-09 03:49:10.08	349.84	10.13	
2025-01-09 03:49:10.28	349.81	10.14	
2025-01-09 03:49:10.48	349.77	10.14	
2025-01-09 03:49:10.69	349.74	10.15	
2025-01-09 03:49:10.90	349.70	10.15	
2025-01-09 03:49:11.10	349.67	10.15	
2025-01-09 03:49:11.31	349.63	10.16	
2025-01-09 03:49:11.51	349.59	10.16	
2025-01-09 03:49:11.72	349.56	10.17	
2025-01-09 03:49:11.92	349.52	10.17	
2025-01-09 03:49:12.13	349.49	10.18	
2025-01-09 03:49:12.33	349.45	10.18	
2025-01-09 03:49:12.53	349.41	10.18	
2025-01-09 03:49:12.74	349.38	10.19	
2025-01-09 03:49:12.94	349.34	10.19	
2025-01-09 03:49:13.15	349.31	10.19	
2025-01-09 03:49:13.36	349.27	10.20	
2025-01-09 03:49:13.56	349.23	10.20	
2025-01-09 03:49:13.76	349.20	10.21	
2025-01-09 03:49:13.97	349.16	10.21	
2025-01-09 03:49:14.17	349.13	10.21	
2025-01-09 03:49:14.38	349.09	10.22	
2025-01-09 03:49:14.58	349.06	10.22	
2025-01-09 03:49:14.79	349.02	10.23	
2025-01-09 03:49:15.00	348.98	10.23	
2025-01-09 03:49:15.20	348.95	10.23	
2025-01-09 03:49:15.41	348.91	10.24	
2025-01-09 03:49:15.61	348.87	10.24	
2025-01-09 03:49:15.82	348.84	10.25	
2025-01-09 03:49:16.02	348.80	10.25	
2025-01-09 03:49:16.23	348.77	10.25	
2025-01-09 03:49:16.43	348.73	10.26	
2025-01-09 03:49:16.64	348.69	10.26	
2025-01-09 03:49:16.84	348.66	10.26	
2025-01-09 03:49:17.05	348.62	10.27	
2025-01-09 03:49:17.26	348.58	10.27	
2025-01-09 03:49:17.46	348.55	10.28	
2025-01-09 03:49:17.66	348.51	10.28	
2025-01-09 03:49:17.87	348.48	10.28	
2025-01-09 03:49:18.08	348.44	10.29	
2025-01-09 03:49:18.28	348.40	10.29	
2025-01-09 03:49:18.49	348.37	10.29	
2025-01-09 03:49:18.69	348.33	10.30	
2025-01-09 03:49:18.90	348.29	10.30	
2025-01-09 03:49:19.10	348.26	10.31	
2025-01-09 03:49:19.30	348.22	10.31	
2025-01-09 03:49:19.51	348.19	10.31	
2025-01-09 03:49:19.72	348.15	10.32	
2025-01-09 03:49:19.93	348.11	10.32	
2025-01-09 03:49:20.14	348.07	10.32	
2025-01-09 03:49:20.35	348.04	10.33	
2025-01-09 03:49:20.55	348.00	10.33	
2025-01-09 03:49:20.76	347.97	10.34	
2025-01-09 03:49:20.96	347.93	10.34	
2025-01-09 03:49:21.17	347.89	10.34	
2025-01-09 03:49:21.37	347.86	10.35	
2025-01-09 03:49:21.58	347.82	10.35	
2025-01-09 03:49:21.78	347.78	10.35	
2025-01-09 03:49:22.00	347.75	10.36	
2025-01-09 03:49:22.20	347.71	10.36	
2025-01-09 03:49:22.41	347.67	10.36	
2025-01-09 03:49:22.62	347.64	10.37	
2025-01-09 03:49:22.82	347.60	10.37	
2025-01-09 03:49:23.02	347.56	10.37	
2025-01-09 03:49:23.23	347.53	10.38	
2025-01-09 03:49:23.44	347.49	10.38	
2025-01-09 03:49:23.64	347.45	10.38	
2025-01-09 03:49:23.85	347.42	10.39	
2025-01-09 03:49:24.07	347.38	10.39	
2025-01-09 03:49:24.27	347.34	10.40	
2025-01-09 03:49:24.48	347.30	10.40	
2025-01-09 03:49:24.68	347.27	10.40	
2025-01-09 03:49:24.89	347.23	10.41	
2025-01-09 03:49:25.09	347.20	10.41	
2025-01-09 03:49:25.30	347.16	10.41	
2025-01-09 03:49:25.51	347.12	10.42	
2025-01-09 03:49:25.71	347.09	10.42	
2025-01-09 03:49:25.92	347.05	10.42	
2025-01-09 03:49:26.13	347.01	10.43	
2025-01-09 03:49:26.33	346.98	10.43	
2025-01-09 03:49:26.53	346.94	10.43	
2025-01-09 03:49:26.74	346.90	10.44	
2025-01-09 03:49:26.94	346.87	10.44	
2025-01-09 03:49:27.15	346.83	10.44	
2025-01-09 03:49:27.37	346.79	10.45	
2025-01-09 03:49:27.57	346.75	10.45	
2025-01-09 03:49:27.78	346.72	10.45	
2025-01-09 03:49:27.99	346.68	10.46	
2025-01-09 03:49:28.19	346.64	10.46	
2025-01-09 03:49:28.40	346.61	10.46	
2025-01-09 03:49:28.60	346.57	10.46	
2025-01-09 03:49:28.80	346.53	10.47	
2025-01-09 03:49:29.01	346.50	10.47	
2025-01-09 03:49:29.22	346.46	10.47	
2025-01-09 03:49:29.42	346.42	10.48	
2025-01-09 03:49:29.63	346.39	10.48	
2025-01-09 03:49:29.83	346.35	10.48	
2025-01-09 03:49:30.04	346.31	10.49	
2025-01-09 03:49:30.24	346.28	10.49	
2025-01-09 03:49:30.45	346.24	10.49	
2025-01-09 03:49:30.65	346.20	10.50	
2025-01-09 03:49:30.86	346.17	10.50	
2025-01-09 03:49:31.06	346.13	10.50	
2025-01-09 03:49:31.27	346.09	10.51	
2025-01-09 03:49:31.47	346.06	10.51	
2025-01-09 03:49:31.69	346.02	10.51	
2025-01-09 03:49:31.90	345.98	10.51	
2025-01-09 03:49:32.10	345.94	10.52	
2025-01-09 03:49:32.31	345.91	10.52	
2025-01-09 03:49:32.51	345.87	10.52	
2025-01-09 03:49:32.73	345.83	10.53	
2025-01-09 03:49:32.94	345.79	10.53	
2025-01-09 03:49:33.14	345.76	10.53	
2025-01-09 03:49:33.35	345.72	10.54	
2025-01-09 03:49:33.55	345.68	10.54	
2025-01-09 03:49:33.76	345.65	10.54	
2025-01-09 03:49:33.97	345.61	10.54	
2025-01-09 03:49:34.17	345.57	10.55	
2025-01-09 03:49:34.38	345.53	10.55	
2025-01-09 03:49:34.58	345.50	10.55	
2025-01-09 03:49:34.79	345.46	10.56	
2025-01-09 03:49:34.99	345.42	10.56	
2025-01-09 03:49:35.20	345.39	10.56	
2025-01-09 03:49:35.41	345.35	10.56	
2025-01-09 03:49:35.61	345.31	10.57	
2025-01-09 03:49:35.81	345.28	10.57	
2025-01-09 03:49:36.02	345.24	10.57	
2025-01-09 03:49:36.23	345.20	10.58	
2025-01-09 03:49:36.43	345.17	10.58	
2025-01-09 03:49:36.64	345.13	10.58	
2025-01-09 03:49:36.84	345.09	10.58	
2025-01-09 03:49:37.05	345.05	10.59	
2025-01-09 03:49:37.25	345.02	10.59	
2025-01-09 03:49:37.46	344.98	10.59	
2025-01-09 03:49:37.66	344.94	10.59	
2025-01-09 03:49:37.87	344.91	10.60	
2025-01-09 03:49:38.07	344.87	10.60	
2025-01-09 03:49:38.28	344.83	10.60	
2025-01-09 03:49:38.48	344.80	10.61	
2025-01-09 03:49:38.69	344.76	10.61	
2025-01-09 03:49:38.89	344.72	10.61	
2025-01-09 03:49:39.10	344.68	10.61	
2025-01-09 03:49:39.30	344.65	10.62	
2025-01-09 03:49:39.51	344.61	10.62	
2025-01-09 03:49:39.71	344.57	10.62	
2025-01-09 03:49:39.92	344.54	10.62	
2025-01-09 03:49:40.12	344.50	10.63	
2025-01-09 03:49:40.33	344.46	10.63	
2025-01-09 03:49:40.54	344.42	10.63	
2025-01-09 03:49:40.74	344.39	10.63	
2025-01-09 03:49:40.95	344.35	10.64	
2025-01-09 03:49:41.15	344.31	10.64	
2025-01-09 03:49:41.36	344.28	10.64	
2025-01-09 03:49:41.56	344.24	10.64	
2025-01-09 03:49:41.77	344.20	10.65	
2025-01-09 03:49:41.97	344.16	10.65	
2025-01-09 03:49:42.18	344.13	10.65	
2025-01-09 03:49:42.38	344.09	10.65	
2025-01-09 03:49:42.59	344.05	10.66	
2025-01-09 03:49:42.79	344.02	10.66	
2025-01-09 03:49:43.00	343.98	10.66	
2025-01-09 03:49:43.21	343.94	10.66	
2025-01-09 03:49:43.41	343.90	10.67	
2025-01-09 03:49:43.62	343.87	10.67	
2025-01-09 03:49:43.82	343.83	10.67	
2025-01-09 03:49:44.03	343.79	10.67	
2025-01-09 03:49:44.23	343.76	10.67	
2025-01-09 03:49:44.43	343.72	10.68	
2025-01-09 03:49:44.64	343.68	10.68	
2025-01-09 03:49:44.85	343.64	10.68	
2025-01-09 03:49:45.05	343.61	10.68	
2025-01-09 03:49:45.26	343.57	10.69	
2025-01-09 03:49:45.46	343.53	10.69	
2025-01-09 03:49:45.67	343.49	10.69	
2025-01-09 03:49:45.87	343.46	10.69	
2025-01-09 03:49:46.08	343.42	10.70	
2025-01-09 03:49:46.29	343.38	10.70	
2025-01-09 03:49:46.49	343.35	10.70	
2025-01-09 03:49:46.69	343.31	10.70	
2025-01-09 03:49:46.90	343.27	10.70	
2025-01-09 03:49:47.11	343.23	10.71	
2025-01-09 03:49:47.31	343.20	10.71	
2025-01-09 03:49:47.52	343.16	10.71	
2025-01-09 03:49:47.72	343.12	10.71	
2025-01-09 03:49:47.93	343.08	10.72	
2025-01-09 03:49:48.13	343.05	10.72	
2025-01-09 03:49:48.34	343.01	10.72	
2025-01-09 03:49:48.54	342.97	10.72	
2025-01-09 03:49:48.74	342.94	10.72	
2025-01-09 03:49:48.95	342.90	10.73	
2025-01-09 03:49:49.15	342.86	10.73	
2025-01-09 03:49:49.36	342.82	10.73	
2025-01-09 03:49:49.56	342.79	10.73	
2025-01-09 03:49:49.77	342.75	10.73	
2025-01-09 03:49:49.97	342.71	10.74	
2025-01-09 03:49:50.18	342.67	10.74	
2025-01-09 03:49:50.38	342.64	10.74	
2025-01-09 03:49:50.59	342.60	10.74	
2025-01-09 03:49:50.79	342.56	10.74	
2025-01-09 03:49:50.99	342.53	10.75	
2025-01-09 03:49:51.20	342.49	10.75	
2025-01-09 03:49:51.41	342.45	10.75	
2025-01-09 03:49:51.61	342.41	10.75	
2025-01-09 03:49:51.82	342.37	10.75	
2025-01-09 03:49:52.02	342.34	10.76	
2025-01-09 03:49:52.23	342.30	10.76	
2025-01-09 03:49:52.43	342.26	10.76	
2025-01-09 03:49:52.64	342.23	10.76	
2025-01-09 03:49:52.84	342.19	10.76	
2025-01-09 03:49:53.05	342.15	10.76	
2025-01-09 03:49:53.25	342.11	10.77	
2025-01-09 03:49:53.46	342.08	10.77	
2025-01-09 03:49:53.66	342.04	10.77	
2025-01-09 03:49:53.87	342.00	10.77	
2025-01-09 03:49:54.07	341.96	10.77	
2025-01-09 03:49:54.27	341.93	10.78	
2025-01-09 03:49:54.48	341.89	10.78	
2025-01-09 03:49:54.68	341.85	10.78	
2025-01-09 03:49:54.89	341.81	10.78	
2025-01-09 03:49:55.11	341.77	10.78	
2025-01-09 03:49:55.31	341.74	10.78	
2025-01-09 03:49:55.52	341.70	10.79	
2025-01-09 03:49:55.72	341.66	10.79	
2025-01-09 03:49:55.93	341.62	10.79	
2025-01-09 03:49:56.13	341.59	10.79	
2025-01-09 03:49:56.34	341.55	10.79	
2025-01-09 03:49:56.54	341.51	10.79	
2025-01-09 03:49:56.75	341.47	10.80	
2025-01-09 03:49:56.95	341.44	10.80	
2025-01-09 03:49:57.16	341.40	10.80	
2025-01-09 03:49:57.36	341.36	10.80	
2025-01-09 03:49:57.57	341.32	10.80	
2025-01-09 03:49:57.77	341.29	10.80	
2025-01-09 03:49:57.98	341.25	10.81	
2025-01-09 03:49:58.18	341.21	10.81	
2025-01-09 03:49:58.39	341.17	10.81	
2025-01-09 03:49:58.59	341.14	10.81	
2025-01-09 03:49:58.80	341.10	10.81	
2025-01-09 03:49:59.00	341.06	10.81	
2025-01-09 03:49:59.21	341.02	10.81	
2025-01-09 03:49:59.41	340.99	10.82	
2025-01-09 03:49:59.62	340.95	10.82	
2025-01-09 03:49:59.83	340.91	10.82	
2025-01-09 03:50:00.03	340.87	10.82	
2025-01-09 03:50:00.23	340.84	10.82	
2025-01-09 03:50:00.44	340.80	10.82	
2025-01-09 03:50:00.64	340.76	10.82	
2025-01-09 03:50:00.85	340.72	10.83	
2025-01-09 03:50:01.05	340.69	10.83	
2025-01-09 03:50:01.26	340.65	10.83	
2025-01-09 03:50:01.47	340.61	10.83	
2025-01-09 03:50:01.67	340.57	10.83	
2025-01-09 03:50:01.88	340.54	10.83	
2025-01-09 03:50:02.08	340.50	10.83	
2025-01-09 03:50:02.29	340.46	10.83	
2025-01-09 03:50:02.50	340.42	10.84	
2025-01-09 03:50:02.70	340.38	10.84	
2025-01-09 03:50:02.90	340.35	10.84	
2025-01-09 03:50:03.11	340.31	10.84	
2025-01-09 03:50:03.32	340.27	10.84	
2025-01-09 03:50:03.52	340.23	10.84	
2025-01-09 03:50:03.74	340.19	10.84	
2025-01-09 03:50:03.94	340.16	10.85	
2025-01-09 03:50:04.15	340.12	10.85	
2025-01-09 03:50:04.35	340.08	10.85	
2025-01-09 03:50:04.56	340.04	10.85	
2025-01-09 03:50:04.76	340.01	10.85	
2025-01-09 03:50:04.97	339.97	10.85	
2025-01-09 03:50:05.17	339.93	10.85	
2025-01-09 03:50:05.38	339.89	10.85	
2025-01-09 03:50:05.58	339.86	10.85	
2025-01-09 03:50:05.79	339.82	10.86	
2025-01-09 03:50:05.99	339.78	10.86	
2025-01-09 03:50:06.20	339.74	10.86	
2025-01-09 03:50:06.40	339.71	10.86	
2025-01-09 03:50:06.62	339.67	10.86	
2025-01-09 03:50:06.82	339.63	10.86	
2025-01-09 03:50:07.03	339.59	10.86	
2025-01-09 03:50:07.23	339.55	10.86	
2025-01-09 03:50:07.44	339.51	10.86	
2025-01-09 03:50:07.64	339.48	10.86	
2025-01-09 03:50:07.85	339.44	10.87	
2025-01-09 03:50:08.05	339.40	10.87	
2025-01-09 03:50:08.26	339.36	10.87	
2025-01-09 03:50:08.46	339.33	10.87	
2025-01-09 03:50:08.67	339.29	10.87	
2025-01-09 03:50:08.88	339.25	10.87	
2025-01-09 03:50:09.08	339.21	10.87	
2025-01-09 03:50:09.28	339.18	10.87	
2025-01-09 03:50:09.49	339.14	10.87	
2025-01-09 03:50:09.69	339.10	10.87	
2025-01-09 03:50:09.90	339.06	10.88	
2025-01-09 03:50:10.10	339.03	10.88	
2025-01-09 03:50:10.31	338.99	10.88	
2025-01-09 03:50:10.51	338.95	10.88	
2025-01-09 03:50:10.72	338.91	10.88	
2025-01-09 03:50:10.92	338.87	10.88	
2025-01-09 03:50:11.13	338.84	10.88	
2025-01-09 03:50:11.33	338.80	10.88	
2025-01-09 03:50:11.54	338.76	10.88	
2025-01-09 03:50:11.74	338.72	10.88	
2025-01-09 03:50:11.95	338.69	10.88	
2025-01-09 03:50:12.15	338.65	10.88	
2025-01-09 03:50:12.36	338.61	10.88	
2025-01-09 03:50:12.56	338.57	10.89	
2025-01-09 03:50:12.77	338.53	10.89	
2025-01-09 03:50:12.98	338.50	10.89	
2025-01-09 03:50:13.18	338.46	10.89	
2025-01-09 03:50:13.38	338.42	10.89	
2025-01-09 03:50:13.59	338.38	10.89	
2025-01-09 03:50:13.80	338.34	10.89	
2025-01-09 03:50:14.00	338.31	10.89	
2025-01-09 03:50:14.20	338.27	10.89	
2025-01-09 03:50:14.41	338.23	10.89	
2025-01-09 03:50:14.61	338.20	10.89	
2025-01-09 03:50:14.82	338.16	10.89	
2025-01-09 03:50:15.03	338.12	10.89	
2025-01-09 03:50:15.23	338.08	10.89	
2025-01-09 03:50:15.43	338.04	10.89	
2025-01-09 03:50:15.64	338.01	10.89	
2025-01-09 03:50:15.85	337.97	10.89	
2025-01-09 03:50:16.05	337.93	10.90	
2025-01-09 03:50:16.26	337.89	10.90	
2025-01-09 03:50:16.46	337.85	10.90	
2025-01-09 03:50:16.67	337.82	10.90	
2025-01-09 03:50:16.87	337.78	10.90	
2025-01-09 03:50:17.08	337.74	10.90	
2025-01-09 03:50:17.29	337.70	10.90	
2025-01-09 03:50:17.49	337.67	10.90	
2025-01-09 03:50:17.69	337.63	10.90	
2025-01-09 03:50:17.90	337.59	10.90	
2025-01-09 03:50:18.11	337.55	10.90	
2025-01-09 03:50:18.31	337.51	10.90	
2025-01-09 03:50:18.52	337.48	10.90	
2025-01-09 03:50:18.72	337.44	10.90	
2025-01-09 03:50:18.92	337.40	10.90	
2025-01-09 03:50:19.13	337.36	10.90	
2025-01-09 03:50:19.34	337.32	10.90	
2025-01-09 03:50:19.54	337.29	10.90	
2025-01-09 03:50:19.76	337.25	10.90	
2025-01-09 03:50:19.97	337.21	10.90	
2025-01-09 03:50:20.17	337.17	10.90	
2025-01-09 03:50:20.38	337.13	10.90	
2025-01-09 03:50:20.58	337.10	10.90	
2025-01-09 03:50:20.80	337.06	10.90	
2025-01-09 03:50:21.00	337.02	10.90	
2025-01-09 03:50:21.21	336.98	10.90	
2025-01-09 03:50:21.41	336.94	10.90	
2025-01-09 03:50:21.62	336.90	10.90	
2025-01-09 03:50:21.82	336.87	10.90	
2025-01-09 03:50:22.03	336.83	10.90	
2025-01-09 03:50:22.23	336.79	10.90	
2025-01-09 03:50:22.44	336.75	10.91	
2025-01-09 03:50:22.64	336.72	10.91	
2025-01-09 03:50:22.86	336.68	10.91	
2025-01-09 03:50:23.07	336.64	10.91	
2025-01-09 03:50:23.27	336.60	10.91	
2025-01-09 03:50:23.48	336.56	10.91	
2025-01-09 03:50:23.68	336.52	10.91	
2025-01-09 03:50:23.89	336.49	10.91	
2025-01-09 03:50:24.09	336.45	10.91	
2025-01-09 03:50:24.30	336.41	10.91	
2025-01-09 03:50:24.51	336.37	10.91	
2025-01-09 03:50:24.71	336.33	10.91	
2025-01-09 03:50:24.92	336.30	10.91	
2025-01-09 03:50:25.12	336.26	10.91	
2025-01-09 03:50:25.33	336.22	10.91	
2025-01-09 03:50:25.53	336.18	10.91	
2025-01-09 03:50:25.74	336.14	10.91	
2025-01-09 03:50:25.94	336.11	10.91	
2025-01-09 03:50:26.15	336.07	10.91	
2025-01-09 03:50:26.35	336.03	10.91	
2025-01-09 03:50:26.56	335.99	10.91	
2025-01-09 03:50:26.76	335.96	10.90	
2025-01-09 03:50:26.97	335.92	10.90	
2025-01-09 03:50:27.17	335.88	10.90	
2025-01-09 03:50:27.38	335.84	10.90	
2025-01-09 03:50:27.58	335.81	10.90	
2025-01-09 03:50:27.79	335.77	10.90	
2025-01-09 03:50:27.99	335.73	10.90	
2025-01-09 03:50:28.20	335.69	10.90	
2025-01-09 03:50:28.40	335.65	10.90	
2025-01-09 03:50:28.61	335.62	10.90	
2025-01-09 03:50:28.81	335.58	10.90	
2025-01-09 03:50:29.02	335.54	10.90	
2025-01-09 03:50:29.23	335.50	10.90	
2025-01-09 03:50:29.43	335.46	10.90	
2025-01-09 03:50:29.64	335.43	10.90	
2025-01-09 03:50:29.85	335.39	10.90	
2025-01-09 03:50:30.05	335.35	10.90	
2025-01-09 03:50:30.26	335.31	10.90	
2025-01-09 03:50:30.46	335.27	10.90	
2025-01-09 03:50:30.66	335.24	10.90	
2025-01-09 03:50:30.87	335.20	10.90	
2025-01-09 03:50:31.08	335.16	10.90	
2025-01-09 03:50:31.28	335.12	10.90	
2025-01-09 03:50:31.48	335.09	10.90	
2025-01-09 03:50:31.69	335.05	10.90	
2025-01-09 03:50:31.89	335.01	10.90	
2025-01-09 03:50:32.10	334.97	10.90	
2025-01-09 03:50:32.30	334.94	10.90	
2025-01-09 03:50:32.50	334.90	10.90	
2025-01-09 03:50:32.71	334.86	10.90	
2025-01-09 03:50:32.92	334.82	10.90	
2025-01-09 03:50:33.12	334.78	10.90	
2025-01-09 03:50:33.33	334.75	10.89	
2025-01-09 03:50:33.53	334.71	10.89	
2025-01-09 03:50:33.74	334.67	10.89	
2025-01-09 03:50:33.94	334.63	10.89	
2025-01-09 03:50:34.15	334.59	10.89	
2025-01-09 03:50:34.35	334.56	10.89	
2025-01-09 03:50:34.56	334.52	10.89	
2025-01-09 03:50:34.76	334.48	10.89	
2025-01-09 03:50:34.97	334.44	10.89	
2025-01-09 03:50:35.17	334.41	10.89	
2025-01-09 03:50:35.38	334.37	10.89	
2025-01-09 03:50:35.58	334.33	10.89	
2025-01-09 03:50:35.79	334.29	10.89	
2025-01-09 03:50:35.99	334.26	10.89	
2025-01-09 03:50:36.20	334.22	10.89	
2025-01-09 03:50:36.41	334.18	10.89	
2025-01-09 03:50:36.61	334.14	10.88	
2025-01-09 03:50:36.83	334.10	10.88	
2025-01-09 03:50:37.03	334.06	10.88	
2025-01-09 03:50:37.24	334.03	10.88	
2025-01-09 03:50:37.45	333.99	10.88	
2025-01-09 03:50:37.65	333.95	10.88	
2025-01-09 03:50:37.86	333.91	10.88	
2025-01-09 03:50:38.06	333.88	10.88	
2025-01-09 03:50:38.27	333.84	10.88	
2025-01-09 03:50:38.48	333.80	10.88	
2025-01-09 03:50:38.68	333.76	10.88	
2025-01-09 03:50:38.88	333.72	10.88	
2025-01-09 03:50:39.09	333.69	10.88	
2025-01-09 03:50:39.29	333.65	10.87	
2025-01-09 03:50:39.50	333.61	10.87	
2025-01-09 03:50:39.71	333.57	10.87	
2025-01-09 03:50:39.91	333.53	10.87	
2025-01-09 03:50:40.12	333.50	10.87	
2025-01-09 03:50:40.32	333.46	10.87	
2025-01-09 03:50:40.53	333.42	10.87	
2025-01-09 03:50:40.73	333.38	10.87	
2025-01-09 03:50:40.94	333.35	10.87	
2025-01-09 03:50:41.14	333.31	10.87	
2025-01-09 03:50:41.35	333.27	10.87	
2025-01-09 03:50:41.55	333.23	10.86	
2025-01-09 03:50:41.76	333.19	10.86	
2025-01-09 03:50:41.96	333.16	10.86	
2025-01-09 03:50:42.17	333.12	10.86	
2025-01-09 03:50:42.37	333.08	10.86	
2025-01-09 03:50:42.58	333.04	10.86	
2025-01-09 03:50:42.78	333.01	10.86	
2025-01-09 03:50:42.99	332.97	10.86	
2025-01-09 03:50:43.19	332.93	10.86	
2025-01-09 03:50:43.40	332.89	10.85	
2025-01-09 03:50:43.60	332.86	10.85	
2025-01-09 03:50:43.81	332.82	10.85	
2025-01-09 03:50:44.01	332.78	10.85	
2025-01-09 03:50:44.22	332.74	10.85	
2025-01-09 03:50:44.42	332.71	10.85	
2025-01-09 03:50:44.62	332.67	10.85	
2025-01-09 03:50:44.83	332.63	10.85	
2025-01-09 03:50:45.04	332.59	10.85	
2025-01-09 03:50:45.24	332.56	10.84	
2025-01-09 03:50:45.44	332.52	10.84	
2025-01-09 03:50:45.65	332.48	10.84	
2025-01-09 03:50:45.86	332.44	10.84	
2025-01-09 03:50:46.06	332.40	10.84	
2025-01-09 03:50:46.27	332.37	10.84	
2025-01-09 03:50:46.47	332.33	10.84	
2025-01-09 03:50:46.68	332.29	10.84	
2025-01-09 03:50:46.88	332.25	10.83	
2025-01-09 03:50:47.09	332.22	10.83	
2025-01-09 03:50:47.29	332.18	10.83	
2025-01-09 03:50:47.50	332.14	10.83	
2025-01-09 03:50:47.70	332.10	10.83	
2025-01-09 03:50:47.91	332.07	10.83	
2025-01-09 03:50:48.12	332.03	10.83	
2025-01-09 03:50:48.32	331.99	10.82	
2025-01-09 03:50:48.52	331.95	10.82	
2025-01-09 03:50:48.73	331.92	10.82	
2025-01-09 03:50:48.93	331.88	10.82	
2025-01-09 03:50:49.14	331.84	10.82	
2025-01-09 03:50:49.34	331.80	10.82	
2025-01-09 03:50:49.55	331.77	10.82	
2025-01-09 03:50:49.75	331.73	10.81	
2025-01-09 03:50:49.95	331.69	10.81	
2025-01-09 03:50:50.16	331.65	10.81	
2025-01-09 03:50:50.37	331.61	10.81	
2025-01-09 03:50:50.57	331.58	10.81	
2025-01-09 03:50:50.77	331.54	10.81	
2025-01-09 03:50:50.98	331.50	10.81	
2025-01-09 03:50:51.18	331.47	10.80	
2025-01-09 03:50:51.39	331.43	10.80	
2025-01-09 03:50:51.59	331.39	10.80	
2025-01-09 03:50:51.80	331.35	10.80	
2025-01-09 03:50:52.00	331.32	10.80	
2025-01-09 03:50:52.21	331.28	10.80	
2025-01-09 03:50:52.41	331.24	10.79	
2025-01-09 03:50:52.61	331.20	10.79	
2025-01-09 03:50:52.82	331.17	10.79	
2025-01-09 03:50:53.02	331.13	10.79	
2025-01-09 03:50:53.23	331.09	10.79	
2025-01-09 03:50:53.43	331.05	10.79	
2025-01-09 03:50:53.64	331.02	10.78	
2025-01-09 03:50:53.84	330.98	10.78	
2025-01-09 03:50:54.04	330.94	10.78	
2025-01-09 03:50:54.25	330.90	10.78	
2025-01-09 03:50:54.46	330.87	10.78	
2025-01-09 03:50:54.66	330.83	10.78	
2025-01-09 03:50:54.86	330.79	10.77	
2025-01-09 03:50:55.07	330.76	10.77	
2025-01-09 03:50:55.27	330.72	10.77	
2025-01-09 03:50:55.48	330.68	10.77	
2025-01-09 03:50:55.68	330.64	10.77	
2025-01-09 03:50:55.89	330.61	10.77	
2025-01-09 03:50:56.09	330.57	10.76	
2025-01-09 03:50:56.30	330.53	10.76	
2025-01-09 03:50:56.51	330.49	10.76	
2025-01-09 03:50:56.71	330.46	10.76	
2025-01-09 03:50:56.92	330.42	10.76	
2025-01-09 03:50:57.12	330.38	10.75	
2025-01-09 03:50:57.33	330.34	10.75	
2025-01-09 03:50:57.53	330.31	10.75	
2025-01-09 03:50:57.74	330.27	10.75	
2025-01-09 03:50:57.94	330.23	10.75	
2025-01-09 03:50:58.15	330.19	10.74	
2025-01-09 03:50:58.35	330.16	10.74	
2025-01-09 03:50:58.56	330.12	10.74	
2025-01-09 03:50:58.76	330.08	10.74	
2025-01-09 03:50:58.97	330.04	10.74	
2025-01-09 03:50:59.17	330.01	10.73	
2025-01-09 03:50:59.38	329.97	10.73	
2025-01-09 03:50:59.58	329.93	10.73	
2025-01-09 03:50:59.79	329.89	10.73	
2025-01-09 03:50:59.99	329.86	10.73	
2025-01-09 03:51:00.20	329.82	10.72	
2025-01-09 03:51:00.40	329.78	10.72	
2025-01-09 03:51:00.61	329.74	10.72	
2025-01-09 03:51:00.81	329.71	10.72	
2025-01-09 03:51:01.02	329.67	10.72	
2025-01-09 03:51:01.23	329.63	10.71	
2025-01-09 03:51:01.43	329.60	10.71	
2025-01-09 03:51:01.63	329.56	10.71	
2025-01-09 03:51:01.84	329.52	10.71	
2025-01-09 03:51:02.05	329.48	10.71	
2025-01-09 03:51:02.25	329.45	10.70	
2025-01-09 03:51:02.46	329.41	10.70	
2025-01-09 03:51:02.66	329.37	10.70	
2025-01-09 03:51:02.87	329.33	10.70	
2025-01-09 03:51:03.07	329.30	10.69	
2025-01-09 03:51:03.28	329.26	10.69	
2025-01-09 03:51:03.48	329.22	10.69	
2025-01-09 03:51:03.68	329.19	10.69	
2025-01-09 03:51:03.89	329.15	10.69	
2025-01-09 03:51:04.09	329.11	10.68	
2025-01-09 03:51:04.30	329.07	10.68	
2025-01-09 03:51:04.50	329.04	10.68	
2025-01-09 03:51:04.71	329.00	10.68	
2025-01-09 03:51:04.92	328.96	10.67	
2025-01-09 03:51:05.12	328.93	10.67	
2025-01-09 03:51:05.32	328.89	10.67	
2025-01-09 03:51:05.53	328.85	10.67	
2025-01-09 03:51:05.73	328.81	10.66	
2025-01-09 03:51:05.94	328.78	10.66	
2025-01-09 03:51:06.14	328.74	10.66	
2025-01-09 03:51:06.35	328.70	10.66	
2025-01-09 03:51:06.55	328.67	10.66	
2025-01-09 03:51:06.76	328.63	10.65	
2025-01-09 03:51:06.96	328.59	10.65	
2025-01-09 03:51:07.17	328.55	10.65	
2025-01-09 03:51:07.37	328.52	10.65	
2025-01-09 03:51:07.58	328.48	10.64	
2025-01-09 03:51:07.78	328.44	10.64	
2025-01-09 03:51:07.99	328.41	10.64	
2025-01-09 03:51:08.19	328.37	10.64	
2025-01-09 03:51:08.40	328.33	10.63	
2025-01-09 03:51:08.60	328.29	10.63	
2025-01-09 03:51:08.81	328.26	10.63	
2025-01-09 03:51:09.01	328.22	10.63	
2025-01-09 03:51:09.22	328.18	10.62	
2025-01-09 03:51:09.42	328.15	10.62	
2025-01-09 03:51:09.63	328.11	10.62	
2025-01-09 03:51:09.83	328.07	10.61	
2025-01-09 03:51:10.04	328.03	10.61	
2025-01-09 03:51:10.24	328.00	10.61	
2025-01-09 03:51:10.45	327.96	10.61	
2025-01-09 03:51:10.65	327.92	10.60	
2025-01-09 03:51:10.86	327.89	10.60	
2025-01-09 03:51:11.06	327.85	10.60	
2025-01-09 03:51:11.26	327.81	10.60	
2025-01-09 03:51:11.47	327.78	10.59	
2025-01-09 03:51:11.68	327.74	10.59	
2025-01-09 03:51:11.88	327.70	10.59	
2025-01-09 03:51:12.10	327.66	10.59	
2025-01-09 03:51:12.31	327.62	10.58	
2025-01-09 03:51:12.51	327.59	10.58	
2025-01-09 03:51:12.72	327.55	10.58	
2025-01-09 03:51:12.92	327.51	10.57	
2025-01-09 03:51:13.14	327.48	10.57	
2025-01-09 03:51:13.34	327.44	10.57	
2025-01-09 03:51:13.55	327.40	10.57	
2025-01-09 03:51:13.76	327.36	10.56	
2025-01-09 03:51:13.96	327.33	10.56	
2025-01-09 03:51:14.16	327.29	10.56	
2025-01-09 03:51:14.37	327.25	10.55	
2025-01-09 03:51:14.58	327.22	10.55	
2025-01-09 03:51:14.78	327.18	10.55	
2025-01-09 03:51:14.99	327.14	10.55	
2025-01-09 03:51:15.19	327.11	10.54	
2025-01-09 03:51:15.40	327.07	10.54	
2025-01-09 03:51:15.60	327.03	10.54	
2025-01-09 03:51:15.81	326.99	10.53	
2025-01-09 03:51:16.01	326.96	10.53	
2025-01-09 03:51:16.22	326.92	10.53	
2025-01-09 03:51:16.42	326.89	10.53	
2025-01-09 03:51:16.62	326.85	10.52	
2025-01-09 03:51:16.83	326.81	10.52	
2025-01-09 03:51:17.04	326.77	10.52	
2025-01-09 03:51:17.24	326.74	10.51	
2025-01-09 03:51:17.44	326.70	10.51	
2025-01-09 03:51:17.65	326.66	10.51	
2025-01-09 03:51:17.85	326.63	10.50	
2025-01-09 03:51:18.06	326.59	10.50	
2025-01-09 03:51:18.26	326.56	10.50	
2025-01-09 03:51:18.47	326.52	10.50	
2025-01-09 03:51:18.67	326.48	10.49	
2025-01-09 03:51:18.88	326.44	10.49	
2025-01-09 03:51:19.08	326.41	10.49	
2025-01-09 03:51:19.29	326.37	10.48	
2025-01-09 03:51:19.51	326.33	10.48	
2025-01-09 03:51:19.72	326.29	10.48	
2025-01-09 03:51:19.92	326.26	10.47	
2025-01-09 03:51:20.12	326.22	10.47	
2025-01-09 03:51:20.33	326.18	10.47	
2025-01-09 03:51:20.53	326.15	10.46	
2025-01-09 03:51:20.74	326.11	10.46	
2025-01-09 03:51:20.94	326.08	10.46	
2025-01-09 03:51:21.15	326.04	10.45	
2025-01-09 03:51:21.36	326.00	10.45	
2025-01-09 03:51:21.56	325.96	10.45	
2025-01-09 03:51:21.77	325.93	10.44	
2025-01-09 03:51:21.97	325.89	10.44	
2025-01-09 03:51:22.18	325.85	10.44	
2025-01-09 03:51:22.39	325.82	10.43	
2025-01-09 03:51:22.59	325.78	10.43	
2025-01-09 03:51:22.79	325.74	10.43	
2025-01-09 03:51:23.00	325.71	10.42	
2025-01-09 03:51:23.21	325.67	10.42	
2025-01-09 03:51:23.41	325.63	10.42	
2025-01-09 03:51:23.62	325.60	10.41	
2025-01-09 03:51:23.84	325.56	10.41	
2025-01-09 03:51:24.04	325.52	10.41	
2025-01-09 03:51:24.25	325.48	10.40	
2025-01-09 03:51:24.45	325.45	10.40	
2025-01-09 03:51:24.66	325.41	10.40	
2025-01-09 03:51:24.86	325.38	10.39	
2025-01-09 03:51:25.07	325.34	10.39	
2025-01-09 03:51:25.27	325.30	10.39	
2025-01-09 03:51:25.48	325.27	10.38	
2025-01-09 03:51:25.68	325.23	10.38	
2025-01-09 03:51:25.89	325.19	10.38	
2025-01-09 03:51:26.09	325.16	10.37	
2025-01-09 03:51:26.30	325.12	10.37	
2025-01-09 03:51:26.50	325.08	10.37	
2025-01-09 03:51:26.71	325.05	10.36	
2025-01-09 03:51:26.92	325.01	10.36	
2025-01-09 03:51:27.12	324.97	10.36	
2025-01-09 03:51:27.33	324.94	10.35	
2025-01-09 03:51:27.53	324.90	10.35	
2025-01-09 03:51:27.73	324.87	10.35	
2025-01-09 03:51:27.94	324.83	10.34	
2025-01-09 03:51:28.14	324.79	10.34	
2025-01-09 03:51:28.35	324.76	10.33	
2025-01-09 03:51:28.56	324.72	10.33	
2025-01-09 03:51:28.76	324.68	10.33	
2025-01-09 03:51:28.97	324.65	10.32	
2025-01-09 03:51:29.17	324.61	10.32	
2025-01-09 03:51:29.37	324.58	10.32	
2025-01-09 03:51:29.58	324.54	10.31	
2025-01-09 03:51:29.78	324.50	10.31	
2025-01-09 03:51:29.99	324.47	10.31	
2025-01-09 03:51:30.21	324.43	10.30	
2025-01-09 03:51:30.41	324.39	10.30	
2025-01-09 03:51:30.62	324.35	10.29	
2025-01-09 03:51:30.83	324.32	10.29	
2025-01-09 03:51:31.03	324.28	10.29	
2025-01-09 03:51:31.23	324.25	10.28	
2025-01-09 03:51:31.44	324.21	10.28	
2025-01-09 03:51:31.64	324.17	10.28	
2025-01-09 03:51:31.85	324.14	10.27	
2025-01-09 03:51:32.06	324.10	10.27	
2025-01-09 03:51:32.26	324.06	10.26	
2025-01-09 03:51:32.46	324.03	10.26	
2025-01-09 03:51:32.67	323.99	10.26	
2025-01-09 03:51:32.87	323.96	10.25	
2025-01-09 03:51:33.08	323.92	10.25	
2025-01-09 03:51:33.28	323.89	10.24	
2025-01-09 03:51:33.49	323.85	10.24	
2025-01-09 03:51:33.69	323.81	10.24	
2025-01-09 03:51:33.90	323.78	10.23	
2025-01-09 03:51:34.10	323.74	10.23	
2025-01-09 03:51:34.31	323.70	10.23	
2025-01-09 03:51:34.51	323.67	10.22	
2025-01-09 03:51:34.72	323.63	10.22	
2025-01-09 03:51:34.92	323.60	10.21	
2025-01-09 03:51:35.13	323.56	10.21	
2025-01-09 03:51:35.34	323.52	10.21	
2025-01-09 03:51:35.54	323.49	10.20	
2025-01-09 03:51:35.74	323.45	10.20	
2025-01-09 03:51:35.95	323.42	10.19	
2025-01-09 03:51:36.16	323.38	10.19	
2025-01-09 03:51:36.36	323.34	10.19	
2025-01-09 03:51:36.57	323.31	10.18	
2025-01-09 03:51:36.77	323.27	10.18	
2025-01-09 03:51:36.98	323.23	10.17	
2025-01-09 03:51:37.18	323.20	10.17	
2025-01-09 03:51:37.39	323.16	10.17	
2025-01-09 03:51:37.59	323.13	10.16	
2025-01-09 03:51:37.80	323.09	10.16	
2025-01-09 03:51:38.00	323.06	10.15	
2025-01-09 03:51:38.21	323.02	10.15	
2025-01-09 03:51:38.41	322.98	10.15	
2025-01-09 03:51:38.62	322.95	10.14	
2025-01-09 03:51:38.82	322.91	10.14	
2025-01-09 03:51:39.02	322.88	10.13	
2025-01-09 03:51:39.23	322.84	10.13	
2025-01-09 03:51:39.44	322.80	10.12	
2025-01-09 03:51:39.64	322.77	10.12	
2025-01-09 03:51:39.85	322.73	10.12	
2025-01-09 03:51:40.05	322.70	10.11	
2025-01-09 03:51:40.26	322.66	10.11	
2025-01-09 03:51:40.46	322.63	10.10	
2025-01-09 03:51:40.67	322.59	10.10	
2025-01-09 03:51:40.87	322.55	10.10	
2025-01-09 03:51:41.07	322.52	10.09	
2025-01-09 03:51:41.28	322.48	10.09	
2025-01-09 03:51:41.49	322.45	10.08	
2025-01-09 03:51:41.69	322.41	10.08	
2025-01-09 03:51:41.90	322.38	10.07	
2025-01-09 03:51:42.10	322.34	10.07	
2025-01-09 03:51:42.31	322.30	10.07	
2025-01-09 03:51:42.51	322.27	10.06	
2025-01-09 03:51:42.72	322.23	10.06	
2025-01-09 03:51:42.92	322.20	10.05	
2025-01-09 03:51:43.13	322.16	10.05	
2025-01-09 03:51:43.33	322.13	10.04	
2025-01-09 03:51:43.54	322.09	10.04	
2025-01-09 03:51:43.74	322.06	10.04	
2025-01-09 03:51:43.95	322.02	10.03	
2025-01-09 03:51:44.15	321.98	10.03	
2025-01-09 03:51:44.35	321.95	10.02	
2025-01-09 03:51:44.56	321.91	10.02	
2025-01-09 03:51:44.77	321.88	10.01	
2025-01-09 03:51:44.97	321.84	10.01	
2025-01-09 03:51:45.18	321.81	10.00	
2025-01-09 03:51:45.38	321.77	10.00	
2025-01-09 03:51:45.59	321.73	10.00	
2025-01-09 03:51:45.79	321.70	9.99	
2025-01-09 03:51:46.00	321.66	9.99	
2025-01-09 03:51:46.20	321.63	9.98	
2025-01-09 03:51:46.41	321.59	9.98	
2025-01-09 03:51:46.62	321.56	9.97	
2025-01-09 03:51:46.82	321.52	9.97	
2025-01-09 03:51:47.03	321.49	9.96	
2025-01-09 03:51:47.23	321.45	9.96	
2025-01-09 03:51:47.44	321.41	9.96	
2025-01-09 03:51:47.64	321.38	9.95	
2025-01-09 03:51:47.85	321.34	9.95	
2025-01-09 03:51:48.05	321.31	9.94	
2025-01-09 03:51:48.26	321.27	9.94	
2025-01-09 03:51:48.46	321.24	9.93	
2025-01-09 03:51:48.67	321.20	9.93	
2025-01-09 03:51:48.87	321.17	9.92	
2025-01-09 03:51:49.08	321.13	9.92	
2025-01-09 03:51:49.29	321.10	9.91	
2025-01-09 03:51:49.51	321.06	9.91	
2025-01-09 03:51:49.71	321.02	9.90	
2025-01-09 03:51:49.92	320.99	9.90	
2025-01-09 03:51:50.12	320.95	9.90	
2025-01-09 03:51:50.33	320.92	9.89	
2025-01-09 03:51:50.55	320.88	9.89	
2025-01-09 03:51:50.75	320.84	9.88	
2025-01-09 03:51:50.96	320.81	9.88	
2025-01-09 03:51:51.16	320.77	9.87	
2025-01-09 03:51:51.37	320.74	9.87	
2025-01-09 03:51:51.57	320.70	9.86	
2025-01-09 03:51:51.77	320.67	9.86	
2025-01-09 03:51:51.98	320.63	9.85	
2025-01-09 03:51:52.19	320.60	9.85	
2025-01-09 03:51:52.39	320.56	9.84	
2025-01-09 03:51:52.60	320.53	9.84	
2025-01-09 03:51:52.80	320.49	9.83	
2025-01-09 03:51:53.01	320.46	9.83	
2025-01-09 03:51:53.21	320.42	9.82	
2025-01-09 03:51:53.42	320.39	9.82	
2025-01-09 03:51:53.62	320.35	9.81	
2025-01-09 03:51:53.83	320.32	9.81	
