passes_logs/2025/01/09/SPB_Silybum_02/SPB_Silybum_02__20250109_083908_SUOMI_NPP_rec.log

#Pass ID: 20250109_083908_SUOMI NPP
#Satellite: SUOMI NPP
#Configuration: NPP
#Start time: 2025-01-09 08:39:07

#Version: 2.0.20230423
#Station: SPB_Silybum_02
#Location: 30.233357 lon 59.946436 lat
#TLE: 1 37849U 11061A   25008.85814474  .00000207  00000+0  11909-3 0  9997
#TLE: 2 37849  98.7439 309.9248 0001886  50.2762 309.8580 14.19535270684045

#Time	Az	El	Level	Level2	SNR	BER	Gain	Gain2
2025-01-09 08:39:09.27	112.59	4.07	
2025-01-09 08:39:09.48	112.58	4.08	
2025-01-09 08:39:09.68	112.57	4.09	
2025-01-09 08:39:09.89	112.55	4.10	
2025-01-09 08:39:10.09	112.54	4.12	
2025-01-09 08:39:10.30	112.53	4.13	
2025-01-09 08:39:10.52	112.51	4.14	
2025-01-09 08:39:10.72	112.50	4.16	
2025-01-09 08:39:10.93	112.49	4.17	
2025-01-09 08:39:11.13	112.47	4.18	
2025-01-09 08:39:11.34	112.46	4.19	
2025-01-09 08:39:11.54	112.45	4.21	
2025-01-09 08:39:11.75	112.43	4.22	
2025-01-09 08:39:11.95	112.42	4.23	
2025-01-09 08:39:12.16	112.41	4.25	
2025-01-09 08:39:12.36	112.39	4.26	
2025-01-09 08:39:12.57	112.38	4.27	
2025-01-09 08:39:12.77	112.37	4.28	
2025-01-09 08:39:12.98	112.35	4.30	
2025-01-09 08:39:13.18	112.34	4.31	
2025-01-09 08:39:13.39	112.33	4.32	
2025-01-09 08:39:13.60	112.31	4.34	
2025-01-09 08:39:13.80	112.30	4.35	
2025-01-09 08:39:14.01	112.29	4.36	
2025-01-09 08:39:14.21	112.27	4.37	
2025-01-09 08:39:14.42	112.26	4.39	
2025-01-09 08:39:14.62	112.25	4.40	
2025-01-09 08:39:14.83	112.23	4.41	
2025-01-09 08:39:15.03	112.22	4.43	
2025-01-09 08:39:15.24	112.20	4.44	
2025-01-09 08:39:15.44	112.19	4.45	
2025-01-09 08:39:15.65	112.18	4.46	
2025-01-09 08:39:15.85	112.16	4.48	
2025-01-09 08:39:16.06	112.15	4.49	
2025-01-09 08:39:16.26	112.14	4.50	
2025-01-09 08:39:16.47	112.12	4.52	
2025-01-09 08:39:16.67	112.11	4.53	
2025-01-09 08:39:16.88	112.10	4.54	
2025-01-09 08:39:17.09	112.08	4.56	
2025-01-09 08:39:17.29	112.07	4.57	
2025-01-09 08:39:17.50	112.05	4.58	
2025-01-09 08:39:17.70	112.04	4.59	
2025-01-09 08:39:17.91	112.03	4.61	
2025-01-09 08:39:18.11	112.01	4.62	
2025-01-09 08:39:18.32	112.00	4.63	
2025-01-09 08:39:18.52	111.99	4.65	
2025-01-09 08:39:18.73	111.97	4.66	
2025-01-09 08:39:18.93	111.96	4.67	
2025-01-09 08:39:19.14	111.94	4.69	
2025-01-09 08:39:19.34	111.93	4.70	
2025-01-09 08:39:19.55	111.92	4.71	
2025-01-09 08:39:19.75	111.90	4.72	
2025-01-09 08:39:19.96	111.89	4.74	
2025-01-09 08:39:20.18	111.87	4.75	
2025-01-09 08:39:20.38	111.86	4.76	
2025-01-09 08:39:20.58	111.85	4.78	
2025-01-09 08:39:20.79	111.83	4.79	
2025-01-09 08:39:21.00	111.82	4.80	
2025-01-09 08:39:21.21	111.80	4.82	
2025-01-09 08:39:21.42	111.79	4.83	
2025-01-09 08:39:21.62	111.78	4.84	
2025-01-09 08:39:21.83	111.76	4.86	
2025-01-09 08:39:22.04	111.75	4.87	
2025-01-09 08:39:22.24	111.73	4.88	
2025-01-09 08:39:22.45	111.72	4.90	
2025-01-09 08:39:22.65	111.71	4.91	
2025-01-09 08:39:22.86	111.69	4.92	
2025-01-09 08:39:23.06	111.68	4.93	
2025-01-09 08:39:23.27	111.66	4.95	
2025-01-09 08:39:23.47	111.65	4.96	
2025-01-09 08:39:23.68	111.64	4.97	
2025-01-09 08:39:23.89	111.62	4.99	
2025-01-09 08:39:24.09	111.61	5.00	
2025-01-09 08:39:24.30	111.59	5.01	
2025-01-09 08:39:24.50	111.58	5.03	
2025-01-09 08:39:24.71	111.56	5.04	
2025-01-09 08:39:24.91	111.55	5.05	
2025-01-09 08:39:25.12	111.54	5.07	
2025-01-09 08:39:25.33	111.52	5.08	
2025-01-09 08:39:25.54	111.51	5.09	
2025-01-09 08:39:25.75	111.49	5.11	
2025-01-09 08:39:25.95	111.48	5.12	
2025-01-09 08:39:26.16	111.46	5.13	
2025-01-09 08:39:26.36	111.45	5.15	
2025-01-09 08:39:26.57	111.44	5.16	
2025-01-09 08:39:26.77	111.42	5.17	
2025-01-09 08:39:26.98	111.41	5.18	
2025-01-09 08:39:27.18	111.39	5.20	
2025-01-09 08:39:27.39	111.38	5.21	
2025-01-09 08:39:27.59	111.36	5.22	
2025-01-09 08:39:27.80	111.35	5.24	
2025-01-09 08:39:28.00	111.34	5.25	
2025-01-09 08:39:28.21	111.32	5.26	
2025-01-09 08:39:28.42	111.31	5.28	
2025-01-09 08:39:28.62	111.29	5.29	
2025-01-09 08:39:28.83	111.28	5.30	
2025-01-09 08:39:29.03	111.26	5.32	
2025-01-09 08:39:29.24	111.25	5.33	
2025-01-09 08:39:29.44	111.23	5.34	
2025-01-09 08:39:29.65	111.22	5.36	
2025-01-09 08:39:29.85	111.20	5.37	
2025-01-09 08:39:30.06	111.19	5.38	
2025-01-09 08:39:30.26	111.18	5.40	
2025-01-09 08:39:30.47	111.16	5.41	
2025-01-09 08:39:30.67	111.15	5.42	
2025-01-09 08:39:30.88	111.13	5.44	
2025-01-09 08:39:31.09	111.12	5.45	
2025-01-09 08:39:31.29	111.10	5.46	
2025-01-09 08:39:31.50	111.09	5.48	
2025-01-09 08:39:31.70	111.07	5.49	
2025-01-09 08:39:31.91	111.06	5.50	
2025-01-09 08:39:32.11	111.04	5.52	
2025-01-09 08:39:32.32	111.03	5.53	
2025-01-09 08:39:32.52	111.01	5.54	
2025-01-09 08:39:32.73	111.00	5.56	
2025-01-09 08:39:32.93	110.99	5.57	
2025-01-09 08:39:33.14	110.97	5.58	
2025-01-09 08:39:33.34	110.96	5.60	
2025-01-09 08:39:33.55	110.94	5.61	
2025-01-09 08:39:33.75	110.93	5.62	
2025-01-09 08:39:33.96	110.91	5.64	
2025-01-09 08:39:34.16	110.90	5.65	
2025-01-09 08:39:34.37	110.88	5.66	
2025-01-09 08:39:34.57	110.87	5.68	
2025-01-09 08:39:34.78	110.85	5.69	
2025-01-09 08:39:34.99	110.84	5.70	
2025-01-09 08:39:35.20	110.82	5.72	
2025-01-09 08:39:35.41	110.81	5.73	
2025-01-09 08:39:35.61	110.79	5.74	
2025-01-09 08:39:35.82	110.78	5.76	
2025-01-09 08:39:36.03	110.76	5.77	
2025-01-09 08:39:36.23	110.75	5.78	
2025-01-09 08:39:36.44	110.73	5.80	
2025-01-09 08:39:36.64	110.72	5.81	
2025-01-09 08:39:36.85	110.70	5.82	
2025-01-09 08:39:37.05	110.69	5.84	
2025-01-09 08:39:37.27	110.67	5.85	
2025-01-09 08:39:37.47	110.66	5.86	
2025-01-09 08:39:37.68	110.64	5.88	
2025-01-09 08:39:37.88	110.63	5.89	
2025-01-09 08:39:38.09	110.61	5.91	
2025-01-09 08:39:38.29	110.60	5.92	
2025-01-09 08:39:38.50	110.58	5.93	
2025-01-09 08:39:38.70	110.57	5.95	
2025-01-09 08:39:38.91	110.55	5.96	
2025-01-09 08:39:39.11	110.54	5.97	
2025-01-09 08:39:39.32	110.52	5.99	
2025-01-09 08:39:39.52	110.51	6.00	
2025-01-09 08:39:39.73	110.49	6.01	
2025-01-09 08:39:39.94	110.47	6.03	
2025-01-09 08:39:40.14	110.46	6.04	
2025-01-09 08:39:40.35	110.44	6.05	
2025-01-09 08:39:40.55	110.43	6.07	
2025-01-09 08:39:40.75	110.41	6.08	
2025-01-09 08:39:40.96	110.40	6.09	
2025-01-09 08:39:41.17	110.38	6.11	
2025-01-09 08:39:41.37	110.37	6.12	
2025-01-09 08:39:41.57	110.35	6.13	
2025-01-09 08:39:41.78	110.34	6.15	
2025-01-09 08:39:41.98	110.32	6.16	
2025-01-09 08:39:42.19	110.31	6.18	
2025-01-09 08:39:42.40	110.29	6.19	
2025-01-09 08:39:42.60	110.28	6.20	
2025-01-09 08:39:42.81	110.26	6.22	
2025-01-09 08:39:43.01	110.25	6.23	
2025-01-09 08:39:43.22	110.23	6.24	
2025-01-09 08:39:43.42	110.21	6.26	
2025-01-09 08:39:43.63	110.20	6.27	
2025-01-09 08:39:43.83	110.18	6.28	
2025-01-09 08:39:44.04	110.17	6.30	
2025-01-09 08:39:44.24	110.15	6.31	
2025-01-09 08:39:44.45	110.14	6.32	
2025-01-09 08:39:44.65	110.12	6.34	
2025-01-09 08:39:44.86	110.11	6.35	
2025-01-09 08:39:45.06	110.09	6.37	
2025-01-09 08:39:45.27	110.07	6.38	
2025-01-09 08:39:45.47	110.06	6.39	
2025-01-09 08:39:45.68	110.04	6.41	
2025-01-09 08:39:45.88	110.03	6.42	
2025-01-09 08:39:46.09	110.01	6.43	
2025-01-09 08:39:46.29	110.00	6.45	
2025-01-09 08:39:46.50	109.98	6.46	
2025-01-09 08:39:46.71	109.96	6.47	
2025-01-09 08:39:46.91	109.95	6.49	
2025-01-09 08:39:47.11	109.93	6.50	
2025-01-09 08:39:47.32	109.92	6.52	
2025-01-09 08:39:47.52	109.90	6.53	
2025-01-09 08:39:47.73	109.89	6.54	
2025-01-09 08:39:47.93	109.87	6.56	
2025-01-09 08:39:48.14	109.85	6.57	
2025-01-09 08:39:48.34	109.84	6.58	
2025-01-09 08:39:48.55	109.82	6.60	
2025-01-09 08:39:48.75	109.81	6.61	
2025-01-09 08:39:48.95	109.79	6.62	
2025-01-09 08:39:49.16	109.78	6.64	
2025-01-09 08:39:49.37	109.76	6.65	
2025-01-09 08:39:49.57	109.74	6.67	
2025-01-09 08:39:49.77	109.73	6.68	
2025-01-09 08:39:49.97	109.71	6.69	
2025-01-09 08:39:50.18	109.70	6.71	
2025-01-09 08:39:50.39	109.68	6.72	
2025-01-09 08:39:50.59	109.67	6.73	
2025-01-09 08:39:50.80	109.65	6.75	
2025-01-09 08:39:51.00	109.63	6.76	
2025-01-09 08:39:51.20	109.62	6.77	
2025-01-09 08:39:51.41	109.60	6.79	
2025-01-09 08:39:51.61	109.59	6.80	
2025-01-09 08:39:51.82	109.57	6.82	
2025-01-09 08:39:52.02	109.55	6.83	
2025-01-09 08:39:52.23	109.54	6.84	
2025-01-09 08:39:52.43	109.52	6.86	
2025-01-09 08:39:52.63	109.51	6.87	
2025-01-09 08:39:52.84	109.49	6.89	
2025-01-09 08:39:53.04	109.47	6.90	
2025-01-09 08:39:53.25	109.46	6.91	
2025-01-09 08:39:53.45	109.44	6.93	
2025-01-09 08:39:53.65	109.43	6.94	
2025-01-09 08:39:53.86	109.41	6.95	
2025-01-09 08:39:54.07	109.39	6.97	
2025-01-09 08:39:54.27	109.38	6.98	
2025-01-09 08:39:54.47	109.36	7.00	
2025-01-09 08:39:54.68	109.34	7.01	
2025-01-09 08:39:54.89	109.33	7.02	
2025-01-09 08:39:55.09	109.31	7.04	
2025-01-09 08:39:55.29	109.29	7.05	
2025-01-09 08:39:55.50	109.28	7.06	
2025-01-09 08:39:55.70	109.26	7.08	
2025-01-09 08:39:55.91	109.25	7.09	
2025-01-09 08:39:56.11	109.23	7.11	
2025-01-09 08:39:56.32	109.21	7.12	
2025-01-09 08:39:56.52	109.20	7.13	
2025-01-09 08:39:56.73	109.18	7.15	
2025-01-09 08:39:56.93	109.16	7.16	
2025-01-09 08:39:57.14	109.15	7.18	
2025-01-09 08:39:57.34	109.13	7.19	
2025-01-09 08:39:57.55	109.11	7.20	
2025-01-09 08:39:57.76	109.10	7.22	
2025-01-09 08:39:57.96	109.08	7.23	
2025-01-09 08:39:58.17	109.06	7.25	
2025-01-09 08:39:58.37	109.05	7.26	
2025-01-09 08:39:58.57	109.03	7.27	
2025-01-09 08:39:58.78	109.01	7.29	
2025-01-09 08:39:58.99	109.00	7.30	
2025-01-09 08:39:59.19	108.98	7.32	
2025-01-09 08:39:59.39	108.96	7.33	
2025-01-09 08:39:59.61	108.95	7.34	
2025-01-09 08:39:59.81	108.93	7.36	
2025-01-09 08:40:00.02	108.91	7.37	
2025-01-09 08:40:00.22	108.90	7.39	
2025-01-09 08:40:00.43	108.88	7.40	
2025-01-09 08:40:00.63	108.86	7.41	
2025-01-09 08:40:00.84	108.85	7.43	
2025-01-09 08:40:01.04	108.83	7.44	
2025-01-09 08:40:01.25	108.81	7.46	
2025-01-09 08:40:01.45	108.80	7.47	
2025-01-09 08:40:01.66	108.78	7.48	
2025-01-09 08:40:01.86	108.76	7.50	
2025-01-09 08:40:02.07	108.75	7.51	
2025-01-09 08:40:02.28	108.73	7.53	
2025-01-09 08:40:02.48	108.71	7.54	
2025-01-09 08:40:02.69	108.69	7.55	
2025-01-09 08:40:02.89	108.68	7.57	
2025-01-09 08:40:03.10	108.66	7.58	
2025-01-09 08:40:03.30	108.64	7.60	
2025-01-09 08:40:03.51	108.63	7.61	
2025-01-09 08:40:03.71	108.61	7.62	
2025-01-09 08:40:03.92	108.59	7.64	
2025-01-09 08:40:04.12	108.58	7.65	
2025-01-09 08:40:04.33	108.56	7.67	
2025-01-09 08:40:04.53	108.54	7.68	
2025-01-09 08:40:04.74	108.52	7.70	
2025-01-09 08:40:04.94	108.51	7.71	
2025-01-09 08:40:05.14	108.49	7.72	
2025-01-09 08:40:05.35	108.47	7.74	
2025-01-09 08:40:05.56	108.46	7.75	
2025-01-09 08:40:05.76	108.44	7.77	
2025-01-09 08:40:05.97	108.42	7.78	
2025-01-09 08:40:06.17	108.40	7.79	
2025-01-09 08:40:06.38	108.39	7.81	
2025-01-09 08:40:06.58	108.37	7.82	
2025-01-09 08:40:06.79	108.35	7.84	
2025-01-09 08:40:06.99	108.34	7.85	
2025-01-09 08:40:07.20	108.32	7.86	
2025-01-09 08:40:07.40	108.30	7.88	
2025-01-09 08:40:07.60	108.28	7.89	
2025-01-09 08:40:07.81	108.27	7.91	
2025-01-09 08:40:08.02	108.25	7.92	
2025-01-09 08:40:08.22	108.23	7.94	
2025-01-09 08:40:08.42	108.21	7.95	
2025-01-09 08:40:08.63	108.20	7.96	
2025-01-09 08:40:08.83	108.18	7.98	
2025-01-09 08:40:09.04	108.16	7.99	
2025-01-09 08:40:09.24	108.15	8.01	
2025-01-09 08:40:09.45	108.13	8.02	
2025-01-09 08:40:09.65	108.11	8.03	
2025-01-09 08:40:09.86	108.09	8.05	
2025-01-09 08:40:10.06	108.07	8.06	
2025-01-09 08:40:10.28	108.06	8.08	
2025-01-09 08:40:10.49	108.04	8.09	
2025-01-09 08:40:10.69	108.02	8.11	
2025-01-09 08:40:10.90	108.00	8.12	
2025-01-09 08:40:11.10	107.99	8.14	
2025-01-09 08:40:11.31	107.97	8.15	
2025-01-09 08:40:11.51	107.95	8.16	
2025-01-09 08:40:11.72	107.93	8.18	
2025-01-09 08:40:11.92	107.92	8.19	
2025-01-09 08:40:12.13	107.90	8.21	
2025-01-09 08:40:12.33	107.88	8.22	
2025-01-09 08:40:12.54	107.86	8.24	
2025-01-09 08:40:12.74	107.84	8.25	
2025-01-09 08:40:12.95	107.83	8.26	
2025-01-09 08:40:13.15	107.81	8.28	
2025-01-09 08:40:13.36	107.79	8.29	
2025-01-09 08:40:13.56	107.77	8.31	
2025-01-09 08:40:13.77	107.75	8.32	
2025-01-09 08:40:13.97	107.74	8.34	
2025-01-09 08:40:14.18	107.72	8.35	
2025-01-09 08:40:14.39	107.70	8.37	
2025-01-09 08:40:14.59	107.68	8.38	
2025-01-09 08:40:14.79	107.67	8.39	
2025-01-09 08:40:15.00	107.65	8.41	
2025-01-09 08:40:15.21	107.63	8.42	
2025-01-09 08:40:15.41	107.61	8.44	
2025-01-09 08:40:15.63	107.59	8.45	
2025-01-09 08:40:15.83	107.57	8.47	
2025-01-09 08:40:16.04	107.56	8.48	
2025-01-09 08:40:16.25	107.54	8.50	
2025-01-09 08:40:16.45	107.52	8.51	
2025-01-09 08:40:16.65	107.50	8.52	
2025-01-09 08:40:16.86	107.48	8.54	
2025-01-09 08:40:17.06	107.47	8.55	
2025-01-09 08:40:17.27	107.45	8.57	
2025-01-09 08:40:17.48	107.43	8.58	
2025-01-09 08:40:17.68	107.41	8.60	
2025-01-09 08:40:17.89	107.39	8.61	
2025-01-09 08:40:18.09	107.37	8.63	
2025-01-09 08:40:18.30	107.36	8.64	
2025-01-09 08:40:18.50	107.34	8.65	
2025-01-09 08:40:18.71	107.32	8.67	
2025-01-09 08:40:18.91	107.30	8.68	
2025-01-09 08:40:19.12	107.28	8.70	
2025-01-09 08:40:19.33	107.26	8.71	
2025-01-09 08:40:19.53	107.25	8.73	
2025-01-09 08:40:19.74	107.23	8.74	
2025-01-09 08:40:19.94	107.21	8.76	
2025-01-09 08:40:20.15	107.19	8.77	
2025-01-09 08:40:20.35	107.17	8.79	
2025-01-09 08:40:20.56	107.15	8.80	
2025-01-09 08:40:20.76	107.13	8.81	
2025-01-09 08:40:20.97	107.12	8.83	
2025-01-09 08:40:21.17	107.10	8.84	
2025-01-09 08:40:21.38	107.08	8.86	
2025-01-09 08:40:21.59	107.06	8.87	
2025-01-09 08:40:21.79	107.04	8.89	
2025-01-09 08:40:22.00	107.02	8.90	
2025-01-09 08:40:22.20	107.00	8.92	
2025-01-09 08:40:22.41	106.98	8.93	
2025-01-09 08:40:22.61	106.97	8.95	
2025-01-09 08:40:22.82	106.95	8.96	
2025-01-09 08:40:23.02	106.93	8.98	
2025-01-09 08:40:23.22	106.91	8.99	
2025-01-09 08:40:23.43	106.89	9.00	
2025-01-09 08:40:23.64	106.87	9.02	
2025-01-09 08:40:23.84	106.85	9.03	
2025-01-09 08:40:24.04	106.84	9.05	
2025-01-09 08:40:24.25	106.82	9.06	
2025-01-09 08:40:24.45	106.80	9.08	
2025-01-09 08:40:24.66	106.78	9.09	
2025-01-09 08:40:24.87	106.76	9.11	
2025-01-09 08:40:25.07	106.74	9.12	
2025-01-09 08:40:25.28	106.72	9.14	
2025-01-09 08:40:25.48	106.70	9.15	
2025-01-09 08:40:25.69	106.68	9.17	
2025-01-09 08:40:25.89	106.67	9.18	
2025-01-09 08:40:26.10	106.65	9.20	
2025-01-09 08:40:26.30	106.63	9.21	
2025-01-09 08:40:26.51	106.61	9.22	
2025-01-09 08:40:26.71	106.59	9.24	
2025-01-09 08:40:26.92	106.57	9.25	
2025-01-09 08:40:27.12	106.55	9.27	
2025-01-09 08:40:27.33	106.53	9.28	
2025-01-09 08:40:27.53	106.51	9.30	
2025-01-09 08:40:27.74	106.49	9.31	
2025-01-09 08:40:27.95	106.47	9.33	
2025-01-09 08:40:28.15	106.45	9.34	
2025-01-09 08:40:28.35	106.44	9.36	
2025-01-09 08:40:28.56	106.42	9.37	
2025-01-09 08:40:28.76	106.40	9.39	
2025-01-09 08:40:28.97	106.38	9.40	
2025-01-09 08:40:29.17	106.36	9.42	
2025-01-09 08:40:29.38	106.34	9.43	
2025-01-09 08:40:29.58	106.32	9.45	
2025-01-09 08:40:29.79	106.30	9.46	
2025-01-09 08:40:29.99	106.28	9.47	
2025-01-09 08:40:30.20	106.26	9.49	
2025-01-09 08:40:30.41	106.24	9.51	
2025-01-09 08:40:30.61	106.22	9.52	
2025-01-09 08:40:30.82	106.20	9.53	
2025-01-09 08:40:31.02	106.18	9.55	
2025-01-09 08:40:31.23	106.16	9.56	
2025-01-09 08:40:31.43	106.15	9.58	
2025-01-09 08:40:31.64	106.13	9.59	
2025-01-09 08:40:31.84	106.11	9.61	
2025-01-09 08:40:32.05	106.09	9.62	
2025-01-09 08:40:32.26	106.07	9.64	
2025-01-09 08:40:32.46	106.05	9.65	
2025-01-09 08:40:32.66	106.03	9.67	
2025-01-09 08:40:32.87	106.01	9.68	
2025-01-09 08:40:33.08	105.99	9.70	
2025-01-09 08:40:33.28	105.97	9.71	
2025-01-09 08:40:33.49	105.95	9.73	
2025-01-09 08:40:33.69	105.93	9.74	
2025-01-09 08:40:33.89	105.91	9.76	
2025-01-09 08:40:34.10	105.89	9.77	
2025-01-09 08:40:34.31	105.87	9.79	
2025-01-09 08:40:34.51	105.85	9.80	
2025-01-09 08:40:34.72	105.83	9.82	
2025-01-09 08:40:34.92	105.81	9.83	
2025-01-09 08:40:35.13	105.79	9.85	
2025-01-09 08:40:35.33	105.77	9.86	
2025-01-09 08:40:35.54	105.75	9.88	
2025-01-09 08:40:35.74	105.73	9.89	
2025-01-09 08:40:35.96	105.71	9.91	
2025-01-09 08:40:36.17	105.69	9.92	
2025-01-09 08:40:36.37	105.67	9.94	
2025-01-09 08:40:36.58	105.65	9.95	
2025-01-09 08:40:36.78	105.63	9.97	
2025-01-09 08:40:36.99	105.61	9.98	
2025-01-09 08:40:37.19	105.59	10.00	
2025-01-09 08:40:37.40	105.57	10.01	
2025-01-09 08:40:37.61	105.55	10.03	
2025-01-09 08:40:37.81	105.53	10.04	
2025-01-09 08:40:38.01	105.51	10.06	
2025-01-09 08:40:38.22	105.49	10.07	
2025-01-09 08:40:38.42	105.47	10.09	
2025-01-09 08:40:38.63	105.45	10.10	
2025-01-09 08:40:38.84	105.43	10.12	
2025-01-09 08:40:39.04	105.41	10.13	
2025-01-09 08:40:39.25	105.39	10.15	
2025-01-09 08:40:39.45	105.37	10.16	
2025-01-09 08:40:39.66	105.34	10.18	
2025-01-09 08:40:39.87	105.32	10.19	
2025-01-09 08:40:40.07	105.30	10.21	
2025-01-09 08:40:40.27	105.28	10.22	
2025-01-09 08:40:40.48	105.26	10.24	
2025-01-09 08:40:40.69	105.24	10.25	
2025-01-09 08:40:40.89	105.22	10.27	
2025-01-09 08:40:41.09	105.20	10.28	
2025-01-09 08:40:41.30	105.18	10.30	
2025-01-09 08:40:41.50	105.16	10.31	
2025-01-09 08:40:41.71	105.14	10.33	
2025-01-09 08:40:41.91	105.12	10.34	
2025-01-09 08:40:42.12	105.10	10.36	
2025-01-09 08:40:42.32	105.08	10.37	
2025-01-09 08:40:42.53	105.06	10.39	
2025-01-09 08:40:42.73	105.04	10.40	
2025-01-09 08:40:42.94	105.02	10.42	
2025-01-09 08:40:43.14	105.00	10.43	
2025-01-09 08:40:43.35	104.97	10.45	
2025-01-09 08:40:43.55	104.95	10.47	
2025-01-09 08:40:43.76	104.93	10.48	
2025-01-09 08:40:43.96	104.91	10.50	
2025-01-09 08:40:44.17	104.89	10.51	
2025-01-09 08:40:44.37	104.87	10.53	
2025-01-09 08:40:44.58	104.85	10.54	
2025-01-09 08:40:44.79	104.83	10.56	
2025-01-09 08:40:44.99	104.81	10.57	
2025-01-09 08:40:45.19	104.79	10.59	
2025-01-09 08:40:45.40	104.77	10.60	
2025-01-09 08:40:45.60	104.75	10.62	
2025-01-09 08:40:45.81	104.72	10.63	
2025-01-09 08:40:46.01	104.70	10.65	
2025-01-09 08:40:46.22	104.68	10.66	
2025-01-09 08:40:46.43	104.66	10.68	
2025-01-09 08:40:46.63	104.64	10.69	
2025-01-09 08:40:46.83	104.62	10.71	
2025-01-09 08:40:47.04	104.60	10.72	
2025-01-09 08:40:47.24	104.58	10.74	
2025-01-09 08:40:47.45	104.56	10.75	
2025-01-09 08:40:47.65	104.53	10.77	
2025-01-09 08:40:47.86	104.51	10.79	
2025-01-09 08:40:48.06	104.49	10.80	
2025-01-09 08:40:48.27	104.47	10.82	
2025-01-09 08:40:48.48	104.45	10.83	
2025-01-09 08:40:48.68	104.43	10.85	
2025-01-09 08:40:48.89	104.41	10.86	
2025-01-09 08:40:49.09	104.38	10.88	
2025-01-09 08:40:49.30	104.36	10.89	
2025-01-09 08:40:49.50	104.34	10.91	
2025-01-09 08:40:49.71	104.32	10.92	
2025-01-09 08:40:49.91	104.30	10.94	
2025-01-09 08:40:50.12	104.28	10.95	
2025-01-09 08:40:50.33	104.25	10.97	
2025-01-09 08:40:50.53	104.23	10.98	
2025-01-09 08:40:50.73	104.21	11.00	
2025-01-09 08:40:50.94	104.19	11.02	
2025-01-09 08:40:51.15	104.17	11.03	
2025-01-09 08:40:51.35	104.15	11.05	
2025-01-09 08:40:51.56	104.13	11.06	
2025-01-09 08:40:51.76	104.10	11.08	
2025-01-09 08:40:51.96	104.08	11.09	
2025-01-09 08:40:52.17	104.06	11.11	
2025-01-09 08:40:52.38	104.04	11.12	
2025-01-09 08:40:52.58	104.02	11.14	
2025-01-09 08:40:52.79	104.00	11.15	
2025-01-09 08:40:52.99	103.97	11.17	
2025-01-09 08:40:53.20	103.95	11.19	
2025-01-09 08:40:53.40	103.93	11.20	
2025-01-09 08:40:53.61	103.91	11.22	
2025-01-09 08:40:53.81	103.89	11.23	
2025-01-09 08:40:54.01	103.86	11.25	
2025-01-09 08:40:54.22	103.84	11.26	
2025-01-09 08:40:54.43	103.82	11.28	
2025-01-09 08:40:54.63	103.80	11.29	
2025-01-09 08:40:54.84	103.78	11.31	
2025-01-09 08:40:55.04	103.75	11.32	
2025-01-09 08:40:55.25	103.73	11.34	
2025-01-09 08:40:55.45	103.71	11.35	
2025-01-09 08:40:55.66	103.69	11.37	
2025-01-09 08:40:55.86	103.67	11.39	
2025-01-09 08:40:56.07	103.64	11.40	
2025-01-09 08:40:56.27	103.62	11.42	
2025-01-09 08:40:56.48	103.60	11.43	
2025-01-09 08:40:56.68	103.58	11.45	
2025-01-09 08:40:56.89	103.55	11.46	
2025-01-09 08:40:57.09	103.53	11.48	
2025-01-09 08:40:57.30	103.51	11.49	
2025-01-09 08:40:57.50	103.49	11.51	
2025-01-09 08:40:57.71	103.46	11.53	
2025-01-09 08:40:57.92	103.44	11.54	
2025-01-09 08:40:58.12	103.42	11.56	
2025-01-09 08:40:58.32	103.40	11.57	
2025-01-09 08:40:58.53	103.38	11.59	
2025-01-09 08:40:58.74	103.35	11.60	
2025-01-09 08:40:58.94	103.33	11.62	
2025-01-09 08:40:59.15	103.31	11.64	
2025-01-09 08:40:59.35	103.29	11.65	
2025-01-09 08:40:59.55	103.26	11.67	
2025-01-09 08:40:59.76	103.24	11.68	
2025-01-09 08:40:59.98	103.22	11.70	
2025-01-09 08:41:00.19	103.19	11.71	
2025-01-09 08:41:00.40	103.17	11.73	
2025-01-09 08:41:00.60	103.15	11.75	
2025-01-09 08:41:00.81	103.12	11.76	
2025-01-09 08:41:01.01	103.10	11.78	
2025-01-09 08:41:01.22	103.08	11.79	
2025-01-09 08:41:01.42	103.06	11.81	
2025-01-09 08:41:01.63	103.03	11.82	
2025-01-09 08:41:01.84	103.01	11.84	
2025-01-09 08:41:02.04	102.99	11.86	
2025-01-09 08:41:02.25	102.96	11.87	
2025-01-09 08:41:02.45	102.94	11.89	
2025-01-09 08:41:02.66	102.92	11.90	
2025-01-09 08:41:02.86	102.90	11.92	
2025-01-09 08:41:03.07	102.87	11.93	
2025-01-09 08:41:03.27	102.85	11.95	
2025-01-09 08:41:03.48	102.83	11.97	
2025-01-09 08:41:03.68	102.80	11.98	
2025-01-09 08:41:03.89	102.78	12.00	
2025-01-09 08:41:04.09	102.76	12.01	
2025-01-09 08:41:04.30	102.73	12.03	
2025-01-09 08:41:04.51	102.71	12.04	
2025-01-09 08:41:04.71	102.69	12.06	
2025-01-09 08:41:04.92	102.66	12.08	
2025-01-09 08:41:05.12	102.64	12.09	
2025-01-09 08:41:05.33	102.62	12.11	
2025-01-09 08:41:05.53	102.59	12.12	
2025-01-09 08:41:05.74	102.57	12.14	
2025-01-09 08:41:05.94	102.55	12.15	
2025-01-09 08:41:06.15	102.52	12.17	
2025-01-09 08:41:06.35	102.50	12.19	
2025-01-09 08:41:06.56	102.48	12.20	
2025-01-09 08:41:06.77	102.45	12.22	
2025-01-09 08:41:06.98	102.43	12.23	
2025-01-09 08:41:07.18	102.41	12.25	
2025-01-09 08:41:07.39	102.38	12.27	
2025-01-09 08:41:07.59	102.36	12.28	
2025-01-09 08:41:07.80	102.33	12.30	
2025-01-09 08:41:08.01	102.31	12.31	
2025-01-09 08:41:08.22	102.29	12.33	
2025-01-09 08:41:08.42	102.26	12.35	
2025-01-09 08:41:08.63	102.24	12.36	
2025-01-09 08:41:08.84	102.21	12.38	
2025-01-09 08:41:09.04	102.19	12.39	
2025-01-09 08:41:09.24	102.17	12.41	
2025-01-09 08:41:09.45	102.14	12.43	
2025-01-09 08:41:09.66	102.12	12.44	
2025-01-09 08:41:09.86	102.10	12.46	
2025-01-09 08:41:10.06	102.07	12.47	
2025-01-09 08:41:10.27	102.05	12.49	
2025-01-09 08:41:10.48	102.02	12.51	
2025-01-09 08:41:10.68	102.00	12.52	
2025-01-09 08:41:10.89	101.98	12.54	
2025-01-09 08:41:11.09	101.95	12.55	
2025-01-09 08:41:11.30	101.93	12.57	
2025-01-09 08:41:11.50	101.90	12.58	
2025-01-09 08:41:11.71	101.88	12.60	
2025-01-09 08:41:11.91	101.86	12.62	
2025-01-09 08:41:12.12	101.83	12.63	
2025-01-09 08:41:12.32	101.81	12.65	
2025-01-09 08:41:12.53	101.78	12.66	
2025-01-09 08:41:12.74	101.76	12.68	
2025-01-09 08:41:12.94	101.73	12.70	
2025-01-09 08:41:13.15	101.71	12.71	
2025-01-09 08:41:13.35	101.69	12.73	
2025-01-09 08:41:13.55	101.66	12.74	
2025-01-09 08:41:13.76	101.64	12.76	
2025-01-09 08:41:13.96	101.61	12.78	
2025-01-09 08:41:14.17	101.59	12.79	
2025-01-09 08:41:14.37	101.56	12.81	
2025-01-09 08:41:14.58	101.54	12.82	
2025-01-09 08:41:14.78	101.51	12.84	
2025-01-09 08:41:14.99	101.49	12.86	
2025-01-09 08:41:15.20	101.46	12.87	
2025-01-09 08:41:15.40	101.44	12.89	
2025-01-09 08:41:15.61	101.42	12.90	
2025-01-09 08:41:15.81	101.39	12.92	
2025-01-09 08:41:16.02	101.37	12.94	
2025-01-09 08:41:16.22	101.34	12.95	
2025-01-09 08:41:16.43	101.32	12.97	
2025-01-09 08:41:16.63	101.29	12.98	
2025-01-09 08:41:16.84	101.27	13.00	
2025-01-09 08:41:17.05	101.24	13.02	
2025-01-09 08:41:17.25	101.22	13.03	
2025-01-09 08:41:17.45	101.19	13.05	
2025-01-09 08:41:17.66	101.17	13.07	
2025-01-09 08:41:17.87	101.14	13.08	
2025-01-09 08:41:18.07	101.12	13.10	
2025-01-09 08:41:18.28	101.09	13.11	
2025-01-09 08:41:18.48	101.07	13.13	
2025-01-09 08:41:18.69	101.04	13.15	
2025-01-09 08:41:18.89	101.02	13.16	
2025-01-09 08:41:19.10	100.99	13.18	
2025-01-09 08:41:19.30	100.97	13.19	
2025-01-09 08:41:19.51	100.94	13.21	
2025-01-09 08:41:19.72	100.92	13.23	
2025-01-09 08:41:19.93	100.89	13.24	
2025-01-09 08:41:20.13	100.87	13.26	
2025-01-09 08:41:20.34	100.84	13.28	
2025-01-09 08:41:20.54	100.82	13.29	
2025-01-09 08:41:20.76	100.79	13.31	
2025-01-09 08:41:20.96	100.76	13.32	
2025-01-09 08:41:21.17	100.74	13.34	
2025-01-09 08:41:21.37	100.71	13.36	
2025-01-09 08:41:21.58	100.69	13.37	
2025-01-09 08:41:21.79	100.66	13.39	
2025-01-09 08:41:21.99	100.64	13.41	
2025-01-09 08:41:22.20	100.61	13.42	
2025-01-09 08:41:22.40	100.59	13.44	
2025-01-09 08:41:22.61	100.56	13.45	
2025-01-09 08:41:22.81	100.53	13.47	
2025-01-09 08:41:23.02	100.51	13.49	
2025-01-09 08:41:23.23	100.48	13.50	
2025-01-09 08:41:23.43	100.46	13.52	
2025-01-09 08:41:23.64	100.43	13.54	
2025-01-09 08:41:23.84	100.40	13.55	
2025-01-09 08:41:24.05	100.38	13.57	
2025-01-09 08:41:24.25	100.35	13.58	
2025-01-09 08:41:24.45	100.33	13.60	
2025-01-09 08:41:24.66	100.30	13.62	
2025-01-09 08:41:24.87	100.28	13.63	
2025-01-09 08:41:25.07	100.25	13.65	
2025-01-09 08:41:25.28	100.22	13.67	
2025-01-09 08:41:25.48	100.20	13.68	
2025-01-09 08:41:25.69	100.17	13.70	
2025-01-09 08:41:25.89	100.15	13.71	
2025-01-09 08:41:26.10	100.12	13.73	
2025-01-09 08:41:26.30	100.09	13.75	
2025-01-09 08:41:26.51	100.07	13.76	
2025-01-09 08:41:26.71	100.04	13.78	
2025-01-09 08:41:26.92	100.02	13.80	
2025-01-09 08:41:27.12	99.99	13.81	
2025-01-09 08:41:27.33	99.96	13.83	
2025-01-09 08:41:27.53	99.94	13.85	
2025-01-09 08:41:27.74	99.91	13.86	
2025-01-09 08:41:27.95	99.88	13.88	
2025-01-09 08:41:28.15	99.86	13.89	
2025-01-09 08:41:28.36	99.83	13.91	
2025-01-09 08:41:28.56	99.80	13.93	
2025-01-09 08:41:28.77	99.78	13.94	
2025-01-09 08:41:28.97	99.75	13.96	
2025-01-09 08:41:29.17	99.73	13.98	
2025-01-09 08:41:29.38	99.70	13.99	
2025-01-09 08:41:29.59	99.67	14.01	
2025-01-09 08:41:29.79	99.65	14.03	
2025-01-09 08:41:30.00	99.62	14.04	
2025-01-09 08:41:30.20	99.59	14.06	
2025-01-09 08:41:30.40	99.57	14.07	
2025-01-09 08:41:30.61	99.54	14.09	
2025-01-09 08:41:30.81	99.51	14.11	
2025-01-09 08:41:31.02	99.49	14.12	
2025-01-09 08:41:31.22	99.46	14.14	
2025-01-09 08:41:31.44	99.43	14.16	
2025-01-09 08:41:31.65	99.40	14.17	
2025-01-09 08:41:31.85	99.38	14.19	
2025-01-09 08:41:32.05	99.35	14.21	
2025-01-09 08:41:32.26	99.32	14.22	
2025-01-09 08:41:32.46	99.30	14.24	
2025-01-09 08:41:32.67	99.27	14.26	
2025-01-09 08:41:32.87	99.24	14.27	
2025-01-09 08:41:33.08	99.22	14.29	
2025-01-09 08:41:33.29	99.19	14.31	
2025-01-09 08:41:33.49	99.16	14.32	
2025-01-09 08:41:33.69	99.13	14.34	
2025-01-09 08:41:33.90	99.11	14.35	
2025-01-09 08:41:34.10	99.08	14.37	
2025-01-09 08:41:34.31	99.05	14.39	
2025-01-09 08:41:34.51	99.03	14.40	
2025-01-09 08:41:34.72	99.00	14.42	
2025-01-09 08:41:34.92	98.97	14.44	
2025-01-09 08:41:35.13	98.94	14.45	
2025-01-09 08:41:35.33	98.92	14.47	
2025-01-09 08:41:35.54	98.89	14.49	
2025-01-09 08:41:35.74	98.86	14.50	
2025-01-09 08:41:35.94	98.83	14.52	
2025-01-09 08:41:36.15	98.81	14.54	
2025-01-09 08:41:36.36	98.78	14.55	
2025-01-09 08:41:36.56	98.75	14.57	
2025-01-09 08:41:36.78	98.72	14.59	
2025-01-09 08:41:36.98	98.69	14.60	
2025-01-09 08:41:37.19	98.67	14.62	
2025-01-09 08:41:37.39	98.64	14.64	
2025-01-09 08:41:37.60	98.61	14.65	
2025-01-09 08:41:37.81	98.58	14.67	
2025-01-09 08:41:38.01	98.56	14.69	
2025-01-09 08:41:38.22	98.53	14.70	
2025-01-09 08:41:38.42	98.50	14.72	
2025-01-09 08:41:38.63	98.47	14.74	
2025-01-09 08:41:38.83	98.44	14.75	
2025-01-09 08:41:39.04	98.42	14.77	
2025-01-09 08:41:39.24	98.39	14.79	
2025-01-09 08:41:39.45	98.36	14.80	
2025-01-09 08:41:39.65	98.33	14.82	
2025-01-09 08:41:39.86	98.30	14.84	
2025-01-09 08:41:40.06	98.28	14.85	
2025-01-09 08:41:40.27	98.25	14.87	
2025-01-09 08:41:40.47	98.22	14.88	
2025-01-09 08:41:40.68	98.19	14.90	
2025-01-09 08:41:40.88	98.16	14.92	
2025-01-09 08:41:41.08	98.14	14.93	
2025-01-09 08:41:41.29	98.11	14.95	
2025-01-09 08:41:41.50	98.08	14.97	
2025-01-09 08:41:41.70	98.05	14.98	
2025-01-09 08:41:41.91	98.02	15.00	
2025-01-09 08:41:42.11	97.99	15.02	
2025-01-09 08:41:42.32	97.96	15.03	
2025-01-09 08:41:42.52	97.94	15.05	
2025-01-09 08:41:42.73	97.91	15.07	
2025-01-09 08:41:42.93	97.88	15.08	
2025-01-09 08:41:43.13	97.85	15.10	
2025-01-09 08:41:43.34	97.82	15.12	
2025-01-09 08:41:43.54	97.79	15.13	
2025-01-09 08:41:43.75	97.76	15.15	
2025-01-09 08:41:43.95	97.74	15.17	
2025-01-09 08:41:44.16	97.71	15.18	
2025-01-09 08:41:44.36	97.68	15.20	
2025-01-09 08:41:44.57	97.65	15.22	
2025-01-09 08:41:44.77	97.62	15.23	
2025-01-09 08:41:44.98	97.59	15.25	
2025-01-09 08:41:45.19	97.56	15.27	
2025-01-09 08:41:45.39	97.53	15.28	
2025-01-09 08:41:45.59	97.50	15.30	
2025-01-09 08:41:45.80	97.48	15.32	
2025-01-09 08:41:46.00	97.45	15.33	
2025-01-09 08:41:46.21	97.42	15.35	
2025-01-09 08:41:46.41	97.39	15.37	
2025-01-09 08:41:46.62	97.36	15.39	
2025-01-09 08:41:46.82	97.33	15.40	
2025-01-09 08:41:47.03	97.30	15.42	
2025-01-09 08:41:47.24	97.27	15.44	
2025-01-09 08:41:47.44	97.24	15.45	
2025-01-09 08:41:47.64	97.21	15.47	
2025-01-09 08:41:47.85	97.18	15.49	
2025-01-09 08:41:48.05	97.15	15.50	
2025-01-09 08:41:48.26	97.12	15.52	
2025-01-09 08:41:48.46	97.10	15.54	
2025-01-09 08:41:48.67	97.07	15.55	
2025-01-09 08:41:48.87	97.04	15.57	
2025-01-09 08:41:49.08	97.01	15.59	
2025-01-09 08:41:49.28	96.98	15.60	
2025-01-09 08:41:49.49	96.95	15.62	
2025-01-09 08:41:49.69	96.92	15.64	
2025-01-09 08:41:49.90	96.89	15.65	
2025-01-09 08:41:50.10	96.86	15.67	
2025-01-09 08:41:50.31	96.83	15.69	
2025-01-09 08:41:50.51	96.80	15.70	
2025-01-09 08:41:50.73	96.77	15.72	
2025-01-09 08:41:50.94	96.74	15.74	
2025-01-09 08:41:51.14	96.71	15.76	
2025-01-09 08:41:51.35	96.68	15.77	
2025-01-09 08:41:51.55	96.65	15.79	
2025-01-09 08:41:51.76	96.62	15.81	
2025-01-09 08:41:51.96	96.59	15.82	
2025-01-09 08:41:52.17	96.56	15.84	
2025-01-09 08:41:52.37	96.53	15.86	
2025-01-09 08:41:52.58	96.50	15.87	
2025-01-09 08:41:52.78	96.47	15.89	
2025-01-09 08:41:52.98	96.44	15.91	
2025-01-09 08:41:53.19	96.41	15.92	
2025-01-09 08:41:53.40	96.38	15.94	
2025-01-09 08:41:53.60	96.35	15.96	
2025-01-09 08:41:53.82	96.31	15.98	
2025-01-09 08:41:54.03	96.28	15.99	
2025-01-09 08:41:54.23	96.25	16.01	
2025-01-09 08:41:54.44	96.22	16.03	
2025-01-09 08:41:54.64	96.19	16.04	
2025-01-09 08:41:54.85	96.16	16.06	
2025-01-09 08:41:55.05	96.13	16.08	
2025-01-09 08:41:55.26	96.10	16.09	
2025-01-09 08:41:55.46	96.07	16.11	
2025-01-09 08:41:55.67	96.04	16.13	
2025-01-09 08:41:55.87	96.01	16.14	
2025-01-09 08:41:56.08	95.98	16.16	
2025-01-09 08:41:56.28	95.95	16.18	
2025-01-09 08:41:56.48	95.92	16.19	
2025-01-09 08:41:56.69	95.88	16.21	
2025-01-09 08:41:56.90	95.85	16.23	
2025-01-09 08:41:57.11	95.82	16.25	
2025-01-09 08:41:57.32	95.79	16.26	
2025-01-09 08:41:57.52	95.76	16.28	
2025-01-09 08:41:57.73	95.73	16.30	
2025-01-09 08:41:57.93	95.70	16.31	
2025-01-09 08:41:58.15	95.66	16.33	
2025-01-09 08:41:58.36	95.63	16.35	
2025-01-09 08:41:58.56	95.60	16.37	
2025-01-09 08:41:58.77	95.57	16.38	
2025-01-09 08:41:58.97	95.54	16.40	
2025-01-09 08:41:59.18	95.51	16.42	
2025-01-09 08:41:59.38	95.48	16.43	
2025-01-09 08:41:59.59	95.44	16.45	
2025-01-09 08:41:59.79	95.41	16.47	
2025-01-09 08:42:00.00	95.38	16.49	
2025-01-09 08:42:00.22	95.35	16.50	
2025-01-09 08:42:00.42	95.32	16.52	
2025-01-09 08:42:00.63	95.29	16.54	
2025-01-09 08:42:00.83	95.25	16.55	
2025-01-09 08:42:01.04	95.22	16.57	
2025-01-09 08:42:01.24	95.19	16.59	
2025-01-09 08:42:01.45	95.16	16.61	
2025-01-09 08:42:01.65	95.13	16.62	
2025-01-09 08:42:01.86	95.10	16.64	
2025-01-09 08:42:02.07	95.06	16.66	
2025-01-09 08:42:02.27	95.03	16.67	
2025-01-09 08:42:02.47	95.00	16.69	
2025-01-09 08:42:02.68	94.97	16.71	
2025-01-09 08:42:02.88	94.94	16.72	
2025-01-09 08:42:03.09	94.90	16.74	
2025-01-09 08:42:03.29	94.87	16.76	
2025-01-09 08:42:03.50	94.84	16.78	
2025-01-09 08:42:03.70	94.81	16.79	
2025-01-09 08:42:03.91	94.78	16.81	
2025-01-09 08:42:04.11	94.74	16.83	
2025-01-09 08:42:04.32	94.71	16.84	
2025-01-09 08:42:04.52	94.68	16.86	
2025-01-09 08:42:04.73	94.65	16.88	
2025-01-09 08:42:04.93	94.62	16.89	
2025-01-09 08:42:05.14	94.58	16.91	
2025-01-09 08:42:05.35	94.55	16.93	
2025-01-09 08:42:05.55	94.52	16.95	
2025-01-09 08:42:05.75	94.49	16.96	
2025-01-09 08:42:05.96	94.45	16.98	
2025-01-09 08:42:06.16	94.42	17.00	
2025-01-09 08:42:06.37	94.39	17.01	
2025-01-09 08:42:06.57	94.36	17.03	
2025-01-09 08:42:06.78	94.32	17.05	
2025-01-09 08:42:06.98	94.29	17.06	
2025-01-09 08:42:07.19	94.26	17.08	
2025-01-09 08:42:07.40	94.22	17.10	
2025-01-09 08:42:07.60	94.19	17.12	
2025-01-09 08:42:07.80	94.16	17.13	
2025-01-09 08:42:08.01	94.13	17.15	
2025-01-09 08:42:08.21	94.09	17.17	
2025-01-09 08:42:08.42	94.06	17.18	
2025-01-09 08:42:08.63	94.03	17.20	
2025-01-09 08:42:08.84	93.99	17.22	
2025-01-09 08:42:09.05	93.96	17.24	
2025-01-09 08:42:09.26	93.92	17.25	
2025-01-09 08:42:09.46	93.89	17.27	
2025-01-09 08:42:09.67	93.86	17.29	
2025-01-09 08:42:09.87	93.83	17.31	
2025-01-09 08:42:10.08	93.79	17.32	
2025-01-09 08:42:10.28	93.76	17.34	
2025-01-09 08:42:10.49	93.73	17.36	
2025-01-09 08:42:10.69	93.69	17.37	
2025-01-09 08:42:10.89	93.66	17.39	
2025-01-09 08:42:11.10	93.63	17.41	
2025-01-09 08:42:11.30	93.59	17.42	
2025-01-09 08:42:11.51	93.56	17.44	
2025-01-09 08:42:11.71	93.53	17.46	
2025-01-09 08:42:11.92	93.49	17.48	
2025-01-09 08:42:12.12	93.46	17.49	
2025-01-09 08:42:12.33	93.43	17.51	
2025-01-09 08:42:12.54	93.39	17.53	
2025-01-09 08:42:12.74	93.36	17.54	
2025-01-09 08:42:12.95	93.32	17.56	
2025-01-09 08:42:13.15	93.29	17.58	
2025-01-09 08:42:13.36	93.26	17.60	
2025-01-09 08:42:13.56	93.22	17.61	
2025-01-09 08:42:13.76	93.19	17.63	
2025-01-09 08:42:13.97	93.15	17.65	
2025-01-09 08:42:14.19	93.12	17.67	
2025-01-09 08:42:14.39	93.08	17.68	
2025-01-09 08:42:14.60	93.05	17.70	
2025-01-09 08:42:14.80	93.02	17.72	
2025-01-09 08:42:15.01	92.98	17.73	
2025-01-09 08:42:15.21	92.95	17.75	
2025-01-09 08:42:15.42	92.91	17.77	
2025-01-09 08:42:15.62	92.88	17.79	
2025-01-09 08:42:15.83	92.84	17.80	
2025-01-09 08:42:16.03	92.81	17.82	
2025-01-09 08:42:16.24	92.78	17.84	
2025-01-09 08:42:16.44	92.74	17.85	
2025-01-09 08:42:16.65	92.71	17.87	
2025-01-09 08:42:16.85	92.67	17.89	
2025-01-09 08:42:17.06	92.64	17.91	
2025-01-09 08:42:17.26	92.60	17.92	
2025-01-09 08:42:17.47	92.57	17.94	
2025-01-09 08:42:17.67	92.53	17.96	
2025-01-09 08:42:17.88	92.50	17.97	
2025-01-09 08:42:18.08	92.47	17.99	
2025-01-09 08:42:18.29	92.43	18.01	
2025-01-09 08:42:18.49	92.40	18.03	
2025-01-09 08:42:18.70	92.36	18.04	
2025-01-09 08:42:18.90	92.33	18.06	
2025-01-09 08:42:19.11	92.29	18.08	
2025-01-09 08:42:19.31	92.26	18.09	
2025-01-09 08:42:19.52	92.22	18.11	
2025-01-09 08:42:19.72	92.19	18.13	
2025-01-09 08:42:19.92	92.15	18.14	
2025-01-09 08:42:20.13	92.12	18.16	
2025-01-09 08:42:20.33	92.08	18.18	
2025-01-09 08:42:20.53	92.05	18.20	
2025-01-09 08:42:20.74	92.01	18.21	
2025-01-09 08:42:20.95	91.97	18.23	
2025-01-09 08:42:21.15	91.94	18.25	
2025-01-09 08:42:21.36	91.90	18.27	
2025-01-09 08:42:21.56	91.87	18.28	
2025-01-09 08:42:21.76	91.83	18.30	
2025-01-09 08:42:21.97	91.80	18.32	
2025-01-09 08:42:22.18	91.76	18.33	
2025-01-09 08:42:22.38	91.73	18.35	
2025-01-09 08:42:22.58	91.69	18.37	
2025-01-09 08:42:22.79	91.66	18.38	
2025-01-09 08:42:22.99	91.62	18.40	
2025-01-09 08:42:23.20	91.58	18.42	
2025-01-09 08:42:23.40	91.55	18.44	
2025-01-09 08:42:23.61	91.51	18.45	
2025-01-09 08:42:23.81	91.48	18.47	
2025-01-09 08:42:24.02	91.44	18.49	
2025-01-09 08:42:24.22	91.41	18.50	
2025-01-09 08:42:24.43	91.37	18.52	
2025-01-09 08:42:24.64	91.33	18.54	
2025-01-09 08:42:24.84	91.30	18.56	
2025-01-09 08:42:25.04	91.26	18.57	
2025-01-09 08:42:25.25	91.22	18.59	
2025-01-09 08:42:25.45	91.19	18.61	
2025-01-09 08:42:25.67	91.15	18.63	
2025-01-09 08:42:25.89	91.11	18.64	
2025-01-09 08:42:26.09	91.08	18.66	
2025-01-09 08:42:26.30	91.04	18.68	
2025-01-09 08:42:26.50	91.00	18.70	
2025-01-09 08:42:26.71	90.97	18.71	
2025-01-09 08:42:26.91	90.93	18.73	
2025-01-09 08:42:27.12	90.89	18.75	
2025-01-09 08:42:27.32	90.86	18.76	
2025-01-09 08:42:27.53	90.82	18.78	
2025-01-09 08:42:27.73	90.78	18.80	
2025-01-09 08:42:27.93	90.75	18.82	
2025-01-09 08:42:28.14	90.71	18.83	
2025-01-09 08:42:28.35	90.67	18.85	
2025-01-09 08:42:28.55	90.64	18.87	
2025-01-09 08:42:28.76	90.60	18.88	
2025-01-09 08:42:28.97	90.56	18.90	
2025-01-09 08:42:29.17	90.53	18.92	
2025-01-09 08:42:29.38	90.49	18.94	
2025-01-09 08:42:29.58	90.45	18.95	
2025-01-09 08:42:29.79	90.41	18.97	
2025-01-09 08:42:29.99	90.38	18.99	
2025-01-09 08:42:30.21	90.34	19.01	
2025-01-09 08:42:30.41	90.30	19.02	
2025-01-09 08:42:30.62	90.26	19.04	
2025-01-09 08:42:30.83	90.22	19.06	
2025-01-09 08:42:31.03	90.19	19.07	
2025-01-09 08:42:31.23	90.15	19.09	
2025-01-09 08:42:31.44	90.11	19.11	
2025-01-09 08:42:31.64	90.08	19.13	
2025-01-09 08:42:31.85	90.04	19.14	
2025-01-09 08:42:32.06	90.00	19.16	
2025-01-09 08:42:32.26	89.96	19.18	
2025-01-09 08:42:32.46	89.93	19.19	
2025-01-09 08:42:32.67	89.89	19.21	
2025-01-09 08:42:32.88	89.85	19.23	
2025-01-09 08:42:33.08	89.81	19.25	
2025-01-09 08:42:33.29	89.77	19.26	
2025-01-09 08:42:33.49	89.74	19.28	
2025-01-09 08:42:33.69	89.70	19.30	
2025-01-09 08:42:33.90	89.66	19.31	
2025-01-09 08:42:34.10	89.62	19.33	
2025-01-09 08:42:34.31	89.58	19.35	
2025-01-09 08:42:34.51	89.55	19.37	
2025-01-09 08:42:34.72	89.51	19.38	
2025-01-09 08:42:34.93	89.47	19.40	
2025-01-09 08:42:35.13	89.43	19.42	
2025-01-09 08:42:35.34	89.39	19.43	
2025-01-09 08:42:35.54	89.36	19.45	
2025-01-09 08:42:35.75	89.32	19.47	
2025-01-09 08:42:35.95	89.28	19.49	
2025-01-09 08:42:36.16	89.24	19.50	
2025-01-09 08:42:36.36	89.20	19.52	
2025-01-09 08:42:36.58	89.16	19.54	
2025-01-09 08:42:36.78	89.12	19.56	
2025-01-09 08:42:36.99	89.08	19.57	
2025-01-09 08:42:37.19	89.05	19.59	
2025-01-09 08:42:37.40	89.01	19.61	
2025-01-09 08:42:37.60	88.97	19.62	
2025-01-09 08:42:37.80	88.93	19.64	
2025-01-09 08:42:38.01	88.89	19.66	
2025-01-09 08:42:38.22	88.85	19.68	
2025-01-09 08:42:38.42	88.81	19.69	
2025-01-09 08:42:38.63	88.77	19.71	
2025-01-09 08:42:38.83	88.74	19.73	
2025-01-09 08:42:39.04	88.70	19.74	
2025-01-09 08:42:39.24	88.66	19.76	
2025-01-09 08:42:39.45	88.62	19.78	
2025-01-09 08:42:39.65	88.58	19.79	
2025-01-09 08:42:39.86	88.54	19.81	
2025-01-09 08:42:40.06	88.50	19.83	
2025-01-09 08:42:40.27	88.46	19.85	
2025-01-09 08:42:40.47	88.42	19.86	
2025-01-09 08:42:40.68	88.38	19.88	
2025-01-09 08:42:40.88	88.34	19.90	
2025-01-09 08:42:41.09	88.30	19.91	
2025-01-09 08:42:41.29	88.26	19.93	
2025-01-09 08:42:41.50	88.22	19.95	
2025-01-09 08:42:41.70	88.18	19.97	
2025-01-09 08:42:41.91	88.14	19.98	
2025-01-09 08:42:42.11	88.11	20.00	
2025-01-09 08:42:42.32	88.06	20.02	
2025-01-09 08:42:42.53	88.02	20.03	
2025-01-09 08:42:42.73	87.99	20.05	
2025-01-09 08:42:42.93	87.95	20.07	
2025-01-09 08:42:43.14	87.91	20.09	
2025-01-09 08:42:43.34	87.87	20.10	
2025-01-09 08:42:43.55	87.83	20.12	
2025-01-09 08:42:43.75	87.79	20.14	
2025-01-09 08:42:43.96	87.75	20.15	
2025-01-09 08:42:44.16	87.71	20.17	
2025-01-09 08:42:44.37	87.66	20.19	
2025-01-09 08:42:44.57	87.63	20.20	
2025-01-09 08:42:44.78	87.58	20.22	
2025-01-09 08:42:44.98	87.55	20.24	
2025-01-09 08:42:45.19	87.50	20.26	
2025-01-09 08:42:45.39	87.46	20.27	
2025-01-09 08:42:45.60	87.42	20.29	
2025-01-09 08:42:45.80	87.38	20.31	
2025-01-09 08:42:46.00	87.34	20.32	
2025-01-09 08:42:46.22	87.30	20.34	
2025-01-09 08:42:46.43	87.26	20.36	
2025-01-09 08:42:46.63	87.22	20.37	
2025-01-09 08:42:46.84	87.18	20.39	
2025-01-09 08:42:47.04	87.14	20.41	
2025-01-09 08:42:47.25	87.10	20.43	
2025-01-09 08:42:47.45	87.06	20.44	
2025-01-09 08:42:47.66	87.01	20.46	
2025-01-09 08:42:47.86	86.97	20.48	
2025-01-09 08:42:48.07	86.93	20.49	
2025-01-09 08:42:48.27	86.89	20.51	
2025-01-09 08:42:48.48	86.85	20.53	
2025-01-09 08:42:48.68	86.81	20.54	
2025-01-09 08:42:48.89	86.77	20.56	
2025-01-09 08:42:49.09	86.73	20.58	
2025-01-09 08:42:49.29	86.69	20.59	
2025-01-09 08:42:49.50	86.64	20.61	
2025-01-09 08:42:49.70	86.60	20.63	
2025-01-09 08:42:49.91	86.56	20.65	
2025-01-09 08:42:50.12	86.52	20.66	
2025-01-09 08:42:50.32	86.48	20.68	
2025-01-09 08:42:50.52	86.44	20.70	
2025-01-09 08:42:50.73	86.40	20.71	
2025-01-09 08:42:50.94	86.35	20.73	
2025-01-09 08:42:51.14	86.31	20.75	
2025-01-09 08:42:51.35	86.27	20.76	
2025-01-09 08:42:51.56	86.23	20.78	
2025-01-09 08:42:51.77	86.18	20.80	
2025-01-09 08:42:51.98	86.14	20.82	
2025-01-09 08:42:52.18	86.10	20.83	
2025-01-09 08:42:52.39	86.06	20.85	
2025-01-09 08:42:52.59	86.02	20.87	
2025-01-09 08:42:52.80	85.97	20.88	
2025-01-09 08:42:53.00	85.93	20.90	
2025-01-09 08:42:53.21	85.89	20.92	
2025-01-09 08:42:53.41	85.85	20.93	
2025-01-09 08:42:53.62	85.80	20.95	
2025-01-09 08:42:53.82	85.76	20.97	
2025-01-09 08:42:54.03	85.72	20.98	
2025-01-09 08:42:54.23	85.68	21.00	
2025-01-09 08:42:54.44	85.63	21.02	
2025-01-09 08:42:54.64	85.59	21.03	
2025-01-09 08:42:54.85	85.55	21.05	
2025-01-09 08:42:55.05	85.51	21.07	
2025-01-09 08:42:55.26	85.46	21.09	
2025-01-09 08:42:55.46	85.42	21.10	
2025-01-09 08:42:55.66	85.38	21.12	
2025-01-09 08:42:55.88	85.34	21.14	
2025-01-09 08:42:56.09	85.29	21.15	
2025-01-09 08:42:56.29	85.25	21.17	
2025-01-09 08:42:56.50	85.21	21.19	
2025-01-09 08:42:56.70	85.16	21.20	
2025-01-09 08:42:56.91	85.12	21.22	
2025-01-09 08:42:57.11	85.08	21.24	
2025-01-09 08:42:57.32	85.03	21.25	
2025-01-09 08:42:57.52	84.99	21.27	
2025-01-09 08:42:57.73	84.95	21.29	
2025-01-09 08:42:57.93	84.91	21.30	
2025-01-09 08:42:58.14	84.86	21.32	
2025-01-09 08:42:58.34	84.82	21.34	
2025-01-09 08:42:58.55	84.77	21.35	
2025-01-09 08:42:58.76	84.73	21.37	
2025-01-09 08:42:58.96	84.69	21.39	
2025-01-09 08:42:59.16	84.64	21.40	
2025-01-09 08:42:59.37	84.60	21.42	
2025-01-09 08:42:59.57	84.56	21.44	
2025-01-09 08:42:59.78	84.51	21.45	
2025-01-09 08:42:59.98	84.47	21.47	
2025-01-09 08:43:00.19	84.43	21.49	
2025-01-09 08:43:00.39	84.38	21.50	
2025-01-09 08:43:00.60	84.34	21.52	
2025-01-09 08:43:00.80	84.30	21.54	
2025-01-09 08:43:01.01	84.25	21.55	
2025-01-09 08:43:01.21	84.21	21.57	
2025-01-09 08:43:01.42	84.16	21.59	
2025-01-09 08:43:01.62	84.12	21.60	
2025-01-09 08:43:01.83	84.07	21.62	
2025-01-09 08:43:02.04	84.03	21.64	
2025-01-09 08:43:02.26	83.98	21.65	
2025-01-09 08:43:02.46	83.94	21.67	
2025-01-09 08:43:02.67	83.89	21.69	
2025-01-09 08:43:02.88	83.85	21.70	
2025-01-09 08:43:03.08	83.80	21.72	
2025-01-09 08:43:03.29	83.76	21.74	
2025-01-09 08:43:03.49	83.71	21.75	
2025-01-09 08:43:03.70	83.67	21.77	
2025-01-09 08:43:03.90	83.63	21.79	
2025-01-09 08:43:04.11	83.58	21.80	
2025-01-09 08:43:04.31	83.54	21.82	
2025-01-09 08:43:04.52	83.49	21.84	
2025-01-09 08:43:04.72	83.45	21.85	
2025-01-09 08:43:04.93	83.40	21.87	
2025-01-09 08:43:05.14	83.35	21.89	
2025-01-09 08:43:05.34	83.31	21.90	
2025-01-09 08:43:05.54	83.27	21.92	
2025-01-09 08:43:05.75	83.22	21.94	
2025-01-09 08:43:05.96	83.17	21.95	
2025-01-09 08:43:06.16	83.13	21.97	
2025-01-09 08:43:06.37	83.08	21.98	
2025-01-09 08:43:06.57	83.04	22.00	
2025-01-09 08:43:06.78	82.99	22.02	
2025-01-09 08:43:06.98	82.95	22.03	
2025-01-09 08:43:07.19	82.90	22.05	
2025-01-09 08:43:07.39	82.86	22.07	
2025-01-09 08:43:07.59	82.81	22.08	
2025-01-09 08:43:07.80	82.77	22.10	
2025-01-09 08:43:08.01	82.72	22.12	
2025-01-09 08:43:08.21	82.68	22.13	
2025-01-09 08:43:08.41	82.63	22.15	
2025-01-09 08:43:08.62	82.59	22.16	
2025-01-09 08:43:08.82	82.54	22.18	
2025-01-09 08:43:09.03	82.49	22.20	
2025-01-09 08:43:09.23	82.45	22.21	
2025-01-09 08:43:09.44	82.40	22.23	
2025-01-09 08:43:09.64	82.36	22.25	
2025-01-09 08:43:09.85	82.31	22.26	
2025-01-09 08:43:10.06	82.26	22.28	
2025-01-09 08:43:10.26	82.22	22.29	
2025-01-09 08:43:10.47	82.17	22.31	
2025-01-09 08:43:10.67	82.13	22.33	
2025-01-09 08:43:10.88	82.08	22.34	
2025-01-09 08:43:11.09	82.03	22.36	
2025-01-09 08:43:11.29	81.99	22.38	
2025-01-09 08:43:11.49	81.94	22.39	
2025-01-09 08:43:11.70	81.89	22.41	
2025-01-09 08:43:11.90	81.85	22.42	
2025-01-09 08:43:12.11	81.80	22.44	
2025-01-09 08:43:12.32	81.75	22.46	
2025-01-09 08:43:12.52	81.71	22.47	
2025-01-09 08:43:12.73	81.66	22.49	
2025-01-09 08:43:12.93	81.61	22.50	
2025-01-09 08:43:13.14	81.56	22.52	
2025-01-09 08:43:13.34	81.52	22.54	
2025-01-09 08:43:13.55	81.47	22.55	
2025-01-09 08:43:13.75	81.43	22.57	
2025-01-09 08:43:13.96	81.38	22.59	
2025-01-09 08:43:14.16	81.33	22.60	
2025-01-09 08:43:14.37	81.28	22.62	
2025-01-09 08:43:14.57	81.24	22.63	
2025-01-09 08:43:14.78	81.19	22.65	
2025-01-09 08:43:15.00	81.14	22.67	
2025-01-09 08:43:15.20	81.09	22.68	
2025-01-09 08:43:15.41	81.04	22.70	
2025-01-09 08:43:15.61	81.00	22.71	
2025-01-09 08:43:15.82	80.95	22.73	
2025-01-09 08:43:16.02	80.90	22.75	
2025-01-09 08:43:16.23	80.85	22.76	
2025-01-09 08:43:16.44	80.80	22.78	
2025-01-09 08:43:16.65	80.76	22.80	
2025-01-09 08:43:16.86	80.71	22.81	
2025-01-09 08:43:17.06	80.66	22.83	
2025-01-09 08:43:17.27	80.61	22.84	
2025-01-09 08:43:17.47	80.57	22.86	
2025-01-09 08:43:17.68	80.52	22.87	
2025-01-09 08:43:17.88	80.47	22.89	
2025-01-09 08:43:18.09	80.42	22.91	
2025-01-09 08:43:18.29	80.37	22.92	
2025-01-09 08:43:18.50	80.32	22.94	
2025-01-09 08:43:18.70	80.28	22.95	
2025-01-09 08:43:18.91	80.23	22.97	
2025-01-09 08:43:19.11	80.18	22.98	
2025-01-09 08:43:19.33	80.13	23.00	
2025-01-09 08:43:19.53	80.08	23.02	
2025-01-09 08:43:19.74	80.03	23.03	
2025-01-09 08:43:19.94	79.99	23.05	
2025-01-09 08:43:20.15	79.94	23.06	
2025-01-09 08:43:20.35	79.89	23.08	
2025-01-09 08:43:20.55	79.84	23.10	
2025-01-09 08:43:20.76	79.79	23.11	
2025-01-09 08:43:20.96	79.74	23.13	
2025-01-09 08:43:21.17	79.69	23.14	
2025-01-09 08:43:21.37	79.65	23.16	
2025-01-09 08:43:21.58	79.60	23.17	
2025-01-09 08:43:21.78	79.55	23.19	
2025-01-09 08:43:21.99	79.50	23.20	
2025-01-09 08:43:22.20	79.45	23.22	
2025-01-09 08:43:22.40	79.40	23.24	
2025-01-09 08:43:22.61	79.35	23.25	
2025-01-09 08:43:22.81	79.30	23.27	
2025-01-09 08:43:23.02	79.25	23.28	
2025-01-09 08:43:23.22	79.20	23.30	
2025-01-09 08:43:23.43	79.15	23.31	
2025-01-09 08:43:23.63	79.11	23.33	
2025-01-09 08:43:23.84	79.06	23.34	
2025-01-09 08:43:24.04	79.01	23.36	
2025-01-09 08:43:24.24	78.96	23.38	
2025-01-09 08:43:24.45	78.91	23.39	
2025-01-09 08:43:24.65	78.86	23.41	
2025-01-09 08:43:24.86	78.81	23.42	
2025-01-09 08:43:25.06	78.76	23.44	
2025-01-09 08:43:25.27	78.71	23.45	
2025-01-09 08:43:25.47	78.66	23.47	
2025-01-09 08:43:25.68	78.61	23.48	
2025-01-09 08:43:25.88	78.56	23.50	
2025-01-09 08:43:26.09	78.51	23.51	
2025-01-09 08:43:26.29	78.46	23.53	
2025-01-09 08:43:26.50	78.41	23.54	
2025-01-09 08:43:26.70	78.36	23.56	
2025-01-09 08:43:26.91	78.31	23.57	
2025-01-09 08:43:27.11	78.26	23.59	
2025-01-09 08:43:27.32	78.21	23.61	
2025-01-09 08:43:27.52	78.16	23.62	
2025-01-09 08:43:27.73	78.11	23.64	
2025-01-09 08:43:27.93	78.06	23.65	
2025-01-09 08:43:28.14	78.01	23.67	
2025-01-09 08:43:28.34	77.96	23.68	
2025-01-09 08:43:28.55	77.91	23.70	
2025-01-09 08:43:28.76	77.86	23.71	
2025-01-09 08:43:28.96	77.81	23.73	
2025-01-09 08:43:29.17	77.76	23.74	
2025-01-09 08:43:29.37	77.71	23.76	
2025-01-09 08:43:29.58	77.65	23.77	
2025-01-09 08:43:29.78	77.60	23.79	
2025-01-09 08:43:30.00	77.55	23.80	
2025-01-09 08:43:30.21	77.50	23.82	
2025-01-09 08:43:30.41	77.45	23.83	
2025-01-09 08:43:30.62	77.40	23.85	
2025-01-09 08:43:30.82	77.35	23.86	
2025-01-09 08:43:31.03	77.29	23.88	
2025-01-09 08:43:31.23	77.24	23.89	
2025-01-09 08:43:31.44	77.19	23.91	
2025-01-09 08:43:31.64	77.14	23.92	
2025-01-09 08:43:31.85	77.09	23.94	
2025-01-09 08:43:32.05	77.04	23.95	
2025-01-09 08:43:32.26	76.99	23.97	
2025-01-09 08:43:32.46	76.94	23.98	
2025-01-09 08:43:32.67	76.88	24.00	
2025-01-09 08:43:32.87	76.83	24.01	
2025-01-09 08:43:33.08	76.78	24.03	
2025-01-09 08:43:33.28	76.73	24.04	
2025-01-09 08:43:33.49	76.68	24.06	
2025-01-09 08:43:33.69	76.63	24.07	
2025-01-09 08:43:33.90	76.57	24.09	
2025-01-09 08:43:34.11	76.52	24.10	
2025-01-09 08:43:34.31	76.47	24.11	
2025-01-09 08:43:34.52	76.42	24.13	
2025-01-09 08:43:34.74	76.36	24.15	
2025-01-09 08:43:34.94	76.31	24.16	
2025-01-09 08:43:35.15	76.26	24.17	
2025-01-09 08:43:35.37	76.20	24.19	
2025-01-09 08:43:35.57	76.15	24.20	
2025-01-09 08:43:35.78	76.10	24.22	
2025-01-09 08:43:35.98	76.05	24.23	
2025-01-09 08:43:36.19	75.99	24.25	
2025-01-09 08:43:36.39	75.94	24.26	
2025-01-09 08:43:36.60	75.89	24.28	
2025-01-09 08:43:36.80	75.84	24.29	
2025-01-09 08:43:37.01	75.78	24.31	
2025-01-09 08:43:37.22	75.73	24.32	
2025-01-09 08:43:37.42	75.68	24.33	
2025-01-09 08:43:37.62	75.63	24.35	
2025-01-09 08:43:37.83	75.57	24.36	
2025-01-09 08:43:38.04	75.52	24.38	
2025-01-09 08:43:38.24	75.47	24.39	
2025-01-09 08:43:38.44	75.42	24.41	
2025-01-09 08:43:38.65	75.36	24.42	
2025-01-09 08:43:38.86	75.31	24.44	
2025-01-09 08:43:39.06	75.26	24.45	
2025-01-09 08:43:39.26	75.20	24.46	
2025-01-09 08:43:39.47	75.15	24.48	
2025-01-09 08:43:39.69	75.09	24.49	
2025-01-09 08:43:39.89	75.04	24.51	
2025-01-09 08:43:40.10	74.99	24.52	
2025-01-09 08:43:40.31	74.93	24.54	
2025-01-09 08:43:40.51	74.88	24.55	
2025-01-09 08:43:40.72	74.82	24.56	
2025-01-09 08:43:40.92	74.77	24.58	
2025-01-09 08:43:41.13	74.72	24.59	
2025-01-09 08:43:41.33	74.67	24.61	
2025-01-09 08:43:41.54	74.61	24.62	
2025-01-09 08:43:41.75	74.56	24.63	
2025-01-09 08:43:41.96	74.50	24.65	
2025-01-09 08:43:42.17	74.45	24.66	
2025-01-09 08:43:42.37	74.39	24.68	
2025-01-09 08:43:42.58	74.34	24.69	
2025-01-09 08:43:42.78	74.29	24.70	
2025-01-09 08:43:42.98	74.23	24.72	
2025-01-09 08:43:43.19	74.18	24.73	
2025-01-09 08:43:43.39	74.13	24.75	
2025-01-09 08:43:43.60	74.07	24.76	
2025-01-09 08:43:43.80	74.02	24.77	
2025-01-09 08:43:44.01	73.96	24.79	
2025-01-09 08:43:44.21	73.91	24.80	
2025-01-09 08:43:44.42	73.85	24.81	
2025-01-09 08:43:44.62	73.80	24.83	
2025-01-09 08:43:44.83	73.75	24.84	
2025-01-09 08:43:45.03	73.69	24.86	
2025-01-09 08:43:45.24	73.64	24.87	
2025-01-09 08:43:45.45	73.58	24.88	
2025-01-09 08:43:45.65	73.53	24.90	
2025-01-09 08:43:45.86	73.47	24.91	
2025-01-09 08:43:46.08	73.41	24.93	
2025-01-09 08:43:46.28	73.36	24.94	
2025-01-09 08:43:46.49	73.30	24.95	
2025-01-09 08:43:46.69	73.25	24.97	
2025-01-09 08:43:46.89	73.20	24.98	
2025-01-09 08:43:47.10	73.14	24.99	
2025-01-09 08:43:47.30	73.09	25.01	
2025-01-09 08:43:47.51	73.03	25.02	
2025-01-09 08:43:47.71	72.98	25.03	
2025-01-09 08:43:47.92	72.92	25.05	
2025-01-09 08:43:48.12	72.87	25.06	
2025-01-09 08:43:48.33	72.81	25.07	
2025-01-09 08:43:48.54	72.75	25.09	
2025-01-09 08:43:48.74	72.70	25.10	
2025-01-09 08:43:48.94	72.65	25.11	
2025-01-09 08:43:49.15	72.59	25.13	
2025-01-09 08:43:49.35	72.54	25.14	
2025-01-09 08:43:49.56	72.48	25.15	
2025-01-09 08:43:49.77	72.42	25.17	
2025-01-09 08:43:49.97	72.37	25.18	
2025-01-09 08:43:50.17	72.31	25.19	
2025-01-09 08:43:50.38	72.26	25.20	
2025-01-09 08:43:50.59	72.20	25.22	
2025-01-09 08:43:50.79	72.15	25.23	
2025-01-09 08:43:51.00	72.09	25.24	
2025-01-09 08:43:51.20	72.03	25.26	
2025-01-09 08:43:51.42	71.97	25.27	
2025-01-09 08:43:51.63	71.92	25.28	
2025-01-09 08:43:51.83	71.86	25.30	
2025-01-09 08:43:52.04	71.81	25.31	
2025-01-09 08:43:52.24	71.75	25.32	
2025-01-09 08:43:52.45	71.69	25.34	
2025-01-09 08:43:52.65	71.64	25.35	
2025-01-09 08:43:52.86	71.58	25.36	
2025-01-09 08:43:53.06	71.53	25.37	
2025-01-09 08:43:53.27	71.47	25.39	
2025-01-09 08:43:53.49	71.41	25.40	
2025-01-09 08:43:53.69	71.35	25.41	
2025-01-09 08:43:53.90	71.30	25.43	
2025-01-09 08:43:54.10	71.24	25.44	
2025-01-09 08:43:54.31	71.18	25.45	
2025-01-09 08:43:54.51	71.13	25.46	
2025-01-09 08:43:54.72	71.07	25.48	
2025-01-09 08:43:54.92	71.02	25.49	
2025-01-09 08:43:55.13	70.96	25.50	
2025-01-09 08:43:55.33	70.90	25.51	
2025-01-09 08:43:55.54	70.84	25.53	
2025-01-09 08:43:55.74	70.79	25.54	
2025-01-09 08:43:55.95	70.73	25.55	
2025-01-09 08:43:56.15	70.67	25.56	
2025-01-09 08:43:56.36	70.62	25.58	
2025-01-09 08:43:56.56	70.56	25.59	
2025-01-09 08:43:56.77	70.50	25.60	
2025-01-09 08:43:56.98	70.44	25.61	
2025-01-09 08:43:57.18	70.39	25.63	
2025-01-09 08:43:57.38	70.33	25.64	
2025-01-09 08:43:57.59	70.27	25.65	
2025-01-09 08:43:57.79	70.22	25.66	
2025-01-09 08:43:58.00	70.16	25.67	
2025-01-09 08:43:58.20	70.10	25.69	
2025-01-09 08:43:58.41	70.05	25.70	
2025-01-09 08:43:58.61	69.99	25.71	
2025-01-09 08:43:58.82	69.93	25.72	
2025-01-09 08:43:59.02	69.87	25.73	
2025-01-09 08:43:59.23	69.82	25.75	
2025-01-09 08:43:59.43	69.76	25.76	
2025-01-09 08:43:59.64	69.70	25.77	
2025-01-09 08:43:59.84	69.64	25.78	
2025-01-09 08:44:00.05	69.58	25.79	
2025-01-09 08:44:00.25	69.53	25.81	
2025-01-09 08:44:00.46	69.47	25.82	
2025-01-09 08:44:00.66	69.41	25.83	
2025-01-09 08:44:00.86	69.36	25.84	
2025-01-09 08:44:01.07	69.30	25.85	
2025-01-09 08:44:01.28	69.24	25.87	
2025-01-09 08:44:01.48	69.18	25.88	
2025-01-09 08:44:01.68	69.12	25.89	
2025-01-09 08:44:01.89	69.07	25.90	
2025-01-09 08:44:02.09	69.01	25.91	
2025-01-09 08:44:02.30	68.95	25.92	
2025-01-09 08:44:02.50	68.89	25.94	
2025-01-09 08:44:02.71	68.83	25.95	
2025-01-09 08:44:02.91	68.78	25.96	
2025-01-09 08:44:03.12	68.72	25.97	
2025-01-09 08:44:03.32	68.66	25.98	
2025-01-09 08:44:03.53	68.60	25.99	
2025-01-09 08:44:03.73	68.54	26.00	
2025-01-09 08:44:03.94	68.48	26.02	
2025-01-09 08:44:04.14	68.42	26.03	
2025-01-09 08:44:04.35	68.36	26.04	
2025-01-09 08:44:04.55	68.31	26.05	
2025-01-09 08:44:04.76	68.25	26.06	
2025-01-09 08:44:04.96	68.19	26.07	
2025-01-09 08:44:05.17	68.13	26.08	
2025-01-09 08:44:05.37	68.07	26.09	
2025-01-09 08:44:05.58	68.01	26.11	
2025-01-09 08:44:05.78	67.96	26.12	
2025-01-09 08:44:05.99	67.89	26.13	
2025-01-09 08:44:06.19	67.84	26.14	
2025-01-09 08:44:06.40	67.78	26.15	
2025-01-09 08:44:06.61	67.72	26.16	
2025-01-09 08:44:06.81	67.66	26.17	
2025-01-09 08:44:07.02	67.60	26.18	
2025-01-09 08:44:07.22	67.54	26.19	
2025-01-09 08:44:07.43	67.48	26.21	
2025-01-09 08:44:07.63	67.42	26.22	
2025-01-09 08:44:07.84	67.36	26.23	
2025-01-09 08:44:08.04	67.30	26.24	
2025-01-09 08:44:08.25	67.24	26.25	
2025-01-09 08:44:08.47	67.18	26.26	
2025-01-09 08:44:08.67	67.12	26.27	
2025-01-09 08:44:08.88	67.06	26.28	
2025-01-09 08:44:09.09	67.00	26.29	
2025-01-09 08:44:09.29	66.94	26.30	
2025-01-09 08:44:09.50	66.88	26.31	
2025-01-09 08:44:09.70	66.82	26.32	
2025-01-09 08:44:09.91	66.76	26.34	
2025-01-09 08:44:10.11	66.70	26.35	
2025-01-09 08:44:10.32	66.64	26.36	
2025-01-09 08:44:10.52	66.58	26.37	
2025-01-09 08:44:10.73	66.52	26.38	
2025-01-09 08:44:10.93	66.46	26.39	
2025-01-09 08:44:11.14	66.40	26.40	
2025-01-09 08:44:11.35	66.34	26.41	
2025-01-09 08:44:11.55	66.28	26.42	
2025-01-09 08:44:11.76	66.22	26.43	
2025-01-09 08:44:11.96	66.16	26.44	
2025-01-09 08:44:12.17	66.10	26.45	
2025-01-09 08:44:12.37	66.04	26.46	
2025-01-09 08:44:12.58	65.98	26.47	
2025-01-09 08:44:12.80	65.91	26.48	
2025-01-09 08:44:13.00	65.86	26.49	
2025-01-09 08:44:13.21	65.79	26.50	
2025-01-09 08:44:13.41	65.74	26.51	
2025-01-09 08:44:13.62	65.67	26.52	
2025-01-09 08:44:13.82	65.61	26.53	
2025-01-09 08:44:14.03	65.55	26.54	
2025-01-09 08:44:14.23	65.49	26.55	
2025-01-09 08:44:14.44	65.43	26.56	
2025-01-09 08:44:14.64	65.37	26.57	
2025-01-09 08:44:14.85	65.31	26.58	
2025-01-09 08:44:15.05	65.25	26.59	
2025-01-09 08:44:15.26	65.19	26.60	
2025-01-09 08:44:15.46	65.13	26.61	
2025-01-09 08:44:15.67	65.07	26.62	
2025-01-09 08:44:15.87	65.01	26.63	
2025-01-09 08:44:16.08	64.95	26.64	
2025-01-09 08:44:16.28	64.89	26.65	
2025-01-09 08:44:16.48	64.83	26.66	
2025-01-09 08:44:16.69	64.76	26.67	
2025-01-09 08:44:16.89	64.70	26.68	
2025-01-09 08:44:17.10	64.64	26.69	
2025-01-09 08:44:17.30	64.58	26.70	
2025-01-09 08:44:17.51	64.52	26.71	
2025-01-09 08:44:17.72	64.46	26.71	
2025-01-09 08:44:17.92	64.40	26.72	
2025-01-09 08:44:18.12	64.34	26.73	
2025-01-09 08:44:18.33	64.28	26.74	
2025-01-09 08:44:18.53	64.22	26.75	
2025-01-09 08:44:18.74	64.15	26.76	
2025-01-09 08:44:18.95	64.09	26.77	
2025-01-09 08:44:19.15	64.03	26.78	
2025-01-09 08:44:19.36	63.97	26.79	
2025-01-09 08:44:19.56	63.91	26.80	
2025-01-09 08:44:19.77	63.84	26.81	
2025-01-09 08:44:19.97	63.78	26.82	
2025-01-09 08:44:20.18	63.72	26.82	
2025-01-09 08:44:20.38	63.66	26.83	
2025-01-09 08:44:20.59	63.60	26.84	
2025-01-09 08:44:20.80	63.53	26.85	
2025-01-09 08:44:21.00	63.47	26.86	
2025-01-09 08:44:21.22	63.41	26.87	
2025-01-09 08:44:21.43	63.35	26.88	
2025-01-09 08:44:21.63	63.28	26.89	
2025-01-09 08:44:21.84	63.22	26.90	
2025-01-09 08:44:22.04	63.16	26.90	
2025-01-09 08:44:22.24	63.10	26.91	
2025-01-09 08:44:22.45	63.04	26.92	
2025-01-09 08:44:22.65	62.98	26.93	
2025-01-09 08:44:22.86	62.91	26.94	
2025-01-09 08:44:23.07	62.85	26.95	
2025-01-09 08:44:23.28	62.79	26.96	
2025-01-09 08:44:23.48	62.73	26.96	
2025-01-09 08:44:23.69	62.66	26.97	
2025-01-09 08:44:23.89	62.60	26.98	
2025-01-09 08:44:24.10	62.54	26.99	
2025-01-09 08:44:24.30	62.48	27.00	
2025-01-09 08:44:24.51	62.41	27.01	
2025-01-09 08:44:24.71	62.35	27.01	
2025-01-09 08:44:24.92	62.29	27.02	
2025-01-09 08:44:25.13	62.22	27.03	
2025-01-09 08:44:25.33	62.16	27.04	
2025-01-09 08:44:25.55	62.10	27.05	
2025-01-09 08:44:25.76	62.03	27.06	
2025-01-09 08:44:25.96	61.97	27.06	
2025-01-09 08:44:26.17	61.91	27.07	
2025-01-09 08:44:26.37	61.85	27.08	
2025-01-09 08:44:26.59	61.78	27.09	
2025-01-09 08:44:26.79	61.72	27.10	
2025-01-09 08:44:27.00	61.65	27.10	
2025-01-09 08:44:27.20	61.59	27.11	
2025-01-09 08:44:27.41	61.53	27.12	
2025-01-09 08:44:27.62	61.46	27.13	
2025-01-09 08:44:27.82	61.40	27.13	
2025-01-09 08:44:28.03	61.34	27.14	
2025-01-09 08:44:28.23	61.28	27.15	
2025-01-09 08:44:28.44	61.21	27.16	
2025-01-09 08:44:28.64	61.15	27.16	
2025-01-09 08:44:28.85	61.09	27.17	
2025-01-09 08:44:29.06	61.02	27.18	
2025-01-09 08:44:29.26	60.96	27.19	
2025-01-09 08:44:29.47	60.90	27.19	
2025-01-09 08:44:29.67	60.84	27.20	
2025-01-09 08:44:29.88	60.77	27.21	
2025-01-09 08:44:30.08	60.71	27.22	
2025-01-09 08:44:30.29	60.65	27.22	
2025-01-09 08:44:30.49	60.58	27.23	
2025-01-09 08:44:30.70	60.52	27.24	
2025-01-09 08:44:30.90	60.46	27.24	
2025-01-09 08:44:31.11	60.39	27.25	
2025-01-09 08:44:31.32	60.33	27.26	
2025-01-09 08:44:31.52	60.27	27.27	
2025-01-09 08:44:31.73	60.20	27.27	
2025-01-09 08:44:31.93	60.14	27.28	
2025-01-09 08:44:32.14	60.07	27.29	
2025-01-09 08:44:32.34	60.01	27.29	
2025-01-09 08:44:32.55	59.95	27.30	
2025-01-09 08:44:32.75	59.89	27.31	
2025-01-09 08:44:32.96	59.82	27.31	
2025-01-09 08:44:33.16	59.76	27.32	
2025-01-09 08:44:33.36	59.70	27.33	
2025-01-09 08:44:33.57	59.63	27.33	
2025-01-09 08:44:33.78	59.57	27.34	
2025-01-09 08:44:33.98	59.50	27.35	
2025-01-09 08:44:34.18	59.44	27.35	
2025-01-09 08:44:34.39	59.38	27.36	
2025-01-09 08:44:34.59	59.31	27.37	
2025-01-09 08:44:34.80	59.25	27.37	
2025-01-09 08:44:35.00	59.19	27.38	
2025-01-09 08:44:35.21	59.12	27.39	
2025-01-09 08:44:35.41	59.06	27.39	
2025-01-09 08:44:35.62	58.99	27.40	
2025-01-09 08:44:35.83	58.93	27.40	
2025-01-09 08:44:36.03	58.87	27.41	
2025-01-09 08:44:36.23	58.80	27.42	
2025-01-09 08:44:36.44	58.74	27.42	
2025-01-09 08:44:36.64	58.68	27.43	
2025-01-09 08:44:36.85	58.61	27.44	
2025-01-09 08:44:37.06	58.55	27.44	
2025-01-09 08:44:37.26	58.48	27.45	
2025-01-09 08:44:37.47	58.42	27.45	
2025-01-09 08:44:37.67	58.36	27.46	
2025-01-09 08:44:37.88	58.29	27.47	
2025-01-09 08:44:38.08	58.23	27.47	
2025-01-09 08:44:38.29	58.16	27.48	
2025-01-09 08:44:38.49	58.10	27.48	
2025-01-09 08:44:38.70	58.03	27.49	
2025-01-09 08:44:38.90	57.97	27.49	
2025-01-09 08:44:39.11	57.90	27.50	
2025-01-09 08:44:39.31	57.84	27.50	
2025-01-09 08:44:39.52	57.78	27.51	
2025-01-09 08:44:39.72	57.71	27.52	
2025-01-09 08:44:39.93	57.65	27.52	
2025-01-09 08:44:40.13	57.58	27.53	
2025-01-09 08:44:40.34	57.52	27.53	
2025-01-09 08:44:40.54	57.46	27.54	
2025-01-09 08:44:40.75	57.39	27.54	
2025-01-09 08:44:40.95	57.33	27.55	
2025-01-09 08:44:41.16	57.26	27.55	
2025-01-09 08:44:41.36	57.20	27.56	
2025-01-09 08:44:41.57	57.13	27.56	
2025-01-09 08:44:41.77	57.07	27.57	
2025-01-09 08:44:41.98	57.00	27.57	
2025-01-09 08:44:42.18	56.94	27.58	
2025-01-09 08:44:42.39	56.87	27.58	
2025-01-09 08:44:42.59	56.81	27.59	
2025-01-09 08:44:42.80	56.74	27.59	
2025-01-09 08:44:43.00	56.68	27.60	
2025-01-09 08:44:43.21	56.62	27.60	
2025-01-09 08:44:43.41	56.55	27.61	
2025-01-09 08:44:43.62	56.49	27.61	
2025-01-09 08:44:43.82	56.42	27.62	
2025-01-09 08:44:44.03	56.36	27.62	
2025-01-09 08:44:44.23	56.29	27.63	
2025-01-09 08:44:44.44	56.23	27.63	
2025-01-09 08:44:44.64	56.16	27.64	
2025-01-09 08:44:44.85	56.10	27.64	
2025-01-09 08:44:45.05	56.03	27.64	
2025-01-09 08:44:45.26	55.97	27.65	
2025-01-09 08:44:45.46	55.91	27.65	
2025-01-09 08:44:45.67	55.84	27.66	
2025-01-09 08:44:45.87	55.78	27.66	
2025-01-09 08:44:46.08	55.71	27.67	
2025-01-09 08:44:46.28	55.65	27.67	
2025-01-09 08:44:46.49	55.58	27.68	
2025-01-09 08:44:46.69	55.52	27.68	
2025-01-09 08:44:46.90	55.45	27.68	
2025-01-09 08:44:47.10	55.39	27.69	
2025-01-09 08:44:47.31	55.32	27.69	
2025-01-09 08:44:47.51	55.26	27.70	
2025-01-09 08:44:47.72	55.19	27.70	
