passes_logs/2025/01/09/SPB_Silybum_02/SPB_Silybum_02__20250109_002524_SUOMI_NPP_rec.log

#Pass ID: 20250109_002524_SUOMI NPP
#Satellite: SUOMI NPP
#Configuration: NPP
#Start time: 2025-01-09 00:25:23

#Version: 2.0.20230423
#Station: SPB_Silybum_02
#Location: 30.233357 lon 59.946436 lat
#TLE: 1 37849U 11061A   25008.15329241  .00000250  00000+0  13932-3 0  9999
#TLE: 2 37849  98.7439 309.2289 0001915  51.2946 308.8402 14.19535012683945

#Time	Az	El	Level	Level2	SNR	BER	Gain	Gain2
2025-01-09 00:25:25.07	17.60	4.06	
2025-01-09 00:25:25.27	17.60	4.08	
2025-01-09 00:25:25.48	17.60	4.09	
2025-01-09 00:25:25.68	17.60	4.11	
2025-01-09 00:25:25.89	17.60	4.12	
2025-01-09 00:25:26.09	17.60	4.13	
2025-01-09 00:25:26.30	17.60	4.15	
2025-01-09 00:25:26.50	17.60	4.16	
2025-01-09 00:25:26.71	17.60	4.18	
2025-01-09 00:25:26.91	17.60	4.19	
2025-01-09 00:25:27.12	17.59	4.20	
2025-01-09 00:25:27.32	17.59	4.22	
2025-01-09 00:25:27.53	17.59	4.23	
2025-01-09 00:25:27.73	17.59	4.25	
2025-01-09 00:25:27.94	17.59	4.26	
2025-01-09 00:25:28.15	17.59	4.28	
2025-01-09 00:25:28.35	17.59	4.29	
2025-01-09 00:25:28.55	17.59	4.30	
2025-01-09 00:25:28.76	17.59	4.32	
2025-01-09 00:25:28.97	17.59	4.33	
2025-01-09 00:25:29.17	17.59	4.35	
2025-01-09 00:25:29.37	17.59	4.36	
2025-01-09 00:25:29.58	17.59	4.37	
2025-01-09 00:25:29.79	17.59	4.39	
2025-01-09 00:25:29.99	17.59	4.40	
2025-01-09 00:25:30.20	17.59	4.42	
2025-01-09 00:25:30.40	17.59	4.43	
2025-01-09 00:25:30.61	17.59	4.45	
2025-01-09 00:25:30.81	17.59	4.46	
2025-01-09 00:25:31.02	17.59	4.48	
2025-01-09 00:25:31.24	17.59	4.49	
2025-01-09 00:25:31.44	17.59	4.50	
2025-01-09 00:25:31.65	17.59	4.52	
2025-01-09 00:25:31.85	17.59	4.53	
2025-01-09 00:25:32.06	17.59	4.55	
2025-01-09 00:25:32.26	17.59	4.56	
2025-01-09 00:25:32.47	17.59	4.58	
2025-01-09 00:25:32.68	17.59	4.59	
2025-01-09 00:25:32.89	17.59	4.61	
2025-01-09 00:25:33.09	17.59	4.62	
2025-01-09 00:25:33.30	17.59	4.63	
2025-01-09 00:25:33.50	17.59	4.65	
2025-01-09 00:25:33.71	17.59	4.66	
2025-01-09 00:25:33.91	17.59	4.68	
2025-01-09 00:25:34.12	17.59	4.69	
2025-01-09 00:25:34.32	17.59	4.71	
2025-01-09 00:25:34.53	17.59	4.72	
2025-01-09 00:25:34.74	17.59	4.74	
2025-01-09 00:25:34.95	17.59	4.75	
2025-01-09 00:25:35.16	17.59	4.77	
2025-01-09 00:25:35.36	17.59	4.78	
2025-01-09 00:25:35.57	17.59	4.79	
2025-01-09 00:25:35.77	17.59	4.81	
2025-01-09 00:25:35.98	17.59	4.82	
2025-01-09 00:25:36.18	17.59	4.84	
2025-01-09 00:25:36.39	17.59	4.85	
2025-01-09 00:25:36.59	17.59	4.87	
2025-01-09 00:25:36.80	17.59	4.88	
2025-01-09 00:25:37.00	17.59	4.90	
2025-01-09 00:25:37.20	17.59	4.91	
2025-01-09 00:25:37.41	17.59	4.92	
2025-01-09 00:25:37.62	17.59	4.94	
2025-01-09 00:25:37.82	17.58	4.95	
2025-01-09 00:25:38.02	17.58	4.97	
2025-01-09 00:25:38.23	17.58	4.98	
2025-01-09 00:25:38.43	17.58	5.00	
2025-01-09 00:25:38.64	17.58	5.01	
2025-01-09 00:25:38.85	17.58	5.03	
2025-01-09 00:25:39.05	17.58	5.04	
2025-01-09 00:25:39.25	17.58	5.06	
2025-01-09 00:25:39.46	17.58	5.07	
2025-01-09 00:25:39.66	17.58	5.08	
2025-01-09 00:25:39.87	17.58	5.10	
2025-01-09 00:25:40.07	17.58	5.11	
2025-01-09 00:25:40.28	17.58	5.13	
2025-01-09 00:25:40.48	17.58	5.14	
2025-01-09 00:25:40.69	17.58	5.16	
2025-01-09 00:25:40.89	17.58	5.17	
2025-01-09 00:25:41.10	17.58	5.19	
2025-01-09 00:25:41.30	17.58	5.20	
2025-01-09 00:25:41.50	17.58	5.22	
2025-01-09 00:25:41.71	17.58	5.23	
2025-01-09 00:25:41.91	17.58	5.25	
2025-01-09 00:25:42.12	17.58	5.26	
2025-01-09 00:25:42.32	17.58	5.27	
2025-01-09 00:25:42.53	17.58	5.29	
2025-01-09 00:25:42.73	17.58	5.30	
2025-01-09 00:25:42.94	17.58	5.32	
2025-01-09 00:25:43.14	17.58	5.33	
2025-01-09 00:25:43.34	17.58	5.35	
2025-01-09 00:25:43.55	17.58	5.36	
2025-01-09 00:25:43.75	17.58	5.38	
2025-01-09 00:25:43.96	17.58	5.39	
2025-01-09 00:25:44.18	17.58	5.41	
2025-01-09 00:25:44.38	17.58	5.42	
2025-01-09 00:25:44.59	17.58	5.44	
2025-01-09 00:25:44.79	17.58	5.45	
2025-01-09 00:25:45.00	17.58	5.47	
2025-01-09 00:25:45.20	17.58	5.48	
2025-01-09 00:25:45.41	17.58	5.50	
2025-01-09 00:25:45.61	17.58	5.51	
2025-01-09 00:25:45.82	17.58	5.53	
2025-01-09 00:25:46.02	17.58	5.54	
2025-01-09 00:25:46.23	17.57	5.56	
2025-01-09 00:25:46.43	17.57	5.57	
2025-01-09 00:25:46.64	17.57	5.59	
2025-01-09 00:25:46.85	17.57	5.60	
2025-01-09 00:25:47.05	17.57	5.62	
2025-01-09 00:25:47.26	17.57	5.63	
2025-01-09 00:25:47.46	17.57	5.65	
2025-01-09 00:25:47.67	17.57	5.66	
2025-01-09 00:25:47.87	17.57	5.68	
2025-01-09 00:25:48.08	17.57	5.69	
2025-01-09 00:25:48.28	17.57	5.71	
2025-01-09 00:25:48.49	17.57	5.72	
2025-01-09 00:25:48.69	17.57	5.74	
2025-01-09 00:25:48.89	17.57	5.75	
2025-01-09 00:25:49.10	17.57	5.77	
2025-01-09 00:25:49.30	17.57	5.78	
2025-01-09 00:25:49.51	17.57	5.80	
2025-01-09 00:25:49.71	17.57	5.81	
2025-01-09 00:25:49.92	17.57	5.83	
2025-01-09 00:25:50.13	17.57	5.84	
2025-01-09 00:25:50.33	17.57	5.86	
2025-01-09 00:25:50.54	17.57	5.87	
2025-01-09 00:25:50.74	17.57	5.89	
2025-01-09 00:25:50.95	17.57	5.90	
2025-01-09 00:25:51.15	17.57	5.92	
2025-01-09 00:25:51.35	17.57	5.93	
2025-01-09 00:25:51.56	17.57	5.95	
2025-01-09 00:25:51.77	17.57	5.96	
2025-01-09 00:25:51.97	17.57	5.98	
2025-01-09 00:25:52.18	17.57	5.99	
2025-01-09 00:25:52.38	17.57	6.01	
2025-01-09 00:25:52.59	17.57	6.02	
2025-01-09 00:25:52.79	17.57	6.04	
2025-01-09 00:25:52.99	17.57	6.05	
2025-01-09 00:25:53.20	17.57	6.07	
2025-01-09 00:25:53.40	17.56	6.08	
2025-01-09 00:25:53.61	17.56	6.10	
2025-01-09 00:25:53.81	17.56	6.11	
2025-01-09 00:25:54.02	17.56	6.13	
2025-01-09 00:25:54.22	17.56	6.14	
2025-01-09 00:25:54.43	17.56	6.16	
2025-01-09 00:25:54.64	17.56	6.18	
2025-01-09 00:25:54.84	17.56	6.19	
2025-01-09 00:25:55.05	17.56	6.21	
2025-01-09 00:25:55.25	17.56	6.22	
2025-01-09 00:25:55.46	17.56	6.24	
2025-01-09 00:25:55.66	17.56	6.25	
2025-01-09 00:25:55.86	17.56	6.27	
2025-01-09 00:25:56.07	17.56	6.28	
2025-01-09 00:25:56.28	17.56	6.30	
2025-01-09 00:25:56.48	17.56	6.31	
2025-01-09 00:25:56.69	17.56	6.33	
2025-01-09 00:25:56.89	17.56	6.34	
2025-01-09 00:25:57.10	17.56	6.36	
2025-01-09 00:25:57.30	17.56	6.37	
2025-01-09 00:25:57.51	17.56	6.39	
2025-01-09 00:25:57.71	17.56	6.40	
2025-01-09 00:25:57.92	17.56	6.42	
2025-01-09 00:25:58.13	17.56	6.44	
2025-01-09 00:25:58.33	17.56	6.45	
2025-01-09 00:25:58.53	17.56	6.47	
2025-01-09 00:25:58.74	17.56	6.48	
2025-01-09 00:25:58.94	17.56	6.50	
2025-01-09 00:25:59.15	17.56	6.51	
2025-01-09 00:25:59.35	17.56	6.53	
2025-01-09 00:25:59.56	17.55	6.54	
2025-01-09 00:25:59.77	17.55	6.56	
2025-01-09 00:25:59.97	17.55	6.57	
2025-01-09 00:26:00.17	17.55	6.59	
2025-01-09 00:26:00.38	17.55	6.61	
2025-01-09 00:26:00.58	17.55	6.62	
2025-01-09 00:26:00.79	17.55	6.64	
2025-01-09 00:26:00.99	17.55	6.65	
2025-01-09 00:26:01.20	17.55	6.67	
2025-01-09 00:26:01.40	17.55	6.68	
2025-01-09 00:26:01.61	17.55	6.70	
2025-01-09 00:26:01.81	17.55	6.71	
2025-01-09 00:26:02.02	17.55	6.73	
2025-01-09 00:26:02.23	17.55	6.75	
2025-01-09 00:26:02.43	17.55	6.76	
2025-01-09 00:26:02.63	17.55	6.78	
2025-01-09 00:26:02.84	17.55	6.79	
2025-01-09 00:26:03.04	17.55	6.81	
2025-01-09 00:26:03.25	17.55	6.82	
2025-01-09 00:26:03.46	17.55	6.84	
2025-01-09 00:26:03.66	17.55	6.86	
2025-01-09 00:26:03.86	17.55	6.87	
2025-01-09 00:26:04.07	17.55	6.89	
2025-01-09 00:26:04.27	17.55	6.90	
2025-01-09 00:26:04.48	17.55	6.92	
2025-01-09 00:26:04.68	17.55	6.93	
2025-01-09 00:26:04.89	17.55	6.95	
2025-01-09 00:26:05.09	17.55	6.96	
2025-01-09 00:26:05.30	17.54	6.98	
2025-01-09 00:26:05.50	17.54	7.00	
2025-01-09 00:26:05.71	17.54	7.01	
2025-01-09 00:26:05.91	17.54	7.03	
2025-01-09 00:26:06.12	17.54	7.04	
2025-01-09 00:26:06.32	17.54	7.06	
2025-01-09 00:26:06.53	17.54	7.08	
2025-01-09 00:26:06.73	17.54	7.09	
2025-01-09 00:26:06.94	17.54	7.11	
2025-01-09 00:26:07.14	17.54	7.12	
2025-01-09 00:26:07.35	17.54	7.14	
2025-01-09 00:26:07.56	17.54	7.15	
2025-01-09 00:26:07.76	17.54	7.17	
2025-01-09 00:26:07.97	17.54	7.19	
2025-01-09 00:26:08.17	17.54	7.20	
2025-01-09 00:26:08.38	17.54	7.22	
2025-01-09 00:26:08.58	17.54	7.23	
2025-01-09 00:26:08.79	17.54	7.25	
2025-01-09 00:26:08.99	17.54	7.27	
2025-01-09 00:26:09.20	17.54	7.28	
2025-01-09 00:26:09.40	17.54	7.30	
2025-01-09 00:26:09.61	17.54	7.31	
2025-01-09 00:26:09.81	17.54	7.33	
2025-01-09 00:26:10.02	17.54	7.35	
2025-01-09 00:26:10.22	17.53	7.36	
2025-01-09 00:26:10.43	17.53	7.38	
2025-01-09 00:26:10.63	17.53	7.39	
2025-01-09 00:26:10.84	17.53	7.41	
2025-01-09 00:26:11.04	17.53	7.42	
2025-01-09 00:26:11.25	17.53	7.44	
2025-01-09 00:26:11.45	17.53	7.46	
2025-01-09 00:26:11.65	17.53	7.47	
2025-01-09 00:26:11.86	17.53	7.49	
2025-01-09 00:26:12.06	17.53	7.50	
2025-01-09 00:26:12.27	17.53	7.52	
2025-01-09 00:26:12.48	17.53	7.54	
2025-01-09 00:26:12.68	17.53	7.55	
2025-01-09 00:26:12.89	17.53	7.57	
2025-01-09 00:26:13.09	17.53	7.59	
2025-01-09 00:26:13.30	17.53	7.60	
2025-01-09 00:26:13.50	17.53	7.62	
2025-01-09 00:26:13.71	17.53	7.63	
2025-01-09 00:26:13.93	17.53	7.65	
2025-01-09 00:26:14.13	17.53	7.67	
2025-01-09 00:26:14.33	17.53	7.68	
2025-01-09 00:26:14.54	17.53	7.70	
2025-01-09 00:26:14.74	17.53	7.72	
2025-01-09 00:26:14.95	17.52	7.73	
2025-01-09 00:26:15.16	17.52	7.75	
2025-01-09 00:26:15.37	17.52	7.77	
2025-01-09 00:26:15.57	17.52	7.78	
2025-01-09 00:26:15.78	17.52	7.80	
2025-01-09 00:26:15.99	17.52	7.81	
2025-01-09 00:26:16.19	17.52	7.83	
2025-01-09 00:26:16.39	17.52	7.85	
2025-01-09 00:26:16.60	17.52	7.86	
2025-01-09 00:26:16.80	17.52	7.88	
2025-01-09 00:26:17.01	17.52	7.90	
2025-01-09 00:26:17.21	17.52	7.91	
2025-01-09 00:26:17.43	17.52	7.93	
2025-01-09 00:26:17.64	17.52	7.95	
2025-01-09 00:26:17.84	17.52	7.96	
2025-01-09 00:26:18.05	17.52	7.98	
2025-01-09 00:26:18.25	17.52	7.99	
2025-01-09 00:26:18.46	17.52	8.01	
2025-01-09 00:26:18.66	17.52	8.03	
2025-01-09 00:26:18.87	17.52	8.04	
2025-01-09 00:26:19.07	17.52	8.06	
2025-01-09 00:26:19.28	17.51	8.08	
2025-01-09 00:26:19.48	17.51	8.09	
2025-01-09 00:26:19.68	17.51	8.11	
2025-01-09 00:26:19.89	17.51	8.13	
2025-01-09 00:26:20.09	17.51	8.14	
2025-01-09 00:26:20.30	17.51	8.16	
2025-01-09 00:26:20.51	17.51	8.18	
2025-01-09 00:26:20.71	17.51	8.19	
2025-01-09 00:26:20.92	17.51	8.21	
2025-01-09 00:26:21.12	17.51	8.22	
2025-01-09 00:26:21.33	17.51	8.24	
2025-01-09 00:26:21.53	17.51	8.26	
2025-01-09 00:26:21.74	17.51	8.27	
2025-01-09 00:26:21.94	17.51	8.29	
2025-01-09 00:26:22.15	17.51	8.31	
2025-01-09 00:26:22.35	17.51	8.32	
2025-01-09 00:26:22.56	17.51	8.34	
2025-01-09 00:26:22.78	17.51	8.36	
2025-01-09 00:26:22.98	17.51	8.37	
2025-01-09 00:26:23.19	17.51	8.39	
2025-01-09 00:26:23.39	17.50	8.41	
2025-01-09 00:26:23.60	17.50	8.42	
2025-01-09 00:26:23.81	17.50	8.44	
2025-01-09 00:26:24.02	17.50	8.46	
2025-01-09 00:26:24.22	17.50	8.48	
2025-01-09 00:26:24.43	17.50	8.49	
2025-01-09 00:26:24.63	17.50	8.51	
2025-01-09 00:26:24.84	17.50	8.53	
2025-01-09 00:26:25.04	17.50	8.54	
2025-01-09 00:26:25.25	17.50	8.56	
2025-01-09 00:26:25.45	17.50	8.58	
2025-01-09 00:26:25.66	17.50	8.59	
2025-01-09 00:26:25.86	17.50	8.61	
2025-01-09 00:26:26.07	17.50	8.63	
2025-01-09 00:26:26.28	17.50	8.64	
2025-01-09 00:26:26.48	17.50	8.66	
2025-01-09 00:26:26.69	17.50	8.68	
2025-01-09 00:26:26.89	17.50	8.69	
2025-01-09 00:26:27.09	17.50	8.71	
2025-01-09 00:26:27.30	17.49	8.73	
2025-01-09 00:26:27.50	17.49	8.74	
2025-01-09 00:26:27.71	17.49	8.76	
2025-01-09 00:26:27.92	17.49	8.78	
2025-01-09 00:26:28.12	17.49	8.79	
2025-01-09 00:26:28.32	17.49	8.81	
2025-01-09 00:26:28.53	17.49	8.83	
2025-01-09 00:26:28.74	17.49	8.85	
2025-01-09 00:26:28.94	17.49	8.86	
2025-01-09 00:26:29.16	17.49	8.88	
2025-01-09 00:26:29.36	17.49	8.90	
2025-01-09 00:26:29.57	17.49	8.91	
2025-01-09 00:26:29.77	17.49	8.93	
2025-01-09 00:26:29.98	17.49	8.95	
2025-01-09 00:26:30.18	17.49	8.97	
2025-01-09 00:26:30.38	17.49	8.98	
2025-01-09 00:26:30.59	17.49	9.00	
2025-01-09 00:26:30.79	17.49	9.02	
2025-01-09 00:26:31.00	17.48	9.03	
2025-01-09 00:26:31.20	17.48	9.05	
2025-01-09 00:26:31.41	17.48	9.07	
2025-01-09 00:26:31.61	17.48	9.08	
2025-01-09 00:26:31.82	17.48	9.10	
2025-01-09 00:26:32.03	17.48	9.12	
2025-01-09 00:26:32.23	17.48	9.14	
2025-01-09 00:26:32.43	17.48	9.15	
2025-01-09 00:26:32.64	17.48	9.17	
2025-01-09 00:26:32.84	17.48	9.19	
2025-01-09 00:26:33.05	17.48	9.20	
2025-01-09 00:26:33.25	17.48	9.22	
2025-01-09 00:26:33.46	17.48	9.24	
2025-01-09 00:26:33.66	17.48	9.26	
2025-01-09 00:26:33.87	17.48	9.27	
2025-01-09 00:26:34.07	17.48	9.29	
2025-01-09 00:26:34.28	17.47	9.31	
2025-01-09 00:26:34.48	17.47	9.32	
2025-01-09 00:26:34.69	17.47	9.34	
2025-01-09 00:26:34.89	17.47	9.36	
2025-01-09 00:26:35.10	17.47	9.38	
2025-01-09 00:26:35.30	17.47	9.39	
2025-01-09 00:26:35.51	17.47	9.41	
2025-01-09 00:26:35.71	17.47	9.43	
2025-01-09 00:26:35.92	17.47	9.45	
2025-01-09 00:26:36.12	17.47	9.46	
2025-01-09 00:26:36.33	17.47	9.48	
2025-01-09 00:26:36.53	17.47	9.50	
2025-01-09 00:26:36.74	17.47	9.52	
2025-01-09 00:26:36.94	17.47	9.53	
2025-01-09 00:26:37.15	17.47	9.55	
2025-01-09 00:26:37.35	17.47	9.57	
2025-01-09 00:26:37.56	17.47	9.59	
2025-01-09 00:26:37.76	17.46	9.60	
2025-01-09 00:26:37.97	17.46	9.62	
2025-01-09 00:26:38.18	17.46	9.64	
2025-01-09 00:26:38.38	17.46	9.66	
2025-01-09 00:26:38.59	17.46	9.67	
2025-01-09 00:26:38.79	17.46	9.69	
2025-01-09 00:26:39.00	17.46	9.71	
2025-01-09 00:26:39.20	17.46	9.73	
2025-01-09 00:26:39.40	17.46	9.74	
2025-01-09 00:26:39.61	17.46	9.76	
2025-01-09 00:26:39.81	17.46	9.78	
2025-01-09 00:26:40.02	17.46	9.80	
2025-01-09 00:26:40.22	17.46	9.81	
2025-01-09 00:26:40.43	17.46	9.83	
2025-01-09 00:26:40.63	17.46	9.85	
2025-01-09 00:26:40.83	17.45	9.87	
2025-01-09 00:26:41.04	17.45	9.88	
2025-01-09 00:26:41.24	17.45	9.90	
2025-01-09 00:26:41.45	17.45	9.92	
2025-01-09 00:26:41.65	17.45	9.94	
2025-01-09 00:26:41.86	17.45	9.95	
2025-01-09 00:26:42.06	17.45	9.97	
2025-01-09 00:26:42.27	17.45	9.99	
2025-01-09 00:26:42.47	17.45	10.01	
2025-01-09 00:26:42.68	17.45	10.02	
2025-01-09 00:26:42.88	17.45	10.04	
2025-01-09 00:26:43.08	17.45	10.06	
2025-01-09 00:26:43.29	17.45	10.08	
2025-01-09 00:26:43.50	17.45	10.10	
2025-01-09 00:26:43.70	17.45	10.11	
2025-01-09 00:26:43.91	17.44	10.13	
2025-01-09 00:26:44.11	17.44	10.15	
2025-01-09 00:26:44.32	17.44	10.17	
2025-01-09 00:26:44.52	17.44	10.18	
2025-01-09 00:26:44.73	17.44	10.20	
2025-01-09 00:26:44.93	17.44	10.22	
2025-01-09 00:26:45.14	17.44	10.24	
2025-01-09 00:26:45.34	17.44	10.26	
2025-01-09 00:26:45.55	17.44	10.27	
2025-01-09 00:26:45.75	17.44	10.29	
2025-01-09 00:26:45.96	17.44	10.31	
2025-01-09 00:26:46.16	17.44	10.33	
2025-01-09 00:26:46.37	17.44	10.35	
2025-01-09 00:26:46.57	17.44	10.36	
2025-01-09 00:26:46.78	17.43	10.38	
2025-01-09 00:26:46.98	17.43	10.40	
2025-01-09 00:26:47.19	17.43	10.42	
2025-01-09 00:26:47.39	17.43	10.44	
2025-01-09 00:26:47.60	17.43	10.45	
2025-01-09 00:26:47.81	17.43	10.47	
2025-01-09 00:26:48.01	17.43	10.49	
2025-01-09 00:26:48.22	17.43	10.51	
2025-01-09 00:26:48.42	17.43	10.53	
2025-01-09 00:26:48.63	17.43	10.55	
2025-01-09 00:26:48.83	17.43	10.56	
2025-01-09 00:26:49.04	17.43	10.58	
2025-01-09 00:26:49.24	17.43	10.60	
2025-01-09 00:26:49.45	17.42	10.62	
2025-01-09 00:26:49.65	17.42	10.64	
2025-01-09 00:26:49.87	17.42	10.66	
2025-01-09 00:26:50.07	17.42	10.67	
2025-01-09 00:26:50.28	17.42	10.69	
2025-01-09 00:26:50.50	17.42	10.71	
2025-01-09 00:26:50.70	17.42	10.73	
2025-01-09 00:26:50.91	17.42	10.75	
2025-01-09 00:26:51.11	17.42	10.77	
2025-01-09 00:26:51.32	17.42	10.78	
2025-01-09 00:26:51.52	17.42	10.80	
2025-01-09 00:26:51.73	17.42	10.82	
2025-01-09 00:26:51.93	17.42	10.84	
2025-01-09 00:26:52.14	17.42	10.86	
2025-01-09 00:26:52.35	17.41	10.88	
2025-01-09 00:26:52.55	17.41	10.89	
2025-01-09 00:26:52.75	17.41	10.91	
2025-01-09 00:26:52.96	17.41	10.93	
2025-01-09 00:26:53.17	17.41	10.95	
2025-01-09 00:26:53.37	17.41	10.97	
2025-01-09 00:26:53.58	17.41	10.99	
2025-01-09 00:26:53.78	17.41	11.01	
2025-01-09 00:26:53.99	17.41	11.02	
2025-01-09 00:26:54.19	17.41	11.04	
2025-01-09 00:26:54.40	17.41	11.06	
2025-01-09 00:26:54.60	17.41	11.08	
2025-01-09 00:26:54.82	17.40	11.10	
2025-01-09 00:26:55.03	17.40	11.12	
2025-01-09 00:26:55.23	17.40	11.14	
2025-01-09 00:26:55.44	17.40	11.16	
2025-01-09 00:26:55.64	17.40	11.17	
2025-01-09 00:26:55.86	17.40	11.19	
2025-01-09 00:26:56.07	17.40	11.21	
2025-01-09 00:26:56.27	17.40	11.23	
2025-01-09 00:26:56.48	17.40	11.25	
2025-01-09 00:26:56.68	17.40	11.27	
2025-01-09 00:26:56.88	17.40	11.29	
2025-01-09 00:26:57.09	17.40	11.31	
2025-01-09 00:26:57.30	17.39	11.32	
2025-01-09 00:26:57.50	17.39	11.34	
2025-01-09 00:26:57.71	17.39	11.36	
2025-01-09 00:26:57.91	17.39	11.38	
2025-01-09 00:26:58.12	17.39	11.40	
2025-01-09 00:26:58.32	17.39	11.42	
2025-01-09 00:26:58.53	17.39	11.44	
2025-01-09 00:26:58.73	17.39	11.46	
2025-01-09 00:26:58.93	17.39	11.47	
2025-01-09 00:26:59.14	17.39	11.49	
2025-01-09 00:26:59.35	17.39	11.51	
2025-01-09 00:26:59.55	17.39	11.53	
2025-01-09 00:26:59.76	17.38	11.55	
2025-01-09 00:26:59.96	17.38	11.57	
2025-01-09 00:27:00.18	17.38	11.59	
2025-01-09 00:27:00.38	17.38	11.61	
2025-01-09 00:27:00.59	17.38	11.63	
2025-01-09 00:27:00.79	17.38	11.65	
2025-01-09 00:27:01.00	17.38	11.66	
2025-01-09 00:27:01.20	17.38	11.68	
2025-01-09 00:27:01.41	17.38	11.70	
2025-01-09 00:27:01.61	17.38	11.72	
2025-01-09 00:27:01.82	17.38	11.74	
2025-01-09 00:27:02.02	17.38	11.76	
2025-01-09 00:27:02.23	17.37	11.78	
2025-01-09 00:27:02.43	17.37	11.80	
2025-01-09 00:27:02.64	17.37	11.82	
2025-01-09 00:27:02.84	17.37	11.84	
2025-01-09 00:27:03.05	17.37	11.86	
2025-01-09 00:27:03.25	17.37	11.87	
2025-01-09 00:27:03.46	17.37	11.89	
2025-01-09 00:27:03.66	17.37	11.91	
2025-01-09 00:27:03.87	17.37	11.93	
2025-01-09 00:27:04.07	17.37	11.95	
2025-01-09 00:27:04.28	17.37	11.97	
2025-01-09 00:27:04.48	17.36	11.99	
2025-01-09 00:27:04.69	17.36	12.01	
2025-01-09 00:27:04.89	17.36	12.03	
2025-01-09 00:27:05.10	17.36	12.05	
2025-01-09 00:27:05.31	17.36	12.07	
2025-01-09 00:27:05.51	17.36	12.09	
2025-01-09 00:27:05.72	17.36	12.11	
2025-01-09 00:27:05.92	17.36	12.12	
2025-01-09 00:27:06.13	17.36	12.14	
2025-01-09 00:27:06.33	17.36	12.16	
2025-01-09 00:27:06.54	17.36	12.18	
2025-01-09 00:27:06.74	17.35	12.20	
2025-01-09 00:27:06.95	17.35	12.22	
2025-01-09 00:27:07.15	17.35	12.24	
2025-01-09 00:27:07.36	17.35	12.26	
2025-01-09 00:27:07.56	17.35	12.28	
2025-01-09 00:27:07.77	17.35	12.30	
2025-01-09 00:27:07.98	17.35	12.32	
2025-01-09 00:27:08.18	17.35	12.34	
2025-01-09 00:27:08.39	17.35	12.36	
2025-01-09 00:27:08.59	17.35	12.38	
2025-01-09 00:27:08.80	17.35	12.40	
2025-01-09 00:27:09.00	17.34	12.42	
2025-01-09 00:27:09.21	17.34	12.44	
2025-01-09 00:27:09.41	17.34	12.46	
2025-01-09 00:27:09.62	17.34	12.48	
2025-01-09 00:27:09.82	17.34	12.50	
2025-01-09 00:27:10.03	17.34	12.52	
2025-01-09 00:27:10.24	17.34	12.54	
2025-01-09 00:27:10.44	17.34	12.55	
2025-01-09 00:27:10.65	17.34	12.58	
2025-01-09 00:27:10.87	17.34	12.60	
2025-01-09 00:27:11.07	17.33	12.62	
2025-01-09 00:27:11.28	17.33	12.64	
2025-01-09 00:27:11.48	17.33	12.65	
2025-01-09 00:27:11.69	17.33	12.68	
2025-01-09 00:27:11.89	17.33	12.69	
2025-01-09 00:27:12.10	17.33	12.71	
2025-01-09 00:27:12.30	17.33	12.73	
2025-01-09 00:27:12.51	17.33	12.75	
2025-01-09 00:27:12.72	17.33	12.77	
2025-01-09 00:27:12.92	17.33	12.79	
2025-01-09 00:27:13.12	17.32	12.81	
2025-01-09 00:27:13.33	17.32	12.83	
2025-01-09 00:27:13.54	17.32	12.85	
2025-01-09 00:27:13.74	17.32	12.87	
2025-01-09 00:27:13.94	17.32	12.89	
2025-01-09 00:27:14.15	17.32	12.91	
2025-01-09 00:27:14.36	17.32	12.93	
2025-01-09 00:27:14.56	17.32	12.95	
2025-01-09 00:27:14.77	17.32	12.97	
2025-01-09 00:27:14.97	17.32	12.99	
2025-01-09 00:27:15.18	17.31	13.01	
2025-01-09 00:27:15.38	17.31	13.03	
2025-01-09 00:27:15.59	17.31	13.05	
2025-01-09 00:27:15.79	17.31	13.07	
2025-01-09 00:27:16.00	17.31	13.09	
2025-01-09 00:27:16.20	17.31	13.11	
2025-01-09 00:27:16.41	17.31	13.14	
2025-01-09 00:27:16.61	17.31	13.15	
2025-01-09 00:27:16.82	17.31	13.18	
2025-01-09 00:27:17.02	17.30	13.20	
2025-01-09 00:27:17.23	17.30	13.22	
2025-01-09 00:27:17.43	17.30	13.24	
2025-01-09 00:27:17.64	17.30	13.26	
2025-01-09 00:27:17.84	17.30	13.28	
2025-01-09 00:27:18.05	17.30	13.30	
2025-01-09 00:27:18.25	17.30	13.32	
2025-01-09 00:27:18.46	17.30	13.34	
2025-01-09 00:27:18.66	17.30	13.36	
2025-01-09 00:27:18.87	17.30	13.38	
2025-01-09 00:27:19.07	17.29	13.40	
2025-01-09 00:27:19.28	17.29	13.42	
2025-01-09 00:27:19.48	17.29	13.44	
2025-01-09 00:27:19.69	17.29	13.46	
2025-01-09 00:27:19.89	17.29	13.48	
2025-01-09 00:27:20.10	17.29	13.50	
2025-01-09 00:27:20.30	17.29	13.52	
2025-01-09 00:27:20.51	17.29	13.54	
2025-01-09 00:27:20.72	17.29	13.56	
2025-01-09 00:27:20.92	17.28	13.58	
2025-01-09 00:27:21.13	17.28	13.60	
2025-01-09 00:27:21.33	17.28	13.62	
2025-01-09 00:27:21.53	17.28	13.64	
2025-01-09 00:27:21.74	17.28	13.66	
2025-01-09 00:27:21.94	17.28	13.69	
2025-01-09 00:27:22.15	17.28	13.71	
2025-01-09 00:27:22.35	17.28	13.73	
2025-01-09 00:27:22.57	17.28	13.75	
2025-01-09 00:27:22.78	17.27	13.77	
2025-01-09 00:27:22.98	17.27	13.79	
2025-01-09 00:27:23.19	17.27	13.81	
2025-01-09 00:27:23.40	17.27	13.83	
2025-01-09 00:27:23.60	17.27	13.85	
2025-01-09 00:27:23.81	17.27	13.87	
2025-01-09 00:27:24.01	17.27	13.89	
2025-01-09 00:27:24.22	17.27	13.92	
2025-01-09 00:27:24.42	17.26	13.94	
2025-01-09 00:27:24.63	17.26	13.96	
2025-01-09 00:27:24.83	17.26	13.98	
2025-01-09 00:27:25.04	17.26	14.00	
2025-01-09 00:27:25.24	17.26	14.02	
2025-01-09 00:27:25.45	17.26	14.04	
2025-01-09 00:27:25.65	17.26	14.06	
2025-01-09 00:27:25.86	17.26	14.08	
2025-01-09 00:27:26.06	17.26	14.10	
2025-01-09 00:27:26.27	17.25	14.12	
2025-01-09 00:27:26.47	17.25	14.15	
2025-01-09 00:27:26.68	17.25	14.17	
2025-01-09 00:27:26.88	17.25	14.19	
2025-01-09 00:27:27.09	17.25	14.21	
2025-01-09 00:27:27.29	17.25	14.23	
2025-01-09 00:27:27.50	17.25	14.25	
2025-01-09 00:27:27.70	17.25	14.27	
2025-01-09 00:27:27.91	17.24	14.29	
2025-01-09 00:27:28.11	17.24	14.31	
2025-01-09 00:27:28.32	17.24	14.34	
2025-01-09 00:27:28.53	17.24	14.36	
2025-01-09 00:27:28.73	17.24	14.38	
2025-01-09 00:27:28.93	17.24	14.40	
2025-01-09 00:27:29.14	17.24	14.42	
2025-01-09 00:27:29.34	17.24	14.44	
2025-01-09 00:27:29.55	17.24	14.46	
2025-01-09 00:27:29.75	17.23	14.48	
2025-01-09 00:27:29.96	17.23	14.51	
2025-01-09 00:27:30.16	17.23	14.53	
2025-01-09 00:27:30.37	17.23	14.55	
2025-01-09 00:27:30.57	17.23	14.57	
2025-01-09 00:27:30.78	17.23	14.59	
2025-01-09 00:27:30.98	17.23	14.61	
2025-01-09 00:27:31.19	17.23	14.63	
2025-01-09 00:27:31.39	17.22	14.65	
2025-01-09 00:27:31.60	17.22	14.68	
2025-01-09 00:27:31.80	17.22	14.70	
2025-01-09 00:27:32.01	17.22	14.72	
2025-01-09 00:27:32.21	17.22	14.74	
2025-01-09 00:27:32.42	17.22	14.76	
2025-01-09 00:27:32.63	17.22	14.78	
2025-01-09 00:27:32.83	17.22	14.81	
2025-01-09 00:27:33.04	17.21	14.83	
2025-01-09 00:27:33.24	17.21	14.85	
2025-01-09 00:27:33.45	17.21	14.87	
2025-01-09 00:27:33.65	17.21	14.89	
2025-01-09 00:27:33.86	17.21	14.91	
2025-01-09 00:27:34.07	17.21	14.94	
2025-01-09 00:27:34.27	17.21	14.96	
2025-01-09 00:27:34.47	17.20	14.98	
2025-01-09 00:27:34.68	17.20	15.00	
2025-01-09 00:27:34.89	17.20	15.02	
2025-01-09 00:27:35.09	17.20	15.05	
2025-01-09 00:27:35.30	17.20	15.07	
2025-01-09 00:27:35.50	17.20	15.09	
2025-01-09 00:27:35.71	17.20	15.11	
2025-01-09 00:27:35.91	17.20	15.13	
2025-01-09 00:27:36.12	17.19	15.16	
2025-01-09 00:27:36.32	17.19	15.18	
2025-01-09 00:27:36.53	17.19	15.20	
2025-01-09 00:27:36.74	17.19	15.22	
2025-01-09 00:27:36.94	17.19	15.24	
2025-01-09 00:27:37.15	17.19	15.27	
2025-01-09 00:27:37.35	17.19	15.29	
2025-01-09 00:27:37.57	17.18	15.31	
2025-01-09 00:27:37.77	17.18	15.33	
2025-01-09 00:27:37.98	17.18	15.35	
2025-01-09 00:27:38.18	17.18	15.38	
2025-01-09 00:27:38.39	17.18	15.40	
2025-01-09 00:27:38.59	17.18	15.42	
2025-01-09 00:27:38.80	17.18	15.44	
2025-01-09 00:27:39.00	17.18	15.46	
2025-01-09 00:27:39.21	17.17	15.49	
2025-01-09 00:27:39.42	17.17	15.51	
2025-01-09 00:27:39.63	17.17	15.53	
2025-01-09 00:27:39.84	17.17	15.56	
2025-01-09 00:27:40.04	17.17	15.58	
2025-01-09 00:27:40.25	17.17	15.60	
2025-01-09 00:27:40.46	17.17	15.62	
2025-01-09 00:27:40.66	17.16	15.65	
2025-01-09 00:27:40.86	17.16	15.67	
2025-01-09 00:27:41.07	17.16	15.69	
2025-01-09 00:27:41.27	17.16	15.71	
2025-01-09 00:27:41.48	17.16	15.73	
2025-01-09 00:27:41.70	17.16	15.76	
2025-01-09 00:27:41.90	17.16	15.78	
2025-01-09 00:27:42.11	17.15	15.80	
2025-01-09 00:27:42.31	17.15	15.83	
2025-01-09 00:27:42.52	17.15	15.85	
2025-01-09 00:27:42.72	17.15	15.87	
2025-01-09 00:27:42.93	17.15	15.89	
2025-01-09 00:27:43.14	17.15	15.92	
2025-01-09 00:27:43.34	17.15	15.94	
2025-01-09 00:27:43.55	17.14	15.96	
2025-01-09 00:27:43.75	17.14	15.98	
2025-01-09 00:27:43.95	17.14	16.01	
2025-01-09 00:27:44.16	17.14	16.03	
2025-01-09 00:27:44.36	17.14	16.05	
2025-01-09 00:27:44.57	17.14	16.08	
2025-01-09 00:27:44.77	17.14	16.10	
2025-01-09 00:27:44.98	17.13	16.12	
2025-01-09 00:27:45.18	17.13	16.14	
2025-01-09 00:27:45.39	17.13	16.17	
2025-01-09 00:27:45.59	17.13	16.19	
2025-01-09 00:27:45.80	17.13	16.21	
2025-01-09 00:27:46.02	17.13	16.24	
2025-01-09 00:27:46.22	17.13	16.26	
2025-01-09 00:27:46.43	17.12	16.28	
2025-01-09 00:27:46.64	17.12	16.31	
2025-01-09 00:27:46.84	17.12	16.33	
2025-01-09 00:27:47.04	17.12	16.35	
2025-01-09 00:27:47.25	17.12	16.37	
2025-01-09 00:27:47.46	17.12	16.40	
2025-01-09 00:27:47.66	17.11	16.42	
2025-01-09 00:27:47.86	17.11	16.44	
2025-01-09 00:27:48.07	17.11	16.47	
2025-01-09 00:27:48.27	17.11	16.49	
2025-01-09 00:27:48.48	17.11	16.51	
2025-01-09 00:27:48.68	17.11	16.54	
2025-01-09 00:27:48.89	17.11	16.56	
2025-01-09 00:27:49.10	17.10	16.58	
2025-01-09 00:27:49.30	17.10	16.61	
2025-01-09 00:27:49.51	17.10	16.63	
2025-01-09 00:27:49.71	17.10	16.65	
2025-01-09 00:27:49.92	17.10	16.68	
2025-01-09 00:27:50.12	17.10	16.70	
2025-01-09 00:27:50.33	17.09	16.72	
2025-01-09 00:27:50.53	17.09	16.75	
2025-01-09 00:27:50.74	17.09	16.77	
2025-01-09 00:27:50.94	17.09	16.79	
2025-01-09 00:27:51.15	17.09	16.82	
2025-01-09 00:27:51.35	17.09	16.84	
2025-01-09 00:27:51.56	17.09	16.86	
2025-01-09 00:27:51.76	17.08	16.89	
2025-01-09 00:27:51.97	17.08	16.91	
2025-01-09 00:27:52.17	17.08	16.93	
2025-01-09 00:27:52.38	17.08	16.96	
2025-01-09 00:27:52.58	17.08	16.98	
2025-01-09 00:27:52.79	17.08	17.01	
2025-01-09 00:27:53.00	17.07	17.03	
2025-01-09 00:27:53.20	17.07	17.05	
2025-01-09 00:27:53.41	17.07	17.08	
2025-01-09 00:27:53.61	17.07	17.10	
2025-01-09 00:27:53.82	17.07	17.12	
2025-01-09 00:27:54.02	17.07	17.15	
2025-01-09 00:27:54.23	17.06	17.17	
2025-01-09 00:27:54.43	17.06	17.19	
2025-01-09 00:27:54.64	17.06	17.22	
2025-01-09 00:27:54.84	17.06	17.24	
2025-01-09 00:27:55.05	17.06	17.27	
2025-01-09 00:27:55.25	17.06	17.29	
2025-01-09 00:27:55.46	17.05	17.31	
2025-01-09 00:27:55.68	17.05	17.34	
2025-01-09 00:27:55.88	17.05	17.36	
2025-01-09 00:27:56.09	17.05	17.39	
2025-01-09 00:27:56.29	17.05	17.41	
2025-01-09 00:27:56.50	17.05	17.44	
2025-01-09 00:27:56.70	17.04	17.46	
2025-01-09 00:27:56.91	17.04	17.48	
2025-01-09 00:27:57.11	17.04	17.51	
2025-01-09 00:27:57.32	17.04	17.53	
2025-01-09 00:27:57.52	17.04	17.56	
2025-01-09 00:27:57.73	17.04	17.58	
2025-01-09 00:27:57.93	17.03	17.61	
2025-01-09 00:27:58.14	17.03	17.63	
2025-01-09 00:27:58.34	17.03	17.65	
2025-01-09 00:27:58.55	17.03	17.68	
2025-01-09 00:27:58.76	17.03	17.70	
2025-01-09 00:27:58.96	17.03	17.73	
2025-01-09 00:27:59.16	17.02	17.75	
2025-01-09 00:27:59.37	17.02	17.78	
2025-01-09 00:27:59.57	17.02	17.80	
2025-01-09 00:27:59.78	17.02	17.82	
2025-01-09 00:27:59.99	17.02	17.85	
2025-01-09 00:28:00.20	17.01	17.87	
2025-01-09 00:28:00.40	17.01	17.90	
2025-01-09 00:28:00.61	17.01	17.92	
2025-01-09 00:28:00.81	17.01	17.95	
2025-01-09 00:28:01.03	17.01	17.97	
2025-01-09 00:28:01.23	17.01	18.00	
2025-01-09 00:28:01.44	17.00	18.02	
2025-01-09 00:28:01.64	17.00	18.05	
2025-01-09 00:28:01.85	17.00	18.07	
2025-01-09 00:28:02.05	17.00	18.10	
2025-01-09 00:28:02.26	17.00	18.12	
2025-01-09 00:28:02.46	17.00	18.15	
2025-01-09 00:28:02.67	16.99	18.17	
2025-01-09 00:28:02.87	16.99	18.20	
2025-01-09 00:28:03.08	16.99	18.22	
2025-01-09 00:28:03.28	16.99	18.25	
2025-01-09 00:28:03.49	16.99	18.27	
2025-01-09 00:28:03.69	16.98	18.30	
2025-01-09 00:28:03.90	16.98	18.32	
2025-01-09 00:28:04.10	16.98	18.35	
2025-01-09 00:28:04.31	16.98	18.37	
2025-01-09 00:28:04.51	16.98	18.40	
2025-01-09 00:28:04.72	16.98	18.42	
2025-01-09 00:28:04.92	16.97	18.45	
2025-01-09 00:28:05.13	16.97	18.47	
2025-01-09 00:28:05.35	16.97	18.50	
2025-01-09 00:28:05.55	16.97	18.52	
2025-01-09 00:28:05.76	16.97	18.55	
2025-01-09 00:28:05.97	16.96	18.57	
2025-01-09 00:28:06.17	16.96	18.60	
2025-01-09 00:28:06.39	16.96	18.63	
2025-01-09 00:28:06.59	16.96	18.65	
2025-01-09 00:28:06.80	16.96	18.68	
2025-01-09 00:28:07.00	16.95	18.70	
2025-01-09 00:28:07.21	16.95	18.73	
2025-01-09 00:28:07.41	16.95	18.75	
2025-01-09 00:28:07.62	16.95	18.78	
2025-01-09 00:28:07.82	16.95	18.80	
2025-01-09 00:28:08.03	16.94	18.83	
2025-01-09 00:28:08.23	16.94	18.85	
2025-01-09 00:28:08.44	16.94	18.88	
2025-01-09 00:28:08.64	16.94	18.90	
2025-01-09 00:28:08.85	16.94	18.93	
2025-01-09 00:28:09.05	16.94	18.96	
2025-01-09 00:28:09.26	16.93	18.98	
2025-01-09 00:28:09.46	16.93	19.01	
2025-01-09 00:28:09.67	16.93	19.03	
2025-01-09 00:28:09.87	16.93	19.06	
2025-01-09 00:28:10.08	16.93	19.08	
2025-01-09 00:28:10.28	16.92	19.11	
2025-01-09 00:28:10.49	16.92	19.14	
2025-01-09 00:28:10.69	16.92	19.16	
2025-01-09 00:28:10.90	16.92	19.19	
2025-01-09 00:28:11.10	16.92	19.21	
2025-01-09 00:28:11.30	16.91	19.24	
2025-01-09 00:28:11.51	16.91	19.26	
2025-01-09 00:28:11.71	16.91	19.29	
2025-01-09 00:28:11.92	16.91	19.32	
2025-01-09 00:28:12.12	16.91	19.34	
2025-01-09 00:28:12.33	16.90	19.37	
2025-01-09 00:28:12.53	16.90	19.39	
2025-01-09 00:28:12.74	16.90	19.42	
2025-01-09 00:28:12.94	16.90	19.45	
2025-01-09 00:28:13.15	16.90	19.47	
2025-01-09 00:28:13.36	16.89	19.50	
2025-01-09 00:28:13.56	16.89	19.53	
2025-01-09 00:28:13.76	16.89	19.55	
2025-01-09 00:28:13.97	16.89	19.58	
2025-01-09 00:28:14.17	16.89	19.60	
2025-01-09 00:28:14.38	16.88	19.63	
2025-01-09 00:28:14.59	16.88	19.66	
2025-01-09 00:28:14.79	16.88	19.68	
2025-01-09 00:28:14.99	16.88	19.71	
2025-01-09 00:28:15.20	16.87	19.74	
2025-01-09 00:28:15.40	16.87	19.76	
2025-01-09 00:28:15.61	16.87	19.79	
2025-01-09 00:28:15.81	16.87	19.81	
2025-01-09 00:28:16.02	16.87	19.84	
2025-01-09 00:28:16.22	16.86	19.87	
2025-01-09 00:28:16.43	16.86	19.89	
2025-01-09 00:28:16.63	16.86	19.92	
2025-01-09 00:28:16.84	16.86	19.95	
2025-01-09 00:28:17.04	16.86	19.97	
2025-01-09 00:28:17.25	16.85	20.00	
2025-01-09 00:28:17.45	16.85	20.03	
2025-01-09 00:28:17.66	16.85	20.05	
2025-01-09 00:28:17.87	16.85	20.08	
2025-01-09 00:28:18.07	16.84	20.11	
2025-01-09 00:28:18.28	16.84	20.14	
2025-01-09 00:28:18.48	16.84	20.16	
2025-01-09 00:28:18.69	16.84	20.19	
2025-01-09 00:28:18.89	16.84	20.22	
2025-01-09 00:28:19.11	16.83	20.24	
2025-01-09 00:28:19.31	16.83	20.27	
2025-01-09 00:28:19.52	16.83	20.30	
2025-01-09 00:28:19.73	16.83	20.33	
2025-01-09 00:28:19.93	16.83	20.35	
2025-01-09 00:28:20.13	16.82	20.38	
2025-01-09 00:28:20.34	16.82	20.41	
2025-01-09 00:28:20.55	16.82	20.43	
2025-01-09 00:28:20.75	16.82	20.46	
2025-01-09 00:28:20.96	16.81	20.49	
2025-01-09 00:28:21.16	16.81	20.52	
2025-01-09 00:28:21.37	16.81	20.54	
2025-01-09 00:28:21.57	16.81	20.57	
2025-01-09 00:28:21.78	16.81	20.60	
2025-01-09 00:28:21.98	16.80	20.62	
2025-01-09 00:28:22.19	16.80	20.65	
2025-01-09 00:28:22.41	16.80	20.68	
2025-01-09 00:28:22.61	16.80	20.71	
2025-01-09 00:28:22.82	16.79	20.74	
2025-01-09 00:28:23.02	16.79	20.76	
2025-01-09 00:28:23.23	16.79	20.79	
2025-01-09 00:28:23.43	16.79	20.82	
2025-01-09 00:28:23.64	16.78	20.85	
2025-01-09 00:28:23.84	16.78	20.87	
2025-01-09 00:28:24.05	16.78	20.90	
2025-01-09 00:28:24.25	16.78	20.93	
2025-01-09 00:28:24.46	16.78	20.96	
2025-01-09 00:28:24.66	16.77	20.98	
2025-01-09 00:28:24.87	16.77	21.01	
2025-01-09 00:28:25.07	16.77	21.04	
2025-01-09 00:28:25.28	16.77	21.07	
2025-01-09 00:28:25.48	16.76	21.10	
2025-01-09 00:28:25.69	16.76	21.12	
2025-01-09 00:28:25.89	16.76	21.15	
2025-01-09 00:28:26.10	16.76	21.18	
2025-01-09 00:28:26.30	16.75	21.21	
2025-01-09 00:28:26.51	16.75	21.24	
2025-01-09 00:28:26.71	16.75	21.26	
2025-01-09 00:28:26.92	16.75	21.29	
2025-01-09 00:28:27.12	16.74	21.32	
2025-01-09 00:28:27.33	16.74	21.35	
2025-01-09 00:28:27.53	16.74	21.38	
2025-01-09 00:28:27.75	16.74	21.41	
2025-01-09 00:28:27.95	16.73	21.43	
2025-01-09 00:28:28.16	16.73	21.46	
2025-01-09 00:28:28.37	16.73	21.49	
2025-01-09 00:28:28.57	16.73	21.52	
2025-01-09 00:28:28.79	16.72	21.55	
2025-01-09 00:28:28.99	16.72	21.58	
2025-01-09 00:28:29.20	16.72	21.61	
2025-01-09 00:28:29.41	16.72	21.64	
2025-01-09 00:28:29.61	16.71	21.66	
2025-01-09 00:28:29.81	16.71	21.69	
2025-01-09 00:28:30.02	16.71	21.72	
2025-01-09 00:28:30.23	16.71	21.75	
2025-01-09 00:28:30.43	16.70	21.78	
2025-01-09 00:28:30.64	16.70	21.81	
2025-01-09 00:28:30.84	16.70	21.84	
2025-01-09 00:28:31.05	16.70	21.87	
2025-01-09 00:28:31.25	16.69	21.89	
2025-01-09 00:28:31.46	16.69	21.92	
2025-01-09 00:28:31.67	16.69	21.95	
2025-01-09 00:28:31.87	16.69	21.98	
2025-01-09 00:28:32.07	16.68	22.01	
2025-01-09 00:28:32.28	16.68	22.04	
2025-01-09 00:28:32.48	16.68	22.07	
2025-01-09 00:28:32.69	16.68	22.10	
2025-01-09 00:28:32.89	16.67	22.12	
2025-01-09 00:28:33.10	16.67	22.15	
2025-01-09 00:28:33.30	16.67	22.18	
2025-01-09 00:28:33.51	16.67	22.21	
2025-01-09 00:28:33.72	16.66	22.24	
2025-01-09 00:28:33.92	16.66	22.27	
2025-01-09 00:28:34.12	16.66	22.30	
2025-01-09 00:28:34.33	16.66	22.33	
2025-01-09 00:28:34.54	16.65	22.36	
2025-01-09 00:28:34.74	16.65	22.39	
2025-01-09 00:28:34.95	16.65	22.42	
2025-01-09 00:28:35.15	16.65	22.45	
2025-01-09 00:28:35.36	16.64	22.48	
2025-01-09 00:28:35.56	16.64	22.51	
2025-01-09 00:28:35.77	16.64	22.54	
2025-01-09 00:28:35.97	16.63	22.56	
2025-01-09 00:28:36.18	16.63	22.59	
2025-01-09 00:28:36.38	16.63	22.62	
2025-01-09 00:28:36.59	16.63	22.65	
2025-01-09 00:28:36.79	16.62	22.68	
2025-01-09 00:28:37.00	16.62	22.71	
2025-01-09 00:28:37.20	16.62	22.74	
2025-01-09 00:28:37.41	16.62	22.77	
2025-01-09 00:28:37.61	16.61	22.80	
2025-01-09 00:28:37.82	16.61	22.83	
2025-01-09 00:28:38.03	16.61	22.86	
2025-01-09 00:28:38.23	16.60	22.89	
2025-01-09 00:28:38.43	16.60	22.92	
2025-01-09 00:28:38.64	16.60	22.95	
2025-01-09 00:28:38.84	16.60	22.98	
2025-01-09 00:28:39.05	16.59	23.01	
2025-01-09 00:28:39.26	16.59	23.04	
2025-01-09 00:28:39.47	16.59	23.07	
2025-01-09 00:28:39.68	16.59	23.10	
2025-01-09 00:28:39.88	16.58	23.13	
2025-01-09 00:28:40.09	16.58	23.17	
2025-01-09 00:28:40.29	16.58	23.19	
2025-01-09 00:28:40.49	16.57	23.22	
2025-01-09 00:28:40.70	16.57	23.26	
2025-01-09 00:28:40.91	16.57	23.29	
2025-01-09 00:28:41.11	16.57	23.32	
2025-01-09 00:28:41.32	16.56	23.35	
2025-01-09 00:28:41.52	16.56	23.38	
2025-01-09 00:28:41.73	16.56	23.41	
2025-01-09 00:28:41.93	16.55	23.44	
2025-01-09 00:28:42.14	16.55	23.47	
2025-01-09 00:28:42.34	16.55	23.50	
2025-01-09 00:28:42.55	16.55	23.53	
2025-01-09 00:28:42.75	16.54	23.56	
2025-01-09 00:28:42.96	16.54	23.59	
2025-01-09 00:28:43.16	16.54	23.62	
2025-01-09 00:28:43.37	16.53	23.65	
2025-01-09 00:28:43.57	16.53	23.68	
2025-01-09 00:28:43.78	16.53	23.72	
2025-01-09 00:28:43.98	16.53	23.75	
2025-01-09 00:28:44.19	16.52	23.78	
2025-01-09 00:28:44.39	16.52	23.81	
2025-01-09 00:28:44.60	16.52	23.84	
2025-01-09 00:28:44.80	16.51	23.87	
2025-01-09 00:28:45.01	16.51	23.90	
2025-01-09 00:28:45.21	16.51	23.93	
2025-01-09 00:28:45.42	16.50	23.96	
2025-01-09 00:28:45.62	16.50	23.99	
2025-01-09 00:28:45.82	16.50	24.02	
2025-01-09 00:28:46.03	16.50	24.06	
2025-01-09 00:28:46.23	16.49	24.09	
2025-01-09 00:28:46.44	16.49	24.12	
2025-01-09 00:28:46.65	16.49	24.15	
2025-01-09 00:28:46.85	16.48	24.18	
2025-01-09 00:28:47.06	16.48	24.21	
2025-01-09 00:28:47.26	16.48	24.25	
2025-01-09 00:28:47.47	16.47	24.28	
2025-01-09 00:28:47.67	16.47	24.31	
2025-01-09 00:28:47.88	16.47	24.34	
2025-01-09 00:28:48.08	16.46	24.37	
2025-01-09 00:28:48.28	16.46	24.40	
2025-01-09 00:28:48.49	16.46	24.44	
2025-01-09 00:28:48.70	16.46	24.47	
2025-01-09 00:28:48.90	16.45	24.50	
2025-01-09 00:28:49.10	16.45	24.53	
2025-01-09 00:28:49.31	16.45	24.56	
2025-01-09 00:28:49.52	16.44	24.60	
2025-01-09 00:28:49.72	16.44	24.63	
2025-01-09 00:28:49.93	16.44	24.66	
2025-01-09 00:28:50.13	16.43	24.69	
2025-01-09 00:28:50.34	16.43	24.72	
2025-01-09 00:28:50.54	16.43	24.75	
2025-01-09 00:28:50.75	16.42	24.79	
2025-01-09 00:28:50.96	16.42	24.82	
2025-01-09 00:28:51.17	16.42	24.85	
2025-01-09 00:28:51.38	16.41	24.89	
2025-01-09 00:28:51.59	16.41	24.92	
2025-01-09 00:28:51.79	16.41	24.95	
2025-01-09 00:28:52.00	16.40	24.98	
2025-01-09 00:28:52.20	16.40	25.02	
2025-01-09 00:28:52.40	16.40	25.05	
2025-01-09 00:28:52.61	16.39	25.08	
2025-01-09 00:28:52.82	16.39	25.11	
2025-01-09 00:28:53.02	16.39	25.15	
2025-01-09 00:28:53.22	16.38	25.18	
2025-01-09 00:28:53.43	16.38	25.21	
2025-01-09 00:28:53.64	16.38	25.25	
2025-01-09 00:28:53.84	16.37	25.28	
2025-01-09 00:28:54.05	16.37	25.31	
2025-01-09 00:28:54.25	16.37	25.34	
2025-01-09 00:28:54.46	16.36	25.38	
2025-01-09 00:28:54.66	16.36	25.41	
2025-01-09 00:28:54.87	16.36	25.44	
2025-01-09 00:28:55.07	16.35	25.47	
2025-01-09 00:28:55.28	16.35	25.51	
2025-01-09 00:28:55.48	16.35	25.54	
2025-01-09 00:28:55.69	16.34	25.58	
2025-01-09 00:28:55.89	16.34	25.61	
2025-01-09 00:28:56.10	16.34	25.64	
2025-01-09 00:28:56.30	16.33	25.67	
2025-01-09 00:28:56.51	16.33	25.71	
2025-01-09 00:28:56.71	16.33	25.74	
2025-01-09 00:28:56.92	16.32	25.77	
2025-01-09 00:28:57.12	16.32	25.81	
2025-01-09 00:28:57.33	16.32	25.84	
2025-01-09 00:28:57.53	16.31	25.87	
2025-01-09 00:28:57.74	16.31	25.91	
2025-01-09 00:28:57.94	16.31	25.94	
2025-01-09 00:28:58.15	16.30	25.98	
2025-01-09 00:28:58.36	16.30	26.01	
2025-01-09 00:28:58.56	16.30	26.04	
2025-01-09 00:28:58.76	16.29	26.08	
2025-01-09 00:28:58.97	16.29	26.11	
2025-01-09 00:28:59.18	16.28	26.15	
2025-01-09 00:28:59.38	16.28	26.18	
2025-01-09 00:28:59.59	16.28	26.21	
2025-01-09 00:28:59.79	16.27	26.25	
2025-01-09 00:29:00.00	16.27	26.28	
2025-01-09 00:29:00.21	16.27	26.32	
2025-01-09 00:29:00.42	16.26	26.35	
2025-01-09 00:29:00.64	16.26	26.39	
2025-01-09 00:29:00.86	16.26	26.42	
2025-01-09 00:29:01.06	16.25	26.46	
2025-01-09 00:29:01.27	16.25	26.49	
2025-01-09 00:29:01.47	16.24	26.53	
2025-01-09 00:29:01.68	16.24	26.56	
2025-01-09 00:29:01.88	16.24	26.60	
2025-01-09 00:29:02.09	16.23	26.63	
2025-01-09 00:29:02.29	16.23	26.66	
2025-01-09 00:29:02.50	16.23	26.70	
2025-01-09 00:29:02.71	16.22	26.74	
2025-01-09 00:29:02.91	16.22	26.77	
2025-01-09 00:29:03.11	16.21	26.80	
2025-01-09 00:29:03.32	16.21	26.84	
2025-01-09 00:29:03.53	16.21	26.87	
2025-01-09 00:29:03.73	16.20	26.91	
2025-01-09 00:29:03.93	16.20	26.94	
2025-01-09 00:29:04.14	16.20	26.98	
2025-01-09 00:29:04.35	16.19	27.01	
2025-01-09 00:29:04.55	16.19	27.05	
2025-01-09 00:29:04.76	16.18	27.08	
2025-01-09 00:29:04.96	16.18	27.12	
2025-01-09 00:29:05.17	16.18	27.15	
2025-01-09 00:29:05.37	16.17	27.19	
2025-01-09 00:29:05.58	16.17	27.22	
2025-01-09 00:29:05.79	16.16	27.26	
2025-01-09 00:29:05.99	16.16	27.29	
2025-01-09 00:29:06.19	16.16	27.33	
2025-01-09 00:29:06.40	16.15	27.37	
2025-01-09 00:29:06.61	16.15	27.40	
2025-01-09 00:29:06.81	16.15	27.44	
2025-01-09 00:29:07.02	16.14	27.47	
2025-01-09 00:29:07.22	16.14	27.51	
2025-01-09 00:29:07.43	16.13	27.54	
2025-01-09 00:29:07.63	16.13	27.58	
2025-01-09 00:29:07.84	16.13	27.62	
2025-01-09 00:29:08.04	16.12	27.65	
2025-01-09 00:29:08.26	16.12	27.69	
2025-01-09 00:29:08.47	16.11	27.73	
2025-01-09 00:29:08.67	16.11	27.76	
2025-01-09 00:29:08.88	16.10	27.80	
2025-01-09 00:29:09.08	16.10	27.83	
2025-01-09 00:29:09.29	16.10	27.87	
2025-01-09 00:29:09.50	16.09	27.91	
2025-01-09 00:29:09.71	16.09	27.94	
2025-01-09 00:29:09.91	16.08	27.98	
2025-01-09 00:29:10.12	16.08	28.02	
2025-01-09 00:29:10.32	16.08	28.05	
2025-01-09 00:29:10.53	16.07	28.09	
2025-01-09 00:29:10.73	16.07	28.12	
2025-01-09 00:29:10.94	16.06	28.16	
2025-01-09 00:29:11.14	16.06	28.20	
2025-01-09 00:29:11.35	16.06	28.23	
2025-01-09 00:29:11.55	16.05	28.27	
2025-01-09 00:29:11.76	16.05	28.31	
2025-01-09 00:29:11.96	16.04	28.34	
2025-01-09 00:29:12.17	16.04	28.38	
2025-01-09 00:29:12.37	16.03	28.42	
2025-01-09 00:29:12.59	16.03	28.46	
2025-01-09 00:29:12.80	16.03	28.49	
2025-01-09 00:29:13.00	16.02	28.53	
2025-01-09 00:29:13.21	16.02	28.57	
2025-01-09 00:29:13.42	16.01	28.61	
2025-01-09 00:29:13.62	16.01	28.64	
2025-01-09 00:29:13.83	16.00	28.68	
2025-01-09 00:29:14.03	16.00	28.72	
2025-01-09 00:29:14.24	16.00	28.76	
2025-01-09 00:29:14.44	15.99	28.79	
2025-01-09 00:29:14.66	15.99	28.83	
2025-01-09 00:29:14.86	15.98	28.87	
2025-01-09 00:29:15.07	15.98	28.91	
2025-01-09 00:29:15.27	15.97	28.94	
2025-01-09 00:29:15.48	15.97	28.98	
2025-01-09 00:29:15.68	15.96	29.02	
2025-01-09 00:29:15.89	15.96	29.06	
2025-01-09 00:29:16.09	15.96	29.09	
2025-01-09 00:29:16.30	15.95	29.13	
2025-01-09 00:29:16.51	15.95	29.17	
2025-01-09 00:29:16.71	15.94	29.21	
2025-01-09 00:29:16.92	15.94	29.25	
2025-01-09 00:29:17.12	15.93	29.28	
2025-01-09 00:29:17.33	15.93	29.32	
2025-01-09 00:29:17.53	15.92	29.36	
2025-01-09 00:29:17.74	15.92	29.40	
2025-01-09 00:29:17.94	15.92	29.44	
2025-01-09 00:29:18.15	15.91	29.47	
2025-01-09 00:29:18.35	15.91	29.51	
2025-01-09 00:29:18.56	15.90	29.55	
2025-01-09 00:29:18.77	15.90	29.59	
2025-01-09 00:29:18.97	15.89	29.63	
2025-01-09 00:29:19.17	15.89	29.67	
2025-01-09 00:29:19.38	15.88	29.71	
2025-01-09 00:29:19.58	15.88	29.74	
2025-01-09 00:29:19.79	15.87	29.78	
2025-01-09 00:29:19.99	15.87	29.82	
2025-01-09 00:29:20.20	15.86	29.86	
2025-01-09 00:29:20.40	15.86	29.90	
2025-01-09 00:29:20.61	15.85	29.94	
2025-01-09 00:29:20.81	15.85	29.98	
2025-01-09 00:29:21.02	15.85	30.02	
2025-01-09 00:29:21.22	15.84	30.05	
2025-01-09 00:29:21.43	15.84	30.09	
2025-01-09 00:29:21.63	15.83	30.13	
2025-01-09 00:29:21.84	15.83	30.17	
2025-01-09 00:29:22.04	15.82	30.21	
2025-01-09 00:29:22.25	15.82	30.25	
2025-01-09 00:29:22.45	15.81	30.29	
2025-01-09 00:29:22.66	15.81	30.33	
2025-01-09 00:29:22.86	15.80	30.37	
2025-01-09 00:29:23.07	15.80	30.41	
2025-01-09 00:29:23.28	15.79	30.45	
2025-01-09 00:29:23.49	15.79	30.49	
2025-01-09 00:29:23.70	15.78	30.53	
2025-01-09 00:29:23.90	15.78	30.57	
2025-01-09 00:29:24.11	15.77	30.61	
2025-01-09 00:29:24.32	15.77	30.65	
2025-01-09 00:29:24.53	15.76	30.69	
2025-01-09 00:29:24.73	15.76	30.73	
2025-01-09 00:29:24.94	15.75	30.77	
2025-01-09 00:29:25.14	15.75	30.81	
2025-01-09 00:29:25.36	15.74	30.85	
2025-01-09 00:29:25.56	15.74	30.89	
2025-01-09 00:29:25.77	15.73	30.93	
2025-01-09 00:29:25.98	15.73	30.97	
2025-01-09 00:29:26.18	15.72	31.01	
2025-01-09 00:29:26.39	15.72	31.05	
2025-01-09 00:29:26.59	15.71	31.09	
2025-01-09 00:29:26.80	15.71	31.13	
2025-01-09 00:29:27.01	15.70	31.18	
2025-01-09 00:29:27.21	15.70	31.22	
2025-01-09 00:29:27.41	15.69	31.26	
2025-01-09 00:29:27.62	15.68	31.30	
2025-01-09 00:29:27.83	15.68	31.34	
2025-01-09 00:29:28.03	15.67	31.38	
2025-01-09 00:29:28.24	15.67	31.42	
2025-01-09 00:29:28.44	15.66	31.46	
2025-01-09 00:29:28.64	15.66	31.50	
2025-01-09 00:29:28.85	15.65	31.54	
2025-01-09 00:29:29.06	15.65	31.58	
2025-01-09 00:29:29.26	15.64	31.62	
2025-01-09 00:29:29.47	15.64	31.67	
2025-01-09 00:29:29.67	15.63	31.71	
2025-01-09 00:29:29.88	15.63	31.75	
2025-01-09 00:29:30.08	15.62	31.79	
2025-01-09 00:29:30.29	15.62	31.83	
2025-01-09 00:29:30.49	15.61	31.87	
2025-01-09 00:29:30.70	15.60	31.92	
2025-01-09 00:29:30.90	15.60	31.96	
2025-01-09 00:29:31.11	15.59	32.00	
2025-01-09 00:29:31.32	15.59	32.04	
2025-01-09 00:29:31.52	15.58	32.08	
2025-01-09 00:29:31.72	15.58	32.12	
2025-01-09 00:29:31.93	15.57	32.17	
2025-01-09 00:29:32.13	15.57	32.21	
2025-01-09 00:29:32.34	15.56	32.25	
2025-01-09 00:29:32.54	15.56	32.29	
2025-01-09 00:29:32.75	15.55	32.33	
2025-01-09 00:29:32.95	15.54	32.38	
2025-01-09 00:29:33.16	15.54	32.42	
2025-01-09 00:29:33.37	15.53	32.46	
2025-01-09 00:29:33.57	15.53	32.50	
2025-01-09 00:29:33.77	15.52	32.54	
2025-01-09 00:29:33.98	15.52	32.59	
2025-01-09 00:29:34.18	15.51	32.63	
2025-01-09 00:29:34.39	15.50	32.67	
2025-01-09 00:29:34.59	15.50	32.71	
2025-01-09 00:29:34.80	15.49	32.76	
2025-01-09 00:29:35.00	15.49	32.80	
2025-01-09 00:29:35.21	15.48	32.84	
2025-01-09 00:29:35.41	15.48	32.89	
2025-01-09 00:29:35.62	15.47	32.93	
2025-01-09 00:29:35.82	15.46	32.97	
2025-01-09 00:29:36.03	15.46	33.02	
2025-01-09 00:29:36.23	15.45	33.06	
2025-01-09 00:29:36.44	15.45	33.10	
2025-01-09 00:29:36.66	15.44	33.15	
2025-01-09 00:29:36.86	15.43	33.19	
2025-01-09 00:29:37.07	15.43	33.24	
2025-01-09 00:29:37.27	15.42	33.28	
2025-01-09 00:29:37.48	15.42	33.32	
2025-01-09 00:29:37.68	15.41	33.37	
2025-01-09 00:29:37.89	15.40	33.41	
2025-01-09 00:29:38.09	15.40	33.45	
2025-01-09 00:29:38.30	15.39	33.50	
2025-01-09 00:29:38.50	15.39	33.54	
2025-01-09 00:29:38.71	15.38	33.59	
2025-01-09 00:29:38.91	15.37	33.63	
2025-01-09 00:29:39.12	15.37	33.67	
2025-01-09 00:29:39.32	15.36	33.72	
2025-01-09 00:29:39.53	15.35	33.76	
2025-01-09 00:29:39.73	15.35	33.80	
2025-01-09 00:29:39.94	15.34	33.85	
2025-01-09 00:29:40.14	15.34	33.89	
2025-01-09 00:29:40.34	15.33	33.94	
2025-01-09 00:29:40.55	15.32	33.98	
2025-01-09 00:29:40.76	15.32	34.03	
2025-01-09 00:29:40.96	15.31	34.07	
2025-01-09 00:29:41.16	15.30	34.11	
2025-01-09 00:29:41.37	15.30	34.16	
2025-01-09 00:29:41.57	15.29	34.20	
2025-01-09 00:29:41.78	15.29	34.25	
2025-01-09 00:29:41.98	15.28	34.29	
2025-01-09 00:29:42.19	15.27	34.34	
2025-01-09 00:29:42.40	15.27	34.39	
2025-01-09 00:29:42.60	15.26	34.43	
2025-01-09 00:29:42.81	15.25	34.48	
2025-01-09 00:29:43.01	15.25	34.52	
2025-01-09 00:29:43.21	15.24	34.57	
2025-01-09 00:29:43.42	15.23	34.61	
2025-01-09 00:29:43.62	15.23	34.66	
2025-01-09 00:29:43.83	15.22	34.70	
2025-01-09 00:29:44.03	15.21	34.75	
2025-01-09 00:29:44.24	15.21	34.79	
2025-01-09 00:29:44.44	15.20	34.84	
2025-01-09 00:29:44.65	15.19	34.89	
2025-01-09 00:29:44.85	15.19	34.93	
2025-01-09 00:29:45.06	15.18	34.98	
2025-01-09 00:29:45.26	15.17	35.02	
2025-01-09 00:29:45.47	15.17	35.07	
2025-01-09 00:29:45.67	15.16	35.11	
2025-01-09 00:29:45.88	15.15	35.16	
2025-01-09 00:29:46.08	15.15	35.21	
2025-01-09 00:29:46.29	15.14	35.25	
2025-01-09 00:29:46.49	15.13	35.30	
2025-01-09 00:29:46.69	15.13	35.34	
2025-01-09 00:29:46.90	15.12	35.39	
2025-01-09 00:29:47.10	15.11	35.44	
2025-01-09 00:29:47.31	15.10	35.49	
2025-01-09 00:29:47.52	15.10	35.53	
2025-01-09 00:29:47.72	15.09	35.58	
2025-01-09 00:29:47.92	15.08	35.62	
2025-01-09 00:29:48.13	15.08	35.67	
2025-01-09 00:29:48.33	15.07	35.72	
2025-01-09 00:29:48.54	15.06	35.77	
2025-01-09 00:29:48.74	15.06	35.81	
2025-01-09 00:29:48.95	15.05	35.86	
2025-01-09 00:29:49.15	15.04	35.91	
2025-01-09 00:29:49.36	15.03	35.96	
2025-01-09 00:29:49.56	15.03	36.00	
2025-01-09 00:29:49.77	15.02	36.05	
2025-01-09 00:29:49.97	15.01	36.10	
2025-01-09 00:29:50.18	15.00	36.15	
2025-01-09 00:29:50.38	15.00	36.19	
2025-01-09 00:29:50.59	14.99	36.24	
2025-01-09 00:29:50.79	14.98	36.29	
2025-01-09 00:29:51.00	14.98	36.34	
2025-01-09 00:29:51.20	14.97	36.38	
2025-01-09 00:29:51.41	14.96	36.43	
2025-01-09 00:29:51.61	14.95	36.48	
2025-01-09 00:29:51.82	14.95	36.53	
2025-01-09 00:29:52.02	14.94	36.58	
2025-01-09 00:29:52.23	14.93	36.63	
2025-01-09 00:29:52.43	14.92	36.67	
2025-01-09 00:29:52.64	14.92	36.72	
2025-01-09 00:29:52.84	14.91	36.77	
2025-01-09 00:29:53.05	14.90	36.82	
2025-01-09 00:29:53.25	14.89	36.87	
2025-01-09 00:29:53.46	14.88	36.92	
2025-01-09 00:29:53.66	14.88	36.96	
2025-01-09 00:29:53.87	14.87	37.01	
2025-01-09 00:29:54.07	14.86	37.06	
2025-01-09 00:29:54.28	14.85	37.11	
2025-01-09 00:29:54.48	14.85	37.16	
2025-01-09 00:29:54.69	14.84	37.21	
2025-01-09 00:29:54.89	14.83	37.26	
2025-01-09 00:29:55.09	14.82	37.31	
2025-01-09 00:29:55.30	14.81	37.36	
2025-01-09 00:29:55.50	14.81	37.41	
2025-01-09 00:29:55.71	14.80	37.46	
2025-01-09 00:29:55.92	14.79	37.51	
2025-01-09 00:29:56.12	14.78	37.56	
2025-01-09 00:29:56.32	14.77	37.60	
2025-01-09 00:29:56.53	14.77	37.66	
2025-01-09 00:29:56.73	14.76	37.70	
2025-01-09 00:29:56.94	14.75	37.76	
2025-01-09 00:29:57.15	14.74	37.81	
2025-01-09 00:29:57.35	14.73	37.86	
2025-01-09 00:29:57.55	14.73	37.90	
2025-01-09 00:29:57.76	14.72	37.96	
2025-01-09 00:29:57.97	14.71	38.01	
2025-01-09 00:29:58.17	14.70	38.06	
2025-01-09 00:29:58.39	14.69	38.11	
2025-01-09 00:29:58.59	14.68	38.16	
2025-01-09 00:29:58.80	14.68	38.21	
2025-01-09 00:29:59.01	14.67	38.26	
2025-01-09 00:29:59.21	14.66	38.31	
2025-01-09 00:29:59.42	14.65	38.37	
2025-01-09 00:29:59.62	14.64	38.42	
2025-01-09 00:29:59.82	14.63	38.47	
2025-01-09 00:30:00.03	14.62	38.52	
2025-01-09 00:30:00.23	14.62	38.57	
2025-01-09 00:30:00.44	14.61	38.62	
2025-01-09 00:30:00.64	14.60	38.67	
2025-01-09 00:30:00.85	14.59	38.72	
2025-01-09 00:30:01.05	14.58	38.77	
2025-01-09 00:30:01.26	14.57	38.83	
2025-01-09 00:30:01.46	14.56	38.88	
2025-01-09 00:30:01.67	14.56	38.93	
2025-01-09 00:30:01.88	14.55	38.98	
2025-01-09 00:30:02.08	14.54	39.03	
2025-01-09 00:30:02.28	14.53	39.08	
2025-01-09 00:30:02.49	14.52	39.14	
2025-01-09 00:30:02.69	14.51	39.19	
2025-01-09 00:30:02.90	14.50	39.24	
2025-01-09 00:30:03.10	14.49	39.29	
2025-01-09 00:30:03.31	14.48	39.35	
2025-01-09 00:30:03.51	14.47	39.40	
2025-01-09 00:30:03.73	14.47	39.45	
2025-01-09 00:30:03.94	14.46	39.51	
2025-01-09 00:30:04.14	14.45	39.56	
2025-01-09 00:30:04.35	14.44	39.61	
2025-01-09 00:30:04.55	14.43	39.67	
2025-01-09 00:30:04.76	14.42	39.72	
2025-01-09 00:30:04.96	14.41	39.77	
2025-01-09 00:30:05.18	14.40	39.83	
2025-01-09 00:30:05.39	14.39	39.88	
2025-01-09 00:30:05.59	14.38	39.93	
2025-01-09 00:30:05.79	14.37	39.99	
2025-01-09 00:30:06.00	14.36	40.04	
2025-01-09 00:30:06.21	14.35	40.10	
2025-01-09 00:30:06.41	14.34	40.15	
2025-01-09 00:30:06.62	14.33	40.20	
2025-01-09 00:30:06.82	14.32	40.26	
2025-01-09 00:30:07.03	14.31	40.31	
2025-01-09 00:30:07.23	14.30	40.36	
2025-01-09 00:30:07.44	14.29	40.42	
2025-01-09 00:30:07.64	14.29	40.47	
2025-01-09 00:30:07.85	14.28	40.53	
2025-01-09 00:30:08.05	14.27	40.58	
2025-01-09 00:30:08.26	14.26	40.64	
2025-01-09 00:30:08.46	14.25	40.69	
2025-01-09 00:30:08.67	14.24	40.74	
2025-01-09 00:30:08.87	14.23	40.80	
2025-01-09 00:30:09.08	14.22	40.85	
2025-01-09 00:30:09.28	14.21	40.91	
2025-01-09 00:30:09.49	14.20	40.96	
2025-01-09 00:30:09.70	14.19	41.02	
2025-01-09 00:30:09.90	14.18	41.07	
2025-01-09 00:30:10.10	14.17	41.13	
2025-01-09 00:30:10.31	14.16	41.18	
2025-01-09 00:30:10.52	14.14	41.24	
2025-01-09 00:30:10.72	14.13	41.29	
2025-01-09 00:30:10.92	14.12	41.35	
2025-01-09 00:30:11.13	14.11	41.40	
2025-01-09 00:30:11.35	14.10	41.46	
2025-01-09 00:30:11.55	14.09	41.52	
2025-01-09 00:30:11.76	14.08	41.58	
2025-01-09 00:30:11.96	14.07	41.63	
2025-01-09 00:30:12.17	14.06	41.69	
2025-01-09 00:30:12.37	14.05	41.74	
2025-01-09 00:30:12.58	14.04	41.80	
2025-01-09 00:30:12.78	14.03	41.85	
2025-01-09 00:30:12.99	14.02	41.91	
2025-01-09 00:30:13.19	14.01	41.97	
2025-01-09 00:30:13.40	14.00	42.02	
2025-01-09 00:30:13.60	13.99	42.08	
2025-01-09 00:30:13.81	13.97	42.14	
2025-01-09 00:30:14.02	13.96	42.20	
2025-01-09 00:30:14.22	13.95	42.25	
2025-01-09 00:30:14.42	13.94	42.31	
2025-01-09 00:30:14.63	13.93	42.36	
2025-01-09 00:30:14.84	13.92	42.42	
2025-01-09 00:30:15.04	13.91	42.48	
2025-01-09 00:30:15.25	13.90	42.54	
2025-01-09 00:30:15.45	13.89	42.59	
2025-01-09 00:30:15.66	13.87	42.65	
2025-01-09 00:30:15.86	13.86	42.71	
2025-01-09 00:30:16.07	13.85	42.77	
2025-01-09 00:30:16.27	13.84	42.82	
2025-01-09 00:30:16.48	13.83	42.88	
2025-01-09 00:30:16.68	13.82	42.94	
2025-01-09 00:30:16.89	13.81	43.00	
2025-01-09 00:30:17.09	13.80	43.05	
2025-01-09 00:30:17.30	13.78	43.11	
2025-01-09 00:30:17.50	13.77	43.17	
2025-01-09 00:30:17.71	13.76	43.23	
2025-01-09 00:30:17.91	13.75	43.29	
2025-01-09 00:30:18.12	13.74	43.35	
2025-01-09 00:30:18.32	13.72	43.40	
2025-01-09 00:30:18.52	13.71	43.46	
2025-01-09 00:30:18.73	13.70	43.52	
2025-01-09 00:30:18.94	13.69	43.58	
2025-01-09 00:30:19.14	13.68	43.64	
2025-01-09 00:30:19.35	13.66	43.70	
2025-01-09 00:30:19.55	13.65	43.76	
2025-01-09 00:30:19.76	13.64	43.82	
2025-01-09 00:30:19.96	13.63	43.87	
2025-01-09 00:30:20.17	13.62	43.94	
2025-01-09 00:30:20.37	13.60	43.99	
2025-01-09 00:30:20.58	13.59	44.05	
2025-01-09 00:30:20.78	13.58	44.11	
2025-01-09 00:30:20.99	13.57	44.17	
2025-01-09 00:30:21.20	13.55	44.23	
2025-01-09 00:30:21.40	13.54	44.29	
2025-01-09 00:30:21.61	13.53	44.35	
2025-01-09 00:30:21.81	13.52	44.41	
2025-01-09 00:30:22.02	13.50	44.47	
2025-01-09 00:30:22.22	13.49	44.53	
2025-01-09 00:30:22.43	13.48	44.59	
2025-01-09 00:30:22.63	13.46	44.65	
2025-01-09 00:30:22.85	13.45	44.72	
2025-01-09 00:30:23.06	13.44	44.78	
2025-01-09 00:30:23.26	13.43	44.84	
2025-01-09 00:30:23.47	13.41	44.90	
2025-01-09 00:30:23.67	13.40	44.96	
2025-01-09 00:30:23.88	13.39	45.02	
2025-01-09 00:30:24.08	13.37	45.08	
2025-01-09 00:30:24.29	13.36	45.15	
2025-01-09 00:30:24.49	13.35	45.21	
2025-01-09 00:30:24.70	13.33	45.27	
2025-01-09 00:30:24.91	13.32	45.33	
2025-01-09 00:30:25.11	13.31	45.39	
2025-01-09 00:30:25.31	13.29	45.45	
2025-01-09 00:30:25.52	13.28	45.51	
2025-01-09 00:30:25.73	13.26	45.58	
2025-01-09 00:30:25.93	13.25	45.64	
2025-01-09 00:30:26.13	13.24	45.70	
2025-01-09 00:30:26.34	13.22	45.76	
2025-01-09 00:30:26.55	13.21	45.83	
2025-01-09 00:30:26.75	13.20	45.89	
2025-01-09 00:30:26.96	13.18	45.95	
2025-01-09 00:30:27.16	13.17	46.01	
2025-01-09 00:30:27.36	13.15	46.07	
2025-01-09 00:30:27.57	13.14	46.14	
2025-01-09 00:30:27.78	13.12	46.20	
2025-01-09 00:30:27.98	13.11	46.26	
2025-01-09 00:30:28.19	13.10	46.33	
2025-01-09 00:30:28.39	13.08	46.39	
2025-01-09 00:30:28.60	13.07	46.45	
2025-01-09 00:30:28.80	13.05	46.51	
2025-01-09 00:30:29.01	13.04	46.58	
2025-01-09 00:30:29.21	13.02	46.64	
2025-01-09 00:30:29.41	13.01	46.70	
2025-01-09 00:30:29.62	12.99	46.77	
2025-01-09 00:30:29.83	12.98	46.83	
2025-01-09 00:30:30.03	12.96	46.89	
2025-01-09 00:30:30.24	12.95	46.96	
2025-01-09 00:30:30.44	12.93	47.02	
2025-01-09 00:30:30.65	12.92	47.09	
2025-01-09 00:30:30.85	12.90	47.15	
2025-01-09 00:30:31.06	12.89	47.22	
2025-01-09 00:30:31.26	12.87	47.28	
2025-01-09 00:30:31.48	12.86	47.35	
2025-01-09 00:30:31.68	12.84	47.41	
2025-01-09 00:30:31.89	12.83	47.48	
2025-01-09 00:30:32.09	12.81	47.54	
2025-01-09 00:30:32.30	12.79	47.61	
2025-01-09 00:30:32.50	12.78	47.67	
2025-01-09 00:30:32.71	12.76	47.74	
2025-01-09 00:30:32.91	12.75	47.80	
2025-01-09 00:30:33.12	12.73	47.87	
2025-01-09 00:30:33.33	12.71	47.93	
2025-01-09 00:30:33.53	12.70	48.00	
2025-01-09 00:30:33.74	12.68	48.06	
2025-01-09 00:30:33.94	12.67	48.13	
2025-01-09 00:30:34.15	12.65	48.20	
2025-01-09 00:30:34.35	12.63	48.26	
2025-01-09 00:30:34.55	12.62	48.32	
2025-01-09 00:30:34.76	12.60	48.39	
2025-01-09 00:30:34.97	12.58	48.46	
2025-01-09 00:30:35.17	12.57	48.52	
2025-01-09 00:30:35.38	12.55	48.59	
2025-01-09 00:30:35.58	12.53	48.66	
2025-01-09 00:30:35.79	12.52	48.72	
2025-01-09 00:30:35.99	12.50	48.79	
2025-01-09 00:30:36.20	12.48	48.86	
2025-01-09 00:30:36.40	12.47	48.92	
2025-01-09 00:30:36.61	12.45	48.99	
2025-01-09 00:30:36.81	12.43	49.06	
2025-01-09 00:30:37.02	12.41	49.13	
2025-01-09 00:30:37.22	12.40	49.19	
2025-01-09 00:30:37.43	12.38	49.26	
2025-01-09 00:30:37.63	12.36	49.33	
2025-01-09 00:30:37.84	12.34	49.39	
2025-01-09 00:30:38.04	12.33	49.46	
2025-01-09 00:30:38.24	12.31	49.53	
2025-01-09 00:30:38.45	12.29	49.60	
2025-01-09 00:30:38.66	12.27	49.67	
2025-01-09 00:30:38.86	12.25	49.73	
2025-01-09 00:30:39.07	12.23	49.80	
2025-01-09 00:30:39.27	12.22	49.87	
2025-01-09 00:30:39.48	12.20	49.94	
2025-01-09 00:30:39.68	12.18	50.00	
2025-01-09 00:30:39.88	12.16	50.07	
2025-01-09 00:30:40.09	12.14	50.14	
2025-01-09 00:30:40.30	12.12	50.21	
2025-01-09 00:30:40.50	12.11	50.28	
2025-01-09 00:30:40.71	12.09	50.35	
2025-01-09 00:30:40.91	12.07	50.42	
2025-01-09 00:30:41.11	12.05	50.48	
2025-01-09 00:30:41.32	12.03	50.55	
2025-01-09 00:30:41.52	12.01	50.62	
2025-01-09 00:30:41.73	11.99	50.69	
2025-01-09 00:30:41.93	11.97	50.76	
2025-01-09 00:30:42.15	11.95	50.84	
2025-01-09 00:30:42.36	11.93	50.91	
2025-01-09 00:30:42.56	11.91	50.98	
2025-01-09 00:30:42.76	11.89	51.04	
2025-01-09 00:30:42.97	11.87	51.11	
2025-01-09 00:30:43.17	11.85	51.18	
2025-01-09 00:30:43.38	11.83	51.25	
2025-01-09 00:30:43.59	11.81	51.33	
2025-01-09 00:30:43.79	11.79	51.40	
2025-01-09 00:30:44.00	11.77	51.47	
2025-01-09 00:30:44.20	11.75	51.54	
2025-01-09 00:30:44.41	11.73	51.61	
2025-01-09 00:30:44.61	11.71	51.68	
2025-01-09 00:30:44.82	11.69	51.75	
2025-01-09 00:30:45.02	11.67	51.82	
2025-01-09 00:30:45.23	11.65	51.89	
2025-01-09 00:30:45.43	11.63	51.96	
2025-01-09 00:30:45.64	11.60	52.03	
2025-01-09 00:30:45.84	11.58	52.10	
2025-01-09 00:30:46.05	11.56	52.18	
2025-01-09 00:30:46.25	11.54	52.25	
2025-01-09 00:30:46.46	11.52	52.32	
2025-01-09 00:30:46.66	11.50	52.39	
2025-01-09 00:30:46.87	11.47	52.46	
2025-01-09 00:30:47.07	11.45	52.53	
2025-01-09 00:30:47.28	11.43	52.61	
2025-01-09 00:30:47.48	11.41	52.68	
2025-01-09 00:30:47.69	11.39	52.75	
2025-01-09 00:30:47.89	11.36	52.82	
2025-01-09 00:30:48.10	11.34	52.90	
2025-01-09 00:30:48.30	11.32	52.97	
2025-01-09 00:30:48.51	11.30	53.04	
2025-01-09 00:30:48.71	11.27	53.11	
2025-01-09 00:30:48.92	11.25	53.19	
2025-01-09 00:30:49.12	11.23	53.26	
2025-01-09 00:30:49.33	11.20	53.33	
2025-01-09 00:30:49.53	11.18	53.41	
2025-01-09 00:30:49.74	11.16	53.48	
2025-01-09 00:30:49.94	11.13	53.55	
2025-01-09 00:30:50.15	11.11	53.63	
2025-01-09 00:30:50.35	11.09	53.70	
2025-01-09 00:30:50.55	11.06	53.77	
2025-01-09 00:30:50.76	11.04	53.85	
2025-01-09 00:30:50.96	11.01	53.92	
2025-01-09 00:30:51.17	10.99	53.99	
2025-01-09 00:30:51.37	10.97	54.07	
2025-01-09 00:30:51.58	10.94	54.14	
2025-01-09 00:30:51.78	10.92	54.22	
2025-01-09 00:30:51.98	10.89	54.29	
2025-01-09 00:30:52.19	10.87	54.36	
2025-01-09 00:30:52.40	10.84	54.44	
2025-01-09 00:30:52.60	10.82	54.51	
2025-01-09 00:30:52.82	10.79	54.59	
2025-01-09 00:30:53.02	10.76	54.67	
2025-01-09 00:30:53.23	10.74	54.74	
2025-01-09 00:30:53.44	10.71	54.82	
2025-01-09 00:30:53.64	10.69	54.89	
2025-01-09 00:30:53.84	10.66	54.97	
2025-01-09 00:30:54.05	10.63	55.05	
2025-01-09 00:30:54.25	10.61	55.12	
2025-01-09 00:30:54.46	10.58	55.20	
2025-01-09 00:30:54.67	10.55	55.27	
2025-01-09 00:30:54.87	10.53	55.35	
2025-01-09 00:30:55.07	10.50	55.42	
2025-01-09 00:30:55.28	10.47	55.50	
2025-01-09 00:30:55.48	10.45	55.57	
2025-01-09 00:30:55.69	10.42	55.65	
2025-01-09 00:30:55.89	10.39	55.73	
2025-01-09 00:30:56.09	10.36	55.80	
2025-01-09 00:30:56.30	10.33	55.88	
2025-01-09 00:30:56.51	10.31	55.96	
2025-01-09 00:30:56.71	10.28	56.03	
2025-01-09 00:30:56.92	10.25	56.11	
2025-01-09 00:30:57.12	10.22	56.19	
2025-01-09 00:30:57.32	10.19	56.26	
2025-01-09 00:30:57.53	10.16	56.34	
2025-01-09 00:30:57.74	10.13	56.42	
2025-01-09 00:30:57.94	10.11	56.50	
2025-01-09 00:30:58.15	10.08	56.57	
2025-01-09 00:30:58.35	10.05	56.65	
2025-01-09 00:30:58.56	10.02	56.73	
2025-01-09 00:30:58.76	9.99	56.81	
2025-01-09 00:30:58.97	9.96	56.89	
2025-01-09 00:30:59.17	9.93	56.96	
2025-01-09 00:30:59.38	9.90	57.04	
2025-01-09 00:30:59.59	9.86	57.12	
2025-01-09 00:30:59.79	9.83	57.20	
2025-01-09 00:30:59.99	9.80	57.27	
2025-01-09 00:31:00.20	9.77	57.35	
2025-01-09 00:31:00.40	9.74	57.43	
2025-01-09 00:31:00.61	9.71	57.51	
2025-01-09 00:31:00.82	9.68	57.59	
2025-01-09 00:31:01.03	9.64	57.67	
2025-01-09 00:31:01.23	9.61	57.75	
2025-01-09 00:31:01.44	9.58	57.83	
2025-01-09 00:31:01.64	9.55	57.91	
2025-01-09 00:31:01.85	9.51	57.99	
2025-01-09 00:31:02.05	9.48	58.07	
2025-01-09 00:31:02.26	9.45	58.15	
2025-01-09 00:31:02.46	9.42	58.23	
2025-01-09 00:31:02.67	9.38	58.31	
2025-01-09 00:31:02.87	9.35	58.38	
2025-01-09 00:31:03.08	9.31	58.47	
2025-01-09 00:31:03.28	9.28	58.54	
2025-01-09 00:31:03.49	9.25	58.63	
2025-01-09 00:31:03.69	9.21	58.70	
2025-01-09 00:31:03.90	9.18	58.79	
2025-01-09 00:31:04.10	9.14	58.87	
2025-01-09 00:31:04.31	9.11	58.95	
2025-01-09 00:31:04.51	9.07	59.03	
2025-01-09 00:31:04.71	9.04	59.10	
2025-01-09 00:31:04.92	9.00	59.19	
2025-01-09 00:31:05.12	8.96	59.27	
2025-01-09 00:31:05.33	8.93	59.35	
2025-01-09 00:31:05.53	8.89	59.43	
2025-01-09 00:31:05.74	8.85	59.51	
2025-01-09 00:31:05.94	8.82	59.59	
2025-01-09 00:31:06.15	8.78	59.67	
2025-01-09 00:31:06.35	8.74	59.75	
2025-01-09 00:31:06.56	8.70	59.84	
2025-01-09 00:31:06.76	8.67	59.92	
2025-01-09 00:31:06.97	8.63	60.00	
2025-01-09 00:31:07.17	8.59	60.08	
2025-01-09 00:31:07.38	8.55	60.16	
