passes_logs/2025/01/09/SPB_Silybum_02/SPB_Silybum_02__20250109_025425_AQUA_rec.log

#Pass ID: 20250109_025425_AQUA
#Satellite: AQUA
#Configuration: AQUA
#Start time: 2025-01-09 02:54:24

#Version: 2.0.20230423
#Station: SPB_Silybum_02
#Location: 30.233357 lon 59.946436 lat
#TLE: 1 27424U 02022A   25008.15498937  .00002389  00000+0  50057-3 0  9997
#TLE: 2 27424  98.3576 324.7578 0001462 118.2546 298.6643 14.60656725206621

#Time	Az	El	Level	Level2	SNR	BER	Gain	Gain2
2025-01-09 02:54:26.60	10.83	4.05	
2025-01-09 02:54:26.81	10.81	4.07	
2025-01-09 02:54:27.01	10.79	4.08	
2025-01-09 02:54:27.22	10.78	4.09	
2025-01-09 02:54:27.42	10.76	4.10	
2025-01-09 02:54:27.63	10.75	4.12	
2025-01-09 02:54:27.83	10.73	4.13	
2025-01-09 02:54:28.04	10.72	4.14	
2025-01-09 02:54:28.24	10.70	4.16	
2025-01-09 02:54:28.45	10.68	4.17	
2025-01-09 02:54:28.65	10.67	4.18	
2025-01-09 02:54:28.86	10.65	4.20	
2025-01-09 02:54:29.06	10.64	4.21	
2025-01-09 02:54:29.27	10.62	4.22	
2025-01-09 02:54:29.47	10.61	4.23	
2025-01-09 02:54:29.68	10.59	4.25	
2025-01-09 02:54:29.88	10.57	4.26	
2025-01-09 02:54:30.09	10.56	4.27	
2025-01-09 02:54:30.29	10.54	4.29	
2025-01-09 02:54:30.49	10.53	4.30	
2025-01-09 02:54:30.70	10.51	4.31	
2025-01-09 02:54:30.91	10.49	4.33	
2025-01-09 02:54:31.11	10.48	4.34	
2025-01-09 02:54:31.32	10.46	4.35	
2025-01-09 02:54:31.52	10.45	4.36	
2025-01-09 02:54:31.73	10.43	4.38	
2025-01-09 02:54:31.93	10.41	4.39	
2025-01-09 02:54:32.14	10.40	4.40	
2025-01-09 02:54:32.34	10.38	4.42	
2025-01-09 02:54:32.54	10.36	4.43	
2025-01-09 02:54:32.75	10.35	4.44	
2025-01-09 02:54:32.96	10.33	4.46	
2025-01-09 02:54:33.16	10.32	4.47	
2025-01-09 02:54:33.37	10.30	4.48	
2025-01-09 02:54:33.57	10.28	4.50	
2025-01-09 02:54:33.78	10.27	4.51	
2025-01-09 02:54:33.99	10.25	4.52	
2025-01-09 02:54:34.19	10.23	4.54	
2025-01-09 02:54:34.40	10.22	4.55	
2025-01-09 02:54:34.60	10.20	4.56	
2025-01-09 02:54:34.81	10.18	4.58	
2025-01-09 02:54:35.01	10.17	4.59	
2025-01-09 02:54:35.22	10.15	4.60	
2025-01-09 02:54:35.42	10.14	4.61	
2025-01-09 02:54:35.63	10.12	4.63	
2025-01-09 02:54:35.84	10.10	4.64	
2025-01-09 02:54:36.05	10.09	4.66	
2025-01-09 02:54:36.25	10.07	4.67	
2025-01-09 02:54:36.46	10.05	4.68	
2025-01-09 02:54:36.66	10.04	4.69	
2025-01-09 02:54:36.88	10.02	4.71	
2025-01-09 02:54:37.09	10.00	4.72	
2025-01-09 02:54:37.29	9.99	4.74	
2025-01-09 02:54:37.50	9.97	4.75	
2025-01-09 02:54:37.70	9.95	4.76	
2025-01-09 02:54:37.91	9.94	4.78	
2025-01-09 02:54:38.11	9.92	4.79	
2025-01-09 02:54:38.32	9.90	4.80	
2025-01-09 02:54:38.52	9.89	4.81	
2025-01-09 02:54:38.73	9.87	4.83	
2025-01-09 02:54:38.93	9.85	4.84	
2025-01-09 02:54:39.14	9.84	4.86	
2025-01-09 02:54:39.35	9.82	4.87	
2025-01-09 02:54:39.55	9.80	4.88	
2025-01-09 02:54:39.76	9.79	4.90	
2025-01-09 02:54:39.96	9.77	4.91	
2025-01-09 02:54:40.17	9.75	4.92	
2025-01-09 02:54:40.37	9.74	4.93	
2025-01-09 02:54:40.58	9.72	4.95	
2025-01-09 02:54:40.78	9.70	4.96	
2025-01-09 02:54:40.99	9.68	4.98	
2025-01-09 02:54:41.19	9.67	4.99	
2025-01-09 02:54:41.40	9.65	5.00	
2025-01-09 02:54:41.60	9.63	5.01	
2025-01-09 02:54:41.81	9.62	5.03	
2025-01-09 02:54:42.01	9.60	5.04	
2025-01-09 02:54:42.22	9.58	5.06	
2025-01-09 02:54:42.42	9.57	5.07	
2025-01-09 02:54:42.62	9.55	5.08	
2025-01-09 02:54:42.83	9.53	5.10	
2025-01-09 02:54:43.04	9.52	5.11	
2025-01-09 02:54:43.24	9.50	5.12	
2025-01-09 02:54:43.45	9.48	5.14	
2025-01-09 02:54:43.65	9.46	5.15	
2025-01-09 02:54:43.86	9.45	5.16	
2025-01-09 02:54:44.06	9.43	5.18	
2025-01-09 02:54:44.27	9.41	5.19	
2025-01-09 02:54:44.47	9.40	5.20	
2025-01-09 02:54:44.68	9.38	5.22	
2025-01-09 02:54:44.89	9.36	5.23	
2025-01-09 02:54:45.09	9.34	5.24	
2025-01-09 02:54:45.29	9.33	5.26	
2025-01-09 02:54:45.50	9.31	5.27	
2025-01-09 02:54:45.70	9.29	5.28	
2025-01-09 02:54:45.91	9.27	5.30	
2025-01-09 02:54:46.11	9.26	5.31	
2025-01-09 02:54:46.32	9.24	5.32	
2025-01-09 02:54:46.52	9.22	5.34	
2025-01-09 02:54:46.73	9.21	5.35	
2025-01-09 02:54:46.93	9.19	5.36	
2025-01-09 02:54:47.14	9.17	5.38	
2025-01-09 02:54:47.34	9.15	5.39	
2025-01-09 02:54:47.55	9.14	5.40	
2025-01-09 02:54:47.75	9.12	5.42	
2025-01-09 02:54:47.96	9.10	5.43	
2025-01-09 02:54:48.16	9.08	5.44	
2025-01-09 02:54:48.37	9.07	5.46	
2025-01-09 02:54:48.57	9.05	5.47	
2025-01-09 02:54:48.78	9.03	5.49	
2025-01-09 02:54:48.98	9.01	5.50	
2025-01-09 02:54:49.19	9.00	5.51	
2025-01-09 02:54:49.39	8.98	5.53	
2025-01-09 02:54:49.59	8.96	5.54	
2025-01-09 02:54:49.80	8.94	5.55	
2025-01-09 02:54:50.01	8.93	5.57	
2025-01-09 02:54:50.21	8.91	5.58	
2025-01-09 02:54:50.41	8.89	5.59	
2025-01-09 02:54:50.62	8.87	5.61	
2025-01-09 02:54:50.82	8.86	5.62	
2025-01-09 02:54:51.02	8.84	5.63	
2025-01-09 02:54:51.23	8.82	5.65	
2025-01-09 02:54:51.44	8.80	5.66	
2025-01-09 02:54:51.64	8.78	5.67	
2025-01-09 02:54:51.84	8.77	5.69	
2025-01-09 02:54:52.05	8.75	5.70	
2025-01-09 02:54:52.26	8.73	5.72	
2025-01-09 02:54:52.46	8.71	5.73	
2025-01-09 02:54:52.67	8.69	5.74	
2025-01-09 02:54:52.87	8.68	5.76	
2025-01-09 02:54:53.08	8.66	5.77	
2025-01-09 02:54:53.28	8.64	5.78	
2025-01-09 02:54:53.49	8.62	5.80	
2025-01-09 02:54:53.69	8.61	5.81	
2025-01-09 02:54:53.91	8.59	5.83	
2025-01-09 02:54:54.11	8.57	5.84	
2025-01-09 02:54:54.32	8.55	5.85	
2025-01-09 02:54:54.52	8.53	5.87	
2025-01-09 02:54:54.73	8.51	5.88	
2025-01-09 02:54:54.93	8.50	5.89	
2025-01-09 02:54:55.14	8.48	5.91	
2025-01-09 02:54:55.34	8.46	5.92	
2025-01-09 02:54:55.55	8.44	5.94	
2025-01-09 02:54:55.75	8.42	5.95	
2025-01-09 02:54:55.96	8.40	5.96	
2025-01-09 02:54:56.16	8.39	5.98	
2025-01-09 02:54:56.37	8.37	5.99	
2025-01-09 02:54:56.57	8.35	6.00	
2025-01-09 02:54:56.77	8.33	6.02	
2025-01-09 02:54:56.98	8.31	6.03	
2025-01-09 02:54:57.18	8.30	6.04	
2025-01-09 02:54:57.39	8.28	6.06	
2025-01-09 02:54:57.60	8.26	6.07	
2025-01-09 02:54:57.80	8.24	6.09	
2025-01-09 02:54:58.01	8.22	6.10	
2025-01-09 02:54:58.21	8.20	6.11	
2025-01-09 02:54:58.42	8.18	6.13	
2025-01-09 02:54:58.62	8.17	6.14	
2025-01-09 02:54:58.82	8.15	6.15	
2025-01-09 02:54:59.03	8.13	6.17	
2025-01-09 02:54:59.23	8.11	6.18	
2025-01-09 02:54:59.44	8.09	6.20	
2025-01-09 02:54:59.65	8.07	6.21	
2025-01-09 02:54:59.85	8.06	6.22	
2025-01-09 02:55:00.05	8.04	6.24	
2025-01-09 02:55:00.26	8.02	6.25	
2025-01-09 02:55:00.46	8.00	6.26	
2025-01-09 02:55:00.67	7.98	6.28	
2025-01-09 02:55:00.87	7.96	6.29	
2025-01-09 02:55:01.08	7.94	6.31	
2025-01-09 02:55:01.28	7.93	6.32	
2025-01-09 02:55:01.49	7.91	6.33	
2025-01-09 02:55:01.69	7.89	6.35	
2025-01-09 02:55:01.90	7.87	6.36	
2025-01-09 02:55:02.10	7.85	6.38	
2025-01-09 02:55:02.31	7.83	6.39	
2025-01-09 02:55:02.51	7.81	6.40	
2025-01-09 02:55:02.72	7.79	6.42	
2025-01-09 02:55:02.92	7.78	6.43	
2025-01-09 02:55:03.13	7.76	6.45	
2025-01-09 02:55:03.33	7.74	6.46	
2025-01-09 02:55:03.55	7.72	6.47	
2025-01-09 02:55:03.76	7.70	6.49	
2025-01-09 02:55:03.97	7.68	6.50	
2025-01-09 02:55:04.17	7.66	6.52	
2025-01-09 02:55:04.38	7.64	6.53	
2025-01-09 02:55:04.59	7.62	6.54	
2025-01-09 02:55:04.80	7.60	6.56	
2025-01-09 02:55:05.01	7.58	6.57	
2025-01-09 02:55:05.21	7.56	6.59	
2025-01-09 02:55:05.42	7.54	6.60	
2025-01-09 02:55:05.62	7.52	6.61	
2025-01-09 02:55:05.82	7.51	6.63	
2025-01-09 02:55:06.03	7.49	6.64	
2025-01-09 02:55:06.24	7.47	6.66	
2025-01-09 02:55:06.44	7.45	6.67	
2025-01-09 02:55:06.64	7.43	6.68	
2025-01-09 02:55:06.85	7.41	6.70	
2025-01-09 02:55:07.06	7.39	6.71	
2025-01-09 02:55:07.26	7.37	6.73	
2025-01-09 02:55:07.47	7.35	6.74	
2025-01-09 02:55:07.67	7.33	6.75	
2025-01-09 02:55:07.88	7.31	6.77	
2025-01-09 02:55:08.08	7.29	6.78	
2025-01-09 02:55:08.28	7.27	6.80	
2025-01-09 02:55:08.49	7.25	6.81	
2025-01-09 02:55:08.70	7.23	6.83	
2025-01-09 02:55:08.90	7.22	6.84	
2025-01-09 02:55:09.10	7.20	6.85	
2025-01-09 02:55:09.31	7.18	6.87	
2025-01-09 02:55:09.52	7.16	6.88	
2025-01-09 02:55:09.72	7.14	6.90	
2025-01-09 02:55:09.94	7.12	6.91	
2025-01-09 02:55:10.15	7.10	6.93	
2025-01-09 02:55:10.35	7.08	6.94	
2025-01-09 02:55:10.55	7.06	6.95	
2025-01-09 02:55:10.76	7.04	6.97	
2025-01-09 02:55:10.96	7.02	6.98	
2025-01-09 02:55:11.17	7.00	7.00	
2025-01-09 02:55:11.38	6.98	7.01	
2025-01-09 02:55:11.58	6.96	7.02	
2025-01-09 02:55:11.79	6.94	7.04	
2025-01-09 02:55:11.99	6.92	7.05	
2025-01-09 02:55:12.20	6.90	7.07	
2025-01-09 02:55:12.40	6.88	7.08	
2025-01-09 02:55:12.61	6.86	7.09	
2025-01-09 02:55:12.81	6.84	7.11	
2025-01-09 02:55:13.01	6.82	7.12	
2025-01-09 02:55:13.22	6.80	7.14	
2025-01-09 02:55:13.42	6.78	7.15	
2025-01-09 02:55:13.63	6.76	7.17	
2025-01-09 02:55:13.83	6.74	7.18	
2025-01-09 02:55:14.04	6.72	7.19	
2025-01-09 02:55:14.24	6.70	7.21	
2025-01-09 02:55:14.44	6.68	7.22	
2025-01-09 02:55:14.65	6.66	7.24	
2025-01-09 02:55:14.85	6.64	7.25	
2025-01-09 02:55:15.06	6.62	7.26	
2025-01-09 02:55:15.28	6.60	7.28	
2025-01-09 02:55:15.48	6.58	7.29	
2025-01-09 02:55:15.69	6.56	7.31	
2025-01-09 02:55:15.89	6.54	7.32	
2025-01-09 02:55:16.10	6.52	7.34	
2025-01-09 02:55:16.30	6.50	7.35	
2025-01-09 02:55:16.51	6.48	7.36	
2025-01-09 02:55:16.71	6.46	7.38	
2025-01-09 02:55:16.92	6.44	7.39	
2025-01-09 02:55:17.12	6.42	7.41	
2025-01-09 02:55:17.33	6.40	7.42	
2025-01-09 02:55:17.53	6.38	7.44	
2025-01-09 02:55:17.74	6.35	7.45	
2025-01-09 02:55:17.94	6.33	7.46	
2025-01-09 02:55:18.15	6.31	7.48	
2025-01-09 02:55:18.35	6.29	7.49	
2025-01-09 02:55:18.55	6.27	7.51	
2025-01-09 02:55:18.76	6.25	7.52	
2025-01-09 02:55:18.97	6.23	7.54	
2025-01-09 02:55:19.17	6.21	7.55	
2025-01-09 02:55:19.38	6.19	7.57	
2025-01-09 02:55:19.58	6.17	7.58	
2025-01-09 02:55:19.79	6.15	7.59	
2025-01-09 02:55:19.99	6.13	7.61	
2025-01-09 02:55:20.20	6.11	7.62	
2025-01-09 02:55:20.40	6.09	7.64	
2025-01-09 02:55:20.61	6.07	7.65	
2025-01-09 02:55:20.81	6.05	7.67	
2025-01-09 02:55:21.02	6.02	7.68	
2025-01-09 02:55:21.22	6.00	7.69	
2025-01-09 02:55:21.43	5.98	7.71	
2025-01-09 02:55:21.63	5.96	7.72	
2025-01-09 02:55:21.84	5.94	7.74	
2025-01-09 02:55:22.05	5.92	7.75	
2025-01-09 02:55:22.25	5.90	7.77	
2025-01-09 02:55:22.46	5.88	7.78	
2025-01-09 02:55:22.66	5.86	7.80	
2025-01-09 02:55:22.87	5.84	7.81	
2025-01-09 02:55:23.07	5.82	7.82	
2025-01-09 02:55:23.28	5.79	7.84	
2025-01-09 02:55:23.48	5.77	7.85	
2025-01-09 02:55:23.69	5.75	7.87	
2025-01-09 02:55:23.89	5.73	7.88	
2025-01-09 02:55:24.10	5.71	7.90	
2025-01-09 02:55:24.30	5.69	7.91	
2025-01-09 02:55:24.51	5.67	7.93	
2025-01-09 02:55:24.71	5.65	7.94	
2025-01-09 02:55:24.91	5.63	7.95	
2025-01-09 02:55:25.12	5.60	7.97	
2025-01-09 02:55:25.33	5.58	7.98	
2025-01-09 02:55:25.53	5.56	8.00	
2025-01-09 02:55:25.73	5.54	8.01	
2025-01-09 02:55:25.94	5.52	8.03	
2025-01-09 02:55:26.14	5.50	8.04	
2025-01-09 02:55:26.35	5.48	8.06	
2025-01-09 02:55:26.56	5.45	8.07	
2025-01-09 02:55:26.76	5.43	8.09	
2025-01-09 02:55:26.96	5.41	8.10	
2025-01-09 02:55:27.17	5.39	8.11	
2025-01-09 02:55:27.38	5.37	8.13	
2025-01-09 02:55:27.58	5.35	8.14	
2025-01-09 02:55:27.78	5.33	8.16	
2025-01-09 02:55:27.99	5.30	8.17	
2025-01-09 02:55:28.19	5.28	8.19	
2025-01-09 02:55:28.40	5.26	8.20	
2025-01-09 02:55:28.60	5.24	8.22	
2025-01-09 02:55:28.81	5.22	8.23	
2025-01-09 02:55:29.02	5.19	8.25	
2025-01-09 02:55:29.22	5.17	8.26	
2025-01-09 02:55:29.42	5.15	8.27	
2025-01-09 02:55:29.63	5.13	8.29	
2025-01-09 02:55:29.83	5.11	8.30	
2025-01-09 02:55:30.04	5.09	8.32	
2025-01-09 02:55:30.24	5.06	8.33	
2025-01-09 02:55:30.45	5.04	8.35	
2025-01-09 02:55:30.66	5.02	8.36	
2025-01-09 02:55:30.86	5.00	8.38	
2025-01-09 02:55:31.06	4.98	8.39	
2025-01-09 02:55:31.28	4.95	8.41	
2025-01-09 02:55:31.49	4.93	8.42	
2025-01-09 02:55:31.69	4.91	8.44	
2025-01-09 02:55:31.90	4.89	8.45	
2025-01-09 02:55:32.10	4.87	8.47	
2025-01-09 02:55:32.30	4.84	8.48	
2025-01-09 02:55:32.51	4.82	8.50	
2025-01-09 02:55:32.71	4.80	8.51	
2025-01-09 02:55:32.92	4.78	8.52	
2025-01-09 02:55:33.13	4.75	8.54	
2025-01-09 02:55:33.33	4.73	8.55	
2025-01-09 02:55:33.53	4.71	8.57	
2025-01-09 02:55:33.74	4.69	8.58	
2025-01-09 02:55:33.95	4.66	8.60	
2025-01-09 02:55:34.15	4.64	8.61	
2025-01-09 02:55:34.35	4.62	8.63	
2025-01-09 02:55:34.56	4.60	8.64	
2025-01-09 02:55:34.76	4.58	8.66	
2025-01-09 02:55:34.97	4.55	8.67	
2025-01-09 02:55:35.18	4.53	8.69	
2025-01-09 02:55:35.38	4.51	8.70	
2025-01-09 02:55:35.60	4.48	8.72	
2025-01-09 02:55:35.80	4.46	8.73	
2025-01-09 02:55:36.01	4.44	8.75	
2025-01-09 02:55:36.22	4.42	8.76	
2025-01-09 02:55:36.42	4.39	8.78	
2025-01-09 02:55:36.64	4.37	8.79	
2025-01-09 02:55:36.85	4.35	8.81	
2025-01-09 02:55:37.05	4.32	8.82	
2025-01-09 02:55:37.25	4.30	8.84	
2025-01-09 02:55:37.47	4.28	8.85	
2025-01-09 02:55:37.67	4.26	8.87	
2025-01-09 02:55:37.88	4.23	8.88	
2025-01-09 02:55:38.08	4.21	8.90	
2025-01-09 02:55:38.29	4.19	8.91	
2025-01-09 02:55:38.49	4.16	8.93	
2025-01-09 02:55:38.70	4.14	8.94	
2025-01-09 02:55:38.90	4.12	8.96	
2025-01-09 02:55:39.11	4.09	8.97	
2025-01-09 02:55:39.31	4.07	8.99	
2025-01-09 02:55:39.52	4.05	9.00	
2025-01-09 02:55:39.72	4.03	9.02	
2025-01-09 02:55:39.92	4.00	9.03	
2025-01-09 02:55:40.13	3.98	9.05	
2025-01-09 02:55:40.33	3.96	9.06	
2025-01-09 02:55:40.54	3.93	9.08	
2025-01-09 02:55:40.74	3.91	9.09	
2025-01-09 02:55:40.95	3.89	9.11	
2025-01-09 02:55:41.15	3.86	9.12	
2025-01-09 02:55:41.36	3.84	9.14	
2025-01-09 02:55:41.57	3.82	9.15	
2025-01-09 02:55:41.77	3.79	9.17	
2025-01-09 02:55:41.97	3.77	9.18	
2025-01-09 02:55:42.18	3.75	9.20	
2025-01-09 02:55:42.38	3.72	9.21	
2025-01-09 02:55:42.59	3.70	9.23	
2025-01-09 02:55:42.80	3.68	9.24	
2025-01-09 02:55:43.00	3.65	9.26	
2025-01-09 02:55:43.21	3.63	9.27	
2025-01-09 02:55:43.41	3.61	9.29	
2025-01-09 02:55:43.62	3.58	9.30	
2025-01-09 02:55:43.82	3.56	9.32	
2025-01-09 02:55:44.02	3.54	9.33	
2025-01-09 02:55:44.23	3.51	9.35	
2025-01-09 02:55:44.43	3.49	9.36	
2025-01-09 02:55:44.64	3.47	9.38	
2025-01-09 02:55:44.85	3.44	9.39	
2025-01-09 02:55:45.05	3.42	9.41	
2025-01-09 02:55:45.25	3.39	9.42	
2025-01-09 02:55:45.46	3.37	9.44	
2025-01-09 02:55:45.66	3.35	9.45	
2025-01-09 02:55:45.87	3.32	9.47	
2025-01-09 02:55:46.07	3.30	9.48	
2025-01-09 02:55:46.28	3.27	9.50	
2025-01-09 02:55:46.48	3.25	9.51	
2025-01-09 02:55:46.69	3.23	9.53	
2025-01-09 02:55:46.89	3.20	9.54	
2025-01-09 02:55:47.10	3.18	9.56	
2025-01-09 02:55:47.32	3.15	9.57	
2025-01-09 02:55:47.52	3.13	9.59	
2025-01-09 02:55:47.73	3.10	9.60	
2025-01-09 02:55:47.93	3.08	9.62	
2025-01-09 02:55:48.14	3.06	9.63	
2025-01-09 02:55:48.34	3.03	9.65	
2025-01-09 02:55:48.54	3.01	9.66	
2025-01-09 02:55:48.75	2.98	9.68	
2025-01-09 02:55:48.96	2.96	9.69	
2025-01-09 02:55:49.16	2.94	9.71	
2025-01-09 02:55:49.36	2.91	9.72	
2025-01-09 02:55:49.57	2.89	9.74	
2025-01-09 02:55:49.78	2.86	9.75	
2025-01-09 02:55:49.98	2.84	9.77	
2025-01-09 02:55:50.19	2.81	9.78	
2025-01-09 02:55:50.39	2.79	9.80	
2025-01-09 02:55:50.59	2.77	9.81	
2025-01-09 02:55:50.80	2.74	9.83	
2025-01-09 02:55:51.00	2.72	9.84	
2025-01-09 02:55:51.21	2.69	9.86	
2025-01-09 02:55:51.42	2.67	9.88	
2025-01-09 02:55:51.62	2.64	9.89	
2025-01-09 02:55:51.83	2.62	9.91	
2025-01-09 02:55:52.03	2.59	9.92	
2025-01-09 02:55:52.24	2.57	9.94	
2025-01-09 02:55:52.44	2.54	9.95	
2025-01-09 02:55:52.64	2.52	9.97	
2025-01-09 02:55:52.85	2.49	9.98	
2025-01-09 02:55:53.05	2.47	10.00	
2025-01-09 02:55:53.26	2.44	10.01	
2025-01-09 02:55:53.47	2.42	10.03	
2025-01-09 02:55:53.67	2.39	10.04	
2025-01-09 02:55:53.88	2.37	10.06	
2025-01-09 02:55:54.08	2.34	10.07	
2025-01-09 02:55:54.29	2.32	10.09	
2025-01-09 02:55:54.49	2.29	10.10	
2025-01-09 02:55:54.70	2.27	10.12	
2025-01-09 02:55:54.90	2.24	10.13	
2025-01-09 02:55:55.11	2.22	10.15	
2025-01-09 02:55:55.31	2.19	10.17	
2025-01-09 02:55:55.52	2.17	10.18	
2025-01-09 02:55:55.72	2.14	10.20	
2025-01-09 02:55:55.92	2.12	10.21	
2025-01-09 02:55:56.13	2.09	10.23	
2025-01-09 02:55:56.33	2.07	10.24	
2025-01-09 02:55:56.54	2.04	10.26	
2025-01-09 02:55:56.74	2.02	10.27	
2025-01-09 02:55:56.94	1.99	10.29	
2025-01-09 02:55:57.15	1.97	10.30	
2025-01-09 02:55:57.35	1.94	10.32	
2025-01-09 02:55:57.56	1.92	10.33	
2025-01-09 02:55:57.76	1.89	10.35	
2025-01-09 02:55:57.97	1.86	10.36	
2025-01-09 02:55:58.17	1.84	10.38	
2025-01-09 02:55:58.38	1.81	10.40	
2025-01-09 02:55:58.58	1.79	10.41	
2025-01-09 02:55:58.79	1.76	10.43	
2025-01-09 02:55:58.99	1.74	10.44	
2025-01-09 02:55:59.20	1.71	10.46	
2025-01-09 02:55:59.40	1.69	10.47	
2025-01-09 02:55:59.61	1.66	10.49	
2025-01-09 02:55:59.81	1.63	10.50	
2025-01-09 02:56:00.02	1.61	10.52	
2025-01-09 02:56:00.22	1.58	10.53	
2025-01-09 02:56:00.43	1.56	10.55	
2025-01-09 02:56:00.64	1.53	10.57	
2025-01-09 02:56:00.84	1.50	10.58	
2025-01-09 02:56:01.05	1.48	10.60	
2025-01-09 02:56:01.25	1.45	10.61	
2025-01-09 02:56:01.46	1.43	10.63	
2025-01-09 02:56:01.66	1.40	10.64	
2025-01-09 02:56:01.87	1.37	10.66	
2025-01-09 02:56:02.07	1.35	10.67	
2025-01-09 02:56:02.29	1.32	10.69	
2025-01-09 02:56:02.49	1.29	10.71	
2025-01-09 02:56:02.70	1.27	10.72	
2025-01-09 02:56:02.91	1.24	10.74	
2025-01-09 02:56:03.11	1.21	10.75	
2025-01-09 02:56:03.32	1.19	10.77	
2025-01-09 02:56:03.52	1.16	10.78	
2025-01-09 02:56:03.73	1.14	10.80	
2025-01-09 02:56:03.93	1.11	10.81	
2025-01-09 02:56:04.14	1.08	10.83	
2025-01-09 02:56:04.34	1.06	10.85	
2025-01-09 02:56:04.54	1.03	10.86	
2025-01-09 02:56:04.75	1.00	10.88	
2025-01-09 02:56:04.95	0.98	10.89	
2025-01-09 02:56:05.16	0.95	10.91	
2025-01-09 02:56:05.36	0.92	10.92	
2025-01-09 02:56:05.56	0.90	10.94	
2025-01-09 02:56:05.77	0.87	10.95	
2025-01-09 02:56:05.97	0.84	10.97	
2025-01-09 02:56:06.18	0.82	10.99	
2025-01-09 02:56:06.39	0.79	11.00	
2025-01-09 02:56:06.59	0.76	11.02	
2025-01-09 02:56:06.79	0.74	11.03	
2025-01-09 02:56:07.00	0.71	11.05	
2025-01-09 02:56:07.21	0.68	11.06	
2025-01-09 02:56:07.41	0.66	11.08	
2025-01-09 02:56:07.61	0.63	11.09	
2025-01-09 02:56:07.82	0.60	11.11	
2025-01-09 02:56:08.02	0.58	11.13	
2025-01-09 02:56:08.23	0.55	11.14	
2025-01-09 02:56:08.43	0.52	11.16	
2025-01-09 02:56:08.64	0.49	11.17	
2025-01-09 02:56:08.84	0.47	11.19	
2025-01-09 02:56:09.05	0.44	11.20	
2025-01-09 02:56:09.25	0.41	11.22	
2025-01-09 02:56:09.46	0.38	11.24	
2025-01-09 02:56:09.66	0.36	11.25	
2025-01-09 02:56:09.87	0.33	11.27	
2025-01-09 02:56:10.07	0.30	11.28	
2025-01-09 02:56:10.27	0.28	11.30	
2025-01-09 02:56:10.48	0.25	11.31	
2025-01-09 02:56:10.68	0.22	11.33	
2025-01-09 02:56:10.89	0.19	11.35	
2025-01-09 02:56:11.10	0.17	11.36	
2025-01-09 02:56:11.30	0.14	11.38	
2025-01-09 02:56:11.51	0.11	11.39	
2025-01-09 02:56:11.71	0.08	11.41	
2025-01-09 02:56:11.92	0.06	11.42	
2025-01-09 02:56:12.12	0.03	11.44	
2025-01-09 02:56:12.33	360.00	11.46	
2025-01-09 02:56:12.54	359.97	11.47	
2025-01-09 02:56:12.74	359.94	11.49	
2025-01-09 02:56:12.96	359.91	11.50	
2025-01-09 02:56:13.16	359.89	11.52	
2025-01-09 02:56:13.37	359.86	11.54	
2025-01-09 02:56:13.57	359.83	11.55	
2025-01-09 02:56:13.78	359.80	11.57	
2025-01-09 02:56:13.98	359.78	11.58	
2025-01-09 02:56:14.19	359.75	11.60	
2025-01-09 02:56:14.39	359.72	11.61	
2025-01-09 02:56:14.60	359.69	11.63	
2025-01-09 02:56:14.80	359.66	11.65	
2025-01-09 02:56:15.00	359.64	11.66	
2025-01-09 02:56:15.21	359.61	11.68	
2025-01-09 02:56:15.42	359.58	11.69	
2025-01-09 02:56:15.62	359.55	11.71	
2025-01-09 02:56:15.83	359.52	11.73	
2025-01-09 02:56:16.03	359.49	11.74	
2025-01-09 02:56:16.24	359.46	11.76	
2025-01-09 02:56:16.44	359.44	11.77	
2025-01-09 02:56:16.65	359.41	11.79	
2025-01-09 02:56:16.86	359.38	11.81	
2025-01-09 02:56:17.07	359.35	11.82	
2025-01-09 02:56:17.27	359.32	11.84	
2025-01-09 02:56:17.48	359.29	11.85	
2025-01-09 02:56:17.68	359.26	11.87	
2025-01-09 02:56:17.90	359.23	11.89	
2025-01-09 02:56:18.10	359.21	11.90	
2025-01-09 02:56:18.31	359.18	11.92	
2025-01-09 02:56:18.51	359.15	11.93	
2025-01-09 02:56:18.72	359.12	11.95	
2025-01-09 02:56:18.92	359.09	11.97	
2025-01-09 02:56:19.13	359.06	11.98	
2025-01-09 02:56:19.35	359.03	12.00	
2025-01-09 02:56:19.55	359.00	12.01	
2025-01-09 02:56:19.76	358.97	12.03	
2025-01-09 02:56:19.96	358.94	12.05	
2025-01-09 02:56:20.17	358.91	12.06	
2025-01-09 02:56:20.37	358.89	12.08	
2025-01-09 02:56:20.58	358.86	12.09	
2025-01-09 02:56:20.78	358.83	12.11	
2025-01-09 02:56:20.99	358.80	12.13	
2025-01-09 02:56:21.19	358.77	12.14	
2025-01-09 02:56:21.39	358.74	12.16	
2025-01-09 02:56:21.60	358.71	12.17	
2025-01-09 02:56:21.80	358.68	12.19	
2025-01-09 02:56:22.01	358.65	12.21	
2025-01-09 02:56:22.22	358.62	12.22	
2025-01-09 02:56:22.42	358.59	12.24	
2025-01-09 02:56:22.63	358.56	12.25	
2025-01-09 02:56:22.83	358.53	12.27	
2025-01-09 02:56:23.04	358.50	12.29	
2025-01-09 02:56:23.24	358.48	12.30	
2025-01-09 02:56:23.45	358.45	12.32	
2025-01-09 02:56:23.65	358.42	12.33	
2025-01-09 02:56:23.86	358.39	12.35	
2025-01-09 02:56:24.06	358.36	12.37	
2025-01-09 02:56:24.27	358.33	12.38	
2025-01-09 02:56:24.48	358.30	12.40	
2025-01-09 02:56:24.69	358.27	12.41	
2025-01-09 02:56:24.90	358.23	12.43	
2025-01-09 02:56:25.10	358.21	12.45	
2025-01-09 02:56:25.31	358.18	12.46	
2025-01-09 02:56:25.51	358.15	12.48	
2025-01-09 02:56:25.72	358.12	12.50	
2025-01-09 02:56:25.92	358.09	12.51	
2025-01-09 02:56:26.13	358.06	12.53	
2025-01-09 02:56:26.33	358.03	12.54	
2025-01-09 02:56:26.53	358.00	12.56	
2025-01-09 02:56:26.74	357.97	12.58	
2025-01-09 02:56:26.94	357.94	12.59	
2025-01-09 02:56:27.15	357.91	12.61	
2025-01-09 02:56:27.35	357.88	12.62	
2025-01-09 02:56:27.56	357.84	12.64	
2025-01-09 02:56:27.76	357.82	12.66	
2025-01-09 02:56:27.97	357.78	12.67	
2025-01-09 02:56:28.17	357.75	12.69	
2025-01-09 02:56:28.38	357.72	12.70	
2025-01-09 02:56:28.58	357.69	12.72	
2025-01-09 02:56:28.79	357.66	12.74	
2025-01-09 02:56:28.99	357.63	12.75	
2025-01-09 02:56:29.20	357.60	12.77	
2025-01-09 02:56:29.40	357.57	12.78	
2025-01-09 02:56:29.61	357.54	12.80	
2025-01-09 02:56:29.81	357.51	12.82	
2025-01-09 02:56:30.02	357.48	12.83	
2025-01-09 02:56:30.22	357.45	12.85	
2025-01-09 02:56:30.43	357.42	12.87	
2025-01-09 02:56:30.63	357.39	12.88	
2025-01-09 02:56:30.84	357.36	12.90	
2025-01-09 02:56:31.04	357.32	12.91	
2025-01-09 02:56:31.25	357.29	12.93	
2025-01-09 02:56:31.45	357.26	12.95	
2025-01-09 02:56:31.66	357.23	12.96	
2025-01-09 02:56:31.86	357.20	12.98	
2025-01-09 02:56:32.07	357.17	12.99	
2025-01-09 02:56:32.27	357.14	13.01	
2025-01-09 02:56:32.48	357.11	13.03	
2025-01-09 02:56:32.68	357.08	13.04	
2025-01-09 02:56:32.89	357.04	13.06	
2025-01-09 02:56:33.09	357.01	13.08	
2025-01-09 02:56:33.31	356.98	13.09	
2025-01-09 02:56:33.52	356.95	13.11	
2025-01-09 02:56:33.72	356.92	13.13	
2025-01-09 02:56:33.93	356.89	13.14	
2025-01-09 02:56:34.13	356.85	13.16	
2025-01-09 02:56:34.34	356.82	13.17	
2025-01-09 02:56:34.54	356.79	13.19	
2025-01-09 02:56:34.75	356.76	13.21	
2025-01-09 02:56:34.95	356.73	13.22	
2025-01-09 02:56:35.16	356.70	13.24	
2025-01-09 02:56:35.36	356.66	13.26	
2025-01-09 02:56:35.56	356.63	13.27	
2025-01-09 02:56:35.77	356.60	13.29	
2025-01-09 02:56:35.97	356.57	13.30	
2025-01-09 02:56:36.18	356.54	13.32	
2025-01-09 02:56:36.38	356.51	13.34	
2025-01-09 02:56:36.59	356.47	13.35	
2025-01-09 02:56:36.79	356.44	13.37	
2025-01-09 02:56:37.00	356.41	13.39	
2025-01-09 02:56:37.20	356.38	13.40	
2025-01-09 02:56:37.41	356.35	13.42	
2025-01-09 02:56:37.61	356.31	13.43	
2025-01-09 02:56:37.82	356.28	13.45	
2025-01-09 02:56:38.02	356.25	13.47	
2025-01-09 02:56:38.23	356.22	13.48	
2025-01-09 02:56:38.43	356.19	13.50	
2025-01-09 02:56:38.64	356.15	13.52	
2025-01-09 02:56:38.85	356.12	13.53	
2025-01-09 02:56:39.05	356.09	13.55	
2025-01-09 02:56:39.25	356.06	13.56	
2025-01-09 02:56:39.46	356.02	13.58	
2025-01-09 02:56:39.66	355.99	13.60	
2025-01-09 02:56:39.87	355.96	13.61	
2025-01-09 02:56:40.07	355.93	13.63	
2025-01-09 02:56:40.28	355.89	13.65	
2025-01-09 02:56:40.48	355.86	13.66	
2025-01-09 02:56:40.69	355.83	13.68	
2025-01-09 02:56:40.89	355.79	13.69	
2025-01-09 02:56:41.10	355.76	13.71	
2025-01-09 02:56:41.30	355.73	13.73	
2025-01-09 02:56:41.51	355.70	13.74	
2025-01-09 02:56:41.71	355.66	13.76	
2025-01-09 02:56:41.92	355.63	13.78	
2025-01-09 02:56:42.12	355.60	13.79	
2025-01-09 02:56:42.33	355.56	13.81	
2025-01-09 02:56:42.54	355.53	13.83	
2025-01-09 02:56:42.74	355.50	13.84	
2025-01-09 02:56:42.96	355.46	13.86	
2025-01-09 02:56:43.16	355.43	13.88	
2025-01-09 02:56:43.37	355.40	13.89	
2025-01-09 02:56:43.57	355.36	13.91	
2025-01-09 02:56:43.78	355.33	13.93	
2025-01-09 02:56:43.98	355.30	13.94	
2025-01-09 02:56:44.19	355.26	13.96	
2025-01-09 02:56:44.39	355.23	13.97	
2025-01-09 02:56:44.59	355.20	13.99	
2025-01-09 02:56:44.80	355.16	14.01	
2025-01-09 02:56:45.00	355.13	14.02	
2025-01-09 02:56:45.21	355.10	14.04	
2025-01-09 02:56:45.41	355.06	14.06	
2025-01-09 02:56:45.62	355.03	14.07	
2025-01-09 02:56:45.82	354.99	14.09	
2025-01-09 02:56:46.03	354.96	14.11	
2025-01-09 02:56:46.23	354.93	14.12	
2025-01-09 02:56:46.44	354.89	14.14	
2025-01-09 02:56:46.64	354.86	14.15	
2025-01-09 02:56:46.84	354.83	14.17	
2025-01-09 02:56:47.05	354.79	14.19	
2025-01-09 02:56:47.25	354.76	14.20	
2025-01-09 02:56:47.46	354.72	14.22	
2025-01-09 02:56:47.67	354.69	14.24	
2025-01-09 02:56:47.87	354.66	14.25	
2025-01-09 02:56:48.07	354.62	14.27	
2025-01-09 02:56:48.29	354.59	14.29	
2025-01-09 02:56:48.50	354.55	14.30	
2025-01-09 02:56:48.70	354.52	14.32	
2025-01-09 02:56:48.91	354.48	14.34	
2025-01-09 02:56:49.11	354.45	14.35	
2025-01-09 02:56:49.32	354.41	14.37	
2025-01-09 02:56:49.52	354.38	14.39	
2025-01-09 02:56:49.73	354.34	14.40	
2025-01-09 02:56:49.93	354.31	14.42	
2025-01-09 02:56:50.14	354.27	14.44	
2025-01-09 02:56:50.34	354.24	14.45	
2025-01-09 02:56:50.54	354.21	14.47	
2025-01-09 02:56:50.75	354.17	14.48	
2025-01-09 02:56:50.96	354.14	14.50	
2025-01-09 02:56:51.16	354.10	14.52	
2025-01-09 02:56:51.36	354.07	14.53	
2025-01-09 02:56:51.57	354.03	14.55	
2025-01-09 02:56:51.77	354.00	14.57	
2025-01-09 02:56:51.98	353.96	14.58	
2025-01-09 02:56:52.19	353.93	14.60	
2025-01-09 02:56:52.39	353.89	14.62	
2025-01-09 02:56:52.61	353.85	14.63	
2025-01-09 02:56:52.81	353.82	14.65	
2025-01-09 02:56:53.02	353.78	14.67	
2025-01-09 02:56:53.22	353.75	14.68	
2025-01-09 02:56:53.43	353.71	14.70	
2025-01-09 02:56:53.63	353.68	14.72	
2025-01-09 02:56:53.84	353.64	14.73	
2025-01-09 02:56:54.04	353.61	14.75	
2025-01-09 02:56:54.25	353.57	14.77	
2025-01-09 02:56:54.45	353.54	14.78	
2025-01-09 02:56:54.65	353.50	14.80	
2025-01-09 02:56:54.86	353.47	14.81	
2025-01-09 02:56:55.06	353.43	14.83	
2025-01-09 02:56:55.27	353.40	14.85	
2025-01-09 02:56:55.47	353.36	14.86	
2025-01-09 02:56:55.68	353.32	14.88	
2025-01-09 02:56:55.88	353.29	14.90	
2025-01-09 02:56:56.09	353.25	14.91	
2025-01-09 02:56:56.29	353.22	14.93	
2025-01-09 02:56:56.50	353.18	14.95	
2025-01-09 02:56:56.70	353.15	14.96	
2025-01-09 02:56:56.90	353.11	14.98	
2025-01-09 02:56:57.11	353.07	15.00	
2025-01-09 02:56:57.31	353.04	15.01	
2025-01-09 02:56:57.52	353.00	15.03	
2025-01-09 02:56:57.72	352.97	15.05	
2025-01-09 02:56:57.94	352.93	15.06	
2025-01-09 02:56:58.15	352.89	15.08	
2025-01-09 02:56:58.35	352.85	15.10	
2025-01-09 02:56:58.56	352.82	15.11	
2025-01-09 02:56:58.76	352.78	15.13	
2025-01-09 02:56:58.97	352.74	15.15	
2025-01-09 02:56:59.17	352.71	15.16	
2025-01-09 02:56:59.38	352.67	15.18	
2025-01-09 02:56:59.58	352.64	15.20	
2025-01-09 02:56:59.79	352.60	15.21	
2025-01-09 02:56:59.99	352.56	15.23	
2025-01-09 02:57:00.19	352.53	15.24	
2025-01-09 02:57:00.40	352.49	15.26	
2025-01-09 02:57:00.60	352.45	15.28	
2025-01-09 02:57:00.81	352.42	15.29	
2025-01-09 02:57:01.01	352.38	15.31	
2025-01-09 02:57:01.22	352.34	15.33	
2025-01-09 02:57:01.42	352.31	15.34	
2025-01-09 02:57:01.63	352.27	15.36	
2025-01-09 02:57:01.83	352.23	15.38	
2025-01-09 02:57:02.04	352.19	15.39	
2025-01-09 02:57:02.26	352.15	15.41	
2025-01-09 02:57:02.46	352.12	15.43	
2025-01-09 02:57:02.67	352.08	15.45	
2025-01-09 02:57:02.87	352.04	15.46	
2025-01-09 02:57:03.08	352.00	15.48	
2025-01-09 02:57:03.28	351.97	15.49	
2025-01-09 02:57:03.49	351.93	15.51	
2025-01-09 02:57:03.69	351.89	15.53	
2025-01-09 02:57:03.90	351.86	15.54	
2025-01-09 02:57:04.11	351.82	15.56	
2025-01-09 02:57:04.31	351.78	15.58	
2025-01-09 02:57:04.51	351.74	15.59	
2025-01-09 02:57:04.72	351.70	15.61	
2025-01-09 02:57:04.92	351.67	15.63	
2025-01-09 02:57:05.13	351.63	15.64	
2025-01-09 02:57:05.35	351.59	15.66	
2025-01-09 02:57:05.55	351.55	15.68	
2025-01-09 02:57:05.76	351.51	15.69	
2025-01-09 02:57:05.97	351.47	15.71	
2025-01-09 02:57:06.17	351.44	15.73	
2025-01-09 02:57:06.37	351.40	15.74	
2025-01-09 02:57:06.58	351.36	15.76	
2025-01-09 02:57:06.79	351.32	15.78	
2025-01-09 02:57:06.99	351.28	15.79	
2025-01-09 02:57:07.20	351.25	15.81	
2025-01-09 02:57:07.40	351.21	15.83	
2025-01-09 02:57:07.61	351.17	15.84	
2025-01-09 02:57:07.81	351.13	15.86	
2025-01-09 02:57:08.02	351.09	15.88	
2025-01-09 02:57:08.22	351.05	15.89	
2025-01-09 02:57:08.43	351.01	15.91	
2025-01-09 02:57:08.63	350.98	15.93	
2025-01-09 02:57:08.84	350.94	15.94	
2025-01-09 02:57:09.04	350.90	15.96	
2025-01-09 02:57:09.25	350.86	15.98	
2025-01-09 02:57:09.45	350.82	15.99	
2025-01-09 02:57:09.66	350.78	16.01	
2025-01-09 02:57:09.86	350.74	16.03	
2025-01-09 02:57:10.07	350.71	16.04	
2025-01-09 02:57:10.27	350.67	16.06	
2025-01-09 02:57:10.48	350.63	16.08	
2025-01-09 02:57:10.68	350.59	16.09	
2025-01-09 02:57:10.89	350.55	16.11	
2025-01-09 02:57:11.09	350.51	16.13	
2025-01-09 02:57:11.30	350.47	16.14	
2025-01-09 02:57:11.51	350.43	16.16	
2025-01-09 02:57:11.72	350.39	16.18	
2025-01-09 02:57:11.93	350.35	16.19	
2025-01-09 02:57:12.13	350.31	16.21	
2025-01-09 02:57:12.34	350.27	16.23	
2025-01-09 02:57:12.54	350.23	16.24	
2025-01-09 02:57:12.75	350.19	16.26	
2025-01-09 02:57:12.95	350.15	16.28	
2025-01-09 02:57:13.16	350.11	16.29	
2025-01-09 02:57:13.36	350.07	16.31	
2025-01-09 02:57:13.57	350.03	16.33	
2025-01-09 02:57:13.77	350.00	16.34	
2025-01-09 02:57:13.98	349.95	16.36	
2025-01-09 02:57:14.18	349.92	16.38	
2025-01-09 02:57:14.39	349.87	16.39	
2025-01-09 02:57:14.59	349.84	16.41	
2025-01-09 02:57:14.80	349.79	16.43	
2025-01-09 02:57:15.00	349.76	16.44	
2025-01-09 02:57:15.21	349.71	16.46	
2025-01-09 02:57:15.42	349.67	16.48	
2025-01-09 02:57:15.63	349.63	16.49	
2025-01-09 02:57:15.83	349.59	16.51	
2025-01-09 02:57:16.04	349.55	16.53	
2025-01-09 02:57:16.24	349.51	16.54	
2025-01-09 02:57:16.45	349.47	16.56	
2025-01-09 02:57:16.65	349.43	16.57	
2025-01-09 02:57:16.86	349.39	16.59	
2025-01-09 02:57:17.06	349.35	16.61	
2025-01-09 02:57:17.27	349.31	16.62	
2025-01-09 02:57:17.47	349.27	16.64	
2025-01-09 02:57:17.68	349.23	16.66	
2025-01-09 02:57:17.88	349.19	16.67	
2025-01-09 02:57:18.10	349.14	16.69	
2025-01-09 02:57:18.30	349.11	16.71	
2025-01-09 02:57:18.51	349.06	16.72	
2025-01-09 02:57:18.71	349.02	16.74	
2025-01-09 02:57:18.92	348.98	16.76	
2025-01-09 02:57:19.12	348.94	16.77	
2025-01-09 02:57:19.32	348.90	16.79	
2025-01-09 02:57:19.53	348.86	16.81	
2025-01-09 02:57:19.73	348.82	16.82	
2025-01-09 02:57:19.94	348.78	16.84	
2025-01-09 02:57:20.15	348.73	16.86	
2025-01-09 02:57:20.35	348.69	16.87	
2025-01-09 02:57:20.56	348.65	16.89	
2025-01-09 02:57:20.76	348.61	16.91	
2025-01-09 02:57:20.97	348.57	16.92	
2025-01-09 02:57:21.18	348.53	16.94	
2025-01-09 02:57:21.38	348.49	16.96	
2025-01-09 02:57:21.58	348.45	16.97	
2025-01-09 02:57:21.79	348.40	16.99	
2025-01-09 02:57:21.99	348.36	17.00	
2025-01-09 02:57:22.20	348.32	17.02	
2025-01-09 02:57:22.40	348.28	17.04	
2025-01-09 02:57:22.61	348.24	17.05	
2025-01-09 02:57:22.81	348.20	17.07	
2025-01-09 02:57:23.02	348.15	17.09	
2025-01-09 02:57:23.22	348.11	17.10	
2025-01-09 02:57:23.43	348.07	17.12	
2025-01-09 02:57:23.63	348.03	17.14	
2025-01-09 02:57:23.84	347.98	17.15	
2025-01-09 02:57:24.04	347.94	17.17	
2025-01-09 02:57:24.25	347.90	17.19	
2025-01-09 02:57:24.45	347.86	17.20	
2025-01-09 02:57:24.66	347.82	17.22	
2025-01-09 02:57:24.86	347.77	17.24	
2025-01-09 02:57:25.07	347.73	17.25	
2025-01-09 02:57:25.27	347.69	17.27	
2025-01-09 02:57:25.47	347.65	17.28	
2025-01-09 02:57:25.68	347.60	17.30	
2025-01-09 02:57:25.89	347.56	17.32	
2025-01-09 02:57:26.09	347.52	17.33	
2025-01-09 02:57:26.29	347.48	17.35	
2025-01-09 02:57:26.50	347.43	17.37	
2025-01-09 02:57:26.70	347.39	17.38	
2025-01-09 02:57:26.91	347.35	17.40	
2025-01-09 02:57:27.11	347.31	17.42	
2025-01-09 02:57:27.32	347.26	17.43	
2025-01-09 02:57:27.52	347.22	17.45	
2025-01-09 02:57:27.73	347.18	17.47	
2025-01-09 02:57:27.93	347.13	17.48	
2025-01-09 02:57:28.14	347.09	17.50	
2025-01-09 02:57:28.34	347.05	17.51	
2025-01-09 02:57:28.55	347.00	17.53	
2025-01-09 02:57:28.75	346.96	17.55	
2025-01-09 02:57:28.96	346.92	17.56	
2025-01-09 02:57:29.16	346.87	17.58	
2025-01-09 02:57:29.37	346.83	17.60	
2025-01-09 02:57:29.57	346.79	17.61	
2025-01-09 02:57:29.78	346.74	17.63	
2025-01-09 02:57:29.98	346.70	17.64	
2025-01-09 02:57:30.19	346.66	17.66	
2025-01-09 02:57:30.39	346.61	17.68	
2025-01-09 02:57:30.60	346.57	17.69	
2025-01-09 02:57:30.80	346.53	17.71	
2025-01-09 02:57:31.00	346.48	17.73	
2025-01-09 02:57:31.22	346.44	17.74	
2025-01-09 02:57:31.43	346.39	17.76	
2025-01-09 02:57:31.63	346.35	17.78	
2025-01-09 02:57:31.84	346.30	17.79	
2025-01-09 02:57:32.04	346.26	17.81	
2025-01-09 02:57:32.25	346.21	17.83	
2025-01-09 02:57:32.45	346.17	17.84	
2025-01-09 02:57:32.66	346.13	17.86	
2025-01-09 02:57:32.86	346.08	17.87	
2025-01-09 02:57:33.07	346.04	17.89	
2025-01-09 02:57:33.27	345.99	17.91	
2025-01-09 02:57:33.48	345.95	17.92	
2025-01-09 02:57:33.68	345.90	17.94	
2025-01-09 02:57:33.89	345.86	17.96	
2025-01-09 02:57:34.09	345.82	17.97	
2025-01-09 02:57:34.30	345.77	17.99	
2025-01-09 02:57:34.50	345.73	18.00	
2025-01-09 02:57:34.71	345.68	18.02	
2025-01-09 02:57:34.92	345.63	18.04	
2025-01-09 02:57:35.13	345.59	18.05	
2025-01-09 02:57:35.35	345.54	18.07	
2025-01-09 02:57:35.55	345.50	18.09	
2025-01-09 02:57:35.76	345.45	18.10	
2025-01-09 02:57:35.96	345.41	18.12	
2025-01-09 02:57:36.17	345.36	18.14	
2025-01-09 02:57:36.37	345.32	18.15	
2025-01-09 02:57:36.58	345.27	18.17	
2025-01-09 02:57:36.78	345.22	18.18	
2025-01-09 02:57:36.99	345.18	18.20	
2025-01-09 02:57:37.20	345.13	18.22	
2025-01-09 02:57:37.40	345.09	18.23	
2025-01-09 02:57:37.60	345.04	18.25	
2025-01-09 02:57:37.81	345.00	18.27	
2025-01-09 02:57:38.01	344.95	18.28	
2025-01-09 02:57:38.22	344.91	18.30	
2025-01-09 02:57:38.42	344.86	18.31	
2025-01-09 02:57:38.63	344.81	18.33	
2025-01-09 02:57:38.83	344.77	18.35	
2025-01-09 02:57:39.04	344.72	18.36	
2025-01-09 02:57:39.25	344.67	18.38	
2025-01-09 02:57:39.45	344.63	18.39	
2025-01-09 02:57:39.65	344.58	18.41	
2025-01-09 02:57:39.86	344.54	18.43	
2025-01-09 02:57:40.06	344.49	18.44	
2025-01-09 02:57:40.27	344.45	18.46	
2025-01-09 02:57:40.47	344.40	18.47	
2025-01-09 02:57:40.68	344.35	18.49	
2025-01-09 02:57:40.88	344.31	18.51	
2025-01-09 02:57:41.08	344.26	18.52	
2025-01-09 02:57:41.29	344.21	18.54	
2025-01-09 02:57:41.50	344.17	18.55	
2025-01-09 02:57:41.70	344.12	18.57	
2025-01-09 02:57:41.91	344.07	18.59	
2025-01-09 02:57:42.11	344.03	18.60	
2025-01-09 02:57:42.32	343.98	18.62	
2025-01-09 02:57:42.52	343.93	18.63	
2025-01-09 02:57:42.72	343.89	18.65	
2025-01-09 02:57:42.93	343.84	18.67	
2025-01-09 02:57:43.13	343.80	18.68	
2025-01-09 02:57:43.34	343.75	18.70	
2025-01-09 02:57:43.54	343.70	18.71	
2025-01-09 02:57:43.75	343.65	18.73	
2025-01-09 02:57:43.95	343.61	18.75	
2025-01-09 02:57:44.16	343.56	18.76	
2025-01-09 02:57:44.36	343.51	18.78	
2025-01-09 02:57:44.56	343.47	18.79	
2025-01-09 02:57:44.77	343.42	18.81	
2025-01-09 02:57:44.97	343.37	18.82	
2025-01-09 02:57:45.18	343.32	18.84	
2025-01-09 02:57:45.39	343.27	18.86	
2025-01-09 02:57:45.59	343.23	18.87	
2025-01-09 02:57:45.80	343.18	18.89	
2025-01-09 02:57:46.00	343.13	18.90	
2025-01-09 02:57:46.20	343.09	18.92	
2025-01-09 02:57:46.41	343.04	18.94	
2025-01-09 02:57:46.61	342.99	18.95	
2025-01-09 02:57:46.82	342.94	18.97	
2025-01-09 02:57:47.02	342.89	18.98	
2025-01-09 02:57:47.23	342.85	19.00	
2025-01-09 02:57:47.44	342.80	19.02	
2025-01-09 02:57:47.64	342.75	19.03	
2025-01-09 02:57:47.85	342.70	19.05	
2025-01-09 02:57:48.05	342.65	19.06	
2025-01-09 02:57:48.26	342.60	19.08	
2025-01-09 02:57:48.46	342.56	19.09	
2025-01-09 02:57:48.66	342.51	19.11	
2025-01-09 02:57:48.87	342.46	19.13	
2025-01-09 02:57:49.07	342.41	19.14	
2025-01-09 02:57:49.28	342.36	19.16	
2025-01-09 02:57:49.49	342.31	19.17	
2025-01-09 02:57:49.69	342.27	19.19	
2025-01-09 02:57:49.89	342.22	19.20	
2025-01-09 02:57:50.10	342.17	19.22	
2025-01-09 02:57:50.30	342.12	19.23	
2025-01-09 02:57:50.51	342.07	19.25	
2025-01-09 02:57:50.72	342.02	19.27	
2025-01-09 02:57:50.92	341.97	19.28	
2025-01-09 02:57:51.13	341.92	19.30	
2025-01-09 02:57:51.34	341.87	19.31	
2025-01-09 02:57:51.55	341.82	19.33	
2025-01-09 02:57:51.76	341.77	19.35	
2025-01-09 02:57:51.96	341.72	19.36	
2025-01-09 02:57:52.17	341.67	19.38	
2025-01-09 02:57:52.37	341.62	19.39	
2025-01-09 02:57:52.57	341.58	19.41	
2025-01-09 02:57:52.78	341.53	19.42	
2025-01-09 02:57:52.99	341.48	19.44	
2025-01-09 02:57:53.19	341.43	19.45	
2025-01-09 02:57:53.39	341.38	19.47	
2025-01-09 02:57:53.60	341.33	19.49	
2025-01-09 02:57:53.80	341.28	19.50	
2025-01-09 02:57:54.01	341.23	19.52	
2025-01-09 02:57:54.22	341.18	19.53	
2025-01-09 02:57:54.42	341.13	19.55	
2025-01-09 02:57:54.62	341.08	19.56	
2025-01-09 02:57:54.83	341.03	19.58	
2025-01-09 02:57:55.03	340.98	19.59	
2025-01-09 02:57:55.24	340.93	19.61	
2025-01-09 02:57:55.45	340.88	19.62	
2025-01-09 02:57:55.66	340.83	19.64	
2025-01-09 02:57:55.87	340.77	19.66	
2025-01-09 02:57:56.07	340.73	19.67	
2025-01-09 02:57:56.28	340.67	19.69	
2025-01-09 02:57:56.49	340.62	19.70	
2025-01-09 02:57:56.69	340.57	19.72	
2025-01-09 02:57:56.89	340.52	19.73	
2025-01-09 02:57:57.10	340.47	19.75	
2025-01-09 02:57:57.31	340.42	19.76	
2025-01-09 02:57:57.51	340.37	19.78	
2025-01-09 02:57:57.73	340.32	19.79	
2025-01-09 02:57:57.93	340.27	19.81	
2025-01-09 02:57:58.14	340.21	19.82	
2025-01-09 02:57:58.34	340.16	19.84	
2025-01-09 02:57:58.55	340.11	19.86	
2025-01-09 02:57:58.75	340.06	19.87	
2025-01-09 02:57:58.96	340.01	19.89	
2025-01-09 02:57:59.17	339.96	19.90	
2025-01-09 02:57:59.37	339.91	19.92	
2025-01-09 02:57:59.58	339.86	19.93	
2025-01-09 02:57:59.78	339.81	19.95	
2025-01-09 02:57:59.98	339.76	19.96	
2025-01-09 02:58:00.19	339.70	19.98	
2025-01-09 02:58:00.39	339.65	19.99	
2025-01-09 02:58:00.60	339.60	20.01	
2025-01-09 02:58:00.80	339.55	20.02	
2025-01-09 02:58:01.01	339.50	20.04	
2025-01-09 02:58:01.21	339.45	20.05	
2025-01-09 02:58:01.42	339.39	20.07	
2025-01-09 02:58:01.62	339.34	20.08	
2025-01-09 02:58:01.83	339.29	20.10	
2025-01-09 02:58:02.03	339.24	20.11	
2025-01-09 02:58:02.24	339.19	20.13	
2025-01-09 02:58:02.44	339.14	20.14	
2025-01-09 02:58:02.65	339.08	20.16	
2025-01-09 02:58:02.86	339.03	20.17	
2025-01-09 02:58:03.07	338.98	20.19	
2025-01-09 02:58:03.28	338.92	20.20	
2025-01-09 02:58:03.48	338.87	20.22	
2025-01-09 02:58:03.69	338.82	20.23	
2025-01-09 02:58:03.89	338.77	20.25	
2025-01-09 02:58:04.10	338.71	20.26	
2025-01-09 02:58:04.30	338.66	20.28	
2025-01-09 02:58:04.51	338.61	20.29	
2025-01-09 02:58:04.71	338.56	20.31	
2025-01-09 02:58:04.92	338.50	20.32	
2025-01-09 02:58:05.12	338.45	20.34	
2025-01-09 02:58:05.33	338.40	20.35	
2025-01-09 02:58:05.53	338.35	20.36	
2025-01-09 02:58:05.74	338.29	20.38	
2025-01-09 02:58:05.94	338.24	20.39	
2025-01-09 02:58:06.15	338.19	20.41	
2025-01-09 02:58:06.35	338.13	20.42	
2025-01-09 02:58:06.56	338.08	20.44	
2025-01-09 02:58:06.76	338.03	20.45	
2025-01-09 02:58:06.97	337.97	20.47	
2025-01-09 02:58:07.17	337.92	20.48	
2025-01-09 02:58:07.38	337.87	20.50	
2025-01-09 02:58:07.58	337.81	20.51	
2025-01-09 02:58:07.79	337.76	20.53	
2025-01-09 02:58:07.99	337.71	20.54	
2025-01-09 02:58:08.20	337.65	20.55	
2025-01-09 02:58:08.40	337.60	20.57	
2025-01-09 02:58:08.61	337.55	20.58	
2025-01-09 02:58:08.81	337.49	20.60	
2025-01-09 02:58:09.02	337.44	20.61	
2025-01-09 02:58:09.22	337.39	20.63	
2025-01-09 02:58:09.43	337.33	20.64	
2025-01-09 02:58:09.63	337.28	20.66	
2025-01-09 02:58:09.84	337.22	20.67	
2025-01-09 02:58:10.04	337.17	20.68	
2025-01-09 02:58:10.25	337.12	20.70	
2025-01-09 02:58:10.45	337.06	20.71	
2025-01-09 02:58:10.66	337.01	20.73	
2025-01-09 02:58:10.86	336.95	20.74	
2025-01-09 02:58:11.07	336.90	20.76	
2025-01-09 02:58:11.27	336.85	20.77	
2025-01-09 02:58:11.48	336.79	20.78	
2025-01-09 02:58:11.68	336.74	20.80	
2025-01-09 02:58:11.89	336.68	20.81	
2025-01-09 02:58:12.09	336.63	20.83	
2025-01-09 02:58:12.30	336.57	20.84	
2025-01-09 02:58:12.50	336.52	20.86	
2025-01-09 02:58:12.71	336.46	20.87	
2025-01-09 02:58:12.91	336.41	20.88	
2025-01-09 02:58:13.12	336.35	20.90	
2025-01-09 02:58:13.32	336.30	20.91	
2025-01-09 02:58:13.53	336.24	20.93	
2025-01-09 02:58:13.73	336.19	20.94	
2025-01-09 02:58:13.93	336.14	20.95	
2025-01-09 02:58:14.14	336.08	20.97	
2025-01-09 02:58:14.35	336.02	20.98	
2025-01-09 02:58:14.55	335.97	21.00	
2025-01-09 02:58:14.76	335.91	21.01	
2025-01-09 02:58:14.96	335.86	21.02	
2025-01-09 02:58:15.17	335.80	21.04	
2025-01-09 02:58:15.37	335.75	21.05	
2025-01-09 02:58:15.58	335.69	21.07	
2025-01-09 02:58:15.78	335.64	21.08	
2025-01-09 02:58:15.99	335.58	21.09	
2025-01-09 02:58:16.19	335.53	21.11	
2025-01-09 02:58:16.40	335.47	21.12	
2025-01-09 02:58:16.60	335.42	21.13	
2025-01-09 02:58:16.81	335.36	21.15	
2025-01-09 02:58:17.01	335.30	21.16	
2025-01-09 02:58:17.22	335.25	21.18	
2025-01-09 02:58:17.42	335.19	21.19	
2025-01-09 02:58:17.63	335.13	21.20	
2025-01-09 02:58:17.83	335.08	21.22	
2025-01-09 02:58:18.04	335.02	21.23	
2025-01-09 02:58:18.24	334.97	21.24	
2025-01-09 02:58:18.45	334.91	21.26	
2025-01-09 02:58:18.66	334.85	21.27	
2025-01-09 02:58:18.86	334.80	21.29	
2025-01-09 02:58:19.06	334.74	21.30	
2025-01-09 02:58:19.27	334.69	21.31	
2025-01-09 02:58:19.47	334.63	21.33	
2025-01-09 02:58:19.68	334.57	21.34	
2025-01-09 02:58:19.88	334.52	21.35	
2025-01-09 02:58:20.09	334.46	21.37	
2025-01-09 02:58:20.29	334.40	21.38	
2025-01-09 02:58:20.50	334.35	21.39	
2025-01-09 02:58:20.70	334.29	21.41	
2025-01-09 02:58:20.91	334.23	21.42	
2025-01-09 02:58:21.11	334.18	21.43	
2025-01-09 02:58:21.32	334.12	21.45	
2025-01-09 02:58:21.52	334.06	21.46	
2025-01-09 02:58:21.73	334.00	21.47	
2025-01-09 02:58:21.94	333.95	21.49	
2025-01-09 02:58:22.14	333.89	21.50	
2025-01-09 02:58:22.34	333.83	21.51	
2025-01-09 02:58:22.55	333.78	21.53	
2025-01-09 02:58:22.75	333.72	21.54	
2025-01-09 02:58:22.96	333.66	21.55	
2025-01-09 02:58:23.16	333.61	21.57	
2025-01-09 02:58:23.37	333.55	21.58	
2025-01-09 02:58:23.59	333.49	21.59	
2025-01-09 02:58:23.79	333.43	21.61	
2025-01-09 02:58:24.00	333.37	21.62	
2025-01-09 02:58:24.20	333.31	21.63	
2025-01-09 02:58:24.41	333.25	21.64	
2025-01-09 02:58:24.61	333.20	21.66	
2025-01-09 02:58:24.82	333.14	21.67	
2025-01-09 02:58:25.02	333.08	21.68	
2025-01-09 02:58:25.23	333.02	21.70	
2025-01-09 02:58:25.43	332.97	21.71	
2025-01-09 02:58:25.64	332.91	21.72	
2025-01-09 02:58:25.85	332.85	21.74	
2025-01-09 02:58:26.05	332.79	21.75	
2025-01-09 02:58:26.26	332.73	21.76	
2025-01-09 02:58:26.46	332.68	21.77	
2025-01-09 02:58:26.66	332.62	21.79	
2025-01-09 02:58:26.87	332.56	21.80	
2025-01-09 02:58:27.08	332.50	21.81	
2025-01-09 02:58:27.28	332.44	21.82	
2025-01-09 02:58:27.49	332.38	21.84	
2025-01-09 02:58:27.69	332.32	21.85	
2025-01-09 02:58:27.90	332.26	21.86	
2025-01-09 02:58:28.10	332.21	21.87	
2025-01-09 02:58:28.31	332.15	21.89	
2025-01-09 02:58:28.51	332.09	21.90	
2025-01-09 02:58:28.72	332.03	21.91	
2025-01-09 02:58:28.92	331.97	21.92	
2025-01-09 02:58:29.13	331.91	21.94	
2025-01-09 02:58:29.33	331.86	21.95	
2025-01-09 02:58:29.54	331.79	21.96	
2025-01-09 02:58:29.74	331.74	21.97	
2025-01-09 02:58:29.95	331.68	21.99	
2025-01-09 02:58:30.16	331.62	22.00	
2025-01-09 02:58:30.36	331.56	22.01	
2025-01-09 02:58:30.57	331.50	22.02	
2025-01-09 02:58:30.77	331.44	22.04	
2025-01-09 02:58:30.97	331.38	22.05	
2025-01-09 02:58:31.18	331.32	22.06	
2025-01-09 02:58:31.39	331.26	22.07	
2025-01-09 02:58:31.59	331.20	22.09	
2025-01-09 02:58:31.80	331.14	22.10	
2025-01-09 02:58:32.00	331.08	22.11	
2025-01-09 02:58:32.21	331.02	22.12	
2025-01-09 02:58:32.41	330.96	22.13	
2025-01-09 02:58:32.62	330.90	22.15	
2025-01-09 02:58:32.82	330.85	22.16	
2025-01-09 02:58:33.03	330.78	22.17	
2025-01-09 02:58:33.23	330.73	22.18	
2025-01-09 02:58:33.44	330.66	22.19	
2025-01-09 02:58:33.64	330.61	22.21	
2025-01-09 02:58:33.85	330.54	22.22	
2025-01-09 02:58:34.05	330.49	22.23	
2025-01-09 02:58:34.26	330.42	22.24	
2025-01-09 02:58:34.46	330.37	22.25	
2025-01-09 02:58:34.66	330.31	22.26	
2025-01-09 02:58:34.87	330.24	22.28	
2025-01-09 02:58:35.07	330.19	22.29	
2025-01-09 02:58:35.28	330.12	22.30	
2025-01-09 02:58:35.48	330.07	22.31	
2025-01-09 02:58:35.69	330.00	22.32	
2025-01-09 02:58:35.89	329.94	22.33	
2025-01-09 02:58:36.10	329.88	22.35	
2025-01-09 02:58:36.30	329.82	22.36	
2025-01-09 02:58:36.51	329.76	22.37	
2025-01-09 02:58:36.72	329.70	22.38	
2025-01-09 02:58:36.92	329.64	22.39	
2025-01-09 02:58:37.14	329.57	22.40	
2025-01-09 02:58:37.34	329.52	22.42	
2025-01-09 02:58:37.55	329.45	22.43	
2025-01-09 02:58:37.75	329.39	22.44	
2025-01-09 02:58:37.96	329.33	22.45	
2025-01-09 02:58:38.16	329.27	22.46	
2025-01-09 02:58:38.36	329.21	22.47	
2025-01-09 02:58:38.57	329.15	22.48	
2025-01-09 02:58:38.77	329.09	22.49	
2025-01-09 02:58:38.98	329.03	22.51	
2025-01-09 02:58:39.18	328.97	22.52	
2025-01-09 02:58:39.38	328.91	22.53	
2025-01-09 02:58:39.59	328.85	22.54	
2025-01-09 02:58:39.79	328.79	22.55	
2025-01-09 02:58:40.00	328.72	22.56	
2025-01-09 02:58:40.20	328.66	22.57	
2025-01-09 02:58:40.41	328.60	22.58	
2025-01-09 02:58:40.61	328.54	22.59	
2025-01-09 02:58:40.82	328.48	22.61	
2025-01-09 02:58:41.02	328.42	22.62	
2025-01-09 02:58:41.23	328.35	22.63	
2025-01-09 02:58:41.43	328.29	22.64	
2025-01-09 02:58:41.64	328.23	22.65	
2025-01-09 02:58:41.85	328.17	22.66	
2025-01-09 02:58:42.06	328.10	22.67	
2025-01-09 02:58:42.28	328.04	22.68	
2025-01-09 02:58:42.48	327.98	22.69	
2025-01-09 02:58:42.69	327.91	22.70	
2025-01-09 02:58:42.89	327.85	22.71	
2025-01-09 02:58:43.10	327.79	22.72	
2025-01-09 02:58:43.30	327.73	22.73	
2025-01-09 02:58:43.50	327.67	22.75	
2025-01-09 02:58:43.71	327.60	22.76	
2025-01-09 02:58:43.91	327.54	22.77	
2025-01-09 02:58:44.12	327.48	22.78	
2025-01-09 02:58:44.32	327.42	22.79	
2025-01-09 02:58:44.52	327.36	22.80	
2025-01-09 02:58:44.73	327.29	22.81	
2025-01-09 02:58:44.93	327.23	22.82	
2025-01-09 02:58:45.14	327.17	22.83	
2025-01-09 02:58:45.35	327.10	22.84	
2025-01-09 02:58:45.55	327.04	22.85	
2025-01-09 02:58:45.75	326.98	22.86	
2025-01-09 02:58:45.96	326.92	22.87	
2025-01-09 02:58:46.16	326.86	22.88	
2025-01-09 02:58:46.37	326.79	22.89	
2025-01-09 02:58:46.58	326.73	22.90	
2025-01-09 02:58:46.78	326.67	22.91	
2025-01-09 02:58:46.99	326.60	22.92	
2025-01-09 02:58:47.19	326.54	22.93	
2025-01-09 02:58:47.40	326.48	22.94	
2025-01-09 02:58:47.60	326.41	22.95	
2025-01-09 02:58:47.81	326.35	22.96	
2025-01-09 02:58:48.01	326.29	22.97	
2025-01-09 02:58:48.22	326.22	22.98	
2025-01-09 02:58:48.42	326.16	22.99	
2025-01-09 02:58:48.63	326.10	23.00	
2025-01-09 02:58:48.83	326.04	23.01	
2025-01-09 02:58:49.04	325.97	23.02	
2025-01-09 02:58:49.24	325.91	23.03	
2025-01-09 02:58:49.45	325.84	23.04	
2025-01-09 02:58:49.66	325.78	23.05	
2025-01-09 02:58:49.86	325.72	23.06	
2025-01-09 02:58:50.06	325.65	23.07	
2025-01-09 02:58:50.27	325.59	23.08	
2025-01-09 02:58:50.48	325.52	23.09	
2025-01-09 02:58:50.68	325.46	23.09	
2025-01-09 02:58:50.88	325.40	23.10	
2025-01-09 02:58:51.09	325.33	23.11	
2025-01-09 02:58:51.30	325.27	23.12	
2025-01-09 02:58:51.50	325.21	23.13	
2025-01-09 02:58:51.71	325.14	23.14	
2025-01-09 02:58:51.91	325.08	23.15	
2025-01-09 02:58:52.12	325.01	23.16	
2025-01-09 02:58:52.32	324.95	23.17	
2025-01-09 02:58:52.53	324.89	23.18	
2025-01-09 02:58:52.73	324.82	23.19	
2025-01-09 02:58:52.95	324.75	23.20	
2025-01-09 02:58:53.16	324.69	23.21	
2025-01-09 02:58:53.36	324.63	23.22	
2025-01-09 02:58:53.57	324.56	23.22	
2025-01-09 02:58:53.77	324.50	23.23	
2025-01-09 02:58:53.98	324.43	23.24	
2025-01-09 02:58:54.18	324.37	23.25	
2025-01-09 02:58:54.39	324.30	23.26	
2025-01-09 02:58:54.59	324.24	23.27	
2025-01-09 02:58:54.80	324.17	23.28	
2025-01-09 02:58:55.00	324.11	23.29	
2025-01-09 02:58:55.21	324.04	23.29	
2025-01-09 02:58:55.41	323.98	23.30	
2025-01-09 02:58:55.62	323.92	23.31	
2025-01-09 02:58:55.82	323.85	23.32	
2025-01-09 02:58:56.03	323.79	23.33	
2025-01-09 02:58:56.23	323.72	23.34	
2025-01-09 02:58:56.44	323.66	23.35	
2025-01-09 02:58:56.64	323.59	23.35	
2025-01-09 02:58:56.85	323.53	23.36	
2025-01-09 02:58:57.05	323.46	23.37	
2025-01-09 02:58:57.25	323.40	23.38	
2025-01-09 02:58:57.46	323.33	23.39	
2025-01-09 02:58:57.66	323.27	23.40	
2025-01-09 02:58:57.87	323.20	23.40	
2025-01-09 02:58:58.07	323.14	23.41	
2025-01-09 02:58:58.28	323.07	23.42	
2025-01-09 02:58:58.48	323.01	23.43	
2025-01-09 02:58:58.69	322.94	23.44	
2025-01-09 02:58:58.89	322.88	23.45	
2025-01-09 02:58:59.10	322.81	23.45	
2025-01-09 02:58:59.30	322.75	23.46	
2025-01-09 02:58:59.51	322.68	23.47	
2025-01-09 02:58:59.71	322.62	23.48	
2025-01-09 02:58:59.92	322.55	23.49	
2025-01-09 02:59:00.12	322.49	23.49	
2025-01-09 02:59:00.33	322.42	23.50	
2025-01-09 02:59:00.53	322.36	23.51	
2025-01-09 02:59:00.74	322.29	23.52	
2025-01-09 02:59:00.94	322.23	23.52	
2025-01-09 02:59:01.15	322.16	23.53	
2025-01-09 02:59:01.35	322.09	23.54	
2025-01-09 02:59:01.56	322.03	23.55	
2025-01-09 02:59:01.76	321.96	23.55	
2025-01-09 02:59:01.97	321.90	23.56	
2025-01-09 02:59:02.17	321.83	23.57	
2025-01-09 02:59:02.38	321.76	23.58	
2025-01-09 02:59:02.59	321.70	23.58	
2025-01-09 02:59:02.80	321.63	23.59	
2025-01-09 02:59:03.00	321.56	23.60	
2025-01-09 02:59:03.21	321.50	23.61	
2025-01-09 02:59:03.42	321.43	23.61	
2025-01-09 02:59:03.62	321.37	23.62	
2025-01-09 02:59:03.83	321.30	23.63	
2025-01-09 02:59:04.03	321.23	23.64	
2025-01-09 02:59:04.24	321.17	23.64	
2025-01-09 02:59:04.44	321.10	23.65	
2025-01-09 02:59:04.65	321.03	23.66	
2025-01-09 02:59:04.85	320.97	23.66	
2025-01-09 02:59:05.06	320.90	23.67	
2025-01-09 02:59:05.27	320.83	23.68	
2025-01-09 02:59:05.47	320.77	23.68	
2025-01-09 02:59:05.68	320.70	23.69	
2025-01-09 02:59:05.89	320.63	23.70	
2025-01-09 02:59:06.10	320.56	23.71	
2025-01-09 02:59:06.30	320.50	23.71	
2025-01-09 02:59:06.51	320.43	23.72	
2025-01-09 02:59:06.71	320.37	23.73	
2025-01-09 02:59:06.92	320.30	23.73	
2025-01-09 02:59:07.12	320.23	23.74	
2025-01-09 02:59:07.33	320.17	23.75	
2025-01-09 02:59:07.53	320.10	23.75	
2025-01-09 02:59:07.74	320.03	23.76	
2025-01-09 02:59:07.94	319.97	23.76	
2025-01-09 02:59:08.15	319.90	23.77	
2025-01-09 02:59:08.35	319.83	23.78	
2025-01-09 02:59:08.56	319.77	23.78	
2025-01-09 02:59:08.76	319.70	23.79	
2025-01-09 02:59:08.96	319.63	23.80	
2025-01-09 02:59:09.17	319.57	23.80	
2025-01-09 02:59:09.37	319.50	23.81	
2025-01-09 02:59:09.58	319.43	23.81	
2025-01-09 02:59:09.78	319.37	23.82	
2025-01-09 02:59:09.99	319.30	23.83	
2025-01-09 02:59:10.19	319.23	23.83	
2025-01-09 02:59:10.40	319.16	23.84	
2025-01-09 02:59:10.60	319.10	23.84	
2025-01-09 02:59:10.81	319.03	23.85	
2025-01-09 02:59:11.01	318.97	23.86	
2025-01-09 02:59:11.22	318.90	23.86	
2025-01-09 02:59:11.42	318.83	23.87	
2025-01-09 02:59:11.63	318.76	23.87	
2025-01-09 02:59:11.83	318.70	23.88	
2025-01-09 02:59:12.04	318.63	23.88	
2025-01-09 02:59:12.26	318.56	23.89	
2025-01-09 02:59:12.46	318.49	23.90	
2025-01-09 02:59:12.67	318.42	23.90	
2025-01-09 02:59:12.88	318.35	23.91	
2025-01-09 02:59:13.08	318.29	23.91	
2025-01-09 02:59:13.28	318.22	23.92	
2025-01-09 02:59:13.49	318.15	23.92	
2025-01-09 02:59:13.70	318.08	23.93	
2025-01-09 02:59:13.90	318.02	23.93	
2025-01-09 02:59:14.11	317.95	23.94	
2025-01-09 02:59:14.31	317.88	23.94	
2025-01-09 02:59:14.51	317.82	23.95	
2025-01-09 02:59:14.72	317.75	23.95	
2025-01-09 02:59:14.92	317.68	23.96	
2025-01-09 02:59:15.13	317.61	23.96	
2025-01-09 02:59:15.33	317.55	23.97	
2025-01-09 02:59:15.53	317.48	23.97	
2025-01-09 02:59:15.74	317.41	23.98	
2025-01-09 02:59:15.95	317.34	23.98	
2025-01-09 02:59:16.15	317.28	23.99	
2025-01-09 02:59:16.35	317.21	23.99	
2025-01-09 02:59:16.56	317.14	24.00	
2025-01-09 02:59:16.76	317.07	24.00	
2025-01-09 02:59:16.97	317.00	24.01	
2025-01-09 02:59:17.17	316.94	24.01	
2025-01-09 02:59:17.38	316.87	24.02	
2025-01-09 02:59:17.58	316.80	24.02	
2025-01-09 02:59:17.79	316.73	24.03	
2025-01-09 02:59:17.99	316.67	24.03	
2025-01-09 02:59:18.20	316.60	24.03	
2025-01-09 02:59:18.40	316.53	24.04	
2025-01-09 02:59:18.62	316.46	24.04	
2025-01-09 02:59:18.83	316.39	24.05	
2025-01-09 02:59:19.03	316.32	24.05	
2025-01-09 02:59:19.24	316.25	24.06	
2025-01-09 02:59:19.44	316.19	24.06	
2025-01-09 02:59:19.65	316.12	24.06	
2025-01-09 02:59:19.85	316.05	24.07	
2025-01-09 02:59:20.06	315.98	24.07	
2025-01-09 02:59:20.26	315.91	24.08	
2025-01-09 02:59:20.47	315.84	24.08	
2025-01-09 02:59:20.69	315.77	24.09	
2025-01-09 02:59:20.89	315.71	24.09	
2025-01-09 02:59:21.10	315.64	24.09	
2025-01-09 02:59:21.30	315.57	24.10	
2025-01-09 02:59:21.51	315.50	24.10	
2025-01-09 02:59:21.71	315.43	24.10	
2025-01-09 02:59:21.92	315.36	24.11	
2025-01-09 02:59:22.13	315.29	24.11	
2025-01-09 02:59:22.33	315.23	24.11	
2025-01-09 02:59:22.54	315.16	24.12	
2025-01-09 02:59:22.74	315.09	24.12	
2025-01-09 02:59:22.95	315.02	24.13	
2025-01-09 02:59:23.15	314.95	24.13	
2025-01-09 02:59:23.36	314.88	24.13	
2025-01-09 02:59:23.56	314.82	24.14	
2025-01-09 02:59:23.77	314.75	24.14	
2025-01-09 02:59:23.97	314.68	24.14	
2025-01-09 02:59:24.18	314.61	24.15	
2025-01-09 02:59:24.38	314.54	24.15	
2025-01-09 02:59:24.59	314.47	24.15	
2025-01-09 02:59:24.80	314.40	24.15	
2025-01-09 02:59:25.00	314.34	24.16	
2025-01-09 02:59:25.20	314.27	24.16	
2025-01-09 02:59:25.41	314.20	24.16	
2025-01-09 02:59:25.62	314.13	24.17	
2025-01-09 02:59:25.82	314.06	24.17	
2025-01-09 02:59:26.02	313.99	24.17	
2025-01-09 02:59:26.23	313.92	24.17	
2025-01-09 02:59:26.43	313.86	24.18	
2025-01-09 02:59:26.64	313.79	24.18	
2025-01-09 02:59:26.85	313.72	24.18	
2025-01-09 02:59:27.05	313.65	24.19	
2025-01-09 02:59:27.25	313.58	24.19	
2025-01-09 02:59:27.46	313.51	24.19	
2025-01-09 02:59:27.67	313.44	24.19	
2025-01-09 02:59:27.87	313.38	24.20	
2025-01-09 02:59:28.08	313.31	24.20	
2025-01-09 02:59:28.28	313.24	24.20	
2025-01-09 02:59:28.48	313.17	24.20	
2025-01-09 02:59:28.69	313.10	24.20	
2025-01-09 02:59:28.89	313.03	24.21	
2025-01-09 02:59:29.10	312.96	24.21	
2025-01-09 02:59:29.30	312.90	24.21	
2025-01-09 02:59:29.51	312.83	24.21	
2025-01-09 02:59:29.71	312.76	24.22	
2025-01-09 02:59:29.92	312.69	24.22	
2025-01-09 02:59:30.12	312.62	24.22	
2025-01-09 02:59:30.33	312.55	24.22	
2025-01-09 02:59:30.53	312.48	24.22	
2025-01-09 02:59:30.74	312.41	24.23	
2025-01-09 02:59:30.94	312.35	24.23	
2025-01-09 02:59:31.15	312.28	24.23	
2025-01-09 02:59:31.35	312.21	24.23	
2025-01-09 02:59:31.56	312.14	24.23	
2025-01-09 02:59:31.76	312.07	24.23	
2025-01-09 02:59:31.97	312.00	24.24	
2025-01-09 02:59:32.17	311.93	24.24	
2025-01-09 02:59:32.37	311.87	24.24	
2025-01-09 02:59:32.58	311.80	24.24	
2025-01-09 02:59:32.79	311.73	24.24	
2025-01-09 02:59:32.99	311.66	24.24	
2025-01-09 02:59:33.20	311.59	24.24	
2025-01-09 02:59:33.40	311.52	24.24	
2025-01-09 02:59:33.61	311.45	24.25	
2025-01-09 02:59:33.81	311.38	24.25	
2025-01-09 02:59:34.02	311.31	24.25	
2025-01-09 02:59:34.22	311.25	24.25	
2025-01-09 02:59:34.43	311.17	24.25	
2025-01-09 02:59:34.63	311.11	24.25	
2025-01-09 02:59:34.84	311.04	24.25	
2025-01-09 02:59:35.04	310.97	24.25	
2025-01-09 02:59:35.25	310.90	24.25	
2025-01-09 02:59:35.45	310.83	24.26	
2025-01-09 02:59:35.65	310.76	24.26	
2025-01-09 02:59:35.86	310.69	24.26	
2025-01-09 02:59:36.06	310.63	24.26	
2025-01-09 02:59:36.27	310.56	24.26	
2025-01-09 02:59:36.48	310.49	24.26	
2025-01-09 02:59:36.68	310.42	24.26	
2025-01-09 02:59:36.88	310.35	24.26	
2025-01-09 02:59:37.09	310.28	24.26	
2025-01-09 02:59:37.30	310.21	24.26	
2025-01-09 02:59:37.50	310.14	24.26	
2025-01-09 02:59:37.70	310.07	24.26	
2025-01-09 02:59:37.91	310.00	24.26	
2025-01-09 02:59:38.11	309.94	24.26	
2025-01-09 02:59:38.32	309.87	24.26	
2025-01-09 02:59:38.52	309.80	24.26	
2025-01-09 02:59:38.73	309.73	24.26	
2025-01-09 02:59:38.93	309.66	24.26	
2025-01-09 02:59:39.14	309.59	24.26	
2025-01-09 02:59:39.35	309.52	24.26	
2025-01-09 02:59:39.55	309.45	24.26	
2025-01-09 02:59:39.76	309.38	24.26	
2025-01-09 02:59:39.96	309.31	24.26	
2025-01-09 02:59:40.16	309.25	24.26	
2025-01-09 02:59:40.37	309.18	24.26	
2025-01-09 02:59:40.58	309.11	24.26	
2025-01-09 02:59:40.78	309.04	24.26	
2025-01-09 02:59:41.00	308.96	24.26	
2025-01-09 02:59:41.20	308.90	24.26	
2025-01-09 02:59:41.41	308.83	24.26	
2025-01-09 02:59:41.61	308.76	24.26	
2025-01-09 02:59:41.82	308.69	24.26	
2025-01-09 02:59:42.02	308.62	24.26	
2025-01-09 02:59:42.23	308.55	24.26	
2025-01-09 02:59:42.44	308.48	24.26	
2025-01-09 02:59:42.65	308.41	24.26	
2025-01-09 02:59:42.85	308.34	24.26	
2025-01-09 02:59:43.05	308.27	24.26	
2025-01-09 02:59:43.26	308.20	24.25	
2025-01-09 02:59:43.46	308.14	24.25	
2025-01-09 02:59:43.67	308.07	24.25	
2025-01-09 02:59:43.88	308.00	24.25	
2025-01-09 02:59:44.08	307.93	24.25	
2025-01-09 02:59:44.28	307.86	24.25	
2025-01-09 02:59:44.49	307.79	24.25	
2025-01-09 02:59:44.70	307.72	24.25	
2025-01-09 02:59:44.90	307.65	24.25	
2025-01-09 02:59:45.11	307.58	24.25	
2025-01-09 02:59:45.33	307.51	24.24	
2025-01-09 02:59:45.53	307.44	24.24	
2025-01-09 02:59:45.74	307.37	24.24	
2025-01-09 02:59:45.94	307.30	24.24	
2025-01-09 02:59:46.15	307.23	24.24	
2025-01-09 02:59:46.35	307.17	24.24	
2025-01-09 02:59:46.56	307.09	24.24	
2025-01-09 02:59:46.76	307.03	24.23	
2025-01-09 02:59:46.97	306.96	24.23	
2025-01-09 02:59:47.18	306.89	24.23	
2025-01-09 02:59:47.39	306.82	24.23	
2025-01-09 02:59:47.60	306.75	24.23	
2025-01-09 02:59:47.80	306.68	24.23	
2025-01-09 02:59:48.01	306.61	24.22	
2025-01-09 02:59:48.22	306.54	24.22	
2025-01-09 02:59:48.43	306.47	24.22	
2025-01-09 02:59:48.64	306.40	24.22	
2025-01-09 02:59:48.84	306.33	24.22	
2025-01-09 02:59:49.05	306.26	24.21	
2025-01-09 02:59:49.26	306.19	24.21	
2025-01-09 02:59:49.46	306.12	24.21	
2025-01-09 02:59:49.66	306.05	24.21	
2025-01-09 02:59:49.87	305.98	24.21	
2025-01-09 02:59:50.08	305.91	24.20	
2025-01-09 02:59:50.28	305.85	24.20	
2025-01-09 02:59:50.48	305.78	24.20	
2025-01-09 02:59:50.69	305.71	24.20	
2025-01-09 02:59:50.89	305.64	24.19	
2025-01-09 02:59:51.10	305.57	24.19	
2025-01-09 02:59:51.31	305.50	24.19	
2025-01-09 02:59:51.52	305.43	24.19	
2025-01-09 02:59:51.73	305.36	24.18	
2025-01-09 02:59:51.93	305.29	24.18	
2025-01-09 02:59:52.14	305.22	24.18	
2025-01-09 02:59:52.34	305.16	24.18	
2025-01-09 02:59:52.55	305.09	24.17	
2025-01-09 02:59:52.75	305.02	24.17	
2025-01-09 02:59:52.96	304.95	24.17	
2025-01-09 02:59:53.16	304.88	24.16	
2025-01-09 02:59:53.37	304.81	24.16	
2025-01-09 02:59:53.57	304.75	24.16	
2025-01-09 02:59:53.79	304.67	24.15	
2025-01-09 02:59:54.00	304.60	24.15	
2025-01-09 02:59:54.20	304.53	24.15	
2025-01-09 02:59:54.41	304.46	24.15	
2025-01-09 02:59:54.61	304.40	24.14	
2025-01-09 02:59:54.83	304.32	24.14	
2025-01-09 02:59:55.03	304.26	24.14	
2025-01-09 02:59:55.24	304.19	24.13	
2025-01-09 02:59:55.45	304.12	24.13	
2025-01-09 02:59:55.65	304.05	24.13	
2025-01-09 02:59:55.86	303.98	24.12	
2025-01-09 02:59:56.06	303.91	24.12	
2025-01-09 02:59:56.27	303.84	24.11	
2025-01-09 02:59:56.47	303.78	24.11	
2025-01-09 02:59:56.68	303.71	24.11	
2025-01-09 02:59:56.88	303.64	24.10	
2025-01-09 02:59:57.09	303.57	24.10	
2025-01-09 02:59:57.29	303.50	24.10	
2025-01-09 02:59:57.50	303.43	24.09	
2025-01-09 02:59:57.70	303.37	24.09	
2025-01-09 02:59:57.91	303.30	24.09	
2025-01-09 02:59:58.11	303.23	24.08	
2025-01-09 02:59:58.32	303.16	24.08	
2025-01-09 02:59:58.52	303.10	24.07	
2025-01-09 02:59:58.73	303.03	24.07	
2025-01-09 02:59:58.93	302.96	24.07	
2025-01-09 02:59:59.13	302.89	24.06	
2025-01-09 02:59:59.34	302.82	24.06	
2025-01-09 02:59:59.55	302.75	24.05	
2025-01-09 02:59:59.75	302.69	24.05	
2025-01-09 02:59:59.96	302.62	24.04	
2025-01-09 03:00:00.16	302.55	24.04	
2025-01-09 03:00:00.36	302.48	24.04	
2025-01-09 03:00:00.57	302.41	24.03	
2025-01-09 03:00:00.77	302.35	24.03	
2025-01-09 03:00:00.98	302.28	24.02	
2025-01-09 03:00:01.18	302.21	24.02	
2025-01-09 03:00:01.39	302.14	24.01	
2025-01-09 03:00:01.60	302.07	24.01	
2025-01-09 03:00:01.80	302.01	24.00	
2025-01-09 03:00:02.01	301.94	24.00	
2025-01-09 03:00:02.21	301.87	23.99	
2025-01-09 03:00:02.41	301.81	23.99	
2025-01-09 03:00:02.62	301.74	23.98	
2025-01-09 03:00:02.82	301.67	23.98	
2025-01-09 03:00:03.03	301.60	23.97	
2025-01-09 03:00:03.23	301.53	23.97	
2025-01-09 03:00:03.44	301.47	23.97	
2025-01-09 03:00:03.64	301.40	23.96	
2025-01-09 03:00:03.85	301.33	23.95	
2025-01-09 03:00:04.06	301.26	23.95	
2025-01-09 03:00:04.26	301.20	23.94	
2025-01-09 03:00:04.47	301.13	23.94	
2025-01-09 03:00:04.67	301.06	23.93	
2025-01-09 03:00:04.87	300.99	23.93	
