passes_logs/2025/01/09/SPB_Silybum_02/SPB_Silybum_02__20250109_123109_AQUA_rec.log

#Pass ID: 20250109_123109_AQUA
#Satellite: AQUA
#Configuration: AQUA
#Start time: 2025-01-09 12:31:09

#Version: 2.0.20230423
#Station: SPB_Silybum_02
#Location: 30.233357 lon 59.946436 lat
#TLE: 1 27424U 02022A   25008.83930641  .00002008  00000+0  42243-3 0  9991
#TLE: 2 27424  98.3576 325.4481 0001488 117.9026 295.2820 14.60658995206721

#Time	Az	El	Level	Level2	SNR	BER	Gain	Gain2
2025-01-09 12:31:11.24	196.83	4.13	
2025-01-09 12:31:11.46	196.85	4.14	
2025-01-09 12:31:11.67	196.86	4.15	
2025-01-09 12:31:11.87	196.88	4.17	
2025-01-09 12:31:12.08	196.89	4.18	
2025-01-09 12:31:12.28	196.90	4.20	
2025-01-09 12:31:12.49	196.92	4.21	
2025-01-09 12:31:12.69	196.93	4.22	
2025-01-09 12:31:12.90	196.95	4.24	
2025-01-09 12:31:13.10	196.96	4.25	
2025-01-09 12:31:13.31	196.97	4.26	
2025-01-09 12:31:13.51	196.99	4.28	
2025-01-09 12:31:13.72	197.00	4.29	
2025-01-09 12:31:13.92	197.02	4.30	
2025-01-09 12:31:14.13	197.03	4.32	
2025-01-09 12:31:14.34	197.05	4.33	
2025-01-09 12:31:14.54	197.06	4.35	
2025-01-09 12:31:14.75	197.07	4.36	
2025-01-09 12:31:14.95	197.09	4.37	
2025-01-09 12:31:15.16	197.10	4.39	
2025-01-09 12:31:15.37	197.12	4.40	
2025-01-09 12:31:15.57	197.13	4.41	
2025-01-09 12:31:15.77	197.15	4.43	
2025-01-09 12:31:15.98	197.16	4.44	
2025-01-09 12:31:16.19	197.18	4.46	
2025-01-09 12:31:16.39	197.19	4.47	
2025-01-09 12:31:16.60	197.20	4.48	
2025-01-09 12:31:16.80	197.22	4.50	
2025-01-09 12:31:17.01	197.23	4.51	
2025-01-09 12:31:17.21	197.25	4.52	
2025-01-09 12:31:17.42	197.26	4.54	
2025-01-09 12:31:17.63	197.28	4.55	
2025-01-09 12:31:17.83	197.29	4.56	
2025-01-09 12:31:18.04	197.31	4.58	
2025-01-09 12:31:18.24	197.32	4.59	
2025-01-09 12:31:18.45	197.33	4.61	
2025-01-09 12:31:18.65	197.35	4.62	
2025-01-09 12:31:18.86	197.36	4.63	
2025-01-09 12:31:19.07	197.38	4.65	
2025-01-09 12:31:19.28	197.39	4.66	
2025-01-09 12:31:19.48	197.41	4.68	
2025-01-09 12:31:19.69	197.42	4.69	
2025-01-09 12:31:19.89	197.44	4.70	
2025-01-09 12:31:20.10	197.45	4.72	
2025-01-09 12:31:20.30	197.47	4.73	
2025-01-09 12:31:20.51	197.48	4.75	
2025-01-09 12:31:20.71	197.50	4.76	
2025-01-09 12:31:20.92	197.51	4.77	
2025-01-09 12:31:21.14	197.53	4.79	
2025-01-09 12:31:21.34	197.54	4.80	
2025-01-09 12:31:21.55	197.56	4.82	
2025-01-09 12:31:21.75	197.57	4.83	
2025-01-09 12:31:21.96	197.59	4.84	
2025-01-09 12:31:22.16	197.60	4.86	
2025-01-09 12:31:22.37	197.61	4.87	
2025-01-09 12:31:22.57	197.63	4.88	
2025-01-09 12:31:22.78	197.64	4.90	
2025-01-09 12:31:22.98	197.66	4.91	
2025-01-09 12:31:23.19	197.67	4.93	
2025-01-09 12:31:23.39	197.69	4.94	
2025-01-09 12:31:23.60	197.70	4.95	
2025-01-09 12:31:23.80	197.72	4.97	
2025-01-09 12:31:24.01	197.73	4.98	
2025-01-09 12:31:24.21	197.75	5.00	
2025-01-09 12:31:24.42	197.76	5.01	
2025-01-09 12:31:24.62	197.78	5.02	
2025-01-09 12:31:24.83	197.79	5.04	
2025-01-09 12:31:25.03	197.81	5.05	
2025-01-09 12:31:25.24	197.82	5.07	
2025-01-09 12:31:25.44	197.84	5.08	
2025-01-09 12:31:25.65	197.85	5.09	
2025-01-09 12:31:25.86	197.87	5.11	
2025-01-09 12:31:26.06	197.88	5.12	
2025-01-09 12:31:26.27	197.90	5.14	
2025-01-09 12:31:26.47	197.91	5.15	
2025-01-09 12:31:26.68	197.93	5.16	
2025-01-09 12:31:26.88	197.94	5.18	
2025-01-09 12:31:27.09	197.96	5.19	
2025-01-09 12:31:27.29	197.97	5.21	
2025-01-09 12:31:27.51	197.99	5.22	
2025-01-09 12:31:27.72	198.01	5.24	
2025-01-09 12:31:27.92	198.02	5.25	
2025-01-09 12:31:28.13	198.04	5.26	
2025-01-09 12:31:28.33	198.05	5.28	
2025-01-09 12:31:28.53	198.07	5.29	
2025-01-09 12:31:28.74	198.08	5.31	
2025-01-09 12:31:28.94	198.10	5.32	
2025-01-09 12:31:29.15	198.11	5.33	
2025-01-09 12:31:29.35	198.13	5.35	
2025-01-09 12:31:29.56	198.14	5.36	
2025-01-09 12:31:29.76	198.16	5.38	
2025-01-09 12:31:29.97	198.17	5.39	
2025-01-09 12:31:30.17	198.19	5.40	
2025-01-09 12:31:30.38	198.20	5.42	
2025-01-09 12:31:30.58	198.22	5.43	
2025-01-09 12:31:30.79	198.23	5.45	
2025-01-09 12:31:30.99	198.25	5.46	
2025-01-09 12:31:31.20	198.27	5.48	
2025-01-09 12:31:31.40	198.28	5.49	
2025-01-09 12:31:31.61	198.30	5.50	
2025-01-09 12:31:31.83	198.31	5.52	
2025-01-09 12:31:32.04	198.33	5.53	
2025-01-09 12:31:32.24	198.34	5.55	
2025-01-09 12:31:32.45	198.36	5.56	
2025-01-09 12:31:32.65	198.38	5.58	
2025-01-09 12:31:32.86	198.39	5.59	
2025-01-09 12:31:33.06	198.41	5.60	
2025-01-09 12:31:33.27	198.42	5.62	
2025-01-09 12:31:33.47	198.44	5.63	
2025-01-09 12:31:33.68	198.45	5.65	
2025-01-09 12:31:33.88	198.47	5.66	
2025-01-09 12:31:34.09	198.49	5.68	
2025-01-09 12:31:34.29	198.50	5.69	
2025-01-09 12:31:34.50	198.52	5.70	
2025-01-09 12:31:34.70	198.53	5.72	
2025-01-09 12:31:34.90	198.55	5.73	
2025-01-09 12:31:35.11	198.56	5.75	
2025-01-09 12:31:35.31	198.58	5.76	
2025-01-09 12:31:35.52	198.59	5.78	
2025-01-09 12:31:35.73	198.61	5.79	
2025-01-09 12:31:35.93	198.63	5.80	
2025-01-09 12:31:36.13	198.64	5.82	
2025-01-09 12:31:36.34	198.66	5.83	
2025-01-09 12:31:36.55	198.67	5.85	
2025-01-09 12:31:36.75	198.69	5.86	
2025-01-09 12:31:36.96	198.71	5.88	
2025-01-09 12:31:37.16	198.72	5.89	
2025-01-09 12:31:37.37	198.74	5.91	
2025-01-09 12:31:37.57	198.75	5.92	
2025-01-09 12:31:37.78	198.77	5.93	
2025-01-09 12:31:37.98	198.79	5.95	
2025-01-09 12:31:38.20	198.80	5.96	
2025-01-09 12:31:38.41	198.82	5.98	
2025-01-09 12:31:38.61	198.83	5.99	
2025-01-09 12:31:38.82	198.85	6.01	
2025-01-09 12:31:39.03	198.87	6.02	
2025-01-09 12:31:39.23	198.88	6.04	
2025-01-09 12:31:39.44	198.90	6.05	
2025-01-09 12:31:39.64	198.92	6.07	
2025-01-09 12:31:39.85	198.93	6.08	
2025-01-09 12:31:40.05	198.95	6.09	
2025-01-09 12:31:40.27	198.96	6.11	
2025-01-09 12:31:40.48	198.98	6.12	
2025-01-09 12:31:40.68	199.00	6.14	
2025-01-09 12:31:40.89	199.01	6.15	
2025-01-09 12:31:41.09	199.03	6.17	
2025-01-09 12:31:41.30	199.05	6.18	
2025-01-09 12:31:41.50	199.06	6.20	
2025-01-09 12:31:41.71	199.08	6.21	
2025-01-09 12:31:41.92	199.10	6.23	
2025-01-09 12:31:42.12	199.11	6.24	
2025-01-09 12:31:42.33	199.13	6.26	
2025-01-09 12:31:42.53	199.14	6.27	
2025-01-09 12:31:42.74	199.16	6.29	
2025-01-09 12:31:42.94	199.18	6.30	
2025-01-09 12:31:43.15	199.19	6.31	
2025-01-09 12:31:43.35	199.21	6.33	
2025-01-09 12:31:43.56	199.23	6.34	
2025-01-09 12:31:43.76	199.24	6.36	
2025-01-09 12:31:43.97	199.26	6.37	
2025-01-09 12:31:44.17	199.28	6.39	
2025-01-09 12:31:44.38	199.29	6.40	
2025-01-09 12:31:44.58	199.31	6.42	
2025-01-09 12:31:44.79	199.32	6.43	
2025-01-09 12:31:44.99	199.34	6.45	
2025-01-09 12:31:45.20	199.36	6.46	
2025-01-09 12:31:45.40	199.37	6.47	
2025-01-09 12:31:45.60	199.39	6.49	
2025-01-09 12:31:45.81	199.41	6.50	
2025-01-09 12:31:46.01	199.42	6.52	
2025-01-09 12:31:46.22	199.44	6.53	
2025-01-09 12:31:46.43	199.46	6.55	
2025-01-09 12:31:46.64	199.47	6.56	
2025-01-09 12:31:46.85	199.49	6.58	
2025-01-09 12:31:47.05	199.51	6.59	
2025-01-09 12:31:47.26	199.53	6.61	
2025-01-09 12:31:47.46	199.54	6.62	
2025-01-09 12:31:47.67	199.56	6.64	
2025-01-09 12:31:47.87	199.58	6.65	
2025-01-09 12:31:48.08	199.59	6.67	
2025-01-09 12:31:48.28	199.61	6.68	
2025-01-09 12:31:48.49	199.63	6.70	
2025-01-09 12:31:48.70	199.64	6.71	
2025-01-09 12:31:48.90	199.66	6.73	
2025-01-09 12:31:49.11	199.68	6.74	
2025-01-09 12:31:49.31	199.69	6.76	
2025-01-09 12:31:49.52	199.71	6.77	
2025-01-09 12:31:49.72	199.73	6.79	
2025-01-09 12:31:49.93	199.74	6.80	
2025-01-09 12:31:50.13	199.76	6.82	
2025-01-09 12:31:50.34	199.78	6.83	
2025-01-09 12:31:50.54	199.80	6.85	
2025-01-09 12:31:50.75	199.81	6.86	
2025-01-09 12:31:50.95	199.83	6.88	
2025-01-09 12:31:51.16	199.85	6.89	
2025-01-09 12:31:51.37	199.86	6.91	
2025-01-09 12:31:51.57	199.88	6.92	
2025-01-09 12:31:51.78	199.90	6.94	
2025-01-09 12:31:51.98	199.92	6.95	
2025-01-09 12:31:52.19	199.93	6.97	
2025-01-09 12:31:52.39	199.95	6.98	
2025-01-09 12:31:52.60	199.97	7.00	
2025-01-09 12:31:52.80	199.98	7.01	
2025-01-09 12:31:53.01	200.00	7.03	
2025-01-09 12:31:53.21	200.02	7.04	
2025-01-09 12:31:53.42	200.04	7.06	
2025-01-09 12:31:53.62	200.05	7.07	
2025-01-09 12:31:53.83	200.07	7.08	
2025-01-09 12:31:54.03	200.09	7.10	
2025-01-09 12:31:54.24	200.11	7.11	
2025-01-09 12:31:54.44	200.12	7.13	
2025-01-09 12:31:54.65	200.14	7.15	
2025-01-09 12:31:54.85	200.16	7.16	
2025-01-09 12:31:55.05	200.17	7.17	
2025-01-09 12:31:55.27	200.19	7.19	
2025-01-09 12:31:55.48	200.21	7.21	
2025-01-09 12:31:55.68	200.23	7.22	
2025-01-09 12:31:55.89	200.25	7.24	
2025-01-09 12:31:56.10	200.26	7.25	
2025-01-09 12:31:56.30	200.28	7.27	
2025-01-09 12:31:56.51	200.30	7.28	
2025-01-09 12:31:56.71	200.32	7.30	
2025-01-09 12:31:56.92	200.33	7.31	
2025-01-09 12:31:57.12	200.35	7.33	
2025-01-09 12:31:57.33	200.37	7.34	
2025-01-09 12:31:57.53	200.39	7.36	
2025-01-09 12:31:57.74	200.40	7.37	
2025-01-09 12:31:57.95	200.42	7.39	
2025-01-09 12:31:58.15	200.44	7.40	
2025-01-09 12:31:58.36	200.46	7.42	
2025-01-09 12:31:58.56	200.48	7.43	
2025-01-09 12:31:58.76	200.49	7.45	
2025-01-09 12:31:58.97	200.51	7.46	
2025-01-09 12:31:59.18	200.53	7.48	
2025-01-09 12:31:59.38	200.55	7.49	
2025-01-09 12:31:59.59	200.57	7.51	
2025-01-09 12:31:59.79	200.58	7.52	
2025-01-09 12:32:00.00	200.60	7.54	
2025-01-09 12:32:00.20	200.62	7.55	
2025-01-09 12:32:00.41	200.64	7.57	
2025-01-09 12:32:00.62	200.66	7.59	
2025-01-09 12:32:00.83	200.67	7.60	
2025-01-09 12:32:01.03	200.69	7.62	
2025-01-09 12:32:01.24	200.71	7.63	
2025-01-09 12:32:01.44	200.73	7.65	
2025-01-09 12:32:01.64	200.74	7.66	
2025-01-09 12:32:01.85	200.76	7.68	
2025-01-09 12:32:02.05	200.78	7.69	
2025-01-09 12:32:02.26	200.80	7.71	
2025-01-09 12:32:02.47	200.82	7.72	
2025-01-09 12:32:02.67	200.84	7.74	
2025-01-09 12:32:02.87	200.85	7.75	
2025-01-09 12:32:03.08	200.87	7.77	
2025-01-09 12:32:03.28	200.89	7.78	
2025-01-09 12:32:03.49	200.91	7.80	
2025-01-09 12:32:03.69	200.93	7.82	
2025-01-09 12:32:03.90	200.94	7.83	
2025-01-09 12:32:04.10	200.96	7.85	
2025-01-09 12:32:04.31	200.98	7.86	
2025-01-09 12:32:04.52	201.00	7.88	
2025-01-09 12:32:04.72	201.02	7.89	
2025-01-09 12:32:04.93	201.04	7.91	
2025-01-09 12:32:05.13	201.05	7.92	
2025-01-09 12:32:05.34	201.07	7.94	
2025-01-09 12:32:05.54	201.09	7.95	
2025-01-09 12:32:05.75	201.11	7.97	
2025-01-09 12:32:05.95	201.13	7.99	
2025-01-09 12:32:06.16	201.15	8.00	
2025-01-09 12:32:06.36	201.17	8.02	
2025-01-09 12:32:06.57	201.18	8.03	
2025-01-09 12:32:06.78	201.20	8.05	
2025-01-09 12:32:06.98	201.22	8.06	
2025-01-09 12:32:07.19	201.24	8.08	
2025-01-09 12:32:07.39	201.26	8.09	
2025-01-09 12:32:07.60	201.28	8.11	
2025-01-09 12:32:07.81	201.30	8.13	
2025-01-09 12:32:08.01	201.32	8.14	
2025-01-09 12:32:08.21	201.33	8.16	
2025-01-09 12:32:08.42	201.35	8.17	
2025-01-09 12:32:08.63	201.37	8.19	
2025-01-09 12:32:08.83	201.39	8.20	
2025-01-09 12:32:09.04	201.41	8.22	
2025-01-09 12:32:09.24	201.43	8.23	
2025-01-09 12:32:09.45	201.45	8.25	
2025-01-09 12:32:09.65	201.47	8.27	
2025-01-09 12:32:09.86	201.48	8.28	
2025-01-09 12:32:10.06	201.50	8.30	
2025-01-09 12:32:10.27	201.52	8.31	
2025-01-09 12:32:10.47	201.54	8.33	
2025-01-09 12:32:10.68	201.56	8.34	
2025-01-09 12:32:10.88	201.58	8.36	
2025-01-09 12:32:11.09	201.60	8.38	
2025-01-09 12:32:11.29	201.62	8.39	
2025-01-09 12:32:11.50	201.64	8.41	
2025-01-09 12:32:11.70	201.65	8.42	
2025-01-09 12:32:11.91	201.67	8.44	
2025-01-09 12:32:12.11	201.69	8.45	
2025-01-09 12:32:12.32	201.71	8.47	
2025-01-09 12:32:12.52	201.73	8.48	
2025-01-09 12:32:12.73	201.75	8.50	
2025-01-09 12:32:12.93	201.77	8.52	
2025-01-09 12:32:13.14	201.79	8.53	
2025-01-09 12:32:13.34	201.81	8.55	
2025-01-09 12:32:13.55	201.83	8.56	
2025-01-09 12:32:13.75	201.85	8.58	
2025-01-09 12:32:13.96	201.87	8.60	
2025-01-09 12:32:14.17	201.89	8.61	
2025-01-09 12:32:14.37	201.90	8.63	
2025-01-09 12:32:14.58	201.92	8.64	
2025-01-09 12:32:14.78	201.94	8.66	
2025-01-09 12:32:14.98	201.96	8.67	
2025-01-09 12:32:15.19	201.98	8.69	
2025-01-09 12:32:15.40	202.00	8.71	
2025-01-09 12:32:15.61	202.02	8.72	
2025-01-09 12:32:15.82	202.04	8.74	
2025-01-09 12:32:16.04	202.06	8.76	
2025-01-09 12:32:16.24	202.08	8.77	
2025-01-09 12:32:16.45	202.10	8.79	
2025-01-09 12:32:16.65	202.12	8.80	
2025-01-09 12:32:16.86	202.14	8.82	
2025-01-09 12:32:17.06	202.16	8.84	
2025-01-09 12:32:17.27	202.18	8.85	
2025-01-09 12:32:17.47	202.20	8.87	
2025-01-09 12:32:17.68	202.22	8.88	
2025-01-09 12:32:17.88	202.24	8.90	
2025-01-09 12:32:18.09	202.26	8.92	
2025-01-09 12:32:18.29	202.28	8.93	
2025-01-09 12:32:18.50	202.30	8.95	
2025-01-09 12:32:18.70	202.32	8.96	
2025-01-09 12:32:18.91	202.34	8.98	
2025-01-09 12:32:19.11	202.36	8.99	
2025-01-09 12:32:19.32	202.38	9.01	
2025-01-09 12:32:19.53	202.40	9.03	
2025-01-09 12:32:19.73	202.42	9.04	
2025-01-09 12:32:19.94	202.44	9.06	
2025-01-09 12:32:20.14	202.46	9.08	
2025-01-09 12:32:20.35	202.48	9.09	
2025-01-09 12:32:20.55	202.50	9.11	
2025-01-09 12:32:20.76	202.52	9.12	
2025-01-09 12:32:20.98	202.54	9.14	
2025-01-09 12:32:21.18	202.56	9.16	
2025-01-09 12:32:21.39	202.58	9.17	
2025-01-09 12:32:21.59	202.60	9.19	
2025-01-09 12:32:21.80	202.62	9.21	
2025-01-09 12:32:22.00	202.64	9.22	
2025-01-09 12:32:22.21	202.66	9.24	
2025-01-09 12:32:22.41	202.68	9.25	
2025-01-09 12:32:22.62	202.70	9.27	
2025-01-09 12:32:22.82	202.72	9.29	
2025-01-09 12:32:23.04	202.74	9.30	
2025-01-09 12:32:23.24	202.76	9.32	
2025-01-09 12:32:23.45	202.78	9.34	
2025-01-09 12:32:23.66	202.80	9.35	
2025-01-09 12:32:23.86	202.82	9.37	
2025-01-09 12:32:24.06	202.84	9.38	
2025-01-09 12:32:24.27	202.86	9.40	
2025-01-09 12:32:24.47	202.88	9.42	
2025-01-09 12:32:24.68	202.91	9.43	
2025-01-09 12:32:24.89	202.93	9.45	
2025-01-09 12:32:25.09	202.95	9.47	
2025-01-09 12:32:25.30	202.97	9.48	
2025-01-09 12:32:25.50	202.99	9.50	
2025-01-09 12:32:25.71	203.01	9.51	
2025-01-09 12:32:25.91	203.03	9.53	
2025-01-09 12:32:26.12	203.05	9.55	
2025-01-09 12:32:26.32	203.07	9.56	
2025-01-09 12:32:26.53	203.09	9.58	
2025-01-09 12:32:26.73	203.11	9.60	
2025-01-09 12:32:26.94	203.13	9.61	
2025-01-09 12:32:27.14	203.15	9.63	
2025-01-09 12:32:27.36	203.17	9.65	
2025-01-09 12:32:27.57	203.20	9.66	
2025-01-09 12:32:27.77	203.22	9.68	
2025-01-09 12:32:27.98	203.24	9.70	
2025-01-09 12:32:28.18	203.26	9.71	
2025-01-09 12:32:28.39	203.28	9.73	
2025-01-09 12:32:28.59	203.30	9.74	
2025-01-09 12:32:28.80	203.32	9.76	
2025-01-09 12:32:29.00	203.34	9.78	
2025-01-09 12:32:29.21	203.36	9.79	
2025-01-09 12:32:29.41	203.38	9.81	
2025-01-09 12:32:29.62	203.41	9.83	
2025-01-09 12:32:29.82	203.43	9.84	
2025-01-09 12:32:30.03	203.45	9.86	
2025-01-09 12:32:30.24	203.47	9.88	
2025-01-09 12:32:30.45	203.49	9.89	
2025-01-09 12:32:30.65	203.51	9.91	
2025-01-09 12:32:30.86	203.53	9.93	
2025-01-09 12:32:31.07	203.56	9.94	
2025-01-09 12:32:31.27	203.58	9.96	
2025-01-09 12:32:31.48	203.60	9.98	
2025-01-09 12:32:31.68	203.62	9.99	
2025-01-09 12:32:31.89	203.64	10.01	
2025-01-09 12:32:32.09	203.66	10.03	
2025-01-09 12:32:32.30	203.68	10.04	
2025-01-09 12:32:32.50	203.70	10.06	
2025-01-09 12:32:32.71	203.73	10.08	
2025-01-09 12:32:32.91	203.75	10.09	
2025-01-09 12:32:33.12	203.77	10.11	
2025-01-09 12:32:33.32	203.79	10.13	
2025-01-09 12:32:33.53	203.81	10.14	
2025-01-09 12:32:33.75	203.83	10.16	
2025-01-09 12:32:33.95	203.86	10.18	
2025-01-09 12:32:34.16	203.88	10.19	
2025-01-09 12:32:34.36	203.90	10.21	
2025-01-09 12:32:34.57	203.92	10.23	
2025-01-09 12:32:34.77	203.94	10.24	
2025-01-09 12:32:34.98	203.96	10.26	
2025-01-09 12:32:35.19	203.99	10.28	
2025-01-09 12:32:35.39	204.01	10.29	
2025-01-09 12:32:35.60	204.03	10.31	
2025-01-09 12:32:35.80	204.05	10.33	
2025-01-09 12:32:36.00	204.07	10.34	
2025-01-09 12:32:36.21	204.10	10.36	
2025-01-09 12:32:36.42	204.12	10.38	
2025-01-09 12:32:36.62	204.14	10.39	
2025-01-09 12:32:36.83	204.16	10.41	
2025-01-09 12:32:37.03	204.18	10.43	
2025-01-09 12:32:37.24	204.21	10.44	
2025-01-09 12:32:37.44	204.23	10.46	
2025-01-09 12:32:37.66	204.25	10.48	
2025-01-09 12:32:37.86	204.27	10.50	
2025-01-09 12:32:38.07	204.29	10.51	
2025-01-09 12:32:38.27	204.32	10.53	
2025-01-09 12:32:38.48	204.34	10.55	
2025-01-09 12:32:38.68	204.36	10.56	
2025-01-09 12:32:38.89	204.38	10.58	
2025-01-09 12:32:39.09	204.41	10.60	
2025-01-09 12:32:39.30	204.43	10.61	
2025-01-09 12:32:39.50	204.45	10.63	
2025-01-09 12:32:39.71	204.47	10.65	
2025-01-09 12:32:39.91	204.49	10.66	
2025-01-09 12:32:40.11	204.52	10.68	
2025-01-09 12:32:40.32	204.54	10.70	
2025-01-09 12:32:40.53	204.56	10.72	
2025-01-09 12:32:40.73	204.58	10.73	
2025-01-09 12:32:40.94	204.61	10.75	
2025-01-09 12:32:41.14	204.63	10.77	
2025-01-09 12:32:41.35	204.65	10.78	
2025-01-09 12:32:41.55	204.67	10.80	
2025-01-09 12:32:41.76	204.70	10.82	
2025-01-09 12:32:41.97	204.72	10.83	
2025-01-09 12:32:42.17	204.74	10.85	
2025-01-09 12:32:42.37	204.76	10.87	
2025-01-09 12:32:42.58	204.79	10.89	
2025-01-09 12:32:42.79	204.81	10.90	
2025-01-09 12:32:42.99	204.83	10.92	
2025-01-09 12:32:43.20	204.86	10.94	
2025-01-09 12:32:43.42	204.88	10.96	
2025-01-09 12:32:43.62	204.90	10.97	
2025-01-09 12:32:43.83	204.93	10.99	
2025-01-09 12:32:44.03	204.95	11.01	
2025-01-09 12:32:44.24	204.97	11.02	
2025-01-09 12:32:44.45	205.00	11.04	
2025-01-09 12:32:44.66	205.02	11.06	
2025-01-09 12:32:44.86	205.04	11.08	
2025-01-09 12:32:45.07	205.07	11.09	
2025-01-09 12:32:45.27	205.09	11.11	
2025-01-09 12:32:45.47	205.11	11.13	
2025-01-09 12:32:45.68	205.13	11.14	
2025-01-09 12:32:45.88	205.16	11.16	
2025-01-09 12:32:46.09	205.18	11.18	
2025-01-09 12:32:46.29	205.20	11.20	
2025-01-09 12:32:46.50	205.23	11.21	
2025-01-09 12:32:46.70	205.25	11.23	
2025-01-09 12:32:46.91	205.27	11.25	
2025-01-09 12:32:47.12	205.30	11.26	
2025-01-09 12:32:47.32	205.32	11.28	
2025-01-09 12:32:47.53	205.34	11.30	
2025-01-09 12:32:47.73	205.37	11.32	
2025-01-09 12:32:47.94	205.39	11.33	
2025-01-09 12:32:48.14	205.41	11.35	
2025-01-09 12:32:48.35	205.44	11.37	
2025-01-09 12:32:48.55	205.46	11.39	
2025-01-09 12:32:48.76	205.48	11.40	
2025-01-09 12:32:48.96	205.51	11.42	
2025-01-09 12:32:49.17	205.53	11.44	
2025-01-09 12:32:49.37	205.55	11.45	
2025-01-09 12:32:49.58	205.58	11.47	
2025-01-09 12:32:49.78	205.60	11.49	
2025-01-09 12:32:49.99	205.63	11.51	
2025-01-09 12:32:50.19	205.65	11.52	
2025-01-09 12:32:50.40	205.67	11.54	
2025-01-09 12:32:50.61	205.70	11.56	
2025-01-09 12:32:50.81	205.72	11.58	
2025-01-09 12:32:51.01	205.74	11.59	
2025-01-09 12:32:51.22	205.77	11.61	
2025-01-09 12:32:51.43	205.79	11.63	
2025-01-09 12:32:51.63	205.82	11.65	
2025-01-09 12:32:51.83	205.84	11.66	
2025-01-09 12:32:52.04	205.86	11.68	
2025-01-09 12:32:52.25	205.89	11.70	
2025-01-09 12:32:52.45	205.91	11.72	
2025-01-09 12:32:52.65	205.94	11.73	
2025-01-09 12:32:52.86	205.96	11.75	
2025-01-09 12:32:53.06	205.98	11.77	
2025-01-09 12:32:53.27	206.01	11.79	
2025-01-09 12:32:53.47	206.03	11.80	
2025-01-09 12:32:53.68	206.06	11.82	
2025-01-09 12:32:53.89	206.08	11.84	
2025-01-09 12:32:54.09	206.11	11.86	
2025-01-09 12:32:54.29	206.13	11.87	
2025-01-09 12:32:54.50	206.16	11.89	
2025-01-09 12:32:54.71	206.18	11.91	
2025-01-09 12:32:54.91	206.20	11.93	
2025-01-09 12:32:55.11	206.23	11.94	
2025-01-09 12:32:55.32	206.25	11.96	
2025-01-09 12:32:55.52	206.28	11.98	
2025-01-09 12:32:55.73	206.30	12.00	
2025-01-09 12:32:55.94	206.33	12.02	
2025-01-09 12:32:56.14	206.35	12.03	
2025-01-09 12:32:56.35	206.38	12.05	
2025-01-09 12:32:56.55	206.40	12.07	
2025-01-09 12:32:56.76	206.43	12.09	
2025-01-09 12:32:56.96	206.45	12.10	
2025-01-09 12:32:57.17	206.48	12.12	
2025-01-09 12:32:57.37	206.50	12.14	
2025-01-09 12:32:57.58	206.52	12.16	
2025-01-09 12:32:57.78	206.55	12.17	
2025-01-09 12:32:57.99	206.57	12.19	
2025-01-09 12:32:58.20	206.60	12.21	
2025-01-09 12:32:58.40	206.62	12.23	
2025-01-09 12:32:58.60	206.65	12.25	
2025-01-09 12:32:58.81	206.67	12.26	
2025-01-09 12:32:59.02	206.70	12.28	
2025-01-09 12:32:59.22	206.72	12.30	
2025-01-09 12:32:59.43	206.75	12.32	
2025-01-09 12:32:59.63	206.77	12.34	
2025-01-09 12:32:59.84	206.80	12.35	
2025-01-09 12:33:00.04	206.83	12.37	
2025-01-09 12:33:00.24	206.85	12.39	
2025-01-09 12:33:00.45	206.88	12.41	
2025-01-09 12:33:00.65	206.90	12.42	
2025-01-09 12:33:00.86	206.93	12.44	
2025-01-09 12:33:01.07	206.95	12.46	
2025-01-09 12:33:01.27	206.98	12.48	
2025-01-09 12:33:01.48	207.00	12.50	
2025-01-09 12:33:01.68	207.03	12.51	
2025-01-09 12:33:01.89	207.05	12.53	
2025-01-09 12:33:02.09	207.08	12.55	
2025-01-09 12:33:02.30	207.10	12.57	
2025-01-09 12:33:02.50	207.13	12.59	
2025-01-09 12:33:02.72	207.16	12.61	
2025-01-09 12:33:02.93	207.18	12.62	
2025-01-09 12:33:03.13	207.21	12.64	
2025-01-09 12:33:03.34	207.23	12.66	
2025-01-09 12:33:03.55	207.26	12.68	
2025-01-09 12:33:03.75	207.29	12.70	
2025-01-09 12:33:03.96	207.31	12.71	
2025-01-09 12:33:04.16	207.34	12.73	
2025-01-09 12:33:04.37	207.36	12.75	
2025-01-09 12:33:04.57	207.39	12.77	
2025-01-09 12:33:04.77	207.42	12.79	
2025-01-09 12:33:04.98	207.44	12.80	
2025-01-09 12:33:05.18	207.47	12.82	
2025-01-09 12:33:05.39	207.49	12.84	
2025-01-09 12:33:05.60	207.52	12.86	
2025-01-09 12:33:05.80	207.55	12.88	
2025-01-09 12:33:06.01	207.57	12.89	
2025-01-09 12:33:06.21	207.60	12.91	
2025-01-09 12:33:06.42	207.63	12.93	
2025-01-09 12:33:06.62	207.65	12.95	
2025-01-09 12:33:06.83	207.68	12.97	
2025-01-09 12:33:07.03	207.70	12.99	
2025-01-09 12:33:07.24	207.73	13.00	
2025-01-09 12:33:07.44	207.76	13.02	
2025-01-09 12:33:07.65	207.78	13.04	
2025-01-09 12:33:07.86	207.81	13.06	
2025-01-09 12:33:08.06	207.84	13.08	
2025-01-09 12:33:08.26	207.86	13.09	
2025-01-09 12:33:08.47	207.89	13.11	
2025-01-09 12:33:08.68	207.92	13.13	
2025-01-09 12:33:08.88	207.94	13.15	
2025-01-09 12:33:09.08	207.97	13.17	
2025-01-09 12:33:09.29	208.00	13.19	
2025-01-09 12:33:09.49	208.02	13.20	
2025-01-09 12:33:09.70	208.05	13.22	
2025-01-09 12:33:09.91	208.08	13.24	
2025-01-09 12:33:10.11	208.10	13.26	
2025-01-09 12:33:10.31	208.13	13.28	
2025-01-09 12:33:10.52	208.16	13.30	
2025-01-09 12:33:10.73	208.18	13.32	
2025-01-09 12:33:10.93	208.21	13.33	
2025-01-09 12:33:11.14	208.24	13.35	
2025-01-09 12:33:11.34	208.26	13.37	
2025-01-09 12:33:11.55	208.29	13.39	
2025-01-09 12:33:11.75	208.32	13.41	
2025-01-09 12:33:11.95	208.34	13.42	
2025-01-09 12:33:12.16	208.37	13.44	
2025-01-09 12:33:12.36	208.40	13.46	
2025-01-09 12:33:12.57	208.43	13.48	
2025-01-09 12:33:12.77	208.45	13.50	
2025-01-09 12:33:12.98	208.48	13.52	
2025-01-09 12:33:13.19	208.51	13.54	
2025-01-09 12:33:13.39	208.54	13.55	
2025-01-09 12:33:13.59	208.56	13.57	
2025-01-09 12:33:13.80	208.59	13.59	
2025-01-09 12:33:14.01	208.62	13.61	
2025-01-09 12:33:14.21	208.65	13.63	
2025-01-09 12:33:14.43	208.68	13.65	
2025-01-09 12:33:14.64	208.70	13.67	
2025-01-09 12:33:14.84	208.73	13.69	
2025-01-09 12:33:15.05	208.76	13.70	
2025-01-09 12:33:15.25	208.79	13.72	
2025-01-09 12:33:15.45	208.81	13.74	
2025-01-09 12:33:15.66	208.84	13.76	
2025-01-09 12:33:15.86	208.87	13.78	
2025-01-09 12:33:16.07	208.90	13.80	
2025-01-09 12:33:16.27	208.92	13.82	
2025-01-09 12:33:16.48	208.95	13.83	
2025-01-09 12:33:16.68	208.98	13.85	
2025-01-09 12:33:16.89	209.01	13.87	
2025-01-09 12:33:17.09	209.04	13.89	
2025-01-09 12:33:17.30	209.07	13.91	
2025-01-09 12:33:17.50	209.09	13.93	
2025-01-09 12:33:17.72	209.12	13.95	
2025-01-09 12:33:17.93	209.15	13.97	
2025-01-09 12:33:18.13	209.18	13.98	
2025-01-09 12:33:18.34	209.21	14.00	
2025-01-09 12:33:18.54	209.24	14.02	
2025-01-09 12:33:18.75	209.26	14.04	
2025-01-09 12:33:18.95	209.29	14.06	
2025-01-09 12:33:19.16	209.32	14.08	
2025-01-09 12:33:19.36	209.35	14.10	
2025-01-09 12:33:19.57	209.38	14.12	
2025-01-09 12:33:19.77	209.41	14.13	
2025-01-09 12:33:19.97	209.43	14.15	
2025-01-09 12:33:20.18	209.46	14.17	
2025-01-09 12:33:20.38	209.49	14.19	
2025-01-09 12:33:20.59	209.52	14.21	
2025-01-09 12:33:20.79	209.55	14.23	
2025-01-09 12:33:21.00	209.58	14.25	
2025-01-09 12:33:21.20	209.61	14.27	
2025-01-09 12:33:21.41	209.64	14.29	
2025-01-09 12:33:21.62	209.67	14.30	
2025-01-09 12:33:21.82	209.69	14.32	
2025-01-09 12:33:22.03	209.72	14.34	
2025-01-09 12:33:22.23	209.75	14.36	
2025-01-09 12:33:22.44	209.78	14.38	
2025-01-09 12:33:22.64	209.81	14.40	
2025-01-09 12:33:22.85	209.84	14.42	
2025-01-09 12:33:23.05	209.87	14.44	
2025-01-09 12:33:23.27	209.90	14.46	
2025-01-09 12:33:23.47	209.93	14.48	
2025-01-09 12:33:23.68	209.96	14.50	
2025-01-09 12:33:23.88	209.99	14.51	
2025-01-09 12:33:24.09	210.02	14.53	
2025-01-09 12:33:24.29	210.04	14.55	
2025-01-09 12:33:24.50	210.07	14.57	
2025-01-09 12:33:24.70	210.10	14.59	
2025-01-09 12:33:24.91	210.13	14.61	
2025-01-09 12:33:25.11	210.16	14.63	
2025-01-09 12:33:25.32	210.19	14.65	
2025-01-09 12:33:25.53	210.22	14.67	
2025-01-09 12:33:25.73	210.25	14.69	
2025-01-09 12:33:25.94	210.28	14.71	
2025-01-09 12:33:26.14	210.31	14.72	
2025-01-09 12:33:26.35	210.34	14.74	
2025-01-09 12:33:26.55	210.37	14.76	
2025-01-09 12:33:26.76	210.40	14.78	
2025-01-09 12:33:26.97	210.43	14.80	
2025-01-09 12:33:27.17	210.46	14.82	
2025-01-09 12:33:27.37	210.49	14.84	
2025-01-09 12:33:27.58	210.52	14.86	
2025-01-09 12:33:27.79	210.55	14.88	
2025-01-09 12:33:27.99	210.58	14.90	
2025-01-09 12:33:28.20	210.61	14.92	
2025-01-09 12:33:28.40	210.64	14.94	
2025-01-09 12:33:28.61	210.67	14.95	
2025-01-09 12:33:28.81	210.70	14.97	
2025-01-09 12:33:29.02	210.73	14.99	
2025-01-09 12:33:29.22	210.76	15.01	
2025-01-09 12:33:29.43	210.79	15.03	
2025-01-09 12:33:29.63	210.82	15.05	
2025-01-09 12:33:29.84	210.85	15.07	
2025-01-09 12:33:30.04	210.88	15.09	
2025-01-09 12:33:30.25	210.91	15.11	
2025-01-09 12:33:30.45	210.94	15.13	
2025-01-09 12:33:30.66	210.98	15.15	
2025-01-09 12:33:30.86	211.01	15.17	
2025-01-09 12:33:31.07	211.04	15.19	
2025-01-09 12:33:31.28	211.07	15.21	
2025-01-09 12:33:31.48	211.10	15.23	
2025-01-09 12:33:31.68	211.13	15.24	
2025-01-09 12:33:31.89	211.16	15.26	
2025-01-09 12:33:32.10	211.19	15.28	
2025-01-09 12:33:32.30	211.22	15.30	
2025-01-09 12:33:32.50	211.25	15.32	
2025-01-09 12:33:32.71	211.28	15.34	
2025-01-09 12:33:32.92	211.32	15.36	
2025-01-09 12:33:33.12	211.35	15.38	
2025-01-09 12:33:33.33	211.38	15.40	
2025-01-09 12:33:33.53	211.41	15.42	
2025-01-09 12:33:33.73	211.44	15.44	
2025-01-09 12:33:33.94	211.47	15.46	
2025-01-09 12:33:34.14	211.50	15.48	
2025-01-09 12:33:34.35	211.53	15.50	
2025-01-09 12:33:34.55	211.56	15.52	
2025-01-09 12:33:34.76	211.60	15.54	
2025-01-09 12:33:34.96	211.63	15.56	
2025-01-09 12:33:35.17	211.66	15.58	
2025-01-09 12:33:35.38	211.69	15.60	
2025-01-09 12:33:35.58	211.72	15.61	
2025-01-09 12:33:35.79	211.75	15.63	
2025-01-09 12:33:35.99	211.79	15.65	
2025-01-09 12:33:36.20	211.82	15.67	
2025-01-09 12:33:36.40	211.85	15.69	
2025-01-09 12:33:36.61	211.88	15.71	
2025-01-09 12:33:36.81	211.91	15.73	
2025-01-09 12:33:37.02	211.95	15.75	
2025-01-09 12:33:37.22	211.98	15.77	
2025-01-09 12:33:37.43	212.01	15.79	
2025-01-09 12:33:37.63	212.04	15.81	
2025-01-09 12:33:37.84	212.07	15.83	
2025-01-09 12:33:38.05	212.11	15.85	
2025-01-09 12:33:38.25	212.14	15.87	
2025-01-09 12:33:38.46	212.17	15.89	
2025-01-09 12:33:38.66	212.20	15.91	
2025-01-09 12:33:38.87	212.23	15.93	
2025-01-09 12:33:39.07	212.27	15.95	
2025-01-09 12:33:39.27	212.30	15.97	
2025-01-09 12:33:39.48	212.33	15.99	
2025-01-09 12:33:39.69	212.36	16.01	
2025-01-09 12:33:39.89	212.40	16.03	
2025-01-09 12:33:40.10	212.43	16.05	
2025-01-09 12:33:40.30	212.46	16.07	
2025-01-09 12:33:40.51	212.49	16.09	
2025-01-09 12:33:40.71	212.53	16.11	
2025-01-09 12:33:40.92	212.56	16.13	
2025-01-09 12:33:41.14	212.60	16.15	
2025-01-09 12:33:41.34	212.63	16.17	
2025-01-09 12:33:41.55	212.66	16.19	
2025-01-09 12:33:41.76	212.69	16.21	
2025-01-09 12:33:41.96	212.73	16.23	
2025-01-09 12:33:42.17	212.76	16.25	
2025-01-09 12:33:42.37	212.79	16.27	
2025-01-09 12:33:42.58	212.83	16.29	
2025-01-09 12:33:42.78	212.86	16.31	
2025-01-09 12:33:42.99	212.89	16.33	
2025-01-09 12:33:43.19	212.93	16.35	
2025-01-09 12:33:43.41	212.96	16.37	
2025-01-09 12:33:43.61	212.99	16.39	
2025-01-09 12:33:43.82	213.03	16.41	
2025-01-09 12:33:44.03	213.06	16.43	
2025-01-09 12:33:44.23	213.09	16.45	
2025-01-09 12:33:44.44	213.13	16.47	
2025-01-09 12:33:44.64	213.16	16.49	
2025-01-09 12:33:44.85	213.20	16.51	
2025-01-09 12:33:45.05	213.23	16.53	
2025-01-09 12:33:45.26	213.26	16.55	
2025-01-09 12:33:45.46	213.30	16.57	
2025-01-09 12:33:45.67	213.33	16.59	
2025-01-09 12:33:45.88	213.37	16.61	
2025-01-09 12:33:46.08	213.40	16.63	
2025-01-09 12:33:46.29	213.43	16.65	
2025-01-09 12:33:46.50	213.47	16.67	
2025-01-09 12:33:46.71	213.50	16.69	
2025-01-09 12:33:46.92	213.54	16.71	
2025-01-09 12:33:47.12	213.57	16.73	
2025-01-09 12:33:47.33	213.61	16.75	
2025-01-09 12:33:47.53	213.64	16.77	
2025-01-09 12:33:47.74	213.67	16.79	
2025-01-09 12:33:47.94	213.71	16.81	
2025-01-09 12:33:48.15	213.74	16.83	
2025-01-09 12:33:48.35	213.78	16.85	
2025-01-09 12:33:48.56	213.81	16.87	
2025-01-09 12:33:48.76	213.85	16.89	
2025-01-09 12:33:48.97	213.88	16.91	
2025-01-09 12:33:49.17	213.91	16.93	
2025-01-09 12:33:49.38	213.95	16.95	
2025-01-09 12:33:49.58	213.98	16.97	
2025-01-09 12:33:49.79	214.02	16.99	
2025-01-09 12:33:49.99	214.05	17.01	
2025-01-09 12:33:50.20	214.09	17.03	
2025-01-09 12:33:50.40	214.12	17.05	
2025-01-09 12:33:50.61	214.16	17.07	
2025-01-09 12:33:50.81	214.19	17.09	
2025-01-09 12:33:51.02	214.23	17.11	
2025-01-09 12:33:51.22	214.26	17.13	
2025-01-09 12:33:51.43	214.30	17.15	
2025-01-09 12:33:51.63	214.33	17.17	
2025-01-09 12:33:51.83	214.37	17.19	
2025-01-09 12:33:52.04	214.40	17.21	
2025-01-09 12:33:52.25	214.44	17.24	
2025-01-09 12:33:52.45	214.47	17.26	
2025-01-09 12:33:52.66	214.51	17.28	
2025-01-09 12:33:52.86	214.54	17.30	
2025-01-09 12:33:53.07	214.58	17.32	
2025-01-09 12:33:53.27	214.62	17.34	
2025-01-09 12:33:53.48	214.65	17.36	
2025-01-09 12:33:53.68	214.69	17.38	
2025-01-09 12:33:53.89	214.72	17.40	
2025-01-09 12:33:54.09	214.76	17.42	
2025-01-09 12:33:54.30	214.80	17.44	
2025-01-09 12:33:54.51	214.83	17.46	
2025-01-09 12:33:54.71	214.87	17.48	
2025-01-09 12:33:54.91	214.90	17.50	
2025-01-09 12:33:55.12	214.94	17.52	
2025-01-09 12:33:55.33	214.98	17.54	
2025-01-09 12:33:55.53	215.01	17.56	
2025-01-09 12:33:55.74	215.05	17.58	
2025-01-09 12:33:55.94	215.08	17.60	
2025-01-09 12:33:56.15	215.12	17.62	
2025-01-09 12:33:56.35	215.16	17.64	
2025-01-09 12:33:56.56	215.19	17.66	
2025-01-09 12:33:56.76	215.23	17.68	
2025-01-09 12:33:56.97	215.27	17.70	
2025-01-09 12:33:57.17	215.30	17.72	
2025-01-09 12:33:57.38	215.34	17.75	
2025-01-09 12:33:57.58	215.37	17.77	
2025-01-09 12:33:57.79	215.41	17.79	
2025-01-09 12:33:58.00	215.45	17.81	
2025-01-09 12:33:58.20	215.49	17.83	
2025-01-09 12:33:58.40	215.52	17.85	
2025-01-09 12:33:58.61	215.56	17.87	
2025-01-09 12:33:58.82	215.60	17.89	
2025-01-09 12:33:59.02	215.63	17.91	
2025-01-09 12:33:59.23	215.67	17.93	
2025-01-09 12:33:59.43	215.71	17.95	
2025-01-09 12:33:59.64	215.75	17.97	
2025-01-09 12:33:59.84	215.78	17.99	
2025-01-09 12:34:00.05	215.82	18.01	
2025-01-09 12:34:00.25	215.86	18.03	
2025-01-09 12:34:00.45	215.89	18.05	
2025-01-09 12:34:00.66	215.93	18.08	
2025-01-09 12:34:00.87	215.97	18.10	
2025-01-09 12:34:01.09	216.01	18.12	
2025-01-09 12:34:01.29	216.05	18.14	
2025-01-09 12:34:01.49	216.08	18.16	
2025-01-09 12:34:01.70	216.12	18.18	
2025-01-09 12:34:01.91	216.16	18.20	
2025-01-09 12:34:02.11	216.20	18.22	
2025-01-09 12:34:02.32	216.24	18.24	
2025-01-09 12:34:02.54	216.28	18.26	
2025-01-09 12:34:02.74	216.31	18.28	
2025-01-09 12:34:02.95	216.35	18.31	
2025-01-09 12:34:03.15	216.39	18.33	
2025-01-09 12:34:03.36	216.43	18.35	
2025-01-09 12:34:03.56	216.47	18.37	
2025-01-09 12:34:03.77	216.50	18.39	
2025-01-09 12:34:03.97	216.54	18.41	
2025-01-09 12:34:04.18	216.58	18.43	
2025-01-09 12:34:04.39	216.62	18.45	
2025-01-09 12:34:04.60	216.66	18.47	
2025-01-09 12:34:04.81	216.70	18.49	
2025-01-09 12:34:05.01	216.74	18.51	
2025-01-09 12:34:05.22	216.78	18.54	
2025-01-09 12:34:05.43	216.82	18.56	
2025-01-09 12:34:05.63	216.85	18.58	
2025-01-09 12:34:05.83	216.89	18.60	
2025-01-09 12:34:06.04	216.93	18.62	
2025-01-09 12:34:06.25	216.97	18.64	
2025-01-09 12:34:06.45	217.01	18.66	
2025-01-09 12:34:06.65	217.05	18.68	
2025-01-09 12:34:06.86	217.09	18.70	
2025-01-09 12:34:07.06	217.12	18.72	
2025-01-09 12:34:07.27	217.16	18.74	
2025-01-09 12:34:07.47	217.20	18.76	
2025-01-09 12:34:07.68	217.24	18.79	
2025-01-09 12:34:07.88	217.28	18.81	
2025-01-09 12:34:08.09	217.32	18.83	
2025-01-09 12:34:08.30	217.36	18.85	
2025-01-09 12:34:08.50	217.40	18.87	
2025-01-09 12:34:08.70	217.44	18.89	
2025-01-09 12:34:08.91	217.48	18.91	
2025-01-09 12:34:09.11	217.52	18.93	
2025-01-09 12:34:09.32	217.56	18.95	
2025-01-09 12:34:09.52	217.60	18.97	
2025-01-09 12:34:09.73	217.64	19.00	
2025-01-09 12:34:09.93	217.68	19.02	
2025-01-09 12:34:10.14	217.72	19.04	
2025-01-09 12:34:10.35	217.76	19.06	
2025-01-09 12:34:10.55	217.80	19.08	
2025-01-09 12:34:10.76	217.84	19.10	
2025-01-09 12:34:10.96	217.88	19.12	
2025-01-09 12:34:11.17	217.92	19.14	
2025-01-09 12:34:11.37	217.96	19.16	
2025-01-09 12:34:11.58	218.00	19.18	
2025-01-09 12:34:11.78	218.04	19.20	
2025-01-09 12:34:11.99	218.08	19.23	
2025-01-09 12:34:12.19	218.12	19.25	
2025-01-09 12:34:12.40	218.16	19.27	
2025-01-09 12:34:12.60	218.20	19.29	
2025-01-09 12:34:12.81	218.24	19.31	
2025-01-09 12:34:13.01	218.28	19.33	
2025-01-09 12:34:13.22	218.32	19.35	
2025-01-09 12:34:13.42	218.36	19.37	
2025-01-09 12:34:13.63	218.41	19.39	
2025-01-09 12:34:13.83	218.45	19.42	
2025-01-09 12:34:14.04	218.49	19.44	
2025-01-09 12:34:14.24	218.53	19.46	
2025-01-09 12:34:14.45	218.57	19.48	
2025-01-09 12:34:14.65	218.61	19.50	
2025-01-09 12:34:14.86	218.65	19.52	
2025-01-09 12:34:15.06	218.69	19.54	
2025-01-09 12:34:15.27	218.73	19.56	
2025-01-09 12:34:15.48	218.78	19.58	
2025-01-09 12:34:15.68	218.82	19.61	
2025-01-09 12:34:15.89	218.86	19.63	
2025-01-09 12:34:16.09	218.90	19.65	
2025-01-09 12:34:16.30	218.94	19.67	
2025-01-09 12:34:16.50	218.98	19.69	
2025-01-09 12:34:16.71	219.03	19.71	
2025-01-09 12:34:16.93	219.07	19.73	
2025-01-09 12:34:17.13	219.11	19.76	
2025-01-09 12:34:17.33	219.15	19.78	
2025-01-09 12:34:17.54	219.20	19.80	
2025-01-09 12:34:17.74	219.24	19.82	
2025-01-09 12:34:17.95	219.28	19.84	
2025-01-09 12:34:18.15	219.32	19.86	
2025-01-09 12:34:18.36	219.36	19.88	
2025-01-09 12:34:18.56	219.41	19.90	
2025-01-09 12:34:18.77	219.45	19.92	
2025-01-09 12:34:18.97	219.49	19.95	
2025-01-09 12:34:19.18	219.53	19.97	
2025-01-09 12:34:19.38	219.58	19.99	
2025-01-09 12:34:19.59	219.62	20.01	
2025-01-09 12:34:19.79	219.66	20.03	
2025-01-09 12:34:20.00	219.70	20.05	
2025-01-09 12:34:20.21	219.75	20.07	
2025-01-09 12:34:20.41	219.79	20.09	
2025-01-09 12:34:20.61	219.83	20.11	
2025-01-09 12:34:20.82	219.88	20.14	
2025-01-09 12:34:21.02	219.92	20.16	
2025-01-09 12:34:21.23	219.96	20.18	
2025-01-09 12:34:21.44	220.01	20.20	
2025-01-09 12:34:21.64	220.05	20.22	
2025-01-09 12:34:21.84	220.09	20.24	
2025-01-09 12:34:22.05	220.14	20.26	
2025-01-09 12:34:22.25	220.18	20.29	
2025-01-09 12:34:22.46	220.22	20.31	
2025-01-09 12:34:22.68	220.27	20.33	
2025-01-09 12:34:22.88	220.31	20.35	
2025-01-09 12:34:23.09	220.36	20.37	
2025-01-09 12:34:23.30	220.40	20.39	
2025-01-09 12:34:23.51	220.45	20.42	
2025-01-09 12:34:23.72	220.49	20.44	
2025-01-09 12:34:23.92	220.53	20.46	
2025-01-09 12:34:24.12	220.58	20.48	
2025-01-09 12:34:24.33	220.62	20.50	
2025-01-09 12:34:24.53	220.66	20.52	
2025-01-09 12:34:24.74	220.71	20.54	
2025-01-09 12:34:24.94	220.75	20.56	
2025-01-09 12:34:25.15	220.80	20.59	
2025-01-09 12:34:25.35	220.84	20.61	
2025-01-09 12:34:25.56	220.89	20.63	
2025-01-09 12:34:25.76	220.93	20.65	
2025-01-09 12:34:25.97	220.98	20.67	
2025-01-09 12:34:26.18	221.02	20.69	
2025-01-09 12:34:26.38	221.06	20.71	
2025-01-09 12:34:26.58	221.11	20.74	
2025-01-09 12:34:26.79	221.15	20.76	
2025-01-09 12:34:26.99	221.20	20.78	
2025-01-09 12:34:27.20	221.24	20.80	
2025-01-09 12:34:27.41	221.29	20.82	
2025-01-09 12:34:27.61	221.33	20.84	
2025-01-09 12:34:27.82	221.38	20.86	
2025-01-09 12:34:28.02	221.42	20.89	
2025-01-09 12:34:28.23	221.47	20.91	
2025-01-09 12:34:28.43	221.51	20.93	
2025-01-09 12:34:28.64	221.56	20.95	
2025-01-09 12:34:28.84	221.61	20.97	
2025-01-09 12:34:29.05	221.65	20.99	
2025-01-09 12:34:29.25	221.70	21.01	
2025-01-09 12:34:29.46	221.74	21.04	
2025-01-09 12:34:29.66	221.79	21.06	
2025-01-09 12:34:29.87	221.83	21.08	
2025-01-09 12:34:30.08	221.88	21.10	
2025-01-09 12:34:30.28	221.93	21.12	
2025-01-09 12:34:30.49	221.97	21.14	
2025-01-09 12:34:30.69	222.02	21.16	
2025-01-09 12:34:30.90	222.06	21.19	
2025-01-09 12:34:31.10	222.11	21.21	
2025-01-09 12:34:31.31	222.16	21.23	
2025-01-09 12:34:31.51	222.20	21.25	
2025-01-09 12:34:31.72	222.25	21.27	
2025-01-09 12:34:31.93	222.30	21.29	
2025-01-09 12:34:32.13	222.34	21.31	
2025-01-09 12:34:32.33	222.39	21.33	
2025-01-09 12:34:32.54	222.44	21.36	
2025-01-09 12:34:32.75	222.48	21.38	
2025-01-09 12:34:32.95	222.53	21.40	
2025-01-09 12:34:33.16	222.58	21.42	
2025-01-09 12:34:33.36	222.62	21.44	
2025-01-09 12:34:33.57	222.67	21.46	
2025-01-09 12:34:33.77	222.72	21.49	
2025-01-09 12:34:33.98	222.76	21.51	
2025-01-09 12:34:34.19	222.81	21.53	
2025-01-09 12:34:34.39	222.86	21.55	
2025-01-09 12:34:34.59	222.91	21.57	
2025-01-09 12:34:34.80	222.95	21.59	
2025-01-09 12:34:35.01	223.00	21.62	
2025-01-09 12:34:35.21	223.05	21.64	
2025-01-09 12:34:35.42	223.10	21.66	
2025-01-09 12:34:35.62	223.14	21.68	
2025-01-09 12:34:35.83	223.19	21.70	
2025-01-09 12:34:36.03	223.24	21.72	
2025-01-09 12:34:36.24	223.29	21.74	
2025-01-09 12:34:36.45	223.34	21.77	
2025-01-09 12:34:36.65	223.38	21.79	
2025-01-09 12:34:36.85	223.43	21.81	
2025-01-09 12:34:37.06	223.48	21.83	
2025-01-09 12:34:37.27	223.53	21.85	
2025-01-09 12:34:37.47	223.58	21.87	
2025-01-09 12:34:37.67	223.62	21.89	
2025-01-09 12:34:37.88	223.67	21.92	
2025-01-09 12:34:38.08	223.72	21.94	
2025-01-09 12:34:38.29	223.77	21.96	
2025-01-09 12:34:38.49	223.82	21.98	
2025-01-09 12:34:38.70	223.87	22.00	
2025-01-09 12:34:38.90	223.91	22.02	
2025-01-09 12:34:39.11	223.96	22.04	
2025-01-09 12:34:39.31	224.01	22.06	
2025-01-09 12:34:39.52	224.06	22.09	
2025-01-09 12:34:39.72	224.11	22.11	
2025-01-09 12:34:39.93	224.16	22.13	
2025-01-09 12:34:40.13	224.21	22.15	
2025-01-09 12:34:40.34	224.26	22.17	
2025-01-09 12:34:40.54	224.31	22.19	
2025-01-09 12:34:40.75	224.36	22.22	
2025-01-09 12:34:40.95	224.40	22.24	
2025-01-09 12:34:41.16	224.46	22.26	
2025-01-09 12:34:41.36	224.50	22.28	
2025-01-09 12:34:41.57	224.55	22.30	
2025-01-09 12:34:41.78	224.61	22.32	
2025-01-09 12:34:41.98	224.65	22.34	
2025-01-09 12:34:42.18	224.70	22.36	
2025-01-09 12:34:42.39	224.75	22.39	
2025-01-09 12:34:42.60	224.80	22.41	
2025-01-09 12:34:42.80	224.85	22.43	
2025-01-09 12:34:43.01	224.90	22.45	
2025-01-09 12:34:43.21	224.95	22.47	
2025-01-09 12:34:43.42	225.00	22.49	
2025-01-09 12:34:43.63	225.06	22.52	
2025-01-09 12:34:43.83	225.11	22.54	
2025-01-09 12:34:44.04	225.16	22.56	
2025-01-09 12:34:44.24	225.21	22.58	
2025-01-09 12:34:44.45	225.26	22.60	
2025-01-09 12:34:44.65	225.31	22.62	
2025-01-09 12:34:44.86	225.36	22.64	
2025-01-09 12:34:45.06	225.41	22.67	
2025-01-09 12:34:45.27	225.46	22.69	
2025-01-09 12:34:45.47	225.51	22.71	
2025-01-09 12:34:45.68	225.56	22.73	
2025-01-09 12:34:45.88	225.61	22.75	
2025-01-09 12:34:46.09	225.67	22.77	
2025-01-09 12:34:46.31	225.72	22.80	
2025-01-09 12:34:46.51	225.77	22.82	
2025-01-09 12:34:46.72	225.82	22.84	
2025-01-09 12:34:46.92	225.87	22.86	
2025-01-09 12:34:47.13	225.93	22.88	
2025-01-09 12:34:47.33	225.98	22.90	
2025-01-09 12:34:47.54	226.03	22.92	
2025-01-09 12:34:47.74	226.08	22.94	
2025-01-09 12:34:47.95	226.13	22.97	
2025-01-09 12:34:48.15	226.18	22.99	
2025-01-09 12:34:48.36	226.24	23.01	
2025-01-09 12:34:48.57	226.29	23.03	
2025-01-09 12:34:48.77	226.34	23.05	
2025-01-09 12:34:48.98	226.39	23.07	
2025-01-09 12:34:49.18	226.44	23.09	
2025-01-09 12:34:49.39	226.50	23.12	
2025-01-09 12:34:49.59	226.55	23.14	
2025-01-09 12:34:49.80	226.60	23.16	
2025-01-09 12:34:50.00	226.65	23.18	
2025-01-09 12:34:50.21	226.71	23.20	
2025-01-09 12:34:50.41	226.76	23.22	
2025-01-09 12:34:50.63	226.82	23.24	
2025-01-09 12:34:50.84	226.87	23.27	
2025-01-09 12:34:51.05	226.92	23.29	
2025-01-09 12:34:51.25	226.98	23.31	
2025-01-09 12:34:51.46	227.03	23.33	
2025-01-09 12:34:51.66	227.08	23.35	
2025-01-09 12:34:51.87	227.14	23.37	
2025-01-09 12:34:52.08	227.19	23.40	
2025-01-09 12:34:52.28	227.24	23.42	
2025-01-09 12:34:52.49	227.30	23.44	
2025-01-09 12:34:52.69	227.35	23.46	
2025-01-09 12:34:52.90	227.41	23.48	
2025-01-09 12:34:53.10	227.46	23.50	
2025-01-09 12:34:53.31	227.51	23.52	
2025-01-09 12:34:53.51	227.57	23.54	
2025-01-09 12:34:53.72	227.62	23.56	
2025-01-09 12:34:53.92	227.67	23.59	
2025-01-09 12:34:54.13	227.73	23.61	
2025-01-09 12:34:54.33	227.78	23.63	
2025-01-09 12:34:54.54	227.84	23.65	
2025-01-09 12:34:54.75	227.89	23.67	
2025-01-09 12:34:54.95	227.95	23.69	
2025-01-09 12:34:55.16	228.00	23.71	
2025-01-09 12:34:55.36	228.05	23.73	
2025-01-09 12:34:55.57	228.11	23.76	
2025-01-09 12:34:55.78	228.17	23.78	
2025-01-09 12:34:55.98	228.22	23.80	
2025-01-09 12:34:56.18	228.27	23.82	
2025-01-09 12:34:56.38	228.33	23.84	
2025-01-09 12:34:56.59	228.38	23.86	
2025-01-09 12:34:56.80	228.44	23.88	
2025-01-09 12:34:57.00	228.49	23.90	
2025-01-09 12:34:57.21	228.55	23.92	
2025-01-09 12:34:57.41	228.60	23.95	
2025-01-09 12:34:57.62	228.66	23.97	
2025-01-09 12:34:57.82	228.71	23.99	
2025-01-09 12:34:58.02	228.77	24.01	
2025-01-09 12:34:58.23	228.82	24.03	
2025-01-09 12:34:58.44	228.88	24.05	
2025-01-09 12:34:58.64	228.94	24.07	
2025-01-09 12:34:58.85	228.99	24.09	
2025-01-09 12:34:59.05	229.05	24.11	
2025-01-09 12:34:59.26	229.10	24.13	
2025-01-09 12:34:59.47	229.16	24.16	
2025-01-09 12:34:59.67	229.22	24.18	
2025-01-09 12:34:59.88	229.27	24.20	
2025-01-09 12:35:00.08	229.33	24.22	
2025-01-09 12:35:00.28	229.38	24.24	
2025-01-09 12:35:00.49	229.44	24.26	
2025-01-09 12:35:00.70	229.50	24.28	
2025-01-09 12:35:00.90	229.55	24.30	
2025-01-09 12:35:01.11	229.61	24.32	
2025-01-09 12:35:01.31	229.67	24.34	
2025-01-09 12:35:01.52	229.73	24.37	
2025-01-09 12:35:01.72	229.78	24.39	
2025-01-09 12:35:01.93	229.84	24.41	
2025-01-09 12:35:02.14	229.90	24.43	
2025-01-09 12:35:02.34	229.95	24.45	
2025-01-09 12:35:02.55	230.01	24.47	
2025-01-09 12:35:02.75	230.07	24.49	
2025-01-09 12:35:02.96	230.13	24.51	
2025-01-09 12:35:03.17	230.19	24.53	
2025-01-09 12:35:03.37	230.24	24.55	
2025-01-09 12:35:03.57	230.30	24.57	
2025-01-09 12:35:03.78	230.36	24.60	
2025-01-09 12:35:03.98	230.41	24.62	
2025-01-09 12:35:04.19	230.47	24.64	
2025-01-09 12:35:04.40	230.53	24.66	
2025-01-09 12:35:04.61	230.59	24.68	
2025-01-09 12:35:04.82	230.65	24.70	
2025-01-09 12:35:05.02	230.71	24.72	
2025-01-09 12:35:05.23	230.77	24.74	
2025-01-09 12:35:05.43	230.82	24.76	
2025-01-09 12:35:05.63	230.88	24.78	
2025-01-09 12:35:05.84	230.94	24.80	
2025-01-09 12:35:06.05	231.00	24.82	
2025-01-09 12:35:06.25	231.06	24.84	
2025-01-09 12:35:06.46	231.12	24.87	
2025-01-09 12:35:06.67	231.18	24.89	
2025-01-09 12:35:06.87	231.23	24.91	
2025-01-09 12:35:07.08	231.29	24.93	
2025-01-09 12:35:07.28	231.35	24.95	
2025-01-09 12:35:07.49	231.41	24.97	
2025-01-09 12:35:07.69	231.47	24.99	
2025-01-09 12:35:07.90	231.53	25.01	
2025-01-09 12:35:08.10	231.59	25.03	
2025-01-09 12:35:08.31	231.65	25.05	
2025-01-09 12:35:08.51	231.71	25.07	
2025-01-09 12:35:08.72	231.77	25.09	
2025-01-09 12:35:08.92	231.83	25.11	
2025-01-09 12:35:09.13	231.89	25.13	
2025-01-09 12:35:09.33	231.94	25.15	
2025-01-09 12:35:09.54	232.01	25.17	
2025-01-09 12:35:09.74	232.06	25.19	
2025-01-09 12:35:09.95	232.13	25.21	
2025-01-09 12:35:10.15	232.18	25.23	
2025-01-09 12:35:10.36	232.25	25.26	
2025-01-09 12:35:10.57	232.31	25.28	
2025-01-09 12:35:10.77	232.37	25.30	
2025-01-09 12:35:10.98	232.43	25.32	
2025-01-09 12:35:11.18	232.49	25.34	
2025-01-09 12:35:11.39	232.55	25.36	
2025-01-09 12:35:11.60	232.61	25.38	
2025-01-09 12:35:11.80	232.67	25.40	
2025-01-09 12:35:12.01	232.73	25.42	
2025-01-09 12:35:12.21	232.79	25.44	
2025-01-09 12:35:12.42	232.85	25.46	
2025-01-09 12:35:12.62	232.91	25.48	
2025-01-09 12:35:12.83	232.98	25.50	
2025-01-09 12:35:13.03	233.04	25.52	
2025-01-09 12:35:13.24	233.10	25.54	
2025-01-09 12:35:13.45	233.16	25.56	
2025-01-09 12:35:13.65	233.22	25.58	
2025-01-09 12:35:13.86	233.28	25.60	
2025-01-09 12:35:14.06	233.34	25.62	
2025-01-09 12:35:14.27	233.41	25.64	
2025-01-09 12:35:14.47	233.47	25.66	
2025-01-09 12:35:14.68	233.53	25.68	
2025-01-09 12:35:14.89	233.59	25.70	
2025-01-09 12:35:15.09	233.65	25.72	
2025-01-09 12:35:15.30	233.72	25.74	
2025-01-09 12:35:15.50	233.78	25.76	
2025-01-09 12:35:15.70	233.84	25.78	
2025-01-09 12:35:15.91	233.90	25.80	
2025-01-09 12:35:16.11	233.96	25.82	
2025-01-09 12:35:16.32	234.03	25.84	
2025-01-09 12:35:16.52	234.09	25.86	
2025-01-09 12:35:16.73	234.15	25.88	
2025-01-09 12:35:16.94	234.22	25.90	
2025-01-09 12:35:17.14	234.28	25.92	
2025-01-09 12:35:17.34	234.34	25.94	
2025-01-09 12:35:17.55	234.40	25.96	
2025-01-09 12:35:17.76	234.47	25.98	
2025-01-09 12:35:17.96	234.53	26.00	
2025-01-09 12:35:18.17	234.59	26.02	
2025-01-09 12:35:18.37	234.66	26.04	
2025-01-09 12:35:18.58	234.72	26.06	
2025-01-09 12:35:18.78	234.78	26.08	
2025-01-09 12:35:18.99	234.85	26.10	
2025-01-09 12:35:19.19	234.91	26.12	
2025-01-09 12:35:19.40	234.98	26.14	
2025-01-09 12:35:19.60	235.04	26.15	
2025-01-09 12:35:19.81	235.10	26.17	
2025-01-09 12:35:20.01	235.16	26.19	
2025-01-09 12:35:20.22	235.23	26.21	
2025-01-09 12:35:20.42	235.29	26.23	
2025-01-09 12:35:20.63	235.36	26.25	
2025-01-09 12:35:20.83	235.42	26.27	
2025-01-09 12:35:21.04	235.49	26.29	
2025-01-09 12:35:21.24	235.55	26.31	
2025-01-09 12:35:21.45	235.62	26.33	
2025-01-09 12:35:21.65	235.68	26.35	
2025-01-09 12:35:21.86	235.74	26.37	
2025-01-09 12:35:22.06	235.81	26.39	
2025-01-09 12:35:22.27	235.87	26.41	
2025-01-09 12:35:22.48	235.94	26.43	
2025-01-09 12:35:22.68	236.00	26.45	
2025-01-09 12:35:22.88	236.07	26.46	
2025-01-09 12:35:23.09	236.13	26.48	
2025-01-09 12:35:23.29	236.20	26.50	
2025-01-09 12:35:23.50	236.26	26.52	
2025-01-09 12:35:23.70	236.33	26.54	
2025-01-09 12:35:23.91	236.39	26.56	
2025-01-09 12:35:24.11	236.46	26.58	
2025-01-09 12:35:24.32	236.53	26.60	
2025-01-09 12:35:24.52	236.59	26.62	
2025-01-09 12:35:24.73	236.66	26.64	
2025-01-09 12:35:24.93	236.72	26.65	
2025-01-09 12:35:25.14	236.79	26.67	
2025-01-09 12:35:25.34	236.85	26.69	
2025-01-09 12:35:25.55	236.92	26.71	
2025-01-09 12:35:25.76	236.99	26.73	
2025-01-09 12:35:25.96	237.05	26.75	
2025-01-09 12:35:26.17	237.12	26.77	
2025-01-09 12:35:26.37	237.19	26.79	
2025-01-09 12:35:26.58	237.25	26.81	
2025-01-09 12:35:26.78	237.32	26.82	
2025-01-09 12:35:27.00	237.39	26.85	
2025-01-09 12:35:27.21	237.46	26.86	
2025-01-09 12:35:27.41	237.52	26.88	
2025-01-09 12:35:27.62	237.59	26.90	
2025-01-09 12:35:27.82	237.66	26.92	
2025-01-09 12:35:28.03	237.73	26.94	
2025-01-09 12:35:28.23	237.79	26.96	
2025-01-09 12:35:28.44	237.86	26.98	
2025-01-09 12:35:28.64	237.92	26.99	
2025-01-09 12:35:28.85	237.99	27.01	
2025-01-09 12:35:29.07	238.07	27.03	
2025-01-09 12:35:29.27	238.13	27.05	
2025-01-09 12:35:29.48	238.20	27.07	
2025-01-09 12:35:29.68	238.27	27.09	
2025-01-09 12:35:29.89	238.34	27.11	
2025-01-09 12:35:30.09	238.40	27.12	
2025-01-09 12:35:30.30	238.47	27.14	
2025-01-09 12:35:30.50	238.54	27.16	
2025-01-09 12:35:30.71	238.61	27.18	
2025-01-09 12:35:30.91	238.67	27.20	
2025-01-09 12:35:31.12	238.74	27.22	
2025-01-09 12:35:31.32	238.81	27.23	
2025-01-09 12:35:31.53	238.88	27.25	
2025-01-09 12:35:31.73	238.95	27.27	
2025-01-09 12:35:31.94	239.02	27.29	
2025-01-09 12:35:32.14	239.08	27.31	
2025-01-09 12:35:32.35	239.15	27.32	
2025-01-09 12:35:32.55	239.22	27.34	
2025-01-09 12:35:32.76	239.29	27.36	
2025-01-09 12:35:32.96	239.36	27.38	
2025-01-09 12:35:33.17	239.43	27.40	
2025-01-09 12:35:33.37	239.50	27.41	
2025-01-09 12:35:33.58	239.57	27.43	
2025-01-09 12:35:33.78	239.64	27.45	
2025-01-09 12:35:33.99	239.71	27.47	
2025-01-09 12:35:34.19	239.77	27.48	
2025-01-09 12:35:34.40	239.85	27.50	
2025-01-09 12:35:34.60	239.91	27.52	
2025-01-09 12:35:34.81	239.98	27.54	
2025-01-09 12:35:35.02	240.06	27.56	
2025-01-09 12:35:35.22	240.12	27.57	
2025-01-09 12:35:35.43	240.20	27.59	
2025-01-09 12:35:35.63	240.26	27.61	
2025-01-09 12:35:35.84	240.33	27.63	
2025-01-09 12:35:36.04	240.40	27.64	
2025-01-09 12:35:36.25	240.48	27.66	
2025-01-09 12:35:36.45	240.54	27.68	
2025-01-09 12:35:36.66	240.62	27.69	
2025-01-09 12:35:36.87	240.69	27.71	
2025-01-09 12:35:37.07	240.76	27.73	
2025-01-09 12:35:37.28	240.83	27.75	
2025-01-09 12:35:37.48	240.90	27.76	
2025-01-09 12:35:37.69	240.97	27.78	
2025-01-09 12:35:37.89	241.04	27.80	
2025-01-09 12:35:38.10	241.11	27.82	
2025-01-09 12:35:38.30	241.18	27.83	
2025-01-09 12:35:38.51	241.25	27.85	
2025-01-09 12:35:38.71	241.32	27.87	
2025-01-09 12:35:38.92	241.40	27.88	
2025-01-09 12:35:39.12	241.46	27.90	
2025-01-09 12:35:39.33	241.54	27.92	
2025-01-09 12:35:39.53	241.61	27.93	
2025-01-09 12:35:39.74	241.68	27.95	
2025-01-09 12:35:39.94	241.75	27.97	
2025-01-09 12:35:40.15	241.82	27.98	
2025-01-09 12:35:40.35	241.89	28.00	
2025-01-09 12:35:40.56	241.97	28.02	
2025-01-09 12:35:40.76	242.04	28.03	
2025-01-09 12:35:40.97	242.11	28.05	
2025-01-09 12:35:41.17	242.18	28.07	
2025-01-09 12:35:41.38	242.25	28.08	
2025-01-09 12:35:41.59	242.33	28.10	
2025-01-09 12:35:41.79	242.40	28.12	
2025-01-09 12:35:41.99	242.47	28.13	
2025-01-09 12:35:42.20	242.54	28.15	
2025-01-09 12:35:42.41	242.62	28.17	
2025-01-09 12:35:42.61	242.69	28.18	
2025-01-09 12:35:42.81	242.76	28.20	
2025-01-09 12:35:43.02	242.83	28.21	
2025-01-09 12:35:43.23	242.91	28.23	
2025-01-09 12:35:43.43	242.98	28.25	
2025-01-09 12:35:43.64	243.05	28.26	
2025-01-09 12:35:43.84	243.12	28.28	
2025-01-09 12:35:44.05	243.20	28.30	
2025-01-09 12:35:44.25	243.27	28.31	
2025-01-09 12:35:44.46	243.35	28.33	
2025-01-09 12:35:44.66	243.42	28.34	
2025-01-09 12:35:44.87	243.49	28.36	
2025-01-09 12:35:45.09	243.57	28.38	
2025-01-09 12:35:45.29	243.64	28.39	
2025-01-09 12:35:45.50	243.72	28.41	
2025-01-09 12:35:45.70	243.79	28.42	
2025-01-09 12:35:45.91	243.86	28.44	
2025-01-09 12:35:46.11	243.94	28.45	
2025-01-09 12:35:46.32	244.01	28.47	
2025-01-09 12:35:46.52	244.08	28.49	
2025-01-09 12:35:46.73	244.16	28.50	
2025-01-09 12:35:46.94	244.24	28.52	
2025-01-09 12:35:47.14	244.31	28.53	
2025-01-09 12:35:47.35	244.38	28.55	
2025-01-09 12:35:47.55	244.46	28.56	
2025-01-09 12:35:47.76	244.53	28.58	
2025-01-09 12:35:47.97	244.61	28.60	
2025-01-09 12:35:48.17	244.68	28.61	
2025-01-09 12:35:48.38	244.76	28.63	
2025-01-09 12:35:48.58	244.83	28.64	
2025-01-09 12:35:48.79	244.91	28.66	
2025-01-09 12:35:49.00	244.98	28.67	
2025-01-09 12:35:49.21	245.06	28.69	
2025-01-09 12:35:49.41	245.13	28.70	
2025-01-09 12:35:49.62	245.21	28.72	
2025-01-09 12:35:49.82	245.28	28.73	
2025-01-09 12:35:50.03	245.36	28.75	
2025-01-09 12:35:50.24	245.44	28.76	
2025-01-09 12:35:50.45	245.51	28.78	
2025-01-09 12:35:50.66	245.59	28.79	
2025-01-09 12:35:50.87	245.67	28.81	
2025-01-09 12:35:51.07	245.74	28.82	
2025-01-09 12:35:51.28	245.82	28.84	
2025-01-09 12:35:51.48	245.89	28.85	
2025-01-09 12:35:51.69	245.97	28.87	
2025-01-09 12:35:51.89	246.05	28.88	
2025-01-09 12:35:52.10	246.12	28.89	
2025-01-09 12:35:52.30	246.20	28.91	
2025-01-09 12:35:52.52	246.28	28.92	
2025-01-09 12:35:52.73	246.36	28.94	
2025-01-09 12:35:52.93	246.43	28.95	
2025-01-09 12:35:53.14	246.51	28.97	
2025-01-09 12:35:53.34	246.58	28.98	
2025-01-09 12:35:53.55	246.66	28.99	
2025-01-09 12:35:53.75	246.74	29.01	
2025-01-09 12:35:53.96	246.81	29.02	
2025-01-09 12:35:54.17	246.89	29.04	
2025-01-09 12:35:54.37	246.97	29.05	
2025-01-09 12:35:54.57	247.04	29.06	
2025-01-09 12:35:54.78	247.12	29.08	
2025-01-09 12:35:54.98	247.20	29.09	
2025-01-09 12:35:55.19	247.27	29.11	
2025-01-09 12:35:55.40	247.35	29.12	
2025-01-09 12:35:55.60	247.43	29.13	
2025-01-09 12:35:55.81	247.51	29.15	
2025-01-09 12:35:56.01	247.58	29.16	
2025-01-09 12:35:56.22	247.66	29.17	
2025-01-09 12:35:56.42	247.74	29.19	
2025-01-09 12:35:56.63	247.82	29.20	
2025-01-09 12:35:56.83	247.89	29.21	
2025-01-09 12:35:57.04	247.97	29.23	
2025-01-09 12:35:57.24	248.05	29.24	
2025-01-09 12:35:57.45	248.13	29.25	
2025-01-09 12:35:57.65	248.20	29.27	
2025-01-09 12:35:57.86	248.28	29.28	
2025-01-09 12:35:58.06	248.36	29.29	
2025-01-09 12:35:58.27	248.44	29.31	
2025-01-09 12:35:58.47	248.51	29.32	
2025-01-09 12:35:58.68	248.59	29.33	
2025-01-09 12:35:58.88	248.67	29.34	
2025-01-09 12:35:59.09	248.75	29.36	
2025-01-09 12:35:59.29	248.82	29.37	
2025-01-09 12:35:59.50	248.90	29.38	
2025-01-09 12:35:59.70	248.98	29.40	
2025-01-09 12:35:59.91	249.06	29.41	
2025-01-09 12:36:00.11	249.14	29.42	
2025-01-09 12:36:00.32	249.22	29.43	
2025-01-09 12:36:00.52	249.29	29.45	
2025-01-09 12:36:00.73	249.37	29.46	
2025-01-09 12:36:00.94	249.46	29.47	
2025-01-09 12:36:01.14	249.53	29.48	
2025-01-09 12:36:01.35	249.61	29.50	
2025-01-09 12:36:01.55	249.69	29.51	
2025-01-09 12:36:01.75	249.77	29.52	
2025-01-09 12:36:01.96	249.85	29.53	
2025-01-09 12:36:02.17	249.93	29.54	
2025-01-09 12:36:02.37	250.01	29.56	
2025-01-09 12:36:02.58	250.09	29.57	
2025-01-09 12:36:02.78	250.16	29.58	
2025-01-09 12:36:02.99	250.24	29.59	
2025-01-09 12:36:03.21	250.33	29.60	
2025-01-09 12:36:03.41	250.41	29.62	
2025-01-09 12:36:03.62	250.49	29.63	
2025-01-09 12:36:03.82	250.57	29.64	
2025-01-09 12:36:04.03	250.65	29.65	
2025-01-09 12:36:04.23	250.73	29.66	
2025-01-09 12:36:04.44	250.81	29.67	
2025-01-09 12:36:04.64	250.88	29.69	
2025-01-09 12:36:04.85	250.97	29.70	
2025-01-09 12:36:05.05	251.04	29.71	
2025-01-09 12:36:05.25	251.12	29.72	
2025-01-09 12:36:05.46	251.20	29.73	
2025-01-09 12:36:05.67	251.29	29.74	
2025-01-09 12:36:05.87	251.36	29.75	
2025-01-09 12:36:06.08	251.45	29.76	
2025-01-09 12:36:06.28	251.52	29.78	
2025-01-09 12:36:06.49	251.61	29.79	
2025-01-09 12:36:06.69	251.68	29.80	
2025-01-09 12:36:06.90	251.77	29.81	
2025-01-09 12:36:07.11	251.85	29.82	
2025-01-09 12:36:07.31	251.93	29.83	
2025-01-09 12:36:07.52	252.01	29.84	
2025-01-09 12:36:07.72	252.09	29.85	
2025-01-09 12:36:07.93	252.17	29.86	
2025-01-09 12:36:08.13	252.25	29.87	
2025-01-09 12:36:08.34	252.33	29.88	
2025-01-09 12:36:08.54	252.41	29.89	
2025-01-09 12:36:08.74	252.49	29.90	
2025-01-09 12:36:08.95	252.57	29.91	
2025-01-09 12:36:09.15	252.65	29.92	
2025-01-09 12:36:09.36	252.73	29.93	
2025-01-09 12:36:09.56	252.81	29.94	
2025-01-09 12:36:09.77	252.90	29.95	
2025-01-09 12:36:09.97	252.98	29.96	
2025-01-09 12:36:10.18	253.06	29.97	
2025-01-09 12:36:10.39	253.14	29.98	
2025-01-09 12:36:10.59	253.22	29.99	
2025-01-09 12:36:10.80	253.30	30.00	
2025-01-09 12:36:11.01	253.39	30.01	
2025-01-09 12:36:11.21	253.47	30.02	
2025-01-09 12:36:11.42	253.55	30.03	
2025-01-09 12:36:11.62	253.63	30.04	
2025-01-09 12:36:11.83	253.71	30.05	
2025-01-09 12:36:12.03	253.79	30.06	
2025-01-09 12:36:12.24	253.88	30.07	
2025-01-09 12:36:12.44	253.96	30.08	
2025-01-09 12:36:12.65	254.04	30.09	
2025-01-09 12:36:12.85	254.12	30.10	
2025-01-09 12:36:13.06	254.20	30.11	
2025-01-09 12:36:13.26	254.28	30.12	
2025-01-09 12:36:13.47	254.37	30.13	
2025-01-09 12:36:13.67	254.45	30.13	
2025-01-09 12:36:13.88	254.53	30.14	
2025-01-09 12:36:14.08	254.61	30.15	
2025-01-09 12:36:14.28	254.69	30.16	
2025-01-09 12:36:14.49	254.78	30.17	
2025-01-09 12:36:14.69	254.86	30.18	
2025-01-09 12:36:14.90	254.94	30.19	
2025-01-09 12:36:15.10	255.02	30.19	
2025-01-09 12:36:15.31	255.10	30.20	
2025-01-09 12:36:15.51	255.19	30.21	
2025-01-09 12:36:15.72	255.27	30.22	
2025-01-09 12:36:15.92	255.35	30.23	
2025-01-09 12:36:16.13	255.43	30.24	
2025-01-09 12:36:16.34	255.52	30.25	
2025-01-09 12:36:16.54	255.60	30.25	
2025-01-09 12:36:16.75	255.68	30.26	
2025-01-09 12:36:16.95	255.76	30.27	
2025-01-09 12:36:17.16	255.85	30.28	
2025-01-09 12:36:17.36	255.93	30.28	
2025-01-09 12:36:17.57	256.02	30.29	
2025-01-09 12:36:17.78	256.10	30.30	
2025-01-09 12:36:17.98	256.18	30.31	
2025-01-09 12:36:18.19	256.27	30.32	
2025-01-09 12:36:18.39	256.35	30.32	
2025-01-09 12:36:18.60	256.43	30.33	
2025-01-09 12:36:18.81	256.52	30.34	
2025-01-09 12:36:19.01	256.60	30.35	
2025-01-09 12:36:19.22	256.68	30.35	
2025-01-09 12:36:19.42	256.76	30.36	
2025-01-09 12:36:19.63	256.85	30.37	
2025-01-09 12:36:19.83	256.93	30.38	
2025-01-09 12:36:20.04	257.02	30.38	
2025-01-09 12:36:20.24	257.10	30.39	
2025-01-09 12:36:20.45	257.18	30.40	
2025-01-09 12:36:20.65	257.26	30.40	
2025-01-09 12:36:20.86	257.35	30.41	
2025-01-09 12:36:21.07	257.43	30.42	
2025-01-09 12:36:21.27	257.52	30.42	
2025-01-09 12:36:21.48	257.60	30.43	
2025-01-09 12:36:21.68	257.68	30.44	
2025-01-09 12:36:21.89	257.77	30.44	
2025-01-09 12:36:22.10	257.85	30.45	
2025-01-09 12:36:22.30	257.94	30.46	
2025-01-09 12:36:22.51	258.02	30.46	
2025-01-09 12:36:22.71	258.10	30.47	
2025-01-09 12:36:22.92	258.19	30.48	
2025-01-09 12:36:23.12	258.27	30.48	
2025-01-09 12:36:23.33	258.36	30.49	
2025-01-09 12:36:23.53	258.44	30.49	
2025-01-09 12:36:23.74	258.52	30.50	
2025-01-09 12:36:23.94	258.61	30.50	
2025-01-09 12:36:24.15	258.69	30.51	
2025-01-09 12:36:24.36	258.78	30.52	
2025-01-09 12:36:24.56	258.86	30.52	
2025-01-09 12:36:24.76	258.94	30.53	
2025-01-09 12:36:24.97	259.03	30.53	
2025-01-09 12:36:25.17	259.11	30.54	
2025-01-09 12:36:25.38	259.20	30.54	
2025-01-09 12:36:25.58	259.28	30.55	
2025-01-09 12:36:25.79	259.36	30.56	
2025-01-09 12:36:26.00	259.45	30.56	
2025-01-09 12:36:26.20	259.53	30.57	
2025-01-09 12:36:26.41	259.62	30.57	
2025-01-09 12:36:26.61	259.70	30.58	
2025-01-09 12:36:26.82	259.79	30.58	
2025-01-09 12:36:27.02	259.87	30.59	
2025-01-09 12:36:27.23	259.96	30.59	
2025-01-09 12:36:27.43	260.04	30.60	
2025-01-09 12:36:27.64	260.12	30.60	
2025-01-09 12:36:27.84	260.21	30.60	
2025-01-09 12:36:28.05	260.29	30.61	
2025-01-09 12:36:28.25	260.38	30.61	
2025-01-09 12:36:28.46	260.46	30.62	
2025-01-09 12:36:28.67	260.55	30.62	
2025-01-09 12:36:28.88	260.64	30.63	
2025-01-09 12:36:29.09	260.72	30.63	
2025-01-09 12:36:29.30	260.81	30.64	
2025-01-09 12:36:29.50	260.89	30.64	
2025-01-09 12:36:29.71	260.98	30.64	
2025-01-09 12:36:29.91	261.06	30.65	
2025-01-09 12:36:30.12	261.15	30.65	
2025-01-09 12:36:30.32	261.23	30.66	
2025-01-09 12:36:30.53	261.32	30.66	
2025-01-09 12:36:30.73	261.40	30.66	
2025-01-09 12:36:30.94	261.49	30.67	
2025-01-09 12:36:31.15	261.57	30.67	
2025-01-09 12:36:31.36	261.66	30.67	
2025-01-09 12:36:31.56	261.74	30.68	
2025-01-09 12:36:31.77	261.83	30.68	
2025-01-09 12:36:31.98	261.92	30.68	
2025-01-09 12:36:32.18	262.00	30.69	
2025-01-09 12:36:32.38	262.08	30.69	
2025-01-09 12:36:32.59	262.17	30.69	
2025-01-09 12:36:32.79	262.25	30.70	
2025-01-09 12:36:33.00	262.34	30.70	
2025-01-09 12:36:33.20	262.42	30.70	
2025-01-09 12:36:33.41	262.51	30.71	
2025-01-09 12:36:33.61	262.59	30.71	
2025-01-09 12:36:33.82	262.68	30.71	
2025-01-09 12:36:34.02	262.76	30.71	
2025-01-09 12:36:34.23	262.85	30.72	
2025-01-09 12:36:34.43	262.93	30.72	
2025-01-09 12:36:34.64	263.02	30.72	
2025-01-09 12:36:34.84	263.10	30.72	
2025-01-09 12:36:35.05	263.19	30.73	
2025-01-09 12:36:35.25	263.27	30.73	
2025-01-09 12:36:35.46	263.36	30.73	
2025-01-09 12:36:35.66	263.44	30.73	
2025-01-09 12:36:35.87	263.53	30.74	
2025-01-09 12:36:36.07	263.61	30.74	
2025-01-09 12:36:36.28	263.70	30.74	
2025-01-09 12:36:36.48	263.78	30.74	
2025-01-09 12:36:36.69	263.87	30.74	
2025-01-09 12:36:36.89	263.95	30.74	
2025-01-09 12:36:37.10	264.04	30.75	
2025-01-09 12:36:37.30	264.12	30.75	
2025-01-09 12:36:37.51	264.21	30.75	
2025-01-09 12:36:37.71	264.29	30.75	
2025-01-09 12:36:37.92	264.38	30.75	
2025-01-09 12:36:38.13	264.47	30.75	
2025-01-09 12:36:38.33	264.55	30.76	
2025-01-09 12:36:38.54	264.64	30.76	
2025-01-09 12:36:38.74	264.72	30.76	
2025-01-09 12:36:38.95	264.81	30.76	
2025-01-09 12:36:39.15	264.89	30.76	
2025-01-09 12:36:39.36	264.98	30.76	
2025-01-09 12:36:39.56	265.06	30.76	
2025-01-09 12:36:39.77	265.15	30.76	
2025-01-09 12:36:39.97	265.23	30.76	
2025-01-09 12:36:40.18	265.32	30.76	
2025-01-09 12:36:40.38	265.40	30.76	
2025-01-09 12:36:40.59	265.49	30.76	
2025-01-09 12:36:40.79	265.57	30.77	
2025-01-09 12:36:41.00	265.66	30.77	
2025-01-09 12:36:41.20	265.74	30.77	
2025-01-09 12:36:41.41	265.83	30.77	
2025-01-09 12:36:41.61	265.91	30.77	
2025-01-09 12:36:41.82	266.00	30.77	
2025-01-09 12:36:42.02	266.08	30.77	
2025-01-09 12:36:42.23	266.17	30.77	
2025-01-09 12:36:42.43	266.25	30.77	
2025-01-09 12:36:42.64	266.34	30.77	
2025-01-09 12:36:42.84	266.42	30.77	
2025-01-09 12:36:43.05	266.51	30.77	
2025-01-09 12:36:43.25	266.60	30.77	
2025-01-09 12:36:43.46	266.68	30.77	
2025-01-09 12:36:43.66	266.77	30.76	
2025-01-09 12:36:43.87	266.85	30.76	
2025-01-09 12:36:44.07	266.94	30.76	
2025-01-09 12:36:44.28	267.02	30.76	
