passes_logs/2025/01/09/SPB_Silybum_02/SPB_Silybum_02__20250109_120002_SUOMI_NPP_rec.log

#Pass ID: 20250109_120002_SUOMI NPP
#Satellite: SUOMI NPP
#Configuration: NPP
#Start time: 2025-01-09 12:00:03

#Version: 2.0.20230423
#Station: SPB_Silybum_02
#Location: 30.233357 lon 59.946436 lat
#TLE: 1 37849U 11061A   25008.85814474  .00000207  00000+0  11909-3 0  9997
#TLE: 2 37849  98.7439 309.9248 0001886  50.2762 309.8580 14.19535270684045

#Time	Az	El	Level	Level2	SNR	BER	Gain	Gain2
2025-01-09 12:00:05.36	212.09	4.15	
2025-01-09 12:00:05.56	212.11	4.16	
2025-01-09 12:00:05.77	212.13	4.17	
2025-01-09 12:00:05.97	212.14	4.18	
2025-01-09 12:00:06.18	212.16	4.19	
2025-01-09 12:00:06.38	212.18	4.20	
2025-01-09 12:00:06.59	212.20	4.22	
2025-01-09 12:00:06.79	212.21	4.23	
2025-01-09 12:00:07.00	212.23	4.24	
2025-01-09 12:00:07.20	212.25	4.25	
2025-01-09 12:00:07.41	212.26	4.26	
2025-01-09 12:00:07.61	212.28	4.28	
2025-01-09 12:00:07.82	212.30	4.29	
2025-01-09 12:00:08.02	212.32	4.30	
2025-01-09 12:00:08.23	212.33	4.31	
2025-01-09 12:00:08.43	212.35	4.32	
2025-01-09 12:00:08.64	212.37	4.34	
2025-01-09 12:00:08.84	212.38	4.35	
2025-01-09 12:00:09.05	212.40	4.36	
2025-01-09 12:00:09.25	212.42	4.37	
2025-01-09 12:00:09.46	212.44	4.38	
2025-01-09 12:00:09.66	212.45	4.39	
2025-01-09 12:00:09.87	212.47	4.41	
2025-01-09 12:00:10.07	212.49	4.42	
2025-01-09 12:00:10.28	212.50	4.43	
2025-01-09 12:00:10.48	212.52	4.44	
2025-01-09 12:00:10.70	212.54	4.46	
2025-01-09 12:00:10.91	212.56	4.47	
2025-01-09 12:00:11.11	212.57	4.48	
2025-01-09 12:00:11.32	212.59	4.49	
2025-01-09 12:00:11.52	212.61	4.50	
2025-01-09 12:00:11.73	212.63	4.51	
2025-01-09 12:00:11.93	212.64	4.53	
2025-01-09 12:00:12.14	212.66	4.54	
2025-01-09 12:00:12.34	212.68	4.55	
2025-01-09 12:00:12.55	212.70	4.56	
2025-01-09 12:00:12.75	212.71	4.57	
2025-01-09 12:00:12.96	212.73	4.59	
2025-01-09 12:00:13.16	212.75	4.60	
2025-01-09 12:00:13.37	212.77	4.61	
2025-01-09 12:00:13.57	212.78	4.62	
2025-01-09 12:00:13.78	212.80	4.63	
2025-01-09 12:00:13.98	212.82	4.65	
2025-01-09 12:00:14.19	212.84	4.66	
2025-01-09 12:00:14.40	212.85	4.67	
2025-01-09 12:00:14.60	212.87	4.68	
2025-01-09 12:00:14.81	212.89	4.69	
2025-01-09 12:00:15.01	212.91	4.71	
2025-01-09 12:00:15.22	212.92	4.72	
2025-01-09 12:00:15.42	212.94	4.73	
2025-01-09 12:00:15.63	212.96	4.74	
2025-01-09 12:00:15.83	212.98	4.75	
2025-01-09 12:00:16.03	212.99	4.77	
2025-01-09 12:00:16.24	213.01	4.78	
2025-01-09 12:00:16.45	213.03	4.79	
2025-01-09 12:00:16.65	213.05	4.80	
2025-01-09 12:00:16.86	213.07	4.81	
2025-01-09 12:00:17.06	213.08	4.83	
2025-01-09 12:00:17.27	213.10	4.84	
2025-01-09 12:00:17.47	213.12	4.85	
2025-01-09 12:00:17.68	213.14	4.86	
2025-01-09 12:00:17.88	213.15	4.87	
2025-01-09 12:00:18.09	213.17	4.89	
2025-01-09 12:00:18.29	213.19	4.90	
2025-01-09 12:00:18.50	213.21	4.91	
2025-01-09 12:00:18.70	213.23	4.92	
2025-01-09 12:00:18.91	213.24	4.93	
2025-01-09 12:00:19.12	213.26	4.95	
2025-01-09 12:00:19.32	213.28	4.96	
2025-01-09 12:00:19.52	213.30	4.97	
2025-01-09 12:00:19.73	213.32	4.98	
2025-01-09 12:00:19.94	213.33	4.99	
2025-01-09 12:00:20.14	213.35	5.01	
2025-01-09 12:00:20.34	213.37	5.02	
2025-01-09 12:00:20.55	213.39	5.03	
2025-01-09 12:00:20.76	213.41	5.04	
2025-01-09 12:00:20.96	213.42	5.05	
2025-01-09 12:00:21.17	213.44	5.07	
2025-01-09 12:00:21.38	213.46	5.08	
2025-01-09 12:00:21.59	213.48	5.09	
2025-01-09 12:00:21.79	213.50	5.10	
2025-01-09 12:00:22.00	213.51	5.12	
2025-01-09 12:00:22.21	213.53	5.13	
2025-01-09 12:00:22.41	213.55	5.14	
2025-01-09 12:00:22.62	213.57	5.15	
2025-01-09 12:00:22.82	213.59	5.16	
2025-01-09 12:00:23.03	213.61	5.18	
2025-01-09 12:00:23.23	213.62	5.19	
2025-01-09 12:00:23.44	213.64	5.20	
2025-01-09 12:00:23.65	213.66	5.21	
2025-01-09 12:00:23.85	213.68	5.23	
2025-01-09 12:00:24.06	213.70	5.24	
2025-01-09 12:00:24.26	213.71	5.25	
2025-01-09 12:00:24.47	213.73	5.26	
2025-01-09 12:00:24.67	213.75	5.27	
2025-01-09 12:00:24.88	213.77	5.29	
2025-01-09 12:00:25.08	213.79	5.30	
2025-01-09 12:00:25.29	213.81	5.31	
2025-01-09 12:00:25.50	213.82	5.32	
2025-01-09 12:00:25.70	213.84	5.33	
2025-01-09 12:00:25.91	213.86	5.35	
2025-01-09 12:00:26.11	213.88	5.36	
2025-01-09 12:00:26.32	213.90	5.37	
2025-01-09 12:00:26.52	213.92	5.38	
2025-01-09 12:00:26.73	213.93	5.40	
2025-01-09 12:00:26.93	213.95	5.41	
2025-01-09 12:00:27.14	213.97	5.42	
2025-01-09 12:00:27.34	213.99	5.43	
2025-01-09 12:00:27.55	214.01	5.44	
2025-01-09 12:00:27.75	214.03	5.46	
2025-01-09 12:00:27.96	214.05	5.47	
2025-01-09 12:00:28.16	214.06	5.48	
2025-01-09 12:00:28.37	214.08	5.49	
2025-01-09 12:00:28.58	214.10	5.51	
2025-01-09 12:00:28.78	214.12	5.52	
2025-01-09 12:00:28.99	214.14	5.53	
2025-01-09 12:00:29.19	214.16	5.54	
2025-01-09 12:00:29.40	214.18	5.55	
2025-01-09 12:00:29.60	214.19	5.57	
2025-01-09 12:00:29.81	214.21	5.58	
2025-01-09 12:00:30.03	214.23	5.59	
2025-01-09 12:00:30.23	214.25	5.60	
2025-01-09 12:00:30.44	214.27	5.62	
2025-01-09 12:00:30.64	214.29	5.63	
2025-01-09 12:00:30.85	214.31	5.64	
2025-01-09 12:00:31.05	214.33	5.65	
2025-01-09 12:00:31.26	214.34	5.67	
2025-01-09 12:00:31.46	214.36	5.68	
2025-01-09 12:00:31.67	214.38	5.69	
2025-01-09 12:00:31.87	214.40	5.70	
2025-01-09 12:00:32.08	214.42	5.71	
2025-01-09 12:00:32.28	214.44	5.73	
2025-01-09 12:00:32.49	214.46	5.74	
2025-01-09 12:00:32.70	214.48	5.75	
2025-01-09 12:00:32.90	214.49	5.76	
2025-01-09 12:00:33.10	214.51	5.77	
2025-01-09 12:00:33.31	214.53	5.79	
2025-01-09 12:00:33.51	214.55	5.80	
2025-01-09 12:00:33.72	214.57	5.81	
2025-01-09 12:00:33.93	214.59	5.82	
2025-01-09 12:00:34.13	214.61	5.84	
2025-01-09 12:00:34.34	214.63	5.85	
2025-01-09 12:00:34.54	214.65	5.86	
2025-01-09 12:00:34.75	214.67	5.87	
2025-01-09 12:00:34.95	214.68	5.89	
2025-01-09 12:00:35.16	214.70	5.90	
2025-01-09 12:00:35.36	214.72	5.91	
2025-01-09 12:00:35.57	214.74	5.92	
2025-01-09 12:00:35.77	214.76	5.93	
2025-01-09 12:00:35.98	214.78	5.95	
2025-01-09 12:00:36.18	214.80	5.96	
2025-01-09 12:00:36.39	214.82	5.97	
2025-01-09 12:00:36.59	214.84	5.98	
2025-01-09 12:00:36.80	214.86	6.00	
2025-01-09 12:00:37.00	214.87	6.01	
2025-01-09 12:00:37.21	214.89	6.02	
2025-01-09 12:00:37.41	214.91	6.03	
2025-01-09 12:00:37.62	214.93	6.05	
2025-01-09 12:00:37.82	214.95	6.06	
2025-01-09 12:00:38.03	214.97	6.07	
2025-01-09 12:00:38.23	214.99	6.08	
2025-01-09 12:00:38.43	215.01	6.09	
2025-01-09 12:00:38.64	215.03	6.11	
2025-01-09 12:00:38.84	215.05	6.12	
2025-01-09 12:00:39.05	215.07	6.13	
2025-01-09 12:00:39.26	215.09	6.14	
2025-01-09 12:00:39.46	215.11	6.16	
2025-01-09 12:00:39.66	215.12	6.17	
2025-01-09 12:00:39.87	215.14	6.18	
2025-01-09 12:00:40.08	215.16	6.19	
2025-01-09 12:00:40.28	215.18	6.21	
2025-01-09 12:00:40.49	215.20	6.22	
2025-01-09 12:00:40.69	215.22	6.23	
2025-01-09 12:00:40.90	215.24	6.24	
2025-01-09 12:00:41.10	215.26	6.26	
2025-01-09 12:00:41.31	215.28	6.27	
2025-01-09 12:00:41.52	215.30	6.28	
2025-01-09 12:00:41.72	215.32	6.29	
2025-01-09 12:00:41.93	215.34	6.31	
2025-01-09 12:00:42.13	215.36	6.32	
2025-01-09 12:00:42.34	215.38	6.33	
2025-01-09 12:00:42.54	215.40	6.34	
2025-01-09 12:00:42.75	215.42	6.36	
2025-01-09 12:00:42.95	215.44	6.37	
2025-01-09 12:00:43.16	215.46	6.38	
2025-01-09 12:00:43.36	215.48	6.39	
2025-01-09 12:00:43.57	215.50	6.41	
2025-01-09 12:00:43.77	215.52	6.42	
2025-01-09 12:00:43.98	215.54	6.43	
2025-01-09 12:00:44.18	215.56	6.44	
2025-01-09 12:00:44.39	215.58	6.45	
2025-01-09 12:00:44.59	215.59	6.47	
2025-01-09 12:00:44.80	215.61	6.48	
2025-01-09 12:00:45.00	215.63	6.49	
2025-01-09 12:00:45.20	215.65	6.50	
2025-01-09 12:00:45.41	215.67	6.52	
2025-01-09 12:00:45.62	215.69	6.53	
2025-01-09 12:00:45.82	215.71	6.54	
2025-01-09 12:00:46.03	215.73	6.55	
2025-01-09 12:00:46.23	215.75	6.57	
2025-01-09 12:00:46.44	215.77	6.58	
2025-01-09 12:00:46.65	215.79	6.59	
2025-01-09 12:00:46.85	215.81	6.60	
2025-01-09 12:00:47.07	215.83	6.62	
2025-01-09 12:00:47.27	215.85	6.63	
2025-01-09 12:00:47.48	215.87	6.64	
2025-01-09 12:00:47.68	215.89	6.65	
2025-01-09 12:00:47.89	215.91	6.67	
2025-01-09 12:00:48.09	215.93	6.68	
2025-01-09 12:00:48.30	215.95	6.69	
2025-01-09 12:00:48.50	215.97	6.70	
2025-01-09 12:00:48.71	215.99	6.72	
2025-01-09 12:00:48.91	216.01	6.73	
2025-01-09 12:00:49.12	216.03	6.74	
2025-01-09 12:00:49.32	216.05	6.75	
2025-01-09 12:00:49.53	216.07	6.77	
2025-01-09 12:00:49.73	216.09	6.78	
2025-01-09 12:00:49.94	216.11	6.79	
2025-01-09 12:00:50.14	216.13	6.80	
2025-01-09 12:00:50.35	216.16	6.82	
2025-01-09 12:00:50.56	216.18	6.83	
2025-01-09 12:00:50.76	216.20	6.84	
2025-01-09 12:00:50.97	216.22	6.86	
2025-01-09 12:00:51.17	216.24	6.87	
2025-01-09 12:00:51.37	216.26	6.88	
2025-01-09 12:00:51.58	216.28	6.89	
2025-01-09 12:00:51.79	216.30	6.91	
2025-01-09 12:00:51.99	216.32	6.92	
2025-01-09 12:00:52.20	216.34	6.93	
2025-01-09 12:00:52.40	216.36	6.94	
2025-01-09 12:00:52.61	216.38	6.96	
2025-01-09 12:00:52.81	216.40	6.97	
2025-01-09 12:00:53.02	216.42	6.98	
2025-01-09 12:00:53.22	216.44	6.99	
2025-01-09 12:00:53.43	216.46	7.01	
2025-01-09 12:00:53.63	216.48	7.02	
2025-01-09 12:00:53.84	216.50	7.03	
2025-01-09 12:00:54.04	216.52	7.04	
2025-01-09 12:00:54.25	216.54	7.06	
2025-01-09 12:00:54.45	216.56	7.07	
2025-01-09 12:00:54.66	216.58	7.08	
2025-01-09 12:00:54.86	216.60	7.09	
2025-01-09 12:00:55.07	216.62	7.11	
2025-01-09 12:00:55.27	216.64	7.12	
2025-01-09 12:00:55.47	216.66	7.13	
2025-01-09 12:00:55.68	216.69	7.14	
2025-01-09 12:00:55.89	216.71	7.16	
2025-01-09 12:00:56.09	216.73	7.17	
2025-01-09 12:00:56.29	216.75	7.18	
2025-01-09 12:00:56.50	216.77	7.19	
2025-01-09 12:00:56.70	216.79	7.21	
2025-01-09 12:00:56.91	216.81	7.22	
2025-01-09 12:00:57.11	216.83	7.23	
2025-01-09 12:00:57.32	216.85	7.25	
2025-01-09 12:00:57.52	216.87	7.26	
2025-01-09 12:00:57.72	216.89	7.27	
2025-01-09 12:00:57.93	216.91	7.28	
2025-01-09 12:00:58.14	216.93	7.30	
2025-01-09 12:00:58.34	216.96	7.31	
2025-01-09 12:00:58.55	216.98	7.32	
2025-01-09 12:00:58.75	217.00	7.33	
2025-01-09 12:00:58.96	217.02	7.35	
2025-01-09 12:00:59.16	217.04	7.36	
2025-01-09 12:00:59.37	217.06	7.37	
2025-01-09 12:00:59.57	217.08	7.38	
2025-01-09 12:00:59.78	217.10	7.40	
2025-01-09 12:00:59.98	217.12	7.41	
2025-01-09 12:01:00.19	217.14	7.42	
2025-01-09 12:01:00.39	217.16	7.43	
2025-01-09 12:01:00.60	217.19	7.45	
2025-01-09 12:01:00.80	217.21	7.46	
2025-01-09 12:01:01.01	217.23	7.47	
2025-01-09 12:01:01.21	217.25	7.49	
2025-01-09 12:01:01.42	217.27	7.50	
2025-01-09 12:01:01.62	217.29	7.51	
2025-01-09 12:01:01.83	217.31	7.52	
2025-01-09 12:01:02.03	217.33	7.54	
2025-01-09 12:01:02.24	217.36	7.55	
2025-01-09 12:01:02.44	217.38	7.56	
2025-01-09 12:01:02.65	217.40	7.57	
2025-01-09 12:01:02.86	217.42	7.59	
2025-01-09 12:01:03.06	217.44	7.60	
2025-01-09 12:01:03.26	217.46	7.61	
2025-01-09 12:01:03.47	217.48	7.63	
2025-01-09 12:01:03.68	217.50	7.64	
2025-01-09 12:01:03.88	217.53	7.65	
2025-01-09 12:01:04.09	217.55	7.66	
2025-01-09 12:01:04.29	217.57	7.68	
2025-01-09 12:01:04.50	217.59	7.69	
2025-01-09 12:01:04.70	217.61	7.70	
2025-01-09 12:01:04.91	217.63	7.71	
2025-01-09 12:01:05.11	217.65	7.73	
2025-01-09 12:01:05.32	217.68	7.74	
2025-01-09 12:01:05.52	217.70	7.75	
2025-01-09 12:01:05.73	217.72	7.77	
2025-01-09 12:01:05.94	217.74	7.78	
2025-01-09 12:01:06.14	217.76	7.79	
2025-01-09 12:01:06.34	217.78	7.80	
2025-01-09 12:01:06.55	217.80	7.82	
2025-01-09 12:01:06.75	217.83	7.83	
2025-01-09 12:01:06.96	217.85	7.84	
2025-01-09 12:01:07.17	217.87	7.86	
2025-01-09 12:01:07.38	217.89	7.87	
2025-01-09 12:01:07.58	217.91	7.88	
2025-01-09 12:01:07.79	217.94	7.89	
2025-01-09 12:01:08.00	217.96	7.91	
2025-01-09 12:01:08.20	217.98	7.92	
2025-01-09 12:01:08.41	218.00	7.93	
2025-01-09 12:01:08.61	218.02	7.95	
2025-01-09 12:01:08.82	218.04	7.96	
2025-01-09 12:01:09.02	218.07	7.97	
2025-01-09 12:01:09.23	218.09	7.98	
2025-01-09 12:01:09.43	218.11	8.00	
2025-01-09 12:01:09.64	218.13	8.01	
2025-01-09 12:01:09.84	218.15	8.02	
2025-01-09 12:01:10.05	218.18	8.04	
2025-01-09 12:01:10.25	218.20	8.05	
2025-01-09 12:01:10.46	218.22	8.06	
2025-01-09 12:01:10.67	218.24	8.07	
2025-01-09 12:01:10.87	218.26	8.09	
2025-01-09 12:01:11.08	218.29	8.10	
2025-01-09 12:01:11.28	218.31	8.11	
2025-01-09 12:01:11.49	218.33	8.13	
2025-01-09 12:01:11.69	218.35	8.14	
2025-01-09 12:01:11.90	218.37	8.15	
2025-01-09 12:01:12.10	218.40	8.16	
2025-01-09 12:01:12.31	218.42	8.18	
2025-01-09 12:01:12.51	218.44	8.19	
2025-01-09 12:01:12.72	218.46	8.20	
2025-01-09 12:01:12.92	218.48	8.22	
2025-01-09 12:01:13.12	218.51	8.23	
2025-01-09 12:01:13.33	218.53	8.24	
2025-01-09 12:01:13.54	218.55	8.25	
2025-01-09 12:01:13.74	218.57	8.27	
2025-01-09 12:01:13.95	218.60	8.28	
2025-01-09 12:01:14.15	218.62	8.29	
2025-01-09 12:01:14.36	218.64	8.31	
2025-01-09 12:01:14.56	218.66	8.32	
2025-01-09 12:01:14.77	218.68	8.33	
2025-01-09 12:01:14.97	218.71	8.34	
2025-01-09 12:01:15.18	218.73	8.36	
2025-01-09 12:01:15.38	218.75	8.37	
2025-01-09 12:01:15.59	218.77	8.38	
2025-01-09 12:01:15.80	218.80	8.40	
2025-01-09 12:01:16.01	218.82	8.41	
2025-01-09 12:01:16.21	218.84	8.42	
2025-01-09 12:01:16.42	218.86	8.44	
2025-01-09 12:01:16.62	218.89	8.45	
2025-01-09 12:01:16.83	218.91	8.46	
2025-01-09 12:01:17.03	218.93	8.47	
2025-01-09 12:01:17.24	218.95	8.49	
2025-01-09 12:01:17.44	218.98	8.50	
2025-01-09 12:01:17.65	219.00	8.51	
2025-01-09 12:01:17.85	219.02	8.53	
2025-01-09 12:01:18.06	219.05	8.54	
2025-01-09 12:01:18.26	219.07	8.55	
2025-01-09 12:01:18.47	219.09	8.56	
2025-01-09 12:01:18.67	219.11	8.58	
2025-01-09 12:01:18.88	219.14	8.59	
2025-01-09 12:01:19.08	219.16	8.60	
2025-01-09 12:01:19.29	219.18	8.62	
2025-01-09 12:01:19.49	219.20	8.63	
2025-01-09 12:01:19.70	219.23	8.64	
2025-01-09 12:01:19.90	219.25	8.65	
2025-01-09 12:01:20.11	219.27	8.67	
2025-01-09 12:01:20.31	219.29	8.68	
2025-01-09 12:01:20.52	219.32	8.69	
2025-01-09 12:01:20.72	219.34	8.71	
2025-01-09 12:01:20.93	219.36	8.72	
2025-01-09 12:01:21.13	219.39	8.73	
2025-01-09 12:01:21.34	219.41	8.75	
2025-01-09 12:01:21.55	219.43	8.76	
2025-01-09 12:01:21.75	219.46	8.77	
2025-01-09 12:01:21.96	219.48	8.79	
2025-01-09 12:01:22.16	219.50	8.80	
2025-01-09 12:01:22.37	219.53	8.81	
2025-01-09 12:01:22.57	219.55	8.82	
2025-01-09 12:01:22.78	219.57	8.84	
2025-01-09 12:01:22.98	219.59	8.85	
2025-01-09 12:01:23.19	219.62	8.86	
2025-01-09 12:01:23.40	219.64	8.88	
2025-01-09 12:01:23.61	219.66	8.89	
2025-01-09 12:01:23.81	219.69	8.90	
2025-01-09 12:01:24.02	219.71	8.92	
2025-01-09 12:01:24.23	219.74	8.93	
2025-01-09 12:01:24.43	219.76	8.94	
2025-01-09 12:01:24.64	219.78	8.96	
2025-01-09 12:01:24.84	219.80	8.97	
2025-01-09 12:01:25.05	219.83	8.98	
2025-01-09 12:01:25.25	219.85	8.99	
2025-01-09 12:01:25.45	219.87	9.01	
2025-01-09 12:01:25.66	219.90	9.02	
2025-01-09 12:01:25.87	219.92	9.03	
2025-01-09 12:01:26.07	219.94	9.05	
2025-01-09 12:01:26.28	219.97	9.06	
2025-01-09 12:01:26.48	219.99	9.07	
2025-01-09 12:01:26.69	220.02	9.09	
2025-01-09 12:01:26.89	220.04	9.10	
2025-01-09 12:01:27.10	220.06	9.11	
2025-01-09 12:01:27.31	220.09	9.13	
2025-01-09 12:01:27.51	220.11	9.14	
2025-01-09 12:01:27.71	220.13	9.15	
2025-01-09 12:01:27.92	220.16	9.16	
2025-01-09 12:01:28.12	220.18	9.18	
2025-01-09 12:01:28.33	220.20	9.19	
2025-01-09 12:01:28.53	220.23	9.20	
2025-01-09 12:01:28.74	220.25	9.22	
2025-01-09 12:01:28.94	220.27	9.23	
2025-01-09 12:01:29.15	220.30	9.24	
2025-01-09 12:01:29.35	220.32	9.26	
2025-01-09 12:01:29.56	220.35	9.27	
2025-01-09 12:01:29.76	220.37	9.28	
2025-01-09 12:01:29.97	220.39	9.29	
2025-01-09 12:01:30.18	220.42	9.31	
2025-01-09 12:01:30.38	220.44	9.32	
2025-01-09 12:01:30.59	220.47	9.33	
2025-01-09 12:01:30.79	220.49	9.35	
2025-01-09 12:01:31.00	220.51	9.36	
2025-01-09 12:01:31.21	220.54	9.37	
2025-01-09 12:01:31.41	220.56	9.39	
2025-01-09 12:01:31.62	220.59	9.40	
2025-01-09 12:01:31.82	220.61	9.41	
2025-01-09 12:01:32.03	220.63	9.43	
2025-01-09 12:01:32.23	220.66	9.44	
2025-01-09 12:01:32.44	220.68	9.45	
2025-01-09 12:01:32.64	220.70	9.47	
2025-01-09 12:01:32.85	220.73	9.48	
2025-01-09 12:01:33.05	220.75	9.49	
2025-01-09 12:01:33.26	220.78	9.51	
2025-01-09 12:01:33.46	220.80	9.52	
2025-01-09 12:01:33.67	220.83	9.53	
2025-01-09 12:01:33.88	220.85	9.54	
2025-01-09 12:01:34.08	220.87	9.56	
2025-01-09 12:01:34.28	220.90	9.57	
2025-01-09 12:01:34.49	220.92	9.58	
2025-01-09 12:01:34.70	220.95	9.60	
2025-01-09 12:01:34.90	220.97	9.61	
2025-01-09 12:01:35.12	221.00	9.62	
2025-01-09 12:01:35.33	221.02	9.64	
2025-01-09 12:01:35.53	221.05	9.65	
2025-01-09 12:01:35.74	221.07	9.66	
2025-01-09 12:01:35.94	221.09	9.68	
2025-01-09 12:01:36.16	221.12	9.69	
2025-01-09 12:01:36.37	221.15	9.70	
2025-01-09 12:01:36.57	221.17	9.72	
2025-01-09 12:01:36.78	221.19	9.73	
2025-01-09 12:01:36.98	221.22	9.74	
2025-01-09 12:01:37.19	221.24	9.76	
2025-01-09 12:01:37.39	221.27	9.77	
2025-01-09 12:01:37.60	221.29	9.78	
2025-01-09 12:01:37.81	221.32	9.80	
2025-01-09 12:01:38.01	221.34	9.81	
2025-01-09 12:01:38.21	221.37	9.82	
2025-01-09 12:01:38.42	221.39	9.84	
2025-01-09 12:01:38.62	221.42	9.85	
2025-01-09 12:01:38.83	221.44	9.86	
2025-01-09 12:01:39.04	221.47	9.88	
2025-01-09 12:01:39.24	221.49	9.89	
2025-01-09 12:01:39.45	221.52	9.90	
2025-01-09 12:01:39.65	221.54	9.92	
2025-01-09 12:01:39.86	221.56	9.93	
2025-01-09 12:01:40.06	221.59	9.94	
2025-01-09 12:01:40.26	221.61	9.96	
2025-01-09 12:01:40.47	221.64	9.97	
2025-01-09 12:01:40.67	221.66	9.98	
2025-01-09 12:01:40.88	221.69	10.00	
2025-01-09 12:01:41.08	221.71	10.01	
2025-01-09 12:01:41.29	221.74	10.02	
2025-01-09 12:01:41.49	221.76	10.03	
2025-01-09 12:01:41.70	221.79	10.05	
2025-01-09 12:01:41.91	221.81	10.06	
2025-01-09 12:01:42.11	221.84	10.07	
2025-01-09 12:01:42.32	221.86	10.09	
2025-01-09 12:01:42.52	221.89	10.10	
2025-01-09 12:01:42.73	221.91	10.11	
2025-01-09 12:01:42.93	221.94	10.13	
2025-01-09 12:01:43.14	221.96	10.14	
2025-01-09 12:01:43.34	221.99	10.15	
2025-01-09 12:01:43.55	222.01	10.17	
2025-01-09 12:01:43.75	222.04	10.18	
2025-01-09 12:01:43.96	222.07	10.19	
2025-01-09 12:01:44.16	222.09	10.21	
2025-01-09 12:01:44.37	222.12	10.22	
2025-01-09 12:01:44.57	222.14	10.23	
2025-01-09 12:01:44.78	222.17	10.25	
2025-01-09 12:01:44.98	222.19	10.26	
2025-01-09 12:01:45.19	222.22	10.27	
2025-01-09 12:01:45.39	222.24	10.29	
2025-01-09 12:01:45.60	222.27	10.30	
2025-01-09 12:01:45.80	222.29	10.31	
2025-01-09 12:01:46.01	222.32	10.33	
2025-01-09 12:01:46.21	222.34	10.34	
2025-01-09 12:01:46.42	222.37	10.35	
2025-01-09 12:01:46.62	222.39	10.37	
2025-01-09 12:01:46.83	222.42	10.38	
2025-01-09 12:01:47.03	222.45	10.39	
2025-01-09 12:01:47.24	222.47	10.41	
2025-01-09 12:01:47.44	222.50	10.42	
2025-01-09 12:01:47.65	222.52	10.43	
2025-01-09 12:01:47.85	222.55	10.45	
2025-01-09 12:01:48.06	222.57	10.46	
2025-01-09 12:01:48.26	222.60	10.47	
2025-01-09 12:01:48.47	222.63	10.49	
2025-01-09 12:01:48.68	222.65	10.50	
2025-01-09 12:01:48.88	222.68	10.51	
2025-01-09 12:01:49.09	222.70	10.53	
2025-01-09 12:01:49.29	222.73	10.54	
2025-01-09 12:01:49.50	222.76	10.55	
2025-01-09 12:01:49.70	222.78	10.57	
2025-01-09 12:01:49.91	222.81	10.58	
2025-01-09 12:01:50.11	222.83	10.59	
2025-01-09 12:01:50.32	222.86	10.61	
2025-01-09 12:01:50.53	222.89	10.62	
2025-01-09 12:01:50.73	222.91	10.63	
2025-01-09 12:01:50.94	222.94	10.65	
2025-01-09 12:01:51.14	222.96	10.66	
2025-01-09 12:01:51.35	222.99	10.67	
2025-01-09 12:01:51.55	223.01	10.69	
2025-01-09 12:01:51.76	223.04	10.70	
2025-01-09 12:01:51.96	223.07	10.71	
2025-01-09 12:01:52.17	223.09	10.73	
2025-01-09 12:01:52.37	223.12	10.74	
2025-01-09 12:01:52.58	223.15	10.75	
2025-01-09 12:01:52.78	223.17	10.77	
2025-01-09 12:01:52.99	223.20	10.78	
2025-01-09 12:01:53.19	223.22	10.79	
2025-01-09 12:01:53.40	223.25	10.81	
2025-01-09 12:01:53.60	223.28	10.82	
2025-01-09 12:01:53.81	223.30	10.83	
2025-01-09 12:01:54.01	223.33	10.85	
2025-01-09 12:01:54.22	223.36	10.86	
2025-01-09 12:01:54.42	223.38	10.87	
2025-01-09 12:01:54.63	223.41	10.89	
2025-01-09 12:01:54.84	223.44	10.90	
2025-01-09 12:01:55.04	223.46	10.91	
2025-01-09 12:01:55.25	223.49	10.93	
2025-01-09 12:01:55.45	223.52	10.94	
2025-01-09 12:01:55.66	223.54	10.95	
2025-01-09 12:01:55.86	223.57	10.97	
2025-01-09 12:01:56.07	223.60	10.98	
2025-01-09 12:01:56.28	223.62	11.00	
2025-01-09 12:01:56.48	223.65	11.01	
2025-01-09 12:01:56.68	223.67	11.02	
2025-01-09 12:01:56.89	223.70	11.04	
2025-01-09 12:01:57.10	223.73	11.05	
2025-01-09 12:01:57.30	223.76	11.06	
2025-01-09 12:01:57.51	223.78	11.08	
2025-01-09 12:01:57.71	223.81	11.09	
2025-01-09 12:01:57.92	223.84	11.10	
2025-01-09 12:01:58.12	223.86	11.12	
2025-01-09 12:01:58.33	223.89	11.13	
2025-01-09 12:01:58.55	223.92	11.14	
2025-01-09 12:01:58.75	223.94	11.16	
2025-01-09 12:01:58.96	223.97	11.17	
2025-01-09 12:01:59.16	224.00	11.18	
2025-01-09 12:01:59.37	224.03	11.20	
2025-01-09 12:01:59.57	224.05	11.21	
2025-01-09 12:01:59.78	224.08	11.22	
2025-01-09 12:01:59.99	224.11	11.24	
2025-01-09 12:02:00.19	224.13	11.25	
2025-01-09 12:02:00.40	224.16	11.26	
2025-01-09 12:02:00.61	224.19	11.28	
2025-01-09 12:02:00.82	224.22	11.29	
2025-01-09 12:02:01.03	224.25	11.31	
2025-01-09 12:02:01.23	224.27	11.32	
2025-01-09 12:02:01.44	224.30	11.33	
2025-01-09 12:02:01.64	224.33	11.35	
2025-01-09 12:02:01.85	224.35	11.36	
2025-01-09 12:02:02.05	224.38	11.37	
2025-01-09 12:02:02.26	224.41	11.39	
2025-01-09 12:02:02.47	224.44	11.40	
2025-01-09 12:02:02.67	224.46	11.41	
2025-01-09 12:02:02.88	224.49	11.43	
2025-01-09 12:02:03.08	224.52	11.44	
2025-01-09 12:02:03.29	224.55	11.45	
2025-01-09 12:02:03.49	224.57	11.47	
2025-01-09 12:02:03.70	224.60	11.48	
2025-01-09 12:02:03.90	224.63	11.49	
2025-01-09 12:02:04.11	224.66	11.51	
2025-01-09 12:02:04.31	224.68	11.52	
2025-01-09 12:02:04.52	224.71	11.54	
2025-01-09 12:02:04.72	224.74	11.55	
2025-01-09 12:02:04.93	224.77	11.56	
2025-01-09 12:02:05.13	224.79	11.58	
2025-01-09 12:02:05.34	224.82	11.59	
2025-01-09 12:02:05.55	224.85	11.60	
2025-01-09 12:02:05.75	224.88	11.62	
2025-01-09 12:02:05.96	224.91	11.63	
2025-01-09 12:02:06.17	224.93	11.64	
2025-01-09 12:02:06.37	224.96	11.66	
2025-01-09 12:02:06.58	224.99	11.67	
2025-01-09 12:02:06.79	225.02	11.68	
2025-01-09 12:02:06.99	225.05	11.70	
2025-01-09 12:02:07.19	225.07	11.71	
2025-01-09 12:02:07.40	225.10	11.72	
2025-01-09 12:02:07.62	225.13	11.74	
2025-01-09 12:02:07.82	225.16	11.75	
2025-01-09 12:02:08.03	225.19	11.77	
2025-01-09 12:02:08.23	225.21	11.78	
2025-01-09 12:02:08.44	225.24	11.79	
2025-01-09 12:02:08.64	225.27	11.81	
2025-01-09 12:02:08.85	225.30	11.82	
2025-01-09 12:02:09.05	225.33	11.83	
2025-01-09 12:02:09.26	225.36	11.85	
2025-01-09 12:02:09.46	225.38	11.86	
2025-01-09 12:02:09.67	225.41	11.87	
2025-01-09 12:02:09.88	225.44	11.89	
2025-01-09 12:02:10.08	225.47	11.90	
2025-01-09 12:02:10.29	225.50	11.91	
2025-01-09 12:02:10.49	225.52	11.93	
2025-01-09 12:02:10.70	225.55	11.94	
2025-01-09 12:02:10.90	225.58	11.95	
2025-01-09 12:02:11.11	225.61	11.97	
2025-01-09 12:02:11.31	225.64	11.98	
2025-01-09 12:02:11.52	225.67	12.00	
2025-01-09 12:02:11.73	225.70	12.01	
2025-01-09 12:02:11.93	225.72	12.02	
2025-01-09 12:02:12.14	225.75	12.04	
2025-01-09 12:02:12.34	225.78	12.05	
2025-01-09 12:02:12.55	225.81	12.06	
2025-01-09 12:02:12.75	225.84	12.08	
2025-01-09 12:02:12.96	225.87	12.09	
2025-01-09 12:02:13.16	225.90	12.10	
2025-01-09 12:02:13.37	225.92	12.12	
2025-01-09 12:02:13.57	225.95	12.13	
2025-01-09 12:02:13.78	225.98	12.14	
2025-01-09 12:02:13.99	226.01	12.16	
2025-01-09 12:02:14.19	226.04	12.17	
2025-01-09 12:02:14.40	226.07	12.19	
2025-01-09 12:02:14.61	226.10	12.20	
2025-01-09 12:02:14.82	226.13	12.21	
2025-01-09 12:02:15.03	226.16	12.23	
2025-01-09 12:02:15.23	226.19	12.24	
2025-01-09 12:02:15.44	226.22	12.25	
2025-01-09 12:02:15.64	226.24	12.27	
2025-01-09 12:02:15.85	226.27	12.28	
2025-01-09 12:02:16.05	226.30	12.29	
2025-01-09 12:02:16.26	226.33	12.31	
2025-01-09 12:02:16.46	226.36	12.32	
2025-01-09 12:02:16.67	226.39	12.34	
2025-01-09 12:02:16.87	226.42	12.35	
2025-01-09 12:02:17.08	226.45	12.36	
2025-01-09 12:02:17.28	226.48	12.38	
2025-01-09 12:02:17.49	226.51	12.39	
2025-01-09 12:02:17.69	226.53	12.40	
2025-01-09 12:02:17.90	226.56	12.42	
2025-01-09 12:02:18.10	226.59	12.43	
2025-01-09 12:02:18.31	226.62	12.44	
2025-01-09 12:02:18.51	226.65	12.46	
2025-01-09 12:02:18.72	226.68	12.47	
2025-01-09 12:02:18.92	226.71	12.48	
2025-01-09 12:02:19.13	226.74	12.50	
2025-01-09 12:02:19.34	226.77	12.51	
2025-01-09 12:02:19.54	226.80	12.52	
2025-01-09 12:02:19.75	226.83	12.54	
2025-01-09 12:02:19.95	226.86	12.55	
2025-01-09 12:02:20.15	226.89	12.57	
2025-01-09 12:02:20.36	226.92	12.58	
2025-01-09 12:02:20.56	226.95	12.59	
2025-01-09 12:02:20.77	226.98	12.61	
2025-01-09 12:02:20.98	227.01	12.62	
2025-01-09 12:02:21.18	227.03	12.63	
2025-01-09 12:02:21.39	227.07	12.65	
2025-01-09 12:02:21.59	227.09	12.66	
2025-01-09 12:02:21.80	227.12	12.67	
2025-01-09 12:02:22.02	227.16	12.69	
2025-01-09 12:02:22.22	227.19	12.70	
2025-01-09 12:02:22.43	227.22	12.72	
2025-01-09 12:02:22.63	227.25	12.73	
2025-01-09 12:02:22.84	227.28	12.74	
2025-01-09 12:02:23.04	227.30	12.76	
2025-01-09 12:02:23.25	227.34	12.77	
2025-01-09 12:02:23.45	227.36	12.78	
2025-01-09 12:02:23.66	227.40	12.80	
2025-01-09 12:02:23.87	227.43	12.81	
2025-01-09 12:02:24.07	227.46	12.82	
2025-01-09 12:02:24.28	227.49	12.84	
2025-01-09 12:02:24.48	227.52	12.85	
2025-01-09 12:02:24.69	227.55	12.87	
2025-01-09 12:02:24.89	227.58	12.88	
2025-01-09 12:02:25.10	227.61	12.89	
2025-01-09 12:02:25.30	227.64	12.91	
2025-01-09 12:02:25.51	227.67	12.92	
2025-01-09 12:02:25.71	227.70	12.93	
2025-01-09 12:02:25.92	227.73	12.95	
2025-01-09 12:02:26.12	227.76	12.96	
2025-01-09 12:02:26.33	227.79	12.97	
2025-01-09 12:02:26.53	227.82	12.99	
2025-01-09 12:02:26.74	227.85	13.00	
2025-01-09 12:02:26.94	227.88	13.01	
2025-01-09 12:02:27.15	227.91	13.03	
2025-01-09 12:02:27.36	227.94	13.04	
2025-01-09 12:02:27.57	227.97	13.06	
2025-01-09 12:02:27.77	228.00	13.07	
2025-01-09 12:02:27.98	228.03	13.08	
2025-01-09 12:02:28.19	228.06	13.10	
2025-01-09 12:02:28.39	228.09	13.11	
2025-01-09 12:02:28.60	228.12	13.12	
2025-01-09 12:02:28.80	228.15	13.14	
2025-01-09 12:02:29.01	228.19	13.15	
2025-01-09 12:02:29.21	228.22	13.16	
2025-01-09 12:02:29.42	228.25	13.18	
2025-01-09 12:02:29.64	228.28	13.19	
2025-01-09 12:02:29.84	228.31	13.21	
2025-01-09 12:02:30.05	228.34	13.22	
2025-01-09 12:02:30.25	228.37	13.23	
2025-01-09 12:02:30.46	228.40	13.25	
2025-01-09 12:02:30.66	228.43	13.26	
2025-01-09 12:02:30.87	228.47	13.27	
2025-01-09 12:02:31.07	228.50	13.29	
2025-01-09 12:02:31.28	228.53	13.30	
2025-01-09 12:02:31.48	228.56	13.31	
2025-01-09 12:02:31.69	228.59	13.33	
2025-01-09 12:02:31.89	228.62	13.34	
2025-01-09 12:02:32.10	228.65	13.36	
2025-01-09 12:02:32.30	228.68	13.37	
2025-01-09 12:02:32.51	228.71	13.38	
2025-01-09 12:02:32.71	228.74	13.40	
2025-01-09 12:02:32.92	228.78	13.41	
2025-01-09 12:02:33.12	228.81	13.42	
2025-01-09 12:02:33.33	228.84	13.44	
2025-01-09 12:02:33.53	228.87	13.45	
2025-01-09 12:02:33.74	228.90	13.46	
2025-01-09 12:02:33.95	228.93	13.48	
2025-01-09 12:02:34.15	228.96	13.49	
2025-01-09 12:02:34.36	229.00	13.51	
2025-01-09 12:02:34.56	229.03	13.52	
2025-01-09 12:02:34.77	229.06	13.53	
2025-01-09 12:02:34.97	229.09	13.55	
2025-01-09 12:02:35.18	229.12	13.56	
2025-01-09 12:02:35.38	229.15	13.57	
2025-01-09 12:02:35.58	229.18	13.59	
2025-01-09 12:02:35.79	229.22	13.60	
2025-01-09 12:02:35.99	229.25	13.61	
2025-01-09 12:02:36.20	229.28	13.63	
2025-01-09 12:02:36.40	229.31	13.64	
2025-01-09 12:02:36.61	229.34	13.65	
2025-01-09 12:02:36.82	229.37	13.67	
2025-01-09 12:02:37.02	229.41	13.68	
2025-01-09 12:02:37.23	229.44	13.69	
2025-01-09 12:02:37.43	229.47	13.71	
2025-01-09 12:02:37.64	229.50	13.72	
2025-01-09 12:02:37.84	229.53	13.74	
2025-01-09 12:02:38.05	229.56	13.75	
2025-01-09 12:02:38.25	229.60	13.76	
2025-01-09 12:02:38.46	229.63	13.78	
2025-01-09 12:02:38.67	229.66	13.79	
2025-01-09 12:02:38.87	229.69	13.80	
2025-01-09 12:02:39.07	229.72	13.82	
2025-01-09 12:02:39.28	229.76	13.83	
2025-01-09 12:02:39.48	229.79	13.84	
2025-01-09 12:02:39.69	229.82	13.86	
2025-01-09 12:02:39.89	229.85	13.87	
2025-01-09 12:02:40.10	229.89	13.88	
2025-01-09 12:02:40.30	229.92	13.90	
2025-01-09 12:02:40.51	229.95	13.91	
2025-01-09 12:02:40.72	229.98	13.93	
2025-01-09 12:02:40.92	230.01	13.94	
2025-01-09 12:02:41.13	230.05	13.95	
2025-01-09 12:02:41.33	230.08	13.97	
2025-01-09 12:02:41.54	230.11	13.98	
2025-01-09 12:02:41.74	230.14	13.99	
2025-01-09 12:02:41.95	230.18	14.01	
2025-01-09 12:02:42.15	230.21	14.02	
2025-01-09 12:02:42.35	230.24	14.03	
2025-01-09 12:02:42.56	230.27	14.05	
2025-01-09 12:02:42.77	230.31	14.06	
2025-01-09 12:02:42.97	230.34	14.07	
2025-01-09 12:02:43.17	230.37	14.09	
2025-01-09 12:02:43.38	230.40	14.10	
2025-01-09 12:02:43.58	230.44	14.11	
2025-01-09 12:02:43.79	230.47	14.13	
2025-01-09 12:02:44.00	230.50	14.14	
2025-01-09 12:02:44.20	230.53	14.16	
2025-01-09 12:02:44.41	230.57	14.17	
2025-01-09 12:02:44.61	230.60	14.18	
2025-01-09 12:02:44.82	230.63	14.20	
2025-01-09 12:02:45.02	230.67	14.21	
2025-01-09 12:02:45.23	230.70	14.22	
2025-01-09 12:02:45.44	230.73	14.24	
2025-01-09 12:02:45.64	230.76	14.25	
2025-01-09 12:02:45.85	230.80	14.26	
2025-01-09 12:02:46.05	230.83	14.28	
2025-01-09 12:02:46.26	230.86	14.29	
2025-01-09 12:02:46.46	230.90	14.30	
2025-01-09 12:02:46.67	230.93	14.32	
2025-01-09 12:02:46.87	230.96	14.33	
2025-01-09 12:02:47.08	231.00	14.35	
2025-01-09 12:02:47.29	231.03	14.36	
2025-01-09 12:02:47.49	231.06	14.37	
2025-01-09 12:02:47.69	231.10	14.39	
2025-01-09 12:02:47.90	231.13	14.40	
2025-01-09 12:02:48.11	231.16	14.41	
2025-01-09 12:02:48.32	231.20	14.43	
2025-01-09 12:02:48.52	231.23	14.44	
2025-01-09 12:02:48.72	231.26	14.45	
2025-01-09 12:02:48.93	231.30	14.47	
2025-01-09 12:02:49.13	231.33	14.48	
2025-01-09 12:02:49.34	231.36	14.49	
2025-01-09 12:02:49.54	231.40	14.51	
2025-01-09 12:02:49.75	231.43	14.52	
2025-01-09 12:02:49.95	231.46	14.53	
2025-01-09 12:02:50.16	231.50	14.55	
2025-01-09 12:02:50.36	231.53	14.56	
2025-01-09 12:02:50.57	231.57	14.58	
2025-01-09 12:02:50.78	231.60	14.59	
2025-01-09 12:02:50.98	231.63	14.60	
2025-01-09 12:02:51.18	231.67	14.62	
2025-01-09 12:02:51.39	231.70	14.63	
2025-01-09 12:02:51.59	231.73	14.64	
2025-01-09 12:02:51.80	231.77	14.66	
2025-01-09 12:02:52.02	231.80	14.67	
2025-01-09 12:02:52.23	231.84	14.68	
2025-01-09 12:02:52.43	231.87	14.70	
2025-01-09 12:02:52.64	231.91	14.71	
2025-01-09 12:02:52.84	231.94	14.72	
2025-01-09 12:02:53.05	231.97	14.74	
2025-01-09 12:02:53.25	232.01	14.75	
2025-01-09 12:02:53.46	232.04	14.77	
2025-01-09 12:02:53.67	232.08	14.78	
2025-01-09 12:02:53.87	232.11	14.79	
2025-01-09 12:02:54.08	232.15	14.81	
2025-01-09 12:02:54.28	232.18	14.82	
2025-01-09 12:02:54.49	232.21	14.83	
2025-01-09 12:02:54.69	232.25	14.85	
2025-01-09 12:02:54.90	232.28	14.86	
2025-01-09 12:02:55.10	232.32	14.87	
2025-01-09 12:02:55.31	232.35	14.89	
2025-01-09 12:02:55.51	232.38	14.90	
2025-01-09 12:02:55.72	232.42	14.91	
2025-01-09 12:02:55.92	232.45	14.93	
2025-01-09 12:02:56.13	232.49	14.94	
2025-01-09 12:02:56.33	232.52	14.95	
2025-01-09 12:02:56.54	232.56	14.97	
2025-01-09 12:02:56.74	232.59	14.98	
2025-01-09 12:02:56.95	232.63	14.99	
2025-01-09 12:02:57.15	232.66	15.01	
2025-01-09 12:02:57.35	232.69	15.02	
2025-01-09 12:02:57.56	232.73	15.03	
2025-01-09 12:02:57.76	232.76	15.05	
2025-01-09 12:02:57.97	232.80	15.06	
2025-01-09 12:02:58.18	232.84	15.07	
2025-01-09 12:02:58.39	232.87	15.09	
2025-01-09 12:02:58.60	232.91	15.10	
2025-01-09 12:02:58.80	232.94	15.12	
2025-01-09 12:02:59.01	232.98	15.13	
2025-01-09 12:02:59.22	233.01	15.14	
2025-01-09 12:02:59.42	233.05	15.16	
2025-01-09 12:02:59.62	233.08	15.17	
2025-01-09 12:02:59.83	233.12	15.18	
2025-01-09 12:03:00.04	233.15	15.20	
2025-01-09 12:03:00.24	233.19	15.21	
2025-01-09 12:03:00.44	233.22	15.22	
2025-01-09 12:03:00.65	233.26	15.24	
2025-01-09 12:03:00.85	233.29	15.25	
2025-01-09 12:03:01.06	233.33	15.26	
2025-01-09 12:03:01.26	233.36	15.28	
2025-01-09 12:03:01.47	233.40	15.29	
2025-01-09 12:03:01.67	233.43	15.30	
2025-01-09 12:03:01.88	233.47	15.32	
2025-01-09 12:03:02.09	233.50	15.33	
2025-01-09 12:03:02.29	233.54	15.34	
2025-01-09 12:03:02.50	233.57	15.36	
2025-01-09 12:03:02.70	233.61	15.37	
2025-01-09 12:03:02.91	233.65	15.38	
2025-01-09 12:03:03.11	233.68	15.40	
2025-01-09 12:03:03.32	233.72	15.41	
2025-01-09 12:03:03.53	233.75	15.42	
2025-01-09 12:03:03.73	233.79	15.44	
2025-01-09 12:03:03.94	233.82	15.45	
2025-01-09 12:03:04.14	233.86	15.46	
2025-01-09 12:03:04.35	233.90	15.48	
2025-01-09 12:03:04.55	233.93	15.49	
2025-01-09 12:03:04.76	233.97	15.50	
2025-01-09 12:03:04.97	234.00	15.52	
2025-01-09 12:03:05.17	234.04	15.53	
2025-01-09 12:03:05.38	234.07	15.54	
2025-01-09 12:03:05.58	234.11	15.56	
2025-01-09 12:03:05.79	234.15	15.57	
2025-01-09 12:03:05.99	234.18	15.58	
2025-01-09 12:03:06.20	234.22	15.60	
2025-01-09 12:03:06.40	234.25	15.61	
2025-01-09 12:03:06.61	234.29	15.62	
2025-01-09 12:03:06.82	234.33	15.64	
2025-01-09 12:03:07.02	234.36	15.65	
2025-01-09 12:03:07.23	234.40	15.66	
2025-01-09 12:03:07.43	234.43	15.68	
2025-01-09 12:03:07.64	234.47	15.69	
2025-01-09 12:03:07.84	234.51	15.70	
2025-01-09 12:03:08.05	234.54	15.72	
2025-01-09 12:03:08.25	234.58	15.73	
2025-01-09 12:03:08.46	234.62	15.74	
2025-01-09 12:03:08.67	234.65	15.76	
2025-01-09 12:03:08.87	234.69	15.77	
2025-01-09 12:03:09.09	234.73	15.79	
2025-01-09 12:03:09.30	234.77	15.80	
2025-01-09 12:03:09.50	234.80	15.81	
2025-01-09 12:03:09.71	234.84	15.83	
2025-01-09 12:03:09.91	234.87	15.84	
2025-01-09 12:03:10.12	234.91	15.85	
2025-01-09 12:03:10.32	234.95	15.86	
2025-01-09 12:03:10.53	234.99	15.88	
2025-01-09 12:03:10.73	235.02	15.89	
2025-01-09 12:03:10.94	235.06	15.90	
2025-01-09 12:03:11.14	235.09	15.92	
2025-01-09 12:03:11.34	235.13	15.93	
2025-01-09 12:03:11.55	235.17	15.94	
2025-01-09 12:03:11.76	235.21	15.96	
2025-01-09 12:03:11.96	235.24	15.97	
2025-01-09 12:03:12.17	235.28	15.98	
2025-01-09 12:03:12.37	235.31	16.00	
2025-01-09 12:03:12.58	235.35	16.01	
2025-01-09 12:03:12.78	235.39	16.02	
2025-01-09 12:03:12.99	235.43	16.04	
2025-01-09 12:03:13.19	235.46	16.05	
2025-01-09 12:03:13.41	235.50	16.06	
2025-01-09 12:03:13.62	235.54	16.08	
2025-01-09 12:03:13.82	235.58	16.09	
2025-01-09 12:03:14.03	235.61	16.10	
2025-01-09 12:03:14.24	235.65	16.12	
2025-01-09 12:03:14.44	235.69	16.13	
2025-01-09 12:03:14.65	235.73	16.14	
2025-01-09 12:03:14.85	235.76	16.16	
2025-01-09 12:03:15.06	235.80	16.17	
2025-01-09 12:03:15.26	235.84	16.18	
2025-01-09 12:03:15.47	235.88	16.20	
2025-01-09 12:03:15.67	235.91	16.21	
2025-01-09 12:03:15.88	235.95	16.22	
2025-01-09 12:03:16.09	235.99	16.24	
2025-01-09 12:03:16.29	236.03	16.25	
2025-01-09 12:03:16.49	236.06	16.26	
2025-01-09 12:03:16.70	236.10	16.27	
2025-01-09 12:03:16.90	236.14	16.29	
2025-01-09 12:03:17.11	236.18	16.30	
2025-01-09 12:03:17.31	236.21	16.31	
2025-01-09 12:03:17.52	236.25	16.33	
2025-01-09 12:03:17.72	236.29	16.34	
2025-01-09 12:03:17.93	236.33	16.35	
2025-01-09 12:03:18.13	236.36	16.37	
2025-01-09 12:03:18.34	236.40	16.38	
2025-01-09 12:03:18.54	236.44	16.39	
2025-01-09 12:03:18.75	236.48	16.41	
2025-01-09 12:03:18.95	236.52	16.42	
2025-01-09 12:03:19.17	236.56	16.43	
2025-01-09 12:03:19.37	236.59	16.44	
2025-01-09 12:03:19.58	236.63	16.46	
2025-01-09 12:03:19.78	236.67	16.47	
2025-01-09 12:03:19.99	236.71	16.48	
2025-01-09 12:03:20.19	236.75	16.50	
2025-01-09 12:03:20.40	236.78	16.51	
2025-01-09 12:03:20.60	236.82	16.52	
2025-01-09 12:03:20.81	236.86	16.54	
2025-01-09 12:03:21.01	236.90	16.55	
2025-01-09 12:03:21.21	236.94	16.56	
2025-01-09 12:03:21.42	236.98	16.57	
2025-01-09 12:03:21.63	237.01	16.59	
2025-01-09 12:03:21.83	237.05	16.60	
2025-01-09 12:03:22.03	237.09	16.61	
2025-01-09 12:03:22.24	237.13	16.63	
2025-01-09 12:03:22.44	237.17	16.64	
2025-01-09 12:03:22.64	237.20	16.65	
2025-01-09 12:03:22.85	237.24	16.67	
2025-01-09 12:03:23.05	237.28	16.68	
2025-01-09 12:03:23.26	237.32	16.69	
2025-01-09 12:03:23.47	237.36	16.70	
2025-01-09 12:03:23.68	237.40	16.72	
2025-01-09 12:03:23.89	237.44	16.73	
2025-01-09 12:03:24.11	237.48	16.74	
2025-01-09 12:03:24.31	237.52	16.76	
2025-01-09 12:03:24.52	237.56	16.77	
2025-01-09 12:03:24.72	237.60	16.78	
2025-01-09 12:03:24.93	237.64	16.80	
2025-01-09 12:03:25.15	237.68	16.81	
2025-01-09 12:03:25.35	237.72	16.82	
2025-01-09 12:03:25.56	237.76	16.84	
2025-01-09 12:03:25.76	237.79	16.85	
2025-01-09 12:03:25.97	237.83	16.86	
2025-01-09 12:03:26.17	237.87	16.87	
2025-01-09 12:03:26.38	237.91	16.89	
2025-01-09 12:03:26.58	237.95	16.90	
2025-01-09 12:03:26.79	237.99	16.91	
2025-01-09 12:03:26.99	238.03	16.93	
2025-01-09 12:03:27.20	238.07	16.94	
2025-01-09 12:03:27.40	238.11	16.95	
2025-01-09 12:03:27.61	238.15	16.96	
2025-01-09 12:03:27.82	238.19	16.98	
2025-01-09 12:03:28.02	238.23	16.99	
2025-01-09 12:03:28.23	238.27	17.00	
2025-01-09 12:03:28.43	238.30	17.02	
2025-01-09 12:03:28.64	238.34	17.03	
2025-01-09 12:03:28.84	238.38	17.04	
2025-01-09 12:03:29.05	238.42	17.05	
2025-01-09 12:03:29.25	238.46	17.07	
2025-01-09 12:03:29.46	238.50	17.08	
2025-01-09 12:03:29.66	238.54	17.09	
2025-01-09 12:03:29.87	238.58	17.11	
2025-01-09 12:03:30.07	238.62	17.12	
2025-01-09 12:03:30.28	238.66	17.13	
2025-01-09 12:03:30.48	238.70	17.14	
2025-01-09 12:03:30.69	238.74	17.16	
2025-01-09 12:03:30.89	238.78	17.17	
2025-01-09 12:03:31.10	238.82	17.18	
2025-01-09 12:03:31.30	238.86	17.19	
2025-01-09 12:03:31.52	238.90	17.21	
2025-01-09 12:03:31.72	238.94	17.22	
2025-01-09 12:03:31.93	238.98	17.23	
2025-01-09 12:03:32.14	239.02	17.25	
2025-01-09 12:03:32.34	239.06	17.26	
2025-01-09 12:03:32.55	239.10	17.27	
2025-01-09 12:03:32.75	239.14	17.28	
2025-01-09 12:03:32.96	239.18	17.30	
2025-01-09 12:03:33.16	239.22	17.31	
2025-01-09 12:03:33.37	239.26	17.32	
2025-01-09 12:03:33.57	239.30	17.33	
2025-01-09 12:03:33.78	239.34	17.35	
2025-01-09 12:03:33.98	239.38	17.36	
2025-01-09 12:03:34.19	239.42	17.37	
2025-01-09 12:03:34.39	239.46	17.39	
2025-01-09 12:03:34.60	239.51	17.40	
2025-01-09 12:03:34.80	239.54	17.41	
2025-01-09 12:03:35.01	239.59	17.42	
2025-01-09 12:03:35.21	239.63	17.44	
2025-01-09 12:03:35.42	239.67	17.45	
2025-01-09 12:03:35.63	239.71	17.46	
2025-01-09 12:03:35.83	239.75	17.47	
2025-01-09 12:03:36.04	239.79	17.49	
2025-01-09 12:03:36.24	239.83	17.50	
2025-01-09 12:03:36.45	239.87	17.51	
2025-01-09 12:03:36.65	239.91	17.52	
2025-01-09 12:03:36.86	239.95	17.54	
2025-01-09 12:03:37.06	239.99	17.55	
2025-01-09 12:03:37.27	240.03	17.56	
2025-01-09 12:03:37.48	240.08	17.57	
2025-01-09 12:03:37.68	240.12	17.59	
2025-01-09 12:03:37.89	240.16	17.60	
2025-01-09 12:03:38.09	240.20	17.61	
2025-01-09 12:03:38.30	240.24	17.62	
2025-01-09 12:03:38.51	240.28	17.64	
2025-01-09 12:03:38.71	240.32	17.65	
2025-01-09 12:03:38.92	240.36	17.66	
2025-01-09 12:03:39.12	240.40	17.67	
2025-01-09 12:03:39.33	240.45	17.69	
2025-01-09 12:03:39.54	240.49	17.70	
2025-01-09 12:03:39.74	240.53	17.71	
2025-01-09 12:03:39.95	240.57	17.72	
2025-01-09 12:03:40.15	240.61	17.74	
2025-01-09 12:03:40.36	240.65	17.75	
2025-01-09 12:03:40.56	240.69	17.76	
2025-01-09 12:03:40.77	240.74	17.77	
2025-01-09 12:03:40.97	240.78	17.79	
2025-01-09 12:03:41.18	240.82	17.80	
2025-01-09 12:03:41.38	240.86	17.81	
2025-01-09 12:03:41.59	240.90	17.82	
2025-01-09 12:03:41.80	240.94	17.84	
2025-01-09 12:03:42.00	240.98	17.85	
2025-01-09 12:03:42.22	241.03	17.86	
2025-01-09 12:03:42.43	241.07	17.87	
2025-01-09 12:03:42.63	241.11	17.89	
2025-01-09 12:03:42.84	241.16	17.90	
2025-01-09 12:03:43.05	241.20	17.91	
2025-01-09 12:03:43.25	241.24	17.92	
2025-01-09 12:03:43.46	241.28	17.94	
2025-01-09 12:03:43.66	241.32	17.95	
2025-01-09 12:03:43.87	241.37	17.96	
2025-01-09 12:03:44.07	241.41	17.97	
2025-01-09 12:03:44.28	241.45	17.98	
2025-01-09 12:03:44.48	241.49	18.00	
2025-01-09 12:03:44.69	241.53	18.01	
2025-01-09 12:03:44.90	241.58	18.02	
2025-01-09 12:03:45.10	241.62	18.03	
2025-01-09 12:03:45.31	241.66	18.05	
2025-01-09 12:03:45.51	241.70	18.06	
2025-01-09 12:03:45.71	241.74	18.07	
2025-01-09 12:03:45.92	241.79	18.08	
2025-01-09 12:03:46.13	241.83	18.09	
2025-01-09 12:03:46.33	241.87	18.11	
2025-01-09 12:03:46.54	241.91	18.12	
2025-01-09 12:03:46.74	241.95	18.13	
2025-01-09 12:03:46.95	242.00	18.14	
2025-01-09 12:03:47.15	242.04	18.15	
2025-01-09 12:03:47.36	242.08	18.17	
2025-01-09 12:03:47.56	242.12	18.18	
2025-01-09 12:03:47.77	242.17	18.19	
2025-01-09 12:03:47.97	242.21	18.20	
2025-01-09 12:03:48.18	242.25	18.22	
2025-01-09 12:03:48.38	242.29	18.23	
2025-01-09 12:03:48.60	242.34	18.24	
2025-01-09 12:03:48.81	242.38	18.25	
2025-01-09 12:03:49.01	242.43	18.26	
2025-01-09 12:03:49.21	242.47	18.28	
2025-01-09 12:03:49.42	242.51	18.29	
2025-01-09 12:03:49.62	242.55	18.30	
2025-01-09 12:03:49.83	242.60	18.31	
2025-01-09 12:03:50.04	242.64	18.32	
2025-01-09 12:03:50.24	242.68	18.34	
2025-01-09 12:03:50.45	242.73	18.35	
2025-01-09 12:03:50.65	242.77	18.36	
2025-01-09 12:03:50.86	242.81	18.37	
2025-01-09 12:03:51.06	242.85	18.38	
2025-01-09 12:03:51.27	242.90	18.40	
2025-01-09 12:03:51.47	242.94	18.41	
2025-01-09 12:03:51.68	242.98	18.42	
2025-01-09 12:03:51.88	243.03	18.43	
2025-01-09 12:03:52.08	243.07	18.44	
2025-01-09 12:03:52.29	243.11	18.45	
2025-01-09 12:03:52.50	243.16	18.47	
2025-01-09 12:03:52.70	243.20	18.48	
2025-01-09 12:03:52.90	243.24	18.49	
2025-01-09 12:03:53.11	243.29	18.50	
2025-01-09 12:03:53.32	243.33	18.51	
2025-01-09 12:03:53.52	243.37	18.53	
2025-01-09 12:03:53.73	243.42	18.54	
2025-01-09 12:03:53.93	243.46	18.55	
2025-01-09 12:03:54.14	243.50	18.56	
2025-01-09 12:03:54.34	243.55	18.57	
2025-01-09 12:03:54.55	243.59	18.58	
2025-01-09 12:03:54.75	243.63	18.60	
2025-01-09 12:03:54.95	243.68	18.61	
2025-01-09 12:03:55.16	243.72	18.62	
2025-01-09 12:03:55.36	243.76	18.63	
2025-01-09 12:03:55.57	243.81	18.64	
2025-01-09 12:03:55.77	243.85	18.65	
2025-01-09 12:03:55.98	243.90	18.67	
2025-01-09 12:03:56.18	243.94	18.68	
2025-01-09 12:03:56.39	243.98	18.69	
2025-01-09 12:03:56.60	244.03	18.70	
2025-01-09 12:03:56.80	244.07	18.71	
2025-01-09 12:03:57.01	244.12	18.73	
2025-01-09 12:03:57.21	244.16	18.74	
2025-01-09 12:03:57.42	244.21	18.75	
2025-01-09 12:03:57.62	244.25	18.76	
2025-01-09 12:03:57.83	244.29	18.77	
2025-01-09 12:03:58.03	244.34	18.78	
2025-01-09 12:03:58.24	244.38	18.79	
2025-01-09 12:03:58.44	244.42	18.81	
2025-01-09 12:03:58.65	244.47	18.82	
2025-01-09 12:03:58.86	244.52	18.83	
2025-01-09 12:03:59.06	244.56	18.84	
2025-01-09 12:03:59.27	244.60	18.85	
2025-01-09 12:03:59.47	244.65	18.86	
2025-01-09 12:03:59.68	244.69	18.88	
2025-01-09 12:03:59.88	244.74	18.89	
2025-01-09 12:04:00.09	244.78	18.90	
2025-01-09 12:04:00.29	244.83	18.91	
2025-01-09 12:04:00.49	244.87	18.92	
2025-01-09 12:04:00.70	244.91	18.93	
2025-01-09 12:04:00.91	244.96	18.94	
2025-01-09 12:04:01.11	245.00	18.96	
2025-01-09 12:04:01.32	245.05	18.97	
2025-01-09 12:04:01.52	245.09	18.98	
2025-01-09 12:04:01.73	245.14	18.99	
2025-01-09 12:04:01.94	245.18	19.00	
2025-01-09 12:04:02.14	245.23	19.01	
2025-01-09 12:04:02.35	245.27	19.02	
2025-01-09 12:04:02.55	245.32	19.03	
2025-01-09 12:04:02.76	245.36	19.05	
2025-01-09 12:04:02.96	245.41	19.06	
2025-01-09 12:04:03.17	245.45	19.07	
2025-01-09 12:04:03.37	245.50	19.08	
2025-01-09 12:04:03.58	245.54	19.09	
2025-01-09 12:04:03.78	245.59	19.10	
2025-01-09 12:04:03.99	245.63	19.11	
2025-01-09 12:04:04.19	245.68	19.12	
2025-01-09 12:04:04.40	245.72	19.14	
2025-01-09 12:04:04.60	245.77	19.15	
2025-01-09 12:04:04.81	245.81	19.16	
2025-01-09 12:04:05.01	245.86	19.17	
2025-01-09 12:04:05.22	245.90	19.18	
2025-01-09 12:04:05.42	245.95	19.19	
2025-01-09 12:04:05.63	246.00	19.20	
2025-01-09 12:04:05.83	246.04	19.21	
2025-01-09 12:04:06.04	246.09	19.23	
2025-01-09 12:04:06.24	246.13	19.24	
2025-01-09 12:04:06.45	246.18	19.25	
2025-01-09 12:04:06.65	246.22	19.26	
2025-01-09 12:04:06.86	246.27	19.27	
2025-01-09 12:04:07.07	246.31	19.28	
2025-01-09 12:04:07.27	246.36	19.29	
2025-01-09 12:04:07.48	246.41	19.30	
2025-01-09 12:04:07.68	246.45	19.31	
2025-01-09 12:04:07.88	246.50	19.32	
2025-01-09 12:04:08.09	246.54	19.34	
2025-01-09 12:04:08.30	246.59	19.35	
2025-01-09 12:04:08.50	246.63	19.36	
2025-01-09 12:04:08.71	246.68	19.37	
2025-01-09 12:04:08.91	246.73	19.38	
2025-01-09 12:04:09.12	246.77	19.39	
2025-01-09 12:04:09.32	246.82	19.40	
2025-01-09 12:04:09.52	246.86	19.41	
2025-01-09 12:04:09.73	246.91	19.42	
2025-01-09 12:04:09.93	246.95	19.43	
2025-01-09 12:04:10.14	247.00	19.44	
2025-01-09 12:04:10.35	247.05	19.46	
2025-01-09 12:04:10.55	247.09	19.47	
2025-01-09 12:04:10.76	247.14	19.48	
2025-01-09 12:04:10.96	247.19	19.49	
2025-01-09 12:04:11.17	247.23	19.50	
2025-01-09 12:04:11.37	247.28	19.51	
2025-01-09 12:04:11.58	247.33	19.52	
2025-01-09 12:04:11.78	247.37	19.53	
2025-01-09 12:04:11.99	247.42	19.54	
2025-01-09 12:04:12.19	247.46	19.55	
2025-01-09 12:04:12.40	247.51	19.56	
2025-01-09 12:04:12.60	247.56	19.57	
2025-01-09 12:04:12.81	247.60	19.58	
2025-01-09 12:04:13.01	247.65	19.59	
2025-01-09 12:04:13.21	247.69	19.61	
2025-01-09 12:04:13.42	247.74	19.62	
2025-01-09 12:04:13.62	247.79	19.63	
2025-01-09 12:04:13.83	247.83	19.64	
2025-01-09 12:04:14.03	247.88	19.65	
2025-01-09 12:04:14.24	247.93	19.66	
2025-01-09 12:04:14.44	247.97	19.67	
2025-01-09 12:04:14.65	248.02	19.68	
2025-01-09 12:04:14.86	248.07	19.69	
2025-01-09 12:04:15.06	248.11	19.70	
2025-01-09 12:04:15.26	248.16	19.71	
2025-01-09 12:04:15.47	248.21	19.72	
2025-01-09 12:04:15.68	248.26	19.73	
2025-01-09 12:04:15.88	248.30	19.74	
2025-01-09 12:04:16.09	248.35	19.75	
2025-01-09 12:04:16.29	248.40	19.76	
2025-01-09 12:04:16.49	248.44	19.77	
2025-01-09 12:04:16.70	248.49	19.78	
2025-01-09 12:04:16.91	248.54	19.79	
2025-01-09 12:04:17.11	248.58	19.80	
2025-01-09 12:04:17.32	248.63	19.82	
2025-01-09 12:04:17.52	248.68	19.83	
2025-01-09 12:04:17.72	248.72	19.84	
2025-01-09 12:04:17.93	248.77	19.85	
2025-01-09 12:04:18.14	248.82	19.86	
2025-01-09 12:04:18.34	248.87	19.87	
2025-01-09 12:04:18.54	248.91	19.88	
2025-01-09 12:04:18.75	248.96	19.89	
2025-01-09 12:04:18.95	249.01	19.90	
2025-01-09 12:04:19.16	249.06	19.91	
2025-01-09 12:04:19.36	249.10	19.92	
2025-01-09 12:04:19.57	249.15	19.93	
2025-01-09 12:04:19.77	249.20	19.94	
2025-01-09 12:04:19.98	249.25	19.95	
2025-01-09 12:04:20.18	249.29	19.96	
2025-01-09 12:04:20.39	249.34	19.97	
2025-01-09 12:04:20.59	249.39	19.98	
2025-01-09 12:04:20.80	249.44	19.99	
2025-01-09 12:04:21.00	249.48	20.00	
2025-01-09 12:04:21.21	249.53	20.01	
2025-01-09 12:04:21.41	249.58	20.02	
2025-01-09 12:04:21.62	249.63	20.03	
2025-01-09 12:04:21.82	249.68	20.04	
2025-01-09 12:04:22.03	249.72	20.05	
2025-01-09 12:04:22.23	249.77	20.06	
2025-01-09 12:04:22.44	249.82	20.07	
2025-01-09 12:04:22.64	249.87	20.08	
2025-01-09 12:04:22.86	249.92	20.09	
2025-01-09 12:04:23.07	249.97	20.10	
2025-01-09 12:04:23.27	250.01	20.11	
2025-01-09 12:04:23.48	250.06	20.12	
2025-01-09 12:04:23.68	250.11	20.13	
2025-01-09 12:04:23.90	250.16	20.14	
2025-01-09 12:04:24.10	250.21	20.15	
2025-01-09 12:04:24.31	250.26	20.16	
2025-01-09 12:04:24.52	250.31	20.17	
2025-01-09 12:04:24.72	250.35	20.18	
2025-01-09 12:04:24.94	250.41	20.19	
2025-01-09 12:04:25.14	250.45	20.20	
2025-01-09 12:04:25.35	250.50	20.21	
2025-01-09 12:04:25.55	250.55	20.22	
2025-01-09 12:04:25.76	250.60	20.23	
2025-01-09 12:04:25.96	250.65	20.24	
2025-01-09 12:04:26.17	250.70	20.25	
2025-01-09 12:04:26.38	250.75	20.26	
2025-01-09 12:04:26.58	250.79	20.27	
2025-01-09 12:04:26.79	250.84	20.28	
2025-01-09 12:04:26.99	250.89	20.29	
2025-01-09 12:04:27.19	250.94	20.30	
2025-01-09 12:04:27.40	250.99	20.30	
2025-01-09 12:04:27.61	251.04	20.31	
2025-01-09 12:04:27.81	251.09	20.32	
2025-01-09 12:04:28.02	251.13	20.33	
2025-01-09 12:04:28.22	251.18	20.34	
2025-01-09 12:04:28.43	251.23	20.35	
2025-01-09 12:04:28.63	251.28	20.36	
2025-01-09 12:04:28.84	251.33	20.37	
2025-01-09 12:04:29.05	251.38	20.38	
2025-01-09 12:04:29.25	251.43	20.39	
2025-01-09 12:04:29.46	251.48	20.40	
2025-01-09 12:04:29.66	251.53	20.41	
2025-01-09 12:04:29.87	251.58	20.42	
2025-01-09 12:04:30.08	251.63	20.43	
2025-01-09 12:04:30.28	251.67	20.44	
2025-01-09 12:04:30.49	251.72	20.45	
2025-01-09 12:04:30.69	251.77	20.46	
2025-01-09 12:04:30.90	251.82	20.47	
2025-01-09 12:04:31.10	251.87	20.47	
2025-01-09 12:04:31.30	251.92	20.48	
2025-01-09 12:04:31.51	251.97	20.49	
2025-01-09 12:04:31.72	252.02	20.50	
2025-01-09 12:04:31.92	252.07	20.51	
2025-01-09 12:04:32.13	252.12	20.52	
2025-01-09 12:04:32.33	252.17	20.53	
2025-01-09 12:04:32.54	252.22	20.54	
2025-01-09 12:04:32.74	252.26	20.55	
2025-01-09 12:04:32.95	252.31	20.56	
2025-01-09 12:04:33.15	252.36	20.57	
2025-01-09 12:04:33.36	252.41	20.58	
2025-01-09 12:04:33.56	252.46	20.58	
2025-01-09 12:04:33.77	252.51	20.59	
2025-01-09 12:04:33.97	252.56	20.60	
2025-01-09 12:04:34.18	252.61	20.61	
2025-01-09 12:04:34.38	252.66	20.62	
2025-01-09 12:04:34.59	252.71	20.63	
2025-01-09 12:04:34.79	252.76	20.64	
2025-01-09 12:04:35.00	252.81	20.65	
2025-01-09 12:04:35.21	252.86	20.66	
2025-01-09 12:04:35.41	252.91	20.67	
2025-01-09 12:04:35.61	252.96	20.67	
2025-01-09 12:04:35.82	253.01	20.68	
2025-01-09 12:04:36.03	253.06	20.69	
2025-01-09 12:04:36.23	253.11	20.70	
2025-01-09 12:04:36.44	253.16	20.71	
2025-01-09 12:04:36.64	253.21	20.72	
2025-01-09 12:04:36.85	253.26	20.73	
2025-01-09 12:04:37.06	253.31	20.74	
2025-01-09 12:04:37.26	253.36	20.74	
2025-01-09 12:04:37.47	253.41	20.75	
2025-01-09 12:04:37.67	253.46	20.76	
2025-01-09 12:04:37.87	253.51	20.77	
2025-01-09 12:04:38.08	253.56	20.78	
2025-01-09 12:04:38.29	253.61	20.79	
2025-01-09 12:04:38.49	253.66	20.80	
2025-01-09 12:04:38.70	253.71	20.81	
2025-01-09 12:04:38.90	253.76	20.81	
2025-01-09 12:04:39.11	253.81	20.82	
2025-01-09 12:04:39.32	253.86	20.83	
2025-01-09 12:04:39.53	253.92	20.84	
2025-01-09 12:04:39.74	253.97	20.85	
2025-01-09 12:04:39.94	254.02	20.86	
2025-01-09 12:04:40.15	254.07	20.87	
2025-01-09 12:04:40.35	254.12	20.87	
2025-01-09 12:04:40.56	254.17	20.88	
2025-01-09 12:04:40.76	254.22	20.89	
2025-01-09 12:04:40.97	254.27	20.90	
2025-01-09 12:04:41.17	254.32	20.91	
2025-01-09 12:04:41.38	254.37	20.92	
2025-01-09 12:04:41.59	254.42	20.92	
2025-01-09 12:04:41.79	254.47	20.93	
2025-01-09 12:04:42.00	254.52	20.94	
2025-01-09 12:04:42.20	254.57	20.95	
2025-01-09 12:04:42.41	254.62	20.96	
2025-01-09 12:04:42.61	254.67	20.97	
2025-01-09 12:04:42.82	254.73	20.97	
2025-01-09 12:04:43.03	254.78	20.98	
2025-01-09 12:04:43.23	254.83	20.99	
2025-01-09 12:04:43.44	254.88	21.00	
2025-01-09 12:04:43.64	254.93	21.01	
2025-01-09 12:04:43.85	254.98	21.01	
2025-01-09 12:04:44.05	255.03	21.02	
2025-01-09 12:04:44.26	255.08	21.03	
2025-01-09 12:04:44.46	255.13	21.04	
2025-01-09 12:04:44.67	255.18	21.05	
2025-01-09 12:04:44.87	255.23	21.05	
2025-01-09 12:04:45.08	255.29	21.06	
2025-01-09 12:04:45.28	255.34	21.07	
2025-01-09 12:04:45.49	255.39	21.08	
2025-01-09 12:04:45.69	255.44	21.09	
2025-01-09 12:04:45.90	255.49	21.09	
2025-01-09 12:04:46.10	255.54	21.10	
2025-01-09 12:04:46.32	255.60	21.11	
2025-01-09 12:04:46.53	255.65	21.12	
2025-01-09 12:04:46.73	255.70	21.13	
2025-01-09 12:04:46.94	255.75	21.13	
2025-01-09 12:04:47.14	255.80	21.14	
2025-01-09 12:04:47.35	255.85	21.15	
2025-01-09 12:04:47.55	255.90	21.16	
2025-01-09 12:04:47.76	255.96	21.17	
2025-01-09 12:04:47.96	256.01	21.17	
2025-01-09 12:04:48.17	256.06	21.18	
2025-01-09 12:04:48.37	256.11	21.19	
2025-01-09 12:04:48.58	256.16	21.20	
2025-01-09 12:04:48.78	256.21	21.20	
2025-01-09 12:04:48.99	256.26	21.21	
2025-01-09 12:04:49.20	256.32	21.22	
2025-01-09 12:04:49.40	256.37	21.23	
2025-01-09 12:04:49.61	256.42	21.23	
2025-01-09 12:04:49.81	256.47	21.24	
2025-01-09 12:04:50.02	256.52	21.25	
2025-01-09 12:04:50.22	256.57	21.26	
2025-01-09 12:04:50.43	256.63	21.26	
2025-01-09 12:04:50.63	256.68	21.27	
2025-01-09 12:04:50.84	256.73	21.28	
2025-01-09 12:04:51.04	256.78	21.29	
2025-01-09 12:04:51.26	256.84	21.29	
2025-01-09 12:04:51.46	256.89	21.30	
2025-01-09 12:04:51.67	256.94	21.31	
2025-01-09 12:04:51.87	256.99	21.32	
2025-01-09 12:04:52.08	257.04	21.32	
2025-01-09 12:04:52.28	257.09	21.33	
2025-01-09 12:04:52.49	257.15	21.34	
2025-01-09 12:04:52.70	257.20	21.34	
2025-01-09 12:04:52.91	257.25	21.35	
2025-01-09 12:04:53.12	257.31	21.36	
2025-01-09 12:04:53.32	257.36	21.37	
2025-01-09 12:04:53.53	257.41	21.37	
2025-01-09 12:04:53.73	257.46	21.38	
2025-01-09 12:04:53.94	257.51	21.39	
2025-01-09 12:04:54.14	257.56	21.39	
2025-01-09 12:04:54.35	257.62	21.40	
2025-01-09 12:04:54.56	257.67	21.41	
2025-01-09 12:04:54.76	257.72	21.42	
2025-01-09 12:04:54.96	257.77	21.42	
2025-01-09 12:04:55.17	257.83	21.43	
2025-01-09 12:04:55.38	257.88	21.44	
2025-01-09 12:04:55.58	257.93	21.44	
2025-01-09 12:04:55.79	257.98	21.45	
2025-01-09 12:04:55.99	258.04	21.46	
2025-01-09 12:04:56.19	258.09	21.46	
2025-01-09 12:04:56.40	258.14	21.47	
2025-01-09 12:04:56.60	258.19	21.48	
2025-01-09 12:04:56.81	258.25	21.48	
2025-01-09 12:04:57.03	258.30	21.49	
2025-01-09 12:04:57.23	258.35	21.50	
2025-01-09 12:04:57.44	258.41	21.50	
2025-01-09 12:04:57.64	258.46	21.51	
2025-01-09 12:04:57.85	258.51	21.52	
2025-01-09 12:04:58.07	258.57	21.53	
2025-01-09 12:04:58.27	258.62	21.53	
2025-01-09 12:04:58.48	258.67	21.54	
2025-01-09 12:04:58.69	258.73	21.55	
2025-01-09 12:04:58.89	258.78	21.55	
2025-01-09 12:04:59.09	258.83	21.56	
2025-01-09 12:04:59.30	258.88	21.56	
2025-01-09 12:04:59.51	258.94	21.57	
2025-01-09 12:04:59.71	258.99	21.58	
2025-01-09 12:04:59.92	259.04	21.58	
2025-01-09 12:05:00.13	259.10	21.59	
2025-01-09 12:05:00.34	259.15	21.60	
2025-01-09 12:05:00.55	259.20	21.60	
2025-01-09 12:05:00.75	259.26	21.61	
2025-01-09 12:05:00.96	259.31	21.62	
2025-01-09 12:05:01.16	259.36	21.62	
2025-01-09 12:05:01.37	259.42	21.63	
2025-01-09 12:05:01.57	259.47	21.64	
2025-01-09 12:05:01.78	259.52	21.64	
2025-01-09 12:05:01.98	259.57	21.65	
2025-01-09 12:05:02.19	259.63	21.65	
2025-01-09 12:05:02.39	259.68	21.66	
2025-01-09 12:05:02.60	259.73	21.67	
2025-01-09 12:05:02.80	259.78	21.67	
2025-01-09 12:05:03.01	259.84	21.68	
2025-01-09 12:05:03.22	259.89	21.68	
2025-01-09 12:05:03.42	259.94	21.69	
2025-01-09 12:05:03.63	260.00	21.70	
2025-01-09 12:05:03.83	260.05	21.70	
2025-01-09 12:05:04.04	260.11	21.71	
2025-01-09 12:05:04.24	260.16	21.71	
2025-01-09 12:05:04.46	260.21	21.72	
2025-01-09 12:05:04.66	260.27	21.73	
2025-01-09 12:05:04.87	260.32	21.73	
2025-01-09 12:05:05.07	260.37	21.74	
2025-01-09 12:05:05.28	260.43	21.74	
2025-01-09 12:05:05.48	260.48	21.75	
2025-01-09 12:05:05.69	260.53	21.76	
2025-01-09 12:05:05.90	260.59	21.76	
2025-01-09 12:05:06.10	260.64	21.77	
2025-01-09 12:05:06.30	260.69	21.77	
2025-01-09 12:05:06.51	260.75	21.78	
2025-01-09 12:05:06.71	260.80	21.78	
2025-01-09 12:05:06.92	260.85	21.79	
2025-01-09 12:05:07.13	260.91	21.80	
2025-01-09 12:05:07.33	260.96	21.80	
2025-01-09 12:05:07.55	261.02	21.81	
2025-01-09 12:05:07.75	261.07	21.81	
2025-01-09 12:05:07.96	261.12	21.82	
2025-01-09 12:05:08.16	261.18	21.82	
2025-01-09 12:05:08.37	261.23	21.83	
2025-01-09 12:05:08.57	261.28	21.83	
2025-01-09 12:05:08.79	261.34	21.84	
2025-01-09 12:05:09.00	261.40	21.85	
2025-01-09 12:05:09.20	261.45	21.85	
2025-01-09 12:05:09.41	261.50	21.86	
2025-01-09 12:05:09.62	261.56	21.86	
2025-01-09 12:05:09.82	261.61	21.87	
2025-01-09 12:05:10.03	261.67	21.87	
2025-01-09 12:05:10.23	261.72	21.88	
2025-01-09 12:05:10.43	261.77	21.88	
2025-01-09 12:05:10.64	261.83	21.89	
2025-01-09 12:05:10.84	261.88	21.89	
2025-01-09 12:05:11.05	261.93	21.90	
2025-01-09 12:05:11.26	261.99	21.90	
2025-01-09 12:05:11.46	262.04	21.91	
2025-01-09 12:05:11.67	262.10	21.91	
2025-01-09 12:05:11.87	262.15	21.92	
2025-01-09 12:05:12.08	262.20	21.92	
2025-01-09 12:05:12.28	262.26	21.93	
2025-01-09 12:05:12.49	262.31	21.93	
2025-01-09 12:05:12.69	262.36	21.94	
2025-01-09 12:05:12.89	262.42	21.94	
2025-01-09 12:05:13.10	262.47	21.95	
2025-01-09 12:05:13.30	262.52	21.95	
2025-01-09 12:05:13.51	262.58	21.96	
2025-01-09 12:05:13.71	262.63	21.96	
2025-01-09 12:05:13.92	262.69	21.97	
2025-01-09 12:05:14.14	262.74	21.97	
2025-01-09 12:05:14.34	262.80	21.98	
2025-01-09 12:05:14.55	262.85	21.98	
2025-01-09 12:05:14.75	262.91	21.99	
2025-01-09 12:05:14.96	262.96	21.99	
2025-01-09 12:05:15.18	263.02	22.00	
2025-01-09 12:05:15.38	263.07	22.00	
2025-01-09 12:05:15.59	263.13	22.01	
2025-01-09 12:05:15.79	263.18	22.01	
2025-01-09 12:05:16.00	263.24	22.01	
2025-01-09 12:05:16.20	263.29	22.02	
2025-01-09 12:05:16.41	263.34	22.02	
2025-01-09 12:05:16.62	263.40	22.03	
2025-01-09 12:05:16.82	263.45	22.03	
2025-01-09 12:05:17.03	263.51	22.04	
2025-01-09 12:05:17.23	263.56	22.04	
2025-01-09 12:05:17.43	263.61	22.05	
2025-01-09 12:05:17.64	263.67	22.05	
2025-01-09 12:05:17.85	263.72	22.05	
2025-01-09 12:05:18.05	263.78	22.06	
2025-01-09 12:05:18.26	263.83	22.06	
2025-01-09 12:05:18.46	263.89	22.07	
2025-01-09 12:05:18.67	263.94	22.07	
2025-01-09 12:05:18.87	263.99	22.08	
2025-01-09 12:05:19.08	264.05	22.08	
2025-01-09 12:05:19.28	264.10	22.08	
2025-01-09 12:05:19.49	264.16	22.09	
2025-01-09 12:05:19.69	264.21	22.09	
2025-01-09 12:05:19.90	264.27	22.10	
2025-01-09 12:05:20.10	264.32	22.10	
2025-01-09 12:05:20.32	264.38	22.10	
2025-01-09 12:05:20.53	264.44	22.11	
2025-01-09 12:05:20.73	264.49	22.11	
2025-01-09 12:05:20.94	264.54	22.12	
2025-01-09 12:05:21.14	264.60	22.12	
2025-01-09 12:05:21.35	264.65	22.12	
2025-01-09 12:05:21.56	264.71	22.13	
2025-01-09 12:05:21.76	264.76	22.13	
2025-01-09 12:05:21.97	264.82	22.14	
2025-01-09 12:05:22.17	264.87	22.14	
2025-01-09 12:05:22.38	264.93	22.14	
2025-01-09 12:05:22.58	264.98	22.15	
2025-01-09 12:05:22.78	265.03	22.15	
2025-01-09 12:05:22.99	265.09	22.15	
2025-01-09 12:05:23.20	265.15	22.16	
2025-01-09 12:05:23.40	265.20	22.16	
2025-01-09 12:05:23.61	265.25	22.17	
2025-01-09 12:05:23.81	265.31	22.17	
2025-01-09 12:05:24.01	265.36	22.17	
2025-01-09 12:05:24.22	265.42	22.18	
2025-01-09 12:05:24.43	265.47	22.18	
2025-01-09 12:05:24.63	265.53	22.18	
2025-01-09 12:05:24.83	265.58	22.19	
2025-01-09 12:05:25.04	265.64	22.19	
2025-01-09 12:05:25.25	265.69	22.19	
2025-01-09 12:05:25.45	265.75	22.20	
2025-01-09 12:05:25.66	265.80	22.20	
2025-01-09 12:05:25.86	265.86	22.20	
2025-01-09 12:05:26.07	265.91	22.21	
2025-01-09 12:05:26.27	265.96	22.21	
2025-01-09 12:05:26.48	266.02	22.21	
2025-01-09 12:05:26.68	266.07	22.22	
2025-01-09 12:05:26.89	266.13	22.22	
2025-01-09 12:05:27.09	266.18	22.22	
2025-01-09 12:05:27.30	266.24	22.23	
2025-01-09 12:05:27.50	266.29	22.23	
2025-01-09 12:05:27.71	266.35	22.23	
2025-01-09 12:05:27.91	266.40	22.24	
2025-01-09 12:05:28.12	266.46	22.24	
2025-01-09 12:05:28.32	266.51	22.24	
2025-01-09 12:05:28.53	266.57	22.24	
2025-01-09 12:05:28.74	266.63	22.25	
2025-01-09 12:05:28.94	266.68	22.25	
2025-01-09 12:05:29.15	266.74	22.25	
2025-01-09 12:05:29.35	266.79	22.26	
2025-01-09 12:05:29.56	266.85	22.26	
2025-01-09 12:05:29.77	266.90	22.26	
2025-01-09 12:05:29.97	266.96	22.26	
2025-01-09 12:05:30.17	267.01	22.27	
2025-01-09 12:05:30.38	267.07	22.27	
2025-01-09 12:05:30.58	267.12	22.27	
2025-01-09 12:05:30.79	267.18	22.28	
2025-01-09 12:05:30.99	267.23	22.28	
2025-01-09 12:05:31.20	267.29	22.28	
2025-01-09 12:05:31.40	267.34	22.28	
2025-01-09 12:05:31.61	267.40	22.29	
2025-01-09 12:05:31.81	267.45	22.29	
2025-01-09 12:05:32.02	267.51	22.29	
2025-01-09 12:05:32.22	267.56	22.29	
2025-01-09 12:05:32.43	267.62	22.30	
2025-01-09 12:05:32.64	267.67	22.30	
2025-01-09 12:05:32.84	267.73	22.30	
2025-01-09 12:05:33.05	267.78	22.30	
2025-01-09 12:05:33.25	267.84	22.31	
2025-01-09 12:05:33.46	267.89	22.31	
2025-01-09 12:05:33.67	267.95	22.31	
2025-01-09 12:05:33.87	268.00	22.31	
2025-01-09 12:05:34.08	268.06	22.32	
2025-01-09 12:05:34.28	268.11	22.32	
2025-01-09 12:05:34.49	268.17	22.32	
2025-01-09 12:05:34.69	268.22	22.32	
2025-01-09 12:05:34.90	268.28	22.32	
2025-01-09 12:05:35.10	268.33	22.33	
2025-01-09 12:05:35.31	268.39	22.33	
2025-01-09 12:05:35.51	268.44	22.33	
2025-01-09 12:05:35.72	268.50	22.33	
2025-01-09 12:05:35.92	268.55	22.33	
2025-01-09 12:05:36.13	268.61	22.34	
2025-01-09 12:05:36.34	268.67	22.34	
2025-01-09 12:05:36.54	268.72	22.34	
2025-01-09 12:05:36.75	268.78	22.34	
2025-01-09 12:05:36.95	268.83	22.34	
2025-01-09 12:05:37.16	268.89	22.35	
2025-01-09 12:05:37.36	268.94	22.35	
2025-01-09 12:05:37.57	269.00	22.35	
2025-01-09 12:05:37.77	269.05	22.35	
2025-01-09 12:05:37.98	269.11	22.35	
2025-01-09 12:05:38.19	269.17	22.36	
2025-01-09 12:05:38.39	269.22	22.36	
2025-01-09 12:05:38.60	269.28	22.36	
2025-01-09 12:05:38.80	269.33	22.36	
