passes_logs/2025/01/09/SPB_Silybum_02/SPB_Silybum_02__20250109_071742_TERRA_rec.log

#Pass ID: 20250109_071742_TERRA
#Satellite: TERRA
#Configuration: TERRA
#Start time: 2025-01-09 07:17:41

#Version: 2.0.20230423
#Station: SPB_Silybum_02
#Location: 30.233357 lon 59.946436 lat
#TLE: 1 25994U 99068A   25008.82275774  .00000946  00000+0  20487-3 0  9990
#TLE: 2 25994  98.0228  72.0493 0003564  84.8498   6.9254 14.60383008333170

#Time	Az	El	Level	Level2	SNR	BER	Gain	Gain2
2025-01-09 07:17:43.67	23.35	4.07	
2025-01-09 07:17:43.87	23.37	4.08	
2025-01-09 07:17:44.08	23.38	4.10	
2025-01-09 07:17:44.28	23.39	4.11	
2025-01-09 07:17:44.49	23.41	4.13	
2025-01-09 07:17:44.69	23.42	4.14	
2025-01-09 07:17:44.90	23.43	4.15	
2025-01-09 07:17:45.10	23.45	4.17	
2025-01-09 07:17:45.30	23.46	4.18	
2025-01-09 07:17:45.51	23.47	4.19	
2025-01-09 07:17:45.71	23.49	4.21	
2025-01-09 07:17:45.92	23.50	4.22	
2025-01-09 07:17:46.13	23.51	4.23	
2025-01-09 07:17:46.33	23.53	4.25	
2025-01-09 07:17:46.54	23.54	4.26	
2025-01-09 07:17:46.74	23.56	4.27	
2025-01-09 07:17:46.94	23.57	4.29	
2025-01-09 07:17:47.15	23.58	4.30	
2025-01-09 07:17:47.36	23.60	4.32	
2025-01-09 07:17:47.56	23.61	4.33	
2025-01-09 07:17:47.77	23.62	4.34	
2025-01-09 07:17:47.97	23.64	4.36	
2025-01-09 07:17:48.17	23.65	4.37	
2025-01-09 07:17:48.38	23.66	4.38	
2025-01-09 07:17:48.59	23.68	4.40	
2025-01-09 07:17:48.79	23.69	4.41	
2025-01-09 07:17:49.01	23.71	4.42	
2025-01-09 07:17:49.21	23.72	4.44	
2025-01-09 07:17:49.42	23.73	4.45	
2025-01-09 07:17:49.62	23.75	4.47	
2025-01-09 07:17:49.83	23.76	4.48	
2025-01-09 07:17:50.03	23.77	4.49	
2025-01-09 07:17:50.24	23.79	4.51	
2025-01-09 07:17:50.45	23.80	4.52	
2025-01-09 07:17:50.65	23.82	4.53	
2025-01-09 07:17:50.86	23.83	4.55	
2025-01-09 07:17:51.06	23.84	4.56	
2025-01-09 07:17:51.27	23.86	4.58	
2025-01-09 07:17:51.47	23.87	4.59	
2025-01-09 07:17:51.68	23.89	4.60	
2025-01-09 07:17:51.89	23.90	4.62	
2025-01-09 07:17:52.09	23.91	4.63	
2025-01-09 07:17:52.29	23.93	4.64	
2025-01-09 07:17:52.50	23.94	4.66	
2025-01-09 07:17:52.70	23.96	4.67	
2025-01-09 07:17:52.91	23.97	4.69	
2025-01-09 07:17:53.12	23.98	4.70	
2025-01-09 07:17:53.32	24.00	4.71	
2025-01-09 07:17:53.52	24.01	4.73	
2025-01-09 07:17:53.73	24.03	4.74	
2025-01-09 07:17:53.93	24.04	4.75	
2025-01-09 07:17:54.14	24.05	4.77	
2025-01-09 07:17:54.34	24.07	4.78	
2025-01-09 07:17:54.55	24.08	4.80	
2025-01-09 07:17:54.76	24.10	4.81	
2025-01-09 07:17:54.96	24.11	4.82	
2025-01-09 07:17:55.17	24.12	4.84	
2025-01-09 07:17:55.37	24.14	4.85	
2025-01-09 07:17:55.57	24.15	4.86	
2025-01-09 07:17:55.78	24.17	4.88	
2025-01-09 07:17:55.99	24.18	4.89	
2025-01-09 07:17:56.19	24.19	4.91	
2025-01-09 07:17:56.40	24.21	4.92	
2025-01-09 07:17:56.60	24.22	4.93	
2025-01-09 07:17:56.81	24.24	4.95	
2025-01-09 07:17:57.01	24.25	4.96	
2025-01-09 07:17:57.22	24.27	4.98	
2025-01-09 07:17:57.43	24.28	4.99	
2025-01-09 07:17:57.63	24.29	5.00	
2025-01-09 07:17:57.83	24.31	5.02	
2025-01-09 07:17:58.04	24.32	5.03	
2025-01-09 07:17:58.25	24.34	5.05	
2025-01-09 07:17:58.45	24.35	5.06	
2025-01-09 07:17:58.65	24.37	5.07	
2025-01-09 07:17:58.86	24.38	5.09	
2025-01-09 07:17:59.06	24.39	5.10	
2025-01-09 07:17:59.27	24.41	5.12	
2025-01-09 07:17:59.47	24.42	5.13	
2025-01-09 07:17:59.68	24.44	5.14	
2025-01-09 07:17:59.88	24.45	5.16	
2025-01-09 07:18:00.09	24.47	5.17	
2025-01-09 07:18:00.29	24.48	5.19	
2025-01-09 07:18:00.50	24.50	5.20	
2025-01-09 07:18:00.72	24.51	5.21	
2025-01-09 07:18:00.92	24.53	5.23	
2025-01-09 07:18:01.13	24.54	5.24	
2025-01-09 07:18:01.34	24.56	5.26	
2025-01-09 07:18:01.54	24.57	5.27	
2025-01-09 07:18:01.74	24.58	5.28	
2025-01-09 07:18:01.95	24.60	5.30	
2025-01-09 07:18:02.15	24.61	5.31	
2025-01-09 07:18:02.36	24.63	5.33	
2025-01-09 07:18:02.56	24.64	5.34	
2025-01-09 07:18:02.77	24.66	5.36	
2025-01-09 07:18:02.97	24.67	5.37	
2025-01-09 07:18:03.18	24.69	5.38	
2025-01-09 07:18:03.38	24.70	5.40	
2025-01-09 07:18:03.59	24.72	5.41	
2025-01-09 07:18:03.80	24.73	5.43	
2025-01-09 07:18:04.00	24.74	5.44	
2025-01-09 07:18:04.20	24.76	5.45	
2025-01-09 07:18:04.41	24.77	5.47	
2025-01-09 07:18:04.61	24.79	5.48	
2025-01-09 07:18:04.82	24.80	5.50	
2025-01-09 07:18:05.02	24.82	5.51	
2025-01-09 07:18:05.23	24.83	5.52	
2025-01-09 07:18:05.44	24.85	5.54	
2025-01-09 07:18:05.64	24.86	5.55	
2025-01-09 07:18:05.85	24.88	5.57	
2025-01-09 07:18:06.05	24.89	5.58	
2025-01-09 07:18:06.26	24.91	5.60	
2025-01-09 07:18:06.47	24.92	5.61	
2025-01-09 07:18:06.67	24.94	5.62	
2025-01-09 07:18:06.88	24.95	5.64	
2025-01-09 07:18:07.08	24.97	5.65	
2025-01-09 07:18:07.29	24.98	5.67	
2025-01-09 07:18:07.49	25.00	5.68	
2025-01-09 07:18:07.70	25.01	5.70	
2025-01-09 07:18:07.90	25.03	5.71	
2025-01-09 07:18:08.11	25.04	5.72	
2025-01-09 07:18:08.31	25.06	5.74	
2025-01-09 07:18:08.52	25.07	5.75	
2025-01-09 07:18:08.72	25.09	5.77	
2025-01-09 07:18:08.93	25.10	5.78	
2025-01-09 07:18:09.13	25.12	5.80	
2025-01-09 07:18:09.35	25.13	5.81	
2025-01-09 07:18:09.55	25.15	5.83	
2025-01-09 07:18:09.76	25.16	5.84	
2025-01-09 07:18:09.97	25.18	5.85	
2025-01-09 07:18:10.17	25.19	5.87	
2025-01-09 07:18:10.37	25.21	5.88	
2025-01-09 07:18:10.58	25.22	5.90	
2025-01-09 07:18:10.78	25.24	5.91	
2025-01-09 07:18:10.99	25.26	5.93	
2025-01-09 07:18:11.19	25.27	5.94	
2025-01-09 07:18:11.40	25.29	5.95	
2025-01-09 07:18:11.60	25.30	5.97	
2025-01-09 07:18:11.81	25.32	5.98	
2025-01-09 07:18:12.01	25.33	6.00	
2025-01-09 07:18:12.22	25.35	6.01	
2025-01-09 07:18:12.42	25.36	6.03	
2025-01-09 07:18:12.63	25.38	6.04	
2025-01-09 07:18:12.83	25.39	6.06	
2025-01-09 07:18:13.04	25.41	6.07	
2025-01-09 07:18:13.24	25.42	6.08	
2025-01-09 07:18:13.45	25.44	6.10	
2025-01-09 07:18:13.65	25.45	6.11	
2025-01-09 07:18:13.86	25.47	6.13	
2025-01-09 07:18:14.06	25.48	6.14	
2025-01-09 07:18:14.27	25.50	6.16	
2025-01-09 07:18:14.47	25.52	6.17	
2025-01-09 07:18:14.68	25.53	6.19	
2025-01-09 07:18:14.88	25.55	6.20	
2025-01-09 07:18:15.09	25.56	6.21	
2025-01-09 07:18:15.29	25.58	6.23	
2025-01-09 07:18:15.50	25.59	6.24	
2025-01-09 07:18:15.70	25.61	6.26	
2025-01-09 07:18:15.90	25.62	6.27	
2025-01-09 07:18:16.11	25.64	6.29	
2025-01-09 07:18:16.32	25.66	6.30	
2025-01-09 07:18:16.52	25.67	6.32	
2025-01-09 07:18:16.73	25.69	6.33	
2025-01-09 07:18:16.93	25.70	6.35	
2025-01-09 07:18:17.14	25.72	6.36	
2025-01-09 07:18:17.34	25.73	6.37	
2025-01-09 07:18:17.55	25.75	6.39	
2025-01-09 07:18:17.75	25.77	6.40	
2025-01-09 07:18:17.96	25.78	6.42	
2025-01-09 07:18:18.16	25.80	6.43	
2025-01-09 07:18:18.37	25.81	6.45	
2025-01-09 07:18:18.57	25.83	6.46	
2025-01-09 07:18:18.78	25.84	6.48	
2025-01-09 07:18:18.98	25.86	6.49	
2025-01-09 07:18:19.19	25.88	6.51	
2025-01-09 07:18:19.39	25.89	6.52	
2025-01-09 07:18:19.60	25.91	6.54	
2025-01-09 07:18:19.81	25.92	6.55	
2025-01-09 07:18:20.01	25.94	6.57	
2025-01-09 07:18:20.22	25.96	6.58	
2025-01-09 07:18:20.42	25.97	6.60	
2025-01-09 07:18:20.63	25.99	6.61	
2025-01-09 07:18:20.83	26.00	6.62	
2025-01-09 07:18:21.04	26.02	6.64	
2025-01-09 07:18:21.24	26.04	6.65	
2025-01-09 07:18:21.45	26.05	6.67	
2025-01-09 07:18:21.65	26.07	6.68	
2025-01-09 07:18:21.86	26.08	6.70	
2025-01-09 07:18:22.06	26.10	6.71	
2025-01-09 07:18:22.27	26.12	6.73	
2025-01-09 07:18:22.47	26.13	6.74	
2025-01-09 07:18:22.68	26.15	6.76	
2025-01-09 07:18:22.88	26.16	6.77	
2025-01-09 07:18:23.09	26.18	6.79	
2025-01-09 07:18:23.29	26.20	6.80	
2025-01-09 07:18:23.50	26.21	6.82	
2025-01-09 07:18:23.70	26.23	6.83	
2025-01-09 07:18:23.91	26.25	6.85	
2025-01-09 07:18:24.11	26.26	6.86	
2025-01-09 07:18:24.32	26.28	6.88	
2025-01-09 07:18:24.52	26.29	6.89	
2025-01-09 07:18:24.73	26.31	6.91	
2025-01-09 07:18:24.93	26.33	6.92	
2025-01-09 07:18:25.14	26.34	6.94	
2025-01-09 07:18:25.34	26.36	6.95	
2025-01-09 07:18:25.55	26.38	6.97	
2025-01-09 07:18:25.76	26.39	6.98	
2025-01-09 07:18:25.96	26.41	7.00	
2025-01-09 07:18:26.17	26.43	7.01	
2025-01-09 07:18:26.37	26.44	7.03	
2025-01-09 07:18:26.58	26.46	7.04	
2025-01-09 07:18:26.78	26.47	7.06	
2025-01-09 07:18:26.99	26.49	7.07	
2025-01-09 07:18:27.19	26.51	7.09	
2025-01-09 07:18:27.40	26.52	7.10	
2025-01-09 07:18:27.60	26.54	7.12	
2025-01-09 07:18:27.81	26.56	7.13	
2025-01-09 07:18:28.01	26.57	7.15	
2025-01-09 07:18:28.22	26.59	7.16	
2025-01-09 07:18:28.42	26.61	7.18	
2025-01-09 07:18:28.62	26.62	7.19	
2025-01-09 07:18:28.83	26.64	7.21	
2025-01-09 07:18:29.04	26.66	7.22	
2025-01-09 07:18:29.24	26.67	7.24	
2025-01-09 07:18:29.45	26.69	7.25	
2025-01-09 07:18:29.65	26.71	7.27	
2025-01-09 07:18:29.86	26.72	7.28	
2025-01-09 07:18:30.06	26.74	7.30	
2025-01-09 07:18:30.27	26.76	7.31	
2025-01-09 07:18:30.48	26.78	7.33	
2025-01-09 07:18:30.69	26.79	7.34	
2025-01-09 07:18:30.90	26.81	7.36	
2025-01-09 07:18:31.10	26.83	7.37	
2025-01-09 07:18:31.31	26.84	7.39	
2025-01-09 07:18:31.51	26.86	7.40	
2025-01-09 07:18:31.72	26.88	7.42	
2025-01-09 07:18:31.92	26.89	7.43	
2025-01-09 07:18:32.13	26.91	7.45	
2025-01-09 07:18:32.34	26.93	7.46	
2025-01-09 07:18:32.54	26.94	7.48	
2025-01-09 07:18:32.74	26.96	7.49	
2025-01-09 07:18:32.95	26.98	7.51	
2025-01-09 07:18:33.15	27.00	7.52	
2025-01-09 07:18:33.36	27.01	7.54	
2025-01-09 07:18:33.57	27.03	7.56	
2025-01-09 07:18:33.77	27.05	7.57	
2025-01-09 07:18:33.98	27.06	7.59	
2025-01-09 07:18:34.18	27.08	7.60	
2025-01-09 07:18:34.39	27.10	7.62	
2025-01-09 07:18:34.59	27.12	7.63	
2025-01-09 07:18:34.80	27.13	7.65	
2025-01-09 07:18:35.00	27.15	7.66	
2025-01-09 07:18:35.21	27.17	7.68	
2025-01-09 07:18:35.41	27.18	7.69	
2025-01-09 07:18:35.62	27.20	7.71	
2025-01-09 07:18:35.83	27.22	7.72	
2025-01-09 07:18:36.03	27.24	7.74	
2025-01-09 07:18:36.23	27.25	7.75	
2025-01-09 07:18:36.44	27.27	7.77	
2025-01-09 07:18:36.65	27.29	7.79	
2025-01-09 07:18:36.85	27.31	7.80	
2025-01-09 07:18:37.07	27.32	7.82	
2025-01-09 07:18:37.28	27.34	7.83	
2025-01-09 07:18:37.48	27.36	7.85	
2025-01-09 07:18:37.69	27.38	7.86	
2025-01-09 07:18:37.89	27.39	7.88	
2025-01-09 07:18:38.10	27.41	7.89	
2025-01-09 07:18:38.30	27.43	7.91	
2025-01-09 07:18:38.51	27.45	7.93	
2025-01-09 07:18:38.71	27.46	7.94	
2025-01-09 07:18:38.92	27.48	7.96	
2025-01-09 07:18:39.12	27.50	7.97	
2025-01-09 07:18:39.33	27.52	7.99	
2025-01-09 07:18:39.53	27.53	8.00	
2025-01-09 07:18:39.74	27.55	8.02	
2025-01-09 07:18:39.94	27.57	8.03	
2025-01-09 07:18:40.15	27.59	8.05	
2025-01-09 07:18:40.35	27.61	8.06	
2025-01-09 07:18:40.56	27.62	8.08	
2025-01-09 07:18:40.76	27.64	8.10	
2025-01-09 07:18:40.97	27.66	8.11	
2025-01-09 07:18:41.17	27.68	8.13	
2025-01-09 07:18:41.38	27.69	8.14	
2025-01-09 07:18:41.58	27.71	8.16	
2025-01-09 07:18:41.79	27.73	8.17	
2025-01-09 07:18:42.00	27.75	8.19	
2025-01-09 07:18:42.20	27.77	8.20	
2025-01-09 07:18:42.40	27.78	8.22	
2025-01-09 07:18:42.61	27.80	8.24	
2025-01-09 07:18:42.82	27.82	8.25	
2025-01-09 07:18:43.02	27.84	8.27	
2025-01-09 07:18:43.23	27.86	8.28	
2025-01-09 07:18:43.43	27.87	8.30	
2025-01-09 07:18:43.63	27.89	8.31	
2025-01-09 07:18:43.84	27.91	8.33	
2025-01-09 07:18:44.04	27.93	8.35	
2025-01-09 07:18:44.25	27.95	8.36	
2025-01-09 07:18:44.45	27.96	8.38	
2025-01-09 07:18:44.66	27.98	8.39	
2025-01-09 07:18:44.86	28.00	8.41	
2025-01-09 07:18:45.07	28.02	8.42	
2025-01-09 07:18:45.28	28.04	8.44	
2025-01-09 07:18:45.48	28.05	8.46	
2025-01-09 07:18:45.68	28.07	8.47	
2025-01-09 07:18:45.89	28.09	8.49	
2025-01-09 07:18:46.10	28.11	8.50	
2025-01-09 07:18:46.30	28.13	8.52	
2025-01-09 07:18:46.50	28.14	8.53	
2025-01-09 07:18:46.70	28.16	8.55	
2025-01-09 07:18:46.91	28.18	8.57	
2025-01-09 07:18:47.12	28.20	8.58	
2025-01-09 07:18:47.32	28.22	8.60	
2025-01-09 07:18:47.53	28.24	8.61	
2025-01-09 07:18:47.73	28.25	8.63	
2025-01-09 07:18:47.94	28.27	8.64	
2025-01-09 07:18:48.14	28.29	8.66	
2025-01-09 07:18:48.35	28.31	8.68	
2025-01-09 07:18:48.55	28.33	8.69	
2025-01-09 07:18:48.76	28.35	8.71	
2025-01-09 07:18:48.96	28.37	8.72	
2025-01-09 07:18:49.17	28.38	8.74	
2025-01-09 07:18:49.38	28.40	8.76	
2025-01-09 07:18:49.58	28.42	8.77	
2025-01-09 07:18:49.80	28.44	8.79	
2025-01-09 07:18:50.01	28.46	8.81	
2025-01-09 07:18:50.21	28.48	8.82	
2025-01-09 07:18:50.42	28.50	8.84	
2025-01-09 07:18:50.62	28.52	8.85	
2025-01-09 07:18:50.83	28.54	8.87	
2025-01-09 07:18:51.03	28.55	8.88	
2025-01-09 07:18:51.24	28.57	8.90	
2025-01-09 07:18:51.44	28.59	8.92	
2025-01-09 07:18:51.65	28.61	8.93	
2025-01-09 07:18:51.85	28.63	8.95	
2025-01-09 07:18:52.06	28.65	8.96	
2025-01-09 07:18:52.26	28.67	8.98	
2025-01-09 07:18:52.47	28.69	9.00	
2025-01-09 07:18:52.68	28.71	9.01	
2025-01-09 07:18:52.88	28.72	9.03	
2025-01-09 07:18:53.08	28.74	9.04	
2025-01-09 07:18:53.29	28.76	9.06	
2025-01-09 07:18:53.50	28.78	9.08	
2025-01-09 07:18:53.70	28.80	9.09	
2025-01-09 07:18:53.91	28.82	9.11	
2025-01-09 07:18:54.11	28.84	9.13	
2025-01-09 07:18:54.31	28.86	9.14	
2025-01-09 07:18:54.52	28.88	9.16	
2025-01-09 07:18:54.73	28.90	9.17	
2025-01-09 07:18:54.93	28.91	9.19	
2025-01-09 07:18:55.13	28.93	9.21	
2025-01-09 07:18:55.34	28.95	9.22	
2025-01-09 07:18:55.54	28.97	9.24	
2025-01-09 07:18:55.75	28.99	9.25	
2025-01-09 07:18:55.95	29.01	9.27	
2025-01-09 07:18:56.16	29.03	9.29	
2025-01-09 07:18:56.36	29.05	9.30	
2025-01-09 07:18:56.57	29.07	9.32	
2025-01-09 07:18:56.77	29.09	9.34	
2025-01-09 07:18:56.98	29.11	9.35	
2025-01-09 07:18:57.18	29.13	9.37	
2025-01-09 07:18:57.39	29.15	9.38	
2025-01-09 07:18:57.59	29.16	9.40	
2025-01-09 07:18:57.80	29.18	9.42	
2025-01-09 07:18:58.00	29.20	9.43	
2025-01-09 07:18:58.21	29.22	9.45	
2025-01-09 07:18:58.41	29.24	9.47	
2025-01-09 07:18:58.62	29.26	9.48	
2025-01-09 07:18:58.82	29.28	9.50	
2025-01-09 07:18:59.03	29.30	9.51	
2025-01-09 07:18:59.24	29.32	9.53	
2025-01-09 07:18:59.44	29.34	9.55	
2025-01-09 07:18:59.65	29.36	9.56	
2025-01-09 07:18:59.85	29.38	9.58	
2025-01-09 07:19:00.06	29.40	9.60	
2025-01-09 07:19:00.26	29.42	9.61	
2025-01-09 07:19:00.46	29.44	9.63	
2025-01-09 07:19:00.67	29.46	9.65	
2025-01-09 07:19:00.88	29.48	9.66	
2025-01-09 07:19:01.08	29.50	9.68	
2025-01-09 07:19:01.29	29.52	9.70	
2025-01-09 07:19:01.49	29.54	9.71	
2025-01-09 07:19:01.70	29.56	9.73	
2025-01-09 07:19:01.90	29.58	9.74	
2025-01-09 07:19:02.11	29.60	9.76	
2025-01-09 07:19:02.31	29.62	9.78	
2025-01-09 07:19:02.52	29.64	9.79	
2025-01-09 07:19:02.72	29.66	9.81	
2025-01-09 07:19:02.93	29.68	9.83	
2025-01-09 07:19:03.13	29.70	9.84	
2025-01-09 07:19:03.34	29.72	9.86	
2025-01-09 07:19:03.54	29.74	9.88	
2025-01-09 07:19:03.75	29.76	9.89	
2025-01-09 07:19:03.95	29.78	9.91	
2025-01-09 07:19:04.16	29.80	9.93	
2025-01-09 07:19:04.36	29.82	9.94	
2025-01-09 07:19:04.57	29.84	9.96	
2025-01-09 07:19:04.77	29.86	9.98	
2025-01-09 07:19:04.97	29.88	9.99	
2025-01-09 07:19:05.18	29.90	10.01	
2025-01-09 07:19:05.38	29.92	10.02	
2025-01-09 07:19:05.59	29.94	10.04	
2025-01-09 07:19:05.79	29.96	10.06	
2025-01-09 07:19:06.00	29.98	10.08	
2025-01-09 07:19:06.20	30.00	10.09	
2025-01-09 07:19:06.41	30.02	10.11	
2025-01-09 07:19:06.61	30.04	10.12	
2025-01-09 07:19:06.82	30.06	10.14	
2025-01-09 07:19:07.02	30.08	10.16	
2025-01-09 07:19:07.23	30.10	10.18	
2025-01-09 07:19:07.43	30.12	10.19	
2025-01-09 07:19:07.64	30.14	10.21	
2025-01-09 07:19:07.84	30.16	10.22	
2025-01-09 07:19:08.05	30.19	10.24	
2025-01-09 07:19:08.25	30.21	10.26	
2025-01-09 07:19:08.46	30.23	10.28	
2025-01-09 07:19:08.66	30.25	10.29	
2025-01-09 07:19:08.87	30.27	10.31	
2025-01-09 07:19:09.07	30.29	10.33	
2025-01-09 07:19:09.28	30.31	10.34	
2025-01-09 07:19:09.48	30.33	10.36	
2025-01-09 07:19:09.69	30.35	10.38	
2025-01-09 07:19:09.89	30.37	10.39	
2025-01-09 07:19:10.10	30.39	10.41	
2025-01-09 07:19:10.30	30.41	10.43	
2025-01-09 07:19:10.51	30.43	10.44	
2025-01-09 07:19:10.71	30.46	10.46	
2025-01-09 07:19:10.92	30.48	10.48	
2025-01-09 07:19:11.12	30.50	10.49	
2025-01-09 07:19:11.33	30.52	10.51	
2025-01-09 07:19:11.53	30.54	10.53	
2025-01-09 07:19:11.74	30.56	10.54	
2025-01-09 07:19:11.94	30.58	10.56	
2025-01-09 07:19:12.15	30.60	10.58	
2025-01-09 07:19:12.35	30.62	10.60	
2025-01-09 07:19:12.56	30.65	10.61	
2025-01-09 07:19:12.76	30.67	10.63	
2025-01-09 07:19:12.97	30.69	10.65	
2025-01-09 07:19:13.17	30.71	10.66	
2025-01-09 07:19:13.38	30.73	10.68	
2025-01-09 07:19:13.58	30.75	10.70	
2025-01-09 07:19:13.79	30.77	10.71	
2025-01-09 07:19:13.99	30.79	10.73	
2025-01-09 07:19:14.20	30.82	10.75	
2025-01-09 07:19:14.40	30.84	10.77	
2025-01-09 07:19:14.61	30.86	10.78	
2025-01-09 07:19:14.82	30.88	10.80	
2025-01-09 07:19:15.02	30.90	10.82	
2025-01-09 07:19:15.23	30.92	10.83	
2025-01-09 07:19:15.43	30.94	10.85	
2025-01-09 07:19:15.64	30.97	10.87	
2025-01-09 07:19:15.84	30.99	10.89	
2025-01-09 07:19:16.05	31.01	10.90	
2025-01-09 07:19:16.25	31.03	10.92	
2025-01-09 07:19:16.46	31.05	10.94	
2025-01-09 07:19:16.66	31.07	10.95	
2025-01-09 07:19:16.87	31.10	10.97	
2025-01-09 07:19:17.08	31.12	10.99	
2025-01-09 07:19:17.28	31.14	11.01	
2025-01-09 07:19:17.49	31.16	11.02	
2025-01-09 07:19:17.69	31.18	11.04	
2025-01-09 07:19:17.90	31.21	11.06	
2025-01-09 07:19:18.11	31.23	11.08	
2025-01-09 07:19:18.31	31.25	11.09	
2025-01-09 07:19:18.52	31.27	11.11	
2025-01-09 07:19:18.72	31.29	11.13	
2025-01-09 07:19:18.93	31.32	11.14	
2025-01-09 07:19:19.13	31.34	11.16	
2025-01-09 07:19:19.34	31.36	11.18	
2025-01-09 07:19:19.54	31.38	11.20	
2025-01-09 07:19:19.75	31.40	11.21	
2025-01-09 07:19:19.95	31.43	11.23	
2025-01-09 07:19:20.16	31.45	11.25	
2025-01-09 07:19:20.36	31.47	11.27	
2025-01-09 07:19:20.57	31.49	11.28	
2025-01-09 07:19:20.79	31.52	11.30	
2025-01-09 07:19:20.99	31.54	11.32	
2025-01-09 07:19:21.20	31.56	11.34	
2025-01-09 07:19:21.40	31.58	11.35	
2025-01-09 07:19:21.61	31.60	11.37	
2025-01-09 07:19:21.82	31.63	11.39	
2025-01-09 07:19:22.02	31.65	11.41	
2025-01-09 07:19:22.23	31.67	11.42	
2025-01-09 07:19:22.43	31.69	11.44	
2025-01-09 07:19:22.64	31.72	11.46	
2025-01-09 07:19:22.84	31.74	11.48	
2025-01-09 07:19:23.05	31.76	11.49	
2025-01-09 07:19:23.25	31.78	11.51	
2025-01-09 07:19:23.46	31.81	11.53	
2025-01-09 07:19:23.67	31.83	11.55	
2025-01-09 07:19:23.87	31.85	11.56	
2025-01-09 07:19:24.08	31.88	11.58	
2025-01-09 07:19:24.28	31.90	11.60	
2025-01-09 07:19:24.49	31.92	11.62	
2025-01-09 07:19:24.69	31.94	11.63	
2025-01-09 07:19:24.90	31.97	11.65	
2025-01-09 07:19:25.12	31.99	11.67	
2025-01-09 07:19:25.32	32.01	11.69	
2025-01-09 07:19:25.53	32.04	11.71	
2025-01-09 07:19:25.73	32.06	11.72	
2025-01-09 07:19:25.94	32.08	11.74	
2025-01-09 07:19:26.15	32.11	11.76	
2025-01-09 07:19:26.36	32.13	11.78	
2025-01-09 07:19:26.56	32.15	11.79	
2025-01-09 07:19:26.77	32.18	11.81	
2025-01-09 07:19:26.97	32.20	11.83	
2025-01-09 07:19:27.19	32.22	11.85	
2025-01-09 07:19:27.40	32.25	11.87	
2025-01-09 07:19:27.61	32.27	11.88	
2025-01-09 07:19:27.81	32.29	11.90	
2025-01-09 07:19:28.02	32.32	11.92	
2025-01-09 07:19:28.22	32.34	11.94	
2025-01-09 07:19:28.43	32.36	11.96	
2025-01-09 07:19:28.63	32.39	11.97	
2025-01-09 07:19:28.84	32.41	11.99	
2025-01-09 07:19:29.04	32.43	12.01	
2025-01-09 07:19:29.24	32.46	12.03	
2025-01-09 07:19:29.45	32.48	12.04	
2025-01-09 07:19:29.66	32.50	12.06	
2025-01-09 07:19:29.86	32.53	12.08	
2025-01-09 07:19:30.07	32.55	12.10	
2025-01-09 07:19:30.27	32.57	12.12	
2025-01-09 07:19:30.48	32.60	12.13	
2025-01-09 07:19:30.68	32.62	12.15	
2025-01-09 07:19:30.89	32.64	12.17	
2025-01-09 07:19:31.09	32.67	12.19	
2025-01-09 07:19:31.30	32.69	12.21	
2025-01-09 07:19:31.52	32.72	12.22	
2025-01-09 07:19:31.72	32.74	12.24	
2025-01-09 07:19:31.93	32.76	12.26	
2025-01-09 07:19:32.13	32.79	12.28	
2025-01-09 07:19:32.34	32.81	12.30	
2025-01-09 07:19:32.56	32.84	12.32	
2025-01-09 07:19:32.76	32.86	12.33	
2025-01-09 07:19:32.97	32.89	12.35	
2025-01-09 07:19:33.17	32.91	12.37	
2025-01-09 07:19:33.38	32.93	12.39	
2025-01-09 07:19:33.58	32.96	12.40	
2025-01-09 07:19:33.79	32.98	12.42	
2025-01-09 07:19:33.99	33.00	12.44	
2025-01-09 07:19:34.20	33.03	12.46	
2025-01-09 07:19:34.40	33.05	12.48	
2025-01-09 07:19:34.60	33.08	12.49	
2025-01-09 07:19:34.81	33.10	12.51	
2025-01-09 07:19:35.01	33.12	12.53	
2025-01-09 07:19:35.22	33.15	12.55	
2025-01-09 07:19:35.43	33.17	12.57	
2025-01-09 07:19:35.63	33.20	12.59	
2025-01-09 07:19:35.83	33.22	12.60	
2025-01-09 07:19:36.04	33.25	12.62	
2025-01-09 07:19:36.25	33.27	12.64	
2025-01-09 07:19:36.45	33.30	12.66	
2025-01-09 07:19:36.66	33.32	12.68	
2025-01-09 07:19:36.86	33.34	12.69	
2025-01-09 07:19:37.06	33.37	12.71	
2025-01-09 07:19:37.27	33.39	12.73	
2025-01-09 07:19:37.47	33.42	12.75	
2025-01-09 07:19:37.68	33.44	12.77	
2025-01-09 07:19:37.90	33.47	12.79	
2025-01-09 07:19:38.10	33.49	12.80	
2025-01-09 07:19:38.31	33.52	12.82	
2025-01-09 07:19:38.51	33.54	12.84	
2025-01-09 07:19:38.72	33.57	12.86	
2025-01-09 07:19:38.92	33.59	12.88	
2025-01-09 07:19:39.13	33.62	12.90	
2025-01-09 07:19:39.33	33.64	12.91	
2025-01-09 07:19:39.54	33.67	12.93	
2025-01-09 07:19:39.74	33.69	12.95	
2025-01-09 07:19:39.95	33.72	12.97	
2025-01-09 07:19:40.15	33.74	12.99	
2025-01-09 07:19:40.36	33.77	13.01	
2025-01-09 07:19:40.56	33.79	13.02	
2025-01-09 07:19:40.77	33.82	13.04	
2025-01-09 07:19:40.97	33.84	13.06	
2025-01-09 07:19:41.18	33.87	13.08	
2025-01-09 07:19:41.38	33.89	13.10	
2025-01-09 07:19:41.59	33.92	13.12	
2025-01-09 07:19:41.79	33.94	13.13	
2025-01-09 07:19:42.00	33.97	13.15	
2025-01-09 07:19:42.20	33.99	13.17	
2025-01-09 07:19:42.41	34.02	13.19	
2025-01-09 07:19:42.61	34.04	13.21	
2025-01-09 07:19:42.82	34.07	13.23	
2025-01-09 07:19:43.02	34.09	13.25	
2025-01-09 07:19:43.23	34.12	13.26	
2025-01-09 07:19:43.43	34.15	13.28	
2025-01-09 07:19:43.64	34.17	13.30	
2025-01-09 07:19:43.84	34.20	13.32	
2025-01-09 07:19:44.05	34.22	13.34	
2025-01-09 07:19:44.25	34.25	13.36	
2025-01-09 07:19:44.46	34.27	13.38	
2025-01-09 07:19:44.66	34.30	13.39	
2025-01-09 07:19:44.86	34.32	13.41	
2025-01-09 07:19:45.07	34.35	13.43	
2025-01-09 07:19:45.28	34.38	13.45	
2025-01-09 07:19:45.49	34.40	13.47	
2025-01-09 07:19:45.70	34.43	13.49	
2025-01-09 07:19:45.90	34.46	13.51	
2025-01-09 07:19:46.11	34.48	13.53	
2025-01-09 07:19:46.31	34.51	13.54	
2025-01-09 07:19:46.52	34.53	13.56	
2025-01-09 07:19:46.72	34.56	13.58	
2025-01-09 07:19:46.93	34.59	13.60	
2025-01-09 07:19:47.13	34.61	13.62	
2025-01-09 07:19:47.34	34.64	13.64	
2025-01-09 07:19:47.54	34.66	13.66	
2025-01-09 07:19:47.75	34.69	13.68	
2025-01-09 07:19:47.95	34.72	13.69	
2025-01-09 07:19:48.16	34.74	13.71	
2025-01-09 07:19:48.36	34.77	13.73	
2025-01-09 07:19:48.57	34.80	13.75	
2025-01-09 07:19:48.77	34.82	13.77	
2025-01-09 07:19:48.98	34.85	13.79	
2025-01-09 07:19:49.18	34.87	13.81	
2025-01-09 07:19:49.39	34.90	13.83	
2025-01-09 07:19:49.59	34.93	13.84	
2025-01-09 07:19:49.80	34.95	13.86	
2025-01-09 07:19:50.00	34.98	13.88	
2025-01-09 07:19:50.21	35.01	13.90	
2025-01-09 07:19:50.41	35.03	13.92	
2025-01-09 07:19:50.61	35.06	13.94	
2025-01-09 07:19:50.82	35.09	13.96	
2025-01-09 07:19:51.02	35.11	13.98	
2025-01-09 07:19:51.23	35.14	14.00	
2025-01-09 07:19:51.43	35.17	14.01	
2025-01-09 07:19:51.65	35.20	14.03	
2025-01-09 07:19:51.86	35.22	14.05	
2025-01-09 07:19:52.06	35.25	14.07	
2025-01-09 07:19:52.26	35.28	14.09	
2025-01-09 07:19:52.47	35.30	14.11	
2025-01-09 07:19:52.68	35.33	14.13	
2025-01-09 07:19:52.88	35.36	14.15	
2025-01-09 07:19:53.09	35.39	14.17	
2025-01-09 07:19:53.29	35.41	14.19	
2025-01-09 07:19:53.50	35.44	14.21	
2025-01-09 07:19:53.70	35.47	14.22	
2025-01-09 07:19:53.91	35.49	14.24	
2025-01-09 07:19:54.11	35.52	14.26	
2025-01-09 07:19:54.32	35.55	14.28	
2025-01-09 07:19:54.52	35.58	14.30	
2025-01-09 07:19:54.73	35.60	14.32	
2025-01-09 07:19:54.93	35.63	14.34	
2025-01-09 07:19:55.14	35.66	14.36	
2025-01-09 07:19:55.34	35.69	14.38	
2025-01-09 07:19:55.55	35.71	14.40	
2025-01-09 07:19:55.75	35.74	14.42	
2025-01-09 07:19:55.96	35.77	14.44	
2025-01-09 07:19:56.16	35.80	14.45	
2025-01-09 07:19:56.36	35.82	14.47	
2025-01-09 07:19:56.57	35.85	14.49	
2025-01-09 07:19:56.77	35.88	14.51	
2025-01-09 07:19:56.98	35.91	14.53	
2025-01-09 07:19:57.18	35.93	14.55	
2025-01-09 07:19:57.39	35.96	14.57	
2025-01-09 07:19:57.59	35.99	14.59	
2025-01-09 07:19:57.80	36.02	14.61	
2025-01-09 07:19:58.01	36.05	14.63	
2025-01-09 07:19:58.21	36.08	14.65	
2025-01-09 07:19:58.42	36.10	14.67	
2025-01-09 07:19:58.62	36.13	14.69	
2025-01-09 07:19:58.83	36.16	14.70	
2025-01-09 07:19:59.03	36.19	14.72	
2025-01-09 07:19:59.25	36.22	14.74	
2025-01-09 07:19:59.45	36.25	14.76	
2025-01-09 07:19:59.66	36.27	14.78	
2025-01-09 07:19:59.86	36.30	14.80	
2025-01-09 07:20:00.07	36.33	14.82	
2025-01-09 07:20:00.27	36.36	14.84	
2025-01-09 07:20:00.48	36.39	14.86	
2025-01-09 07:20:00.68	36.42	14.88	
2025-01-09 07:20:00.89	36.45	14.90	
2025-01-09 07:20:01.09	36.47	14.92	
2025-01-09 07:20:01.30	36.50	14.94	
2025-01-09 07:20:01.51	36.53	14.96	
2025-01-09 07:20:01.72	36.56	14.98	
2025-01-09 07:20:01.93	36.59	15.00	
2025-01-09 07:20:02.13	36.62	15.02	
2025-01-09 07:20:02.34	36.65	15.04	
2025-01-09 07:20:02.54	36.68	15.06	
2025-01-09 07:20:02.75	36.71	15.08	
2025-01-09 07:20:02.95	36.73	15.10	
2025-01-09 07:20:03.16	36.76	15.12	
2025-01-09 07:20:03.36	36.79	15.14	
2025-01-09 07:20:03.56	36.82	15.15	
2025-01-09 07:20:03.77	36.85	15.17	
2025-01-09 07:20:03.98	36.88	15.19	
2025-01-09 07:20:04.18	36.91	15.21	
2025-01-09 07:20:04.39	36.94	15.23	
2025-01-09 07:20:04.59	36.97	15.25	
2025-01-09 07:20:04.80	37.00	15.27	
2025-01-09 07:20:05.00	37.03	15.29	
2025-01-09 07:20:05.21	37.06	15.31	
2025-01-09 07:20:05.41	37.08	15.33	
2025-01-09 07:20:05.62	37.11	15.35	
2025-01-09 07:20:05.82	37.14	15.37	
2025-01-09 07:20:06.03	37.17	15.39	
2025-01-09 07:20:06.24	37.20	15.41	
2025-01-09 07:20:06.44	37.23	15.43	
2025-01-09 07:20:06.65	37.26	15.45	
2025-01-09 07:20:06.85	37.29	15.47	
2025-01-09 07:20:07.06	37.32	15.49	
2025-01-09 07:20:07.26	37.35	15.51	
2025-01-09 07:20:07.47	37.38	15.53	
2025-01-09 07:20:07.67	37.41	15.55	
2025-01-09 07:20:07.87	37.44	15.57	
2025-01-09 07:20:08.08	37.47	15.59	
2025-01-09 07:20:08.29	37.50	15.61	
2025-01-09 07:20:08.49	37.53	15.63	
2025-01-09 07:20:08.70	37.56	15.65	
2025-01-09 07:20:08.90	37.59	15.67	
2025-01-09 07:20:09.11	37.62	15.69	
2025-01-09 07:20:09.31	37.65	15.71	
2025-01-09 07:20:09.52	37.68	15.73	
2025-01-09 07:20:09.72	37.71	15.75	
2025-01-09 07:20:09.93	37.74	15.77	
2025-01-09 07:20:10.13	37.77	15.79	
2025-01-09 07:20:10.34	37.80	15.81	
2025-01-09 07:20:10.54	37.83	15.83	
2025-01-09 07:20:10.75	37.86	15.85	
2025-01-09 07:20:10.95	37.89	15.87	
2025-01-09 07:20:11.16	37.93	15.89	
2025-01-09 07:20:11.36	37.96	15.91	
2025-01-09 07:20:11.57	37.99	15.93	
2025-01-09 07:20:11.77	38.02	15.95	
2025-01-09 07:20:11.98	38.05	15.97	
2025-01-09 07:20:12.18	38.08	15.99	
2025-01-09 07:20:12.39	38.11	16.01	
2025-01-09 07:20:12.59	38.14	16.03	
2025-01-09 07:20:12.80	38.17	16.05	
2025-01-09 07:20:13.01	38.20	16.07	
2025-01-09 07:20:13.21	38.23	16.09	
2025-01-09 07:20:13.42	38.26	16.11	
2025-01-09 07:20:13.62	38.30	16.13	
2025-01-09 07:20:13.83	38.33	16.15	
2025-01-09 07:20:14.03	38.36	16.17	
2025-01-09 07:20:14.24	38.39	16.19	
2025-01-09 07:20:14.44	38.42	16.21	
2025-01-09 07:20:14.65	38.45	16.23	
2025-01-09 07:20:14.85	38.48	16.25	
2025-01-09 07:20:15.06	38.51	16.27	
2025-01-09 07:20:15.26	38.55	16.29	
2025-01-09 07:20:15.47	38.58	16.31	
2025-01-09 07:20:15.67	38.61	16.33	
2025-01-09 07:20:15.88	38.64	16.35	
2025-01-09 07:20:16.08	38.67	16.37	
2025-01-09 07:20:16.28	38.70	16.39	
2025-01-09 07:20:16.49	38.73	16.41	
2025-01-09 07:20:16.70	38.77	16.43	
2025-01-09 07:20:16.90	38.80	16.45	
2025-01-09 07:20:17.11	38.83	16.47	
2025-01-09 07:20:17.31	38.86	16.49	
2025-01-09 07:20:17.52	38.89	16.52	
2025-01-09 07:20:17.72	38.93	16.53	
2025-01-09 07:20:17.93	38.96	16.56	
2025-01-09 07:20:18.13	38.99	16.58	
2025-01-09 07:20:18.34	39.02	16.60	
2025-01-09 07:20:18.54	39.05	16.62	
2025-01-09 07:20:18.75	39.09	16.64	
2025-01-09 07:20:18.95	39.12	16.66	
2025-01-09 07:20:19.16	39.15	16.68	
2025-01-09 07:20:19.36	39.18	16.70	
2025-01-09 07:20:19.57	39.22	16.72	
2025-01-09 07:20:19.77	39.25	16.74	
2025-01-09 07:20:19.98	39.28	16.76	
2025-01-09 07:20:20.18	39.31	16.78	
2025-01-09 07:20:20.39	39.35	16.80	
2025-01-09 07:20:20.59	39.38	16.82	
2025-01-09 07:20:20.80	39.41	16.84	
2025-01-09 07:20:21.00	39.44	16.86	
2025-01-09 07:20:21.21	39.48	16.88	
2025-01-09 07:20:21.41	39.51	16.90	
2025-01-09 07:20:21.62	39.54	16.92	
2025-01-09 07:20:21.82	39.57	16.94	
2025-01-09 07:20:22.03	39.61	16.97	
2025-01-09 07:20:22.24	39.64	16.99	
2025-01-09 07:20:22.44	39.67	17.01	
2025-01-09 07:20:22.65	39.71	17.03	
2025-01-09 07:20:22.85	39.74	17.05	
2025-01-09 07:20:23.05	39.77	17.07	
2025-01-09 07:20:23.26	39.81	17.09	
2025-01-09 07:20:23.47	39.84	17.11	
2025-01-09 07:20:23.67	39.87	17.13	
2025-01-09 07:20:23.89	39.91	17.15	
2025-01-09 07:20:24.10	39.94	17.17	
2025-01-09 07:20:24.30	39.97	17.19	
2025-01-09 07:20:24.51	40.01	17.22	
2025-01-09 07:20:24.71	40.04	17.24	
2025-01-09 07:20:24.91	40.07	17.26	
2025-01-09 07:20:25.12	40.11	17.28	
2025-01-09 07:20:25.32	40.14	17.30	
2025-01-09 07:20:25.53	40.18	17.32	
2025-01-09 07:20:25.74	40.21	17.34	
2025-01-09 07:20:25.94	40.24	17.36	
2025-01-09 07:20:26.15	40.28	17.38	
2025-01-09 07:20:26.35	40.31	17.40	
2025-01-09 07:20:26.56	40.35	17.42	
2025-01-09 07:20:26.76	40.38	17.44	
2025-01-09 07:20:26.97	40.41	17.46	
2025-01-09 07:20:27.17	40.45	17.49	
2025-01-09 07:20:27.38	40.48	17.51	
2025-01-09 07:20:27.58	40.52	17.53	
2025-01-09 07:20:27.79	40.55	17.55	
2025-01-09 07:20:27.99	40.58	17.57	
2025-01-09 07:20:28.20	40.62	17.59	
2025-01-09 07:20:28.40	40.65	17.61	
2025-01-09 07:20:28.61	40.69	17.63	
2025-01-09 07:20:28.81	40.72	17.65	
2025-01-09 07:20:29.02	40.76	17.67	
2025-01-09 07:20:29.22	40.79	17.69	
2025-01-09 07:20:29.43	40.83	17.72	
2025-01-09 07:20:29.64	40.86	17.74	
2025-01-09 07:20:29.84	40.90	17.76	
2025-01-09 07:20:30.05	40.93	17.78	
2025-01-09 07:20:30.25	40.97	17.80	
2025-01-09 07:20:30.46	41.00	17.82	
2025-01-09 07:20:30.66	41.04	17.84	
2025-01-09 07:20:30.86	41.07	17.86	
2025-01-09 07:20:31.07	41.11	17.88	
2025-01-09 07:20:31.27	41.14	17.90	
2025-01-09 07:20:31.48	41.18	17.93	
2025-01-09 07:20:31.69	41.21	17.95	
2025-01-09 07:20:31.89	41.25	17.97	
2025-01-09 07:20:32.10	41.28	17.99	
2025-01-09 07:20:32.30	41.32	18.01	
2025-01-09 07:20:32.51	41.35	18.03	
2025-01-09 07:20:32.71	41.39	18.05	
2025-01-09 07:20:32.92	41.42	18.07	
2025-01-09 07:20:33.12	41.46	18.09	
2025-01-09 07:20:33.33	41.49	18.12	
2025-01-09 07:20:33.53	41.53	18.14	
2025-01-09 07:20:33.73	41.56	18.16	
2025-01-09 07:20:33.94	41.60	18.18	
2025-01-09 07:20:34.15	41.64	18.20	
2025-01-09 07:20:34.35	41.67	18.22	
2025-01-09 07:20:34.56	41.71	18.24	
2025-01-09 07:20:34.76	41.74	18.26	
2025-01-09 07:20:34.97	41.78	18.29	
2025-01-09 07:20:35.17	41.82	18.31	
2025-01-09 07:20:35.38	41.85	18.33	
2025-01-09 07:20:35.60	41.89	18.35	
2025-01-09 07:20:35.80	41.93	18.37	
2025-01-09 07:20:36.01	41.96	18.39	
2025-01-09 07:20:36.21	42.00	18.41	
2025-01-09 07:20:36.42	42.04	18.44	
2025-01-09 07:20:36.62	42.07	18.46	
2025-01-09 07:20:36.83	42.11	18.48	
2025-01-09 07:20:37.03	42.15	18.50	
2025-01-09 07:20:37.24	42.18	18.52	
2025-01-09 07:20:37.44	42.22	18.54	
2025-01-09 07:20:37.64	42.25	18.56	
2025-01-09 07:20:37.85	42.29	18.59	
2025-01-09 07:20:38.05	42.33	18.61	
2025-01-09 07:20:38.26	42.37	18.63	
2025-01-09 07:20:38.46	42.40	18.65	
2025-01-09 07:20:38.67	42.44	18.67	
2025-01-09 07:20:38.87	42.48	18.69	
2025-01-09 07:20:39.08	42.51	18.71	
2025-01-09 07:20:39.29	42.55	18.74	
2025-01-09 07:20:39.49	42.59	18.76	
2025-01-09 07:20:39.70	42.63	18.78	
2025-01-09 07:20:39.90	42.66	18.80	
2025-01-09 07:20:40.11	42.70	18.82	
2025-01-09 07:20:40.31	42.74	18.84	
2025-01-09 07:20:40.52	42.78	18.86	
2025-01-09 07:20:40.72	42.81	18.89	
2025-01-09 07:20:40.93	42.85	18.91	
2025-01-09 07:20:41.13	42.89	18.93	
2025-01-09 07:20:41.34	42.93	18.95	
2025-01-09 07:20:41.54	42.96	18.97	
2025-01-09 07:20:41.75	43.00	18.99	
2025-01-09 07:20:41.95	43.04	19.01	
2025-01-09 07:20:42.16	43.08	19.04	
2025-01-09 07:20:42.36	43.11	19.06	
2025-01-09 07:20:42.57	43.15	19.08	
2025-01-09 07:20:42.78	43.19	19.10	
2025-01-09 07:20:42.98	43.23	19.12	
2025-01-09 07:20:43.19	43.27	19.15	
2025-01-09 07:20:43.39	43.31	19.17	
2025-01-09 07:20:43.60	43.34	19.19	
2025-01-09 07:20:43.80	43.38	19.21	
2025-01-09 07:20:44.01	43.42	19.23	
2025-01-09 07:20:44.21	43.46	19.25	
2025-01-09 07:20:44.42	43.50	19.27	
2025-01-09 07:20:44.62	43.54	19.30	
2025-01-09 07:20:44.83	43.58	19.32	
2025-01-09 07:20:45.03	43.61	19.34	
2025-01-09 07:20:45.24	43.65	19.36	
2025-01-09 07:20:45.44	43.69	19.38	
2025-01-09 07:20:45.65	43.73	19.41	
2025-01-09 07:20:45.85	43.77	19.43	
2025-01-09 07:20:46.06	43.81	19.45	
2025-01-09 07:20:46.26	43.85	19.47	
2025-01-09 07:20:46.47	43.89	19.49	
2025-01-09 07:20:46.68	43.93	19.51	
2025-01-09 07:20:46.88	43.96	19.54	
2025-01-09 07:20:47.09	44.00	19.56	
2025-01-09 07:20:47.29	44.04	19.58	
2025-01-09 07:20:47.50	44.08	19.60	
2025-01-09 07:20:47.70	44.12	19.62	
2025-01-09 07:20:47.91	44.16	19.65	
2025-01-09 07:20:48.12	44.20	19.67	
2025-01-09 07:20:48.32	44.24	19.69	
2025-01-09 07:20:48.52	44.28	19.71	
2025-01-09 07:20:48.73	44.32	19.73	
2025-01-09 07:20:48.93	44.36	19.75	
2025-01-09 07:20:49.14	44.40	19.78	
2025-01-09 07:20:49.34	44.44	19.80	
2025-01-09 07:20:49.55	44.48	19.82	
2025-01-09 07:20:49.75	44.52	19.84	
2025-01-09 07:20:49.96	44.56	19.86	
2025-01-09 07:20:50.17	44.60	19.89	
2025-01-09 07:20:50.37	44.64	19.91	
2025-01-09 07:20:50.57	44.68	19.93	
2025-01-09 07:20:50.78	44.72	19.95	
2025-01-09 07:20:50.99	44.76	19.97	
2025-01-09 07:20:51.19	44.80	20.00	
2025-01-09 07:20:51.40	44.84	20.02	
2025-01-09 07:20:51.61	44.88	20.04	
2025-01-09 07:20:51.82	44.93	20.06	
2025-01-09 07:20:52.02	44.97	20.08	
2025-01-09 07:20:52.23	45.01	20.11	
2025-01-09 07:20:52.44	45.05	20.13	
2025-01-09 07:20:52.64	45.09	20.15	
2025-01-09 07:20:52.85	45.13	20.17	
2025-01-09 07:20:53.05	45.17	20.19	
2025-01-09 07:20:53.25	45.21	20.22	
2025-01-09 07:20:53.46	45.25	20.24	
2025-01-09 07:20:53.66	45.29	20.26	
2025-01-09 07:20:53.87	45.33	20.28	
2025-01-09 07:20:54.07	45.37	20.30	
2025-01-09 07:20:54.28	45.42	20.33	
2025-01-09 07:20:54.49	45.46	20.35	
2025-01-09 07:20:54.69	45.50	20.37	
2025-01-09 07:20:54.90	45.54	20.39	
2025-01-09 07:20:55.10	45.58	20.42	
2025-01-09 07:20:55.31	45.63	20.44	
2025-01-09 07:20:55.51	45.67	20.46	
2025-01-09 07:20:55.72	45.71	20.48	
2025-01-09 07:20:55.92	45.75	20.50	
2025-01-09 07:20:56.13	45.79	20.53	
2025-01-09 07:20:56.34	45.84	20.55	
2025-01-09 07:20:56.54	45.88	20.57	
2025-01-09 07:20:56.75	45.92	20.59	
2025-01-09 07:20:56.95	45.96	20.61	
2025-01-09 07:20:57.16	46.00	20.64	
2025-01-09 07:20:57.36	46.04	20.66	
2025-01-09 07:20:57.57	46.09	20.68	
2025-01-09 07:20:57.78	46.13	20.70	
2025-01-09 07:20:57.98	46.17	20.73	
2025-01-09 07:20:58.18	46.21	20.75	
2025-01-09 07:20:58.39	46.26	20.77	
2025-01-09 07:20:58.59	46.30	20.79	
2025-01-09 07:20:58.80	46.34	20.81	
2025-01-09 07:20:59.00	46.38	20.84	
2025-01-09 07:20:59.21	46.43	20.86	
2025-01-09 07:20:59.41	46.47	20.88	
2025-01-09 07:20:59.62	46.51	20.90	
2025-01-09 07:20:59.82	46.56	20.93	
2025-01-09 07:21:00.03	46.60	20.95	
2025-01-09 07:21:00.23	46.64	20.97	
2025-01-09 07:21:00.44	46.69	20.99	
2025-01-09 07:21:00.64	46.73	21.01	
2025-01-09 07:21:00.85	46.77	21.04	
2025-01-09 07:21:01.05	46.82	21.06	
2025-01-09 07:21:01.26	46.86	21.08	
2025-01-09 07:21:01.46	46.90	21.10	
2025-01-09 07:21:01.67	46.95	21.13	
2025-01-09 07:21:01.87	46.99	21.15	
2025-01-09 07:21:02.08	47.03	21.17	
2025-01-09 07:21:02.28	47.08	21.19	
2025-01-09 07:21:02.49	47.12	21.22	
2025-01-09 07:21:02.69	47.16	21.24	
2025-01-09 07:21:02.90	47.21	21.26	
2025-01-09 07:21:03.10	47.25	21.28	
2025-01-09 07:21:03.30	47.30	21.30	
2025-01-09 07:21:03.51	47.34	21.33	
2025-01-09 07:21:03.72	47.39	21.35	
2025-01-09 07:21:03.92	47.43	21.37	
2025-01-09 07:21:04.13	47.48	21.39	
2025-01-09 07:21:04.33	47.52	21.42	
2025-01-09 07:21:04.53	47.56	21.44	
2025-01-09 07:21:04.74	47.61	21.46	
2025-01-09 07:21:04.94	47.65	21.48	
2025-01-09 07:21:05.15	47.70	21.51	
2025-01-09 07:21:05.36	47.74	21.53	
2025-01-09 07:21:05.56	47.79	21.55	
2025-01-09 07:21:05.77	47.83	21.57	
2025-01-09 07:21:05.97	47.88	21.60	
2025-01-09 07:21:06.18	47.92	21.62	
2025-01-09 07:21:06.38	47.97	21.64	
2025-01-09 07:21:06.58	48.01	21.66	
2025-01-09 07:21:06.79	48.06	21.68	
2025-01-09 07:21:07.00	48.10	21.71	
2025-01-09 07:21:07.20	48.15	21.73	
2025-01-09 07:21:07.41	48.19	21.75	
2025-01-09 07:21:07.61	48.24	21.77	
2025-01-09 07:21:07.82	48.28	21.80	
2025-01-09 07:21:08.02	48.33	21.82	
2025-01-09 07:21:08.23	48.38	21.84	
2025-01-09 07:21:08.43	48.42	21.86	
2025-01-09 07:21:08.65	48.47	21.89	
2025-01-09 07:21:08.86	48.52	21.91	
2025-01-09 07:21:09.06	48.56	21.93	
2025-01-09 07:21:09.27	48.61	21.96	
2025-01-09 07:21:09.47	48.65	21.98	
2025-01-09 07:21:09.68	48.70	22.00	
2025-01-09 07:21:09.88	48.75	22.02	
2025-01-09 07:21:10.09	48.79	22.05	
2025-01-09 07:21:10.30	48.84	22.07	
2025-01-09 07:21:10.50	48.89	22.09	
2025-01-09 07:21:10.70	48.93	22.11	
2025-01-09 07:21:10.91	48.98	22.14	
2025-01-09 07:21:11.11	49.02	22.16	
2025-01-09 07:21:11.32	49.07	22.18	
2025-01-09 07:21:11.53	49.12	22.20	
2025-01-09 07:21:11.73	49.17	22.23	
2025-01-09 07:21:11.93	49.21	22.25	
2025-01-09 07:21:12.14	49.26	22.27	
2025-01-09 07:21:12.35	49.31	22.29	
2025-01-09 07:21:12.55	49.35	22.32	
2025-01-09 07:21:12.76	49.40	22.34	
2025-01-09 07:21:12.98	49.45	22.36	
2025-01-09 07:21:13.18	49.50	22.39	
2025-01-09 07:21:13.39	49.55	22.41	
2025-01-09 07:21:13.59	49.59	22.43	
2025-01-09 07:21:13.80	49.64	22.45	
2025-01-09 07:21:14.02	49.69	22.48	
2025-01-09 07:21:14.22	49.74	22.50	
2025-01-09 07:21:14.43	49.79	22.52	
2025-01-09 07:21:14.64	49.84	22.55	
2025-01-09 07:21:14.84	49.89	22.57	
2025-01-09 07:21:15.05	49.94	22.59	
2025-01-09 07:21:15.25	49.98	22.61	
2025-01-09 07:21:15.46	50.03	22.64	
2025-01-09 07:21:15.66	50.08	22.66	
2025-01-09 07:21:15.87	50.13	22.68	
2025-01-09 07:21:16.07	50.18	22.70	
2025-01-09 07:21:16.28	50.22	22.73	
2025-01-09 07:21:16.48	50.27	22.75	
2025-01-09 07:21:16.69	50.32	22.77	
2025-01-09 07:21:16.89	50.37	22.79	
2025-01-09 07:21:17.09	50.42	22.82	
2025-01-09 07:21:17.30	50.47	22.84	
2025-01-09 07:21:17.50	50.51	22.86	
2025-01-09 07:21:17.71	50.56	22.88	
2025-01-09 07:21:17.91	50.61	22.91	
2025-01-09 07:21:18.12	50.66	22.93	
2025-01-09 07:21:18.32	50.71	22.95	
2025-01-09 07:21:18.53	50.76	22.97	
2025-01-09 07:21:18.73	50.81	23.00	
2025-01-09 07:21:18.94	50.86	23.02	
2025-01-09 07:21:19.14	50.91	23.04	
2025-01-09 07:21:19.35	50.96	23.06	
2025-01-09 07:21:19.55	51.01	23.09	
2025-01-09 07:21:19.76	51.06	23.11	
2025-01-09 07:21:19.96	51.11	23.13	
2025-01-09 07:21:20.17	51.16	23.15	
2025-01-09 07:21:20.37	51.21	23.18	
2025-01-09 07:21:20.58	51.26	23.20	
2025-01-09 07:21:20.78	51.31	23.22	
2025-01-09 07:21:20.99	51.36	23.25	
2025-01-09 07:21:21.19	51.41	23.27	
2025-01-09 07:21:21.40	51.46	23.29	
2025-01-09 07:21:21.60	51.51	23.31	
2025-01-09 07:21:21.81	51.56	23.34	
2025-01-09 07:21:22.01	51.61	23.36	
2025-01-09 07:21:22.22	51.66	23.38	
2025-01-09 07:21:22.42	51.71	23.40	
2025-01-09 07:21:22.63	51.76	23.43	
2025-01-09 07:21:22.83	51.81	23.45	
2025-01-09 07:21:23.03	51.86	23.47	
2025-01-09 07:21:23.24	51.91	23.49	
2025-01-09 07:21:23.45	51.96	23.52	
2025-01-09 07:21:23.65	52.01	23.54	
2025-01-09 07:21:23.85	52.06	23.56	
2025-01-09 07:21:24.06	52.12	23.58	
2025-01-09 07:21:24.26	52.17	23.61	
2025-01-09 07:21:24.47	52.22	23.63	
2025-01-09 07:21:24.67	52.27	23.65	
2025-01-09 07:21:24.88	52.32	23.67	
2025-01-09 07:21:25.08	52.37	23.70	
2025-01-09 07:21:25.29	52.43	23.72	
2025-01-09 07:21:25.49	52.48	23.74	
2025-01-09 07:21:25.70	52.53	23.76	
2025-01-09 07:21:25.90	52.58	23.79	
2025-01-09 07:21:26.11	52.63	23.81	
2025-01-09 07:21:26.31	52.68	23.83	
2025-01-09 07:21:26.52	52.74	23.85	
2025-01-09 07:21:26.72	52.79	23.88	
2025-01-09 07:21:26.92	52.84	23.90	
2025-01-09 07:21:27.13	52.89	23.92	
2025-01-09 07:21:27.33	52.94	23.94	
2025-01-09 07:21:27.54	53.00	23.97	
2025-01-09 07:21:27.74	53.05	23.99	
2025-01-09 07:21:27.95	53.10	24.01	
2025-01-09 07:21:28.15	53.16	24.03	
2025-01-09 07:21:28.36	53.21	24.06	
2025-01-09 07:21:28.56	53.26	24.08	
2025-01-09 07:21:28.77	53.32	24.10	
2025-01-09 07:21:28.97	53.37	24.12	
2025-01-09 07:21:29.18	53.42	24.15	
2025-01-09 07:21:29.38	53.47	24.17	
2025-01-09 07:21:29.59	53.53	24.19	
2025-01-09 07:21:29.80	53.58	24.21	
2025-01-09 07:21:30.00	53.63	24.24	
2025-01-09 07:21:30.21	53.69	24.26	
2025-01-09 07:21:30.41	53.74	24.28	
2025-01-09 07:21:30.62	53.80	24.30	
2025-01-09 07:21:30.83	53.85	24.33	
2025-01-09 07:21:31.03	53.90	24.35	
2025-01-09 07:21:31.24	53.96	24.37	
2025-01-09 07:21:31.44	54.01	24.39	
2025-01-09 07:21:31.65	54.07	24.42	
2025-01-09 07:21:31.85	54.12	24.44	
2025-01-09 07:21:32.06	54.18	24.46	
2025-01-09 07:21:32.26	54.23	24.48	
2025-01-09 07:21:32.47	54.29	24.51	
2025-01-09 07:21:32.67	54.34	24.53	
2025-01-09 07:21:32.88	54.39	24.55	
2025-01-09 07:21:33.09	54.45	24.58	
2025-01-09 07:21:33.29	54.50	24.60	
2025-01-09 07:21:33.50	54.56	24.62	
2025-01-09 07:21:33.70	54.61	24.64	
2025-01-09 07:21:33.91	54.67	24.67	
2025-01-09 07:21:34.11	54.72	24.69	
2025-01-09 07:21:34.31	54.78	24.71	
2025-01-09 07:21:34.52	54.83	24.73	
2025-01-09 07:21:34.73	54.89	24.75	
2025-01-09 07:21:34.93	54.94	24.78	
2025-01-09 07:21:35.14	55.00	24.80	
2025-01-09 07:21:35.34	55.06	24.82	
2025-01-09 07:21:35.55	55.11	24.84	
2025-01-09 07:21:35.75	55.17	24.87	
2025-01-09 07:21:35.96	55.22	24.89	
2025-01-09 07:21:36.16	55.28	24.91	
2025-01-09 07:21:36.36	55.33	24.93	
2025-01-09 07:21:36.57	55.39	24.96	
2025-01-09 07:21:36.78	55.45	24.98	
2025-01-09 07:21:36.98	55.50	25.00	
2025-01-09 07:21:37.19	55.56	25.02	
2025-01-09 07:21:37.39	55.62	25.05	
2025-01-09 07:21:37.60	55.67	25.07	
2025-01-09 07:21:37.80	55.73	25.09	
2025-01-09 07:21:38.01	55.79	25.11	
2025-01-09 07:21:38.22	55.84	25.14	
2025-01-09 07:21:38.42	55.90	25.16	
2025-01-09 07:21:38.63	55.96	25.18	
2025-01-09 07:21:38.83	56.01	25.20	
2025-01-09 07:21:39.04	56.07	25.22	
2025-01-09 07:21:39.24	56.13	25.25	
2025-01-09 07:21:39.45	56.19	25.27	
2025-01-09 07:21:39.65	56.24	25.29	
2025-01-09 07:21:39.86	56.30	25.31	
2025-01-09 07:21:40.07	56.36	25.34	
2025-01-09 07:21:40.27	56.42	25.36	
2025-01-09 07:21:40.48	56.48	25.38	
2025-01-09 07:21:40.68	56.53	25.40	
2025-01-09 07:21:40.88	56.59	25.42	
2025-01-09 07:21:41.09	56.65	25.45	
2025-01-09 07:21:41.29	56.70	25.47	
2025-01-09 07:21:41.50	56.76	25.49	
2025-01-09 07:21:41.70	56.82	25.51	
2025-01-09 07:21:41.91	56.88	25.53	
2025-01-09 07:21:42.11	56.94	25.56	
2025-01-09 07:21:42.32	57.00	25.58	
2025-01-09 07:21:42.52	57.05	25.60	
2025-01-09 07:21:42.73	57.11	25.62	
2025-01-09 07:21:42.93	57.17	25.64	
2025-01-09 07:21:43.14	57.23	25.67	
2025-01-09 07:21:43.34	57.29	25.69	
2025-01-09 07:21:43.55	57.35	25.71	
2025-01-09 07:21:43.75	57.41	25.73	
2025-01-09 07:21:43.97	57.47	25.76	
2025-01-09 07:21:44.18	57.53	25.78	
2025-01-09 07:21:44.38	57.59	25.80	
2025-01-09 07:21:44.59	57.65	25.82	
2025-01-09 07:21:44.80	57.71	25.85	
2025-01-09 07:21:45.00	57.77	25.87	
2025-01-09 07:21:45.21	57.83	25.89	
2025-01-09 07:21:45.41	57.89	25.91	
2025-01-09 07:21:45.62	57.95	25.93	
2025-01-09 07:21:45.82	58.01	25.95	
2025-01-09 07:21:46.03	58.07	25.98	
2025-01-09 07:21:46.23	58.13	26.00	
2025-01-09 07:21:46.44	58.19	26.02	
2025-01-09 07:21:46.65	58.25	26.04	
2025-01-09 07:21:46.85	58.31	26.06	
2025-01-09 07:21:47.05	58.37	26.09	
2025-01-09 07:21:47.26	58.43	26.11	
2025-01-09 07:21:47.47	58.49	26.13	
2025-01-09 07:21:47.67	58.55	26.15	
2025-01-09 07:21:47.88	58.61	26.17	
2025-01-09 07:21:48.08	58.67	26.20	
2025-01-09 07:21:48.29	58.73	26.22	
2025-01-09 07:21:48.49	58.79	26.24	
2025-01-09 07:21:48.70	58.85	26.26	
2025-01-09 07:21:48.90	58.91	26.28	
2025-01-09 07:21:49.11	58.98	26.30	
2025-01-09 07:21:49.31	59.04	26.33	
2025-01-09 07:21:49.52	59.10	26.35	
2025-01-09 07:21:49.73	59.16	26.37	
2025-01-09 07:21:49.93	59.22	26.39	
2025-01-09 07:21:50.14	59.29	26.41	
2025-01-09 07:21:50.34	59.35	26.43	
2025-01-09 07:21:50.55	59.41	26.46	
2025-01-09 07:21:50.75	59.47	26.48	
2025-01-09 07:21:50.96	59.53	26.50	
2025-01-09 07:21:51.16	59.59	26.52	
2025-01-09 07:21:51.37	59.66	26.54	
2025-01-09 07:21:51.57	59.72	26.56	
2025-01-09 07:21:51.78	59.78	26.59	
2025-01-09 07:21:51.98	59.84	26.61	
2025-01-09 07:21:52.19	59.91	26.63	
2025-01-09 07:21:52.39	59.97	26.65	
2025-01-09 07:21:52.60	60.03	26.67	
2025-01-09 07:21:52.80	60.09	26.69	
2025-01-09 07:21:53.01	60.16	26.72	
2025-01-09 07:21:53.22	60.22	26.74	
2025-01-09 07:21:53.42	60.28	26.76	
2025-01-09 07:21:53.62	60.34	26.78	
2025-01-09 07:21:53.83	60.41	26.80	
2025-01-09 07:21:54.04	60.47	26.82	
2025-01-09 07:21:54.24	60.54	26.84	
2025-01-09 07:21:54.45	60.60	26.87	
2025-01-09 07:21:54.65	60.66	26.89	
2025-01-09 07:21:54.85	60.72	26.91	
2025-01-09 07:21:55.06	60.79	26.93	
2025-01-09 07:21:55.27	60.85	26.95	
2025-01-09 07:21:55.47	60.92	26.97	
2025-01-09 07:21:55.69	60.99	26.99	
2025-01-09 07:21:55.89	61.05	27.01	
2025-01-09 07:21:56.10	61.11	27.04	
2025-01-09 07:21:56.30	61.18	27.06	
2025-01-09 07:21:56.51	61.24	27.08	
2025-01-09 07:21:56.71	61.31	27.10	
2025-01-09 07:21:56.92	61.37	27.12	
2025-01-09 07:21:57.12	61.43	27.14	
2025-01-09 07:21:57.33	61.50	27.16	
2025-01-09 07:21:57.54	61.57	27.18	
2025-01-09 07:21:57.74	61.63	27.20	
2025-01-09 07:21:57.94	61.69	27.22	
2025-01-09 07:21:58.15	61.76	27.25	
2025-01-09 07:21:58.36	61.83	27.27	
2025-01-09 07:21:58.56	61.89	27.29	
2025-01-09 07:21:58.76	61.95	27.31	
2025-01-09 07:21:58.97	62.02	27.33	
2025-01-09 07:21:59.18	62.09	27.35	
2025-01-09 07:21:59.38	62.15	27.37	
2025-01-09 07:21:59.59	62.22	27.39	
2025-01-09 07:21:59.79	62.28	27.41	
2025-01-09 07:22:00.00	62.35	27.43	
2025-01-09 07:22:00.21	62.42	27.46	
2025-01-09 07:22:00.42	62.49	27.48	
2025-01-09 07:22:00.62	62.55	27.50	
2025-01-09 07:22:00.83	62.62	27.52	
2025-01-09 07:22:01.04	62.69	27.54	
2025-01-09 07:22:01.24	62.75	27.56	
2025-01-09 07:22:01.45	62.82	27.58	
2025-01-09 07:22:01.65	62.88	27.60	
2025-01-09 07:22:01.86	62.95	27.62	
2025-01-09 07:22:02.08	63.02	27.64	
2025-01-09 07:22:02.28	63.09	27.66	
2025-01-09 07:22:02.48	63.15	27.68	
2025-01-09 07:22:02.69	63.22	27.70	
2025-01-09 07:22:02.89	63.29	27.72	
2025-01-09 07:22:03.10	63.36	27.75	
2025-01-09 07:22:03.30	63.42	27.77	
2025-01-09 07:22:03.51	63.49	27.79	
2025-01-09 07:22:03.71	63.56	27.81	
2025-01-09 07:22:03.92	63.62	27.83	
2025-01-09 07:22:04.12	63.69	27.85	
2025-01-09 07:22:04.33	63.76	27.87	
2025-01-09 07:22:04.54	63.83	27.89	
2025-01-09 07:22:04.74	63.90	27.91	
2025-01-09 07:22:04.95	63.96	27.93	
2025-01-09 07:22:05.15	64.03	27.95	
2025-01-09 07:22:05.35	64.10	27.97	
2025-01-09 07:22:05.56	64.17	27.99	
2025-01-09 07:22:05.77	64.24	28.01	
2025-01-09 07:22:05.97	64.30	28.03	
2025-01-09 07:22:06.18	64.37	28.05	
2025-01-09 07:22:06.38	64.44	28.07	
2025-01-09 07:22:06.58	64.51	28.09	
2025-01-09 07:22:06.79	64.58	28.11	
2025-01-09 07:22:07.00	64.65	28.13	
2025-01-09 07:22:07.20	64.72	28.15	
2025-01-09 07:22:07.40	64.78	28.17	
2025-01-09 07:22:07.61	64.85	28.19	
2025-01-09 07:22:07.82	64.92	28.21	
2025-01-09 07:22:08.02	64.99	28.23	
2025-01-09 07:22:08.23	65.06	28.25	
2025-01-09 07:22:08.43	65.13	28.27	
2025-01-09 07:22:08.64	65.20	28.29	
2025-01-09 07:22:08.84	65.27	28.31	
2025-01-09 07:22:09.05	65.34	28.33	
2025-01-09 07:22:09.25	65.41	28.35	
2025-01-09 07:22:09.45	65.48	28.37	
2025-01-09 07:22:09.66	65.55	28.39	
2025-01-09 07:22:09.87	65.62	28.41	
2025-01-09 07:22:10.07	65.69	28.42	
2025-01-09 07:22:10.28	65.76	28.44	
2025-01-09 07:22:10.48	65.83	28.46	
2025-01-09 07:22:10.68	65.90	28.48	
2025-01-09 07:22:10.89	65.97	28.50	
2025-01-09 07:22:11.09	66.04	28.52	
2025-01-09 07:22:11.30	66.11	28.54	
2025-01-09 07:22:11.50	66.18	28.56	
2025-01-09 07:22:11.71	66.25	28.58	
2025-01-09 07:22:11.91	66.32	28.60	
2025-01-09 07:22:12.12	66.39	28.62	
2025-01-09 07:22:12.32	66.46	28.64	
2025-01-09 07:22:12.53	66.54	28.66	
2025-01-09 07:22:12.73	66.61	28.67	
2025-01-09 07:22:12.94	66.68	28.69	
2025-01-09 07:22:13.14	66.75	28.71	
2025-01-09 07:22:13.35	66.82	28.73	
2025-01-09 07:22:13.55	66.89	28.75	
2025-01-09 07:22:13.76	66.96	28.77	
2025-01-09 07:22:13.96	67.03	28.79	
2025-01-09 07:22:14.17	67.11	28.81	
2025-01-09 07:22:14.37	67.18	28.83	
2025-01-09 07:22:14.58	67.25	28.85	
2025-01-09 07:22:14.78	67.32	28.86	
2025-01-09 07:22:14.98	67.39	28.88	
2025-01-09 07:22:15.19	67.47	28.90	
2025-01-09 07:22:15.39	67.54	28.92	
2025-01-09 07:22:15.60	67.61	28.94	
2025-01-09 07:22:15.80	67.68	28.96	
2025-01-09 07:22:16.01	67.76	28.98	
2025-01-09 07:22:16.21	67.83	28.99	
2025-01-09 07:22:16.42	67.90	29.01	
2025-01-09 07:22:16.62	67.97	29.03	
2025-01-09 07:22:16.83	68.05	29.05	
2025-01-09 07:22:17.03	68.12	29.07	
2025-01-09 07:22:17.24	68.19	29.09	
2025-01-09 07:22:17.44	68.27	29.10	
2025-01-09 07:22:17.65	68.34	29.12	
2025-01-09 07:22:17.86	68.42	29.14	
2025-01-09 07:22:18.06	68.49	29.16	
2025-01-09 07:22:18.26	68.56	29.18	
2025-01-09 07:22:18.47	68.63	29.20	
2025-01-09 07:22:18.67	68.71	29.21	
2025-01-09 07:22:18.88	68.78	29.23	
2025-01-09 07:22:19.08	68.85	29.25	
2025-01-09 07:22:19.29	68.93	29.27	
2025-01-09 07:22:19.49	69.00	29.29	
2025-01-09 07:22:19.70	69.08	29.30	
2025-01-09 07:22:19.90	69.15	29.32	
2025-01-09 07:22:20.11	69.23	29.34	
2025-01-09 07:22:20.31	69.30	29.36	
2025-01-09 07:22:20.52	69.38	29.38	
2025-01-09 07:22:20.72	69.45	29.39	
2025-01-09 07:22:20.93	69.52	29.41	
2025-01-09 07:22:21.13	69.60	29.43	
2025-01-09 07:22:21.34	69.67	29.45	
2025-01-09 07:22:21.54	69.75	29.46	
2025-01-09 07:22:21.75	69.82	29.48	
2025-01-09 07:22:21.95	69.90	29.50	
2025-01-09 07:22:22.16	69.97	29.52	
2025-01-09 07:22:22.36	70.05	29.53	
2025-01-09 07:22:22.57	70.12	29.55	
2025-01-09 07:22:22.77	70.20	29.57	
2025-01-09 07:22:22.98	70.28	29.59	
2025-01-09 07:22:23.18	70.35	29.60	
2025-01-09 07:22:23.39	70.43	29.62	
2025-01-09 07:22:23.60	70.50	29.64	
2025-01-09 07:22:23.80	70.58	29.65	
2025-01-09 07:22:24.01	70.66	29.67	
2025-01-09 07:22:24.21	70.73	29.69	
2025-01-09 07:22:24.42	70.81	29.71	
2025-01-09 07:22:24.62	70.88	29.72	
2025-01-09 07:22:24.83	70.96	29.74	
2025-01-09 07:22:25.03	71.03	29.76	
2025-01-09 07:22:25.24	71.11	29.77	
2025-01-09 07:22:25.44	71.19	29.79	
2025-01-09 07:22:25.65	71.27	29.81	
2025-01-09 07:22:25.85	71.34	29.82	
2025-01-09 07:22:26.06	71.42	29.84	
2025-01-09 07:22:26.26	71.49	29.86	
2025-01-09 07:22:26.47	71.57	29.87	
2025-01-09 07:22:26.67	71.65	29.89	
2025-01-09 07:22:26.88	71.73	29.91	
2025-01-09 07:22:27.08	71.80	29.92	
2025-01-09 07:22:27.29	71.88	29.94	
2025-01-09 07:22:27.49	71.96	29.96	
2025-01-09 07:22:27.70	72.04	29.97	
2025-01-09 07:22:27.90	72.11	29.99	
2025-01-09 07:22:28.11	72.19	30.00	
2025-01-09 07:22:28.31	72.27	30.02	
2025-01-09 07:22:28.52	72.35	30.04	
2025-01-09 07:22:28.72	72.42	30.05	
2025-01-09 07:22:28.93	72.50	30.07	
2025-01-09 07:22:29.13	72.58	30.08	
2025-01-09 07:22:29.34	72.66	30.10	
2025-01-09 07:22:29.55	72.74	30.12	
2025-01-09 07:22:29.75	72.81	30.13	
2025-01-09 07:22:29.95	72.89	30.15	
2025-01-09 07:22:30.16	72.97	30.16	
2025-01-09 07:22:30.36	73.05	30.18	
2025-01-09 07:22:30.57	73.13	30.20	
2025-01-09 07:22:30.77	73.20	30.21	
2025-01-09 07:22:30.98	73.28	30.23	
2025-01-09 07:22:31.18	73.36	30.24	
2025-01-09 07:22:31.39	73.44	30.26	
2025-01-09 07:22:31.59	73.52	30.27	
2025-01-09 07:22:31.80	73.60	30.29	
2025-01-09 07:22:32.00	73.68	30.30	
2025-01-09 07:22:32.21	73.76	30.32	
2025-01-09 07:22:32.42	73.84	30.33	
2025-01-09 07:22:32.62	73.91	30.35	
2025-01-09 07:22:32.82	73.99	30.36	
2025-01-09 07:22:33.03	74.07	30.38	
2025-01-09 07:22:33.24	74.15	30.40	
2025-01-09 07:22:33.44	74.23	30.41	
2025-01-09 07:22:33.65	74.31	30.43	
2025-01-09 07:22:33.85	74.39	30.44	
2025-01-09 07:22:34.05	74.47	30.45	
2025-01-09 07:22:34.26	74.55	30.47	
2025-01-09 07:22:34.46	74.63	30.48	
2025-01-09 07:22:34.67	74.71	30.50	
2025-01-09 07:22:34.88	74.79	30.51	
2025-01-09 07:22:35.08	74.87	30.53	
2025-01-09 07:22:35.29	74.95	30.54	
2025-01-09 07:22:35.49	75.03	30.56	
2025-01-09 07:22:35.70	75.11	30.57	
2025-01-09 07:22:35.90	75.19	30.59	
2025-01-09 07:22:36.11	75.27	30.60	
2025-01-09 07:22:36.31	75.35	30.61	
2025-01-09 07:22:36.52	75.44	30.63	
2025-01-09 07:22:36.72	75.51	30.64	
2025-01-09 07:22:36.93	75.60	30.66	
2025-01-09 07:22:37.13	75.68	30.67	
2025-01-09 07:22:37.34	75.76	30.69	
2025-01-09 07:22:37.54	75.84	30.70	
2025-01-09 07:22:37.75	75.92	30.71	
2025-01-09 07:22:37.95	76.00	30.73	
2025-01-09 07:22:38.16	76.08	30.74	
2025-01-09 07:22:38.36	76.16	30.75	
2025-01-09 07:22:38.57	76.25	30.77	
2025-01-09 07:22:38.77	76.33	30.78	
2025-01-09 07:22:38.98	76.41	30.80	
2025-01-09 07:22:39.18	76.49	30.81	
2025-01-09 07:22:39.39	76.57	30.82	
2025-01-09 07:22:39.59	76.65	30.84	
2025-01-09 07:22:39.80	76.74	30.85	
2025-01-09 07:22:40.00	76.82	30.86	
2025-01-09 07:22:40.21	76.90	30.88	
2025-01-09 07:22:40.41	76.98	30.89	
2025-01-09 07:22:40.62	77.06	30.90	
2025-01-09 07:22:40.82	77.14	30.92	
2025-01-09 07:22:41.03	77.23	30.93	
2025-01-09 07:22:41.23	77.31	30.94	
2025-01-09 07:22:41.44	77.39	30.95	
2025-01-09 07:22:41.64	77.47	30.97	
2025-01-09 07:22:41.85	77.56	30.98	
2025-01-09 07:22:42.05	77.64	30.99	
2025-01-09 07:22:42.26	77.72	31.01	
2025-01-09 07:22:42.46	77.80	31.02	
2025-01-09 07:22:42.67	77.89	31.03	
2025-01-09 07:22:42.87	77.97	31.04	
2025-01-09 07:22:43.08	78.05	31.06	
2025-01-09 07:22:43.28	78.13	31.07	
2025-01-09 07:22:43.49	78.22	31.08	
2025-01-09 07:22:43.69	78.30	31.09	
2025-01-09 07:22:43.90	78.39	31.10	
2025-01-09 07:22:44.10	78.47	31.12	
2025-01-09 07:22:44.31	78.55	31.13	
2025-01-09 07:22:44.51	78.63	31.14	
2025-01-09 07:22:44.72	78.72	31.15	
2025-01-09 07:22:44.92	78.80	31.16	
2025-01-09 07:22:45.13	78.89	31.18	
2025-01-09 07:22:45.33	78.97	31.19	
2025-01-09 07:22:45.54	79.05	31.20	
2025-01-09 07:22:45.74	79.13	31.21	
2025-01-09 07:22:45.95	79.22	31.22	
2025-01-09 07:22:46.15	79.30	31.24	
2025-01-09 07:22:46.36	79.39	31.25	
2025-01-09 07:22:46.56	79.47	31.26	
2025-01-09 07:22:46.77	79.56	31.27	
2025-01-09 07:22:46.97	79.64	31.28	
2025-01-09 07:22:47.18	79.72	31.29	
2025-01-09 07:22:47.38	79.81	31.30	
2025-01-09 07:22:47.59	79.89	31.32	
2025-01-09 07:22:47.79	79.97	31.33	
2025-01-09 07:22:48.00	80.06	31.34	
2025-01-09 07:22:48.20	80.14	31.35	
2025-01-09 07:22:48.41	80.23	31.36	
2025-01-09 07:22:48.61	80.31	31.37	
2025-01-09 07:22:48.82	80.40	31.38	
2025-01-09 07:22:49.02	80.48	31.39	
2025-01-09 07:22:49.22	80.56	31.40	
2025-01-09 07:22:49.43	80.65	31.41	
2025-01-09 07:22:49.64	80.74	31.42	
2025-01-09 07:22:49.84	80.82	31.43	
2025-01-09 07:22:50.05	80.91	31.44	
2025-01-09 07:22:50.25	80.99	31.45	
2025-01-09 07:22:50.46	81.08	31.46	
2025-01-09 07:22:50.66	81.16	31.47	
2025-01-09 07:22:50.87	81.25	31.49	
2025-01-09 07:22:51.07	81.33	31.50	
2025-01-09 07:22:51.28	81.42	31.51	
2025-01-09 07:22:51.48	81.50	31.52	
2025-01-09 07:22:51.69	81.59	31.53	
2025-01-09 07:22:51.91	81.68	31.54	
2025-01-09 07:22:52.11	81.76	31.55	
2025-01-09 07:22:52.31	81.85	31.55	
2025-01-09 07:22:52.52	81.93	31.56	
2025-01-09 07:22:52.73	82.02	31.57	
2025-01-09 07:22:52.93	82.11	31.58	
2025-01-09 07:22:53.14	82.19	31.59	
2025-01-09 07:22:53.34	82.28	31.60	
2025-01-09 07:22:53.55	82.36	31.61	
2025-01-09 07:22:53.75	82.45	31.62	
2025-01-09 07:22:53.96	82.54	31.63	
2025-01-09 07:22:54.16	82.62	31.64	
2025-01-09 07:22:54.37	82.71	31.65	
2025-01-09 07:22:54.57	82.79	31.66	
2025-01-09 07:22:54.78	82.88	31.67	
2025-01-09 07:22:54.98	82.96	31.68	
2025-01-09 07:22:55.19	83.05	31.68	
2025-01-09 07:22:55.39	83.14	31.69	
2025-01-09 07:22:55.60	83.23	31.70	
2025-01-09 07:22:55.80	83.31	31.71	
2025-01-09 07:22:56.01	83.40	31.72	
2025-01-09 07:22:56.21	83.48	31.73	
2025-01-09 07:22:56.42	83.57	31.74	
2025-01-09 07:22:56.62	83.66	31.74	
2025-01-09 07:22:56.83	83.74	31.75	
2025-01-09 07:22:57.03	83.83	31.76	
2025-01-09 07:22:57.24	83.92	31.77	
2025-01-09 07:22:57.44	84.00	31.78	
2025-01-09 07:22:57.65	84.09	31.78	
2025-01-09 07:22:57.85	84.18	31.79	
2025-01-09 07:22:58.06	84.27	31.80	
2025-01-09 07:22:58.26	84.35	31.81	
2025-01-09 07:22:58.46	84.43	31.82	
2025-01-09 07:22:58.67	84.52	31.82	
2025-01-09 07:22:58.88	84.61	31.83	
2025-01-09 07:22:59.08	84.70	31.84	
2025-01-09 07:22:59.29	84.79	31.85	
2025-01-09 07:22:59.49	84.87	31.85	
2025-01-09 07:22:59.69	84.96	31.86	
2025-01-09 07:22:59.90	85.05	31.87	
2025-01-09 07:23:00.11	85.14	31.88	
2025-01-09 07:23:00.32	85.23	31.88	
2025-01-09 07:23:00.52	85.31	31.89	
2025-01-09 07:23:00.73	85.40	31.90	
2025-01-09 07:23:00.94	85.49	31.90	
2025-01-09 07:23:01.14	85.58	31.91	
2025-01-09 07:23:01.35	85.66	31.92	
2025-01-09 07:23:01.55	85.75	31.92	
2025-01-09 07:23:01.76	85.84	31.93	
2025-01-09 07:23:01.96	85.93	31.94	
2025-01-09 07:23:02.16	86.01	31.94	
2025-01-09 07:23:02.37	86.10	31.95	
2025-01-09 07:23:02.58	86.19	31.96	
2025-01-09 07:23:02.78	86.28	31.96	
2025-01-09 07:23:02.99	86.37	31.97	
2025-01-09 07:23:03.19	86.45	31.98	
2025-01-09 07:23:03.40	86.54	31.98	
2025-01-09 07:23:03.61	86.63	31.99	
2025-01-09 07:23:03.81	86.72	31.99	
2025-01-09 07:23:04.01	86.80	32.00	
2025-01-09 07:23:04.22	86.89	32.01	
2025-01-09 07:23:04.43	86.98	32.01	
2025-01-09 07:23:04.63	87.07	32.02	
2025-01-09 07:23:04.84	87.16	32.02	
2025-01-09 07:23:05.04	87.25	32.03	
2025-01-09 07:23:05.25	87.34	32.03	
2025-01-09 07:23:05.45	87.42	32.04	
2025-01-09 07:23:05.66	87.51	32.04	
2025-01-09 07:23:05.86	87.60	32.05	
2025-01-09 07:23:06.07	87.69	32.05	
2025-01-09 07:23:06.27	87.78	32.06	
2025-01-09 07:23:06.48	87.87	32.06	
2025-01-09 07:23:06.69	87.96	32.07	
2025-01-09 07:23:06.89	88.04	32.07	
2025-01-09 07:23:07.11	88.14	32.08	
2025-01-09 07:23:07.32	88.23	32.08	
2025-01-09 07:23:07.52	88.31	32.09	
2025-01-09 07:23:07.73	88.40	32.09	
2025-01-09 07:23:07.93	88.49	32.10	
2025-01-09 07:23:08.13	88.58	32.10	
2025-01-09 07:23:08.34	88.67	32.11	
2025-01-09 07:23:08.55	88.76	32.11	
2025-01-09 07:23:08.75	88.85	32.11	
2025-01-09 07:23:08.95	88.93	32.12	
2025-01-09 07:23:09.16	89.02	32.12	
2025-01-09 07:23:09.36	89.11	32.13	
2025-01-09 07:23:09.57	89.20	32.13	
2025-01-09 07:23:09.77	89.29	32.13	
2025-01-09 07:23:09.97	89.37	32.14	
2025-01-09 07:23:10.18	89.46	32.14	
2025-01-09 07:23:10.38	89.55	32.15	
2025-01-09 07:23:10.59	89.64	32.15	
2025-01-09 07:23:10.79	89.73	32.15	
2025-01-09 07:23:11.00	89.82	32.16	
2025-01-09 07:23:11.20	89.91	32.16	
2025-01-09 07:23:11.41	90.00	32.16	
2025-01-09 07:23:11.61	90.08	32.17	
2025-01-09 07:23:11.82	90.18	32.17	
2025-01-09 07:23:12.02	90.26	32.17	
2025-01-09 07:23:12.23	90.35	32.17	
2025-01-09 07:23:12.43	90.44	32.18	
2025-01-09 07:23:12.64	90.53	32.18	
2025-01-09 07:23:12.84	90.62	32.18	
2025-01-09 07:23:13.05	90.71	32.19	
2025-01-09 07:23:13.25	90.80	32.19	
2025-01-09 07:23:13.46	90.89	32.19	
2025-01-09 07:23:13.66	90.97	32.19	
2025-01-09 07:23:13.87	91.07	32.20	
2025-01-09 07:23:14.07	91.15	32.20	
2025-01-09 07:23:14.28	91.24	32.20	
2025-01-09 07:23:14.48	91.33	32.20	
2025-01-09 07:23:14.69	91.42	32.20	
2025-01-09 07:23:14.89	91.51	32.21	
2025-01-09 07:23:15.10	91.60	32.21	
2025-01-09 07:23:15.31	91.69	32.21	
2025-01-09 07:23:15.51	91.78	32.21	
2025-01-09 07:23:15.71	91.87	32.21	
2025-01-09 07:23:15.92	91.96	32.22	
2025-01-09 07:23:16.13	92.05	32.22	
2025-01-09 07:23:16.33	92.14	32.22	
2025-01-09 07:23:16.54	92.23	32.22	
2025-01-09 07:23:16.74	92.31	32.22	
2025-01-09 07:23:16.94	92.40	32.22	
2025-01-09 07:23:17.16	92.50	32.22	
2025-01-09 07:23:17.36	92.58	32.23	
2025-01-09 07:23:17.57	92.68	32.23	
2025-01-09 07:23:17.79	92.77	32.23	
2025-01-09 07:23:17.99	92.86	32.23	
2025-01-09 07:23:18.20	92.95	32.23	
2025-01-09 07:23:18.40	93.04	32.23	
2025-01-09 07:23:18.61	93.13	32.23	
2025-01-09 07:23:18.82	93.22	32.23	
2025-01-09 07:23:19.03	93.31	32.23	
2025-01-09 07:23:19.24	93.40	32.23	
2025-01-09 07:23:19.44	93.49	32.23	
2025-01-09 07:23:19.65	93.58	32.23	
2025-01-09 07:23:19.85	93.67	32.23	
2025-01-09 07:23:20.06	93.76	32.23	
2025-01-09 07:23:20.26	93.85	32.23	
2025-01-09 07:23:20.47	93.94	32.23	
2025-01-09 07:23:20.67	94.03	32.23	
2025-01-09 07:23:20.88	94.12	32.23	
2025-01-09 07:23:21.08	94.20	32.23	
2025-01-09 07:23:21.29	94.30	32.23	
2025-01-09 07:23:21.50	94.39	32.23	
2025-01-09 07:23:21.70	94.47	32.23	
2025-01-09 07:23:21.90	94.56	32.23	
2025-01-09 07:23:22.11	94.65	32.23	
2025-01-09 07:23:22.31	94.74	32.23	
2025-01-09 07:23:22.52	94.83	32.23	
2025-01-09 07:23:22.72	94.92	32.23	
2025-01-09 07:23:22.93	95.01	32.23	
2025-01-09 07:23:23.13	95.10	32.23	
2025-01-09 07:23:23.34	95.19	32.23	
2025-01-09 07:23:23.54	95.28	32.22	
2025-01-09 07:23:23.75	95.37	32.22	
2025-01-09 07:23:23.95	95.45	32.22	
2025-01-09 07:23:24.16	95.55	32.22	
2025-01-09 07:23:24.36	95.63	32.22	
2025-01-09 07:23:24.57	95.72	32.22	
2025-01-09 07:23:24.77	95.81	32.22	
2025-01-09 07:23:24.98	95.90	32.21	
2025-01-09 07:23:25.18	95.99	32.21	
2025-01-09 07:23:25.39	96.08	32.21	
2025-01-09 07:23:25.59	96.17	32.21	
