passes_logs/2025/01/09/SPB_Silybum_02/SPB_Silybum_02__20250109_011637_AQUA_rec.log

#Pass ID: 20250109_011637_AQUA
#Satellite: AQUA
#Configuration: AQUA
#Start time: 2025-01-09 01:16:38

#Version: 2.0.20230423
#Station: SPB_Silybum_02
#Location: 30.233357 lon 59.946436 lat
#TLE: 1 27424U 02022A   25008.15498937  .00002389  00000+0  50057-3 0  9997
#TLE: 2 27424  98.3576 324.7578 0001462 118.2546 298.6643 14.60656725206621

#Time	Az	El	Level	Level2	SNR	BER	Gain	Gain2
2025-01-09 01:16:40.29	17.49	4.20	
2025-01-09 01:16:40.50	17.49	4.22	
2025-01-09 01:16:40.71	17.49	4.23	
2025-01-09 01:16:40.92	17.49	4.25	
2025-01-09 01:16:41.13	17.50	4.26	
2025-01-09 01:16:41.33	17.50	4.28	
2025-01-09 01:16:41.54	17.50	4.29	
2025-01-09 01:16:41.74	17.50	4.31	
2025-01-09 01:16:41.95	17.50	4.32	
2025-01-09 01:16:42.15	17.50	4.34	
2025-01-09 01:16:42.36	17.50	4.35	
2025-01-09 01:16:42.56	17.51	4.37	
2025-01-09 01:16:42.77	17.51	4.38	
2025-01-09 01:16:42.99	17.51	4.40	
2025-01-09 01:16:43.19	17.51	4.41	
2025-01-09 01:16:43.40	17.51	4.43	
2025-01-09 01:16:43.60	17.51	4.44	
2025-01-09 01:16:43.81	17.51	4.46	
2025-01-09 01:16:44.03	17.51	4.47	
2025-01-09 01:16:44.23	17.52	4.49	
2025-01-09 01:16:44.44	17.52	4.50	
2025-01-09 01:16:44.65	17.52	4.52	
2025-01-09 01:16:44.85	17.52	4.53	
2025-01-09 01:16:45.05	17.52	4.55	
2025-01-09 01:16:45.26	17.52	4.56	
2025-01-09 01:16:45.46	17.52	4.58	
2025-01-09 01:16:45.67	17.52	4.59	
2025-01-09 01:16:45.88	17.53	4.61	
2025-01-09 01:16:46.08	17.53	4.62	
2025-01-09 01:16:46.28	17.53	4.64	
2025-01-09 01:16:46.49	17.53	4.65	
2025-01-09 01:16:46.69	17.53	4.67	
2025-01-09 01:16:46.90	17.53	4.68	
2025-01-09 01:16:47.10	17.53	4.70	
2025-01-09 01:16:47.31	17.53	4.71	
2025-01-09 01:16:47.51	17.54	4.73	
2025-01-09 01:16:47.72	17.54	4.74	
2025-01-09 01:16:47.92	17.54	4.76	
2025-01-09 01:16:48.12	17.54	4.77	
2025-01-09 01:16:48.33	17.54	4.79	
2025-01-09 01:16:48.54	17.54	4.80	
2025-01-09 01:16:48.75	17.54	4.82	
2025-01-09 01:16:48.96	17.55	4.83	
2025-01-09 01:16:49.16	17.55	4.85	
2025-01-09 01:16:49.37	17.55	4.86	
2025-01-09 01:16:49.57	17.55	4.88	
2025-01-09 01:16:49.77	17.55	4.89	
2025-01-09 01:16:49.98	17.55	4.91	
2025-01-09 01:16:50.19	17.55	4.93	
2025-01-09 01:16:50.40	17.55	4.94	
2025-01-09 01:16:50.60	17.56	4.96	
2025-01-09 01:16:50.81	17.56	4.97	
2025-01-09 01:16:51.02	17.56	4.99	
2025-01-09 01:16:51.23	17.56	5.00	
2025-01-09 01:16:51.44	17.56	5.02	
2025-01-09 01:16:51.64	17.56	5.03	
2025-01-09 01:16:51.85	17.56	5.05	
2025-01-09 01:16:52.06	17.56	5.06	
2025-01-09 01:16:52.27	17.57	5.08	
2025-01-09 01:16:52.47	17.57	5.10	
2025-01-09 01:16:52.68	17.57	5.11	
2025-01-09 01:16:52.88	17.57	5.13	
2025-01-09 01:16:53.09	17.57	5.14	
2025-01-09 01:16:53.30	17.57	5.16	
2025-01-09 01:16:53.50	17.57	5.17	
2025-01-09 01:16:53.71	17.58	5.19	
2025-01-09 01:16:53.91	17.58	5.20	
2025-01-09 01:16:54.13	17.58	5.22	
2025-01-09 01:16:54.34	17.58	5.24	
2025-01-09 01:16:54.55	17.58	5.25	
2025-01-09 01:16:54.75	17.58	5.27	
2025-01-09 01:16:54.95	17.58	5.28	
2025-01-09 01:16:55.16	17.58	5.30	
2025-01-09 01:16:55.37	17.59	5.31	
2025-01-09 01:16:55.57	17.59	5.33	
2025-01-09 01:16:55.78	17.59	5.34	
2025-01-09 01:16:55.99	17.59	5.36	
2025-01-09 01:16:56.19	17.59	5.37	
2025-01-09 01:16:56.40	17.59	5.39	
2025-01-09 01:16:56.61	17.59	5.41	
2025-01-09 01:16:56.82	17.60	5.42	
2025-01-09 01:16:57.02	17.60	5.44	
2025-01-09 01:16:57.22	17.60	5.45	
2025-01-09 01:16:57.43	17.60	5.47	
2025-01-09 01:16:57.64	17.60	5.48	
2025-01-09 01:16:57.84	17.60	5.50	
2025-01-09 01:16:58.05	17.60	5.52	
2025-01-09 01:16:58.26	17.60	5.53	
2025-01-09 01:16:58.47	17.61	5.55	
2025-01-09 01:16:58.67	17.61	5.56	
2025-01-09 01:16:58.87	17.61	5.58	
2025-01-09 01:16:59.08	17.61	5.59	
2025-01-09 01:16:59.29	17.61	5.61	
2025-01-09 01:16:59.50	17.61	5.63	
2025-01-09 01:16:59.71	17.61	5.64	
2025-01-09 01:16:59.92	17.62	5.66	
2025-01-09 01:17:00.12	17.62	5.67	
2025-01-09 01:17:00.32	17.62	5.69	
2025-01-09 01:17:00.52	17.62	5.70	
2025-01-09 01:17:00.73	17.62	5.72	
2025-01-09 01:17:00.93	17.62	5.74	
2025-01-09 01:17:01.14	17.62	5.75	
2025-01-09 01:17:01.35	17.62	5.77	
2025-01-09 01:17:01.56	17.63	5.78	
2025-01-09 01:17:01.76	17.63	5.80	
2025-01-09 01:17:01.97	17.63	5.82	
2025-01-09 01:17:02.17	17.63	5.83	
2025-01-09 01:17:02.37	17.63	5.85	
2025-01-09 01:17:02.57	17.63	5.86	
2025-01-09 01:17:02.78	17.63	5.88	
2025-01-09 01:17:02.98	17.63	5.89	
2025-01-09 01:17:03.18	17.64	5.91	
2025-01-09 01:17:03.38	17.64	5.92	
2025-01-09 01:17:03.59	17.64	5.94	
2025-01-09 01:17:03.79	17.64	5.96	
2025-01-09 01:17:03.99	17.64	5.97	
2025-01-09 01:17:04.20	17.64	5.99	
2025-01-09 01:17:04.40	17.64	6.00	
2025-01-09 01:17:04.60	17.65	6.02	
2025-01-09 01:17:04.80	17.65	6.03	
2025-01-09 01:17:05.00	17.65	6.05	
2025-01-09 01:17:05.20	17.65	6.07	
2025-01-09 01:17:05.41	17.65	6.08	
2025-01-09 01:17:05.61	17.65	6.10	
2025-01-09 01:17:05.81	17.65	6.11	
2025-01-09 01:17:06.02	17.65	6.13	
2025-01-09 01:17:06.22	17.66	6.15	
2025-01-09 01:17:06.42	17.66	6.16	
2025-01-09 01:17:06.62	17.66	6.18	
2025-01-09 01:17:06.82	17.66	6.19	
2025-01-09 01:17:07.03	17.66	6.21	
2025-01-09 01:17:07.23	17.66	6.22	
2025-01-09 01:17:07.43	17.66	6.24	
2025-01-09 01:17:07.63	17.67	6.26	
2025-01-09 01:17:07.83	17.67	6.27	
2025-01-09 01:17:08.04	17.67	6.29	
2025-01-09 01:17:08.24	17.67	6.30	
2025-01-09 01:17:08.44	17.67	6.32	
2025-01-09 01:17:08.64	17.67	6.33	
2025-01-09 01:17:08.85	17.67	6.35	
2025-01-09 01:17:09.05	17.67	6.37	
2025-01-09 01:17:09.25	17.68	6.38	
2025-01-09 01:17:09.45	17.68	6.40	
2025-01-09 01:17:09.65	17.68	6.41	
2025-01-09 01:17:09.86	17.68	6.43	
2025-01-09 01:17:10.06	17.68	6.45	
2025-01-09 01:17:10.26	17.68	6.46	
2025-01-09 01:17:10.46	17.68	6.48	
2025-01-09 01:17:10.67	17.69	6.50	
2025-01-09 01:17:10.87	17.69	6.51	
2025-01-09 01:17:11.07	17.69	6.53	
2025-01-09 01:17:11.28	17.69	6.54	
2025-01-09 01:17:11.49	17.69	6.56	
2025-01-09 01:17:11.69	17.69	6.58	
2025-01-09 01:17:11.89	17.69	6.59	
2025-01-09 01:17:12.09	17.69	6.61	
2025-01-09 01:17:12.30	17.70	6.62	
2025-01-09 01:17:12.50	17.70	6.64	
2025-01-09 01:17:12.70	17.70	6.66	
2025-01-09 01:17:12.90	17.70	6.67	
2025-01-09 01:17:13.10	17.70	6.69	
2025-01-09 01:17:13.31	17.70	6.71	
2025-01-09 01:17:13.51	17.70	6.72	
2025-01-09 01:17:13.71	17.71	6.74	
2025-01-09 01:17:13.91	17.71	6.75	
2025-01-09 01:17:14.11	17.71	6.77	
2025-01-09 01:17:14.32	17.71	6.79	
2025-01-09 01:17:14.52	17.71	6.80	
2025-01-09 01:17:14.72	17.71	6.82	
2025-01-09 01:17:14.92	17.71	6.83	
2025-01-09 01:17:15.13	17.71	6.85	
2025-01-09 01:17:15.33	17.72	6.87	
2025-01-09 01:17:15.53	17.72	6.88	
2025-01-09 01:17:15.73	17.72	6.90	
2025-01-09 01:17:15.94	17.72	6.92	
2025-01-09 01:17:16.14	17.72	6.93	
2025-01-09 01:17:16.34	17.72	6.95	
2025-01-09 01:17:16.54	17.72	6.97	
2025-01-09 01:17:16.75	17.73	6.98	
2025-01-09 01:17:16.95	17.73	7.00	
2025-01-09 01:17:17.15	17.73	7.01	
2025-01-09 01:17:17.35	17.73	7.03	
2025-01-09 01:17:17.56	17.73	7.05	
2025-01-09 01:17:17.76	17.73	7.06	
2025-01-09 01:17:17.96	17.73	7.08	
2025-01-09 01:17:18.16	17.73	7.10	
2025-01-09 01:17:18.36	17.74	7.11	
2025-01-09 01:17:18.57	17.74	7.13	
2025-01-09 01:17:18.77	17.74	7.15	
2025-01-09 01:17:18.97	17.74	7.16	
2025-01-09 01:17:19.17	17.74	7.18	
2025-01-09 01:17:19.38	17.74	7.20	
2025-01-09 01:17:19.58	17.74	7.21	
2025-01-09 01:17:19.78	17.75	7.23	
2025-01-09 01:17:19.98	17.75	7.25	
2025-01-09 01:17:20.18	17.75	7.26	
2025-01-09 01:17:20.40	17.75	7.28	
2025-01-09 01:17:20.60	17.75	7.30	
2025-01-09 01:17:20.80	17.75	7.31	
2025-01-09 01:17:21.00	17.75	7.33	
2025-01-09 01:17:21.21	17.76	7.35	
2025-01-09 01:17:21.42	17.76	7.36	
2025-01-09 01:17:21.62	17.76	7.38	
2025-01-09 01:17:21.82	17.76	7.40	
2025-01-09 01:17:22.02	17.76	7.41	
2025-01-09 01:17:22.23	17.76	7.43	
2025-01-09 01:17:22.43	17.76	7.45	
2025-01-09 01:17:22.63	17.76	7.46	
2025-01-09 01:17:22.85	17.77	7.48	
2025-01-09 01:17:23.05	17.77	7.50	
2025-01-09 01:17:23.25	17.77	7.51	
2025-01-09 01:17:23.46	17.77	7.53	
2025-01-09 01:17:23.66	17.77	7.55	
2025-01-09 01:17:23.86	17.77	7.57	
2025-01-09 01:17:24.07	17.77	7.58	
2025-01-09 01:17:24.28	17.78	7.60	
2025-01-09 01:17:24.49	17.78	7.62	
2025-01-09 01:17:24.69	17.78	7.63	
2025-01-09 01:17:24.89	17.78	7.65	
2025-01-09 01:17:25.11	17.78	7.67	
2025-01-09 01:17:25.31	17.78	7.69	
2025-01-09 01:17:25.51	17.78	7.70	
2025-01-09 01:17:25.72	17.79	7.72	
2025-01-09 01:17:25.92	17.79	7.74	
2025-01-09 01:17:26.12	17.79	7.75	
2025-01-09 01:17:26.32	17.79	7.77	
2025-01-09 01:17:26.54	17.79	7.79	
2025-01-09 01:17:26.74	17.79	7.81	
2025-01-09 01:17:26.95	17.79	7.82	
2025-01-09 01:17:27.17	17.80	7.84	
2025-01-09 01:17:27.37	17.80	7.86	
2025-01-09 01:17:27.59	17.80	7.88	
2025-01-09 01:17:27.79	17.80	7.89	
2025-01-09 01:17:28.00	17.80	7.91	
2025-01-09 01:17:28.20	17.80	7.93	
2025-01-09 01:17:28.42	17.80	7.95	
2025-01-09 01:17:28.63	17.81	7.96	
2025-01-09 01:17:28.85	17.81	7.98	
2025-01-09 01:17:29.07	17.81	8.00	
2025-01-09 01:17:29.28	17.81	8.02	
2025-01-09 01:17:29.50	17.81	8.04	
2025-01-09 01:17:29.72	17.81	8.06	
2025-01-09 01:17:29.94	17.81	8.08	
2025-01-09 01:17:30.14	17.82	8.09	
2025-01-09 01:17:30.36	17.82	8.11	
2025-01-09 01:17:30.56	17.82	8.13	
2025-01-09 01:17:30.77	17.82	8.15	
2025-01-09 01:17:30.98	17.82	8.16	
2025-01-09 01:17:31.20	17.82	8.18	
2025-01-09 01:17:31.41	17.82	8.20	
2025-01-09 01:17:31.63	17.83	8.22	
2025-01-09 01:17:31.85	17.83	8.24	
2025-01-09 01:17:32.05	17.83	8.26	
2025-01-09 01:17:32.27	17.83	8.27	
2025-01-09 01:17:32.47	17.83	8.29	
2025-01-09 01:17:32.67	17.83	8.31	
2025-01-09 01:17:32.88	17.83	8.33	
2025-01-09 01:17:33.08	17.84	8.34	
2025-01-09 01:17:33.30	17.84	8.36	
2025-01-09 01:17:33.50	17.84	8.38	
2025-01-09 01:17:33.70	17.84	8.40	
2025-01-09 01:17:33.91	17.84	8.42	
2025-01-09 01:17:34.11	17.84	8.43	
2025-01-09 01:17:34.31	17.84	8.45	
2025-01-09 01:17:34.52	17.85	8.47	
2025-01-09 01:17:34.73	17.85	8.49	
2025-01-09 01:17:34.93	17.85	8.50	
2025-01-09 01:17:35.13	17.85	8.52	
2025-01-09 01:17:35.35	17.85	8.54	
2025-01-09 01:17:35.55	17.85	8.56	
2025-01-09 01:17:35.75	17.85	8.57	
2025-01-09 01:17:35.95	17.86	8.59	
2025-01-09 01:17:36.17	17.86	8.61	
2025-01-09 01:17:36.37	17.86	8.63	
2025-01-09 01:17:36.59	17.86	8.65	
2025-01-09 01:17:36.80	17.86	8.67	
2025-01-09 01:17:37.00	17.86	8.68	
2025-01-09 01:17:37.20	17.86	8.70	
2025-01-09 01:17:37.41	17.87	8.72	
2025-01-09 01:17:37.61	17.87	8.74	
2025-01-09 01:17:37.81	17.87	8.75	
2025-01-09 01:17:38.01	17.87	8.77	
2025-01-09 01:17:38.22	17.87	8.79	
2025-01-09 01:17:38.42	17.87	8.81	
2025-01-09 01:17:38.62	17.87	8.83	
2025-01-09 01:17:38.83	17.88	8.84	
2025-01-09 01:17:39.03	17.88	8.86	
2025-01-09 01:17:39.23	17.88	8.88	
2025-01-09 01:17:39.43	17.88	8.90	
2025-01-09 01:17:39.64	17.88	8.91	
2025-01-09 01:17:39.84	17.88	8.93	
2025-01-09 01:17:40.04	17.88	8.95	
2025-01-09 01:17:40.24	17.89	8.97	
2025-01-09 01:17:40.45	17.89	8.99	
2025-01-09 01:17:40.65	17.89	9.00	
2025-01-09 01:17:40.85	17.89	9.02	
2025-01-09 01:17:41.05	17.89	9.04	
2025-01-09 01:17:41.25	17.89	9.06	
2025-01-09 01:17:41.46	17.89	9.08	
2025-01-09 01:17:41.66	17.90	9.09	
2025-01-09 01:17:41.87	17.90	9.11	
2025-01-09 01:17:42.09	17.90	9.13	
2025-01-09 01:17:42.29	17.90	9.15	
2025-01-09 01:17:42.51	17.90	9.17	
2025-01-09 01:17:42.71	17.90	9.19	
2025-01-09 01:17:42.91	17.90	9.20	
2025-01-09 01:17:43.11	17.91	9.22	
2025-01-09 01:17:43.31	17.91	9.24	
2025-01-09 01:17:43.52	17.91	9.26	
2025-01-09 01:17:43.72	17.91	9.28	
2025-01-09 01:17:43.92	17.91	9.30	
2025-01-09 01:17:44.12	17.91	9.31	
2025-01-09 01:17:44.33	17.91	9.33	
2025-01-09 01:17:44.53	17.92	9.35	
2025-01-09 01:17:44.73	17.92	9.37	
2025-01-09 01:17:44.93	17.92	9.39	
2025-01-09 01:17:45.13	17.92	9.40	
2025-01-09 01:17:45.34	17.92	9.42	
2025-01-09 01:17:45.54	17.92	9.44	
2025-01-09 01:17:45.74	17.92	9.46	
2025-01-09 01:17:45.94	17.93	9.48	
2025-01-09 01:17:46.15	17.93	9.50	
2025-01-09 01:17:46.35	17.93	9.51	
2025-01-09 01:17:46.55	17.93	9.53	
2025-01-09 01:17:46.75	17.93	9.55	
2025-01-09 01:17:46.95	17.93	9.57	
2025-01-09 01:17:47.16	17.94	9.59	
2025-01-09 01:17:47.36	17.94	9.61	
2025-01-09 01:17:47.56	17.94	9.62	
2025-01-09 01:17:47.76	17.94	9.64	
2025-01-09 01:17:47.96	17.94	9.66	
2025-01-09 01:17:48.17	17.94	9.68	
2025-01-09 01:17:48.37	17.94	9.70	
2025-01-09 01:17:48.57	17.95	9.72	
2025-01-09 01:17:48.77	17.95	9.73	
2025-01-09 01:17:48.98	17.95	9.75	
2025-01-09 01:17:49.18	17.95	9.77	
2025-01-09 01:17:49.38	17.95	9.79	
2025-01-09 01:17:49.58	17.95	9.81	
2025-01-09 01:17:49.78	17.95	9.83	
2025-01-09 01:17:49.99	17.96	9.85	
2025-01-09 01:17:50.19	17.96	9.86	
2025-01-09 01:17:50.40	17.96	9.88	
2025-01-09 01:17:50.60	17.96	9.90	
2025-01-09 01:17:50.81	17.96	9.92	
2025-01-09 01:17:51.01	17.96	9.94	
2025-01-09 01:17:51.21	17.96	9.96	
2025-01-09 01:17:51.41	17.97	9.98	
2025-01-09 01:17:51.62	17.97	10.00	
2025-01-09 01:17:51.83	17.97	10.02	
2025-01-09 01:17:52.04	17.97	10.04	
2025-01-09 01:17:52.26	17.97	10.06	
2025-01-09 01:17:52.47	17.97	10.08	
2025-01-09 01:17:52.67	17.97	10.09	
2025-01-09 01:17:52.88	17.98	10.11	
2025-01-09 01:17:53.08	17.98	10.13	
2025-01-09 01:17:53.28	17.98	10.15	
2025-01-09 01:17:53.48	17.98	10.17	
2025-01-09 01:17:53.68	17.98	10.19	
2025-01-09 01:17:53.89	17.98	10.21	
2025-01-09 01:17:54.09	17.99	10.23	
2025-01-09 01:17:54.29	17.99	10.24	
2025-01-09 01:17:54.50	17.99	10.26	
2025-01-09 01:17:54.70	17.99	10.28	
2025-01-09 01:17:54.91	17.99	10.30	
2025-01-09 01:17:55.13	17.99	10.32	
2025-01-09 01:17:55.34	17.99	10.34	
2025-01-09 01:17:55.56	18.00	10.36	
2025-01-09 01:17:55.77	18.00	10.38	
2025-01-09 01:17:55.98	18.00	10.40	
2025-01-09 01:17:56.19	18.00	10.42	
2025-01-09 01:17:56.39	18.00	10.44	
2025-01-09 01:17:56.59	18.00	10.46	
2025-01-09 01:17:56.80	18.01	10.48	
2025-01-09 01:17:57.01	18.01	10.50	
2025-01-09 01:17:57.21	18.01	10.52	
2025-01-09 01:17:57.41	18.01	10.54	
2025-01-09 01:17:57.61	18.01	10.56	
2025-01-09 01:17:57.81	18.01	10.58	
2025-01-09 01:17:58.02	18.01	10.60	
2025-01-09 01:17:58.22	18.02	10.62	
2025-01-09 01:17:58.42	18.02	10.63	
2025-01-09 01:17:58.62	18.02	10.65	
2025-01-09 01:17:58.83	18.02	10.67	
2025-01-09 01:17:59.03	18.02	10.69	
2025-01-09 01:17:59.23	18.02	10.71	
2025-01-09 01:17:59.43	18.02	10.73	
2025-01-09 01:17:59.64	18.03	10.75	
2025-01-09 01:17:59.84	18.03	10.77	
2025-01-09 01:18:00.04	18.03	10.79	
2025-01-09 01:18:00.24	18.03	10.81	
2025-01-09 01:18:00.45	18.03	10.83	
2025-01-09 01:18:00.65	18.03	10.85	
2025-01-09 01:18:00.85	18.04	10.87	
2025-01-09 01:18:01.05	18.04	10.89	
2025-01-09 01:18:01.26	18.04	10.91	
2025-01-09 01:18:01.47	18.04	10.93	
2025-01-09 01:18:01.67	18.04	10.95	
2025-01-09 01:18:01.87	18.04	10.97	
2025-01-09 01:18:02.08	18.04	10.99	
2025-01-09 01:18:02.28	18.05	11.01	
2025-01-09 01:18:02.49	18.05	11.03	
2025-01-09 01:18:02.69	18.05	11.04	
2025-01-09 01:18:02.90	18.05	11.07	
2025-01-09 01:18:03.10	18.05	11.08	
2025-01-09 01:18:03.30	18.05	11.10	
2025-01-09 01:18:03.50	18.05	11.12	
2025-01-09 01:18:03.70	18.06	11.14	
2025-01-09 01:18:03.91	18.06	11.16	
2025-01-09 01:18:04.11	18.06	11.18	
2025-01-09 01:18:04.31	18.06	11.20	
2025-01-09 01:18:04.51	18.06	11.22	
2025-01-09 01:18:04.71	18.06	11.24	
2025-01-09 01:18:04.92	18.07	11.26	
2025-01-09 01:18:05.12	18.07	11.28	
2025-01-09 01:18:05.32	18.07	11.30	
2025-01-09 01:18:05.52	18.07	11.32	
2025-01-09 01:18:05.72	18.07	11.34	
2025-01-09 01:18:05.93	18.07	11.36	
2025-01-09 01:18:06.13	18.07	11.38	
2025-01-09 01:18:06.33	18.08	11.40	
2025-01-09 01:18:06.53	18.08	11.42	
2025-01-09 01:18:06.73	18.08	11.44	
2025-01-09 01:18:06.94	18.08	11.46	
2025-01-09 01:18:07.14	18.08	11.48	
2025-01-09 01:18:07.34	18.08	11.50	
2025-01-09 01:18:07.54	18.09	11.52	
2025-01-09 01:18:07.74	18.09	11.54	
2025-01-09 01:18:07.96	18.09	11.56	
2025-01-09 01:18:08.16	18.09	11.58	
2025-01-09 01:18:08.37	18.09	11.60	
2025-01-09 01:18:08.59	18.09	11.62	
2025-01-09 01:18:08.79	18.10	11.64	
2025-01-09 01:18:08.99	18.10	11.66	
2025-01-09 01:18:09.19	18.10	11.68	
2025-01-09 01:18:09.39	18.10	11.70	
2025-01-09 01:18:09.60	18.10	11.73	
2025-01-09 01:18:09.80	18.10	11.75	
2025-01-09 01:18:10.00	18.10	11.77	
2025-01-09 01:18:10.20	18.11	11.79	
2025-01-09 01:18:10.40	18.11	11.81	
2025-01-09 01:18:10.61	18.11	11.83	
2025-01-09 01:18:10.81	18.11	11.85	
2025-01-09 01:18:11.01	18.11	11.87	
2025-01-09 01:18:11.21	18.11	11.89	
2025-01-09 01:18:11.42	18.12	11.91	
2025-01-09 01:18:11.62	18.12	11.93	
2025-01-09 01:18:11.82	18.12	11.95	
2025-01-09 01:18:12.02	18.12	11.97	
2025-01-09 01:18:12.24	18.12	11.99	
2025-01-09 01:18:12.45	18.12	12.01	
2025-01-09 01:18:12.65	18.12	12.03	
2025-01-09 01:18:12.86	18.13	12.05	
2025-01-09 01:18:13.06	18.13	12.07	
2025-01-09 01:18:13.27	18.13	12.10	
2025-01-09 01:18:13.47	18.13	12.12	
2025-01-09 01:18:13.68	18.13	12.14	
2025-01-09 01:18:13.88	18.13	12.16	
2025-01-09 01:18:14.09	18.14	12.18	
2025-01-09 01:18:14.29	18.14	12.20	
2025-01-09 01:18:14.49	18.14	12.22	
2025-01-09 01:18:14.70	18.14	12.24	
2025-01-09 01:18:14.90	18.14	12.26	
2025-01-09 01:18:15.11	18.14	12.28	
2025-01-09 01:18:15.31	18.15	12.30	
2025-01-09 01:18:15.51	18.15	12.32	
2025-01-09 01:18:15.72	18.15	12.35	
2025-01-09 01:18:15.92	18.15	12.37	
2025-01-09 01:18:16.13	18.15	12.39	
2025-01-09 01:18:16.33	18.15	12.41	
2025-01-09 01:18:16.53	18.15	12.43	
2025-01-09 01:18:16.74	18.16	12.45	
2025-01-09 01:18:16.94	18.16	12.47	
2025-01-09 01:18:17.14	18.16	12.49	
2025-01-09 01:18:17.35	18.16	12.51	
2025-01-09 01:18:17.56	18.16	12.54	
2025-01-09 01:18:17.76	18.16	12.56	
2025-01-09 01:18:17.97	18.17	12.58	
2025-01-09 01:18:18.17	18.17	12.60	
2025-01-09 01:18:18.37	18.17	12.62	
2025-01-09 01:18:18.58	18.17	12.64	
2025-01-09 01:18:18.79	18.17	12.66	
2025-01-09 01:18:18.99	18.17	12.69	
2025-01-09 01:18:19.19	18.18	12.71	
2025-01-09 01:18:19.39	18.18	12.73	
2025-01-09 01:18:19.60	18.18	12.75	
2025-01-09 01:18:19.81	18.18	12.77	
2025-01-09 01:18:20.01	18.18	12.79	
2025-01-09 01:18:20.22	18.18	12.81	
2025-01-09 01:18:20.43	18.19	12.84	
2025-01-09 01:18:20.63	18.19	12.86	
2025-01-09 01:18:20.84	18.19	12.88	
2025-01-09 01:18:21.05	18.19	12.90	
2025-01-09 01:18:21.26	18.19	12.92	
2025-01-09 01:18:21.46	18.19	12.95	
2025-01-09 01:18:21.67	18.20	12.97	
2025-01-09 01:18:21.88	18.20	12.99	
2025-01-09 01:18:22.08	18.20	13.01	
2025-01-09 01:18:22.29	18.20	13.03	
2025-01-09 01:18:22.50	18.20	13.06	
2025-01-09 01:18:22.71	18.20	13.08	
2025-01-09 01:18:22.92	18.21	13.10	
2025-01-09 01:18:23.12	18.21	13.12	
2025-01-09 01:18:23.33	18.21	13.14	
2025-01-09 01:18:23.54	18.21	13.17	
2025-01-09 01:18:23.74	18.21	13.19	
2025-01-09 01:18:23.95	18.21	13.21	
2025-01-09 01:18:24.15	18.22	13.23	
2025-01-09 01:18:24.36	18.22	13.25	
2025-01-09 01:18:24.56	18.22	13.28	
2025-01-09 01:18:24.77	18.22	13.30	
2025-01-09 01:18:24.97	18.22	13.32	
2025-01-09 01:18:25.18	18.22	13.34	
2025-01-09 01:18:25.39	18.23	13.36	
2025-01-09 01:18:25.59	18.23	13.39	
2025-01-09 01:18:25.79	18.23	13.41	
2025-01-09 01:18:26.00	18.23	13.43	
2025-01-09 01:18:26.20	18.23	13.45	
2025-01-09 01:18:26.41	18.23	13.47	
2025-01-09 01:18:26.61	18.24	13.50	
2025-01-09 01:18:26.81	18.24	13.52	
2025-01-09 01:18:27.02	18.24	13.54	
2025-01-09 01:18:27.22	18.24	13.56	
2025-01-09 01:18:27.43	18.24	13.59	
2025-01-09 01:18:27.63	18.24	13.61	
2025-01-09 01:18:27.83	18.25	13.63	
2025-01-09 01:18:28.03	18.25	13.65	
2025-01-09 01:18:28.24	18.25	13.67	
2025-01-09 01:18:28.44	18.25	13.70	
2025-01-09 01:18:28.65	18.25	13.72	
2025-01-09 01:18:28.85	18.25	13.74	
2025-01-09 01:18:29.05	18.26	13.76	
2025-01-09 01:18:29.25	18.26	13.78	
2025-01-09 01:18:29.46	18.26	13.81	
2025-01-09 01:18:29.66	18.26	13.83	
2025-01-09 01:18:29.87	18.26	13.85	
2025-01-09 01:18:30.07	18.26	13.87	
2025-01-09 01:18:30.29	18.27	13.90	
2025-01-09 01:18:30.49	18.27	13.92	
2025-01-09 01:18:30.69	18.27	13.94	
2025-01-09 01:18:30.90	18.27	13.97	
2025-01-09 01:18:31.10	18.27	13.99	
2025-01-09 01:18:31.31	18.27	14.01	
2025-01-09 01:18:31.51	18.28	14.03	
2025-01-09 01:18:31.72	18.28	14.06	
2025-01-09 01:18:31.92	18.28	14.08	
2025-01-09 01:18:32.13	18.28	14.10	
2025-01-09 01:18:32.33	18.28	14.13	
2025-01-09 01:18:32.54	18.28	14.15	
2025-01-09 01:18:32.74	18.29	14.17	
2025-01-09 01:18:32.95	18.29	14.19	
2025-01-09 01:18:33.15	18.29	14.22	
2025-01-09 01:18:33.36	18.29	14.24	
2025-01-09 01:18:33.57	18.29	14.26	
2025-01-09 01:18:33.77	18.29	14.29	
2025-01-09 01:18:33.97	18.30	14.31	
2025-01-09 01:18:34.18	18.30	14.33	
2025-01-09 01:18:34.38	18.30	14.36	
2025-01-09 01:18:34.59	18.30	14.38	
2025-01-09 01:18:34.79	18.30	14.40	
2025-01-09 01:18:35.00	18.30	14.43	
2025-01-09 01:18:35.20	18.31	14.45	
2025-01-09 01:18:35.41	18.31	14.47	
2025-01-09 01:18:35.61	18.31	14.49	
2025-01-09 01:18:35.82	18.31	14.52	
2025-01-09 01:18:36.02	18.31	14.54	
2025-01-09 01:18:36.24	18.32	14.57	
2025-01-09 01:18:36.45	18.32	14.59	
2025-01-09 01:18:36.65	18.32	14.61	
2025-01-09 01:18:36.86	18.32	14.64	
2025-01-09 01:18:37.06	18.32	14.66	
2025-01-09 01:18:37.27	18.32	14.68	
2025-01-09 01:18:37.47	18.33	14.71	
2025-01-09 01:18:37.68	18.33	14.73	
2025-01-09 01:18:37.88	18.33	14.75	
2025-01-09 01:18:38.09	18.33	14.78	
2025-01-09 01:18:38.29	18.33	14.80	
2025-01-09 01:18:38.50	18.33	14.83	
2025-01-09 01:18:38.70	18.34	14.85	
2025-01-09 01:18:38.91	18.34	14.87	
2025-01-09 01:18:39.11	18.34	14.90	
2025-01-09 01:18:39.32	18.34	14.92	
2025-01-09 01:18:39.52	18.34	14.94	
2025-01-09 01:18:39.73	18.35	14.97	
2025-01-09 01:18:39.93	18.35	14.99	
2025-01-09 01:18:40.14	18.35	15.01	
2025-01-09 01:18:40.34	18.35	15.04	
2025-01-09 01:18:40.55	18.35	15.06	
2025-01-09 01:18:40.75	18.35	15.09	
2025-01-09 01:18:40.95	18.36	15.11	
2025-01-09 01:18:41.16	18.36	15.13	
2025-01-09 01:18:41.37	18.36	15.16	
2025-01-09 01:18:41.57	18.36	15.18	
2025-01-09 01:18:41.77	18.36	15.21	
2025-01-09 01:18:41.98	18.36	15.23	
2025-01-09 01:18:42.19	18.37	15.25	
2025-01-09 01:18:42.39	18.37	15.28	
2025-01-09 01:18:42.60	18.37	15.30	
2025-01-09 01:18:42.80	18.37	15.33	
2025-01-09 01:18:43.01	18.37	15.35	
2025-01-09 01:18:43.22	18.38	15.38	
2025-01-09 01:18:43.42	18.38	15.40	
2025-01-09 01:18:43.62	18.38	15.42	
2025-01-09 01:18:43.83	18.38	15.45	
2025-01-09 01:18:44.04	18.38	15.47	
2025-01-09 01:18:44.24	18.38	15.50	
2025-01-09 01:18:44.45	18.39	15.52	
2025-01-09 01:18:44.65	18.39	15.55	
2025-01-09 01:18:44.86	18.39	15.57	
2025-01-09 01:18:45.06	18.39	15.59	
2025-01-09 01:18:45.27	18.39	15.62	
2025-01-09 01:18:45.47	18.40	15.64	
2025-01-09 01:18:45.68	18.40	15.67	
2025-01-09 01:18:45.88	18.40	15.69	
2025-01-09 01:18:46.09	18.40	15.72	
2025-01-09 01:18:46.29	18.40	15.74	
2025-01-09 01:18:46.50	18.40	15.77	
2025-01-09 01:18:46.70	18.41	15.79	
2025-01-09 01:18:46.91	18.41	15.82	
2025-01-09 01:18:47.11	18.41	15.84	
2025-01-09 01:18:47.33	18.41	15.87	
2025-01-09 01:18:47.53	18.41	15.89	
2025-01-09 01:18:47.74	18.42	15.92	
2025-01-09 01:18:47.94	18.42	15.94	
2025-01-09 01:18:48.15	18.42	15.97	
2025-01-09 01:18:48.36	18.42	15.99	
2025-01-09 01:18:48.56	18.42	16.02	
2025-01-09 01:18:48.77	18.42	16.04	
2025-01-09 01:18:48.97	18.43	16.07	
2025-01-09 01:18:49.17	18.43	16.09	
2025-01-09 01:18:49.38	18.43	16.12	
2025-01-09 01:18:49.59	18.43	16.14	
2025-01-09 01:18:49.79	18.43	16.17	
2025-01-09 01:18:49.99	18.44	16.19	
2025-01-09 01:18:50.20	18.44	16.22	
2025-01-09 01:18:50.40	18.44	16.24	
2025-01-09 01:18:50.61	18.44	16.27	
2025-01-09 01:18:50.81	18.44	16.29	
2025-01-09 01:18:51.02	18.44	16.32	
2025-01-09 01:18:51.22	18.45	16.34	
2025-01-09 01:18:51.43	18.45	16.37	
2025-01-09 01:18:51.63	18.45	16.39	
2025-01-09 01:18:51.84	18.45	16.42	
2025-01-09 01:18:52.04	18.45	16.44	
2025-01-09 01:18:52.24	18.46	16.47	
2025-01-09 01:18:52.45	18.46	16.49	
2025-01-09 01:18:52.66	18.46	16.52	
2025-01-09 01:18:52.86	18.46	16.54	
2025-01-09 01:18:53.07	18.46	16.57	
2025-01-09 01:18:53.27	18.47	16.60	
2025-01-09 01:18:53.48	18.47	16.62	
2025-01-09 01:18:53.68	18.47	16.65	
2025-01-09 01:18:53.88	18.47	16.67	
2025-01-09 01:18:54.09	18.47	16.70	
2025-01-09 01:18:54.29	18.47	16.72	
2025-01-09 01:18:54.50	18.48	16.75	
2025-01-09 01:18:54.70	18.48	16.78	
2025-01-09 01:18:54.91	18.48	16.80	
2025-01-09 01:18:55.12	18.48	16.83	
2025-01-09 01:18:55.32	18.48	16.85	
2025-01-09 01:18:55.52	18.49	16.88	
2025-01-09 01:18:55.73	18.49	16.91	
2025-01-09 01:18:55.93	18.49	16.93	
2025-01-09 01:18:56.14	18.49	16.96	
2025-01-09 01:18:56.35	18.49	16.98	
2025-01-09 01:18:56.56	18.50	17.01	
2025-01-09 01:18:56.77	18.50	17.04	
2025-01-09 01:18:56.97	18.50	17.06	
2025-01-09 01:18:57.18	18.50	17.09	
2025-01-09 01:18:57.39	18.50	17.12	
2025-01-09 01:18:57.60	18.50	17.14	
2025-01-09 01:18:57.81	18.51	17.17	
2025-01-09 01:18:58.01	18.51	17.20	
2025-01-09 01:18:58.22	18.51	17.22	
2025-01-09 01:18:58.42	18.51	17.25	
2025-01-09 01:18:58.62	18.51	17.27	
2025-01-09 01:18:58.83	18.52	17.30	
2025-01-09 01:18:59.04	18.52	17.33	
2025-01-09 01:18:59.24	18.52	17.35	
2025-01-09 01:18:59.44	18.52	17.38	
2025-01-09 01:18:59.65	18.52	17.41	
2025-01-09 01:18:59.85	18.53	17.43	
2025-01-09 01:19:00.05	18.53	17.46	
2025-01-09 01:19:00.26	18.53	17.49	
2025-01-09 01:19:00.46	18.53	17.51	
2025-01-09 01:19:00.67	18.53	17.54	
2025-01-09 01:19:00.87	18.54	17.57	
2025-01-09 01:19:01.08	18.54	17.59	
2025-01-09 01:19:01.28	18.54	17.62	
2025-01-09 01:19:01.49	18.54	17.65	
2025-01-09 01:19:01.69	18.54	17.67	
2025-01-09 01:19:01.90	18.55	17.70	
2025-01-09 01:19:02.10	18.55	17.73	
2025-01-09 01:19:02.31	18.55	17.75	
2025-01-09 01:19:02.51	18.55	17.78	
2025-01-09 01:19:02.72	18.55	17.81	
2025-01-09 01:19:02.92	18.56	17.83	
2025-01-09 01:19:03.13	18.56	17.86	
2025-01-09 01:19:03.33	18.56	17.89	
2025-01-09 01:19:03.54	18.56	17.92	
2025-01-09 01:19:03.74	18.56	17.94	
2025-01-09 01:19:03.96	18.57	17.97	
2025-01-09 01:19:04.16	18.57	18.00	
2025-01-09 01:19:04.37	18.57	18.03	
2025-01-09 01:19:04.58	18.57	18.05	
2025-01-09 01:19:04.78	18.57	18.08	
2025-01-09 01:19:04.99	18.58	18.11	
2025-01-09 01:19:05.19	18.58	18.14	
2025-01-09 01:19:05.40	18.58	18.16	
2025-01-09 01:19:05.60	18.58	18.19	
2025-01-09 01:19:05.81	18.58	18.22	
2025-01-09 01:19:06.01	18.59	18.25	
2025-01-09 01:19:06.22	18.59	18.27	
2025-01-09 01:19:06.42	18.59	18.30	
2025-01-09 01:19:06.63	18.59	18.33	
2025-01-09 01:19:06.83	18.59	18.36	
2025-01-09 01:19:07.04	18.60	18.38	
2025-01-09 01:19:07.24	18.60	18.41	
2025-01-09 01:19:07.45	18.60	18.44	
2025-01-09 01:19:07.65	18.60	18.47	
2025-01-09 01:19:07.86	18.60	18.50	
2025-01-09 01:19:08.06	18.61	18.52	
2025-01-09 01:19:08.27	18.61	18.55	
2025-01-09 01:19:08.47	18.61	18.58	
2025-01-09 01:19:08.68	18.61	18.61	
2025-01-09 01:19:08.88	18.61	18.64	
2025-01-09 01:19:09.09	18.62	18.66	
2025-01-09 01:19:09.29	18.62	18.69	
2025-01-09 01:19:09.50	18.62	18.72	
2025-01-09 01:19:09.70	18.62	18.75	
2025-01-09 01:19:09.91	18.62	18.78	
2025-01-09 01:19:10.11	18.63	18.80	
2025-01-09 01:19:10.32	18.63	18.83	
2025-01-09 01:19:10.52	18.63	18.86	
2025-01-09 01:19:10.73	18.63	18.89	
2025-01-09 01:19:10.93	18.63	18.92	
2025-01-09 01:19:11.14	18.64	18.95	
2025-01-09 01:19:11.34	18.64	18.97	
2025-01-09 01:19:11.55	18.64	19.00	
2025-01-09 01:19:11.75	18.64	19.03	
2025-01-09 01:19:11.96	18.64	19.06	
2025-01-09 01:19:12.16	18.65	19.09	
2025-01-09 01:19:12.37	18.65	19.12	
2025-01-09 01:19:12.57	18.65	19.15	
2025-01-09 01:19:12.78	18.65	19.17	
2025-01-09 01:19:12.98	18.65	19.20	
2025-01-09 01:19:13.19	18.66	19.23	
2025-01-09 01:19:13.40	18.66	19.26	
2025-01-09 01:19:13.60	18.66	19.29	
2025-01-09 01:19:13.80	18.66	19.32	
2025-01-09 01:19:14.01	18.66	19.35	
2025-01-09 01:19:14.21	18.67	19.38	
2025-01-09 01:19:14.42	18.67	19.41	
2025-01-09 01:19:14.64	18.67	19.44	
2025-01-09 01:19:14.84	18.67	19.47	
2025-01-09 01:19:15.05	18.68	19.50	
2025-01-09 01:19:15.25	18.68	19.52	
2025-01-09 01:19:15.46	18.68	19.55	
2025-01-09 01:19:15.66	18.68	19.58	
2025-01-09 01:19:15.86	18.68	19.61	
2025-01-09 01:19:16.07	18.69	19.64	
2025-01-09 01:19:16.28	18.69	19.67	
2025-01-09 01:19:16.48	18.69	19.70	
2025-01-09 01:19:16.68	18.69	19.73	
2025-01-09 01:19:16.89	18.69	19.76	
2025-01-09 01:19:17.09	18.70	19.79	
2025-01-09 01:19:17.30	18.70	19.82	
2025-01-09 01:19:17.51	18.70	19.85	
2025-01-09 01:19:17.71	18.70	19.88	
2025-01-09 01:19:17.92	18.71	19.91	
2025-01-09 01:19:18.12	18.71	19.94	
2025-01-09 01:19:18.32	18.71	19.96	
2025-01-09 01:19:18.53	18.71	20.00	
2025-01-09 01:19:18.74	18.71	20.03	
2025-01-09 01:19:18.94	18.72	20.05	
2025-01-09 01:19:19.14	18.72	20.08	
2025-01-09 01:19:19.35	18.72	20.11	
2025-01-09 01:19:19.55	18.72	20.14	
2025-01-09 01:19:19.76	18.72	20.17	
2025-01-09 01:19:19.96	18.73	20.20	
2025-01-09 01:19:20.17	18.73	20.23	
2025-01-09 01:19:20.38	18.73	20.27	
2025-01-09 01:19:20.58	18.73	20.29	
2025-01-09 01:19:20.79	18.74	20.33	
2025-01-09 01:19:20.99	18.74	20.36	
2025-01-09 01:19:21.20	18.74	20.39	
2025-01-09 01:19:21.40	18.74	20.42	
2025-01-09 01:19:21.61	18.74	20.45	
2025-01-09 01:19:21.81	18.75	20.48	
2025-01-09 01:19:22.02	18.75	20.51	
2025-01-09 01:19:22.22	18.75	20.54	
2025-01-09 01:19:22.43	18.75	20.57	
2025-01-09 01:19:22.63	18.76	20.60	
2025-01-09 01:19:22.84	18.76	20.63	
2025-01-09 01:19:23.04	18.76	20.66	
2025-01-09 01:19:23.25	18.76	20.69	
2025-01-09 01:19:23.45	18.76	20.72	
2025-01-09 01:19:23.66	18.77	20.75	
2025-01-09 01:19:23.86	18.77	20.78	
2025-01-09 01:19:24.06	18.77	20.81	
2025-01-09 01:19:24.27	18.77	20.84	
2025-01-09 01:19:24.47	18.78	20.87	
2025-01-09 01:19:24.68	18.78	20.91	
2025-01-09 01:19:24.88	18.78	20.94	
2025-01-09 01:19:25.09	18.78	20.97	
2025-01-09 01:19:25.29	18.78	21.00	
2025-01-09 01:19:25.50	18.79	21.03	
2025-01-09 01:19:25.70	18.79	21.06	
2025-01-09 01:19:25.91	18.79	21.09	
2025-01-09 01:19:26.11	18.79	21.12	
2025-01-09 01:19:26.32	18.80	21.16	
2025-01-09 01:19:26.52	18.80	21.19	
2025-01-09 01:19:26.73	18.80	21.22	
2025-01-09 01:19:26.94	18.80	21.25	
2025-01-09 01:19:27.14	18.80	21.28	
2025-01-09 01:19:27.34	18.81	21.31	
2025-01-09 01:19:27.55	18.81	21.34	
2025-01-09 01:19:27.75	18.81	21.38	
2025-01-09 01:19:27.96	18.81	21.41	
2025-01-09 01:19:28.16	18.82	21.44	
2025-01-09 01:19:28.37	18.82	21.47	
2025-01-09 01:19:28.57	18.82	21.50	
2025-01-09 01:19:28.78	18.82	21.53	
2025-01-09 01:19:28.98	18.82	21.57	
2025-01-09 01:19:29.19	18.83	21.60	
2025-01-09 01:19:29.39	18.83	21.63	
2025-01-09 01:19:29.60	18.83	21.66	
2025-01-09 01:19:29.80	18.83	21.69	
2025-01-09 01:19:30.01	18.84	21.73	
2025-01-09 01:19:30.21	18.84	21.76	
2025-01-09 01:19:30.42	18.84	21.79	
2025-01-09 01:19:30.63	18.84	21.82	
2025-01-09 01:19:30.83	18.85	21.86	
2025-01-09 01:19:31.03	18.85	21.89	
2025-01-09 01:19:31.24	18.85	21.92	
2025-01-09 01:19:31.44	18.85	21.95	
2025-01-09 01:19:31.65	18.86	21.98	
2025-01-09 01:19:31.85	18.86	22.02	
2025-01-09 01:19:32.06	18.86	22.05	
2025-01-09 01:19:32.26	18.86	22.08	
2025-01-09 01:19:32.47	18.86	22.12	
2025-01-09 01:19:32.67	18.87	22.15	
2025-01-09 01:19:32.87	18.87	22.18	
2025-01-09 01:19:33.08	18.87	22.21	
2025-01-09 01:19:33.29	18.87	22.25	
2025-01-09 01:19:33.49	18.88	22.28	
2025-01-09 01:19:33.70	18.88	22.31	
2025-01-09 01:19:33.90	18.88	22.34	
2025-01-09 01:19:34.11	18.88	22.38	
2025-01-09 01:19:34.32	18.89	22.41	
2025-01-09 01:19:34.52	18.89	22.44	
2025-01-09 01:19:34.73	18.89	22.48	
2025-01-09 01:19:34.93	18.89	22.51	
2025-01-09 01:19:35.13	18.90	22.54	
2025-01-09 01:19:35.34	18.90	22.58	
2025-01-09 01:19:35.54	18.90	22.61	
2025-01-09 01:19:35.75	18.90	22.64	
2025-01-09 01:19:35.97	18.91	22.68	
2025-01-09 01:19:36.17	18.91	22.71	
2025-01-09 01:19:36.38	18.91	22.75	
2025-01-09 01:19:36.58	18.91	22.78	
2025-01-09 01:19:36.79	18.91	22.81	
2025-01-09 01:19:36.99	18.92	22.85	
2025-01-09 01:19:37.20	18.92	22.88	
2025-01-09 01:19:37.40	18.92	22.91	
2025-01-09 01:19:37.60	18.92	22.95	
2025-01-09 01:19:37.81	18.93	22.98	
2025-01-09 01:19:38.01	18.93	23.01	
2025-01-09 01:19:38.22	18.93	23.05	
2025-01-09 01:19:38.42	18.93	23.08	
2025-01-09 01:19:38.63	18.94	23.12	
2025-01-09 01:19:38.83	18.94	23.15	
2025-01-09 01:19:39.04	18.94	23.19	
2025-01-09 01:19:39.24	18.94	23.22	
2025-01-09 01:19:39.45	18.95	23.25	
2025-01-09 01:19:39.65	18.95	23.29	
2025-01-09 01:19:39.86	18.95	23.32	
2025-01-09 01:19:40.06	18.95	23.36	
2025-01-09 01:19:40.28	18.96	23.39	
2025-01-09 01:19:40.48	18.96	23.43	
2025-01-09 01:19:40.69	18.96	23.46	
2025-01-09 01:19:40.90	18.96	23.50	
2025-01-09 01:19:41.10	18.97	23.53	
2025-01-09 01:19:41.31	18.97	23.57	
2025-01-09 01:19:41.51	18.97	23.60	
2025-01-09 01:19:41.72	18.97	23.64	
2025-01-09 01:19:41.92	18.98	23.67	
2025-01-09 01:19:42.13	18.98	23.71	
2025-01-09 01:19:42.33	18.98	23.74	
2025-01-09 01:19:42.54	18.98	23.78	
2025-01-09 01:19:42.75	18.99	23.81	
2025-01-09 01:19:42.95	18.99	23.85	
2025-01-09 01:19:43.16	18.99	23.88	
2025-01-09 01:19:43.36	18.99	23.92	
2025-01-09 01:19:43.56	19.00	23.95	
2025-01-09 01:19:43.77	19.00	23.99	
2025-01-09 01:19:43.97	19.00	24.02	
2025-01-09 01:19:44.18	19.00	24.06	
2025-01-09 01:19:44.38	19.01	24.09	
2025-01-09 01:19:44.59	19.01	24.13	
2025-01-09 01:19:44.79	19.01	24.16	
2025-01-09 01:19:44.99	19.01	24.20	
2025-01-09 01:19:45.20	19.02	24.23	
2025-01-09 01:19:45.41	19.02	24.27	
2025-01-09 01:19:45.62	19.02	24.31	
2025-01-09 01:19:45.83	19.03	24.34	
2025-01-09 01:19:46.04	19.03	24.38	
2025-01-09 01:19:46.24	19.03	24.42	
2025-01-09 01:19:46.45	19.03	24.45	
2025-01-09 01:19:46.65	19.04	24.49	
2025-01-09 01:19:46.86	19.04	24.53	
2025-01-09 01:19:47.06	19.04	24.56	
2025-01-09 01:19:47.27	19.04	24.60	
2025-01-09 01:19:47.47	19.05	24.63	
2025-01-09 01:19:47.68	19.05	24.67	
2025-01-09 01:19:47.88	19.05	24.71	
2025-01-09 01:19:48.09	19.05	24.74	
2025-01-09 01:19:48.29	19.06	24.78	
2025-01-09 01:19:48.50	19.06	24.82	
2025-01-09 01:19:48.70	19.06	24.85	
2025-01-09 01:19:48.91	19.07	24.89	
2025-01-09 01:19:49.11	19.07	24.93	
2025-01-09 01:19:49.32	19.07	24.96	
2025-01-09 01:19:49.52	19.07	25.00	
2025-01-09 01:19:49.73	19.08	25.04	
2025-01-09 01:19:49.93	19.08	25.07	
2025-01-09 01:19:50.14	19.08	25.11	
2025-01-09 01:19:50.34	19.08	25.15	
2025-01-09 01:19:50.55	19.09	25.18	
2025-01-09 01:19:50.75	19.09	25.22	
2025-01-09 01:19:50.95	19.09	25.26	
2025-01-09 01:19:51.16	19.09	25.30	
2025-01-09 01:19:51.37	19.10	25.33	
2025-01-09 01:19:51.57	19.10	25.37	
2025-01-09 01:19:51.78	19.10	25.41	
2025-01-09 01:19:51.98	19.11	25.45	
2025-01-09 01:19:52.19	19.11	25.48	
2025-01-09 01:19:52.39	19.11	25.52	
2025-01-09 01:19:52.60	19.11	25.56	
2025-01-09 01:19:52.81	19.12	25.60	
2025-01-09 01:19:53.01	19.12	25.63	
2025-01-09 01:19:53.22	19.12	25.67	
2025-01-09 01:19:53.42	19.12	25.71	
2025-01-09 01:19:53.63	19.13	25.75	
2025-01-09 01:19:53.83	19.13	25.79	
2025-01-09 01:19:54.05	19.13	25.83	
2025-01-09 01:19:54.25	19.14	25.86	
2025-01-09 01:19:54.46	19.14	25.90	
2025-01-09 01:19:54.66	19.14	25.94	
2025-01-09 01:19:54.87	19.14	25.98	
2025-01-09 01:19:55.07	19.15	26.02	
2025-01-09 01:19:55.28	19.15	26.06	
2025-01-09 01:19:55.48	19.15	26.09	
2025-01-09 01:19:55.69	19.16	26.13	
2025-01-09 01:19:55.89	19.16	26.17	
2025-01-09 01:19:56.10	19.16	26.21	
2025-01-09 01:19:56.30	19.16	26.25	
2025-01-09 01:19:56.50	19.17	26.29	
2025-01-09 01:19:56.72	19.17	26.33	
2025-01-09 01:19:56.92	19.17	26.37	
2025-01-09 01:19:57.13	19.18	26.41	
2025-01-09 01:19:57.33	19.18	26.44	
2025-01-09 01:19:57.54	19.18	26.48	
2025-01-09 01:19:57.74	19.18	26.52	
2025-01-09 01:19:57.95	19.19	26.56	
2025-01-09 01:19:58.16	19.19	26.60	
2025-01-09 01:19:58.36	19.19	26.64	
2025-01-09 01:19:58.57	19.20	26.68	
2025-01-09 01:19:58.77	19.20	26.72	
2025-01-09 01:19:58.98	19.20	26.76	
2025-01-09 01:19:59.18	19.20	26.80	
2025-01-09 01:19:59.39	19.21	26.84	
2025-01-09 01:19:59.59	19.21	26.88	
2025-01-09 01:19:59.80	19.21	26.92	
2025-01-09 01:20:00.01	19.22	26.96	
2025-01-09 01:20:00.21	19.22	27.00	
2025-01-09 01:20:00.43	19.22	27.04	
2025-01-09 01:20:00.63	19.23	27.08	
2025-01-09 01:20:00.84	19.23	27.12	
2025-01-09 01:20:01.04	19.23	27.16	
2025-01-09 01:20:01.25	19.23	27.20	
2025-01-09 01:20:01.45	19.24	27.24	
2025-01-09 01:20:01.65	19.24	27.28	
2025-01-09 01:20:01.86	19.24	27.32	
2025-01-09 01:20:02.06	19.25	27.36	
2025-01-09 01:20:02.27	19.25	27.40	
2025-01-09 01:20:02.47	19.25	27.44	
2025-01-09 01:20:02.68	19.26	27.49	
2025-01-09 01:20:02.88	19.26	27.52	
2025-01-09 01:20:03.09	19.26	27.57	
2025-01-09 01:20:03.29	19.26	27.61	
2025-01-09 01:20:03.50	19.27	27.65	
2025-01-09 01:20:03.72	19.27	27.69	
2025-01-09 01:20:03.92	19.27	27.73	
2025-01-09 01:20:04.13	19.28	27.77	
2025-01-09 01:20:04.33	19.28	27.82	
2025-01-09 01:20:04.54	19.28	27.86	
2025-01-09 01:20:04.74	19.29	27.90	
2025-01-09 01:20:04.95	19.29	27.94	
2025-01-09 01:20:05.15	19.29	27.98	
2025-01-09 01:20:05.36	19.29	28.02	
2025-01-09 01:20:05.56	19.30	28.06	
2025-01-09 01:20:05.77	19.30	28.11	
2025-01-09 01:20:05.97	19.30	28.15	
2025-01-09 01:20:06.18	19.31	28.19	
2025-01-09 01:20:06.38	19.31	28.23	
2025-01-09 01:20:06.59	19.31	28.27	
2025-01-09 01:20:06.79	19.32	28.31	
2025-01-09 01:20:07.00	19.32	28.36	
2025-01-09 01:20:07.20	19.32	28.40	
2025-01-09 01:20:07.41	19.33	28.44	
2025-01-09 01:20:07.62	19.33	28.49	
2025-01-09 01:20:07.82	19.33	28.53	
2025-01-09 01:20:08.03	19.34	28.57	
2025-01-09 01:20:08.23	19.34	28.61	
2025-01-09 01:20:08.44	19.34	28.66	
2025-01-09 01:20:08.64	19.35	28.70	
2025-01-09 01:20:08.85	19.35	28.74	
2025-01-09 01:20:09.05	19.35	28.78	
2025-01-09 01:20:09.26	19.35	28.83	
2025-01-09 01:20:09.47	19.36	28.87	
2025-01-09 01:20:09.67	19.36	28.91	
2025-01-09 01:20:09.88	19.36	28.96	
2025-01-09 01:20:10.08	19.37	29.00	
2025-01-09 01:20:10.28	19.37	29.04	
2025-01-09 01:20:10.49	19.37	29.09	
2025-01-09 01:20:10.70	19.38	29.13	
2025-01-09 01:20:10.90	19.38	29.17	
2025-01-09 01:20:11.10	19.38	29.21	
2025-01-09 01:20:11.31	19.39	29.26	
2025-01-09 01:20:11.51	19.39	29.30	
2025-01-09 01:20:11.72	19.39	29.35	
2025-01-09 01:20:11.93	19.40	29.39	
2025-01-09 01:20:12.13	19.40	29.43	
2025-01-09 01:20:12.33	19.40	29.48	
2025-01-09 01:20:12.54	19.41	29.52	
2025-01-09 01:20:12.75	19.41	29.57	
2025-01-09 01:20:12.95	19.41	29.61	
2025-01-09 01:20:13.16	19.42	29.66	
2025-01-09 01:20:13.36	19.42	29.70	
2025-01-09 01:20:13.57	19.42	29.74	
2025-01-09 01:20:13.77	19.43	29.79	
2025-01-09 01:20:13.97	19.43	29.83	
2025-01-09 01:20:14.18	19.43	29.88	
2025-01-09 01:20:14.38	19.44	29.92	
2025-01-09 01:20:14.59	19.44	29.97	
2025-01-09 01:20:14.79	19.44	30.01	
2025-01-09 01:20:15.00	19.45	30.06	
2025-01-09 01:20:15.21	19.45	30.10	
2025-01-09 01:20:15.42	19.45	30.15	
2025-01-09 01:20:15.63	19.46	30.19	
2025-01-09 01:20:15.83	19.46	30.24	
2025-01-09 01:20:16.04	19.46	30.29	
2025-01-09 01:20:16.24	19.47	30.33	
2025-01-09 01:20:16.45	19.47	30.38	
2025-01-09 01:20:16.65	19.47	30.42	
2025-01-09 01:20:16.86	19.48	30.47	
2025-01-09 01:20:17.06	19.48	30.51	
2025-01-09 01:20:17.27	19.49	30.56	
2025-01-09 01:20:17.47	19.49	30.60	
2025-01-09 01:20:17.68	19.49	30.65	
2025-01-09 01:20:17.88	19.50	30.70	
2025-01-09 01:20:18.08	19.50	30.74	
2025-01-09 01:20:18.29	19.50	30.79	
2025-01-09 01:20:18.49	19.51	30.83	
2025-01-09 01:20:18.71	19.51	30.88	
2025-01-09 01:20:18.91	19.51	30.93	
2025-01-09 01:20:19.12	19.52	30.97	
2025-01-09 01:20:19.32	19.52	31.02	
2025-01-09 01:20:19.53	19.52	31.07	
2025-01-09 01:20:19.73	19.53	31.11	
2025-01-09 01:20:19.94	19.53	31.16	
2025-01-09 01:20:20.14	19.54	31.21	
2025-01-09 01:20:20.35	19.54	31.26	
2025-01-09 01:20:20.55	19.54	31.30	
2025-01-09 01:20:20.76	19.55	31.35	
2025-01-09 01:20:20.96	19.55	31.40	
2025-01-09 01:20:21.17	19.55	31.44	
2025-01-09 01:20:21.38	19.56	31.49	
2025-01-09 01:20:21.58	19.56	31.54	
2025-01-09 01:20:21.78	19.56	31.59	
2025-01-09 01:20:21.99	19.57	31.63	
2025-01-09 01:20:22.19	19.57	31.68	
2025-01-09 01:20:22.40	19.58	31.73	
2025-01-09 01:20:22.61	19.58	31.78	
2025-01-09 01:20:22.81	19.58	31.83	
2025-01-09 01:20:23.02	19.59	31.87	
2025-01-09 01:20:23.22	19.59	31.92	
2025-01-09 01:20:23.43	19.59	31.97	
2025-01-09 01:20:23.63	19.60	32.02	
2025-01-09 01:20:23.83	19.60	32.06	
2025-01-09 01:20:24.05	19.61	32.12	
2025-01-09 01:20:24.25	19.61	32.16	
2025-01-09 01:20:24.46	19.61	32.21	
2025-01-09 01:20:24.67	19.62	32.26	
2025-01-09 01:20:24.87	19.62	32.31	
2025-01-09 01:20:25.09	19.62	32.36	
2025-01-09 01:20:25.29	19.63	32.41	
2025-01-09 01:20:25.50	19.63	32.46	
2025-01-09 01:20:25.70	19.64	32.51	
2025-01-09 01:20:25.91	19.64	32.56	
2025-01-09 01:20:26.11	19.64	32.61	
2025-01-09 01:20:26.32	19.65	32.66	
2025-01-09 01:20:26.53	19.65	32.71	
2025-01-09 01:20:26.73	19.66	32.76	
2025-01-09 01:20:26.94	19.66	32.81	
2025-01-09 01:20:27.14	19.66	32.86	
2025-01-09 01:20:27.35	19.67	32.91	
2025-01-09 01:20:27.55	19.67	32.96	
2025-01-09 01:20:27.76	19.68	33.01	
2025-01-09 01:20:27.96	19.68	33.06	
2025-01-09 01:20:28.18	19.68	33.11	
2025-01-09 01:20:28.39	19.69	33.16	
2025-01-09 01:20:28.59	19.69	33.21	
2025-01-09 01:20:28.80	19.70	33.26	
2025-01-09 01:20:29.00	19.70	33.31	
2025-01-09 01:20:29.21	19.70	33.36	
2025-01-09 01:20:29.41	19.71	33.41	
2025-01-09 01:20:29.62	19.71	33.47	
2025-01-09 01:20:29.82	19.72	33.52	
2025-01-09 01:20:30.03	19.72	33.57	
2025-01-09 01:20:30.23	19.72	33.62	
2025-01-09 01:20:30.43	19.73	33.67	
2025-01-09 01:20:30.64	19.73	33.72	
2025-01-09 01:20:30.84	19.74	33.77	
2025-01-09 01:20:31.05	19.74	33.82	
2025-01-09 01:20:31.26	19.74	33.88	
2025-01-09 01:20:31.46	19.75	33.93	
2025-01-09 01:20:31.66	19.75	33.98	
2025-01-09 01:20:31.87	19.76	34.03	
2025-01-09 01:20:32.08	19.76	34.08	
2025-01-09 01:20:32.28	19.76	34.13	
2025-01-09 01:20:32.49	19.77	34.19	
2025-01-09 01:20:32.69	19.77	34.24	
2025-01-09 01:20:32.90	19.78	34.29	
2025-01-09 01:20:33.10	19.78	34.34	
2025-01-09 01:20:33.31	19.79	34.40	
2025-01-09 01:20:33.51	19.79	34.45	
2025-01-09 01:20:33.71	19.79	34.50	
2025-01-09 01:20:33.92	19.80	34.55	
2025-01-09 01:20:34.13	19.80	34.61	
2025-01-09 01:20:34.33	19.81	34.66	
2025-01-09 01:20:34.54	19.81	34.71	
2025-01-09 01:20:34.74	19.82	34.76	
2025-01-09 01:20:34.95	19.82	34.82	
2025-01-09 01:20:35.15	19.82	34.87	
2025-01-09 01:20:35.36	19.83	34.93	
2025-01-09 01:20:35.56	19.83	34.98	
2025-01-09 01:20:35.77	19.84	35.03	
2025-01-09 01:20:35.97	19.84	35.09	
2025-01-09 01:20:36.18	19.85	35.14	
2025-01-09 01:20:36.39	19.85	35.20	
2025-01-09 01:20:36.59	19.85	35.25	
2025-01-09 01:20:36.81	19.86	35.31	
2025-01-09 01:20:37.02	19.86	35.36	
2025-01-09 01:20:37.22	19.87	35.41	
2025-01-09 01:20:37.43	19.87	35.47	
2025-01-09 01:20:37.63	19.88	35.52	
2025-01-09 01:20:37.84	19.88	35.58	
2025-01-09 01:20:38.04	19.89	35.63	
2025-01-09 01:20:38.25	19.89	35.69	
2025-01-09 01:20:38.45	19.90	35.74	
2025-01-09 01:20:38.66	19.90	35.80	
2025-01-09 01:20:38.86	19.90	35.85	
2025-01-09 01:20:39.06	19.91	35.91	
2025-01-09 01:20:39.27	19.91	35.96	
2025-01-09 01:20:39.48	19.92	36.02	
2025-01-09 01:20:39.68	19.92	36.07	
2025-01-09 01:20:39.89	19.93	36.13	
2025-01-09 01:20:40.10	19.93	36.19	
2025-01-09 01:20:40.31	19.94	36.25	
2025-01-09 01:20:40.52	19.94	36.30	
2025-01-09 01:20:40.72	19.95	36.36	
2025-01-09 01:20:40.93	19.95	36.41	
2025-01-09 01:20:41.14	19.96	36.47	
2025-01-09 01:20:41.35	19.96	36.53	
2025-01-09 01:20:41.55	19.97	36.59	
2025-01-09 01:20:41.76	19.97	36.64	
2025-01-09 01:20:41.96	19.97	36.70	
2025-01-09 01:20:42.17	19.98	36.76	
2025-01-09 01:20:42.37	19.98	36.81	
2025-01-09 01:20:42.58	19.99	36.87	
2025-01-09 01:20:42.78	19.99	36.93	
2025-01-09 01:20:42.99	20.00	36.98	
2025-01-09 01:20:43.21	20.00	37.05	
2025-01-09 01:20:43.41	20.01	37.10	
2025-01-09 01:20:43.62	20.01	37.16	
2025-01-09 01:20:43.82	20.02	37.22	
2025-01-09 01:20:44.03	20.02	37.28	
2025-01-09 01:20:44.24	20.03	37.34	
2025-01-09 01:20:44.45	20.03	37.40	
2025-01-09 01:20:44.65	20.04	37.45	
2025-01-09 01:20:44.86	20.04	37.51	
2025-01-09 01:20:45.06	20.05	37.57	
2025-01-09 01:20:45.27	20.05	37.63	
2025-01-09 01:20:45.47	20.06	37.68	
2025-01-09 01:20:45.68	20.06	37.74	
2025-01-09 01:20:45.88	20.07	37.80	
2025-01-09 01:20:46.09	20.07	37.86	
2025-01-09 01:20:46.29	20.08	37.92	
2025-01-09 01:20:46.49	20.08	37.98	
2025-01-09 01:20:46.70	20.09	38.04	
2025-01-09 01:20:46.91	20.09	38.10	
2025-01-09 01:20:47.11	20.10	38.16	
2025-01-09 01:20:47.32	20.10	38.22	
2025-01-09 01:20:47.52	20.11	38.28	
2025-01-09 01:20:47.73	20.11	38.34	
2025-01-09 01:20:47.93	20.12	38.40	
2025-01-09 01:20:48.13	20.12	38.45	
2025-01-09 01:20:48.34	20.13	38.52	
2025-01-09 01:20:48.54	20.14	38.57	
2025-01-09 01:20:48.75	20.14	38.64	
2025-01-09 01:20:48.96	20.15	38.70	
2025-01-09 01:20:49.16	20.15	38.76	
2025-01-09 01:20:49.37	20.16	38.82	
2025-01-09 01:20:49.57	20.16	38.88	
2025-01-09 01:20:49.78	20.17	38.94	
2025-01-09 01:20:49.98	20.17	39.00	
2025-01-09 01:20:50.19	20.18	39.06	
2025-01-09 01:20:50.39	20.18	39.12	
2025-01-09 01:20:50.60	20.19	39.18	
2025-01-09 01:20:50.80	20.19	39.24	
2025-01-09 01:20:51.01	20.20	39.31	
2025-01-09 01:20:51.21	20.21	39.37	
2025-01-09 01:20:51.42	20.21	39.43	
2025-01-09 01:20:51.62	20.22	39.49	
2025-01-09 01:20:51.83	20.22	39.55	
2025-01-09 01:20:52.03	20.23	39.61	
2025-01-09 01:20:52.24	20.23	39.68	
2025-01-09 01:20:52.44	20.24	39.74	
2025-01-09 01:20:52.65	20.24	39.80	
2025-01-09 01:20:52.85	20.25	39.86	
2025-01-09 01:20:53.06	20.26	39.93	
2025-01-09 01:20:53.26	20.26	39.99	
2025-01-09 01:20:53.47	20.27	40.05	
2025-01-09 01:20:53.68	20.27	40.12	
2025-01-09 01:20:53.88	20.28	40.18	
2025-01-09 01:20:54.08	20.28	40.24	
2025-01-09 01:20:54.29	20.29	40.31	
2025-01-09 01:20:54.49	20.30	40.37	
2025-01-09 01:20:54.70	20.30	40.43	
2025-01-09 01:20:54.90	20.31	40.50	
2025-01-09 01:20:55.11	20.31	40.56	
2025-01-09 01:20:55.31	20.32	40.62	
2025-01-09 01:20:55.52	20.32	40.69	
2025-01-09 01:20:55.73	20.33	40.76	
2025-01-09 01:20:55.93	20.34	40.82	
2025-01-09 01:20:56.14	20.34	40.88	
2025-01-09 01:20:56.34	20.35	40.95	
2025-01-09 01:20:56.55	20.35	41.01	
2025-01-09 01:20:56.75	20.36	41.08	
2025-01-09 01:20:56.96	20.37	41.14	
2025-01-09 01:20:57.16	20.37	41.21	
2025-01-09 01:20:57.36	20.38	41.27	
2025-01-09 01:20:57.57	20.38	41.34	
2025-01-09 01:20:57.78	20.39	41.40	
2025-01-09 01:20:57.98	20.40	41.47	
2025-01-09 01:20:58.18	20.40	41.53	
2025-01-09 01:20:58.39	20.41	41.60	
2025-01-09 01:20:58.59	20.41	41.66	
2025-01-09 01:20:58.80	20.42	41.73	
2025-01-09 01:20:59.01	20.43	41.80	
2025-01-09 01:20:59.21	20.43	41.86	
2025-01-09 01:20:59.42	20.44	41.93	
2025-01-09 01:20:59.62	20.45	42.00	
2025-01-09 01:20:59.83	20.45	42.07	
2025-01-09 01:21:00.03	20.46	42.13	
2025-01-09 01:21:00.23	20.47	42.20	
2025-01-09 01:21:00.44	20.47	42.27	
2025-01-09 01:21:00.65	20.48	42.33	
2025-01-09 01:21:00.85	20.48	42.40	
2025-01-09 01:21:01.06	20.49	42.47	
2025-01-09 01:21:01.26	20.50	42.53	
2025-01-09 01:21:01.47	20.50	42.60	
2025-01-09 01:21:01.67	20.51	42.67	
2025-01-09 01:21:01.88	20.52	42.74	
2025-01-09 01:21:02.08	20.52	42.81	
2025-01-09 01:21:02.29	20.53	42.88	
2025-01-09 01:21:02.49	20.54	42.94	
2025-01-09 01:21:02.70	20.54	43.01	
2025-01-09 01:21:02.90	20.55	43.08	
2025-01-09 01:21:03.11	20.56	43.15	
2025-01-09 01:21:03.32	20.56	43.22	
2025-01-09 01:21:03.52	20.57	43.29	
2025-01-09 01:21:03.73	20.58	43.36	
2025-01-09 01:21:03.93	20.58	43.43	
2025-01-09 01:21:04.14	20.59	43.50	
2025-01-09 01:21:04.34	20.60	43.57	
2025-01-09 01:21:04.54	20.61	43.63	
2025-01-09 01:21:04.75	20.61	43.71	
2025-01-09 01:21:04.95	20.62	43.77	
2025-01-09 01:21:05.16	20.63	43.85	
2025-01-09 01:21:05.36	20.63	43.91	
2025-01-09 01:21:05.57	20.64	43.99	
2025-01-09 01:21:05.77	20.65	44.06	
2025-01-09 01:21:05.98	20.65	44.13	
2025-01-09 01:21:06.18	20.66	44.20	
2025-01-09 01:21:06.39	20.67	44.27	
2025-01-09 01:21:06.59	20.68	44.34	
2025-01-09 01:21:06.80	20.68	44.41	
2025-01-09 01:21:07.00	20.69	44.48	
2025-01-09 01:21:07.21	20.70	44.55	
2025-01-09 01:21:07.41	20.71	44.62	
2025-01-09 01:21:07.62	20.71	44.70	
2025-01-09 01:21:07.82	20.72	44.77	
2025-01-09 01:21:08.03	20.73	44.84	
2025-01-09 01:21:08.23	20.73	44.91	
2025-01-09 01:21:08.44	20.74	44.99	
2025-01-09 01:21:08.64	20.75	45.06	
2025-01-09 01:21:08.85	20.76	45.13	
2025-01-09 01:21:09.05	20.76	45.20	
2025-01-09 01:21:09.26	20.77	45.28	
2025-01-09 01:21:09.46	20.78	45.35	
2025-01-09 01:21:09.67	20.79	45.42	
2025-01-09 01:21:09.87	20.80	45.49	
2025-01-09 01:21:10.08	20.80	45.57	
2025-01-09 01:21:10.28	20.81	45.64	
2025-01-09 01:21:10.49	20.82	45.72	
2025-01-09 01:21:10.69	20.83	45.79	
2025-01-09 01:21:10.89	20.83	45.86	
2025-01-09 01:21:11.10	20.84	45.94	
2025-01-09 01:21:11.30	20.85	46.01	
2025-01-09 01:21:11.51	20.86	46.08	
2025-01-09 01:21:11.72	20.87	46.16	
2025-01-09 01:21:11.92	20.87	46.23	
2025-01-09 01:21:12.12	20.88	46.31	
2025-01-09 01:21:12.33	20.89	46.38	
2025-01-09 01:21:12.54	20.90	46.46	
2025-01-09 01:21:12.74	20.91	46.53	
2025-01-09 01:21:12.95	20.91	46.61	
2025-01-09 01:21:13.17	20.92	46.69	
2025-01-09 01:21:13.37	20.93	46.77	
2025-01-09 01:21:13.58	20.94	46.84	
2025-01-09 01:21:13.78	20.95	46.92	
2025-01-09 01:21:13.99	20.96	47.00	
2025-01-09 01:21:14.19	20.97	47.07	
2025-01-09 01:21:14.40	20.97	47.15	
2025-01-09 01:21:14.60	20.98	47.22	
2025-01-09 01:21:14.81	20.99	47.30	
2025-01-09 01:21:15.01	21.00	47.38	
2025-01-09 01:21:15.22	21.01	47.46	
2025-01-09 01:21:15.42	21.02	47.53	
2025-01-09 01:21:15.63	21.03	47.61	
2025-01-09 01:21:15.83	21.03	47.69	
2025-01-09 01:21:16.04	21.04	47.76	
2025-01-09 01:21:16.25	21.05	47.84	
2025-01-09 01:21:16.45	21.06	47.92	
2025-01-09 01:21:16.66	21.07	48.00	
2025-01-09 01:21:16.86	21.08	48.08	
2025-01-09 01:21:17.07	21.09	48.16	
2025-01-09 01:21:17.28	21.10	48.24	
2025-01-09 01:21:17.48	21.11	48.31	
2025-01-09 01:21:17.69	21.12	48.39	
2025-01-09 01:21:17.89	21.12	48.47	
2025-01-09 01:21:18.10	21.13	48.55	
2025-01-09 01:21:18.30	21.14	48.63	
2025-01-09 01:21:18.50	21.15	48.71	
2025-01-09 01:21:18.71	21.16	48.79	
2025-01-09 01:21:18.91	21.17	48.87	
2025-01-09 01:21:19.12	21.18	48.95	
2025-01-09 01:21:19.33	21.19	49.03	
2025-01-09 01:21:19.53	21.20	49.11	
2025-01-09 01:21:19.74	21.21	49.19	
2025-01-09 01:21:19.94	21.22	49.27	
2025-01-09 01:21:20.15	21.23	49.35	
2025-01-09 01:21:20.35	21.24	49.43	
2025-01-09 01:21:20.55	21.25	49.51	
2025-01-09 01:21:20.76	21.26	49.59	
2025-01-09 01:21:20.97	21.27	49.67	
2025-01-09 01:21:21.17	21.28	49.75	
2025-01-09 01:21:21.38	21.29	49.84	
2025-01-09 01:21:21.58	21.30	49.92	
2025-01-09 01:21:21.78	21.31	50.00	
2025-01-09 01:21:21.99	21.32	50.08	
2025-01-09 01:21:22.19	21.33	50.16	
2025-01-09 01:21:22.40	21.34	50.24	
2025-01-09 01:21:22.60	21.35	50.32	
2025-01-09 01:21:22.82	21.36	50.41	
2025-01-09 01:21:23.03	21.37	50.50	
2025-01-09 01:21:23.23	21.38	50.58	
2025-01-09 01:21:23.44	21.39	50.66	
2025-01-09 01:21:23.65	21.40	50.75	
2025-01-09 01:21:23.85	21.41	50.83	
2025-01-09 01:21:24.05	21.42	50.91	
2025-01-09 01:21:24.26	21.43	51.00	
2025-01-09 01:21:24.47	21.44	51.08	
2025-01-09 01:21:24.67	21.45	51.17	
2025-01-09 01:21:24.87	21.46	51.25	
2025-01-09 01:21:25.08	21.48	51.33	
2025-01-09 01:21:25.29	21.49	51.42	
2025-01-09 01:21:25.49	21.50	51.50	
2025-01-09 01:21:25.70	21.51	51.59	
2025-01-09 01:21:25.90	21.52	51.67	
2025-01-09 01:21:26.11	21.53	51.76	
2025-01-09 01:21:26.32	21.54	51.85	
2025-01-09 01:21:26.52	21.55	51.93	
2025-01-09 01:21:26.73	21.57	52.02	
2025-01-09 01:21:26.93	21.58	52.10	
2025-01-09 01:21:27.13	21.59	52.18	
2025-01-09 01:21:27.34	21.60	52.27	
2025-01-09 01:21:27.54	21.61	52.36	
2025-01-09 01:21:27.75	21.62	52.45	
2025-01-09 01:21:27.95	21.63	52.53	
2025-01-09 01:21:28.16	21.65	52.62	
2025-01-09 01:21:28.36	21.66	52.70	
2025-01-09 01:21:28.57	21.67	52.79	
2025-01-09 01:21:28.77	21.68	52.88	
2025-01-09 01:21:28.98	21.69	52.97	
2025-01-09 01:21:29.18	21.71	53.05	
2025-01-09 01:21:29.39	21.72	53.14	
2025-01-09 01:21:29.59	21.73	53.23	
2025-01-09 01:21:29.80	21.74	53.32	
2025-01-09 01:21:30.01	21.76	53.41	
2025-01-09 01:21:30.21	21.77	53.49	
2025-01-09 01:21:30.41	21.78	53.58	
2025-01-09 01:21:30.62	21.79	53.67	
2025-01-09 01:21:30.82	21.81	53.76	
2025-01-09 01:21:31.03	21.82	53.85	
2025-01-09 01:21:31.23	21.83	53.93	
2025-01-09 01:21:31.44	21.85	54.03	
2025-01-09 01:21:31.64	21.86	54.11	
2025-01-09 01:21:31.85	21.87	54.20	
2025-01-09 01:21:32.06	21.88	54.30	
2025-01-09 01:21:32.26	21.90	54.38	
2025-01-09 01:21:32.47	21.91	54.48	
2025-01-09 01:21:32.67	21.92	54.56	
2025-01-09 01:21:32.88	21.94	54.66	
2025-01-09 01:21:33.08	21.95	54.74	
2025-01-09 01:21:33.29	21.97	54.84	
2025-01-09 01:21:33.49	21.98	54.93	
2025-01-09 01:21:33.70	21.99	55.02	
2025-01-09 01:21:33.90	22.01	55.11	
2025-01-09 01:21:34.11	22.02	55.20	
2025-01-09 01:21:34.31	22.03	55.29	
2025-01-09 01:21:34.52	22.05	55.38	
2025-01-09 01:21:34.72	22.06	55.47	
2025-01-09 01:21:34.93	22.08	55.57	
2025-01-09 01:21:35.13	22.09	55.66	
2025-01-09 01:21:35.34	22.11	55.75	
2025-01-09 01:21:35.54	22.12	55.84	
2025-01-09 01:21:35.75	22.14	55.94	
2025-01-09 01:21:35.95	22.15	56.03	
2025-01-09 01:21:36.16	22.17	56.12	
2025-01-09 01:21:36.36	22.18	56.21	
2025-01-09 01:21:36.57	22.20	56.31	
2025-01-09 01:21:36.77	22.21	56.40	
2025-01-09 01:21:36.98	22.23	56.50	
2025-01-09 01:21:37.18	22.24	56.59	
2025-01-09 01:21:37.39	22.26	56.68	
2025-01-09 01:21:37.59	22.27	56.77	
2025-01-09 01:21:37.79	22.29	56.87	
2025-01-09 01:21:38.00	22.30	56.96	
2025-01-09 01:21:38.20	22.32	57.06	
2025-01-09 01:21:38.41	22.34	57.15	
2025-01-09 01:21:38.61	22.35	57.24	
2025-01-09 01:21:38.82	22.37	57.34	
2025-01-09 01:21:39.02	22.38	57.44	
2025-01-09 01:21:39.23	22.40	57.53	
2025-01-09 01:21:39.43	22.42	57.63	
2025-01-09 01:21:39.64	22.43	57.72	
2025-01-09 01:21:39.84	22.45	57.82	
2025-01-09 01:21:40.05	22.47	57.92	
2025-01-09 01:21:40.25	22.49	58.01	
2025-01-09 01:21:40.46	22.50	58.11	
2025-01-09 01:21:40.66	22.52	58.20	
2025-01-09 01:21:40.87	22.54	58.30	
2025-01-09 01:21:41.07	22.55	58.40	
2025-01-09 01:21:41.28	22.57	58.49	
2025-01-09 01:21:41.48	22.59	58.59	
2025-01-09 01:21:41.69	22.61	58.69	
2025-01-09 01:21:41.89	22.63	58.78	
2025-01-09 01:21:42.09	22.64	58.88	
2025-01-09 01:21:42.30	22.66	58.98	
2025-01-09 01:21:42.51	22.68	59.08	
2025-01-09 01:21:42.71	22.70	59.18	
2025-01-09 01:21:42.92	22.72	59.28	
2025-01-09 01:21:43.12	22.74	59.37	
2025-01-09 01:21:43.33	22.76	59.47	
2025-01-09 01:21:43.53	22.77	59.57	
2025-01-09 01:21:43.74	22.79	59.67	
2025-01-09 01:21:43.94	22.81	59.77	
2025-01-09 01:21:44.15	22.83	59.87	
2025-01-09 01:21:44.35	22.85	59.97	
2025-01-09 01:21:44.56	22.87	60.07	
2025-01-09 01:21:44.76	22.89	60.16	
2025-01-09 01:21:44.97	22.91	60.27	
2025-01-09 01:21:45.17	22.93	60.36	
2025-01-09 01:21:45.38	22.95	60.47	
2025-01-09 01:21:45.58	22.97	60.57	
2025-01-09 01:21:45.79	22.99	60.67	
2025-01-09 01:21:45.99	23.01	60.77	
2025-01-09 01:21:46.20	23.04	60.87	
2025-01-09 01:21:46.42	23.06	60.98	
2025-01-09 01:21:46.62	23.08	61.08	
2025-01-09 01:21:46.83	23.10	61.18	
2025-01-09 01:21:47.03	23.12	61.28	
2025-01-09 01:21:47.24	23.15	61.38	
2025-01-09 01:21:47.46	23.17	61.49	
2025-01-09 01:21:47.66	23.19	61.59	
2025-01-09 01:21:47.87	23.21	61.70	
2025-01-09 01:21:48.07	23.24	61.80	
2025-01-09 01:21:48.28	23.26	61.90	
2025-01-09 01:21:48.48	23.28	62.00	
2025-01-09 01:21:48.69	23.31	62.11	
2025-01-09 01:21:48.89	23.33	62.21	
2025-01-09 01:21:49.10	23.35	62.31	
2025-01-09 01:21:49.30	23.38	62.41	
2025-01-09 01:21:49.52	23.40	62.52	
2025-01-09 01:21:49.72	23.42	62.63	
2025-01-09 01:21:49.93	23.45	62.73	
2025-01-09 01:21:50.13	23.47	62.83	
2025-01-09 01:21:50.34	23.50	62.94	
2025-01-09 01:21:50.56	23.53	63.05	
2025-01-09 01:21:50.76	23.55	63.15	
2025-01-09 01:21:50.97	23.58	63.26	
2025-01-09 01:21:51.17	23.60	63.36	
2025-01-09 01:21:51.38	23.63	63.47	
2025-01-09 01:21:51.58	23.65	63.57	
2025-01-09 01:21:51.79	23.68	63.68	
2025-01-09 01:21:51.99	23.71	63.78	
2025-01-09 01:21:52.20	23.73	63.89	
2025-01-09 01:21:52.40	23.76	63.99	
2025-01-09 01:21:52.61	23.79	64.10	
2025-01-09 01:21:52.81	23.81	64.20	
2025-01-09 01:21:53.02	23.84	64.31	
2025-01-09 01:21:53.22	23.87	64.42	
2025-01-09 01:21:53.43	23.90	64.53	
2025-01-09 01:21:53.63	23.93	64.63	
2025-01-09 01:21:53.84	23.96	64.74	
2025-01-09 01:21:54.04	23.99	64.84	
2025-01-09 01:21:54.25	24.02	64.95	
2025-01-09 01:21:54.45	24.04	65.06	
2025-01-09 01:21:54.66	24.07	65.17	
2025-01-09 01:21:54.86	24.10	65.27	
2025-01-09 01:21:55.07	24.14	65.38	
2025-01-09 01:21:55.27	24.17	65.49	
2025-01-09 01:21:55.48	24.20	65.60	
2025-01-09 01:21:55.69	24.23	65.71	
2025-01-09 01:21:55.90	24.26	65.82	
2025-01-09 01:21:56.11	24.29	65.93	
2025-01-09 01:21:56.31	24.33	66.04	
2025-01-09 01:21:56.52	24.36	66.15	
2025-01-09 01:21:56.72	24.39	66.25	
2025-01-09 01:21:56.92	24.42	66.36	
2025-01-09 01:21:57.13	24.46	66.47	
2025-01-09 01:21:57.34	24.49	66.58	
2025-01-09 01:21:57.54	24.53	66.69	
2025-01-09 01:21:57.75	24.56	66.80	
2025-01-09 01:21:57.95	24.60	66.91	
2025-01-09 01:21:58.16	24.63	67.02	
2025-01-09 01:21:58.36	24.67	67.13	
2025-01-09 01:21:58.57	24.70	67.24	
2025-01-09 01:21:58.77	24.74	67.35	
2025-01-09 01:21:58.98	24.78	67.46	
2025-01-09 01:21:59.18	24.81	67.57	
2025-01-09 01:21:59.38	24.85	67.68	
2025-01-09 01:21:59.59	24.89	67.79	
2025-01-09 01:21:59.79	24.93	67.90	
2025-01-09 01:22:00.00	24.97	68.01	
2025-01-09 01:22:00.20	25.00	68.12	
2025-01-09 01:22:00.41	25.05	68.23	
2025-01-09 01:22:00.62	25.09	68.35	
2025-01-09 01:22:00.82	25.13	68.46	
2025-01-09 01:22:01.03	25.17	68.57	
2025-01-09 01:22:01.23	25.21	68.68	
2025-01-09 01:22:01.44	25.25	68.79	
2025-01-09 01:22:01.64	25.29	68.90	
2025-01-09 01:22:01.85	25.34	69.02	
2025-01-09 01:22:02.05	25.38	69.13	
2025-01-09 01:22:02.25	25.42	69.24	
2025-01-09 01:22:02.46	25.47	69.35	
2025-01-09 01:22:02.66	25.51	69.46	
2025-01-09 01:22:02.87	25.56	69.58	
2025-01-09 01:22:03.07	25.60	69.69	
2025-01-09 01:22:03.28	25.65	69.81	
2025-01-09 01:22:03.48	25.70	69.92	
2025-01-09 01:22:03.69	25.74	70.03	
2025-01-09 01:22:03.89	25.79	70.14	
2025-01-09 01:22:04.10	25.84	70.26	
2025-01-09 01:22:04.31	25.89	70.38	
2025-01-09 01:22:04.51	25.94	70.49	
2025-01-09 01:22:04.72	25.99	70.60	
2025-01-09 01:22:04.92	26.04	70.71	
2025-01-09 01:22:05.13	26.09	70.83	
2025-01-09 01:22:05.33	26.15	70.94	
2025-01-09 01:22:05.55	26.20	71.07	
2025-01-09 01:22:05.75	26.26	71.18	
2025-01-09 01:22:05.96	26.31	71.30	
2025-01-09 01:22:06.16	26.37	71.41	
2025-01-09 01:22:06.37	26.42	71.53	
2025-01-09 01:22:06.58	26.48	71.64	
2025-01-09 01:22:06.79	26.54	71.76	
2025-01-09 01:22:07.00	26.60	71.88	
2025-01-09 01:22:07.20	26.66	71.99	
2025-01-09 01:22:07.40	26.72	72.10	
2025-01-09 01:22:07.61	26.78	72.22	
2025-01-09 01:22:07.81	26.84	72.34	
2025-01-09 01:22:08.02	26.90	72.45	
2025-01-09 01:22:08.23	26.97	72.57	
2025-01-09 01:22:08.43	27.03	72.69	
2025-01-09 01:22:08.64	27.10	72.81	
2025-01-09 01:22:08.84	27.16	72.92	
2025-01-09 01:22:09.05	27.23	73.04	
2025-01-09 01:22:09.25	27.29	73.15	
2025-01-09 01:22:09.46	27.37	73.27	
2025-01-09 01:22:09.66	27.43	73.38	
2025-01-09 01:22:09.87	27.51	73.50	
2025-01-09 01:22:10.07	27.58	73.62	
2025-01-09 01:22:10.28	27.65	73.74	
2025-01-09 01:22:10.48	27.72	73.85	
2025-01-09 01:22:10.69	27.80	73.97	
2025-01-09 01:22:10.89	27.87	74.09	
2025-01-09 01:22:11.10	27.95	74.21	
2025-01-09 01:22:11.31	28.03	74.33	
2025-01-09 01:22:11.51	28.11	74.44	
2025-01-09 01:22:11.72	28.20	74.56	
2025-01-09 01:22:11.92	28.28	74.68	
2025-01-09 01:22:12.13	28.36	74.80	
2025-01-09 01:22:12.33	28.45	74.91	
2025-01-09 01:22:12.54	28.53	75.03	
2025-01-09 01:22:12.74	28.62	75.15	
2025-01-09 01:22:12.95	28.71	75.27	
2025-01-09 01:22:13.15	28.80	75.38	
2025-01-09 01:22:13.36	28.90	75.51	
2025-01-09 01:22:13.56	28.99	75.62	
2025-01-09 01:22:13.76	29.08	75.74	
2025-01-09 01:22:13.97	29.18	75.86	
2025-01-09 01:22:14.17	29.28	75.97	
2025-01-09 01:22:14.38	29.38	76.10	
2025-01-09 01:22:14.58	29.48	76.21	
2025-01-09 01:22:14.79	29.59	76.33	
2025-01-09 01:22:14.99	29.69	76.45	
2025-01-09 01:22:15.20	29.80	76.57	
2025-01-09 01:22:15.40	29.91	76.69	
2025-01-09 01:22:15.61	30.02	76.81	
2025-01-09 01:22:15.81	30.13	76.92	
2025-01-09 01:22:16.02	30.25	77.05	
2025-01-09 01:22:16.22	30.37	77.16	
2025-01-09 01:22:16.43	30.49	77.28	
2025-01-09 01:22:16.63	30.61	77.40	
2025-01-09 01:22:16.84	30.74	77.52	
2025-01-09 01:22:17.04	30.87	77.64	
2025-01-09 01:22:17.26	31.01	77.77	
2025-01-09 01:22:17.47	31.14	77.89	
2025-01-09 01:22:17.67	31.28	78.00	
2025-01-09 01:22:17.88	31.42	78.13	
2025-01-09 01:22:18.08	31.56	78.24	
2025-01-09 01:22:18.30	31.71	78.37	
2025-01-09 01:22:18.51	31.86	78.49	
2025-01-09 01:22:18.72	32.02	78.62	
2025-01-09 01:22:18.92	32.17	78.73	
2025-01-09 01:22:19.12	32.32	78.85	
2025-01-09 01:22:19.33	32.49	78.97	
2025-01-09 01:22:19.53	32.65	79.09	
2025-01-09 01:22:19.74	32.82	79.21	
2025-01-09 01:22:19.95	33.00	79.33	
2025-01-09 01:22:20.15	33.17	79.45	
2025-01-09 01:22:20.35	33.35	79.57	
2025-01-09 01:22:20.56	33.54	79.69	
2025-01-09 01:22:20.76	33.72	79.80	
2025-01-09 01:22:20.97	33.92	79.93	
2025-01-09 01:22:21.18	34.12	80.05	
2025-01-09 01:22:21.38	34.32	80.16	
2025-01-09 01:22:21.58	34.52	80.28	
2025-01-09 01:22:21.79	34.74	80.40	
