passes_logs/2025/01/09/SPB_Silybum_02/SPB_Silybum_02__20250109_070205_SUOMI_NPP_rec.log

#Pass ID: 20250109_070205_SUOMI NPP
#Satellite: SUOMI NPP
#Configuration: NPP
#Start time: 2025-01-09 07:02:06

#Version: 2.0.20230423
#Station: SPB_Silybum_02
#Location: 30.233357 lon 59.946436 lat
#TLE: 1 37849U 11061A   25008.85814474  .00000207  00000+0  11909-3 0  9997
#TLE: 2 37849  98.7439 309.9248 0001886  50.2762 309.8580 14.19535270684045

#Time	Az	El	Level	Level2	SNR	BER	Gain	Gain2
2025-01-09 07:02:08.24	66.27	4.14	
2025-01-09 07:02:08.44	66.25	4.14	
2025-01-09 07:02:08.65	66.23	4.15	
2025-01-09 07:02:08.85	66.20	4.16	
2025-01-09 07:02:09.06	66.18	4.17	
2025-01-09 07:02:09.27	66.16	4.18	
2025-01-09 07:02:09.47	66.13	4.19	
2025-01-09 07:02:09.67	66.11	4.20	
2025-01-09 07:02:09.88	66.09	4.21	
2025-01-09 07:02:10.09	66.06	4.22	
2025-01-09 07:02:10.29	66.04	4.23	
2025-01-09 07:02:10.50	66.02	4.24	
2025-01-09 07:02:10.70	65.99	4.25	
2025-01-09 07:02:10.90	65.97	4.25	
2025-01-09 07:02:11.11	65.95	4.26	
2025-01-09 07:02:11.32	65.92	4.27	
2025-01-09 07:02:11.52	65.90	4.28	
2025-01-09 07:02:11.72	65.88	4.29	
2025-01-09 07:02:11.93	65.86	4.30	
2025-01-09 07:02:12.14	65.83	4.31	
2025-01-09 07:02:12.34	65.81	4.32	
2025-01-09 07:02:12.55	65.78	4.33	
2025-01-09 07:02:12.75	65.76	4.34	
2025-01-09 07:02:12.96	65.74	4.35	
2025-01-09 07:02:13.16	65.71	4.35	
2025-01-09 07:02:13.37	65.69	4.36	
2025-01-09 07:02:13.58	65.67	4.37	
2025-01-09 07:02:13.78	65.64	4.38	
2025-01-09 07:02:13.99	65.62	4.39	
2025-01-09 07:02:14.19	65.60	4.40	
2025-01-09 07:02:14.40	65.57	4.41	
2025-01-09 07:02:14.61	65.55	4.42	
2025-01-09 07:02:14.82	65.52	4.43	
2025-01-09 07:02:15.02	65.50	4.44	
2025-01-09 07:02:15.23	65.48	4.45	
2025-01-09 07:02:15.43	65.45	4.46	
2025-01-09 07:02:15.64	65.43	4.46	
2025-01-09 07:02:15.84	65.41	4.47	
2025-01-09 07:02:16.05	65.38	4.48	
2025-01-09 07:02:16.25	65.36	4.49	
2025-01-09 07:02:16.46	65.34	4.50	
2025-01-09 07:02:16.66	65.31	4.51	
2025-01-09 07:02:16.87	65.29	4.52	
2025-01-09 07:02:17.09	65.26	4.53	
2025-01-09 07:02:17.29	65.24	4.54	
2025-01-09 07:02:17.50	65.22	4.55	
2025-01-09 07:02:17.70	65.19	4.56	
2025-01-09 07:02:17.91	65.17	4.57	
2025-01-09 07:02:18.11	65.15	4.57	
2025-01-09 07:02:18.32	65.12	4.58	
2025-01-09 07:02:18.52	65.10	4.59	
2025-01-09 07:02:18.73	65.07	4.60	
2025-01-09 07:02:18.93	65.05	4.61	
2025-01-09 07:02:19.14	65.03	4.62	
2025-01-09 07:02:19.34	65.00	4.63	
2025-01-09 07:02:19.55	64.98	4.64	
2025-01-09 07:02:19.75	64.95	4.65	
2025-01-09 07:02:19.95	64.93	4.66	
2025-01-09 07:02:20.16	64.91	4.66	
2025-01-09 07:02:20.36	64.88	4.67	
2025-01-09 07:02:20.57	64.86	4.68	
2025-01-09 07:02:20.78	64.83	4.69	
2025-01-09 07:02:20.98	64.81	4.70	
2025-01-09 07:02:21.19	64.79	4.71	
2025-01-09 07:02:21.39	64.76	4.72	
2025-01-09 07:02:21.60	64.74	4.73	
2025-01-09 07:02:21.80	64.72	4.74	
2025-01-09 07:02:22.01	64.69	4.75	
2025-01-09 07:02:22.21	64.67	4.76	
2025-01-09 07:02:22.42	64.64	4.76	
2025-01-09 07:02:22.62	64.62	4.77	
2025-01-09 07:02:22.83	64.59	4.78	
2025-01-09 07:02:23.03	64.57	4.79	
2025-01-09 07:02:23.24	64.55	4.80	
2025-01-09 07:02:23.44	64.52	4.81	
2025-01-09 07:02:23.64	64.50	4.82	
2025-01-09 07:02:23.85	64.47	4.83	
2025-01-09 07:02:24.06	64.45	4.84	
2025-01-09 07:02:24.26	64.43	4.85	
2025-01-09 07:02:24.46	64.40	4.85	
2025-01-09 07:02:24.67	64.38	4.86	
2025-01-09 07:02:24.87	64.35	4.87	
2025-01-09 07:02:25.08	64.33	4.88	
2025-01-09 07:02:25.29	64.30	4.89	
2025-01-09 07:02:25.49	64.28	4.90	
2025-01-09 07:02:25.70	64.26	4.91	
2025-01-09 07:02:25.90	64.23	4.92	
2025-01-09 07:02:26.10	64.21	4.93	
2025-01-09 07:02:26.31	64.18	4.94	
2025-01-09 07:02:26.51	64.16	4.94	
2025-01-09 07:02:26.72	64.13	4.95	
2025-01-09 07:02:26.92	64.11	4.96	
2025-01-09 07:02:27.13	64.08	4.97	
2025-01-09 07:02:27.34	64.06	4.98	
2025-01-09 07:02:27.54	64.04	4.99	
2025-01-09 07:02:27.74	64.01	5.00	
2025-01-09 07:02:27.95	63.99	5.01	
2025-01-09 07:02:28.16	63.96	5.02	
2025-01-09 07:02:28.36	63.94	5.03	
2025-01-09 07:02:28.57	63.91	5.03	
2025-01-09 07:02:28.77	63.89	5.04	
2025-01-09 07:02:28.97	63.87	5.05	
2025-01-09 07:02:29.18	63.84	5.06	
2025-01-09 07:02:29.39	63.81	5.07	
2025-01-09 07:02:29.59	63.79	5.08	
2025-01-09 07:02:29.80	63.77	5.09	
2025-01-09 07:02:30.00	63.74	5.10	
2025-01-09 07:02:30.21	63.72	5.11	
2025-01-09 07:02:30.41	63.69	5.12	
2025-01-09 07:02:30.62	63.67	5.12	
2025-01-09 07:02:30.82	63.64	5.13	
2025-01-09 07:02:31.03	63.62	5.14	
2025-01-09 07:02:31.23	63.59	5.15	
2025-01-09 07:02:31.44	63.57	5.16	
2025-01-09 07:02:31.64	63.54	5.17	
2025-01-09 07:02:31.85	63.52	5.18	
2025-01-09 07:02:32.05	63.49	5.19	
2025-01-09 07:02:32.26	63.47	5.20	
2025-01-09 07:02:32.47	63.44	5.21	
2025-01-09 07:02:32.67	63.42	5.21	
2025-01-09 07:02:32.88	63.39	5.22	
2025-01-09 07:02:33.08	63.37	5.23	
2025-01-09 07:02:33.29	63.34	5.24	
2025-01-09 07:02:33.49	63.32	5.25	
2025-01-09 07:02:33.70	63.29	5.26	
2025-01-09 07:02:33.90	63.27	5.27	
2025-01-09 07:02:34.11	63.24	5.28	
2025-01-09 07:02:34.31	63.22	5.29	
2025-01-09 07:02:34.52	63.19	5.29	
2025-01-09 07:02:34.72	63.17	5.30	
2025-01-09 07:02:34.93	63.14	5.31	
2025-01-09 07:02:35.13	63.12	5.32	
2025-01-09 07:02:35.34	63.09	5.33	
2025-01-09 07:02:35.54	63.07	5.34	
2025-01-09 07:02:35.75	63.04	5.35	
2025-01-09 07:02:35.96	63.02	5.36	
2025-01-09 07:02:36.16	62.99	5.37	
2025-01-09 07:02:36.37	62.97	5.37	
2025-01-09 07:02:36.57	62.94	5.38	
2025-01-09 07:02:36.78	62.92	5.39	
2025-01-09 07:02:36.99	62.89	5.40	
2025-01-09 07:02:37.19	62.87	5.41	
2025-01-09 07:02:37.41	62.84	5.42	
2025-01-09 07:02:37.62	62.81	5.43	
2025-01-09 07:02:37.82	62.79	5.44	
2025-01-09 07:02:38.03	62.76	5.45	
2025-01-09 07:02:38.23	62.74	5.46	
2025-01-09 07:02:38.44	62.71	5.46	
2025-01-09 07:02:38.64	62.69	5.47	
2025-01-09 07:02:38.85	62.66	5.48	
2025-01-09 07:02:39.05	62.64	5.49	
2025-01-09 07:02:39.26	62.61	5.50	
2025-01-09 07:02:39.46	62.59	5.51	
2025-01-09 07:02:39.67	62.56	5.52	
2025-01-09 07:02:39.87	62.54	5.53	
2025-01-09 07:02:40.08	62.51	5.54	
2025-01-09 07:02:40.28	62.49	5.54	
2025-01-09 07:02:40.49	62.46	5.55	
2025-01-09 07:02:40.69	62.43	5.56	
2025-01-09 07:02:40.90	62.41	5.57	
2025-01-09 07:02:41.11	62.38	5.58	
2025-01-09 07:02:41.31	62.36	5.59	
2025-01-09 07:02:41.52	62.33	5.60	
2025-01-09 07:02:41.72	62.31	5.61	
2025-01-09 07:02:41.92	62.28	5.62	
2025-01-09 07:02:42.13	62.26	5.62	
2025-01-09 07:02:42.33	62.23	5.63	
2025-01-09 07:02:42.54	62.20	5.64	
2025-01-09 07:02:42.74	62.18	5.65	
2025-01-09 07:02:42.95	62.15	5.66	
2025-01-09 07:02:43.15	62.13	5.67	
2025-01-09 07:02:43.36	62.10	5.68	
2025-01-09 07:02:43.56	62.08	5.69	
2025-01-09 07:02:43.77	62.05	5.69	
2025-01-09 07:02:43.97	62.03	5.70	
2025-01-09 07:02:44.18	62.00	5.71	
2025-01-09 07:02:44.38	61.97	5.72	
2025-01-09 07:02:44.59	61.95	5.73	
2025-01-09 07:02:44.79	61.92	5.74	
2025-01-09 07:02:45.00	61.90	5.75	
2025-01-09 07:02:45.20	61.87	5.76	
2025-01-09 07:02:45.41	61.84	5.77	
2025-01-09 07:02:45.61	61.82	5.77	
2025-01-09 07:02:45.82	61.79	5.78	
2025-01-09 07:02:46.02	61.77	5.79	
2025-01-09 07:02:46.23	61.74	5.80	
2025-01-09 07:02:46.43	61.72	5.81	
2025-01-09 07:02:46.64	61.69	5.82	
2025-01-09 07:02:46.85	61.66	5.83	
2025-01-09 07:02:47.05	61.64	5.84	
2025-01-09 07:02:47.25	61.61	5.84	
2025-01-09 07:02:47.46	61.58	5.85	
2025-01-09 07:02:47.67	61.56	5.86	
2025-01-09 07:02:47.87	61.53	5.87	
2025-01-09 07:02:48.08	61.51	5.88	
2025-01-09 07:02:48.28	61.48	5.89	
2025-01-09 07:02:48.49	61.45	5.90	
2025-01-09 07:02:48.69	61.43	5.91	
2025-01-09 07:02:48.89	61.40	5.91	
2025-01-09 07:02:49.10	61.38	5.92	
2025-01-09 07:02:49.31	61.35	5.93	
2025-01-09 07:02:49.51	61.32	5.94	
2025-01-09 07:02:49.72	61.30	5.95	
2025-01-09 07:02:49.92	61.27	5.96	
2025-01-09 07:02:50.12	61.25	5.97	
2025-01-09 07:02:50.33	61.22	5.98	
2025-01-09 07:02:50.53	61.19	5.98	
2025-01-09 07:02:50.74	61.17	5.99	
2025-01-09 07:02:50.95	61.14	6.00	
2025-01-09 07:02:51.15	61.11	6.01	
2025-01-09 07:02:51.35	61.09	6.02	
2025-01-09 07:02:51.56	61.06	6.03	
2025-01-09 07:02:51.77	61.03	6.04	
2025-01-09 07:02:51.97	61.01	6.05	
2025-01-09 07:02:52.18	60.98	6.05	
2025-01-09 07:02:52.38	60.96	6.06	
2025-01-09 07:02:52.59	60.93	6.07	
2025-01-09 07:02:52.79	60.90	6.08	
2025-01-09 07:02:53.00	60.88	6.09	
2025-01-09 07:02:53.20	60.85	6.10	
2025-01-09 07:02:53.41	60.82	6.11	
2025-01-09 07:02:53.61	60.80	6.12	
2025-01-09 07:02:53.82	60.77	6.12	
2025-01-09 07:02:54.02	60.74	6.13	
2025-01-09 07:02:54.23	60.72	6.14	
2025-01-09 07:02:54.43	60.69	6.15	
2025-01-09 07:02:54.64	60.66	6.16	
2025-01-09 07:02:54.84	60.64	6.17	
2025-01-09 07:02:55.05	60.61	6.18	
2025-01-09 07:02:55.25	60.59	6.19	
2025-01-09 07:02:55.47	60.56	6.19	
2025-01-09 07:02:55.67	60.53	6.20	
2025-01-09 07:02:55.88	60.50	6.21	
2025-01-09 07:02:56.09	60.48	6.22	
2025-01-09 07:02:56.29	60.45	6.23	
2025-01-09 07:02:56.50	60.42	6.24	
2025-01-09 07:02:56.70	60.40	6.25	
2025-01-09 07:02:56.91	60.37	6.26	
2025-01-09 07:02:57.11	60.34	6.26	
2025-01-09 07:02:57.32	60.32	6.27	
2025-01-09 07:02:57.52	60.29	6.28	
2025-01-09 07:02:57.74	60.26	6.29	
2025-01-09 07:02:57.95	60.23	6.30	
2025-01-09 07:02:58.15	60.21	6.31	
2025-01-09 07:02:58.36	60.18	6.32	
2025-01-09 07:02:58.56	60.15	6.32	
2025-01-09 07:02:58.77	60.13	6.33	
2025-01-09 07:02:58.97	60.10	6.34	
2025-01-09 07:02:59.18	60.07	6.35	
2025-01-09 07:02:59.39	60.05	6.36	
2025-01-09 07:02:59.59	60.02	6.37	
2025-01-09 07:02:59.80	59.99	6.38	
2025-01-09 07:03:00.00	59.96	6.39	
2025-01-09 07:03:00.22	59.94	6.39	
2025-01-09 07:03:00.43	59.91	6.40	
2025-01-09 07:03:00.63	59.88	6.41	
2025-01-09 07:03:00.84	59.85	6.42	
2025-01-09 07:03:01.04	59.83	6.43	
2025-01-09 07:03:01.25	59.80	6.44	
2025-01-09 07:03:01.45	59.77	6.45	
2025-01-09 07:03:01.66	59.75	6.45	
2025-01-09 07:03:01.86	59.72	6.46	
2025-01-09 07:03:02.07	59.69	6.47	
2025-01-09 07:03:02.27	59.67	6.48	
2025-01-09 07:03:02.48	59.64	6.49	
2025-01-09 07:03:02.68	59.61	6.50	
2025-01-09 07:03:02.89	59.58	6.51	
2025-01-09 07:03:03.09	59.56	6.51	
2025-01-09 07:03:03.30	59.53	6.52	
2025-01-09 07:03:03.50	59.50	6.53	
2025-01-09 07:03:03.71	59.47	6.54	
2025-01-09 07:03:03.91	59.45	6.55	
2025-01-09 07:03:04.11	59.42	6.56	
2025-01-09 07:03:04.32	59.39	6.57	
2025-01-09 07:03:04.53	59.36	6.57	
2025-01-09 07:03:04.73	59.34	6.58	
2025-01-09 07:03:04.94	59.31	6.59	
2025-01-09 07:03:05.14	59.28	6.60	
2025-01-09 07:03:05.35	59.26	6.61	
2025-01-09 07:03:05.55	59.23	6.62	
2025-01-09 07:03:05.76	59.20	6.63	
2025-01-09 07:03:05.96	59.17	6.63	
2025-01-09 07:03:06.17	59.15	6.64	
2025-01-09 07:03:06.37	59.12	6.65	
2025-01-09 07:03:06.58	59.09	6.66	
2025-01-09 07:03:06.78	59.06	6.67	
2025-01-09 07:03:06.99	59.04	6.68	
2025-01-09 07:03:07.19	59.01	6.69	
2025-01-09 07:03:07.40	58.98	6.69	
2025-01-09 07:03:07.60	58.95	6.70	
2025-01-09 07:03:07.81	58.93	6.71	
2025-01-09 07:03:08.01	58.90	6.72	
2025-01-09 07:03:08.22	58.87	6.73	
2025-01-09 07:03:08.42	58.84	6.74	
2025-01-09 07:03:08.63	58.81	6.74	
2025-01-09 07:03:08.83	58.79	6.75	
2025-01-09 07:03:09.04	58.76	6.76	
2025-01-09 07:03:09.25	58.73	6.77	
2025-01-09 07:03:09.45	58.70	6.78	
2025-01-09 07:03:09.65	58.68	6.79	
2025-01-09 07:03:09.86	58.65	6.80	
2025-01-09 07:03:10.06	58.62	6.80	
2025-01-09 07:03:10.27	58.59	6.81	
2025-01-09 07:03:10.47	58.57	6.82	
2025-01-09 07:03:10.68	58.54	6.83	
2025-01-09 07:03:10.88	58.51	6.84	
2025-01-09 07:03:11.09	58.48	6.85	
2025-01-09 07:03:11.30	58.45	6.85	
2025-01-09 07:03:11.50	58.43	6.86	
2025-01-09 07:03:11.70	58.40	6.87	
2025-01-09 07:03:11.91	58.37	6.88	
2025-01-09 07:03:12.11	58.34	6.89	
2025-01-09 07:03:12.32	58.31	6.90	
2025-01-09 07:03:12.52	58.29	6.91	
2025-01-09 07:03:12.73	58.26	6.91	
2025-01-09 07:03:12.93	58.23	6.92	
2025-01-09 07:03:13.14	58.20	6.93	
2025-01-09 07:03:13.34	58.17	6.94	
2025-01-09 07:03:13.55	58.15	6.95	
2025-01-09 07:03:13.75	58.12	6.96	
2025-01-09 07:03:13.96	58.09	6.96	
2025-01-09 07:03:14.16	58.06	6.97	
2025-01-09 07:03:14.37	58.03	6.98	
2025-01-09 07:03:14.57	58.01	6.99	
2025-01-09 07:03:14.78	57.98	7.00	
2025-01-09 07:03:14.98	57.95	7.01	
2025-01-09 07:03:15.19	57.92	7.01	
2025-01-09 07:03:15.39	57.89	7.02	
2025-01-09 07:03:15.60	57.86	7.03	
2025-01-09 07:03:15.80	57.84	7.04	
2025-01-09 07:03:16.01	57.81	7.05	
2025-01-09 07:03:16.21	57.78	7.06	
2025-01-09 07:03:16.42	57.75	7.06	
2025-01-09 07:03:16.63	57.72	7.07	
2025-01-09 07:03:16.83	57.70	7.08	
2025-01-09 07:03:17.05	57.66	7.09	
2025-01-09 07:03:17.25	57.64	7.10	
2025-01-09 07:03:17.46	57.61	7.11	
2025-01-09 07:03:17.66	57.58	7.11	
2025-01-09 07:03:17.88	57.55	7.12	
2025-01-09 07:03:18.09	57.52	7.13	
2025-01-09 07:03:18.30	57.49	7.14	
2025-01-09 07:03:18.51	57.46	7.15	
2025-01-09 07:03:18.71	57.43	7.16	
2025-01-09 07:03:18.91	57.41	7.17	
2025-01-09 07:03:19.12	57.38	7.17	
2025-01-09 07:03:19.32	57.35	7.18	
2025-01-09 07:03:19.53	57.32	7.19	
2025-01-09 07:03:19.73	57.29	7.20	
2025-01-09 07:03:19.94	57.26	7.21	
2025-01-09 07:03:20.14	57.24	7.21	
2025-01-09 07:03:20.35	57.21	7.22	
2025-01-09 07:03:20.55	57.18	7.23	
2025-01-09 07:03:20.76	57.15	7.24	
2025-01-09 07:03:20.96	57.12	7.25	
2025-01-09 07:03:21.16	57.09	7.26	
2025-01-09 07:03:21.37	57.06	7.26	
2025-01-09 07:03:21.58	57.03	7.27	
2025-01-09 07:03:21.78	57.01	7.28	
2025-01-09 07:03:21.99	56.98	7.29	
2025-01-09 07:03:22.19	56.95	7.30	
2025-01-09 07:03:22.40	56.92	7.31	
2025-01-09 07:03:22.60	56.89	7.31	
2025-01-09 07:03:22.81	56.86	7.32	
2025-01-09 07:03:23.02	56.83	7.33	
2025-01-09 07:03:23.22	56.80	7.34	
2025-01-09 07:03:23.42	56.78	7.35	
2025-01-09 07:03:23.63	56.75	7.35	
2025-01-09 07:03:23.84	56.72	7.36	
2025-01-09 07:03:24.04	56.69	7.37	
2025-01-09 07:03:24.25	56.66	7.38	
2025-01-09 07:03:24.45	56.63	7.39	
2025-01-09 07:03:24.66	56.60	7.40	
2025-01-09 07:03:24.86	56.57	7.40	
2025-01-09 07:03:25.07	56.54	7.41	
2025-01-09 07:03:25.27	56.52	7.42	
2025-01-09 07:03:25.48	56.49	7.43	
2025-01-09 07:03:25.68	56.46	7.44	
2025-01-09 07:03:25.89	56.43	7.44	
2025-01-09 07:03:26.09	56.40	7.45	
2025-01-09 07:03:26.30	56.37	7.46	
2025-01-09 07:03:26.50	56.34	7.47	
2025-01-09 07:03:26.71	56.31	7.48	
2025-01-09 07:03:26.91	56.28	7.49	
2025-01-09 07:03:27.11	56.25	7.49	
2025-01-09 07:03:27.32	56.22	7.50	
2025-01-09 07:03:27.52	56.20	7.51	
2025-01-09 07:03:27.73	56.17	7.52	
2025-01-09 07:03:27.94	56.14	7.53	
2025-01-09 07:03:28.14	56.11	7.53	
2025-01-09 07:03:28.35	56.08	7.54	
2025-01-09 07:03:28.55	56.05	7.55	
2025-01-09 07:03:28.76	56.02	7.56	
2025-01-09 07:03:28.96	55.99	7.57	
2025-01-09 07:03:29.17	55.96	7.57	
2025-01-09 07:03:29.37	55.93	7.58	
2025-01-09 07:03:29.58	55.90	7.59	
2025-01-09 07:03:29.78	55.87	7.60	
2025-01-09 07:03:29.99	55.84	7.61	
2025-01-09 07:03:30.19	55.81	7.61	
2025-01-09 07:03:30.40	55.78	7.62	
2025-01-09 07:03:30.60	55.76	7.63	
2025-01-09 07:03:30.81	55.73	7.64	
2025-01-09 07:03:31.01	55.70	7.65	
2025-01-09 07:03:31.22	55.67	7.65	
2025-01-09 07:03:31.42	55.64	7.66	
2025-01-09 07:03:31.63	55.61	7.67	
2025-01-09 07:03:31.83	55.58	7.68	
2025-01-09 07:03:32.04	55.55	7.69	
2025-01-09 07:03:32.24	55.52	7.69	
2025-01-09 07:03:32.45	55.49	7.70	
2025-01-09 07:03:32.65	55.46	7.71	
2025-01-09 07:03:32.85	55.43	7.72	
2025-01-09 07:03:33.06	55.40	7.73	
2025-01-09 07:03:33.27	55.37	7.74	
2025-01-09 07:03:33.48	55.34	7.74	
2025-01-09 07:03:33.69	55.31	7.75	
2025-01-09 07:03:33.89	55.28	7.76	
2025-01-09 07:03:34.10	55.25	7.77	
2025-01-09 07:03:34.30	55.22	7.78	
2025-01-09 07:03:34.51	55.19	7.78	
2025-01-09 07:03:34.71	55.16	7.79	
2025-01-09 07:03:34.92	55.13	7.80	
2025-01-09 07:03:35.12	55.10	7.81	
2025-01-09 07:03:35.32	55.07	7.81	
2025-01-09 07:03:35.53	55.04	7.82	
2025-01-09 07:03:35.74	55.01	7.83	
2025-01-09 07:03:35.94	54.98	7.84	
2025-01-09 07:03:36.15	54.95	7.85	
2025-01-09 07:03:36.35	54.92	7.85	
2025-01-09 07:03:36.56	54.89	7.86	
2025-01-09 07:03:36.76	54.86	7.87	
2025-01-09 07:03:36.97	54.83	7.88	
2025-01-09 07:03:37.17	54.80	7.89	
2025-01-09 07:03:37.38	54.77	7.89	
2025-01-09 07:03:37.58	54.74	7.90	
2025-01-09 07:03:37.79	54.71	7.91	
2025-01-09 07:03:37.99	54.68	7.92	
2025-01-09 07:03:38.20	54.65	7.93	
2025-01-09 07:03:38.40	54.62	7.93	
2025-01-09 07:03:38.61	54.59	7.94	
2025-01-09 07:03:38.81	54.56	7.95	
2025-01-09 07:03:39.02	54.53	7.96	
2025-01-09 07:03:39.22	54.50	7.96	
2025-01-09 07:03:39.43	54.47	7.97	
2025-01-09 07:03:39.63	54.44	7.98	
2025-01-09 07:03:39.84	54.41	7.99	
2025-01-09 07:03:40.05	54.38	8.00	
2025-01-09 07:03:40.25	54.35	8.00	
2025-01-09 07:03:40.46	54.32	8.01	
2025-01-09 07:03:40.66	54.29	8.02	
2025-01-09 07:03:40.87	54.26	8.03	
2025-01-09 07:03:41.07	54.23	8.04	
2025-01-09 07:03:41.28	54.20	8.04	
2025-01-09 07:03:41.48	54.17	8.05	
2025-01-09 07:03:41.69	54.14	8.06	
2025-01-09 07:03:41.89	54.11	8.07	
2025-01-09 07:03:42.09	54.08	8.07	
2025-01-09 07:03:42.30	54.05	8.08	
2025-01-09 07:03:42.50	54.02	8.09	
2025-01-09 07:03:42.71	53.99	8.10	
2025-01-09 07:03:42.91	53.96	8.10	
2025-01-09 07:03:43.12	53.93	8.11	
2025-01-09 07:03:43.33	53.90	8.12	
2025-01-09 07:03:43.53	53.87	8.13	
2025-01-09 07:03:43.74	53.84	8.14	
2025-01-09 07:03:43.94	53.81	8.14	
2025-01-09 07:03:44.15	53.77	8.15	
2025-01-09 07:03:44.35	53.75	8.16	
2025-01-09 07:03:44.56	53.71	8.17	
2025-01-09 07:03:44.76	53.68	8.17	
2025-01-09 07:03:44.97	53.65	8.18	
2025-01-09 07:03:45.17	53.62	8.19	
2025-01-09 07:03:45.38	53.59	8.20	
2025-01-09 07:03:45.58	53.56	8.21	
2025-01-09 07:03:45.80	53.53	8.21	
2025-01-09 07:03:46.01	53.50	8.22	
2025-01-09 07:03:46.21	53.47	8.23	
2025-01-09 07:03:46.42	53.44	8.24	
2025-01-09 07:03:46.62	53.41	8.24	
2025-01-09 07:03:46.83	53.37	8.25	
2025-01-09 07:03:47.03	53.34	8.26	
2025-01-09 07:03:47.24	53.31	8.27	
2025-01-09 07:03:47.44	53.28	8.27	
2025-01-09 07:03:47.65	53.25	8.28	
2025-01-09 07:03:47.87	53.22	8.29	
2025-01-09 07:03:48.07	53.19	8.30	
2025-01-09 07:03:48.28	53.16	8.31	
2025-01-09 07:03:48.50	53.12	8.31	
2025-01-09 07:03:48.70	53.09	8.32	
2025-01-09 07:03:48.90	53.06	8.33	
2025-01-09 07:03:49.11	53.03	8.34	
2025-01-09 07:03:49.31	53.00	8.34	
2025-01-09 07:03:49.52	52.97	8.35	
2025-01-09 07:03:49.72	52.94	8.36	
2025-01-09 07:03:49.93	52.91	8.37	
2025-01-09 07:03:50.13	52.88	8.37	
2025-01-09 07:03:50.34	52.85	8.38	
2025-01-09 07:03:50.54	52.82	8.39	
2025-01-09 07:03:50.75	52.78	8.40	
2025-01-09 07:03:50.95	52.75	8.40	
2025-01-09 07:03:51.17	52.72	8.41	
2025-01-09 07:03:51.37	52.69	8.42	
2025-01-09 07:03:51.58	52.66	8.43	
2025-01-09 07:03:51.78	52.63	8.43	
2025-01-09 07:03:51.99	52.60	8.44	
2025-01-09 07:03:52.21	52.56	8.45	
2025-01-09 07:03:52.41	52.53	8.46	
2025-01-09 07:03:52.62	52.50	8.47	
2025-01-09 07:03:52.83	52.47	8.47	
2025-01-09 07:03:53.03	52.44	8.48	
2025-01-09 07:03:53.23	52.41	8.49	
2025-01-09 07:03:53.44	52.38	8.50	
2025-01-09 07:03:53.64	52.34	8.50	
2025-01-09 07:03:53.85	52.31	8.51	
2025-01-09 07:03:54.06	52.28	8.52	
2025-01-09 07:03:54.27	52.25	8.53	
2025-01-09 07:03:54.48	52.22	8.53	
2025-01-09 07:03:54.68	52.19	8.54	
2025-01-09 07:03:54.89	52.15	8.55	
2025-01-09 07:03:55.10	52.12	8.56	
2025-01-09 07:03:55.30	52.09	8.56	
2025-01-09 07:03:55.50	52.06	8.57	
2025-01-09 07:03:55.71	52.03	8.58	
2025-01-09 07:03:55.92	52.00	8.59	
2025-01-09 07:03:56.12	51.97	8.59	
2025-01-09 07:03:56.33	51.93	8.60	
2025-01-09 07:03:56.53	51.90	8.61	
2025-01-09 07:03:56.74	51.87	8.61	
2025-01-09 07:03:56.94	51.84	8.62	
2025-01-09 07:03:57.15	51.81	8.63	
2025-01-09 07:03:57.35	51.78	8.64	
2025-01-09 07:03:57.56	51.74	8.64	
2025-01-09 07:03:57.76	51.71	8.65	
2025-01-09 07:03:57.97	51.68	8.66	
2025-01-09 07:03:58.17	51.65	8.67	
2025-01-09 07:03:58.38	51.62	8.67	
2025-01-09 07:03:58.60	51.58	8.68	
2025-01-09 07:03:58.80	51.55	8.69	
2025-01-09 07:03:59.01	51.52	8.70	
2025-01-09 07:03:59.21	51.49	8.70	
2025-01-09 07:03:59.42	51.46	8.71	
2025-01-09 07:03:59.62	51.43	8.72	
2025-01-09 07:03:59.83	51.39	8.72	
2025-01-09 07:04:00.03	51.36	8.73	
2025-01-09 07:04:00.24	51.33	8.74	
2025-01-09 07:04:00.45	51.30	8.75	
2025-01-09 07:04:00.65	51.27	8.75	
2025-01-09 07:04:00.86	51.23	8.76	
2025-01-09 07:04:01.06	51.20	8.77	
2025-01-09 07:04:01.27	51.17	8.78	
2025-01-09 07:04:01.47	51.14	8.78	
2025-01-09 07:04:01.67	51.11	8.79	
2025-01-09 07:04:01.88	51.08	8.80	
2025-01-09 07:04:02.08	51.04	8.80	
2025-01-09 07:04:02.29	51.01	8.81	
2025-01-09 07:04:02.50	50.98	8.82	
2025-01-09 07:04:02.70	50.95	8.83	
2025-01-09 07:04:02.91	50.91	8.83	
2025-01-09 07:04:03.11	50.88	8.84	
2025-01-09 07:04:03.32	50.85	8.85	
2025-01-09 07:04:03.52	50.82	8.85	
2025-01-09 07:04:03.73	50.79	8.86	
2025-01-09 07:04:03.94	50.75	8.87	
2025-01-09 07:04:04.15	50.72	8.88	
2025-01-09 07:04:04.36	50.69	8.88	
2025-01-09 07:04:04.56	50.66	8.89	
2025-01-09 07:04:04.77	50.62	8.90	
2025-01-09 07:04:04.97	50.59	8.91	
2025-01-09 07:04:05.18	50.56	8.91	
2025-01-09 07:04:05.38	50.53	8.92	
2025-01-09 07:04:05.59	50.49	8.93	
2025-01-09 07:04:05.80	50.46	8.93	
2025-01-09 07:04:06.00	50.43	8.94	
2025-01-09 07:04:06.21	50.40	8.95	
2025-01-09 07:04:06.41	50.37	8.95	
2025-01-09 07:04:06.62	50.33	8.96	
2025-01-09 07:04:06.82	50.30	8.97	
2025-01-09 07:04:07.03	50.27	8.98	
2025-01-09 07:04:07.23	50.24	8.98	
2025-01-09 07:04:07.44	50.20	8.99	
2025-01-09 07:04:07.64	50.17	9.00	
2025-01-09 07:04:07.85	50.14	9.00	
2025-01-09 07:04:08.05	50.11	9.01	
2025-01-09 07:04:08.26	50.07	9.02	
2025-01-09 07:04:08.46	50.04	9.03	
2025-01-09 07:04:08.67	50.01	9.03	
2025-01-09 07:04:08.88	49.98	9.04	
2025-01-09 07:04:09.08	49.94	9.05	
2025-01-09 07:04:09.29	49.91	9.05	
2025-01-09 07:04:09.49	49.88	9.06	
2025-01-09 07:04:09.69	49.85	9.07	
2025-01-09 07:04:09.90	49.81	9.07	
2025-01-09 07:04:10.10	49.78	9.08	
2025-01-09 07:04:10.31	49.75	9.09	
2025-01-09 07:04:10.51	49.72	9.09	
2025-01-09 07:04:10.71	49.69	9.10	
2025-01-09 07:04:10.92	49.65	9.11	
2025-01-09 07:04:11.12	49.62	9.12	
2025-01-09 07:04:11.33	49.59	9.12	
2025-01-09 07:04:11.53	49.56	9.13	
2025-01-09 07:04:11.74	49.52	9.14	
2025-01-09 07:04:11.94	49.49	9.14	
2025-01-09 07:04:12.15	49.46	9.15	
2025-01-09 07:04:12.35	49.42	9.16	
2025-01-09 07:04:12.56	49.39	9.16	
2025-01-09 07:04:12.76	49.36	9.17	
2025-01-09 07:04:12.97	49.33	9.18	
2025-01-09 07:04:13.17	49.29	9.18	
2025-01-09 07:04:13.38	49.26	9.19	
2025-01-09 07:04:13.58	49.23	9.20	
2025-01-09 07:04:13.79	49.19	9.20	
2025-01-09 07:04:14.00	49.16	9.21	
2025-01-09 07:04:14.20	49.13	9.22	
2025-01-09 07:04:14.41	49.09	9.23	
2025-01-09 07:04:14.63	49.06	9.23	
2025-01-09 07:04:14.83	49.03	9.24	
2025-01-09 07:04:15.04	48.99	9.25	
2025-01-09 07:04:15.24	48.96	9.25	
2025-01-09 07:04:15.45	48.93	9.26	
2025-01-09 07:04:15.65	48.90	9.27	
2025-01-09 07:04:15.86	48.86	9.27	
2025-01-09 07:04:16.06	48.83	9.28	
2025-01-09 07:04:16.27	48.80	9.29	
2025-01-09 07:04:16.47	48.76	9.29	
2025-01-09 07:04:16.68	48.73	9.30	
2025-01-09 07:04:16.89	48.70	9.31	
2025-01-09 07:04:17.09	48.66	9.31	
2025-01-09 07:04:17.30	48.63	9.32	
2025-01-09 07:04:17.50	48.60	9.33	
2025-01-09 07:04:17.71	48.56	9.33	
2025-01-09 07:04:17.91	48.53	9.34	
2025-01-09 07:04:18.12	48.50	9.35	
2025-01-09 07:04:18.33	48.46	9.35	
2025-01-09 07:04:18.53	48.43	9.36	
2025-01-09 07:04:18.74	48.40	9.37	
2025-01-09 07:04:18.94	48.36	9.37	
2025-01-09 07:04:19.15	48.33	9.38	
2025-01-09 07:04:19.35	48.30	9.39	
2025-01-09 07:04:19.56	48.26	9.39	
2025-01-09 07:04:19.76	48.23	9.40	
2025-01-09 07:04:19.97	48.20	9.41	
2025-01-09 07:04:20.17	48.16	9.41	
2025-01-09 07:04:20.38	48.13	9.42	
2025-01-09 07:04:20.58	48.10	9.43	
2025-01-09 07:04:20.79	48.06	9.43	
2025-01-09 07:04:20.99	48.03	9.44	
2025-01-09 07:04:21.20	48.00	9.45	
2025-01-09 07:04:21.40	47.96	9.45	
2025-01-09 07:04:21.61	47.93	9.46	
2025-01-09 07:04:21.82	47.90	9.47	
2025-01-09 07:04:22.02	47.86	9.47	
2025-01-09 07:04:22.22	47.83	9.48	
2025-01-09 07:04:22.43	47.80	9.49	
2025-01-09 07:04:22.64	47.76	9.49	
2025-01-09 07:04:22.84	47.73	9.50	
2025-01-09 07:04:23.04	47.70	9.50	
2025-01-09 07:04:23.25	47.66	9.51	
2025-01-09 07:04:23.46	47.63	9.52	
2025-01-09 07:04:23.66	47.60	9.52	
2025-01-09 07:04:23.87	47.56	9.53	
2025-01-09 07:04:24.07	47.53	9.54	
2025-01-09 07:04:24.28	47.49	9.54	
2025-01-09 07:04:24.48	47.46	9.55	
2025-01-09 07:04:24.69	47.43	9.56	
2025-01-09 07:04:24.89	47.39	9.56	
2025-01-09 07:04:25.10	47.36	9.57	
2025-01-09 07:04:25.30	47.33	9.58	
2025-01-09 07:04:25.51	47.29	9.58	
2025-01-09 07:04:25.71	47.26	9.59	
2025-01-09 07:04:25.92	47.22	9.60	
2025-01-09 07:04:26.13	47.19	9.60	
2025-01-09 07:04:26.33	47.16	9.61	
2025-01-09 07:04:26.54	47.12	9.61	
2025-01-09 07:04:26.74	47.09	9.62	
2025-01-09 07:04:26.95	47.06	9.63	
2025-01-09 07:04:27.15	47.02	9.63	
2025-01-09 07:04:27.36	46.99	9.64	
2025-01-09 07:04:27.56	46.95	9.65	
2025-01-09 07:04:27.77	46.92	9.65	
2025-01-09 07:04:27.98	46.88	9.66	
2025-01-09 07:04:28.18	46.85	9.66	
2025-01-09 07:04:28.38	46.82	9.67	
2025-01-09 07:04:28.59	46.78	9.68	
2025-01-09 07:04:28.80	46.75	9.68	
2025-01-09 07:04:29.00	46.72	9.69	
2025-01-09 07:04:29.21	46.68	9.70	
2025-01-09 07:04:29.41	46.65	9.70	
2025-01-09 07:04:29.62	46.61	9.71	
2025-01-09 07:04:29.82	46.58	9.71	
2025-01-09 07:04:30.03	46.55	9.72	
2025-01-09 07:04:30.23	46.51	9.73	
2025-01-09 07:04:30.44	46.48	9.73	
2025-01-09 07:04:30.64	46.44	9.74	
2025-01-09 07:04:30.84	46.41	9.75	
2025-01-09 07:04:31.05	46.38	9.75	
2025-01-09 07:04:31.26	46.34	9.76	
2025-01-09 07:04:31.46	46.31	9.76	
2025-01-09 07:04:31.66	46.27	9.77	
2025-01-09 07:04:31.87	46.24	9.78	
2025-01-09 07:04:32.07	46.21	9.78	
2025-01-09 07:04:32.28	46.17	9.79	
2025-01-09 07:04:32.49	46.14	9.80	
2025-01-09 07:04:32.69	46.10	9.80	
2025-01-09 07:04:32.90	46.07	9.81	
2025-01-09 07:04:33.10	46.03	9.81	
2025-01-09 07:04:33.31	46.00	9.82	
2025-01-09 07:04:33.51	45.97	9.83	
2025-01-09 07:04:33.72	45.93	9.83	
2025-01-09 07:04:33.92	45.90	9.84	
2025-01-09 07:04:34.13	45.86	9.84	
2025-01-09 07:04:34.33	45.83	9.85	
2025-01-09 07:04:34.54	45.79	9.86	
2025-01-09 07:04:34.74	45.76	9.86	
2025-01-09 07:04:34.95	45.72	9.87	
2025-01-09 07:04:35.15	45.69	9.87	
2025-01-09 07:04:35.36	45.66	9.88	
2025-01-09 07:04:35.56	45.62	9.89	
2025-01-09 07:04:35.77	45.59	9.89	
2025-01-09 07:04:35.99	45.55	9.90	
2025-01-09 07:04:36.19	45.52	9.90	
2025-01-09 07:04:36.40	45.48	9.91	
2025-01-09 07:04:36.61	45.45	9.92	
2025-01-09 07:04:36.81	45.41	9.92	
2025-01-09 07:04:37.03	45.38	9.93	
2025-01-09 07:04:37.24	45.34	9.93	
2025-01-09 07:04:37.44	45.31	9.94	
2025-01-09 07:04:37.65	45.27	9.95	
2025-01-09 07:04:37.86	45.24	9.95	
2025-01-09 07:04:38.07	45.20	9.96	
2025-01-09 07:04:38.28	45.16	9.96	
2025-01-09 07:04:38.48	45.13	9.97	
2025-01-09 07:04:38.69	45.10	9.98	
2025-01-09 07:04:38.89	45.06	9.98	
2025-01-09 07:04:39.10	45.03	9.99	
2025-01-09 07:04:39.30	44.99	9.99	
2025-01-09 07:04:39.51	44.96	10.00	
2025-01-09 07:04:39.71	44.92	10.01	
2025-01-09 07:04:39.92	44.89	10.01	
2025-01-09 07:04:40.13	44.85	10.02	
2025-01-09 07:04:40.33	44.82	10.02	
2025-01-09 07:04:40.54	44.78	10.03	
2025-01-09 07:04:40.74	44.75	10.03	
2025-01-09 07:04:40.95	44.71	10.04	
2025-01-09 07:04:41.15	44.68	10.05	
2025-01-09 07:04:41.35	44.64	10.05	
2025-01-09 07:04:41.56	44.61	10.06	
2025-01-09 07:04:41.76	44.57	10.06	
2025-01-09 07:04:41.97	44.54	10.07	
2025-01-09 07:04:42.18	44.50	10.07	
2025-01-09 07:04:42.38	44.47	10.08	
2025-01-09 07:04:42.58	44.44	10.09	
2025-01-09 07:04:42.79	44.40	10.09	
2025-01-09 07:04:43.00	44.36	10.10	
2025-01-09 07:04:43.20	44.33	10.10	
2025-01-09 07:04:43.41	44.29	10.11	
2025-01-09 07:04:43.61	44.26	10.11	
2025-01-09 07:04:43.82	44.22	10.12	
2025-01-09 07:04:44.02	44.19	10.13	
2025-01-09 07:04:44.23	44.15	10.13	
2025-01-09 07:04:44.43	44.12	10.14	
2025-01-09 07:04:44.64	44.08	10.14	
2025-01-09 07:04:44.84	44.05	10.15	
2025-01-09 07:04:45.05	44.01	10.15	
2025-01-09 07:04:45.25	43.98	10.16	
2025-01-09 07:04:45.46	43.94	10.16	
2025-01-09 07:04:45.66	43.91	10.17	
2025-01-09 07:04:45.87	43.87	10.18	
2025-01-09 07:04:46.07	43.84	10.18	
2025-01-09 07:04:46.28	43.80	10.19	
2025-01-09 07:04:46.48	43.77	10.19	
2025-01-09 07:04:46.69	43.73	10.20	
2025-01-09 07:04:46.89	43.70	10.20	
2025-01-09 07:04:47.10	43.66	10.21	
2025-01-09 07:04:47.31	43.63	10.21	
2025-01-09 07:04:47.51	43.59	10.22	
2025-01-09 07:04:47.72	43.56	10.23	
2025-01-09 07:04:47.92	43.52	10.23	
2025-01-09 07:04:48.13	43.49	10.24	
2025-01-09 07:04:48.33	43.45	10.24	
2025-01-09 07:04:48.54	43.42	10.25	
2025-01-09 07:04:48.76	43.38	10.25	
2025-01-09 07:04:48.96	43.34	10.26	
2025-01-09 07:04:49.17	43.31	10.26	
2025-01-09 07:04:49.38	43.27	10.27	
2025-01-09 07:04:49.58	43.24	10.27	
2025-01-09 07:04:49.79	43.20	10.28	
2025-01-09 07:04:49.99	43.17	10.29	
2025-01-09 07:04:50.20	43.13	10.29	
2025-01-09 07:04:50.40	43.09	10.30	
2025-01-09 07:04:50.61	43.06	10.30	
2025-01-09 07:04:50.81	43.02	10.31	
2025-01-09 07:04:51.02	42.99	10.31	
2025-01-09 07:04:51.22	42.95	10.32	
2025-01-09 07:04:51.43	42.92	10.32	
2025-01-09 07:04:51.63	42.88	10.33	
2025-01-09 07:04:51.84	42.85	10.33	
2025-01-09 07:04:52.04	42.81	10.34	
2025-01-09 07:04:52.25	42.77	10.34	
2025-01-09 07:04:52.45	42.74	10.35	
2025-01-09 07:04:52.66	42.70	10.35	
2025-01-09 07:04:52.86	42.67	10.36	
2025-01-09 07:04:53.08	42.63	10.37	
2025-01-09 07:04:53.29	42.59	10.37	
2025-01-09 07:04:53.49	42.56	10.38	
2025-01-09 07:04:53.70	42.52	10.38	
2025-01-09 07:04:53.90	42.49	10.39	
2025-01-09 07:04:54.11	42.45	10.39	
2025-01-09 07:04:54.31	42.42	10.40	
2025-01-09 07:04:54.52	42.38	10.40	
2025-01-09 07:04:54.72	42.35	10.41	
2025-01-09 07:04:54.93	42.31	10.41	
2025-01-09 07:04:55.15	42.27	10.42	
2025-01-09 07:04:55.36	42.23	10.42	
2025-01-09 07:04:55.56	42.20	10.43	
2025-01-09 07:04:55.77	42.16	10.43	
2025-01-09 07:04:55.97	42.13	10.44	
2025-01-09 07:04:56.18	42.09	10.44	
2025-01-09 07:04:56.38	42.06	10.45	
2025-01-09 07:04:56.59	42.02	10.45	
2025-01-09 07:04:56.79	41.98	10.46	
2025-01-09 07:04:57.00	41.95	10.46	
2025-01-09 07:04:57.20	41.91	10.47	
2025-01-09 07:04:57.41	41.88	10.47	
2025-01-09 07:04:57.61	41.84	10.48	
2025-01-09 07:04:57.82	41.80	10.48	
2025-01-09 07:04:58.02	41.77	10.49	
2025-01-09 07:04:58.22	41.73	10.49	
2025-01-09 07:04:58.43	41.70	10.50	
2025-01-09 07:04:58.63	41.66	10.50	
2025-01-09 07:04:58.84	41.63	10.51	
2025-01-09 07:04:59.05	41.59	10.51	
2025-01-09 07:04:59.25	41.55	10.52	
2025-01-09 07:04:59.47	41.52	10.52	
2025-01-09 07:04:59.68	41.48	10.53	
2025-01-09 07:04:59.88	41.44	10.53	
2025-01-09 07:05:00.08	41.41	10.54	
2025-01-09 07:05:00.29	41.37	10.54	
2025-01-09 07:05:00.49	41.34	10.55	
2025-01-09 07:05:00.70	41.30	10.55	
2025-01-09 07:05:00.90	41.26	10.56	
2025-01-09 07:05:01.11	41.23	10.56	
2025-01-09 07:05:01.32	41.19	10.57	
2025-01-09 07:05:01.52	41.16	10.57	
2025-01-09 07:05:01.72	41.12	10.58	
2025-01-09 07:05:01.93	41.08	10.58	
2025-01-09 07:05:02.14	41.05	10.59	
2025-01-09 07:05:02.34	41.01	10.59	
2025-01-09 07:05:02.54	40.98	10.60	
2025-01-09 07:05:02.76	40.94	10.60	
2025-01-09 07:05:02.97	40.90	10.61	
2025-01-09 07:05:03.17	40.86	10.61	
2025-01-09 07:05:03.38	40.83	10.62	
2025-01-09 07:05:03.59	40.79	10.62	
2025-01-09 07:05:03.79	40.76	10.62	
2025-01-09 07:05:04.00	40.72	10.63	
2025-01-09 07:05:04.20	40.68	10.63	
2025-01-09 07:05:04.41	40.65	10.64	
2025-01-09 07:05:04.61	40.61	10.64	
2025-01-09 07:05:04.82	40.57	10.65	
2025-01-09 07:05:05.02	40.54	10.65	
2025-01-09 07:05:05.23	40.50	10.66	
2025-01-09 07:05:05.43	40.46	10.66	
2025-01-09 07:05:05.64	40.43	10.67	
2025-01-09 07:05:05.84	40.39	10.67	
2025-01-09 07:05:06.05	40.36	10.68	
2025-01-09 07:05:06.25	40.32	10.68	
2025-01-09 07:05:06.46	40.28	10.68	
2025-01-09 07:05:06.66	40.25	10.69	
2025-01-09 07:05:06.87	40.21	10.69	
2025-01-09 07:05:07.07	40.17	10.70	
2025-01-09 07:05:07.28	40.14	10.70	
2025-01-09 07:05:07.49	40.10	10.71	
2025-01-09 07:05:07.69	40.06	10.71	
2025-01-09 07:05:07.90	40.03	10.72	
2025-01-09 07:05:08.10	39.99	10.72	
2025-01-09 07:05:08.31	39.95	10.73	
2025-01-09 07:05:08.51	39.92	10.73	
2025-01-09 07:05:08.72	39.88	10.73	
2025-01-09 07:05:08.92	39.85	10.74	
2025-01-09 07:05:09.13	39.81	10.74	
2025-01-09 07:05:09.33	39.77	10.75	
2025-01-09 07:05:09.54	39.73	10.75	
2025-01-09 07:05:09.74	39.70	10.76	
2025-01-09 07:05:09.95	39.66	10.76	
2025-01-09 07:05:10.16	39.62	10.77	
2025-01-09 07:05:10.36	39.59	10.77	
2025-01-09 07:05:10.56	39.55	10.77	
2025-01-09 07:05:10.77	39.52	10.78	
2025-01-09 07:05:10.98	39.48	10.78	
2025-01-09 07:05:11.18	39.44	10.79	
2025-01-09 07:05:11.38	39.41	10.79	
2025-01-09 07:05:11.59	39.37	10.80	
2025-01-09 07:05:11.80	39.33	10.80	
2025-01-09 07:05:12.00	39.30	10.80	
2025-01-09 07:05:12.21	39.26	10.81	
2025-01-09 07:05:12.41	39.22	10.81	
2025-01-09 07:05:12.62	39.18	10.82	
2025-01-09 07:05:12.83	39.15	10.82	
2025-01-09 07:05:13.03	39.11	10.83	
2025-01-09 07:05:13.24	39.07	10.83	
2025-01-09 07:05:13.44	39.04	10.83	
2025-01-09 07:05:13.65	39.00	10.84	
2025-01-09 07:05:13.85	38.96	10.84	
2025-01-09 07:05:14.06	38.93	10.85	
2025-01-09 07:05:14.27	38.89	10.85	
2025-01-09 07:05:14.47	38.85	10.86	
2025-01-09 07:05:14.68	38.82	10.86	
2025-01-09 07:05:14.88	38.78	10.86	
2025-01-09 07:05:15.09	38.74	10.87	
2025-01-09 07:05:15.29	38.71	10.87	
2025-01-09 07:05:15.50	38.67	10.88	
2025-01-09 07:05:15.70	38.63	10.88	
2025-01-09 07:05:15.91	38.59	10.88	
2025-01-09 07:05:16.11	38.56	10.89	
2025-01-09 07:05:16.32	38.52	10.89	
2025-01-09 07:05:16.52	38.48	10.90	
2025-01-09 07:05:16.73	38.45	10.90	
2025-01-09 07:05:16.94	38.41	10.90	
2025-01-09 07:05:17.14	38.37	10.91	
2025-01-09 07:05:17.35	38.33	10.91	
2025-01-09 07:05:17.56	38.30	10.92	
2025-01-09 07:05:17.77	38.26	10.92	
2025-01-09 07:05:17.97	38.22	10.93	
2025-01-09 07:05:18.18	38.19	10.93	
2025-01-09 07:05:18.39	38.15	10.93	
2025-01-09 07:05:18.59	38.11	10.94	
2025-01-09 07:05:18.80	38.07	10.94	
2025-01-09 07:05:19.00	38.04	10.94	
2025-01-09 07:05:19.21	38.00	10.95	
2025-01-09 07:05:19.41	37.96	10.95	
2025-01-09 07:05:19.62	37.93	10.96	
2025-01-09 07:05:19.82	37.89	10.96	
2025-01-09 07:05:20.03	37.85	10.96	
2025-01-09 07:05:20.24	37.81	10.97	
2025-01-09 07:05:20.44	37.78	10.97	
2025-01-09 07:05:20.64	37.74	10.98	
2025-01-09 07:05:20.86	37.70	10.98	
2025-01-09 07:05:21.07	37.66	10.98	
2025-01-09 07:05:21.27	37.63	10.99	
2025-01-09 07:05:21.48	37.59	10.99	
2025-01-09 07:05:21.69	37.55	11.00	
2025-01-09 07:05:21.89	37.51	11.00	
2025-01-09 07:05:22.10	37.48	11.00	
2025-01-09 07:05:22.30	37.44	11.01	
2025-01-09 07:05:22.51	37.40	11.01	
2025-01-09 07:05:22.71	37.37	11.01	
2025-01-09 07:05:22.92	37.33	11.02	
2025-01-09 07:05:23.12	37.29	11.02	
2025-01-09 07:05:23.33	37.25	11.03	
2025-01-09 07:05:23.53	37.22	11.03	
2025-01-09 07:05:23.74	37.18	11.03	
2025-01-09 07:05:23.94	37.14	11.04	
2025-01-09 07:05:24.15	37.10	11.04	
2025-01-09 07:05:24.36	37.07	11.04	
2025-01-09 07:05:24.56	37.03	11.05	
2025-01-09 07:05:24.77	36.99	11.05	
2025-01-09 07:05:24.97	36.95	11.05	
2025-01-09 07:05:25.18	36.92	11.06	
2025-01-09 07:05:25.38	36.88	11.06	
2025-01-09 07:05:25.59	36.84	11.07	
2025-01-09 07:05:25.80	36.80	11.07	
2025-01-09 07:05:26.00	36.77	11.07	
2025-01-09 07:05:26.22	36.73	11.08	
2025-01-09 07:05:26.42	36.69	11.08	
2025-01-09 07:05:26.63	36.65	11.08	
2025-01-09 07:05:26.83	36.62	11.09	
2025-01-09 07:05:27.04	36.58	11.09	
2025-01-09 07:05:27.24	36.54	11.09	
2025-01-09 07:05:27.45	36.50	11.10	
2025-01-09 07:05:27.65	36.47	11.10	
2025-01-09 07:05:27.86	36.43	11.10	
2025-01-09 07:05:28.06	36.39	11.11	
2025-01-09 07:05:28.26	36.36	11.11	
2025-01-09 07:05:28.47	36.32	11.11	
2025-01-09 07:05:28.67	36.28	11.12	
2025-01-09 07:05:28.88	36.24	11.12	
2025-01-09 07:05:29.09	36.20	11.12	
2025-01-09 07:05:29.29	36.17	11.13	
2025-01-09 07:05:29.49	36.13	11.13	
2025-01-09 07:05:29.70	36.09	11.13	
2025-01-09 07:05:29.90	36.06	11.14	
2025-01-09 07:05:30.11	36.02	11.14	
2025-01-09 07:05:30.32	35.98	11.14	
2025-01-09 07:05:30.52	35.94	11.15	
2025-01-09 07:05:30.73	35.90	11.15	
2025-01-09 07:05:30.93	35.87	11.15	
2025-01-09 07:05:31.14	35.83	11.16	
2025-01-09 07:05:31.34	35.79	11.16	
2025-01-09 07:05:31.55	35.75	11.16	
2025-01-09 07:05:31.75	35.72	11.17	
2025-01-09 07:05:31.96	35.68	11.17	
2025-01-09 07:05:32.16	35.64	11.17	
2025-01-09 07:05:32.37	35.60	11.18	
2025-01-09 07:05:32.57	35.57	11.18	
2025-01-09 07:05:32.78	35.53	11.18	
2025-01-09 07:05:32.98	35.49	11.19	
2025-01-09 07:05:33.19	35.45	11.19	
2025-01-09 07:05:33.39	35.42	11.19	
2025-01-09 07:05:33.60	35.38	11.20	
2025-01-09 07:05:33.80	35.34	11.20	
2025-01-09 07:05:34.01	35.30	11.20	
2025-01-09 07:05:34.21	35.26	11.20	
2025-01-09 07:05:34.42	35.23	11.21	
2025-01-09 07:05:34.62	35.19	11.21	
2025-01-09 07:05:34.82	35.15	11.21	
2025-01-09 07:05:35.03	35.11	11.22	
2025-01-09 07:05:35.23	35.08	11.22	
2025-01-09 07:05:35.44	35.04	11.22	
2025-01-09 07:05:35.64	35.00	11.23	
2025-01-09 07:05:35.85	34.96	11.23	
2025-01-09 07:05:36.05	34.93	11.23	
2025-01-09 07:05:36.26	34.89	11.24	
2025-01-09 07:05:36.46	34.85	11.24	
2025-01-09 07:05:36.67	34.81	11.24	
2025-01-09 07:05:36.87	34.78	11.24	
2025-01-09 07:05:37.08	34.74	11.25	
2025-01-09 07:05:37.28	34.70	11.25	
2025-01-09 07:05:37.49	34.66	11.25	
2025-01-09 07:05:37.70	34.62	11.26	
2025-01-09 07:05:37.90	34.59	11.26	
2025-01-09 07:05:38.10	34.55	11.26	
2025-01-09 07:05:38.31	34.51	11.26	
2025-01-09 07:05:38.52	34.47	11.27	
2025-01-09 07:05:38.72	34.43	11.27	
2025-01-09 07:05:38.92	34.40	11.27	
2025-01-09 07:05:39.13	34.36	11.28	
2025-01-09 07:05:39.34	34.32	11.28	
2025-01-09 07:05:39.54	34.28	11.28	
2025-01-09 07:05:39.75	34.24	11.28	
2025-01-09 07:05:39.95	34.21	11.29	
2025-01-09 07:05:40.16	34.17	11.29	
2025-01-09 07:05:40.36	34.13	11.29	
2025-01-09 07:05:40.57	34.09	11.29	
2025-01-09 07:05:40.77	34.05	11.30	
2025-01-09 07:05:40.98	34.02	11.30	
2025-01-09 07:05:41.18	33.98	11.30	
2025-01-09 07:05:41.39	33.94	11.31	
2025-01-09 07:05:41.59	33.90	11.31	
2025-01-09 07:05:41.80	33.86	11.31	
2025-01-09 07:05:42.00	33.83	11.31	
2025-01-09 07:05:42.20	33.79	11.32	
2025-01-09 07:05:42.41	33.75	11.32	
2025-01-09 07:05:42.62	33.71	11.32	
2025-01-09 07:05:42.82	33.68	11.32	
2025-01-09 07:05:43.03	33.64	11.33	
2025-01-09 07:05:43.23	33.60	11.33	
2025-01-09 07:05:43.44	33.56	11.33	
2025-01-09 07:05:43.64	33.52	11.33	
2025-01-09 07:05:43.85	33.48	11.34	
2025-01-09 07:05:44.05	33.45	11.34	
2025-01-09 07:05:44.25	33.41	11.34	
2025-01-09 07:05:44.46	33.37	11.34	
2025-01-09 07:05:44.66	33.33	11.35	
2025-01-09 07:05:44.87	33.29	11.35	
2025-01-09 07:05:45.07	33.26	11.35	
2025-01-09 07:05:45.28	33.22	11.35	
2025-01-09 07:05:45.48	33.18	11.36	
2025-01-09 07:05:45.69	33.14	11.36	
2025-01-09 07:05:45.89	33.11	11.36	
2025-01-09 07:05:46.09	33.07	11.36	
2025-01-09 07:05:46.30	33.03	11.37	
2025-01-09 07:05:46.52	32.99	11.37	
2025-01-09 07:05:46.72	32.95	11.37	
2025-01-09 07:05:46.93	32.91	11.37	
2025-01-09 07:05:47.13	32.87	11.38	
2025-01-09 07:05:47.34	32.84	11.38	
2025-01-09 07:05:47.54	32.80	11.38	
2025-01-09 07:05:47.75	32.76	11.38	
2025-01-09 07:05:47.95	32.72	11.39	
2025-01-09 07:05:48.16	32.68	11.39	
2025-01-09 07:05:48.37	32.64	11.39	
2025-01-09 07:05:48.57	32.61	11.39	
2025-01-09 07:05:48.78	32.57	11.39	
2025-01-09 07:05:48.99	32.53	11.40	
2025-01-09 07:05:49.19	32.49	11.40	
2025-01-09 07:05:49.39	32.45	11.40	
2025-01-09 07:05:49.60	32.42	11.40	
2025-01-09 07:05:49.80	32.38	11.41	
2025-01-09 07:05:50.01	32.34	11.41	
2025-01-09 07:05:50.21	32.30	11.41	
2025-01-09 07:05:50.42	32.26	11.41	
2025-01-09 07:05:50.62	32.22	11.41	
2025-01-09 07:05:50.83	32.19	11.42	
2025-01-09 07:05:51.03	32.15	11.42	
2025-01-09 07:05:51.24	32.11	11.42	
2025-01-09 07:05:51.44	32.07	11.42	
2025-01-09 07:05:51.65	32.03	11.42	
2025-01-09 07:05:51.85	32.00	11.43	
2025-01-09 07:05:52.06	31.96	11.43	
2025-01-09 07:05:52.26	31.92	11.43	
2025-01-09 07:05:52.47	31.88	11.43	
2025-01-09 07:05:52.68	31.84	11.43	
2025-01-09 07:05:52.88	31.80	11.44	
2025-01-09 07:05:53.09	31.76	11.44	
2025-01-09 07:05:53.29	31.73	11.44	
2025-01-09 07:05:53.49	31.69	11.44	
2025-01-09 07:05:53.70	31.65	11.44	
2025-01-09 07:05:53.90	31.61	11.45	
2025-01-09 07:05:54.11	31.57	11.45	
2025-01-09 07:05:54.31	31.54	11.45	
2025-01-09 07:05:54.52	31.50	11.45	
2025-01-09 07:05:54.73	31.46	11.45	
2025-01-09 07:05:54.93	31.42	11.46	
2025-01-09 07:05:55.14	31.38	11.46	
2025-01-09 07:05:55.35	31.34	11.46	
2025-01-09 07:05:55.56	31.30	11.46	
2025-01-09 07:05:55.76	31.26	11.46	
2025-01-09 07:05:55.97	31.23	11.47	
2025-01-09 07:05:56.17	31.19	11.47	
2025-01-09 07:05:56.38	31.15	11.47	
2025-01-09 07:05:56.58	31.11	11.47	
2025-01-09 07:05:56.79	31.07	11.47	
2025-01-09 07:05:57.00	31.03	11.47	
2025-01-09 07:05:57.20	31.00	11.48	
2025-01-09 07:05:57.40	30.96	11.48	
2025-01-09 07:05:57.61	30.92	11.48	
2025-01-09 07:05:57.81	30.88	11.48	
2025-01-09 07:05:58.02	30.84	11.48	
2025-01-09 07:05:58.22	30.80	11.48	
2025-01-09 07:05:58.43	30.76	11.49	
2025-01-09 07:05:58.63	30.73	11.49	
2025-01-09 07:05:58.84	30.69	11.49	
2025-01-09 07:05:59.04	30.65	11.49	
2025-01-09 07:05:59.25	30.61	11.49	
2025-01-09 07:05:59.45	30.57	11.49	
2025-01-09 07:05:59.66	30.53	11.50	
2025-01-09 07:05:59.86	30.50	11.50	
2025-01-09 07:06:00.07	30.46	11.50	
2025-01-09 07:06:00.27	30.42	11.50	
2025-01-09 07:06:00.48	30.38	11.50	
2025-01-09 07:06:00.68	30.34	11.50	
2025-01-09 07:06:00.89	30.30	11.50	
2025-01-09 07:06:01.09	30.27	11.51	
2025-01-09 07:06:01.29	30.23	11.51	
2025-01-09 07:06:01.50	30.19	11.51	
2025-01-09 07:06:01.71	30.15	11.51	
2025-01-09 07:06:01.91	30.11	11.51	
2025-01-09 07:06:02.12	30.07	11.51	
2025-01-09 07:06:02.32	30.04	11.52	
2025-01-09 07:06:02.53	30.00	11.52	
2025-01-09 07:06:02.73	29.96	11.52	
2025-01-09 07:06:02.94	29.92	11.52	
2025-01-09 07:06:03.14	29.88	11.52	
2025-01-09 07:06:03.35	29.84	11.52	
2025-01-09 07:06:03.55	29.80	11.52	
2025-01-09 07:06:03.76	29.76	11.52	
2025-01-09 07:06:03.96	29.73	11.53	
2025-01-09 07:06:04.17	29.69	11.53	
2025-01-09 07:06:04.37	29.65	11.53	
2025-01-09 07:06:04.59	29.61	11.53	
2025-01-09 07:06:04.80	29.57	11.53	
2025-01-09 07:06:05.01	29.53	11.53	
2025-01-09 07:06:05.21	29.49	11.53	
2025-01-09 07:06:05.42	29.45	11.54	
2025-01-09 07:06:05.62	29.42	11.54	
2025-01-09 07:06:05.82	29.38	11.54	
2025-01-09 07:06:06.03	29.34	11.54	
2025-01-09 07:06:06.23	29.30	11.54	
2025-01-09 07:06:06.44	29.26	11.54	
2025-01-09 07:06:06.64	29.22	11.54	
2025-01-09 07:06:06.85	29.18	11.54	
2025-01-09 07:06:07.05	29.15	11.54	
2025-01-09 07:06:07.26	29.11	11.55	
2025-01-09 07:06:07.47	29.07	11.55	
2025-01-09 07:06:07.67	29.03	11.55	
2025-01-09 07:06:07.87	28.99	11.55	
2025-01-09 07:06:08.08	28.95	11.55	
2025-01-09 07:06:08.29	28.91	11.55	
2025-01-09 07:06:08.49	28.88	11.55	
2025-01-09 07:06:08.70	28.84	11.55	
2025-01-09 07:06:08.90	28.80	11.55	
2025-01-09 07:06:09.11	28.76	11.56	
2025-01-09 07:06:09.31	28.72	11.56	
2025-01-09 07:06:09.52	28.68	11.56	
2025-01-09 07:06:09.72	28.64	11.56	
2025-01-09 07:06:09.92	28.61	11.56	
2025-01-09 07:06:10.13	28.57	11.56	
2025-01-09 07:06:10.34	28.53	11.56	
2025-01-09 07:06:10.54	28.49	11.56	
2025-01-09 07:06:10.75	28.45	11.56	
2025-01-09 07:06:10.95	28.41	11.56	
2025-01-09 07:06:11.16	28.37	11.56	
2025-01-09 07:06:11.36	28.33	11.57	
2025-01-09 07:06:11.57	28.30	11.57	
2025-01-09 07:06:11.77	28.26	11.57	
2025-01-09 07:06:11.98	28.22	11.57	
2025-01-09 07:06:12.18	28.18	11.57	
2025-01-09 07:06:12.39	28.14	11.57	
2025-01-09 07:06:12.60	28.10	11.57	
2025-01-09 07:06:12.80	28.06	11.57	
2025-01-09 07:06:13.01	28.02	11.57	
2025-01-09 07:06:13.21	27.99	11.57	
2025-01-09 07:06:13.42	27.95	11.57	
2025-01-09 07:06:13.62	27.91	11.57	
2025-01-09 07:06:13.82	27.87	11.58	
2025-01-09 07:06:14.03	27.83	11.58	
2025-01-09 07:06:14.23	27.79	11.58	
2025-01-09 07:06:14.44	27.75	11.58	
2025-01-09 07:06:14.65	27.71	11.58	
2025-01-09 07:06:14.86	27.67	11.58	
2025-01-09 07:06:15.07	27.64	11.58	
2025-01-09 07:06:15.27	27.60	11.58	
2025-01-09 07:06:15.47	27.56	11.58	
2025-01-09 07:06:15.68	27.52	11.58	
2025-01-09 07:06:15.89	27.48	11.58	
2025-01-09 07:06:16.09	27.44	11.58	
2025-01-09 07:06:16.29	27.41	11.58	
2025-01-09 07:06:16.50	27.37	11.58	
2025-01-09 07:06:16.71	27.33	11.58	
2025-01-09 07:06:16.91	27.29	11.58	
2025-01-09 07:06:17.12	27.25	11.59	
2025-01-09 07:06:17.32	27.21	11.59	
2025-01-09 07:06:17.53	27.17	11.59	
2025-01-09 07:06:17.73	27.13	11.59	
2025-01-09 07:06:17.94	27.09	11.59	
2025-01-09 07:06:18.14	27.06	11.59	
2025-01-09 07:06:18.35	27.02	11.59	
2025-01-09 07:06:18.55	26.98	11.59	
2025-01-09 07:06:18.76	26.94	11.59	
2025-01-09 07:06:18.96	26.90	11.59	
2025-01-09 07:06:19.17	26.86	11.59	
2025-01-09 07:06:19.37	26.82	11.59	
2025-01-09 07:06:19.59	26.78	11.59	
2025-01-09 07:06:19.80	26.74	11.59	
2025-01-09 07:06:20.00	26.71	11.59	
2025-01-09 07:06:20.21	26.67	11.59	
2025-01-09 07:06:20.42	26.63	11.59	
2025-01-09 07:06:20.62	26.59	11.59	
2025-01-09 07:06:20.83	26.55	11.59	
2025-01-09 07:06:21.03	26.51	11.59	
2025-01-09 07:06:21.23	26.47	11.59	
2025-01-09 07:06:21.44	26.43	11.59	
2025-01-09 07:06:21.64	26.40	11.59	
2025-01-09 07:06:21.85	26.36	11.59	
2025-01-09 07:06:22.05	26.32	11.59	
2025-01-09 07:06:22.26	26.28	11.59	
2025-01-09 07:06:22.46	26.24	11.59	
2025-01-09 07:06:22.67	26.20	11.59	
2025-01-09 07:06:22.87	26.16	11.59	
2025-01-09 07:06:23.08	26.12	11.59	
2025-01-09 07:06:23.29	26.08	11.59	
2025-01-09 07:06:23.49	26.05	11.59	
2025-01-09 07:06:23.70	26.01	11.60	
2025-01-09 07:06:23.90	25.97	11.60	
2025-01-09 07:06:24.11	25.93	11.60	
2025-01-09 07:06:24.31	25.89	11.60	
2025-01-09 07:06:24.52	25.85	11.60	
2025-01-09 07:06:24.72	25.81	11.60	
2025-01-09 07:06:24.92	25.78	11.60	
2025-01-09 07:06:25.13	25.74	11.60	
2025-01-09 07:06:25.34	25.70	11.60	
2025-01-09 07:06:25.54	25.66	11.60	
2025-01-09 07:06:25.75	25.62	11.60	
2025-01-09 07:06:25.95	25.58	11.60	
2025-01-09 07:06:26.16	25.54	11.60	
2025-01-09 07:06:26.36	25.50	11.60	
2025-01-09 07:06:26.57	25.47	11.60	
2025-01-09 07:06:26.77	25.43	11.60	
2025-01-09 07:06:26.98	25.39	11.60	
2025-01-09 07:06:27.18	25.35	11.60	
2025-01-09 07:06:27.39	25.31	11.59	
2025-01-09 07:06:27.59	25.27	11.59	
2025-01-09 07:06:27.80	25.23	11.59	
2025-01-09 07:06:28.00	25.20	11.59	
2025-01-09 07:06:28.21	25.16	11.59	
2025-01-09 07:06:28.41	25.12	11.59	
2025-01-09 07:06:28.62	25.08	11.59	
2025-01-09 07:06:28.83	25.04	11.59	
2025-01-09 07:06:29.03	25.00	11.59	
2025-01-09 07:06:29.23	24.96	11.59	
2025-01-09 07:06:29.44	24.92	11.59	
2025-01-09 07:06:29.65	24.88	11.59	
2025-01-09 07:06:29.85	24.85	11.59	
2025-01-09 07:06:30.06	24.81	11.59	
2025-01-09 07:06:30.26	24.77	11.59	
2025-01-09 07:06:30.47	24.73	11.59	
2025-01-09 07:06:30.67	24.69	11.59	
2025-01-09 07:06:30.88	24.65	11.59	
2025-01-09 07:06:31.09	24.61	11.59	
2025-01-09 07:06:31.29	24.57	11.59	
2025-01-09 07:06:31.49	24.54	11.59	
2025-01-09 07:06:31.70	24.50	11.59	
2025-01-09 07:06:31.90	24.46	11.59	
2025-01-09 07:06:32.11	24.42	11.59	
2025-01-09 07:06:32.31	24.38	11.59	
2025-01-09 07:06:32.52	24.34	11.59	
2025-01-09 07:06:32.72	24.30	11.59	
2025-01-09 07:06:32.93	24.26	11.59	
2025-01-09 07:06:33.14	24.23	11.59	
2025-01-09 07:06:33.34	24.19	11.59	
2025-01-09 07:06:33.54	24.15	11.59	
2025-01-09 07:06:33.75	24.11	11.58	
2025-01-09 07:06:33.95	24.07	11.58	
2025-01-09 07:06:34.16	24.03	11.58	
2025-01-09 07:06:34.37	23.99	11.58	
2025-01-09 07:06:34.57	23.96	11.58	
2025-01-09 07:06:34.78	23.92	11.58	
2025-01-09 07:06:34.98	23.88	11.58	
2025-01-09 07:06:35.19	23.84	11.58	
2025-01-09 07:06:35.39	23.80	11.58	
2025-01-09 07:06:35.59	23.76	11.58	
2025-01-09 07:06:35.80	23.72	11.58	
2025-01-09 07:06:36.01	23.68	11.58	
2025-01-09 07:06:36.21	23.65	11.58	
2025-01-09 07:06:36.42	23.61	11.58	
2025-01-09 07:06:36.63	23.57	11.58	
2025-01-09 07:06:36.83	23.53	11.58	
2025-01-09 07:06:37.03	23.49	11.58	
2025-01-09 07:06:37.24	23.45	11.57	
2025-01-09 07:06:37.44	23.41	11.57	
2025-01-09 07:06:37.65	23.37	11.57	
2025-01-09 07:06:37.85	23.34	11.57	
2025-01-09 07:06:38.06	23.30	11.57	
2025-01-09 07:06:38.26	23.26	11.57	
2025-01-09 07:06:38.47	23.22	11.57	
2025-01-09 07:06:38.68	23.18	11.57	
2025-01-09 07:06:38.89	23.14	11.57	
2025-01-09 07:06:39.10	23.10	11.57	
2025-01-09 07:06:39.30	23.06	11.57	
2025-01-09 07:06:39.51	23.02	11.57	
2025-01-09 07:06:39.72	22.98	11.56	
2025-01-09 07:06:39.92	22.95	11.56	
2025-01-09 07:06:40.13	22.91	11.56	
2025-01-09 07:06:40.33	22.87	11.56	
2025-01-09 07:06:40.54	22.83	11.56	
2025-01-09 07:06:40.75	22.79	11.56	
2025-01-09 07:06:40.95	22.75	11.56	
2025-01-09 07:06:41.16	22.71	11.56	
2025-01-09 07:06:41.36	22.68	11.56	
2025-01-09 07:06:41.57	22.64	11.56	
2025-01-09 07:06:41.77	22.60	11.56	
2025-01-09 07:06:41.98	22.56	11.55	
2025-01-09 07:06:42.18	22.52	11.55	
2025-01-09 07:06:42.39	22.48	11.55	
2025-01-09 07:06:42.59	22.44	11.55	
2025-01-09 07:06:42.80	22.41	11.55	
2025-01-09 07:06:43.00	22.37	11.55	
2025-01-09 07:06:43.20	22.33	11.55	
2025-01-09 07:06:43.42	22.29	11.55	
2025-01-09 07:06:43.63	22.25	11.55	
2025-01-09 07:06:43.83	22.21	11.54	
2025-01-09 07:06:44.04	22.17	11.54	
2025-01-09 07:06:44.25	22.13	11.54	
2025-01-09 07:06:44.46	22.09	11.54	
2025-01-09 07:06:44.66	22.06	11.54	
2025-01-09 07:06:44.87	22.02	11.54	
2025-01-09 07:06:45.08	21.98	11.54	
2025-01-09 07:06:45.28	21.94	11.54	
2025-01-09 07:06:45.48	21.90	11.53	
2025-01-09 07:06:45.69	21.86	11.53	
2025-01-09 07:06:45.90	21.82	11.53	
2025-01-09 07:06:46.10	21.78	11.53	
2025-01-09 07:06:46.31	21.75	11.53	
2025-01-09 07:06:46.51	21.71	11.53	
2025-01-09 07:06:46.72	21.67	11.53	
2025-01-09 07:06:46.92	21.63	11.53	
2025-01-09 07:06:47.13	21.59	11.52	
2025-01-09 07:06:47.33	21.55	11.52	
2025-01-09 07:06:47.54	21.51	11.52	
2025-01-09 07:06:47.74	21.48	11.52	
2025-01-09 07:06:47.95	21.44	11.52	
2025-01-09 07:06:48.16	21.40	11.52	
2025-01-09 07:06:48.36	21.36	11.52	
2025-01-09 07:06:48.57	21.32	11.51	
2025-01-09 07:06:48.77	21.28	11.51	
2025-01-09 07:06:48.98	21.24	11.51	
2025-01-09 07:06:49.18	21.21	11.51	
2025-01-09 07:06:49.39	21.17	11.51	
2025-01-09 07:06:49.59	21.13	11.51	
2025-01-09 07:06:49.80	21.09	11.51	
2025-01-09 07:06:50.00	21.05	11.50	
2025-01-09 07:06:50.21	21.01	11.50	
2025-01-09 07:06:50.41	20.98	11.50	
2025-01-09 07:06:50.61	20.94	11.50	
2025-01-09 07:06:50.82	20.90	11.50	
2025-01-09 07:06:51.03	20.86	11.50	
2025-01-09 07:06:51.23	20.82	11.50	
2025-01-09 07:06:51.44	20.78	11.49	
2025-01-09 07:06:51.64	20.75	11.49	
2025-01-09 07:06:51.85	20.71	11.49	
2025-01-09 07:06:52.05	20.67	11.49	
2025-01-09 07:06:52.26	20.63	11.49	
2025-01-09 07:06:52.46	20.59	11.49	
2025-01-09 07:06:52.67	20.55	11.48	
2025-01-09 07:06:52.87	20.51	11.48	
2025-01-09 07:06:53.08	20.48	11.48	
2025-01-09 07:06:53.28	20.44	11.48	
2025-01-09 07:06:53.49	20.40	11.48	
2025-01-09 07:06:53.69	20.36	11.48	
2025-01-09 07:06:53.90	20.32	11.47	
2025-01-09 07:06:54.10	20.28	11.47	
2025-01-09 07:06:54.31	20.25	11.47	
2025-01-09 07:06:54.51	20.21	11.47	
2025-01-09 07:06:54.72	20.17	11.47	
2025-01-09 07:06:54.92	20.13	11.46	
2025-01-09 07:06:55.13	20.09	11.46	
2025-01-09 07:06:55.33	20.05	11.46	
2025-01-09 07:06:55.54	20.02	11.46	
2025-01-09 07:06:55.74	19.98	11.46	
2025-01-09 07:06:55.95	19.94	11.46	
2025-01-09 07:06:56.15	19.90	11.45	
2025-01-09 07:06:56.36	19.86	11.45	
2025-01-09 07:06:56.56	19.82	11.45	
2025-01-09 07:06:56.77	19.79	11.45	
2025-01-09 07:06:56.97	19.75	11.45	
2025-01-09 07:06:57.18	19.71	11.44	
2025-01-09 07:06:57.38	19.67	11.44	
2025-01-09 07:06:57.59	19.63	11.44	
2025-01-09 07:06:57.79	19.60	11.44	
2025-01-09 07:06:58.00	19.56	11.44	
2025-01-09 07:06:58.20	19.52	11.43	
2025-01-09 07:06:58.41	19.48	11.43	
2025-01-09 07:06:58.62	19.44	11.43	
2025-01-09 07:06:58.82	19.40	11.43	
2025-01-09 07:06:59.03	19.36	11.43	
2025-01-09 07:06:59.25	19.32	11.42	
2025-01-09 07:06:59.45	19.29	11.42	
2025-01-09 07:06:59.66	19.25	11.42	
2025-01-09 07:06:59.86	19.21	11.42	
2025-01-09 07:07:00.07	19.17	11.42	
2025-01-09 07:07:00.27	19.13	11.41	
2025-01-09 07:07:00.48	19.09	11.41	
2025-01-09 07:07:00.68	19.06	11.41	
2025-01-09 07:07:00.89	19.02	11.41	
2025-01-09 07:07:01.09	18.98	11.40	
2025-01-09 07:07:01.30	18.94	11.40	
2025-01-09 07:07:01.50	18.90	11.40	
2025-01-09 07:07:01.71	18.86	11.40	
2025-01-09 07:07:01.91	18.83	11.40	
2025-01-09 07:07:02.12	18.79	11.39	
2025-01-09 07:07:02.34	18.75	11.39	
2025-01-09 07:07:02.54	18.71	11.39	
2025-01-09 07:07:02.75	18.67	11.39	
2025-01-09 07:07:02.95	18.63	11.38	
2025-01-09 07:07:03.16	18.59	11.38	
2025-01-09 07:07:03.38	18.55	11.38	
2025-01-09 07:07:03.59	18.51	11.38	
2025-01-09 07:07:03.79	18.48	11.37	
2025-01-09 07:07:04.00	18.44	11.37	
2025-01-09 07:07:04.20	18.40	11.37	
2025-01-09 07:07:04.41	18.36	11.37	
2025-01-09 07:07:04.61	18.33	11.37	
2025-01-09 07:07:04.82	18.29	11.36	
2025-01-09 07:07:05.02	18.25	11.36	
2025-01-09 07:07:05.23	18.21	11.36	
2025-01-09 07:07:05.43	18.17	11.36	
2025-01-09 07:07:05.64	18.13	11.35	
2025-01-09 07:07:05.84	18.10	11.35	
2025-01-09 07:07:06.05	18.06	11.35	
2025-01-09 07:07:06.26	18.02	11.35	
2025-01-09 07:07:06.46	17.98	11.34	
2025-01-09 07:07:06.66	17.94	11.34	
2025-01-09 07:07:06.87	17.91	11.34	
2025-01-09 07:07:07.07	17.87	11.34	
2025-01-09 07:07:07.28	17.83	11.33	
2025-01-09 07:07:07.48	17.79	11.33	
2025-01-09 07:07:07.69	17.75	11.33	
2025-01-09 07:07:07.89	17.72	11.33	
2025-01-09 07:07:08.10	17.68	11.32	
2025-01-09 07:07:08.30	17.64	11.32	
2025-01-09 07:07:08.51	17.60	11.32	
2025-01-09 07:07:08.71	17.57	11.31	
2025-01-09 07:07:08.92	17.53	11.31	
2025-01-09 07:07:09.12	17.49	11.31	
2025-01-09 07:07:09.33	17.45	11.31	
2025-01-09 07:07:09.53	17.41	11.30	
2025-01-09 07:07:09.74	17.37	11.30	
2025-01-09 07:07:09.95	17.34	11.30	
2025-01-09 07:07:10.15	17.30	11.30	
2025-01-09 07:07:10.36	17.26	11.29	
2025-01-09 07:07:10.56	17.22	11.29	
2025-01-09 07:07:10.78	17.18	11.29	
2025-01-09 07:07:10.98	17.15	11.29	
2025-01-09 07:07:11.19	17.11	11.28	
2025-01-09 07:07:11.39	17.07	11.28	
2025-01-09 07:07:11.60	17.03	11.28	
2025-01-09 07:07:11.80	16.99	11.27	
2025-01-09 07:07:12.01	16.96	11.27	
2025-01-09 07:07:12.21	16.92	11.27	
2025-01-09 07:07:12.42	16.88	11.27	
2025-01-09 07:07:12.62	16.84	11.26	
2025-01-09 07:07:12.83	16.80	11.26	
2025-01-09 07:07:13.03	16.77	11.26	
2025-01-09 07:07:13.24	16.73	11.25	
2025-01-09 07:07:13.44	16.69	11.25	
2025-01-09 07:07:13.65	16.65	11.25	
2025-01-09 07:07:13.85	16.62	11.25	
2025-01-09 07:07:14.06	16.58	11.24	
2025-01-09 07:07:14.26	16.54	11.24	
2025-01-09 07:07:14.47	16.50	11.24	
2025-01-09 07:07:14.67	16.47	11.23	
2025-01-09 07:07:14.88	16.43	11.23	
2025-01-09 07:07:15.08	16.39	11.23	
2025-01-09 07:07:15.28	16.35	11.22	
2025-01-09 07:07:15.49	16.31	11.22	
2025-01-09 07:07:15.70	16.28	11.22	
2025-01-09 07:07:15.90	16.24	11.22	
2025-01-09 07:07:16.10	16.20	11.21	
2025-01-09 07:07:16.31	16.16	11.21	
2025-01-09 07:07:16.51	16.13	11.21	
2025-01-09 07:07:16.72	16.09	11.20	
2025-01-09 07:07:16.92	16.05	11.20	
2025-01-09 07:07:17.13	16.01	11.20	
2025-01-09 07:07:17.33	15.98	11.19	
2025-01-09 07:07:17.54	15.94	11.19	
2025-01-09 07:07:17.74	15.90	11.19	
2025-01-09 07:07:17.95	15.86	11.18	
2025-01-09 07:07:18.16	15.82	11.18	
2025-01-09 07:07:18.36	15.79	11.18	
2025-01-09 07:07:18.57	15.75	11.17	
2025-01-09 07:07:18.77	15.71	11.17	
2025-01-09 07:07:18.97	15.68	11.17	
2025-01-09 07:07:19.18	15.64	11.17	
2025-01-09 07:07:19.38	15.60	11.16	
2025-01-09 07:07:19.59	15.56	11.16	
2025-01-09 07:07:19.79	15.53	11.16	
2025-01-09 07:07:20.00	15.49	11.15	
2025-01-09 07:07:20.21	15.45	11.15	
2025-01-09 07:07:20.41	15.41	11.15	
2025-01-09 07:07:20.61	15.38	11.14	
2025-01-09 07:07:20.82	15.34	11.14	
2025-01-09 07:07:21.03	15.30	11.14	
2025-01-09 07:07:21.23	15.26	11.13	
2025-01-09 07:07:21.43	15.23	11.13	
2025-01-09 07:07:21.64	15.19	11.13	
2025-01-09 07:07:21.84	15.15	11.12	
2025-01-09 07:07:22.05	15.11	11.12	
2025-01-09 07:07:22.26	15.07	11.12	
2025-01-09 07:07:22.46	15.04	11.11	
2025-01-09 07:07:22.66	15.00	11.11	
2025-01-09 07:07:22.87	14.96	11.11	
2025-01-09 07:07:23.07	14.93	11.10	
2025-01-09 07:07:23.28	14.89	11.10	
2025-01-09 07:07:23.49	14.85	11.09	
2025-01-09 07:07:23.69	14.81	11.09	
2025-01-09 07:07:23.89	14.78	11.09	
2025-01-09 07:07:24.10	14.74	11.08	
2025-01-09 07:07:24.30	14.70	11.08	
2025-01-09 07:07:24.51	14.66	11.08	
2025-01-09 07:07:24.73	14.62	11.07	
2025-01-09 07:07:24.93	14.59	11.07	
2025-01-09 07:07:25.14	14.55	11.07	
2025-01-09 07:07:25.34	14.51	11.06	
2025-01-09 07:07:25.55	14.48	11.06	
2025-01-09 07:07:25.75	14.44	11.06	
2025-01-09 07:07:25.96	14.40	11.05	
2025-01-09 07:07:26.16	14.36	11.05	
2025-01-09 07:07:26.37	14.33	11.05	
2025-01-09 07:07:26.57	14.29	11.04	
2025-01-09 07:07:26.78	14.25	11.04	
2025-01-09 07:07:26.98	14.22	11.03	
2025-01-09 07:07:27.19	14.18	11.03	
2025-01-09 07:07:27.39	14.14	11.03	
2025-01-09 07:07:27.60	14.10	11.02	
2025-01-09 07:07:27.80	14.07	11.02	
2025-01-09 07:07:28.01	14.03	11.02	
2025-01-09 07:07:28.21	13.99	11.01	
2025-01-09 07:07:28.42	13.95	11.01	
2025-01-09 07:07:28.63	13.92	11.00	
2025-01-09 07:07:28.83	13.88	11.00	
2025-01-09 07:07:29.05	13.84	11.00	
2025-01-09 07:07:29.26	13.80	10.99	
2025-01-09 07:07:29.46	13.77	10.99	
2025-01-09 07:07:29.67	13.73	10.99	
2025-01-09 07:07:29.87	13.69	10.98	
2025-01-09 07:07:30.08	13.65	10.98	
2025-01-09 07:07:30.28	13.62	10.97	
2025-01-09 07:07:30.49	13.58	10.97	
2025-01-09 07:07:30.69	13.54	10.97	
2025-01-09 07:07:30.90	13.51	10.96	
2025-01-09 07:07:31.10	13.47	10.96	
2025-01-09 07:07:31.31	13.43	10.95	
2025-01-09 07:07:31.52	13.39	10.95	
2025-01-09 07:07:31.72	13.36	10.95	
2025-01-09 07:07:31.93	13.32	10.94	
2025-01-09 07:07:32.13	13.28	10.94	
2025-01-09 07:07:32.34	13.25	10.93	
2025-01-09 07:07:32.54	13.21	10.93	
2025-01-09 07:07:32.75	13.17	10.93	
2025-01-09 07:07:32.95	13.14	10.92	
2025-01-09 07:07:33.16	13.10	10.92	
2025-01-09 07:07:33.36	13.06	10.92	
2025-01-09 07:07:33.57	13.02	10.91	
2025-01-09 07:07:33.77	12.99	10.91	
2025-01-09 07:07:33.98	12.95	10.90	
2025-01-09 07:07:34.18	12.91	10.90	
2025-01-09 07:07:34.40	12.88	10.89	
2025-01-09 07:07:34.61	12.84	10.89	
2025-01-09 07:07:34.81	12.80	10.89	
2025-01-09 07:07:35.02	12.76	10.88	
2025-01-09 07:07:35.22	12.73	10.88	
2025-01-09 07:07:35.44	12.69	10.87	
2025-01-09 07:07:35.65	12.65	10.87	
2025-01-09 07:07:35.85	12.62	10.87	
2025-01-09 07:07:36.06	12.58	10.86	
2025-01-09 07:07:36.26	12.54	10.86	
2025-01-09 07:07:36.48	12.50	10.85	
2025-01-09 07:07:36.68	12.47	10.85	
2025-01-09 07:07:36.89	12.43	10.84	
2025-01-09 07:07:37.10	12.39	10.84	
2025-01-09 07:07:37.30	12.36	10.84	
2025-01-09 07:07:37.51	12.32	10.83	
2025-01-09 07:07:37.71	12.28	10.83	
2025-01-09 07:07:37.92	12.24	10.82	
2025-01-09 07:07:38.12	12.21	10.82	
2025-01-09 07:07:38.33	12.17	10.82	
2025-01-09 07:07:38.53	12.14	10.81	
2025-01-09 07:07:38.73	12.10	10.81	
2025-01-09 07:07:38.94	12.06	10.80	
2025-01-09 07:07:39.15	12.02	10.80	
2025-01-09 07:07:39.35	11.99	10.79	
2025-01-09 07:07:39.56	11.95	10.79	
2025-01-09 07:07:39.76	11.92	10.79	
2025-01-09 07:07:39.97	11.88	10.78	
2025-01-09 07:07:40.17	11.84	10.78	
2025-01-09 07:07:40.38	11.81	10.77	
2025-01-09 07:07:40.58	11.77	10.77	
2025-01-09 07:07:40.79	11.73	10.76	
2025-01-09 07:07:40.99	11.70	10.76	
2025-01-09 07:07:41.20	11.66	10.75	
2025-01-09 07:07:41.40	11.62	10.75	
2025-01-09 07:07:41.61	11.59	10.75	
2025-01-09 07:07:41.81	11.55	10.74	
2025-01-09 07:07:42.02	11.51	10.74	
2025-01-09 07:07:42.23	11.48	10.73	
2025-01-09 07:07:42.43	11.44	10.73	
2025-01-09 07:07:42.64	11.40	10.72	
2025-01-09 07:07:42.84	11.37	10.72	
2025-01-09 07:07:43.04	11.33	10.71	
2025-01-09 07:07:43.25	11.30	10.71	
2025-01-09 07:07:43.45	11.26	10.71	
2025-01-09 07:07:43.66	11.22	10.70	
2025-01-09 07:07:43.86	11.19	10.70	
2025-01-09 07:07:44.06	11.15	10.69	
2025-01-09 07:07:44.27	11.11	10.69	
2025-01-09 07:07:44.47	11.08	10.68	
2025-01-09 07:07:44.68	11.04	10.68	
2025-01-09 07:07:44.88	11.01	10.67	
2025-01-09 07:07:45.09	10.97	10.67	
2025-01-09 07:07:45.29	10.93	10.66	
2025-01-09 07:07:45.50	10.90	10.66	
2025-01-09 07:07:45.71	10.86	10.65	
2025-01-09 07:07:45.91	10.82	10.65	
2025-01-09 07:07:46.13	10.79	10.65	
2025-01-09 07:07:46.33	10.75	10.64	
2025-01-09 07:07:46.54	10.71	10.64	
2025-01-09 07:07:46.74	10.68	10.63	
2025-01-09 07:07:46.95	10.64	10.63	
2025-01-09 07:07:47.15	10.61	10.62	
2025-01-09 07:07:47.36	10.57	10.62	
2025-01-09 07:07:47.56	10.53	10.61	
2025-01-09 07:07:47.77	10.50	10.61	
2025-01-09 07:07:47.97	10.46	10.60	
2025-01-09 07:07:48.18	10.42	10.60	
2025-01-09 07:07:48.38	10.39	10.59	
2025-01-09 07:07:48.59	10.35	10.59	
2025-01-09 07:07:48.79	10.32	10.58	
2025-01-09 07:07:49.00	10.28	10.58	
2025-01-09 07:07:49.22	10.24	10.57	
2025-01-09 07:07:49.42	10.21	10.57	
2025-01-09 07:07:49.63	10.17	10.56	
2025-01-09 07:07:49.83	10.13	10.56	
2025-01-09 07:07:50.04	10.10	10.55	
2025-01-09 07:07:50.24	10.06	10.55	
2025-01-09 07:07:50.45	10.03	10.55	
2025-01-09 07:07:50.66	9.99	10.54	
2025-01-09 07:07:50.86	9.95	10.54	
2025-01-09 07:07:51.07	9.92	10.53	
2025-01-09 07:07:51.27	9.88	10.53	
2025-01-09 07:07:51.47	9.85	10.52	
2025-01-09 07:07:51.68	9.81	10.52	
2025-01-09 07:07:51.88	9.77	10.51	
2025-01-09 07:07:52.09	9.74	10.51	
2025-01-09 07:07:52.30	9.70	10.50	
2025-01-09 07:07:52.50	9.67	10.50	
