passes_logs/2025/01/09/SPB_Silybum_02/SPB_Silybum_02__20250109_043223_AQUA_rec.log

#Pass ID: 20250109_043223_AQUA
#Satellite: AQUA
#Configuration: AQUA
#Start time: 2025-01-09 04:32:23

#Version: 2.0.20230423
#Station: SPB_Silybum_02
#Location: 30.233357 lon 59.946436 lat
#TLE: 1 27424U 02022A   25008.15498937  .00002389  00000+0  50057-3 0  9997
#TLE: 2 27424  98.3576 324.7578 0001462 118.2546 298.6643 14.60656725206621

#Time	Az	El	Level	Level2	SNR	BER	Gain	Gain2
2025-01-09 04:32:25.50	6.18	4.06	
2025-01-09 04:32:25.70	6.15	4.07	
2025-01-09 04:32:25.91	6.12	4.08	
2025-01-09 04:32:26.12	6.09	4.08	
2025-01-09 04:32:26.32	6.07	4.09	
2025-01-09 04:32:26.52	6.04	4.10	
2025-01-09 04:32:26.73	6.01	4.11	
2025-01-09 04:32:26.93	5.98	4.12	
2025-01-09 04:32:27.14	5.96	4.12	
2025-01-09 04:32:27.34	5.93	4.13	
2025-01-09 04:32:27.55	5.90	4.14	
2025-01-09 04:32:27.75	5.87	4.15	
2025-01-09 04:32:27.96	5.84	4.16	
2025-01-09 04:32:28.16	5.82	4.16	
2025-01-09 04:32:28.37	5.79	4.17	
2025-01-09 04:32:28.58	5.76	4.18	
2025-01-09 04:32:28.78	5.73	4.19	
2025-01-09 04:32:28.98	5.70	4.20	
2025-01-09 04:32:29.19	5.67	4.21	
2025-01-09 04:32:29.40	5.64	4.21	
2025-01-09 04:32:29.60	5.62	4.22	
2025-01-09 04:32:29.80	5.59	4.23	
2025-01-09 04:32:30.01	5.56	4.24	
2025-01-09 04:32:30.22	5.53	4.25	
2025-01-09 04:32:30.42	5.50	4.25	
2025-01-09 04:32:30.63	5.48	4.26	
2025-01-09 04:32:30.83	5.45	4.27	
2025-01-09 04:32:31.04	5.42	4.28	
2025-01-09 04:32:31.24	5.39	4.29	
2025-01-09 04:32:31.45	5.36	4.29	
2025-01-09 04:32:31.65	5.33	4.30	
2025-01-09 04:32:31.86	5.30	4.31	
2025-01-09 04:32:32.06	5.28	4.32	
2025-01-09 04:32:32.27	5.25	4.33	
2025-01-09 04:32:32.47	5.22	4.33	
2025-01-09 04:32:32.68	5.19	4.34	
2025-01-09 04:32:32.88	5.16	4.35	
2025-01-09 04:32:33.09	5.13	4.36	
2025-01-09 04:32:33.29	5.11	4.37	
2025-01-09 04:32:33.50	5.08	4.38	
2025-01-09 04:32:33.70	5.05	4.38	
2025-01-09 04:32:33.91	5.02	4.39	
2025-01-09 04:32:34.13	4.99	4.40	
2025-01-09 04:32:34.34	4.96	4.41	
2025-01-09 04:32:34.54	4.93	4.42	
2025-01-09 04:32:34.75	4.90	4.42	
2025-01-09 04:32:34.95	4.87	4.43	
2025-01-09 04:32:35.16	4.84	4.44	
2025-01-09 04:32:35.37	4.82	4.45	
2025-01-09 04:32:35.57	4.79	4.46	
2025-01-09 04:32:35.78	4.76	4.46	
2025-01-09 04:32:35.98	4.73	4.47	
2025-01-09 04:32:36.18	4.70	4.48	
2025-01-09 04:32:36.39	4.67	4.49	
2025-01-09 04:32:36.59	4.64	4.50	
2025-01-09 04:32:36.80	4.61	4.50	
2025-01-09 04:32:37.00	4.59	4.51	
2025-01-09 04:32:37.21	4.56	4.52	
2025-01-09 04:32:37.41	4.53	4.53	
2025-01-09 04:32:37.62	4.50	4.54	
2025-01-09 04:32:37.82	4.47	4.54	
2025-01-09 04:32:38.03	4.44	4.55	
2025-01-09 04:32:38.24	4.41	4.56	
2025-01-09 04:32:38.44	4.38	4.57	
2025-01-09 04:32:38.64	4.35	4.58	
2025-01-09 04:32:38.85	4.32	4.58	
2025-01-09 04:32:39.05	4.30	4.59	
2025-01-09 04:32:39.26	4.27	4.60	
2025-01-09 04:32:39.46	4.24	4.61	
2025-01-09 04:32:39.67	4.21	4.62	
2025-01-09 04:32:39.87	4.18	4.62	
2025-01-09 04:32:40.08	4.15	4.63	
2025-01-09 04:32:40.29	4.12	4.64	
2025-01-09 04:32:40.49	4.09	4.65	
2025-01-09 04:32:40.69	4.06	4.65	
2025-01-09 04:32:40.90	4.03	4.66	
2025-01-09 04:32:41.11	4.00	4.67	
2025-01-09 04:32:41.31	3.97	4.68	
2025-01-09 04:32:41.52	3.94	4.69	
2025-01-09 04:32:41.72	3.92	4.69	
2025-01-09 04:32:41.93	3.89	4.70	
2025-01-09 04:32:42.13	3.86	4.71	
2025-01-09 04:32:42.34	3.83	4.72	
2025-01-09 04:32:42.54	3.80	4.73	
2025-01-09 04:32:42.75	3.77	4.73	
2025-01-09 04:32:42.95	3.74	4.74	
2025-01-09 04:32:43.16	3.71	4.75	
2025-01-09 04:32:43.36	3.68	4.76	
2025-01-09 04:32:43.57	3.65	4.77	
2025-01-09 04:32:43.77	3.62	4.77	
2025-01-09 04:32:43.98	3.59	4.78	
2025-01-09 04:32:44.18	3.56	4.79	
2025-01-09 04:32:44.39	3.53	4.80	
2025-01-09 04:32:44.59	3.50	4.80	
2025-01-09 04:32:44.80	3.47	4.81	
2025-01-09 04:32:45.00	3.45	4.82	
2025-01-09 04:32:45.21	3.42	4.83	
2025-01-09 04:32:45.41	3.39	4.84	
2025-01-09 04:32:45.62	3.36	4.84	
2025-01-09 04:32:45.82	3.33	4.85	
2025-01-09 04:32:46.03	3.30	4.86	
2025-01-09 04:32:46.23	3.27	4.87	
2025-01-09 04:32:46.44	3.24	4.88	
2025-01-09 04:32:46.65	3.21	4.88	
2025-01-09 04:32:46.85	3.18	4.89	
2025-01-09 04:32:47.06	3.15	4.90	
2025-01-09 04:32:47.26	3.12	4.91	
2025-01-09 04:32:47.47	3.09	4.91	
2025-01-09 04:32:47.68	3.06	4.92	
2025-01-09 04:32:47.88	3.03	4.93	
2025-01-09 04:32:48.08	3.00	4.94	
2025-01-09 04:32:48.29	2.97	4.95	
2025-01-09 04:32:48.49	2.94	4.95	
2025-01-09 04:32:48.70	2.91	4.96	
2025-01-09 04:32:48.90	2.88	4.97	
2025-01-09 04:32:49.11	2.85	4.98	
2025-01-09 04:32:49.31	2.82	4.98	
2025-01-09 04:32:49.52	2.79	4.99	
2025-01-09 04:32:49.72	2.76	5.00	
2025-01-09 04:32:49.93	2.73	5.01	
2025-01-09 04:32:50.13	2.70	5.01	
2025-01-09 04:32:50.34	2.67	5.02	
2025-01-09 04:32:50.54	2.64	5.03	
2025-01-09 04:32:50.75	2.61	5.04	
2025-01-09 04:32:50.96	2.58	5.05	
2025-01-09 04:32:51.16	2.55	5.05	
2025-01-09 04:32:51.36	2.52	5.06	
2025-01-09 04:32:51.57	2.49	5.07	
2025-01-09 04:32:51.77	2.46	5.08	
2025-01-09 04:32:51.98	2.43	5.08	
2025-01-09 04:32:52.18	2.40	5.09	
2025-01-09 04:32:52.39	2.37	5.10	
2025-01-09 04:32:52.59	2.34	5.11	
2025-01-09 04:32:52.80	2.31	5.11	
2025-01-09 04:32:53.01	2.28	5.12	
2025-01-09 04:32:53.21	2.25	5.13	
2025-01-09 04:32:53.41	2.22	5.14	
2025-01-09 04:32:53.62	2.19	5.15	
2025-01-09 04:32:53.83	2.16	5.15	
2025-01-09 04:32:54.03	2.13	5.16	
2025-01-09 04:32:54.24	2.09	5.17	
2025-01-09 04:32:54.45	2.06	5.18	
2025-01-09 04:32:54.66	2.03	5.18	
2025-01-09 04:32:54.87	2.00	5.19	
2025-01-09 04:32:55.07	1.97	5.20	
2025-01-09 04:32:55.28	1.94	5.21	
2025-01-09 04:32:55.48	1.91	5.21	
2025-01-09 04:32:55.69	1.88	5.22	
2025-01-09 04:32:55.89	1.85	5.23	
2025-01-09 04:32:56.10	1.82	5.24	
2025-01-09 04:32:56.30	1.79	5.25	
2025-01-09 04:32:56.50	1.76	5.25	
2025-01-09 04:32:56.71	1.73	5.26	
2025-01-09 04:32:56.91	1.70	5.27	
2025-01-09 04:32:57.12	1.67	5.28	
2025-01-09 04:32:57.32	1.64	5.28	
2025-01-09 04:32:57.53	1.60	5.29	
2025-01-09 04:32:57.73	1.57	5.30	
2025-01-09 04:32:57.94	1.54	5.31	
2025-01-09 04:32:58.15	1.51	5.31	
2025-01-09 04:32:58.35	1.48	5.32	
2025-01-09 04:32:58.56	1.45	5.33	
2025-01-09 04:32:58.76	1.42	5.34	
2025-01-09 04:32:58.97	1.39	5.34	
2025-01-09 04:32:59.17	1.36	5.35	
2025-01-09 04:32:59.38	1.33	5.36	
2025-01-09 04:32:59.58	1.30	5.37	
2025-01-09 04:32:59.80	1.26	5.37	
2025-01-09 04:33:00.00	1.23	5.38	
2025-01-09 04:33:00.21	1.20	5.39	
2025-01-09 04:33:00.41	1.17	5.40	
2025-01-09 04:33:00.62	1.14	5.40	
2025-01-09 04:33:00.82	1.11	5.41	
2025-01-09 04:33:01.03	1.08	5.42	
2025-01-09 04:33:01.23	1.05	5.43	
2025-01-09 04:33:01.44	1.02	5.43	
2025-01-09 04:33:01.65	0.99	5.44	
2025-01-09 04:33:01.85	0.95	5.45	
2025-01-09 04:33:02.06	0.92	5.46	
2025-01-09 04:33:02.26	0.89	5.46	
2025-01-09 04:33:02.47	0.86	5.47	
2025-01-09 04:33:02.67	0.83	5.48	
2025-01-09 04:33:02.88	0.80	5.49	
2025-01-09 04:33:03.08	0.77	5.49	
2025-01-09 04:33:03.29	0.74	5.50	
2025-01-09 04:33:03.49	0.71	5.51	
2025-01-09 04:33:03.70	0.67	5.52	
2025-01-09 04:33:03.90	0.64	5.52	
2025-01-09 04:33:04.11	0.61	5.53	
2025-01-09 04:33:04.32	0.58	5.54	
2025-01-09 04:33:04.52	0.55	5.55	
2025-01-09 04:33:04.73	0.52	5.55	
2025-01-09 04:33:04.93	0.49	5.56	
2025-01-09 04:33:05.14	0.45	5.57	
2025-01-09 04:33:05.34	0.42	5.57	
2025-01-09 04:33:05.55	0.39	5.58	
2025-01-09 04:33:05.75	0.36	5.59	
2025-01-09 04:33:05.96	0.33	5.60	
2025-01-09 04:33:06.16	0.30	5.60	
2025-01-09 04:33:06.37	0.27	5.61	
2025-01-09 04:33:06.57	0.24	5.62	
2025-01-09 04:33:06.78	0.20	5.63	
2025-01-09 04:33:06.98	0.17	5.63	
2025-01-09 04:33:07.19	0.14	5.64	
2025-01-09 04:33:07.39	0.11	5.65	
2025-01-09 04:33:07.60	0.08	5.66	
2025-01-09 04:33:07.81	0.05	5.66	
2025-01-09 04:33:08.01	0.01	5.67	
2025-01-09 04:33:08.21	359.98	5.68	
2025-01-09 04:33:08.42	359.95	5.68	
2025-01-09 04:33:08.63	359.92	5.69	
2025-01-09 04:33:08.83	359.89	5.70	
2025-01-09 04:33:09.04	359.86	5.71	
2025-01-09 04:33:09.24	359.82	5.71	
2025-01-09 04:33:09.45	359.79	5.72	
2025-01-09 04:33:09.65	359.76	5.73	
2025-01-09 04:33:09.86	359.73	5.74	
2025-01-09 04:33:10.06	359.70	5.74	
2025-01-09 04:33:10.27	359.67	5.75	
2025-01-09 04:33:10.49	359.63	5.76	
2025-01-09 04:33:10.69	359.60	5.76	
2025-01-09 04:33:10.90	359.57	5.77	
2025-01-09 04:33:11.10	359.54	5.78	
2025-01-09 04:33:11.31	359.50	5.79	
2025-01-09 04:33:11.51	359.47	5.79	
2025-01-09 04:33:11.72	359.44	5.80	
2025-01-09 04:33:11.92	359.41	5.81	
2025-01-09 04:33:12.13	359.38	5.82	
2025-01-09 04:33:12.33	359.35	5.82	
2025-01-09 04:33:12.54	359.31	5.83	
2025-01-09 04:33:12.74	359.28	5.84	
2025-01-09 04:33:12.95	359.25	5.84	
2025-01-09 04:33:13.15	359.22	5.85	
2025-01-09 04:33:13.36	359.18	5.86	
2025-01-09 04:33:13.56	359.15	5.87	
2025-01-09 04:33:13.77	359.12	5.87	
2025-01-09 04:33:13.97	359.09	5.88	
2025-01-09 04:33:14.18	359.06	5.89	
2025-01-09 04:33:14.38	359.03	5.89	
2025-01-09 04:33:14.59	358.99	5.90	
2025-01-09 04:33:14.79	358.96	5.91	
2025-01-09 04:33:15.00	358.93	5.92	
2025-01-09 04:33:15.20	358.90	5.92	
2025-01-09 04:33:15.41	358.86	5.93	
2025-01-09 04:33:15.62	358.83	5.94	
2025-01-09 04:33:15.82	358.80	5.94	
2025-01-09 04:33:16.02	358.77	5.95	
2025-01-09 04:33:16.23	358.73	5.96	
2025-01-09 04:33:16.43	358.70	5.96	
2025-01-09 04:33:16.63	358.67	5.97	
2025-01-09 04:33:16.84	358.64	5.98	
2025-01-09 04:33:17.05	358.61	5.99	
2025-01-09 04:33:17.26	358.57	5.99	
2025-01-09 04:33:17.46	358.54	6.00	
2025-01-09 04:33:17.67	358.51	6.01	
2025-01-09 04:33:17.87	358.48	6.01	
2025-01-09 04:33:18.08	358.44	6.02	
2025-01-09 04:33:18.28	358.41	6.03	
2025-01-09 04:33:18.49	358.38	6.04	
2025-01-09 04:33:18.70	358.35	6.04	
2025-01-09 04:33:18.90	358.31	6.05	
2025-01-09 04:33:19.10	358.28	6.06	
2025-01-09 04:33:19.31	358.25	6.06	
2025-01-09 04:33:19.51	358.22	6.07	
2025-01-09 04:33:19.72	358.18	6.08	
2025-01-09 04:33:19.92	358.15	6.08	
2025-01-09 04:33:20.13	358.12	6.09	
2025-01-09 04:33:20.33	358.09	6.10	
2025-01-09 04:33:20.54	358.05	6.11	
2025-01-09 04:33:20.74	358.02	6.11	
2025-01-09 04:33:20.95	357.99	6.12	
2025-01-09 04:33:21.15	357.96	6.13	
2025-01-09 04:33:21.36	357.92	6.13	
2025-01-09 04:33:21.56	357.89	6.14	
2025-01-09 04:33:21.77	357.86	6.15	
2025-01-09 04:33:21.98	357.82	6.15	
2025-01-09 04:33:22.18	357.79	6.16	
2025-01-09 04:33:22.39	357.76	6.17	
2025-01-09 04:33:22.59	357.73	6.17	
2025-01-09 04:33:22.80	357.69	6.18	
2025-01-09 04:33:23.00	357.66	6.19	
2025-01-09 04:33:23.20	357.63	6.20	
2025-01-09 04:33:23.41	357.59	6.20	
2025-01-09 04:33:23.61	357.56	6.21	
2025-01-09 04:33:23.82	357.53	6.22	
2025-01-09 04:33:24.02	357.50	6.22	
2025-01-09 04:33:24.23	357.46	6.23	
2025-01-09 04:33:24.43	357.43	6.24	
2025-01-09 04:33:24.64	357.40	6.24	
2025-01-09 04:33:24.84	357.36	6.25	
2025-01-09 04:33:25.05	357.33	6.26	
2025-01-09 04:33:25.25	357.30	6.26	
2025-01-09 04:33:25.46	357.26	6.27	
2025-01-09 04:33:25.66	357.23	6.28	
2025-01-09 04:33:25.87	357.20	6.28	
2025-01-09 04:33:26.08	357.16	6.29	
2025-01-09 04:33:26.28	357.13	6.30	
2025-01-09 04:33:26.48	357.10	6.30	
2025-01-09 04:33:26.69	357.07	6.31	
2025-01-09 04:33:26.90	357.03	6.32	
2025-01-09 04:33:27.10	357.00	6.32	
2025-01-09 04:33:27.31	356.97	6.33	
2025-01-09 04:33:27.51	356.93	6.34	
2025-01-09 04:33:27.72	356.90	6.34	
2025-01-09 04:33:27.92	356.87	6.35	
2025-01-09 04:33:28.13	356.83	6.36	
2025-01-09 04:33:28.33	356.80	6.36	
2025-01-09 04:33:28.54	356.77	6.37	
2025-01-09 04:33:28.75	356.73	6.38	
2025-01-09 04:33:28.95	356.70	6.39	
2025-01-09 04:33:29.16	356.67	6.39	
2025-01-09 04:33:29.36	356.63	6.40	
2025-01-09 04:33:29.56	356.60	6.40	
2025-01-09 04:33:29.77	356.57	6.41	
2025-01-09 04:33:29.98	356.53	6.42	
2025-01-09 04:33:30.18	356.50	6.43	
2025-01-09 04:33:30.39	356.47	6.43	
2025-01-09 04:33:30.59	356.43	6.44	
2025-01-09 04:33:30.79	356.40	6.44	
2025-01-09 04:33:31.00	356.37	6.45	
2025-01-09 04:33:31.21	356.33	6.46	
2025-01-09 04:33:31.41	356.30	6.46	
2025-01-09 04:33:31.61	356.27	6.47	
2025-01-09 04:33:31.82	356.23	6.48	
2025-01-09 04:33:32.02	356.20	6.48	
2025-01-09 04:33:32.23	356.16	6.49	
2025-01-09 04:33:32.43	356.13	6.50	
2025-01-09 04:33:32.64	356.10	6.50	
2025-01-09 04:33:32.84	356.06	6.51	
2025-01-09 04:33:33.04	356.03	6.52	
2025-01-09 04:33:33.25	356.00	6.52	
2025-01-09 04:33:33.46	355.96	6.53	
2025-01-09 04:33:33.66	355.93	6.54	
2025-01-09 04:33:33.87	355.90	6.54	
2025-01-09 04:33:34.07	355.86	6.55	
2025-01-09 04:33:34.28	355.83	6.56	
2025-01-09 04:33:34.49	355.79	6.56	
2025-01-09 04:33:34.69	355.76	6.57	
2025-01-09 04:33:34.90	355.73	6.58	
2025-01-09 04:33:35.10	355.69	6.58	
2025-01-09 04:33:35.31	355.66	6.59	
2025-01-09 04:33:35.51	355.62	6.60	
2025-01-09 04:33:35.72	355.59	6.60	
2025-01-09 04:33:35.92	355.56	6.61	
2025-01-09 04:33:36.13	355.52	6.62	
2025-01-09 04:33:36.33	355.49	6.62	
2025-01-09 04:33:36.54	355.45	6.63	
2025-01-09 04:33:36.74	355.42	6.63	
2025-01-09 04:33:36.95	355.39	6.64	
2025-01-09 04:33:37.15	355.35	6.65	
2025-01-09 04:33:37.36	355.32	6.65	
2025-01-09 04:33:37.56	355.29	6.66	
2025-01-09 04:33:37.77	355.25	6.67	
2025-01-09 04:33:37.98	355.22	6.67	
2025-01-09 04:33:38.19	355.18	6.68	
2025-01-09 04:33:38.40	355.15	6.69	
2025-01-09 04:33:38.60	355.11	6.69	
2025-01-09 04:33:38.81	355.08	6.70	
2025-01-09 04:33:39.01	355.04	6.70	
2025-01-09 04:33:39.22	355.01	6.71	
2025-01-09 04:33:39.42	354.98	6.72	
2025-01-09 04:33:39.63	354.94	6.72	
2025-01-09 04:33:39.83	354.91	6.73	
2025-01-09 04:33:40.03	354.87	6.74	
2025-01-09 04:33:40.24	354.84	6.74	
2025-01-09 04:33:40.44	354.81	6.75	
2025-01-09 04:33:40.65	354.77	6.76	
2025-01-09 04:33:40.85	354.74	6.76	
2025-01-09 04:33:41.06	354.70	6.77	
2025-01-09 04:33:41.26	354.67	6.77	
2025-01-09 04:33:41.47	354.63	6.78	
2025-01-09 04:33:41.67	354.60	6.79	
2025-01-09 04:33:41.88	354.56	6.79	
2025-01-09 04:33:42.09	354.53	6.80	
2025-01-09 04:33:42.29	354.50	6.81	
2025-01-09 04:33:42.51	354.46	6.81	
2025-01-09 04:33:42.72	354.42	6.82	
2025-01-09 04:33:42.92	354.39	6.82	
2025-01-09 04:33:43.13	354.35	6.83	
2025-01-09 04:33:43.33	354.32	6.84	
2025-01-09 04:33:43.53	354.29	6.84	
2025-01-09 04:33:43.74	354.25	6.85	
2025-01-09 04:33:43.95	354.22	6.86	
2025-01-09 04:33:44.15	354.18	6.86	
2025-01-09 04:33:44.36	354.15	6.87	
2025-01-09 04:33:44.56	354.11	6.87	
2025-01-09 04:33:44.77	354.08	6.88	
2025-01-09 04:33:44.97	354.04	6.89	
2025-01-09 04:33:45.18	354.01	6.89	
2025-01-09 04:33:45.38	353.98	6.90	
2025-01-09 04:33:45.59	353.94	6.90	
2025-01-09 04:33:45.79	353.91	6.91	
2025-01-09 04:33:46.00	353.87	6.92	
2025-01-09 04:33:46.20	353.84	6.92	
2025-01-09 04:33:46.41	353.80	6.93	
2025-01-09 04:33:46.61	353.77	6.94	
2025-01-09 04:33:46.82	353.73	6.94	
2025-01-09 04:33:47.02	353.70	6.95	
2025-01-09 04:33:47.23	353.66	6.95	
2025-01-09 04:33:47.43	353.63	6.96	
2025-01-09 04:33:47.64	353.59	6.97	
2025-01-09 04:33:47.84	353.56	6.97	
2025-01-09 04:33:48.05	353.52	6.98	
2025-01-09 04:33:48.25	353.49	6.98	
2025-01-09 04:33:48.46	353.45	6.99	
2025-01-09 04:33:48.67	353.42	7.00	
2025-01-09 04:33:48.87	353.38	7.00	
2025-01-09 04:33:49.08	353.35	7.01	
2025-01-09 04:33:49.28	353.31	7.01	
2025-01-09 04:33:49.49	353.28	7.02	
2025-01-09 04:33:49.70	353.24	7.03	
2025-01-09 04:33:49.91	353.21	7.03	
2025-01-09 04:33:50.12	353.17	7.04	
2025-01-09 04:33:50.33	353.13	7.04	
2025-01-09 04:33:50.53	353.10	7.05	
2025-01-09 04:33:50.74	353.06	7.06	
2025-01-09 04:33:50.95	353.03	7.06	
2025-01-09 04:33:51.16	352.99	7.07	
2025-01-09 04:33:51.36	352.96	7.07	
2025-01-09 04:33:51.56	352.92	7.08	
2025-01-09 04:33:51.77	352.89	7.09	
2025-01-09 04:33:51.99	352.85	7.09	
2025-01-09 04:33:52.19	352.82	7.10	
2025-01-09 04:33:52.40	352.78	7.10	
2025-01-09 04:33:52.60	352.74	7.11	
2025-01-09 04:33:52.81	352.71	7.12	
2025-01-09 04:33:53.01	352.67	7.12	
2025-01-09 04:33:53.22	352.64	7.13	
2025-01-09 04:33:53.42	352.60	7.13	
2025-01-09 04:33:53.63	352.57	7.14	
2025-01-09 04:33:53.83	352.53	7.14	
2025-01-09 04:33:54.04	352.50	7.15	
2025-01-09 04:33:54.26	352.46	7.16	
2025-01-09 04:33:54.46	352.42	7.16	
2025-01-09 04:33:54.67	352.39	7.17	
2025-01-09 04:33:54.88	352.35	7.17	
2025-01-09 04:33:55.08	352.32	7.18	
2025-01-09 04:33:55.29	352.28	7.19	
2025-01-09 04:33:55.49	352.25	7.19	
2025-01-09 04:33:55.70	352.21	7.20	
2025-01-09 04:33:55.90	352.18	7.20	
2025-01-09 04:33:56.11	352.14	7.21	
2025-01-09 04:33:56.31	352.10	7.21	
2025-01-09 04:33:56.51	352.07	7.22	
2025-01-09 04:33:56.72	352.03	7.22	
2025-01-09 04:33:56.92	352.00	7.23	
2025-01-09 04:33:57.13	351.96	7.24	
2025-01-09 04:33:57.33	351.93	7.24	
2025-01-09 04:33:57.54	351.89	7.25	
2025-01-09 04:33:57.74	351.86	7.25	
2025-01-09 04:33:57.95	351.82	7.26	
2025-01-09 04:33:58.15	351.79	7.26	
2025-01-09 04:33:58.36	351.75	7.27	
2025-01-09 04:33:58.56	351.71	7.28	
2025-01-09 04:33:58.77	351.68	7.28	
2025-01-09 04:33:58.98	351.64	7.29	
2025-01-09 04:33:59.18	351.61	7.29	
2025-01-09 04:33:59.38	351.57	7.30	
2025-01-09 04:33:59.59	351.53	7.30	
2025-01-09 04:33:59.79	351.50	7.31	
2025-01-09 04:34:00.00	351.46	7.31	
2025-01-09 04:34:00.20	351.43	7.32	
2025-01-09 04:34:00.41	351.39	7.33	
2025-01-09 04:34:00.61	351.36	7.33	
2025-01-09 04:34:00.83	351.32	7.34	
2025-01-09 04:34:01.03	351.28	7.34	
2025-01-09 04:34:01.24	351.25	7.35	
2025-01-09 04:34:01.44	351.21	7.35	
2025-01-09 04:34:01.65	351.18	7.36	
2025-01-09 04:34:01.85	351.14	7.36	
2025-01-09 04:34:02.06	351.10	7.37	
2025-01-09 04:34:02.26	351.07	7.38	
2025-01-09 04:34:02.47	351.03	7.38	
2025-01-09 04:34:02.67	351.00	7.39	
2025-01-09 04:34:02.88	350.96	7.39	
2025-01-09 04:34:03.08	350.92	7.40	
2025-01-09 04:34:03.29	350.89	7.40	
2025-01-09 04:34:03.50	350.85	7.41	
2025-01-09 04:34:03.70	350.82	7.41	
2025-01-09 04:34:03.91	350.78	7.42	
2025-01-09 04:34:04.11	350.74	7.42	
2025-01-09 04:34:04.32	350.71	7.43	
2025-01-09 04:34:04.52	350.67	7.43	
2025-01-09 04:34:04.73	350.63	7.44	
2025-01-09 04:34:04.93	350.60	7.45	
2025-01-09 04:34:05.13	350.56	7.45	
2025-01-09 04:34:05.34	350.53	7.46	
2025-01-09 04:34:05.55	350.49	7.46	
2025-01-09 04:34:05.75	350.45	7.47	
2025-01-09 04:34:05.96	350.42	7.47	
2025-01-09 04:34:06.16	350.38	7.48	
2025-01-09 04:34:06.37	350.34	7.48	
2025-01-09 04:34:06.57	350.31	7.49	
2025-01-09 04:34:06.78	350.27	7.49	
2025-01-09 04:34:06.98	350.24	7.50	
2025-01-09 04:34:07.19	350.20	7.50	
2025-01-09 04:34:07.40	350.16	7.51	
2025-01-09 04:34:07.60	350.13	7.51	
2025-01-09 04:34:07.81	350.09	7.52	
2025-01-09 04:34:08.02	350.05	7.52	
2025-01-09 04:34:08.22	350.02	7.53	
2025-01-09 04:34:08.43	349.98	7.54	
2025-01-09 04:34:08.64	349.94	7.54	
2025-01-09 04:34:08.84	349.91	7.55	
2025-01-09 04:34:09.05	349.87	7.55	
2025-01-09 04:34:09.25	349.83	7.56	
2025-01-09 04:34:09.46	349.80	7.56	
2025-01-09 04:34:09.66	349.76	7.57	
2025-01-09 04:34:09.87	349.72	7.57	
2025-01-09 04:34:10.07	349.69	7.58	
2025-01-09 04:34:10.28	349.65	7.58	
2025-01-09 04:34:10.49	349.61	7.59	
2025-01-09 04:34:10.69	349.58	7.59	
2025-01-09 04:34:10.89	349.54	7.60	
2025-01-09 04:34:11.10	349.50	7.60	
2025-01-09 04:34:11.30	349.47	7.61	
2025-01-09 04:34:11.51	349.43	7.61	
2025-01-09 04:34:11.71	349.40	7.62	
2025-01-09 04:34:11.92	349.36	7.62	
2025-01-09 04:34:12.12	349.32	7.63	
2025-01-09 04:34:12.33	349.29	7.63	
2025-01-09 04:34:12.53	349.25	7.64	
2025-01-09 04:34:12.74	349.21	7.64	
2025-01-09 04:34:12.95	349.17	7.65	
2025-01-09 04:34:13.15	349.14	7.65	
2025-01-09 04:34:13.35	349.10	7.66	
2025-01-09 04:34:13.56	349.07	7.66	
2025-01-09 04:34:13.76	349.03	7.67	
2025-01-09 04:34:13.97	348.99	7.67	
2025-01-09 04:34:14.17	348.96	7.68	
2025-01-09 04:34:14.38	348.92	7.68	
2025-01-09 04:34:14.58	348.88	7.69	
2025-01-09 04:34:14.79	348.84	7.69	
2025-01-09 04:34:14.99	348.81	7.70	
2025-01-09 04:34:15.20	348.77	7.70	
2025-01-09 04:34:15.40	348.73	7.71	
2025-01-09 04:34:15.61	348.70	7.71	
2025-01-09 04:34:15.81	348.66	7.72	
2025-01-09 04:34:16.02	348.62	7.72	
2025-01-09 04:34:16.23	348.59	7.73	
2025-01-09 04:34:16.43	348.55	7.73	
2025-01-09 04:34:16.65	348.51	7.74	
2025-01-09 04:34:16.86	348.47	7.74	
2025-01-09 04:34:17.06	348.44	7.75	
2025-01-09 04:34:17.27	348.40	7.75	
2025-01-09 04:34:17.47	348.36	7.75	
2025-01-09 04:34:17.67	348.33	7.76	
2025-01-09 04:34:17.88	348.29	7.76	
2025-01-09 04:34:18.09	348.25	7.77	
2025-01-09 04:34:18.29	348.21	7.77	
2025-01-09 04:34:18.50	348.18	7.78	
2025-01-09 04:34:18.70	348.14	7.78	
2025-01-09 04:34:18.91	348.10	7.79	
2025-01-09 04:34:19.11	348.07	7.79	
2025-01-09 04:34:19.32	348.03	7.80	
2025-01-09 04:34:19.52	347.99	7.80	
2025-01-09 04:34:19.73	347.95	7.81	
2025-01-09 04:34:19.93	347.92	7.81	
2025-01-09 04:34:20.14	347.88	7.82	
2025-01-09 04:34:20.34	347.84	7.82	
2025-01-09 04:34:20.55	347.80	7.83	
2025-01-09 04:34:20.75	347.77	7.83	
2025-01-09 04:34:20.96	347.73	7.83	
2025-01-09 04:34:21.16	347.69	7.84	
2025-01-09 04:34:21.37	347.66	7.84	
2025-01-09 04:34:21.57	347.62	7.85	
2025-01-09 04:34:21.78	347.58	7.85	
2025-01-09 04:34:21.98	347.55	7.86	
2025-01-09 04:34:22.19	347.51	7.86	
2025-01-09 04:34:22.39	347.47	7.87	
2025-01-09 04:34:22.60	347.43	7.87	
2025-01-09 04:34:22.81	347.39	7.88	
2025-01-09 04:34:23.01	347.36	7.88	
2025-01-09 04:34:23.22	347.32	7.88	
2025-01-09 04:34:23.42	347.28	7.89	
2025-01-09 04:34:23.63	347.24	7.89	
2025-01-09 04:34:23.83	347.21	7.90	
2025-01-09 04:34:24.04	347.17	7.90	
2025-01-09 04:34:24.24	347.13	7.91	
2025-01-09 04:34:24.45	347.09	7.91	
2025-01-09 04:34:24.65	347.06	7.92	
2025-01-09 04:34:24.86	347.02	7.92	
2025-01-09 04:34:25.06	346.98	7.92	
2025-01-09 04:34:25.27	346.95	7.93	
2025-01-09 04:34:25.47	346.91	7.93	
2025-01-09 04:34:25.68	346.87	7.94	
2025-01-09 04:34:25.88	346.83	7.94	
2025-01-09 04:34:26.09	346.80	7.95	
2025-01-09 04:34:26.30	346.76	7.95	
2025-01-09 04:34:26.50	346.72	7.96	
2025-01-09 04:34:26.70	346.68	7.96	
2025-01-09 04:34:26.91	346.64	7.96	
2025-01-09 04:34:27.12	346.61	7.97	
2025-01-09 04:34:27.32	346.57	7.97	
2025-01-09 04:34:27.52	346.53	7.98	
2025-01-09 04:34:27.73	346.49	7.98	
2025-01-09 04:34:27.94	346.46	7.99	
2025-01-09 04:34:28.14	346.42	7.99	
2025-01-09 04:34:28.34	346.38	7.99	
2025-01-09 04:34:28.55	346.34	8.00	
2025-01-09 04:34:28.75	346.31	8.00	
2025-01-09 04:34:28.96	346.27	8.01	
2025-01-09 04:34:29.17	346.23	8.01	
2025-01-09 04:34:29.37	346.19	8.01	
2025-01-09 04:34:29.58	346.15	8.02	
2025-01-09 04:34:29.78	346.12	8.02	
2025-01-09 04:34:29.99	346.08	8.03	
2025-01-09 04:34:30.19	346.04	8.03	
2025-01-09 04:34:30.39	346.01	8.04	
2025-01-09 04:34:30.60	345.97	8.04	
2025-01-09 04:34:30.81	345.93	8.04	
2025-01-09 04:34:31.01	345.89	8.05	
2025-01-09 04:34:31.22	345.85	8.05	
2025-01-09 04:34:31.42	345.82	8.06	
2025-01-09 04:34:31.63	345.78	8.06	
2025-01-09 04:34:31.83	345.74	8.06	
2025-01-09 04:34:32.03	345.70	8.07	
2025-01-09 04:34:32.24	345.66	8.07	
2025-01-09 04:34:32.44	345.63	8.08	
2025-01-09 04:34:32.65	345.59	8.08	
2025-01-09 04:34:32.85	345.55	8.08	
2025-01-09 04:34:33.06	345.51	8.09	
2025-01-09 04:34:33.27	345.47	8.09	
2025-01-09 04:34:33.47	345.44	8.10	
2025-01-09 04:34:33.67	345.40	8.10	
2025-01-09 04:34:33.88	345.36	8.10	
2025-01-09 04:34:34.08	345.32	8.11	
2025-01-09 04:34:34.29	345.28	8.11	
2025-01-09 04:34:34.49	345.25	8.12	
2025-01-09 04:34:34.70	345.21	8.12	
2025-01-09 04:34:34.90	345.17	8.12	
2025-01-09 04:34:35.11	345.13	8.13	
2025-01-09 04:34:35.31	345.09	8.13	
2025-01-09 04:34:35.52	345.06	8.14	
2025-01-09 04:34:35.72	345.02	8.14	
2025-01-09 04:34:35.93	344.98	8.14	
2025-01-09 04:34:36.13	344.94	8.15	
2025-01-09 04:34:36.34	344.90	8.15	
2025-01-09 04:34:36.54	344.87	8.16	
2025-01-09 04:34:36.75	344.83	8.16	
2025-01-09 04:34:36.95	344.79	8.16	
2025-01-09 04:34:37.16	344.75	8.17	
2025-01-09 04:34:37.37	344.71	8.17	
2025-01-09 04:34:37.57	344.67	8.17	
2025-01-09 04:34:37.78	344.64	8.18	
2025-01-09 04:34:37.99	344.60	8.18	
2025-01-09 04:34:38.20	344.56	8.19	
2025-01-09 04:34:38.41	344.52	8.19	
2025-01-09 04:34:38.61	344.48	8.19	
2025-01-09 04:34:38.82	344.44	8.20	
2025-01-09 04:34:39.02	344.40	8.20	
2025-01-09 04:34:39.23	344.36	8.20	
2025-01-09 04:34:39.43	344.33	8.21	
2025-01-09 04:34:39.64	344.29	8.21	
2025-01-09 04:34:39.85	344.25	8.22	
2025-01-09 04:34:40.05	344.21	8.22	
2025-01-09 04:34:40.25	344.17	8.22	
2025-01-09 04:34:40.46	344.14	8.23	
2025-01-09 04:34:40.67	344.10	8.23	
2025-01-09 04:34:40.87	344.06	8.23	
2025-01-09 04:34:41.07	344.02	8.24	
2025-01-09 04:34:41.28	343.98	8.24	
2025-01-09 04:34:41.48	343.94	8.24	
2025-01-09 04:34:41.69	343.90	8.25	
2025-01-09 04:34:41.89	343.87	8.25	
2025-01-09 04:34:42.10	343.83	8.26	
2025-01-09 04:34:42.30	343.79	8.26	
2025-01-09 04:34:42.51	343.75	8.26	
2025-01-09 04:34:42.71	343.71	8.27	
2025-01-09 04:34:42.92	343.67	8.27	
2025-01-09 04:34:43.12	343.64	8.27	
2025-01-09 04:34:43.33	343.60	8.28	
2025-01-09 04:34:43.53	343.56	8.28	
2025-01-09 04:34:43.74	343.52	8.28	
2025-01-09 04:34:43.94	343.48	8.29	
2025-01-09 04:34:44.15	343.44	8.29	
2025-01-09 04:34:44.35	343.41	8.29	
2025-01-09 04:34:44.56	343.37	8.30	
2025-01-09 04:34:44.76	343.33	8.30	
2025-01-09 04:34:44.97	343.29	8.30	
2025-01-09 04:34:45.17	343.25	8.31	
2025-01-09 04:34:45.38	343.21	8.31	
2025-01-09 04:34:45.58	343.17	8.31	
2025-01-09 04:34:45.79	343.13	8.32	
2025-01-09 04:34:45.99	343.10	8.32	
2025-01-09 04:34:46.20	343.06	8.32	
2025-01-09 04:34:46.40	343.02	8.33	
2025-01-09 04:34:46.61	342.98	8.33	
2025-01-09 04:34:46.81	342.94	8.33	
2025-01-09 04:34:47.02	342.90	8.34	
2025-01-09 04:34:47.22	342.87	8.34	
2025-01-09 04:34:47.43	342.83	8.34	
2025-01-09 04:34:47.65	342.78	8.35	
2025-01-09 04:34:47.85	342.75	8.35	
2025-01-09 04:34:48.06	342.71	8.35	
2025-01-09 04:34:48.26	342.67	8.36	
2025-01-09 04:34:48.47	342.63	8.36	
2025-01-09 04:34:48.67	342.59	8.36	
2025-01-09 04:34:48.88	342.55	8.37	
2025-01-09 04:34:49.08	342.51	8.37	
2025-01-09 04:34:49.29	342.47	8.37	
2025-01-09 04:34:49.49	342.44	8.38	
2025-01-09 04:34:49.70	342.40	8.38	
2025-01-09 04:34:49.90	342.36	8.38	
2025-01-09 04:34:50.11	342.32	8.38	
2025-01-09 04:34:50.31	342.28	8.39	
2025-01-09 04:34:50.52	342.24	8.39	
2025-01-09 04:34:50.72	342.20	8.39	
2025-01-09 04:34:50.93	342.16	8.40	
2025-01-09 04:34:51.13	342.13	8.40	
2025-01-09 04:34:51.34	342.09	8.40	
2025-01-09 04:34:51.55	342.05	8.41	
2025-01-09 04:34:51.75	342.01	8.41	
2025-01-09 04:34:51.96	341.97	8.41	
2025-01-09 04:34:52.16	341.93	8.42	
2025-01-09 04:34:52.37	341.89	8.42	
2025-01-09 04:34:52.58	341.85	8.42	
2025-01-09 04:34:52.78	341.81	8.42	
2025-01-09 04:34:53.00	341.77	8.43	
2025-01-09 04:34:53.21	341.73	8.43	
2025-01-09 04:34:53.41	341.69	8.43	
2025-01-09 04:34:53.62	341.65	8.44	
2025-01-09 04:34:53.82	341.62	8.44	
2025-01-09 04:34:54.03	341.58	8.44	
2025-01-09 04:34:54.24	341.54	8.44	
2025-01-09 04:34:54.44	341.50	8.45	
2025-01-09 04:34:54.65	341.46	8.45	
2025-01-09 04:34:54.85	341.42	8.45	
2025-01-09 04:34:55.06	341.38	8.46	
2025-01-09 04:34:55.26	341.34	8.46	
2025-01-09 04:34:55.47	341.30	8.46	
2025-01-09 04:34:55.67	341.26	8.46	
2025-01-09 04:34:55.88	341.22	8.47	
2025-01-09 04:34:56.08	341.19	8.47	
2025-01-09 04:34:56.29	341.15	8.47	
2025-01-09 04:34:56.49	341.11	8.48	
2025-01-09 04:34:56.70	341.07	8.48	
2025-01-09 04:34:56.90	341.03	8.48	
2025-01-09 04:34:57.11	340.99	8.48	
2025-01-09 04:34:57.31	340.95	8.49	
2025-01-09 04:34:57.52	340.91	8.49	
2025-01-09 04:34:57.72	340.87	8.49	
2025-01-09 04:34:57.93	340.83	8.49	
2025-01-09 04:34:58.13	340.79	8.50	
2025-01-09 04:34:58.34	340.75	8.50	
2025-01-09 04:34:58.55	340.71	8.50	
2025-01-09 04:34:58.75	340.68	8.51	
2025-01-09 04:34:58.96	340.64	8.51	
2025-01-09 04:34:59.16	340.60	8.51	
2025-01-09 04:34:59.37	340.56	8.51	
2025-01-09 04:34:59.57	340.52	8.52	
2025-01-09 04:34:59.78	340.48	8.52	
2025-01-09 04:34:59.98	340.44	8.52	
2025-01-09 04:35:00.19	340.40	8.52	
2025-01-09 04:35:00.39	340.36	8.53	
2025-01-09 04:35:00.60	340.32	8.53	
2025-01-09 04:35:00.80	340.28	8.53	
2025-01-09 04:35:01.01	340.24	8.53	
2025-01-09 04:35:01.21	340.21	8.54	
2025-01-09 04:35:01.42	340.17	8.54	
2025-01-09 04:35:01.62	340.13	8.54	
2025-01-09 04:35:01.83	340.09	8.54	
2025-01-09 04:35:02.03	340.05	8.55	
2025-01-09 04:35:02.24	340.01	8.55	
2025-01-09 04:35:02.44	339.97	8.55	
2025-01-09 04:35:02.64	339.93	8.55	
2025-01-09 04:35:02.85	339.89	8.56	
2025-01-09 04:35:03.05	339.85	8.56	
2025-01-09 04:35:03.26	339.81	8.56	
2025-01-09 04:35:03.46	339.77	8.56	
2025-01-09 04:35:03.67	339.73	8.56	
2025-01-09 04:35:03.87	339.70	8.57	
2025-01-09 04:35:04.08	339.66	8.57	
2025-01-09 04:35:04.29	339.61	8.57	
2025-01-09 04:35:04.49	339.58	8.57	
2025-01-09 04:35:04.69	339.54	8.58	
2025-01-09 04:35:04.90	339.50	8.58	
2025-01-09 04:35:05.10	339.46	8.58	
2025-01-09 04:35:05.31	339.42	8.58	
2025-01-09 04:35:05.51	339.38	8.59	
2025-01-09 04:35:05.73	339.34	8.59	
2025-01-09 04:35:05.94	339.30	8.59	
2025-01-09 04:35:06.14	339.26	8.59	
2025-01-09 04:35:06.35	339.22	8.59	
2025-01-09 04:35:06.55	339.18	8.60	
2025-01-09 04:35:06.76	339.14	8.60	
2025-01-09 04:35:06.96	339.10	8.60	
2025-01-09 04:35:07.17	339.06	8.60	
2025-01-09 04:35:07.38	339.02	8.61	
2025-01-09 04:35:07.58	338.98	8.61	
2025-01-09 04:35:07.78	338.94	8.61	
2025-01-09 04:35:07.99	338.90	8.61	
2025-01-09 04:35:08.20	338.86	8.61	
2025-01-09 04:35:08.40	338.82	8.62	
2025-01-09 04:35:08.61	338.78	8.62	
2025-01-09 04:35:08.81	338.75	8.62	
2025-01-09 04:35:09.02	338.70	8.62	
2025-01-09 04:35:09.23	338.66	8.62	
2025-01-09 04:35:09.43	338.63	8.63	
2025-01-09 04:35:09.64	338.59	8.63	
2025-01-09 04:35:09.84	338.55	8.63	
2025-01-09 04:35:10.05	338.51	8.63	
2025-01-09 04:35:10.25	338.47	8.63	
2025-01-09 04:35:10.46	338.43	8.64	
2025-01-09 04:35:10.66	338.39	8.64	
2025-01-09 04:35:10.87	338.35	8.64	
2025-01-09 04:35:11.07	338.31	8.64	
2025-01-09 04:35:11.28	338.27	8.64	
2025-01-09 04:35:11.48	338.23	8.65	
2025-01-09 04:35:11.69	338.19	8.65	
2025-01-09 04:35:11.90	338.15	8.65	
2025-01-09 04:35:12.10	338.11	8.65	
2025-01-09 04:35:12.31	338.07	8.65	
2025-01-09 04:35:12.51	338.03	8.65	
2025-01-09 04:35:12.72	337.99	8.66	
2025-01-09 04:35:12.93	337.95	8.66	
2025-01-09 04:35:13.13	337.91	8.66	
2025-01-09 04:35:13.34	337.87	8.66	
2025-01-09 04:35:13.54	337.83	8.66	
2025-01-09 04:35:13.75	337.79	8.67	
2025-01-09 04:35:13.95	337.75	8.67	
2025-01-09 04:35:14.16	337.71	8.67	
2025-01-09 04:35:14.36	337.67	8.67	
2025-01-09 04:35:14.57	337.63	8.67	
2025-01-09 04:35:14.77	337.59	8.67	
2025-01-09 04:35:14.98	337.55	8.68	
2025-01-09 04:35:15.18	337.51	8.68	
2025-01-09 04:35:15.39	337.47	8.68	
2025-01-09 04:35:15.59	337.44	8.68	
2025-01-09 04:35:15.80	337.39	8.68	
2025-01-09 04:35:16.00	337.36	8.68	
2025-01-09 04:35:16.21	337.32	8.69	
2025-01-09 04:35:16.41	337.28	8.69	
2025-01-09 04:35:16.62	337.24	8.69	
2025-01-09 04:35:16.83	337.20	8.69	
2025-01-09 04:35:17.03	337.16	8.69	
2025-01-09 04:35:17.24	337.12	8.69	
2025-01-09 04:35:17.44	337.08	8.69	
2025-01-09 04:35:17.65	337.04	8.70	
2025-01-09 04:35:17.85	337.00	8.70	
2025-01-09 04:35:18.06	336.96	8.70	
2025-01-09 04:35:18.26	336.92	8.70	
2025-01-09 04:35:18.47	336.88	8.70	
2025-01-09 04:35:18.68	336.84	8.70	
2025-01-09 04:35:18.88	336.80	8.71	
2025-01-09 04:35:19.09	336.76	8.71	
2025-01-09 04:35:19.29	336.72	8.71	
2025-01-09 04:35:19.50	336.68	8.71	
2025-01-09 04:35:19.70	336.64	8.71	
2025-01-09 04:35:19.91	336.60	8.71	
2025-01-09 04:35:20.11	336.56	8.71	
2025-01-09 04:35:20.32	336.52	8.72	
2025-01-09 04:35:20.52	336.48	8.72	
2025-01-09 04:35:20.74	336.44	8.72	
2025-01-09 04:35:20.95	336.40	8.72	
2025-01-09 04:35:21.15	336.36	8.72	
2025-01-09 04:35:21.36	336.32	8.72	
2025-01-09 04:35:21.56	336.28	8.72	
2025-01-09 04:35:21.77	336.24	8.72	
2025-01-09 04:35:21.97	336.20	8.73	
2025-01-09 04:35:22.18	336.16	8.73	
2025-01-09 04:35:22.38	336.12	8.73	
2025-01-09 04:35:22.59	336.08	8.73	
2025-01-09 04:35:22.79	336.04	8.73	
2025-01-09 04:35:22.99	336.00	8.73	
2025-01-09 04:35:23.20	335.96	8.73	
2025-01-09 04:35:23.40	335.92	8.73	
2025-01-09 04:35:23.61	335.88	8.74	
2025-01-09 04:35:23.81	335.84	8.74	
2025-01-09 04:35:24.02	335.80	8.74	
2025-01-09 04:35:24.22	335.76	8.74	
2025-01-09 04:35:24.43	335.72	8.74	
2025-01-09 04:35:24.64	335.68	8.74	
2025-01-09 04:35:24.84	335.64	8.74	
2025-01-09 04:35:25.04	335.60	8.74	
2025-01-09 04:35:25.25	335.56	8.74	
2025-01-09 04:35:25.46	335.52	8.75	
2025-01-09 04:35:25.66	335.48	8.75	
2025-01-09 04:35:25.87	335.44	8.75	
2025-01-09 04:35:26.07	335.40	8.75	
2025-01-09 04:35:26.28	335.36	8.75	
2025-01-09 04:35:26.48	335.32	8.75	
2025-01-09 04:35:26.69	335.28	8.75	
2025-01-09 04:35:26.89	335.24	8.75	
2025-01-09 04:35:27.11	335.20	8.75	
2025-01-09 04:35:27.32	335.16	8.75	
2025-01-09 04:35:27.52	335.12	8.76	
2025-01-09 04:35:27.73	335.08	8.76	
2025-01-09 04:35:27.93	335.04	8.76	
2025-01-09 04:35:28.14	335.00	8.76	
2025-01-09 04:35:28.34	334.96	8.76	
2025-01-09 04:35:28.55	334.92	8.76	
2025-01-09 04:35:28.76	334.88	8.76	
2025-01-09 04:35:28.96	334.84	8.76	
2025-01-09 04:35:29.16	334.80	8.76	
2025-01-09 04:35:29.37	334.76	8.76	
2025-01-09 04:35:29.58	334.72	8.76	
2025-01-09 04:35:29.78	334.68	8.76	
2025-01-09 04:35:29.98	334.64	8.77	
2025-01-09 04:35:30.19	334.60	8.77	
2025-01-09 04:35:30.39	334.56	8.77	
2025-01-09 04:35:30.60	334.52	8.77	
2025-01-09 04:35:30.81	334.48	8.77	
2025-01-09 04:35:31.01	334.44	8.77	
2025-01-09 04:35:31.22	334.40	8.77	
2025-01-09 04:35:31.42	334.36	8.77	
2025-01-09 04:35:31.63	334.32	8.77	
2025-01-09 04:35:31.83	334.28	8.77	
2025-01-09 04:35:32.04	334.24	8.77	
2025-01-09 04:35:32.24	334.20	8.77	
2025-01-09 04:35:32.45	334.16	8.77	
2025-01-09 04:35:32.65	334.12	8.77	
2025-01-09 04:35:32.86	334.08	8.78	
2025-01-09 04:35:33.07	334.04	8.78	
2025-01-09 04:35:33.27	334.00	8.78	
2025-01-09 04:35:33.47	333.96	8.78	
2025-01-09 04:35:33.68	333.92	8.78	
2025-01-09 04:35:33.89	333.88	8.78	
2025-01-09 04:35:34.09	333.84	8.78	
2025-01-09 04:35:34.30	333.80	8.78	
2025-01-09 04:35:34.50	333.76	8.78	
2025-01-09 04:35:34.71	333.72	8.78	
2025-01-09 04:35:34.91	333.68	8.78	
2025-01-09 04:35:35.12	333.64	8.78	
2025-01-09 04:35:35.32	333.60	8.78	
2025-01-09 04:35:35.52	333.56	8.78	
2025-01-09 04:35:35.73	333.52	8.78	
2025-01-09 04:35:35.94	333.48	8.78	
2025-01-09 04:35:36.14	333.44	8.78	
2025-01-09 04:35:36.35	333.40	8.78	
2025-01-09 04:35:36.55	333.36	8.78	
2025-01-09 04:35:36.76	333.32	8.78	
2025-01-09 04:35:36.96	333.28	8.79	
2025-01-09 04:35:37.17	333.24	8.79	
2025-01-09 04:35:37.37	333.20	8.79	
2025-01-09 04:35:37.58	333.16	8.79	
2025-01-09 04:35:37.78	333.12	8.79	
2025-01-09 04:35:37.99	333.08	8.79	
2025-01-09 04:35:38.19	333.04	8.79	
2025-01-09 04:35:38.40	333.00	8.79	
2025-01-09 04:35:38.60	332.96	8.79	
2025-01-09 04:35:38.80	332.92	8.79	
2025-01-09 04:35:39.01	332.88	8.79	
2025-01-09 04:35:39.22	332.84	8.79	
2025-01-09 04:35:39.42	332.80	8.79	
2025-01-09 04:35:39.63	332.76	8.79	
2025-01-09 04:35:39.83	332.72	8.79	
2025-01-09 04:35:40.04	332.68	8.79	
2025-01-09 04:35:40.24	332.64	8.79	
2025-01-09 04:35:40.45	332.60	8.79	
2025-01-09 04:35:40.65	332.56	8.79	
2025-01-09 04:35:40.86	332.52	8.79	
2025-01-09 04:35:41.06	332.48	8.79	
2025-01-09 04:35:41.27	332.44	8.79	
2025-01-09 04:35:41.48	332.40	8.79	
2025-01-09 04:35:41.68	332.36	8.79	
2025-01-09 04:35:41.89	332.32	8.79	
2025-01-09 04:35:42.10	332.27	8.79	
2025-01-09 04:35:42.30	332.24	8.79	
2025-01-09 04:35:42.51	332.19	8.79	
2025-01-09 04:35:42.71	332.16	8.79	
2025-01-09 04:35:42.92	332.11	8.79	
2025-01-09 04:35:43.12	332.08	8.79	
2025-01-09 04:35:43.33	332.03	8.79	
2025-01-09 04:35:43.53	331.99	8.79	
2025-01-09 04:35:43.74	331.95	8.79	
2025-01-09 04:35:43.95	331.91	8.79	
2025-01-09 04:35:44.15	331.87	8.79	
2025-01-09 04:35:44.36	331.83	8.79	
2025-01-09 04:35:44.56	331.79	8.79	
2025-01-09 04:35:44.77	331.75	8.79	
2025-01-09 04:35:44.97	331.71	8.79	
2025-01-09 04:35:45.18	331.67	8.79	
2025-01-09 04:35:45.38	331.63	8.79	
2025-01-09 04:35:45.59	331.59	8.79	
2025-01-09 04:35:45.79	331.55	8.79	
2025-01-09 04:35:46.00	331.51	8.79	
2025-01-09 04:35:46.22	331.47	8.79	
2025-01-09 04:35:46.43	331.43	8.79	
2025-01-09 04:35:46.63	331.39	8.79	
2025-01-09 04:35:46.84	331.35	8.79	
2025-01-09 04:35:47.04	331.31	8.79	
2025-01-09 04:35:47.24	331.27	8.79	
2025-01-09 04:35:47.45	331.23	8.79	
2025-01-09 04:35:47.66	331.19	8.79	
2025-01-09 04:35:47.86	331.15	8.79	
2025-01-09 04:35:48.07	331.11	8.79	
2025-01-09 04:35:48.27	331.07	8.79	
2025-01-09 04:35:48.47	331.03	8.79	
2025-01-09 04:35:48.68	330.99	8.78	
2025-01-09 04:35:48.89	330.95	8.78	
2025-01-09 04:35:49.09	330.91	8.78	
2025-01-09 04:35:49.30	330.87	8.78	
2025-01-09 04:35:49.50	330.83	8.78	
2025-01-09 04:35:49.70	330.79	8.78	
2025-01-09 04:35:49.91	330.75	8.78	
2025-01-09 04:35:50.12	330.71	8.78	
2025-01-09 04:35:50.32	330.67	8.78	
2025-01-09 04:35:50.53	330.63	8.78	
2025-01-09 04:35:50.73	330.59	8.78	
2025-01-09 04:35:50.94	330.55	8.78	
2025-01-09 04:35:51.14	330.51	8.78	
2025-01-09 04:35:51.35	330.47	8.78	
2025-01-09 04:35:51.55	330.43	8.78	
2025-01-09 04:35:51.76	330.39	8.78	
2025-01-09 04:35:51.96	330.35	8.78	
2025-01-09 04:35:52.17	330.31	8.78	
2025-01-09 04:35:52.37	330.27	8.78	
2025-01-09 04:35:52.58	330.23	8.78	
2025-01-09 04:35:52.78	330.19	8.78	
2025-01-09 04:35:52.98	330.15	8.77	
2025-01-09 04:35:53.19	330.11	8.77	
2025-01-09 04:35:53.40	330.07	8.77	
2025-01-09 04:35:53.60	330.03	8.77	
2025-01-09 04:35:53.81	329.99	8.77	
2025-01-09 04:35:54.01	329.95	8.77	
2025-01-09 04:35:54.22	329.91	8.77	
2025-01-09 04:35:54.42	329.87	8.77	
2025-01-09 04:35:54.63	329.83	8.77	
2025-01-09 04:35:54.83	329.79	8.77	
2025-01-09 04:35:55.04	329.75	8.77	
2025-01-09 04:35:55.24	329.71	8.77	
2025-01-09 04:35:55.45	329.67	8.77	
2025-01-09 04:35:55.65	329.63	8.77	
2025-01-09 04:35:55.85	329.59	8.76	
2025-01-09 04:35:56.06	329.55	8.76	
2025-01-09 04:35:56.26	329.51	8.76	
2025-01-09 04:35:56.47	329.47	8.76	
2025-01-09 04:35:56.67	329.43	8.76	
2025-01-09 04:35:56.88	329.39	8.76	
2025-01-09 04:35:57.08	329.35	8.76	
2025-01-09 04:35:57.29	329.31	8.76	
2025-01-09 04:35:57.49	329.27	8.76	
2025-01-09 04:35:57.70	329.23	8.76	
2025-01-09 04:35:57.90	329.19	8.76	
2025-01-09 04:35:58.11	329.15	8.76	
2025-01-09 04:35:58.32	329.11	8.75	
2025-01-09 04:35:58.52	329.07	8.75	
2025-01-09 04:35:58.73	329.03	8.75	
2025-01-09 04:35:58.93	328.99	8.75	
2025-01-09 04:35:59.14	328.95	8.75	
2025-01-09 04:35:59.34	328.91	8.75	
2025-01-09 04:35:59.55	328.87	8.75	
2025-01-09 04:35:59.75	328.83	8.75	
2025-01-09 04:35:59.96	328.79	8.75	
2025-01-09 04:36:00.16	328.75	8.75	
2025-01-09 04:36:00.37	328.71	8.74	
2025-01-09 04:36:00.57	328.67	8.74	
2025-01-09 04:36:00.78	328.63	8.74	
2025-01-09 04:36:00.99	328.59	8.74	
2025-01-09 04:36:01.20	328.55	8.74	
2025-01-09 04:36:01.41	328.51	8.74	
2025-01-09 04:36:01.61	328.47	8.74	
2025-01-09 04:36:01.82	328.43	8.74	
2025-01-09 04:36:02.03	328.39	8.74	
2025-01-09 04:36:02.23	328.35	8.73	
2025-01-09 04:36:02.44	328.31	8.73	
2025-01-09 04:36:02.64	328.27	8.73	
2025-01-09 04:36:02.85	328.23	8.73	
2025-01-09 04:36:03.05	328.19	8.73	
2025-01-09 04:36:03.26	328.15	8.73	
2025-01-09 04:36:03.46	328.11	8.73	
2025-01-09 04:36:03.67	328.07	8.73	
2025-01-09 04:36:03.87	328.03	8.72	
2025-01-09 04:36:04.08	327.99	8.72	
2025-01-09 04:36:04.28	327.95	8.72	
2025-01-09 04:36:04.49	327.91	8.72	
2025-01-09 04:36:04.69	327.87	8.72	
2025-01-09 04:36:04.90	327.83	8.72	
2025-01-09 04:36:05.10	327.79	8.72	
2025-01-09 04:36:05.31	327.75	8.71	
2025-01-09 04:36:05.51	327.71	8.71	
2025-01-09 04:36:05.72	327.67	8.71	
2025-01-09 04:36:05.92	327.63	8.71	
2025-01-09 04:36:06.13	327.59	8.71	
2025-01-09 04:36:06.33	327.55	8.71	
2025-01-09 04:36:06.54	327.51	8.71	
2025-01-09 04:36:06.74	327.47	8.71	
2025-01-09 04:36:06.95	327.43	8.70	
2025-01-09 04:36:07.15	327.39	8.70	
2025-01-09 04:36:07.36	327.35	8.70	
2025-01-09 04:36:07.56	327.31	8.70	
2025-01-09 04:36:07.77	327.27	8.70	
2025-01-09 04:36:07.97	327.23	8.70	
2025-01-09 04:36:08.18	327.19	8.69	
2025-01-09 04:36:08.38	327.15	8.69	
2025-01-09 04:36:08.59	327.11	8.69	
2025-01-09 04:36:08.79	327.07	8.69	
2025-01-09 04:36:09.00	327.03	8.69	
2025-01-09 04:36:09.20	326.99	8.69	
2025-01-09 04:36:09.41	326.95	8.69	
2025-01-09 04:36:09.61	326.92	8.68	
2025-01-09 04:36:09.82	326.87	8.68	
2025-01-09 04:36:10.02	326.84	8.68	
2025-01-09 04:36:10.23	326.80	8.68	
2025-01-09 04:36:10.44	326.75	8.68	
2025-01-09 04:36:10.64	326.72	8.68	
2025-01-09 04:36:10.84	326.68	8.67	
2025-01-09 04:36:11.05	326.64	8.67	
2025-01-09 04:36:11.26	326.60	8.67	
2025-01-09 04:36:11.46	326.56	8.67	
2025-01-09 04:36:11.67	326.52	8.67	
2025-01-09 04:36:11.87	326.48	8.67	
2025-01-09 04:36:12.08	326.44	8.66	
2025-01-09 04:36:12.28	326.40	8.66	
2025-01-09 04:36:12.49	326.36	8.66	
2025-01-09 04:36:12.69	326.32	8.66	
2025-01-09 04:36:12.89	326.28	8.66	
2025-01-09 04:36:13.10	326.24	8.65	
2025-01-09 04:36:13.30	326.20	8.65	
2025-01-09 04:36:13.51	326.16	8.65	
2025-01-09 04:36:13.71	326.12	8.65	
2025-01-09 04:36:13.91	326.08	8.65	
2025-01-09 04:36:14.12	326.04	8.65	
2025-01-09 04:36:14.33	326.00	8.64	
2025-01-09 04:36:14.54	325.96	8.64	
2025-01-09 04:36:14.74	325.92	8.64	
2025-01-09 04:36:14.95	325.88	8.64	
2025-01-09 04:36:15.15	325.84	8.64	
2025-01-09 04:36:15.36	325.80	8.63	
2025-01-09 04:36:15.57	325.76	8.63	
2025-01-09 04:36:15.77	325.72	8.63	
2025-01-09 04:36:15.98	325.68	8.63	
2025-01-09 04:36:16.18	325.64	8.63	
2025-01-09 04:36:16.39	325.60	8.62	
2025-01-09 04:36:16.59	325.57	8.62	
2025-01-09 04:36:16.79	325.53	8.62	
2025-01-09 04:36:17.00	325.49	8.62	
2025-01-09 04:36:17.21	325.45	8.62	
2025-01-09 04:36:17.41	325.41	8.61	
2025-01-09 04:36:17.62	325.37	8.61	
2025-01-09 04:36:17.82	325.33	8.61	
2025-01-09 04:36:18.03	325.29	8.61	
2025-01-09 04:36:18.23	325.25	8.60	
2025-01-09 04:36:18.44	325.21	8.60	
2025-01-09 04:36:18.65	325.17	8.60	
2025-01-09 04:36:18.85	325.13	8.60	
2025-01-09 04:36:19.06	325.09	8.60	
2025-01-09 04:36:19.26	325.05	8.59	
2025-01-09 04:36:19.47	325.01	8.59	
2025-01-09 04:36:19.68	324.97	8.59	
2025-01-09 04:36:19.88	324.93	8.59	
2025-01-09 04:36:20.09	324.89	8.59	
2025-01-09 04:36:20.29	324.85	8.58	
2025-01-09 04:36:20.51	324.81	8.58	
2025-01-09 04:36:20.72	324.77	8.58	
2025-01-09 04:36:20.92	324.73	8.58	
2025-01-09 04:36:21.13	324.69	8.57	
2025-01-09 04:36:21.34	324.65	8.57	
2025-01-09 04:36:21.55	324.61	8.57	
2025-01-09 04:36:21.76	324.57	8.57	
2025-01-09 04:36:21.96	324.53	8.56	
2025-01-09 04:36:22.17	324.49	8.56	
2025-01-09 04:36:22.37	324.45	8.56	
2025-01-09 04:36:22.58	324.41	8.56	
2025-01-09 04:36:22.78	324.37	8.55	
2025-01-09 04:36:22.99	324.33	8.55	
2025-01-09 04:36:23.19	324.30	8.55	
2025-01-09 04:36:23.40	324.26	8.55	
2025-01-09 04:36:23.60	324.22	8.55	
2025-01-09 04:36:23.81	324.18	8.54	
2025-01-09 04:36:24.01	324.14	8.54	
2025-01-09 04:36:24.22	324.10	8.54	
2025-01-09 04:36:24.43	324.06	8.54	
2025-01-09 04:36:24.63	324.02	8.53	
2025-01-09 04:36:24.84	323.98	8.53	
2025-01-09 04:36:25.05	323.94	8.53	
2025-01-09 04:36:25.25	323.90	8.53	
2025-01-09 04:36:25.46	323.86	8.52	
2025-01-09 04:36:25.66	323.82	8.52	
2025-01-09 04:36:25.87	323.78	8.52	
2025-01-09 04:36:26.07	323.74	8.51	
2025-01-09 04:36:26.28	323.70	8.51	
2025-01-09 04:36:26.49	323.66	8.51	
2025-01-09 04:36:26.69	323.63	8.51	
2025-01-09 04:36:26.91	323.58	8.50	
2025-01-09 04:36:27.11	323.54	8.50	
2025-01-09 04:36:27.32	323.50	8.50	
2025-01-09 04:36:27.52	323.47	8.50	
2025-01-09 04:36:27.73	323.43	8.49	
2025-01-09 04:36:27.94	323.39	8.49	
2025-01-09 04:36:28.14	323.35	8.49	
2025-01-09 04:36:28.35	323.31	8.49	
2025-01-09 04:36:28.56	323.27	8.48	
2025-01-09 04:36:28.76	323.23	8.48	
2025-01-09 04:36:28.97	323.19	8.48	
2025-01-09 04:36:29.17	323.15	8.47	
2025-01-09 04:36:29.38	323.11	8.47	
2025-01-09 04:36:29.58	323.07	8.47	
2025-01-09 04:36:29.79	323.03	8.47	
2025-01-09 04:36:29.99	322.99	8.46	
2025-01-09 04:36:30.20	322.95	8.46	
2025-01-09 04:36:30.40	322.92	8.46	
2025-01-09 04:36:30.61	322.88	8.46	
2025-01-09 04:36:30.81	322.84	8.45	
2025-01-09 04:36:31.01	322.80	8.45	
2025-01-09 04:36:31.22	322.76	8.45	
2025-01-09 04:36:31.42	322.72	8.44	
2025-01-09 04:36:31.63	322.68	8.44	
2025-01-09 04:36:31.84	322.64	8.44	
2025-01-09 04:36:32.04	322.60	8.44	
2025-01-09 04:36:32.24	322.57	8.43	
2025-01-09 04:36:32.45	322.53	8.43	
2025-01-09 04:36:32.65	322.49	8.43	
2025-01-09 04:36:32.86	322.45	8.42	
2025-01-09 04:36:33.06	322.41	8.42	
2025-01-09 04:36:33.27	322.37	8.42	
2025-01-09 04:36:33.47	322.33	8.41	
2025-01-09 04:36:33.68	322.29	8.41	
2025-01-09 04:36:33.88	322.25	8.41	
2025-01-09 04:36:34.09	322.21	8.41	
2025-01-09 04:36:34.29	322.18	8.40	
2025-01-09 04:36:34.50	322.14	8.40	
2025-01-09 04:36:34.70	322.10	8.40	
2025-01-09 04:36:34.91	322.06	8.39	
2025-01-09 04:36:35.11	322.02	8.39	
2025-01-09 04:36:35.32	321.98	8.39	
2025-01-09 04:36:35.52	321.94	8.38	
2025-01-09 04:36:35.73	321.90	8.38	
2025-01-09 04:36:35.93	321.87	8.38	
2025-01-09 04:36:36.14	321.83	8.37	
2025-01-09 04:36:36.34	321.79	8.37	
2025-01-09 04:36:36.55	321.75	8.37	
2025-01-09 04:36:36.75	321.71	8.37	
2025-01-09 04:36:36.96	321.67	8.36	
2025-01-09 04:36:37.16	321.63	8.36	
2025-01-09 04:36:37.36	321.60	8.36	
2025-01-09 04:36:37.57	321.56	8.35	
2025-01-09 04:36:37.77	321.52	8.35	
2025-01-09 04:36:37.98	321.48	8.35	
2025-01-09 04:36:38.18	321.44	8.34	
2025-01-09 04:36:38.39	321.40	8.34	
2025-01-09 04:36:38.59	321.36	8.34	
2025-01-09 04:36:38.79	321.32	8.33	
2025-01-09 04:36:39.00	321.29	8.33	
2025-01-09 04:36:39.21	321.25	8.33	
2025-01-09 04:36:39.41	321.21	8.32	
2025-01-09 04:36:39.62	321.17	8.32	
2025-01-09 04:36:39.82	321.13	8.32	
2025-01-09 04:36:40.03	321.09	8.31	
2025-01-09 04:36:40.24	321.05	8.31	
2025-01-09 04:36:40.44	321.01	8.31	
2025-01-09 04:36:40.64	320.98	8.30	
2025-01-09 04:36:40.85	320.94	8.30	
2025-01-09 04:36:41.06	320.90	8.30	
2025-01-09 04:36:41.26	320.86	8.29	
2025-01-09 04:36:41.47	320.82	8.29	
2025-01-09 04:36:41.67	320.78	8.29	
2025-01-09 04:36:41.87	320.74	8.28	
2025-01-09 04:36:42.08	320.71	8.28	
2025-01-09 04:36:42.28	320.67	8.28	
2025-01-09 04:36:42.49	320.63	8.27	
2025-01-09 04:36:42.70	320.59	8.27	
2025-01-09 04:36:42.90	320.55	8.26	
2025-01-09 04:36:43.11	320.51	8.26	
2025-01-09 04:36:43.31	320.47	8.26	
2025-01-09 04:36:43.52	320.43	8.25	
2025-01-09 04:36:43.72	320.40	8.25	
2025-01-09 04:36:43.93	320.36	8.25	
2025-01-09 04:36:44.13	320.32	8.24	
2025-01-09 04:36:44.34	320.28	8.24	
2025-01-09 04:36:44.54	320.24	8.24	
2025-01-09 04:36:44.75	320.20	8.23	
2025-01-09 04:36:44.95	320.17	8.23	
2025-01-09 04:36:45.16	320.13	8.23	
2025-01-09 04:36:45.37	320.09	8.22	
2025-01-09 04:36:45.57	320.05	8.22	
2025-01-09 04:36:45.78	320.01	8.21	
2025-01-09 04:36:45.98	319.97	8.21	
2025-01-09 04:36:46.18	319.94	8.21	
2025-01-09 04:36:46.39	319.90	8.20	
2025-01-09 04:36:46.60	319.86	8.20	
2025-01-09 04:36:46.80	319.82	8.20	
2025-01-09 04:36:47.00	319.78	8.19	
2025-01-09 04:36:47.21	319.74	8.19	
2025-01-09 04:36:47.42	319.70	8.18	
2025-01-09 04:36:47.62	319.67	8.18	
2025-01-09 04:36:47.83	319.63	8.18	
2025-01-09 04:36:48.03	319.59	8.17	
2025-01-09 04:36:48.24	319.55	8.17	
2025-01-09 04:36:48.44	319.51	8.17	
2025-01-09 04:36:48.65	319.47	8.16	
2025-01-09 04:36:48.86	319.44	8.16	
2025-01-09 04:36:49.06	319.40	8.15	
2025-01-09 04:36:49.28	319.36	8.15	
2025-01-09 04:36:49.48	319.32	8.15	
2025-01-09 04:36:49.69	319.28	8.14	
2025-01-09 04:36:49.89	319.24	8.14	
2025-01-09 04:36:50.10	319.20	8.13	
2025-01-09 04:36:50.30	319.17	8.13	
2025-01-09 04:36:50.50	319.13	8.13	
2025-01-09 04:36:50.71	319.09	8.12	
2025-01-09 04:36:50.92	319.05	8.12	
2025-01-09 04:36:51.12	319.02	8.12	
2025-01-09 04:36:51.32	318.98	8.11	
2025-01-09 04:36:51.53	318.94	8.11	
2025-01-09 04:36:51.73	318.90	8.10	
2025-01-09 04:36:51.94	318.86	8.10	
2025-01-09 04:36:52.14	318.83	8.10	
2025-01-09 04:36:52.35	318.79	8.09	
2025-01-09 04:36:52.56	318.75	8.09	
2025-01-09 04:36:52.76	318.71	8.08	
2025-01-09 04:36:52.97	318.67	8.08	
2025-01-09 04:36:53.17	318.63	8.08	
2025-01-09 04:36:53.38	318.60	8.07	
2025-01-09 04:36:53.58	318.56	8.07	
2025-01-09 04:36:53.79	318.52	8.06	
2025-01-09 04:36:53.99	318.48	8.06	
2025-01-09 04:36:54.20	318.44	8.06	
2025-01-09 04:36:54.41	318.41	8.05	
2025-01-09 04:36:54.62	318.37	8.05	
2025-01-09 04:36:54.82	318.33	8.04	
2025-01-09 04:36:55.03	318.29	8.04	
2025-01-09 04:36:55.23	318.25	8.03	
2025-01-09 04:36:55.44	318.22	8.03	
2025-01-09 04:36:55.64	318.18	8.03	
2025-01-09 04:36:55.85	318.14	8.02	
2025-01-09 04:36:56.05	318.10	8.02	
2025-01-09 04:36:56.26	318.06	8.01	
2025-01-09 04:36:56.47	318.03	8.01	
2025-01-09 04:36:56.67	317.99	8.01	
2025-01-09 04:36:56.87	317.95	8.00	
2025-01-09 04:36:57.08	317.91	8.00	
2025-01-09 04:36:57.28	317.88	7.99	
2025-01-09 04:36:57.49	317.84	7.99	
2025-01-09 04:36:57.69	317.80	7.98	
2025-01-09 04:36:57.90	317.76	7.98	
2025-01-09 04:36:58.10	317.73	7.98	
2025-01-09 04:36:58.31	317.69	7.97	
2025-01-09 04:36:58.51	317.65	7.97	
2025-01-09 04:36:58.72	317.61	7.96	
2025-01-09 04:36:58.92	317.57	7.96	
2025-01-09 04:36:59.13	317.54	7.95	
2025-01-09 04:36:59.33	317.50	7.95	
2025-01-09 04:36:59.54	317.46	7.94	
2025-01-09 04:36:59.74	317.42	7.94	
2025-01-09 04:36:59.94	317.39	7.94	
2025-01-09 04:37:00.15	317.35	7.93	
2025-01-09 04:37:00.35	317.31	7.93	
2025-01-09 04:37:00.56	317.27	7.92	
2025-01-09 04:37:00.76	317.24	7.92	
2025-01-09 04:37:00.97	317.20	7.91	
2025-01-09 04:37:01.17	317.16	7.91	
2025-01-09 04:37:01.38	317.12	7.91	
2025-01-09 04:37:01.58	317.09	7.90	
2025-01-09 04:37:01.79	317.05	7.90	
2025-01-09 04:37:01.99	317.01	7.89	
2025-01-09 04:37:02.20	316.97	7.89	
2025-01-09 04:37:02.40	316.94	7.88	
2025-01-09 04:37:02.61	316.90	7.88	
2025-01-09 04:37:02.82	316.86	7.87	
2025-01-09 04:37:03.02	316.82	7.87	
2025-01-09 04:37:03.22	316.79	7.87	
2025-01-09 04:37:03.43	316.75	7.86	
2025-01-09 04:37:03.64	316.71	7.86	
2025-01-09 04:37:03.84	316.67	7.85	
2025-01-09 04:37:04.05	316.64	7.85	
2025-01-09 04:37:04.25	316.60	7.84	
2025-01-09 04:37:04.45	316.56	7.84	
2025-01-09 04:37:04.66	316.53	7.83	
2025-01-09 04:37:04.86	316.49	7.83	
2025-01-09 04:37:05.07	316.45	7.82	
2025-01-09 04:37:05.27	316.41	7.82	
2025-01-09 04:37:05.48	316.38	7.81	
2025-01-09 04:37:05.68	316.34	7.81	
2025-01-09 04:37:05.89	316.30	7.81	
2025-01-09 04:37:06.09	316.27	7.80	
2025-01-09 04:37:06.30	316.23	7.80	
2025-01-09 04:37:06.50	316.19	7.79	
2025-01-09 04:37:06.71	316.15	7.79	
2025-01-09 04:37:06.91	316.12	7.78	
2025-01-09 04:37:07.12	316.08	7.78	
2025-01-09 04:37:07.32	316.04	7.77	
2025-01-09 04:37:07.53	316.00	7.77	
2025-01-09 04:37:07.73	315.97	7.76	
2025-01-09 04:37:07.94	315.93	7.76	
2025-01-09 04:37:08.15	315.89	7.75	
2025-01-09 04:37:08.35	315.86	7.75	
2025-01-09 04:37:08.55	315.82	7.74	
2025-01-09 04:37:08.76	315.78	7.74	
2025-01-09 04:37:08.96	315.75	7.73	
2025-01-09 04:37:09.17	315.71	7.73	
2025-01-09 04:37:09.38	315.67	7.72	
2025-01-09 04:37:09.59	315.63	7.72	
2025-01-09 04:37:09.80	315.59	7.71	
2025-01-09 04:37:10.01	315.56	7.71	
2025-01-09 04:37:10.21	315.52	7.70	
2025-01-09 04:37:10.42	315.48	7.70	
2025-01-09 04:37:10.63	315.45	7.69	
2025-01-09 04:37:10.84	315.41	7.69	
2025-01-09 04:37:11.04	315.37	7.68	
2025-01-09 04:37:11.25	315.33	7.68	
2025-01-09 04:37:11.46	315.30	7.67	
2025-01-09 04:37:11.66	315.26	7.67	
2025-01-09 04:37:11.86	315.22	7.66	
2025-01-09 04:37:12.07	315.19	7.66	
2025-01-09 04:37:12.28	315.15	7.65	
2025-01-09 04:37:12.48	315.11	7.65	
2025-01-09 04:37:12.68	315.08	7.65	
2025-01-09 04:37:12.89	315.04	7.64	
2025-01-09 04:37:13.09	315.00	7.64	
2025-01-09 04:37:13.30	314.97	7.63	
2025-01-09 04:37:13.50	314.93	7.63	
2025-01-09 04:37:13.71	314.89	7.62	
2025-01-09 04:37:13.92	314.85	7.61	
2025-01-09 04:37:14.12	314.82	7.61	
2025-01-09 04:37:14.33	314.78	7.60	
2025-01-09 04:37:14.53	314.75	7.60	
2025-01-09 04:37:14.74	314.71	7.59	
2025-01-09 04:37:14.94	314.67	7.59	
2025-01-09 04:37:15.15	314.63	7.58	
2025-01-09 04:37:15.36	314.60	7.58	
2025-01-09 04:37:15.56	314.56	7.57	
2025-01-09 04:37:15.77	314.52	7.57	
2025-01-09 04:37:15.97	314.49	7.56	
2025-01-09 04:37:16.18	314.45	7.56	
2025-01-09 04:37:16.38	314.42	7.55	
2025-01-09 04:37:16.59	314.38	7.55	
2025-01-09 04:37:16.79	314.34	7.54	
2025-01-09 04:37:17.00	314.31	7.54	
2025-01-09 04:37:17.20	314.27	7.53	
2025-01-09 04:37:17.41	314.23	7.53	
2025-01-09 04:37:17.61	314.20	7.52	
2025-01-09 04:37:17.82	314.16	7.52	
2025-01-09 04:37:18.02	314.12	7.51	
2025-01-09 04:37:18.22	314.09	7.51	
2025-01-09 04:37:18.43	314.05	7.50	
2025-01-09 04:37:18.64	314.01	7.50	
2025-01-09 04:37:18.84	313.98	7.49	
2025-01-09 04:37:19.04	313.94	7.49	
2025-01-09 04:37:19.25	313.91	7.48	
2025-01-09 04:37:19.46	313.87	7.48	
2025-01-09 04:37:19.66	313.83	7.47	
2025-01-09 04:37:19.87	313.80	7.46	
2025-01-09 04:37:20.07	313.76	7.46	
2025-01-09 04:37:20.29	313.72	7.45	
2025-01-09 04:37:20.49	313.69	7.45	
2025-01-09 04:37:20.70	313.65	7.44	
2025-01-09 04:37:20.91	313.61	7.44	
2025-01-09 04:37:21.11	313.58	7.43	
2025-01-09 04:37:21.32	313.54	7.43	
2025-01-09 04:37:21.52	313.50	7.42	
2025-01-09 04:37:21.73	313.47	7.42	
2025-01-09 04:37:21.93	313.43	7.41	
2025-01-09 04:37:22.14	313.40	7.41	
2025-01-09 04:37:22.34	313.36	7.40	
2025-01-09 04:37:22.55	313.32	7.39	
2025-01-09 04:37:22.75	313.29	7.39	
2025-01-09 04:37:22.96	313.25	7.38	
2025-01-09 04:37:23.16	313.22	7.38	
2025-01-09 04:37:23.37	313.18	7.37	
2025-01-09 04:37:23.57	313.14	7.37	
2025-01-09 04:37:23.78	313.11	7.36	
2025-01-09 04:37:23.98	313.07	7.36	
2025-01-09 04:37:24.19	313.03	7.35	
2025-01-09 04:37:24.39	313.00	7.35	
2025-01-09 04:37:24.60	312.96	7.34	
2025-01-09 04:37:24.80	312.93	7.33	
2025-01-09 04:37:25.01	312.89	7.33	
2025-01-09 04:37:25.21	312.86	7.32	
2025-01-09 04:37:25.42	312.82	7.32	
2025-01-09 04:37:25.63	312.78	7.31	
2025-01-09 04:37:25.84	312.75	7.31	
2025-01-09 04:37:26.05	312.71	7.30	
2025-01-09 04:37:26.25	312.67	7.30	
2025-01-09 04:37:26.46	312.64	7.29	
2025-01-09 04:37:26.66	312.60	7.28	
2025-01-09 04:37:26.87	312.57	7.28	
2025-01-09 04:37:27.07	312.53	7.27	
2025-01-09 04:37:27.28	312.49	7.27	
2025-01-09 04:37:27.48	312.46	7.26	
2025-01-09 04:37:27.69	312.42	7.26	
2025-01-09 04:37:27.89	312.39	7.25	
2025-01-09 04:37:28.10	312.35	7.24	
2025-01-09 04:37:28.30	312.32	7.24	
2025-01-09 04:37:28.51	312.28	7.23	
2025-01-09 04:37:28.71	312.25	7.23	
2025-01-09 04:37:28.92	312.21	7.22	
2025-01-09 04:37:29.12	312.17	7.22	
2025-01-09 04:37:29.33	312.14	7.21	
2025-01-09 04:37:29.53	312.10	7.20	
2025-01-09 04:37:29.74	312.07	7.20	
2025-01-09 04:37:29.94	312.03	7.19	
2025-01-09 04:37:30.15	312.00	7.19	
2025-01-09 04:37:30.36	311.96	7.18	
2025-01-09 04:37:30.56	311.92	7.18	
2025-01-09 04:37:30.77	311.89	7.17	
2025-01-09 04:37:30.97	311.85	7.16	
2025-01-09 04:37:31.18	311.82	7.16	
2025-01-09 04:37:31.38	311.78	7.15	
2025-01-09 04:37:31.59	311.75	7.15	
2025-01-09 04:37:31.79	311.71	7.14	
2025-01-09 04:37:32.01	311.67	7.14	
2025-01-09 04:37:32.21	311.64	7.13	
2025-01-09 04:37:32.42	311.60	7.12	
2025-01-09 04:37:32.63	311.57	7.12	
2025-01-09 04:37:32.83	311.53	7.11	
2025-01-09 04:37:33.03	311.50	7.11	
2025-01-09 04:37:33.24	311.46	7.10	
2025-01-09 04:37:33.44	311.43	7.09	
2025-01-09 04:37:33.65	311.39	7.09	
2025-01-09 04:37:33.85	311.36	7.08	
2025-01-09 04:37:34.06	311.32	7.08	
2025-01-09 04:37:34.26	311.29	7.07	
2025-01-09 04:37:34.47	311.25	7.06	
2025-01-09 04:37:34.68	311.21	7.06	
2025-01-09 04:37:34.88	311.18	7.05	
2025-01-09 04:37:35.08	311.15	7.05	
2025-01-09 04:37:35.29	311.11	7.04	
2025-01-09 04:37:35.50	311.07	7.04	
2025-01-09 04:37:35.70	311.04	7.03	
2025-01-09 04:37:35.91	311.00	7.02	
2025-01-09 04:37:36.11	310.97	7.02	
2025-01-09 04:37:36.32	310.93	7.01	
2025-01-09 04:37:36.52	310.90	7.01	
2025-01-09 04:37:36.73	310.86	7.00	
2025-01-09 04:37:36.93	310.83	6.99	
2025-01-09 04:37:37.14	310.79	6.99	
2025-01-09 04:37:37.34	310.76	6.98	
2025-01-09 04:37:37.55	310.72	6.98	
2025-01-09 04:37:37.75	310.69	6.97	
2025-01-09 04:37:37.96	310.65	6.96	
2025-01-09 04:37:38.17	310.62	6.96	
2025-01-09 04:37:38.37	310.58	6.95	
2025-01-09 04:37:38.58	310.55	6.94	
2025-01-09 04:37:38.78	310.51	6.94	
2025-01-09 04:37:38.99	310.48	6.93	
2025-01-09 04:37:39.19	310.44	6.93	
2025-01-09 04:37:39.41	310.41	6.92	
2025-01-09 04:37:39.62	310.37	6.91	
2025-01-09 04:37:39.82	310.34	6.91	
2025-01-09 04:37:40.03	310.30	6.90	
2025-01-09 04:37:40.23	310.27	6.90	
2025-01-09 04:37:40.44	310.23	6.89	
2025-01-09 04:37:40.64	310.20	6.88	
2025-01-09 04:37:40.85	310.16	6.88	
2025-01-09 04:37:41.06	310.13	6.87	
2025-01-09 04:37:41.26	310.09	6.86	
2025-01-09 04:37:41.47	310.06	6.86	
2025-01-09 04:37:41.67	310.02	6.85	
2025-01-09 04:37:41.88	309.99	6.85	
2025-01-09 04:37:42.09	309.95	6.84	
2025-01-09 04:37:42.29	309.92	6.83	
2025-01-09 04:37:42.50	309.88	6.83	
2025-01-09 04:37:42.70	309.85	6.82	
2025-01-09 04:37:42.91	309.81	6.82	
2025-01-09 04:37:43.11	309.78	6.81	
2025-01-09 04:37:43.31	309.75	6.80	
2025-01-09 04:37:43.52	309.71	6.80	
2025-01-09 04:37:43.72	309.68	6.79	
2025-01-09 04:37:43.93	309.64	6.78	
2025-01-09 04:37:44.14	309.61	6.78	
2025-01-09 04:37:44.34	309.57	6.77	
2025-01-09 04:37:44.55	309.54	6.77	
2025-01-09 04:37:44.75	309.51	6.76	
2025-01-09 04:37:44.96	309.47	6.75	
2025-01-09 04:37:45.16	309.44	6.75	
2025-01-09 04:37:45.36	309.40	6.74	
2025-01-09 04:37:45.57	309.37	6.73	
2025-01-09 04:37:45.77	309.33	6.73	
2025-01-09 04:37:45.98	309.30	6.72	
2025-01-09 04:37:46.19	309.26	6.71	
2025-01-09 04:37:46.39	309.23	6.71	
2025-01-09 04:37:46.60	309.20	6.70	
2025-01-09 04:37:46.80	309.16	6.70	
2025-01-09 04:37:47.01	309.13	6.69	
2025-01-09 04:37:47.21	309.09	6.68	
2025-01-09 04:37:47.42	309.06	6.68	
2025-01-09 04:37:47.62	309.03	6.67	
2025-01-09 04:37:47.83	308.99	6.66	
2025-01-09 04:37:48.03	308.96	6.66	
2025-01-09 04:37:48.23	308.92	6.65	
2025-01-09 04:37:48.44	308.89	6.64	
2025-01-09 04:37:48.65	308.85	6.64	
2025-01-09 04:37:48.85	308.82	6.63	
2025-01-09 04:37:49.06	308.79	6.63	
2025-01-09 04:37:49.26	308.75	6.62	
2025-01-09 04:37:49.47	308.72	6.61	
2025-01-09 04:37:49.67	308.68	6.61	
2025-01-09 04:37:49.88	308.65	6.60	
2025-01-09 04:37:50.09	308.61	6.59	
2025-01-09 04:37:50.30	308.58	6.59	
2025-01-09 04:37:50.50	308.55	6.58	
2025-01-09 04:37:50.71	308.51	6.57	
2025-01-09 04:37:50.91	308.48	6.57	
2025-01-09 04:37:51.12	308.44	6.56	
2025-01-09 04:37:51.33	308.41	6.55	
2025-01-09 04:37:51.53	308.38	6.55	
2025-01-09 04:37:51.74	308.34	6.54	
2025-01-09 04:37:51.94	308.31	6.53	
2025-01-09 04:37:52.14	308.28	6.53	
2025-01-09 04:37:52.35	308.24	6.52	
2025-01-09 04:37:52.56	308.21	6.51	
2025-01-09 04:37:52.76	308.17	6.51	
2025-01-09 04:37:52.97	308.14	6.50	
2025-01-09 04:37:53.17	308.11	6.49	
2025-01-09 04:37:53.38	308.07	6.49	
2025-01-09 04:37:53.58	308.04	6.48	
2025-01-09 04:37:53.79	308.00	6.47	
2025-01-09 04:37:53.99	307.97	6.47	
2025-01-09 04:37:54.20	307.94	6.46	
2025-01-09 04:37:54.40	307.90	6.45	
2025-01-09 04:37:54.61	307.87	6.45	
2025-01-09 04:37:54.81	307.84	6.44	
2025-01-09 04:37:55.02	307.80	6.43	
2025-01-09 04:37:55.22	307.77	6.43	
2025-01-09 04:37:55.43	307.74	6.42	
2025-01-09 04:37:55.63	307.70	6.41	
2025-01-09 04:37:55.84	307.67	6.41	
2025-01-09 04:37:56.04	307.64	6.40	
2025-01-09 04:37:56.25	307.60	6.39	
2025-01-09 04:37:56.45	307.57	6.39	
2025-01-09 04:37:56.65	307.54	6.38	
2025-01-09 04:37:56.86	307.50	6.37	
2025-01-09 04:37:57.07	307.47	6.37	
2025-01-09 04:37:57.27	307.44	6.36	
2025-01-09 04:37:57.47	307.40	6.35	
2025-01-09 04:37:57.68	307.37	6.35	
2025-01-09 04:37:57.89	307.33	6.34	
2025-01-09 04:37:58.09	307.30	6.33	
2025-01-09 04:37:58.30	307.27	6.33	
2025-01-09 04:37:58.50	307.24	6.32	
2025-01-09 04:37:58.71	307.20	6.31	
2025-01-09 04:37:58.91	307.17	6.31	
2025-01-09 04:37:59.12	307.13	6.30	
2025-01-09 04:37:59.32	307.10	6.29	
2025-01-09 04:37:59.53	307.07	6.29	
2025-01-09 04:37:59.73	307.04	6.28	
2025-01-09 04:37:59.94	307.00	6.27	
2025-01-09 04:38:00.14	306.97	6.27	
2025-01-09 04:38:00.35	306.94	6.26	
2025-01-09 04:38:00.55	306.90	6.25	
2025-01-09 04:38:00.75	306.87	6.25	
2025-01-09 04:38:00.96	306.84	6.24	
2025-01-09 04:38:01.17	306.80	6.23	
2025-01-09 04:38:01.37	306.77	6.23	
2025-01-09 04:38:01.58	306.74	6.22	
2025-01-09 04:38:01.78	306.71	6.21	
2025-01-09 04:38:01.99	306.67	6.21	
2025-01-09 04:38:02.19	306.64	6.20	
2025-01-09 04:38:02.40	306.61	6.19	
2025-01-09 04:38:02.60	306.57	6.18	
2025-01-09 04:38:02.82	306.54	6.18	
2025-01-09 04:38:03.03	306.50	6.17	
2025-01-09 04:38:03.23	306.47	6.16	
2025-01-09 04:38:03.43	306.44	6.16	
2025-01-09 04:38:03.64	306.41	6.15	
2025-01-09 04:38:03.84	306.37	6.14	
2025-01-09 04:38:04.05	306.34	6.14	
2025-01-09 04:38:04.25	306.31	6.13	
2025-01-09 04:38:04.46	306.28	6.12	
2025-01-09 04:38:04.66	306.24	6.12	
2025-01-09 04:38:04.87	306.21	6.11	
2025-01-09 04:38:05.07	306.18	6.10	
2025-01-09 04:38:05.28	306.14	6.09	
2025-01-09 04:38:05.48	306.11	6.09	
2025-01-09 04:38:05.69	306.08	6.08	
2025-01-09 04:38:05.90	306.05	6.07	
2025-01-09 04:38:06.11	306.01	6.07	
2025-01-09 04:38:06.32	305.98	6.06	
2025-01-09 04:38:06.53	305.94	6.05	
2025-01-09 04:38:06.73	305.91	6.04	
2025-01-09 04:38:06.94	305.88	6.04	
2025-01-09 04:38:07.15	305.85	6.03	
2025-01-09 04:38:07.36	305.81	6.02	
2025-01-09 04:38:07.56	305.78	6.02	
2025-01-09 04:38:07.77	305.75	6.01	
