passes_logs/2025/01/09/SPB_Silybum_02/SPB_Silybum_02__20250109_183137_TERRA_rec.log

#Pass ID: 20250109_183137_TERRA
#Satellite: TERRA
#Configuration: TERRA
#Start time: 2025-01-09 18:31:37

#Version: 2.0.20230423
#Station: SPB_Silybum_02
#Location: 30.233357 lon 59.946436 lat
#TLE: 1 25994U 99068A   25008.82275774  .00000946  00000+0  20487-3 0  9990
#TLE: 2 25994  98.0228  72.0493 0003564  84.8498   6.9254 14.60383008333170

#Time	Az	El	Level	Level2	SNR	BER	Gain	Gain2
2025-01-09 18:31:39.97	161.28	4.16	
2025-01-09 18:31:40.18	161.29	4.18	
2025-01-09 18:31:40.39	161.29	4.19	
2025-01-09 18:31:40.59	161.29	4.21	
2025-01-09 18:31:40.80	161.29	4.22	
2025-01-09 18:31:41.00	161.29	4.24	
2025-01-09 18:31:41.21	161.29	4.25	
2025-01-09 18:31:41.41	161.29	4.27	
2025-01-09 18:31:41.62	161.29	4.28	
2025-01-09 18:31:41.82	161.29	4.30	
2025-01-09 18:31:42.03	161.29	4.31	
2025-01-09 18:31:42.23	161.29	4.33	
2025-01-09 18:31:42.44	161.29	4.34	
2025-01-09 18:31:42.64	161.29	4.36	
2025-01-09 18:31:42.85	161.30	4.37	
2025-01-09 18:31:43.05	161.30	4.39	
2025-01-09 18:31:43.26	161.30	4.40	
2025-01-09 18:31:43.46	161.30	4.42	
2025-01-09 18:31:43.67	161.30	4.43	
2025-01-09 18:31:43.87	161.30	4.45	
2025-01-09 18:31:44.08	161.30	4.46	
2025-01-09 18:31:44.28	161.30	4.48	
2025-01-09 18:31:44.48	161.30	4.49	
2025-01-09 18:31:44.69	161.30	4.51	
2025-01-09 18:31:44.90	161.30	4.52	
2025-01-09 18:31:45.10	161.30	4.54	
2025-01-09 18:31:45.30	161.31	4.55	
2025-01-09 18:31:45.51	161.31	4.57	
2025-01-09 18:31:45.72	161.31	4.58	
2025-01-09 18:31:45.92	161.31	4.60	
2025-01-09 18:31:46.14	161.31	4.61	
2025-01-09 18:31:46.34	161.31	4.63	
2025-01-09 18:31:46.55	161.31	4.64	
2025-01-09 18:31:46.75	161.31	4.66	
2025-01-09 18:31:46.96	161.31	4.67	
2025-01-09 18:31:47.17	161.31	4.69	
2025-01-09 18:31:47.38	161.31	4.71	
2025-01-09 18:31:47.60	161.31	4.72	
2025-01-09 18:31:47.80	161.32	4.74	
2025-01-09 18:31:48.01	161.32	4.75	
2025-01-09 18:31:48.21	161.32	4.77	
2025-01-09 18:31:48.42	161.32	4.78	
2025-01-09 18:31:48.62	161.32	4.80	
2025-01-09 18:31:48.83	161.32	4.81	
2025-01-09 18:31:49.03	161.32	4.83	
2025-01-09 18:31:49.24	161.32	4.84	
2025-01-09 18:31:49.44	161.32	4.86	
2025-01-09 18:31:49.65	161.32	4.88	
2025-01-09 18:31:49.85	161.32	4.89	
2025-01-09 18:31:50.06	161.32	4.91	
2025-01-09 18:31:50.27	161.33	4.92	
2025-01-09 18:31:50.49	161.33	4.94	
2025-01-09 18:31:50.69	161.33	4.95	
2025-01-09 18:31:50.90	161.33	4.97	
2025-01-09 18:31:51.10	161.33	4.98	
2025-01-09 18:31:51.31	161.33	5.00	
2025-01-09 18:31:51.51	161.33	5.01	
2025-01-09 18:31:51.72	161.33	5.03	
2025-01-09 18:31:51.92	161.33	5.05	
2025-01-09 18:31:52.13	161.33	5.06	
2025-01-09 18:31:52.33	161.33	5.08	
2025-01-09 18:31:52.54	161.33	5.09	
2025-01-09 18:31:52.74	161.34	5.11	
2025-01-09 18:31:52.95	161.34	5.12	
2025-01-09 18:31:53.15	161.34	5.14	
2025-01-09 18:31:53.36	161.34	5.15	
2025-01-09 18:31:53.56	161.34	5.17	
2025-01-09 18:31:53.77	161.34	5.19	
2025-01-09 18:31:53.98	161.34	5.20	
2025-01-09 18:31:54.18	161.34	5.22	
2025-01-09 18:31:54.39	161.34	5.23	
2025-01-09 18:31:54.59	161.34	5.25	
2025-01-09 18:31:54.80	161.34	5.26	
2025-01-09 18:31:55.00	161.34	5.28	
2025-01-09 18:31:55.21	161.35	5.29	
2025-01-09 18:31:55.41	161.35	5.31	
2025-01-09 18:31:55.62	161.35	5.33	
2025-01-09 18:31:55.82	161.35	5.34	
2025-01-09 18:31:56.03	161.35	5.36	
2025-01-09 18:31:56.23	161.35	5.37	
2025-01-09 18:31:56.44	161.35	5.39	
2025-01-09 18:31:56.65	161.35	5.40	
2025-01-09 18:31:56.85	161.35	5.42	
2025-01-09 18:31:57.05	161.35	5.43	
2025-01-09 18:31:57.26	161.35	5.45	
2025-01-09 18:31:57.47	161.35	5.47	
2025-01-09 18:31:57.67	161.36	5.48	
2025-01-09 18:31:57.88	161.36	5.50	
2025-01-09 18:31:58.08	161.36	5.51	
2025-01-09 18:31:58.29	161.36	5.53	
2025-01-09 18:31:58.49	161.36	5.55	
2025-01-09 18:31:58.70	161.36	5.56	
2025-01-09 18:31:58.90	161.36	5.58	
2025-01-09 18:31:59.11	161.36	5.59	
2025-01-09 18:31:59.31	161.36	5.61	
2025-01-09 18:31:59.52	161.36	5.62	
2025-01-09 18:31:59.72	161.36	5.64	
2025-01-09 18:31:59.93	161.36	5.66	
2025-01-09 18:32:00.13	161.37	5.67	
2025-01-09 18:32:00.33	161.37	5.69	
2025-01-09 18:32:00.54	161.37	5.70	
2025-01-09 18:32:00.74	161.37	5.72	
2025-01-09 18:32:00.95	161.37	5.74	
2025-01-09 18:32:01.16	161.37	5.75	
2025-01-09 18:32:01.36	161.37	5.77	
2025-01-09 18:32:01.57	161.37	5.78	
2025-01-09 18:32:01.77	161.37	5.80	
2025-01-09 18:32:01.98	161.37	5.82	
2025-01-09 18:32:02.18	161.37	5.83	
2025-01-09 18:32:02.38	161.37	5.85	
2025-01-09 18:32:02.59	161.38	5.86	
2025-01-09 18:32:02.80	161.38	5.88	
2025-01-09 18:32:03.00	161.38	5.89	
2025-01-09 18:32:03.21	161.38	5.91	
2025-01-09 18:32:03.41	161.38	5.93	
2025-01-09 18:32:03.62	161.38	5.94	
2025-01-09 18:32:03.82	161.38	5.96	
2025-01-09 18:32:04.03	161.38	5.98	
2025-01-09 18:32:04.23	161.38	5.99	
2025-01-09 18:32:04.44	161.38	6.01	
2025-01-09 18:32:04.65	161.38	6.02	
2025-01-09 18:32:04.85	161.38	6.04	
2025-01-09 18:32:05.06	161.39	6.06	
2025-01-09 18:32:05.26	161.39	6.07	
2025-01-09 18:32:05.46	161.39	6.09	
2025-01-09 18:32:05.67	161.39	6.10	
2025-01-09 18:32:05.88	161.39	6.12	
2025-01-09 18:32:06.08	161.39	6.14	
2025-01-09 18:32:06.29	161.39	6.15	
2025-01-09 18:32:06.49	161.39	6.17	
2025-01-09 18:32:06.70	161.39	6.19	
2025-01-09 18:32:06.90	161.39	6.20	
2025-01-09 18:32:07.11	161.39	6.22	
2025-01-09 18:32:07.31	161.39	6.23	
2025-01-09 18:32:07.52	161.40	6.25	
2025-01-09 18:32:07.72	161.40	6.27	
2025-01-09 18:32:07.93	161.40	6.28	
2025-01-09 18:32:08.14	161.40	6.30	
2025-01-09 18:32:08.34	161.40	6.32	
2025-01-09 18:32:08.54	161.40	6.33	
2025-01-09 18:32:08.75	161.40	6.35	
2025-01-09 18:32:08.95	161.40	6.36	
2025-01-09 18:32:09.16	161.40	6.38	
2025-01-09 18:32:09.36	161.40	6.40	
2025-01-09 18:32:09.57	161.40	6.41	
2025-01-09 18:32:09.77	161.40	6.43	
2025-01-09 18:32:09.98	161.41	6.45	
2025-01-09 18:32:10.19	161.41	6.46	
2025-01-09 18:32:10.39	161.41	6.48	
2025-01-09 18:32:10.60	161.41	6.50	
2025-01-09 18:32:10.80	161.41	6.51	
2025-01-09 18:32:11.01	161.41	6.53	
2025-01-09 18:32:11.21	161.41	6.54	
2025-01-09 18:32:11.42	161.41	6.56	
2025-01-09 18:32:11.62	161.41	6.58	
2025-01-09 18:32:11.83	161.41	6.59	
2025-01-09 18:32:12.03	161.41	6.61	
2025-01-09 18:32:12.24	161.42	6.63	
2025-01-09 18:32:12.45	161.42	6.64	
2025-01-09 18:32:12.65	161.42	6.66	
2025-01-09 18:32:12.86	161.42	6.68	
2025-01-09 18:32:13.06	161.42	6.69	
2025-01-09 18:32:13.27	161.42	6.71	
2025-01-09 18:32:13.47	161.42	6.73	
2025-01-09 18:32:13.67	161.42	6.74	
2025-01-09 18:32:13.89	161.42	6.76	
2025-01-09 18:32:14.10	161.42	6.78	
2025-01-09 18:32:14.30	161.42	6.79	
2025-01-09 18:32:14.51	161.42	6.81	
2025-01-09 18:32:14.71	161.43	6.83	
2025-01-09 18:32:14.92	161.43	6.84	
2025-01-09 18:32:15.12	161.43	6.86	
2025-01-09 18:32:15.33	161.43	6.88	
2025-01-09 18:32:15.53	161.43	6.89	
2025-01-09 18:32:15.74	161.43	6.91	
2025-01-09 18:32:15.96	161.43	6.93	
2025-01-09 18:32:16.16	161.43	6.95	
2025-01-09 18:32:16.37	161.43	6.96	
2025-01-09 18:32:16.57	161.43	6.98	
2025-01-09 18:32:16.78	161.43	7.00	
2025-01-09 18:32:16.98	161.43	7.01	
2025-01-09 18:32:17.19	161.44	7.03	
2025-01-09 18:32:17.39	161.44	7.05	
2025-01-09 18:32:17.60	161.44	7.06	
2025-01-09 18:32:17.80	161.44	7.08	
2025-01-09 18:32:18.01	161.44	7.10	
2025-01-09 18:32:18.21	161.44	7.11	
2025-01-09 18:32:18.42	161.44	7.13	
2025-01-09 18:32:18.62	161.44	7.15	
2025-01-09 18:32:18.83	161.44	7.16	
2025-01-09 18:32:19.03	161.44	7.18	
2025-01-09 18:32:19.23	161.44	7.20	
2025-01-09 18:32:19.44	161.45	7.21	
2025-01-09 18:32:19.65	161.45	7.23	
2025-01-09 18:32:19.85	161.45	7.25	
2025-01-09 18:32:20.06	161.45	7.27	
2025-01-09 18:32:20.26	161.45	7.28	
2025-01-09 18:32:20.47	161.45	7.30	
2025-01-09 18:32:20.67	161.45	7.32	
2025-01-09 18:32:20.88	161.45	7.33	
2025-01-09 18:32:21.09	161.45	7.35	
2025-01-09 18:32:21.29	161.45	7.37	
2025-01-09 18:32:21.49	161.45	7.38	
2025-01-09 18:32:21.70	161.45	7.40	
2025-01-09 18:32:21.91	161.46	7.42	
2025-01-09 18:32:22.11	161.46	7.44	
2025-01-09 18:32:22.32	161.46	7.45	
2025-01-09 18:32:22.52	161.46	7.47	
2025-01-09 18:32:22.73	161.46	7.49	
2025-01-09 18:32:22.93	161.46	7.50	
2025-01-09 18:32:23.14	161.46	7.52	
2025-01-09 18:32:23.34	161.46	7.54	
2025-01-09 18:32:23.55	161.46	7.56	
2025-01-09 18:32:23.75	161.46	7.57	
2025-01-09 18:32:23.96	161.46	7.59	
2025-01-09 18:32:24.16	161.47	7.61	
2025-01-09 18:32:24.37	161.47	7.63	
2025-01-09 18:32:24.57	161.47	7.64	
2025-01-09 18:32:24.78	161.47	7.66	
2025-01-09 18:32:24.99	161.47	7.68	
2025-01-09 18:32:25.19	161.47	7.69	
2025-01-09 18:32:25.40	161.47	7.71	
2025-01-09 18:32:25.61	161.47	7.73	
2025-01-09 18:32:25.82	161.47	7.75	
2025-01-09 18:32:26.02	161.47	7.76	
2025-01-09 18:32:26.23	161.47	7.78	
2025-01-09 18:32:26.43	161.47	7.80	
2025-01-09 18:32:26.64	161.48	7.82	
2025-01-09 18:32:26.84	161.48	7.83	
2025-01-09 18:32:27.05	161.48	7.85	
2025-01-09 18:32:27.25	161.48	7.87	
2025-01-09 18:32:27.46	161.48	7.89	
2025-01-09 18:32:27.66	161.48	7.90	
2025-01-09 18:32:27.86	161.48	7.92	
2025-01-09 18:32:28.07	161.48	7.94	
2025-01-09 18:32:28.28	161.48	7.96	
2025-01-09 18:32:28.48	161.48	7.97	
2025-01-09 18:32:28.69	161.48	7.99	
2025-01-09 18:32:28.91	161.49	8.01	
2025-01-09 18:32:29.11	161.49	8.03	
2025-01-09 18:32:29.32	161.49	8.05	
2025-01-09 18:32:29.52	161.49	8.06	
2025-01-09 18:32:29.73	161.49	8.08	
2025-01-09 18:32:29.93	161.49	8.10	
2025-01-09 18:32:30.14	161.49	8.12	
2025-01-09 18:32:30.35	161.49	8.13	
2025-01-09 18:32:30.55	161.49	8.15	
2025-01-09 18:32:30.75	161.49	8.17	
2025-01-09 18:32:30.96	161.49	8.19	
2025-01-09 18:32:31.16	161.50	8.20	
2025-01-09 18:32:31.37	161.50	8.22	
2025-01-09 18:32:31.58	161.50	8.24	
2025-01-09 18:32:31.78	161.50	8.26	
2025-01-09 18:32:31.99	161.50	8.28	
2025-01-09 18:32:32.19	161.50	8.29	
2025-01-09 18:32:32.40	161.50	8.31	
2025-01-09 18:32:32.61	161.50	8.33	
2025-01-09 18:32:32.81	161.50	8.35	
2025-01-09 18:32:33.02	161.50	8.37	
2025-01-09 18:32:33.22	161.50	8.38	
2025-01-09 18:32:33.43	161.51	8.40	
2025-01-09 18:32:33.63	161.51	8.42	
2025-01-09 18:32:33.84	161.51	8.44	
2025-01-09 18:32:34.04	161.51	8.45	
2025-01-09 18:32:34.25	161.51	8.47	
2025-01-09 18:32:34.46	161.51	8.49	
2025-01-09 18:32:34.66	161.51	8.51	
2025-01-09 18:32:34.87	161.51	8.53	
2025-01-09 18:32:35.07	161.51	8.54	
2025-01-09 18:32:35.28	161.51	8.56	
2025-01-09 18:32:35.48	161.51	8.58	
2025-01-09 18:32:35.69	161.51	8.60	
2025-01-09 18:32:35.89	161.52	8.62	
2025-01-09 18:32:36.10	161.52	8.63	
2025-01-09 18:32:36.30	161.52	8.65	
2025-01-09 18:32:36.51	161.52	8.67	
2025-01-09 18:32:36.71	161.52	8.69	
2025-01-09 18:32:36.92	161.52	8.71	
2025-01-09 18:32:37.12	161.52	8.72	
2025-01-09 18:32:37.33	161.52	8.74	
2025-01-09 18:32:37.53	161.52	8.76	
2025-01-09 18:32:37.74	161.52	8.78	
2025-01-09 18:32:37.94	161.52	8.80	
2025-01-09 18:32:38.15	161.53	8.82	
2025-01-09 18:32:38.35	161.53	8.83	
2025-01-09 18:32:38.55	161.53	8.85	
2025-01-09 18:32:38.76	161.53	8.87	
2025-01-09 18:32:38.96	161.53	8.89	
2025-01-09 18:32:39.17	161.53	8.91	
2025-01-09 18:32:39.37	161.53	8.92	
2025-01-09 18:32:39.58	161.53	8.94	
2025-01-09 18:32:39.78	161.53	8.96	
2025-01-09 18:32:39.99	161.53	8.98	
2025-01-09 18:32:40.19	161.53	9.00	
2025-01-09 18:32:40.40	161.54	9.02	
2025-01-09 18:32:40.60	161.54	9.03	
2025-01-09 18:32:40.81	161.54	9.05	
2025-01-09 18:32:41.01	161.54	9.07	
2025-01-09 18:32:41.22	161.54	9.09	
2025-01-09 18:32:41.42	161.54	9.11	
2025-01-09 18:32:41.62	161.54	9.13	
2025-01-09 18:32:41.83	161.54	9.14	
2025-01-09 18:32:42.03	161.54	9.16	
2025-01-09 18:32:42.24	161.54	9.18	
2025-01-09 18:32:42.44	161.54	9.20	
2025-01-09 18:32:42.65	161.55	9.22	
2025-01-09 18:32:42.85	161.55	9.24	
2025-01-09 18:32:43.06	161.55	9.26	
2025-01-09 18:32:43.26	161.55	9.27	
2025-01-09 18:32:43.47	161.55	9.29	
2025-01-09 18:32:43.67	161.55	9.31	
2025-01-09 18:32:43.88	161.55	9.33	
2025-01-09 18:32:44.08	161.55	9.35	
2025-01-09 18:32:44.29	161.55	9.37	
2025-01-09 18:32:44.49	161.55	9.38	
2025-01-09 18:32:44.70	161.55	9.40	
2025-01-09 18:32:44.90	161.56	9.42	
2025-01-09 18:32:45.11	161.56	9.44	
2025-01-09 18:32:45.31	161.56	9.46	
2025-01-09 18:32:45.52	161.56	9.48	
2025-01-09 18:32:45.72	161.56	9.50	
2025-01-09 18:32:45.93	161.56	9.52	
2025-01-09 18:32:46.13	161.56	9.53	
2025-01-09 18:32:46.34	161.56	9.55	
2025-01-09 18:32:46.54	161.56	9.57	
2025-01-09 18:32:46.75	161.56	9.59	
2025-01-09 18:32:46.95	161.56	9.61	
2025-01-09 18:32:47.16	161.57	9.63	
2025-01-09 18:32:47.36	161.57	9.65	
2025-01-09 18:32:47.57	161.57	9.67	
2025-01-09 18:32:47.77	161.57	9.69	
2025-01-09 18:32:47.98	161.57	9.70	
2025-01-09 18:32:48.18	161.57	9.72	
2025-01-09 18:32:48.39	161.57	9.74	
2025-01-09 18:32:48.59	161.57	9.76	
2025-01-09 18:32:48.80	161.57	9.78	
2025-01-09 18:32:49.00	161.57	9.80	
2025-01-09 18:32:49.21	161.57	9.82	
2025-01-09 18:32:49.41	161.58	9.84	
2025-01-09 18:32:49.62	161.58	9.86	
2025-01-09 18:32:49.82	161.58	9.87	
2025-01-09 18:32:50.03	161.58	9.89	
2025-01-09 18:32:50.23	161.58	9.91	
2025-01-09 18:32:50.44	161.58	9.93	
2025-01-09 18:32:50.64	161.58	9.95	
2025-01-09 18:32:50.85	161.58	9.97	
2025-01-09 18:32:51.05	161.58	9.99	
2025-01-09 18:32:51.26	161.58	10.01	
2025-01-09 18:32:51.46	161.58	10.03	
2025-01-09 18:32:51.67	161.59	10.05	
2025-01-09 18:32:51.87	161.59	10.07	
2025-01-09 18:32:52.08	161.59	10.09	
2025-01-09 18:32:52.28	161.59	10.10	
2025-01-09 18:32:52.48	161.59	10.12	
2025-01-09 18:32:52.69	161.59	10.14	
2025-01-09 18:32:52.90	161.59	10.16	
2025-01-09 18:32:53.10	161.59	10.18	
2025-01-09 18:32:53.30	161.59	10.20	
2025-01-09 18:32:53.51	161.59	10.22	
2025-01-09 18:32:53.72	161.60	10.24	
2025-01-09 18:32:53.92	161.60	10.26	
2025-01-09 18:32:54.13	161.60	10.28	
2025-01-09 18:32:54.33	161.60	10.30	
2025-01-09 18:32:54.53	161.60	10.32	
2025-01-09 18:32:54.74	161.60	10.34	
2025-01-09 18:32:54.95	161.60	10.36	
2025-01-09 18:32:55.15	161.60	10.38	
2025-01-09 18:32:55.36	161.60	10.40	
2025-01-09 18:32:55.56	161.60	10.42	
2025-01-09 18:32:55.77	161.60	10.44	
2025-01-09 18:32:55.97	161.61	10.45	
2025-01-09 18:32:56.18	161.61	10.47	
2025-01-09 18:32:56.38	161.61	10.49	
2025-01-09 18:32:56.59	161.61	10.51	
2025-01-09 18:32:56.79	161.61	10.53	
2025-01-09 18:32:57.00	161.61	10.55	
2025-01-09 18:32:57.20	161.61	10.57	
2025-01-09 18:32:57.41	161.61	10.59	
2025-01-09 18:32:57.61	161.61	10.61	
2025-01-09 18:32:57.82	161.61	10.63	
2025-01-09 18:32:58.02	161.61	10.65	
2025-01-09 18:32:58.23	161.62	10.67	
2025-01-09 18:32:58.43	161.62	10.69	
2025-01-09 18:32:58.64	161.62	10.71	
2025-01-09 18:32:58.84	161.62	10.73	
2025-01-09 18:32:59.05	161.62	10.75	
2025-01-09 18:32:59.26	161.62	10.77	
2025-01-09 18:32:59.46	161.62	10.79	
2025-01-09 18:32:59.67	161.62	10.81	
2025-01-09 18:32:59.87	161.62	10.83	
2025-01-09 18:33:00.07	161.62	10.85	
2025-01-09 18:33:00.28	161.62	10.87	
2025-01-09 18:33:00.48	161.63	10.89	
2025-01-09 18:33:00.69	161.63	10.91	
2025-01-09 18:33:00.89	161.63	10.93	
2025-01-09 18:33:01.10	161.63	10.95	
2025-01-09 18:33:01.30	161.63	10.97	
2025-01-09 18:33:01.51	161.63	10.99	
2025-01-09 18:33:01.71	161.63	11.01	
2025-01-09 18:33:01.92	161.63	11.03	
2025-01-09 18:33:02.13	161.63	11.05	
2025-01-09 18:33:02.33	161.63	11.07	
2025-01-09 18:33:02.54	161.64	11.09	
2025-01-09 18:33:02.74	161.64	11.11	
2025-01-09 18:33:02.95	161.64	11.13	
2025-01-09 18:33:03.15	161.64	11.15	
2025-01-09 18:33:03.36	161.64	11.17	
2025-01-09 18:33:03.57	161.64	11.19	
2025-01-09 18:33:03.77	161.64	11.21	
2025-01-09 18:33:03.97	161.64	11.23	
2025-01-09 18:33:04.17	161.64	11.25	
2025-01-09 18:33:04.38	161.64	11.27	
2025-01-09 18:33:04.58	161.64	11.29	
2025-01-09 18:33:04.79	161.65	11.31	
2025-01-09 18:33:05.00	161.65	11.33	
2025-01-09 18:33:05.20	161.65	11.35	
2025-01-09 18:33:05.40	161.65	11.37	
2025-01-09 18:33:05.61	161.65	11.39	
2025-01-09 18:33:05.81	161.65	11.41	
2025-01-09 18:33:06.02	161.65	11.43	
2025-01-09 18:33:06.22	161.65	11.45	
2025-01-09 18:33:06.43	161.65	11.48	
2025-01-09 18:33:06.63	161.65	11.50	
2025-01-09 18:33:06.84	161.66	11.52	
2025-01-09 18:33:07.05	161.66	11.54	
2025-01-09 18:33:07.25	161.66	11.56	
2025-01-09 18:33:07.46	161.66	11.58	
2025-01-09 18:33:07.66	161.66	11.60	
2025-01-09 18:33:07.87	161.66	11.62	
2025-01-09 18:33:08.07	161.66	11.64	
2025-01-09 18:33:08.28	161.66	11.66	
2025-01-09 18:33:08.48	161.66	11.68	
2025-01-09 18:33:08.69	161.66	11.70	
2025-01-09 18:33:08.89	161.67	11.72	
2025-01-09 18:33:09.10	161.67	11.74	
2025-01-09 18:33:09.30	161.67	11.76	
2025-01-09 18:33:09.50	161.67	11.78	
2025-01-09 18:33:09.71	161.67	11.81	
2025-01-09 18:33:09.92	161.67	11.83	
2025-01-09 18:33:10.12	161.67	11.85	
2025-01-09 18:33:10.33	161.67	11.87	
2025-01-09 18:33:10.53	161.67	11.89	
2025-01-09 18:33:10.74	161.67	11.91	
2025-01-09 18:33:10.94	161.67	11.93	
2025-01-09 18:33:11.15	161.68	11.95	
2025-01-09 18:33:11.35	161.68	11.97	
2025-01-09 18:33:11.57	161.68	12.00	
2025-01-09 18:33:11.78	161.68	12.02	
2025-01-09 18:33:11.98	161.68	12.04	
2025-01-09 18:33:12.19	161.68	12.06	
2025-01-09 18:33:12.39	161.68	12.08	
2025-01-09 18:33:12.59	161.68	12.10	
2025-01-09 18:33:12.80	161.68	12.12	
2025-01-09 18:33:13.01	161.68	12.14	
2025-01-09 18:33:13.21	161.69	12.16	
2025-01-09 18:33:13.42	161.69	12.19	
2025-01-09 18:33:13.62	161.69	12.21	
2025-01-09 18:33:13.83	161.69	12.23	
2025-01-09 18:33:14.03	161.69	12.25	
2025-01-09 18:33:14.24	161.69	12.27	
2025-01-09 18:33:14.45	161.69	12.29	
2025-01-09 18:33:14.65	161.69	12.31	
2025-01-09 18:33:14.85	161.69	12.33	
2025-01-09 18:33:15.06	161.69	12.36	
2025-01-09 18:33:15.27	161.70	12.38	
2025-01-09 18:33:15.47	161.70	12.40	
2025-01-09 18:33:15.68	161.70	12.42	
2025-01-09 18:33:15.88	161.70	12.44	
2025-01-09 18:33:16.09	161.70	12.46	
2025-01-09 18:33:16.29	161.70	12.48	
2025-01-09 18:33:16.50	161.70	12.51	
2025-01-09 18:33:16.70	161.70	12.53	
2025-01-09 18:33:16.92	161.70	12.55	
2025-01-09 18:33:17.12	161.70	12.57	
2025-01-09 18:33:17.33	161.71	12.59	
2025-01-09 18:33:17.55	161.71	12.62	
2025-01-09 18:33:17.75	161.71	12.64	
2025-01-09 18:33:17.97	161.71	12.66	
2025-01-09 18:33:18.17	161.71	12.68	
2025-01-09 18:33:18.38	161.71	12.70	
2025-01-09 18:33:18.58	161.71	12.72	
2025-01-09 18:33:18.79	161.71	12.75	
2025-01-09 18:33:18.99	161.71	12.77	
2025-01-09 18:33:19.20	161.71	12.79	
2025-01-09 18:33:19.40	161.72	12.81	
2025-01-09 18:33:19.61	161.72	12.83	
2025-01-09 18:33:19.81	161.72	12.86	
2025-01-09 18:33:20.02	161.72	12.88	
2025-01-09 18:33:20.22	161.72	12.90	
2025-01-09 18:33:20.43	161.72	12.92	
2025-01-09 18:33:20.64	161.72	12.94	
2025-01-09 18:33:20.84	161.72	12.97	
2025-01-09 18:33:21.05	161.72	12.99	
2025-01-09 18:33:21.25	161.72	13.01	
2025-01-09 18:33:21.46	161.73	13.03	
2025-01-09 18:33:21.66	161.73	13.05	
2025-01-09 18:33:21.87	161.73	13.08	
2025-01-09 18:33:22.07	161.73	13.10	
2025-01-09 18:33:22.28	161.73	13.12	
2025-01-09 18:33:22.48	161.73	13.14	
2025-01-09 18:33:22.69	161.73	13.16	
2025-01-09 18:33:22.89	161.73	13.19	
2025-01-09 18:33:23.10	161.73	13.21	
2025-01-09 18:33:23.30	161.73	13.23	
2025-01-09 18:33:23.51	161.74	13.25	
2025-01-09 18:33:23.72	161.74	13.28	
2025-01-09 18:33:23.92	161.74	13.30	
2025-01-09 18:33:24.13	161.74	13.32	
2025-01-09 18:33:24.33	161.74	13.34	
2025-01-09 18:33:24.53	161.74	13.36	
2025-01-09 18:33:24.74	161.74	13.39	
2025-01-09 18:33:24.95	161.74	13.41	
2025-01-09 18:33:25.15	161.74	13.43	
2025-01-09 18:33:25.36	161.74	13.45	
2025-01-09 18:33:25.56	161.75	13.48	
2025-01-09 18:33:25.77	161.75	13.50	
2025-01-09 18:33:25.97	161.75	13.52	
2025-01-09 18:33:26.18	161.75	13.54	
2025-01-09 18:33:26.38	161.75	13.57	
2025-01-09 18:33:26.59	161.75	13.59	
2025-01-09 18:33:26.79	161.75	13.61	
2025-01-09 18:33:27.00	161.75	13.63	
2025-01-09 18:33:27.20	161.75	13.66	
2025-01-09 18:33:27.41	161.75	13.68	
2025-01-09 18:33:27.61	161.76	13.70	
2025-01-09 18:33:27.82	161.76	13.72	
2025-01-09 18:33:28.02	161.76	13.75	
2025-01-09 18:33:28.23	161.76	13.77	
2025-01-09 18:33:28.43	161.76	13.79	
2025-01-09 18:33:28.64	161.76	13.82	
2025-01-09 18:33:28.84	161.76	13.84	
2025-01-09 18:33:29.05	161.76	13.86	
2025-01-09 18:33:29.25	161.76	13.88	
2025-01-09 18:33:29.46	161.76	13.91	
2025-01-09 18:33:29.66	161.77	13.93	
2025-01-09 18:33:29.86	161.77	13.95	
2025-01-09 18:33:30.07	161.77	13.98	
2025-01-09 18:33:30.28	161.77	14.00	
2025-01-09 18:33:30.48	161.77	14.02	
2025-01-09 18:33:30.70	161.77	14.05	
2025-01-09 18:33:30.90	161.77	14.07	
2025-01-09 18:33:31.11	161.77	14.09	
2025-01-09 18:33:31.31	161.77	14.11	
2025-01-09 18:33:31.52	161.78	14.14	
2025-01-09 18:33:31.74	161.78	14.16	
2025-01-09 18:33:31.94	161.78	14.19	
2025-01-09 18:33:32.15	161.78	14.21	
2025-01-09 18:33:32.36	161.78	14.23	
2025-01-09 18:33:32.56	161.78	14.26	
2025-01-09 18:33:32.76	161.78	14.28	
2025-01-09 18:33:32.97	161.78	14.30	
2025-01-09 18:33:33.17	161.78	14.33	
2025-01-09 18:33:33.38	161.78	14.35	
2025-01-09 18:33:33.58	161.79	14.37	
2025-01-09 18:33:33.79	161.79	14.40	
2025-01-09 18:33:33.99	161.79	14.42	
2025-01-09 18:33:34.20	161.79	14.44	
2025-01-09 18:33:34.40	161.79	14.47	
2025-01-09 18:33:34.61	161.79	14.49	
2025-01-09 18:33:34.81	161.79	14.51	
2025-01-09 18:33:35.02	161.79	14.54	
2025-01-09 18:33:35.22	161.79	14.56	
2025-01-09 18:33:35.43	161.79	14.58	
2025-01-09 18:33:35.63	161.80	14.61	
2025-01-09 18:33:35.84	161.80	14.63	
2025-01-09 18:33:36.04	161.80	14.65	
2025-01-09 18:33:36.25	161.80	14.68	
2025-01-09 18:33:36.45	161.80	14.70	
2025-01-09 18:33:36.66	161.80	14.73	
2025-01-09 18:33:36.87	161.80	14.75	
2025-01-09 18:33:37.07	161.80	14.77	
2025-01-09 18:33:37.27	161.80	14.80	
2025-01-09 18:33:37.48	161.81	14.82	
2025-01-09 18:33:37.68	161.81	14.84	
2025-01-09 18:33:37.89	161.81	14.87	
2025-01-09 18:33:38.09	161.81	14.89	
2025-01-09 18:33:38.30	161.81	14.92	
2025-01-09 18:33:38.50	161.81	14.94	
2025-01-09 18:33:38.71	161.81	14.96	
2025-01-09 18:33:38.92	161.81	14.99	
2025-01-09 18:33:39.12	161.81	15.01	
2025-01-09 18:33:39.32	161.81	15.04	
2025-01-09 18:33:39.53	161.82	15.06	
2025-01-09 18:33:39.74	161.82	15.09	
2025-01-09 18:33:39.94	161.82	15.11	
2025-01-09 18:33:40.15	161.82	15.13	
2025-01-09 18:33:40.35	161.82	15.16	
2025-01-09 18:33:40.55	161.82	15.18	
2025-01-09 18:33:40.76	161.82	15.21	
2025-01-09 18:33:40.96	161.82	15.23	
2025-01-09 18:33:41.17	161.82	15.25	
2025-01-09 18:33:41.37	161.83	15.28	
2025-01-09 18:33:41.58	161.83	15.30	
2025-01-09 18:33:41.78	161.83	15.33	
2025-01-09 18:33:41.99	161.83	15.35	
2025-01-09 18:33:42.20	161.83	15.38	
2025-01-09 18:33:42.40	161.83	15.40	
2025-01-09 18:33:42.60	161.83	15.43	
2025-01-09 18:33:42.81	161.83	15.45	
2025-01-09 18:33:43.02	161.83	15.48	
2025-01-09 18:33:43.22	161.83	15.50	
2025-01-09 18:33:43.43	161.84	15.52	
2025-01-09 18:33:43.63	161.84	15.55	
2025-01-09 18:33:43.84	161.84	15.57	
2025-01-09 18:33:44.04	161.84	15.60	
2025-01-09 18:33:44.25	161.84	15.62	
2025-01-09 18:33:44.46	161.84	15.65	
2025-01-09 18:33:44.66	161.84	15.67	
2025-01-09 18:33:44.87	161.84	15.70	
2025-01-09 18:33:45.07	161.84	15.72	
2025-01-09 18:33:45.28	161.85	15.75	
2025-01-09 18:33:45.48	161.85	15.77	
2025-01-09 18:33:45.69	161.85	15.80	
2025-01-09 18:33:45.89	161.85	15.82	
2025-01-09 18:33:46.10	161.85	15.85	
2025-01-09 18:33:46.30	161.85	15.87	
2025-01-09 18:33:46.51	161.85	15.90	
2025-01-09 18:33:46.71	161.85	15.92	
2025-01-09 18:33:46.91	161.85	15.95	
2025-01-09 18:33:47.12	161.86	15.97	
2025-01-09 18:33:47.33	161.86	16.00	
2025-01-09 18:33:47.53	161.86	16.02	
2025-01-09 18:33:47.74	161.86	16.05	
2025-01-09 18:33:47.94	161.86	16.07	
2025-01-09 18:33:48.15	161.86	16.10	
2025-01-09 18:33:48.35	161.86	16.12	
2025-01-09 18:33:48.56	161.86	16.15	
2025-01-09 18:33:48.76	161.86	16.17	
2025-01-09 18:33:48.97	161.87	16.20	
2025-01-09 18:33:49.17	161.87	16.23	
2025-01-09 18:33:49.37	161.87	16.25	
2025-01-09 18:33:49.58	161.87	16.28	
2025-01-09 18:33:49.79	161.87	16.30	
2025-01-09 18:33:49.99	161.87	16.33	
2025-01-09 18:33:50.20	161.87	16.35	
2025-01-09 18:33:50.40	161.87	16.38	
2025-01-09 18:33:50.61	161.87	16.40	
2025-01-09 18:33:50.81	161.88	16.43	
2025-01-09 18:33:51.02	161.88	16.46	
2025-01-09 18:33:51.22	161.88	16.48	
2025-01-09 18:33:51.43	161.88	16.51	
2025-01-09 18:33:51.63	161.88	16.53	
2025-01-09 18:33:51.84	161.88	16.56	
2025-01-09 18:33:52.04	161.88	16.58	
2025-01-09 18:33:52.25	161.88	16.61	
2025-01-09 18:33:52.45	161.88	16.64	
2025-01-09 18:33:52.65	161.88	16.66	
2025-01-09 18:33:52.86	161.89	16.69	
2025-01-09 18:33:53.06	161.89	16.71	
2025-01-09 18:33:53.26	161.89	16.74	
2025-01-09 18:33:53.47	161.89	16.77	
2025-01-09 18:33:53.67	161.89	16.79	
2025-01-09 18:33:53.88	161.89	16.82	
2025-01-09 18:33:54.09	161.89	16.84	
2025-01-09 18:33:54.29	161.89	16.87	
2025-01-09 18:33:54.50	161.89	16.90	
2025-01-09 18:33:54.70	161.90	16.92	
2025-01-09 18:33:54.91	161.90	16.95	
2025-01-09 18:33:55.11	161.90	16.97	
2025-01-09 18:33:55.33	161.90	17.00	
2025-01-09 18:33:55.54	161.90	17.03	
2025-01-09 18:33:55.74	161.90	17.06	
2025-01-09 18:33:55.95	161.90	17.08	
2025-01-09 18:33:56.15	161.90	17.11	
2025-01-09 18:33:56.36	161.91	17.14	
2025-01-09 18:33:56.56	161.91	17.16	
2025-01-09 18:33:56.77	161.91	17.19	
2025-01-09 18:33:56.97	161.91	17.21	
2025-01-09 18:33:57.18	161.91	17.24	
2025-01-09 18:33:57.40	161.91	17.27	
2025-01-09 18:33:57.60	161.91	17.30	
2025-01-09 18:33:57.81	161.91	17.32	
2025-01-09 18:33:58.02	161.91	17.35	
2025-01-09 18:33:58.22	161.92	17.38	
2025-01-09 18:33:58.43	161.92	17.40	
2025-01-09 18:33:58.63	161.92	17.43	
2025-01-09 18:33:58.84	161.92	17.46	
2025-01-09 18:33:59.04	161.92	17.48	
2025-01-09 18:33:59.25	161.92	17.51	
2025-01-09 18:33:59.46	161.92	17.54	
2025-01-09 18:33:59.66	161.92	17.57	
2025-01-09 18:33:59.87	161.92	17.59	
2025-01-09 18:34:00.07	161.93	17.62	
2025-01-09 18:34:00.27	161.93	17.65	
2025-01-09 18:34:00.48	161.93	17.67	
2025-01-09 18:34:00.68	161.93	17.70	
2025-01-09 18:34:00.88	161.93	17.73	
2025-01-09 18:34:01.09	161.93	17.76	
2025-01-09 18:34:01.30	161.93	17.78	
2025-01-09 18:34:01.50	161.93	17.81	
2025-01-09 18:34:01.72	161.93	17.84	
2025-01-09 18:34:01.93	161.94	17.87	
2025-01-09 18:34:02.13	161.94	17.89	
2025-01-09 18:34:02.34	161.94	17.92	
2025-01-09 18:34:02.54	161.94	17.95	
2025-01-09 18:34:02.75	161.94	17.98	
2025-01-09 18:34:02.95	161.94	18.00	
2025-01-09 18:34:03.16	161.94	18.03	
2025-01-09 18:34:03.36	161.94	18.06	
2025-01-09 18:34:03.57	161.95	18.09	
2025-01-09 18:34:03.77	161.95	18.11	
2025-01-09 18:34:03.98	161.95	18.14	
2025-01-09 18:34:04.18	161.95	18.17	
2025-01-09 18:34:04.39	161.95	18.20	
2025-01-09 18:34:04.59	161.95	18.23	
2025-01-09 18:34:04.80	161.95	18.25	
2025-01-09 18:34:05.00	161.95	18.28	
2025-01-09 18:34:05.21	161.95	18.31	
2025-01-09 18:34:05.41	161.96	18.34	
2025-01-09 18:34:05.62	161.96	18.37	
2025-01-09 18:34:05.83	161.96	18.39	
2025-01-09 18:34:06.03	161.96	18.42	
2025-01-09 18:34:06.23	161.96	18.45	
2025-01-09 18:34:06.44	161.96	18.48	
2025-01-09 18:34:06.65	161.96	18.51	
2025-01-09 18:34:06.85	161.96	18.53	
2025-01-09 18:34:07.07	161.96	18.56	
2025-01-09 18:34:07.27	161.97	18.59	
2025-01-09 18:34:07.48	161.97	18.62	
2025-01-09 18:34:07.68	161.97	18.65	
2025-01-09 18:34:07.89	161.97	18.68	
2025-01-09 18:34:08.09	161.97	18.71	
2025-01-09 18:34:08.30	161.97	18.73	
2025-01-09 18:34:08.50	161.97	18.76	
2025-01-09 18:34:08.71	161.97	18.79	
2025-01-09 18:34:08.91	161.98	18.82	
2025-01-09 18:34:09.13	161.98	18.85	
2025-01-09 18:34:09.34	161.98	18.88	
2025-01-09 18:34:09.54	161.98	18.91	
2025-01-09 18:34:09.75	161.98	18.94	
2025-01-09 18:34:09.95	161.98	18.96	
2025-01-09 18:34:10.16	161.98	18.99	
2025-01-09 18:34:10.37	161.98	19.02	
2025-01-09 18:34:10.58	161.99	19.05	
2025-01-09 18:34:10.78	161.99	19.08	
2025-01-09 18:34:10.99	161.99	19.11	
2025-01-09 18:34:11.19	161.99	19.14	
2025-01-09 18:34:11.40	161.99	19.17	
2025-01-09 18:34:11.60	161.99	19.20	
2025-01-09 18:34:11.81	161.99	19.23	
2025-01-09 18:34:12.01	161.99	19.26	
2025-01-09 18:34:12.22	161.99	19.29	
2025-01-09 18:34:12.42	162.00	19.31	
2025-01-09 18:34:12.63	162.00	19.34	
2025-01-09 18:34:12.83	162.00	19.37	
2025-01-09 18:34:13.04	162.00	19.40	
2025-01-09 18:34:13.24	162.00	19.43	
2025-01-09 18:34:13.45	162.00	19.46	
2025-01-09 18:34:13.65	162.00	19.49	
2025-01-09 18:34:13.86	162.00	19.52	
2025-01-09 18:34:14.06	162.01	19.55	
2025-01-09 18:34:14.27	162.01	19.58	
2025-01-09 18:34:14.48	162.01	19.61	
2025-01-09 18:34:14.69	162.01	19.64	
2025-01-09 18:34:14.90	162.01	19.67	
2025-01-09 18:34:15.10	162.01	19.70	
2025-01-09 18:34:15.31	162.01	19.73	
2025-01-09 18:34:15.51	162.01	19.76	
2025-01-09 18:34:15.72	162.02	19.79	
2025-01-09 18:34:15.92	162.02	19.82	
2025-01-09 18:34:16.13	162.02	19.85	
2025-01-09 18:34:16.33	162.02	19.88	
2025-01-09 18:34:16.54	162.02	19.91	
2025-01-09 18:34:16.74	162.02	19.94	
2025-01-09 18:34:16.95	162.02	19.97	
2025-01-09 18:34:17.15	162.02	20.00	
2025-01-09 18:34:17.36	162.03	20.03	
2025-01-09 18:34:17.57	162.03	20.06	
2025-01-09 18:34:17.77	162.03	20.09	
2025-01-09 18:34:17.98	162.03	20.12	
2025-01-09 18:34:18.18	162.03	20.15	
2025-01-09 18:34:18.39	162.03	20.18	
2025-01-09 18:34:18.59	162.03	20.21	
2025-01-09 18:34:18.81	162.03	20.24	
2025-01-09 18:34:19.01	162.03	20.27	
2025-01-09 18:34:19.22	162.04	20.30	
2025-01-09 18:34:19.42	162.04	20.33	
2025-01-09 18:34:19.63	162.04	20.36	
2025-01-09 18:34:19.83	162.04	20.39	
2025-01-09 18:34:20.04	162.04	20.43	
2025-01-09 18:34:20.25	162.04	20.46	
2025-01-09 18:34:20.45	162.04	20.49	
2025-01-09 18:34:20.66	162.04	20.52	
2025-01-09 18:34:20.86	162.05	20.55	
2025-01-09 18:34:21.07	162.05	20.58	
2025-01-09 18:34:21.27	162.05	20.61	
2025-01-09 18:34:21.48	162.05	20.64	
2025-01-09 18:34:21.68	162.05	20.67	
2025-01-09 18:34:21.89	162.05	20.70	
2025-01-09 18:34:22.09	162.05	20.73	
2025-01-09 18:34:22.30	162.05	20.77	
2025-01-09 18:34:22.50	162.06	20.80	
2025-01-09 18:34:22.71	162.06	20.83	
2025-01-09 18:34:22.92	162.06	20.86	
2025-01-09 18:34:23.13	162.06	20.89	
2025-01-09 18:34:23.34	162.06	20.92	
2025-01-09 18:34:23.54	162.06	20.95	
2025-01-09 18:34:23.75	162.06	20.99	
2025-01-09 18:34:23.96	162.07	21.02	
2025-01-09 18:34:24.16	162.07	21.05	
2025-01-09 18:34:24.37	162.07	21.08	
2025-01-09 18:34:24.57	162.07	21.11	
2025-01-09 18:34:24.78	162.07	21.15	
2025-01-09 18:34:24.98	162.07	21.18	
2025-01-09 18:34:25.18	162.07	21.21	
2025-01-09 18:34:25.39	162.07	21.24	
2025-01-09 18:34:25.59	162.08	21.27	
2025-01-09 18:34:25.80	162.08	21.30	
2025-01-09 18:34:26.00	162.08	21.33	
2025-01-09 18:34:26.21	162.08	21.37	
2025-01-09 18:34:26.41	162.08	21.40	
2025-01-09 18:34:26.62	162.08	21.43	
2025-01-09 18:34:26.82	162.08	21.46	
2025-01-09 18:34:27.03	162.08	21.49	
2025-01-09 18:34:27.23	162.09	21.53	
2025-01-09 18:34:27.44	162.09	21.56	
2025-01-09 18:34:27.64	162.09	21.59	
2025-01-09 18:34:27.85	162.09	21.62	
2025-01-09 18:34:28.05	162.09	21.66	
2025-01-09 18:34:28.26	162.09	21.69	
2025-01-09 18:34:28.46	162.09	21.72	
2025-01-09 18:34:28.66	162.09	21.75	
2025-01-09 18:34:28.87	162.10	21.78	
2025-01-09 18:34:29.07	162.10	21.82	
2025-01-09 18:34:29.28	162.10	21.85	
2025-01-09 18:34:29.48	162.10	21.88	
2025-01-09 18:34:29.69	162.10	21.92	
2025-01-09 18:34:29.89	162.10	21.95	
2025-01-09 18:34:30.10	162.10	21.98	
2025-01-09 18:34:30.30	162.10	22.01	
2025-01-09 18:34:30.51	162.11	22.05	
2025-01-09 18:34:30.71	162.11	22.08	
2025-01-09 18:34:30.92	162.11	22.11	
2025-01-09 18:34:31.13	162.11	22.15	
2025-01-09 18:34:31.33	162.11	22.18	
2025-01-09 18:34:31.53	162.11	22.21	
2025-01-09 18:34:31.74	162.11	22.24	
2025-01-09 18:34:31.94	162.12	22.28	
2025-01-09 18:34:32.15	162.12	22.31	
2025-01-09 18:34:32.36	162.12	22.34	
2025-01-09 18:34:32.56	162.12	22.38	
2025-01-09 18:34:32.76	162.12	22.41	
2025-01-09 18:34:32.97	162.12	22.44	
2025-01-09 18:34:33.17	162.12	22.48	
2025-01-09 18:34:33.38	162.12	22.51	
2025-01-09 18:34:33.58	162.13	22.54	
2025-01-09 18:34:33.79	162.13	22.58	
2025-01-09 18:34:33.99	162.13	22.61	
2025-01-09 18:34:34.20	162.13	22.65	
2025-01-09 18:34:34.41	162.13	22.68	
2025-01-09 18:34:34.61	162.13	22.71	
2025-01-09 18:34:34.81	162.13	22.75	
2025-01-09 18:34:35.02	162.14	22.78	
2025-01-09 18:34:35.22	162.14	22.81	
2025-01-09 18:34:35.43	162.14	22.85	
2025-01-09 18:34:35.64	162.14	22.88	
2025-01-09 18:34:35.84	162.14	22.92	
2025-01-09 18:34:36.05	162.14	22.95	
2025-01-09 18:34:36.25	162.14	22.99	
2025-01-09 18:34:36.46	162.14	23.02	
2025-01-09 18:34:36.66	162.15	23.05	
2025-01-09 18:34:36.88	162.15	23.09	
2025-01-09 18:34:37.09	162.15	23.13	
2025-01-09 18:34:37.29	162.15	23.16	
2025-01-09 18:34:37.50	162.15	23.19	
2025-01-09 18:34:37.70	162.15	23.23	
2025-01-09 18:34:37.90	162.15	23.26	
2025-01-09 18:34:38.11	162.16	23.30	
2025-01-09 18:34:38.32	162.16	23.33	
2025-01-09 18:34:38.52	162.16	23.37	
2025-01-09 18:34:38.73	162.16	23.40	
2025-01-09 18:34:38.93	162.16	23.44	
2025-01-09 18:34:39.14	162.16	23.47	
2025-01-09 18:34:39.34	162.16	23.51	
2025-01-09 18:34:39.55	162.17	23.54	
2025-01-09 18:34:39.75	162.17	23.58	
2025-01-09 18:34:39.96	162.17	23.61	
2025-01-09 18:34:40.18	162.17	23.65	
2025-01-09 18:34:40.38	162.17	23.68	
2025-01-09 18:34:40.58	162.17	23.72	
2025-01-09 18:34:40.79	162.17	23.76	
2025-01-09 18:34:41.00	162.18	23.79	
2025-01-09 18:34:41.20	162.18	23.83	
2025-01-09 18:34:41.41	162.18	23.86	
2025-01-09 18:34:41.61	162.18	23.90	
2025-01-09 18:34:41.82	162.18	23.93	
2025-01-09 18:34:42.02	162.18	23.97	
2025-01-09 18:34:42.23	162.18	24.00	
2025-01-09 18:34:42.43	162.19	24.04	
2025-01-09 18:34:42.64	162.19	24.08	
2025-01-09 18:34:42.84	162.19	24.11	
2025-01-09 18:34:43.05	162.19	24.15	
2025-01-09 18:34:43.25	162.19	24.18	
2025-01-09 18:34:43.46	162.19	24.22	
2025-01-09 18:34:43.66	162.19	24.26	
2025-01-09 18:34:43.87	162.19	24.29	
2025-01-09 18:34:44.07	162.20	24.33	
2025-01-09 18:34:44.28	162.20	24.36	
2025-01-09 18:34:44.48	162.20	24.40	
2025-01-09 18:34:44.69	162.20	24.44	
2025-01-09 18:34:44.89	162.20	24.47	
2025-01-09 18:34:45.10	162.20	24.51	
2025-01-09 18:34:45.30	162.20	24.55	
2025-01-09 18:34:45.51	162.21	24.58	
2025-01-09 18:34:45.71	162.21	24.62	
2025-01-09 18:34:45.92	162.21	24.66	
2025-01-09 18:34:46.12	162.21	24.69	
2025-01-09 18:34:46.33	162.21	24.73	
2025-01-09 18:34:46.55	162.21	24.77	
2025-01-09 18:34:46.75	162.21	24.81	
2025-01-09 18:34:46.96	162.22	24.84	
2025-01-09 18:34:47.16	162.22	24.88	
2025-01-09 18:34:47.37	162.22	24.92	
2025-01-09 18:34:47.59	162.22	24.96	
2025-01-09 18:34:47.79	162.22	24.99	
2025-01-09 18:34:48.00	162.22	25.03	
2025-01-09 18:34:48.20	162.23	25.07	
2025-01-09 18:34:48.41	162.23	25.11	
2025-01-09 18:34:48.61	162.23	25.14	
2025-01-09 18:34:48.82	162.23	25.18	
2025-01-09 18:34:49.02	162.23	25.22	
2025-01-09 18:34:49.22	162.23	25.25	
2025-01-09 18:34:49.43	162.23	25.29	
2025-01-09 18:34:49.63	162.24	25.33	
2025-01-09 18:34:49.84	162.24	25.37	
2025-01-09 18:34:50.04	162.24	25.40	
2025-01-09 18:34:50.25	162.24	25.44	
2025-01-09 18:34:50.45	162.24	25.48	
2025-01-09 18:34:50.66	162.24	25.52	
2025-01-09 18:34:50.86	162.24	25.56	
2025-01-09 18:34:51.07	162.25	25.60	
2025-01-09 18:34:51.28	162.25	25.63	
2025-01-09 18:34:51.48	162.25	25.67	
2025-01-09 18:34:51.69	162.25	25.71	
2025-01-09 18:34:51.91	162.25	25.75	
2025-01-09 18:34:52.11	162.25	25.79	
2025-01-09 18:34:52.32	162.25	25.83	
2025-01-09 18:34:52.52	162.26	25.87	
2025-01-09 18:34:52.73	162.26	25.91	
2025-01-09 18:34:52.95	162.26	25.95	
2025-01-09 18:34:53.15	162.26	25.99	
2025-01-09 18:34:53.36	162.26	26.02	
2025-01-09 18:34:53.56	162.26	26.06	
2025-01-09 18:34:53.77	162.27	26.10	
2025-01-09 18:34:53.99	162.27	26.14	
2025-01-09 18:34:54.19	162.27	26.18	
2025-01-09 18:34:54.40	162.27	26.22	
2025-01-09 18:34:54.60	162.27	26.26	
2025-01-09 18:34:54.81	162.27	26.30	
2025-01-09 18:34:55.01	162.27	26.34	
2025-01-09 18:34:55.22	162.28	26.38	
2025-01-09 18:34:55.42	162.28	26.42	
2025-01-09 18:34:55.63	162.28	26.46	
2025-01-09 18:34:55.84	162.28	26.50	
2025-01-09 18:34:56.04	162.28	26.54	
2025-01-09 18:34:56.24	162.28	26.58	
2025-01-09 18:34:56.45	162.29	26.62	
2025-01-09 18:34:56.66	162.29	26.66	
2025-01-09 18:34:56.86	162.29	26.70	
2025-01-09 18:34:57.07	162.29	26.74	
2025-01-09 18:34:57.27	162.29	26.78	
2025-01-09 18:34:57.48	162.29	26.82	
2025-01-09 18:34:57.68	162.29	26.86	
2025-01-09 18:34:57.89	162.30	26.90	
2025-01-09 18:34:58.09	162.30	26.94	
2025-01-09 18:34:58.30	162.30	26.98	
2025-01-09 18:34:58.50	162.30	27.02	
2025-01-09 18:34:58.71	162.30	27.06	
2025-01-09 18:34:58.91	162.30	27.10	
2025-01-09 18:34:59.12	162.31	27.14	
2025-01-09 18:34:59.34	162.31	27.18	
2025-01-09 18:34:59.54	162.31	27.22	
2025-01-09 18:34:59.75	162.31	27.26	
2025-01-09 18:34:59.96	162.31	27.31	
2025-01-09 18:35:00.16	162.31	27.35	
2025-01-09 18:35:00.36	162.31	27.39	
2025-01-09 18:35:00.57	162.32	27.43	
2025-01-09 18:35:00.77	162.32	27.47	
2025-01-09 18:35:00.98	162.32	27.51	
2025-01-09 18:35:01.19	162.32	27.55	
2025-01-09 18:35:01.40	162.32	27.59	
2025-01-09 18:35:01.61	162.32	27.64	
2025-01-09 18:35:01.81	162.33	27.68	
2025-01-09 18:35:02.02	162.33	27.72	
2025-01-09 18:35:02.22	162.33	27.76	
2025-01-09 18:35:02.43	162.33	27.80	
2025-01-09 18:35:02.63	162.33	27.84	
2025-01-09 18:35:02.84	162.33	27.89	
2025-01-09 18:35:03.05	162.34	27.93	
2025-01-09 18:35:03.25	162.34	27.97	
2025-01-09 18:35:03.46	162.34	28.01	
2025-01-09 18:35:03.66	162.34	28.05	
2025-01-09 18:35:03.87	162.34	28.10	
2025-01-09 18:35:04.08	162.34	28.14	
2025-01-09 18:35:04.28	162.35	28.18	
2025-01-09 18:35:04.49	162.35	28.22	
2025-01-09 18:35:04.69	162.35	28.26	
2025-01-09 18:35:04.90	162.35	28.31	
2025-01-09 18:35:05.10	162.35	28.35	
2025-01-09 18:35:05.31	162.35	28.39	
2025-01-09 18:35:05.51	162.36	28.43	
2025-01-09 18:35:05.72	162.36	28.48	
2025-01-09 18:35:05.92	162.36	28.52	
2025-01-09 18:35:06.13	162.36	28.56	
2025-01-09 18:35:06.33	162.36	28.61	
2025-01-09 18:35:06.54	162.36	28.65	
2025-01-09 18:35:06.74	162.37	28.69	
2025-01-09 18:35:06.95	162.37	28.74	
2025-01-09 18:35:07.15	162.37	28.78	
2025-01-09 18:35:07.36	162.37	28.82	
2025-01-09 18:35:07.56	162.37	28.86	
2025-01-09 18:35:07.77	162.37	28.91	
2025-01-09 18:35:07.97	162.38	28.95	
2025-01-09 18:35:08.18	162.38	29.00	
2025-01-09 18:35:08.38	162.38	29.04	
2025-01-09 18:35:08.59	162.38	29.08	
2025-01-09 18:35:08.80	162.38	29.13	
2025-01-09 18:35:09.00	162.38	29.17	
2025-01-09 18:35:09.21	162.39	29.22	
2025-01-09 18:35:09.41	162.39	29.26	
2025-01-09 18:35:09.62	162.39	29.30	
2025-01-09 18:35:09.82	162.39	29.35	
2025-01-09 18:35:10.03	162.39	29.39	
2025-01-09 18:35:10.23	162.39	29.44	
2025-01-09 18:35:10.44	162.40	29.48	
2025-01-09 18:35:10.65	162.40	29.53	
2025-01-09 18:35:10.85	162.40	29.57	
2025-01-09 18:35:11.06	162.40	29.62	
2025-01-09 18:35:11.26	162.40	29.66	
2025-01-09 18:35:11.47	162.40	29.70	
2025-01-09 18:35:11.67	162.41	29.75	
2025-01-09 18:35:11.88	162.41	29.79	
2025-01-09 18:35:12.08	162.41	29.84	
2025-01-09 18:35:12.29	162.41	29.88	
2025-01-09 18:35:12.49	162.41	29.93	
2025-01-09 18:35:12.70	162.41	29.97	
2025-01-09 18:35:12.91	162.42	30.02	
2025-01-09 18:35:13.11	162.42	30.06	
2025-01-09 18:35:13.31	162.42	30.11	
2025-01-09 18:35:13.52	162.42	30.16	
2025-01-09 18:35:13.72	162.42	30.20	
2025-01-09 18:35:13.93	162.43	30.25	
2025-01-09 18:35:14.13	162.43	30.29	
2025-01-09 18:35:14.34	162.43	30.34	
2025-01-09 18:35:14.54	162.43	30.38	
2025-01-09 18:35:14.75	162.43	30.43	
2025-01-09 18:35:14.95	162.43	30.48	
2025-01-09 18:35:15.16	162.44	30.52	
2025-01-09 18:35:15.36	162.44	30.57	
2025-01-09 18:35:15.57	162.44	30.61	
2025-01-09 18:35:15.77	162.44	30.66	
2025-01-09 18:35:15.98	162.44	30.71	
2025-01-09 18:35:16.19	162.44	30.76	
2025-01-09 18:35:16.39	162.45	30.80	
2025-01-09 18:35:16.59	162.45	30.85	
2025-01-09 18:35:16.80	162.45	30.89	
2025-01-09 18:35:17.00	162.45	30.94	
2025-01-09 18:35:17.21	162.45	30.99	
2025-01-09 18:35:17.41	162.46	31.03	
2025-01-09 18:35:17.61	162.46	31.08	
2025-01-09 18:35:17.82	162.46	31.13	
2025-01-09 18:35:18.03	162.46	31.18	
2025-01-09 18:35:18.23	162.46	31.22	
2025-01-09 18:35:18.43	162.46	31.27	
2025-01-09 18:35:18.64	162.47	31.32	
2025-01-09 18:35:18.85	162.47	31.37	
2025-01-09 18:35:19.05	162.47	31.41	
2025-01-09 18:35:19.26	162.47	31.46	
2025-01-09 18:35:19.46	162.47	31.51	
2025-01-09 18:35:19.67	162.48	31.56	
2025-01-09 18:35:19.87	162.48	31.60	
2025-01-09 18:35:20.08	162.48	31.65	
2025-01-09 18:35:20.28	162.48	31.70	
2025-01-09 18:35:20.49	162.48	31.75	
2025-01-09 18:35:20.69	162.49	31.80	
2025-01-09 18:35:20.89	162.49	31.84	
2025-01-09 18:35:21.10	162.49	31.89	
2025-01-09 18:35:21.30	162.49	31.94	
2025-01-09 18:35:21.51	162.49	31.99	
2025-01-09 18:35:21.71	162.49	32.04	
2025-01-09 18:35:21.92	162.50	32.09	
2025-01-09 18:35:22.12	162.50	32.14	
2025-01-09 18:35:22.33	162.50	32.19	
2025-01-09 18:35:22.53	162.50	32.23	
2025-01-09 18:35:22.74	162.50	32.28	
2025-01-09 18:35:22.94	162.51	32.33	
2025-01-09 18:35:23.15	162.51	32.38	
2025-01-09 18:35:23.36	162.51	32.43	
2025-01-09 18:35:23.56	162.51	32.48	
2025-01-09 18:35:23.76	162.51	32.53	
2025-01-09 18:35:23.97	162.52	32.58	
2025-01-09 18:35:24.18	162.52	32.63	
2025-01-09 18:35:24.38	162.52	32.68	
2025-01-09 18:35:24.59	162.52	32.73	
2025-01-09 18:35:24.79	162.52	32.78	
2025-01-09 18:35:24.99	162.53	32.83	
2025-01-09 18:35:25.20	162.53	32.88	
2025-01-09 18:35:25.40	162.53	32.93	
2025-01-09 18:35:25.61	162.53	32.98	
2025-01-09 18:35:25.81	162.53	33.03	
2025-01-09 18:35:26.02	162.54	33.08	
2025-01-09 18:35:26.22	162.54	33.13	
2025-01-09 18:35:26.43	162.54	33.18	
2025-01-09 18:35:26.63	162.54	33.23	
2025-01-09 18:35:26.84	162.54	33.28	
2025-01-09 18:35:27.04	162.55	33.33	
2025-01-09 18:35:27.25	162.55	33.39	
2025-01-09 18:35:27.45	162.55	33.44	
2025-01-09 18:35:27.66	162.55	33.49	
2025-01-09 18:35:27.86	162.55	33.54	
2025-01-09 18:35:28.07	162.56	33.59	
2025-01-09 18:35:28.27	162.56	33.64	
2025-01-09 18:35:28.48	162.56	33.70	
2025-01-09 18:35:28.68	162.56	33.75	
2025-01-09 18:35:28.89	162.56	33.80	
2025-01-09 18:35:29.09	162.57	33.85	
2025-01-09 18:35:29.30	162.57	33.90	
2025-01-09 18:35:29.50	162.57	33.95	
2025-01-09 18:35:29.71	162.57	34.01	
2025-01-09 18:35:29.91	162.57	34.06	
2025-01-09 18:35:30.12	162.58	34.11	
2025-01-09 18:35:30.32	162.58	34.16	
2025-01-09 18:35:30.53	162.58	34.22	
2025-01-09 18:35:30.73	162.58	34.27	
2025-01-09 18:35:30.94	162.58	34.32	
2025-01-09 18:35:31.15	162.59	34.38	
2025-01-09 18:35:31.35	162.59	34.43	
2025-01-09 18:35:31.56	162.59	34.48	
2025-01-09 18:35:31.76	162.59	34.53	
2025-01-09 18:35:31.97	162.59	34.59	
2025-01-09 18:35:32.17	162.60	34.64	
2025-01-09 18:35:32.38	162.60	34.70	
2025-01-09 18:35:32.58	162.60	34.75	
2025-01-09 18:35:32.78	162.60	34.80	
2025-01-09 18:35:32.99	162.60	34.86	
2025-01-09 18:35:33.19	162.61	34.91	
2025-01-09 18:35:33.40	162.61	34.96	
2025-01-09 18:35:33.61	162.61	35.02	
2025-01-09 18:35:33.81	162.61	35.07	
2025-01-09 18:35:34.01	162.62	35.12	
2025-01-09 18:35:34.22	162.62	35.18	
2025-01-09 18:35:34.42	162.62	35.23	
2025-01-09 18:35:34.63	162.62	35.29	
2025-01-09 18:35:34.84	162.62	35.34	
2025-01-09 18:35:35.04	162.63	35.40	
2025-01-09 18:35:35.25	162.63	35.45	
2025-01-09 18:35:35.45	162.63	35.51	
2025-01-09 18:35:35.66	162.63	35.56	
2025-01-09 18:35:35.86	162.64	35.62	
2025-01-09 18:35:36.07	162.64	35.67	
2025-01-09 18:35:36.27	162.64	35.73	
2025-01-09 18:35:36.48	162.64	35.79	
2025-01-09 18:35:36.68	162.64	35.84	
2025-01-09 18:35:36.89	162.65	35.90	
2025-01-09 18:35:37.09	162.65	35.95	
2025-01-09 18:35:37.30	162.65	36.01	
2025-01-09 18:35:37.50	162.65	36.06	
2025-01-09 18:35:37.71	162.66	36.12	
2025-01-09 18:35:37.92	162.66	36.18	
2025-01-09 18:35:38.12	162.66	36.23	
2025-01-09 18:35:38.33	162.66	36.29	
2025-01-09 18:35:38.53	162.66	36.35	
2025-01-09 18:35:38.73	162.67	36.40	
2025-01-09 18:35:38.94	162.67	36.46	
2025-01-09 18:35:39.15	162.67	36.52	
2025-01-09 18:35:39.35	162.67	36.57	
2025-01-09 18:35:39.56	162.68	36.63	
2025-01-09 18:35:39.76	162.68	36.69	
2025-01-09 18:35:39.96	162.68	36.74	
2025-01-09 18:35:40.17	162.68	36.80	
2025-01-09 18:35:40.37	162.68	36.86	
2025-01-09 18:35:40.58	162.69	36.92	
2025-01-09 18:35:40.78	162.69	36.97	
2025-01-09 18:35:40.98	162.69	37.03	
2025-01-09 18:35:41.19	162.69	37.09	
2025-01-09 18:35:41.39	162.70	37.14	
2025-01-09 18:35:41.61	162.70	37.21	
2025-01-09 18:35:41.81	162.70	37.26	
2025-01-09 18:35:42.01	162.70	37.32	
2025-01-09 18:35:42.22	162.71	37.38	
2025-01-09 18:35:42.42	162.71	37.44	
2025-01-09 18:35:42.63	162.71	37.50	
2025-01-09 18:35:42.84	162.71	37.56	
2025-01-09 18:35:43.04	162.72	37.61	
2025-01-09 18:35:43.24	162.72	37.67	
2025-01-09 18:35:43.45	162.72	37.73	
2025-01-09 18:35:43.66	162.72	37.79	
2025-01-09 18:35:43.86	162.72	37.85	
2025-01-09 18:35:44.07	162.73	37.91	
2025-01-09 18:35:44.27	162.73	37.97	
2025-01-09 18:35:44.48	162.73	38.03	
2025-01-09 18:35:44.68	162.73	38.09	
2025-01-09 18:35:44.89	162.74	38.15	
2025-01-09 18:35:45.09	162.74	38.21	
2025-01-09 18:35:45.30	162.74	38.27	
2025-01-09 18:35:45.50	162.74	38.33	
2025-01-09 18:35:45.71	162.75	38.39	
2025-01-09 18:35:45.91	162.75	38.45	
2025-01-09 18:35:46.11	162.75	38.51	
2025-01-09 18:35:46.32	162.75	38.57	
2025-01-09 18:35:46.52	162.76	38.63	
2025-01-09 18:35:46.73	162.76	38.69	
2025-01-09 18:35:46.94	162.76	38.75	
2025-01-09 18:35:47.14	162.76	38.81	
2025-01-09 18:35:47.34	162.77	38.87	
2025-01-09 18:35:47.55	162.77	38.94	
2025-01-09 18:35:47.76	162.77	39.00	
2025-01-09 18:35:47.96	162.77	39.06	
2025-01-09 18:35:48.16	162.78	39.12	
2025-01-09 18:35:48.38	162.78	39.18	
2025-01-09 18:35:48.59	162.78	39.25	
2025-01-09 18:35:48.79	162.79	39.31	
2025-01-09 18:35:49.00	162.79	39.37	
2025-01-09 18:35:49.21	162.79	39.44	
2025-01-09 18:35:49.41	162.79	39.50	
2025-01-09 18:35:49.61	162.80	39.56	
2025-01-09 18:35:49.82	162.80	39.62	
2025-01-09 18:35:50.03	162.80	39.69	
2025-01-09 18:35:50.23	162.80	39.75	
2025-01-09 18:35:50.45	162.81	39.81	
2025-01-09 18:35:50.65	162.81	39.88	
2025-01-09 18:35:50.86	162.81	39.94	
2025-01-09 18:35:51.06	162.81	40.00	
2025-01-09 18:35:51.27	162.82	40.07	
2025-01-09 18:35:51.47	162.82	40.13	
2025-01-09 18:35:51.67	162.82	40.19	
2025-01-09 18:35:51.88	162.82	40.26	
2025-01-09 18:35:52.08	162.83	40.32	
2025-01-09 18:35:52.29	162.83	40.39	
2025-01-09 18:35:52.49	162.83	40.45	
2025-01-09 18:35:52.70	162.84	40.51	
2025-01-09 18:35:52.90	162.84	40.58	
2025-01-09 18:35:53.11	162.84	40.64	
2025-01-09 18:35:53.31	162.84	40.71	
2025-01-09 18:35:53.52	162.85	40.77	
2025-01-09 18:35:53.72	162.85	40.83	
2025-01-09 18:35:53.92	162.85	40.90	
2025-01-09 18:35:54.13	162.86	40.97	
2025-01-09 18:35:54.33	162.86	41.03	
2025-01-09 18:35:54.54	162.86	41.10	
2025-01-09 18:35:54.75	162.86	41.16	
2025-01-09 18:35:54.96	162.87	41.23	
2025-01-09 18:35:55.16	162.87	41.29	
2025-01-09 18:35:55.37	162.87	41.36	
2025-01-09 18:35:55.57	162.87	41.43	
2025-01-09 18:35:55.78	162.88	41.49	
2025-01-09 18:35:55.98	162.88	41.56	
2025-01-09 18:35:56.19	162.88	41.63	
2025-01-09 18:35:56.39	162.89	41.69	
2025-01-09 18:35:56.60	162.89	41.76	
2025-01-09 18:35:56.80	162.89	41.82	
2025-01-09 18:35:57.01	162.90	41.89	
2025-01-09 18:35:57.21	162.90	41.96	
2025-01-09 18:35:57.42	162.90	42.03	
2025-01-09 18:35:57.63	162.90	42.10	
2025-01-09 18:35:57.83	162.91	42.16	
2025-01-09 18:35:58.04	162.91	42.23	
2025-01-09 18:35:58.24	162.91	42.30	
2025-01-09 18:35:58.45	162.92	42.37	
2025-01-09 18:35:58.65	162.92	42.43	
2025-01-09 18:35:58.86	162.92	42.50	
2025-01-09 18:35:59.08	162.93	42.58	
2025-01-09 18:35:59.28	162.93	42.64	
2025-01-09 18:35:59.49	162.93	42.71	
2025-01-09 18:35:59.69	162.93	42.78	
2025-01-09 18:35:59.90	162.94	42.85	
2025-01-09 18:36:00.10	162.94	42.92	
2025-01-09 18:36:00.31	162.94	42.99	
2025-01-09 18:36:00.51	162.95	43.05	
2025-01-09 18:36:00.72	162.95	43.13	
2025-01-09 18:36:00.92	162.95	43.19	
2025-01-09 18:36:01.13	162.96	43.26	
2025-01-09 18:36:01.33	162.96	43.33	
2025-01-09 18:36:01.54	162.96	43.40	
2025-01-09 18:36:01.74	162.97	43.47	
2025-01-09 18:36:01.95	162.97	43.54	
2025-01-09 18:36:02.15	162.97	43.61	
2025-01-09 18:36:02.36	162.97	43.68	
2025-01-09 18:36:02.56	162.98	43.75	
2025-01-09 18:36:02.77	162.98	43.83	
2025-01-09 18:36:02.97	162.98	43.89	
2025-01-09 18:36:03.18	162.99	43.97	
2025-01-09 18:36:03.38	162.99	44.04	
2025-01-09 18:36:03.59	162.99	44.11	
2025-01-09 18:36:03.80	163.00	44.18	
2025-01-09 18:36:04.00	163.00	44.25	
2025-01-09 18:36:04.21	163.00	44.32	
2025-01-09 18:36:04.41	163.01	44.39	
2025-01-09 18:36:04.62	163.01	44.47	
2025-01-09 18:36:04.82	163.01	44.54	
2025-01-09 18:36:05.03	163.02	44.61	
2025-01-09 18:36:05.23	163.02	44.68	
2025-01-09 18:36:05.45	163.02	44.76	
2025-01-09 18:36:05.66	163.03	44.83	
2025-01-09 18:36:05.86	163.03	44.91	
2025-01-09 18:36:06.07	163.03	44.98	
2025-01-09 18:36:06.27	163.04	45.05	
2025-01-09 18:36:06.48	163.04	45.13	
2025-01-09 18:36:06.68	163.04	45.20	
2025-01-09 18:36:06.89	163.05	45.27	
2025-01-09 18:36:07.09	163.05	45.34	
2025-01-09 18:36:07.30	163.05	45.42	
2025-01-09 18:36:07.50	163.06	45.49	
2025-01-09 18:36:07.71	163.06	45.57	
2025-01-09 18:36:07.91	163.07	45.64	
2025-01-09 18:36:08.12	163.07	45.72	
2025-01-09 18:36:08.33	163.07	45.79	
2025-01-09 18:36:08.54	163.08	45.87	
2025-01-09 18:36:08.74	163.08	45.94	
2025-01-09 18:36:08.95	163.08	46.02	
2025-01-09 18:36:09.15	163.09	46.09	
2025-01-09 18:36:09.36	163.09	46.17	
2025-01-09 18:36:09.56	163.09	46.24	
2025-01-09 18:36:09.77	163.10	46.32	
2025-01-09 18:36:09.97	163.10	46.39	
2025-01-09 18:36:10.18	163.10	46.47	
2025-01-09 18:36:10.39	163.11	46.55	
2025-01-09 18:36:10.59	163.11	46.62	
2025-01-09 18:36:10.79	163.12	46.69	
2025-01-09 18:36:11.00	163.12	46.77	
2025-01-09 18:36:11.21	163.12	46.85	
2025-01-09 18:36:11.41	163.13	46.93	
2025-01-09 18:36:11.62	163.13	47.00	
2025-01-09 18:36:11.82	163.13	47.08	
2025-01-09 18:36:12.03	163.14	47.16	
2025-01-09 18:36:12.23	163.14	47.23	
2025-01-09 18:36:12.44	163.15	47.31	
2025-01-09 18:36:12.64	163.15	47.39	
2025-01-09 18:36:12.85	163.15	47.47	
2025-01-09 18:36:13.05	163.16	47.54	
2025-01-09 18:36:13.26	163.16	47.62	
2025-01-09 18:36:13.46	163.17	47.70	
2025-01-09 18:36:13.67	163.17	47.78	
2025-01-09 18:36:13.88	163.17	47.86	
2025-01-09 18:36:14.08	163.18	47.94	
2025-01-09 18:36:14.28	163.18	48.01	
2025-01-09 18:36:14.49	163.19	48.09	
2025-01-09 18:36:14.69	163.19	48.17	
2025-01-09 18:36:14.90	163.19	48.25	
2025-01-09 18:36:15.10	163.20	48.33	
2025-01-09 18:36:15.31	163.20	48.41	
2025-01-09 18:36:15.51	163.21	48.49	
2025-01-09 18:36:15.72	163.21	48.57	
2025-01-09 18:36:15.93	163.21	48.65	
2025-01-09 18:36:16.14	163.22	48.73	
2025-01-09 18:36:16.35	163.22	48.81	
2025-01-09 18:36:16.56	163.23	48.90	
2025-01-09 18:36:16.76	163.23	48.97	
2025-01-09 18:36:16.97	163.23	49.06	
2025-01-09 18:36:17.17	163.24	49.14	
2025-01-09 18:36:17.37	163.24	49.21	
2025-01-09 18:36:17.58	163.25	49.30	
2025-01-09 18:36:17.79	163.25	49.38	
2025-01-09 18:36:17.99	163.26	49.46	
2025-01-09 18:36:18.20	163.26	49.54	
2025-01-09 18:36:18.40	163.26	49.62	
2025-01-09 18:36:18.61	163.27	49.71	
2025-01-09 18:36:18.81	163.27	49.79	
2025-01-09 18:36:19.02	163.28	49.87	
2025-01-09 18:36:19.22	163.28	49.95	
2025-01-09 18:36:19.42	163.29	50.03	
2025-01-09 18:36:19.63	163.29	50.12	
2025-01-09 18:36:19.84	163.30	50.20	
2025-01-09 18:36:20.04	163.30	50.28	
2025-01-09 18:36:20.25	163.30	50.37	
2025-01-09 18:36:20.45	163.31	50.45	
2025-01-09 18:36:20.66	163.31	50.53	
2025-01-09 18:36:20.86	163.32	50.61	
2025-01-09 18:36:21.07	163.32	50.70	
2025-01-09 18:36:21.27	163.33	50.78	
2025-01-09 18:36:21.48	163.33	50.87	
2025-01-09 18:36:21.68	163.34	50.95	
2025-01-09 18:36:21.88	163.34	51.03	
2025-01-09 18:36:22.09	163.35	51.12	
2025-01-09 18:36:22.29	163.35	51.20	
2025-01-09 18:36:22.50	163.36	51.29	
2025-01-09 18:36:22.70	163.36	51.37	
2025-01-09 18:36:22.91	163.37	51.46	
2025-01-09 18:36:23.11	163.37	51.54	
2025-01-09 18:36:23.32	163.37	51.63	
2025-01-09 18:36:23.52	163.38	51.71	
2025-01-09 18:36:23.73	163.38	51.80	
2025-01-09 18:36:23.93	163.39	51.88	
2025-01-09 18:36:24.14	163.39	51.97	
2025-01-09 18:36:24.34	163.40	52.05	
2025-01-09 18:36:24.54	163.40	52.14	
2025-01-09 18:36:24.75	163.41	52.23	
2025-01-09 18:36:24.95	163.41	52.31	
2025-01-09 18:36:25.16	163.42	52.40	
2025-01-09 18:36:25.36	163.42	52.49	
2025-01-09 18:36:25.57	163.43	52.58	
2025-01-09 18:36:25.77	163.43	52.66	
2025-01-09 18:36:25.98	163.44	52.75	
2025-01-09 18:36:26.18	163.45	52.84	
2025-01-09 18:36:26.39	163.45	52.93	
2025-01-09 18:36:26.59	163.46	53.01	
2025-01-09 18:36:26.80	163.46	53.10	
2025-01-09 18:36:27.00	163.47	53.19	
2025-01-09 18:36:27.21	163.47	53.28	
2025-01-09 18:36:27.41	163.48	53.36	
2025-01-09 18:36:27.62	163.48	53.45	
2025-01-09 18:36:27.82	163.49	53.54	
2025-01-09 18:36:28.03	163.49	53.63	
2025-01-09 18:36:28.23	163.50	53.72	
2025-01-09 18:36:28.44	163.50	53.81	
2025-01-09 18:36:28.64	163.51	53.90	
2025-01-09 18:36:28.85	163.52	53.99	
2025-01-09 18:36:29.05	163.52	54.08	
2025-01-09 18:36:29.26	163.53	54.17	
2025-01-09 18:36:29.46	163.53	54.26	
2025-01-09 18:36:29.67	163.54	54.35	
2025-01-09 18:36:29.87	163.54	54.44	
2025-01-09 18:36:30.08	163.55	54.53	
2025-01-09 18:36:30.28	163.56	54.62	
2025-01-09 18:36:30.49	163.56	54.71	
2025-01-09 18:36:30.69	163.57	54.80	
2025-01-09 18:36:30.90	163.57	54.90	
2025-01-09 18:36:31.12	163.58	54.99	
2025-01-09 18:36:31.32	163.59	55.08	
2025-01-09 18:36:31.53	163.59	55.18	
2025-01-09 18:36:31.73	163.60	55.27	
2025-01-09 18:36:31.94	163.60	55.36	
2025-01-09 18:36:32.14	163.61	55.45	
2025-01-09 18:36:32.35	163.62	55.55	
2025-01-09 18:36:32.55	163.62	55.64	
2025-01-09 18:36:32.76	163.63	55.73	
2025-01-09 18:36:32.97	163.63	55.83	
2025-01-09 18:36:33.17	163.64	55.92	
2025-01-09 18:36:33.38	163.65	56.01	
2025-01-09 18:36:33.58	163.65	56.11	
2025-01-09 18:36:33.79	163.66	56.20	
2025-01-09 18:36:33.99	163.67	56.29	
2025-01-09 18:36:34.19	163.67	56.38	
2025-01-09 18:36:34.40	163.68	56.48	
2025-01-09 18:36:34.61	163.69	56.58	
2025-01-09 18:36:34.81	163.69	56.67	
2025-01-09 18:36:35.02	163.70	56.77	
2025-01-09 18:36:35.23	163.71	56.86	
2025-01-09 18:36:35.43	163.71	56.96	
2025-01-09 18:36:35.63	163.72	57.05	
2025-01-09 18:36:35.84	163.73	57.15	
2025-01-09 18:36:36.05	163.73	57.24	
2025-01-09 18:36:36.25	163.74	57.34	
2025-01-09 18:36:36.45	163.75	57.43	
2025-01-09 18:36:36.66	163.75	57.53	
2025-01-09 18:36:36.86	163.76	57.62	
2025-01-09 18:36:37.07	163.77	57.72	
2025-01-09 18:36:37.27	163.77	57.82	
2025-01-09 18:36:37.48	163.78	57.91	
2025-01-09 18:36:37.68	163.79	58.01	
2025-01-09 18:36:37.89	163.80	58.11	
2025-01-09 18:36:38.09	163.80	58.20	
2025-01-09 18:36:38.30	163.81	58.30	
2025-01-09 18:36:38.50	163.82	58.40	
2025-01-09 18:36:38.71	163.83	58.50	
2025-01-09 18:36:38.91	163.83	58.59	
2025-01-09 18:36:39.12	163.84	58.69	
2025-01-09 18:36:39.32	163.85	58.79	
2025-01-09 18:36:39.53	163.86	58.89	
2025-01-09 18:36:39.73	163.86	58.99	
2025-01-09 18:36:39.94	163.87	59.09	
2025-01-09 18:36:40.15	163.88	59.19	
2025-01-09 18:36:40.35	163.89	59.28	
2025-01-09 18:36:40.56	163.90	59.39	
2025-01-09 18:36:40.76	163.90	59.48	
2025-01-09 18:36:40.97	163.91	59.59	
2025-01-09 18:36:41.17	163.92	59.68	
2025-01-09 18:36:41.38	163.93	59.78	
2025-01-09 18:36:41.58	163.94	59.88	
2025-01-09 18:36:41.79	163.94	59.98	
2025-01-09 18:36:41.99	163.95	60.08	
2025-01-09 18:36:42.20	163.96	60.18	
2025-01-09 18:36:42.41	163.97	60.29	
2025-01-09 18:36:42.61	163.98	60.39	
2025-01-09 18:36:42.82	163.99	60.49	
2025-01-09 18:36:43.02	163.99	60.59	
2025-01-09 18:36:43.23	164.00	60.69	
2025-01-09 18:36:43.43	164.01	60.79	
2025-01-09 18:36:43.64	164.02	60.89	
2025-01-09 18:36:43.86	164.03	61.00	
2025-01-09 18:36:44.06	164.04	61.10	
2025-01-09 18:36:44.27	164.05	61.21	
2025-01-09 18:36:44.47	164.06	61.31	
2025-01-09 18:36:44.68	164.07	61.41	
2025-01-09 18:36:44.88	164.08	61.51	
2025-01-09 18:36:45.09	164.09	61.62	
2025-01-09 18:36:45.30	164.10	61.72	
2025-01-09 18:36:45.50	164.10	61.82	
2025-01-09 18:36:45.71	164.11	61.93	
2025-01-09 18:36:45.91	164.12	62.03	
2025-01-09 18:36:46.12	164.13	62.14	
2025-01-09 18:36:46.33	164.14	62.24	
2025-01-09 18:36:46.53	164.15	62.34	
2025-01-09 18:36:46.73	164.16	62.45	
2025-01-09 18:36:46.94	164.17	62.55	
2025-01-09 18:36:47.14	164.18	62.65	
2025-01-09 18:36:47.35	164.19	62.76	
2025-01-09 18:36:47.56	164.20	62.87	
2025-01-09 18:36:47.76	164.21	62.97	
2025-01-09 18:36:47.97	164.22	63.08	
2025-01-09 18:36:48.17	164.23	63.18	
2025-01-09 18:36:48.39	164.25	63.29	
2025-01-09 18:36:48.59	164.26	63.40	
2025-01-09 18:36:48.80	164.27	63.50	
2025-01-09 18:36:49.01	164.28	63.61	
2025-01-09 18:36:49.21	164.29	63.72	
2025-01-09 18:36:49.41	164.30	63.82	
2025-01-09 18:36:49.62	164.31	63.93	
2025-01-09 18:36:49.83	164.32	64.04	
2025-01-09 18:36:50.03	164.33	64.14	
2025-01-09 18:36:50.24	164.35	64.25	
2025-01-09 18:36:50.44	164.36	64.36	
2025-01-09 18:36:50.65	164.37	64.47	
2025-01-09 18:36:50.85	164.38	64.57	
2025-01-09 18:36:51.06	164.39	64.68	
2025-01-09 18:36:51.26	164.40	64.78	
2025-01-09 18:36:51.47	164.42	64.90	
2025-01-09 18:36:51.67	164.43	65.00	
2025-01-09 18:36:51.88	164.44	65.11	
2025-01-09 18:36:52.08	164.45	65.22	
2025-01-09 18:36:52.29	164.47	65.33	
2025-01-09 18:36:52.49	164.48	65.43	
2025-01-09 18:36:52.70	164.49	65.54	
2025-01-09 18:36:52.91	164.50	65.66	
2025-01-09 18:36:53.11	164.52	65.76	
2025-01-09 18:36:53.32	164.53	65.87	
2025-01-09 18:36:53.52	164.54	65.98	
2025-01-09 18:36:53.73	164.56	66.09	
2025-01-09 18:36:53.93	164.57	66.20	
2025-01-09 18:36:54.14	164.58	66.31	
2025-01-09 18:36:54.34	164.60	66.42	
2025-01-09 18:36:54.55	164.61	66.53	
2025-01-09 18:36:54.76	164.63	66.64	
2025-01-09 18:36:54.96	164.64	66.75	
2025-01-09 18:36:55.17	164.65	66.87	
2025-01-09 18:36:55.37	164.67	66.97	
2025-01-09 18:36:55.57	164.68	67.08	
2025-01-09 18:36:55.78	164.70	67.20	
2025-01-09 18:36:55.98	164.71	67.30	
2025-01-09 18:36:56.19	164.73	67.42	
2025-01-09 18:36:56.40	164.74	67.53	
2025-01-09 18:36:56.60	164.76	67.64	
2025-01-09 18:36:56.81	164.77	67.75	
2025-01-09 18:36:57.01	164.79	67.86	
2025-01-09 18:36:57.22	164.81	67.98	
2025-01-09 18:36:57.42	164.82	68.09	
2025-01-09 18:36:57.63	164.84	68.20	
2025-01-09 18:36:57.83	164.85	68.31	
2025-01-09 18:36:58.04	164.87	68.43	
2025-01-09 18:36:58.25	164.89	68.54	
2025-01-09 18:36:58.45	164.90	68.65	
2025-01-09 18:36:58.66	164.92	68.77	
2025-01-09 18:36:58.88	164.94	68.89	
2025-01-09 18:36:59.08	164.96	69.00	
2025-01-09 18:36:59.29	164.98	69.12	
2025-01-09 18:36:59.49	164.99	69.23	
2025-01-09 18:36:59.69	165.01	69.34	
2025-01-09 18:36:59.90	165.03	69.46	
2025-01-09 18:37:00.10	165.05	69.57	
2025-01-09 18:37:00.30	165.07	69.68	
2025-01-09 18:37:00.51	165.08	69.80	
2025-01-09 18:37:00.72	165.10	69.91	
2025-01-09 18:37:00.92	165.12	70.02	
2025-01-09 18:37:01.13	165.14	70.14	
2025-01-09 18:37:01.33	165.16	70.25	
2025-01-09 18:37:01.54	165.18	70.37	
2025-01-09 18:37:01.74	165.20	70.48	
2025-01-09 18:37:01.95	165.22	70.60	
2025-01-09 18:37:02.15	165.24	70.71	
2025-01-09 18:37:02.36	165.27	70.83	
2025-01-09 18:37:02.56	165.29	70.95	
2025-01-09 18:37:02.77	165.31	71.06	
2025-01-09 18:37:02.98	165.33	71.18	
2025-01-09 18:37:03.18	165.35	71.30	
2025-01-09 18:37:03.39	165.38	71.41	
2025-01-09 18:37:03.59	165.40	71.53	
2025-01-09 18:37:03.80	165.42	71.65	
2025-01-09 18:37:04.00	165.44	71.76	
2025-01-09 18:37:04.21	165.47	71.88	
2025-01-09 18:37:04.41	165.49	71.99	
2025-01-09 18:37:04.62	165.52	72.11	
2025-01-09 18:37:04.82	165.54	72.23	
2025-01-09 18:37:05.03	165.57	72.35	
2025-01-09 18:37:05.23	165.59	72.46	
2025-01-09 18:37:05.43	165.62	72.58	
2025-01-09 18:37:05.64	165.64	72.70	
2025-01-09 18:37:05.85	165.67	72.82	
2025-01-09 18:37:06.05	165.70	72.93	
2025-01-09 18:37:06.27	165.72	73.06	
2025-01-09 18:37:06.47	165.75	73.18	
2025-01-09 18:37:06.68	165.78	73.30	
2025-01-09 18:37:06.88	165.81	73.41	
2025-01-09 18:37:07.09	165.84	73.53	
2025-01-09 18:37:07.29	165.87	73.65	
2025-01-09 18:37:07.50	165.90	73.77	
2025-01-09 18:37:07.71	165.93	73.89	
2025-01-09 18:37:07.91	165.96	74.01	
2025-01-09 18:37:08.12	165.99	74.13	
2025-01-09 18:37:08.32	166.02	74.25	
2025-01-09 18:37:08.54	166.05	74.37	
2025-01-09 18:37:08.75	166.09	74.50	
2025-01-09 18:37:08.95	166.12	74.61	
2025-01-09 18:37:09.16	166.15	74.73	
2025-01-09 18:37:09.36	166.19	74.85	
2025-01-09 18:37:09.57	166.22	74.97	
2025-01-09 18:37:09.78	166.26	75.10	
2025-01-09 18:37:09.99	166.29	75.22	
2025-01-09 18:37:10.19	166.33	75.34	
2025-01-09 18:37:10.40	166.37	75.46	
2025-01-09 18:37:10.60	166.40	75.58	
2025-01-09 18:37:10.81	166.44	75.70	
2025-01-09 18:37:11.01	166.48	75.82	
2025-01-09 18:37:11.22	166.52	75.94	
2025-01-09 18:37:11.42	166.56	76.06	
2025-01-09 18:37:11.63	166.60	76.18	
2025-01-09 18:37:11.83	166.64	76.30	
2025-01-09 18:37:12.04	166.69	76.43	
2025-01-09 18:37:12.24	166.73	76.54	
2025-01-09 18:37:12.45	166.77	76.67	
2025-01-09 18:37:12.65	166.82	76.79	
