passes_logs/2025/01/09/SPB_Silybum_02/SPB_Silybum_02__20250109_222635_SUOMI_NPP_rec.log

#Pass ID: 20250109_222635_SUOMI NPP
#Satellite: SUOMI NPP
#Configuration: NPP
#Start time: 2025-01-09 22:26:34

#Version: 2.0.20230423
#Station: SPB_Silybum_02
#Location: 30.233357 lon 59.946436 lat
#TLE: 1 37849U 11061A   25009.14008564  .00000193  00000+0  11215-3 0  9999
#TLE: 2 37849  98.7440 310.2032 0001887  50.1400 309.9942 14.19535382684083

#Time	Az	El	Level	Level2	SNR	BER	Gain	Gain2
2025-01-09 22:26:36.03	27.84	4.05	
2025-01-09 22:26:36.23	27.86	4.06	
2025-01-09 22:26:36.44	27.88	4.07	
2025-01-09 22:26:36.64	27.90	4.08	
2025-01-09 22:26:36.85	27.92	4.09	
2025-01-09 22:26:37.05	27.93	4.10	
2025-01-09 22:26:37.26	27.95	4.11	
2025-01-09 22:26:37.46	27.97	4.12	
2025-01-09 22:26:37.67	27.99	4.13	
2025-01-09 22:26:37.87	28.01	4.15	
2025-01-09 22:26:38.08	28.03	4.16	
2025-01-09 22:26:38.28	28.04	4.17	
2025-01-09 22:26:38.49	28.06	4.18	
2025-01-09 22:26:38.69	28.08	4.19	
2025-01-09 22:26:38.91	28.10	4.20	
2025-01-09 22:26:39.12	28.12	4.21	
2025-01-09 22:26:39.33	28.14	4.23	
2025-01-09 22:26:39.53	28.16	4.24	
2025-01-09 22:26:39.74	28.18	4.25	
2025-01-09 22:26:39.94	28.19	4.26	
2025-01-09 22:26:40.15	28.21	4.27	
2025-01-09 22:26:40.35	28.23	4.28	
2025-01-09 22:26:40.56	28.25	4.29	
2025-01-09 22:26:40.77	28.27	4.30	
2025-01-09 22:26:40.97	28.29	4.31	
2025-01-09 22:26:41.18	28.31	4.33	
2025-01-09 22:26:41.39	28.33	4.34	
2025-01-09 22:26:41.60	28.34	4.35	
2025-01-09 22:26:41.80	28.36	4.36	
2025-01-09 22:26:42.01	28.38	4.37	
2025-01-09 22:26:42.21	28.40	4.38	
2025-01-09 22:26:42.42	28.42	4.39	
2025-01-09 22:26:42.62	28.44	4.40	
2025-01-09 22:26:42.83	28.46	4.42	
2025-01-09 22:26:43.04	28.48	4.43	
2025-01-09 22:26:43.25	28.50	4.44	
2025-01-09 22:26:43.46	28.51	4.45	
2025-01-09 22:26:43.67	28.53	4.46	
2025-01-09 22:26:43.87	28.55	4.47	
2025-01-09 22:26:44.08	28.57	4.48	
2025-01-09 22:26:44.28	28.59	4.50	
2025-01-09 22:26:44.49	28.61	4.51	
2025-01-09 22:26:44.69	28.63	4.52	
2025-01-09 22:26:44.90	28.65	4.53	
2025-01-09 22:26:45.11	28.67	4.54	
2025-01-09 22:26:45.31	28.68	4.55	
2025-01-09 22:26:45.52	28.70	4.56	
2025-01-09 22:26:45.72	28.72	4.57	
2025-01-09 22:26:45.93	28.74	4.59	
2025-01-09 22:26:46.13	28.76	4.60	
2025-01-09 22:26:46.34	28.78	4.61	
2025-01-09 22:26:46.54	28.80	4.62	
2025-01-09 22:26:46.75	28.82	4.63	
2025-01-09 22:26:46.95	28.84	4.64	
2025-01-09 22:26:47.16	28.86	4.65	
2025-01-09 22:26:47.36	28.87	4.66	
2025-01-09 22:26:47.57	28.89	4.68	
2025-01-09 22:26:47.77	28.91	4.69	
2025-01-09 22:26:47.98	28.93	4.70	
2025-01-09 22:26:48.19	28.95	4.71	
2025-01-09 22:26:48.39	28.97	4.72	
2025-01-09 22:26:48.60	28.99	4.73	
2025-01-09 22:26:48.80	29.01	4.74	
2025-01-09 22:26:49.01	29.03	4.75	
2025-01-09 22:26:49.21	29.05	4.77	
2025-01-09 22:26:49.42	29.07	4.78	
2025-01-09 22:26:49.63	29.09	4.79	
2025-01-09 22:26:49.83	29.11	4.80	
2025-01-09 22:26:50.04	29.13	4.81	
2025-01-09 22:26:50.24	29.14	4.82	
2025-01-09 22:26:50.45	29.16	4.83	
2025-01-09 22:26:50.65	29.18	4.84	
2025-01-09 22:26:50.86	29.20	4.86	
2025-01-09 22:26:51.06	29.22	4.87	
2025-01-09 22:26:51.27	29.24	4.88	
2025-01-09 22:26:51.48	29.26	4.89	
2025-01-09 22:26:51.68	29.28	4.90	
2025-01-09 22:26:51.88	29.30	4.91	
2025-01-09 22:26:52.09	29.32	4.92	
2025-01-09 22:26:52.30	29.34	4.94	
2025-01-09 22:26:52.50	29.36	4.95	
2025-01-09 22:26:52.71	29.38	4.96	
2025-01-09 22:26:52.91	29.40	4.97	
2025-01-09 22:26:53.12	29.42	4.98	
2025-01-09 22:26:53.32	29.44	4.99	
2025-01-09 22:26:53.53	29.45	5.00	
2025-01-09 22:26:53.73	29.47	5.01	
2025-01-09 22:26:53.93	29.49	5.03	
2025-01-09 22:26:54.14	29.51	5.04	
2025-01-09 22:26:54.34	29.53	5.05	
2025-01-09 22:26:54.55	29.55	5.06	
2025-01-09 22:26:54.75	29.57	5.07	
2025-01-09 22:26:54.96	29.59	5.08	
2025-01-09 22:26:55.16	29.61	5.09	
2025-01-09 22:26:55.37	29.63	5.10	
2025-01-09 22:26:55.58	29.65	5.12	
2025-01-09 22:26:55.78	29.67	5.13	
2025-01-09 22:26:55.99	29.69	5.14	
2025-01-09 22:26:56.19	29.71	5.15	
2025-01-09 22:26:56.40	29.73	5.16	
2025-01-09 22:26:56.60	29.75	5.17	
2025-01-09 22:26:56.81	29.77	5.18	
2025-01-09 22:26:57.01	29.79	5.20	
2025-01-09 22:26:57.22	29.81	5.21	
2025-01-09 22:26:57.42	29.83	5.22	
2025-01-09 22:26:57.63	29.85	5.23	
2025-01-09 22:26:57.83	29.87	5.24	
2025-01-09 22:26:58.04	29.89	5.25	
2025-01-09 22:26:58.24	29.91	5.26	
2025-01-09 22:26:58.45	29.93	5.28	
2025-01-09 22:26:58.65	29.95	5.29	
2025-01-09 22:26:58.86	29.97	5.30	
2025-01-09 22:26:59.06	29.99	5.31	
2025-01-09 22:26:59.28	30.01	5.32	
2025-01-09 22:26:59.49	30.03	5.33	
2025-01-09 22:26:59.69	30.05	5.34	
2025-01-09 22:26:59.90	30.07	5.36	
2025-01-09 22:27:00.10	30.09	5.37	
2025-01-09 22:27:00.31	30.11	5.38	
2025-01-09 22:27:00.51	30.13	5.39	
2025-01-09 22:27:00.72	30.15	5.40	
2025-01-09 22:27:00.92	30.17	5.41	
2025-01-09 22:27:01.13	30.19	5.42	
2025-01-09 22:27:01.35	30.21	5.44	
2025-01-09 22:27:01.56	30.23	5.45	
2025-01-09 22:27:01.76	30.25	5.46	
2025-01-09 22:27:01.97	30.27	5.47	
2025-01-09 22:27:02.17	30.29	5.48	
2025-01-09 22:27:02.38	30.31	5.49	
2025-01-09 22:27:02.58	30.33	5.50	
2025-01-09 22:27:02.79	30.35	5.52	
2025-01-09 22:27:03.00	30.37	5.53	
2025-01-09 22:27:03.20	30.39	5.54	
2025-01-09 22:27:03.42	30.41	5.55	
2025-01-09 22:27:03.62	30.43	5.56	
2025-01-09 22:27:03.83	30.45	5.57	
2025-01-09 22:27:04.04	30.47	5.59	
2025-01-09 22:27:04.24	30.49	5.60	
2025-01-09 22:27:04.45	30.51	5.61	
2025-01-09 22:27:04.65	30.53	5.62	
2025-01-09 22:27:04.86	30.55	5.63	
2025-01-09 22:27:05.06	30.57	5.64	
2025-01-09 22:27:05.27	30.59	5.65	
2025-01-09 22:27:05.47	30.61	5.67	
2025-01-09 22:27:05.68	30.64	5.68	
2025-01-09 22:27:05.88	30.66	5.69	
2025-01-09 22:27:06.09	30.68	5.70	
2025-01-09 22:27:06.29	30.70	5.71	
2025-01-09 22:27:06.50	30.72	5.72	
2025-01-09 22:27:06.70	30.74	5.73	
2025-01-09 22:27:06.91	30.76	5.75	
2025-01-09 22:27:07.11	30.78	5.76	
2025-01-09 22:27:07.32	30.80	5.77	
2025-01-09 22:27:07.53	30.82	5.78	
2025-01-09 22:27:07.73	30.84	5.79	
2025-01-09 22:27:07.93	30.86	5.80	
2025-01-09 22:27:08.14	30.88	5.81	
2025-01-09 22:27:08.34	30.90	5.83	
2025-01-09 22:27:08.55	30.92	5.84	
2025-01-09 22:27:08.75	30.94	5.85	
2025-01-09 22:27:08.96	30.96	5.86	
2025-01-09 22:27:09.17	30.98	5.87	
2025-01-09 22:27:09.37	31.00	5.88	
2025-01-09 22:27:09.58	31.03	5.90	
2025-01-09 22:27:09.78	31.05	5.91	
2025-01-09 22:27:10.00	31.07	5.92	
2025-01-09 22:27:10.21	31.09	5.93	
2025-01-09 22:27:10.41	31.11	5.94	
2025-01-09 22:27:10.62	31.13	5.95	
2025-01-09 22:27:10.82	31.15	5.96	
2025-01-09 22:27:11.03	31.17	5.98	
2025-01-09 22:27:11.23	31.19	5.99	
2025-01-09 22:27:11.44	31.21	6.00	
2025-01-09 22:27:11.64	31.23	6.01	
2025-01-09 22:27:11.85	31.26	6.02	
2025-01-09 22:27:12.07	31.28	6.03	
2025-01-09 22:27:12.27	31.30	6.05	
2025-01-09 22:27:12.48	31.32	6.06	
2025-01-09 22:27:12.68	31.34	6.07	
2025-01-09 22:27:12.89	31.36	6.08	
2025-01-09 22:27:13.11	31.38	6.09	
2025-01-09 22:27:13.31	31.40	6.10	
2025-01-09 22:27:13.52	31.43	6.12	
2025-01-09 22:27:13.72	31.45	6.13	
2025-01-09 22:27:13.93	31.47	6.14	
2025-01-09 22:27:14.14	31.49	6.15	
2025-01-09 22:27:14.34	31.51	6.16	
2025-01-09 22:27:14.55	31.53	6.17	
2025-01-09 22:27:14.75	31.55	6.19	
2025-01-09 22:27:14.96	31.57	6.20	
2025-01-09 22:27:15.16	31.59	6.21	
2025-01-09 22:27:15.38	31.62	6.22	
2025-01-09 22:27:15.59	31.64	6.23	
2025-01-09 22:27:15.79	31.66	6.24	
2025-01-09 22:27:16.00	31.68	6.26	
2025-01-09 22:27:16.20	31.70	6.27	
2025-01-09 22:27:16.41	31.72	6.28	
2025-01-09 22:27:16.61	31.74	6.29	
2025-01-09 22:27:16.82	31.76	6.30	
2025-01-09 22:27:17.02	31.79	6.31	
2025-01-09 22:27:17.23	31.81	6.33	
2025-01-09 22:27:17.43	31.83	6.34	
2025-01-09 22:27:17.64	31.85	6.35	
2025-01-09 22:27:17.84	31.87	6.36	
2025-01-09 22:27:18.05	31.89	6.37	
2025-01-09 22:27:18.26	31.91	6.38	
2025-01-09 22:27:18.46	31.94	6.39	
2025-01-09 22:27:18.67	31.96	6.41	
2025-01-09 22:27:18.87	31.98	6.42	
2025-01-09 22:27:19.08	32.00	6.43	
2025-01-09 22:27:19.28	32.02	6.44	
2025-01-09 22:27:19.49	32.04	6.45	
2025-01-09 22:27:19.69	32.06	6.46	
2025-01-09 22:27:19.90	32.09	6.48	
2025-01-09 22:27:20.10	32.11	6.49	
2025-01-09 22:27:20.31	32.13	6.50	
2025-01-09 22:27:20.51	32.15	6.51	
2025-01-09 22:27:20.72	32.17	6.52	
2025-01-09 22:27:20.93	32.19	6.53	
2025-01-09 22:27:21.13	32.21	6.55	
2025-01-09 22:27:21.34	32.24	6.56	
2025-01-09 22:27:21.56	32.26	6.57	
2025-01-09 22:27:21.76	32.28	6.58	
2025-01-09 22:27:21.97	32.30	6.59	
2025-01-09 22:27:22.17	32.32	6.60	
2025-01-09 22:27:22.39	32.35	6.62	
2025-01-09 22:27:22.60	32.37	6.63	
2025-01-09 22:27:22.80	32.39	6.64	
2025-01-09 22:27:23.01	32.41	6.65	
2025-01-09 22:27:23.21	32.43	6.66	
2025-01-09 22:27:23.42	32.46	6.67	
2025-01-09 22:27:23.62	32.48	6.69	
2025-01-09 22:27:23.83	32.50	6.70	
2025-01-09 22:27:24.03	32.52	6.71	
2025-01-09 22:27:24.24	32.54	6.72	
2025-01-09 22:27:24.44	32.56	6.73	
2025-01-09 22:27:24.65	32.59	6.74	
2025-01-09 22:27:24.85	32.61	6.76	
2025-01-09 22:27:25.06	32.63	6.77	
2025-01-09 22:27:25.26	32.65	6.78	
2025-01-09 22:27:25.47	32.67	6.79	
2025-01-09 22:27:25.67	32.70	6.80	
2025-01-09 22:27:25.88	32.72	6.81	
2025-01-09 22:27:26.08	32.74	6.83	
2025-01-09 22:27:26.29	32.76	6.84	
2025-01-09 22:27:26.49	32.78	6.85	
2025-01-09 22:27:26.70	32.81	6.86	
2025-01-09 22:27:26.90	32.83	6.87	
2025-01-09 22:27:27.11	32.85	6.88	
2025-01-09 22:27:27.31	32.87	6.90	
2025-01-09 22:27:27.52	32.89	6.91	
2025-01-09 22:27:27.72	32.92	6.92	
2025-01-09 22:27:27.93	32.94	6.93	
2025-01-09 22:27:28.13	32.96	6.94	
2025-01-09 22:27:28.34	32.98	6.95	
2025-01-09 22:27:28.54	33.00	6.97	
2025-01-09 22:27:28.75	33.03	6.98	
2025-01-09 22:27:28.95	33.05	6.99	
2025-01-09 22:27:29.17	33.07	7.00	
2025-01-09 22:27:29.38	33.09	7.01	
2025-01-09 22:27:29.58	33.12	7.02	
2025-01-09 22:27:29.79	33.14	7.04	
2025-01-09 22:27:29.99	33.16	7.05	
2025-01-09 22:27:30.21	33.18	7.06	
2025-01-09 22:27:30.41	33.21	7.07	
2025-01-09 22:27:30.62	33.23	7.08	
2025-01-09 22:27:30.83	33.25	7.10	
2025-01-09 22:27:31.03	33.27	7.11	
2025-01-09 22:27:31.23	33.30	7.12	
2025-01-09 22:27:31.44	33.32	7.13	
2025-01-09 22:27:31.64	33.34	7.14	
2025-01-09 22:27:31.85	33.36	7.15	
2025-01-09 22:27:32.05	33.39	7.17	
2025-01-09 22:27:32.26	33.41	7.18	
2025-01-09 22:27:32.46	33.43	7.19	
2025-01-09 22:27:32.67	33.45	7.20	
2025-01-09 22:27:32.88	33.48	7.21	
2025-01-09 22:27:33.08	33.50	7.22	
2025-01-09 22:27:33.29	33.52	7.24	
2025-01-09 22:27:33.49	33.54	7.25	
2025-01-09 22:27:33.69	33.57	7.26	
2025-01-09 22:27:33.90	33.59	7.27	
2025-01-09 22:27:34.11	33.61	7.28	
2025-01-09 22:27:34.31	33.63	7.29	
2025-01-09 22:27:34.52	33.66	7.31	
2025-01-09 22:27:34.72	33.68	7.32	
2025-01-09 22:27:34.93	33.70	7.33	
2025-01-09 22:27:35.14	33.73	7.34	
2025-01-09 22:27:35.34	33.75	7.35	
2025-01-09 22:27:35.54	33.77	7.36	
2025-01-09 22:27:35.75	33.79	7.38	
2025-01-09 22:27:35.96	33.82	7.39	
2025-01-09 22:27:36.16	33.84	7.40	
2025-01-09 22:27:36.37	33.86	7.41	
2025-01-09 22:27:36.57	33.88	7.42	
2025-01-09 22:27:36.78	33.91	7.44	
2025-01-09 22:27:36.98	33.93	7.45	
2025-01-09 22:27:37.19	33.95	7.46	
2025-01-09 22:27:37.40	33.98	7.47	
2025-01-09 22:27:37.60	34.00	7.48	
2025-01-09 22:27:37.81	34.02	7.49	
2025-01-09 22:27:38.01	34.05	7.51	
2025-01-09 22:27:38.22	34.07	7.52	
2025-01-09 22:27:38.42	34.09	7.53	
2025-01-09 22:27:38.63	34.12	7.54	
2025-01-09 22:27:38.83	34.14	7.55	
2025-01-09 22:27:39.04	34.16	7.56	
2025-01-09 22:27:39.25	34.18	7.58	
2025-01-09 22:27:39.45	34.21	7.59	
2025-01-09 22:27:39.66	34.23	7.60	
2025-01-09 22:27:39.86	34.25	7.61	
2025-01-09 22:27:40.07	34.28	7.62	
2025-01-09 22:27:40.28	34.30	7.64	
2025-01-09 22:27:40.48	34.32	7.65	
2025-01-09 22:27:40.69	34.35	7.66	
2025-01-09 22:27:40.89	34.37	7.67	
2025-01-09 22:27:41.10	34.39	7.68	
2025-01-09 22:27:41.30	34.42	7.69	
2025-01-09 22:27:41.51	34.44	7.71	
2025-01-09 22:27:41.72	34.46	7.72	
2025-01-09 22:27:41.92	34.49	7.73	
2025-01-09 22:27:42.13	34.51	7.74	
2025-01-09 22:27:42.33	34.53	7.75	
2025-01-09 22:27:42.54	34.56	7.77	
2025-01-09 22:27:42.74	34.58	7.78	
2025-01-09 22:27:42.95	34.60	7.79	
2025-01-09 22:27:43.16	34.63	7.80	
2025-01-09 22:27:43.36	34.65	7.81	
2025-01-09 22:27:43.57	34.67	7.82	
2025-01-09 22:27:43.77	34.70	7.84	
2025-01-09 22:27:43.98	34.72	7.85	
2025-01-09 22:27:44.18	34.74	7.86	
2025-01-09 22:27:44.39	34.77	7.87	
2025-01-09 22:27:44.59	34.79	7.88	
2025-01-09 22:27:44.80	34.82	7.90	
2025-01-09 22:27:45.01	34.84	7.91	
2025-01-09 22:27:45.21	34.86	7.92	
2025-01-09 22:27:45.42	34.89	7.93	
2025-01-09 22:27:45.62	34.91	7.94	
2025-01-09 22:27:45.83	34.93	7.95	
2025-01-09 22:27:46.03	34.96	7.97	
2025-01-09 22:27:46.24	34.98	7.98	
2025-01-09 22:27:46.44	35.00	7.99	
2025-01-09 22:27:46.65	35.03	8.00	
2025-01-09 22:27:46.86	35.05	8.01	
2025-01-09 22:27:47.06	35.08	8.03	
2025-01-09 22:27:47.27	35.10	8.04	
2025-01-09 22:27:47.47	35.12	8.05	
2025-01-09 22:27:47.68	35.15	8.06	
2025-01-09 22:27:47.88	35.17	8.07	
2025-01-09 22:27:48.09	35.20	8.08	
2025-01-09 22:27:48.29	35.22	8.10	
2025-01-09 22:27:48.50	35.24	8.11	
2025-01-09 22:27:48.70	35.27	8.12	
2025-01-09 22:27:48.91	35.29	8.13	
2025-01-09 22:27:49.11	35.31	8.14	
2025-01-09 22:27:49.32	35.34	8.16	
2025-01-09 22:27:49.54	35.36	8.17	
2025-01-09 22:27:49.74	35.39	8.18	
2025-01-09 22:27:49.95	35.41	8.19	
2025-01-09 22:27:50.15	35.44	8.20	
2025-01-09 22:27:50.36	35.46	8.22	
2025-01-09 22:27:50.56	35.48	8.23	
2025-01-09 22:27:50.77	35.51	8.24	
2025-01-09 22:27:50.98	35.53	8.25	
2025-01-09 22:27:51.18	35.56	8.26	
2025-01-09 22:27:51.39	35.58	8.28	
2025-01-09 22:27:51.60	35.61	8.29	
2025-01-09 22:27:51.81	35.63	8.30	
2025-01-09 22:27:52.02	35.66	8.31	
2025-01-09 22:27:52.22	35.68	8.32	
2025-01-09 22:27:52.43	35.70	8.34	
2025-01-09 22:27:52.63	35.73	8.35	
2025-01-09 22:27:52.83	35.75	8.36	
2025-01-09 22:27:53.04	35.78	8.37	
2025-01-09 22:27:53.25	35.80	8.38	
2025-01-09 22:27:53.45	35.83	8.39	
2025-01-09 22:27:53.66	35.85	8.41	
2025-01-09 22:27:53.86	35.87	8.42	
2025-01-09 22:27:54.07	35.90	8.43	
2025-01-09 22:27:54.27	35.92	8.44	
2025-01-09 22:27:54.48	35.95	8.45	
2025-01-09 22:27:54.68	35.97	8.47	
2025-01-09 22:27:54.90	36.00	8.48	
2025-01-09 22:27:55.11	36.02	8.49	
2025-01-09 22:27:55.31	36.05	8.50	
2025-01-09 22:27:55.52	36.07	8.51	
2025-01-09 22:27:55.72	36.10	8.53	
2025-01-09 22:27:55.93	36.12	8.54	
2025-01-09 22:27:56.13	36.15	8.55	
2025-01-09 22:27:56.34	36.17	8.56	
2025-01-09 22:27:56.54	36.19	8.57	
2025-01-09 22:27:56.75	36.22	8.59	
2025-01-09 22:27:56.95	36.24	8.60	
2025-01-09 22:27:57.16	36.27	8.61	
2025-01-09 22:27:57.36	36.29	8.62	
2025-01-09 22:27:57.57	36.32	8.63	
2025-01-09 22:27:57.77	36.34	8.64	
2025-01-09 22:27:57.98	36.37	8.66	
2025-01-09 22:27:58.18	36.39	8.67	
2025-01-09 22:27:58.39	36.42	8.68	
2025-01-09 22:27:58.59	36.44	8.69	
2025-01-09 22:27:58.80	36.47	8.70	
2025-01-09 22:27:59.00	36.49	8.72	
2025-01-09 22:27:59.21	36.52	8.73	
2025-01-09 22:27:59.42	36.54	8.74	
2025-01-09 22:27:59.62	36.57	8.75	
2025-01-09 22:27:59.83	36.59	8.76	
2025-01-09 22:28:00.03	36.62	8.78	
2025-01-09 22:28:00.24	36.64	8.79	
2025-01-09 22:28:00.44	36.67	8.80	
2025-01-09 22:28:00.65	36.69	8.81	
2025-01-09 22:28:00.85	36.72	8.82	
2025-01-09 22:28:01.06	36.74	8.84	
2025-01-09 22:28:01.26	36.77	8.85	
2025-01-09 22:28:01.47	36.79	8.86	
2025-01-09 22:28:01.67	36.82	8.87	
2025-01-09 22:28:01.88	36.84	8.88	
2025-01-09 22:28:02.08	36.87	8.89	
2025-01-09 22:28:02.29	36.89	8.91	
2025-01-09 22:28:02.49	36.92	8.92	
2025-01-09 22:28:02.70	36.94	8.93	
2025-01-09 22:28:02.90	36.97	8.94	
2025-01-09 22:28:03.11	36.99	8.95	
2025-01-09 22:28:03.31	37.02	8.97	
2025-01-09 22:28:03.52	37.04	8.98	
2025-01-09 22:28:03.73	37.07	8.99	
2025-01-09 22:28:03.93	37.09	9.00	
2025-01-09 22:28:04.13	37.12	9.01	
2025-01-09 22:28:04.34	37.15	9.03	
2025-01-09 22:28:04.54	37.17	9.04	
2025-01-09 22:28:04.75	37.20	9.05	
2025-01-09 22:28:04.96	37.22	9.06	
2025-01-09 22:28:05.16	37.25	9.07	
2025-01-09 22:28:05.37	37.27	9.09	
2025-01-09 22:28:05.57	37.30	9.10	
2025-01-09 22:28:05.78	37.32	9.11	
2025-01-09 22:28:05.98	37.35	9.12	
2025-01-09 22:28:06.19	37.37	9.13	
2025-01-09 22:28:06.40	37.40	9.15	
2025-01-09 22:28:06.61	37.43	9.16	
2025-01-09 22:28:06.82	37.45	9.17	
2025-01-09 22:28:07.03	37.48	9.18	
2025-01-09 22:28:07.23	37.50	9.19	
2025-01-09 22:28:07.44	37.53	9.21	
2025-01-09 22:28:07.64	37.56	9.22	
2025-01-09 22:28:07.85	37.58	9.23	
2025-01-09 22:28:08.05	37.61	9.24	
2025-01-09 22:28:08.26	37.63	9.25	
2025-01-09 22:28:08.46	37.66	9.26	
2025-01-09 22:28:08.67	37.69	9.28	
2025-01-09 22:28:08.87	37.71	9.29	
2025-01-09 22:28:09.09	37.74	9.30	
2025-01-09 22:28:09.29	37.76	9.31	
2025-01-09 22:28:09.50	37.79	9.33	
2025-01-09 22:28:09.70	37.82	9.34	
2025-01-09 22:28:09.91	37.84	9.35	
2025-01-09 22:28:10.12	37.87	9.36	
2025-01-09 22:28:10.32	37.89	9.37	
2025-01-09 22:28:10.53	37.92	9.39	
2025-01-09 22:28:10.73	37.95	9.40	
2025-01-09 22:28:10.94	37.97	9.41	
2025-01-09 22:28:11.14	38.00	9.42	
2025-01-09 22:28:11.35	38.02	9.43	
2025-01-09 22:28:11.56	38.05	9.45	
2025-01-09 22:28:11.76	38.08	9.46	
2025-01-09 22:28:11.96	38.10	9.47	
2025-01-09 22:28:12.17	38.13	9.48	
2025-01-09 22:28:12.38	38.16	9.49	
2025-01-09 22:28:12.58	38.18	9.50	
2025-01-09 22:28:12.79	38.21	9.52	
2025-01-09 22:28:12.99	38.23	9.53	
2025-01-09 22:28:13.20	38.26	9.54	
2025-01-09 22:28:13.40	38.29	9.55	
2025-01-09 22:28:13.61	38.31	9.56	
2025-01-09 22:28:13.82	38.34	9.58	
2025-01-09 22:28:14.03	38.37	9.59	
2025-01-09 22:28:14.24	38.39	9.60	
2025-01-09 22:28:14.44	38.42	9.61	
2025-01-09 22:28:14.65	38.45	9.63	
2025-01-09 22:28:14.86	38.47	9.64	
2025-01-09 22:28:15.06	38.50	9.65	
2025-01-09 22:28:15.27	38.53	9.66	
2025-01-09 22:28:15.47	38.55	9.67	
2025-01-09 22:28:15.68	38.58	9.69	
2025-01-09 22:28:15.88	38.60	9.70	
2025-01-09 22:28:16.08	38.63	9.71	
2025-01-09 22:28:16.29	38.66	9.72	
2025-01-09 22:28:16.50	38.69	9.73	
2025-01-09 22:28:16.70	38.71	9.74	
2025-01-09 22:28:16.91	38.74	9.76	
2025-01-09 22:28:17.11	38.76	9.77	
2025-01-09 22:28:17.31	38.79	9.78	
2025-01-09 22:28:17.52	38.82	9.79	
2025-01-09 22:28:17.72	38.84	9.80	
2025-01-09 22:28:17.93	38.87	9.82	
2025-01-09 22:28:18.13	38.90	9.83	
2025-01-09 22:28:18.34	38.92	9.84	
2025-01-09 22:28:18.54	38.95	9.85	
2025-01-09 22:28:18.75	38.98	9.86	
2025-01-09 22:28:18.95	39.00	9.88	
2025-01-09 22:28:19.16	39.03	9.89	
2025-01-09 22:28:19.36	39.06	9.90	
2025-01-09 22:28:19.57	39.09	9.91	
2025-01-09 22:28:19.78	39.11	9.92	
2025-01-09 22:28:19.98	39.14	9.94	
2025-01-09 22:28:20.19	39.17	9.95	
2025-01-09 22:28:20.39	39.19	9.96	
2025-01-09 22:28:20.60	39.22	9.97	
2025-01-09 22:28:20.80	39.25	9.98	
2025-01-09 22:28:21.01	39.27	10.00	
2025-01-09 22:28:21.21	39.30	10.01	
2025-01-09 22:28:21.42	39.33	10.02	
2025-01-09 22:28:21.62	39.36	10.03	
2025-01-09 22:28:21.83	39.38	10.04	
2025-01-09 22:28:22.03	39.41	10.06	
2025-01-09 22:28:22.24	39.44	10.07	
2025-01-09 22:28:22.45	39.47	10.08	
2025-01-09 22:28:22.66	39.49	10.09	
2025-01-09 22:28:22.87	39.52	10.10	
2025-01-09 22:28:23.07	39.55	10.12	
2025-01-09 22:28:23.28	39.58	10.13	
2025-01-09 22:28:23.48	39.60	10.14	
2025-01-09 22:28:23.69	39.63	10.15	
2025-01-09 22:28:23.89	39.66	10.16	
2025-01-09 22:28:24.10	39.68	10.18	
2025-01-09 22:28:24.31	39.71	10.19	
2025-01-09 22:28:24.51	39.74	10.20	
2025-01-09 22:28:24.72	39.77	10.21	
2025-01-09 22:28:24.92	39.79	10.22	
2025-01-09 22:28:25.13	39.82	10.24	
2025-01-09 22:28:25.33	39.85	10.25	
2025-01-09 22:28:25.54	39.88	10.26	
2025-01-09 22:28:25.76	39.91	10.27	
2025-01-09 22:28:25.96	39.93	10.29	
2025-01-09 22:28:26.17	39.96	10.30	
2025-01-09 22:28:26.37	39.99	10.31	
2025-01-09 22:28:26.58	40.02	10.32	
2025-01-09 22:28:26.78	40.04	10.33	
2025-01-09 22:28:26.99	40.07	10.35	
2025-01-09 22:28:27.20	40.10	10.36	
2025-01-09 22:28:27.40	40.13	10.37	
2025-01-09 22:28:27.61	40.16	10.38	
2025-01-09 22:28:27.81	40.18	10.39	
2025-01-09 22:28:28.02	40.21	10.41	
2025-01-09 22:28:28.22	40.24	10.42	
2025-01-09 22:28:28.43	40.27	10.43	
2025-01-09 22:28:28.63	40.29	10.44	
2025-01-09 22:28:28.84	40.32	10.45	
2025-01-09 22:28:29.04	40.35	10.47	
2025-01-09 22:28:29.25	40.38	10.48	
2025-01-09 22:28:29.45	40.41	10.49	
2025-01-09 22:28:29.66	40.44	10.50	
2025-01-09 22:28:29.87	40.46	10.51	
2025-01-09 22:28:30.07	40.49	10.53	
2025-01-09 22:28:30.28	40.52	10.54	
2025-01-09 22:28:30.48	40.55	10.55	
2025-01-09 22:28:30.69	40.58	10.56	
2025-01-09 22:28:30.89	40.60	10.57	
2025-01-09 22:28:31.10	40.63	10.59	
2025-01-09 22:28:31.30	40.66	10.60	
2025-01-09 22:28:31.51	40.69	10.61	
2025-01-09 22:28:31.71	40.72	10.62	
2025-01-09 22:28:31.92	40.74	10.63	
2025-01-09 22:28:32.12	40.77	10.64	
2025-01-09 22:28:32.33	40.80	10.66	
2025-01-09 22:28:32.53	40.83	10.67	
2025-01-09 22:28:32.74	40.86	10.68	
2025-01-09 22:28:32.94	40.89	10.69	
2025-01-09 22:28:33.15	40.91	10.71	
2025-01-09 22:28:33.35	40.94	10.72	
2025-01-09 22:28:33.56	40.97	10.73	
2025-01-09 22:28:33.76	41.00	10.74	
2025-01-09 22:28:33.97	41.03	10.75	
2025-01-09 22:28:34.17	41.06	10.76	
2025-01-09 22:28:34.38	41.08	10.78	
2025-01-09 22:28:34.58	41.11	10.79	
2025-01-09 22:28:34.79	41.14	10.80	
2025-01-09 22:28:34.99	41.17	10.81	
2025-01-09 22:28:35.20	41.20	10.82	
2025-01-09 22:28:35.40	41.23	10.84	
2025-01-09 22:28:35.61	41.26	10.85	
2025-01-09 22:28:35.81	41.28	10.86	
2025-01-09 22:28:36.02	41.31	10.87	
2025-01-09 22:28:36.23	41.34	10.88	
2025-01-09 22:28:36.43	41.37	10.90	
2025-01-09 22:28:36.64	41.40	10.91	
2025-01-09 22:28:36.84	41.43	10.92	
2025-01-09 22:28:37.05	41.46	10.93	
2025-01-09 22:28:37.25	41.49	10.94	
2025-01-09 22:28:37.46	41.51	10.96	
2025-01-09 22:28:37.66	41.54	10.97	
2025-01-09 22:28:37.87	41.57	10.98	
2025-01-09 22:28:38.08	41.60	10.99	
2025-01-09 22:28:38.28	41.63	11.00	
2025-01-09 22:28:38.48	41.66	11.02	
2025-01-09 22:28:38.69	41.69	11.03	
2025-01-09 22:28:38.90	41.72	11.04	
2025-01-09 22:28:39.10	41.75	11.05	
2025-01-09 22:28:39.31	41.78	11.06	
2025-01-09 22:28:39.51	41.80	11.08	
2025-01-09 22:28:39.72	41.83	11.09	
2025-01-09 22:28:39.92	41.86	11.10	
2025-01-09 22:28:40.13	41.89	11.11	
2025-01-09 22:28:40.33	41.92	11.12	
2025-01-09 22:28:40.54	41.95	11.14	
2025-01-09 22:28:40.74	41.98	11.15	
2025-01-09 22:28:40.95	42.01	11.16	
2025-01-09 22:28:41.16	42.04	11.17	
2025-01-09 22:28:41.36	42.07	11.18	
2025-01-09 22:28:41.57	42.10	11.20	
2025-01-09 22:28:41.77	42.13	11.21	
2025-01-09 22:28:41.98	42.16	11.22	
2025-01-09 22:28:42.18	42.18	11.23	
2025-01-09 22:28:42.39	42.21	11.24	
2025-01-09 22:28:42.59	42.24	11.26	
2025-01-09 22:28:42.80	42.27	11.27	
2025-01-09 22:28:43.00	42.30	11.28	
2025-01-09 22:28:43.21	42.33	11.29	
2025-01-09 22:28:43.41	42.36	11.30	
2025-01-09 22:28:43.62	42.39	11.32	
2025-01-09 22:28:43.82	42.42	11.33	
2025-01-09 22:28:44.03	42.45	11.34	
2025-01-09 22:28:44.23	42.48	11.35	
2025-01-09 22:28:44.44	42.51	11.36	
2025-01-09 22:28:44.64	42.54	11.38	
2025-01-09 22:28:44.85	42.57	11.39	
2025-01-09 22:28:45.05	42.60	11.40	
2025-01-09 22:28:45.26	42.63	11.41	
2025-01-09 22:28:45.46	42.66	11.42	
2025-01-09 22:28:45.67	42.69	11.44	
2025-01-09 22:28:45.88	42.72	11.45	
2025-01-09 22:28:46.08	42.75	11.46	
2025-01-09 22:28:46.28	42.78	11.47	
2025-01-09 22:28:46.49	42.81	11.48	
2025-01-09 22:28:46.70	42.84	11.49	
2025-01-09 22:28:46.90	42.87	11.51	
2025-01-09 22:28:47.10	42.89	11.52	
2025-01-09 22:28:47.31	42.93	11.53	
2025-01-09 22:28:47.52	42.96	11.54	
2025-01-09 22:28:47.72	42.99	11.55	
2025-01-09 22:28:47.93	43.02	11.57	
2025-01-09 22:28:48.13	43.05	11.58	
2025-01-09 22:28:48.34	43.08	11.59	
2025-01-09 22:28:48.55	43.11	11.60	
2025-01-09 22:28:48.75	43.14	11.61	
2025-01-09 22:28:48.96	43.17	11.63	
2025-01-09 22:28:49.16	43.20	11.64	
2025-01-09 22:28:49.37	43.23	11.65	
2025-01-09 22:28:49.57	43.26	11.66	
2025-01-09 22:28:49.78	43.29	11.67	
2025-01-09 22:28:49.98	43.32	11.69	
2025-01-09 22:28:50.19	43.35	11.70	
2025-01-09 22:28:50.39	43.38	11.71	
2025-01-09 22:28:50.60	43.41	11.72	
2025-01-09 22:28:50.80	43.44	11.73	
2025-01-09 22:28:51.01	43.47	11.75	
2025-01-09 22:28:51.21	43.50	11.76	
2025-01-09 22:28:51.42	43.53	11.77	
2025-01-09 22:28:51.62	43.56	11.78	
2025-01-09 22:28:51.83	43.59	11.79	
2025-01-09 22:28:52.04	43.62	11.81	
2025-01-09 22:28:52.24	43.65	11.82	
2025-01-09 22:28:52.45	43.68	11.83	
2025-01-09 22:28:52.65	43.71	11.84	
2025-01-09 22:28:52.86	43.74	11.85	
2025-01-09 22:28:53.06	43.77	11.86	
2025-01-09 22:28:53.27	43.81	11.88	
2025-01-09 22:28:53.47	43.84	11.89	
2025-01-09 22:28:53.68	43.87	11.90	
2025-01-09 22:28:53.88	43.90	11.91	
2025-01-09 22:28:54.09	43.93	11.92	
2025-01-09 22:28:54.29	43.96	11.94	
2025-01-09 22:28:54.50	43.99	11.95	
2025-01-09 22:28:54.70	44.02	11.96	
2025-01-09 22:28:54.91	44.05	11.97	
2025-01-09 22:28:55.12	44.08	11.98	
2025-01-09 22:28:55.32	44.11	12.00	
2025-01-09 22:28:55.52	44.14	12.01	
2025-01-09 22:28:55.73	44.17	12.02	
2025-01-09 22:28:55.94	44.21	12.03	
2025-01-09 22:28:56.14	44.24	12.04	
2025-01-09 22:28:56.35	44.27	12.06	
2025-01-09 22:28:56.55	44.30	12.07	
2025-01-09 22:28:56.76	44.33	12.08	
2025-01-09 22:28:56.96	44.36	12.09	
2025-01-09 22:28:57.17	44.39	12.10	
2025-01-09 22:28:57.37	44.42	12.11	
2025-01-09 22:28:57.58	44.45	12.13	
2025-01-09 22:28:57.78	44.48	12.14	
2025-01-09 22:28:57.99	44.52	12.15	
2025-01-09 22:28:58.20	44.55	12.16	
2025-01-09 22:28:58.40	44.58	12.17	
2025-01-09 22:28:58.61	44.61	12.19	
2025-01-09 22:28:58.81	44.64	12.20	
2025-01-09 22:28:59.02	44.67	12.21	
2025-01-09 22:28:59.22	44.70	12.22	
2025-01-09 22:28:59.43	44.74	12.23	
2025-01-09 22:28:59.64	44.77	12.25	
2025-01-09 22:28:59.84	44.80	12.26	
2025-01-09 22:29:00.04	44.83	12.27	
2025-01-09 22:29:00.26	44.86	12.28	
2025-01-09 22:29:00.47	44.90	12.29	
2025-01-09 22:29:00.67	44.93	12.30	
2025-01-09 22:29:00.88	44.96	12.32	
2025-01-09 22:29:01.08	44.99	12.33	
2025-01-09 22:29:01.29	45.02	12.34	
2025-01-09 22:29:01.49	45.05	12.35	
2025-01-09 22:29:01.70	45.08	12.36	
2025-01-09 22:29:01.90	45.12	12.38	
2025-01-09 22:29:02.11	45.15	12.39	
2025-01-09 22:29:02.31	45.18	12.40	
2025-01-09 22:29:02.52	45.21	12.41	
2025-01-09 22:29:02.72	45.24	12.42	
2025-01-09 22:29:02.93	45.27	12.43	
2025-01-09 22:29:03.13	45.31	12.45	
2025-01-09 22:29:03.34	45.34	12.46	
2025-01-09 22:29:03.54	45.37	12.47	
2025-01-09 22:29:03.75	45.40	12.48	
2025-01-09 22:29:03.95	45.43	12.49	
2025-01-09 22:29:04.16	45.47	12.51	
2025-01-09 22:29:04.36	45.50	12.52	
2025-01-09 22:29:04.57	45.53	12.53	
2025-01-09 22:29:04.77	45.56	12.54	
2025-01-09 22:29:04.98	45.59	12.55	
2025-01-09 22:29:05.18	45.62	12.56	
2025-01-09 22:29:05.39	45.66	12.58	
2025-01-09 22:29:05.60	45.69	12.59	
2025-01-09 22:29:05.80	45.72	12.60	
2025-01-09 22:29:06.01	45.75	12.61	
2025-01-09 22:29:06.21	45.79	12.62	
2025-01-09 22:29:06.42	45.82	12.64	
2025-01-09 22:29:06.63	45.85	12.65	
2025-01-09 22:29:06.83	45.88	12.66	
2025-01-09 22:29:07.04	45.92	12.67	
2025-01-09 22:29:07.24	45.95	12.68	
2025-01-09 22:29:07.44	45.98	12.69	
2025-01-09 22:29:07.65	46.01	12.71	
2025-01-09 22:29:07.86	46.05	12.72	
2025-01-09 22:29:08.06	46.08	12.73	
2025-01-09 22:29:08.27	46.11	12.74	
2025-01-09 22:29:08.49	46.15	12.75	
2025-01-09 22:29:08.69	46.18	12.77	
2025-01-09 22:29:08.90	46.21	12.78	
2025-01-09 22:29:09.10	46.24	12.79	
2025-01-09 22:29:09.31	46.28	12.80	
2025-01-09 22:29:09.51	46.31	12.81	
2025-01-09 22:29:09.72	46.34	12.82	
2025-01-09 22:29:09.92	46.37	12.84	
2025-01-09 22:29:10.13	46.41	12.85	
2025-01-09 22:29:10.33	46.44	12.86	
2025-01-09 22:29:10.54	46.47	12.87	
2025-01-09 22:29:10.74	46.50	12.88	
2025-01-09 22:29:10.95	46.54	12.90	
2025-01-09 22:29:11.16	46.57	12.91	
2025-01-09 22:29:11.36	46.60	12.92	
2025-01-09 22:29:11.57	46.64	12.93	
2025-01-09 22:29:11.77	46.67	12.94	
2025-01-09 22:29:11.98	46.70	12.95	
2025-01-09 22:29:12.18	46.73	12.97	
2025-01-09 22:29:12.39	46.77	12.98	
2025-01-09 22:29:12.59	46.80	12.99	
2025-01-09 22:29:12.80	46.83	13.00	
2025-01-09 22:29:13.00	46.86	13.01	
2025-01-09 22:29:13.21	46.90	13.02	
2025-01-09 22:29:13.41	46.93	13.04	
2025-01-09 22:29:13.62	46.96	13.05	
2025-01-09 22:29:13.84	47.00	13.06	
2025-01-09 22:29:14.04	47.03	13.07	
2025-01-09 22:29:14.25	47.07	13.08	
2025-01-09 22:29:14.45	47.10	13.09	
2025-01-09 22:29:14.66	47.13	13.11	
2025-01-09 22:29:14.86	47.17	13.12	
2025-01-09 22:29:15.07	47.20	13.13	
2025-01-09 22:29:15.27	47.23	13.14	
2025-01-09 22:29:15.48	47.27	13.15	
2025-01-09 22:29:15.68	47.30	13.16	
2025-01-09 22:29:15.89	47.33	13.18	
2025-01-09 22:29:16.09	47.36	13.19	
2025-01-09 22:29:16.30	47.40	13.20	
2025-01-09 22:29:16.51	47.43	13.21	
2025-01-09 22:29:16.71	47.47	13.22	
2025-01-09 22:29:16.92	47.50	13.23	
2025-01-09 22:29:17.12	47.53	13.25	
2025-01-09 22:29:17.33	47.57	13.26	
2025-01-09 22:29:17.53	47.60	13.27	
2025-01-09 22:29:17.74	47.63	13.28	
2025-01-09 22:29:17.94	47.67	13.29	
2025-01-09 22:29:18.15	47.70	13.30	
2025-01-09 22:29:18.35	47.73	13.32	
2025-01-09 22:29:18.56	47.77	13.33	
2025-01-09 22:29:18.76	47.80	13.34	
2025-01-09 22:29:18.97	47.84	13.35	
2025-01-09 22:29:19.17	47.87	13.36	
2025-01-09 22:29:19.38	47.90	13.37	
2025-01-09 22:29:19.59	47.94	13.39	
2025-01-09 22:29:19.79	47.97	13.40	
2025-01-09 22:29:20.00	48.01	13.41	
2025-01-09 22:29:20.20	48.04	13.42	
2025-01-09 22:29:20.41	48.07	13.43	
2025-01-09 22:29:20.61	48.11	13.44	
2025-01-09 22:29:20.82	48.14	13.46	
2025-01-09 22:29:21.02	48.17	13.47	
2025-01-09 22:29:21.23	48.21	13.48	
2025-01-09 22:29:21.43	48.24	13.49	
2025-01-09 22:29:21.64	48.28	13.50	
2025-01-09 22:29:21.84	48.31	13.51	
2025-01-09 22:29:22.05	48.35	13.52	
2025-01-09 22:29:22.27	48.38	13.54	
2025-01-09 22:29:22.47	48.42	13.55	
2025-01-09 22:29:22.68	48.45	13.56	
2025-01-09 22:29:22.88	48.48	13.57	
2025-01-09 22:29:23.09	48.52	13.58	
2025-01-09 22:29:23.29	48.55	13.59	
2025-01-09 22:29:23.50	48.59	13.61	
2025-01-09 22:29:23.70	48.62	13.62	
2025-01-09 22:29:23.91	48.66	13.63	
2025-01-09 22:29:24.11	48.69	13.64	
2025-01-09 22:29:24.32	48.73	13.65	
2025-01-09 22:29:24.52	48.76	13.66	
2025-01-09 22:29:24.73	48.79	13.68	
2025-01-09 22:29:24.94	48.83	13.69	
2025-01-09 22:29:25.14	48.86	13.70	
2025-01-09 22:29:25.35	48.90	13.71	
2025-01-09 22:29:25.55	48.93	13.72	
2025-01-09 22:29:25.76	48.97	13.73	
2025-01-09 22:29:25.96	49.00	13.74	
2025-01-09 22:29:26.17	49.04	13.76	
2025-01-09 22:29:26.38	49.07	13.77	
2025-01-09 22:29:26.58	49.11	13.78	
2025-01-09 22:29:26.79	49.14	13.79	
2025-01-09 22:29:26.99	49.18	13.80	
2025-01-09 22:29:27.20	49.21	13.81	
2025-01-09 22:29:27.41	49.25	13.83	
2025-01-09 22:29:27.62	49.28	13.84	
2025-01-09 22:29:27.83	49.32	13.85	
2025-01-09 22:29:28.03	49.35	13.86	
2025-01-09 22:29:28.24	49.39	13.87	
2025-01-09 22:29:28.45	49.42	13.88	
2025-01-09 22:29:28.65	49.46	13.89	
2025-01-09 22:29:28.86	49.49	13.91	
2025-01-09 22:29:29.06	49.53	13.92	
2025-01-09 22:29:29.27	49.56	13.93	
2025-01-09 22:29:29.47	49.60	13.94	
2025-01-09 22:29:29.67	49.63	13.95	
2025-01-09 22:29:29.88	49.67	13.96	
2025-01-09 22:29:30.09	49.70	13.97	
2025-01-09 22:29:30.29	49.74	13.99	
2025-01-09 22:29:30.50	49.77	14.00	
2025-01-09 22:29:30.70	49.81	14.01	
2025-01-09 22:29:30.91	49.84	14.02	
2025-01-09 22:29:31.12	49.88	14.03	
2025-01-09 22:29:31.32	49.92	14.04	
2025-01-09 22:29:31.53	49.95	14.05	
2025-01-09 22:29:31.73	49.99	14.07	
2025-01-09 22:29:31.95	50.02	14.08	
2025-01-09 22:29:32.16	50.06	14.09	
2025-01-09 22:29:32.36	50.09	14.10	
2025-01-09 22:29:32.57	50.13	14.11	
2025-01-09 22:29:32.77	50.17	14.12	
2025-01-09 22:29:32.99	50.20	14.13	
2025-01-09 22:29:33.19	50.24	14.15	
2025-01-09 22:29:33.40	50.27	14.16	
2025-01-09 22:29:33.61	50.31	14.17	
2025-01-09 22:29:33.81	50.35	14.18	
2025-01-09 22:29:34.03	50.38	14.19	
2025-01-09 22:29:34.23	50.42	14.20	
2025-01-09 22:29:34.44	50.46	14.21	
2025-01-09 22:29:34.65	50.49	14.23	
2025-01-09 22:29:34.85	50.53	14.24	
2025-01-09 22:29:35.05	50.56	14.25	
2025-01-09 22:29:35.26	50.60	14.26	
2025-01-09 22:29:35.47	50.64	14.27	
2025-01-09 22:29:35.67	50.67	14.28	
2025-01-09 22:29:35.88	50.71	14.29	
2025-01-09 22:29:36.08	50.74	14.30	
2025-01-09 22:29:36.29	50.78	14.32	
2025-01-09 22:29:36.49	50.81	14.33	
2025-01-09 22:29:36.70	50.85	14.34	
2025-01-09 22:29:36.91	50.89	14.35	
2025-01-09 22:29:37.11	50.92	14.36	
2025-01-09 22:29:37.31	50.96	14.37	
2025-01-09 22:29:37.52	50.99	14.38	
2025-01-09 22:29:37.73	51.03	14.40	
2025-01-09 22:29:37.93	51.07	14.41	
2025-01-09 22:29:38.14	51.10	14.42	
2025-01-09 22:29:38.34	51.14	14.43	
2025-01-09 22:29:38.55	51.18	14.44	
2025-01-09 22:29:38.75	51.21	14.45	
2025-01-09 22:29:38.96	51.25	14.46	
2025-01-09 22:29:39.17	51.29	14.47	
2025-01-09 22:29:39.38	51.32	14.49	
2025-01-09 22:29:39.59	51.36	14.50	
2025-01-09 22:29:39.79	51.40	14.51	
2025-01-09 22:29:40.00	51.43	14.52	
2025-01-09 22:29:40.21	51.47	14.53	
2025-01-09 22:29:40.41	51.51	14.54	
2025-01-09 22:29:40.62	51.54	14.55	
2025-01-09 22:29:40.82	51.58	14.56	
2025-01-09 22:29:41.02	51.62	14.57	
2025-01-09 22:29:41.23	51.65	14.59	
2025-01-09 22:29:41.44	51.69	14.60	
2025-01-09 22:29:41.64	51.73	14.61	
2025-01-09 22:29:41.85	51.76	14.62	
2025-01-09 22:29:42.05	51.80	14.63	
2025-01-09 22:29:42.26	51.84	14.64	
2025-01-09 22:29:42.46	51.87	14.65	
2025-01-09 22:29:42.67	51.91	14.66	
2025-01-09 22:29:42.87	51.95	14.67	
2025-01-09 22:29:43.08	51.98	14.69	
2025-01-09 22:29:43.28	52.02	14.70	
2025-01-09 22:29:43.49	52.06	14.71	
2025-01-09 22:29:43.69	52.09	14.72	
2025-01-09 22:29:43.90	52.13	14.73	
2025-01-09 22:29:44.11	52.17	14.74	
2025-01-09 22:29:44.31	52.21	14.75	
2025-01-09 22:29:44.52	52.24	14.76	
2025-01-09 22:29:44.74	52.28	14.77	
2025-01-09 22:29:44.94	52.32	14.79	
2025-01-09 22:29:45.15	52.36	14.80	
2025-01-09 22:29:45.35	52.39	14.81	
2025-01-09 22:29:45.56	52.43	14.82	
2025-01-09 22:29:45.76	52.47	14.83	
2025-01-09 22:29:45.97	52.51	14.84	
2025-01-09 22:29:46.17	52.54	14.85	
2025-01-09 22:29:46.38	52.58	14.86	
2025-01-09 22:29:46.58	52.62	14.87	
2025-01-09 22:29:46.79	52.65	14.88	
2025-01-09 22:29:46.99	52.69	14.90	
2025-01-09 22:29:47.20	52.73	14.91	
2025-01-09 22:29:47.40	52.77	14.92	
2025-01-09 22:29:47.61	52.80	14.93	
2025-01-09 22:29:47.81	52.84	14.94	
2025-01-09 22:29:48.02	52.88	14.95	
2025-01-09 22:29:48.23	52.92	14.96	
2025-01-09 22:29:48.43	52.95	14.97	
2025-01-09 22:29:48.64	52.99	14.98	
2025-01-09 22:29:48.84	53.03	14.99	
2025-01-09 22:29:49.06	53.07	15.01	
2025-01-09 22:29:49.27	53.11	15.02	
2025-01-09 22:29:49.47	53.14	15.03	
2025-01-09 22:29:49.68	53.18	15.04	
2025-01-09 22:29:49.88	53.22	15.05	
2025-01-09 22:29:50.08	53.26	15.06	
2025-01-09 22:29:50.29	53.30	15.07	
2025-01-09 22:29:50.49	53.33	15.08	
2025-01-09 22:29:50.70	53.37	15.09	
2025-01-09 22:29:50.90	53.41	15.10	
2025-01-09 22:29:51.11	53.45	15.11	
2025-01-09 22:29:51.32	53.49	15.13	
2025-01-09 22:29:51.52	53.52	15.14	
2025-01-09 22:29:51.73	53.56	15.15	
2025-01-09 22:29:51.93	53.60	15.16	
2025-01-09 22:29:52.13	53.64	15.17	
2025-01-09 22:29:52.34	53.67	15.18	
2025-01-09 22:29:52.55	53.71	15.19	
2025-01-09 22:29:52.75	53.75	15.20	
2025-01-09 22:29:52.96	53.79	15.21	
2025-01-09 22:29:53.16	53.83	15.22	
2025-01-09 22:29:53.37	53.87	15.23	
2025-01-09 22:29:53.58	53.90	15.24	
2025-01-09 22:29:53.78	53.94	15.25	
2025-01-09 22:29:53.99	53.98	15.27	
2025-01-09 22:29:54.19	54.02	15.28	
2025-01-09 22:29:54.40	54.06	15.29	
2025-01-09 22:29:54.60	54.10	15.30	
2025-01-09 22:29:54.81	54.13	15.31	
2025-01-09 22:29:55.01	54.17	15.32	
2025-01-09 22:29:55.22	54.21	15.33	
2025-01-09 22:29:55.42	54.25	15.34	
2025-01-09 22:29:55.63	54.29	15.35	
2025-01-09 22:29:55.84	54.33	15.36	
2025-01-09 22:29:56.04	54.36	15.37	
2025-01-09 22:29:56.25	54.40	15.38	
2025-01-09 22:29:56.45	54.44	15.39	
2025-01-09 22:29:56.65	54.48	15.40	
2025-01-09 22:29:56.86	54.52	15.41	
2025-01-09 22:29:57.07	54.56	15.43	
2025-01-09 22:29:57.27	54.60	15.44	
2025-01-09 22:29:57.47	54.63	15.45	
2025-01-09 22:29:57.68	54.67	15.46	
2025-01-09 22:29:57.89	54.71	15.47	
2025-01-09 22:29:58.09	54.75	15.48	
2025-01-09 22:29:58.30	54.79	15.49	
2025-01-09 22:29:58.50	54.83	15.50	
2025-01-09 22:29:58.71	54.87	15.51	
2025-01-09 22:29:58.92	54.91	15.52	
2025-01-09 22:29:59.12	54.95	15.53	
2025-01-09 22:29:59.33	54.99	15.54	
2025-01-09 22:29:59.53	55.02	15.55	
2025-01-09 22:29:59.74	55.06	15.56	
2025-01-09 22:29:59.94	55.10	15.57	
2025-01-09 22:30:00.14	55.14	15.58	
2025-01-09 22:30:00.35	55.18	15.59	
2025-01-09 22:30:00.55	55.22	15.60	
2025-01-09 22:30:00.76	55.26	15.61	
2025-01-09 22:30:00.96	55.30	15.63	
2025-01-09 22:30:01.17	55.34	15.64	
2025-01-09 22:30:01.37	55.38	15.65	
2025-01-09 22:30:01.58	55.42	15.66	
2025-01-09 22:30:01.78	55.45	15.67	
2025-01-09 22:30:01.99	55.49	15.68	
2025-01-09 22:30:02.19	55.53	15.69	
2025-01-09 22:30:02.40	55.57	15.70	
2025-01-09 22:30:02.61	55.61	15.71	
2025-01-09 22:30:02.81	55.65	15.72	
2025-01-09 22:30:03.01	55.69	15.73	
2025-01-09 22:30:03.22	55.73	15.74	
2025-01-09 22:30:03.43	55.77	15.75	
2025-01-09 22:30:03.63	55.81	15.76	
2025-01-09 22:30:03.84	55.85	15.77	
2025-01-09 22:30:04.04	55.89	15.78	
2025-01-09 22:30:04.24	55.93	15.79	
2025-01-09 22:30:04.45	55.97	15.80	
2025-01-09 22:30:04.66	56.01	15.81	
2025-01-09 22:30:04.86	56.05	15.82	
2025-01-09 22:30:05.07	56.09	15.83	
2025-01-09 22:30:05.27	56.13	15.84	
2025-01-09 22:30:05.48	56.17	15.85	
2025-01-09 22:30:05.68	56.21	15.86	
2025-01-09 22:30:05.89	56.25	15.87	
2025-01-09 22:30:06.10	56.29	15.88	
2025-01-09 22:30:06.30	56.33	15.89	
2025-01-09 22:30:06.50	56.36	15.90	
2025-01-09 22:30:06.71	56.41	15.92	
2025-01-09 22:30:06.92	56.45	15.93	
2025-01-09 22:30:07.12	56.49	15.94	
2025-01-09 22:30:07.33	56.53	15.95	
2025-01-09 22:30:07.53	56.57	15.96	
2025-01-09 22:30:07.74	56.61	15.97	
2025-01-09 22:30:07.94	56.65	15.98	
2025-01-09 22:30:08.15	56.69	15.99	
2025-01-09 22:30:08.35	56.73	16.00	
2025-01-09 22:30:08.56	56.77	16.01	
2025-01-09 22:30:08.76	56.81	16.02	
2025-01-09 22:30:08.97	56.85	16.03	
2025-01-09 22:30:09.17	56.89	16.04	
2025-01-09 22:30:09.38	56.93	16.05	
2025-01-09 22:30:09.58	56.97	16.06	
2025-01-09 22:30:09.79	57.01	16.07	
2025-01-09 22:30:09.99	57.05	16.08	
2025-01-09 22:30:10.20	57.09	16.09	
2025-01-09 22:30:10.40	57.13	16.10	
2025-01-09 22:30:10.61	57.17	16.11	
2025-01-09 22:30:10.81	57.21	16.12	
2025-01-09 22:30:11.02	57.25	16.13	
2025-01-09 22:30:11.23	57.29	16.14	
2025-01-09 22:30:11.43	57.33	16.15	
2025-01-09 22:30:11.63	57.37	16.16	
2025-01-09 22:30:11.84	57.41	16.17	
2025-01-09 22:30:12.04	57.45	16.18	
2025-01-09 22:30:12.25	57.49	16.19	
2025-01-09 22:30:12.45	57.53	16.20	
2025-01-09 22:30:12.66	57.58	16.21	
2025-01-09 22:30:12.86	57.61	16.22	
2025-01-09 22:30:13.07	57.66	16.23	
2025-01-09 22:30:13.27	57.70	16.24	
2025-01-09 22:30:13.48	57.74	16.25	
2025-01-09 22:30:13.68	57.78	16.26	
2025-01-09 22:30:13.89	57.82	16.27	
2025-01-09 22:30:14.09	57.86	16.28	
2025-01-09 22:30:14.30	57.90	16.29	
2025-01-09 22:30:14.51	57.94	16.30	
2025-01-09 22:30:14.72	57.99	16.31	
2025-01-09 22:30:14.93	58.03	16.32	
2025-01-09 22:30:15.14	58.07	16.33	
2025-01-09 22:30:15.34	58.11	16.34	
2025-01-09 22:30:15.54	58.15	16.35	
2025-01-09 22:30:15.75	58.19	16.36	
2025-01-09 22:30:15.95	58.23	16.37	
2025-01-09 22:30:16.16	58.27	16.38	
2025-01-09 22:30:16.36	58.31	16.39	
2025-01-09 22:30:16.57	58.36	16.40	
2025-01-09 22:30:16.77	58.40	16.41	
2025-01-09 22:30:16.98	58.44	16.42	
2025-01-09 22:30:17.19	58.48	16.43	
2025-01-09 22:30:17.39	58.52	16.44	
2025-01-09 22:30:17.60	58.56	16.45	
2025-01-09 22:30:17.80	58.60	16.45	
2025-01-09 22:30:18.00	58.64	16.46	
2025-01-09 22:30:18.21	58.69	16.47	
2025-01-09 22:30:18.42	58.73	16.48	
2025-01-09 22:30:18.62	58.77	16.49	
2025-01-09 22:30:18.83	58.81	16.50	
2025-01-09 22:30:19.04	58.85	16.51	
2025-01-09 22:30:19.25	58.90	16.52	
2025-01-09 22:30:19.46	58.94	16.53	
2025-01-09 22:30:19.66	58.98	16.54	
2025-01-09 22:30:19.87	59.02	16.55	
2025-01-09 22:30:20.07	59.06	16.56	
2025-01-09 22:30:20.28	59.11	16.57	
2025-01-09 22:30:20.48	59.15	16.58	
2025-01-09 22:30:20.69	59.19	16.59	
2025-01-09 22:30:20.89	59.23	16.60	
2025-01-09 22:30:21.11	59.27	16.61	
2025-01-09 22:30:21.32	59.32	16.62	
2025-01-09 22:30:21.52	59.36	16.63	
2025-01-09 22:30:21.73	59.40	16.64	
2025-01-09 22:30:21.93	59.44	16.65	
2025-01-09 22:30:22.13	59.48	16.66	
2025-01-09 22:30:22.34	59.53	16.67	
2025-01-09 22:30:22.54	59.57	16.68	
2025-01-09 22:30:22.75	59.61	16.69	
2025-01-09 22:30:22.95	59.65	16.70	
2025-01-09 22:30:23.16	59.69	16.71	
2025-01-09 22:30:23.36	59.73	16.71	
2025-01-09 22:30:23.57	59.78	16.72	
2025-01-09 22:30:23.77	59.82	16.73	
2025-01-09 22:30:23.98	59.86	16.74	
2025-01-09 22:30:24.18	59.90	16.75	
2025-01-09 22:30:24.39	59.95	16.76	
2025-01-09 22:30:24.59	59.99	16.77	
2025-01-09 22:30:24.79	60.03	16.78	
2025-01-09 22:30:25.00	60.07	16.79	
2025-01-09 22:30:25.21	60.11	16.80	
2025-01-09 22:30:25.41	60.16	16.81	
2025-01-09 22:30:25.62	60.20	16.82	
2025-01-09 22:30:25.82	60.24	16.83	
2025-01-09 22:30:26.03	60.28	16.84	
2025-01-09 22:30:26.23	60.32	16.85	
2025-01-09 22:30:26.44	60.37	16.85	
2025-01-09 22:30:26.64	60.41	16.86	
2025-01-09 22:30:26.85	60.45	16.87	
2025-01-09 22:30:27.05	60.49	16.88	
2025-01-09 22:30:27.26	60.54	16.89	
2025-01-09 22:30:27.46	60.58	16.90	
2025-01-09 22:30:27.66	60.62	16.91	
2025-01-09 22:30:27.87	60.67	16.92	
2025-01-09 22:30:28.08	60.71	16.93	
2025-01-09 22:30:28.28	60.75	16.94	
2025-01-09 22:30:28.49	60.79	16.95	
2025-01-09 22:30:28.69	60.84	16.96	
2025-01-09 22:30:28.90	60.88	16.97	
2025-01-09 22:30:29.10	60.92	16.97	
2025-01-09 22:30:29.31	60.96	16.98	
2025-01-09 22:30:29.51	61.01	16.99	
2025-01-09 22:30:29.71	61.05	17.00	
2025-01-09 22:30:29.92	61.09	17.01	
2025-01-09 22:30:30.13	61.14	17.02	
2025-01-09 22:30:30.33	61.18	17.03	
2025-01-09 22:30:30.54	61.22	17.04	
2025-01-09 22:30:30.74	61.26	17.05	
2025-01-09 22:30:30.95	61.31	17.06	
2025-01-09 22:30:31.15	61.35	17.06	
2025-01-09 22:30:31.36	61.39	17.07	
2025-01-09 22:30:31.56	61.44	17.08	
2025-01-09 22:30:31.77	61.48	17.09	
2025-01-09 22:30:31.97	61.52	17.10	
2025-01-09 22:30:32.18	61.57	17.11	
2025-01-09 22:30:32.39	61.61	17.12	
2025-01-09 22:30:32.59	61.65	17.13	
2025-01-09 22:30:32.79	61.69	17.14	
2025-01-09 22:30:33.00	61.74	17.15	
2025-01-09 22:30:33.21	61.78	17.15	
2025-01-09 22:30:33.41	61.83	17.16	
2025-01-09 22:30:33.62	61.87	17.17	
2025-01-09 22:30:33.82	61.91	17.18	
2025-01-09 22:30:34.03	61.96	17.19	
2025-01-09 22:30:34.23	62.00	17.20	
2025-01-09 22:30:34.44	62.04	17.21	
2025-01-09 22:30:34.64	62.09	17.22	
2025-01-09 22:30:34.85	62.13	17.22	
2025-01-09 22:30:35.05	62.17	17.23	
2025-01-09 22:30:35.26	62.22	17.24	
2025-01-09 22:30:35.46	62.26	17.25	
2025-01-09 22:30:35.67	62.30	17.26	
2025-01-09 22:30:35.88	62.35	17.27	
2025-01-09 22:30:36.08	62.39	17.28	
2025-01-09 22:30:36.28	62.43	17.29	
2025-01-09 22:30:36.49	62.48	17.29	
2025-01-09 22:30:36.69	62.52	17.30	
2025-01-09 22:30:36.90	62.57	17.31	
2025-01-09 22:30:37.12	62.61	17.32	
2025-01-09 22:30:37.32	62.66	17.33	
2025-01-09 22:30:37.53	62.70	17.34	
2025-01-09 22:30:37.74	62.75	17.35	
2025-01-09 22:30:37.94	62.79	17.36	
2025-01-09 22:30:38.15	62.83	17.36	
2025-01-09 22:30:38.35	62.88	17.37	
2025-01-09 22:30:38.56	62.92	17.38	
2025-01-09 22:30:38.76	62.96	17.39	
2025-01-09 22:30:38.97	63.01	17.40	
2025-01-09 22:30:39.17	63.05	17.41	
2025-01-09 22:30:39.38	63.10	17.42	
2025-01-09 22:30:39.58	63.14	17.42	
2025-01-09 22:30:39.79	63.18	17.43	
2025-01-09 22:30:39.99	63.23	17.44	
2025-01-09 22:30:40.20	63.27	17.45	
2025-01-09 22:30:40.40	63.32	17.46	
2025-01-09 22:30:40.61	63.36	17.47	
2025-01-09 22:30:40.82	63.41	17.47	
2025-01-09 22:30:41.02	63.45	17.48	
2025-01-09 22:30:41.23	63.49	17.49	
2025-01-09 22:30:41.44	63.54	17.50	
2025-01-09 22:30:41.64	63.58	17.51	
2025-01-09 22:30:41.85	63.63	17.52	
2025-01-09 22:30:42.05	63.67	17.52	
2025-01-09 22:30:42.26	63.72	17.53	
2025-01-09 22:30:42.46	63.76	17.54	
2025-01-09 22:30:42.67	63.81	17.55	
2025-01-09 22:30:42.88	63.85	17.56	
2025-01-09 22:30:43.08	63.89	17.57	
2025-01-09 22:30:43.29	63.94	17.57	
2025-01-09 22:30:43.50	63.99	17.58	
2025-01-09 22:30:43.70	64.03	17.59	
2025-01-09 22:30:43.91	64.08	17.60	
2025-01-09 22:30:44.11	64.12	17.61	
2025-01-09 22:30:44.32	64.16	17.62	
2025-01-09 22:30:44.52	64.21	17.62	
2025-01-09 22:30:44.73	64.25	17.63	
2025-01-09 22:30:44.93	64.30	17.64	
2025-01-09 22:30:45.14	64.34	17.65	
2025-01-09 22:30:45.34	64.39	17.66	
2025-01-09 22:30:45.56	64.43	17.67	
2025-01-09 22:30:45.76	64.48	17.67	
2025-01-09 22:30:45.97	64.52	17.68	
2025-01-09 22:30:46.18	64.57	17.69	
2025-01-09 22:30:46.38	64.61	17.70	
2025-01-09 22:30:46.59	64.66	17.71	
2025-01-09 22:30:46.79	64.70	17.71	
2025-01-09 22:30:46.99	64.75	17.72	
2025-01-09 22:30:47.20	64.79	17.73	
2025-01-09 22:30:47.40	64.84	17.74	
2025-01-09 22:30:47.61	64.88	17.75	
2025-01-09 22:30:47.82	64.93	17.75	
2025-01-09 22:30:48.02	64.97	17.76	
2025-01-09 22:30:48.23	65.02	17.77	
2025-01-09 22:30:48.44	65.06	17.78	
2025-01-09 22:30:48.64	65.11	17.78	
2025-01-09 22:30:48.84	65.15	17.79	
2025-01-09 22:30:49.05	65.20	17.80	
2025-01-09 22:30:49.26	65.25	17.81	
2025-01-09 22:30:49.46	65.29	17.82	
2025-01-09 22:30:49.67	65.34	17.82	
2025-01-09 22:30:49.87	65.38	17.83	
2025-01-09 22:30:50.08	65.43	17.84	
2025-01-09 22:30:50.28	65.47	17.85	
2025-01-09 22:30:50.49	65.52	17.86	
2025-01-09 22:30:50.69	65.56	17.86	
2025-01-09 22:30:50.90	65.61	17.87	
2025-01-09 22:30:51.10	65.65	17.88	
2025-01-09 22:30:51.31	65.70	17.89	
2025-01-09 22:30:51.51	65.74	17.89	
2025-01-09 22:30:51.72	65.79	17.90	
2025-01-09 22:30:51.92	65.83	17.91	
2025-01-09 22:30:52.13	65.88	17.92	
2025-01-09 22:30:52.33	65.92	17.92	
2025-01-09 22:30:52.54	65.97	17.93	
2025-01-09 22:30:52.75	66.02	17.94	
2025-01-09 22:30:52.95	66.06	17.95	
2025-01-09 22:30:53.17	66.11	17.96	
2025-01-09 22:30:53.38	66.16	17.96	
2025-01-09 22:30:53.58	66.20	17.97	
2025-01-09 22:30:53.79	66.25	17.98	
2025-01-09 22:30:53.99	66.29	17.99	
2025-01-09 22:30:54.20	66.34	17.99	
2025-01-09 22:30:54.40	66.38	18.00	
2025-01-09 22:30:54.61	66.43	18.01	
2025-01-09 22:30:54.82	66.48	18.02	
2025-01-09 22:30:55.02	66.52	18.02	
2025-01-09 22:30:55.23	66.57	18.03	
2025-01-09 22:30:55.43	66.61	18.04	
2025-01-09 22:30:55.63	66.66	18.04	
2025-01-09 22:30:55.84	66.71	18.05	
2025-01-09 22:30:56.05	66.75	18.06	
2025-01-09 22:30:56.25	66.80	18.07	
2025-01-09 22:30:56.46	66.84	18.07	
2025-01-09 22:30:56.66	66.89	18.08	
2025-01-09 22:30:56.87	66.94	18.09	
2025-01-09 22:30:57.08	66.98	18.10	
2025-01-09 22:30:57.28	67.03	18.10	
2025-01-09 22:30:57.50	67.08	18.11	
2025-01-09 22:30:57.71	67.13	18.12	
2025-01-09 22:30:57.91	67.17	18.13	
2025-01-09 22:30:58.12	67.22	18.13	
2025-01-09 22:30:58.33	67.26	18.14	
2025-01-09 22:30:58.53	67.31	18.15	
2025-01-09 22:30:58.74	67.36	18.15	
2025-01-09 22:30:58.94	67.40	18.16	
2025-01-09 22:30:59.15	67.45	18.17	
2025-01-09 22:30:59.35	67.49	18.18	
2025-01-09 22:30:59.57	67.54	18.18	
2025-01-09 22:30:59.78	67.59	18.19	
2025-01-09 22:30:59.98	67.64	18.20	
2025-01-09 22:31:00.19	67.68	18.20	
2025-01-09 22:31:00.39	67.73	18.21	
2025-01-09 22:31:00.59	67.77	18.22	
2025-01-09 22:31:00.80	67.82	18.22	
2025-01-09 22:31:01.01	67.87	18.23	
2025-01-09 22:31:01.21	67.91	18.24	
2025-01-09 22:31:01.42	67.96	18.25	
2025-01-09 22:31:01.62	68.01	18.25	
2025-01-09 22:31:01.83	68.06	18.26	
2025-01-09 22:31:02.03	68.10	18.27	
2025-01-09 22:31:02.24	68.15	18.27	
2025-01-09 22:31:02.44	68.19	18.28	
2025-01-09 22:31:02.65	68.24	18.29	
2025-01-09 22:31:02.85	68.29	18.29	
2025-01-09 22:31:03.06	68.33	18.30	
2025-01-09 22:31:03.26	68.38	18.31	
2025-01-09 22:31:03.47	68.43	18.31	
2025-01-09 22:31:03.68	68.48	18.32	
2025-01-09 22:31:03.88	68.52	18.33	
2025-01-09 22:31:04.08	68.57	18.33	
2025-01-09 22:31:04.29	68.61	18.34	
2025-01-09 22:31:04.50	68.66	18.35	
2025-01-09 22:31:04.70	68.71	18.35	
2025-01-09 22:31:04.90	68.75	18.36	
2025-01-09 22:31:05.11	68.80	18.37	
2025-01-09 22:31:05.32	68.85	18.37	
2025-01-09 22:31:05.52	68.90	18.38	
2025-01-09 22:31:05.73	68.94	18.39	
2025-01-09 22:31:05.93	68.99	18.39	
2025-01-09 22:31:06.14	69.04	18.40	
2025-01-09 22:31:06.34	69.08	18.41	
2025-01-09 22:31:06.54	69.13	18.41	
2025-01-09 22:31:06.75	69.18	18.42	
2025-01-09 22:31:06.95	69.22	18.43	
2025-01-09 22:31:07.16	69.27	18.43	
2025-01-09 22:31:07.36	69.32	18.44	
2025-01-09 22:31:07.56	69.36	18.45	
2025-01-09 22:31:07.77	69.41	18.45	
2025-01-09 22:31:07.98	69.46	18.46	
2025-01-09 22:31:08.18	69.50	18.46	
2025-01-09 22:31:08.38	69.55	18.47	
2025-01-09 22:31:08.59	69.60	18.48	
2025-01-09 22:31:08.79	69.65	18.48	
2025-01-09 22:31:09.00	69.69	18.49	
2025-01-09 22:31:09.20	69.74	18.50	
2025-01-09 22:31:09.41	69.79	18.50	
2025-01-09 22:31:09.61	69.83	18.51	
2025-01-09 22:31:09.82	69.88	18.51	
2025-01-09 22:31:10.03	69.93	18.52	
2025-01-09 22:31:10.23	69.98	18.53	
2025-01-09 22:31:10.43	70.02	18.53	
2025-01-09 22:31:10.64	70.07	18.54	
2025-01-09 22:31:10.85	70.12	18.55	
2025-01-09 22:31:11.05	70.17	18.55	
2025-01-09 22:31:11.25	70.21	18.56	
2025-01-09 22:31:11.46	70.26	18.56	
2025-01-09 22:31:11.67	70.31	18.57	
2025-01-09 22:31:11.87	70.36	18.58	
2025-01-09 22:31:12.08	70.40	18.58	
2025-01-09 22:31:12.28	70.45	18.59	
2025-01-09 22:31:12.49	70.50	18.59	
2025-01-09 22:31:12.69	70.55	18.60	
2025-01-09 22:31:12.90	70.59	18.61	
2025-01-09 22:31:13.10	70.64	18.61	
2025-01-09 22:31:13.31	70.69	18.62	
2025-01-09 22:31:13.51	70.74	18.62	
2025-01-09 22:31:13.72	70.78	18.63	
2025-01-09 22:31:13.92	70.83	18.64	
2025-01-09 22:31:14.13	70.88	18.64	
2025-01-09 22:31:14.33	70.93	18.65	
2025-01-09 22:31:14.54	70.98	18.65	
2025-01-09 22:31:14.74	71.02	18.66	
2025-01-09 22:31:14.95	71.07	18.67	
2025-01-09 22:31:15.16	71.12	18.67	
2025-01-09 22:31:15.36	71.17	18.68	
2025-01-09 22:31:15.56	71.21	18.68	
2025-01-09 22:31:15.77	71.26	18.69	
2025-01-09 22:31:15.98	71.31	18.69	
2025-01-09 22:31:16.18	71.36	18.70	
2025-01-09 22:31:16.39	71.41	18.71	
2025-01-09 22:31:16.59	71.45	18.71	
2025-01-09 22:31:16.79	71.50	18.72	
2025-01-09 22:31:17.00	71.55	18.72	
2025-01-09 22:31:17.21	71.60	18.73	
2025-01-09 22:31:17.41	71.64	18.73	
2025-01-09 22:31:17.62	71.69	18.74	
2025-01-09 22:31:17.84	71.75	18.74	
2025-01-09 22:31:18.04	71.79	18.75	
2025-01-09 22:31:18.25	71.84	18.76	
2025-01-09 22:31:18.46	71.89	18.76	
2025-01-09 22:31:18.66	71.94	18.77	
2025-01-09 22:31:18.86	71.98	18.77	
2025-01-09 22:31:19.07	72.03	18.78	
2025-01-09 22:31:19.27	72.08	18.78	
2025-01-09 22:31:19.48	72.13	18.79	
2025-01-09 22:31:19.69	72.18	18.79	
2025-01-09 22:31:19.89	72.23	18.80	
2025-01-09 22:31:20.10	72.28	18.80	
2025-01-09 22:31:20.30	72.32	18.81	
2025-01-09 22:31:20.50	72.37	18.81	
2025-01-09 22:31:20.71	72.42	18.82	
2025-01-09 22:31:20.91	72.47	18.83	
2025-01-09 22:31:21.12	72.52	18.83	
2025-01-09 22:31:21.33	72.56	18.84	
2025-01-09 22:31:21.53	72.61	18.84	
2025-01-09 22:31:21.74	72.66	18.85	
2025-01-09 22:31:21.94	72.71	18.85	
2025-01-09 22:31:22.15	72.76	18.86	
2025-01-09 22:31:22.35	72.81	18.86	
2025-01-09 22:31:22.56	72.85	18.87	
2025-01-09 22:31:22.77	72.90	18.87	
2025-01-09 22:31:22.97	72.95	18.88	
2025-01-09 22:31:23.18	73.00	18.88	
2025-01-09 22:31:23.38	73.05	18.89	
2025-01-09 22:31:23.59	73.10	18.89	
2025-01-09 22:31:23.79	73.15	18.90	
2025-01-09 22:31:24.00	73.19	18.90	
2025-01-09 22:31:24.22	73.25	18.91	
2025-01-09 22:31:24.42	73.29	18.91	
2025-01-09 22:31:24.63	73.34	18.92	
2025-01-09 22:31:24.83	73.39	18.92	
2025-01-09 22:31:25.04	73.44	18.93	
2025-01-09 22:31:25.26	73.49	18.93	
2025-01-09 22:31:25.46	73.54	18.94	
2025-01-09 22:31:25.67	73.59	18.94	
2025-01-09 22:31:25.87	73.64	18.95	
2025-01-09 22:31:26.08	73.69	18.95	
2025-01-09 22:31:26.28	73.73	18.96	
2025-01-09 22:31:26.49	73.78	18.96	
2025-01-09 22:31:26.69	73.83	18.97	
2025-01-09 22:31:26.90	73.88	18.97	
2025-01-09 22:31:27.11	73.93	18.98	
2025-01-09 22:31:27.31	73.98	18.98	
2025-01-09 22:31:27.52	74.03	18.98	
2025-01-09 22:31:27.72	74.08	18.99	
2025-01-09 22:31:27.93	74.13	18.99	
2025-01-09 22:31:28.13	74.17	19.00	
2025-01-09 22:31:28.34	74.22	19.00	
2025-01-09 22:31:28.54	74.27	19.01	
2025-01-09 22:31:28.75	74.32	19.01	
2025-01-09 22:31:28.95	74.37	19.02	
2025-01-09 22:31:29.16	74.42	19.02	
2025-01-09 22:31:29.36	74.47	19.03	
2025-01-09 22:31:29.57	74.52	19.03	
2025-01-09 22:31:29.77	74.56	19.03	
2025-01-09 22:31:29.98	74.61	19.04	
2025-01-09 22:31:30.18	74.66	19.04	
2025-01-09 22:31:30.39	74.71	19.05	
2025-01-09 22:31:30.61	74.77	19.05	
2025-01-09 22:31:30.82	74.82	19.06	
2025-01-09 22:31:31.02	74.86	19.06	
2025-01-09 22:31:31.23	74.91	19.07	
2025-01-09 22:31:31.44	74.96	19.07	
2025-01-09 22:31:31.64	75.01	19.07	
2025-01-09 22:31:31.84	75.06	19.08	
2025-01-09 22:31:32.05	75.11	19.08	
2025-01-09 22:31:32.25	75.16	19.09	
2025-01-09 22:31:32.46	75.21	19.09	
2025-01-09 22:31:32.66	75.26	19.09	
2025-01-09 22:31:32.87	75.31	19.10	
2025-01-09 22:31:33.07	75.35	19.10	
2025-01-09 22:31:33.28	75.40	19.11	
2025-01-09 22:31:33.48	75.45	19.11	
2025-01-09 22:31:33.69	75.50	19.12	
2025-01-09 22:31:33.89	75.55	19.12	
2025-01-09 22:31:34.10	75.60	19.12	
2025-01-09 22:31:34.30	75.65	19.13	
2025-01-09 22:31:34.51	75.70	19.13	
2025-01-09 22:31:34.71	75.75	19.14	
2025-01-09 22:31:34.92	75.80	19.14	
2025-01-09 22:31:35.12	75.85	19.14	
2025-01-09 22:31:35.33	75.90	19.15	
2025-01-09 22:31:35.54	75.95	19.15	
2025-01-09 22:31:35.74	75.99	19.15	
2025-01-09 22:31:35.95	76.04	19.16	
2025-01-09 22:31:36.15	76.09	19.16	
2025-01-09 22:31:36.36	76.14	19.17	
2025-01-09 22:31:36.56	76.19	19.17	
2025-01-09 22:31:36.77	76.24	19.17	
2025-01-09 22:31:36.97	76.29	19.18	
2025-01-09 22:31:37.18	76.34	19.18	
2025-01-09 22:31:37.38	76.39	19.18	
2025-01-09 22:31:37.59	76.44	19.19	
2025-01-09 22:31:37.79	76.49	19.19	
2025-01-09 22:31:38.00	76.54	19.20	
2025-01-09 22:31:38.20	76.59	19.20	
2025-01-09 22:31:38.41	76.64	19.20	
2025-01-09 22:31:38.61	76.69	19.21	
2025-01-09 22:31:38.82	76.74	19.21	
2025-01-09 22:31:39.02	76.78	19.21	
2025-01-09 22:31:39.23	76.83	19.22	
2025-01-09 22:31:39.43	76.88	19.22	
2025-01-09 22:31:39.64	76.93	19.22	
2025-01-09 22:31:39.84	76.98	19.23	
2025-01-09 22:31:40.05	77.03	19.23	
2025-01-09 22:31:40.25	77.08	19.23	
2025-01-09 22:31:40.46	77.13	19.24	
2025-01-09 22:31:40.66	77.18	19.24	
2025-01-09 22:31:40.87	77.23	19.24	
2025-01-09 22:31:41.08	77.28	19.25	
2025-01-09 22:31:41.29	77.33	19.25	
2025-01-09 22:31:41.50	77.38	19.25	
2025-01-09 22:31:41.71	77.43	19.26	
2025-01-09 22:31:41.91	77.48	19.26	
2025-01-09 22:31:42.12	77.53	19.26	
2025-01-09 22:31:42.34	77.59	19.27	
2025-01-09 22:31:42.54	77.64	19.27	
2025-01-09 22:31:42.75	77.69	19.27	
2025-01-09 22:31:42.95	77.73	19.28	
2025-01-09 22:31:43.16	77.79	19.28	
2025-01-09 22:31:43.36	77.83	19.28	
2025-01-09 22:31:43.57	77.88	19.29	
2025-01-09 22:31:43.78	77.94	19.29	
2025-01-09 22:31:43.98	77.98	19.29	
2025-01-09 22:31:44.19	78.04	19.30	
2025-01-09 22:31:44.39	78.08	19.30	
2025-01-09 22:31:44.60	78.13	19.30	
2025-01-09 22:31:44.80	78.18	19.30	
2025-01-09 22:31:45.01	78.23	19.31	
2025-01-09 22:31:45.21	78.28	19.31	
2025-01-09 22:31:45.42	78.33	19.31	
2025-01-09 22:31:45.62	78.38	19.32	
2025-01-09 22:31:45.83	78.43	19.32	
2025-01-09 22:31:46.03	78.48	19.32	
2025-01-09 22:31:46.24	78.53	19.33	
2025-01-09 22:31:46.45	78.58	19.33	
2025-01-09 22:31:46.65	78.63	19.33	
2025-01-09 22:31:46.86	78.68	19.33	
2025-01-09 22:31:47.06	78.73	19.34	
2025-01-09 22:31:47.27	78.78	19.34	
2025-01-09 22:31:47.47	78.83	19.34	
2025-01-09 22:31:47.68	78.88	19.34	
2025-01-09 22:31:47.88	78.93	19.35	
2025-01-09 22:31:48.09	78.98	19.35	
2025-01-09 22:31:48.29	79.03	19.35	
2025-01-09 22:31:48.50	79.08	19.35	
2025-01-09 22:31:48.72	79.14	19.36	
2025-01-09 22:31:48.92	79.18	19.36	
2025-01-09 22:31:49.13	79.24	19.36	
2025-01-09 22:31:49.33	79.28	19.36	
2025-01-09 22:31:49.54	79.34	19.37	
2025-01-09 22:31:49.74	79.38	19.37	
2025-01-09 22:31:49.95	79.44	19.37	
2025-01-09 22:31:50.15	79.48	19.37	
2025-01-09 22:31:50.36	79.54	19.38	
2025-01-09 22:31:50.56	79.58	19.38	
2025-01-09 22:31:50.77	79.64	19.38	
2025-01-09 22:31:50.97	79.68	19.38	
2025-01-09 22:31:51.18	79.74	19.39	
2025-01-09 22:31:51.38	79.78	19.39	
2025-01-09 22:31:51.59	79.84	19.39	
2025-01-09 22:31:51.80	79.89	19.39	
2025-01-09 22:31:52.00	79.94	19.40	
2025-01-09 22:31:52.21	79.99	19.40	
2025-01-09 22:31:52.41	80.04	19.40	
2025-01-09 22:31:52.62	80.09	19.40	
2025-01-09 22:31:52.82	80.14	19.40	
2025-01-09 22:31:53.03	80.19	19.41	
2025-01-09 22:31:53.23	80.24	19.41	
2025-01-09 22:31:53.44	80.29	19.41	
2025-01-09 22:31:53.64	80.34	19.41	
2025-01-09 22:31:53.85	80.39	19.41	
2025-01-09 22:31:54.05	80.44	19.42	
2025-01-09 22:31:54.26	80.49	19.42	
2025-01-09 22:31:54.47	80.54	19.42	
2025-01-09 22:31:54.67	80.59	19.42	
2025-01-09 22:31:54.88	80.64	19.42	
2025-01-09 22:31:55.08	80.69	19.43	
2025-01-09 22:31:55.29	80.74	19.43	
2025-01-09 22:31:55.49	80.79	19.43	
2025-01-09 22:31:55.70	80.84	19.43	
2025-01-09 22:31:55.90	80.89	19.43	
2025-01-09 22:31:56.11	80.94	19.44	
2025-01-09 22:31:56.31	80.99	19.44	
2025-01-09 22:31:56.52	81.04	19.44	
2025-01-09 22:31:56.72	81.09	19.44	
2025-01-09 22:31:56.93	81.14	19.44	
2025-01-09 22:31:57.14	81.19	19.44	
2025-01-09 22:31:57.34	81.24	19.45	
2025-01-09 22:31:57.55	81.29	19.45	
2025-01-09 22:31:57.75	81.34	19.45	
2025-01-09 22:31:57.96	81.39	19.45	
2025-01-09 22:31:58.16	81.44	19.45	
2025-01-09 22:31:58.37	81.49	19.45	
2025-01-09 22:31:58.57	81.54	19.45	
2025-01-09 22:31:58.78	81.60	19.46	
2025-01-09 22:31:58.98	81.64	19.46	
2025-01-09 22:31:59.19	81.70	19.46	
2025-01-09 22:31:59.40	81.75	19.46	
2025-01-09 22:31:59.60	81.80	19.46	
2025-01-09 22:31:59.81	81.85	19.46	
2025-01-09 22:32:00.01	81.90	19.47	
2025-01-09 22:32:00.23	81.95	19.47	
2025-01-09 22:32:00.43	82.00	19.47	
2025-01-09 22:32:00.64	82.05	19.47	
2025-01-09 22:32:00.85	82.10	19.47	
2025-01-09 22:32:01.05	82.15	19.47	
2025-01-09 22:32:01.26	82.20	19.47	
2025-01-09 22:32:01.46	82.25	19.47	
2025-01-09 22:32:01.67	82.30	19.48	
2025-01-09 22:32:01.88	82.36	19.48	
2025-01-09 22:32:02.08	82.40	19.48	
2025-01-09 22:32:02.29	82.46	19.48	
2025-01-09 22:32:02.49	82.51	19.48	
2025-01-09 22:32:02.69	82.55	19.48	
2025-01-09 22:32:02.90	82.61	19.48	
2025-01-09 22:32:03.11	82.66	19.48	
2025-01-09 22:32:03.31	82.71	19.48	
2025-01-09 22:32:03.52	82.76	19.49	
2025-01-09 22:32:03.72	82.81	19.49	
2025-01-09 22:32:03.93	82.86	19.49	
2025-01-09 22:32:04.13	82.91	19.49	
2025-01-09 22:32:04.34	82.96	19.49	
2025-01-09 22:32:04.54	83.01	19.49	
2025-01-09 22:32:04.75	83.06	19.49	
2025-01-09 22:32:04.95	83.11	19.49	
2025-01-09 22:32:05.16	83.16	19.49	
2025-01-09 22:32:05.36	83.21	19.49	
2025-01-09 22:32:05.57	83.26	19.49	
2025-01-09 22:32:05.77	83.31	19.49	
2025-01-09 22:32:05.98	83.36	19.50	
2025-01-09 22:32:06.19	83.41	19.50	
2025-01-09 22:32:06.39	83.46	19.50	
2025-01-09 22:32:06.60	83.52	19.50	
2025-01-09 22:32:06.80	83.56	19.50	
2025-01-09 22:32:07.00	83.61	19.50	
2025-01-09 22:32:07.21	83.67	19.50	
2025-01-09 22:32:07.41	83.71	19.50	
2025-01-09 22:32:07.62	83.77	19.50	
2025-01-09 22:32:07.82	83.82	19.50	
2025-01-09 22:32:08.03	83.87	19.50	
2025-01-09 22:32:08.23	83.92	19.50	
2025-01-09 22:32:08.44	83.97	19.50	
2025-01-09 22:32:08.65	84.02	19.50	
2025-01-09 22:32:08.85	84.07	19.50	
2025-01-09 22:32:09.06	84.12	19.50	
2025-01-09 22:32:09.26	84.17	19.50	
2025-01-09 22:32:09.47	84.22	19.51	
2025-01-09 22:32:09.67	84.27	19.51	
2025-01-09 22:32:09.88	84.32	19.51	
2025-01-09 22:32:10.09	84.37	19.51	
2025-01-09 22:32:10.29	84.42	19.51	
2025-01-09 22:32:10.50	84.47	19.51	
2025-01-09 22:32:10.70	84.52	19.51	
2025-01-09 22:32:10.91	84.58	19.51	
2025-01-09 22:32:11.13	84.63	19.51	
2025-01-09 22:32:11.33	84.68	19.51	
2025-01-09 22:32:11.54	84.73	19.51	
2025-01-09 22:32:11.74	84.78	19.51	
2025-01-09 22:32:11.95	84.83	19.51	
2025-01-09 22:32:12.15	84.88	19.51	
2025-01-09 22:32:12.36	84.93	19.51	
2025-01-09 22:32:12.57	84.98	19.51	
2025-01-09 22:32:12.77	85.03	19.51	
2025-01-09 22:32:12.98	85.08	19.51	
2025-01-09 22:32:13.19	85.14	19.51	
2025-01-09 22:32:13.39	85.19	19.51	
2025-01-09 22:32:13.59	85.23	19.51	
2025-01-09 22:32:13.80	85.29	19.51	
2025-01-09 22:32:14.01	85.34	19.51	
2025-01-09 22:32:14.21	85.39	19.51	
2025-01-09 22:32:14.41	85.44	19.51	
2025-01-09 22:32:14.62	85.49	19.51	
2025-01-09 22:32:14.83	85.54	19.51	
2025-01-09 22:32:15.03	85.59	19.51	
2025-01-09 22:32:15.24	85.64	19.51	
2025-01-09 22:32:15.45	85.69	19.51	
2025-01-09 22:32:15.66	85.74	19.51	
2025-01-09 22:32:15.87	85.80	19.51	
2025-01-09 22:32:16.07	85.85	19.51	
2025-01-09 22:32:16.28	85.90	19.51	
2025-01-09 22:32:16.48	85.95	19.50	
2025-01-09 22:32:16.69	86.00	19.50	
2025-01-09 22:32:16.90	86.05	19.50	
2025-01-09 22:32:17.10	86.10	19.50	
2025-01-09 22:32:17.32	86.15	19.50	
2025-01-09 22:32:17.52	86.20	19.50	
2025-01-09 22:32:17.72	86.25	19.50	
2025-01-09 22:32:17.93	86.30	19.50	
2025-01-09 22:32:18.14	86.35	19.50	
2025-01-09 22:32:18.34	86.40	19.50	
2025-01-09 22:32:18.54	86.45	19.50	
2025-01-09 22:32:18.75	86.50	19.50	
2025-01-09 22:32:18.97	86.56	19.50	
2025-01-09 22:32:19.17	86.61	19.50	
