passes_logs/2025/01/09/SPB_Silybum_02/SPB_Silybum_02__20250109_201047_TERRA_rec.log

#Pass ID: 20250109_201047_TERRA
#Satellite: TERRA
#Configuration: TERRA
#Start time: 2025-01-09 20:10:46

#Version: 2.0.20230423
#Station: SPB_Silybum_02
#Location: 30.233357 lon 59.946436 lat
#TLE: 1 25994U 99068A   25008.82275774  .00000946  00000+0  20487-3 0  9990
#TLE: 2 25994  98.0228  72.0493 0003564  84.8498   6.9254 14.60383008333170

#Time	Az	El	Level	Level2	SNR	BER	Gain	Gain2
2025-01-09 20:10:48.62	215.24	4.07	
2025-01-09 20:10:48.83	215.26	4.08	
2025-01-09 20:10:49.03	215.28	4.10	
2025-01-09 20:10:49.24	215.30	4.11	
2025-01-09 20:10:49.44	215.32	4.12	
2025-01-09 20:10:49.65	215.34	4.13	
2025-01-09 20:10:49.85	215.36	4.14	
2025-01-09 20:10:50.06	215.38	4.16	
2025-01-09 20:10:50.27	215.40	4.17	
2025-01-09 20:10:50.47	215.42	4.18	
2025-01-09 20:10:50.67	215.44	4.19	
2025-01-09 20:10:50.88	215.46	4.20	
2025-01-09 20:10:51.09	215.48	4.22	
2025-01-09 20:10:51.29	215.50	4.23	
2025-01-09 20:10:51.50	215.52	4.24	
2025-01-09 20:10:51.70	215.54	4.25	
2025-01-09 20:10:51.91	215.56	4.26	
2025-01-09 20:10:52.11	215.58	4.28	
2025-01-09 20:10:52.32	215.60	4.29	
2025-01-09 20:10:52.52	215.62	4.30	
2025-01-09 20:10:52.73	215.64	4.31	
2025-01-09 20:10:52.93	215.66	4.32	
2025-01-09 20:10:53.14	215.69	4.34	
2025-01-09 20:10:53.34	215.71	4.35	
2025-01-09 20:10:53.55	215.73	4.36	
2025-01-09 20:10:53.75	215.75	4.37	
2025-01-09 20:10:53.97	215.77	4.39	
2025-01-09 20:10:54.17	215.79	4.40	
2025-01-09 20:10:54.38	215.81	4.41	
2025-01-09 20:10:54.58	215.83	4.42	
2025-01-09 20:10:54.79	215.85	4.43	
2025-01-09 20:10:54.99	215.87	4.45	
2025-01-09 20:10:55.20	215.89	4.46	
2025-01-09 20:10:55.40	215.91	4.47	
2025-01-09 20:10:55.61	215.93	4.48	
2025-01-09 20:10:55.82	215.95	4.50	
2025-01-09 20:10:56.02	215.97	4.51	
2025-01-09 20:10:56.23	215.99	4.52	
2025-01-09 20:10:56.43	216.01	4.53	
2025-01-09 20:10:56.64	216.03	4.54	
2025-01-09 20:10:56.84	216.05	4.56	
2025-01-09 20:10:57.04	216.07	4.57	
2025-01-09 20:10:57.25	216.09	4.58	
2025-01-09 20:10:57.46	216.12	4.59	
2025-01-09 20:10:57.66	216.14	4.60	
2025-01-09 20:10:57.87	216.16	4.62	
2025-01-09 20:10:58.07	216.18	4.63	
2025-01-09 20:10:58.27	216.20	4.64	
2025-01-09 20:10:58.48	216.22	4.65	
2025-01-09 20:10:58.68	216.24	4.67	
2025-01-09 20:10:58.89	216.26	4.68	
2025-01-09 20:10:59.10	216.28	4.69	
2025-01-09 20:10:59.30	216.30	4.70	
2025-01-09 20:10:59.50	216.32	4.71	
2025-01-09 20:10:59.71	216.34	4.73	
2025-01-09 20:10:59.91	216.36	4.74	
2025-01-09 20:11:00.12	216.38	4.75	
2025-01-09 20:11:00.34	216.41	4.76	
2025-01-09 20:11:00.54	216.43	4.78	
2025-01-09 20:11:00.74	216.45	4.79	
2025-01-09 20:11:00.95	216.47	4.80	
2025-01-09 20:11:01.16	216.49	4.81	
2025-01-09 20:11:01.36	216.51	4.83	
2025-01-09 20:11:01.56	216.53	4.84	
2025-01-09 20:11:01.77	216.55	4.85	
2025-01-09 20:11:01.97	216.57	4.86	
2025-01-09 20:11:02.18	216.59	4.87	
2025-01-09 20:11:02.38	216.62	4.89	
2025-01-09 20:11:02.59	216.64	4.90	
2025-01-09 20:11:02.79	216.66	4.91	
2025-01-09 20:11:03.00	216.68	4.92	
2025-01-09 20:11:03.20	216.70	4.94	
2025-01-09 20:11:03.41	216.72	4.95	
2025-01-09 20:11:03.61	216.74	4.96	
2025-01-09 20:11:03.82	216.76	4.97	
2025-01-09 20:11:04.02	216.78	4.98	
2025-01-09 20:11:04.23	216.81	5.00	
2025-01-09 20:11:04.43	216.83	5.01	
2025-01-09 20:11:04.64	216.85	5.02	
2025-01-09 20:11:04.84	216.87	5.03	
2025-01-09 20:11:05.05	216.89	5.05	
2025-01-09 20:11:05.25	216.91	5.06	
2025-01-09 20:11:05.46	216.93	5.07	
2025-01-09 20:11:05.66	216.95	5.08	
2025-01-09 20:11:05.87	216.98	5.09	
2025-01-09 20:11:06.08	217.00	5.11	
2025-01-09 20:11:06.28	217.02	5.12	
2025-01-09 20:11:06.49	217.04	5.13	
2025-01-09 20:11:06.69	217.06	5.14	
2025-01-09 20:11:06.90	217.08	5.16	
2025-01-09 20:11:07.10	217.10	5.17	
2025-01-09 20:11:07.31	217.13	5.18	
2025-01-09 20:11:07.51	217.15	5.19	
2025-01-09 20:11:07.71	217.17	5.21	
2025-01-09 20:11:07.92	217.19	5.22	
2025-01-09 20:11:08.13	217.21	5.23	
2025-01-09 20:11:08.33	217.23	5.24	
2025-01-09 20:11:08.54	217.26	5.26	
2025-01-09 20:11:08.74	217.28	5.27	
2025-01-09 20:11:08.94	217.30	5.28	
2025-01-09 20:11:09.15	217.32	5.29	
2025-01-09 20:11:09.35	217.34	5.30	
2025-01-09 20:11:09.56	217.36	5.32	
2025-01-09 20:11:09.76	217.38	5.33	
2025-01-09 20:11:09.97	217.41	5.34	
2025-01-09 20:11:10.18	217.43	5.35	
2025-01-09 20:11:10.38	217.45	5.37	
2025-01-09 20:11:10.59	217.47	5.38	
2025-01-09 20:11:10.79	217.49	5.39	
2025-01-09 20:11:10.99	217.52	5.40	
2025-01-09 20:11:11.20	217.54	5.42	
2025-01-09 20:11:11.41	217.56	5.43	
2025-01-09 20:11:11.61	217.58	5.44	
2025-01-09 20:11:11.82	217.60	5.45	
2025-01-09 20:11:12.02	217.63	5.47	
2025-01-09 20:11:12.23	217.65	5.48	
2025-01-09 20:11:12.43	217.67	5.49	
2025-01-09 20:11:12.64	217.69	5.50	
2025-01-09 20:11:12.84	217.71	5.52	
2025-01-09 20:11:13.04	217.73	5.53	
2025-01-09 20:11:13.25	217.76	5.54	
2025-01-09 20:11:13.45	217.78	5.55	
2025-01-09 20:11:13.66	217.80	5.56	
2025-01-09 20:11:13.87	217.82	5.58	
2025-01-09 20:11:14.07	217.85	5.59	
2025-01-09 20:11:14.27	217.87	5.60	
2025-01-09 20:11:14.48	217.89	5.61	
2025-01-09 20:11:14.68	217.91	5.63	
2025-01-09 20:11:14.89	217.93	5.64	
2025-01-09 20:11:15.10	217.96	5.65	
2025-01-09 20:11:15.31	217.98	5.66	
2025-01-09 20:11:15.52	218.00	5.68	
2025-01-09 20:11:15.72	218.02	5.69	
2025-01-09 20:11:15.93	218.05	5.70	
2025-01-09 20:11:16.14	218.07	5.72	
2025-01-09 20:11:16.34	218.09	5.73	
2025-01-09 20:11:16.55	218.11	5.74	
2025-01-09 20:11:16.75	218.14	5.75	
2025-01-09 20:11:16.95	218.16	5.76	
2025-01-09 20:11:17.16	218.18	5.78	
2025-01-09 20:11:17.38	218.21	5.79	
2025-01-09 20:11:17.58	218.23	5.80	
2025-01-09 20:11:17.79	218.25	5.82	
2025-01-09 20:11:18.00	218.27	5.83	
2025-01-09 20:11:18.20	218.30	5.84	
2025-01-09 20:11:18.41	218.32	5.85	
2025-01-09 20:11:18.61	218.34	5.87	
2025-01-09 20:11:18.82	218.36	5.88	
2025-01-09 20:11:19.02	218.39	5.89	
2025-01-09 20:11:19.23	218.41	5.90	
2025-01-09 20:11:19.43	218.43	5.92	
2025-01-09 20:11:19.64	218.45	5.93	
2025-01-09 20:11:19.84	218.48	5.94	
2025-01-09 20:11:20.05	218.50	5.95	
2025-01-09 20:11:20.25	218.52	5.97	
2025-01-09 20:11:20.46	218.55	5.98	
2025-01-09 20:11:20.66	218.57	5.99	
2025-01-09 20:11:20.87	218.59	6.00	
2025-01-09 20:11:21.07	218.61	6.02	
2025-01-09 20:11:21.28	218.64	6.03	
2025-01-09 20:11:21.48	218.66	6.04	
2025-01-09 20:11:21.69	218.68	6.05	
2025-01-09 20:11:21.89	218.70	6.07	
2025-01-09 20:11:22.10	218.73	6.08	
2025-01-09 20:11:22.30	218.75	6.09	
2025-01-09 20:11:22.51	218.77	6.10	
2025-01-09 20:11:22.71	218.80	6.12	
2025-01-09 20:11:22.92	218.82	6.13	
2025-01-09 20:11:23.12	218.84	6.14	
2025-01-09 20:11:23.33	218.87	6.15	
2025-01-09 20:11:23.54	218.89	6.17	
2025-01-09 20:11:23.74	218.91	6.18	
2025-01-09 20:11:23.95	218.94	6.19	
2025-01-09 20:11:24.15	218.96	6.20	
2025-01-09 20:11:24.35	218.98	6.22	
2025-01-09 20:11:24.56	219.00	6.23	
2025-01-09 20:11:24.76	219.03	6.24	
2025-01-09 20:11:24.97	219.05	6.26	
2025-01-09 20:11:25.18	219.07	6.27	
2025-01-09 20:11:25.38	219.10	6.28	
2025-01-09 20:11:25.59	219.12	6.29	
2025-01-09 20:11:25.79	219.14	6.31	
2025-01-09 20:11:25.99	219.17	6.32	
2025-01-09 20:11:26.20	219.19	6.33	
2025-01-09 20:11:26.41	219.21	6.34	
2025-01-09 20:11:26.61	219.24	6.36	
2025-01-09 20:11:26.81	219.26	6.37	
2025-01-09 20:11:27.03	219.29	6.38	
2025-01-09 20:11:27.24	219.31	6.39	
2025-01-09 20:11:27.44	219.33	6.41	
2025-01-09 20:11:27.65	219.36	6.42	
2025-01-09 20:11:27.85	219.38	6.43	
2025-01-09 20:11:28.05	219.40	6.44	
2025-01-09 20:11:28.26	219.43	6.46	
2025-01-09 20:11:28.47	219.45	6.47	
2025-01-09 20:11:28.67	219.47	6.48	
2025-01-09 20:11:28.87	219.50	6.50	
2025-01-09 20:11:29.08	219.52	6.51	
2025-01-09 20:11:29.28	219.54	6.52	
2025-01-09 20:11:29.49	219.57	6.53	
2025-01-09 20:11:29.70	219.59	6.55	
2025-01-09 20:11:29.90	219.62	6.56	
2025-01-09 20:11:30.10	219.64	6.57	
2025-01-09 20:11:30.31	219.66	6.58	
2025-01-09 20:11:30.52	219.69	6.60	
2025-01-09 20:11:30.72	219.71	6.61	
2025-01-09 20:11:30.93	219.74	6.62	
2025-01-09 20:11:31.13	219.76	6.64	
2025-01-09 20:11:31.34	219.78	6.65	
2025-01-09 20:11:31.54	219.81	6.66	
2025-01-09 20:11:31.75	219.83	6.67	
2025-01-09 20:11:31.95	219.85	6.69	
2025-01-09 20:11:32.16	219.88	6.70	
2025-01-09 20:11:32.36	219.90	6.71	
2025-01-09 20:11:32.56	219.93	6.72	
2025-01-09 20:11:32.77	219.95	6.74	
2025-01-09 20:11:32.97	219.97	6.75	
2025-01-09 20:11:33.18	220.00	6.76	
2025-01-09 20:11:33.40	220.02	6.78	
2025-01-09 20:11:33.60	220.05	6.79	
2025-01-09 20:11:33.81	220.07	6.80	
2025-01-09 20:11:34.01	220.10	6.81	
2025-01-09 20:11:34.22	220.12	6.83	
2025-01-09 20:11:34.42	220.14	6.84	
2025-01-09 20:11:34.63	220.17	6.85	
2025-01-09 20:11:34.83	220.19	6.86	
2025-01-09 20:11:35.03	220.22	6.88	
2025-01-09 20:11:35.24	220.24	6.89	
2025-01-09 20:11:35.44	220.26	6.90	
2025-01-09 20:11:35.65	220.29	6.92	
2025-01-09 20:11:35.85	220.31	6.93	
2025-01-09 20:11:36.06	220.34	6.94	
2025-01-09 20:11:36.27	220.36	6.95	
2025-01-09 20:11:36.47	220.39	6.97	
2025-01-09 20:11:36.68	220.41	6.98	
2025-01-09 20:11:36.88	220.44	6.99	
2025-01-09 20:11:37.10	220.46	7.01	
2025-01-09 20:11:37.31	220.49	7.02	
2025-01-09 20:11:37.51	220.51	7.03	
2025-01-09 20:11:37.72	220.54	7.04	
2025-01-09 20:11:37.92	220.56	7.06	
2025-01-09 20:11:38.13	220.59	7.07	
2025-01-09 20:11:38.33	220.61	7.08	
2025-01-09 20:11:38.54	220.64	7.10	
2025-01-09 20:11:38.74	220.66	7.11	
2025-01-09 20:11:38.95	220.68	7.12	
2025-01-09 20:11:39.15	220.71	7.13	
2025-01-09 20:11:39.36	220.73	7.15	
2025-01-09 20:11:39.56	220.76	7.16	
2025-01-09 20:11:39.78	220.78	7.17	
2025-01-09 20:11:39.98	220.81	7.19	
2025-01-09 20:11:40.19	220.83	7.20	
2025-01-09 20:11:40.39	220.86	7.21	
2025-01-09 20:11:40.60	220.88	7.22	
2025-01-09 20:11:40.80	220.91	7.24	
2025-01-09 20:11:41.00	220.93	7.25	
2025-01-09 20:11:41.21	220.96	7.26	
2025-01-09 20:11:41.42	220.98	7.28	
2025-01-09 20:11:41.62	221.01	7.29	
2025-01-09 20:11:41.83	221.03	7.30	
2025-01-09 20:11:42.03	221.06	7.31	
2025-01-09 20:11:42.24	221.08	7.33	
2025-01-09 20:11:42.44	221.11	7.34	
2025-01-09 20:11:42.65	221.13	7.35	
2025-01-09 20:11:42.85	221.16	7.37	
2025-01-09 20:11:43.06	221.18	7.38	
2025-01-09 20:11:43.26	221.21	7.39	
2025-01-09 20:11:43.47	221.24	7.40	
2025-01-09 20:11:43.67	221.26	7.42	
2025-01-09 20:11:43.88	221.29	7.43	
2025-01-09 20:11:44.08	221.31	7.44	
2025-01-09 20:11:44.29	221.34	7.46	
2025-01-09 20:11:44.49	221.36	7.47	
2025-01-09 20:11:44.70	221.39	7.48	
2025-01-09 20:11:44.90	221.41	7.49	
2025-01-09 20:11:45.11	221.44	7.51	
2025-01-09 20:11:45.31	221.46	7.52	
2025-01-09 20:11:45.52	221.49	7.53	
2025-01-09 20:11:45.72	221.51	7.55	
2025-01-09 20:11:45.93	221.54	7.56	
2025-01-09 20:11:46.13	221.56	7.57	
2025-01-09 20:11:46.33	221.59	7.58	
2025-01-09 20:11:46.54	221.62	7.60	
2025-01-09 20:11:46.75	221.64	7.61	
2025-01-09 20:11:46.95	221.67	7.62	
2025-01-09 20:11:47.16	221.69	7.64	
2025-01-09 20:11:47.36	221.72	7.65	
2025-01-09 20:11:47.57	221.74	7.66	
2025-01-09 20:11:47.77	221.77	7.68	
2025-01-09 20:11:47.98	221.80	7.69	
2025-01-09 20:11:48.18	221.82	7.70	
2025-01-09 20:11:48.39	221.85	7.71	
2025-01-09 20:11:48.59	221.87	7.73	
2025-01-09 20:11:48.80	221.90	7.74	
2025-01-09 20:11:49.00	221.92	7.75	
2025-01-09 20:11:49.21	221.95	7.77	
2025-01-09 20:11:49.41	221.98	7.78	
2025-01-09 20:11:49.62	222.00	7.79	
2025-01-09 20:11:49.82	222.03	7.80	
2025-01-09 20:11:50.03	222.05	7.82	
2025-01-09 20:11:50.23	222.08	7.83	
2025-01-09 20:11:50.44	222.11	7.84	
2025-01-09 20:11:50.64	222.13	7.86	
2025-01-09 20:11:50.85	222.16	7.87	
2025-01-09 20:11:51.05	222.18	7.88	
2025-01-09 20:11:51.26	222.21	7.90	
2025-01-09 20:11:51.46	222.24	7.91	
2025-01-09 20:11:51.67	222.26	7.92	
2025-01-09 20:11:51.87	222.29	7.93	
2025-01-09 20:11:52.08	222.32	7.95	
2025-01-09 20:11:52.28	222.34	7.96	
2025-01-09 20:11:52.49	222.37	7.97	
2025-01-09 20:11:52.69	222.39	7.99	
2025-01-09 20:11:52.90	222.42	8.00	
2025-01-09 20:11:53.10	222.45	8.01	
2025-01-09 20:11:53.31	222.47	8.03	
2025-01-09 20:11:53.52	222.50	8.04	
2025-01-09 20:11:53.72	222.53	8.05	
2025-01-09 20:11:53.93	222.55	8.06	
2025-01-09 20:11:54.13	222.58	8.08	
2025-01-09 20:11:54.34	222.61	8.09	
2025-01-09 20:11:54.54	222.63	8.10	
2025-01-09 20:11:54.74	222.66	8.12	
2025-01-09 20:11:54.95	222.68	8.13	
2025-01-09 20:11:55.16	222.71	8.14	
2025-01-09 20:11:55.36	222.74	8.16	
2025-01-09 20:11:55.57	222.77	8.17	
2025-01-09 20:11:55.77	222.79	8.18	
2025-01-09 20:11:55.98	222.82	8.20	
2025-01-09 20:11:56.18	222.84	8.21	
2025-01-09 20:11:56.39	222.87	8.22	
2025-01-09 20:11:56.59	222.90	8.23	
2025-01-09 20:11:56.80	222.93	8.25	
2025-01-09 20:11:57.00	222.95	8.26	
2025-01-09 20:11:57.20	222.98	8.27	
2025-01-09 20:11:57.41	223.01	8.29	
2025-01-09 20:11:57.62	223.03	8.30	
2025-01-09 20:11:57.82	223.06	8.31	
2025-01-09 20:11:58.04	223.09	8.33	
2025-01-09 20:11:58.25	223.12	8.34	
2025-01-09 20:11:58.45	223.14	8.35	
2025-01-09 20:11:58.66	223.17	8.37	
2025-01-09 20:11:58.86	223.20	8.38	
2025-01-09 20:11:59.06	223.22	8.39	
2025-01-09 20:11:59.27	223.25	8.40	
2025-01-09 20:11:59.48	223.28	8.42	
2025-01-09 20:11:59.68	223.30	8.43	
2025-01-09 20:11:59.89	223.33	8.44	
2025-01-09 20:12:00.09	223.36	8.46	
2025-01-09 20:12:00.29	223.39	8.47	
2025-01-09 20:12:00.50	223.41	8.48	
2025-01-09 20:12:00.70	223.44	8.50	
2025-01-09 20:12:00.91	223.47	8.51	
2025-01-09 20:12:01.11	223.49	8.52	
2025-01-09 20:12:01.32	223.52	8.54	
2025-01-09 20:12:01.52	223.55	8.55	
2025-01-09 20:12:01.73	223.58	8.56	
2025-01-09 20:12:01.94	223.61	8.57	
2025-01-09 20:12:02.14	223.63	8.59	
2025-01-09 20:12:02.34	223.66	8.60	
2025-01-09 20:12:02.55	223.69	8.61	
2025-01-09 20:12:02.75	223.71	8.63	
2025-01-09 20:12:02.96	223.74	8.64	
2025-01-09 20:12:03.16	223.77	8.65	
2025-01-09 20:12:03.37	223.80	8.67	
2025-01-09 20:12:03.57	223.82	8.68	
2025-01-09 20:12:03.78	223.85	8.69	
2025-01-09 20:12:03.98	223.88	8.71	
2025-01-09 20:12:04.19	223.91	8.72	
2025-01-09 20:12:04.39	223.94	8.73	
2025-01-09 20:12:04.60	223.96	8.75	
2025-01-09 20:12:04.80	223.99	8.76	
2025-01-09 20:12:05.01	224.02	8.77	
2025-01-09 20:12:05.22	224.05	8.78	
2025-01-09 20:12:05.42	224.07	8.80	
2025-01-09 20:12:05.62	224.10	8.81	
2025-01-09 20:12:05.83	224.13	8.82	
2025-01-09 20:12:06.03	224.16	8.84	
2025-01-09 20:12:06.24	224.19	8.85	
2025-01-09 20:12:06.44	224.21	8.86	
2025-01-09 20:12:06.65	224.24	8.88	
2025-01-09 20:12:06.85	224.27	8.89	
2025-01-09 20:12:07.06	224.30	8.90	
2025-01-09 20:12:07.26	224.33	8.92	
2025-01-09 20:12:07.46	224.35	8.93	
2025-01-09 20:12:07.67	224.38	8.94	
2025-01-09 20:12:07.87	224.41	8.95	
2025-01-09 20:12:08.08	224.44	8.97	
2025-01-09 20:12:08.28	224.47	8.98	
2025-01-09 20:12:08.49	224.50	8.99	
2025-01-09 20:12:08.69	224.52	9.01	
2025-01-09 20:12:08.90	224.55	9.02	
2025-01-09 20:12:09.10	224.58	9.03	
2025-01-09 20:12:09.31	224.61	9.05	
2025-01-09 20:12:09.51	224.64	9.06	
2025-01-09 20:12:09.72	224.67	9.07	
2025-01-09 20:12:09.92	224.69	9.09	
2025-01-09 20:12:10.13	224.72	9.10	
2025-01-09 20:12:10.33	224.75	9.11	
2025-01-09 20:12:10.54	224.78	9.13	
2025-01-09 20:12:10.74	224.81	9.14	
2025-01-09 20:12:10.95	224.84	9.15	
2025-01-09 20:12:11.15	224.86	9.17	
2025-01-09 20:12:11.36	224.89	9.18	
2025-01-09 20:12:11.57	224.92	9.19	
2025-01-09 20:12:11.77	224.95	9.21	
2025-01-09 20:12:11.98	224.98	9.22	
2025-01-09 20:12:12.18	225.01	9.23	
2025-01-09 20:12:12.39	225.04	9.25	
2025-01-09 20:12:12.59	225.07	9.26	
2025-01-09 20:12:12.80	225.10	9.27	
2025-01-09 20:12:13.00	225.12	9.28	
2025-01-09 20:12:13.21	225.15	9.30	
2025-01-09 20:12:13.42	225.18	9.31	
2025-01-09 20:12:13.62	225.21	9.32	
2025-01-09 20:12:13.83	225.24	9.34	
2025-01-09 20:12:14.03	225.27	9.35	
2025-01-09 20:12:14.24	225.30	9.36	
2025-01-09 20:12:14.44	225.33	9.38	
2025-01-09 20:12:14.65	225.36	9.39	
2025-01-09 20:12:14.85	225.39	9.40	
2025-01-09 20:12:15.06	225.42	9.42	
2025-01-09 20:12:15.26	225.44	9.43	
2025-01-09 20:12:15.47	225.47	9.44	
2025-01-09 20:12:15.67	225.50	9.46	
2025-01-09 20:12:15.88	225.53	9.47	
2025-01-09 20:12:16.08	225.56	9.48	
2025-01-09 20:12:16.29	225.59	9.50	
2025-01-09 20:12:16.49	225.62	9.51	
2025-01-09 20:12:16.70	225.65	9.52	
2025-01-09 20:12:16.90	225.68	9.54	
2025-01-09 20:12:17.11	225.71	9.55	
2025-01-09 20:12:17.31	225.74	9.56	
2025-01-09 20:12:17.52	225.77	9.58	
2025-01-09 20:12:17.72	225.80	9.59	
2025-01-09 20:12:17.93	225.83	9.60	
2025-01-09 20:12:18.13	225.85	9.62	
2025-01-09 20:12:18.34	225.89	9.63	
2025-01-09 20:12:18.54	225.91	9.64	
2025-01-09 20:12:18.75	225.94	9.66	
2025-01-09 20:12:18.95	225.97	9.67	
2025-01-09 20:12:19.16	226.00	9.68	
2025-01-09 20:12:19.36	226.03	9.70	
2025-01-09 20:12:19.57	226.06	9.71	
2025-01-09 20:12:19.77	226.09	9.72	
2025-01-09 20:12:19.98	226.12	9.74	
2025-01-09 20:12:20.18	226.15	9.75	
2025-01-09 20:12:20.39	226.18	9.76	
2025-01-09 20:12:20.59	226.21	9.78	
2025-01-09 20:12:20.80	226.24	9.79	
2025-01-09 20:12:21.00	226.27	9.80	
2025-01-09 20:12:21.21	226.30	9.82	
2025-01-09 20:12:21.41	226.33	9.83	
2025-01-09 20:12:21.62	226.36	9.84	
2025-01-09 20:12:21.82	226.39	9.85	
2025-01-09 20:12:22.03	226.42	9.87	
2025-01-09 20:12:22.23	226.45	9.88	
2025-01-09 20:12:22.44	226.48	9.90	
2025-01-09 20:12:22.64	226.51	9.91	
2025-01-09 20:12:22.85	226.54	9.92	
2025-01-09 20:12:23.05	226.57	9.93	
2025-01-09 20:12:23.26	226.60	9.95	
2025-01-09 20:12:23.46	226.63	9.96	
2025-01-09 20:12:23.67	226.66	9.97	
2025-01-09 20:12:23.88	226.70	9.99	
2025-01-09 20:12:24.08	226.72	10.00	
2025-01-09 20:12:24.28	226.75	10.01	
2025-01-09 20:12:24.49	226.79	10.03	
2025-01-09 20:12:24.69	226.82	10.04	
2025-01-09 20:12:24.90	226.85	10.05	
2025-01-09 20:12:25.10	226.88	10.07	
2025-01-09 20:12:25.31	226.91	10.08	
2025-01-09 20:12:25.51	226.94	10.09	
2025-01-09 20:12:25.72	226.97	10.11	
2025-01-09 20:12:25.92	227.00	10.12	
2025-01-09 20:12:26.13	227.03	10.13	
2025-01-09 20:12:26.34	227.06	10.15	
2025-01-09 20:12:26.54	227.09	10.16	
2025-01-09 20:12:26.75	227.12	10.17	
2025-01-09 20:12:26.95	227.15	10.19	
2025-01-09 20:12:27.16	227.18	10.20	
2025-01-09 20:12:27.36	227.21	10.21	
2025-01-09 20:12:27.57	227.25	10.23	
2025-01-09 20:12:27.77	227.28	10.24	
2025-01-09 20:12:27.98	227.31	10.25	
2025-01-09 20:12:28.19	227.34	10.27	
2025-01-09 20:12:28.39	227.37	10.28	
2025-01-09 20:12:28.60	227.40	10.29	
2025-01-09 20:12:28.80	227.43	10.31	
2025-01-09 20:12:29.01	227.46	10.32	
2025-01-09 20:12:29.21	227.49	10.33	
2025-01-09 20:12:29.42	227.53	10.35	
2025-01-09 20:12:29.62	227.56	10.36	
2025-01-09 20:12:29.83	227.59	10.37	
2025-01-09 20:12:30.03	227.62	10.39	
2025-01-09 20:12:30.24	227.65	10.40	
2025-01-09 20:12:30.44	227.68	10.41	
2025-01-09 20:12:30.65	227.71	10.43	
2025-01-09 20:12:30.85	227.74	10.44	
2025-01-09 20:12:31.05	227.77	10.45	
2025-01-09 20:12:31.26	227.81	10.47	
2025-01-09 20:12:31.46	227.84	10.48	
2025-01-09 20:12:31.67	227.87	10.49	
2025-01-09 20:12:31.87	227.90	10.51	
2025-01-09 20:12:32.08	227.93	10.52	
2025-01-09 20:12:32.28	227.96	10.53	
2025-01-09 20:12:32.49	228.00	10.55	
2025-01-09 20:12:32.70	228.03	10.56	
2025-01-09 20:12:32.90	228.06	10.57	
2025-01-09 20:12:33.12	228.09	10.59	
2025-01-09 20:12:33.32	228.12	10.60	
2025-01-09 20:12:33.53	228.16	10.62	
2025-01-09 20:12:33.73	228.19	10.63	
2025-01-09 20:12:33.94	228.22	10.64	
2025-01-09 20:12:34.14	228.25	10.66	
2025-01-09 20:12:34.35	228.28	10.67	
2025-01-09 20:12:34.55	228.32	10.68	
2025-01-09 20:12:34.76	228.35	10.70	
2025-01-09 20:12:34.96	228.38	10.71	
2025-01-09 20:12:35.17	228.41	10.72	
2025-01-09 20:12:35.37	228.44	10.74	
2025-01-09 20:12:35.58	228.48	10.75	
2025-01-09 20:12:35.78	228.51	10.76	
2025-01-09 20:12:35.98	228.54	10.77	
2025-01-09 20:12:36.19	228.57	10.79	
2025-01-09 20:12:36.39	228.60	10.80	
2025-01-09 20:12:36.60	228.64	10.82	
2025-01-09 20:12:36.80	228.67	10.83	
2025-01-09 20:12:37.01	228.70	10.84	
2025-01-09 20:12:37.21	228.73	10.85	
2025-01-09 20:12:37.43	228.77	10.87	
2025-01-09 20:12:37.64	228.80	10.88	
2025-01-09 20:12:37.84	228.83	10.90	
2025-01-09 20:12:38.05	228.86	10.91	
2025-01-09 20:12:38.25	228.90	10.92	
2025-01-09 20:12:38.46	228.93	10.94	
2025-01-09 20:12:38.66	228.96	10.95	
2025-01-09 20:12:38.87	228.99	10.96	
2025-01-09 20:12:39.07	229.03	10.98	
2025-01-09 20:12:39.28	229.06	10.99	
2025-01-09 20:12:39.49	229.09	11.00	
2025-01-09 20:12:39.69	229.12	11.02	
2025-01-09 20:12:39.90	229.16	11.03	
2025-01-09 20:12:40.10	229.19	11.04	
2025-01-09 20:12:40.31	229.22	11.06	
2025-01-09 20:12:40.51	229.26	11.07	
2025-01-09 20:12:40.71	229.29	11.08	
2025-01-09 20:12:40.92	229.32	11.10	
2025-01-09 20:12:41.13	229.35	11.11	
2025-01-09 20:12:41.33	229.39	11.12	
2025-01-09 20:12:41.54	229.42	11.14	
2025-01-09 20:12:41.74	229.45	11.15	
2025-01-09 20:12:41.95	229.49	11.16	
2025-01-09 20:12:42.15	229.52	11.18	
2025-01-09 20:12:42.36	229.55	11.19	
2025-01-09 20:12:42.56	229.58	11.20	
2025-01-09 20:12:42.77	229.62	11.22	
2025-01-09 20:12:42.97	229.65	11.23	
2025-01-09 20:12:43.18	229.69	11.24	
2025-01-09 20:12:43.38	229.72	11.26	
2025-01-09 20:12:43.59	229.75	11.27	
2025-01-09 20:12:43.79	229.78	11.28	
2025-01-09 20:12:43.99	229.82	11.30	
2025-01-09 20:12:44.20	229.85	11.31	
2025-01-09 20:12:44.40	229.88	11.32	
2025-01-09 20:12:44.61	229.92	11.34	
2025-01-09 20:12:44.81	229.95	11.35	
2025-01-09 20:12:45.02	229.98	11.36	
2025-01-09 20:12:45.22	230.02	11.38	
2025-01-09 20:12:45.43	230.05	11.39	
2025-01-09 20:12:45.63	230.08	11.40	
2025-01-09 20:12:45.84	230.12	11.42	
2025-01-09 20:12:46.05	230.15	11.43	
2025-01-09 20:12:46.25	230.19	11.44	
2025-01-09 20:12:46.46	230.22	11.46	
2025-01-09 20:12:46.66	230.25	11.47	
2025-01-09 20:12:46.87	230.29	11.48	
2025-01-09 20:12:47.09	230.32	11.50	
2025-01-09 20:12:47.29	230.36	11.51	
2025-01-09 20:12:47.50	230.39	11.53	
2025-01-09 20:12:47.70	230.43	11.54	
2025-01-09 20:12:47.91	230.46	11.55	
2025-01-09 20:12:48.11	230.49	11.56	
2025-01-09 20:12:48.31	230.53	11.58	
2025-01-09 20:12:48.52	230.56	11.59	
2025-01-09 20:12:48.73	230.60	11.61	
2025-01-09 20:12:48.93	230.63	11.62	
2025-01-09 20:12:49.13	230.66	11.63	
2025-01-09 20:12:49.34	230.70	11.65	
2025-01-09 20:12:49.54	230.73	11.66	
2025-01-09 20:12:49.75	230.77	11.67	
2025-01-09 20:12:49.96	230.80	11.69	
2025-01-09 20:12:50.16	230.83	11.70	
2025-01-09 20:12:50.37	230.87	11.71	
2025-01-09 20:12:50.57	230.90	11.73	
2025-01-09 20:12:50.78	230.94	11.74	
2025-01-09 20:12:50.98	230.97	11.75	
2025-01-09 20:12:51.19	231.01	11.77	
2025-01-09 20:12:51.39	231.04	11.78	
2025-01-09 20:12:51.60	231.08	11.79	
2025-01-09 20:12:51.80	231.11	11.81	
2025-01-09 20:12:52.01	231.15	11.82	
2025-01-09 20:12:52.22	231.18	11.83	
2025-01-09 20:12:52.42	231.21	11.85	
2025-01-09 20:12:52.62	231.25	11.86	
2025-01-09 20:12:52.83	231.28	11.87	
2025-01-09 20:12:53.03	231.32	11.89	
2025-01-09 20:12:53.24	231.35	11.90	
2025-01-09 20:12:53.46	231.39	11.91	
2025-01-09 20:12:53.66	231.42	11.93	
2025-01-09 20:12:53.87	231.46	11.94	
2025-01-09 20:12:54.08	231.50	11.95	
2025-01-09 20:12:54.28	231.53	11.97	
2025-01-09 20:12:54.48	231.56	11.98	
2025-01-09 20:12:54.69	231.60	11.99	
2025-01-09 20:12:54.89	231.63	12.01	
2025-01-09 20:12:55.10	231.67	12.02	
2025-01-09 20:12:55.30	231.70	12.03	
2025-01-09 20:12:55.51	231.74	12.05	
2025-01-09 20:12:55.71	231.77	12.06	
2025-01-09 20:12:55.92	231.81	12.07	
2025-01-09 20:12:56.12	231.85	12.09	
2025-01-09 20:12:56.33	231.88	12.10	
2025-01-09 20:12:56.53	231.92	12.11	
2025-01-09 20:12:56.75	231.95	12.13	
2025-01-09 20:12:56.96	231.99	12.14	
2025-01-09 20:12:57.16	232.02	12.15	
2025-01-09 20:12:57.37	232.06	12.17	
2025-01-09 20:12:57.58	232.10	12.18	
2025-01-09 20:12:57.78	232.13	12.19	
2025-01-09 20:12:57.99	232.17	12.21	
2025-01-09 20:12:58.19	232.20	12.22	
2025-01-09 20:12:58.40	232.24	12.23	
2025-01-09 20:12:58.60	232.27	12.25	
2025-01-09 20:12:58.81	232.31	12.26	
2025-01-09 20:12:59.01	232.35	12.27	
2025-01-09 20:12:59.22	232.38	12.29	
2025-01-09 20:12:59.42	232.42	12.30	
2025-01-09 20:12:59.63	232.45	12.31	
2025-01-09 20:12:59.83	232.49	12.33	
2025-01-09 20:13:00.04	232.53	12.34	
2025-01-09 20:13:00.24	232.56	12.35	
2025-01-09 20:13:00.44	232.60	12.37	
2025-01-09 20:13:00.65	232.63	12.38	
2025-01-09 20:13:00.85	232.67	12.39	
2025-01-09 20:13:01.06	232.70	12.41	
2025-01-09 20:13:01.26	232.74	12.42	
2025-01-09 20:13:01.47	232.78	12.43	
2025-01-09 20:13:01.67	232.81	12.45	
2025-01-09 20:13:01.88	232.85	12.46	
2025-01-09 20:13:02.10	232.89	12.47	
2025-01-09 20:13:02.30	232.92	12.49	
2025-01-09 20:13:02.51	232.96	12.50	
2025-01-09 20:13:02.71	233.00	12.51	
2025-01-09 20:13:02.92	233.03	12.53	
2025-01-09 20:13:03.12	233.07	12.54	
2025-01-09 20:13:03.33	233.11	12.55	
2025-01-09 20:13:03.53	233.14	12.57	
2025-01-09 20:13:03.74	233.18	12.58	
2025-01-09 20:13:03.94	233.21	12.59	
2025-01-09 20:13:04.15	233.25	12.61	
2025-01-09 20:13:04.35	233.29	12.62	
2025-01-09 20:13:04.56	233.32	12.63	
2025-01-09 20:13:04.76	233.36	12.65	
2025-01-09 20:13:04.97	233.40	12.66	
2025-01-09 20:13:05.17	233.43	12.67	
2025-01-09 20:13:05.38	233.47	12.69	
2025-01-09 20:13:05.59	233.51	12.70	
2025-01-09 20:13:05.79	233.55	12.71	
2025-01-09 20:13:06.00	233.58	12.73	
2025-01-09 20:13:06.20	233.62	12.74	
2025-01-09 20:13:06.41	233.66	12.75	
2025-01-09 20:13:06.61	233.69	12.77	
2025-01-09 20:13:06.82	233.73	12.78	
2025-01-09 20:13:07.02	233.77	12.79	
2025-01-09 20:13:07.23	233.80	12.81	
2025-01-09 20:13:07.43	233.84	12.82	
2025-01-09 20:13:07.64	233.88	12.83	
2025-01-09 20:13:07.84	233.92	12.84	
2025-01-09 20:13:08.05	233.95	12.86	
2025-01-09 20:13:08.25	233.99	12.87	
2025-01-09 20:13:08.46	234.03	12.88	
2025-01-09 20:13:08.66	234.06	12.90	
2025-01-09 20:13:08.87	234.10	12.91	
2025-01-09 20:13:09.07	234.14	12.92	
2025-01-09 20:13:09.28	234.18	12.94	
2025-01-09 20:13:09.48	234.21	12.95	
2025-01-09 20:13:09.69	234.25	12.96	
2025-01-09 20:13:09.89	234.29	12.98	
2025-01-09 20:13:10.10	234.33	12.99	
2025-01-09 20:13:10.30	234.36	13.00	
2025-01-09 20:13:10.51	234.40	13.02	
2025-01-09 20:13:10.71	234.44	13.03	
2025-01-09 20:13:10.92	234.48	13.04	
2025-01-09 20:13:11.12	234.51	13.06	
2025-01-09 20:13:11.33	234.55	13.07	
2025-01-09 20:13:11.53	234.59	13.08	
2025-01-09 20:13:11.74	234.63	13.10	
2025-01-09 20:13:11.94	234.67	13.11	
2025-01-09 20:13:12.15	234.71	13.12	
2025-01-09 20:13:12.35	234.74	13.13	
2025-01-09 20:13:12.56	234.78	13.15	
2025-01-09 20:13:12.76	234.82	13.16	
2025-01-09 20:13:12.97	234.86	13.17	
2025-01-09 20:13:13.17	234.89	13.19	
2025-01-09 20:13:13.38	234.93	13.20	
2025-01-09 20:13:13.59	234.97	13.21	
2025-01-09 20:13:13.79	235.01	13.23	
2025-01-09 20:13:13.99	235.05	13.24	
2025-01-09 20:13:14.20	235.09	13.25	
2025-01-09 20:13:14.40	235.12	13.27	
2025-01-09 20:13:14.61	235.16	13.28	
2025-01-09 20:13:14.81	235.20	13.29	
2025-01-09 20:13:15.02	235.24	13.31	
2025-01-09 20:13:15.22	235.28	13.32	
2025-01-09 20:13:15.43	235.32	13.33	
2025-01-09 20:13:15.64	235.36	13.35	
2025-01-09 20:13:15.84	235.39	13.36	
2025-01-09 20:13:16.05	235.43	13.37	
2025-01-09 20:13:16.25	235.47	13.38	
2025-01-09 20:13:16.46	235.51	13.40	
2025-01-09 20:13:16.66	235.55	13.41	
2025-01-09 20:13:16.87	235.59	13.42	
2025-01-09 20:13:17.07	235.63	13.44	
2025-01-09 20:13:17.28	235.67	13.45	
2025-01-09 20:13:17.48	235.70	13.46	
2025-01-09 20:13:17.69	235.74	13.48	
2025-01-09 20:13:17.89	235.78	13.49	
2025-01-09 20:13:18.10	235.82	13.50	
2025-01-09 20:13:18.30	235.86	13.51	
2025-01-09 20:13:18.52	235.90	13.53	
2025-01-09 20:13:18.72	235.94	13.54	
2025-01-09 20:13:18.93	235.98	13.55	
2025-01-09 20:13:19.13	236.02	13.57	
2025-01-09 20:13:19.34	236.06	13.58	
2025-01-09 20:13:19.55	236.10	13.59	
2025-01-09 20:13:19.75	236.14	13.61	
2025-01-09 20:13:19.96	236.18	13.62	
2025-01-09 20:13:20.16	236.21	13.63	
2025-01-09 20:13:20.37	236.25	13.65	
2025-01-09 20:13:20.57	236.29	13.66	
2025-01-09 20:13:20.78	236.33	13.67	
2025-01-09 20:13:20.99	236.37	13.69	
2025-01-09 20:13:21.19	236.41	13.70	
2025-01-09 20:13:21.40	236.45	13.71	
2025-01-09 20:13:21.60	236.49	13.72	
2025-01-09 20:13:21.81	236.53	13.74	
2025-01-09 20:13:22.01	236.57	13.75	
2025-01-09 20:13:22.21	236.61	13.76	
2025-01-09 20:13:22.42	236.65	13.78	
2025-01-09 20:13:22.62	236.69	13.79	
2025-01-09 20:13:22.83	236.73	13.80	
2025-01-09 20:13:23.03	236.77	13.81	
2025-01-09 20:13:23.24	236.81	13.83	
2025-01-09 20:13:23.44	236.85	13.84	
2025-01-09 20:13:23.65	236.89	13.85	
2025-01-09 20:13:23.85	236.93	13.87	
2025-01-09 20:13:24.06	236.97	13.88	
2025-01-09 20:13:24.26	237.01	13.89	
2025-01-09 20:13:24.47	237.05	13.91	
2025-01-09 20:13:24.67	237.09	13.92	
2025-01-09 20:13:24.87	237.13	13.93	
2025-01-09 20:13:25.08	237.17	13.94	
2025-01-09 20:13:25.29	237.21	13.96	
2025-01-09 20:13:25.50	237.25	13.97	
2025-01-09 20:13:25.71	237.29	13.98	
2025-01-09 20:13:25.91	237.33	14.00	
2025-01-09 20:13:26.12	237.37	14.01	
2025-01-09 20:13:26.32	237.41	14.02	
2025-01-09 20:13:26.52	237.45	14.03	
2025-01-09 20:13:26.73	237.49	14.05	
2025-01-09 20:13:26.94	237.53	14.06	
2025-01-09 20:13:27.14	237.57	14.07	
2025-01-09 20:13:27.35	237.61	14.09	
2025-01-09 20:13:27.55	237.65	14.10	
2025-01-09 20:13:27.76	237.70	14.11	
2025-01-09 20:13:27.96	237.74	14.12	
2025-01-09 20:13:28.17	237.78	14.14	
2025-01-09 20:13:28.37	237.82	14.15	
2025-01-09 20:13:28.58	237.86	14.16	
2025-01-09 20:13:28.78	237.90	14.18	
2025-01-09 20:13:28.99	237.94	14.19	
2025-01-09 20:13:29.20	237.98	14.20	
2025-01-09 20:13:29.40	238.02	14.21	
2025-01-09 20:13:29.61	238.06	14.23	
2025-01-09 20:13:29.81	238.10	14.24	
2025-01-09 20:13:30.01	238.14	14.25	
2025-01-09 20:13:30.22	238.19	14.27	
2025-01-09 20:13:30.43	238.23	14.28	
2025-01-09 20:13:30.63	238.27	14.29	
2025-01-09 20:13:30.84	238.31	14.30	
2025-01-09 20:13:31.04	238.35	14.32	
2025-01-09 20:13:31.25	238.39	14.33	
2025-01-09 20:13:31.45	238.43	14.34	
2025-01-09 20:13:31.66	238.48	14.36	
2025-01-09 20:13:31.86	238.52	14.37	
2025-01-09 20:13:32.08	238.56	14.38	
2025-01-09 20:13:32.28	238.60	14.39	
2025-01-09 20:13:32.49	238.64	14.41	
2025-01-09 20:13:32.70	238.69	14.42	
2025-01-09 20:13:32.90	238.73	14.43	
2025-01-09 20:13:33.11	238.77	14.45	
2025-01-09 20:13:33.31	238.81	14.46	
2025-01-09 20:13:33.52	238.85	14.47	
2025-01-09 20:13:33.72	238.89	14.48	
2025-01-09 20:13:33.93	238.94	14.50	
2025-01-09 20:13:34.14	238.98	14.51	
2025-01-09 20:13:34.34	239.02	14.52	
2025-01-09 20:13:34.55	239.06	14.53	
2025-01-09 20:13:34.75	239.10	14.55	
2025-01-09 20:13:34.96	239.15	14.56	
2025-01-09 20:13:35.16	239.19	14.57	
2025-01-09 20:13:35.37	239.23	14.59	
2025-01-09 20:13:35.57	239.27	14.60	
2025-01-09 20:13:35.78	239.31	14.61	
2025-01-09 20:13:35.99	239.36	14.62	
2025-01-09 20:13:36.19	239.40	14.64	
2025-01-09 20:13:36.39	239.44	14.65	
2025-01-09 20:13:36.60	239.48	14.66	
2025-01-09 20:13:36.81	239.53	14.67	
2025-01-09 20:13:37.01	239.57	14.69	
2025-01-09 20:13:37.21	239.61	14.70	
2025-01-09 20:13:37.42	239.65	14.71	
2025-01-09 20:13:37.62	239.69	14.72	
2025-01-09 20:13:37.83	239.74	14.74	
2025-01-09 20:13:38.03	239.78	14.75	
2025-01-09 20:13:38.24	239.82	14.76	
2025-01-09 20:13:38.44	239.86	14.77	
2025-01-09 20:13:38.65	239.91	14.79	
2025-01-09 20:13:38.85	239.95	14.80	
2025-01-09 20:13:39.06	239.99	14.81	
2025-01-09 20:13:39.26	240.03	14.82	
2025-01-09 20:13:39.47	240.08	14.84	
2025-01-09 20:13:39.67	240.12	14.85	
2025-01-09 20:13:39.88	240.16	14.86	
2025-01-09 20:13:40.08	240.21	14.87	
2025-01-09 20:13:40.29	240.25	14.89	
2025-01-09 20:13:40.50	240.29	14.90	
2025-01-09 20:13:40.70	240.34	14.91	
2025-01-09 20:13:40.91	240.38	14.92	
2025-01-09 20:13:41.11	240.42	14.94	
2025-01-09 20:13:41.32	240.47	14.95	
2025-01-09 20:13:41.54	240.51	14.96	
2025-01-09 20:13:41.74	240.55	14.97	
2025-01-09 20:13:41.94	240.60	14.99	
2025-01-09 20:13:42.15	240.64	15.00	
2025-01-09 20:13:42.35	240.68	15.01	
2025-01-09 20:13:42.56	240.73	15.02	
2025-01-09 20:13:42.77	240.77	15.04	
2025-01-09 20:13:42.97	240.81	15.05	
2025-01-09 20:13:43.18	240.86	15.06	
2025-01-09 20:13:43.38	240.90	15.07	
2025-01-09 20:13:43.59	240.95	15.09	
2025-01-09 20:13:43.79	240.99	15.10	
2025-01-09 20:13:44.00	241.03	15.11	
2025-01-09 20:13:44.20	241.07	15.12	
2025-01-09 20:13:44.40	241.12	15.13	
2025-01-09 20:13:44.61	241.16	15.15	
2025-01-09 20:13:44.81	241.20	15.16	
2025-01-09 20:13:45.02	241.25	15.17	
2025-01-09 20:13:45.23	241.29	15.18	
2025-01-09 20:13:45.43	241.34	15.20	
2025-01-09 20:13:45.64	241.38	15.21	
2025-01-09 20:13:45.84	241.43	15.22	
2025-01-09 20:13:46.05	241.47	15.23	
2025-01-09 20:13:46.25	241.51	15.25	
2025-01-09 20:13:46.46	241.56	15.26	
2025-01-09 20:13:46.67	241.60	15.27	
2025-01-09 20:13:46.87	241.65	15.28	
2025-01-09 20:13:47.08	241.69	15.29	
2025-01-09 20:13:47.28	241.73	15.31	
2025-01-09 20:13:47.49	241.78	15.32	
2025-01-09 20:13:47.69	241.82	15.33	
2025-01-09 20:13:47.90	241.87	15.34	
2025-01-09 20:13:48.10	241.91	15.36	
2025-01-09 20:13:48.31	241.96	15.37	
2025-01-09 20:13:48.52	242.00	15.38	
2025-01-09 20:13:48.72	242.05	15.39	
2025-01-09 20:13:48.93	242.09	15.40	
2025-01-09 20:13:49.13	242.13	15.42	
2025-01-09 20:13:49.34	242.18	15.43	
2025-01-09 20:13:49.54	242.22	15.44	
2025-01-09 20:13:49.75	242.27	15.45	
2025-01-09 20:13:49.95	242.31	15.46	
2025-01-09 20:13:50.16	242.36	15.48	
2025-01-09 20:13:50.36	242.40	15.49	
2025-01-09 20:13:50.57	242.45	15.50	
2025-01-09 20:13:50.77	242.49	15.51	
2025-01-09 20:13:50.98	242.54	15.53	
2025-01-09 20:13:51.20	242.59	15.54	
2025-01-09 20:13:51.40	242.63	15.55	
2025-01-09 20:13:51.61	242.68	15.56	
2025-01-09 20:13:51.81	242.72	15.57	
2025-01-09 20:13:52.02	242.77	15.59	
2025-01-09 20:13:52.22	242.81	15.60	
2025-01-09 20:13:52.43	242.86	15.61	
2025-01-09 20:13:52.63	242.90	15.62	
2025-01-09 20:13:52.84	242.95	15.63	
2025-01-09 20:13:53.04	242.99	15.65	
2025-01-09 20:13:53.25	243.04	15.66	
2025-01-09 20:13:53.45	243.08	15.67	
2025-01-09 20:13:53.66	243.13	15.68	
2025-01-09 20:13:53.86	243.17	15.69	
2025-01-09 20:13:54.07	243.22	15.71	
2025-01-09 20:13:54.27	243.26	15.72	
2025-01-09 20:13:54.48	243.31	15.73	
2025-01-09 20:13:54.68	243.35	15.74	
2025-01-09 20:13:54.89	243.40	15.75	
2025-01-09 20:13:55.09	243.44	15.76	
2025-01-09 20:13:55.30	243.49	15.78	
2025-01-09 20:13:55.50	243.54	15.79	
2025-01-09 20:13:55.71	243.58	15.80	
2025-01-09 20:13:55.91	243.63	15.81	
2025-01-09 20:13:56.12	243.67	15.82	
2025-01-09 20:13:56.32	243.72	15.84	
2025-01-09 20:13:56.53	243.77	15.85	
2025-01-09 20:13:56.73	243.81	15.86	
2025-01-09 20:13:56.94	243.86	15.87	
2025-01-09 20:13:57.14	243.90	15.88	
2025-01-09 20:13:57.35	243.95	15.89	
2025-01-09 20:13:57.56	244.00	15.91	
2025-01-09 20:13:57.77	244.04	15.92	
2025-01-09 20:13:57.98	244.09	15.93	
2025-01-09 20:13:58.18	244.14	15.94	
2025-01-09 20:13:58.39	244.18	15.95	
2025-01-09 20:13:58.59	244.23	15.97	
2025-01-09 20:13:58.79	244.27	15.98	
2025-01-09 20:13:59.00	244.32	15.99	
2025-01-09 20:13:59.21	244.37	16.00	
2025-01-09 20:13:59.41	244.41	16.01	
2025-01-09 20:13:59.61	244.46	16.02	
2025-01-09 20:13:59.82	244.51	16.03	
2025-01-09 20:14:00.02	244.55	16.05	
2025-01-09 20:14:00.23	244.60	16.06	
2025-01-09 20:14:00.43	244.65	16.07	
2025-01-09 20:14:00.63	244.69	16.08	
2025-01-09 20:14:00.84	244.74	16.09	
2025-01-09 20:14:01.04	244.78	16.10	
2025-01-09 20:14:01.25	244.83	16.12	
2025-01-09 20:14:01.46	244.88	16.13	
2025-01-09 20:14:01.66	244.93	16.14	
2025-01-09 20:14:01.87	244.97	16.15	
2025-01-09 20:14:02.07	245.02	16.16	
2025-01-09 20:14:02.28	245.07	16.17	
2025-01-09 20:14:02.48	245.11	16.18	
2025-01-09 20:14:02.69	245.16	16.20	
2025-01-09 20:14:02.90	245.21	16.21	
2025-01-09 20:14:03.11	245.26	16.22	
2025-01-09 20:14:03.32	245.31	16.23	
2025-01-09 20:14:03.52	245.35	16.24	
2025-01-09 20:14:03.73	245.40	16.25	
2025-01-09 20:14:03.94	245.45	16.27	
2025-01-09 20:14:04.15	245.50	16.28	
2025-01-09 20:14:04.36	245.55	16.29	
2025-01-09 20:14:04.56	245.59	16.30	
2025-01-09 20:14:04.77	245.64	16.31	
2025-01-09 20:14:04.97	245.69	16.32	
2025-01-09 20:14:05.17	245.73	16.33	
2025-01-09 20:14:05.38	245.78	16.35	
2025-01-09 20:14:05.59	245.83	16.36	
2025-01-09 20:14:05.79	245.88	16.37	
2025-01-09 20:14:06.00	245.92	16.38	
2025-01-09 20:14:06.20	245.97	16.39	
2025-01-09 20:14:06.41	246.02	16.40	
2025-01-09 20:14:06.61	246.07	16.41	
2025-01-09 20:14:06.82	246.12	16.42	
2025-01-09 20:14:07.02	246.16	16.44	
2025-01-09 20:14:07.22	246.21	16.45	
2025-01-09 20:14:07.43	246.26	16.46	
2025-01-09 20:14:07.64	246.31	16.47	
2025-01-09 20:14:07.84	246.35	16.48	
2025-01-09 20:14:08.05	246.40	16.49	
2025-01-09 20:14:08.25	246.45	16.50	
2025-01-09 20:14:08.45	246.50	16.51	
2025-01-09 20:14:08.66	246.55	16.52	
2025-01-09 20:14:08.86	246.59	16.53	
2025-01-09 20:14:09.07	246.64	16.55	
2025-01-09 20:14:09.27	246.69	16.56	
2025-01-09 20:14:09.48	246.74	16.57	
2025-01-09 20:14:09.68	246.78	16.58	
2025-01-09 20:14:09.89	246.83	16.59	
2025-01-09 20:14:10.10	246.88	16.60	
2025-01-09 20:14:10.30	246.93	16.61	
2025-01-09 20:14:10.50	246.98	16.62	
2025-01-09 20:14:10.71	247.03	16.63	
2025-01-09 20:14:10.91	247.07	16.64	
2025-01-09 20:14:11.12	247.12	16.66	
2025-01-09 20:14:11.33	247.17	16.67	
2025-01-09 20:14:11.53	247.22	16.68	
2025-01-09 20:14:11.74	247.27	16.69	
2025-01-09 20:14:11.94	247.32	16.70	
2025-01-09 20:14:12.15	247.37	16.71	
2025-01-09 20:14:12.36	247.42	16.72	
2025-01-09 20:14:12.57	247.47	16.73	
2025-01-09 20:14:12.78	247.52	16.74	
2025-01-09 20:14:12.98	247.57	16.75	
2025-01-09 20:14:13.19	247.62	16.77	
2025-01-09 20:14:13.39	247.66	16.78	
2025-01-09 20:14:13.60	247.71	16.79	
2025-01-09 20:14:13.81	247.76	16.80	
2025-01-09 20:14:14.02	247.81	16.81	
2025-01-09 20:14:14.22	247.86	16.82	
2025-01-09 20:14:14.43	247.91	16.83	
2025-01-09 20:14:14.63	247.96	16.84	
2025-01-09 20:14:14.84	248.01	16.85	
2025-01-09 20:14:15.04	248.06	16.86	
2025-01-09 20:14:15.24	248.11	16.87	
2025-01-09 20:14:15.45	248.16	16.88	
2025-01-09 20:14:15.65	248.21	16.89	
2025-01-09 20:14:15.86	248.26	16.91	
2025-01-09 20:14:16.06	248.30	16.92	
2025-01-09 20:14:16.27	248.35	16.93	
2025-01-09 20:14:16.47	248.40	16.94	
2025-01-09 20:14:16.68	248.45	16.95	
2025-01-09 20:14:16.90	248.51	16.96	
2025-01-09 20:14:17.10	248.55	16.97	
2025-01-09 20:14:17.31	248.61	16.98	
2025-01-09 20:14:17.51	248.65	16.99	
2025-01-09 20:14:17.72	248.70	17.00	
2025-01-09 20:14:17.92	248.75	17.01	
2025-01-09 20:14:18.13	248.80	17.02	
2025-01-09 20:14:18.33	248.85	17.03	
2025-01-09 20:14:18.54	248.90	17.04	
2025-01-09 20:14:18.74	248.95	17.05	
2025-01-09 20:14:18.95	249.00	17.06	
2025-01-09 20:14:19.15	249.05	17.07	
2025-01-09 20:14:19.36	249.10	17.08	
2025-01-09 20:14:19.56	249.15	17.09	
2025-01-09 20:14:19.77	249.20	17.10	
2025-01-09 20:14:19.97	249.25	17.11	
2025-01-09 20:14:20.18	249.30	17.13	
2025-01-09 20:14:20.38	249.35	17.14	
2025-01-09 20:14:20.59	249.40	17.15	
2025-01-09 20:14:20.79	249.45	17.16	
2025-01-09 20:14:21.00	249.50	17.17	
2025-01-09 20:14:21.20	249.55	17.18	
2025-01-09 20:14:21.41	249.60	17.19	
2025-01-09 20:14:21.61	249.65	17.20	
2025-01-09 20:14:21.82	249.70	17.21	
2025-01-09 20:14:22.03	249.76	17.22	
2025-01-09 20:14:22.23	249.81	17.23	
2025-01-09 20:14:22.43	249.85	17.24	
2025-01-09 20:14:22.64	249.91	17.25	
2025-01-09 20:14:22.85	249.96	17.26	
2025-01-09 20:14:23.05	250.01	17.27	
2025-01-09 20:14:23.25	250.06	17.28	
2025-01-09 20:14:23.46	250.11	17.29	
2025-01-09 20:14:23.67	250.16	17.30	
2025-01-09 20:14:23.87	250.21	17.31	
2025-01-09 20:14:24.08	250.26	17.32	
2025-01-09 20:14:24.28	250.31	17.33	
2025-01-09 20:14:24.49	250.36	17.34	
2025-01-09 20:14:24.69	250.41	17.35	
2025-01-09 20:14:24.90	250.47	17.36	
2025-01-09 20:14:25.10	250.52	17.37	
2025-01-09 20:14:25.30	250.56	17.38	
2025-01-09 20:14:25.51	250.62	17.39	
2025-01-09 20:14:25.71	250.67	17.40	
2025-01-09 20:14:25.92	250.72	17.41	
2025-01-09 20:14:26.13	250.77	17.42	
2025-01-09 20:14:26.33	250.82	17.43	
2025-01-09 20:14:26.54	250.87	17.44	
2025-01-09 20:14:26.74	250.92	17.45	
2025-01-09 20:14:26.94	250.97	17.46	
2025-01-09 20:14:27.15	251.03	17.47	
2025-01-09 20:14:27.36	251.08	17.48	
2025-01-09 20:14:27.57	251.13	17.49	
2025-01-09 20:14:27.78	251.18	17.50	
2025-01-09 20:14:27.99	251.24	17.51	
2025-01-09 20:14:28.19	251.29	17.52	
2025-01-09 20:14:28.40	251.34	17.52	
2025-01-09 20:14:28.61	251.39	17.53	
2025-01-09 20:14:28.82	251.44	17.54	
2025-01-09 20:14:29.02	251.49	17.55	
2025-01-09 20:14:29.23	251.55	17.56	
2025-01-09 20:14:29.43	251.60	17.57	
2025-01-09 20:14:29.64	251.65	17.58	
2025-01-09 20:14:29.84	251.70	17.59	
2025-01-09 20:14:30.04	251.75	17.60	
2025-01-09 20:14:30.25	251.80	17.61	
2025-01-09 20:14:30.45	251.86	17.62	
2025-01-09 20:14:30.66	251.91	17.63	
2025-01-09 20:14:30.86	251.96	17.64	
2025-01-09 20:14:31.07	252.01	17.65	
2025-01-09 20:14:31.27	252.06	17.66	
2025-01-09 20:14:31.47	252.11	17.67	
2025-01-09 20:14:31.68	252.17	17.68	
2025-01-09 20:14:31.88	252.22	17.69	
2025-01-09 20:14:32.09	252.27	17.70	
2025-01-09 20:14:32.30	252.32	17.71	
2025-01-09 20:14:32.50	252.38	17.71	
2025-01-09 20:14:32.71	252.43	17.72	
2025-01-09 20:14:32.91	252.48	17.73	
2025-01-09 20:14:33.12	252.53	17.74	
2025-01-09 20:14:33.32	252.58	17.75	
2025-01-09 20:14:33.53	252.64	17.76	
2025-01-09 20:14:33.74	252.69	17.77	
2025-01-09 20:14:33.95	252.74	17.78	
2025-01-09 20:14:34.16	252.80	17.79	
2025-01-09 20:14:34.37	252.85	17.80	
2025-01-09 20:14:34.57	252.90	17.81	
2025-01-09 20:14:34.78	252.96	17.82	
2025-01-09 20:14:34.98	253.01	17.83	
2025-01-09 20:14:35.19	253.06	17.83	
2025-01-09 20:14:35.39	253.11	17.84	
2025-01-09 20:14:35.60	253.17	17.85	
2025-01-09 20:14:35.80	253.22	17.86	
2025-01-09 20:14:36.01	253.27	17.87	
2025-01-09 20:14:36.21	253.32	17.88	
2025-01-09 20:14:36.42	253.38	17.89	
2025-01-09 20:14:36.62	253.43	17.90	
2025-01-09 20:14:36.83	253.48	17.91	
2025-01-09 20:14:37.03	253.54	17.91	
2025-01-09 20:14:37.24	253.59	17.92	
2025-01-09 20:14:37.44	253.64	17.93	
2025-01-09 20:14:37.65	253.70	17.94	
2025-01-09 20:14:37.86	253.75	17.95	
2025-01-09 20:14:38.06	253.80	17.96	
2025-01-09 20:14:38.26	253.85	17.97	
2025-01-09 20:14:38.47	253.91	17.98	
2025-01-09 20:14:38.68	253.96	17.99	
2025-01-09 20:14:38.88	254.01	17.99	
2025-01-09 20:14:39.08	254.07	18.00	
2025-01-09 20:14:39.29	254.12	18.01	
2025-01-09 20:14:39.50	254.17	18.02	
2025-01-09 20:14:39.70	254.23	18.03	
2025-01-09 20:14:39.91	254.28	18.04	
2025-01-09 20:14:40.11	254.33	18.05	
2025-01-09 20:14:40.31	254.38	18.05	
2025-01-09 20:14:40.52	254.44	18.06	
2025-01-09 20:14:40.73	254.49	18.07	
2025-01-09 20:14:40.93	254.55	18.08	
2025-01-09 20:14:41.14	254.60	18.09	
2025-01-09 20:14:41.34	254.65	18.10	
2025-01-09 20:14:41.54	254.71	18.11	
2025-01-09 20:14:41.75	254.76	18.11	
2025-01-09 20:14:41.95	254.81	18.12	
2025-01-09 20:14:42.16	254.87	18.13	
2025-01-09 20:14:42.36	254.92	18.14	
2025-01-09 20:14:42.57	254.97	18.15	
2025-01-09 20:14:42.77	255.03	18.16	
2025-01-09 20:14:42.98	255.08	18.16	
2025-01-09 20:14:43.19	255.14	18.17	
2025-01-09 20:14:43.39	255.19	18.18	
2025-01-09 20:14:43.59	255.24	18.19	
2025-01-09 20:14:43.80	255.30	18.20	
2025-01-09 20:14:44.00	255.35	18.20	
2025-01-09 20:14:44.21	255.41	18.21	
2025-01-09 20:14:44.41	255.46	18.22	
2025-01-09 20:14:44.63	255.52	18.23	
2025-01-09 20:14:44.84	255.57	18.24	
2025-01-09 20:14:45.04	255.62	18.25	
2025-01-09 20:14:45.25	255.68	18.25	
2025-01-09 20:14:45.45	255.73	18.26	
2025-01-09 20:14:45.66	255.79	18.27	
2025-01-09 20:14:45.86	255.84	18.28	
2025-01-09 20:14:46.07	255.90	18.29	
2025-01-09 20:14:46.28	255.95	18.29	
2025-01-09 20:14:46.48	256.00	18.30	
2025-01-09 20:14:46.68	256.06	18.31	
2025-01-09 20:14:46.89	256.11	18.32	
2025-01-09 20:14:47.09	256.17	18.33	
2025-01-09 20:14:47.30	256.22	18.33	
2025-01-09 20:14:47.50	256.27	18.34	
2025-01-09 20:14:47.71	256.33	18.35	
2025-01-09 20:14:47.91	256.38	18.36	
2025-01-09 20:14:48.12	256.44	18.37	
2025-01-09 20:14:48.32	256.49	18.37	
2025-01-09 20:14:48.53	256.55	18.38	
2025-01-09 20:14:48.73	256.60	18.39	
2025-01-09 20:14:48.93	256.65	18.40	
2025-01-09 20:14:49.14	256.71	18.40	
2025-01-09 20:14:49.35	256.77	18.41	
2025-01-09 20:14:49.55	256.82	18.42	
2025-01-09 20:14:49.76	256.88	18.43	
2025-01-09 20:14:49.97	256.93	18.43	
2025-01-09 20:14:50.18	256.99	18.44	
2025-01-09 20:14:50.39	257.04	18.45	
2025-01-09 20:14:50.59	257.10	18.46	
2025-01-09 20:14:50.80	257.15	18.47	
2025-01-09 20:14:51.00	257.21	18.47	
2025-01-09 20:14:51.21	257.26	18.48	
2025-01-09 20:14:51.41	257.32	18.49	
2025-01-09 20:14:51.62	257.37	18.49	
2025-01-09 20:14:51.82	257.43	18.50	
2025-01-09 20:14:52.03	257.48	18.51	
2025-01-09 20:14:52.23	257.54	18.52	
2025-01-09 20:14:52.44	257.59	18.52	
2025-01-09 20:14:52.64	257.65	18.53	
2025-01-09 20:14:52.85	257.70	18.54	
2025-01-09 20:14:53.05	257.76	18.55	
2025-01-09 20:14:53.26	257.81	18.55	
2025-01-09 20:14:53.46	257.87	18.56	
2025-01-09 20:14:53.67	257.92	18.57	
2025-01-09 20:14:53.87	257.98	18.57	
2025-01-09 20:14:54.08	258.03	18.58	
2025-01-09 20:14:54.28	258.09	18.59	
2025-01-09 20:14:54.49	258.15	18.60	
2025-01-09 20:14:54.69	258.20	18.60	
2025-01-09 20:14:54.90	258.26	18.61	
2025-01-09 20:14:55.11	258.31	18.62	
2025-01-09 20:14:55.32	258.37	18.62	
2025-01-09 20:14:55.53	258.43	18.63	
2025-01-09 20:14:55.73	258.48	18.64	
2025-01-09 20:14:55.94	258.54	18.65	
2025-01-09 20:14:56.15	258.59	18.65	
2025-01-09 20:14:56.35	258.65	18.66	
2025-01-09 20:14:56.55	258.70	18.67	
2025-01-09 20:14:56.76	258.76	18.67	
2025-01-09 20:14:56.97	258.82	18.68	
2025-01-09 20:14:57.17	258.87	18.69	
2025-01-09 20:14:57.37	258.93	18.69	
2025-01-09 20:14:57.58	258.98	18.70	
2025-01-09 20:14:57.78	259.04	18.71	
2025-01-09 20:14:57.99	259.09	18.71	
2025-01-09 20:14:58.19	259.15	18.72	
2025-01-09 20:14:58.40	259.21	18.73	
2025-01-09 20:14:58.60	259.26	18.73	
2025-01-09 20:14:58.81	259.32	18.74	
2025-01-09 20:14:59.01	259.37	18.75	
2025-01-09 20:14:59.22	259.43	18.75	
2025-01-09 20:14:59.42	259.48	18.76	
2025-01-09 20:14:59.63	259.54	18.77	
2025-01-09 20:14:59.83	259.60	18.77	
2025-01-09 20:15:00.03	259.65	18.78	
2025-01-09 20:15:00.24	259.71	18.79	
2025-01-09 20:15:00.45	259.77	18.79	
2025-01-09 20:15:00.65	259.82	18.80	
2025-01-09 20:15:00.86	259.88	18.80	
2025-01-09 20:15:01.06	259.93	18.81	
2025-01-09 20:15:01.27	259.99	18.82	
2025-01-09 20:15:01.48	260.05	18.82	
2025-01-09 20:15:01.68	260.10	18.83	
2025-01-09 20:15:01.88	260.16	18.84	
2025-01-09 20:15:02.09	260.21	18.84	
2025-01-09 20:15:02.29	260.27	18.85	
2025-01-09 20:15:02.50	260.33	18.85	
2025-01-09 20:15:02.70	260.38	18.86	
2025-01-09 20:15:02.91	260.44	18.87	
2025-01-09 20:15:03.11	260.49	18.87	
2025-01-09 20:15:03.32	260.55	18.88	
2025-01-09 20:15:03.52	260.61	18.89	
2025-01-09 20:15:03.73	260.67	18.89	
2025-01-09 20:15:03.94	260.72	18.90	
2025-01-09 20:15:04.14	260.78	18.90	
2025-01-09 20:15:04.35	260.84	18.91	
2025-01-09 20:15:04.55	260.89	18.92	
2025-01-09 20:15:04.76	260.95	18.92	
2025-01-09 20:15:04.98	261.01	18.93	
2025-01-09 20:15:05.18	261.07	18.93	
2025-01-09 20:15:05.39	261.12	18.94	
2025-01-09 20:15:05.59	261.18	18.94	
2025-01-09 20:15:05.80	261.24	18.95	
2025-01-09 20:15:06.02	261.30	18.96	
2025-01-09 20:15:06.22	261.35	18.96	
2025-01-09 20:15:06.43	261.41	18.97	
2025-01-09 20:15:06.63	261.47	18.97	
2025-01-09 20:15:06.84	261.52	18.98	
2025-01-09 20:15:07.06	261.59	18.99	
2025-01-09 20:15:07.26	261.64	18.99	
2025-01-09 20:15:07.47	261.70	19.00	
2025-01-09 20:15:07.67	261.75	19.00	
2025-01-09 20:15:07.88	261.81	19.01	
2025-01-09 20:15:08.08	261.87	19.01	
2025-01-09 20:15:08.29	261.93	19.02	
2025-01-09 20:15:08.49	261.98	19.02	
2025-01-09 20:15:08.70	262.04	19.03	
2025-01-09 20:15:08.90	262.10	19.04	
2025-01-09 20:15:09.12	262.16	19.04	
2025-01-09 20:15:09.33	262.22	19.05	
2025-01-09 20:15:09.53	262.27	19.05	
2025-01-09 20:15:09.74	262.33	19.06	
2025-01-09 20:15:09.94	262.39	19.06	
2025-01-09 20:15:10.14	262.44	19.07	
2025-01-09 20:15:10.35	262.50	19.07	
2025-01-09 20:15:10.56	262.56	19.08	
2025-01-09 20:15:10.76	262.61	19.08	
2025-01-09 20:15:10.97	262.67	19.09	
2025-01-09 20:15:11.17	262.73	19.09	
2025-01-09 20:15:11.38	262.79	19.10	
2025-01-09 20:15:11.58	262.84	19.10	
2025-01-09 20:15:11.79	262.90	19.11	
2025-01-09 20:15:11.99	262.96	19.11	
2025-01-09 20:15:12.20	263.02	19.12	
2025-01-09 20:15:12.40	263.07	19.12	
2025-01-09 20:15:12.61	263.13	19.13	
2025-01-09 20:15:12.82	263.19	19.13	
2025-01-09 20:15:13.02	263.25	19.14	
2025-01-09 20:15:13.23	263.30	19.14	
2025-01-09 20:15:13.43	263.36	19.15	
2025-01-09 20:15:13.64	263.42	19.15	
2025-01-09 20:15:13.84	263.48	19.16	
2025-01-09 20:15:14.05	263.53	19.16	
2025-01-09 20:15:14.25	263.59	19.17	
2025-01-09 20:15:14.46	263.65	19.17	
2025-01-09 20:15:14.66	263.71	19.18	
2025-01-09 20:15:14.87	263.76	19.18	
2025-01-09 20:15:15.07	263.82	19.19	
2025-01-09 20:15:15.28	263.88	19.19	
2025-01-09 20:15:15.48	263.94	19.19	
2025-01-09 20:15:15.69	263.99	19.20	
2025-01-09 20:15:15.89	264.05	19.20	
2025-01-09 20:15:16.10	264.11	19.21	
2025-01-09 20:15:16.31	264.17	19.21	
2025-01-09 20:15:16.51	264.23	19.22	
2025-01-09 20:15:16.73	264.29	19.22	
2025-01-09 20:15:16.93	264.34	19.23	
2025-01-09 20:15:17.14	264.40	19.23	
2025-01-09 20:15:17.35	264.46	19.23	
2025-01-09 20:15:17.55	264.52	19.24	
2025-01-09 20:15:17.75	264.57	19.24	
2025-01-09 20:15:17.96	264.63	19.25	
2025-01-09 20:15:18.17	264.69	19.25	
2025-01-09 20:15:18.37	264.75	19.26	
2025-01-09 20:15:18.57	264.81	19.26	
2025-01-09 20:15:18.79	264.87	19.26	
2025-01-09 20:15:19.00	264.93	19.27	
2025-01-09 20:15:19.20	264.98	19.27	
2025-01-09 20:15:19.41	265.04	19.28	
2025-01-09 20:15:19.61	265.10	19.28	
2025-01-09 20:15:19.82	265.16	19.28	
2025-01-09 20:15:20.02	265.22	19.29	
2025-01-09 20:15:20.23	265.27	19.29	
2025-01-09 20:15:20.43	265.33	19.30	
2025-01-09 20:15:20.64	265.39	19.30	
2025-01-09 20:15:20.84	265.45	19.30	
2025-01-09 20:15:21.05	265.51	19.31	
2025-01-09 20:15:21.25	265.56	19.31	
2025-01-09 20:15:21.45	265.62	19.32	
2025-01-09 20:15:21.66	265.68	19.32	
2025-01-09 20:15:21.86	265.74	19.32	
2025-01-09 20:15:22.07	265.80	19.33	
2025-01-09 20:15:22.27	265.85	19.33	
2025-01-09 20:15:22.48	265.91	19.33	
2025-01-09 20:15:22.69	265.97	19.34	
2025-01-09 20:15:22.89	266.03	19.34	
2025-01-09 20:15:23.10	266.09	19.34	
2025-01-09 20:15:23.30	266.14	19.35	
2025-01-09 20:15:23.51	266.20	19.35	
2025-01-09 20:15:23.71	266.26	19.36	
2025-01-09 20:15:23.92	266.32	19.36	
2025-01-09 20:15:24.12	266.38	19.36	
2025-01-09 20:15:24.33	266.44	19.37	
2025-01-09 20:15:24.53	266.49	19.37	
2025-01-09 20:15:24.74	266.55	19.37	
2025-01-09 20:15:24.94	266.61	19.38	
2025-01-09 20:15:25.15	266.67	19.38	
2025-01-09 20:15:25.35	266.73	19.38	
2025-01-09 20:15:25.56	266.79	19.39	
2025-01-09 20:15:25.76	266.84	19.39	
2025-01-09 20:15:25.97	266.90	19.39	
2025-01-09 20:15:26.17	266.96	19.39	
2025-01-09 20:15:26.38	267.02	19.40	
2025-01-09 20:15:26.58	267.08	19.40	
2025-01-09 20:15:26.79	267.14	19.40	
2025-01-09 20:15:26.99	267.19	19.41	
2025-01-09 20:15:27.20	267.25	19.41	
2025-01-09 20:15:27.40	267.31	19.41	
2025-01-09 20:15:27.60	267.37	19.42	
2025-01-09 20:15:27.81	267.43	19.42	
2025-01-09 20:15:28.01	267.49	19.42	
2025-01-09 20:15:28.22	267.55	19.42	
2025-01-09 20:15:28.44	267.61	19.43	
2025-01-09 20:15:28.64	267.66	19.43	
2025-01-09 20:15:28.85	267.72	19.43	
2025-01-09 20:15:29.05	267.78	19.44	
2025-01-09 20:15:29.26	267.84	19.44	
2025-01-09 20:15:29.46	267.90	19.44	
2025-01-09 20:15:29.67	267.96	19.44	
2025-01-09 20:15:29.87	268.02	19.45	
2025-01-09 20:15:30.08	268.08	19.45	
2025-01-09 20:15:30.29	268.14	19.45	
2025-01-09 20:15:30.50	268.20	19.45	
2025-01-09 20:15:30.71	268.26	19.46	
2025-01-09 20:15:30.92	268.32	19.46	
2025-01-09 20:15:31.12	268.37	19.46	
2025-01-09 20:15:31.33	268.43	19.46	
2025-01-09 20:15:31.53	268.49	19.47	
2025-01-09 20:15:31.74	268.55	19.47	
2025-01-09 20:15:31.94	268.61	19.47	
2025-01-09 20:15:32.15	268.67	19.47	
2025-01-09 20:15:32.35	268.73	19.48	
2025-01-09 20:15:32.56	268.79	19.48	
2025-01-09 20:15:32.76	268.84	19.48	
2025-01-09 20:15:32.97	268.90	19.48	
2025-01-09 20:15:33.17	268.96	19.49	
2025-01-09 20:15:33.38	269.02	19.49	
2025-01-09 20:15:33.58	269.08	19.49	
2025-01-09 20:15:33.79	269.14	19.49	
2025-01-09 20:15:33.99	269.20	19.49	
2025-01-09 20:15:34.20	269.26	19.50	
2025-01-09 20:15:34.40	269.31	19.50	
2025-01-09 20:15:34.61	269.37	19.50	
2025-01-09 20:15:34.81	269.43	19.50	
2025-01-09 20:15:35.02	269.49	19.50	
2025-01-09 20:15:35.22	269.55	19.51	
2025-01-09 20:15:35.43	269.61	19.51	
2025-01-09 20:15:35.64	269.67	19.51	
2025-01-09 20:15:35.84	269.73	19.51	
2025-01-09 20:15:36.05	269.79	19.51	
2025-01-09 20:15:36.25	269.84	19.52	
2025-01-09 20:15:36.46	269.90	19.52	
2025-01-09 20:15:36.66	269.96	19.52	
2025-01-09 20:15:36.87	270.02	19.52	
2025-01-09 20:15:37.07	270.08	19.52	
2025-01-09 20:15:37.28	270.14	19.52	
2025-01-09 20:15:37.48	270.20	19.53	
2025-01-09 20:15:37.69	270.26	19.53	
2025-01-09 20:15:37.89	270.31	19.53	
2025-01-09 20:15:38.10	270.37	19.53	
2025-01-09 20:15:38.30	270.43	19.53	
2025-01-09 20:15:38.51	270.49	19.53	
2025-01-09 20:15:38.71	270.55	19.53	
2025-01-09 20:15:38.92	270.61	19.54	
2025-01-09 20:15:39.12	270.67	19.54	
2025-01-09 20:15:39.33	270.73	19.54	
2025-01-09 20:15:39.53	270.79	19.54	
2025-01-09 20:15:39.74	270.85	19.54	
2025-01-09 20:15:39.94	270.90	19.54	
2025-01-09 20:15:40.16	270.97	19.54	
2025-01-09 20:15:40.37	271.03	19.54	
2025-01-09 20:15:40.57	271.08	19.55	
2025-01-09 20:15:40.78	271.14	19.55	
2025-01-09 20:15:40.99	271.21	19.55	
2025-01-09 20:15:41.20	271.27	19.55	
2025-01-09 20:15:41.41	271.33	19.55	
2025-01-09 20:15:41.61	271.38	19.55	
2025-01-09 20:15:41.82	271.44	19.55	
2025-01-09 20:15:42.02	271.50	19.55	
2025-01-09 20:15:42.23	271.56	19.55	
2025-01-09 20:15:42.43	271.62	19.55	
2025-01-09 20:15:42.64	271.68	19.56	
2025-01-09 20:15:42.84	271.74	19.56	
2025-01-09 20:15:43.05	271.80	19.56	
2025-01-09 20:15:43.25	271.86	19.56	
2025-01-09 20:15:43.45	271.91	19.56	
2025-01-09 20:15:43.66	271.97	19.56	
2025-01-09 20:15:43.86	272.03	19.56	
2025-01-09 20:15:44.07	272.09	19.56	
2025-01-09 20:15:44.27	272.15	19.56	
2025-01-09 20:15:44.48	272.21	19.56	
2025-01-09 20:15:44.68	272.27	19.56	
2025-01-09 20:15:44.89	272.33	19.56	
2025-01-09 20:15:45.09	272.39	19.56	
2025-01-09 20:15:45.30	272.45	19.56	
2025-01-09 20:15:45.52	272.51	19.56	
2025-01-09 20:15:45.72	272.57	19.57	
2025-01-09 20:15:45.92	272.62	19.57	
2025-01-09 20:15:46.13	272.68	19.57	
2025-01-09 20:15:46.34	272.74	19.57	
2025-01-09 20:15:46.54	272.80	19.57	
2025-01-09 20:15:46.76	272.87	19.57	
2025-01-09 20:15:46.96	272.92	19.57	
2025-01-09 20:15:47.17	272.98	19.57	
2025-01-09 20:15:47.37	273.04	19.57	
2025-01-09 20:15:47.58	273.10	19.57	
2025-01-09 20:15:47.78	273.16	19.57	
2025-01-09 20:15:47.99	273.22	19.57	
2025-01-09 20:15:48.19	273.28	19.57	
2025-01-09 20:15:48.40	273.34	19.57	
2025-01-09 20:15:48.60	273.40	19.57	
2025-01-09 20:15:48.81	273.46	19.57	
2025-01-09 20:15:49.01	273.51	19.57	
2025-01-09 20:15:49.22	273.57	19.57	
2025-01-09 20:15:49.42	273.63	19.57	
2025-01-09 20:15:49.63	273.69	19.57	
2025-01-09 20:15:49.83	273.75	19.57	
2025-01-09 20:15:50.03	273.81	19.57	
2025-01-09 20:15:50.24	273.87	19.57	
2025-01-09 20:15:50.45	273.93	19.57	
2025-01-09 20:15:50.65	273.99	19.57	
2025-01-09 20:15:50.87	274.05	19.57	
2025-01-09 20:15:51.07	274.11	19.57	
2025-01-09 20:15:51.28	274.17	19.57	
2025-01-09 20:15:51.48	274.22	19.57	
2025-01-09 20:15:51.69	274.29	19.57	
2025-01-09 20:15:51.89	274.34	19.56	
2025-01-09 20:15:52.09	274.40	19.56	
2025-01-09 20:15:52.30	274.46	19.56	
2025-01-09 20:15:52.51	274.52	19.56	
2025-01-09 20:15:52.72	274.58	19.56	
2025-01-09 20:15:52.92	274.64	19.56	
2025-01-09 20:15:53.13	274.70	19.56	
2025-01-09 20:15:53.33	274.76	19.56	
2025-01-09 20:15:53.53	274.81	19.56	
2025-01-09 20:15:53.74	274.88	19.56	
2025-01-09 20:15:53.94	274.93	19.56	
2025-01-09 20:15:54.14	274.99	19.56	
2025-01-09 20:15:54.35	275.05	19.56	
2025-01-09 20:15:54.56	275.11	19.56	
2025-01-09 20:15:54.76	275.17	19.56	
2025-01-09 20:15:54.97	275.23	19.55	
2025-01-09 20:15:55.17	275.29	19.55	
2025-01-09 20:15:55.38	275.35	19.55	
2025-01-09 20:15:55.58	275.40	19.55	
2025-01-09 20:15:55.79	275.46	19.55	
2025-01-09 20:15:55.99	275.52	19.55	
2025-01-09 20:15:56.20	275.58	19.55	
2025-01-09 20:15:56.40	275.64	19.55	
2025-01-09 20:15:56.61	275.70	19.55	
2025-01-09 20:15:56.81	275.76	19.55	
2025-01-09 20:15:57.02	275.82	19.54	
2025-01-09 20:15:57.22	275.88	19.54	
2025-01-09 20:15:57.43	275.94	19.54	
2025-01-09 20:15:57.63	275.99	19.54	
2025-01-09 20:15:57.84	276.05	19.54	
2025-01-09 20:15:58.05	276.11	19.54	
2025-01-09 20:15:58.25	276.17	19.54	
2025-01-09 20:15:58.45	276.23	19.54	
2025-01-09 20:15:58.66	276.29	19.53	
2025-01-09 20:15:58.87	276.35	19.53	
2025-01-09 20:15:59.07	276.41	19.53	
2025-01-09 20:15:59.27	276.46	19.53	
2025-01-09 20:15:59.48	276.53	19.53	
2025-01-09 20:15:59.69	276.59	19.53	
2025-01-09 20:15:59.89	276.64	19.53	
2025-01-09 20:16:00.10	276.70	19.52	
2025-01-09 20:16:00.30	276.76	19.52	
2025-01-09 20:16:00.50	276.82	19.52	
2025-01-09 20:16:00.71	276.88	19.52	
2025-01-09 20:16:00.91	276.94	19.52	
2025-01-09 20:16:01.12	277.00	19.52	
2025-01-09 20:16:01.32	277.05	19.51	
2025-01-09 20:16:01.53	277.11	19.51	
2025-01-09 20:16:01.73	277.17	19.51	
2025-01-09 20:16:01.94	277.23	19.51	
2025-01-09 20:16:02.14	277.29	19.51	
2025-01-09 20:16:02.35	277.35	19.50	
2025-01-09 20:16:02.55	277.41	19.50	
2025-01-09 20:16:02.76	277.47	19.50	
2025-01-09 20:16:02.96	277.52	19.50	
2025-01-09 20:16:03.17	277.58	19.50	
2025-01-09 20:16:03.37	277.64	19.50	
2025-01-09 20:16:03.57	277.70	19.49	
2025-01-09 20:16:03.78	277.76	19.49	
2025-01-09 20:16:03.99	277.82	19.49	
2025-01-09 20:16:04.19	277.88	19.49	
2025-01-09 20:16:04.40	277.94	19.48	
2025-01-09 20:16:04.60	277.99	19.48	
2025-01-09 20:16:04.81	278.05	19.48	
2025-01-09 20:16:05.01	278.11	19.48	
2025-01-09 20:16:05.22	278.17	19.48	
2025-01-09 20:16:05.42	278.23	19.47	
2025-01-09 20:16:05.64	278.29	19.47	
2025-01-09 20:16:05.85	278.35	19.47	
2025-01-09 20:16:06.05	278.41	19.47	
2025-01-09 20:16:06.26	278.47	19.46	
2025-01-09 20:16:06.46	278.52	19.46	
2025-01-09 20:16:06.67	278.58	19.46	
2025-01-09 20:16:06.87	278.64	19.46	
2025-01-09 20:16:07.08	278.70	19.45	
2025-01-09 20:16:07.28	278.76	19.45	
2025-01-09 20:16:07.49	278.82	19.45	
2025-01-09 20:16:07.69	278.88	19.45	
2025-01-09 20:16:07.90	278.94	19.44	
2025-01-09 20:16:08.10	278.99	19.44	
2025-01-09 20:16:08.31	279.05	19.44	
2025-01-09 20:16:08.51	279.11	19.43	
2025-01-09 20:16:08.72	279.17	19.43	
2025-01-09 20:16:08.94	279.23	19.43	
2025-01-09 20:16:09.14	279.29	19.43	
2025-01-09 20:16:09.35	279.35	19.42	
2025-01-09 20:16:09.55	279.41	19.42	
2025-01-09 20:16:09.76	279.47	19.42	
2025-01-09 20:16:09.98	279.53	19.41	
2025-01-09 20:16:10.18	279.59	19.41	
2025-01-09 20:16:10.39	279.65	19.41	
2025-01-09 20:16:10.59	279.70	19.41	
2025-01-09 20:16:10.80	279.76	19.40	
2025-01-09 20:16:11.00	279.82	19.40	
2025-01-09 20:16:11.21	279.88	19.40	
2025-01-09 20:16:11.41	279.94	19.39	
2025-01-09 20:16:11.62	280.00	19.39	
2025-01-09 20:16:11.82	280.05	19.39	
2025-01-09 20:16:12.04	280.11	19.38	
2025-01-09 20:16:12.24	280.17	19.38	
2025-01-09 20:16:12.45	280.23	19.38	
2025-01-09 20:16:12.65	280.29	19.37	
2025-01-09 20:16:12.86	280.35	19.37	
2025-01-09 20:16:13.06	280.40	19.37	
2025-01-09 20:16:13.27	280.46	19.36	
2025-01-09 20:16:13.48	280.52	19.36	
2025-01-09 20:16:13.68	280.58	19.36	
2025-01-09 20:16:13.89	280.64	19.35	
2025-01-09 20:16:14.09	280.70	19.35	
2025-01-09 20:16:14.30	280.76	19.35	
2025-01-09 20:16:14.50	280.81	19.34	
2025-01-09 20:16:14.71	280.87	19.34	
2025-01-09 20:16:14.91	280.93	19.34	
2025-01-09 20:16:15.12	280.99	19.33	
2025-01-09 20:16:15.32	281.04	19.33	
2025-01-09 20:16:15.53	281.10	19.32	
2025-01-09 20:16:15.73	281.16	19.32	
2025-01-09 20:16:15.94	281.22	19.32	
2025-01-09 20:16:16.14	281.28	19.31	
2025-01-09 20:16:16.35	281.34	19.31	
2025-01-09 20:16:16.55	281.39	19.31	
2025-01-09 20:16:16.76	281.45	19.30	
2025-01-09 20:16:16.96	281.51	19.30	
2025-01-09 20:16:17.17	281.57	19.29	
2025-01-09 20:16:17.37	281.62	19.29	
2025-01-09 20:16:17.57	281.68	19.29	
2025-01-09 20:16:17.78	281.74	19.28	
2025-01-09 20:16:17.99	281.80	19.28	
2025-01-09 20:16:18.19	281.86	19.27	
2025-01-09 20:16:18.41	281.92	19.27	
2025-01-09 20:16:18.61	281.97	19.27	
2025-01-09 20:16:18.81	282.03	19.26	
2025-01-09 20:16:19.02	282.09	19.26	
2025-01-09 20:16:19.23	282.15	19.25	
2025-01-09 20:16:19.43	282.21	19.25	
2025-01-09 20:16:19.64	282.26	19.24	
2025-01-09 20:16:19.84	282.32	19.24	
2025-01-09 20:16:20.05	282.38	19.24	
2025-01-09 20:16:20.25	282.44	19.23	
2025-01-09 20:16:20.46	282.49	19.23	
2025-01-09 20:16:20.67	282.55	19.22	
2025-01-09 20:16:20.88	282.61	19.22	
2025-01-09 20:16:21.09	282.67	19.21	
2025-01-09 20:16:21.29	282.73	19.21	
2025-01-09 20:16:21.50	282.79	19.21	
2025-01-09 20:16:21.70	282.84	19.20	
2025-01-09 20:16:21.90	282.90	19.20	
