passes_logs/2025/01/09/SPB_Silybum_02/SPB_Silybum_02__20250109_152112_TERRA_rec.log

#Pass ID: 20250109_152112_TERRA
#Satellite: TERRA
#Configuration: TERRA
#Start time: 2025-01-09 15:21:12

#Version: 2.0.20230423
#Station: SPB_Silybum_02
#Location: 30.233357 lon 59.946436 lat
#TLE: 1 25994U 99068A   25008.82275774  .00000946  00000+0  20487-3 0  9990
#TLE: 2 25994  98.0228  72.0493 0003564  84.8498   6.9254 14.60383008333170

#Time	Az	El	Level	Level2	SNR	BER	Gain	Gain2
2025-01-09 15:21:14.94	60.81	4.10	
2025-01-09 15:21:15.15	60.78	4.11	
2025-01-09 15:21:15.36	60.75	4.12	
2025-01-09 15:21:15.56	60.72	4.13	
2025-01-09 15:21:15.77	60.69	4.14	
2025-01-09 15:21:15.97	60.66	4.14	
2025-01-09 15:21:16.18	60.63	4.15	
2025-01-09 15:21:16.38	60.60	4.16	
2025-01-09 15:21:16.59	60.58	4.17	
2025-01-09 15:21:16.79	60.55	4.17	
2025-01-09 15:21:16.99	60.52	4.18	
2025-01-09 15:21:17.20	60.49	4.19	
2025-01-09 15:21:17.40	60.46	4.20	
2025-01-09 15:21:17.61	60.43	4.21	
2025-01-09 15:21:17.81	60.40	4.21	
2025-01-09 15:21:18.02	60.37	4.22	
2025-01-09 15:21:18.22	60.35	4.23	
2025-01-09 15:21:18.43	60.32	4.24	
2025-01-09 15:21:18.63	60.29	4.25	
2025-01-09 15:21:18.84	60.26	4.25	
2025-01-09 15:21:19.04	60.23	4.26	
2025-01-09 15:21:19.25	60.20	4.27	
2025-01-09 15:21:19.46	60.17	4.28	
2025-01-09 15:21:19.66	60.14	4.28	
2025-01-09 15:21:19.87	60.11	4.29	
2025-01-09 15:21:20.07	60.09	4.30	
2025-01-09 15:21:20.28	60.06	4.31	
2025-01-09 15:21:20.48	60.03	4.32	
2025-01-09 15:21:20.69	60.00	4.32	
2025-01-09 15:21:20.89	59.97	4.33	
2025-01-09 15:21:21.10	59.94	4.34	
2025-01-09 15:21:21.30	59.91	4.35	
2025-01-09 15:21:21.51	59.88	4.35	
2025-01-09 15:21:21.71	59.85	4.36	
2025-01-09 15:21:21.92	59.82	4.37	
2025-01-09 15:21:22.12	59.79	4.38	
2025-01-09 15:21:22.33	59.77	4.39	
2025-01-09 15:21:22.53	59.74	4.39	
2025-01-09 15:21:22.74	59.71	4.40	
2025-01-09 15:21:22.95	59.68	4.41	
2025-01-09 15:21:23.15	59.65	4.42	
2025-01-09 15:21:23.36	59.62	4.42	
2025-01-09 15:21:23.56	59.59	4.43	
2025-01-09 15:21:23.77	59.56	4.44	
2025-01-09 15:21:23.97	59.53	4.45	
2025-01-09 15:21:24.18	59.50	4.45	
2025-01-09 15:21:24.39	59.47	4.46	
2025-01-09 15:21:24.60	59.44	4.47	
2025-01-09 15:21:24.81	59.41	4.48	
2025-01-09 15:21:25.02	59.38	4.49	
2025-01-09 15:21:25.22	59.35	4.49	
2025-01-09 15:21:25.43	59.32	4.50	
2025-01-09 15:21:25.63	59.29	4.51	
2025-01-09 15:21:25.84	59.26	4.52	
2025-01-09 15:21:26.04	59.23	4.52	
2025-01-09 15:21:26.25	59.20	4.53	
2025-01-09 15:21:26.46	59.17	4.54	
2025-01-09 15:21:26.66	59.14	4.55	
2025-01-09 15:21:26.86	59.12	4.56	
2025-01-09 15:21:27.07	59.09	4.56	
2025-01-09 15:21:27.28	59.06	4.57	
2025-01-09 15:21:27.48	59.03	4.58	
2025-01-09 15:21:27.69	59.00	4.59	
2025-01-09 15:21:27.89	58.97	4.59	
2025-01-09 15:21:28.10	58.94	4.60	
2025-01-09 15:21:28.30	58.91	4.61	
2025-01-09 15:21:28.51	58.88	4.62	
2025-01-09 15:21:28.71	58.85	4.62	
2025-01-09 15:21:28.92	58.82	4.63	
2025-01-09 15:21:29.13	58.79	4.64	
2025-01-09 15:21:29.33	58.76	4.65	
2025-01-09 15:21:29.53	58.73	4.65	
2025-01-09 15:21:29.74	58.70	4.66	
2025-01-09 15:21:29.96	58.67	4.67	
2025-01-09 15:21:30.16	58.64	4.68	
2025-01-09 15:21:30.37	58.61	4.69	
2025-01-09 15:21:30.58	58.58	4.69	
2025-01-09 15:21:30.78	58.55	4.70	
2025-01-09 15:21:31.00	58.52	4.71	
2025-01-09 15:21:31.20	58.49	4.72	
2025-01-09 15:21:31.41	58.46	4.72	
2025-01-09 15:21:31.61	58.43	4.73	
2025-01-09 15:21:31.82	58.40	4.74	
2025-01-09 15:21:32.02	58.37	4.75	
2025-01-09 15:21:32.23	58.34	4.75	
2025-01-09 15:21:32.43	58.31	4.76	
2025-01-09 15:21:32.64	58.28	4.77	
2025-01-09 15:21:32.84	58.25	4.78	
2025-01-09 15:21:33.04	58.22	4.78	
2025-01-09 15:21:33.25	58.19	4.79	
2025-01-09 15:21:33.46	58.16	4.80	
2025-01-09 15:21:33.66	58.13	4.81	
2025-01-09 15:21:33.87	58.10	4.81	
2025-01-09 15:21:34.07	58.07	4.82	
2025-01-09 15:21:34.28	58.04	4.83	
2025-01-09 15:21:34.48	58.01	4.84	
2025-01-09 15:21:34.69	57.97	4.84	
2025-01-09 15:21:34.90	57.94	4.85	
2025-01-09 15:21:35.10	57.91	4.86	
2025-01-09 15:21:35.30	57.88	4.87	
2025-01-09 15:21:35.51	57.85	4.87	
2025-01-09 15:21:35.71	57.82	4.88	
2025-01-09 15:21:35.92	57.79	4.89	
2025-01-09 15:21:36.13	57.76	4.90	
2025-01-09 15:21:36.33	57.73	4.90	
2025-01-09 15:21:36.53	57.70	4.91	
2025-01-09 15:21:36.74	57.67	4.92	
2025-01-09 15:21:36.95	57.64	4.93	
2025-01-09 15:21:37.15	57.61	4.93	
2025-01-09 15:21:37.36	57.58	4.94	
2025-01-09 15:21:37.56	57.55	4.95	
2025-01-09 15:21:37.77	57.52	4.96	
2025-01-09 15:21:37.97	57.49	4.96	
2025-01-09 15:21:38.18	57.46	4.97	
2025-01-09 15:21:38.38	57.43	4.98	
2025-01-09 15:21:38.59	57.40	4.99	
2025-01-09 15:21:38.80	57.37	4.99	
2025-01-09 15:21:39.01	57.33	5.00	
2025-01-09 15:21:39.21	57.30	5.01	
2025-01-09 15:21:39.42	57.27	5.02	
2025-01-09 15:21:39.62	57.24	5.02	
2025-01-09 15:21:39.83	57.21	5.03	
2025-01-09 15:21:40.03	57.18	5.04	
2025-01-09 15:21:40.24	57.15	5.04	
2025-01-09 15:21:40.45	57.12	5.05	
2025-01-09 15:21:40.66	57.09	5.06	
2025-01-09 15:21:40.87	57.06	5.07	
2025-01-09 15:21:41.07	57.03	5.07	
2025-01-09 15:21:41.28	56.99	5.08	
2025-01-09 15:21:41.48	56.96	5.09	
2025-01-09 15:21:41.70	56.93	5.10	
2025-01-09 15:21:41.91	56.90	5.10	
2025-01-09 15:21:42.11	56.87	5.11	
2025-01-09 15:21:42.32	56.84	5.12	
2025-01-09 15:21:42.52	56.81	5.13	
2025-01-09 15:21:42.73	56.78	5.13	
2025-01-09 15:21:42.93	56.75	5.14	
2025-01-09 15:21:43.14	56.71	5.15	
2025-01-09 15:21:43.34	56.68	5.16	
2025-01-09 15:21:43.55	56.65	5.16	
2025-01-09 15:21:43.75	56.62	5.17	
2025-01-09 15:21:43.96	56.59	5.18	
2025-01-09 15:21:44.16	56.56	5.18	
2025-01-09 15:21:44.37	56.53	5.19	
2025-01-09 15:21:44.57	56.50	5.20	
2025-01-09 15:21:44.78	56.47	5.21	
2025-01-09 15:21:44.99	56.44	5.21	
2025-01-09 15:21:45.20	56.40	5.22	
2025-01-09 15:21:45.41	56.37	5.23	
2025-01-09 15:21:45.61	56.34	5.24	
2025-01-09 15:21:45.82	56.31	5.24	
2025-01-09 15:21:46.02	56.28	5.25	
2025-01-09 15:21:46.23	56.25	5.26	
2025-01-09 15:21:46.43	56.22	5.26	
2025-01-09 15:21:46.63	56.19	5.27	
2025-01-09 15:21:46.84	56.15	5.28	
2025-01-09 15:21:47.06	56.12	5.29	
2025-01-09 15:21:47.26	56.09	5.29	
2025-01-09 15:21:47.47	56.06	5.30	
2025-01-09 15:21:47.67	56.03	5.31	
2025-01-09 15:21:47.88	56.00	5.32	
2025-01-09 15:21:48.08	55.97	5.32	
2025-01-09 15:21:48.29	55.93	5.33	
2025-01-09 15:21:48.49	55.90	5.34	
2025-01-09 15:21:48.71	55.87	5.34	
2025-01-09 15:21:48.92	55.84	5.35	
2025-01-09 15:21:49.12	55.81	5.36	
2025-01-09 15:21:49.33	55.77	5.37	
2025-01-09 15:21:49.53	55.74	5.37	
2025-01-09 15:21:49.74	55.71	5.38	
2025-01-09 15:21:49.94	55.68	5.39	
2025-01-09 15:21:50.15	55.65	5.39	
2025-01-09 15:21:50.35	55.62	5.40	
2025-01-09 15:21:50.56	55.58	5.41	
2025-01-09 15:21:50.76	55.55	5.42	
2025-01-09 15:21:50.97	55.52	5.42	
2025-01-09 15:21:51.17	55.49	5.43	
2025-01-09 15:21:51.38	55.46	5.44	
2025-01-09 15:21:51.59	55.43	5.44	
2025-01-09 15:21:51.79	55.40	5.45	
2025-01-09 15:21:52.00	55.36	5.46	
2025-01-09 15:21:52.20	55.33	5.47	
2025-01-09 15:21:52.41	55.30	5.47	
2025-01-09 15:21:52.61	55.27	5.48	
2025-01-09 15:21:52.82	55.24	5.49	
2025-01-09 15:21:53.02	55.21	5.49	
2025-01-09 15:21:53.23	55.17	5.50	
2025-01-09 15:21:53.43	55.14	5.51	
2025-01-09 15:21:53.64	55.11	5.51	
2025-01-09 15:21:53.84	55.08	5.52	
2025-01-09 15:21:54.05	55.05	5.53	
2025-01-09 15:21:54.25	55.01	5.54	
2025-01-09 15:21:54.46	54.98	5.54	
2025-01-09 15:21:54.66	54.95	5.55	
2025-01-09 15:21:54.87	54.92	5.56	
2025-01-09 15:21:55.08	54.89	5.56	
2025-01-09 15:21:55.28	54.85	5.57	
2025-01-09 15:21:55.48	54.82	5.58	
2025-01-09 15:21:55.69	54.79	5.58	
2025-01-09 15:21:55.89	54.76	5.59	
2025-01-09 15:21:56.10	54.73	5.60	
2025-01-09 15:21:56.31	54.69	5.61	
2025-01-09 15:21:56.51	54.66	5.61	
2025-01-09 15:21:56.72	54.63	5.62	
2025-01-09 15:21:56.92	54.60	5.63	
2025-01-09 15:21:57.13	54.57	5.63	
2025-01-09 15:21:57.33	54.53	5.64	
2025-01-09 15:21:57.54	54.50	5.65	
2025-01-09 15:21:57.74	54.47	5.65	
2025-01-09 15:21:57.95	54.44	5.66	
2025-01-09 15:21:58.15	54.41	5.67	
2025-01-09 15:21:58.36	54.37	5.67	
2025-01-09 15:21:58.56	54.34	5.68	
2025-01-09 15:21:58.76	54.31	5.69	
2025-01-09 15:21:58.97	54.28	5.69	
2025-01-09 15:21:59.18	54.24	5.70	
2025-01-09 15:21:59.38	54.21	5.71	
2025-01-09 15:21:59.59	54.18	5.72	
2025-01-09 15:21:59.81	54.15	5.72	
2025-01-09 15:22:00.01	54.11	5.73	
2025-01-09 15:22:00.22	54.08	5.74	
2025-01-09 15:22:00.42	54.05	5.74	
2025-01-09 15:22:00.63	54.02	5.75	
2025-01-09 15:22:00.83	53.98	5.76	
2025-01-09 15:22:01.03	53.95	5.76	
2025-01-09 15:22:01.24	53.92	5.77	
2025-01-09 15:22:01.45	53.89	5.78	
2025-01-09 15:22:01.65	53.85	5.78	
2025-01-09 15:22:01.86	53.82	5.79	
2025-01-09 15:22:02.06	53.79	5.80	
2025-01-09 15:22:02.27	53.76	5.80	
2025-01-09 15:22:02.47	53.72	5.81	
2025-01-09 15:22:02.68	53.69	5.82	
2025-01-09 15:22:02.88	53.66	5.82	
2025-01-09 15:22:03.09	53.63	5.83	
2025-01-09 15:22:03.30	53.59	5.84	
2025-01-09 15:22:03.50	53.56	5.85	
2025-01-09 15:22:03.71	53.53	5.85	
2025-01-09 15:22:03.91	53.50	5.86	
2025-01-09 15:22:04.12	53.46	5.87	
2025-01-09 15:22:04.32	53.43	5.87	
2025-01-09 15:22:04.53	53.40	5.88	
2025-01-09 15:22:04.73	53.37	5.89	
2025-01-09 15:22:04.94	53.33	5.89	
2025-01-09 15:22:05.14	53.30	5.90	
2025-01-09 15:22:05.35	53.27	5.91	
2025-01-09 15:22:05.55	53.23	5.91	
2025-01-09 15:22:05.76	53.20	5.92	
2025-01-09 15:22:05.96	53.17	5.93	
2025-01-09 15:22:06.17	53.14	5.93	
2025-01-09 15:22:06.37	53.10	5.94	
2025-01-09 15:22:06.58	53.07	5.95	
2025-01-09 15:22:06.79	53.04	5.95	
2025-01-09 15:22:06.99	53.00	5.96	
2025-01-09 15:22:07.19	52.97	5.97	
2025-01-09 15:22:07.40	52.94	5.97	
2025-01-09 15:22:07.61	52.90	5.98	
2025-01-09 15:22:07.81	52.87	5.99	
2025-01-09 15:22:08.02	52.84	5.99	
2025-01-09 15:22:08.22	52.81	6.00	
2025-01-09 15:22:08.43	52.77	6.01	
2025-01-09 15:22:08.63	52.74	6.01	
2025-01-09 15:22:08.84	52.71	6.02	
2025-01-09 15:22:09.04	52.67	6.02	
2025-01-09 15:22:09.25	52.64	6.03	
2025-01-09 15:22:09.45	52.61	6.04	
2025-01-09 15:22:09.66	52.57	6.04	
2025-01-09 15:22:09.87	52.54	6.05	
2025-01-09 15:22:10.08	52.51	6.06	
2025-01-09 15:22:10.29	52.47	6.06	
2025-01-09 15:22:10.49	52.44	6.07	
2025-01-09 15:22:10.70	52.41	6.08	
2025-01-09 15:22:10.90	52.37	6.08	
2025-01-09 15:22:11.11	52.34	6.09	
2025-01-09 15:22:11.31	52.31	6.10	
2025-01-09 15:22:11.53	52.27	6.10	
2025-01-09 15:22:11.73	52.24	6.11	
2025-01-09 15:22:11.94	52.21	6.12	
2025-01-09 15:22:12.15	52.17	6.12	
2025-01-09 15:22:12.35	52.14	6.13	
2025-01-09 15:22:12.57	52.10	6.14	
2025-01-09 15:22:12.77	52.07	6.14	
2025-01-09 15:22:12.98	52.04	6.15	
2025-01-09 15:22:13.18	52.00	6.16	
2025-01-09 15:22:13.39	51.97	6.16	
2025-01-09 15:22:13.61	51.93	6.17	
2025-01-09 15:22:13.81	51.90	6.18	
2025-01-09 15:22:14.02	51.87	6.18	
2025-01-09 15:22:14.23	51.83	6.19	
2025-01-09 15:22:14.43	51.80	6.19	
2025-01-09 15:22:14.63	51.77	6.20	
2025-01-09 15:22:14.84	51.73	6.21	
2025-01-09 15:22:15.04	51.70	6.21	
2025-01-09 15:22:15.25	51.67	6.22	
2025-01-09 15:22:15.45	51.63	6.23	
2025-01-09 15:22:15.66	51.60	6.23	
2025-01-09 15:22:15.86	51.57	6.24	
2025-01-09 15:22:16.06	51.53	6.25	
2025-01-09 15:22:16.27	51.50	6.25	
2025-01-09 15:22:16.47	51.47	6.26	
2025-01-09 15:22:16.68	51.43	6.26	
2025-01-09 15:22:16.88	51.40	6.27	
2025-01-09 15:22:17.09	51.36	6.28	
2025-01-09 15:22:17.29	51.33	6.28	
2025-01-09 15:22:17.50	51.30	6.29	
2025-01-09 15:22:17.71	51.26	6.30	
2025-01-09 15:22:17.92	51.23	6.30	
2025-01-09 15:22:18.13	51.19	6.31	
2025-01-09 15:22:18.33	51.16	6.32	
2025-01-09 15:22:18.54	51.13	6.32	
2025-01-09 15:22:18.75	51.09	6.33	
2025-01-09 15:22:18.95	51.06	6.33	
2025-01-09 15:22:19.16	51.02	6.34	
2025-01-09 15:22:19.36	50.99	6.35	
2025-01-09 15:22:19.57	50.96	6.35	
2025-01-09 15:22:19.77	50.92	6.36	
2025-01-09 15:22:19.99	50.89	6.37	
2025-01-09 15:22:20.19	50.85	6.37	
2025-01-09 15:22:20.40	50.82	6.38	
2025-01-09 15:22:20.61	50.78	6.38	
2025-01-09 15:22:20.81	50.75	6.39	
2025-01-09 15:22:21.02	50.72	6.40	
2025-01-09 15:22:21.22	50.68	6.40	
2025-01-09 15:22:21.43	50.65	6.41	
2025-01-09 15:22:21.63	50.62	6.41	
2025-01-09 15:22:21.84	50.58	6.42	
2025-01-09 15:22:22.04	50.55	6.43	
2025-01-09 15:22:22.24	50.51	6.43	
2025-01-09 15:22:22.45	50.48	6.44	
2025-01-09 15:22:22.66	50.44	6.45	
2025-01-09 15:22:22.86	50.41	6.45	
2025-01-09 15:22:23.07	50.38	6.46	
2025-01-09 15:22:23.27	50.34	6.46	
2025-01-09 15:22:23.48	50.31	6.47	
2025-01-09 15:22:23.69	50.27	6.48	
2025-01-09 15:22:23.89	50.24	6.48	
2025-01-09 15:22:24.10	50.20	6.49	
2025-01-09 15:22:24.30	50.17	6.49	
2025-01-09 15:22:24.50	50.14	6.50	
2025-01-09 15:22:24.71	50.10	6.51	
2025-01-09 15:22:24.92	50.07	6.51	
2025-01-09 15:22:25.12	50.03	6.52	
2025-01-09 15:22:25.32	50.00	6.52	
2025-01-09 15:22:25.53	49.97	6.53	
2025-01-09 15:22:25.74	49.93	6.54	
2025-01-09 15:22:25.94	49.90	6.54	
2025-01-09 15:22:26.15	49.86	6.55	
2025-01-09 15:22:26.35	49.83	6.55	
2025-01-09 15:22:26.56	49.79	6.56	
2025-01-09 15:22:26.76	49.76	6.57	
2025-01-09 15:22:26.97	49.72	6.57	
2025-01-09 15:22:27.17	49.69	6.58	
2025-01-09 15:22:27.38	49.65	6.58	
2025-01-09 15:22:27.58	49.62	6.59	
2025-01-09 15:22:27.79	49.59	6.60	
2025-01-09 15:22:27.99	49.55	6.60	
2025-01-09 15:22:28.20	49.52	6.61	
2025-01-09 15:22:28.40	49.48	6.61	
2025-01-09 15:22:28.61	49.45	6.62	
2025-01-09 15:22:28.81	49.41	6.63	
2025-01-09 15:22:29.02	49.38	6.63	
2025-01-09 15:22:29.22	49.35	6.64	
2025-01-09 15:22:29.43	49.31	6.64	
2025-01-09 15:22:29.63	49.28	6.65	
2025-01-09 15:22:29.84	49.24	6.65	
2025-01-09 15:22:30.04	49.21	6.66	
2025-01-09 15:22:30.25	49.17	6.67	
2025-01-09 15:22:30.45	49.14	6.67	
2025-01-09 15:22:30.65	49.10	6.68	
2025-01-09 15:22:30.86	49.07	6.68	
2025-01-09 15:22:31.07	49.03	6.69	
2025-01-09 15:22:31.27	49.00	6.70	
2025-01-09 15:22:31.48	48.96	6.70	
2025-01-09 15:22:31.68	48.93	6.71	
2025-01-09 15:22:31.89	48.89	6.71	
2025-01-09 15:22:32.09	48.86	6.72	
2025-01-09 15:22:32.29	48.83	6.72	
2025-01-09 15:22:32.50	48.79	6.73	
2025-01-09 15:22:32.70	48.76	6.74	
2025-01-09 15:22:32.92	48.72	6.74	
2025-01-09 15:22:33.13	48.68	6.75	
2025-01-09 15:22:33.33	48.65	6.75	
2025-01-09 15:22:33.54	48.61	6.76	
2025-01-09 15:22:33.75	48.58	6.76	
2025-01-09 15:22:33.95	48.54	6.77	
2025-01-09 15:22:34.16	48.51	6.78	
2025-01-09 15:22:34.36	48.47	6.78	
2025-01-09 15:22:34.57	48.44	6.79	
2025-01-09 15:22:34.77	48.40	6.79	
2025-01-09 15:22:34.98	48.37	6.80	
2025-01-09 15:22:35.18	48.33	6.80	
2025-01-09 15:22:35.39	48.30	6.81	
2025-01-09 15:22:35.59	48.26	6.82	
2025-01-09 15:22:35.80	48.23	6.82	
2025-01-09 15:22:36.00	48.19	6.83	
2025-01-09 15:22:36.21	48.16	6.83	
2025-01-09 15:22:36.41	48.12	6.84	
2025-01-09 15:22:36.62	48.09	6.84	
2025-01-09 15:22:36.82	48.05	6.85	
2025-01-09 15:22:37.02	48.02	6.85	
2025-01-09 15:22:37.23	47.98	6.86	
2025-01-09 15:22:37.44	47.95	6.87	
2025-01-09 15:22:37.64	47.91	6.87	
2025-01-09 15:22:37.85	47.88	6.88	
2025-01-09 15:22:38.05	47.84	6.88	
2025-01-09 15:22:38.26	47.80	6.89	
2025-01-09 15:22:38.46	47.77	6.89	
2025-01-09 15:22:38.67	47.73	6.90	
2025-01-09 15:22:38.87	47.70	6.90	
2025-01-09 15:22:39.08	47.66	6.91	
2025-01-09 15:22:39.30	47.63	6.92	
2025-01-09 15:22:39.50	47.59	6.92	
2025-01-09 15:22:39.70	47.56	6.93	
2025-01-09 15:22:39.91	47.52	6.93	
2025-01-09 15:22:40.11	47.49	6.94	
2025-01-09 15:22:40.32	47.45	6.94	
2025-01-09 15:22:40.52	47.42	6.95	
2025-01-09 15:22:40.73	47.38	6.95	
2025-01-09 15:22:40.94	47.34	6.96	
2025-01-09 15:22:41.14	47.31	6.96	
2025-01-09 15:22:41.34	47.27	6.97	
2025-01-09 15:22:41.55	47.24	6.98	
2025-01-09 15:22:41.76	47.20	6.98	
2025-01-09 15:22:41.96	47.17	6.99	
2025-01-09 15:22:42.17	47.13	6.99	
2025-01-09 15:22:42.37	47.10	7.00	
2025-01-09 15:22:42.58	47.06	7.00	
2025-01-09 15:22:42.78	47.02	7.01	
2025-01-09 15:22:42.99	46.99	7.01	
2025-01-09 15:22:43.19	46.95	7.02	
2025-01-09 15:22:43.40	46.92	7.02	
2025-01-09 15:22:43.60	46.88	7.03	
2025-01-09 15:22:43.81	46.84	7.03	
2025-01-09 15:22:44.01	46.81	7.04	
2025-01-09 15:22:44.22	46.77	7.04	
2025-01-09 15:22:44.42	46.74	7.05	
2025-01-09 15:22:44.62	46.70	7.06	
2025-01-09 15:22:44.83	46.67	7.06	
2025-01-09 15:22:45.03	46.63	7.07	
2025-01-09 15:22:45.24	46.60	7.07	
2025-01-09 15:22:45.44	46.56	7.08	
2025-01-09 15:22:45.65	46.52	7.08	
2025-01-09 15:22:45.85	46.49	7.09	
2025-01-09 15:22:46.06	46.45	7.09	
2025-01-09 15:22:46.27	46.42	7.10	
2025-01-09 15:22:46.47	46.38	7.10	
2025-01-09 15:22:46.67	46.35	7.11	
2025-01-09 15:22:46.88	46.31	7.11	
2025-01-09 15:22:47.09	46.27	7.12	
2025-01-09 15:22:47.29	46.24	7.12	
2025-01-09 15:22:47.50	46.20	7.13	
2025-01-09 15:22:47.70	46.17	7.13	
2025-01-09 15:22:47.91	46.13	7.14	
2025-01-09 15:22:48.11	46.09	7.14	
2025-01-09 15:22:48.32	46.06	7.15	
2025-01-09 15:22:48.52	46.02	7.15	
2025-01-09 15:22:48.73	45.99	7.16	
2025-01-09 15:22:48.93	45.95	7.16	
2025-01-09 15:22:49.14	45.91	7.17	
2025-01-09 15:22:49.34	45.88	7.17	
2025-01-09 15:22:49.55	45.84	7.18	
2025-01-09 15:22:49.75	45.81	7.18	
2025-01-09 15:22:49.95	45.77	7.19	
2025-01-09 15:22:50.16	45.73	7.19	
2025-01-09 15:22:50.37	45.70	7.20	
2025-01-09 15:22:50.57	45.66	7.20	
2025-01-09 15:22:50.78	45.62	7.21	
2025-01-09 15:22:50.98	45.59	7.21	
2025-01-09 15:22:51.19	45.55	7.22	
2025-01-09 15:22:51.39	45.52	7.22	
2025-01-09 15:22:51.60	45.48	7.23	
2025-01-09 15:22:51.81	45.44	7.23	
2025-01-09 15:22:52.01	45.41	7.24	
2025-01-09 15:22:52.22	45.37	7.24	
2025-01-09 15:22:52.42	45.34	7.25	
2025-01-09 15:22:52.63	45.30	7.25	
2025-01-09 15:22:52.83	45.26	7.26	
2025-01-09 15:22:53.04	45.23	7.26	
2025-01-09 15:22:53.24	45.19	7.27	
2025-01-09 15:22:53.45	45.15	7.27	
2025-01-09 15:22:53.65	45.12	7.28	
2025-01-09 15:22:53.86	45.08	7.28	
2025-01-09 15:22:54.06	45.05	7.29	
2025-01-09 15:22:54.27	45.01	7.29	
2025-01-09 15:22:54.47	44.97	7.30	
2025-01-09 15:22:54.68	44.94	7.30	
2025-01-09 15:22:54.89	44.90	7.31	
2025-01-09 15:22:55.09	44.86	7.31	
2025-01-09 15:22:55.30	44.83	7.32	
2025-01-09 15:22:55.50	44.79	7.32	
2025-01-09 15:22:55.71	44.75	7.33	
2025-01-09 15:22:55.91	44.72	7.33	
2025-01-09 15:22:56.12	44.68	7.34	
2025-01-09 15:22:56.32	44.64	7.34	
2025-01-09 15:22:56.53	44.61	7.35	
2025-01-09 15:22:56.73	44.57	7.35	
2025-01-09 15:22:56.94	44.53	7.36	
2025-01-09 15:22:57.14	44.50	7.36	
2025-01-09 15:22:57.35	44.46	7.36	
2025-01-09 15:22:57.55	44.42	7.37	
2025-01-09 15:22:57.76	44.39	7.37	
2025-01-09 15:22:57.96	44.35	7.38	
2025-01-09 15:22:58.17	44.31	7.38	
2025-01-09 15:22:58.37	44.28	7.39	
2025-01-09 15:22:58.59	44.24	7.39	
2025-01-09 15:22:58.80	44.20	7.40	
2025-01-09 15:22:59.00	44.17	7.40	
2025-01-09 15:22:59.21	44.13	7.41	
2025-01-09 15:22:59.41	44.09	7.41	
2025-01-09 15:22:59.62	44.06	7.42	
2025-01-09 15:22:59.82	44.02	7.42	
2025-01-09 15:23:00.03	43.98	7.43	
2025-01-09 15:23:00.23	43.95	7.43	
2025-01-09 15:23:00.43	43.91	7.43	
2025-01-09 15:23:00.63	43.87	7.44	
2025-01-09 15:23:00.84	43.84	7.44	
2025-01-09 15:23:01.05	43.80	7.45	
2025-01-09 15:23:01.25	43.76	7.45	
2025-01-09 15:23:01.46	43.73	7.46	
2025-01-09 15:23:01.66	43.69	7.46	
2025-01-09 15:23:01.86	43.65	7.47	
2025-01-09 15:23:02.07	43.62	7.47	
2025-01-09 15:23:02.27	43.58	7.47	
2025-01-09 15:23:02.48	43.54	7.48	
2025-01-09 15:23:02.68	43.51	7.48	
2025-01-09 15:23:02.89	43.47	7.49	
2025-01-09 15:23:03.09	43.43	7.49	
2025-01-09 15:23:03.30	43.39	7.50	
2025-01-09 15:23:03.51	43.36	7.50	
2025-01-09 15:23:03.71	43.32	7.51	
2025-01-09 15:23:03.92	43.28	7.51	
2025-01-09 15:23:04.12	43.25	7.51	
2025-01-09 15:23:04.33	43.21	7.52	
2025-01-09 15:23:04.53	43.17	7.52	
2025-01-09 15:23:04.74	43.14	7.53	
2025-01-09 15:23:04.94	43.10	7.53	
2025-01-09 15:23:05.15	43.06	7.54	
2025-01-09 15:23:05.35	43.02	7.54	
2025-01-09 15:23:05.56	42.99	7.55	
2025-01-09 15:23:05.76	42.95	7.55	
2025-01-09 15:23:05.97	42.91	7.55	
2025-01-09 15:23:06.17	42.88	7.56	
2025-01-09 15:23:06.38	42.84	7.56	
2025-01-09 15:23:06.58	42.80	7.57	
2025-01-09 15:23:06.79	42.76	7.57	
2025-01-09 15:23:06.99	42.73	7.57	
2025-01-09 15:23:07.20	42.69	7.58	
2025-01-09 15:23:07.41	42.65	7.58	
2025-01-09 15:23:07.61	42.62	7.59	
2025-01-09 15:23:07.82	42.58	7.59	
2025-01-09 15:23:08.02	42.54	7.60	
2025-01-09 15:23:08.23	42.50	7.60	
2025-01-09 15:23:08.43	42.47	7.60	
2025-01-09 15:23:08.64	42.43	7.61	
2025-01-09 15:23:08.84	42.39	7.61	
2025-01-09 15:23:09.05	42.35	7.62	
2025-01-09 15:23:09.25	42.32	7.62	
2025-01-09 15:23:09.46	42.28	7.63	
2025-01-09 15:23:09.66	42.24	7.63	
2025-01-09 15:23:09.87	42.21	7.63	
2025-01-09 15:23:10.07	42.17	7.64	
2025-01-09 15:23:10.29	42.13	7.64	
2025-01-09 15:23:10.50	42.09	7.65	
2025-01-09 15:23:10.70	42.05	7.65	
2025-01-09 15:23:10.91	42.02	7.65	
2025-01-09 15:23:11.11	41.98	7.66	
2025-01-09 15:23:11.32	41.94	7.66	
2025-01-09 15:23:11.52	41.91	7.67	
2025-01-09 15:23:11.73	41.87	7.67	
2025-01-09 15:23:11.93	41.83	7.67	
2025-01-09 15:23:12.14	41.79	7.68	
2025-01-09 15:23:12.35	41.75	7.68	
2025-01-09 15:23:12.55	41.72	7.69	
2025-01-09 15:23:12.76	41.68	7.69	
2025-01-09 15:23:12.96	41.64	7.69	
2025-01-09 15:23:13.17	41.60	7.70	
2025-01-09 15:23:13.37	41.57	7.70	
2025-01-09 15:23:13.58	41.53	7.71	
2025-01-09 15:23:13.78	41.49	7.71	
2025-01-09 15:23:13.99	41.45	7.71	
2025-01-09 15:23:14.20	41.42	7.72	
2025-01-09 15:23:14.40	41.38	7.72	
2025-01-09 15:23:14.60	41.34	7.73	
2025-01-09 15:23:14.81	41.30	7.73	
2025-01-09 15:23:15.02	41.27	7.73	
2025-01-09 15:23:15.22	41.23	7.74	
2025-01-09 15:23:15.43	41.19	7.74	
2025-01-09 15:23:15.63	41.15	7.75	
2025-01-09 15:23:15.84	41.11	7.75	
2025-01-09 15:23:16.04	41.08	7.75	
2025-01-09 15:23:16.25	41.04	7.76	
2025-01-09 15:23:16.45	41.00	7.76	
2025-01-09 15:23:16.67	40.96	7.76	
2025-01-09 15:23:16.88	40.92	7.77	
2025-01-09 15:23:17.08	40.89	7.77	
2025-01-09 15:23:17.29	40.85	7.78	
2025-01-09 15:23:17.49	40.81	7.78	
2025-01-09 15:23:17.70	40.77	7.78	
2025-01-09 15:23:17.90	40.74	7.79	
2025-01-09 15:23:18.11	40.70	7.79	
2025-01-09 15:23:18.31	40.66	7.79	
2025-01-09 15:23:18.51	40.62	7.80	
2025-01-09 15:23:18.72	40.59	7.80	
2025-01-09 15:23:18.92	40.55	7.81	
2025-01-09 15:23:19.13	40.51	7.81	
2025-01-09 15:23:19.33	40.47	7.81	
2025-01-09 15:23:19.54	40.43	7.82	
2025-01-09 15:23:19.74	40.40	7.82	
2025-01-09 15:23:19.95	40.36	7.82	
2025-01-09 15:23:20.16	40.32	7.83	
2025-01-09 15:23:20.36	40.28	7.83	
2025-01-09 15:23:20.57	40.24	7.83	
2025-01-09 15:23:20.77	40.21	7.84	
2025-01-09 15:23:20.98	40.17	7.84	
2025-01-09 15:23:21.18	40.13	7.84	
2025-01-09 15:23:21.39	40.09	7.85	
2025-01-09 15:23:21.59	40.06	7.85	
2025-01-09 15:23:21.80	40.02	7.86	
2025-01-09 15:23:22.00	39.98	7.86	
2025-01-09 15:23:22.21	39.94	7.86	
2025-01-09 15:23:22.41	39.90	7.87	
2025-01-09 15:23:22.62	39.87	7.87	
2025-01-09 15:23:22.82	39.83	7.87	
2025-01-09 15:23:23.02	39.79	7.88	
2025-01-09 15:23:23.23	39.75	7.88	
2025-01-09 15:23:23.44	39.71	7.88	
2025-01-09 15:23:23.64	39.68	7.89	
2025-01-09 15:23:23.85	39.64	7.89	
2025-01-09 15:23:24.05	39.60	7.89	
2025-01-09 15:23:24.26	39.56	7.90	
2025-01-09 15:23:24.46	39.52	7.90	
2025-01-09 15:23:24.67	39.49	7.90	
2025-01-09 15:23:24.87	39.45	7.91	
2025-01-09 15:23:25.08	39.41	7.91	
2025-01-09 15:23:25.28	39.37	7.91	
2025-01-09 15:23:25.49	39.33	7.92	
2025-01-09 15:23:25.69	39.30	7.92	
2025-01-09 15:23:25.90	39.26	7.92	
2025-01-09 15:23:26.10	39.22	7.93	
2025-01-09 15:23:26.30	39.18	7.93	
2025-01-09 15:23:26.51	39.14	7.93	
2025-01-09 15:23:26.72	39.10	7.94	
2025-01-09 15:23:26.92	39.07	7.94	
2025-01-09 15:23:27.13	39.03	7.94	
2025-01-09 15:23:27.34	38.99	7.95	
2025-01-09 15:23:27.55	38.95	7.95	
2025-01-09 15:23:27.75	38.91	7.95	
2025-01-09 15:23:27.96	38.87	7.96	
2025-01-09 15:23:28.16	38.84	7.96	
2025-01-09 15:23:28.37	38.80	7.96	
2025-01-09 15:23:28.57	38.76	7.97	
2025-01-09 15:23:28.78	38.72	7.97	
2025-01-09 15:23:28.98	38.68	7.97	
2025-01-09 15:23:29.19	38.64	7.98	
2025-01-09 15:23:29.41	38.60	7.98	
2025-01-09 15:23:29.61	38.57	7.98	
2025-01-09 15:23:29.82	38.53	7.98	
2025-01-09 15:23:30.02	38.49	7.99	
2025-01-09 15:23:30.23	38.45	7.99	
2025-01-09 15:23:30.43	38.41	7.99	
2025-01-09 15:23:30.63	38.38	8.00	
2025-01-09 15:23:30.84	38.34	8.00	
2025-01-09 15:23:31.05	38.30	8.00	
2025-01-09 15:23:31.25	38.26	8.01	
2025-01-09 15:23:31.46	38.22	8.01	
2025-01-09 15:23:31.66	38.18	8.01	
2025-01-09 15:23:31.87	38.14	8.02	
2025-01-09 15:23:32.07	38.11	8.02	
2025-01-09 15:23:32.28	38.07	8.02	
2025-01-09 15:23:32.49	38.03	8.02	
2025-01-09 15:23:32.70	37.99	8.03	
2025-01-09 15:23:32.91	37.95	8.03	
2025-01-09 15:23:33.11	37.91	8.03	
2025-01-09 15:23:33.32	37.87	8.04	
2025-01-09 15:23:33.52	37.83	8.04	
2025-01-09 15:23:33.73	37.79	8.04	
2025-01-09 15:23:33.93	37.76	8.04	
2025-01-09 15:23:34.14	37.72	8.05	
2025-01-09 15:23:34.35	37.68	8.05	
2025-01-09 15:23:34.55	37.64	8.05	
2025-01-09 15:23:34.75	37.60	8.06	
2025-01-09 15:23:34.96	37.56	8.06	
2025-01-09 15:23:35.16	37.53	8.06	
2025-01-09 15:23:35.37	37.49	8.06	
2025-01-09 15:23:35.58	37.45	8.07	
2025-01-09 15:23:35.78	37.41	8.07	
2025-01-09 15:23:35.99	37.37	8.07	
2025-01-09 15:23:36.19	37.33	8.08	
2025-01-09 15:23:36.40	37.29	8.08	
2025-01-09 15:23:36.60	37.26	8.08	
2025-01-09 15:23:36.81	37.22	8.08	
2025-01-09 15:23:37.01	37.18	8.09	
2025-01-09 15:23:37.22	37.14	8.09	
2025-01-09 15:23:37.42	37.10	8.09	
2025-01-09 15:23:37.63	37.06	8.09	
2025-01-09 15:23:37.83	37.02	8.10	
2025-01-09 15:23:38.04	36.98	8.10	
2025-01-09 15:23:38.24	36.95	8.10	
2025-01-09 15:23:38.45	36.91	8.11	
2025-01-09 15:23:38.65	36.87	8.11	
2025-01-09 15:23:38.86	36.83	8.11	
2025-01-09 15:23:39.08	36.79	8.11	
2025-01-09 15:23:39.28	36.75	8.12	
2025-01-09 15:23:39.49	36.71	8.12	
2025-01-09 15:23:39.69	36.67	8.12	
2025-01-09 15:23:39.90	36.63	8.12	
2025-01-09 15:23:40.10	36.60	8.13	
2025-01-09 15:23:40.30	36.56	8.13	
2025-01-09 15:23:40.51	36.52	8.13	
2025-01-09 15:23:40.72	36.48	8.13	
2025-01-09 15:23:40.92	36.44	8.14	
2025-01-09 15:23:41.13	36.40	8.14	
2025-01-09 15:23:41.33	36.36	8.14	
2025-01-09 15:23:41.54	36.32	8.14	
2025-01-09 15:23:41.74	36.29	8.15	
2025-01-09 15:23:41.95	36.25	8.15	
2025-01-09 15:23:42.15	36.21	8.15	
2025-01-09 15:23:42.36	36.17	8.15	
2025-01-09 15:23:42.56	36.13	8.16	
2025-01-09 15:23:42.77	36.09	8.16	
2025-01-09 15:23:42.97	36.05	8.16	
2025-01-09 15:23:43.18	36.01	8.16	
2025-01-09 15:23:43.38	35.98	8.17	
2025-01-09 15:23:43.59	35.94	8.17	
2025-01-09 15:23:43.79	35.90	8.17	
2025-01-09 15:23:44.00	35.86	8.17	
2025-01-09 15:23:44.21	35.82	8.17	
2025-01-09 15:23:44.41	35.78	8.18	
2025-01-09 15:23:44.62	35.74	8.18	
2025-01-09 15:23:44.82	35.70	8.18	
2025-01-09 15:23:45.03	35.66	8.18	
2025-01-09 15:23:45.23	35.63	8.19	
2025-01-09 15:23:45.45	35.58	8.19	
2025-01-09 15:23:45.66	35.54	8.19	
2025-01-09 15:23:45.86	35.51	8.19	
2025-01-09 15:23:46.07	35.47	8.20	
2025-01-09 15:23:46.27	35.43	8.20	
2025-01-09 15:23:46.48	35.39	8.20	
2025-01-09 15:23:46.68	35.35	8.20	
2025-01-09 15:23:46.89	35.31	8.20	
2025-01-09 15:23:47.10	35.27	8.21	
2025-01-09 15:23:47.30	35.23	8.21	
2025-01-09 15:23:47.51	35.19	8.21	
2025-01-09 15:23:47.71	35.16	8.21	
2025-01-09 15:23:47.92	35.12	8.21	
2025-01-09 15:23:48.12	35.08	8.22	
2025-01-09 15:23:48.33	35.04	8.22	
2025-01-09 15:23:48.54	35.00	8.22	
2025-01-09 15:23:48.75	34.96	8.22	
2025-01-09 15:23:48.96	34.92	8.22	
2025-01-09 15:23:49.16	34.88	8.23	
2025-01-09 15:23:49.37	34.84	8.23	
2025-01-09 15:23:49.57	34.80	8.23	
2025-01-09 15:23:49.78	34.76	8.23	
2025-01-09 15:23:49.98	34.72	8.23	
2025-01-09 15:23:50.19	34.68	8.24	
2025-01-09 15:23:50.39	34.65	8.24	
2025-01-09 15:23:50.60	34.61	8.24	
2025-01-09 15:23:50.80	34.57	8.24	
2025-01-09 15:23:51.01	34.53	8.24	
2025-01-09 15:23:51.22	34.49	8.25	
2025-01-09 15:23:51.42	34.45	8.25	
2025-01-09 15:23:51.63	34.41	8.25	
2025-01-09 15:23:51.83	34.37	8.25	
2025-01-09 15:23:52.04	34.33	8.25	
2025-01-09 15:23:52.24	34.29	8.26	
2025-01-09 15:23:52.45	34.25	8.26	
2025-01-09 15:23:52.65	34.22	8.26	
2025-01-09 15:23:52.85	34.18	8.26	
2025-01-09 15:23:53.06	34.14	8.26	
2025-01-09 15:23:53.27	34.10	8.27	
2025-01-09 15:23:53.47	34.06	8.27	
2025-01-09 15:23:53.69	34.02	8.27	
2025-01-09 15:23:53.89	33.98	8.27	
2025-01-09 15:23:54.10	33.94	8.27	
2025-01-09 15:23:54.31	33.90	8.27	
2025-01-09 15:23:54.51	33.86	8.28	
2025-01-09 15:23:54.72	33.82	8.28	
2025-01-09 15:23:54.92	33.78	8.28	
2025-01-09 15:23:55.13	33.74	8.28	
2025-01-09 15:23:55.33	33.70	8.28	
2025-01-09 15:23:55.54	33.66	8.28	
2025-01-09 15:23:55.74	33.63	8.29	
2025-01-09 15:23:55.95	33.59	8.29	
2025-01-09 15:23:56.15	33.55	8.29	
2025-01-09 15:23:56.36	33.51	8.29	
2025-01-09 15:23:56.56	33.47	8.29	
2025-01-09 15:23:56.77	33.43	8.29	
2025-01-09 15:23:56.97	33.39	8.30	
2025-01-09 15:23:57.17	33.35	8.30	
2025-01-09 15:23:57.38	33.31	8.30	
2025-01-09 15:23:57.58	33.27	8.30	
2025-01-09 15:23:57.79	33.23	8.30	
2025-01-09 15:23:57.99	33.20	8.30	
2025-01-09 15:23:58.20	33.16	8.31	
2025-01-09 15:23:58.40	33.12	8.31	
2025-01-09 15:23:58.61	33.08	8.31	
2025-01-09 15:23:58.81	33.04	8.31	
2025-01-09 15:23:59.02	33.00	8.31	
2025-01-09 15:23:59.22	32.96	8.31	
2025-01-09 15:23:59.43	32.92	8.31	
2025-01-09 15:23:59.63	32.88	8.32	
2025-01-09 15:23:59.84	32.84	8.32	
2025-01-09 15:24:00.04	32.80	8.32	
2025-01-09 15:24:00.25	32.76	8.32	
2025-01-09 15:24:00.45	32.73	8.32	
2025-01-09 15:24:00.66	32.69	8.32	
2025-01-09 15:24:00.86	32.65	8.32	
2025-01-09 15:24:01.07	32.61	8.33	
2025-01-09 15:24:01.27	32.57	8.33	
2025-01-09 15:24:01.48	32.53	8.33	
2025-01-09 15:24:01.68	32.49	8.33	
2025-01-09 15:24:01.89	32.45	8.33	
2025-01-09 15:24:02.10	32.41	8.33	
2025-01-09 15:24:02.30	32.37	8.33	
2025-01-09 15:24:02.52	32.33	8.33	
2025-01-09 15:24:02.72	32.29	8.34	
2025-01-09 15:24:02.93	32.25	8.34	
2025-01-09 15:24:03.13	32.21	8.34	
2025-01-09 15:24:03.34	32.17	8.34	
2025-01-09 15:24:03.54	32.13	8.34	
2025-01-09 15:24:03.75	32.09	8.34	
2025-01-09 15:24:03.95	32.05	8.34	
2025-01-09 15:24:04.16	32.01	8.34	
2025-01-09 15:24:04.36	31.98	8.35	
2025-01-09 15:24:04.57	31.94	8.35	
2025-01-09 15:24:04.77	31.90	8.35	
2025-01-09 15:24:04.98	31.86	8.35	
2025-01-09 15:24:05.18	31.82	8.35	
2025-01-09 15:24:05.39	31.78	8.35	
2025-01-09 15:24:05.59	31.74	8.35	
2025-01-09 15:24:05.80	31.70	8.35	
2025-01-09 15:24:06.00	31.66	8.35	
2025-01-09 15:24:06.21	31.62	8.36	
2025-01-09 15:24:06.41	31.58	8.36	
2025-01-09 15:24:06.62	31.54	8.36	
2025-01-09 15:24:06.82	31.50	8.36	
2025-01-09 15:24:07.04	31.46	8.36	
2025-01-09 15:24:07.25	31.42	8.36	
2025-01-09 15:24:07.45	31.38	8.36	
2025-01-09 15:24:07.66	31.34	8.36	
2025-01-09 15:24:07.87	31.30	8.36	
2025-01-09 15:24:08.08	31.26	8.36	
2025-01-09 15:24:08.28	31.22	8.37	
2025-01-09 15:24:08.49	31.18	8.37	
2025-01-09 15:24:08.69	31.15	8.37	
2025-01-09 15:24:08.90	31.10	8.37	
2025-01-09 15:24:09.10	31.07	8.37	
2025-01-09 15:24:09.31	31.03	8.37	
2025-01-09 15:24:09.51	30.99	8.37	
2025-01-09 15:24:09.72	30.95	8.37	
2025-01-09 15:24:09.92	30.91	8.37	
2025-01-09 15:24:10.13	30.87	8.37	
2025-01-09 15:24:10.33	30.83	8.37	
2025-01-09 15:24:10.54	30.79	8.37	
2025-01-09 15:24:10.75	30.75	8.38	
2025-01-09 15:24:10.95	30.71	8.38	
2025-01-09 15:24:11.15	30.67	8.38	
2025-01-09 15:24:11.36	30.63	8.38	
2025-01-09 15:24:11.57	30.59	8.38	
2025-01-09 15:24:11.77	30.55	8.38	
2025-01-09 15:24:11.98	30.51	8.38	
2025-01-09 15:24:12.18	30.47	8.38	
2025-01-09 15:24:12.39	30.43	8.38	
2025-01-09 15:24:12.59	30.40	8.38	
2025-01-09 15:24:12.80	30.36	8.38	
2025-01-09 15:24:13.00	30.32	8.38	
2025-01-09 15:24:13.21	30.28	8.38	
2025-01-09 15:24:13.41	30.24	8.38	
2025-01-09 15:24:13.62	30.20	8.39	
2025-01-09 15:24:13.82	30.16	8.39	
2025-01-09 15:24:14.03	30.12	8.39	
2025-01-09 15:24:14.23	30.08	8.39	
2025-01-09 15:24:14.43	30.04	8.39	
2025-01-09 15:24:14.64	30.00	8.39	
2025-01-09 15:24:14.84	29.96	8.39	
2025-01-09 15:24:15.05	29.92	8.39	
2025-01-09 15:24:15.25	29.88	8.39	
2025-01-09 15:24:15.47	29.84	8.39	
2025-01-09 15:24:15.68	29.80	8.39	
2025-01-09 15:24:15.88	29.76	8.39	
2025-01-09 15:24:16.09	29.72	8.39	
2025-01-09 15:24:16.29	29.68	8.39	
2025-01-09 15:24:16.50	29.64	8.39	
2025-01-09 15:24:16.70	29.60	8.39	
2025-01-09 15:24:16.91	29.56	8.39	
2025-01-09 15:24:17.11	29.53	8.39	
2025-01-09 15:24:17.32	29.49	8.39	
2025-01-09 15:24:17.52	29.45	8.39	
2025-01-09 15:24:17.73	29.41	8.40	
2025-01-09 15:24:17.94	29.37	8.40	
2025-01-09 15:24:18.14	29.33	8.40	
2025-01-09 15:24:18.35	29.29	8.40	
2025-01-09 15:24:18.55	29.25	8.40	
2025-01-09 15:24:18.76	29.21	8.40	
2025-01-09 15:24:18.96	29.17	8.40	
2025-01-09 15:24:19.17	29.13	8.40	
2025-01-09 15:24:19.37	29.09	8.40	
2025-01-09 15:24:19.58	29.05	8.40	
2025-01-09 15:24:19.78	29.01	8.40	
2025-01-09 15:24:19.99	28.97	8.40	
2025-01-09 15:24:20.19	28.93	8.40	
2025-01-09 15:24:20.40	28.89	8.40	
2025-01-09 15:24:20.60	28.85	8.40	
2025-01-09 15:24:20.82	28.81	8.40	
2025-01-09 15:24:21.03	28.77	8.40	
2025-01-09 15:24:21.23	28.73	8.40	
2025-01-09 15:24:21.44	28.69	8.40	
2025-01-09 15:24:21.64	28.65	8.40	
2025-01-09 15:24:21.85	28.61	8.40	
2025-01-09 15:24:22.05	28.57	8.40	
2025-01-09 15:24:22.26	28.53	8.40	
2025-01-09 15:24:22.47	28.49	8.40	
2025-01-09 15:24:22.67	28.46	8.40	
2025-01-09 15:24:22.87	28.42	8.40	
2025-01-09 15:24:23.08	28.38	8.40	
2025-01-09 15:24:23.29	28.34	8.40	
2025-01-09 15:24:23.49	28.30	8.40	
2025-01-09 15:24:23.70	28.26	8.40	
2025-01-09 15:24:23.90	28.22	8.40	
2025-01-09 15:24:24.10	28.18	8.40	
2025-01-09 15:24:24.31	28.14	8.40	
2025-01-09 15:24:24.52	28.10	8.40	
2025-01-09 15:24:24.72	28.06	8.40	
2025-01-09 15:24:24.92	28.02	8.40	
2025-01-09 15:24:25.13	27.98	8.40	
2025-01-09 15:24:25.33	27.94	8.40	
2025-01-09 15:24:25.54	27.90	8.40	
2025-01-09 15:24:25.74	27.86	8.40	
2025-01-09 15:24:25.95	27.82	8.40	
2025-01-09 15:24:26.15	27.79	8.40	
2025-01-09 15:24:26.36	27.74	8.40	
2025-01-09 15:24:26.57	27.70	8.40	
2025-01-09 15:24:26.77	27.67	8.40	
2025-01-09 15:24:26.98	27.63	8.40	
2025-01-09 15:24:27.18	27.59	8.40	
2025-01-09 15:24:27.39	27.55	8.40	
2025-01-09 15:24:27.59	27.51	8.40	
2025-01-09 15:24:27.80	27.47	8.40	
2025-01-09 15:24:28.00	27.43	8.40	
2025-01-09 15:24:28.21	27.39	8.40	
2025-01-09 15:24:28.41	27.35	8.40	
2025-01-09 15:24:28.62	27.31	8.40	
2025-01-09 15:24:28.83	27.27	8.40	
2025-01-09 15:24:29.03	27.23	8.40	
2025-01-09 15:24:29.23	27.19	8.40	
2025-01-09 15:24:29.44	27.15	8.40	
2025-01-09 15:24:29.65	27.11	8.40	
2025-01-09 15:24:29.85	27.07	8.40	
2025-01-09 15:24:30.06	27.03	8.40	
2025-01-09 15:24:30.27	26.99	8.40	
2025-01-09 15:24:30.47	26.95	8.40	
2025-01-09 15:24:30.67	26.92	8.39	
2025-01-09 15:24:30.88	26.87	8.39	
2025-01-09 15:24:31.09	26.83	8.39	
2025-01-09 15:24:31.29	26.80	8.39	
2025-01-09 15:24:31.49	26.76	8.39	
2025-01-09 15:24:31.70	26.72	8.39	
2025-01-09 15:24:31.90	26.68	8.39	
2025-01-09 15:24:32.11	26.64	8.39	
2025-01-09 15:24:32.32	26.60	8.39	
2025-01-09 15:24:32.53	26.56	8.39	
2025-01-09 15:24:32.74	26.52	8.39	
2025-01-09 15:24:32.95	26.48	8.39	
2025-01-09 15:24:33.15	26.44	8.39	
2025-01-09 15:24:33.36	26.40	8.39	
2025-01-09 15:24:33.56	26.36	8.39	
2025-01-09 15:24:33.77	26.32	8.39	
2025-01-09 15:24:33.97	26.28	8.39	
2025-01-09 15:24:34.18	26.24	8.39	
2025-01-09 15:24:34.38	26.20	8.39	
2025-01-09 15:24:34.59	26.16	8.39	
2025-01-09 15:24:34.79	26.12	8.38	
2025-01-09 15:24:35.00	26.08	8.38	
2025-01-09 15:24:35.21	26.04	8.38	
2025-01-09 15:24:35.41	26.00	8.38	
2025-01-09 15:24:35.62	25.96	8.38	
2025-01-09 15:24:35.82	25.92	8.38	
2025-01-09 15:24:36.03	25.88	8.38	
2025-01-09 15:24:36.23	25.85	8.38	
2025-01-09 15:24:36.44	25.81	8.38	
2025-01-09 15:24:36.64	25.77	8.38	
2025-01-09 15:24:36.85	25.73	8.38	
2025-01-09 15:24:37.05	25.69	8.38	
2025-01-09 15:24:37.26	25.65	8.38	
2025-01-09 15:24:37.46	25.61	8.38	
2025-01-09 15:24:37.67	25.57	8.37	
2025-01-09 15:24:37.87	25.53	8.37	
2025-01-09 15:24:38.08	25.49	8.37	
2025-01-09 15:24:38.29	25.45	8.37	
2025-01-09 15:24:38.49	25.41	8.37	
2025-01-09 15:24:38.70	25.37	8.37	
2025-01-09 15:24:38.90	25.33	8.37	
2025-01-09 15:24:39.10	25.29	8.37	
2025-01-09 15:24:39.31	25.25	8.37	
2025-01-09 15:24:39.52	25.21	8.37	
2025-01-09 15:24:39.72	25.18	8.37	
2025-01-09 15:24:39.93	25.13	8.36	
2025-01-09 15:24:40.13	25.10	8.36	
2025-01-09 15:24:40.34	25.06	8.36	
2025-01-09 15:24:40.54	25.02	8.36	
2025-01-09 15:24:40.75	24.98	8.36	
2025-01-09 15:24:40.96	24.94	8.36	
2025-01-09 15:24:41.17	24.90	8.36	
2025-01-09 15:24:41.38	24.86	8.36	
2025-01-09 15:24:41.58	24.82	8.36	
2025-01-09 15:24:41.79	24.78	8.36	
2025-01-09 15:24:41.99	24.74	8.35	
2025-01-09 15:24:42.20	24.70	8.35	
2025-01-09 15:24:42.40	24.66	8.35	
2025-01-09 15:24:42.61	24.62	8.35	
2025-01-09 15:24:42.81	24.58	8.35	
2025-01-09 15:24:43.02	24.54	8.35	
2025-01-09 15:24:43.22	24.50	8.35	
2025-01-09 15:24:43.43	24.46	8.35	
2025-01-09 15:24:43.63	24.43	8.35	
2025-01-09 15:24:43.84	24.38	8.34	
2025-01-09 15:24:44.04	24.35	8.34	
2025-01-09 15:24:44.25	24.31	8.34	
2025-01-09 15:24:44.45	24.27	8.34	
2025-01-09 15:24:44.66	24.23	8.34	
2025-01-09 15:24:44.86	24.19	8.34	
2025-01-09 15:24:45.07	24.15	8.34	
2025-01-09 15:24:45.27	24.11	8.34	
2025-01-09 15:24:45.48	24.07	8.34	
2025-01-09 15:24:45.69	24.03	8.33	
2025-01-09 15:24:45.89	23.99	8.33	
2025-01-09 15:24:46.10	23.95	8.33	
2025-01-09 15:24:46.30	23.91	8.33	
2025-01-09 15:24:46.51	23.87	8.33	
2025-01-09 15:24:46.71	23.84	8.33	
2025-01-09 15:24:46.92	23.79	8.33	
2025-01-09 15:24:47.12	23.76	8.32	
2025-01-09 15:24:47.33	23.72	8.32	
2025-01-09 15:24:47.54	23.68	8.32	
2025-01-09 15:24:47.75	23.64	8.32	
2025-01-09 15:24:47.96	23.60	8.32	
2025-01-09 15:24:48.16	23.56	8.32	
2025-01-09 15:24:48.37	23.52	8.32	
2025-01-09 15:24:48.57	23.48	8.31	
2025-01-09 15:24:48.78	23.44	8.31	
2025-01-09 15:24:48.99	23.40	8.31	
2025-01-09 15:24:49.19	23.36	8.31	
2025-01-09 15:24:49.40	23.32	8.31	
2025-01-09 15:24:49.60	23.28	8.31	
2025-01-09 15:24:49.81	23.24	8.31	
2025-01-09 15:24:50.01	23.20	8.30	
2025-01-09 15:24:50.22	23.16	8.30	
2025-01-09 15:24:50.42	23.13	8.30	
2025-01-09 15:24:50.63	23.09	8.30	
2025-01-09 15:24:50.83	23.05	8.30	
2025-01-09 15:24:51.04	23.01	8.30	
2025-01-09 15:24:51.24	22.97	8.30	
2025-01-09 15:24:51.45	22.93	8.29	
2025-01-09 15:24:51.66	22.89	8.29	
2025-01-09 15:24:51.86	22.85	8.29	
2025-01-09 15:24:52.07	22.81	8.29	
2025-01-09 15:24:52.27	22.77	8.29	
2025-01-09 15:24:52.48	22.73	8.29	
2025-01-09 15:24:52.69	22.69	8.28	
2025-01-09 15:24:52.90	22.65	8.28	
2025-01-09 15:24:53.11	22.61	8.28	
2025-01-09 15:24:53.31	22.57	8.28	
2025-01-09 15:24:53.52	22.53	8.28	
2025-01-09 15:24:53.73	22.49	8.28	
2025-01-09 15:24:53.93	22.46	8.27	
2025-01-09 15:24:54.13	22.42	8.27	
2025-01-09 15:24:54.34	22.38	8.27	
2025-01-09 15:24:54.55	22.34	8.27	
2025-01-09 15:24:54.75	22.30	8.27	
2025-01-09 15:24:54.96	22.26	8.26	
2025-01-09 15:24:55.16	22.22	8.26	
2025-01-09 15:24:55.37	22.18	8.26	
2025-01-09 15:24:55.58	22.14	8.26	
2025-01-09 15:24:55.78	22.10	8.26	
2025-01-09 15:24:55.98	22.06	8.26	
2025-01-09 15:24:56.19	22.02	8.25	
2025-01-09 15:24:56.40	21.98	8.25	
2025-01-09 15:24:56.60	21.95	8.25	
2025-01-09 15:24:56.81	21.91	8.25	
2025-01-09 15:24:57.01	21.87	8.25	
2025-01-09 15:24:57.22	21.83	8.24	
2025-01-09 15:24:57.42	21.79	8.24	
2025-01-09 15:24:57.63	21.75	8.24	
2025-01-09 15:24:57.83	21.71	8.24	
2025-01-09 15:24:58.04	21.67	8.24	
2025-01-09 15:24:58.24	21.64	8.23	
2025-01-09 15:24:58.45	21.60	8.23	
2025-01-09 15:24:58.65	21.56	8.23	
2025-01-09 15:24:58.86	21.52	8.23	
2025-01-09 15:24:59.06	21.48	8.23	
2025-01-09 15:24:59.27	21.44	8.22	
2025-01-09 15:24:59.47	21.40	8.22	
2025-01-09 15:24:59.68	21.36	8.22	
2025-01-09 15:24:59.89	21.32	8.22	
2025-01-09 15:25:00.09	21.28	8.22	
2025-01-09 15:25:00.29	21.25	8.21	
2025-01-09 15:25:00.50	21.21	8.21	
2025-01-09 15:25:00.70	21.17	8.21	
2025-01-09 15:25:00.91	21.13	8.21	
2025-01-09 15:25:01.11	21.09	8.21	
2025-01-09 15:25:01.31	21.05	8.20	
2025-01-09 15:25:01.52	21.01	8.20	
2025-01-09 15:25:01.72	20.97	8.20	
2025-01-09 15:25:01.93	20.93	8.20	
2025-01-09 15:25:02.14	20.89	8.19	
2025-01-09 15:25:02.34	20.86	8.19	
2025-01-09 15:25:02.54	20.82	8.19	
2025-01-09 15:25:02.75	20.78	8.19	
2025-01-09 15:25:02.96	20.74	8.19	
2025-01-09 15:25:03.16	20.70	8.18	
2025-01-09 15:25:03.37	20.66	8.18	
2025-01-09 15:25:03.57	20.62	8.18	
2025-01-09 15:25:03.78	20.58	8.18	
2025-01-09 15:25:03.98	20.55	8.17	
2025-01-09 15:25:04.19	20.51	8.17	
2025-01-09 15:25:04.39	20.47	8.17	
2025-01-09 15:25:04.60	20.43	8.17	
2025-01-09 15:25:04.80	20.39	8.16	
2025-01-09 15:25:05.01	20.35	8.16	
2025-01-09 15:25:05.22	20.31	8.16	
2025-01-09 15:25:05.42	20.27	8.16	
2025-01-09 15:25:05.62	20.24	8.16	
2025-01-09 15:25:05.83	20.20	8.15	
2025-01-09 15:25:06.03	20.16	8.15	
2025-01-09 15:25:06.24	20.12	8.15	
2025-01-09 15:25:06.45	20.08	8.15	
2025-01-09 15:25:06.65	20.04	8.14	
2025-01-09 15:25:06.85	20.00	8.14	
2025-01-09 15:25:07.06	19.96	8.14	
2025-01-09 15:25:07.27	19.92	8.14	
2025-01-09 15:25:07.47	19.89	8.13	
2025-01-09 15:25:07.67	19.85	8.13	
2025-01-09 15:25:07.89	19.81	8.13	
2025-01-09 15:25:08.10	19.77	8.13	
2025-01-09 15:25:08.31	19.73	8.12	
2025-01-09 15:25:08.51	19.69	8.12	
2025-01-09 15:25:08.72	19.65	8.12	
2025-01-09 15:25:08.92	19.61	8.12	
2025-01-09 15:25:09.13	19.57	8.11	
2025-01-09 15:25:09.33	19.54	8.11	
2025-01-09 15:25:09.54	19.50	8.11	
2025-01-09 15:25:09.74	19.46	8.10	
2025-01-09 15:25:09.94	19.42	8.10	
2025-01-09 15:25:10.15	19.38	8.10	
2025-01-09 15:25:10.36	19.34	8.10	
2025-01-09 15:25:10.56	19.31	8.09	
2025-01-09 15:25:10.77	19.27	8.09	
2025-01-09 15:25:10.97	19.23	8.09	
2025-01-09 15:25:11.17	19.19	8.09	
2025-01-09 15:25:11.38	19.15	8.08	
2025-01-09 15:25:11.58	19.11	8.08	
2025-01-09 15:25:11.79	19.07	8.08	
2025-01-09 15:25:11.99	19.04	8.08	
2025-01-09 15:25:12.20	19.00	8.07	
2025-01-09 15:25:12.41	18.96	8.07	
2025-01-09 15:25:12.61	18.92	8.07	
2025-01-09 15:25:12.82	18.88	8.06	
2025-01-09 15:25:13.02	18.84	8.06	
2025-01-09 15:25:13.23	18.80	8.06	
2025-01-09 15:25:13.43	18.77	8.06	
2025-01-09 15:25:13.64	18.73	8.05	
2025-01-09 15:25:13.84	18.69	8.05	
2025-01-09 15:25:14.05	18.65	8.05	
2025-01-09 15:25:14.25	18.61	8.04	
2025-01-09 15:25:14.46	18.57	8.04	
2025-01-09 15:25:14.66	18.54	8.04	
2025-01-09 15:25:14.87	18.50	8.04	
2025-01-09 15:25:15.08	18.46	8.03	
2025-01-09 15:25:15.28	18.42	8.03	
2025-01-09 15:25:15.49	18.38	8.03	
2025-01-09 15:25:15.69	18.34	8.02	
2025-01-09 15:25:15.90	18.30	8.02	
2025-01-09 15:25:16.11	18.26	8.02	
2025-01-09 15:25:16.32	18.23	8.01	
2025-01-09 15:25:16.53	18.19	8.01	
2025-01-09 15:25:16.73	18.15	8.01	
2025-01-09 15:25:16.93	18.11	8.01	
2025-01-09 15:25:17.13	18.07	8.00	
2025-01-09 15:25:17.34	18.03	8.00	
2025-01-09 15:25:17.54	18.00	8.00	
2025-01-09 15:25:17.75	17.96	7.99	
2025-01-09 15:25:17.95	17.92	7.99	
2025-01-09 15:25:18.16	17.88	7.99	
2025-01-09 15:25:18.36	17.84	7.98	
2025-01-09 15:25:18.56	17.81	7.98	
2025-01-09 15:25:18.77	17.77	7.98	
2025-01-09 15:25:18.98	17.73	7.98	
2025-01-09 15:25:19.18	17.69	7.97	
2025-01-09 15:25:19.39	17.65	7.97	
2025-01-09 15:25:19.59	17.62	7.97	
2025-01-09 15:25:19.80	17.58	7.96	
2025-01-09 15:25:20.00	17.54	7.96	
2025-01-09 15:25:20.21	17.50	7.96	
2025-01-09 15:25:20.41	17.46	7.95	
2025-01-09 15:25:20.62	17.42	7.95	
2025-01-09 15:25:20.82	17.39	7.95	
2025-01-09 15:25:21.03	17.35	7.94	
2025-01-09 15:25:21.23	17.31	7.94	
2025-01-09 15:25:21.44	17.27	7.94	
2025-01-09 15:25:21.65	17.23	7.93	
2025-01-09 15:25:21.85	17.19	7.93	
2025-01-09 15:25:22.06	17.16	7.93	
2025-01-09 15:25:22.26	17.12	7.92	
2025-01-09 15:25:22.48	17.08	7.92	
2025-01-09 15:25:22.68	17.04	7.92	
2025-01-09 15:25:22.88	17.00	7.91	
2025-01-09 15:25:23.09	16.96	7.91	
2025-01-09 15:25:23.30	16.93	7.91	
2025-01-09 15:25:23.50	16.89	7.90	
2025-01-09 15:25:23.70	16.85	7.90	
2025-01-09 15:25:23.91	16.81	7.90	
2025-01-09 15:25:24.12	16.77	7.89	
2025-01-09 15:25:24.32	16.74	7.89	
2025-01-09 15:25:24.53	16.70	7.89	
2025-01-09 15:25:24.73	16.66	7.88	
2025-01-09 15:25:24.94	16.62	7.88	
2025-01-09 15:25:25.14	16.58	7.88	
2025-01-09 15:25:25.35	16.55	7.87	
2025-01-09 15:25:25.55	16.51	7.87	
2025-01-09 15:25:25.76	16.47	7.87	
2025-01-09 15:25:25.96	16.43	7.86	
2025-01-09 15:25:26.17	16.39	7.86	
2025-01-09 15:25:26.38	16.36	7.86	
2025-01-09 15:25:26.58	16.32	7.85	
2025-01-09 15:25:26.79	16.28	7.85	
2025-01-09 15:25:26.99	16.24	7.84	
2025-01-09 15:25:27.20	16.20	7.84	
2025-01-09 15:25:27.40	16.17	7.84	
2025-01-09 15:25:27.61	16.13	7.83	
2025-01-09 15:25:27.81	16.09	7.83	
2025-01-09 15:25:28.03	16.05	7.83	
2025-01-09 15:25:28.24	16.01	7.82	
2025-01-09 15:25:28.44	15.98	7.82	
2025-01-09 15:25:28.65	15.94	7.82	
2025-01-09 15:25:28.85	15.90	7.81	
2025-01-09 15:25:29.06	15.86	7.81	
2025-01-09 15:25:29.27	15.82	7.80	
2025-01-09 15:25:29.47	15.79	7.80	
2025-01-09 15:25:29.68	15.75	7.80	
2025-01-09 15:25:29.88	15.71	7.79	
2025-01-09 15:25:30.10	15.67	7.79	
2025-01-09 15:25:30.31	15.63	7.79	
2025-01-09 15:25:30.51	15.60	7.78	
2025-01-09 15:25:30.72	15.56	7.78	
2025-01-09 15:25:30.93	15.52	7.77	
2025-01-09 15:25:31.13	15.48	7.77	
2025-01-09 15:25:31.34	15.44	7.77	
2025-01-09 15:25:31.54	15.41	7.76	
2025-01-09 15:25:31.75	15.37	7.76	
2025-01-09 15:25:31.95	15.33	7.76	
2025-01-09 15:25:32.16	15.29	7.75	
2025-01-09 15:25:32.36	15.26	7.75	
2025-01-09 15:25:32.57	15.22	7.74	
2025-01-09 15:25:32.77	15.18	7.74	
2025-01-09 15:25:32.98	15.14	7.74	
2025-01-09 15:25:33.18	15.11	7.73	
2025-01-09 15:25:33.39	15.07	7.73	
2025-01-09 15:25:33.59	15.03	7.73	
2025-01-09 15:25:33.80	14.99	7.72	
2025-01-09 15:25:34.00	14.96	7.72	
2025-01-09 15:25:34.21	14.92	7.71	
2025-01-09 15:25:34.41	14.88	7.71	
2025-01-09 15:25:34.62	14.84	7.71	
2025-01-09 15:25:34.82	14.81	7.70	
2025-01-09 15:25:35.03	14.77	7.70	
2025-01-09 15:25:35.24	14.73	7.69	
2025-01-09 15:25:35.44	14.69	7.69	
2025-01-09 15:25:35.64	14.66	7.69	
2025-01-09 15:25:35.85	14.62	7.68	
2025-01-09 15:25:36.05	14.58	7.68	
2025-01-09 15:25:36.26	14.54	7.67	
2025-01-09 15:25:36.47	14.51	7.67	
2025-01-09 15:25:36.67	14.47	7.67	
2025-01-09 15:25:36.88	14.43	7.66	
2025-01-09 15:25:37.09	14.39	7.66	
2025-01-09 15:25:37.29	14.36	7.65	
2025-01-09 15:25:37.50	14.32	7.65	
2025-01-09 15:25:37.71	14.28	7.65	
2025-01-09 15:25:37.92	14.24	7.64	
2025-01-09 15:25:38.13	14.20	7.64	
2025-01-09 15:25:38.33	14.17	7.63	
2025-01-09 15:25:38.54	14.13	7.63	
2025-01-09 15:25:38.74	14.09	7.62	
2025-01-09 15:25:38.95	14.05	7.62	
2025-01-09 15:25:39.15	14.02	7.62	
2025-01-09 15:25:39.36	13.98	7.61	
2025-01-09 15:25:39.56	13.94	7.61	
2025-01-09 15:25:39.76	13.91	7.60	
2025-01-09 15:25:39.97	13.87	7.60	
2025-01-09 15:25:40.18	13.83	7.60	
2025-01-09 15:25:40.38	13.80	7.59	
2025-01-09 15:25:40.58	13.76	7.59	
2025-01-09 15:25:40.79	13.72	7.58	
2025-01-09 15:25:40.99	13.69	7.58	
2025-01-09 15:25:41.20	13.65	7.57	
2025-01-09 15:25:41.40	13.61	7.57	
2025-01-09 15:25:41.61	13.57	7.57	
2025-01-09 15:25:41.82	13.54	7.56	
2025-01-09 15:25:42.02	13.50	7.56	
2025-01-09 15:25:42.22	13.46	7.55	
2025-01-09 15:25:42.43	13.43	7.55	
2025-01-09 15:25:42.64	13.39	7.54	
2025-01-09 15:25:42.85	13.35	7.54	
2025-01-09 15:25:43.07	13.31	7.54	
2025-01-09 15:25:43.28	13.27	7.53	
2025-01-09 15:25:43.48	13.24	7.53	
2025-01-09 15:25:43.69	13.20	7.52	
2025-01-09 15:25:43.89	13.16	7.52	
2025-01-09 15:25:44.10	13.12	7.51	
2025-01-09 15:25:44.30	13.09	7.51	
2025-01-09 15:25:44.51	13.05	7.50	
2025-01-09 15:25:44.71	13.01	7.50	
2025-01-09 15:25:44.92	12.98	7.50	
2025-01-09 15:25:45.12	12.94	7.49	
2025-01-09 15:25:45.33	12.90	7.49	
2025-01-09 15:25:45.53	12.87	7.48	
2025-01-09 15:25:45.74	12.83	7.48	
2025-01-09 15:25:45.94	12.79	7.47	
2025-01-09 15:25:46.16	12.75	7.47	
2025-01-09 15:25:46.37	12.72	7.46	
2025-01-09 15:25:46.57	12.68	7.46	
2025-01-09 15:25:46.78	12.64	7.46	
2025-01-09 15:25:46.98	12.61	7.45	
2025-01-09 15:25:47.19	12.57	7.45	
2025-01-09 15:25:47.39	12.53	7.44	
2025-01-09 15:25:47.60	12.50	7.44	
2025-01-09 15:25:47.80	12.46	7.43	
2025-01-09 15:25:48.01	12.42	7.43	
2025-01-09 15:25:48.22	12.39	7.42	
2025-01-09 15:25:48.43	12.35	7.42	
2025-01-09 15:25:48.64	12.31	7.41	
2025-01-09 15:25:48.84	12.27	7.41	
2025-01-09 15:25:49.05	12.24	7.40	
2025-01-09 15:25:49.26	12.20	7.40	
2025-01-09 15:25:49.46	12.16	7.40	
2025-01-09 15:25:49.67	12.13	7.39	
2025-01-09 15:25:49.87	12.09	7.39	
2025-01-09 15:25:50.08	12.05	7.38	
2025-01-09 15:25:50.28	12.02	7.38	
2025-01-09 15:25:50.49	11.98	7.37	
2025-01-09 15:25:50.69	11.95	7.37	
2025-01-09 15:25:50.90	11.91	7.36	
2025-01-09 15:25:51.10	11.87	7.36	
2025-01-09 15:25:51.31	11.83	7.35	
2025-01-09 15:25:51.51	11.80	7.35	
2025-01-09 15:25:51.72	11.76	7.34	
2025-01-09 15:25:51.92	11.73	7.34	
2025-01-09 15:25:52.13	11.69	7.33	
2025-01-09 15:25:52.33	11.65	7.33	
2025-01-09 15:25:52.54	11.62	7.32	
2025-01-09 15:25:52.74	11.58	7.32	
2025-01-09 15:25:52.95	11.54	7.32	
2025-01-09 15:25:53.15	11.51	7.31	
2025-01-09 15:25:53.36	11.47	7.31	
2025-01-09 15:25:53.57	11.43	7.30	
2025-01-09 15:25:53.78	11.40	7.30	
2025-01-09 15:25:53.99	11.36	7.29	
2025-01-09 15:25:54.19	11.32	7.29	
2025-01-09 15:25:54.40	11.29	7.28	
2025-01-09 15:25:54.60	11.25	7.28	
2025-01-09 15:25:54.80	11.22	7.27	
2025-01-09 15:25:55.01	11.18	7.27	
2025-01-09 15:25:55.21	11.14	7.26	
2025-01-09 15:25:55.42	11.11	7.26	
2025-01-09 15:25:55.63	11.07	7.25	
2025-01-09 15:25:55.83	11.03	7.25	
2025-01-09 15:25:56.03	11.00	7.24	
2025-01-09 15:25:56.24	10.96	7.24	
2025-01-09 15:25:56.45	10.93	7.23	
2025-01-09 15:25:56.65	10.89	7.23	
2025-01-09 15:25:56.86	10.85	7.22	
2025-01-09 15:25:57.06	10.82	7.22	
2025-01-09 15:25:57.27	10.78	7.21	
2025-01-09 15:25:57.47	10.75	7.21	
2025-01-09 15:25:57.68	10.71	7.20	
2025-01-09 15:25:57.88	10.67	7.20	
2025-01-09 15:25:58.09	10.64	7.19	
2025-01-09 15:25:58.29	10.60	7.19	
2025-01-09 15:25:58.50	10.57	7.18	
2025-01-09 15:25:58.71	10.53	7.18	
2025-01-09 15:25:58.91	10.49	7.17	
2025-01-09 15:25:59.13	10.45	7.17	
2025-01-09 15:25:59.33	10.42	7.16	
2025-01-09 15:25:59.54	10.38	7.16	
2025-01-09 15:25:59.75	10.35	7.15	
2025-01-09 15:25:59.95	10.31	7.15	
2025-01-09 15:26:00.15	10.28	7.14	
2025-01-09 15:26:00.36	10.24	7.14	
2025-01-09 15:26:00.56	10.20	7.13	
2025-01-09 15:26:00.77	10.17	7.13	
2025-01-09 15:26:00.97	10.13	7.12	
2025-01-09 15:26:01.18	10.10	7.12	
2025-01-09 15:26:01.38	10.06	7.11	
2025-01-09 15:26:01.59	10.02	7.11	
2025-01-09 15:26:01.80	9.99	7.10	
2025-01-09 15:26:02.00	9.95	7.10	
2025-01-09 15:26:02.20	9.92	7.09	
2025-01-09 15:26:02.41	9.88	7.08	
2025-01-09 15:26:02.61	9.85	7.08	
2025-01-09 15:26:02.82	9.81	7.07	
2025-01-09 15:26:03.03	9.77	7.07	
2025-01-09 15:26:03.23	9.74	7.06	
2025-01-09 15:26:03.44	9.70	7.06	
2025-01-09 15:26:03.64	9.67	7.05	
2025-01-09 15:26:03.85	9.63	7.05	
2025-01-09 15:26:04.05	9.60	7.04	
2025-01-09 15:26:04.26	9.56	7.04	
2025-01-09 15:26:04.47	9.52	7.03	
2025-01-09 15:26:04.68	9.49	7.03	
2025-01-09 15:26:04.89	9.45	7.02	
2025-01-09 15:26:05.09	9.42	7.02	
2025-01-09 15:26:05.30	9.38	7.01	
2025-01-09 15:26:05.50	9.35	7.01	
2025-01-09 15:26:05.71	9.31	7.00	
2025-01-09 15:26:05.91	9.27	6.99	
2025-01-09 15:26:06.12	9.24	6.99	
2025-01-09 15:26:06.32	9.20	6.98	
2025-01-09 15:26:06.53	9.17	6.98	
2025-01-09 15:26:06.73	9.13	6.97	
2025-01-09 15:26:06.94	9.10	6.97	
2025-01-09 15:26:07.14	9.06	6.96	
2025-01-09 15:26:07.35	9.03	6.96	
2025-01-09 15:26:07.55	8.99	6.95	
2025-01-09 15:26:07.76	8.95	6.95	
2025-01-09 15:26:07.96	8.92	6.94	
2025-01-09 15:26:08.17	8.88	6.94	
2025-01-09 15:26:08.37	8.85	6.93	
2025-01-09 15:26:08.58	8.81	6.92	
2025-01-09 15:26:08.78	8.78	6.92	
2025-01-09 15:26:08.99	8.74	6.91	
2025-01-09 15:26:09.20	8.71	6.91	
2025-01-09 15:26:09.40	8.67	6.90	
2025-01-09 15:26:09.61	8.64	6.90	
2025-01-09 15:26:09.81	8.60	6.89	
2025-01-09 15:26:10.02	8.57	6.89	
2025-01-09 15:26:10.22	8.53	6.88	
2025-01-09 15:26:10.43	8.50	6.87	
2025-01-09 15:26:10.63	8.46	6.87	
2025-01-09 15:26:10.85	8.42	6.86	
2025-01-09 15:26:11.05	8.39	6.86	
2025-01-09 15:26:11.26	8.35	6.85	
2025-01-09 15:26:11.47	8.32	6.85	
2025-01-09 15:26:11.67	8.28	6.84	
2025-01-09 15:26:11.89	8.25	6.84	
2025-01-09 15:26:12.10	8.21	6.83	
2025-01-09 15:26:12.30	8.18	6.82	
2025-01-09 15:26:12.51	8.14	6.82	
2025-01-09 15:26:12.71	8.11	6.81	
2025-01-09 15:26:12.92	8.07	6.81	
2025-01-09 15:26:13.12	8.04	6.80	
2025-01-09 15:26:13.33	8.00	6.80	
2025-01-09 15:26:13.53	7.97	6.79	
2025-01-09 15:26:13.74	7.93	6.78	
2025-01-09 15:26:13.94	7.90	6.78	
2025-01-09 15:26:14.15	7.86	6.77	
2025-01-09 15:26:14.35	7.83	6.77	
2025-01-09 15:26:14.56	7.79	6.76	
2025-01-09 15:26:14.76	7.76	6.76	
2025-01-09 15:26:14.97	7.72	6.75	
2025-01-09 15:26:15.17	7.69	6.74	
2025-01-09 15:26:15.37	7.65	6.74	
2025-01-09 15:26:15.58	7.62	6.73	
2025-01-09 15:26:15.79	7.58	6.73	
2025-01-09 15:26:15.99	7.55	6.72	
2025-01-09 15:26:16.19	7.51	6.72	
2025-01-09 15:26:16.40	7.48	6.71	
2025-01-09 15:26:16.61	7.44	6.70	
2025-01-09 15:26:16.81	7.41	6.70	
2025-01-09 15:26:17.02	7.37	6.69	
2025-01-09 15:26:17.22	7.34	6.69	
2025-01-09 15:26:17.43	7.31	6.68	
2025-01-09 15:26:17.63	7.27	6.68	
2025-01-09 15:26:17.84	7.24	6.67	
2025-01-09 15:26:18.04	7.20	6.66	
2025-01-09 15:26:18.25	7.17	6.66	
2025-01-09 15:26:18.45	7.13	6.65	
2025-01-09 15:26:18.66	7.10	6.65	
2025-01-09 15:26:18.87	7.06	6.64	
2025-01-09 15:26:19.07	7.03	6.63	
2025-01-09 15:26:19.28	6.99	6.63	
2025-01-09 15:26:19.48	6.96	6.62	
2025-01-09 15:26:19.69	6.92	6.62	
2025-01-09 15:26:19.89	6.89	6.61	
2025-01-09 15:26:20.10	6.86	6.61	
2025-01-09 15:26:20.30	6.82	6.60	
2025-01-09 15:26:20.51	6.79	6.59	
2025-01-09 15:26:20.71	6.75	6.59	
2025-01-09 15:26:20.92	6.72	6.58	
2025-01-09 15:26:21.13	6.68	6.58	
2025-01-09 15:26:21.33	6.65	6.57	
2025-01-09 15:26:21.53	6.62	6.56	
2025-01-09 15:26:21.74	6.58	6.56	
2025-01-09 15:26:21.95	6.55	6.55	
2025-01-09 15:26:22.15	6.51	6.55	
2025-01-09 15:26:22.36	6.48	6.54	
2025-01-09 15:26:22.56	6.44	6.53	
2025-01-09 15:26:22.77	6.41	6.53	
2025-01-09 15:26:22.97	6.38	6.52	
2025-01-09 15:26:23.18	6.34	6.52	
2025-01-09 15:26:23.39	6.31	6.51	
2025-01-09 15:26:23.59	6.27	6.50	
2025-01-09 15:26:23.80	6.24	6.50	
2025-01-09 15:26:24.00	6.20	6.49	
2025-01-09 15:26:24.21	6.17	6.49	
2025-01-09 15:26:24.41	6.14	6.48	
2025-01-09 15:26:24.62	6.10	6.47	
2025-01-09 15:26:24.82	6.07	6.47	
2025-01-09 15:26:25.03	6.03	6.46	
2025-01-09 15:26:25.24	6.00	6.45	
2025-01-09 15:26:25.44	5.96	6.45	
2025-01-09 15:26:25.64	5.93	6.44	
2025-01-09 15:26:25.85	5.90	6.44	
2025-01-09 15:26:26.05	5.86	6.43	
2025-01-09 15:26:26.26	5.83	6.42	
2025-01-09 15:26:26.47	5.79	6.42	
2025-01-09 15:26:26.67	5.76	6.41	
2025-01-09 15:26:26.88	5.73	6.41	
2025-01-09 15:26:27.08	5.69	6.40	
2025-01-09 15:26:27.29	5.66	6.39	
2025-01-09 15:26:27.49	5.62	6.39	
2025-01-09 15:26:27.70	5.59	6.38	
2025-01-09 15:26:27.90	5.56	6.38	
2025-01-09 15:26:28.11	5.52	6.37	
2025-01-09 15:26:28.31	5.49	6.36	
2025-01-09 15:26:28.52	5.46	6.36	
2025-01-09 15:26:28.73	5.42	6.35	
2025-01-09 15:26:28.93	5.39	6.34	
2025-01-09 15:26:29.14	5.35	6.34	
2025-01-09 15:26:29.34	5.32	6.33	
2025-01-09 15:26:29.54	5.29	6.33	
2025-01-09 15:26:29.75	5.25	6.32	
2025-01-09 15:26:29.95	5.22	6.31	
2025-01-09 15:26:30.16	5.19	6.31	
2025-01-09 15:26:30.37	5.15	6.30	
2025-01-09 15:26:30.57	5.12	6.29	
2025-01-09 15:26:30.78	5.08	6.29	
2025-01-09 15:26:30.98	5.05	6.28	
2025-01-09 15:26:31.19	5.02	6.28	
2025-01-09 15:26:31.39	4.98	6.27	
2025-01-09 15:26:31.60	4.95	6.26	
2025-01-09 15:26:31.81	4.92	6.26	
2025-01-09 15:26:32.01	4.88	6.25	
2025-01-09 15:26:32.22	4.85	6.24	
2025-01-09 15:26:32.42	4.82	6.24	
2025-01-09 15:26:32.63	4.78	6.23	
2025-01-09 15:26:32.83	4.75	6.22	
2025-01-09 15:26:33.04	4.71	6.22	
2025-01-09 15:26:33.26	4.68	6.21	
2025-01-09 15:26:33.46	4.65	6.20	
2025-01-09 15:26:33.67	4.61	6.20	
2025-01-09 15:26:33.87	4.58	6.19	
2025-01-09 15:26:34.08	4.54	6.19	
2025-01-09 15:26:34.28	4.51	6.18	
2025-01-09 15:26:34.49	4.48	6.17	
2025-01-09 15:26:34.70	4.44	6.17	
2025-01-09 15:26:34.90	4.41	6.16	
2025-01-09 15:26:35.11	4.38	6.15	
2025-01-09 15:26:35.31	4.35	6.15	
2025-01-09 15:26:35.52	4.31	6.14	
2025-01-09 15:26:35.72	4.28	6.13	
2025-01-09 15:26:35.93	4.24	6.13	
2025-01-09 15:26:36.13	4.21	6.12	
2025-01-09 15:26:36.34	4.18	6.11	
2025-01-09 15:26:36.54	4.15	6.11	
2025-01-09 15:26:36.75	4.11	6.10	
2025-01-09 15:26:36.95	4.08	6.10	
2025-01-09 15:26:37.16	4.05	6.09	
2025-01-09 15:26:37.36	4.01	6.08	
2025-01-09 15:26:37.56	3.98	6.08	
2025-01-09 15:26:37.77	3.95	6.07	
2025-01-09 15:26:37.97	3.92	6.06	
2025-01-09 15:26:38.18	3.88	6.06	
2025-01-09 15:26:38.39	3.85	6.05	
2025-01-09 15:26:38.59	3.82	6.04	
2025-01-09 15:26:38.80	3.78	6.04	
2025-01-09 15:26:39.00	3.75	6.03	
2025-01-09 15:26:39.21	3.72	6.02	
2025-01-09 15:26:39.41	3.68	6.02	
2025-01-09 15:26:39.63	3.65	6.01	
2025-01-09 15:26:39.84	3.61	6.00	
2025-01-09 15:26:40.04	3.58	6.00	
2025-01-09 15:26:40.25	3.55	5.99	
2025-01-09 15:26:40.45	3.52	5.98	
2025-01-09 15:26:40.66	3.48	5.98	
2025-01-09 15:26:40.86	3.45	5.97	
2025-01-09 15:26:41.07	3.42	5.96	
2025-01-09 15:26:41.27	3.39	5.96	
2025-01-09 15:26:41.48	3.35	5.95	
2025-01-09 15:26:41.68	3.32	5.94	
2025-01-09 15:26:41.89	3.29	5.94	
2025-01-09 15:26:42.09	3.25	5.93	
2025-01-09 15:26:42.30	3.22	5.92	
2025-01-09 15:26:42.50	3.19	5.92	
2025-01-09 15:26:42.71	3.16	5.91	
2025-01-09 15:26:42.91	3.12	5.90	
2025-01-09 15:26:43.12	3.09	5.90	
2025-01-09 15:26:43.32	3.06	5.89	
2025-01-09 15:26:43.53	3.03	5.88	
2025-01-09 15:26:43.74	2.99	5.88	
2025-01-09 15:26:43.94	2.96	5.87	
2025-01-09 15:26:44.14	2.93	5.86	
2025-01-09 15:26:44.35	2.90	5.86	
2025-01-09 15:26:44.56	2.86	5.85	
2025-01-09 15:26:44.76	2.83	5.84	
2025-01-09 15:26:44.98	2.80	5.84	
2025-01-09 15:26:45.18	2.76	5.83	
2025-01-09 15:26:45.39	2.73	5.82	
2025-01-09 15:26:45.59	2.70	5.82	
2025-01-09 15:26:45.80	2.67	5.81	
2025-01-09 15:26:46.02	2.63	5.80	
2025-01-09 15:26:46.22	2.60	5.80	
2025-01-09 15:26:46.43	2.57	5.79	
2025-01-09 15:26:46.63	2.53	5.78	
2025-01-09 15:26:46.84	2.50	5.78	
2025-01-09 15:26:47.04	2.47	5.77	
2025-01-09 15:26:47.25	2.44	5.76	
2025-01-09 15:26:47.45	2.41	5.76	
2025-01-09 15:26:47.66	2.37	5.75	
2025-01-09 15:26:47.87	2.34	5.74	
2025-01-09 15:26:48.07	2.31	5.73	
2025-01-09 15:26:48.28	2.28	5.73	
2025-01-09 15:26:48.48	2.24	5.72	
2025-01-09 15:26:48.69	2.21	5.71	
2025-01-09 15:26:48.89	2.18	5.71	
2025-01-09 15:26:49.10	2.15	5.70	
2025-01-09 15:26:49.31	2.11	5.69	
2025-01-09 15:26:49.51	2.08	5.69	
2025-01-09 15:26:49.72	2.05	5.68	
2025-01-09 15:26:49.92	2.02	5.67	
2025-01-09 15:26:50.13	1.99	5.67	
2025-01-09 15:26:50.33	1.95	5.66	
2025-01-09 15:26:50.54	1.92	5.65	
2025-01-09 15:26:50.74	1.89	5.65	
2025-01-09 15:26:50.95	1.86	5.64	
2025-01-09 15:26:51.15	1.83	5.63	
2025-01-09 15:26:51.37	1.79	5.62	
2025-01-09 15:26:51.57	1.76	5.62	
2025-01-09 15:26:51.78	1.73	5.61	
2025-01-09 15:26:51.98	1.70	5.60	
2025-01-09 15:26:52.19	1.66	5.60	
2025-01-09 15:26:52.40	1.63	5.59	
2025-01-09 15:26:52.60	1.60	5.58	
2025-01-09 15:26:52.81	1.57	5.58	
2025-01-09 15:26:53.01	1.54	5.57	
2025-01-09 15:26:53.22	1.50	5.56	
2025-01-09 15:26:53.42	1.47	5.55	
2025-01-09 15:26:53.63	1.44	5.55	
2025-01-09 15:26:53.83	1.41	5.54	
2025-01-09 15:26:54.04	1.38	5.53	
2025-01-09 15:26:54.24	1.35	5.53	
2025-01-09 15:26:54.45	1.31	5.52	
2025-01-09 15:26:54.65	1.28	5.51	
2025-01-09 15:26:54.86	1.25	5.51	
2025-01-09 15:26:55.06	1.22	5.50	
2025-01-09 15:26:55.27	1.19	5.49	
2025-01-09 15:26:55.48	1.16	5.48	
2025-01-09 15:26:55.68	1.12	5.48	
2025-01-09 15:26:55.88	1.09	5.47	
2025-01-09 15:26:56.09	1.06	5.46	
2025-01-09 15:26:56.29	1.03	5.46	
2025-01-09 15:26:56.50	1.00	5.45	
2025-01-09 15:26:56.72	0.96	5.44	
2025-01-09 15:26:56.92	0.93	5.43	
2025-01-09 15:26:57.14	0.90	5.43	
2025-01-09 15:26:57.34	0.87	5.42	
2025-01-09 15:26:57.55	0.84	5.41	
2025-01-09 15:26:57.77	0.80	5.41	
2025-01-09 15:26:57.97	0.77	5.40	
2025-01-09 15:26:58.18	0.74	5.39	
2025-01-09 15:26:58.38	0.71	5.38	
2025-01-09 15:26:58.59	0.68	5.38	
2025-01-09 15:26:58.79	0.65	5.37	
2025-01-09 15:26:59.00	0.62	5.36	
2025-01-09 15:26:59.20	0.58	5.36	
2025-01-09 15:26:59.41	0.55	5.35	
2025-01-09 15:26:59.62	0.52	5.34	
2025-01-09 15:26:59.83	0.49	5.33	
2025-01-09 15:27:00.04	0.46	5.33	
2025-01-09 15:27:00.24	0.43	5.32	
2025-01-09 15:27:00.45	0.39	5.31	
2025-01-09 15:27:00.65	0.36	5.31	
2025-01-09 15:27:00.86	0.33	5.30	
2025-01-09 15:27:01.06	0.30	5.29	
2025-01-09 15:27:01.27	0.27	5.28	
2025-01-09 15:27:01.48	0.24	5.28	
2025-01-09 15:27:01.68	0.21	5.27	
2025-01-09 15:27:01.88	0.18	5.26	
2025-01-09 15:27:02.09	0.15	5.25	
2025-01-09 15:27:02.29	0.11	5.25	
2025-01-09 15:27:02.50	0.08	5.24	
2025-01-09 15:27:02.71	0.05	5.23	
2025-01-09 15:27:02.91	0.02	5.23	
2025-01-09 15:27:03.12	359.99	5.22	
2025-01-09 15:27:03.32	359.96	5.21	
2025-01-09 15:27:03.53	359.93	5.20	
2025-01-09 15:27:03.73	359.90	5.20	
2025-01-09 15:27:03.94	359.87	5.19	
2025-01-09 15:27:04.16	359.83	5.18	
2025-01-09 15:27:04.36	359.80	5.17	
2025-01-09 15:27:04.57	359.77	5.17	
2025-01-09 15:27:04.77	359.74	5.16	
2025-01-09 15:27:04.98	359.71	5.15	
2025-01-09 15:27:05.18	359.68	5.15	
2025-01-09 15:27:05.39	359.65	5.14	
2025-01-09 15:27:05.59	359.62	5.13	
2025-01-09 15:27:05.80	359.59	5.12	
2025-01-09 15:27:06.00	359.56	5.12	
2025-01-09 15:27:06.21	359.52	5.11	
2025-01-09 15:27:06.41	359.49	5.10	
2025-01-09 15:27:06.62	359.46	5.09	
