passes_logs/2025/01/09/SPB_Silybum_02/SPB_Silybum_02__20250109_091728_AQUA_rec.log

#Pass ID: 20250109_091728_AQUA
#Satellite: AQUA
#Configuration: AQUA
#Start time: 2025-01-09 09:17:28

#Version: 2.0.20230423
#Station: SPB_Silybum_02
#Location: 30.233357 lon 59.946436 lat
#TLE: 1 27424U 02022A   25008.83930641  .00002008  00000+0  42243-3 0  9991
#TLE: 2 27424  98.3576 325.4481 0001488 117.9026 295.2820 14.60658995206721

#Time	Az	El	Level	Level2	SNR	BER	Gain	Gain2
2025-01-09 09:17:30.38	96.00	4.09	
2025-01-09 09:17:30.58	95.98	4.10	
2025-01-09 09:17:30.79	95.96	4.11	
2025-01-09 09:17:30.99	95.94	4.13	
2025-01-09 09:17:31.20	95.92	4.14	
2025-01-09 09:17:31.40	95.90	4.15	
2025-01-09 09:17:31.61	95.88	4.16	
2025-01-09 09:17:31.82	95.86	4.17	
2025-01-09 09:17:32.02	95.84	4.18	
2025-01-09 09:17:32.23	95.82	4.20	
2025-01-09 09:17:32.43	95.80	4.21	
2025-01-09 09:17:32.64	95.78	4.22	
2025-01-09 09:17:32.85	95.76	4.23	
2025-01-09 09:17:33.05	95.73	4.24	
2025-01-09 09:17:33.26	95.71	4.26	
2025-01-09 09:17:33.46	95.69	4.27	
2025-01-09 09:17:33.67	95.67	4.28	
2025-01-09 09:17:33.87	95.65	4.29	
2025-01-09 09:17:34.08	95.63	4.30	
2025-01-09 09:17:34.28	95.61	4.31	
2025-01-09 09:17:34.49	95.59	4.33	
2025-01-09 09:17:34.69	95.57	4.34	
2025-01-09 09:17:34.90	95.55	4.35	
2025-01-09 09:17:35.10	95.53	4.36	
2025-01-09 09:17:35.31	95.50	4.37	
2025-01-09 09:17:35.52	95.48	4.39	
2025-01-09 09:17:35.72	95.46	4.40	
2025-01-09 09:17:35.92	95.44	4.41	
2025-01-09 09:17:36.13	95.42	4.42	
2025-01-09 09:17:36.34	95.40	4.43	
2025-01-09 09:17:36.54	95.38	4.44	
2025-01-09 09:17:36.75	95.36	4.46	
2025-01-09 09:17:36.95	95.34	4.47	
2025-01-09 09:17:37.16	95.31	4.48	
2025-01-09 09:17:37.36	95.29	4.49	
2025-01-09 09:17:37.57	95.27	4.50	
2025-01-09 09:17:37.77	95.25	4.52	
2025-01-09 09:17:37.98	95.23	4.53	
2025-01-09 09:17:38.18	95.21	4.54	
2025-01-09 09:17:38.39	95.19	4.55	
2025-01-09 09:17:38.59	95.17	4.56	
2025-01-09 09:17:38.80	95.14	4.58	
2025-01-09 09:17:39.00	95.12	4.59	
2025-01-09 09:17:39.20	95.10	4.60	
2025-01-09 09:17:39.41	95.08	4.61	
2025-01-09 09:17:39.61	95.06	4.62	
2025-01-09 09:17:39.82	95.04	4.63	
2025-01-09 09:17:40.02	95.02	4.65	
2025-01-09 09:17:40.23	94.99	4.66	
2025-01-09 09:17:40.43	94.97	4.67	
2025-01-09 09:17:40.64	94.95	4.68	
2025-01-09 09:17:40.84	94.93	4.69	
2025-01-09 09:17:41.05	94.91	4.71	
2025-01-09 09:17:41.25	94.89	4.72	
2025-01-09 09:17:41.46	94.87	4.73	
2025-01-09 09:17:41.66	94.84	4.74	
2025-01-09 09:17:41.87	94.82	4.75	
2025-01-09 09:17:42.07	94.80	4.76	
2025-01-09 09:17:42.28	94.78	4.78	
2025-01-09 09:17:42.48	94.76	4.79	
2025-01-09 09:17:42.69	94.74	4.80	
2025-01-09 09:17:42.89	94.71	4.81	
2025-01-09 09:17:43.10	94.69	4.82	
2025-01-09 09:17:43.30	94.67	4.84	
2025-01-09 09:17:43.51	94.65	4.85	
2025-01-09 09:17:43.71	94.63	4.86	
2025-01-09 09:17:43.92	94.61	4.87	
2025-01-09 09:17:44.12	94.58	4.88	
2025-01-09 09:17:44.33	94.56	4.90	
2025-01-09 09:17:44.53	94.54	4.91	
2025-01-09 09:17:44.74	94.52	4.92	
2025-01-09 09:17:44.94	94.50	4.93	
2025-01-09 09:17:45.15	94.47	4.94	
2025-01-09 09:17:45.35	94.45	4.96	
2025-01-09 09:17:45.56	94.43	4.97	
2025-01-09 09:17:45.76	94.41	4.98	
2025-01-09 09:17:45.97	94.39	4.99	
2025-01-09 09:17:46.18	94.36	5.00	
2025-01-09 09:17:46.39	94.34	5.02	
2025-01-09 09:17:46.60	94.32	5.03	
2025-01-09 09:17:46.81	94.30	5.04	
2025-01-09 09:17:47.01	94.27	5.05	
2025-01-09 09:17:47.22	94.25	5.06	
2025-01-09 09:17:47.42	94.23	5.08	
2025-01-09 09:17:47.63	94.21	5.09	
2025-01-09 09:17:47.84	94.18	5.10	
2025-01-09 09:17:48.04	94.16	5.11	
2025-01-09 09:17:48.25	94.14	5.12	
2025-01-09 09:17:48.45	94.12	5.14	
2025-01-09 09:17:48.66	94.10	5.15	
2025-01-09 09:17:48.86	94.07	5.16	
2025-01-09 09:17:49.07	94.05	5.17	
2025-01-09 09:17:49.28	94.03	5.18	
2025-01-09 09:17:49.48	94.01	5.20	
2025-01-09 09:17:49.68	93.98	5.21	
2025-01-09 09:17:49.89	93.96	5.22	
2025-01-09 09:17:50.10	93.94	5.23	
2025-01-09 09:17:50.30	93.92	5.24	
2025-01-09 09:17:50.51	93.89	5.26	
2025-01-09 09:17:50.71	93.87	5.27	
2025-01-09 09:17:50.92	93.85	5.28	
2025-01-09 09:17:51.12	93.83	5.29	
2025-01-09 09:17:51.33	93.80	5.30	
2025-01-09 09:17:51.53	93.78	5.32	
2025-01-09 09:17:51.74	93.76	5.33	
2025-01-09 09:17:51.94	93.74	5.34	
2025-01-09 09:17:52.15	93.71	5.35	
2025-01-09 09:17:52.35	93.69	5.36	
2025-01-09 09:17:52.56	93.67	5.38	
2025-01-09 09:17:52.77	93.64	5.39	
2025-01-09 09:17:52.98	93.62	5.40	
2025-01-09 09:17:53.18	93.60	5.41	
2025-01-09 09:17:53.39	93.58	5.42	
2025-01-09 09:17:53.59	93.55	5.44	
2025-01-09 09:17:53.80	93.53	5.45	
2025-01-09 09:17:54.00	93.51	5.46	
2025-01-09 09:17:54.21	93.48	5.47	
2025-01-09 09:17:54.41	93.46	5.48	
2025-01-09 09:17:54.62	93.44	5.50	
2025-01-09 09:17:54.82	93.42	5.51	
2025-01-09 09:17:55.03	93.39	5.52	
2025-01-09 09:17:55.24	93.37	5.53	
2025-01-09 09:17:55.44	93.35	5.54	
2025-01-09 09:17:55.65	93.32	5.56	
2025-01-09 09:17:55.85	93.30	5.57	
2025-01-09 09:17:56.06	93.28	5.58	
2025-01-09 09:17:56.26	93.26	5.59	
2025-01-09 09:17:56.47	93.23	5.61	
2025-01-09 09:17:56.67	93.21	5.62	
2025-01-09 09:17:56.88	93.19	5.63	
2025-01-09 09:17:57.08	93.16	5.64	
2025-01-09 09:17:57.29	93.14	5.65	
2025-01-09 09:17:57.50	93.12	5.67	
2025-01-09 09:17:57.70	93.09	5.68	
2025-01-09 09:17:57.91	93.07	5.69	
2025-01-09 09:17:58.11	93.05	5.70	
2025-01-09 09:17:58.32	93.02	5.71	
2025-01-09 09:17:58.52	93.00	5.73	
2025-01-09 09:17:58.73	92.98	5.74	
2025-01-09 09:17:58.93	92.95	5.75	
2025-01-09 09:17:59.13	92.93	5.76	
2025-01-09 09:17:59.34	92.91	5.77	
2025-01-09 09:17:59.54	92.88	5.79	
2025-01-09 09:17:59.75	92.86	5.80	
2025-01-09 09:17:59.96	92.84	5.81	
2025-01-09 09:18:00.17	92.81	5.82	
2025-01-09 09:18:00.37	92.79	5.83	
2025-01-09 09:18:00.58	92.76	5.85	
2025-01-09 09:18:00.78	92.74	5.86	
2025-01-09 09:18:00.99	92.72	5.87	
2025-01-09 09:18:01.19	92.69	5.88	
2025-01-09 09:18:01.40	92.67	5.90	
2025-01-09 09:18:01.60	92.65	5.91	
2025-01-09 09:18:01.81	92.62	5.92	
2025-01-09 09:18:02.01	92.60	5.93	
2025-01-09 09:18:02.22	92.58	5.94	
2025-01-09 09:18:02.42	92.55	5.96	
2025-01-09 09:18:02.63	92.53	5.97	
2025-01-09 09:18:02.83	92.51	5.98	
2025-01-09 09:18:03.04	92.48	5.99	
2025-01-09 09:18:03.24	92.46	6.00	
2025-01-09 09:18:03.45	92.43	6.02	
2025-01-09 09:18:03.65	92.41	6.03	
2025-01-09 09:18:03.86	92.39	6.04	
2025-01-09 09:18:04.06	92.36	6.05	
2025-01-09 09:18:04.27	92.34	6.07	
2025-01-09 09:18:04.48	92.31	6.08	
2025-01-09 09:18:04.68	92.29	6.09	
2025-01-09 09:18:04.88	92.27	6.10	
2025-01-09 09:18:05.09	92.24	6.11	
2025-01-09 09:18:05.30	92.22	6.13	
2025-01-09 09:18:05.50	92.19	6.14	
2025-01-09 09:18:05.71	92.17	6.15	
2025-01-09 09:18:05.91	92.15	6.16	
2025-01-09 09:18:06.12	92.12	6.17	
2025-01-09 09:18:06.32	92.10	6.19	
2025-01-09 09:18:06.53	92.07	6.20	
2025-01-09 09:18:06.73	92.05	6.21	
2025-01-09 09:18:06.94	92.03	6.22	
2025-01-09 09:18:07.15	92.00	6.24	
2025-01-09 09:18:07.35	91.98	6.25	
2025-01-09 09:18:07.56	91.95	6.26	
2025-01-09 09:18:07.76	91.93	6.27	
2025-01-09 09:18:07.97	91.90	6.28	
2025-01-09 09:18:08.17	91.88	6.30	
2025-01-09 09:18:08.38	91.85	6.31	
2025-01-09 09:18:08.58	91.83	6.32	
2025-01-09 09:18:08.78	91.81	6.33	
2025-01-09 09:18:08.99	91.78	6.34	
2025-01-09 09:18:09.19	91.76	6.36	
2025-01-09 09:18:09.40	91.73	6.37	
2025-01-09 09:18:09.61	91.71	6.38	
2025-01-09 09:18:09.81	91.68	6.39	
2025-01-09 09:18:10.01	91.66	6.41	
2025-01-09 09:18:10.22	91.64	6.42	
2025-01-09 09:18:10.43	91.61	6.43	
2025-01-09 09:18:10.63	91.59	6.44	
2025-01-09 09:18:10.84	91.56	6.45	
2025-01-09 09:18:11.04	91.54	6.47	
2025-01-09 09:18:11.25	91.51	6.48	
2025-01-09 09:18:11.46	91.49	6.49	
2025-01-09 09:18:11.66	91.46	6.50	
2025-01-09 09:18:11.87	91.44	6.52	
2025-01-09 09:18:12.09	91.41	6.53	
2025-01-09 09:18:12.29	91.39	6.54	
2025-01-09 09:18:12.50	91.36	6.55	
2025-01-09 09:18:12.70	91.34	6.56	
2025-01-09 09:18:12.91	91.31	6.58	
2025-01-09 09:18:13.11	91.29	6.59	
2025-01-09 09:18:13.32	91.26	6.60	
2025-01-09 09:18:13.52	91.24	6.61	
2025-01-09 09:18:13.73	91.21	6.63	
2025-01-09 09:18:13.93	91.19	6.64	
2025-01-09 09:18:14.14	91.16	6.65	
2025-01-09 09:18:14.34	91.14	6.66	
2025-01-09 09:18:14.55	91.11	6.68	
2025-01-09 09:18:14.75	91.09	6.69	
2025-01-09 09:18:14.96	91.06	6.70	
2025-01-09 09:18:15.16	91.04	6.71	
2025-01-09 09:18:15.37	91.01	6.72	
2025-01-09 09:18:15.57	90.99	6.74	
2025-01-09 09:18:15.78	90.96	6.75	
2025-01-09 09:18:15.99	90.94	6.76	
2025-01-09 09:18:16.19	90.91	6.77	
2025-01-09 09:18:16.39	90.89	6.78	
2025-01-09 09:18:16.60	90.86	6.80	
2025-01-09 09:18:16.80	90.84	6.81	
2025-01-09 09:18:17.01	90.81	6.82	
2025-01-09 09:18:17.22	90.78	6.83	
2025-01-09 09:18:17.42	90.76	6.85	
2025-01-09 09:18:17.62	90.73	6.86	
2025-01-09 09:18:17.83	90.71	6.87	
2025-01-09 09:18:18.03	90.68	6.88	
2025-01-09 09:18:18.24	90.66	6.90	
2025-01-09 09:18:18.44	90.63	6.91	
2025-01-09 09:18:18.65	90.61	6.92	
2025-01-09 09:18:18.85	90.58	6.93	
2025-01-09 09:18:19.06	90.56	6.94	
2025-01-09 09:18:19.27	90.53	6.96	
2025-01-09 09:18:19.47	90.50	6.97	
2025-01-09 09:18:19.68	90.48	6.98	
2025-01-09 09:18:19.88	90.45	6.99	
2025-01-09 09:18:20.09	90.43	7.01	
2025-01-09 09:18:20.29	90.40	7.02	
2025-01-09 09:18:20.49	90.38	7.03	
2025-01-09 09:18:20.70	90.35	7.04	
2025-01-09 09:18:20.91	90.32	7.05	
2025-01-09 09:18:21.11	90.30	7.07	
2025-01-09 09:18:21.32	90.27	7.08	
2025-01-09 09:18:21.52	90.25	7.09	
2025-01-09 09:18:21.74	90.22	7.10	
2025-01-09 09:18:21.95	90.19	7.12	
2025-01-09 09:18:22.15	90.17	7.13	
2025-01-09 09:18:22.36	90.14	7.14	
2025-01-09 09:18:22.56	90.12	7.15	
2025-01-09 09:18:22.77	90.09	7.17	
2025-01-09 09:18:22.97	90.06	7.18	
2025-01-09 09:18:23.18	90.04	7.19	
2025-01-09 09:18:23.39	90.01	7.20	
2025-01-09 09:18:23.59	89.98	7.21	
2025-01-09 09:18:23.80	89.96	7.23	
2025-01-09 09:18:24.00	89.93	7.24	
2025-01-09 09:18:24.21	89.91	7.25	
2025-01-09 09:18:24.41	89.88	7.26	
2025-01-09 09:18:24.62	89.85	7.28	
2025-01-09 09:18:24.82	89.83	7.29	
2025-01-09 09:18:25.03	89.80	7.30	
2025-01-09 09:18:25.23	89.78	7.31	
2025-01-09 09:18:25.44	89.75	7.33	
2025-01-09 09:18:25.64	89.72	7.34	
2025-01-09 09:18:25.85	89.70	7.35	
2025-01-09 09:18:26.05	89.67	7.36	
2025-01-09 09:18:26.26	89.64	7.37	
2025-01-09 09:18:26.46	89.62	7.39	
2025-01-09 09:18:26.67	89.59	7.40	
2025-01-09 09:18:26.87	89.56	7.41	
2025-01-09 09:18:27.09	89.54	7.42	
2025-01-09 09:18:27.30	89.51	7.44	
2025-01-09 09:18:27.51	89.48	7.45	
2025-01-09 09:18:27.71	89.46	7.46	
2025-01-09 09:18:27.92	89.43	7.47	
2025-01-09 09:18:28.13	89.40	7.49	
2025-01-09 09:18:28.34	89.37	7.50	
2025-01-09 09:18:28.54	89.35	7.51	
2025-01-09 09:18:28.75	89.32	7.52	
2025-01-09 09:18:28.96	89.29	7.54	
2025-01-09 09:18:29.16	89.27	7.55	
2025-01-09 09:18:29.37	89.24	7.56	
2025-01-09 09:18:29.57	89.21	7.57	
2025-01-09 09:18:29.78	89.19	7.59	
2025-01-09 09:18:29.99	89.16	7.60	
2025-01-09 09:18:30.19	89.13	7.61	
2025-01-09 09:18:30.40	89.11	7.62	
2025-01-09 09:18:30.60	89.08	7.64	
2025-01-09 09:18:30.81	89.05	7.65	
2025-01-09 09:18:31.01	89.03	7.66	
2025-01-09 09:18:31.21	89.00	7.67	
2025-01-09 09:18:31.42	88.97	7.68	
2025-01-09 09:18:31.63	88.94	7.70	
2025-01-09 09:18:31.83	88.92	7.71	
2025-01-09 09:18:32.04	88.89	7.72	
2025-01-09 09:18:32.24	88.86	7.73	
2025-01-09 09:18:32.45	88.83	7.75	
2025-01-09 09:18:32.65	88.81	7.76	
2025-01-09 09:18:32.86	88.78	7.77	
2025-01-09 09:18:33.06	88.75	7.78	
2025-01-09 09:18:33.27	88.73	7.80	
2025-01-09 09:18:33.47	88.70	7.81	
2025-01-09 09:18:33.68	88.67	7.82	
2025-01-09 09:18:33.88	88.64	7.83	
2025-01-09 09:18:34.09	88.62	7.84	
2025-01-09 09:18:34.29	88.59	7.86	
2025-01-09 09:18:34.51	88.56	7.87	
2025-01-09 09:18:34.72	88.53	7.88	
2025-01-09 09:18:34.92	88.51	7.89	
2025-01-09 09:18:35.13	88.48	7.91	
2025-01-09 09:18:35.34	88.45	7.92	
2025-01-09 09:18:35.54	88.42	7.93	
2025-01-09 09:18:35.75	88.39	7.94	
2025-01-09 09:18:35.95	88.37	7.96	
2025-01-09 09:18:36.16	88.34	7.97	
2025-01-09 09:18:36.37	88.31	7.98	
2025-01-09 09:18:36.59	88.28	8.00	
2025-01-09 09:18:36.79	88.25	8.01	
2025-01-09 09:18:37.00	88.23	8.02	
2025-01-09 09:18:37.20	88.20	8.03	
2025-01-09 09:18:37.41	88.17	8.04	
2025-01-09 09:18:37.61	88.14	8.06	
2025-01-09 09:18:37.82	88.12	8.07	
2025-01-09 09:18:38.02	88.09	8.08	
2025-01-09 09:18:38.23	88.06	8.09	
2025-01-09 09:18:38.44	88.03	8.11	
2025-01-09 09:18:38.64	88.00	8.12	
2025-01-09 09:18:38.84	87.98	8.13	
2025-01-09 09:18:39.05	87.95	8.14	
2025-01-09 09:18:39.25	87.92	8.16	
2025-01-09 09:18:39.46	87.89	8.17	
2025-01-09 09:18:39.66	87.86	8.18	
2025-01-09 09:18:39.87	87.84	8.19	
2025-01-09 09:18:40.07	87.81	8.20	
2025-01-09 09:18:40.28	87.78	8.22	
2025-01-09 09:18:40.48	87.75	8.23	
2025-01-09 09:18:40.69	87.72	8.24	
2025-01-09 09:18:40.89	87.70	8.25	
2025-01-09 09:18:41.10	87.67	8.27	
2025-01-09 09:18:41.30	87.64	8.28	
2025-01-09 09:18:41.51	87.61	8.29	
2025-01-09 09:18:41.71	87.58	8.30	
2025-01-09 09:18:41.92	87.55	8.32	
2025-01-09 09:18:42.12	87.53	8.33	
2025-01-09 09:18:42.33	87.50	8.34	
2025-01-09 09:18:42.53	87.47	8.35	
2025-01-09 09:18:42.74	87.44	8.37	
2025-01-09 09:18:42.94	87.41	8.38	
2025-01-09 09:18:43.15	87.38	8.39	
2025-01-09 09:18:43.35	87.36	8.40	
2025-01-09 09:18:43.56	87.33	8.41	
2025-01-09 09:18:43.76	87.30	8.43	
2025-01-09 09:18:43.97	87.27	8.44	
2025-01-09 09:18:44.17	87.24	8.45	
2025-01-09 09:18:44.38	87.21	8.46	
2025-01-09 09:18:44.58	87.18	8.48	
2025-01-09 09:18:44.79	87.15	8.49	
2025-01-09 09:18:44.99	87.13	8.50	
2025-01-09 09:18:45.20	87.10	8.51	
2025-01-09 09:18:45.40	87.07	8.53	
2025-01-09 09:18:45.61	87.04	8.54	
2025-01-09 09:18:45.81	87.01	8.55	
2025-01-09 09:18:46.02	86.98	8.56	
2025-01-09 09:18:46.24	86.95	8.58	
2025-01-09 09:18:46.44	86.92	8.59	
2025-01-09 09:18:46.65	86.89	8.60	
2025-01-09 09:18:46.85	86.86	8.61	
2025-01-09 09:18:47.06	86.83	8.63	
2025-01-09 09:18:47.26	86.81	8.64	
2025-01-09 09:18:47.47	86.78	8.65	
2025-01-09 09:18:47.68	86.75	8.66	
2025-01-09 09:18:47.88	86.72	8.68	
2025-01-09 09:18:48.08	86.69	8.69	
2025-01-09 09:18:48.29	86.66	8.70	
2025-01-09 09:18:48.49	86.63	8.71	
2025-01-09 09:18:48.70	86.60	8.72	
2025-01-09 09:18:48.91	86.57	8.74	
2025-01-09 09:18:49.11	86.54	8.75	
2025-01-09 09:18:49.32	86.51	8.76	
2025-01-09 09:18:49.52	86.48	8.77	
2025-01-09 09:18:49.73	86.45	8.79	
2025-01-09 09:18:49.93	86.43	8.80	
2025-01-09 09:18:50.14	86.40	8.81	
2025-01-09 09:18:50.35	86.37	8.82	
2025-01-09 09:18:50.55	86.34	8.84	
2025-01-09 09:18:50.75	86.31	8.85	
2025-01-09 09:18:50.96	86.28	8.86	
2025-01-09 09:18:51.17	86.25	8.87	
2025-01-09 09:18:51.37	86.22	8.89	
2025-01-09 09:18:51.58	86.19	8.90	
2025-01-09 09:18:51.78	86.16	8.91	
2025-01-09 09:18:51.99	86.13	8.92	
2025-01-09 09:18:52.19	86.10	8.94	
2025-01-09 09:18:52.40	86.07	8.95	
2025-01-09 09:18:52.60	86.04	8.96	
2025-01-09 09:18:52.81	86.01	8.97	
2025-01-09 09:18:53.01	85.98	8.98	
2025-01-09 09:18:53.22	85.95	9.00	
2025-01-09 09:18:53.43	85.92	9.01	
2025-01-09 09:18:53.63	85.89	9.02	
2025-01-09 09:18:53.84	85.86	9.03	
2025-01-09 09:18:54.04	85.83	9.05	
2025-01-09 09:18:54.25	85.80	9.06	
2025-01-09 09:18:54.46	85.77	9.07	
2025-01-09 09:18:54.66	85.74	9.08	
2025-01-09 09:18:54.86	85.71	9.10	
2025-01-09 09:18:55.07	85.68	9.11	
2025-01-09 09:18:55.27	85.65	9.12	
2025-01-09 09:18:55.48	85.62	9.13	
2025-01-09 09:18:55.68	85.59	9.15	
2025-01-09 09:18:55.89	85.56	9.16	
2025-01-09 09:18:56.09	85.53	9.17	
2025-01-09 09:18:56.30	85.50	9.18	
2025-01-09 09:18:56.50	85.47	9.19	
2025-01-09 09:18:56.71	85.44	9.21	
2025-01-09 09:18:56.91	85.41	9.22	
2025-01-09 09:18:57.12	85.38	9.23	
2025-01-09 09:18:57.32	85.35	9.24	
2025-01-09 09:18:57.53	85.32	9.26	
2025-01-09 09:18:57.73	85.29	9.27	
2025-01-09 09:18:57.94	85.26	9.28	
2025-01-09 09:18:58.14	85.23	9.29	
2025-01-09 09:18:58.35	85.20	9.31	
2025-01-09 09:18:58.56	85.16	9.32	
2025-01-09 09:18:58.76	85.13	9.33	
2025-01-09 09:18:58.96	85.10	9.34	
2025-01-09 09:18:59.17	85.07	9.36	
2025-01-09 09:18:59.38	85.04	9.37	
2025-01-09 09:18:59.58	85.01	9.38	
2025-01-09 09:18:59.79	84.98	9.39	
2025-01-09 09:18:59.99	84.95	9.41	
2025-01-09 09:19:00.20	84.92	9.42	
2025-01-09 09:19:00.40	84.89	9.43	
2025-01-09 09:19:00.61	84.86	9.44	
2025-01-09 09:19:00.81	84.83	9.45	
2025-01-09 09:19:01.02	84.80	9.47	
2025-01-09 09:19:01.22	84.76	9.48	
2025-01-09 09:19:01.43	84.73	9.49	
2025-01-09 09:19:01.63	84.70	9.50	
2025-01-09 09:19:01.84	84.67	9.52	
2025-01-09 09:19:02.04	84.64	9.53	
2025-01-09 09:19:02.25	84.61	9.54	
2025-01-09 09:19:02.45	84.58	9.55	
2025-01-09 09:19:02.66	84.55	9.57	
2025-01-09 09:19:02.87	84.51	9.58	
2025-01-09 09:19:03.07	84.48	9.59	
2025-01-09 09:19:03.28	84.45	9.60	
2025-01-09 09:19:03.48	84.42	9.62	
2025-01-09 09:19:03.69	84.39	9.63	
2025-01-09 09:19:03.89	84.36	9.64	
2025-01-09 09:19:04.10	84.33	9.65	
2025-01-09 09:19:04.30	84.30	9.66	
2025-01-09 09:19:04.51	84.26	9.68	
2025-01-09 09:19:04.71	84.23	9.69	
2025-01-09 09:19:04.92	84.20	9.70	
2025-01-09 09:19:05.12	84.17	9.71	
2025-01-09 09:19:05.33	84.14	9.73	
2025-01-09 09:19:05.53	84.11	9.74	
2025-01-09 09:19:05.74	84.08	9.75	
2025-01-09 09:19:05.95	84.04	9.76	
2025-01-09 09:19:06.15	84.01	9.78	
2025-01-09 09:19:06.35	83.98	9.79	
2025-01-09 09:19:06.56	83.95	9.80	
2025-01-09 09:19:06.76	83.92	9.81	
2025-01-09 09:19:06.97	83.89	9.82	
2025-01-09 09:19:07.18	83.85	9.84	
2025-01-09 09:19:07.38	83.82	9.85	
2025-01-09 09:19:07.59	83.79	9.86	
2025-01-09 09:19:07.79	83.76	9.87	
2025-01-09 09:19:08.00	83.73	9.89	
2025-01-09 09:19:08.20	83.69	9.90	
2025-01-09 09:19:08.41	83.66	9.91	
2025-01-09 09:19:08.61	83.63	9.92	
2025-01-09 09:19:08.82	83.60	9.94	
2025-01-09 09:19:09.02	83.57	9.95	
2025-01-09 09:19:09.23	83.53	9.96	
2025-01-09 09:19:09.43	83.50	9.97	
2025-01-09 09:19:09.64	83.47	9.99	
2025-01-09 09:19:09.84	83.44	10.00	
2025-01-09 09:19:10.05	83.41	10.01	
2025-01-09 09:19:10.25	83.37	10.02	
2025-01-09 09:19:10.46	83.34	10.03	
2025-01-09 09:19:10.66	83.31	10.05	
2025-01-09 09:19:10.88	83.28	10.06	
2025-01-09 09:19:11.09	83.24	10.07	
2025-01-09 09:19:11.29	83.21	10.08	
2025-01-09 09:19:11.50	83.18	10.10	
2025-01-09 09:19:11.71	83.14	10.11	
2025-01-09 09:19:11.91	83.11	10.12	
2025-01-09 09:19:12.12	83.08	10.13	
2025-01-09 09:19:12.32	83.05	10.15	
2025-01-09 09:19:12.53	83.01	10.16	
2025-01-09 09:19:12.73	82.98	10.17	
2025-01-09 09:19:12.94	82.95	10.18	
2025-01-09 09:19:13.14	82.92	10.19	
2025-01-09 09:19:13.35	82.88	10.21	
2025-01-09 09:19:13.55	82.85	10.22	
2025-01-09 09:19:13.76	82.82	10.23	
2025-01-09 09:19:13.96	82.79	10.24	
2025-01-09 09:19:14.17	82.75	10.26	
2025-01-09 09:19:14.37	82.72	10.27	
2025-01-09 09:19:14.58	82.69	10.28	
2025-01-09 09:19:14.78	82.66	10.29	
2025-01-09 09:19:14.99	82.62	10.31	
2025-01-09 09:19:15.19	82.59	10.32	
2025-01-09 09:19:15.40	82.56	10.33	
2025-01-09 09:19:15.60	82.52	10.34	
2025-01-09 09:19:15.81	82.49	10.35	
2025-01-09 09:19:16.01	82.46	10.37	
2025-01-09 09:19:16.22	82.42	10.38	
2025-01-09 09:19:16.42	82.39	10.39	
2025-01-09 09:19:16.63	82.36	10.40	
2025-01-09 09:19:16.83	82.32	10.42	
2025-01-09 09:19:17.04	82.29	10.43	
2025-01-09 09:19:17.26	82.26	10.44	
2025-01-09 09:19:17.46	82.22	10.45	
2025-01-09 09:19:17.67	82.19	10.47	
2025-01-09 09:19:17.88	82.15	10.48	
2025-01-09 09:19:18.08	82.12	10.49	
2025-01-09 09:19:18.29	82.09	10.50	
2025-01-09 09:19:18.49	82.06	10.51	
2025-01-09 09:19:18.70	82.02	10.53	
2025-01-09 09:19:18.90	81.99	10.54	
2025-01-09 09:19:19.11	81.95	10.55	
2025-01-09 09:19:19.31	81.92	10.56	
2025-01-09 09:19:19.52	81.89	10.58	
2025-01-09 09:19:19.72	81.85	10.59	
2025-01-09 09:19:19.93	81.82	10.60	
2025-01-09 09:19:20.14	81.79	10.61	
2025-01-09 09:19:20.34	81.75	10.62	
2025-01-09 09:19:20.56	81.72	10.64	
2025-01-09 09:19:20.76	81.68	10.65	
2025-01-09 09:19:20.97	81.65	10.66	
2025-01-09 09:19:21.17	81.62	10.67	
2025-01-09 09:19:21.38	81.58	10.69	
2025-01-09 09:19:21.58	81.55	10.70	
2025-01-09 09:19:21.79	81.51	10.71	
2025-01-09 09:19:21.99	81.48	10.72	
2025-01-09 09:19:22.20	81.45	10.74	
2025-01-09 09:19:22.40	81.41	10.75	
2025-01-09 09:19:22.61	81.38	10.76	
2025-01-09 09:19:22.81	81.34	10.77	
2025-01-09 09:19:23.02	81.31	10.78	
2025-01-09 09:19:23.22	81.28	10.80	
2025-01-09 09:19:23.43	81.24	10.81	
2025-01-09 09:19:23.63	81.21	10.82	
2025-01-09 09:19:23.83	81.17	10.83	
2025-01-09 09:19:24.04	81.14	10.84	
2025-01-09 09:19:24.24	81.11	10.86	
2025-01-09 09:19:24.45	81.07	10.87	
2025-01-09 09:19:24.65	81.04	10.88	
2025-01-09 09:19:24.86	81.00	10.89	
2025-01-09 09:19:25.06	80.97	10.90	
2025-01-09 09:19:25.27	80.93	10.92	
2025-01-09 09:19:25.47	80.90	10.93	
2025-01-09 09:19:25.68	80.86	10.94	
2025-01-09 09:19:25.88	80.83	10.95	
2025-01-09 09:19:26.08	80.80	10.96	
2025-01-09 09:19:26.29	80.76	10.98	
2025-01-09 09:19:26.50	80.73	10.99	
2025-01-09 09:19:26.70	80.69	11.00	
2025-01-09 09:19:26.90	80.66	11.01	
2025-01-09 09:19:27.11	80.62	11.03	
2025-01-09 09:19:27.31	80.59	11.04	
2025-01-09 09:19:27.52	80.55	11.05	
2025-01-09 09:19:27.73	80.52	11.06	
2025-01-09 09:19:27.93	80.48	11.07	
2025-01-09 09:19:28.14	80.45	11.09	
2025-01-09 09:19:28.34	80.41	11.10	
2025-01-09 09:19:28.55	80.38	11.11	
2025-01-09 09:19:28.75	80.34	11.12	
2025-01-09 09:19:28.96	80.31	11.14	
2025-01-09 09:19:29.16	80.27	11.15	
2025-01-09 09:19:29.37	80.24	11.16	
2025-01-09 09:19:29.58	80.20	11.17	
2025-01-09 09:19:29.78	80.17	11.18	
2025-01-09 09:19:29.99	80.13	11.20	
2025-01-09 09:19:30.19	80.10	11.21	
2025-01-09 09:19:30.40	80.06	11.22	
2025-01-09 09:19:30.60	80.03	11.23	
2025-01-09 09:19:30.81	79.99	11.24	
2025-01-09 09:19:31.02	79.96	11.26	
2025-01-09 09:19:31.22	79.92	11.27	
2025-01-09 09:19:31.42	79.89	11.28	
2025-01-09 09:19:31.63	79.85	11.29	
2025-01-09 09:19:31.83	79.82	11.30	
2025-01-09 09:19:32.04	79.78	11.32	
2025-01-09 09:19:32.24	79.74	11.33	
2025-01-09 09:19:32.45	79.71	11.34	
2025-01-09 09:19:32.65	79.67	11.35	
2025-01-09 09:19:32.86	79.64	11.36	
2025-01-09 09:19:33.06	79.60	11.38	
2025-01-09 09:19:33.28	79.56	11.39	
2025-01-09 09:19:33.49	79.53	11.40	
2025-01-09 09:19:33.69	79.49	11.41	
2025-01-09 09:19:33.90	79.46	11.43	
2025-01-09 09:19:34.10	79.42	11.44	
2025-01-09 09:19:34.30	79.39	11.45	
2025-01-09 09:19:34.51	79.35	11.46	
2025-01-09 09:19:34.72	79.31	11.47	
2025-01-09 09:19:34.92	79.28	11.48	
2025-01-09 09:19:35.13	79.24	11.50	
2025-01-09 09:19:35.33	79.21	11.51	
2025-01-09 09:19:35.54	79.17	11.52	
2025-01-09 09:19:35.74	79.13	11.53	
2025-01-09 09:19:35.95	79.10	11.54	
2025-01-09 09:19:36.15	79.06	11.56	
2025-01-09 09:19:36.36	79.02	11.57	
2025-01-09 09:19:36.58	78.99	11.58	
2025-01-09 09:19:36.78	78.95	11.59	
2025-01-09 09:19:36.99	78.91	11.61	
2025-01-09 09:19:37.19	78.88	11.62	
2025-01-09 09:19:37.40	78.84	11.63	
2025-01-09 09:19:37.60	78.81	11.64	
2025-01-09 09:19:37.81	78.77	11.65	
2025-01-09 09:19:38.02	78.73	11.67	
2025-01-09 09:19:38.22	78.70	11.68	
2025-01-09 09:19:38.43	78.66	11.69	
2025-01-09 09:19:38.63	78.62	11.70	
2025-01-09 09:19:38.84	78.58	11.71	
2025-01-09 09:19:39.04	78.55	11.72	
2025-01-09 09:19:39.25	78.51	11.74	
2025-01-09 09:19:39.45	78.48	11.75	
2025-01-09 09:19:39.65	78.44	11.76	
2025-01-09 09:19:39.86	78.40	11.77	
2025-01-09 09:19:40.07	78.37	11.78	
2025-01-09 09:19:40.27	78.33	11.80	
2025-01-09 09:19:40.48	78.29	11.81	
2025-01-09 09:19:40.68	78.26	11.82	
2025-01-09 09:19:40.88	78.22	11.83	
2025-01-09 09:19:41.09	78.18	11.84	
2025-01-09 09:19:41.29	78.15	11.85	
2025-01-09 09:19:41.50	78.11	11.87	
2025-01-09 09:19:41.70	78.07	11.88	
2025-01-09 09:19:41.91	78.03	11.89	
2025-01-09 09:19:42.11	78.00	11.90	
2025-01-09 09:19:42.32	77.96	11.91	
2025-01-09 09:19:42.52	77.92	11.93	
2025-01-09 09:19:42.73	77.89	11.94	
2025-01-09 09:19:42.93	77.85	11.95	
2025-01-09 09:19:43.14	77.81	11.96	
2025-01-09 09:19:43.34	77.78	11.97	
2025-01-09 09:19:43.55	77.74	11.99	
2025-01-09 09:19:43.76	77.70	12.00	
2025-01-09 09:19:43.97	77.66	12.01	
2025-01-09 09:19:44.18	77.62	12.02	
2025-01-09 09:19:44.38	77.59	12.03	
2025-01-09 09:19:44.59	77.55	12.04	
2025-01-09 09:19:44.80	77.51	12.06	
2025-01-09 09:19:45.00	77.47	12.07	
2025-01-09 09:19:45.21	77.43	12.08	
2025-01-09 09:19:45.41	77.40	12.09	
2025-01-09 09:19:45.62	77.36	12.10	
2025-01-09 09:19:45.82	77.32	12.12	
2025-01-09 09:19:46.03	77.28	12.13	
2025-01-09 09:19:46.23	77.25	12.14	
2025-01-09 09:19:46.44	77.21	12.15	
2025-01-09 09:19:46.64	77.17	12.16	
2025-01-09 09:19:46.85	77.13	12.17	
2025-01-09 09:19:47.05	77.10	12.19	
2025-01-09 09:19:47.26	77.06	12.20	
2025-01-09 09:19:47.47	77.02	12.21	
2025-01-09 09:19:47.67	76.98	12.22	
2025-01-09 09:19:47.88	76.94	12.23	
2025-01-09 09:19:48.08	76.91	12.24	
2025-01-09 09:19:48.28	76.87	12.26	
2025-01-09 09:19:48.49	76.83	12.27	
2025-01-09 09:19:48.70	76.79	12.28	
2025-01-09 09:19:48.90	76.75	12.29	
2025-01-09 09:19:49.11	76.71	12.30	
2025-01-09 09:19:49.31	76.68	12.31	
2025-01-09 09:19:49.52	76.64	12.33	
2025-01-09 09:19:49.72	76.60	12.34	
2025-01-09 09:19:49.93	76.56	12.35	
2025-01-09 09:19:50.14	76.52	12.36	
2025-01-09 09:19:50.34	76.49	12.37	
2025-01-09 09:19:50.54	76.45	12.38	
2025-01-09 09:19:50.75	76.41	12.40	
2025-01-09 09:19:50.95	76.37	12.41	
2025-01-09 09:19:51.16	76.33	12.42	
2025-01-09 09:19:51.36	76.29	12.43	
2025-01-09 09:19:51.57	76.25	12.44	
2025-01-09 09:19:51.78	76.21	12.45	
2025-01-09 09:19:51.98	76.18	12.47	
2025-01-09 09:19:52.19	76.14	12.48	
2025-01-09 09:19:52.39	76.10	12.49	
2025-01-09 09:19:52.60	76.06	12.50	
2025-01-09 09:19:52.80	76.02	12.51	
2025-01-09 09:19:53.01	75.98	12.52	
2025-01-09 09:19:53.21	75.94	12.53	
2025-01-09 09:19:53.42	75.91	12.55	
2025-01-09 09:19:53.62	75.87	12.56	
2025-01-09 09:19:53.83	75.83	12.57	
2025-01-09 09:19:54.03	75.79	12.58	
2025-01-09 09:19:54.24	75.75	12.59	
2025-01-09 09:19:54.45	75.71	12.60	
2025-01-09 09:19:54.65	75.67	12.62	
2025-01-09 09:19:54.85	75.63	12.63	
2025-01-09 09:19:55.06	75.59	12.64	
2025-01-09 09:19:55.27	75.55	12.65	
2025-01-09 09:19:55.47	75.52	12.66	
2025-01-09 09:19:55.68	75.48	12.67	
2025-01-09 09:19:55.88	75.44	12.68	
2025-01-09 09:19:56.09	75.40	12.70	
2025-01-09 09:19:56.29	75.36	12.71	
2025-01-09 09:19:56.50	75.32	12.72	
2025-01-09 09:19:56.70	75.28	12.73	
2025-01-09 09:19:56.91	75.24	12.74	
2025-01-09 09:19:57.11	75.20	12.75	
2025-01-09 09:19:57.32	75.16	12.76	
2025-01-09 09:19:57.52	75.12	12.78	
2025-01-09 09:19:57.72	75.08	12.79	
2025-01-09 09:19:57.93	75.04	12.80	
2025-01-09 09:19:58.14	75.00	12.81	
2025-01-09 09:19:58.34	74.96	12.82	
2025-01-09 09:19:58.54	74.92	12.83	
2025-01-09 09:19:58.75	74.88	12.84	
2025-01-09 09:19:58.95	74.85	12.86	
2025-01-09 09:19:59.16	74.80	12.87	
2025-01-09 09:19:59.37	74.76	12.88	
2025-01-09 09:19:59.57	74.73	12.89	
2025-01-09 09:19:59.79	74.68	12.90	
2025-01-09 09:20:00.00	74.64	12.91	
2025-01-09 09:20:00.21	74.60	12.92	
2025-01-09 09:20:00.41	74.56	12.94	
2025-01-09 09:20:00.62	74.52	12.95	
2025-01-09 09:20:00.82	74.48	12.96	
2025-01-09 09:20:01.03	74.44	12.97	
2025-01-09 09:20:01.23	74.40	12.98	
2025-01-09 09:20:01.44	74.36	12.99	
2025-01-09 09:20:01.64	74.32	13.00	
2025-01-09 09:20:01.85	74.28	13.02	
2025-01-09 09:20:02.05	74.24	13.03	
2025-01-09 09:20:02.26	74.20	13.04	
2025-01-09 09:20:02.46	74.16	13.05	
2025-01-09 09:20:02.67	74.12	13.06	
2025-01-09 09:20:02.87	74.08	13.07	
2025-01-09 09:20:03.08	74.04	13.08	
2025-01-09 09:20:03.28	74.00	13.09	
2025-01-09 09:20:03.49	73.96	13.10	
2025-01-09 09:20:03.69	73.92	13.12	
2025-01-09 09:20:03.90	73.88	13.13	
2025-01-09 09:20:04.10	73.84	13.14	
2025-01-09 09:20:04.31	73.80	13.15	
2025-01-09 09:20:04.51	73.76	13.16	
2025-01-09 09:20:04.72	73.71	13.17	
2025-01-09 09:20:04.92	73.67	13.18	
2025-01-09 09:20:05.13	73.63	13.19	
2025-01-09 09:20:05.33	73.59	13.20	
2025-01-09 09:20:05.54	73.55	13.22	
2025-01-09 09:20:05.75	73.51	13.23	
2025-01-09 09:20:05.95	73.47	13.24	
2025-01-09 09:20:06.16	73.43	13.25	
2025-01-09 09:20:06.36	73.39	13.26	
2025-01-09 09:20:06.57	73.35	13.27	
2025-01-09 09:20:06.77	73.31	13.28	
2025-01-09 09:20:06.98	73.26	13.29	
2025-01-09 09:20:07.18	73.22	13.30	
2025-01-09 09:20:07.39	73.18	13.32	
2025-01-09 09:20:07.59	73.14	13.33	
2025-01-09 09:20:07.80	73.10	13.34	
2025-01-09 09:20:08.00	73.06	13.35	
2025-01-09 09:20:08.21	73.02	13.36	
2025-01-09 09:20:08.41	72.98	13.37	
2025-01-09 09:20:08.62	72.93	13.38	
2025-01-09 09:20:08.82	72.89	13.39	
2025-01-09 09:20:09.03	72.85	13.40	
2025-01-09 09:20:09.23	72.81	13.41	
2025-01-09 09:20:09.44	72.77	13.43	
2025-01-09 09:20:09.64	72.73	13.44	
2025-01-09 09:20:09.85	72.69	13.45	
2025-01-09 09:20:10.05	72.65	13.46	
2025-01-09 09:20:10.26	72.60	13.47	
2025-01-09 09:20:10.47	72.56	13.48	
2025-01-09 09:20:10.67	72.52	13.49	
2025-01-09 09:20:10.87	72.48	13.50	
2025-01-09 09:20:11.08	72.44	13.51	
2025-01-09 09:20:11.28	72.40	13.52	
2025-01-09 09:20:11.49	72.35	13.54	
2025-01-09 09:20:11.69	72.31	13.55	
2025-01-09 09:20:11.90	72.27	13.56	
2025-01-09 09:20:12.10	72.23	13.57	
2025-01-09 09:20:12.31	72.19	13.58	
2025-01-09 09:20:12.52	72.14	13.59	
2025-01-09 09:20:12.72	72.10	13.60	
2025-01-09 09:20:12.92	72.06	13.61	
2025-01-09 09:20:13.13	72.02	13.62	
2025-01-09 09:20:13.34	71.98	13.63	
2025-01-09 09:20:13.54	71.93	13.64	
2025-01-09 09:20:13.75	71.89	13.65	
2025-01-09 09:20:13.95	71.85	13.66	
2025-01-09 09:20:14.16	71.81	13.68	
2025-01-09 09:20:14.36	71.77	13.69	
2025-01-09 09:20:14.57	71.72	13.70	
2025-01-09 09:20:14.77	71.68	13.71	
2025-01-09 09:20:14.98	71.64	13.72	
2025-01-09 09:20:15.18	71.60	13.73	
2025-01-09 09:20:15.38	71.56	13.74	
2025-01-09 09:20:15.59	71.51	13.75	
2025-01-09 09:20:15.80	71.47	13.76	
2025-01-09 09:20:16.00	71.43	13.77	
2025-01-09 09:20:16.21	71.38	13.78	
2025-01-09 09:20:16.41	71.34	13.79	
2025-01-09 09:20:16.62	71.30	13.80	
2025-01-09 09:20:16.82	71.26	13.81	
2025-01-09 09:20:17.03	71.21	13.83	
2025-01-09 09:20:17.23	71.17	13.84	
2025-01-09 09:20:17.44	71.13	13.85	
2025-01-09 09:20:17.64	71.09	13.86	
2025-01-09 09:20:17.85	71.04	13.87	
2025-01-09 09:20:18.06	71.00	13.88	
2025-01-09 09:20:18.26	70.96	13.89	
2025-01-09 09:20:18.47	70.91	13.90	
2025-01-09 09:20:18.67	70.87	13.91	
2025-01-09 09:20:18.88	70.83	13.92	
2025-01-09 09:20:19.08	70.79	13.93	
2025-01-09 09:20:19.30	70.74	13.94	
2025-01-09 09:20:19.51	70.70	13.95	
2025-01-09 09:20:19.71	70.65	13.96	
2025-01-09 09:20:19.92	70.61	13.97	
2025-01-09 09:20:20.12	70.57	13.98	
2025-01-09 09:20:20.33	70.52	13.99	
2025-01-09 09:20:20.53	70.48	14.00	
2025-01-09 09:20:20.74	70.44	14.02	
2025-01-09 09:20:20.94	70.39	14.03	
2025-01-09 09:20:21.15	70.35	14.04	
2025-01-09 09:20:21.35	70.31	14.05	
2025-01-09 09:20:21.55	70.27	14.06	
2025-01-09 09:20:21.76	70.22	14.07	
2025-01-09 09:20:21.97	70.18	14.08	
2025-01-09 09:20:22.17	70.13	14.09	
2025-01-09 09:20:22.38	70.09	14.10	
2025-01-09 09:20:22.58	70.05	14.11	
2025-01-09 09:20:22.79	70.00	14.12	
2025-01-09 09:20:22.99	69.96	14.13	
2025-01-09 09:20:23.20	69.92	14.14	
2025-01-09 09:20:23.40	69.87	14.15	
2025-01-09 09:20:23.60	69.83	14.16	
2025-01-09 09:20:23.81	69.79	14.17	
2025-01-09 09:20:24.02	69.74	14.18	
2025-01-09 09:20:24.22	69.70	14.19	
2025-01-09 09:20:24.43	69.65	14.20	
2025-01-09 09:20:24.63	69.61	14.21	
2025-01-09 09:20:24.84	69.57	14.22	
2025-01-09 09:20:25.04	69.52	14.23	
2025-01-09 09:20:25.25	69.48	14.24	
2025-01-09 09:20:25.45	69.44	14.25	
2025-01-09 09:20:25.66	69.39	14.26	
2025-01-09 09:20:25.86	69.35	14.27	
2025-01-09 09:20:26.07	69.30	14.28	
2025-01-09 09:20:26.27	69.26	14.29	
2025-01-09 09:20:26.48	69.21	14.30	
2025-01-09 09:20:26.68	69.17	14.31	
2025-01-09 09:20:26.89	69.13	14.32	
2025-01-09 09:20:27.09	69.08	14.33	
2025-01-09 09:20:27.30	69.04	14.34	
2025-01-09 09:20:27.51	68.99	14.35	
2025-01-09 09:20:27.71	68.95	14.36	
2025-01-09 09:20:27.91	68.91	14.37	
2025-01-09 09:20:28.12	68.86	14.38	
2025-01-09 09:20:28.33	68.81	14.39	
2025-01-09 09:20:28.53	68.77	14.40	
2025-01-09 09:20:28.74	68.73	14.41	
2025-01-09 09:20:28.94	68.68	14.42	
2025-01-09 09:20:29.15	68.64	14.43	
2025-01-09 09:20:29.35	68.59	14.44	
2025-01-09 09:20:29.56	68.55	14.45	
2025-01-09 09:20:29.76	68.50	14.46	
2025-01-09 09:20:29.97	68.46	14.47	
2025-01-09 09:20:30.17	68.41	14.48	
2025-01-09 09:20:30.38	68.37	14.49	
2025-01-09 09:20:30.58	68.32	14.50	
2025-01-09 09:20:30.79	68.28	14.51	
2025-01-09 09:20:31.01	68.23	14.52	
2025-01-09 09:20:31.21	68.19	14.53	
2025-01-09 09:20:31.43	68.14	14.54	
2025-01-09 09:20:31.64	68.09	14.55	
2025-01-09 09:20:31.84	68.05	14.56	
2025-01-09 09:20:32.05	68.00	14.57	
2025-01-09 09:20:32.25	67.96	14.58	
2025-01-09 09:20:32.46	67.91	14.59	
2025-01-09 09:20:32.66	67.87	14.60	
2025-01-09 09:20:32.87	67.82	14.61	
2025-01-09 09:20:33.07	67.78	14.62	
2025-01-09 09:20:33.28	67.73	14.63	
2025-01-09 09:20:33.49	67.69	14.64	
2025-01-09 09:20:33.69	67.64	14.65	
2025-01-09 09:20:33.90	67.60	14.66	
2025-01-09 09:20:34.11	67.55	14.67	
2025-01-09 09:20:34.32	67.50	14.68	
2025-01-09 09:20:34.52	67.46	14.69	
2025-01-09 09:20:34.73	67.41	14.70	
2025-01-09 09:20:34.93	67.37	14.71	
2025-01-09 09:20:35.14	67.32	14.72	
2025-01-09 09:20:35.34	67.28	14.73	
2025-01-09 09:20:35.55	67.23	14.74	
2025-01-09 09:20:35.75	67.19	14.75	
2025-01-09 09:20:35.96	67.14	14.76	
2025-01-09 09:20:36.16	67.09	14.77	
2025-01-09 09:20:36.37	67.05	14.78	
2025-01-09 09:20:36.57	67.00	14.79	
2025-01-09 09:20:36.78	66.96	14.80	
2025-01-09 09:20:36.99	66.91	14.81	
2025-01-09 09:20:37.19	66.86	14.81	
2025-01-09 09:20:37.39	66.82	14.82	
2025-01-09 09:20:37.60	66.77	14.83	
2025-01-09 09:20:37.81	66.73	14.84	
2025-01-09 09:20:38.01	66.68	14.85	
2025-01-09 09:20:38.22	66.63	14.86	
2025-01-09 09:20:38.42	66.59	14.87	
2025-01-09 09:20:38.63	66.54	14.88	
2025-01-09 09:20:38.83	66.50	14.89	
2025-01-09 09:20:39.04	66.45	14.90	
2025-01-09 09:20:39.24	66.40	14.91	
2025-01-09 09:20:39.45	66.36	14.92	
2025-01-09 09:20:39.65	66.31	14.93	
2025-01-09 09:20:39.86	66.27	14.94	
2025-01-09 09:20:40.06	66.22	14.95	
2025-01-09 09:20:40.27	66.17	14.96	
2025-01-09 09:20:40.48	66.13	14.97	
2025-01-09 09:20:40.68	66.08	14.97	
2025-01-09 09:20:40.89	66.03	14.98	
2025-01-09 09:20:41.09	65.99	14.99	
2025-01-09 09:20:41.30	65.94	15.00	
2025-01-09 09:20:41.50	65.89	15.01	
2025-01-09 09:20:41.71	65.85	15.02	
2025-01-09 09:20:41.91	65.80	15.03	
2025-01-09 09:20:42.12	65.75	15.04	
2025-01-09 09:20:42.32	65.71	15.05	
2025-01-09 09:20:42.53	65.66	15.06	
2025-01-09 09:20:42.73	65.62	15.07	
2025-01-09 09:20:42.94	65.57	15.08	
2025-01-09 09:20:43.15	65.52	15.08	
2025-01-09 09:20:43.35	65.47	15.09	
2025-01-09 09:20:43.56	65.43	15.10	
2025-01-09 09:20:43.76	65.38	15.11	
2025-01-09 09:20:43.97	65.33	15.12	
2025-01-09 09:20:44.17	65.29	15.13	
2025-01-09 09:20:44.37	65.24	15.14	
2025-01-09 09:20:44.58	65.19	15.15	
2025-01-09 09:20:44.79	65.15	15.16	
2025-01-09 09:20:44.99	65.10	15.17	
2025-01-09 09:20:45.19	65.05	15.17	
2025-01-09 09:20:45.40	65.01	15.18	
2025-01-09 09:20:45.60	64.96	15.19	
2025-01-09 09:20:45.81	64.91	15.20	
2025-01-09 09:20:46.01	64.87	15.21	
2025-01-09 09:20:46.22	64.82	15.22	
2025-01-09 09:20:46.42	64.77	15.23	
2025-01-09 09:20:46.63	64.72	15.24	
2025-01-09 09:20:46.83	64.68	15.24	
2025-01-09 09:20:47.04	64.63	15.25	
2025-01-09 09:20:47.25	64.58	15.26	
2025-01-09 09:20:47.45	64.53	15.27	
2025-01-09 09:20:47.66	64.49	15.28	
2025-01-09 09:20:47.86	64.44	15.29	
2025-01-09 09:20:48.07	64.39	15.30	
2025-01-09 09:20:48.27	64.34	15.31	
2025-01-09 09:20:48.48	64.30	15.31	
2025-01-09 09:20:48.69	64.25	15.32	
2025-01-09 09:20:48.89	64.20	15.33	
2025-01-09 09:20:49.10	64.15	15.34	
2025-01-09 09:20:49.30	64.11	15.35	
2025-01-09 09:20:49.51	64.06	15.36	
2025-01-09 09:20:49.71	64.01	15.37	
2025-01-09 09:20:49.92	63.96	15.38	
2025-01-09 09:20:50.12	63.92	15.38	
2025-01-09 09:20:50.33	63.87	15.39	
2025-01-09 09:20:50.53	63.82	15.40	
2025-01-09 09:20:50.74	63.77	15.41	
2025-01-09 09:20:50.94	63.72	15.42	
2025-01-09 09:20:51.15	63.68	15.43	
2025-01-09 09:20:51.35	63.63	15.43	
2025-01-09 09:20:51.56	63.58	15.44	
2025-01-09 09:20:51.76	63.53	15.45	
2025-01-09 09:20:51.97	63.48	15.46	
2025-01-09 09:20:52.17	63.44	15.47	
2025-01-09 09:20:52.38	63.39	15.48	
2025-01-09 09:20:52.58	63.34	15.49	
2025-01-09 09:20:52.79	63.29	15.49	
2025-01-09 09:20:53.00	63.24	15.50	
2025-01-09 09:20:53.20	63.20	15.51	
2025-01-09 09:20:53.41	63.15	15.52	
2025-01-09 09:20:53.61	63.10	15.53	
2025-01-09 09:20:53.82	63.05	15.54	
2025-01-09 09:20:54.02	63.00	15.54	
2025-01-09 09:20:54.23	62.95	15.55	
2025-01-09 09:20:54.43	62.91	15.56	
2025-01-09 09:20:54.63	62.86	15.57	
2025-01-09 09:20:54.84	62.81	15.58	
2025-01-09 09:20:55.05	62.76	15.58	
2025-01-09 09:20:55.25	62.71	15.59	
2025-01-09 09:20:55.46	62.66	15.60	
2025-01-09 09:20:55.66	62.62	15.61	
2025-01-09 09:20:55.87	62.57	15.62	
2025-01-09 09:20:56.07	62.52	15.63	
2025-01-09 09:20:56.28	62.47	15.63	
2025-01-09 09:20:56.48	62.42	15.64	
2025-01-09 09:20:56.69	62.37	15.65	
2025-01-09 09:20:56.89	62.32	15.66	
2025-01-09 09:20:57.10	62.27	15.67	
2025-01-09 09:20:57.30	62.23	15.67	
2025-01-09 09:20:57.51	62.18	15.68	
2025-01-09 09:20:57.71	62.13	15.69	
2025-01-09 09:20:57.92	62.08	15.70	
2025-01-09 09:20:58.12	62.03	15.71	
2025-01-09 09:20:58.32	61.98	15.71	
2025-01-09 09:20:58.53	61.93	15.72	
2025-01-09 09:20:58.73	61.89	15.73	
2025-01-09 09:20:58.94	61.84	15.74	
2025-01-09 09:20:59.15	61.79	15.74	
2025-01-09 09:20:59.35	61.74	15.75	
2025-01-09 09:20:59.56	61.69	15.76	
2025-01-09 09:20:59.76	61.64	15.77	
2025-01-09 09:20:59.96	61.59	15.78	
2025-01-09 09:21:00.17	61.54	15.78	
2025-01-09 09:21:00.38	61.49	15.79	
2025-01-09 09:21:00.58	61.44	15.80	
2025-01-09 09:21:00.79	61.39	15.81	
2025-01-09 09:21:00.99	61.35	15.81	
2025-01-09 09:21:01.20	61.30	15.82	
2025-01-09 09:21:01.40	61.25	15.83	
2025-01-09 09:21:01.61	61.20	15.84	
2025-01-09 09:21:01.81	61.15	15.84	
2025-01-09 09:21:02.02	61.10	15.85	
2025-01-09 09:21:02.22	61.05	15.86	
2025-01-09 09:21:02.43	61.00	15.87	
2025-01-09 09:21:02.63	60.95	15.87	
2025-01-09 09:21:02.84	60.90	15.88	
2025-01-09 09:21:03.04	60.85	15.89	
2025-01-09 09:21:03.25	60.80	15.90	
2025-01-09 09:21:03.45	60.75	15.90	
2025-01-09 09:21:03.66	60.70	15.91	
2025-01-09 09:21:03.86	60.65	15.92	
2025-01-09 09:21:04.07	60.60	15.93	
2025-01-09 09:21:04.27	60.56	15.93	
2025-01-09 09:21:04.48	60.50	15.94	
2025-01-09 09:21:04.69	60.45	15.95	
2025-01-09 09:21:04.89	60.41	15.96	
2025-01-09 09:21:05.10	60.35	15.96	
2025-01-09 09:21:05.30	60.31	15.97	
2025-01-09 09:21:05.51	60.26	15.98	
2025-01-09 09:21:05.71	60.21	15.99	
2025-01-09 09:21:05.92	60.16	15.99	
2025-01-09 09:21:06.12	60.11	16.00	
2025-01-09 09:21:06.33	60.06	16.01	
2025-01-09 09:21:06.53	60.01	16.01	
2025-01-09 09:21:06.74	59.96	16.02	
2025-01-09 09:21:06.94	59.91	16.03	
2025-01-09 09:21:07.15	59.86	16.04	
2025-01-09 09:21:07.35	59.81	16.04	
2025-01-09 09:21:07.56	59.76	16.05	
2025-01-09 09:21:07.77	59.70	16.06	
2025-01-09 09:21:07.97	59.66	16.06	
2025-01-09 09:21:08.18	59.60	16.07	
2025-01-09 09:21:08.38	59.56	16.08	
2025-01-09 09:21:08.59	59.50	16.09	
2025-01-09 09:21:08.79	59.46	16.09	
2025-01-09 09:21:09.00	59.40	16.10	
2025-01-09 09:21:09.20	59.36	16.11	
2025-01-09 09:21:09.41	59.30	16.11	
2025-01-09 09:21:09.61	59.25	16.12	
2025-01-09 09:21:09.82	59.20	16.13	
2025-01-09 09:21:10.03	59.15	16.13	
2025-01-09 09:21:10.23	59.10	16.14	
2025-01-09 09:21:10.44	59.05	16.15	
2025-01-09 09:21:10.64	59.00	16.15	
2025-01-09 09:21:10.84	58.95	16.16	
2025-01-09 09:21:11.05	58.90	16.17	
2025-01-09 09:21:11.26	58.85	16.18	
2025-01-09 09:21:11.46	58.80	16.18	
2025-01-09 09:21:11.66	58.75	16.19	
2025-01-09 09:21:11.87	58.70	16.20	
2025-01-09 09:21:12.07	58.65	16.20	
2025-01-09 09:21:12.28	58.60	16.21	
2025-01-09 09:21:12.49	58.55	16.22	
2025-01-09 09:21:12.69	58.50	16.22	
2025-01-09 09:21:12.89	58.45	16.23	
2025-01-09 09:21:13.10	58.40	16.24	
2025-01-09 09:21:13.31	58.34	16.24	
2025-01-09 09:21:13.51	58.29	16.25	
2025-01-09 09:21:13.71	58.24	16.25	
2025-01-09 09:21:13.92	58.19	16.26	
2025-01-09 09:21:14.12	58.14	16.27	
2025-01-09 09:21:14.33	58.09	16.27	
2025-01-09 09:21:14.54	58.04	16.28	
2025-01-09 09:21:14.74	57.99	16.29	
2025-01-09 09:21:14.95	57.94	16.29	
2025-01-09 09:21:15.15	57.89	16.30	
2025-01-09 09:21:15.36	57.84	16.31	
2025-01-09 09:21:15.56	57.79	16.31	
2025-01-09 09:21:15.76	57.74	16.32	
2025-01-09 09:21:15.97	57.68	16.32	
2025-01-09 09:21:16.17	57.63	16.33	
2025-01-09 09:21:16.38	57.58	16.34	
2025-01-09 09:21:16.58	57.53	16.34	
2025-01-09 09:21:16.79	57.48	16.35	
2025-01-09 09:21:17.00	57.43	16.36	
2025-01-09 09:21:17.20	57.38	16.36	
2025-01-09 09:21:17.41	57.32	16.37	
2025-01-09 09:21:17.61	57.27	16.37	
2025-01-09 09:21:17.82	57.22	16.38	
2025-01-09 09:21:18.02	57.17	16.39	
2025-01-09 09:21:18.23	57.12	16.39	
2025-01-09 09:21:18.43	57.07	16.40	
2025-01-09 09:21:18.64	57.02	16.41	
2025-01-09 09:21:18.84	56.97	16.41	
2025-01-09 09:21:19.05	56.91	16.42	
2025-01-09 09:21:19.26	56.86	16.42	
2025-01-09 09:21:19.46	56.81	16.43	
2025-01-09 09:21:19.67	56.76	16.43	
2025-01-09 09:21:19.87	56.71	16.44	
2025-01-09 09:21:20.08	56.66	16.45	
2025-01-09 09:21:20.28	56.61	16.45	
2025-01-09 09:21:20.48	56.56	16.46	
2025-01-09 09:21:20.69	56.50	16.46	
2025-01-09 09:21:20.89	56.45	16.47	
2025-01-09 09:21:21.10	56.40	16.48	
2025-01-09 09:21:21.32	56.35	16.48	
2025-01-09 09:21:21.52	56.29	16.49	
2025-01-09 09:21:21.73	56.24	16.49	
2025-01-09 09:21:21.94	56.19	16.50	
2025-01-09 09:21:22.14	56.14	16.50	
2025-01-09 09:21:22.34	56.09	16.51	
2025-01-09 09:21:22.55	56.04	16.52	
2025-01-09 09:21:22.75	55.98	16.52	
2025-01-09 09:21:22.96	55.93	16.53	
2025-01-09 09:21:23.16	55.88	16.53	
2025-01-09 09:21:23.37	55.83	16.54	
2025-01-09 09:21:23.57	55.78	16.54	
2025-01-09 09:21:23.78	55.72	16.55	
2025-01-09 09:21:23.98	55.67	16.55	
2025-01-09 09:21:24.19	55.62	16.56	
2025-01-09 09:21:24.39	55.57	16.57	
2025-01-09 09:21:24.60	55.52	16.57	
2025-01-09 09:21:24.81	55.46	16.58	
2025-01-09 09:21:25.01	55.41	16.58	
2025-01-09 09:21:25.22	55.36	16.59	
2025-01-09 09:21:25.42	55.31	16.59	
2025-01-09 09:21:25.63	55.26	16.60	
2025-01-09 09:21:25.83	55.21	16.60	
2025-01-09 09:21:26.04	55.15	16.61	
2025-01-09 09:21:26.24	55.10	16.61	
2025-01-09 09:21:26.45	55.05	16.62	
2025-01-09 09:21:26.66	54.99	16.62	
2025-01-09 09:21:26.86	54.94	16.63	
2025-01-09 09:21:27.07	54.89	16.63	
2025-01-09 09:21:27.27	54.84	16.64	
2025-01-09 09:21:27.48	54.79	16.64	
2025-01-09 09:21:27.68	54.74	16.65	
2025-01-09 09:21:27.89	54.68	16.66	
2025-01-09 09:21:28.10	54.63	16.66	
2025-01-09 09:21:28.30	54.58	16.67	
2025-01-09 09:21:28.51	54.52	16.67	
2025-01-09 09:21:28.73	54.47	16.68	
2025-01-09 09:21:28.93	54.42	16.68	
2025-01-09 09:21:29.14	54.36	16.69	
2025-01-09 09:21:29.34	54.31	16.69	
2025-01-09 09:21:29.55	54.26	16.70	
2025-01-09 09:21:29.75	54.21	16.70	
2025-01-09 09:21:29.95	54.16	16.70	
2025-01-09 09:21:30.16	54.10	16.71	
2025-01-09 09:21:30.36	54.05	16.71	
2025-01-09 09:21:30.57	54.00	16.72	
2025-01-09 09:21:30.77	53.95	16.72	
2025-01-09 09:21:30.97	53.90	16.73	
2025-01-09 09:21:31.18	53.84	16.73	
2025-01-09 09:21:31.39	53.79	16.74	
2025-01-09 09:21:31.59	53.74	16.74	
2025-01-09 09:21:31.79	53.69	16.75	
2025-01-09 09:21:32.01	53.63	16.75	
2025-01-09 09:21:32.22	53.58	16.76	
2025-01-09 09:21:32.42	53.52	16.76	
2025-01-09 09:21:32.63	53.47	16.77	
2025-01-09 09:21:32.83	53.42	16.77	
2025-01-09 09:21:33.05	53.36	16.78	
2025-01-09 09:21:33.25	53.31	16.78	
2025-01-09 09:21:33.46	53.26	16.78	
2025-01-09 09:21:33.67	53.20	16.79	
2025-01-09 09:21:33.87	53.15	16.79	
2025-01-09 09:21:34.08	53.10	16.80	
2025-01-09 09:21:34.28	53.05	16.80	
2025-01-09 09:21:34.49	52.99	16.81	
2025-01-09 09:21:34.69	52.94	16.81	
2025-01-09 09:21:34.90	52.89	16.81	
2025-01-09 09:21:35.10	52.84	16.82	
2025-01-09 09:21:35.31	52.78	16.82	
2025-01-09 09:21:35.52	52.73	16.83	
2025-01-09 09:21:35.72	52.68	16.83	
2025-01-09 09:21:35.93	52.62	16.84	
2025-01-09 09:21:36.13	52.57	16.84	
2025-01-09 09:21:36.34	52.52	16.84	
2025-01-09 09:21:36.54	52.46	16.85	
2025-01-09 09:21:36.75	52.41	16.85	
2025-01-09 09:21:36.96	52.36	16.86	
2025-01-09 09:21:37.16	52.30	16.86	
2025-01-09 09:21:37.36	52.25	16.86	
2025-01-09 09:21:37.57	52.20	16.87	
2025-01-09 09:21:37.78	52.14	16.87	
2025-01-09 09:21:37.98	52.09	16.88	
2025-01-09 09:21:38.19	52.04	16.88	
2025-01-09 09:21:38.39	51.99	16.88	
2025-01-09 09:21:38.60	51.93	16.89	
2025-01-09 09:21:38.80	51.88	16.89	
2025-01-09 09:21:39.01	51.83	16.90	
2025-01-09 09:21:39.21	51.77	16.90	
2025-01-09 09:21:39.42	51.72	16.90	
2025-01-09 09:21:39.62	51.67	16.91	
2025-01-09 09:21:39.83	51.61	16.91	
2025-01-09 09:21:40.03	51.56	16.92	
2025-01-09 09:21:40.24	51.51	16.92	
2025-01-09 09:21:40.46	51.45	16.92	
2025-01-09 09:21:40.66	51.40	16.93	
2025-01-09 09:21:40.87	51.34	16.93	
2025-01-09 09:21:41.07	51.29	16.93	
2025-01-09 09:21:41.28	51.24	16.94	
2025-01-09 09:21:41.48	51.18	16.94	
2025-01-09 09:21:41.68	51.13	16.94	
2025-01-09 09:21:41.89	51.08	16.95	
2025-01-09 09:21:42.09	51.03	16.95	
2025-01-09 09:21:42.30	50.97	16.95	
2025-01-09 09:21:42.50	50.92	16.96	
2025-01-09 09:21:42.71	50.86	16.96	
2025-01-09 09:21:42.92	50.81	16.97	
2025-01-09 09:21:43.12	50.76	16.97	
2025-01-09 09:21:43.33	50.70	16.97	
2025-01-09 09:21:43.53	50.65	16.98	
2025-01-09 09:21:43.74	50.60	16.98	
2025-01-09 09:21:43.94	50.54	16.98	
2025-01-09 09:21:44.15	50.49	16.99	
2025-01-09 09:21:44.35	50.44	16.99	
2025-01-09 09:21:44.56	50.38	16.99	
2025-01-09 09:21:44.76	50.33	16.99	
2025-01-09 09:21:44.97	50.28	17.00	
2025-01-09 09:21:45.17	50.22	17.00	
2025-01-09 09:21:45.37	50.17	17.00	
2025-01-09 09:21:45.58	50.12	17.01	
2025-01-09 09:21:45.79	50.06	17.01	
2025-01-09 09:21:45.99	50.01	17.01	
2025-01-09 09:21:46.20	49.95	17.02	
2025-01-09 09:21:46.40	49.90	17.02	
2025-01-09 09:21:46.61	49.85	17.02	
2025-01-09 09:21:46.81	49.80	17.03	
2025-01-09 09:21:47.02	49.74	17.03	
2025-01-09 09:21:47.22	49.69	17.03	
2025-01-09 09:21:47.43	49.63	17.03	
2025-01-09 09:21:47.64	49.58	17.04	
2025-01-09 09:21:47.84	49.53	17.04	
2025-01-09 09:21:48.05	49.47	17.04	
2025-01-09 09:21:48.25	49.42	17.05	
2025-01-09 09:21:48.46	49.36	17.05	
2025-01-09 09:21:48.66	49.31	17.05	
2025-01-09 09:21:48.87	49.26	17.05	
2025-01-09 09:21:49.07	49.20	17.06	
2025-01-09 09:21:49.28	49.15	17.06	
2025-01-09 09:21:49.48	49.10	17.06	
2025-01-09 09:21:49.69	49.04	17.06	
2025-01-09 09:21:49.90	48.99	17.07	
2025-01-09 09:21:50.10	48.93	17.07	
2025-01-09 09:21:50.31	48.88	17.07	
2025-01-09 09:21:50.51	48.83	17.07	
2025-01-09 09:21:50.71	48.77	17.08	
2025-01-09 09:21:50.92	48.72	17.08	
2025-01-09 09:21:51.12	48.67	17.08	
2025-01-09 09:21:51.33	48.61	17.08	
2025-01-09 09:21:51.54	48.56	17.09	
2025-01-09 09:21:51.74	48.50	17.09	
2025-01-09 09:21:51.95	48.45	17.09	
2025-01-09 09:21:52.15	48.40	17.09	
2025-01-09 09:21:52.35	48.34	17.10	
2025-01-09 09:21:52.56	48.29	17.10	
2025-01-09 09:21:52.77	48.23	17.10	
2025-01-09 09:21:52.97	48.18	17.10	
2025-01-09 09:21:53.18	48.13	17.10	
2025-01-09 09:21:53.38	48.07	17.11	
2025-01-09 09:21:53.59	48.02	17.11	
2025-01-09 09:21:53.80	47.96	17.11	
2025-01-09 09:21:54.00	47.91	17.11	
2025-01-09 09:21:54.21	47.86	17.12	
2025-01-09 09:21:54.43	47.80	17.12	
2025-01-09 09:21:54.63	47.74	17.12	
2025-01-09 09:21:54.84	47.69	17.12	
2025-01-09 09:21:55.04	47.64	17.12	
2025-01-09 09:21:55.25	47.58	17.13	
2025-01-09 09:21:55.45	47.53	17.13	
2025-01-09 09:21:55.66	47.47	17.13	
2025-01-09 09:21:55.86	47.42	17.13	
2025-01-09 09:21:56.07	47.37	17.13	
2025-01-09 09:21:56.27	47.31	17.13	
2025-01-09 09:21:56.48	47.26	17.14	
2025-01-09 09:21:56.68	47.20	17.14	
2025-01-09 09:21:56.89	47.15	17.14	
2025-01-09 09:21:57.09	47.10	17.14	
2025-01-09 09:21:57.30	47.04	17.14	
2025-01-09 09:21:57.50	46.99	17.14	
2025-01-09 09:21:57.71	46.93	17.15	
2025-01-09 09:21:57.91	46.88	17.15	
2025-01-09 09:21:58.12	46.83	17.15	
2025-01-09 09:21:58.32	46.77	17.15	
2025-01-09 09:21:58.53	46.72	17.15	
2025-01-09 09:21:58.75	46.66	17.15	
2025-01-09 09:21:58.95	46.61	17.16	
2025-01-09 09:21:59.16	46.55	17.16	
2025-01-09 09:21:59.36	46.50	17.16	
2025-01-09 09:21:59.57	46.44	17.16	
2025-01-09 09:21:59.77	46.39	17.16	
2025-01-09 09:21:59.98	46.34	17.16	
2025-01-09 09:22:00.18	46.28	17.16	
2025-01-09 09:22:00.39	46.23	17.17	
2025-01-09 09:22:00.59	46.17	17.17	
2025-01-09 09:22:00.80	46.12	17.17	
2025-01-09 09:22:01.00	46.07	17.17	
2025-01-09 09:22:01.21	46.01	17.17	
2025-01-09 09:22:01.41	45.96	17.17	
2025-01-09 09:22:01.61	45.90	17.17	
2025-01-09 09:22:01.82	45.85	17.17	
2025-01-09 09:22:02.02	45.80	17.18	
2025-01-09 09:22:02.23	45.74	17.18	
2025-01-09 09:22:02.43	45.69	17.18	
2025-01-09 09:22:02.64	45.63	17.18	
2025-01-09 09:22:02.84	45.58	17.18	
2025-01-09 09:22:03.05	45.52	17.18	
2025-01-09 09:22:03.25	45.47	17.18	
2025-01-09 09:22:03.46	45.42	17.18	
2025-01-09 09:22:03.66	45.36	17.18	
2025-01-09 09:22:03.87	45.31	17.18	
2025-01-09 09:22:04.07	45.26	17.19	
2025-01-09 09:22:04.28	45.20	17.19	
2025-01-09 09:22:04.49	45.14	17.19	
2025-01-09 09:22:04.69	45.09	17.19	
2025-01-09 09:22:04.89	45.04	17.19	
2025-01-09 09:22:05.10	44.98	17.19	
2025-01-09 09:22:05.30	44.93	17.19	
2025-01-09 09:22:05.51	44.87	17.19	
2025-01-09 09:22:05.72	44.82	17.19	
2025-01-09 09:22:05.92	44.77	17.19	
2025-01-09 09:22:06.13	44.71	17.19	
2025-01-09 09:22:06.33	44.66	17.19	
2025-01-09 09:22:06.54	44.60	17.19	
2025-01-09 09:22:06.74	44.55	17.19	
2025-01-09 09:22:06.94	44.50	17.19	
2025-01-09 09:22:07.16	44.44	17.20	
2025-01-09 09:22:07.37	44.38	17.20	
2025-01-09 09:22:07.57	44.33	17.20	
2025-01-09 09:22:07.78	44.27	17.20	
2025-01-09 09:22:07.98	44.22	17.20	
2025-01-09 09:22:08.19	44.17	17.20	
2025-01-09 09:22:08.40	44.11	17.20	
2025-01-09 09:22:08.60	44.06	17.20	
2025-01-09 09:22:08.81	44.00	17.20	
2025-01-09 09:22:09.01	43.95	17.20	
2025-01-09 09:22:09.22	43.89	17.20	
2025-01-09 09:22:09.42	43.84	17.20	
2025-01-09 09:22:09.63	43.79	17.20	
2025-01-09 09:22:09.83	43.73	17.20	
2025-01-09 09:22:10.04	43.68	17.20	
2025-01-09 09:22:10.24	43.62	17.20	
2025-01-09 09:22:10.45	43.57	17.20	
2025-01-09 09:22:10.65	43.52	17.20	
2025-01-09 09:22:10.86	43.46	17.20	
2025-01-09 09:22:11.07	43.40	17.20	
2025-01-09 09:22:11.27	43.35	17.20	
2025-01-09 09:22:11.47	43.30	17.20	
2025-01-09 09:22:11.68	43.24	17.20	
2025-01-09 09:22:11.88	43.19	17.20	
2025-01-09 09:22:12.09	43.13	17.20	
2025-01-09 09:22:12.29	43.08	17.20	
2025-01-09 09:22:12.50	43.03	17.20	
2025-01-09 09:22:12.70	42.97	17.20	
2025-01-09 09:22:12.91	42.92	17.20	
2025-01-09 09:22:13.11	42.86	17.20	
2025-01-09 09:22:13.32	42.81	17.20	
2025-01-09 09:22:13.52	42.76	17.20	
2025-01-09 09:22:13.73	42.70	17.20	
2025-01-09 09:22:13.93	42.65	17.20	
2025-01-09 09:22:14.14	42.59	17.20	
2025-01-09 09:22:14.34	42.54	17.20	
2025-01-09 09:22:14.55	42.48	17.20	
2025-01-09 09:22:14.75	42.43	17.20	
2025-01-09 09:22:14.96	42.38	17.20	
2025-01-09 09:22:15.16	42.32	17.20	
2025-01-09 09:22:15.37	42.27	17.19	
2025-01-09 09:22:15.57	42.21	17.19	
2025-01-09 09:22:15.78	42.16	17.19	
2025-01-09 09:22:15.98	42.11	17.19	
2025-01-09 09:22:16.19	42.05	17.19	
2025-01-09 09:22:16.39	42.00	17.19	
2025-01-09 09:22:16.60	41.94	17.19	
2025-01-09 09:22:16.80	41.89	17.19	
2025-01-09 09:22:17.01	41.83	17.19	
2025-01-09 09:22:17.21	41.78	17.19	
2025-01-09 09:22:17.42	41.73	17.19	
2025-01-09 09:22:17.62	41.67	17.19	
2025-01-09 09:22:17.83	41.62	17.19	
2025-01-09 09:22:18.03	41.56	17.19	
2025-01-09 09:22:18.24	41.51	17.19	
2025-01-09 09:22:18.44	41.46	17.18	
2025-01-09 09:22:18.65	41.40	17.18	
2025-01-09 09:22:18.85	41.35	17.18	
2025-01-09 09:22:19.06	41.29	17.18	
2025-01-09 09:22:19.26	41.24	17.18	
2025-01-09 09:22:19.47	41.18	17.18	
2025-01-09 09:22:19.67	41.13	17.18	
2025-01-09 09:22:19.88	41.08	17.18	
2025-01-09 09:22:20.08	41.02	17.18	
2025-01-09 09:22:20.29	40.97	17.18	
2025-01-09 09:22:20.50	40.91	17.17	
2025-01-09 09:22:20.71	40.86	17.17	
2025-01-09 09:22:20.91	40.80	17.17	
2025-01-09 09:22:21.12	40.75	17.17	
2025-01-09 09:22:21.33	40.69	17.17	
2025-01-09 09:22:21.53	40.64	17.17	
2025-01-09 09:22:21.73	40.59	17.17	
2025-01-09 09:22:21.94	40.53	17.17	
2025-01-09 09:22:22.14	40.48	17.16	
2025-01-09 09:22:22.35	40.42	17.16	
2025-01-09 09:22:22.55	40.37	17.16	
2025-01-09 09:22:22.76	40.32	17.16	
2025-01-09 09:22:22.97	40.26	17.16	
2025-01-09 09:22:23.17	40.21	17.16	
2025-01-09 09:22:23.38	40.15	17.16	
2025-01-09 09:22:23.58	40.10	17.15	
2025-01-09 09:22:23.79	40.04	17.15	
2025-01-09 09:22:23.99	39.99	17.15	
2025-01-09 09:22:24.21	39.93	17.15	
2025-01-09 09:22:24.42	39.88	17.15	
2025-01-09 09:22:24.62	39.83	17.15	
2025-01-09 09:22:24.83	39.77	17.14	
2025-01-09 09:22:25.03	39.72	17.14	
2025-01-09 09:22:25.24	39.66	17.14	
2025-01-09 09:22:25.44	39.61	17.14	
2025-01-09 09:22:25.65	39.55	17.14	
2025-01-09 09:22:25.85	39.50	17.14	
2025-01-09 09:22:26.06	39.45	17.13	
2025-01-09 09:22:26.26	39.39	17.13	
2025-01-09 09:22:26.47	39.34	17.13	
2025-01-09 09:22:26.67	39.29	17.13	
2025-01-09 09:22:26.88	39.23	17.13	
2025-01-09 09:22:27.08	39.18	17.12	
2025-01-09 09:22:27.28	39.13	17.12	
2025-01-09 09:22:27.49	39.07	17.12	
2025-01-09 09:22:27.69	39.02	17.12	
2025-01-09 09:22:27.90	38.96	17.12	
2025-01-09 09:22:28.10	38.91	17.11	
2025-01-09 09:22:28.31	38.85	17.11	
2025-01-09 09:22:28.51	38.80	17.11	
2025-01-09 09:22:28.72	38.75	17.11	
2025-01-09 09:22:28.92	38.69	17.11	
2025-01-09 09:22:29.13	38.64	17.10	
2025-01-09 09:22:29.33	38.59	17.10	
2025-01-09 09:22:29.54	38.53	17.10	
2025-01-09 09:22:29.74	38.48	17.10	
2025-01-09 09:22:29.95	38.42	17.10	
2025-01-09 09:22:30.15	38.37	17.09	
2025-01-09 09:22:30.36	38.32	17.09	
2025-01-09 09:22:30.56	38.26	17.09	
2025-01-09 09:22:30.77	38.21	17.09	
2025-01-09 09:22:30.97	38.16	17.08	
2025-01-09 09:22:31.18	38.10	17.08	
2025-01-09 09:22:31.38	38.05	17.08	
2025-01-09 09:22:31.59	37.99	17.08	
2025-01-09 09:22:31.79	37.94	17.07	
2025-01-09 09:22:32.00	37.89	17.07	
2025-01-09 09:22:32.21	37.83	17.07	
2025-01-09 09:22:32.41	37.78	17.07	
2025-01-09 09:22:32.62	37.72	17.06	
2025-01-09 09:22:32.82	37.67	17.06	
2025-01-09 09:22:33.03	37.62	17.06	
2025-01-09 09:22:33.23	37.56	17.06	
2025-01-09 09:22:33.44	37.51	17.05	
2025-01-09 09:22:33.65	37.45	17.05	
2025-01-09 09:22:33.86	37.40	17.05	
2025-01-09 09:22:34.07	37.34	17.04	
2025-01-09 09:22:34.28	37.29	17.04	
2025-01-09 09:22:34.48	37.24	17.04	
2025-01-09 09:22:34.69	37.18	17.04	
2025-01-09 09:22:34.89	37.13	17.03	
2025-01-09 09:22:35.10	37.08	17.03	
2025-01-09 09:22:35.30	37.02	17.03	
2025-01-09 09:22:35.51	36.97	17.02	
2025-01-09 09:22:35.71	36.92	17.02	
2025-01-09 09:22:35.92	36.86	17.02	
2025-01-09 09:22:36.12	36.81	17.02	
2025-01-09 09:22:36.33	36.75	17.01	
2025-01-09 09:22:36.53	36.70	17.01	
2025-01-09 09:22:36.74	36.65	17.01	
2025-01-09 09:22:36.94	36.60	17.00	
2025-01-09 09:22:37.15	36.54	17.00	
2025-01-09 09:22:37.36	36.49	17.00	
2025-01-09 09:22:37.56	36.43	16.99	
2025-01-09 09:22:37.77	36.38	16.99	
2025-01-09 09:22:37.97	36.33	16.99	
2025-01-09 09:22:38.18	36.27	16.98	
2025-01-09 09:22:38.38	36.22	16.98	
2025-01-09 09:22:38.58	36.17	16.98	
2025-01-09 09:22:38.79	36.11	16.97	
2025-01-09 09:22:39.00	36.06	16.97	
2025-01-09 09:22:39.20	36.01	16.97	
2025-01-09 09:22:39.40	35.96	16.96	
2025-01-09 09:22:39.61	35.90	16.96	
2025-01-09 09:22:39.81	35.85	16.96	
2025-01-09 09:22:40.02	35.79	16.95	
2025-01-09 09:22:40.22	35.74	16.95	
2025-01-09 09:22:40.43	35.69	16.95	
2025-01-09 09:22:40.63	35.64	16.94	
2025-01-09 09:22:40.84	35.58	16.94	
2025-01-09 09:22:41.04	35.53	16.94	
2025-01-09 09:22:41.26	35.47	16.93	
2025-01-09 09:22:41.47	35.42	16.93	
2025-01-09 09:22:41.67	35.37	16.93	
2025-01-09 09:22:41.88	35.31	16.92	
2025-01-09 09:22:42.08	35.26	16.92	
2025-01-09 09:22:42.29	35.21	16.91	
2025-01-09 09:22:42.49	35.15	16.91	
2025-01-09 09:22:42.70	35.10	16.91	
2025-01-09 09:22:42.90	35.05	16.90	
2025-01-09 09:22:43.11	34.99	16.90	
2025-01-09 09:22:43.32	34.94	16.90	
2025-01-09 09:22:43.52	34.89	16.89	
2025-01-09 09:22:43.73	34.83	16.89	
2025-01-09 09:22:43.93	34.78	16.88	
2025-01-09 09:22:44.14	34.73	16.88	
2025-01-09 09:22:44.34	34.67	16.88	
2025-01-09 09:22:44.54	34.62	16.87	
2025-01-09 09:22:44.75	34.57	16.87	
2025-01-09 09:22:44.96	34.51	16.86	
2025-01-09 09:22:45.16	34.46	16.86	
2025-01-09 09:22:45.37	34.41	16.86	
2025-01-09 09:22:45.57	34.36	16.85	
2025-01-09 09:22:45.78	34.30	16.85	
2025-01-09 09:22:45.98	34.25	16.84	
2025-01-09 09:22:46.19	34.20	16.84	
2025-01-09 09:22:46.39	34.15	16.84	
2025-01-09 09:22:46.61	34.09	16.83	
2025-01-09 09:22:46.82	34.04	16.83	
2025-01-09 09:22:47.02	33.98	16.82	
2025-01-09 09:22:47.23	33.93	16.82	
2025-01-09 09:22:47.43	33.88	16.81	
2025-01-09 09:22:47.64	33.82	16.81	
2025-01-09 09:22:47.84	33.77	16.81	
2025-01-09 09:22:48.05	33.72	16.80	
2025-01-09 09:22:48.25	33.67	16.80	
2025-01-09 09:22:48.46	33.61	16.79	
2025-01-09 09:22:48.67	33.56	16.79	
2025-01-09 09:22:48.87	33.51	16.78	
2025-01-09 09:22:49.07	33.46	16.78	
2025-01-09 09:22:49.28	33.40	16.77	
2025-01-09 09:22:49.49	33.35	16.77	
2025-01-09 09:22:49.69	33.30	16.77	
2025-01-09 09:22:49.89	33.25	16.76	
2025-01-09 09:22:50.10	33.19	16.76	
2025-01-09 09:22:50.30	33.14	16.75	
2025-01-09 09:22:50.51	33.09	16.75	
2025-01-09 09:22:50.71	33.04	16.74	
2025-01-09 09:22:50.92	32.98	16.74	
2025-01-09 09:22:51.12	32.93	16.73	
2025-01-09 09:22:51.33	32.88	16.73	
2025-01-09 09:22:51.54	32.82	16.72	
2025-01-09 09:22:51.74	32.77	16.72	
2025-01-09 09:22:51.94	32.72	16.71	
2025-01-09 09:22:52.15	32.67	16.71	
2025-01-09 09:22:52.36	32.62	16.70	
2025-01-09 09:22:52.56	32.56	16.70	
2025-01-09 09:22:52.77	32.51	16.69	
2025-01-09 09:22:52.97	32.46	16.69	
2025-01-09 09:22:53.18	32.41	16.69	
2025-01-09 09:22:53.38	32.36	16.68	
2025-01-09 09:22:53.59	32.30	16.68	
2025-01-09 09:22:53.79	32.25	16.67	
2025-01-09 09:22:54.00	32.20	16.67	
2025-01-09 09:22:54.20	32.15	16.66	
2025-01-09 09:22:54.41	32.09	16.66	
2025-01-09 09:22:54.61	32.04	16.65	
2025-01-09 09:22:54.82	31.99	16.65	
2025-01-09 09:22:55.03	31.94	16.64	
2025-01-09 09:22:55.23	31.89	16.63	
2025-01-09 09:22:55.44	31.83	16.63	
2025-01-09 09:22:55.64	31.78	16.62	
2025-01-09 09:22:55.85	31.73	16.62	
2025-01-09 09:22:56.06	31.67	16.61	
2025-01-09 09:22:56.26	31.62	16.61	
2025-01-09 09:22:56.47	31.57	16.60	
2025-01-09 09:22:56.67	31.52	16.60	
2025-01-09 09:22:56.88	31.47	16.59	
2025-01-09 09:22:57.08	31.42	16.59	
2025-01-09 09:22:57.29	31.36	16.58	
2025-01-09 09:22:57.49	31.31	16.58	
2025-01-09 09:22:57.70	31.26	16.57	
2025-01-09 09:22:57.90	31.21	16.57	
2025-01-09 09:22:58.11	31.16	16.56	
2025-01-09 09:22:58.31	31.11	16.56	
2025-01-09 09:22:58.52	31.05	16.55	
2025-01-09 09:22:58.72	31.00	16.54	
2025-01-09 09:22:58.93	30.95	16.54	
2025-01-09 09:22:59.14	30.90	16.53	
2025-01-09 09:22:59.34	30.85	16.53	
2025-01-09 09:22:59.54	30.80	16.52	
2025-01-09 09:22:59.75	30.74	16.52	
2025-01-09 09:22:59.96	30.69	16.51	
2025-01-09 09:23:00.17	30.64	16.50	
2025-01-09 09:23:00.38	30.58	16.50	
2025-01-09 09:23:00.58	30.53	16.49	
2025-01-09 09:23:00.79	30.48	16.49	
2025-01-09 09:23:00.99	30.43	16.48	
2025-01-09 09:23:01.20	30.38	16.48	
2025-01-09 09:23:01.40	30.33	16.47	
2025-01-09 09:23:01.61	30.28	16.46	
2025-01-09 09:23:01.81	30.22	16.46	
2025-01-09 09:23:02.02	30.17	16.45	
2025-01-09 09:23:02.22	30.12	16.45	
2025-01-09 09:23:02.43	30.07	16.44	
2025-01-09 09:23:02.63	30.02	16.44	
2025-01-09 09:23:02.84	29.97	16.43	
2025-01-09 09:23:03.04	29.92	16.42	
2025-01-09 09:23:03.25	29.86	16.42	
2025-01-09 09:23:03.46	29.81	16.41	
2025-01-09 09:23:03.66	29.76	16.41	
2025-01-09 09:23:03.86	29.71	16.40	
2025-01-09 09:23:04.07	29.66	16.39	
2025-01-09 09:23:04.27	29.61	16.39	
2025-01-09 09:23:04.48	29.56	16.38	
2025-01-09 09:23:04.68	29.51	16.38	
2025-01-09 09:23:04.89	29.46	16.37	
2025-01-09 09:23:05.09	29.41	16.36	
2025-01-09 09:23:05.30	29.35	16.36	
2025-01-09 09:23:05.50	29.30	16.35	
2025-01-09 09:23:05.71	29.25	16.34	
2025-01-09 09:23:05.92	29.20	16.34	
2025-01-09 09:23:06.12	29.15	16.33	
2025-01-09 09:23:06.33	29.10	16.33	
2025-01-09 09:23:06.53	29.05	16.32	
2025-01-09 09:23:06.74	29.00	16.31	
2025-01-09 09:23:06.94	28.95	16.31	
2025-01-09 09:23:07.15	28.89	16.30	
2025-01-09 09:23:07.35	28.84	16.29	
2025-01-09 09:23:07.56	28.79	16.29	
2025-01-09 09:23:07.77	28.74	16.28	
2025-01-09 09:23:07.98	28.69	16.27	
2025-01-09 09:23:08.19	28.64	16.27	
2025-01-09 09:23:08.39	28.59	16.26	
2025-01-09 09:23:08.60	28.54	16.25	
2025-01-09 09:23:08.80	28.49	16.25	
2025-01-09 09:23:09.01	28.43	16.24	
2025-01-09 09:23:09.21	28.38	16.24	
2025-01-09 09:23:09.42	28.33	16.23	
2025-01-09 09:23:09.63	28.28	16.22	
2025-01-09 09:23:09.83	28.23	16.22	
2025-01-09 09:23:10.04	28.18	16.21	
2025-01-09 09:23:10.24	28.13	16.20	
2025-01-09 09:23:10.45	28.08	16.20	
2025-01-09 09:23:10.65	28.03	16.19	
2025-01-09 09:23:10.85	27.98	16.18	
2025-01-09 09:23:11.06	27.93	16.18	
2025-01-09 09:23:11.26	27.88	16.17	
2025-01-09 09:23:11.47	27.83	16.16	
2025-01-09 09:23:11.68	27.78	16.16	
2025-01-09 09:23:11.88	27.73	16.15	
2025-01-09 09:23:12.09	27.68	16.14	
2025-01-09 09:23:12.29	27.63	16.13	
2025-01-09 09:23:12.50	27.58	16.13	
2025-01-09 09:23:12.70	27.53	16.12	
2025-01-09 09:23:12.91	27.48	16.11	
2025-01-09 09:23:13.11	27.43	16.11	
