passes_logs/2025/01/09/SPB_Silybum_02/SPB_Silybum_02__20250109_085517_TERRA_rec.log

#Pass ID: 20250109_085517_TERRA
#Satellite: TERRA
#Configuration: TERRA
#Start time: 2025-01-09 08:55:18

#Version: 2.0.20230423
#Station: SPB_Silybum_02
#Location: 30.233357 lon 59.946436 lat
#TLE: 1 25994U 99068A   25008.82275774  .00000946  00000+0  20487-3 0  9990
#TLE: 2 25994  98.0228  72.0493 0003564  84.8498   6.9254 14.60383008333170

#Time	Az	El	Level	Level2	SNR	BER	Gain	Gain2
2025-01-09 08:55:20.65	14.01	4.21	
2025-01-09 08:55:20.85	14.00	4.23	
2025-01-09 08:55:21.05	14.00	4.24	
2025-01-09 08:55:21.26	13.99	4.26	
2025-01-09 08:55:21.46	13.99	4.27	
2025-01-09 08:55:21.67	13.98	4.29	
2025-01-09 08:55:21.87	13.98	4.30	
2025-01-09 08:55:22.08	13.97	4.31	
2025-01-09 08:55:22.28	13.97	4.33	
2025-01-09 08:55:22.49	13.96	4.34	
2025-01-09 08:55:22.69	13.96	4.36	
2025-01-09 08:55:22.90	13.95	4.37	
2025-01-09 08:55:23.10	13.95	4.39	
2025-01-09 08:55:23.31	13.94	4.40	
2025-01-09 08:55:23.52	13.94	4.42	
2025-01-09 08:55:23.72	13.93	4.43	
2025-01-09 08:55:23.92	13.93	4.45	
2025-01-09 08:55:24.13	13.92	4.46	
2025-01-09 08:55:24.34	13.91	4.48	
2025-01-09 08:55:24.54	13.91	4.49	
2025-01-09 08:55:24.75	13.90	4.51	
2025-01-09 08:55:24.95	13.90	4.52	
2025-01-09 08:55:25.16	13.89	4.54	
2025-01-09 08:55:25.36	13.89	4.55	
2025-01-09 08:55:25.57	13.88	4.57	
2025-01-09 08:55:25.78	13.88	4.58	
2025-01-09 08:55:25.98	13.87	4.60	
2025-01-09 08:55:26.18	13.87	4.61	
2025-01-09 08:55:26.39	13.86	4.63	
2025-01-09 08:55:26.59	13.86	4.64	
2025-01-09 08:55:26.80	13.85	4.65	
2025-01-09 08:55:27.01	13.84	4.67	
2025-01-09 08:55:27.21	13.84	4.68	
2025-01-09 08:55:27.41	13.83	4.70	
2025-01-09 08:55:27.62	13.83	4.71	
2025-01-09 08:55:27.82	13.82	4.73	
2025-01-09 08:55:28.03	13.82	4.74	
2025-01-09 08:55:28.23	13.81	4.76	
2025-01-09 08:55:28.44	13.81	4.77	
2025-01-09 08:55:28.65	13.80	4.79	
2025-01-09 08:55:28.85	13.80	4.80	
2025-01-09 08:55:29.06	13.79	4.82	
2025-01-09 08:55:29.26	13.78	4.83	
2025-01-09 08:55:29.47	13.78	4.85	
2025-01-09 08:55:29.67	13.77	4.86	
2025-01-09 08:55:29.88	13.77	4.88	
2025-01-09 08:55:30.08	13.76	4.89	
2025-01-09 08:55:30.28	13.76	4.91	
2025-01-09 08:55:30.49	13.75	4.92	
2025-01-09 08:55:30.70	13.75	4.94	
2025-01-09 08:55:30.90	13.74	4.95	
2025-01-09 08:55:31.11	13.73	4.97	
2025-01-09 08:55:31.31	13.73	4.98	
2025-01-09 08:55:31.52	13.72	5.00	
2025-01-09 08:55:31.72	13.72	5.01	
2025-01-09 08:55:31.93	13.71	5.03	
2025-01-09 08:55:32.13	13.71	5.04	
2025-01-09 08:55:32.34	13.70	5.06	
2025-01-09 08:55:32.54	13.70	5.07	
2025-01-09 08:55:32.75	13.69	5.09	
2025-01-09 08:55:32.95	13.68	5.10	
2025-01-09 08:55:33.16	13.68	5.12	
2025-01-09 08:55:33.36	13.67	5.13	
2025-01-09 08:55:33.58	13.67	5.15	
2025-01-09 08:55:33.78	13.66	5.17	
2025-01-09 08:55:33.99	13.66	5.18	
2025-01-09 08:55:34.20	13.65	5.20	
2025-01-09 08:55:34.41	13.64	5.21	
2025-01-09 08:55:34.61	13.64	5.23	
2025-01-09 08:55:34.82	13.63	5.24	
2025-01-09 08:55:35.02	13.63	5.26	
2025-01-09 08:55:35.23	13.62	5.27	
2025-01-09 08:55:35.43	13.62	5.29	
2025-01-09 08:55:35.64	13.61	5.30	
2025-01-09 08:55:35.84	13.60	5.32	
2025-01-09 08:55:36.05	13.60	5.33	
2025-01-09 08:55:36.25	13.59	5.35	
2025-01-09 08:55:36.46	13.59	5.37	
2025-01-09 08:55:36.66	13.58	5.38	
2025-01-09 08:55:36.87	13.58	5.40	
2025-01-09 08:55:37.07	13.57	5.41	
2025-01-09 08:55:37.28	13.56	5.43	
2025-01-09 08:55:37.48	13.56	5.44	
2025-01-09 08:55:37.69	13.55	5.46	
2025-01-09 08:55:37.90	13.55	5.47	
2025-01-09 08:55:38.10	13.54	5.49	
2025-01-09 08:55:38.31	13.53	5.50	
2025-01-09 08:55:38.51	13.53	5.52	
2025-01-09 08:55:38.72	13.52	5.53	
2025-01-09 08:55:38.94	13.52	5.55	
2025-01-09 08:55:39.14	13.51	5.57	
2025-01-09 08:55:39.35	13.50	5.58	
2025-01-09 08:55:39.55	13.50	5.60	
2025-01-09 08:55:39.76	13.49	5.61	
2025-01-09 08:55:39.98	13.49	5.63	
2025-01-09 08:55:40.18	13.48	5.64	
2025-01-09 08:55:40.39	13.48	5.66	
2025-01-09 08:55:40.59	13.47	5.68	
2025-01-09 08:55:40.80	13.46	5.69	
2025-01-09 08:55:41.00	13.46	5.71	
2025-01-09 08:55:41.21	13.45	5.72	
2025-01-09 08:55:41.41	13.45	5.74	
2025-01-09 08:55:41.62	13.44	5.75	
2025-01-09 08:55:41.82	13.43	5.77	
2025-01-09 08:55:42.03	13.43	5.78	
2025-01-09 08:55:42.24	13.42	5.80	
2025-01-09 08:55:42.44	13.42	5.82	
2025-01-09 08:55:42.65	13.41	5.83	
2025-01-09 08:55:42.85	13.40	5.85	
2025-01-09 08:55:43.05	13.40	5.86	
2025-01-09 08:55:43.26	13.39	5.88	
2025-01-09 08:55:43.47	13.39	5.89	
2025-01-09 08:55:43.67	13.38	5.91	
2025-01-09 08:55:43.88	13.37	5.92	
2025-01-09 08:55:44.08	13.37	5.94	
2025-01-09 08:55:44.29	13.36	5.96	
2025-01-09 08:55:44.49	13.36	5.97	
2025-01-09 08:55:44.70	13.35	5.99	
2025-01-09 08:55:44.90	13.34	6.00	
2025-01-09 08:55:45.11	13.34	6.02	
2025-01-09 08:55:45.31	13.33	6.03	
2025-01-09 08:55:45.52	13.32	6.05	
2025-01-09 08:55:45.72	13.32	6.07	
2025-01-09 08:55:45.93	13.31	6.08	
2025-01-09 08:55:46.13	13.31	6.10	
2025-01-09 08:55:46.35	13.30	6.11	
2025-01-09 08:55:46.55	13.29	6.13	
2025-01-09 08:55:46.76	13.29	6.15	
2025-01-09 08:55:46.96	13.28	6.16	
2025-01-09 08:55:47.17	13.28	6.18	
2025-01-09 08:55:47.37	13.27	6.19	
2025-01-09 08:55:47.58	13.26	6.21	
2025-01-09 08:55:47.78	13.26	6.22	
2025-01-09 08:55:47.99	13.25	6.24	
2025-01-09 08:55:48.19	13.24	6.26	
2025-01-09 08:55:48.40	13.24	6.27	
2025-01-09 08:55:48.60	13.23	6.29	
2025-01-09 08:55:48.81	13.23	6.30	
2025-01-09 08:55:49.01	13.22	6.32	
2025-01-09 08:55:49.22	13.21	6.34	
2025-01-09 08:55:49.42	13.21	6.35	
2025-01-09 08:55:49.63	13.20	6.37	
2025-01-09 08:55:49.83	13.19	6.38	
2025-01-09 08:55:50.04	13.19	6.40	
2025-01-09 08:55:50.24	13.18	6.42	
2025-01-09 08:55:50.45	13.18	6.43	
2025-01-09 08:55:50.65	13.17	6.45	
2025-01-09 08:55:50.85	13.16	6.46	
2025-01-09 08:55:51.06	13.16	6.48	
2025-01-09 08:55:51.27	13.15	6.50	
2025-01-09 08:55:51.47	13.14	6.51	
2025-01-09 08:55:51.69	13.14	6.53	
2025-01-09 08:55:51.90	13.13	6.54	
2025-01-09 08:55:52.10	13.12	6.56	
2025-01-09 08:55:52.31	13.12	6.58	
2025-01-09 08:55:52.51	13.11	6.59	
2025-01-09 08:55:52.72	13.11	6.61	
2025-01-09 08:55:52.92	13.10	6.62	
2025-01-09 08:55:53.13	13.09	6.64	
2025-01-09 08:55:53.33	13.09	6.66	
2025-01-09 08:55:53.54	13.08	6.67	
2025-01-09 08:55:53.76	13.07	6.69	
2025-01-09 08:55:53.97	13.07	6.71	
2025-01-09 08:55:54.18	13.06	6.72	
2025-01-09 08:55:54.38	13.05	6.74	
2025-01-09 08:55:54.59	13.05	6.76	
2025-01-09 08:55:54.79	13.04	6.77	
2025-01-09 08:55:55.00	13.03	6.79	
2025-01-09 08:55:55.20	13.03	6.80	
2025-01-09 08:55:55.41	13.02	6.82	
2025-01-09 08:55:55.61	13.01	6.84	
2025-01-09 08:55:55.82	13.01	6.85	
2025-01-09 08:55:56.02	13.00	6.87	
2025-01-09 08:55:56.23	12.99	6.89	
2025-01-09 08:55:56.44	12.99	6.90	
2025-01-09 08:55:56.64	12.98	6.92	
2025-01-09 08:55:56.85	12.97	6.94	
2025-01-09 08:55:57.05	12.97	6.95	
2025-01-09 08:55:57.26	12.96	6.97	
2025-01-09 08:55:57.46	12.95	6.98	
2025-01-09 08:55:57.67	12.95	7.00	
2025-01-09 08:55:57.87	12.94	7.02	
2025-01-09 08:55:58.08	12.93	7.03	
2025-01-09 08:55:58.28	12.93	7.05	
2025-01-09 08:55:58.49	12.92	7.07	
2025-01-09 08:55:58.69	12.91	7.08	
2025-01-09 08:55:58.90	12.91	7.10	
2025-01-09 08:55:59.10	12.90	7.12	
2025-01-09 08:55:59.31	12.89	7.13	
2025-01-09 08:55:59.51	12.89	7.15	
2025-01-09 08:55:59.72	12.88	7.17	
2025-01-09 08:55:59.92	12.87	7.18	
2025-01-09 08:56:00.14	12.87	7.20	
2025-01-09 08:56:00.35	12.86	7.22	
2025-01-09 08:56:00.56	12.85	7.23	
2025-01-09 08:56:00.76	12.85	7.25	
2025-01-09 08:56:00.97	12.84	7.27	
2025-01-09 08:56:01.17	12.83	7.28	
2025-01-09 08:56:01.38	12.83	7.30	
2025-01-09 08:56:01.58	12.82	7.32	
2025-01-09 08:56:01.79	12.81	7.33	
2025-01-09 08:56:01.99	12.81	7.35	
2025-01-09 08:56:02.20	12.80	7.37	
2025-01-09 08:56:02.40	12.79	7.38	
2025-01-09 08:56:02.61	12.79	7.40	
2025-01-09 08:56:02.81	12.78	7.41	
2025-01-09 08:56:03.02	12.77	7.43	
2025-01-09 08:56:03.22	12.77	7.45	
2025-01-09 08:56:03.43	12.76	7.47	
2025-01-09 08:56:03.64	12.75	7.48	
2025-01-09 08:56:03.84	12.74	7.50	
2025-01-09 08:56:04.04	12.74	7.52	
2025-01-09 08:56:04.25	12.73	7.53	
2025-01-09 08:56:04.47	12.72	7.55	
2025-01-09 08:56:04.67	12.72	7.57	
2025-01-09 08:56:04.88	12.71	7.58	
2025-01-09 08:56:05.08	12.70	7.60	
2025-01-09 08:56:05.28	12.70	7.62	
2025-01-09 08:56:05.49	12.69	7.63	
2025-01-09 08:56:05.69	12.68	7.65	
2025-01-09 08:56:05.90	12.67	7.67	
2025-01-09 08:56:06.10	12.67	7.68	
2025-01-09 08:56:06.31	12.66	7.70	
2025-01-09 08:56:06.53	12.65	7.72	
2025-01-09 08:56:06.73	12.65	7.74	
2025-01-09 08:56:06.94	12.64	7.75	
2025-01-09 08:56:07.14	12.63	7.77	
2025-01-09 08:56:07.35	12.63	7.79	
2025-01-09 08:56:07.55	12.62	7.80	
2025-01-09 08:56:07.76	12.61	7.82	
2025-01-09 08:56:07.96	12.60	7.84	
2025-01-09 08:56:08.17	12.60	7.85	
2025-01-09 08:56:08.37	12.59	7.87	
2025-01-09 08:56:08.58	12.58	7.89	
2025-01-09 08:56:08.78	12.58	7.90	
2025-01-09 08:56:08.99	12.57	7.92	
2025-01-09 08:56:09.20	12.56	7.94	
2025-01-09 08:56:09.40	12.55	7.96	
2025-01-09 08:56:09.61	12.55	7.97	
2025-01-09 08:56:09.81	12.54	7.99	
2025-01-09 08:56:10.02	12.53	8.01	
2025-01-09 08:56:10.22	12.53	8.02	
2025-01-09 08:56:10.43	12.52	8.04	
2025-01-09 08:56:10.63	12.51	8.06	
2025-01-09 08:56:10.84	12.50	8.08	
2025-01-09 08:56:11.04	12.50	8.09	
2025-01-09 08:56:11.25	12.49	8.11	
2025-01-09 08:56:11.45	12.48	8.13	
2025-01-09 08:56:11.66	12.47	8.14	
2025-01-09 08:56:11.86	12.47	8.16	
2025-01-09 08:56:12.07	12.46	8.18	
2025-01-09 08:56:12.28	12.45	8.20	
2025-01-09 08:56:12.48	12.45	8.21	
2025-01-09 08:56:12.69	12.44	8.23	
2025-01-09 08:56:12.89	12.43	8.25	
2025-01-09 08:56:13.09	12.42	8.26	
2025-01-09 08:56:13.30	12.42	8.28	
2025-01-09 08:56:13.51	12.41	8.30	
2025-01-09 08:56:13.71	12.40	8.32	
2025-01-09 08:56:13.91	12.39	8.33	
2025-01-09 08:56:14.13	12.39	8.35	
2025-01-09 08:56:14.34	12.38	8.37	
2025-01-09 08:56:14.54	12.37	8.39	
2025-01-09 08:56:14.75	12.36	8.41	
2025-01-09 08:56:14.95	12.36	8.42	
2025-01-09 08:56:15.17	12.35	8.44	
2025-01-09 08:56:15.37	12.34	8.46	
2025-01-09 08:56:15.58	12.33	8.48	
2025-01-09 08:56:15.79	12.33	8.49	
2025-01-09 08:56:15.99	12.32	8.51	
2025-01-09 08:56:16.19	12.31	8.53	
2025-01-09 08:56:16.40	12.30	8.55	
2025-01-09 08:56:16.60	12.30	8.56	
2025-01-09 08:56:16.81	12.29	8.58	
2025-01-09 08:56:17.02	12.28	8.60	
2025-01-09 08:56:17.22	12.27	8.62	
2025-01-09 08:56:17.43	12.27	8.63	
2025-01-09 08:56:17.63	12.26	8.65	
2025-01-09 08:56:17.84	12.25	8.67	
2025-01-09 08:56:18.04	12.24	8.69	
2025-01-09 08:56:18.25	12.23	8.70	
2025-01-09 08:56:18.45	12.23	8.72	
2025-01-09 08:56:18.66	12.22	8.74	
2025-01-09 08:56:18.87	12.21	8.76	
2025-01-09 08:56:19.07	12.20	8.77	
2025-01-09 08:56:19.28	12.20	8.79	
2025-01-09 08:56:19.48	12.19	8.81	
2025-01-09 08:56:19.69	12.18	8.83	
2025-01-09 08:56:19.89	12.17	8.84	
2025-01-09 08:56:20.10	12.17	8.86	
2025-01-09 08:56:20.30	12.16	8.88	
2025-01-09 08:56:20.51	12.15	8.90	
2025-01-09 08:56:20.71	12.14	8.92	
2025-01-09 08:56:20.92	12.13	8.93	
2025-01-09 08:56:21.12	12.13	8.95	
2025-01-09 08:56:21.33	12.12	8.97	
2025-01-09 08:56:21.53	12.11	8.99	
2025-01-09 08:56:21.74	12.10	9.00	
2025-01-09 08:56:21.95	12.10	9.02	
2025-01-09 08:56:22.16	12.09	9.04	
2025-01-09 08:56:22.36	12.08	9.06	
2025-01-09 08:56:22.57	12.07	9.08	
2025-01-09 08:56:22.77	12.06	9.09	
2025-01-09 08:56:22.98	12.06	9.11	
2025-01-09 08:56:23.18	12.05	9.13	
2025-01-09 08:56:23.39	12.04	9.15	
2025-01-09 08:56:23.59	12.03	9.17	
2025-01-09 08:56:23.80	12.02	9.18	
2025-01-09 08:56:24.00	12.02	9.20	
2025-01-09 08:56:24.21	12.01	9.22	
2025-01-09 08:56:24.42	12.00	9.24	
2025-01-09 08:56:24.62	11.99	9.26	
2025-01-09 08:56:24.82	11.98	9.27	
2025-01-09 08:56:25.03	11.98	9.29	
2025-01-09 08:56:25.24	11.97	9.31	
2025-01-09 08:56:25.44	11.96	9.33	
2025-01-09 08:56:25.65	11.95	9.35	
2025-01-09 08:56:25.87	11.94	9.37	
2025-01-09 08:56:26.07	11.94	9.38	
2025-01-09 08:56:26.28	11.93	9.40	
2025-01-09 08:56:26.48	11.92	9.42	
2025-01-09 08:56:26.69	11.91	9.44	
2025-01-09 08:56:26.89	11.90	9.46	
2025-01-09 08:56:27.10	11.90	9.48	
2025-01-09 08:56:27.30	11.89	9.49	
2025-01-09 08:56:27.51	11.88	9.51	
2025-01-09 08:56:27.72	11.87	9.53	
2025-01-09 08:56:27.92	11.86	9.55	
2025-01-09 08:56:28.12	11.85	9.57	
2025-01-09 08:56:28.33	11.85	9.58	
2025-01-09 08:56:28.53	11.84	9.60	
2025-01-09 08:56:28.74	11.83	9.62	
2025-01-09 08:56:28.94	11.82	9.64	
2025-01-09 08:56:29.15	11.81	9.66	
2025-01-09 08:56:29.35	11.81	9.68	
2025-01-09 08:56:29.56	11.80	9.69	
2025-01-09 08:56:29.77	11.79	9.71	
2025-01-09 08:56:29.97	11.78	9.73	
2025-01-09 08:56:30.17	11.77	9.75	
2025-01-09 08:56:30.38	11.76	9.77	
2025-01-09 08:56:30.58	11.76	9.79	
2025-01-09 08:56:30.79	11.75	9.80	
2025-01-09 08:56:31.00	11.74	9.82	
2025-01-09 08:56:31.20	11.73	9.84	
2025-01-09 08:56:31.41	11.72	9.86	
2025-01-09 08:56:31.61	11.71	9.88	
2025-01-09 08:56:31.82	11.70	9.90	
2025-01-09 08:56:32.02	11.70	9.92	
2025-01-09 08:56:32.23	11.69	9.93	
2025-01-09 08:56:32.43	11.68	9.95	
2025-01-09 08:56:32.64	11.67	9.97	
2025-01-09 08:56:32.84	11.66	9.99	
2025-01-09 08:56:33.05	11.65	10.01	
2025-01-09 08:56:33.25	11.65	10.03	
2025-01-09 08:56:33.46	11.64	10.05	
2025-01-09 08:56:33.66	11.63	10.06	
2025-01-09 08:56:33.87	11.62	10.08	
2025-01-09 08:56:34.08	11.61	10.10	
2025-01-09 08:56:34.28	11.60	10.12	
2025-01-09 08:56:34.49	11.59	10.14	
2025-01-09 08:56:34.69	11.59	10.16	
2025-01-09 08:56:34.90	11.58	10.18	
2025-01-09 08:56:35.10	11.57	10.20	
2025-01-09 08:56:35.31	11.56	10.21	
2025-01-09 08:56:35.52	11.55	10.23	
2025-01-09 08:56:35.73	11.54	10.25	
2025-01-09 08:56:35.93	11.53	10.27	
2025-01-09 08:56:36.13	11.53	10.29	
2025-01-09 08:56:36.34	11.52	10.31	
2025-01-09 08:56:36.54	11.51	10.33	
2025-01-09 08:56:36.75	11.50	10.35	
2025-01-09 08:56:36.95	11.49	10.37	
2025-01-09 08:56:37.16	11.48	10.38	
2025-01-09 08:56:37.36	11.47	10.40	
2025-01-09 08:56:37.57	11.46	10.42	
2025-01-09 08:56:37.77	11.46	10.44	
2025-01-09 08:56:37.98	11.45	10.46	
2025-01-09 08:56:38.18	11.44	10.48	
2025-01-09 08:56:38.39	11.43	10.50	
2025-01-09 08:56:38.59	11.42	10.52	
2025-01-09 08:56:38.79	11.41	10.54	
2025-01-09 08:56:39.00	11.40	10.55	
2025-01-09 08:56:39.21	11.39	10.57	
2025-01-09 08:56:39.41	11.38	10.59	
2025-01-09 08:56:39.61	11.38	10.61	
2025-01-09 08:56:39.82	11.37	10.63	
2025-01-09 08:56:40.03	11.36	10.65	
2025-01-09 08:56:40.23	11.35	10.67	
2025-01-09 08:56:40.44	11.34	10.69	
2025-01-09 08:56:40.64	11.33	10.71	
2025-01-09 08:56:40.85	11.32	10.73	
2025-01-09 08:56:41.05	11.31	10.75	
2025-01-09 08:56:41.26	11.30	10.77	
2025-01-09 08:56:41.46	11.30	10.78	
2025-01-09 08:56:41.67	11.29	10.80	
2025-01-09 08:56:41.87	11.28	10.82	
2025-01-09 08:56:42.08	11.27	10.84	
2025-01-09 08:56:42.28	11.26	10.86	
2025-01-09 08:56:42.49	11.25	10.88	
2025-01-09 08:56:42.69	11.24	10.90	
2025-01-09 08:56:42.91	11.23	10.92	
2025-01-09 08:56:43.11	11.22	10.94	
2025-01-09 08:56:43.32	11.21	10.96	
2025-01-09 08:56:43.52	11.20	10.98	
2025-01-09 08:56:43.73	11.19	11.00	
2025-01-09 08:56:43.93	11.19	11.02	
2025-01-09 08:56:44.14	11.18	11.04	
2025-01-09 08:56:44.34	11.17	11.06	
2025-01-09 08:56:44.55	11.16	11.08	
2025-01-09 08:56:44.75	11.15	11.10	
2025-01-09 08:56:44.96	11.14	11.12	
2025-01-09 08:56:45.16	11.13	11.13	
2025-01-09 08:56:45.37	11.12	11.15	
2025-01-09 08:56:45.57	11.11	11.17	
2025-01-09 08:56:45.79	11.10	11.19	
2025-01-09 08:56:46.00	11.09	11.21	
2025-01-09 08:56:46.20	11.08	11.23	
2025-01-09 08:56:46.41	11.07	11.25	
2025-01-09 08:56:46.62	11.06	11.27	
2025-01-09 08:56:46.82	11.05	11.29	
2025-01-09 08:56:47.03	11.04	11.31	
2025-01-09 08:56:47.24	11.04	11.33	
2025-01-09 08:56:47.45	11.03	11.35	
2025-01-09 08:56:47.65	11.02	11.37	
2025-01-09 08:56:47.86	11.01	11.39	
2025-01-09 08:56:48.07	11.00	11.41	
2025-01-09 08:56:48.27	10.99	11.43	
2025-01-09 08:56:48.47	10.98	11.45	
2025-01-09 08:56:48.68	10.97	11.47	
2025-01-09 08:56:48.89	10.96	11.49	
2025-01-09 08:56:49.09	10.95	11.51	
2025-01-09 08:56:49.30	10.94	11.53	
2025-01-09 08:56:49.50	10.93	11.55	
2025-01-09 08:56:49.71	10.92	11.57	
2025-01-09 08:56:49.91	10.91	11.59	
2025-01-09 08:56:50.12	10.90	11.61	
2025-01-09 08:56:50.32	10.89	11.63	
2025-01-09 08:56:50.53	10.88	11.65	
2025-01-09 08:56:50.73	10.87	11.67	
2025-01-09 08:56:50.94	10.86	11.69	
2025-01-09 08:56:51.14	10.85	11.71	
2025-01-09 08:56:51.34	10.84	11.73	
2025-01-09 08:56:51.55	10.83	11.75	
2025-01-09 08:56:51.75	10.82	11.77	
2025-01-09 08:56:51.96	10.81	11.79	
2025-01-09 08:56:52.16	10.80	11.81	
2025-01-09 08:56:52.36	10.79	11.83	
2025-01-09 08:56:52.57	10.78	11.85	
2025-01-09 08:56:52.78	10.77	11.87	
2025-01-09 08:56:52.98	10.77	11.89	
2025-01-09 08:56:53.19	10.75	11.91	
2025-01-09 08:56:53.39	10.75	11.93	
2025-01-09 08:56:53.59	10.74	11.95	
2025-01-09 08:56:53.80	10.73	11.97	
2025-01-09 08:56:54.01	10.72	11.99	
2025-01-09 08:56:54.21	10.71	12.01	
2025-01-09 08:56:54.42	10.70	12.03	
2025-01-09 08:56:54.63	10.69	12.05	
2025-01-09 08:56:54.84	10.67	12.08	
2025-01-09 08:56:55.04	10.67	12.09	
2025-01-09 08:56:55.25	10.65	12.12	
2025-01-09 08:56:55.46	10.64	12.14	
2025-01-09 08:56:55.66	10.63	12.16	
2025-01-09 08:56:55.86	10.62	12.18	
2025-01-09 08:56:56.07	10.61	12.20	
2025-01-09 08:56:56.27	10.60	12.22	
2025-01-09 08:56:56.48	10.59	12.24	
2025-01-09 08:56:56.68	10.58	12.26	
2025-01-09 08:56:56.89	10.57	12.28	
2025-01-09 08:56:57.09	10.56	12.30	
2025-01-09 08:56:57.30	10.55	12.32	
2025-01-09 08:56:57.51	10.54	12.34	
2025-01-09 08:56:57.71	10.53	12.36	
2025-01-09 08:56:57.92	10.52	12.38	
2025-01-09 08:56:58.13	10.51	12.40	
2025-01-09 08:56:58.33	10.50	12.42	
2025-01-09 08:56:58.54	10.49	12.45	
2025-01-09 08:56:58.74	10.48	12.47	
2025-01-09 08:56:58.95	10.47	12.49	
2025-01-09 08:56:59.16	10.46	12.51	
2025-01-09 08:56:59.36	10.45	12.53	
2025-01-09 08:56:59.56	10.44	12.55	
2025-01-09 08:56:59.77	10.43	12.57	
2025-01-09 08:56:59.97	10.42	12.59	
2025-01-09 08:57:00.18	10.41	12.61	
2025-01-09 08:57:00.38	10.40	12.63	
2025-01-09 08:57:00.59	10.39	12.65	
2025-01-09 08:57:00.79	10.38	12.67	
2025-01-09 08:57:01.00	10.37	12.69	
2025-01-09 08:57:01.20	10.36	12.71	
2025-01-09 08:57:01.41	10.35	12.74	
2025-01-09 08:57:01.62	10.34	12.76	
2025-01-09 08:57:01.82	10.32	12.78	
2025-01-09 08:57:02.03	10.31	12.80	
2025-01-09 08:57:02.23	10.30	12.82	
2025-01-09 08:57:02.43	10.29	12.84	
2025-01-09 08:57:02.64	10.28	12.86	
2025-01-09 08:57:02.85	10.27	12.88	
2025-01-09 08:57:03.05	10.26	12.90	
2025-01-09 08:57:03.26	10.25	12.93	
2025-01-09 08:57:03.46	10.24	12.95	
2025-01-09 08:57:03.67	10.23	12.97	
2025-01-09 08:57:03.87	10.22	12.99	
2025-01-09 08:57:04.08	10.21	13.01	
2025-01-09 08:57:04.28	10.20	13.03	
2025-01-09 08:57:04.49	10.19	13.05	
2025-01-09 08:57:04.69	10.18	13.07	
2025-01-09 08:57:04.90	10.16	13.10	
2025-01-09 08:57:05.10	10.15	13.12	
2025-01-09 08:57:05.30	10.14	13.14	
2025-01-09 08:57:05.51	10.13	13.16	
2025-01-09 08:57:05.72	10.12	13.18	
2025-01-09 08:57:05.92	10.11	13.20	
2025-01-09 08:57:06.13	10.10	13.22	
2025-01-09 08:57:06.35	10.09	13.25	
2025-01-09 08:57:06.55	10.08	13.27	
2025-01-09 08:57:06.75	10.07	13.29	
2025-01-09 08:57:06.96	10.05	13.31	
2025-01-09 08:57:07.17	10.04	13.33	
2025-01-09 08:57:07.37	10.03	13.35	
2025-01-09 08:57:07.57	10.02	13.37	
2025-01-09 08:57:07.78	10.01	13.40	
2025-01-09 08:57:07.99	10.00	13.42	
2025-01-09 08:57:08.19	9.99	13.44	
2025-01-09 08:57:08.40	9.98	13.46	
2025-01-09 08:57:08.60	9.97	13.48	
2025-01-09 08:57:08.81	9.95	13.50	
2025-01-09 08:57:09.01	9.94	13.53	
2025-01-09 08:57:09.22	9.93	13.55	
2025-01-09 08:57:09.42	9.92	13.57	
2025-01-09 08:57:09.63	9.91	13.59	
2025-01-09 08:57:09.83	9.90	13.61	
2025-01-09 08:57:10.04	9.89	13.63	
2025-01-09 08:57:10.24	9.88	13.66	
2025-01-09 08:57:10.45	9.86	13.68	
2025-01-09 08:57:10.67	9.85	13.70	
2025-01-09 08:57:10.87	9.84	13.72	
2025-01-09 08:57:11.08	9.83	13.74	
2025-01-09 08:57:11.28	9.82	13.77	
2025-01-09 08:57:11.49	9.81	13.79	
2025-01-09 08:57:11.69	9.79	13.81	
2025-01-09 08:57:11.90	9.78	13.83	
2025-01-09 08:57:12.10	9.77	13.85	
2025-01-09 08:57:12.31	9.76	13.88	
2025-01-09 08:57:12.52	9.75	13.90	
2025-01-09 08:57:12.72	9.74	13.92	
2025-01-09 08:57:12.93	9.73	13.94	
2025-01-09 08:57:13.13	9.71	13.96	
2025-01-09 08:57:13.34	9.70	13.99	
2025-01-09 08:57:13.54	9.69	14.01	
2025-01-09 08:57:13.75	9.68	14.03	
2025-01-09 08:57:13.95	9.67	14.05	
2025-01-09 08:57:14.16	9.66	14.08	
2025-01-09 08:57:14.36	9.64	14.10	
2025-01-09 08:57:14.57	9.63	14.12	
2025-01-09 08:57:14.77	9.62	14.14	
2025-01-09 08:57:14.98	9.61	14.16	
2025-01-09 08:57:15.19	9.60	14.19	
2025-01-09 08:57:15.39	9.59	14.21	
2025-01-09 08:57:15.60	9.57	14.23	
2025-01-09 08:57:15.80	9.56	14.25	
2025-01-09 08:57:16.01	9.55	14.28	
2025-01-09 08:57:16.21	9.54	14.30	
2025-01-09 08:57:16.42	9.53	14.32	
2025-01-09 08:57:16.62	9.51	14.34	
2025-01-09 08:57:16.83	9.50	14.37	
2025-01-09 08:57:17.03	9.49	14.39	
2025-01-09 08:57:17.24	9.48	14.41	
2025-01-09 08:57:17.44	9.47	14.43	
2025-01-09 08:57:17.65	9.45	14.46	
2025-01-09 08:57:17.85	9.44	14.48	
2025-01-09 08:57:18.06	9.43	14.50	
2025-01-09 08:57:18.26	9.42	14.52	
2025-01-09 08:57:18.47	9.41	14.55	
2025-01-09 08:57:18.67	9.39	14.57	
2025-01-09 08:57:18.88	9.38	14.59	
2025-01-09 08:57:19.08	9.37	14.61	
2025-01-09 08:57:19.29	9.36	14.64	
2025-01-09 08:57:19.49	9.34	14.66	
2025-01-09 08:57:19.70	9.33	14.68	
2025-01-09 08:57:19.91	9.32	14.71	
2025-01-09 08:57:20.11	9.31	14.73	
2025-01-09 08:57:20.31	9.30	14.75	
2025-01-09 08:57:20.52	9.28	14.77	
2025-01-09 08:57:20.72	9.27	14.80	
2025-01-09 08:57:20.93	9.26	14.82	
2025-01-09 08:57:21.13	9.25	14.84	
2025-01-09 08:57:21.34	9.23	14.87	
2025-01-09 08:57:21.54	9.22	14.89	
2025-01-09 08:57:21.75	9.21	14.91	
2025-01-09 08:57:21.95	9.20	14.93	
2025-01-09 08:57:22.16	9.18	14.96	
2025-01-09 08:57:22.36	9.17	14.98	
2025-01-09 08:57:22.57	9.16	15.00	
2025-01-09 08:57:22.77	9.15	15.03	
2025-01-09 08:57:22.98	9.13	15.05	
2025-01-09 08:57:23.18	9.12	15.07	
2025-01-09 08:57:23.39	9.11	15.10	
2025-01-09 08:57:23.59	9.10	15.12	
2025-01-09 08:57:23.80	9.08	15.14	
2025-01-09 08:57:24.02	9.07	15.17	
2025-01-09 08:57:24.22	9.06	15.19	
2025-01-09 08:57:24.43	9.04	15.21	
2025-01-09 08:57:24.63	9.03	15.24	
2025-01-09 08:57:24.84	9.02	15.26	
2025-01-09 08:57:25.04	9.01	15.28	
2025-01-09 08:57:25.25	8.99	15.31	
2025-01-09 08:57:25.45	8.98	15.33	
2025-01-09 08:57:25.66	8.97	15.35	
2025-01-09 08:57:25.86	8.95	15.38	
2025-01-09 08:57:26.07	8.94	15.40	
2025-01-09 08:57:26.27	8.93	15.42	
2025-01-09 08:57:26.47	8.92	15.45	
2025-01-09 08:57:26.68	8.90	15.47	
2025-01-09 08:57:26.89	8.89	15.49	
2025-01-09 08:57:27.09	8.88	15.52	
2025-01-09 08:57:27.30	8.86	15.54	
2025-01-09 08:57:27.50	8.85	15.56	
2025-01-09 08:57:27.71	8.84	15.59	
2025-01-09 08:57:27.91	8.82	15.61	
2025-01-09 08:57:28.12	8.81	15.64	
2025-01-09 08:57:28.32	8.80	15.66	
2025-01-09 08:57:28.52	8.78	15.68	
2025-01-09 08:57:28.74	8.77	15.71	
2025-01-09 08:57:28.95	8.76	15.73	
2025-01-09 08:57:29.15	8.74	15.76	
2025-01-09 08:57:29.36	8.73	15.78	
2025-01-09 08:57:29.57	8.72	15.80	
2025-01-09 08:57:29.77	8.70	15.83	
2025-01-09 08:57:29.97	8.69	15.85	
2025-01-09 08:57:30.18	8.68	15.88	
2025-01-09 08:57:30.38	8.66	15.90	
2025-01-09 08:57:30.59	8.65	15.92	
2025-01-09 08:57:30.79	8.64	15.95	
2025-01-09 08:57:31.00	8.62	15.97	
2025-01-09 08:57:31.20	8.61	16.00	
2025-01-09 08:57:31.41	8.60	16.02	
2025-01-09 08:57:31.61	8.58	16.04	
2025-01-09 08:57:31.82	8.57	16.07	
2025-01-09 08:57:32.02	8.56	16.09	
2025-01-09 08:57:32.23	8.54	16.12	
2025-01-09 08:57:32.43	8.53	16.14	
2025-01-09 08:57:32.64	8.51	16.16	
2025-01-09 08:57:32.84	8.50	16.19	
2025-01-09 08:57:33.05	8.49	16.21	
2025-01-09 08:57:33.25	8.47	16.24	
2025-01-09 08:57:33.46	8.46	16.26	
2025-01-09 08:57:33.66	8.45	16.29	
2025-01-09 08:57:33.87	8.43	16.31	
2025-01-09 08:57:34.07	8.42	16.33	
2025-01-09 08:57:34.28	8.40	16.36	
2025-01-09 08:57:34.48	8.39	16.38	
2025-01-09 08:57:34.68	8.38	16.41	
2025-01-09 08:57:34.89	8.36	16.43	
2025-01-09 08:57:35.11	8.35	16.46	
2025-01-09 08:57:35.32	8.33	16.48	
2025-01-09 08:57:35.52	8.32	16.51	
2025-01-09 08:57:35.73	8.31	16.53	
2025-01-09 08:57:35.93	8.29	16.56	
2025-01-09 08:57:36.13	8.28	16.58	
2025-01-09 08:57:36.34	8.26	16.61	
2025-01-09 08:57:36.55	8.25	16.63	
2025-01-09 08:57:36.75	8.23	16.66	
2025-01-09 08:57:36.96	8.22	16.68	
2025-01-09 08:57:37.16	8.21	16.71	
2025-01-09 08:57:37.36	8.19	16.73	
2025-01-09 08:57:37.57	8.18	16.76	
2025-01-09 08:57:37.77	8.16	16.78	
2025-01-09 08:57:37.98	8.15	16.80	
2025-01-09 08:57:38.18	8.14	16.83	
2025-01-09 08:57:38.39	8.12	16.85	
2025-01-09 08:57:38.59	8.11	16.88	
2025-01-09 08:57:38.80	8.09	16.90	
2025-01-09 08:57:39.00	8.08	16.93	
2025-01-09 08:57:39.21	8.06	16.95	
2025-01-09 08:57:39.41	8.05	16.98	
2025-01-09 08:57:39.62	8.03	17.00	
2025-01-09 08:57:39.83	8.02	17.03	
2025-01-09 08:57:40.03	8.00	17.06	
2025-01-09 08:57:40.24	7.99	17.08	
2025-01-09 08:57:40.44	7.97	17.11	
2025-01-09 08:57:40.65	7.96	17.13	
2025-01-09 08:57:40.85	7.95	17.16	
2025-01-09 08:57:41.06	7.93	17.18	
2025-01-09 08:57:41.26	7.92	17.21	
2025-01-09 08:57:41.47	7.90	17.23	
2025-01-09 08:57:41.67	7.89	17.26	
2025-01-09 08:57:41.88	7.87	17.28	
2025-01-09 08:57:42.08	7.86	17.31	
2025-01-09 08:57:42.29	7.84	17.33	
2025-01-09 08:57:42.51	7.83	17.36	
2025-01-09 08:57:42.71	7.81	17.39	
2025-01-09 08:57:42.92	7.80	17.41	
2025-01-09 08:57:43.12	7.78	17.44	
2025-01-09 08:57:43.33	7.77	17.46	
2025-01-09 08:57:43.53	7.75	17.49	
2025-01-09 08:57:43.73	7.74	17.51	
2025-01-09 08:57:43.94	7.72	17.54	
2025-01-09 08:57:44.15	7.70	17.57	
2025-01-09 08:57:44.35	7.69	17.59	
2025-01-09 08:57:44.56	7.67	17.62	
2025-01-09 08:57:44.76	7.66	17.64	
2025-01-09 08:57:44.96	7.64	17.67	
2025-01-09 08:57:45.17	7.63	17.69	
2025-01-09 08:57:45.37	7.61	17.72	
2025-01-09 08:57:45.58	7.60	17.75	
2025-01-09 08:57:45.78	7.58	17.77	
2025-01-09 08:57:45.99	7.57	17.80	
2025-01-09 08:57:46.20	7.55	17.82	
2025-01-09 08:57:46.40	7.54	17.85	
2025-01-09 08:57:46.61	7.52	17.88	
2025-01-09 08:57:46.81	7.50	17.90	
2025-01-09 08:57:47.01	7.49	17.93	
2025-01-09 08:57:47.22	7.47	17.95	
2025-01-09 08:57:47.43	7.46	17.98	
2025-01-09 08:57:47.63	7.44	18.01	
2025-01-09 08:57:47.83	7.43	18.03	
2025-01-09 08:57:48.04	7.41	18.06	
2025-01-09 08:57:48.25	7.39	18.09	
2025-01-09 08:57:48.45	7.38	18.11	
2025-01-09 08:57:48.66	7.36	18.14	
2025-01-09 08:57:48.86	7.35	18.16	
2025-01-09 08:57:49.07	7.33	18.19	
2025-01-09 08:57:49.27	7.32	18.22	
2025-01-09 08:57:49.48	7.30	18.24	
2025-01-09 08:57:49.68	7.28	18.27	
2025-01-09 08:57:49.89	7.27	18.30	
2025-01-09 08:57:50.09	7.25	18.32	
2025-01-09 08:57:50.30	7.24	18.35	
2025-01-09 08:57:50.50	7.22	18.38	
2025-01-09 08:57:50.71	7.20	18.40	
2025-01-09 08:57:50.92	7.19	18.43	
2025-01-09 08:57:51.13	7.17	18.46	
2025-01-09 08:57:51.34	7.15	18.49	
2025-01-09 08:57:51.54	7.14	18.51	
2025-01-09 08:57:51.75	7.12	18.54	
2025-01-09 08:57:51.95	7.10	18.56	
2025-01-09 08:57:52.16	7.09	18.59	
2025-01-09 08:57:52.36	7.07	18.62	
2025-01-09 08:57:52.57	7.06	18.65	
2025-01-09 08:57:52.77	7.04	18.67	
2025-01-09 08:57:52.98	7.02	18.70	
2025-01-09 08:57:53.18	7.01	18.73	
2025-01-09 08:57:53.39	6.99	18.75	
2025-01-09 08:57:53.59	6.97	18.78	
2025-01-09 08:57:53.80	6.96	18.81	
2025-01-09 08:57:54.01	6.94	18.84	
2025-01-09 08:57:54.21	6.92	18.86	
2025-01-09 08:57:54.42	6.91	18.89	
2025-01-09 08:57:54.62	6.89	18.92	
2025-01-09 08:57:54.83	6.87	18.94	
2025-01-09 08:57:55.03	6.86	18.97	
2025-01-09 08:57:55.24	6.84	19.00	
2025-01-09 08:57:55.44	6.82	19.03	
2025-01-09 08:57:55.65	6.80	19.05	
2025-01-09 08:57:55.85	6.79	19.08	
2025-01-09 08:57:56.06	6.77	19.11	
2025-01-09 08:57:56.26	6.75	19.13	
2025-01-09 08:57:56.48	6.74	19.16	
2025-01-09 08:57:56.69	6.72	19.19	
2025-01-09 08:57:56.90	6.70	19.22	
2025-01-09 08:57:57.10	6.68	19.25	
2025-01-09 08:57:57.31	6.67	19.28	
2025-01-09 08:57:57.51	6.65	19.30	
2025-01-09 08:57:57.72	6.63	19.33	
2025-01-09 08:57:57.92	6.61	19.36	
2025-01-09 08:57:58.13	6.60	19.39	
2025-01-09 08:57:58.34	6.58	19.41	
2025-01-09 08:57:58.54	6.56	19.44	
2025-01-09 08:57:58.74	6.55	19.47	
2025-01-09 08:57:58.95	6.53	19.50	
2025-01-09 08:57:59.15	6.51	19.52	
2025-01-09 08:57:59.36	6.49	19.55	
2025-01-09 08:57:59.56	6.48	19.58	
2025-01-09 08:57:59.76	6.46	19.61	
2025-01-09 08:57:59.97	6.44	19.64	
2025-01-09 08:58:00.19	6.42	19.67	
2025-01-09 08:58:00.39	6.40	19.69	
2025-01-09 08:58:00.60	6.39	19.72	
2025-01-09 08:58:00.81	6.37	19.75	
2025-01-09 08:58:01.02	6.35	19.78	
2025-01-09 08:58:01.22	6.33	19.81	
2025-01-09 08:58:01.43	6.31	19.84	
2025-01-09 08:58:01.64	6.29	19.87	
2025-01-09 08:58:01.84	6.28	19.89	
2025-01-09 08:58:02.05	6.26	19.92	
2025-01-09 08:58:02.25	6.24	19.95	
2025-01-09 08:58:02.46	6.22	19.98	
2025-01-09 08:58:02.67	6.20	20.01	
2025-01-09 08:58:02.87	6.19	20.04	
2025-01-09 08:58:03.07	6.17	20.06	
2025-01-09 08:58:03.28	6.15	20.09	
2025-01-09 08:58:03.48	6.13	20.12	
2025-01-09 08:58:03.69	6.11	20.15	
2025-01-09 08:58:03.89	6.10	20.18	
2025-01-09 08:58:04.10	6.08	20.21	
2025-01-09 08:58:04.30	6.06	20.23	
2025-01-09 08:58:04.51	6.04	20.26	
2025-01-09 08:58:04.72	6.02	20.29	
2025-01-09 08:58:04.92	6.00	20.32	
2025-01-09 08:58:05.12	5.98	20.35	
2025-01-09 08:58:05.33	5.97	20.38	
2025-01-09 08:58:05.54	5.95	20.41	
2025-01-09 08:58:05.74	5.93	20.44	
2025-01-09 08:58:05.94	5.91	20.46	
2025-01-09 08:58:06.15	5.89	20.49	
2025-01-09 08:58:06.35	5.87	20.52	
2025-01-09 08:58:06.56	5.85	20.55	
2025-01-09 08:58:06.76	5.83	20.58	
2025-01-09 08:58:06.97	5.82	20.61	
2025-01-09 08:58:07.17	5.80	20.64	
2025-01-09 08:58:07.38	5.78	20.67	
2025-01-09 08:58:07.58	5.76	20.70	
2025-01-09 08:58:07.79	5.74	20.73	
2025-01-09 08:58:08.00	5.72	20.76	
2025-01-09 08:58:08.20	5.70	20.79	
2025-01-09 08:58:08.40	5.68	20.81	
2025-01-09 08:58:08.61	5.66	20.84	
2025-01-09 08:58:08.81	5.64	20.87	
2025-01-09 08:58:09.02	5.62	20.90	
2025-01-09 08:58:09.22	5.60	20.93	
2025-01-09 08:58:09.43	5.59	20.96	
2025-01-09 08:58:09.63	5.57	20.99	
2025-01-09 08:58:09.84	5.55	21.02	
2025-01-09 08:58:10.04	5.53	21.05	
2025-01-09 08:58:10.25	5.51	21.08	
2025-01-09 08:58:10.45	5.49	21.11	
2025-01-09 08:58:10.66	5.47	21.14	
2025-01-09 08:58:10.86	5.45	21.17	
2025-01-09 08:58:11.07	5.43	21.20	
2025-01-09 08:58:11.27	5.41	21.23	
2025-01-09 08:58:11.48	5.39	21.26	
2025-01-09 08:58:11.68	5.37	21.29	
2025-01-09 08:58:11.89	5.35	21.32	
2025-01-09 08:58:12.09	5.33	21.35	
2025-01-09 08:58:12.30	5.31	21.38	
2025-01-09 08:58:12.52	5.29	21.41	
2025-01-09 08:58:12.72	5.27	21.44	
2025-01-09 08:58:12.93	5.25	21.47	
2025-01-09 08:58:13.13	5.23	21.50	
2025-01-09 08:58:13.34	5.21	21.53	
2025-01-09 08:58:13.54	5.19	21.56	
2025-01-09 08:58:13.75	5.17	21.59	
2025-01-09 08:58:13.96	5.15	21.62	
2025-01-09 08:58:14.16	5.13	21.65	
2025-01-09 08:58:14.37	5.11	21.68	
2025-01-09 08:58:14.59	5.08	21.72	
2025-01-09 08:58:14.79	5.06	21.75	
2025-01-09 08:58:15.00	5.04	21.78	
2025-01-09 08:58:15.20	5.02	21.81	
2025-01-09 08:58:15.41	5.00	21.84	
2025-01-09 08:58:15.61	4.98	21.87	
2025-01-09 08:58:15.82	4.96	21.90	
2025-01-09 08:58:16.02	4.94	21.93	
2025-01-09 08:58:16.23	4.92	21.96	
2025-01-09 08:58:16.44	4.90	21.99	
2025-01-09 08:58:16.64	4.88	22.02	
2025-01-09 08:58:16.84	4.86	22.05	
2025-01-09 08:58:17.05	4.83	22.08	
2025-01-09 08:58:17.26	4.81	22.12	
2025-01-09 08:58:17.46	4.79	22.15	
2025-01-09 08:58:17.67	4.77	22.18	
2025-01-09 08:58:17.89	4.75	22.21	
2025-01-09 08:58:18.10	4.73	22.24	
2025-01-09 08:58:18.30	4.71	22.27	
2025-01-09 08:58:18.51	4.68	22.30	
2025-01-09 08:58:18.71	4.66	22.33	
2025-01-09 08:58:18.92	4.64	22.37	
2025-01-09 08:58:19.12	4.62	22.40	
2025-01-09 08:58:19.33	4.60	22.43	
2025-01-09 08:58:19.53	4.58	22.46	
2025-01-09 08:58:19.74	4.55	22.49	
2025-01-09 08:58:19.96	4.53	22.52	
2025-01-09 08:58:20.16	4.51	22.56	
2025-01-09 08:58:20.37	4.49	22.59	
2025-01-09 08:58:20.58	4.47	22.62	
2025-01-09 08:58:20.78	4.44	22.65	
2025-01-09 08:58:20.99	4.42	22.68	
2025-01-09 08:58:21.19	4.40	22.71	
2025-01-09 08:58:21.39	4.38	22.74	
2025-01-09 08:58:21.60	4.36	22.78	
2025-01-09 08:58:21.80	4.34	22.81	
2025-01-09 08:58:22.01	4.31	22.84	
2025-01-09 08:58:22.21	4.29	22.87	
2025-01-09 08:58:22.42	4.27	22.90	
2025-01-09 08:58:22.62	4.25	22.93	
2025-01-09 08:58:22.83	4.22	22.97	
2025-01-09 08:58:23.03	4.20	23.00	
2025-01-09 08:58:23.24	4.18	23.03	
2025-01-09 08:58:23.44	4.16	23.06	
2025-01-09 08:58:23.65	4.13	23.10	
2025-01-09 08:58:23.86	4.11	23.13	
2025-01-09 08:58:24.06	4.09	23.16	
2025-01-09 08:58:24.26	4.07	23.19	
2025-01-09 08:58:24.47	4.04	23.22	
2025-01-09 08:58:24.67	4.02	23.26	
2025-01-09 08:58:24.88	4.00	23.29	
2025-01-09 08:58:25.09	3.97	23.32	
2025-01-09 08:58:25.29	3.95	23.35	
2025-01-09 08:58:25.50	3.93	23.39	
2025-01-09 08:58:25.70	3.91	23.42	
2025-01-09 08:58:25.91	3.88	23.45	
2025-01-09 08:58:26.11	3.86	23.48	
2025-01-09 08:58:26.32	3.84	23.52	
2025-01-09 08:58:26.52	3.81	23.55	
2025-01-09 08:58:26.73	3.79	23.58	
2025-01-09 08:58:26.93	3.77	23.61	
2025-01-09 08:58:27.14	3.74	23.65	
2025-01-09 08:58:27.34	3.72	23.68	
2025-01-09 08:58:27.55	3.70	23.71	
2025-01-09 08:58:27.75	3.67	23.74	
2025-01-09 08:58:27.96	3.65	23.78	
2025-01-09 08:58:28.17	3.62	23.81	
2025-01-09 08:58:28.37	3.60	23.84	
2025-01-09 08:58:28.57	3.58	23.88	
2025-01-09 08:58:28.78	3.55	23.91	
2025-01-09 08:58:28.99	3.53	23.94	
2025-01-09 08:58:29.19	3.51	23.98	
2025-01-09 08:58:29.40	3.48	24.01	
2025-01-09 08:58:29.62	3.46	24.04	
2025-01-09 08:58:29.82	3.43	24.08	
2025-01-09 08:58:30.03	3.41	24.11	
2025-01-09 08:58:30.24	3.38	24.15	
2025-01-09 08:58:30.44	3.36	24.18	
2025-01-09 08:58:30.66	3.33	24.21	
2025-01-09 08:58:30.87	3.31	24.25	
2025-01-09 08:58:31.07	3.28	24.28	
2025-01-09 08:58:31.27	3.26	24.31	
2025-01-09 08:58:31.48	3.23	24.35	
2025-01-09 08:58:31.68	3.21	24.38	
2025-01-09 08:58:31.89	3.19	24.41	
2025-01-09 08:58:32.10	3.16	24.45	
2025-01-09 08:58:32.30	3.14	24.48	
2025-01-09 08:58:32.51	3.11	24.52	
2025-01-09 08:58:32.71	3.09	24.55	
2025-01-09 08:58:32.92	3.06	24.58	
2025-01-09 08:58:33.13	3.04	24.62	
2025-01-09 08:58:33.33	3.01	24.65	
2025-01-09 08:58:33.54	2.99	24.69	
2025-01-09 08:58:33.74	2.96	24.72	
2025-01-09 08:58:33.95	2.93	24.75	
2025-01-09 08:58:34.15	2.91	24.79	
2025-01-09 08:58:34.36	2.88	24.82	
2025-01-09 08:58:34.56	2.86	24.86	
2025-01-09 08:58:34.77	2.83	24.89	
2025-01-09 08:58:34.97	2.81	24.92	
2025-01-09 08:58:35.18	2.78	24.96	
2025-01-09 08:58:35.38	2.76	24.99	
2025-01-09 08:58:35.59	2.73	25.03	
2025-01-09 08:58:35.79	2.71	25.06	
2025-01-09 08:58:36.00	2.68	25.10	
2025-01-09 08:58:36.20	2.65	25.13	
2025-01-09 08:58:36.41	2.63	25.17	
2025-01-09 08:58:36.61	2.60	25.20	
2025-01-09 08:58:36.82	2.58	25.24	
2025-01-09 08:58:37.02	2.55	25.27	
2025-01-09 08:58:37.23	2.52	25.30	
2025-01-09 08:58:37.43	2.50	25.34	
2025-01-09 08:58:37.64	2.47	25.37	
2025-01-09 08:58:37.84	2.44	25.41	
2025-01-09 08:58:38.06	2.42	25.45	
2025-01-09 08:58:38.27	2.39	25.48	
2025-01-09 08:58:38.47	2.36	25.52	
2025-01-09 08:58:38.68	2.34	25.55	
2025-01-09 08:58:38.88	2.31	25.59	
2025-01-09 08:58:39.09	2.28	25.62	
2025-01-09 08:58:39.30	2.26	25.66	
2025-01-09 08:58:39.50	2.23	25.69	
2025-01-09 08:58:39.71	2.20	25.73	
2025-01-09 08:58:39.91	2.17	25.76	
2025-01-09 08:58:40.12	2.15	25.80	
2025-01-09 08:58:40.32	2.12	25.83	
2025-01-09 08:58:40.53	2.09	25.87	
2025-01-09 08:58:40.73	2.07	25.90	
2025-01-09 08:58:40.94	2.04	25.94	
2025-01-09 08:58:41.15	2.01	25.98	
2025-01-09 08:58:41.35	1.98	26.01	
2025-01-09 08:58:41.56	1.96	26.05	
2025-01-09 08:58:41.76	1.93	26.08	
2025-01-09 08:58:41.97	1.90	26.12	
2025-01-09 08:58:42.17	1.87	26.15	
2025-01-09 08:58:42.38	1.84	26.19	
2025-01-09 08:58:42.58	1.82	26.23	
2025-01-09 08:58:42.79	1.79	26.26	
2025-01-09 08:58:42.99	1.76	26.30	
2025-01-09 08:58:43.20	1.73	26.33	
2025-01-09 08:58:43.40	1.71	26.37	
2025-01-09 08:58:43.61	1.68	26.41	
2025-01-09 08:58:43.81	1.65	26.44	
2025-01-09 08:58:44.02	1.62	26.48	
2025-01-09 08:58:44.22	1.59	26.51	
2025-01-09 08:58:44.42	1.56	26.55	
2025-01-09 08:58:44.63	1.53	26.59	
2025-01-09 08:58:44.84	1.51	26.62	
2025-01-09 08:58:45.04	1.48	26.66	
2025-01-09 08:58:45.24	1.45	26.69	
2025-01-09 08:58:45.45	1.42	26.73	
2025-01-09 08:58:45.66	1.39	26.77	
2025-01-09 08:58:45.86	1.36	26.81	
2025-01-09 08:58:46.07	1.33	26.84	
2025-01-09 08:58:46.27	1.30	26.88	
2025-01-09 08:58:46.48	1.27	26.92	
2025-01-09 08:58:46.68	1.25	26.95	
2025-01-09 08:58:46.89	1.22	26.99	
2025-01-09 08:58:47.09	1.19	27.03	
2025-01-09 08:58:47.30	1.16	27.06	
2025-01-09 08:58:47.51	1.13	27.10	
2025-01-09 08:58:47.71	1.10	27.14	
2025-01-09 08:58:47.91	1.07	27.17	
2025-01-09 08:58:48.12	1.04	27.21	
2025-01-09 08:58:48.32	1.01	27.25	
2025-01-09 08:58:48.53	0.98	27.29	
2025-01-09 08:58:48.73	0.95	27.32	
2025-01-09 08:58:48.94	0.92	27.36	
2025-01-09 08:58:49.14	0.89	27.40	
2025-01-09 08:58:49.35	0.86	27.43	
2025-01-09 08:58:49.55	0.83	27.47	
2025-01-09 08:58:49.75	0.80	27.51	
2025-01-09 08:58:49.96	0.77	27.55	
2025-01-09 08:58:50.16	0.74	27.58	
2025-01-09 08:58:50.37	0.71	27.62	
2025-01-09 08:58:50.57	0.68	27.66	
2025-01-09 08:58:50.78	0.65	27.70	
2025-01-09 08:58:50.98	0.62	27.73	
2025-01-09 08:58:51.19	0.58	27.77	
2025-01-09 08:58:51.39	0.55	27.81	
2025-01-09 08:58:51.60	0.52	27.85	
2025-01-09 08:58:51.81	0.49	27.89	
2025-01-09 08:58:52.01	0.46	27.92	
2025-01-09 08:58:52.22	0.43	27.96	
2025-01-09 08:58:52.42	0.40	28.00	
2025-01-09 08:58:52.63	0.36	28.04	
2025-01-09 08:58:52.83	0.33	28.08	
2025-01-09 08:58:53.04	0.30	28.11	
2025-01-09 08:58:53.25	0.27	28.15	
2025-01-09 08:58:53.45	0.24	28.19	
2025-01-09 08:58:53.66	0.21	28.23	
2025-01-09 08:58:53.86	0.17	28.27	
2025-01-09 08:58:54.08	0.14	28.31	
2025-01-09 08:58:54.29	0.11	28.35	
2025-01-09 08:58:54.49	0.08	28.39	
2025-01-09 08:58:54.70	0.04	28.43	
2025-01-09 08:58:54.90	0.01	28.46	
2025-01-09 08:58:55.10	359.98	28.50	
2025-01-09 08:58:55.31	359.95	28.54	
2025-01-09 08:58:55.51	359.91	28.58	
2025-01-09 08:58:55.72	359.88	28.62	
2025-01-09 08:58:55.93	359.85	28.66	
2025-01-09 08:58:56.13	359.82	28.70	
2025-01-09 08:58:56.33	359.78	28.73	
2025-01-09 08:58:56.54	359.75	28.77	
2025-01-09 08:58:56.75	359.72	28.81	
2025-01-09 08:58:56.95	359.68	28.85	
2025-01-09 08:58:57.16	359.65	28.89	
2025-01-09 08:58:57.36	359.62	28.93	
2025-01-09 08:58:57.57	359.58	28.97	
2025-01-09 08:58:57.77	359.55	29.01	
2025-01-09 08:58:57.98	359.52	29.05	
2025-01-09 08:58:58.18	359.48	29.09	
2025-01-09 08:58:58.39	359.45	29.13	
2025-01-09 08:58:58.59	359.41	29.17	
2025-01-09 08:58:58.80	359.38	29.21	
2025-01-09 08:58:59.00	359.35	29.24	
2025-01-09 08:58:59.21	359.31	29.29	
2025-01-09 08:58:59.43	359.27	29.33	
2025-01-09 08:58:59.63	359.24	29.37	
2025-01-09 08:58:59.84	359.21	29.41	
2025-01-09 08:59:00.04	359.17	29.45	
2025-01-09 08:59:00.24	359.14	29.49	
2025-01-09 08:59:00.44	359.10	29.52	
2025-01-09 08:59:00.65	359.07	29.57	
2025-01-09 08:59:00.86	359.03	29.61	
2025-01-09 08:59:01.06	359.00	29.65	
2025-01-09 08:59:01.27	358.96	29.69	
2025-01-09 08:59:01.47	358.93	29.73	
2025-01-09 08:59:01.68	358.89	29.77	
2025-01-09 08:59:01.88	358.86	29.81	
2025-01-09 08:59:02.09	358.82	29.85	
2025-01-09 08:59:02.29	358.79	29.89	
2025-01-09 08:59:02.50	358.75	29.93	
2025-01-09 08:59:02.70	358.72	29.97	
2025-01-09 08:59:02.91	358.68	30.01	
2025-01-09 08:59:03.11	358.65	30.05	
2025-01-09 08:59:03.32	358.61	30.09	
2025-01-09 08:59:03.52	358.57	30.13	
2025-01-09 08:59:03.72	358.54	30.17	
2025-01-09 08:59:03.93	358.50	30.21	
2025-01-09 08:59:04.13	358.47	30.25	
2025-01-09 08:59:04.34	358.43	30.29	
2025-01-09 08:59:04.55	358.39	30.33	
2025-01-09 08:59:04.75	358.35	30.37	
2025-01-09 08:59:04.95	358.32	30.41	
2025-01-09 08:59:05.16	358.28	30.46	
2025-01-09 08:59:05.36	358.25	30.50	
2025-01-09 08:59:05.57	358.21	30.54	
2025-01-09 08:59:05.77	358.17	30.58	
2025-01-09 08:59:05.98	358.13	30.62	
2025-01-09 08:59:06.18	358.10	30.66	
2025-01-09 08:59:06.39	358.06	30.70	
2025-01-09 08:59:06.60	358.02	30.75	
2025-01-09 08:59:06.80	357.98	30.79	
2025-01-09 08:59:07.00	357.95	30.83	
2025-01-09 08:59:07.21	357.91	30.87	
2025-01-09 08:59:07.41	357.87	30.91	
2025-01-09 08:59:07.62	357.83	30.95	
2025-01-09 08:59:07.82	357.79	30.99	
2025-01-09 08:59:08.03	357.75	31.04	
2025-01-09 08:59:08.23	357.72	31.08	
2025-01-09 08:59:08.45	357.68	31.12	
2025-01-09 08:59:08.65	357.64	31.16	
2025-01-09 08:59:08.85	357.60	31.20	
2025-01-09 08:59:09.06	357.56	31.25	
2025-01-09 08:59:09.26	357.52	31.29	
2025-01-09 08:59:09.47	357.48	31.33	
2025-01-09 08:59:09.67	357.45	31.37	
2025-01-09 08:59:09.88	357.40	31.41	
2025-01-09 08:59:10.08	357.37	31.46	
2025-01-09 08:59:10.29	357.33	31.50	
2025-01-09 08:59:10.49	357.29	31.54	
2025-01-09 08:59:10.70	357.25	31.58	
2025-01-09 08:59:10.90	357.21	31.63	
2025-01-09 08:59:11.10	357.17	31.67	
2025-01-09 08:59:11.31	357.13	31.71	
2025-01-09 08:59:11.52	357.09	31.75	
2025-01-09 08:59:11.72	357.05	31.80	
2025-01-09 08:59:11.93	357.01	31.84	
2025-01-09 08:59:12.13	356.97	31.88	
2025-01-09 08:59:12.34	356.93	31.92	
2025-01-09 08:59:12.54	356.89	31.97	
2025-01-09 08:59:12.75	356.84	32.01	
2025-01-09 08:59:12.96	356.80	32.05	
2025-01-09 08:59:13.16	356.76	32.10	
2025-01-09 08:59:13.36	356.72	32.14	
2025-01-09 08:59:13.57	356.68	32.18	
2025-01-09 08:59:13.77	356.64	32.22	
2025-01-09 08:59:13.98	356.60	32.27	
2025-01-09 08:59:14.19	356.56	32.31	
2025-01-09 08:59:14.40	356.51	32.36	
2025-01-09 08:59:14.61	356.47	32.40	
2025-01-09 08:59:14.81	356.43	32.44	
2025-01-09 08:59:15.02	356.39	32.49	
2025-01-09 08:59:15.22	356.34	32.53	
2025-01-09 08:59:15.43	356.30	32.58	
2025-01-09 08:59:15.63	356.26	32.62	
2025-01-09 08:59:15.84	356.22	32.66	
2025-01-09 08:59:16.04	356.18	32.70	
2025-01-09 08:59:16.25	356.13	32.75	
2025-01-09 08:59:16.45	356.09	32.79	
2025-01-09 08:59:16.66	356.05	32.84	
2025-01-09 08:59:16.86	356.00	32.88	
2025-01-09 08:59:17.07	355.96	32.93	
2025-01-09 08:59:17.28	355.91	32.97	
2025-01-09 08:59:17.48	355.87	33.01	
2025-01-09 08:59:17.69	355.83	33.06	
2025-01-09 08:59:17.89	355.79	33.10	
2025-01-09 08:59:18.10	355.74	33.15	
2025-01-09 08:59:18.30	355.70	33.19	
2025-01-09 08:59:18.51	355.65	33.24	
2025-01-09 08:59:18.71	355.61	33.28	
2025-01-09 08:59:18.91	355.57	33.32	
2025-01-09 08:59:19.12	355.52	33.37	
2025-01-09 08:59:19.33	355.47	33.41	
2025-01-09 08:59:19.53	355.43	33.46	
2025-01-09 08:59:19.74	355.39	33.50	
2025-01-09 08:59:19.94	355.34	33.55	
2025-01-09 08:59:20.16	355.29	33.59	
2025-01-09 08:59:20.36	355.25	33.64	
2025-01-09 08:59:20.57	355.20	33.68	
2025-01-09 08:59:20.77	355.16	33.73	
2025-01-09 08:59:20.98	355.11	33.77	
2025-01-09 08:59:21.18	355.07	33.82	
2025-01-09 08:59:21.39	355.02	33.86	
2025-01-09 08:59:21.59	354.97	33.91	
2025-01-09 08:59:21.80	354.93	33.95	
2025-01-09 08:59:22.00	354.88	34.00	
2025-01-09 08:59:22.21	354.83	34.04	
2025-01-09 08:59:22.41	354.79	34.09	
2025-01-09 08:59:22.62	354.74	34.13	
2025-01-09 08:59:22.82	354.70	34.18	
2025-01-09 08:59:23.03	354.65	34.22	
2025-01-09 08:59:23.23	354.60	34.27	
2025-01-09 08:59:23.44	354.55	34.31	
2025-01-09 08:59:23.64	354.51	34.36	
2025-01-09 08:59:23.85	354.46	34.41	
2025-01-09 08:59:24.05	354.41	34.45	
2025-01-09 08:59:24.26	354.36	34.50	
2025-01-09 08:59:24.46	354.32	34.54	
2025-01-09 08:59:24.67	354.27	34.59	
2025-01-09 08:59:24.87	354.22	34.63	
2025-01-09 08:59:25.07	354.17	34.68	
2025-01-09 08:59:25.28	354.12	34.72	
2025-01-09 08:59:25.48	354.08	34.77	
2025-01-09 08:59:25.69	354.03	34.82	
2025-01-09 08:59:25.90	353.98	34.86	
2025-01-09 08:59:26.10	353.93	34.91	
2025-01-09 08:59:26.31	353.88	34.96	
2025-01-09 08:59:26.51	353.83	35.00	
2025-01-09 08:59:26.71	353.78	35.05	
2025-01-09 08:59:26.92	353.73	35.09	
2025-01-09 08:59:27.12	353.68	35.14	
2025-01-09 08:59:27.33	353.63	35.19	
2025-01-09 08:59:27.53	353.58	35.23	
2025-01-09 08:59:27.74	353.53	35.28	
2025-01-09 08:59:27.94	353.48	35.32	
2025-01-09 08:59:28.16	353.43	35.37	
2025-01-09 08:59:28.37	353.38	35.42	
2025-01-09 08:59:28.57	353.33	35.47	
2025-01-09 08:59:28.78	353.27	35.52	
2025-01-09 08:59:28.99	353.22	35.56	
2025-01-09 08:59:29.19	353.17	35.61	
2025-01-09 08:59:29.39	353.12	35.65	
2025-01-09 08:59:29.60	353.07	35.70	
2025-01-09 08:59:29.80	353.02	35.75	
2025-01-09 08:59:30.01	352.96	35.80	
2025-01-09 08:59:30.22	352.91	35.85	
2025-01-09 08:59:30.42	352.86	35.89	
2025-01-09 08:59:30.63	352.81	35.94	
2025-01-09 08:59:30.83	352.76	35.99	
2025-01-09 08:59:31.04	352.70	36.03	
2025-01-09 08:59:31.24	352.65	36.08	
2025-01-09 08:59:31.45	352.60	36.13	
2025-01-09 08:59:31.65	352.54	36.17	
2025-01-09 08:59:31.86	352.49	36.22	
2025-01-09 08:59:32.06	352.44	36.27	
2025-01-09 08:59:32.27	352.38	36.32	
2025-01-09 08:59:32.47	352.33	36.36	
2025-01-09 08:59:32.68	352.27	36.41	
2025-01-09 08:59:32.88	352.22	36.46	
2025-01-09 08:59:33.09	352.17	36.51	
2025-01-09 08:59:33.29	352.11	36.56	
2025-01-09 08:59:33.49	352.06	36.60	
2025-01-09 08:59:33.70	352.00	36.65	
2025-01-09 08:59:33.91	351.95	36.70	
2025-01-09 08:59:34.11	351.89	36.75	
2025-01-09 08:59:34.32	351.84	36.80	
2025-01-09 08:59:34.52	351.78	36.84	
2025-01-09 08:59:34.73	351.72	36.89	
2025-01-09 08:59:34.93	351.67	36.94	
2025-01-09 08:59:35.14	351.61	36.99	
2025-01-09 08:59:35.34	351.56	37.03	
2025-01-09 08:59:35.55	351.50	37.08	
2025-01-09 08:59:35.75	351.45	37.13	
2025-01-09 08:59:35.96	351.39	37.18	
2025-01-09 08:59:36.17	351.33	37.23	
2025-01-09 08:59:36.37	351.27	37.28	
2025-01-09 08:59:36.58	351.22	37.33	
2025-01-09 08:59:36.79	351.16	37.38	
2025-01-09 08:59:37.00	351.10	37.43	
2025-01-09 08:59:37.20	351.04	37.47	
2025-01-09 08:59:37.41	350.98	37.52	
2025-01-09 08:59:37.61	350.93	37.57	
2025-01-09 08:59:37.81	350.87	37.62	
2025-01-09 08:59:38.02	350.81	37.67	
2025-01-09 08:59:38.23	350.75	37.72	
2025-01-09 08:59:38.43	350.69	37.77	
2025-01-09 08:59:38.64	350.63	37.82	
2025-01-09 08:59:38.84	350.57	37.86	
2025-01-09 08:59:39.05	350.51	37.91	
2025-01-09 08:59:39.25	350.45	37.96	
2025-01-09 08:59:39.46	350.39	38.01	
2025-01-09 08:59:39.67	350.33	38.06	
2025-01-09 08:59:39.87	350.27	38.11	
2025-01-09 08:59:40.07	350.21	38.16	
2025-01-09 08:59:40.28	350.15	38.21	
2025-01-09 08:59:40.49	350.09	38.26	
2025-01-09 08:59:40.69	350.03	38.31	
2025-01-09 08:59:40.90	349.97	38.36	
2025-01-09 08:59:41.10	349.91	38.41	
2025-01-09 08:59:41.31	349.85	38.46	
2025-01-09 08:59:41.51	349.78	38.50	
2025-01-09 08:59:41.72	349.72	38.56	
2025-01-09 08:59:41.93	349.66	38.61	
2025-01-09 08:59:42.13	349.60	38.65	
2025-01-09 08:59:42.34	349.53	38.71	
2025-01-09 08:59:42.54	349.47	38.75	
2025-01-09 08:59:42.75	349.41	38.80	
2025-01-09 08:59:42.95	349.35	38.85	
2025-01-09 08:59:43.16	349.28	38.90	
2025-01-09 08:59:43.37	349.22	38.95	
2025-01-09 08:59:43.57	349.15	39.00	
2025-01-09 08:59:43.78	349.09	39.05	
2025-01-09 08:59:43.99	349.02	39.11	
2025-01-09 08:59:44.19	348.96	39.15	
2025-01-09 08:59:44.40	348.90	39.21	
2025-01-09 08:59:44.60	348.83	39.25	
2025-01-09 08:59:44.81	348.77	39.31	
2025-01-09 08:59:45.01	348.70	39.35	
2025-01-09 08:59:45.22	348.64	39.41	
2025-01-09 08:59:45.42	348.57	39.45	
2025-01-09 08:59:45.62	348.51	39.50	
2025-01-09 08:59:45.83	348.44	39.55	
2025-01-09 08:59:46.03	348.38	39.60	
2025-01-09 08:59:46.24	348.31	39.66	
2025-01-09 08:59:46.44	348.24	39.70	
2025-01-09 08:59:46.65	348.17	39.76	
2025-01-09 08:59:46.85	348.11	39.80	
2025-01-09 08:59:47.06	348.04	39.86	
2025-01-09 08:59:47.27	347.97	39.91	
2025-01-09 08:59:47.47	347.91	39.96	
2025-01-09 08:59:47.68	347.84	40.01	
2025-01-09 08:59:47.88	347.77	40.06	
2025-01-09 08:59:48.08	347.70	40.11	
2025-01-09 08:59:48.29	347.63	40.16	
2025-01-09 08:59:48.49	347.57	40.21	
2025-01-09 08:59:48.70	347.50	40.26	
2025-01-09 08:59:48.91	347.42	40.31	
2025-01-09 08:59:49.11	347.36	40.36	
2025-01-09 08:59:49.32	347.29	40.41	
2025-01-09 08:59:49.52	347.22	40.46	
2025-01-09 08:59:49.73	347.15	40.52	
2025-01-09 08:59:49.93	347.08	40.57	
2025-01-09 08:59:50.14	347.01	40.62	
2025-01-09 08:59:50.34	346.94	40.67	
2025-01-09 08:59:50.54	346.87	40.72	
2025-01-09 08:59:50.75	346.79	40.77	
2025-01-09 08:59:50.95	346.72	40.82	
2025-01-09 08:59:51.16	346.65	40.87	
2025-01-09 08:59:51.37	346.58	40.92	
2025-01-09 08:59:51.58	346.50	40.98	
2025-01-09 08:59:51.80	346.43	41.03	
2025-01-09 08:59:52.00	346.36	41.08	
2025-01-09 08:59:52.21	346.28	41.13	
2025-01-09 08:59:52.41	346.21	41.18	
2025-01-09 08:59:52.62	346.13	41.23	
2025-01-09 08:59:52.82	346.06	41.28	
2025-01-09 08:59:53.03	345.99	41.34	
2025-01-09 08:59:53.23	345.92	41.39	
2025-01-09 08:59:53.44	345.84	41.44	
2025-01-09 08:59:53.65	345.76	41.49	
2025-01-09 08:59:53.86	345.69	41.54	
2025-01-09 08:59:54.07	345.61	41.60	
2025-01-09 08:59:54.28	345.53	41.65	
2025-01-09 08:59:54.48	345.46	41.70	
2025-01-09 08:59:54.69	345.38	41.75	
2025-01-09 08:59:54.89	345.31	41.80	
2025-01-09 08:59:55.09	345.23	41.85	
2025-01-09 08:59:55.30	345.15	41.91	
2025-01-09 08:59:55.51	345.08	41.96	
2025-01-09 08:59:55.71	345.00	42.01	
2025-01-09 08:59:55.91	344.93	42.06	
2025-01-09 08:59:56.12	344.85	42.11	
2025-01-09 08:59:56.32	344.77	42.16	
2025-01-09 08:59:56.53	344.69	42.21	
2025-01-09 08:59:56.74	344.61	42.27	
2025-01-09 08:59:56.94	344.53	42.32	
2025-01-09 08:59:57.14	344.46	42.37	
2025-01-09 08:59:57.35	344.38	42.42	
2025-01-09 08:59:57.56	344.29	42.47	
2025-01-09 08:59:57.76	344.22	42.52	
2025-01-09 08:59:57.97	344.14	42.58	
2025-01-09 08:59:58.17	344.06	42.63	
2025-01-09 08:59:58.37	343.98	42.68	
2025-01-09 08:59:58.58	343.90	42.73	
2025-01-09 08:59:58.78	343.82	42.78	
2025-01-09 08:59:58.99	343.73	42.83	
2025-01-09 08:59:59.19	343.65	42.88	
2025-01-09 08:59:59.39	343.57	42.93	
2025-01-09 08:59:59.60	343.49	42.99	
2025-01-09 08:59:59.80	343.41	43.04	
2025-01-09 09:00:00.01	343.33	43.09	
2025-01-09 09:00:00.22	343.24	43.14	
2025-01-09 09:00:00.43	343.16	43.20	
2025-01-09 09:00:00.63	343.08	43.25	
2025-01-09 09:00:00.83	342.99	43.30	
2025-01-09 09:00:01.04	342.91	43.35	
2025-01-09 09:00:01.25	342.82	43.40	
2025-01-09 09:00:01.45	342.74	43.45	
2025-01-09 09:00:01.65	342.66	43.50	
2025-01-09 09:00:01.86	342.57	43.56	
2025-01-09 09:00:02.06	342.49	43.61	
2025-01-09 09:00:02.27	342.40	43.66	
2025-01-09 09:00:02.49	342.31	43.72	
2025-01-09 09:00:02.69	342.22	43.77	
2025-01-09 09:00:02.90	342.13	43.82	
2025-01-09 09:00:03.10	342.05	43.87	
2025-01-09 09:00:03.31	341.96	43.92	
2025-01-09 09:00:03.52	341.87	43.98	
2025-01-09 09:00:03.72	341.79	44.03	
2025-01-09 09:00:03.93	341.70	44.08	
2025-01-09 09:00:04.13	341.61	44.13	
2025-01-09 09:00:04.34	341.52	44.18	
2025-01-09 09:00:04.54	341.43	44.24	
2025-01-09 09:00:04.75	341.34	44.29	
2025-01-09 09:00:04.95	341.25	44.34	
2025-01-09 09:00:05.16	341.16	44.39	
2025-01-09 09:00:05.36	341.07	44.44	
2025-01-09 09:00:05.57	340.98	44.50	
2025-01-09 09:00:05.77	340.89	44.55	
2025-01-09 09:00:05.97	340.81	44.60	
2025-01-09 09:00:06.18	340.71	44.65	
2025-01-09 09:00:06.39	340.62	44.70	
2025-01-09 09:00:06.59	340.53	44.75	
2025-01-09 09:00:06.79	340.44	44.80	
2025-01-09 09:00:07.00	340.34	44.86	
2025-01-09 09:00:07.20	340.25	44.91	
2025-01-09 09:00:07.41	340.16	44.96	
2025-01-09 09:00:07.61	340.07	45.01	
2025-01-09 09:00:07.82	339.97	45.06	
2025-01-09 09:00:08.02	339.88	45.11	
2025-01-09 09:00:08.23	339.78	45.17	
2025-01-09 09:00:08.43	339.69	45.22	
2025-01-09 09:00:08.64	339.59	45.27	
2025-01-09 09:00:08.84	339.50	45.32	
2025-01-09 09:00:09.05	339.40	45.37	
2025-01-09 09:00:09.25	339.31	45.42	
2025-01-09 09:00:09.46	339.21	45.48	
2025-01-09 09:00:09.66	339.12	45.53	
2025-01-09 09:00:09.87	339.02	45.58	
2025-01-09 09:00:10.07	338.92	45.63	
2025-01-09 09:00:10.28	338.82	45.68	
2025-01-09 09:00:10.49	338.72	45.73	
2025-01-09 09:00:10.69	338.63	45.78	
2025-01-09 09:00:10.89	338.53	45.83	
2025-01-09 09:00:11.10	338.43	45.89	
2025-01-09 09:00:11.30	338.33	45.94	
2025-01-09 09:00:11.51	338.23	45.99	
2025-01-09 09:00:11.71	338.14	46.04	
2025-01-09 09:00:11.92	338.03	46.09	
2025-01-09 09:00:12.12	337.94	46.14	
2025-01-09 09:00:12.33	337.83	46.19	
2025-01-09 09:00:12.53	337.73	46.24	
2025-01-09 09:00:12.74	337.63	46.30	
2025-01-09 09:00:12.95	337.53	46.35	
2025-01-09 09:00:13.15	337.43	46.40	
2025-01-09 09:00:13.36	337.32	46.45	
2025-01-09 09:00:13.56	337.22	46.50	
2025-01-09 09:00:13.77	337.12	46.55	
2025-01-09 09:00:13.98	337.01	46.61	
2025-01-09 09:00:14.18	336.91	46.66	
2025-01-09 09:00:14.38	336.81	46.70	
2025-01-09 09:00:14.59	336.70	46.76	
2025-01-09 09:00:14.80	336.59	46.81	
2025-01-09 09:00:15.00	336.49	46.86	
2025-01-09 09:00:15.21	336.38	46.91	
2025-01-09 09:00:15.41	336.28	46.96	
2025-01-09 09:00:15.62	336.17	47.01	
2025-01-09 09:00:15.82	336.07	47.06	
2025-01-09 09:00:16.03	335.96	47.11	
2025-01-09 09:00:16.23	335.85	47.16	
2025-01-09 09:00:16.44	335.74	47.21	
2025-01-09 09:00:16.64	335.64	47.26	
2025-01-09 09:00:16.85	335.53	47.31	
2025-01-09 09:00:17.05	335.42	47.36	
2025-01-09 09:00:17.26	335.31	47.41	
2025-01-09 09:00:17.46	335.20	47.46	
2025-01-09 09:00:17.66	335.09	47.51	
2025-01-09 09:00:17.87	334.98	47.56	
2025-01-09 09:00:18.08	334.87	47.62	
2025-01-09 09:00:18.28	334.76	47.66	
2025-01-09 09:00:18.49	334.65	47.71	
2025-01-09 09:00:18.69	334.54	47.76	
2025-01-09 09:00:18.90	334.42	47.81	
2025-01-09 09:00:19.10	334.31	47.86	
2025-01-09 09:00:19.31	334.20	47.91	
2025-01-09 09:00:19.51	334.09	47.96	
2025-01-09 09:00:19.72	333.97	48.01	
2025-01-09 09:00:19.92	333.86	48.06	
2025-01-09 09:00:20.13	333.74	48.11	
2025-01-09 09:00:20.33	333.63	48.16	
2025-01-09 09:00:20.53	333.52	48.21	
2025-01-09 09:00:20.74	333.40	48.26	
2025-01-09 09:00:20.95	333.28	48.31	
2025-01-09 09:00:21.15	333.17	48.36	
2025-01-09 09:00:21.36	333.05	48.41	
2025-01-09 09:00:21.56	332.94	48.46	
2025-01-09 09:00:21.77	332.82	48.51	
2025-01-09 09:00:21.97	332.70	48.55	
2025-01-09 09:00:22.18	332.58	48.60	
2025-01-09 09:00:22.38	332.47	48.65	
2025-01-09 09:00:22.59	332.34	48.70	
2025-01-09 09:00:22.80	332.22	48.75	
2025-01-09 09:00:23.00	332.11	48.80	
2025-01-09 09:00:23.21	331.98	48.85	
2025-01-09 09:00:23.41	331.87	48.89	
2025-01-09 09:00:23.62	331.74	48.94	
2025-01-09 09:00:23.84	331.61	48.99	
2025-01-09 09:00:24.04	331.49	49.04	
2025-01-09 09:00:24.25	331.37	49.09	
2025-01-09 09:00:24.45	331.25	49.14	
2025-01-09 09:00:24.66	331.13	49.19	
2025-01-09 09:00:24.88	330.99	49.24	
2025-01-09 09:00:25.08	330.87	49.28	
2025-01-09 09:00:25.29	330.75	49.33	
2025-01-09 09:00:25.49	330.63	49.38	
2025-01-09 09:00:25.70	330.50	49.43	
2025-01-09 09:00:25.90	330.38	49.47	
2025-01-09 09:00:26.11	330.25	49.52	
2025-01-09 09:00:26.31	330.13	49.57	
2025-01-09 09:00:26.52	330.00	49.62	
2025-01-09 09:00:26.72	329.87	49.66	
2025-01-09 09:00:26.93	329.74	49.71	
2025-01-09 09:00:27.13	329.62	49.76	
2025-01-09 09:00:27.34	329.49	49.80	
2025-01-09 09:00:27.55	329.36	49.85	
2025-01-09 09:00:27.75	329.23	49.90	
2025-01-09 09:00:27.96	329.10	49.94	
2025-01-09 09:00:28.16	328.97	49.99	
2025-01-09 09:00:28.37	328.84	50.04	
2025-01-09 09:00:28.57	328.71	50.08	
2025-01-09 09:00:28.78	328.58	50.13	
2025-01-09 09:00:28.98	328.45	50.17	
2025-01-09 09:00:29.19	328.32	50.22	
2025-01-09 09:00:29.39	328.19	50.26	
2025-01-09 09:00:29.60	328.05	50.31	
2025-01-09 09:00:29.80	327.92	50.35	
2025-01-09 09:00:30.01	327.79	50.40	
2025-01-09 09:00:30.21	327.66	50.44	
2025-01-09 09:00:30.42	327.52	50.49	
2025-01-09 09:00:30.62	327.39	50.53	
2025-01-09 09:00:30.83	327.25	50.58	
2025-01-09 09:00:31.03	327.12	50.62	
2025-01-09 09:00:31.24	326.98	50.67	
2025-01-09 09:00:31.44	326.85	50.71	
2025-01-09 09:00:31.65	326.71	50.76	
2025-01-09 09:00:31.85	326.58	50.80	
2025-01-09 09:00:32.06	326.44	50.85	
2025-01-09 09:00:32.26	326.30	50.89	
2025-01-09 09:00:32.47	326.16	50.93	
2025-01-09 09:00:32.68	326.02	50.98	
2025-01-09 09:00:32.88	325.89	51.02	
2025-01-09 09:00:33.09	325.74	51.06	
2025-01-09 09:00:33.29	325.61	51.11	
2025-01-09 09:00:33.49	325.47	51.15	
2025-01-09 09:00:33.70	325.33	51.19	
2025-01-09 09:00:33.90	325.19	51.23	
2025-01-09 09:00:34.11	325.05	51.28	
2025-01-09 09:00:34.31	324.91	51.32	
2025-01-09 09:00:34.52	324.76	51.36	
2025-01-09 09:00:34.72	324.62	51.40	
2025-01-09 09:00:34.93	324.48	51.45	
2025-01-09 09:00:35.14	324.33	51.49	
2025-01-09 09:00:35.34	324.19	51.53	
2025-01-09 09:00:35.56	324.04	51.58	
2025-01-09 09:00:35.77	323.89	51.62	
2025-01-09 09:00:35.97	323.75	51.66	
2025-01-09 09:00:36.18	323.60	51.70	
2025-01-09 09:00:36.38	323.46	51.74	
2025-01-09 09:00:36.59	323.31	51.78	
2025-01-09 09:00:36.80	323.16	51.82	
2025-01-09 09:00:37.00	323.01	51.86	
2025-01-09 09:00:37.21	322.86	51.90	
2025-01-09 09:00:37.42	322.71	51.95	
2025-01-09 09:00:37.62	322.57	51.98	
2025-01-09 09:00:37.82	322.42	52.02	
2025-01-09 09:00:38.03	322.27	52.06	
2025-01-09 09:00:38.23	322.13	52.10	
2025-01-09 09:00:38.44	321.97	52.14	
2025-01-09 09:00:38.64	321.83	52.18	
2025-01-09 09:00:38.85	321.67	52.22	
2025-01-09 09:00:39.05	321.53	52.26	
2025-01-09 09:00:39.26	321.37	52.30	
2025-01-09 09:00:39.46	321.22	52.34	
2025-01-09 09:00:39.67	321.07	52.38	
2025-01-09 09:00:39.88	320.91	52.41	
2025-01-09 09:00:40.09	320.75	52.45	
2025-01-09 09:00:40.30	320.60	52.49	
2025-01-09 09:00:40.51	320.44	52.53	
2025-01-09 09:00:40.71	320.29	52.57	
2025-01-09 09:00:40.91	320.14	52.60	
2025-01-09 09:00:41.12	319.98	52.64	
2025-01-09 09:00:41.33	319.82	52.68	
2025-01-09 09:00:41.53	319.67	52.72	
2025-01-09 09:00:41.74	319.51	52.75	
2025-01-09 09:00:41.95	319.35	52.79	
2025-01-09 09:00:42.16	319.19	52.83	
2025-01-09 09:00:42.37	319.03	52.86	
2025-01-09 09:00:42.57	318.87	52.90	
2025-01-09 09:00:42.78	318.71	52.93	
2025-01-09 09:00:42.98	318.56	52.97	
2025-01-09 09:00:43.18	318.40	53.00	
2025-01-09 09:00:43.39	318.24	53.04	
2025-01-09 09:00:43.60	318.08	53.08	
2025-01-09 09:00:43.80	317.92	53.11	
2025-01-09 09:00:44.01	317.76	53.14	
2025-01-09 09:00:44.21	317.60	53.18	
2025-01-09 09:00:44.42	317.43	53.21	
2025-01-09 09:00:44.62	317.28	53.24	
2025-01-09 09:00:44.83	317.11	53.28	
2025-01-09 09:00:45.03	316.95	53.31	
2025-01-09 09:00:45.24	316.79	53.35	
2025-01-09 09:00:45.44	316.63	53.38	
2025-01-09 09:00:45.65	316.46	53.41	
2025-01-09 09:00:45.85	316.30	53.44	
2025-01-09 09:00:46.06	316.13	53.48	
2025-01-09 09:00:46.27	315.96	53.51	
2025-01-09 09:00:46.48	315.79	53.54	
2025-01-09 09:00:46.69	315.63	53.57	
2025-01-09 09:00:46.89	315.46	53.60	
2025-01-09 09:00:47.10	315.29	53.64	
2025-01-09 09:00:47.30	315.13	53.67	
2025-01-09 09:00:47.51	314.96	53.70	
2025-01-09 09:00:47.71	314.80	53.73	
2025-01-09 09:00:47.92	314.63	53.76	
2025-01-09 09:00:48.13	314.46	53.79	
2025-01-09 09:00:48.34	314.28	53.82	
2025-01-09 09:00:48.55	314.11	53.85	
2025-01-09 09:00:48.75	313.95	53.88	
2025-01-09 09:00:48.96	313.77	53.91	
2025-01-09 09:00:49.16	313.61	53.94	
2025-01-09 09:00:49.37	313.43	53.97	
2025-01-09 09:00:49.57	313.27	53.99	
2025-01-09 09:00:49.78	313.09	54.02	
2025-01-09 09:00:49.98	312.93	54.05	
2025-01-09 09:00:50.19	312.75	54.08	
2025-01-09 09:00:50.39	312.58	54.10	
2025-01-09 09:00:50.60	312.41	54.13	
2025-01-09 09:00:50.81	312.23	54.16	
2025-01-09 09:00:51.01	312.06	54.19	
2025-01-09 09:00:51.22	311.89	54.21	
2025-01-09 09:00:51.42	311.72	54.24	
2025-01-09 09:00:51.62	311.55	54.26	
2025-01-09 09:00:51.83	311.37	54.29	
2025-01-09 09:00:52.03	311.20	54.31	
2025-01-09 09:00:52.24	311.02	54.34	
2025-01-09 09:00:52.45	310.84	54.37	
2025-01-09 09:00:52.65	310.67	54.39	
2025-01-09 09:00:52.86	310.49	54.41	
2025-01-09 09:00:53.06	310.32	54.44	
2025-01-09 09:00:53.26	310.15	54.46	
2025-01-09 09:00:53.47	309.97	54.49	
2025-01-09 09:00:53.67	309.80	54.51	
2025-01-09 09:00:53.88	309.62	54.53	
2025-01-09 09:00:54.08	309.44	54.55	
2025-01-09 09:00:54.29	309.26	54.58	
2025-01-09 09:00:54.49	309.09	54.60	
2025-01-09 09:00:54.70	308.91	54.62	
2025-01-09 09:00:54.90	308.73	54.64	
2025-01-09 09:00:55.11	308.55	54.67	
2025-01-09 09:00:55.31	308.37	54.69	
2025-01-09 09:00:55.52	308.19	54.71	
2025-01-09 09:00:55.72	308.02	54.73	
2025-01-09 09:00:55.93	307.83	54.75	
2025-01-09 09:00:56.13	307.66	54.77	
2025-01-09 09:00:56.34	307.47	54.79	
2025-01-09 09:00:56.54	307.30	54.81	
2025-01-09 09:00:56.75	307.11	54.83	
2025-01-09 09:00:56.96	306.93	54.85	
2025-01-09 09:00:57.17	306.74	54.87	
2025-01-09 09:00:57.38	306.55	54.89	
2025-01-09 09:00:57.58	306.38	54.90	
2025-01-09 09:00:57.79	306.19	54.92	
2025-01-09 09:00:57.99	306.01	54.94	
2025-01-09 09:00:58.19	305.84	54.96	
2025-01-09 09:00:58.40	305.65	54.97	
2025-01-09 09:00:58.61	305.46	54.99	
2025-01-09 09:00:58.81	305.28	55.01	
2025-01-09 09:00:59.01	305.11	55.02	
2025-01-09 09:00:59.22	304.92	55.04	
2025-01-09 09:00:59.43	304.73	55.06	
2025-01-09 09:00:59.63	304.55	55.07	
2025-01-09 09:00:59.84	304.36	55.09	
2025-01-09 09:01:00.04	304.18	55.10	
2025-01-09 09:01:00.25	303.99	55.12	
2025-01-09 09:01:00.45	303.81	55.13	
2025-01-09 09:01:00.66	303.62	55.14	
2025-01-09 09:01:00.87	303.43	55.16	
2025-01-09 09:01:01.07	303.25	55.17	
2025-01-09 09:01:01.28	303.06	55.18	
2025-01-09 09:01:01.48	302.88	55.20	
2025-01-09 09:01:01.69	302.69	55.21	
2025-01-09 09:01:01.89	302.51	55.22	
2025-01-09 09:01:02.10	302.32	55.23	
