passes_logs/2025/01/09/SPB_Silybum_02/SPB_Silybum_02__20250109_101809_SUOMI_NPP_rec.log

#Pass ID: 20250109_101809_SUOMI NPP
#Satellite: SUOMI NPP
#Configuration: NPP
#Start time: 2025-01-09 10:18:08

#Version: 2.0.20230423
#Station: SPB_Silybum_02
#Location: 30.233357 lon 59.946436 lat
#TLE: 1 37849U 11061A   25008.85814474  .00000207  00000+0  11909-3 0  9997
#TLE: 2 37849  98.7439 309.9248 0001886  50.2762 309.8580 14.19535270684045

#Time	Az	El	Level	Level2	SNR	BER	Gain	Gain2
2025-01-09 10:18:10.19	160.12	4.02	
2025-01-09 10:18:10.40	160.12	4.04	
2025-01-09 10:18:10.61	160.12	4.05	
2025-01-09 10:18:10.81	160.12	4.07	
2025-01-09 10:18:11.02	160.12	4.08	
2025-01-09 10:18:11.22	160.12	4.09	
2025-01-09 10:18:11.43	160.12	4.11	
2025-01-09 10:18:11.63	160.12	4.12	
2025-01-09 10:18:11.84	160.13	4.14	
2025-01-09 10:18:12.05	160.13	4.15	
2025-01-09 10:18:12.25	160.13	4.17	
2025-01-09 10:18:12.45	160.13	4.18	
2025-01-09 10:18:12.66	160.13	4.19	
2025-01-09 10:18:12.87	160.13	4.21	
2025-01-09 10:18:13.07	160.13	4.22	
2025-01-09 10:18:13.28	160.13	4.24	
2025-01-09 10:18:13.48	160.13	4.25	
2025-01-09 10:18:13.69	160.13	4.27	
2025-01-09 10:18:13.89	160.14	4.28	
2025-01-09 10:18:14.10	160.14	4.30	
2025-01-09 10:18:14.30	160.14	4.31	
2025-01-09 10:18:14.51	160.14	4.32	
2025-01-09 10:18:14.71	160.14	4.34	
2025-01-09 10:18:14.92	160.14	4.35	
2025-01-09 10:18:15.12	160.14	4.37	
2025-01-09 10:18:15.33	160.14	4.38	
2025-01-09 10:18:15.53	160.14	4.40	
2025-01-09 10:18:15.73	160.14	4.41	
2025-01-09 10:18:15.94	160.14	4.42	
2025-01-09 10:18:16.15	160.15	4.44	
2025-01-09 10:18:16.35	160.15	4.45	
2025-01-09 10:18:16.56	160.15	4.47	
2025-01-09 10:18:16.76	160.15	4.48	
2025-01-09 10:18:16.97	160.15	4.50	
2025-01-09 10:18:17.17	160.15	4.51	
2025-01-09 10:18:17.38	160.15	4.53	
2025-01-09 10:18:17.58	160.15	4.54	
2025-01-09 10:18:17.79	160.15	4.55	
2025-01-09 10:18:17.99	160.15	4.57	
2025-01-09 10:18:18.20	160.16	4.58	
2025-01-09 10:18:18.41	160.16	4.60	
2025-01-09 10:18:18.62	160.16	4.61	
2025-01-09 10:18:18.83	160.16	4.63	
2025-01-09 10:18:19.03	160.16	4.64	
2025-01-09 10:18:19.24	160.16	4.66	
2025-01-09 10:18:19.44	160.16	4.67	
2025-01-09 10:18:19.65	160.16	4.69	
2025-01-09 10:18:19.85	160.16	4.70	
2025-01-09 10:18:20.06	160.16	4.72	
2025-01-09 10:18:20.26	160.16	4.73	
2025-01-09 10:18:20.47	160.17	4.74	
2025-01-09 10:18:20.68	160.17	4.76	
2025-01-09 10:18:20.88	160.17	4.77	
2025-01-09 10:18:21.09	160.17	4.79	
2025-01-09 10:18:21.29	160.17	4.80	
2025-01-09 10:18:21.49	160.17	4.82	
2025-01-09 10:18:21.70	160.17	4.83	
2025-01-09 10:18:21.90	160.17	4.85	
2025-01-09 10:18:22.11	160.17	4.86	
2025-01-09 10:18:22.31	160.17	4.88	
2025-01-09 10:18:22.52	160.18	4.89	
2025-01-09 10:18:22.72	160.18	4.90	
2025-01-09 10:18:22.93	160.18	4.92	
2025-01-09 10:18:23.13	160.18	4.93	
2025-01-09 10:18:23.34	160.18	4.95	
2025-01-09 10:18:23.54	160.18	4.96	
2025-01-09 10:18:23.75	160.18	4.98	
2025-01-09 10:18:23.95	160.18	4.99	
2025-01-09 10:18:24.16	160.18	5.01	
2025-01-09 10:18:24.36	160.18	5.02	
2025-01-09 10:18:24.57	160.18	5.04	
2025-01-09 10:18:24.78	160.19	5.05	
2025-01-09 10:18:24.98	160.19	5.07	
2025-01-09 10:18:25.19	160.19	5.08	
2025-01-09 10:18:25.39	160.19	5.10	
2025-01-09 10:18:25.60	160.19	5.11	
2025-01-09 10:18:25.81	160.19	5.13	
2025-01-09 10:18:26.01	160.19	5.14	
2025-01-09 10:18:26.23	160.19	5.16	
2025-01-09 10:18:26.44	160.19	5.17	
2025-01-09 10:18:26.64	160.19	5.19	
2025-01-09 10:18:26.85	160.20	5.20	
2025-01-09 10:18:27.05	160.20	5.22	
2025-01-09 10:18:27.26	160.20	5.23	
2025-01-09 10:18:27.46	160.20	5.25	
2025-01-09 10:18:27.67	160.20	5.26	
2025-01-09 10:18:27.88	160.20	5.28	
2025-01-09 10:18:28.08	160.20	5.29	
2025-01-09 10:18:28.29	160.20	5.31	
2025-01-09 10:18:28.49	160.20	5.32	
2025-01-09 10:18:28.70	160.20	5.34	
2025-01-09 10:18:28.90	160.21	5.35	
2025-01-09 10:18:29.11	160.21	5.37	
2025-01-09 10:18:29.31	160.21	5.38	
2025-01-09 10:18:29.52	160.21	5.40	
2025-01-09 10:18:29.72	160.21	5.41	
2025-01-09 10:18:29.93	160.21	5.43	
2025-01-09 10:18:30.14	160.21	5.44	
2025-01-09 10:18:30.34	160.21	5.46	
2025-01-09 10:18:30.55	160.21	5.47	
2025-01-09 10:18:30.75	160.21	5.49	
2025-01-09 10:18:30.96	160.21	5.50	
2025-01-09 10:18:31.16	160.22	5.52	
2025-01-09 10:18:31.37	160.22	5.53	
2025-01-09 10:18:31.57	160.22	5.55	
2025-01-09 10:18:31.78	160.22	5.56	
2025-01-09 10:18:31.99	160.22	5.58	
2025-01-09 10:18:32.19	160.22	5.59	
2025-01-09 10:18:32.40	160.22	5.61	
2025-01-09 10:18:32.60	160.22	5.62	
2025-01-09 10:18:32.80	160.22	5.64	
2025-01-09 10:18:33.01	160.22	5.65	
2025-01-09 10:18:33.22	160.23	5.67	
2025-01-09 10:18:33.42	160.23	5.68	
2025-01-09 10:18:33.62	160.23	5.70	
2025-01-09 10:18:33.83	160.23	5.71	
2025-01-09 10:18:34.03	160.23	5.73	
2025-01-09 10:18:34.24	160.23	5.74	
2025-01-09 10:18:34.44	160.23	5.76	
2025-01-09 10:18:34.65	160.23	5.77	
2025-01-09 10:18:34.86	160.23	5.79	
2025-01-09 10:18:35.06	160.23	5.80	
2025-01-09 10:18:35.27	160.24	5.82	
2025-01-09 10:18:35.47	160.24	5.83	
2025-01-09 10:18:35.67	160.24	5.85	
2025-01-09 10:18:35.89	160.24	5.86	
2025-01-09 10:18:36.10	160.24	5.88	
2025-01-09 10:18:36.30	160.24	5.89	
2025-01-09 10:18:36.51	160.24	5.91	
2025-01-09 10:18:36.71	160.24	5.92	
2025-01-09 10:18:36.92	160.24	5.94	
2025-01-09 10:18:37.12	160.24	5.95	
2025-01-09 10:18:37.33	160.25	5.97	
2025-01-09 10:18:37.54	160.25	5.99	
2025-01-09 10:18:37.74	160.25	6.00	
2025-01-09 10:18:37.96	160.25	6.02	
2025-01-09 10:18:38.17	160.25	6.03	
2025-01-09 10:18:38.37	160.25	6.05	
2025-01-09 10:18:38.58	160.25	6.06	
2025-01-09 10:18:38.78	160.25	6.08	
2025-01-09 10:18:39.00	160.25	6.10	
2025-01-09 10:18:39.20	160.25	6.11	
2025-01-09 10:18:39.41	160.26	6.13	
2025-01-09 10:18:39.61	160.26	6.14	
2025-01-09 10:18:39.82	160.26	6.16	
2025-01-09 10:18:40.04	160.26	6.17	
2025-01-09 10:18:40.24	160.26	6.19	
2025-01-09 10:18:40.45	160.26	6.20	
2025-01-09 10:18:40.66	160.26	6.22	
2025-01-09 10:18:40.86	160.26	6.23	
2025-01-09 10:18:41.07	160.26	6.25	
2025-01-09 10:18:41.27	160.26	6.27	
2025-01-09 10:18:41.48	160.27	6.28	
2025-01-09 10:18:41.68	160.27	6.30	
2025-01-09 10:18:41.89	160.27	6.31	
2025-01-09 10:18:42.09	160.27	6.33	
2025-01-09 10:18:42.30	160.27	6.34	
2025-01-09 10:18:42.50	160.27	6.36	
2025-01-09 10:18:42.71	160.27	6.37	
2025-01-09 10:18:42.92	160.27	6.39	
2025-01-09 10:18:43.12	160.27	6.41	
2025-01-09 10:18:43.33	160.27	6.42	
2025-01-09 10:18:43.53	160.28	6.44	
2025-01-09 10:18:43.74	160.28	6.45	
2025-01-09 10:18:43.94	160.28	6.47	
2025-01-09 10:18:44.15	160.28	6.48	
2025-01-09 10:18:44.35	160.28	6.50	
2025-01-09 10:18:44.56	160.28	6.51	
2025-01-09 10:18:44.76	160.28	6.53	
2025-01-09 10:18:44.97	160.28	6.55	
2025-01-09 10:18:45.17	160.28	6.56	
2025-01-09 10:18:45.38	160.28	6.58	
2025-01-09 10:18:45.58	160.29	6.59	
2025-01-09 10:18:45.79	160.29	6.61	
2025-01-09 10:18:46.00	160.29	6.62	
2025-01-09 10:18:46.20	160.29	6.64	
2025-01-09 10:18:46.40	160.29	6.65	
2025-01-09 10:18:46.61	160.29	6.67	
2025-01-09 10:18:46.82	160.29	6.69	
2025-01-09 10:18:47.02	160.29	6.70	
2025-01-09 10:18:47.23	160.29	6.72	
2025-01-09 10:18:47.43	160.29	6.73	
2025-01-09 10:18:47.63	160.30	6.75	
2025-01-09 10:18:47.84	160.30	6.77	
2025-01-09 10:18:48.05	160.30	6.78	
2025-01-09 10:18:48.25	160.30	6.80	
2025-01-09 10:18:48.46	160.30	6.81	
2025-01-09 10:18:48.66	160.30	6.83	
2025-01-09 10:18:48.87	160.30	6.84	
2025-01-09 10:18:49.08	160.30	6.86	
2025-01-09 10:18:49.28	160.30	6.88	
2025-01-09 10:18:49.49	160.30	6.89	
2025-01-09 10:18:49.69	160.31	6.91	
2025-01-09 10:18:49.89	160.31	6.92	
2025-01-09 10:18:50.10	160.31	6.94	
2025-01-09 10:18:50.30	160.31	6.95	
2025-01-09 10:18:50.51	160.31	6.97	
2025-01-09 10:18:50.72	160.31	6.99	
2025-01-09 10:18:50.92	160.31	7.00	
2025-01-09 10:18:51.13	160.31	7.02	
2025-01-09 10:18:51.33	160.31	7.03	
2025-01-09 10:18:51.54	160.31	7.05	
2025-01-09 10:18:51.74	160.32	7.07	
2025-01-09 10:18:51.95	160.32	7.08	
2025-01-09 10:18:52.15	160.32	7.10	
2025-01-09 10:18:52.36	160.32	7.11	
2025-01-09 10:18:52.57	160.32	7.13	
2025-01-09 10:18:52.77	160.32	7.15	
2025-01-09 10:18:52.97	160.32	7.16	
2025-01-09 10:18:53.18	160.32	7.18	
2025-01-09 10:18:53.38	160.32	7.19	
2025-01-09 10:18:53.59	160.32	7.21	
2025-01-09 10:18:53.79	160.33	7.23	
2025-01-09 10:18:54.00	160.33	7.24	
2025-01-09 10:18:54.20	160.33	7.26	
2025-01-09 10:18:54.41	160.33	7.27	
2025-01-09 10:18:54.62	160.33	7.29	
2025-01-09 10:18:54.82	160.33	7.31	
2025-01-09 10:18:55.03	160.33	7.32	
2025-01-09 10:18:55.23	160.33	7.34	
2025-01-09 10:18:55.44	160.33	7.36	
2025-01-09 10:18:55.64	160.34	7.37	
2025-01-09 10:18:55.85	160.34	7.39	
2025-01-09 10:18:56.05	160.34	7.40	
2025-01-09 10:18:56.26	160.34	7.42	
2025-01-09 10:18:56.46	160.34	7.44	
2025-01-09 10:18:56.66	160.34	7.45	
2025-01-09 10:18:56.87	160.34	7.47	
2025-01-09 10:18:57.08	160.34	7.48	
2025-01-09 10:18:57.28	160.34	7.50	
2025-01-09 10:18:57.49	160.34	7.52	
2025-01-09 10:18:57.69	160.35	7.53	
2025-01-09 10:18:57.90	160.35	7.55	
2025-01-09 10:18:58.10	160.35	7.57	
2025-01-09 10:18:58.31	160.35	7.58	
2025-01-09 10:18:58.51	160.35	7.60	
2025-01-09 10:18:58.72	160.35	7.61	
2025-01-09 10:18:58.92	160.35	7.63	
2025-01-09 10:18:59.13	160.35	7.65	
2025-01-09 10:18:59.33	160.35	7.66	
2025-01-09 10:18:59.54	160.35	7.68	
2025-01-09 10:18:59.75	160.36	7.70	
2025-01-09 10:18:59.95	160.36	7.71	
2025-01-09 10:19:00.17	160.36	7.73	
2025-01-09 10:19:00.37	160.36	7.75	
2025-01-09 10:19:00.58	160.36	7.76	
2025-01-09 10:19:00.79	160.36	7.78	
2025-01-09 10:19:00.99	160.36	7.80	
2025-01-09 10:19:01.20	160.36	7.81	
2025-01-09 10:19:01.40	160.36	7.83	
2025-01-09 10:19:01.61	160.37	7.85	
2025-01-09 10:19:01.83	160.37	7.86	
2025-01-09 10:19:02.03	160.37	7.88	
2025-01-09 10:19:02.24	160.37	7.90	
2025-01-09 10:19:02.44	160.37	7.91	
2025-01-09 10:19:02.65	160.37	7.93	
2025-01-09 10:19:02.85	160.37	7.94	
2025-01-09 10:19:03.06	160.37	7.96	
2025-01-09 10:19:03.26	160.37	7.98	
2025-01-09 10:19:03.47	160.37	7.99	
2025-01-09 10:19:03.67	160.38	8.01	
2025-01-09 10:19:03.88	160.38	8.03	
2025-01-09 10:19:04.08	160.38	8.04	
2025-01-09 10:19:04.29	160.38	8.06	
2025-01-09 10:19:04.50	160.38	8.08	
2025-01-09 10:19:04.70	160.38	8.09	
2025-01-09 10:19:04.91	160.38	8.11	
2025-01-09 10:19:05.11	160.38	8.13	
2025-01-09 10:19:05.32	160.38	8.14	
2025-01-09 10:19:05.52	160.39	8.16	
2025-01-09 10:19:05.73	160.39	8.18	
2025-01-09 10:19:05.93	160.39	8.19	
2025-01-09 10:19:06.14	160.39	8.21	
2025-01-09 10:19:06.34	160.39	8.23	
2025-01-09 10:19:06.55	160.39	8.24	
2025-01-09 10:19:06.75	160.39	8.26	
2025-01-09 10:19:06.96	160.39	8.28	
2025-01-09 10:19:07.16	160.39	8.29	
2025-01-09 10:19:07.37	160.39	8.31	
2025-01-09 10:19:07.57	160.40	8.33	
2025-01-09 10:19:07.78	160.40	8.34	
2025-01-09 10:19:07.98	160.40	8.36	
2025-01-09 10:19:08.19	160.40	8.38	
2025-01-09 10:19:08.40	160.40	8.40	
2025-01-09 10:19:08.60	160.40	8.41	
2025-01-09 10:19:08.81	160.40	8.43	
2025-01-09 10:19:09.01	160.40	8.45	
2025-01-09 10:19:09.22	160.40	8.46	
2025-01-09 10:19:09.42	160.41	8.48	
2025-01-09 10:19:09.63	160.41	8.50	
2025-01-09 10:19:09.83	160.41	8.51	
2025-01-09 10:19:10.04	160.41	8.53	
2025-01-09 10:19:10.24	160.41	8.55	
2025-01-09 10:19:10.45	160.41	8.56	
2025-01-09 10:19:10.65	160.41	8.58	
2025-01-09 10:19:10.86	160.41	8.60	
2025-01-09 10:19:11.06	160.41	8.61	
2025-01-09 10:19:11.27	160.42	8.63	
2025-01-09 10:19:11.47	160.42	8.65	
2025-01-09 10:19:11.68	160.42	8.67	
2025-01-09 10:19:11.89	160.42	8.68	
2025-01-09 10:19:12.09	160.42	8.70	
2025-01-09 10:19:12.30	160.42	8.72	
2025-01-09 10:19:12.50	160.42	8.73	
2025-01-09 10:19:12.71	160.42	8.75	
2025-01-09 10:19:12.91	160.42	8.77	
2025-01-09 10:19:13.12	160.42	8.78	
2025-01-09 10:19:13.32	160.43	8.80	
2025-01-09 10:19:13.53	160.43	8.82	
2025-01-09 10:19:13.73	160.43	8.84	
2025-01-09 10:19:13.94	160.43	8.85	
2025-01-09 10:19:14.15	160.43	8.87	
2025-01-09 10:19:14.35	160.43	8.89	
2025-01-09 10:19:14.55	160.43	8.90	
2025-01-09 10:19:14.76	160.43	8.92	
2025-01-09 10:19:14.97	160.43	8.94	
2025-01-09 10:19:15.17	160.44	8.96	
2025-01-09 10:19:15.39	160.44	8.97	
2025-01-09 10:19:15.60	160.44	8.99	
2025-01-09 10:19:15.80	160.44	9.01	
2025-01-09 10:19:16.01	160.44	9.03	
2025-01-09 10:19:16.21	160.44	9.04	
2025-01-09 10:19:16.41	160.44	9.06	
2025-01-09 10:19:16.62	160.44	9.08	
2025-01-09 10:19:16.83	160.44	9.10	
2025-01-09 10:19:17.03	160.45	9.11	
2025-01-09 10:19:17.24	160.45	9.13	
2025-01-09 10:19:17.44	160.45	9.15	
2025-01-09 10:19:17.65	160.45	9.16	
2025-01-09 10:19:17.85	160.45	9.18	
2025-01-09 10:19:18.06	160.45	9.20	
2025-01-09 10:19:18.27	160.45	9.22	
2025-01-09 10:19:18.47	160.45	9.23	
2025-01-09 10:19:18.67	160.45	9.25	
2025-01-09 10:19:18.88	160.46	9.27	
2025-01-09 10:19:19.09	160.46	9.29	
2025-01-09 10:19:19.29	160.46	9.30	
2025-01-09 10:19:19.50	160.46	9.32	
2025-01-09 10:19:19.70	160.46	9.34	
2025-01-09 10:19:19.91	160.46	9.36	
2025-01-09 10:19:20.12	160.46	9.37	
2025-01-09 10:19:20.32	160.46	9.39	
2025-01-09 10:19:20.53	160.46	9.41	
2025-01-09 10:19:20.73	160.46	9.43	
2025-01-09 10:19:20.94	160.47	9.44	
2025-01-09 10:19:21.14	160.47	9.46	
2025-01-09 10:19:21.34	160.47	9.48	
2025-01-09 10:19:21.55	160.47	9.50	
2025-01-09 10:19:21.75	160.47	9.51	
2025-01-09 10:19:21.97	160.47	9.53	
2025-01-09 10:19:22.18	160.47	9.55	
2025-01-09 10:19:22.38	160.47	9.57	
2025-01-09 10:19:22.59	160.47	9.59	
2025-01-09 10:19:22.80	160.48	9.60	
2025-01-09 10:19:23.01	160.48	9.62	
2025-01-09 10:19:23.22	160.48	9.64	
2025-01-09 10:19:23.42	160.48	9.66	
2025-01-09 10:19:23.63	160.48	9.67	
2025-01-09 10:19:23.83	160.48	9.69	
2025-01-09 10:19:24.04	160.48	9.71	
2025-01-09 10:19:24.24	160.48	9.73	
2025-01-09 10:19:24.45	160.48	9.75	
2025-01-09 10:19:24.65	160.49	9.76	
2025-01-09 10:19:24.86	160.49	9.78	
2025-01-09 10:19:25.06	160.49	9.80	
2025-01-09 10:19:25.27	160.49	9.82	
2025-01-09 10:19:25.47	160.49	9.83	
2025-01-09 10:19:25.68	160.49	9.85	
2025-01-09 10:19:25.88	160.49	9.87	
2025-01-09 10:19:26.09	160.49	9.89	
2025-01-09 10:19:26.29	160.49	9.91	
2025-01-09 10:19:26.50	160.50	9.92	
2025-01-09 10:19:26.70	160.50	9.94	
2025-01-09 10:19:26.91	160.50	9.96	
2025-01-09 10:19:27.11	160.50	9.98	
2025-01-09 10:19:27.32	160.50	10.00	
2025-01-09 10:19:27.52	160.50	10.01	
2025-01-09 10:19:27.73	160.50	10.03	
2025-01-09 10:19:27.94	160.50	10.05	
2025-01-09 10:19:28.14	160.50	10.07	
2025-01-09 10:19:28.34	160.51	10.08	
2025-01-09 10:19:28.55	160.51	10.10	
2025-01-09 10:19:28.76	160.51	10.12	
2025-01-09 10:19:28.96	160.51	10.14	
2025-01-09 10:19:29.17	160.51	10.16	
2025-01-09 10:19:29.37	160.51	10.17	
2025-01-09 10:19:29.58	160.51	10.19	
2025-01-09 10:19:29.78	160.51	10.21	
2025-01-09 10:19:29.99	160.51	10.23	
2025-01-09 10:19:30.19	160.52	10.25	
2025-01-09 10:19:30.39	160.52	10.26	
2025-01-09 10:19:30.60	160.52	10.28	
2025-01-09 10:19:30.80	160.52	10.30	
2025-01-09 10:19:31.01	160.52	10.32	
2025-01-09 10:19:31.21	160.52	10.34	
2025-01-09 10:19:31.43	160.52	10.36	
2025-01-09 10:19:31.64	160.52	10.38	
2025-01-09 10:19:31.85	160.53	10.39	
2025-01-09 10:19:32.05	160.53	10.41	
2025-01-09 10:19:32.26	160.53	10.43	
2025-01-09 10:19:32.47	160.53	10.45	
2025-01-09 10:19:32.68	160.53	10.47	
2025-01-09 10:19:32.89	160.53	10.49	
2025-01-09 10:19:33.09	160.53	10.50	
2025-01-09 10:19:33.30	160.53	10.52	
2025-01-09 10:19:33.50	160.53	10.54	
2025-01-09 10:19:33.71	160.54	10.56	
2025-01-09 10:19:33.91	160.54	10.58	
2025-01-09 10:19:34.12	160.54	10.60	
2025-01-09 10:19:34.32	160.54	10.61	
2025-01-09 10:19:34.52	160.54	10.63	
2025-01-09 10:19:34.73	160.54	10.65	
2025-01-09 10:19:34.94	160.54	10.67	
2025-01-09 10:19:35.14	160.54	10.69	
2025-01-09 10:19:35.35	160.54	10.71	
2025-01-09 10:19:35.55	160.55	10.72	
2025-01-09 10:19:35.76	160.55	10.74	
2025-01-09 10:19:35.97	160.55	10.76	
2025-01-09 10:19:36.17	160.55	10.78	
2025-01-09 10:19:36.38	160.55	10.80	
2025-01-09 10:19:36.58	160.55	10.82	
2025-01-09 10:19:36.78	160.55	10.84	
2025-01-09 10:19:36.99	160.55	10.85	
2025-01-09 10:19:37.19	160.55	10.87	
2025-01-09 10:19:37.40	160.56	10.89	
2025-01-09 10:19:37.60	160.56	10.91	
2025-01-09 10:19:37.81	160.56	10.93	
2025-01-09 10:19:38.01	160.56	10.95	
2025-01-09 10:19:38.22	160.56	10.97	
2025-01-09 10:19:38.43	160.56	10.99	
2025-01-09 10:19:38.63	160.56	11.00	
2025-01-09 10:19:38.85	160.56	11.02	
2025-01-09 10:19:39.05	160.57	11.04	
2025-01-09 10:19:39.26	160.57	11.06	
2025-01-09 10:19:39.46	160.57	11.08	
2025-01-09 10:19:39.67	160.57	11.10	
2025-01-09 10:19:39.87	160.57	11.12	
2025-01-09 10:19:40.08	160.57	11.14	
2025-01-09 10:19:40.29	160.57	11.15	
2025-01-09 10:19:40.49	160.57	11.17	
2025-01-09 10:19:40.70	160.57	11.19	
2025-01-09 10:19:40.90	160.58	11.21	
2025-01-09 10:19:41.11	160.58	11.23	
2025-01-09 10:19:41.31	160.58	11.25	
2025-01-09 10:19:41.52	160.58	11.27	
2025-01-09 10:19:41.72	160.58	11.29	
2025-01-09 10:19:41.92	160.58	11.30	
2025-01-09 10:19:42.13	160.58	11.32	
2025-01-09 10:19:42.34	160.58	11.34	
2025-01-09 10:19:42.54	160.58	11.36	
2025-01-09 10:19:42.75	160.59	11.38	
2025-01-09 10:19:42.95	160.59	11.40	
2025-01-09 10:19:43.16	160.59	11.42	
2025-01-09 10:19:43.36	160.59	11.44	
2025-01-09 10:19:43.57	160.59	11.46	
2025-01-09 10:19:43.77	160.59	11.48	
2025-01-09 10:19:43.98	160.59	11.50	
2025-01-09 10:19:44.20	160.59	11.52	
2025-01-09 10:19:44.40	160.60	11.53	
2025-01-09 10:19:44.61	160.60	11.55	
2025-01-09 10:19:44.81	160.60	11.57	
2025-01-09 10:19:45.02	160.60	11.59	
2025-01-09 10:19:45.22	160.60	11.61	
2025-01-09 10:19:45.43	160.60	11.63	
2025-01-09 10:19:45.63	160.60	11.65	
2025-01-09 10:19:45.84	160.60	11.67	
2025-01-09 10:19:46.04	160.60	11.69	
2025-01-09 10:19:46.24	160.61	11.71	
2025-01-09 10:19:46.45	160.61	11.73	
2025-01-09 10:19:46.65	160.61	11.74	
2025-01-09 10:19:46.86	160.61	11.76	
2025-01-09 10:19:47.07	160.61	11.78	
2025-01-09 10:19:47.27	160.61	11.80	
2025-01-09 10:19:47.47	160.61	11.82	
2025-01-09 10:19:47.68	160.61	11.84	
2025-01-09 10:19:47.88	160.62	11.86	
2025-01-09 10:19:48.09	160.62	11.88	
2025-01-09 10:19:48.29	160.62	11.90	
2025-01-09 10:19:48.51	160.62	11.92	
2025-01-09 10:19:48.72	160.62	11.94	
2025-01-09 10:19:48.92	160.62	11.96	
2025-01-09 10:19:49.13	160.62	11.98	
2025-01-09 10:19:49.34	160.62	12.00	
2025-01-09 10:19:49.54	160.62	12.02	
2025-01-09 10:19:49.74	160.63	12.04	
2025-01-09 10:19:49.95	160.63	12.06	
2025-01-09 10:19:50.15	160.63	12.07	
2025-01-09 10:19:50.36	160.63	12.09	
2025-01-09 10:19:50.57	160.63	12.11	
2025-01-09 10:19:50.77	160.63	12.13	
2025-01-09 10:19:50.97	160.63	12.15	
2025-01-09 10:19:51.18	160.63	12.17	
2025-01-09 10:19:51.38	160.64	12.19	
2025-01-09 10:19:51.59	160.64	12.21	
2025-01-09 10:19:51.79	160.64	12.23	
2025-01-09 10:19:52.00	160.64	12.25	
2025-01-09 10:19:52.20	160.64	12.27	
2025-01-09 10:19:52.41	160.64	12.29	
2025-01-09 10:19:52.61	160.64	12.31	
2025-01-09 10:19:52.82	160.64	12.33	
2025-01-09 10:19:53.03	160.65	12.35	
2025-01-09 10:19:53.23	160.65	12.37	
2025-01-09 10:19:53.44	160.65	12.39	
2025-01-09 10:19:53.64	160.65	12.41	
2025-01-09 10:19:53.85	160.65	12.43	
2025-01-09 10:19:54.05	160.65	12.45	
2025-01-09 10:19:54.26	160.65	12.47	
2025-01-09 10:19:54.46	160.65	12.49	
2025-01-09 10:19:54.67	160.65	12.51	
2025-01-09 10:19:54.87	160.66	12.53	
2025-01-09 10:19:55.08	160.66	12.55	
2025-01-09 10:19:55.28	160.66	12.57	
2025-01-09 10:19:55.49	160.66	12.59	
2025-01-09 10:19:55.70	160.66	12.61	
2025-01-09 10:19:55.90	160.66	12.63	
2025-01-09 10:19:56.10	160.66	12.65	
2025-01-09 10:19:56.31	160.66	12.67	
2025-01-09 10:19:56.52	160.67	12.69	
2025-01-09 10:19:56.72	160.67	12.71	
2025-01-09 10:19:56.92	160.67	12.73	
2025-01-09 10:19:57.13	160.67	12.75	
2025-01-09 10:19:57.34	160.67	12.77	
2025-01-09 10:19:57.54	160.67	12.79	
2025-01-09 10:19:57.75	160.67	12.81	
2025-01-09 10:19:57.95	160.67	12.83	
2025-01-09 10:19:58.16	160.68	12.85	
2025-01-09 10:19:58.36	160.68	12.87	
2025-01-09 10:19:58.57	160.68	12.89	
2025-01-09 10:19:58.77	160.68	12.91	
2025-01-09 10:19:58.98	160.68	12.93	
2025-01-09 10:19:59.18	160.68	12.95	
2025-01-09 10:19:59.39	160.68	12.97	
2025-01-09 10:19:59.60	160.68	12.99	
2025-01-09 10:19:59.80	160.69	13.01	
2025-01-09 10:20:00.01	160.69	13.03	
2025-01-09 10:20:00.21	160.69	13.05	
2025-01-09 10:20:00.41	160.69	13.07	
2025-01-09 10:20:00.62	160.69	13.09	
2025-01-09 10:20:00.83	160.69	13.11	
2025-01-09 10:20:01.03	160.69	13.13	
2025-01-09 10:20:01.24	160.69	13.15	
2025-01-09 10:20:01.44	160.70	13.17	
2025-01-09 10:20:01.65	160.70	13.19	
2025-01-09 10:20:01.85	160.70	13.21	
2025-01-09 10:20:02.06	160.70	13.23	
2025-01-09 10:20:02.26	160.70	13.25	
2025-01-09 10:20:02.47	160.70	13.28	
2025-01-09 10:20:02.67	160.70	13.30	
2025-01-09 10:20:02.88	160.70	13.32	
2025-01-09 10:20:03.08	160.71	13.34	
2025-01-09 10:20:03.29	160.71	13.36	
2025-01-09 10:20:03.49	160.71	13.38	
2025-01-09 10:20:03.70	160.71	13.40	
2025-01-09 10:20:03.90	160.71	13.42	
2025-01-09 10:20:04.11	160.71	13.44	
2025-01-09 10:20:04.31	160.71	13.46	
2025-01-09 10:20:04.52	160.71	13.48	
2025-01-09 10:20:04.72	160.71	13.50	
2025-01-09 10:20:04.93	160.72	13.52	
2025-01-09 10:20:05.13	160.72	13.54	
2025-01-09 10:20:05.34	160.72	13.56	
2025-01-09 10:20:05.54	160.72	13.58	
2025-01-09 10:20:05.75	160.72	13.61	
2025-01-09 10:20:05.95	160.72	13.63	
2025-01-09 10:20:06.16	160.72	13.65	
2025-01-09 10:20:06.36	160.72	13.67	
2025-01-09 10:20:06.58	160.73	13.69	
2025-01-09 10:20:06.79	160.73	13.71	
2025-01-09 10:20:06.99	160.73	13.73	
2025-01-09 10:20:07.20	160.73	13.75	
2025-01-09 10:20:07.41	160.73	13.77	
2025-01-09 10:20:07.61	160.73	13.79	
2025-01-09 10:20:07.82	160.73	13.82	
2025-01-09 10:20:08.02	160.74	13.84	
2025-01-09 10:20:08.22	160.74	13.86	
2025-01-09 10:20:08.43	160.74	13.88	
2025-01-09 10:20:08.63	160.74	13.90	
2025-01-09 10:20:08.84	160.74	13.92	
2025-01-09 10:20:09.04	160.74	13.94	
2025-01-09 10:20:09.25	160.74	13.96	
2025-01-09 10:20:09.45	160.74	13.98	
2025-01-09 10:20:09.66	160.75	14.00	
2025-01-09 10:20:09.86	160.75	14.03	
2025-01-09 10:20:10.07	160.75	14.05	
2025-01-09 10:20:10.27	160.75	14.07	
2025-01-09 10:20:10.48	160.75	14.09	
2025-01-09 10:20:10.68	160.75	14.11	
2025-01-09 10:20:10.89	160.75	14.13	
2025-01-09 10:20:11.10	160.75	14.15	
2025-01-09 10:20:11.30	160.76	14.17	
2025-01-09 10:20:11.51	160.76	14.20	
2025-01-09 10:20:11.71	160.76	14.22	
2025-01-09 10:20:11.91	160.76	14.24	
2025-01-09 10:20:12.12	160.76	14.26	
2025-01-09 10:20:12.33	160.76	14.28	
2025-01-09 10:20:12.53	160.76	14.30	
2025-01-09 10:20:12.74	160.76	14.32	
2025-01-09 10:20:12.94	160.77	14.34	
2025-01-09 10:20:13.15	160.77	14.37	
2025-01-09 10:20:13.35	160.77	14.39	
2025-01-09 10:20:13.56	160.77	14.41	
2025-01-09 10:20:13.77	160.77	14.43	
2025-01-09 10:20:13.97	160.77	14.45	
2025-01-09 10:20:14.17	160.77	14.47	
2025-01-09 10:20:14.38	160.77	14.50	
2025-01-09 10:20:14.59	160.78	14.52	
2025-01-09 10:20:14.79	160.78	14.54	
2025-01-09 10:20:15.00	160.78	14.56	
2025-01-09 10:20:15.20	160.78	14.58	
2025-01-09 10:20:15.40	160.78	14.60	
2025-01-09 10:20:15.61	160.78	14.62	
2025-01-09 10:20:15.82	160.78	14.65	
2025-01-09 10:20:16.02	160.79	14.67	
2025-01-09 10:20:16.23	160.79	14.69	
2025-01-09 10:20:16.43	160.79	14.71	
2025-01-09 10:20:16.64	160.79	14.73	
2025-01-09 10:20:16.84	160.79	14.76	
2025-01-09 10:20:17.05	160.79	14.78	
2025-01-09 10:20:17.25	160.79	14.80	
2025-01-09 10:20:17.46	160.79	14.82	
2025-01-09 10:20:17.66	160.80	14.84	
2025-01-09 10:20:17.87	160.80	14.86	
2025-01-09 10:20:18.07	160.80	14.89	
2025-01-09 10:20:18.28	160.80	14.91	
2025-01-09 10:20:18.48	160.80	14.93	
2025-01-09 10:20:18.69	160.80	14.95	
2025-01-09 10:20:18.90	160.80	14.97	
2025-01-09 10:20:19.10	160.80	15.00	
2025-01-09 10:20:19.30	160.81	15.02	
2025-01-09 10:20:19.51	160.81	15.04	
2025-01-09 10:20:19.71	160.81	15.06	
2025-01-09 10:20:19.92	160.81	15.08	
2025-01-09 10:20:20.13	160.81	15.11	
2025-01-09 10:20:20.33	160.81	15.13	
2025-01-09 10:20:20.55	160.81	15.15	
2025-01-09 10:20:20.76	160.82	15.17	
2025-01-09 10:20:20.96	160.82	15.20	
2025-01-09 10:20:21.17	160.82	15.22	
2025-01-09 10:20:21.37	160.82	15.24	
2025-01-09 10:20:21.58	160.82	15.26	
2025-01-09 10:20:21.78	160.82	15.29	
2025-01-09 10:20:21.99	160.82	15.31	
2025-01-09 10:20:22.19	160.82	15.33	
2025-01-09 10:20:22.40	160.83	15.35	
2025-01-09 10:20:22.60	160.83	15.37	
2025-01-09 10:20:22.81	160.83	15.40	
2025-01-09 10:20:23.02	160.83	15.42	
2025-01-09 10:20:23.22	160.83	15.44	
2025-01-09 10:20:23.43	160.83	15.47	
2025-01-09 10:20:23.63	160.83	15.49	
2025-01-09 10:20:23.83	160.84	15.51	
2025-01-09 10:20:24.04	160.84	15.53	
2025-01-09 10:20:24.24	160.84	15.55	
2025-01-09 10:20:24.45	160.84	15.58	
2025-01-09 10:20:24.65	160.84	15.60	
2025-01-09 10:20:24.86	160.84	15.62	
2025-01-09 10:20:25.07	160.84	15.64	
2025-01-09 10:20:25.27	160.84	15.67	
2025-01-09 10:20:25.48	160.85	15.69	
2025-01-09 10:20:25.68	160.85	15.71	
2025-01-09 10:20:25.89	160.85	15.74	
2025-01-09 10:20:26.09	160.85	15.76	
2025-01-09 10:20:26.30	160.85	15.78	
2025-01-09 10:20:26.50	160.85	15.80	
2025-01-09 10:20:26.71	160.85	15.83	
2025-01-09 10:20:26.91	160.86	15.85	
2025-01-09 10:20:27.12	160.86	15.87	
2025-01-09 10:20:27.32	160.86	15.89	
2025-01-09 10:20:27.53	160.86	15.92	
2025-01-09 10:20:27.74	160.86	15.94	
2025-01-09 10:20:27.94	160.86	15.96	
2025-01-09 10:20:28.15	160.86	15.99	
2025-01-09 10:20:28.35	160.87	16.01	
2025-01-09 10:20:28.56	160.87	16.03	
2025-01-09 10:20:28.76	160.87	16.05	
2025-01-09 10:20:28.97	160.87	16.08	
2025-01-09 10:20:29.17	160.87	16.10	
2025-01-09 10:20:29.38	160.87	16.12	
2025-01-09 10:20:29.58	160.87	16.15	
2025-01-09 10:20:29.79	160.87	16.17	
2025-01-09 10:20:29.99	160.88	16.19	
2025-01-09 10:20:30.20	160.88	16.22	
2025-01-09 10:20:30.40	160.88	16.24	
2025-01-09 10:20:30.61	160.88	16.26	
2025-01-09 10:20:30.81	160.88	16.29	
2025-01-09 10:20:31.02	160.88	16.31	
2025-01-09 10:20:31.22	160.88	16.33	
2025-01-09 10:20:31.43	160.89	16.36	
2025-01-09 10:20:31.64	160.89	16.38	
2025-01-09 10:20:31.84	160.89	16.40	
2025-01-09 10:20:32.05	160.89	16.43	
2025-01-09 10:20:32.25	160.89	16.45	
2025-01-09 10:20:32.46	160.89	16.47	
2025-01-09 10:20:32.66	160.89	16.50	
2025-01-09 10:20:32.87	160.90	16.52	
2025-01-09 10:20:33.07	160.90	16.54	
2025-01-09 10:20:33.28	160.90	16.57	
2025-01-09 10:20:33.48	160.90	16.59	
2025-01-09 10:20:33.69	160.90	16.61	
2025-01-09 10:20:33.89	160.90	16.64	
2025-01-09 10:20:34.10	160.90	16.66	
2025-01-09 10:20:34.30	160.91	16.68	
2025-01-09 10:20:34.51	160.91	16.71	
2025-01-09 10:20:34.71	160.91	16.73	
2025-01-09 10:20:34.92	160.91	16.75	
2025-01-09 10:20:35.12	160.91	16.78	
2025-01-09 10:20:35.33	160.91	16.80	
2025-01-09 10:20:35.53	160.91	16.83	
2025-01-09 10:20:35.74	160.91	16.85	
2025-01-09 10:20:35.94	160.92	16.87	
2025-01-09 10:20:36.15	160.92	16.90	
2025-01-09 10:20:36.36	160.92	16.92	
2025-01-09 10:20:36.56	160.92	16.94	
2025-01-09 10:20:36.76	160.92	16.97	
2025-01-09 10:20:36.97	160.92	16.99	
2025-01-09 10:20:37.18	160.92	17.02	
2025-01-09 10:20:37.38	160.93	17.04	
2025-01-09 10:20:37.59	160.93	17.06	
2025-01-09 10:20:37.79	160.93	17.09	
2025-01-09 10:20:38.00	160.93	17.11	
2025-01-09 10:20:38.20	160.93	17.14	
2025-01-09 10:20:38.41	160.93	17.16	
2025-01-09 10:20:38.63	160.93	17.19	
2025-01-09 10:20:38.83	160.94	17.21	
2025-01-09 10:20:39.04	160.94	17.23	
2025-01-09 10:20:39.25	160.94	17.26	
2025-01-09 10:20:39.45	160.94	17.28	
2025-01-09 10:20:39.66	160.94	17.31	
2025-01-09 10:20:39.86	160.94	17.33	
2025-01-09 10:20:40.07	160.94	17.36	
2025-01-09 10:20:40.27	160.95	17.38	
2025-01-09 10:20:40.48	160.95	17.40	
2025-01-09 10:20:40.68	160.95	17.43	
2025-01-09 10:20:40.89	160.95	17.45	
2025-01-09 10:20:41.10	160.95	17.48	
2025-01-09 10:20:41.30	160.95	17.50	
2025-01-09 10:20:41.51	160.95	17.53	
2025-01-09 10:20:41.71	160.96	17.55	
2025-01-09 10:20:41.92	160.96	17.58	
2025-01-09 10:20:42.12	160.96	17.60	
2025-01-09 10:20:42.33	160.96	17.62	
2025-01-09 10:20:42.53	160.96	17.65	
2025-01-09 10:20:42.74	160.96	17.67	
2025-01-09 10:20:42.94	160.96	17.70	
2025-01-09 10:20:43.15	160.97	17.72	
2025-01-09 10:20:43.35	160.97	17.75	
2025-01-09 10:20:43.56	160.97	17.77	
2025-01-09 10:20:43.77	160.97	17.80	
2025-01-09 10:20:43.97	160.97	17.82	
2025-01-09 10:20:44.18	160.97	17.85	
2025-01-09 10:20:44.38	160.98	17.87	
2025-01-09 10:20:44.59	160.98	17.90	
2025-01-09 10:20:44.79	160.98	17.92	
2025-01-09 10:20:45.00	160.98	17.95	
2025-01-09 10:20:45.20	160.98	17.97	
2025-01-09 10:20:45.41	160.98	17.99	
2025-01-09 10:20:45.61	160.98	18.02	
2025-01-09 10:20:45.82	160.99	18.04	
2025-01-09 10:20:46.02	160.99	18.07	
2025-01-09 10:20:46.23	160.99	18.09	
2025-01-09 10:20:46.43	160.99	18.12	
2025-01-09 10:20:46.64	160.99	18.14	
2025-01-09 10:20:46.84	160.99	18.17	
2025-01-09 10:20:47.05	160.99	18.19	
2025-01-09 10:20:47.25	161.00	18.22	
2025-01-09 10:20:47.46	161.00	18.24	
2025-01-09 10:20:47.67	161.00	18.27	
2025-01-09 10:20:47.87	161.00	18.30	
2025-01-09 10:20:48.08	161.00	18.32	
2025-01-09 10:20:48.28	161.00	18.35	
2025-01-09 10:20:48.49	161.00	18.37	
2025-01-09 10:20:48.69	161.01	18.40	
2025-01-09 10:20:48.90	161.01	18.42	
2025-01-09 10:20:49.11	161.01	18.45	
2025-01-09 10:20:49.31	161.01	18.47	
2025-01-09 10:20:49.52	161.01	18.50	
2025-01-09 10:20:49.72	161.01	18.52	
2025-01-09 10:20:49.93	161.02	18.55	
2025-01-09 10:20:50.13	161.02	18.57	
2025-01-09 10:20:50.34	161.02	18.60	
2025-01-09 10:20:50.54	161.02	18.63	
2025-01-09 10:20:50.75	161.02	18.65	
2025-01-09 10:20:50.95	161.02	18.68	
2025-01-09 10:20:51.16	161.02	18.70	
2025-01-09 10:20:51.36	161.03	18.73	
2025-01-09 10:20:51.57	161.03	18.75	
2025-01-09 10:20:51.77	161.03	18.78	
2025-01-09 10:20:51.98	161.03	18.80	
2025-01-09 10:20:52.18	161.03	18.83	
2025-01-09 10:20:52.39	161.03	18.86	
2025-01-09 10:20:52.59	161.03	18.88	
2025-01-09 10:20:52.80	161.04	18.91	
2025-01-09 10:20:53.00	161.04	18.93	
2025-01-09 10:20:53.21	161.04	18.96	
2025-01-09 10:20:53.42	161.04	18.99	
2025-01-09 10:20:53.62	161.04	19.01	
2025-01-09 10:20:53.83	161.04	19.04	
2025-01-09 10:20:54.03	161.05	19.06	
2025-01-09 10:20:54.24	161.05	19.09	
2025-01-09 10:20:54.44	161.05	19.12	
2025-01-09 10:20:54.65	161.05	19.14	
2025-01-09 10:20:54.85	161.05	19.17	
2025-01-09 10:20:55.06	161.05	19.19	
2025-01-09 10:20:55.26	161.05	19.22	
2025-01-09 10:20:55.47	161.06	19.25	
2025-01-09 10:20:55.67	161.06	19.27	
2025-01-09 10:20:55.88	161.06	19.30	
2025-01-09 10:20:56.08	161.06	19.32	
2025-01-09 10:20:56.29	161.06	19.35	
2025-01-09 10:20:56.49	161.06	19.38	
2025-01-09 10:20:56.70	161.07	19.40	
2025-01-09 10:20:56.90	161.07	19.43	
2025-01-09 10:20:57.11	161.07	19.46	
2025-01-09 10:20:57.32	161.07	19.48	
2025-01-09 10:20:57.52	161.07	19.51	
2025-01-09 10:20:57.73	161.07	19.54	
2025-01-09 10:20:57.93	161.07	19.56	
2025-01-09 10:20:58.14	161.08	19.59	
2025-01-09 10:20:58.35	161.08	19.62	
2025-01-09 10:20:58.55	161.08	19.64	
2025-01-09 10:20:58.76	161.08	19.67	
2025-01-09 10:20:58.96	161.08	19.70	
2025-01-09 10:20:59.17	161.08	19.72	
2025-01-09 10:20:59.37	161.09	19.75	
2025-01-09 10:20:59.58	161.09	19.78	
2025-01-09 10:20:59.78	161.09	19.80	
2025-01-09 10:20:59.99	161.09	19.83	
2025-01-09 10:21:00.19	161.09	19.86	
2025-01-09 10:21:00.40	161.09	19.88	
2025-01-09 10:21:00.60	161.09	19.91	
2025-01-09 10:21:00.81	161.10	19.94	
2025-01-09 10:21:01.01	161.10	19.96	
2025-01-09 10:21:01.22	161.10	19.99	
2025-01-09 10:21:01.42	161.10	20.02	
2025-01-09 10:21:01.63	161.10	20.04	
2025-01-09 10:21:01.83	161.10	20.07	
2025-01-09 10:21:02.04	161.11	20.10	
2025-01-09 10:21:02.24	161.11	20.13	
2025-01-09 10:21:02.45	161.11	20.15	
2025-01-09 10:21:02.65	161.11	20.18	
2025-01-09 10:21:02.86	161.11	20.21	
2025-01-09 10:21:03.06	161.11	20.23	
2025-01-09 10:21:03.26	161.12	20.26	
2025-01-09 10:21:03.47	161.12	20.29	
2025-01-09 10:21:03.68	161.12	20.32	
2025-01-09 10:21:03.88	161.12	20.34	
2025-01-09 10:21:04.09	161.12	20.37	
2025-01-09 10:21:04.29	161.12	20.40	
2025-01-09 10:21:04.50	161.13	20.43	
2025-01-09 10:21:04.70	161.13	20.45	
2025-01-09 10:21:04.91	161.13	20.48	
2025-01-09 10:21:05.12	161.13	20.51	
2025-01-09 10:21:05.32	161.13	20.54	
2025-01-09 10:21:05.52	161.13	20.56	
2025-01-09 10:21:05.73	161.13	20.59	
2025-01-09 10:21:05.93	161.14	20.62	
2025-01-09 10:21:06.14	161.14	20.65	
2025-01-09 10:21:06.34	161.14	20.67	
2025-01-09 10:21:06.55	161.14	20.70	
2025-01-09 10:21:06.75	161.14	20.73	
2025-01-09 10:21:06.95	161.14	20.76	
2025-01-09 10:21:07.16	161.15	20.78	
2025-01-09 10:21:07.37	161.15	20.81	
2025-01-09 10:21:07.57	161.15	20.84	
2025-01-09 10:21:07.77	161.15	20.87	
2025-01-09 10:21:07.98	161.15	20.90	
2025-01-09 10:21:08.18	161.15	20.92	
2025-01-09 10:21:08.39	161.16	20.95	
2025-01-09 10:21:08.59	161.16	20.98	
2025-01-09 10:21:08.80	161.16	21.01	
2025-01-09 10:21:09.01	161.16	21.04	
2025-01-09 10:21:09.21	161.16	21.06	
2025-01-09 10:21:09.42	161.16	21.09	
2025-01-09 10:21:09.64	161.17	21.12	
2025-01-09 10:21:09.84	161.17	21.15	
2025-01-09 10:21:10.05	161.17	21.18	
2025-01-09 10:21:10.25	161.17	21.21	
2025-01-09 10:21:10.46	161.17	21.24	
2025-01-09 10:21:10.66	161.17	21.26	
2025-01-09 10:21:10.87	161.18	21.29	
2025-01-09 10:21:11.07	161.18	21.32	
2025-01-09 10:21:11.28	161.18	21.35	
2025-01-09 10:21:11.48	161.18	21.38	
2025-01-09 10:21:11.68	161.18	21.41	
2025-01-09 10:21:11.89	161.18	21.43	
2025-01-09 10:21:12.10	161.19	21.46	
2025-01-09 10:21:12.30	161.19	21.49	
2025-01-09 10:21:12.51	161.19	21.52	
2025-01-09 10:21:12.71	161.19	21.55	
2025-01-09 10:21:12.92	161.19	21.58	
2025-01-09 10:21:13.12	161.19	21.61	
2025-01-09 10:21:13.33	161.20	21.64	
2025-01-09 10:21:13.54	161.20	21.67	
2025-01-09 10:21:13.74	161.20	21.69	
2025-01-09 10:21:13.96	161.20	21.72	
2025-01-09 10:21:14.16	161.20	21.75	
2025-01-09 10:21:14.37	161.20	21.78	
2025-01-09 10:21:14.57	161.21	21.81	
2025-01-09 10:21:14.78	161.21	21.84	
2025-01-09 10:21:14.98	161.21	21.87	
2025-01-09 10:21:15.19	161.21	21.90	
2025-01-09 10:21:15.39	161.21	21.93	
2025-01-09 10:21:15.60	161.21	21.96	
2025-01-09 10:21:15.80	161.22	21.98	
2025-01-09 10:21:16.00	161.22	22.01	
2025-01-09 10:21:16.21	161.22	22.04	
2025-01-09 10:21:16.41	161.22	22.07	
2025-01-09 10:21:16.62	161.22	22.10	
2025-01-09 10:21:16.82	161.22	22.13	
2025-01-09 10:21:17.03	161.23	22.16	
2025-01-09 10:21:17.23	161.23	22.19	
2025-01-09 10:21:17.44	161.23	22.22	
2025-01-09 10:21:17.65	161.23	22.25	
2025-01-09 10:21:17.85	161.23	22.28	
2025-01-09 10:21:18.06	161.24	22.31	
2025-01-09 10:21:18.26	161.24	22.34	
2025-01-09 10:21:18.46	161.24	22.37	
2025-01-09 10:21:18.67	161.24	22.40	
2025-01-09 10:21:18.88	161.24	22.43	
2025-01-09 10:21:19.08	161.24	22.46	
2025-01-09 10:21:19.29	161.25	22.49	
2025-01-09 10:21:19.49	161.25	22.52	
2025-01-09 10:21:19.70	161.25	22.55	
2025-01-09 10:21:19.90	161.25	22.58	
2025-01-09 10:21:20.11	161.25	22.61	
2025-01-09 10:21:20.31	161.25	22.63	
2025-01-09 10:21:20.52	161.26	22.67	
2025-01-09 10:21:20.73	161.26	22.70	
2025-01-09 10:21:20.93	161.26	22.73	
2025-01-09 10:21:21.14	161.26	22.76	
2025-01-09 10:21:21.35	161.26	22.79	
2025-01-09 10:21:21.56	161.27	22.82	
2025-01-09 10:21:21.76	161.27	22.85	
2025-01-09 10:21:21.97	161.27	22.88	
2025-01-09 10:21:22.17	161.27	22.91	
2025-01-09 10:21:22.37	161.27	22.94	
2025-01-09 10:21:22.58	161.27	22.97	
2025-01-09 10:21:22.78	161.28	23.00	
2025-01-09 10:21:22.99	161.28	23.03	
2025-01-09 10:21:23.19	161.28	23.06	
2025-01-09 10:21:23.40	161.28	23.09	
2025-01-09 10:21:23.61	161.28	23.12	
2025-01-09 10:21:23.82	161.28	23.15	
2025-01-09 10:21:24.03	161.29	23.18	
2025-01-09 10:21:24.23	161.29	23.21	
2025-01-09 10:21:24.44	161.29	23.24	
2025-01-09 10:21:24.66	161.29	23.28	
2025-01-09 10:21:24.86	161.29	23.31	
2025-01-09 10:21:25.07	161.30	23.34	
2025-01-09 10:21:25.27	161.30	23.37	
2025-01-09 10:21:25.48	161.30	23.40	
2025-01-09 10:21:25.70	161.30	23.43	
2025-01-09 10:21:25.90	161.30	23.46	
2025-01-09 10:21:26.11	161.30	23.50	
2025-01-09 10:21:26.31	161.31	23.53	
2025-01-09 10:21:26.52	161.31	23.56	
2025-01-09 10:21:26.74	161.31	23.59	
2025-01-09 10:21:26.94	161.31	23.62	
2025-01-09 10:21:27.15	161.31	23.65	
2025-01-09 10:21:27.35	161.32	23.68	
2025-01-09 10:21:27.56	161.32	23.72	
2025-01-09 10:21:27.76	161.32	23.75	
2025-01-09 10:21:27.96	161.32	23.78	
2025-01-09 10:21:28.17	161.32	23.81	
2025-01-09 10:21:28.38	161.33	23.84	
2025-01-09 10:21:28.58	161.33	23.87	
2025-01-09 10:21:28.79	161.33	23.90	
2025-01-09 10:21:28.99	161.33	23.93	
2025-01-09 10:21:29.20	161.33	23.97	
2025-01-09 10:21:29.40	161.33	24.00	
2025-01-09 10:21:29.61	161.34	24.03	
2025-01-09 10:21:29.82	161.34	24.06	
2025-01-09 10:21:30.02	161.34	24.09	
2025-01-09 10:21:30.22	161.34	24.12	
2025-01-09 10:21:30.43	161.34	24.16	
2025-01-09 10:21:30.64	161.35	24.19	
2025-01-09 10:21:30.84	161.35	24.22	
2025-01-09 10:21:31.05	161.35	24.25	
2025-01-09 10:21:31.25	161.35	24.28	
2025-01-09 10:21:31.46	161.35	24.32	
2025-01-09 10:21:31.66	161.35	24.35	
2025-01-09 10:21:31.87	161.36	24.38	
2025-01-09 10:21:32.09	161.36	24.41	
2025-01-09 10:21:32.29	161.36	24.45	
2025-01-09 10:21:32.50	161.36	24.48	
2025-01-09 10:21:32.70	161.36	24.51	
2025-01-09 10:21:32.91	161.37	24.54	
2025-01-09 10:21:33.11	161.37	24.57	
2025-01-09 10:21:33.32	161.37	24.61	
2025-01-09 10:21:33.52	161.37	24.64	
2025-01-09 10:21:33.73	161.37	24.67	
2025-01-09 10:21:33.94	161.38	24.71	
2025-01-09 10:21:34.14	161.38	24.74	
2025-01-09 10:21:34.35	161.38	24.77	
2025-01-09 10:21:34.55	161.38	24.80	
2025-01-09 10:21:34.76	161.38	24.84	
2025-01-09 10:21:34.96	161.39	24.87	
2025-01-09 10:21:35.17	161.39	24.90	
2025-01-09 10:21:35.37	161.39	24.93	
2025-01-09 10:21:35.58	161.39	24.97	
2025-01-09 10:21:35.78	161.39	25.00	
2025-01-09 10:21:35.99	161.40	25.03	
2025-01-09 10:21:36.19	161.40	25.06	
2025-01-09 10:21:36.41	161.40	25.10	
2025-01-09 10:21:36.62	161.40	25.13	
2025-01-09 10:21:36.82	161.40	25.16	
2025-01-09 10:21:37.03	161.40	25.20	
2025-01-09 10:21:37.24	161.41	25.23	
2025-01-09 10:21:37.44	161.41	25.26	
2025-01-09 10:21:37.64	161.41	25.30	
2025-01-09 10:21:37.85	161.41	25.33	
2025-01-09 10:21:38.06	161.41	25.37	
2025-01-09 10:21:38.26	161.42	25.40	
2025-01-09 10:21:38.46	161.42	25.43	
2025-01-09 10:21:38.67	161.42	25.46	
2025-01-09 10:21:38.87	161.42	25.50	
2025-01-09 10:21:39.08	161.42	25.53	
2025-01-09 10:21:39.28	161.43	25.56	
2025-01-09 10:21:39.49	161.43	25.60	
2025-01-09 10:21:39.69	161.43	25.63	
2025-01-09 10:21:39.90	161.43	25.67	
2025-01-09 10:21:40.11	161.43	25.70	
2025-01-09 10:21:40.31	161.44	25.73	
2025-01-09 10:21:40.52	161.44	25.77	
2025-01-09 10:21:40.72	161.44	25.80	
2025-01-09 10:21:40.93	161.44	25.83	
2025-01-09 10:21:41.13	161.44	25.87	
2025-01-09 10:21:41.34	161.45	25.90	
2025-01-09 10:21:41.55	161.45	25.94	
2025-01-09 10:21:41.75	161.45	25.97	
2025-01-09 10:21:41.96	161.45	26.01	
2025-01-09 10:21:42.16	161.45	26.04	
2025-01-09 10:21:42.37	161.46	26.07	
2025-01-09 10:21:42.57	161.46	26.11	
2025-01-09 10:21:42.78	161.46	26.14	
2025-01-09 10:21:42.98	161.46	26.17	
2025-01-09 10:21:43.19	161.46	26.21	
2025-01-09 10:21:43.39	161.47	26.24	
2025-01-09 10:21:43.60	161.47	26.28	
2025-01-09 10:21:43.80	161.47	26.31	
2025-01-09 10:21:44.00	161.47	26.35	
2025-01-09 10:21:44.21	161.47	26.38	
2025-01-09 10:21:44.41	161.48	26.41	
2025-01-09 10:21:44.62	161.48	26.45	
2025-01-09 10:21:44.82	161.48	26.48	
2025-01-09 10:21:45.03	161.48	26.52	
2025-01-09 10:21:45.24	161.49	26.56	
2025-01-09 10:21:45.44	161.49	26.59	
2025-01-09 10:21:45.65	161.49	26.62	
2025-01-09 10:21:45.85	161.49	26.66	
2025-01-09 10:21:46.06	161.49	26.69	
2025-01-09 10:21:46.26	161.50	26.73	
2025-01-09 10:21:46.47	161.50	26.76	
2025-01-09 10:21:46.67	161.50	26.80	
2025-01-09 10:21:46.88	161.50	26.83	
2025-01-09 10:21:47.09	161.50	26.87	
2025-01-09 10:21:47.30	161.51	26.91	
2025-01-09 10:21:47.51	161.51	26.94	
2025-01-09 10:21:47.71	161.51	26.98	
2025-01-09 10:21:47.92	161.51	27.01	
2025-01-09 10:21:48.14	161.51	27.05	
2025-01-09 10:21:48.34	161.52	27.09	
2025-01-09 10:21:48.55	161.52	27.12	
2025-01-09 10:21:48.75	161.52	27.16	
2025-01-09 10:21:48.96	161.52	27.19	
2025-01-09 10:21:49.16	161.52	27.23	
2025-01-09 10:21:49.37	161.53	27.26	
2025-01-09 10:21:49.58	161.53	27.30	
2025-01-09 10:21:49.78	161.53	27.34	
2025-01-09 10:21:49.99	161.53	27.37	
2025-01-09 10:21:50.19	161.54	27.41	
2025-01-09 10:21:50.40	161.54	27.44	
2025-01-09 10:21:50.60	161.54	27.48	
2025-01-09 10:21:50.81	161.54	27.52	
2025-01-09 10:21:51.02	161.54	27.55	
2025-01-09 10:21:51.22	161.55	27.59	
2025-01-09 10:21:51.42	161.55	27.62	
2025-01-09 10:21:51.63	161.55	27.66	
2025-01-09 10:21:51.84	161.55	27.70	
2025-01-09 10:21:52.04	161.56	27.73	
2025-01-09 10:21:52.25	161.56	27.77	
2025-01-09 10:21:52.45	161.56	27.81	
2025-01-09 10:21:52.66	161.56	27.84	
2025-01-09 10:21:52.86	161.56	27.88	
2025-01-09 10:21:53.07	161.57	27.92	
2025-01-09 10:21:53.27	161.57	27.95	
2025-01-09 10:21:53.49	161.57	27.99	
2025-01-09 10:21:53.70	161.57	28.03	
2025-01-09 10:21:53.90	161.57	28.06	
2025-01-09 10:21:54.11	161.58	28.10	
2025-01-09 10:21:54.31	161.58	28.14	
2025-01-09 10:21:54.53	161.58	28.18	
2025-01-09 10:21:54.74	161.58	28.21	
2025-01-09 10:21:54.94	161.59	28.25	
2025-01-09 10:21:55.15	161.59	28.29	
2025-01-09 10:21:55.36	161.59	28.33	
2025-01-09 10:21:55.56	161.59	28.36	
2025-01-09 10:21:55.77	161.60	28.40	
2025-01-09 10:21:55.97	161.60	28.44	
2025-01-09 10:21:56.18	161.60	28.48	
2025-01-09 10:21:56.38	161.60	28.51	
2025-01-09 10:21:56.59	161.60	28.55	
2025-01-09 10:21:56.79	161.61	28.59	
2025-01-09 10:21:57.00	161.61	28.62	
2025-01-09 10:21:57.20	161.61	28.66	
2025-01-09 10:21:57.41	161.61	28.70	
2025-01-09 10:21:57.61	161.62	28.74	
2025-01-09 10:21:57.82	161.62	28.78	
2025-01-09 10:21:58.03	161.62	28.81	
2025-01-09 10:21:58.23	161.62	28.85	
2025-01-09 10:21:58.44	161.62	28.89	
2025-01-09 10:21:58.64	161.63	28.93	
2025-01-09 10:21:58.84	161.63	28.96	
2025-01-09 10:21:59.05	161.63	29.00	
2025-01-09 10:21:59.26	161.63	29.04	
2025-01-09 10:21:59.46	161.64	29.08	
2025-01-09 10:21:59.67	161.64	29.12	
2025-01-09 10:21:59.88	161.64	29.16	
2025-01-09 10:22:00.09	161.64	29.20	
2025-01-09 10:22:00.29	161.65	29.23	
2025-01-09 10:22:00.50	161.65	29.27	
2025-01-09 10:22:00.70	161.65	29.31	
2025-01-09 10:22:00.91	161.65	29.35	
2025-01-09 10:22:01.11	161.65	29.39	
2025-01-09 10:22:01.32	161.66	29.43	
2025-01-09 10:22:01.52	161.66	29.46	
2025-01-09 10:22:01.73	161.66	29.50	
2025-01-09 10:22:01.93	161.66	29.54	
2025-01-09 10:22:02.14	161.67	29.58	
2025-01-09 10:22:02.34	161.67	29.62	
2025-01-09 10:22:02.55	161.67	29.66	
2025-01-09 10:22:02.75	161.67	29.70	
2025-01-09 10:22:02.96	161.68	29.74	
2025-01-09 10:22:03.18	161.68	29.78	
2025-01-09 10:22:03.38	161.68	29.82	
2025-01-09 10:22:03.58	161.68	29.85	
2025-01-09 10:22:03.79	161.69	29.89	
2025-01-09 10:22:04.00	161.69	29.93	
2025-01-09 10:22:04.20	161.69	29.97	
2025-01-09 10:22:04.41	161.69	30.01	
2025-01-09 10:22:04.61	161.69	30.05	
2025-01-09 10:22:04.82	161.70	30.09	
2025-01-09 10:22:05.02	161.70	30.13	
2025-01-09 10:22:05.23	161.70	30.17	
2025-01-09 10:22:05.43	161.70	30.21	
2025-01-09 10:22:05.64	161.71	30.25	
2025-01-09 10:22:05.84	161.71	30.29	
2025-01-09 10:22:06.05	161.71	30.33	
2025-01-09 10:22:06.25	161.71	30.37	
2025-01-09 10:22:06.46	161.72	30.41	
2025-01-09 10:22:06.66	161.72	30.45	
2025-01-09 10:22:06.87	161.72	30.49	
2025-01-09 10:22:07.07	161.72	30.53	
2025-01-09 10:22:07.28	161.73	30.57	
2025-01-09 10:22:07.48	161.73	30.61	
2025-01-09 10:22:07.69	161.73	30.65	
2025-01-09 10:22:07.89	161.73	30.69	
2025-01-09 10:22:08.10	161.74	30.73	
2025-01-09 10:22:08.30	161.74	30.77	
2025-01-09 10:22:08.51	161.74	30.81	
2025-01-09 10:22:08.71	161.74	30.85	
2025-01-09 10:22:08.92	161.75	30.89	
2025-01-09 10:22:09.13	161.75	30.93	
2025-01-09 10:22:09.33	161.75	30.97	
2025-01-09 10:22:09.54	161.75	31.01	
2025-01-09 10:22:09.74	161.76	31.05	
2025-01-09 10:22:09.95	161.76	31.10	
2025-01-09 10:22:10.15	161.76	31.14	
2025-01-09 10:22:10.36	161.76	31.18	
2025-01-09 10:22:10.56	161.77	31.22	
2025-01-09 10:22:10.77	161.77	31.26	
2025-01-09 10:22:10.98	161.77	31.30	
2025-01-09 10:22:11.18	161.77	31.34	
2025-01-09 10:22:11.39	161.78	31.38	
2025-01-09 10:22:11.59	161.78	31.42	
2025-01-09 10:22:11.80	161.78	31.47	
2025-01-09 10:22:12.00	161.78	31.51	
2025-01-09 10:22:12.21	161.79	31.55	
2025-01-09 10:22:12.41	161.79	31.59	
2025-01-09 10:22:12.62	161.79	31.63	
2025-01-09 10:22:12.82	161.79	31.67	
2025-01-09 10:22:13.03	161.80	31.72	
2025-01-09 10:22:13.24	161.80	31.76	
2025-01-09 10:22:13.44	161.80	31.80	
2025-01-09 10:22:13.64	161.80	31.84	
2025-01-09 10:22:13.85	161.81	31.88	
2025-01-09 10:22:14.05	161.81	31.92	
2025-01-09 10:22:14.26	161.81	31.97	
2025-01-09 10:22:14.47	161.82	32.01	
2025-01-09 10:22:14.67	161.82	32.05	
2025-01-09 10:22:14.88	161.82	32.10	
2025-01-09 10:22:15.08	161.82	32.14	
2025-01-09 10:22:15.29	161.83	32.18	
2025-01-09 10:22:15.49	161.83	32.22	
2025-01-09 10:22:15.70	161.83	32.27	
2025-01-09 10:22:15.90	161.83	32.31	
2025-01-09 10:22:16.11	161.84	32.35	
2025-01-09 10:22:16.31	161.84	32.39	
2025-01-09 10:22:16.52	161.84	32.44	
2025-01-09 10:22:16.73	161.84	32.48	
2025-01-09 10:22:16.93	161.85	32.52	
2025-01-09 10:22:17.14	161.85	32.57	
2025-01-09 10:22:17.34	161.85	32.61	
2025-01-09 10:22:17.55	161.85	32.65	
2025-01-09 10:22:17.75	161.86	32.69	
2025-01-09 10:22:17.97	161.86	32.74	
2025-01-09 10:22:18.18	161.86	32.78	
2025-01-09 10:22:18.38	161.87	32.83	
2025-01-09 10:22:18.59	161.87	32.87	
2025-01-09 10:22:18.79	161.87	32.91	
2025-01-09 10:22:19.00	161.87	32.96	
2025-01-09 10:22:19.20	161.88	33.00	
2025-01-09 10:22:19.41	161.88	33.04	
2025-01-09 10:22:19.63	161.88	33.09	
2025-01-09 10:22:19.83	161.89	33.13	
2025-01-09 10:22:20.04	161.89	33.18	
2025-01-09 10:22:20.24	161.89	33.22	
2025-01-09 10:22:20.45	161.89	33.27	
2025-01-09 10:22:20.65	161.90	33.31	
2025-01-09 10:22:20.86	161.90	33.35	
2025-01-09 10:22:21.06	161.90	33.40	
2025-01-09 10:22:21.28	161.90	33.44	
2025-01-09 10:22:21.49	161.91	33.49	
2025-01-09 10:22:21.69	161.91	33.53	
2025-01-09 10:22:21.89	161.91	33.58	
2025-01-09 10:22:22.10	161.92	33.62	
2025-01-09 10:22:22.32	161.92	33.67	
2025-01-09 10:22:22.52	161.92	33.71	
2025-01-09 10:22:22.73	161.92	33.76	
2025-01-09 10:22:22.93	161.93	33.80	
2025-01-09 10:22:23.14	161.93	33.85	
2025-01-09 10:22:23.34	161.93	33.89	
2025-01-09 10:22:23.55	161.94	33.94	
2025-01-09 10:22:23.75	161.94	33.98	
2025-01-09 10:22:23.96	161.94	34.03	
2025-01-09 10:22:24.17	161.94	34.07	
2025-01-09 10:22:24.37	161.95	34.12	
2025-01-09 10:22:24.58	161.95	34.16	
2025-01-09 10:22:24.78	161.95	34.21	
2025-01-09 10:22:24.99	161.96	34.26	
2025-01-09 10:22:25.19	161.96	34.30	
2025-01-09 10:22:25.40	161.96	34.35	
2025-01-09 10:22:25.60	161.97	34.39	
2025-01-09 10:22:25.81	161.97	34.44	
2025-01-09 10:22:26.02	161.97	34.48	
2025-01-09 10:22:26.22	161.97	34.53	
2025-01-09 10:22:26.43	161.98	34.58	
2025-01-09 10:22:26.63	161.98	34.62	
2025-01-09 10:22:26.84	161.98	34.67	
2025-01-09 10:22:27.04	161.99	34.71	
2025-01-09 10:22:27.25	161.99	34.76	
2025-01-09 10:22:27.45	161.99	34.80	
2025-01-09 10:22:27.66	161.99	34.85	
2025-01-09 10:22:27.86	162.00	34.90	
2025-01-09 10:22:28.07	162.00	34.94	
2025-01-09 10:22:28.27	162.00	34.99	
2025-01-09 10:22:28.48	162.01	35.04	
2025-01-09 10:22:28.68	162.01	35.08	
2025-01-09 10:22:28.89	162.01	35.13	
2025-01-09 10:22:29.09	162.02	35.18	
2025-01-09 10:22:29.30	162.02	35.22	
2025-01-09 10:22:29.50	162.02	35.27	
2025-01-09 10:22:29.71	162.02	35.32	
2025-01-09 10:22:29.91	162.03	35.36	
2025-01-09 10:22:30.12	162.03	35.41	
2025-01-09 10:22:30.32	162.03	35.46	
2025-01-09 10:22:30.53	162.04	35.51	
2025-01-09 10:22:30.73	162.04	35.55	
2025-01-09 10:22:30.94	162.04	35.60	
2025-01-09 10:22:31.14	162.05	35.65	
2025-01-09 10:22:31.35	162.05	35.70	
2025-01-09 10:22:31.55	162.05	35.74	
2025-01-09 10:22:31.76	162.06	35.79	
2025-01-09 10:22:31.96	162.06	35.84	
2025-01-09 10:22:32.17	162.06	35.89	
2025-01-09 10:22:32.38	162.07	35.94	
2025-01-09 10:22:32.58	162.07	35.98	
2025-01-09 10:22:32.79	162.07	36.03	
2025-01-09 10:22:32.99	162.07	36.08	
2025-01-09 10:22:33.20	162.08	36.13	
2025-01-09 10:22:33.40	162.08	36.17	
2025-01-09 10:22:33.61	162.08	36.22	
2025-01-09 10:22:33.81	162.09	36.27	
2025-01-09 10:22:34.03	162.09	36.32	
2025-01-09 10:22:34.23	162.09	36.37	
2025-01-09 10:22:34.44	162.10	36.42	
2025-01-09 10:22:34.65	162.10	36.47	
2025-01-09 10:22:34.85	162.10	36.52	
2025-01-09 10:22:35.06	162.11	36.57	
2025-01-09 10:22:35.27	162.11	36.62	
2025-01-09 10:22:35.47	162.11	36.66	
2025-01-09 10:22:35.68	162.12	36.71	
2025-01-09 10:22:35.88	162.12	36.76	
2025-01-09 10:22:36.08	162.12	36.81	
2025-01-09 10:22:36.29	162.13	36.86	
2025-01-09 10:22:36.49	162.13	36.91	
2025-01-09 10:22:36.70	162.13	36.96	
2025-01-09 10:22:36.91	162.14	37.01	
2025-01-09 10:22:37.11	162.14	37.06	
2025-01-09 10:22:37.31	162.14	37.11	
2025-01-09 10:22:37.52	162.15	37.16	
2025-01-09 10:22:37.72	162.15	37.21	
2025-01-09 10:22:37.93	162.15	37.26	
2025-01-09 10:22:38.14	162.16	37.31	
2025-01-09 10:22:38.34	162.16	37.36	
2025-01-09 10:22:38.55	162.16	37.41	
2025-01-09 10:22:38.75	162.17	37.46	
2025-01-09 10:22:38.96	162.17	37.51	
2025-01-09 10:22:39.16	162.17	37.56	
2025-01-09 10:22:39.38	162.18	37.61	
2025-01-09 10:22:39.59	162.18	37.66	
2025-01-09 10:22:39.79	162.18	37.71	
2025-01-09 10:22:40.01	162.19	37.77	
2025-01-09 10:22:40.21	162.19	37.82	
2025-01-09 10:22:40.42	162.19	37.87	
2025-01-09 10:22:40.62	162.20	37.92	
2025-01-09 10:22:40.83	162.20	37.97	
2025-01-09 10:22:41.03	162.20	38.02	
2025-01-09 10:22:41.24	162.21	38.07	
2025-01-09 10:22:41.44	162.21	38.12	
2025-01-09 10:22:41.64	162.22	38.17	
2025-01-09 10:22:41.85	162.22	38.22	
2025-01-09 10:22:42.06	162.22	38.28	
2025-01-09 10:22:42.26	162.23	38.33	
2025-01-09 10:22:42.46	162.23	38.38	
2025-01-09 10:22:42.67	162.23	38.43	
2025-01-09 10:22:42.87	162.24	38.48	
2025-01-09 10:22:43.08	162.24	38.53	
2025-01-09 10:22:43.28	162.24	38.58	
2025-01-09 10:22:43.49	162.25	38.64	
2025-01-09 10:22:43.69	162.25	38.69	
2025-01-09 10:22:43.90	162.25	38.74	
2025-01-09 10:22:44.10	162.26	38.79	
2025-01-09 10:22:44.31	162.26	38.84	
2025-01-09 10:22:44.52	162.27	38.90	
2025-01-09 10:22:44.72	162.27	38.95	
2025-01-09 10:22:44.92	162.27	39.00	
2025-01-09 10:22:45.13	162.28	39.05	
2025-01-09 10:22:45.33	162.28	39.11	
2025-01-09 10:22:45.54	162.28	39.16	
2025-01-09 10:22:45.74	162.29	39.21	
2025-01-09 10:22:45.95	162.29	39.27	
2025-01-09 10:22:46.15	162.29	39.32	
2025-01-09 10:22:46.36	162.30	39.37	
2025-01-09 10:22:46.56	162.30	39.42	
2025-01-09 10:22:46.77	162.31	39.48	
2025-01-09 10:22:46.97	162.31	39.53	
2025-01-09 10:22:47.18	162.31	39.58	
2025-01-09 10:22:47.39	162.32	39.64	
2025-01-09 10:22:47.59	162.32	39.69	
2025-01-09 10:22:47.80	162.32	39.75	
2025-01-09 10:22:48.00	162.33	39.80	
2025-01-09 10:22:48.21	162.33	39.85	
2025-01-09 10:22:48.41	162.34	39.91	
2025-01-09 10:22:48.62	162.34	39.96	
2025-01-09 10:22:48.82	162.34	40.01	
2025-01-09 10:22:49.03	162.35	40.07	
2025-01-09 10:22:49.23	162.35	40.12	
2025-01-09 10:22:49.44	162.36	40.18	
2025-01-09 10:22:49.64	162.36	40.23	
2025-01-09 10:22:49.85	162.36	40.29	
2025-01-09 10:22:50.05	162.37	40.34	
2025-01-09 10:22:50.25	162.37	40.39	
2025-01-09 10:22:50.46	162.37	40.45	
2025-01-09 10:22:50.66	162.38	40.50	
2025-01-09 10:22:50.87	162.38	40.56	
2025-01-09 10:22:51.07	162.39	40.61	
2025-01-09 10:22:51.28	162.39	40.67	
2025-01-09 10:22:51.48	162.39	40.72	
2025-01-09 10:22:51.69	162.40	40.78	
2025-01-09 10:22:51.89	162.40	40.83	
2025-01-09 10:22:52.10	162.41	40.89	
2025-01-09 10:22:52.30	162.41	40.94	
2025-01-09 10:22:52.51	162.41	41.00	
2025-01-09 10:22:52.72	162.42	41.06	
2025-01-09 10:22:52.92	162.42	41.11	
2025-01-09 10:22:53.13	162.43	41.17	
2025-01-09 10:22:53.33	162.43	41.22	
2025-01-09 10:22:53.53	162.43	41.28	
2025-01-09 10:22:53.74	162.44	41.33	
2025-01-09 10:22:53.95	162.44	41.39	
2025-01-09 10:22:54.15	162.45	41.45	
2025-01-09 10:22:54.36	162.45	41.50	
2025-01-09 10:22:54.56	162.46	41.56	
2025-01-09 10:22:54.77	162.46	41.62	
2025-01-09 10:22:54.98	162.46	41.67	
2025-01-09 10:22:55.18	162.47	41.73	
2025-01-09 10:22:55.39	162.47	41.79	
2025-01-09 10:22:55.59	162.48	41.84	
2025-01-09 10:22:55.80	162.48	41.90	
2025-01-09 10:22:56.00	162.48	41.96	
2025-01-09 10:22:56.21	162.49	42.02	
2025-01-09 10:22:56.41	162.49	42.07	
2025-01-09 10:22:56.62	162.50	42.13	
2025-01-09 10:22:56.82	162.50	42.19	
2025-01-09 10:22:57.03	162.51	42.24	
2025-01-09 10:22:57.23	162.51	42.30	
2025-01-09 10:22:57.44	162.51	42.36	
2025-01-09 10:22:57.64	162.52	42.42	
2025-01-09 10:22:57.85	162.52	42.48	
2025-01-09 10:22:58.06	162.53	42.53	
2025-01-09 10:22:58.26	162.53	42.59	
2025-01-09 10:22:58.46	162.54	42.65	
2025-01-09 10:22:58.67	162.54	42.71	
2025-01-09 10:22:58.87	162.55	42.76	
2025-01-09 10:22:59.08	162.55	42.82	
2025-01-09 10:22:59.29	162.55	42.88	
2025-01-09 10:22:59.49	162.56	42.94	
2025-01-09 10:22:59.71	162.56	43.00	
2025-01-09 10:22:59.92	162.57	43.06	
2025-01-09 10:23:00.12	162.57	43.12	
2025-01-09 10:23:00.32	162.58	43.18	
2025-01-09 10:23:00.53	162.58	43.24	
2025-01-09 10:23:00.73	162.59	43.30	
2025-01-09 10:23:00.94	162.59	43.36	
2025-01-09 10:23:01.15	162.60	43.42	
2025-01-09 10:23:01.35	162.60	43.48	
2025-01-09 10:23:01.56	162.60	43.54	
2025-01-09 10:23:01.77	162.61	43.60	
2025-01-09 10:23:01.98	162.61	43.66	
2025-01-09 10:23:02.19	162.62	43.72	
2025-01-09 10:23:02.39	162.62	43.78	
2025-01-09 10:23:02.60	162.63	43.84	
2025-01-09 10:23:02.80	162.63	43.90	
2025-01-09 10:23:03.01	162.64	43.96	
2025-01-09 10:23:03.21	162.64	44.02	
2025-01-09 10:23:03.42	162.65	44.08	
2025-01-09 10:23:03.62	162.65	44.14	
2025-01-09 10:23:03.83	162.66	44.20	
2025-01-09 10:23:04.03	162.66	44.26	
2025-01-09 10:23:04.24	162.67	44.32	
2025-01-09 10:23:04.44	162.67	44.38	
2025-01-09 10:23:04.65	162.68	44.44	
2025-01-09 10:23:04.86	162.68	44.51	
2025-01-09 10:23:05.06	162.69	44.56	
2025-01-09 10:23:05.27	162.69	44.63	
2025-01-09 10:23:05.47	162.70	44.69	
2025-01-09 10:23:05.67	162.70	44.75	
2025-01-09 10:23:05.88	162.71	44.81	
2025-01-09 10:23:06.08	162.71	44.87	
2025-01-09 10:23:06.29	162.71	44.93	
2025-01-09 10:23:06.49	162.72	44.99	
2025-01-09 10:23:06.70	162.72	45.06	
2025-01-09 10:23:06.90	162.73	45.12	
2025-01-09 10:23:07.11	162.73	45.18	
2025-01-09 10:23:07.31	162.74	45.24	
2025-01-09 10:23:07.52	162.74	45.30	
2025-01-09 10:23:07.72	162.75	45.36	
2025-01-09 10:23:07.93	162.76	45.43	
2025-01-09 10:23:08.13	162.76	45.49	
2025-01-09 10:23:08.34	162.77	45.55	
2025-01-09 10:23:08.54	162.77	45.61	
2025-01-09 10:23:08.75	162.78	45.68	
2025-01-09 10:23:08.95	162.78	45.74	
2025-01-09 10:23:09.16	162.79	45.80	
2025-01-09 10:23:09.37	162.79	45.87	
2025-01-09 10:23:09.57	162.80	45.93	
2025-01-09 10:23:09.78	162.80	46.00	
2025-01-09 10:23:09.98	162.81	46.06	
2025-01-09 10:23:10.19	162.81	46.12	
2025-01-09 10:23:10.41	162.82	46.19	
2025-01-09 10:23:10.61	162.82	46.25	
2025-01-09 10:23:10.82	162.83	46.32	
2025-01-09 10:23:11.02	162.83	46.38	
2025-01-09 10:23:11.23	162.84	46.45	
2025-01-09 10:23:11.43	162.84	46.51	
2025-01-09 10:23:11.64	162.85	46.57	
2025-01-09 10:23:11.84	162.86	46.64	
2025-01-09 10:23:12.05	162.86	46.70	
2025-01-09 10:23:12.25	162.87	46.76	
2025-01-09 10:23:12.46	162.87	46.83	
2025-01-09 10:23:12.66	162.88	46.89	
2025-01-09 10:23:12.87	162.88	46.96	
2025-01-09 10:23:13.07	162.89	47.02	
2025-01-09 10:23:13.27	162.89	47.09	
2025-01-09 10:23:13.48	162.90	47.15	
2025-01-09 10:23:13.68	162.91	47.22	
2025-01-09 10:23:13.89	162.91	47.28	
2025-01-09 10:23:14.09	162.92	47.35	
2025-01-09 10:23:14.30	162.92	47.41	
2025-01-09 10:23:14.50	162.93	47.48	
2025-01-09 10:23:14.71	162.93	47.54	
2025-01-09 10:23:14.91	162.94	47.61	
2025-01-09 10:23:15.12	162.95	47.68	
2025-01-09 10:23:15.32	162.95	47.74	
2025-01-09 10:23:15.53	162.96	47.81	
2025-01-09 10:23:15.73	162.96	47.87	
2025-01-09 10:23:15.94	162.97	47.94	
2025-01-09 10:23:16.14	162.97	48.01	
2025-01-09 10:23:16.35	162.98	48.07	
2025-01-09 10:23:16.55	162.99	48.14	
2025-01-09 10:23:16.77	162.99	48.21	
2025-01-09 10:23:16.98	163.00	48.28	
2025-01-09 10:23:17.19	163.00	48.35	
2025-01-09 10:23:17.39	163.01	48.41	
2025-01-09 10:23:17.60	163.02	48.48	
2025-01-09 10:23:17.81	163.02	48.55	
2025-01-09 10:23:18.02	163.03	48.62	
2025-01-09 10:23:18.23	163.04	48.69	
2025-01-09 10:23:18.43	163.04	48.75	
2025-01-09 10:23:18.64	163.05	48.82	
2025-01-09 10:23:18.84	163.05	48.89	
2025-01-09 10:23:19.05	163.06	48.96	
2025-01-09 10:23:19.25	163.07	49.02	
2025-01-09 10:23:19.47	163.07	49.10	
2025-01-09 10:23:19.68	163.08	49.17	
2025-01-09 10:23:19.88	163.09	49.23	
2025-01-09 10:23:20.08	163.09	49.30	
2025-01-09 10:23:20.29	163.10	49.37	
2025-01-09 10:23:20.49	163.10	49.44	
2025-01-09 10:23:20.70	163.11	49.51	
2025-01-09 10:23:20.90	163.12	49.57	
2025-01-09 10:23:21.10	163.12	49.64	
2025-01-09 10:23:21.31	163.13	49.71	
2025-01-09 10:23:21.52	163.14	49.78	
2025-01-09 10:23:21.72	163.14	49.85	
2025-01-09 10:23:21.93	163.15	49.92	
2025-01-09 10:23:22.13	163.16	49.99	
2025-01-09 10:23:22.34	163.16	50.06	
2025-01-09 10:23:22.54	163.17	50.13	
2025-01-09 10:23:22.76	163.18	50.20	
2025-01-09 10:23:22.97	163.18	50.27	
2025-01-09 10:23:23.18	163.19	50.34	
2025-01-09 10:23:23.39	163.20	50.42	
2025-01-09 10:23:23.59	163.20	50.48	
2025-01-09 10:23:23.80	163.21	50.56	
2025-01-09 10:23:24.00	163.22	50.62	
2025-01-09 10:23:24.21	163.22	50.70	
2025-01-09 10:23:24.41	163.23	50.77	
2025-01-09 10:23:24.62	163.24	50.84	
2025-01-09 10:23:24.82	163.24	50.91	
2025-01-09 10:23:25.03	163.25	50.98	
2025-01-09 10:23:25.23	163.26	51.05	
2025-01-09 10:23:25.44	163.27	51.12	
2025-01-09 10:23:25.64	163.27	51.19	
2025-01-09 10:23:25.85	163.28	51.26	
2025-01-09 10:23:26.05	163.29	51.33	
2025-01-09 10:23:26.26	163.29	51.41	
2025-01-09 10:23:26.46	163.30	51.48	
2025-01-09 10:23:26.68	163.31	51.55	
2025-01-09 10:23:26.88	163.32	51.62	
2025-01-09 10:23:27.09	163.32	51.70	
2025-01-09 10:23:27.29	163.33	51.77	
2025-01-09 10:23:27.50	163.34	51.84	
2025-01-09 10:23:27.70	163.35	51.91	
2025-01-09 10:23:27.91	163.35	51.99	
2025-01-09 10:23:28.11	163.36	52.06	
2025-01-09 10:23:28.32	163.37	52.13	
2025-01-09 10:23:28.52	163.38	52.20	
2025-01-09 10:23:28.73	163.38	52.28	
2025-01-09 10:23:28.93	163.39	52.35	
2025-01-09 10:23:29.14	163.40	52.42	
2025-01-09 10:23:29.35	163.41	52.50	
2025-01-09 10:23:29.55	163.41	52.57	
2025-01-09 10:23:29.75	163.42	52.64	
2025-01-09 10:23:29.96	163.43	52.71	
2025-01-09 10:23:30.16	163.44	52.79	
2025-01-09 10:23:30.37	163.44	52.86	
2025-01-09 10:23:30.57	163.45	52.93	
2025-01-09 10:23:30.77	163.46	53.01	
2025-01-09 10:23:30.98	163.47	53.08	
2025-01-09 10:23:31.19	163.48	53.16	
2025-01-09 10:23:31.39	163.48	53.23	
2025-01-09 10:23:31.59	163.49	53.30	
2025-01-09 10:23:31.80	163.50	53.38	
2025-01-09 10:23:32.00	163.51	53.45	
2025-01-09 10:23:32.21	163.52	53.53	
2025-01-09 10:23:32.41	163.52	53.60	
2025-01-09 10:23:32.62	163.53	53.68	
2025-01-09 10:23:32.84	163.54	53.76	
2025-01-09 10:23:33.04	163.55	53.83	
2025-01-09 10:23:33.25	163.56	53.91	
2025-01-09 10:23:33.46	163.57	53.98	
2025-01-09 10:23:33.66	163.58	54.06	
2025-01-09 10:23:33.88	163.58	54.14	
2025-01-09 10:23:34.09	163.59	54.22	
2025-01-09 10:23:34.29	163.60	54.29	
2025-01-09 10:23:34.50	163.61	54.37	
2025-01-09 10:23:34.70	163.62	54.44	
2025-01-09 10:23:34.91	163.63	54.52	
2025-01-09 10:23:35.11	163.64	54.59	
2025-01-09 10:23:35.32	163.65	54.67	
2025-01-09 10:23:35.53	163.65	54.75	
2025-01-09 10:23:35.73	163.66	54.82	
2025-01-09 10:23:35.94	163.67	54.90	
2025-01-09 10:23:36.14	163.68	54.98	
2025-01-09 10:23:36.35	163.69	55.06	
2025-01-09 10:23:36.55	163.70	55.13	
2025-01-09 10:23:36.76	163.71	55.21	
2025-01-09 10:23:36.96	163.72	55.29	
2025-01-09 10:23:37.17	163.73	55.36	
2025-01-09 10:23:37.37	163.74	55.44	
2025-01-09 10:23:37.58	163.74	55.52	
2025-01-09 10:23:37.79	163.75	55.60	
2025-01-09 10:23:37.99	163.76	55.67	
2025-01-09 10:23:38.19	163.77	55.75	
2025-01-09 10:23:38.40	163.78	55.83	
2025-01-09 10:23:38.61	163.79	55.91	
2025-01-09 10:23:38.81	163.80	55.99	
2025-01-09 10:23:39.02	163.81	56.07	
2025-01-09 10:23:39.23	163.82	56.15	
2025-01-09 10:23:39.44	163.83	56.23	
2025-01-09 10:23:39.65	163.84	56.31	
2025-01-09 10:23:39.85	163.85	56.38	
2025-01-09 10:23:40.06	163.86	56.47	
2025-01-09 10:23:40.26	163.87	56.54	
2025-01-09 10:23:40.47	163.88	56.62	
2025-01-09 10:23:40.67	163.89	56.70	
2025-01-09 10:23:40.88	163.90	56.78	
2025-01-09 10:23:41.08	163.91	56.86	
2025-01-09 10:23:41.29	163.92	56.94	
2025-01-09 10:23:41.49	163.93	57.02	
2025-01-09 10:23:41.70	163.94	57.10	
2025-01-09 10:23:41.90	163.95	57.18	
2025-01-09 10:23:42.11	163.96	57.26	
2025-01-09 10:23:42.31	163.97	57.34	
2025-01-09 10:23:42.51	163.98	57.42	
2025-01-09 10:23:42.72	163.99	57.50	
2025-01-09 10:23:42.93	164.00	57.58	
2025-01-09 10:23:43.13	164.01	57.66	
2025-01-09 10:23:43.33	164.03	57.74	
