passes_logs/2025/01/09/SPB_Silybum_02/SPB_Silybum_02__20250109_165518_TERRA_rec.log

#Pass ID: 20250109_165518_TERRA
#Satellite: TERRA
#Configuration: TERRA
#Start time: 2025-01-09 16:55:17

#Version: 2.0.20230423
#Station: SPB_Silybum_02
#Location: 30.233357 lon 59.946436 lat
#TLE: 1 25994U 99068A   25008.82275774  .00000946  00000+0  20487-3 0  9990
#TLE: 2 25994  98.0228  72.0493 0003564  84.8498   6.9254 14.60383008333170

#Time	Az	El	Level	Level2	SNR	BER	Gain	Gain2
2025-01-09 16:55:19.90	111.68	4.06	
2025-01-09 16:55:20.11	111.66	4.08	
2025-01-09 16:55:20.31	111.65	4.09	
2025-01-09 16:55:20.52	111.63	4.10	
2025-01-09 16:55:20.73	111.62	4.12	
2025-01-09 16:55:20.93	111.60	4.13	
2025-01-09 16:55:21.14	111.58	4.14	
2025-01-09 16:55:21.34	111.57	4.16	
2025-01-09 16:55:21.55	111.55	4.17	
2025-01-09 16:55:21.75	111.53	4.18	
2025-01-09 16:55:21.95	111.52	4.19	
2025-01-09 16:55:22.16	111.50	4.21	
2025-01-09 16:55:22.36	111.48	4.22	
2025-01-09 16:55:22.57	111.47	4.23	
2025-01-09 16:55:22.77	111.45	4.25	
2025-01-09 16:55:22.98	111.43	4.26	
2025-01-09 16:55:23.19	111.42	4.27	
2025-01-09 16:55:23.39	111.40	4.29	
2025-01-09 16:55:23.61	111.38	4.30	
2025-01-09 16:55:23.81	111.37	4.31	
2025-01-09 16:55:24.02	111.35	4.33	
2025-01-09 16:55:24.22	111.33	4.34	
2025-01-09 16:55:24.43	111.32	4.35	
2025-01-09 16:55:24.63	111.30	4.36	
2025-01-09 16:55:24.84	111.28	4.38	
2025-01-09 16:55:25.04	111.27	4.39	
2025-01-09 16:55:25.25	111.25	4.40	
2025-01-09 16:55:25.45	111.23	4.42	
2025-01-09 16:55:25.66	111.22	4.43	
2025-01-09 16:55:25.86	111.20	4.44	
2025-01-09 16:55:26.07	111.18	4.46	
2025-01-09 16:55:26.27	111.17	4.47	
2025-01-09 16:55:26.48	111.15	4.48	
2025-01-09 16:55:26.68	111.13	4.50	
2025-01-09 16:55:26.89	111.12	4.51	
2025-01-09 16:55:27.09	111.10	4.52	
2025-01-09 16:55:27.30	111.08	4.54	
2025-01-09 16:55:27.50	111.07	4.55	
2025-01-09 16:55:27.71	111.05	4.56	
2025-01-09 16:55:27.91	111.03	4.57	
2025-01-09 16:55:28.12	111.01	4.59	
2025-01-09 16:55:28.33	111.00	4.60	
2025-01-09 16:55:28.53	110.98	4.61	
2025-01-09 16:55:28.73	110.96	4.63	
2025-01-09 16:55:28.93	110.95	4.64	
2025-01-09 16:55:29.15	110.93	4.65	
2025-01-09 16:55:29.35	110.91	4.67	
2025-01-09 16:55:29.56	110.89	4.68	
2025-01-09 16:55:29.76	110.88	4.69	
2025-01-09 16:55:29.97	110.86	4.71	
2025-01-09 16:55:30.17	110.84	4.72	
2025-01-09 16:55:30.38	110.83	4.73	
2025-01-09 16:55:30.58	110.81	4.75	
2025-01-09 16:55:30.79	110.79	4.76	
2025-01-09 16:55:30.99	110.77	4.77	
2025-01-09 16:55:31.20	110.76	4.79	
2025-01-09 16:55:31.41	110.74	4.80	
2025-01-09 16:55:31.61	110.72	4.81	
2025-01-09 16:55:31.82	110.70	4.83	
2025-01-09 16:55:32.02	110.69	4.84	
2025-01-09 16:55:32.23	110.67	4.85	
2025-01-09 16:55:32.43	110.65	4.87	
2025-01-09 16:55:32.64	110.63	4.88	
2025-01-09 16:55:32.84	110.62	4.89	
2025-01-09 16:55:33.04	110.60	4.90	
2025-01-09 16:55:33.25	110.58	4.92	
2025-01-09 16:55:33.46	110.57	4.93	
2025-01-09 16:55:33.66	110.55	4.95	
2025-01-09 16:55:33.87	110.53	4.96	
2025-01-09 16:55:34.07	110.51	4.97	
2025-01-09 16:55:34.28	110.50	4.99	
2025-01-09 16:55:34.48	110.48	5.00	
2025-01-09 16:55:34.69	110.46	5.01	
2025-01-09 16:55:34.89	110.44	5.02	
2025-01-09 16:55:35.10	110.42	5.04	
2025-01-09 16:55:35.30	110.41	5.05	
2025-01-09 16:55:35.51	110.39	5.07	
2025-01-09 16:55:35.71	110.37	5.08	
2025-01-09 16:55:35.92	110.35	5.09	
2025-01-09 16:55:36.12	110.34	5.11	
2025-01-09 16:55:36.33	110.32	5.12	
2025-01-09 16:55:36.53	110.30	5.13	
2025-01-09 16:55:36.74	110.28	5.15	
2025-01-09 16:55:36.94	110.27	5.16	
2025-01-09 16:55:37.15	110.25	5.17	
2025-01-09 16:55:37.35	110.23	5.19	
2025-01-09 16:55:37.56	110.21	5.20	
2025-01-09 16:55:37.76	110.20	5.21	
2025-01-09 16:55:37.97	110.18	5.23	
2025-01-09 16:55:38.17	110.16	5.24	
2025-01-09 16:55:38.38	110.14	5.25	
2025-01-09 16:55:38.58	110.12	5.27	
2025-01-09 16:55:38.79	110.11	5.28	
2025-01-09 16:55:38.99	110.09	5.29	
2025-01-09 16:55:39.20	110.07	5.31	
2025-01-09 16:55:39.40	110.05	5.32	
2025-01-09 16:55:39.61	110.03	5.33	
2025-01-09 16:55:39.81	110.02	5.35	
2025-01-09 16:55:40.02	110.00	5.36	
2025-01-09 16:55:40.22	109.98	5.37	
2025-01-09 16:55:40.43	109.96	5.39	
2025-01-09 16:55:40.63	109.94	5.40	
2025-01-09 16:55:40.84	109.93	5.41	
2025-01-09 16:55:41.04	109.91	5.43	
2025-01-09 16:55:41.25	109.89	5.44	
2025-01-09 16:55:41.45	109.87	5.45	
2025-01-09 16:55:41.66	109.85	5.47	
2025-01-09 16:55:41.86	109.83	5.48	
2025-01-09 16:55:42.07	109.82	5.49	
2025-01-09 16:55:42.27	109.80	5.51	
2025-01-09 16:55:42.48	109.78	5.52	
2025-01-09 16:55:42.70	109.76	5.54	
2025-01-09 16:55:42.90	109.74	5.55	
2025-01-09 16:55:43.11	109.72	5.56	
2025-01-09 16:55:43.31	109.71	5.58	
2025-01-09 16:55:43.52	109.69	5.59	
2025-01-09 16:55:43.74	109.67	5.60	
2025-01-09 16:55:43.94	109.65	5.62	
2025-01-09 16:55:44.15	109.63	5.63	
2025-01-09 16:55:44.35	109.61	5.65	
2025-01-09 16:55:44.56	109.59	5.66	
2025-01-09 16:55:44.76	109.58	5.67	
2025-01-09 16:55:44.97	109.56	5.69	
2025-01-09 16:55:45.17	109.54	5.70	
2025-01-09 16:55:45.38	109.52	5.71	
2025-01-09 16:55:45.58	109.50	5.73	
2025-01-09 16:55:45.79	109.48	5.74	
2025-01-09 16:55:46.00	109.46	5.75	
2025-01-09 16:55:46.20	109.45	5.77	
2025-01-09 16:55:46.41	109.43	5.78	
2025-01-09 16:55:46.61	109.41	5.80	
2025-01-09 16:55:46.82	109.39	5.81	
2025-01-09 16:55:47.02	109.37	5.82	
2025-01-09 16:55:47.23	109.35	5.84	
2025-01-09 16:55:47.43	109.33	5.85	
2025-01-09 16:55:47.64	109.31	5.86	
2025-01-09 16:55:47.85	109.29	5.88	
2025-01-09 16:55:48.05	109.28	5.89	
2025-01-09 16:55:48.26	109.26	5.90	
2025-01-09 16:55:48.46	109.24	5.92	
2025-01-09 16:55:48.67	109.22	5.93	
2025-01-09 16:55:48.87	109.20	5.95	
2025-01-09 16:55:49.08	109.18	5.96	
2025-01-09 16:55:49.28	109.16	5.97	
2025-01-09 16:55:49.49	109.14	5.99	
2025-01-09 16:55:49.70	109.12	6.00	
2025-01-09 16:55:49.90	109.11	6.01	
2025-01-09 16:55:50.11	109.09	6.03	
2025-01-09 16:55:50.31	109.07	6.04	
2025-01-09 16:55:50.52	109.05	6.06	
2025-01-09 16:55:50.72	109.03	6.07	
2025-01-09 16:55:50.93	109.01	6.08	
2025-01-09 16:55:51.13	108.99	6.10	
2025-01-09 16:55:51.33	108.97	6.11	
2025-01-09 16:55:51.54	108.95	6.12	
2025-01-09 16:55:51.75	108.93	6.14	
2025-01-09 16:55:51.95	108.92	6.15	
2025-01-09 16:55:52.16	108.90	6.17	
2025-01-09 16:55:52.36	108.88	6.18	
2025-01-09 16:55:52.57	108.86	6.19	
2025-01-09 16:55:52.77	108.84	6.21	
2025-01-09 16:55:52.98	108.82	6.22	
2025-01-09 16:55:53.18	108.80	6.23	
2025-01-09 16:55:53.39	108.78	6.25	
2025-01-09 16:55:53.59	108.76	6.26	
2025-01-09 16:55:53.80	108.74	6.28	
2025-01-09 16:55:54.00	108.72	6.29	
2025-01-09 16:55:54.21	108.70	6.30	
2025-01-09 16:55:54.41	108.68	6.32	
2025-01-09 16:55:54.62	108.66	6.33	
2025-01-09 16:55:54.82	108.65	6.34	
2025-01-09 16:55:55.03	108.63	6.36	
2025-01-09 16:55:55.24	108.61	6.37	
2025-01-09 16:55:55.44	108.59	6.39	
2025-01-09 16:55:55.64	108.57	6.40	
2025-01-09 16:55:55.85	108.55	6.41	
2025-01-09 16:55:56.06	108.53	6.43	
2025-01-09 16:55:56.26	108.51	6.44	
2025-01-09 16:55:56.46	108.49	6.46	
2025-01-09 16:55:56.66	108.47	6.47	
2025-01-09 16:55:56.87	108.45	6.48	
2025-01-09 16:55:57.07	108.43	6.50	
2025-01-09 16:55:57.28	108.41	6.51	
2025-01-09 16:55:57.49	108.39	6.53	
2025-01-09 16:55:57.69	108.37	6.54	
2025-01-09 16:55:57.90	108.35	6.55	
2025-01-09 16:55:58.10	108.33	6.57	
2025-01-09 16:55:58.31	108.31	6.58	
2025-01-09 16:55:58.51	108.29	6.59	
2025-01-09 16:55:58.73	108.27	6.61	
2025-01-09 16:55:58.93	108.25	6.62	
2025-01-09 16:55:59.14	108.23	6.64	
2025-01-09 16:55:59.34	108.21	6.65	
2025-01-09 16:55:59.55	108.19	6.67	
2025-01-09 16:55:59.77	108.17	6.68	
2025-01-09 16:55:59.97	108.15	6.69	
2025-01-09 16:56:00.18	108.13	6.71	
2025-01-09 16:56:00.38	108.11	6.72	
2025-01-09 16:56:00.59	108.09	6.74	
2025-01-09 16:56:00.79	108.07	6.75	
2025-01-09 16:56:01.00	108.05	6.76	
2025-01-09 16:56:01.21	108.03	6.78	
2025-01-09 16:56:01.41	108.01	6.79	
2025-01-09 16:56:01.62	107.99	6.81	
2025-01-09 16:56:01.82	107.97	6.82	
2025-01-09 16:56:02.03	107.95	6.83	
2025-01-09 16:56:02.23	107.93	6.85	
2025-01-09 16:56:02.43	107.91	6.86	
2025-01-09 16:56:02.64	107.89	6.88	
2025-01-09 16:56:02.85	107.87	6.89	
2025-01-09 16:56:03.07	107.85	6.91	
2025-01-09 16:56:03.27	107.83	6.92	
2025-01-09 16:56:03.48	107.80	6.93	
2025-01-09 16:56:03.68	107.79	6.95	
2025-01-09 16:56:03.89	107.76	6.96	
2025-01-09 16:56:04.09	107.74	6.98	
2025-01-09 16:56:04.30	107.72	6.99	
2025-01-09 16:56:04.51	107.70	7.00	
2025-01-09 16:56:04.71	107.68	7.02	
2025-01-09 16:56:04.92	107.66	7.03	
2025-01-09 16:56:05.12	107.64	7.05	
2025-01-09 16:56:05.33	107.62	7.06	
2025-01-09 16:56:05.53	107.60	7.07	
2025-01-09 16:56:05.74	107.58	7.09	
2025-01-09 16:56:05.95	107.56	7.10	
2025-01-09 16:56:06.15	107.54	7.12	
2025-01-09 16:56:06.35	107.52	7.13	
2025-01-09 16:56:06.56	107.50	7.15	
2025-01-09 16:56:06.76	107.48	7.16	
2025-01-09 16:56:06.97	107.46	7.17	
2025-01-09 16:56:07.17	107.44	7.19	
2025-01-09 16:56:07.38	107.41	7.20	
2025-01-09 16:56:07.58	107.39	7.22	
2025-01-09 16:56:07.79	107.37	7.23	
2025-01-09 16:56:07.99	107.35	7.24	
2025-01-09 16:56:08.20	107.33	7.26	
2025-01-09 16:56:08.41	107.31	7.27	
2025-01-09 16:56:08.62	107.29	7.29	
2025-01-09 16:56:08.82	107.27	7.30	
2025-01-09 16:56:09.03	107.25	7.32	
2025-01-09 16:56:09.25	107.22	7.33	
2025-01-09 16:56:09.45	107.20	7.35	
2025-01-09 16:56:09.66	107.18	7.36	
2025-01-09 16:56:09.86	107.16	7.37	
2025-01-09 16:56:10.07	107.14	7.39	
2025-01-09 16:56:10.27	107.12	7.40	
2025-01-09 16:56:10.48	107.10	7.42	
2025-01-09 16:56:10.68	107.08	7.43	
2025-01-09 16:56:10.89	107.05	7.44	
2025-01-09 16:56:11.09	107.03	7.46	
2025-01-09 16:56:11.30	107.01	7.47	
2025-01-09 16:56:11.50	106.99	7.49	
2025-01-09 16:56:11.71	106.97	7.50	
2025-01-09 16:56:11.91	106.95	7.52	
2025-01-09 16:56:12.12	106.93	7.53	
2025-01-09 16:56:12.32	106.91	7.54	
2025-01-09 16:56:12.53	106.88	7.56	
2025-01-09 16:56:12.73	106.86	7.57	
2025-01-09 16:56:12.94	106.84	7.59	
2025-01-09 16:56:13.15	106.82	7.60	
2025-01-09 16:56:13.35	106.80	7.62	
2025-01-09 16:56:13.56	106.78	7.63	
2025-01-09 16:56:13.76	106.76	7.64	
2025-01-09 16:56:13.97	106.73	7.66	
2025-01-09 16:56:14.17	106.71	7.67	
2025-01-09 16:56:14.38	106.69	7.69	
2025-01-09 16:56:14.58	106.67	7.70	
2025-01-09 16:56:14.79	106.65	7.72	
2025-01-09 16:56:14.99	106.63	7.73	
2025-01-09 16:56:15.20	106.61	7.75	
2025-01-09 16:56:15.40	106.58	7.76	
2025-01-09 16:56:15.60	106.56	7.77	
2025-01-09 16:56:15.81	106.54	7.79	
2025-01-09 16:56:16.02	106.52	7.80	
2025-01-09 16:56:16.22	106.50	7.82	
2025-01-09 16:56:16.42	106.48	7.83	
2025-01-09 16:56:16.63	106.45	7.85	
2025-01-09 16:56:16.83	106.43	7.86	
2025-01-09 16:56:17.04	106.41	7.87	
2025-01-09 16:56:17.24	106.39	7.89	
2025-01-09 16:56:17.45	106.37	7.90	
2025-01-09 16:56:17.65	106.34	7.92	
2025-01-09 16:56:17.86	106.32	7.93	
2025-01-09 16:56:18.06	106.30	7.95	
2025-01-09 16:56:18.27	106.28	7.96	
2025-01-09 16:56:18.48	106.26	7.98	
2025-01-09 16:56:18.68	106.23	7.99	
2025-01-09 16:56:18.88	106.21	8.00	
2025-01-09 16:56:19.09	106.19	8.02	
2025-01-09 16:56:19.29	106.17	8.03	
2025-01-09 16:56:19.50	106.15	8.05	
2025-01-09 16:56:19.71	106.12	8.06	
2025-01-09 16:56:19.91	106.10	8.08	
2025-01-09 16:56:20.12	106.08	8.09	
2025-01-09 16:56:20.32	106.06	8.11	
2025-01-09 16:56:20.53	106.03	8.12	
2025-01-09 16:56:20.73	106.01	8.13	
2025-01-09 16:56:20.94	105.99	8.15	
2025-01-09 16:56:21.14	105.97	8.16	
2025-01-09 16:56:21.35	105.94	8.18	
2025-01-09 16:56:21.56	105.92	8.19	
2025-01-09 16:56:21.76	105.90	8.21	
2025-01-09 16:56:21.97	105.88	8.22	
2025-01-09 16:56:22.17	105.86	8.24	
2025-01-09 16:56:22.37	105.83	8.25	
2025-01-09 16:56:22.58	105.81	8.27	
2025-01-09 16:56:22.79	105.79	8.28	
2025-01-09 16:56:22.99	105.77	8.30	
2025-01-09 16:56:23.19	105.74	8.31	
2025-01-09 16:56:23.40	105.72	8.32	
2025-01-09 16:56:23.60	105.70	8.34	
2025-01-09 16:56:23.81	105.67	8.35	
2025-01-09 16:56:24.02	105.65	8.37	
2025-01-09 16:56:24.22	105.63	8.38	
2025-01-09 16:56:24.43	105.61	8.40	
2025-01-09 16:56:24.63	105.58	8.41	
2025-01-09 16:56:24.84	105.56	8.43	
2025-01-09 16:56:25.04	105.54	8.44	
2025-01-09 16:56:25.25	105.51	8.46	
2025-01-09 16:56:25.45	105.49	8.47	
2025-01-09 16:56:25.66	105.47	8.49	
2025-01-09 16:56:25.86	105.45	8.50	
2025-01-09 16:56:26.07	105.42	8.51	
2025-01-09 16:56:26.27	105.40	8.53	
2025-01-09 16:56:26.48	105.38	8.54	
2025-01-09 16:56:26.68	105.35	8.56	
2025-01-09 16:56:26.89	105.33	8.57	
2025-01-09 16:56:27.09	105.31	8.59	
2025-01-09 16:56:27.30	105.29	8.60	
2025-01-09 16:56:27.50	105.26	8.62	
2025-01-09 16:56:27.70	105.24	8.63	
2025-01-09 16:56:27.91	105.22	8.65	
2025-01-09 16:56:28.12	105.19	8.66	
2025-01-09 16:56:28.32	105.17	8.68	
2025-01-09 16:56:28.53	105.15	8.69	
2025-01-09 16:56:28.73	105.12	8.70	
2025-01-09 16:56:28.94	105.10	8.72	
2025-01-09 16:56:29.14	105.08	8.73	
2025-01-09 16:56:29.35	105.05	8.75	
2025-01-09 16:56:29.55	105.03	8.76	
2025-01-09 16:56:29.76	105.01	8.78	
2025-01-09 16:56:29.96	104.98	8.79	
2025-01-09 16:56:30.17	104.96	8.81	
2025-01-09 16:56:30.37	104.94	8.82	
2025-01-09 16:56:30.58	104.91	8.84	
2025-01-09 16:56:30.78	104.89	8.85	
2025-01-09 16:56:30.99	104.87	8.87	
2025-01-09 16:56:31.19	104.84	8.88	
2025-01-09 16:56:31.40	104.82	8.90	
2025-01-09 16:56:31.60	104.79	8.91	
2025-01-09 16:56:31.81	104.77	8.93	
2025-01-09 16:56:32.01	104.75	8.94	
2025-01-09 16:56:32.22	104.72	8.96	
2025-01-09 16:56:32.42	104.70	8.97	
2025-01-09 16:56:32.63	104.68	8.99	
2025-01-09 16:56:32.83	104.65	9.00	
2025-01-09 16:56:33.04	104.63	9.02	
2025-01-09 16:56:33.24	104.60	9.03	
2025-01-09 16:56:33.45	104.58	9.05	
2025-01-09 16:56:33.65	104.56	9.06	
2025-01-09 16:56:33.86	104.53	9.07	
2025-01-09 16:56:34.06	104.51	9.09	
2025-01-09 16:56:34.27	104.48	9.10	
2025-01-09 16:56:34.47	104.46	9.12	
2025-01-09 16:56:34.68	104.44	9.13	
2025-01-09 16:56:34.88	104.41	9.15	
2025-01-09 16:56:35.09	104.39	9.16	
2025-01-09 16:56:35.29	104.36	9.18	
2025-01-09 16:56:35.50	104.34	9.19	
2025-01-09 16:56:35.70	104.32	9.21	
2025-01-09 16:56:35.91	104.29	9.22	
2025-01-09 16:56:36.11	104.27	9.24	
2025-01-09 16:56:36.32	104.24	9.25	
2025-01-09 16:56:36.52	104.22	9.27	
2025-01-09 16:56:36.73	104.19	9.28	
2025-01-09 16:56:36.93	104.17	9.30	
2025-01-09 16:56:37.14	104.15	9.31	
2025-01-09 16:56:37.34	104.12	9.33	
2025-01-09 16:56:37.55	104.10	9.34	
2025-01-09 16:56:37.75	104.07	9.36	
2025-01-09 16:56:37.96	104.05	9.37	
2025-01-09 16:56:38.16	104.02	9.39	
2025-01-09 16:56:38.37	104.00	9.40	
2025-01-09 16:56:38.57	103.98	9.42	
2025-01-09 16:56:38.78	103.95	9.43	
2025-01-09 16:56:38.98	103.93	9.45	
2025-01-09 16:56:39.19	103.90	9.46	
2025-01-09 16:56:39.39	103.88	9.48	
2025-01-09 16:56:39.60	103.85	9.49	
2025-01-09 16:56:39.81	103.83	9.51	
2025-01-09 16:56:40.01	103.80	9.52	
2025-01-09 16:56:40.22	103.78	9.54	
2025-01-09 16:56:40.42	103.75	9.55	
2025-01-09 16:56:40.63	103.73	9.57	
2025-01-09 16:56:40.83	103.70	9.58	
2025-01-09 16:56:41.04	103.68	9.60	
2025-01-09 16:56:41.24	103.65	9.61	
2025-01-09 16:56:41.45	103.63	9.63	
2025-01-09 16:56:41.65	103.60	9.64	
2025-01-09 16:56:41.86	103.58	9.66	
2025-01-09 16:56:42.06	103.55	9.67	
2025-01-09 16:56:42.27	103.53	9.69	
2025-01-09 16:56:42.49	103.50	9.70	
2025-01-09 16:56:42.69	103.48	9.72	
2025-01-09 16:56:42.90	103.45	9.73	
2025-01-09 16:56:43.10	103.43	9.75	
2025-01-09 16:56:43.31	103.40	9.76	
2025-01-09 16:56:43.51	103.38	9.78	
2025-01-09 16:56:43.72	103.35	9.79	
2025-01-09 16:56:43.92	103.32	9.81	
2025-01-09 16:56:44.13	103.30	9.82	
2025-01-09 16:56:44.33	103.27	9.84	
2025-01-09 16:56:44.54	103.25	9.86	
2025-01-09 16:56:44.74	103.22	9.87	
2025-01-09 16:56:44.95	103.20	9.89	
2025-01-09 16:56:45.15	103.17	9.90	
2025-01-09 16:56:45.36	103.15	9.92	
2025-01-09 16:56:45.56	103.12	9.93	
2025-01-09 16:56:45.77	103.09	9.95	
2025-01-09 16:56:45.97	103.07	9.96	
2025-01-09 16:56:46.18	103.04	9.98	
2025-01-09 16:56:46.39	103.02	9.99	
2025-01-09 16:56:46.59	102.99	10.01	
2025-01-09 16:56:46.80	102.97	10.02	
2025-01-09 16:56:47.00	102.94	10.04	
2025-01-09 16:56:47.21	102.91	10.05	
2025-01-09 16:56:47.41	102.89	10.07	
2025-01-09 16:56:47.62	102.86	10.08	
2025-01-09 16:56:47.82	102.84	10.10	
2025-01-09 16:56:48.03	102.81	10.11	
2025-01-09 16:56:48.23	102.79	10.13	
2025-01-09 16:56:48.44	102.76	10.14	
2025-01-09 16:56:48.65	102.73	10.16	
2025-01-09 16:56:48.85	102.71	10.17	
2025-01-09 16:56:49.05	102.68	10.19	
2025-01-09 16:56:49.26	102.66	10.20	
2025-01-09 16:56:49.46	102.63	10.22	
2025-01-09 16:56:49.67	102.60	10.23	
2025-01-09 16:56:49.87	102.58	10.25	
2025-01-09 16:56:50.08	102.55	10.27	
2025-01-09 16:56:50.28	102.53	10.28	
2025-01-09 16:56:50.49	102.50	10.30	
2025-01-09 16:56:50.69	102.47	10.31	
2025-01-09 16:56:50.90	102.45	10.33	
2025-01-09 16:56:51.10	102.42	10.34	
2025-01-09 16:56:51.31	102.39	10.36	
2025-01-09 16:56:51.51	102.37	10.37	
2025-01-09 16:56:51.72	102.34	10.39	
2025-01-09 16:56:51.92	102.31	10.40	
2025-01-09 16:56:52.14	102.29	10.42	
2025-01-09 16:56:52.35	102.26	10.43	
2025-01-09 16:56:52.55	102.23	10.45	
2025-01-09 16:56:52.76	102.21	10.47	
2025-01-09 16:56:52.97	102.18	10.48	
2025-01-09 16:56:53.18	102.15	10.50	
2025-01-09 16:56:53.39	102.12	10.51	
2025-01-09 16:56:53.59	102.10	10.53	
2025-01-09 16:56:53.80	102.07	10.54	
2025-01-09 16:56:54.00	102.04	10.56	
2025-01-09 16:56:54.21	102.02	10.57	
2025-01-09 16:56:54.41	101.99	10.59	
2025-01-09 16:56:54.62	101.96	10.60	
2025-01-09 16:56:54.82	101.94	10.62	
2025-01-09 16:56:55.03	101.91	10.64	
2025-01-09 16:56:55.24	101.88	10.65	
2025-01-09 16:56:55.45	101.85	10.67	
2025-01-09 16:56:55.65	101.83	10.68	
2025-01-09 16:56:55.86	101.80	10.70	
2025-01-09 16:56:56.07	101.77	10.71	
2025-01-09 16:56:56.27	101.75	10.73	
2025-01-09 16:56:56.48	101.72	10.74	
2025-01-09 16:56:56.68	101.69	10.76	
2025-01-09 16:56:56.89	101.66	10.77	
2025-01-09 16:56:57.09	101.64	10.79	
2025-01-09 16:56:57.30	101.61	10.81	
2025-01-09 16:56:57.50	101.58	10.82	
2025-01-09 16:56:57.71	101.56	10.84	
2025-01-09 16:56:57.91	101.53	10.85	
2025-01-09 16:56:58.12	101.50	10.87	
2025-01-09 16:56:58.33	101.47	10.88	
2025-01-09 16:56:58.53	101.45	10.90	
2025-01-09 16:56:58.73	101.42	10.91	
2025-01-09 16:56:58.94	101.39	10.93	
2025-01-09 16:56:59.14	101.36	10.94	
2025-01-09 16:56:59.35	101.34	10.96	
2025-01-09 16:56:59.55	101.31	10.98	
2025-01-09 16:56:59.76	101.28	10.99	
2025-01-09 16:56:59.97	101.25	11.01	
2025-01-09 16:57:00.17	101.22	11.02	
2025-01-09 16:57:00.37	101.20	11.04	
2025-01-09 16:57:00.58	101.17	11.05	
2025-01-09 16:57:00.78	101.14	11.07	
2025-01-09 16:57:00.99	101.11	11.08	
2025-01-09 16:57:01.19	101.09	11.10	
2025-01-09 16:57:01.40	101.06	11.12	
2025-01-09 16:57:01.60	101.03	11.13	
2025-01-09 16:57:01.81	101.00	11.15	
2025-01-09 16:57:02.01	100.97	11.16	
2025-01-09 16:57:02.22	100.95	11.18	
2025-01-09 16:57:02.42	100.92	11.19	
2025-01-09 16:57:02.63	100.89	11.21	
2025-01-09 16:57:02.83	100.86	11.22	
2025-01-09 16:57:03.04	100.83	11.24	
2025-01-09 16:57:03.25	100.80	11.26	
2025-01-09 16:57:03.45	100.78	11.27	
2025-01-09 16:57:03.66	100.75	11.29	
2025-01-09 16:57:03.86	100.72	11.30	
2025-01-09 16:57:04.07	100.69	11.32	
2025-01-09 16:57:04.27	100.66	11.33	
2025-01-09 16:57:04.48	100.64	11.35	
2025-01-09 16:57:04.68	100.61	11.36	
2025-01-09 16:57:04.89	100.58	11.38	
2025-01-09 16:57:05.09	100.55	11.40	
2025-01-09 16:57:05.30	100.52	11.41	
2025-01-09 16:57:05.51	100.49	11.43	
2025-01-09 16:57:05.71	100.46	11.44	
2025-01-09 16:57:05.92	100.43	11.46	
2025-01-09 16:57:06.12	100.41	11.47	
2025-01-09 16:57:06.33	100.38	11.49	
2025-01-09 16:57:06.53	100.35	11.50	
2025-01-09 16:57:06.74	100.32	11.52	
2025-01-09 16:57:06.94	100.29	11.54	
2025-01-09 16:57:07.15	100.26	11.55	
2025-01-09 16:57:07.35	100.23	11.57	
2025-01-09 16:57:07.56	100.20	11.58	
2025-01-09 16:57:07.77	100.18	11.60	
2025-01-09 16:57:07.97	100.15	11.61	
2025-01-09 16:57:08.17	100.12	11.63	
2025-01-09 16:57:08.38	100.09	11.65	
2025-01-09 16:57:08.59	100.06	11.66	
2025-01-09 16:57:08.79	100.03	11.68	
2025-01-09 16:57:09.00	100.00	11.69	
2025-01-09 16:57:09.20	99.97	11.71	
2025-01-09 16:57:09.41	99.94	11.72	
2025-01-09 16:57:09.61	99.91	11.74	
2025-01-09 16:57:09.82	99.88	11.76	
2025-01-09 16:57:10.02	99.86	11.77	
2025-01-09 16:57:10.23	99.83	11.79	
2025-01-09 16:57:10.43	99.80	11.80	
2025-01-09 16:57:10.64	99.77	11.82	
2025-01-09 16:57:10.84	99.74	11.83	
2025-01-09 16:57:11.05	99.71	11.85	
2025-01-09 16:57:11.25	99.68	11.87	
2025-01-09 16:57:11.45	99.65	11.88	
2025-01-09 16:57:11.66	99.62	11.90	
2025-01-09 16:57:11.86	99.59	11.91	
2025-01-09 16:57:12.07	99.56	11.93	
2025-01-09 16:57:12.27	99.53	11.94	
2025-01-09 16:57:12.48	99.50	11.96	
2025-01-09 16:57:12.69	99.47	11.98	
2025-01-09 16:57:12.89	99.44	11.99	
2025-01-09 16:57:13.10	99.41	12.01	
2025-01-09 16:57:13.30	99.38	12.02	
2025-01-09 16:57:13.51	99.35	12.04	
2025-01-09 16:57:13.71	99.32	12.05	
2025-01-09 16:57:13.92	99.29	12.07	
2025-01-09 16:57:14.12	99.26	12.09	
2025-01-09 16:57:14.33	99.23	12.10	
2025-01-09 16:57:14.53	99.20	12.12	
2025-01-09 16:57:14.74	99.17	12.13	
2025-01-09 16:57:14.94	99.14	12.15	
2025-01-09 16:57:15.15	99.11	12.17	
2025-01-09 16:57:15.36	99.08	12.18	
2025-01-09 16:57:15.56	99.05	12.20	
2025-01-09 16:57:15.76	99.02	12.21	
2025-01-09 16:57:15.97	98.99	12.23	
2025-01-09 16:57:16.17	98.96	12.24	
2025-01-09 16:57:16.38	98.93	12.26	
2025-01-09 16:57:16.59	98.90	12.28	
2025-01-09 16:57:16.79	98.87	12.29	
2025-01-09 16:57:17.00	98.84	12.31	
2025-01-09 16:57:17.20	98.81	12.32	
2025-01-09 16:57:17.41	98.78	12.34	
2025-01-09 16:57:17.61	98.75	12.36	
2025-01-09 16:57:17.82	98.72	12.37	
2025-01-09 16:57:18.02	98.69	12.39	
2025-01-09 16:57:18.23	98.65	12.40	
2025-01-09 16:57:18.43	98.62	12.42	
2025-01-09 16:57:18.65	98.59	12.44	
2025-01-09 16:57:18.86	98.56	12.45	
2025-01-09 16:57:19.06	98.53	12.47	
2025-01-09 16:57:19.27	98.50	12.48	
2025-01-09 16:57:19.47	98.47	12.50	
2025-01-09 16:57:19.68	98.44	12.52	
2025-01-09 16:57:19.88	98.41	12.53	
2025-01-09 16:57:20.09	98.37	12.55	
2025-01-09 16:57:20.29	98.34	12.56	
2025-01-09 16:57:20.50	98.31	12.58	
2025-01-09 16:57:20.70	98.28	12.59	
2025-01-09 16:57:20.92	98.25	12.61	
2025-01-09 16:57:21.12	98.22	12.63	
2025-01-09 16:57:21.33	98.19	12.64	
2025-01-09 16:57:21.53	98.16	12.66	
2025-01-09 16:57:21.74	98.12	12.68	
2025-01-09 16:57:21.94	98.09	12.69	
2025-01-09 16:57:22.15	98.06	12.71	
2025-01-09 16:57:22.35	98.03	12.72	
2025-01-09 16:57:22.56	98.00	12.74	
2025-01-09 16:57:22.77	97.97	12.76	
2025-01-09 16:57:22.97	97.93	12.77	
2025-01-09 16:57:23.17	97.90	12.79	
2025-01-09 16:57:23.38	97.87	12.80	
2025-01-09 16:57:23.58	97.84	12.82	
2025-01-09 16:57:23.79	97.81	12.84	
2025-01-09 16:57:23.99	97.78	12.85	
2025-01-09 16:57:24.20	97.74	12.87	
2025-01-09 16:57:24.40	97.71	12.88	
2025-01-09 16:57:24.61	97.68	12.90	
2025-01-09 16:57:24.81	97.65	12.91	
2025-01-09 16:57:25.02	97.62	12.93	
2025-01-09 16:57:25.24	97.58	12.95	
2025-01-09 16:57:25.44	97.55	12.96	
2025-01-09 16:57:25.65	97.52	12.98	
2025-01-09 16:57:25.86	97.49	13.00	
2025-01-09 16:57:26.06	97.45	13.01	
2025-01-09 16:57:26.26	97.42	13.03	
2025-01-09 16:57:26.47	97.39	13.04	
2025-01-09 16:57:26.68	97.36	13.06	
2025-01-09 16:57:26.88	97.33	13.08	
2025-01-09 16:57:27.09	97.29	13.09	
2025-01-09 16:57:27.29	97.26	13.11	
2025-01-09 16:57:27.49	97.23	13.12	
2025-01-09 16:57:27.70	97.20	13.14	
2025-01-09 16:57:27.90	97.16	13.16	
2025-01-09 16:57:28.11	97.13	13.17	
2025-01-09 16:57:28.31	97.10	13.19	
2025-01-09 16:57:28.51	97.07	13.20	
2025-01-09 16:57:28.72	97.03	13.22	
2025-01-09 16:57:28.93	97.00	13.24	
2025-01-09 16:57:29.13	96.97	13.25	
2025-01-09 16:57:29.34	96.94	13.27	
2025-01-09 16:57:29.54	96.90	13.28	
2025-01-09 16:57:29.75	96.87	13.30	
2025-01-09 16:57:29.95	96.84	13.32	
2025-01-09 16:57:30.16	96.80	13.33	
2025-01-09 16:57:30.38	96.77	13.35	
2025-01-09 16:57:30.59	96.74	13.37	
2025-01-09 16:57:30.80	96.70	13.38	
2025-01-09 16:57:31.00	96.67	13.40	
2025-01-09 16:57:31.21	96.64	13.41	
2025-01-09 16:57:31.42	96.60	13.43	
2025-01-09 16:57:31.62	96.57	13.45	
2025-01-09 16:57:31.83	96.54	13.46	
2025-01-09 16:57:32.03	96.50	13.48	
2025-01-09 16:57:32.24	96.47	13.50	
2025-01-09 16:57:32.45	96.44	13.51	
2025-01-09 16:57:32.65	96.40	13.53	
2025-01-09 16:57:32.85	96.37	13.54	
2025-01-09 16:57:33.06	96.34	13.56	
2025-01-09 16:57:33.26	96.30	13.58	
2025-01-09 16:57:33.47	96.27	13.59	
2025-01-09 16:57:33.67	96.24	13.61	
2025-01-09 16:57:33.88	96.20	13.62	
2025-01-09 16:57:34.08	96.17	13.64	
2025-01-09 16:57:34.29	96.13	13.66	
2025-01-09 16:57:34.49	96.10	13.67	
2025-01-09 16:57:34.70	96.07	13.69	
2025-01-09 16:57:34.90	96.03	13.70	
2025-01-09 16:57:35.11	96.00	13.72	
2025-01-09 16:57:35.32	95.96	13.74	
2025-01-09 16:57:35.52	95.93	13.75	
2025-01-09 16:57:35.73	95.90	13.77	
2025-01-09 16:57:35.93	95.86	13.79	
2025-01-09 16:57:36.14	95.83	13.80	
2025-01-09 16:57:36.34	95.80	13.82	
2025-01-09 16:57:36.55	95.76	13.83	
2025-01-09 16:57:36.76	95.73	13.85	
2025-01-09 16:57:36.97	95.69	13.87	
2025-01-09 16:57:37.18	95.66	13.88	
2025-01-09 16:57:37.39	95.62	13.90	
2025-01-09 16:57:37.59	95.59	13.92	
2025-01-09 16:57:37.80	95.55	13.93	
2025-01-09 16:57:38.00	95.52	13.95	
2025-01-09 16:57:38.20	95.49	13.96	
2025-01-09 16:57:38.41	95.45	13.98	
2025-01-09 16:57:38.61	95.42	14.00	
2025-01-09 16:57:38.82	95.38	14.01	
2025-01-09 16:57:39.02	95.35	14.03	
2025-01-09 16:57:39.23	95.31	14.05	
2025-01-09 16:57:39.43	95.28	14.06	
2025-01-09 16:57:39.64	95.24	14.08	
2025-01-09 16:57:39.85	95.21	14.09	
2025-01-09 16:57:40.05	95.17	14.11	
2025-01-09 16:57:40.26	95.14	14.13	
2025-01-09 16:57:40.46	95.10	14.14	
2025-01-09 16:57:40.67	95.07	14.16	
2025-01-09 16:57:40.88	95.03	14.18	
2025-01-09 16:57:41.08	95.00	14.19	
2025-01-09 16:57:41.28	94.96	14.21	
2025-01-09 16:57:41.49	94.93	14.22	
2025-01-09 16:57:41.70	94.89	14.24	
2025-01-09 16:57:41.90	94.86	14.26	
2025-01-09 16:57:42.10	94.82	14.27	
2025-01-09 16:57:42.31	94.79	14.29	
2025-01-09 16:57:42.51	94.75	14.30	
2025-01-09 16:57:42.72	94.72	14.32	
2025-01-09 16:57:42.92	94.68	14.34	
2025-01-09 16:57:43.13	94.65	14.35	
2025-01-09 16:57:43.34	94.61	14.37	
2025-01-09 16:57:43.54	94.57	14.39	
2025-01-09 16:57:43.75	94.54	14.40	
2025-01-09 16:57:43.95	94.50	14.42	
2025-01-09 16:57:44.16	94.47	14.43	
2025-01-09 16:57:44.36	94.43	14.45	
2025-01-09 16:57:44.57	94.40	14.47	
2025-01-09 16:57:44.77	94.36	14.48	
2025-01-09 16:57:44.98	94.32	14.50	
2025-01-09 16:57:45.18	94.29	14.52	
2025-01-09 16:57:45.39	94.25	14.53	
2025-01-09 16:57:45.59	94.22	14.55	
2025-01-09 16:57:45.80	94.18	14.56	
2025-01-09 16:57:46.00	94.15	14.58	
2025-01-09 16:57:46.21	94.11	14.60	
2025-01-09 16:57:46.41	94.07	14.61	
2025-01-09 16:57:46.62	94.04	14.63	
2025-01-09 16:57:46.82	94.00	14.64	
2025-01-09 16:57:47.03	93.96	14.66	
2025-01-09 16:57:47.23	93.93	14.68	
2025-01-09 16:57:47.44	93.89	14.69	
2025-01-09 16:57:47.64	93.86	14.71	
2025-01-09 16:57:47.84	93.82	14.73	
2025-01-09 16:57:48.05	93.78	14.74	
2025-01-09 16:57:48.26	93.75	14.76	
2025-01-09 16:57:48.46	93.71	14.77	
2025-01-09 16:57:48.66	93.67	14.79	
2025-01-09 16:57:48.87	93.64	14.81	
2025-01-09 16:57:49.08	93.60	14.82	
2025-01-09 16:57:49.28	93.56	14.84	
2025-01-09 16:57:49.49	93.53	14.86	
2025-01-09 16:57:49.71	93.49	14.87	
2025-01-09 16:57:49.91	93.45	14.89	
2025-01-09 16:57:50.12	93.41	14.91	
2025-01-09 16:57:50.32	93.38	14.92	
2025-01-09 16:57:50.53	93.34	14.94	
2025-01-09 16:57:50.73	93.30	14.95	
2025-01-09 16:57:50.94	93.27	14.97	
2025-01-09 16:57:51.14	93.23	14.99	
2025-01-09 16:57:51.35	93.19	15.00	
2025-01-09 16:57:51.56	93.15	15.02	
2025-01-09 16:57:51.76	93.12	15.04	
2025-01-09 16:57:51.97	93.08	15.05	
2025-01-09 16:57:52.17	93.04	15.07	
2025-01-09 16:57:52.38	93.00	15.08	
2025-01-09 16:57:52.58	92.97	15.10	
2025-01-09 16:57:52.79	92.93	15.12	
2025-01-09 16:57:53.00	92.89	15.13	
2025-01-09 16:57:53.21	92.85	15.15	
2025-01-09 16:57:53.41	92.82	15.17	
2025-01-09 16:57:53.62	92.78	15.18	
2025-01-09 16:57:53.83	92.74	15.20	
2025-01-09 16:57:54.03	92.70	15.22	
2025-01-09 16:57:54.23	92.67	15.23	
2025-01-09 16:57:54.44	92.63	15.25	
2025-01-09 16:57:54.64	92.59	15.26	
2025-01-09 16:57:54.85	92.55	15.28	
2025-01-09 16:57:55.05	92.51	15.30	
2025-01-09 16:57:55.26	92.48	15.31	
2025-01-09 16:57:55.46	92.44	15.33	
2025-01-09 16:57:55.67	92.40	15.35	
2025-01-09 16:57:55.87	92.36	15.36	
2025-01-09 16:57:56.08	92.32	15.38	
2025-01-09 16:57:56.28	92.29	15.39	
2025-01-09 16:57:56.49	92.25	15.41	
2025-01-09 16:57:56.69	92.21	15.43	
2025-01-09 16:57:56.90	92.17	15.44	
2025-01-09 16:57:57.10	92.13	15.46	
2025-01-09 16:57:57.31	92.09	15.48	
2025-01-09 16:57:57.51	92.06	15.49	
2025-01-09 16:57:57.72	92.02	15.51	
2025-01-09 16:57:57.92	91.98	15.52	
2025-01-09 16:57:58.13	91.94	15.54	
2025-01-09 16:57:58.33	91.90	15.56	
2025-01-09 16:57:58.54	91.86	15.57	
2025-01-09 16:57:58.74	91.82	15.59	
2025-01-09 16:57:58.95	91.78	15.61	
2025-01-09 16:57:59.15	91.75	15.62	
2025-01-09 16:57:59.35	91.71	15.64	
2025-01-09 16:57:59.56	91.67	15.65	
2025-01-09 16:57:59.76	91.63	15.67	
2025-01-09 16:57:59.97	91.59	15.69	
2025-01-09 16:58:00.19	91.55	15.70	
2025-01-09 16:58:00.39	91.51	15.72	
2025-01-09 16:58:00.60	91.47	15.74	
2025-01-09 16:58:00.80	91.43	15.75	
2025-01-09 16:58:01.01	91.39	15.77	
2025-01-09 16:58:01.21	91.35	15.78	
2025-01-09 16:58:01.42	91.31	15.80	
2025-01-09 16:58:01.62	91.28	15.82	
2025-01-09 16:58:01.83	91.24	15.83	
2025-01-09 16:58:02.04	91.20	15.85	
2025-01-09 16:58:02.24	91.16	15.87	
2025-01-09 16:58:02.44	91.12	15.88	
2025-01-09 16:58:02.65	91.08	15.90	
2025-01-09 16:58:02.85	91.04	15.91	
2025-01-09 16:58:03.06	91.00	15.93	
2025-01-09 16:58:03.26	90.96	15.95	
2025-01-09 16:58:03.47	90.92	15.96	
2025-01-09 16:58:03.67	90.88	15.98	
2025-01-09 16:58:03.88	90.84	16.00	
2025-01-09 16:58:04.08	90.80	16.01	
2025-01-09 16:58:04.29	90.76	16.03	
2025-01-09 16:58:04.49	90.72	16.04	
2025-01-09 16:58:04.69	90.68	16.06	
2025-01-09 16:58:04.90	90.64	16.08	
2025-01-09 16:58:05.11	90.60	16.09	
2025-01-09 16:58:05.31	90.56	16.11	
2025-01-09 16:58:05.52	90.52	16.12	
2025-01-09 16:58:05.74	90.48	16.14	
2025-01-09 16:58:05.94	90.44	16.16	
2025-01-09 16:58:06.15	90.39	16.17	
2025-01-09 16:58:06.35	90.36	16.19	
2025-01-09 16:58:06.56	90.31	16.21	
2025-01-09 16:58:06.76	90.27	16.22	
2025-01-09 16:58:06.97	90.23	16.24	
2025-01-09 16:58:07.17	90.19	16.25	
2025-01-09 16:58:07.38	90.15	16.27	
2025-01-09 16:58:07.58	90.11	16.29	
2025-01-09 16:58:07.79	90.07	16.30	
2025-01-09 16:58:07.99	90.03	16.32	
2025-01-09 16:58:08.20	89.99	16.34	
2025-01-09 16:58:08.40	89.95	16.35	
2025-01-09 16:58:08.61	89.91	16.37	
2025-01-09 16:58:08.81	89.87	16.38	
2025-01-09 16:58:09.01	89.83	16.40	
2025-01-09 16:58:09.22	89.78	16.42	
2025-01-09 16:58:09.43	89.74	16.43	
2025-01-09 16:58:09.63	89.70	16.45	
2025-01-09 16:58:09.84	89.66	16.47	
2025-01-09 16:58:10.04	89.62	16.48	
2025-01-09 16:58:10.24	89.58	16.50	
2025-01-09 16:58:10.45	89.54	16.51	
2025-01-09 16:58:10.65	89.50	16.53	
2025-01-09 16:58:10.86	89.45	16.55	
2025-01-09 16:58:11.06	89.41	16.56	
2025-01-09 16:58:11.27	89.37	16.58	
2025-01-09 16:58:11.47	89.33	16.59	
2025-01-09 16:58:11.68	89.29	16.61	
2025-01-09 16:58:11.89	89.25	16.63	
2025-01-09 16:58:12.09	89.21	16.64	
2025-01-09 16:58:12.30	89.16	16.66	
2025-01-09 16:58:12.50	89.12	16.67	
2025-01-09 16:58:12.71	89.08	16.69	
2025-01-09 16:58:12.91	89.04	16.71	
2025-01-09 16:58:13.13	88.99	16.72	
2025-01-09 16:58:13.33	88.95	16.74	
2025-01-09 16:58:13.54	88.91	16.76	
2025-01-09 16:58:13.75	88.87	16.77	
2025-01-09 16:58:13.96	88.82	16.79	
2025-01-09 16:58:14.16	88.78	16.80	
2025-01-09 16:58:14.37	88.74	16.82	
2025-01-09 16:58:14.58	88.69	16.84	
2025-01-09 16:58:14.79	88.65	16.85	
2025-01-09 16:58:14.99	88.61	16.87	
2025-01-09 16:58:15.20	88.57	16.89	
2025-01-09 16:58:15.40	88.52	16.90	
2025-01-09 16:58:15.61	88.48	16.92	
2025-01-09 16:58:15.81	88.44	16.93	
2025-01-09 16:58:16.02	88.40	16.95	
2025-01-09 16:58:16.22	88.35	16.97	
2025-01-09 16:58:16.43	88.31	16.98	
2025-01-09 16:58:16.63	88.27	17.00	
2025-01-09 16:58:16.84	88.22	17.01	
2025-01-09 16:58:17.04	88.18	17.03	
2025-01-09 16:58:17.25	88.14	17.05	
2025-01-09 16:58:17.45	88.10	17.06	
2025-01-09 16:58:17.66	88.05	17.08	
2025-01-09 16:58:17.86	88.01	17.09	
2025-01-09 16:58:18.07	87.97	17.11	
2025-01-09 16:58:18.28	87.92	17.13	
2025-01-09 16:58:18.48	87.88	17.14	
2025-01-09 16:58:18.68	87.84	17.16	
2025-01-09 16:58:18.89	87.79	17.17	
2025-01-09 16:58:19.09	87.75	17.19	
2025-01-09 16:58:19.30	87.71	17.21	
2025-01-09 16:58:19.50	87.66	17.22	
2025-01-09 16:58:19.71	87.62	17.24	
2025-01-09 16:58:19.91	87.58	17.25	
2025-01-09 16:58:20.12	87.53	17.27	
2025-01-09 16:58:20.33	87.49	17.29	
2025-01-09 16:58:20.53	87.45	17.30	
2025-01-09 16:58:20.75	87.40	17.32	
2025-01-09 16:58:20.96	87.35	17.34	
2025-01-09 16:58:21.16	87.31	17.35	
2025-01-09 16:58:21.37	87.27	17.37	
2025-01-09 16:58:21.57	87.22	17.38	
2025-01-09 16:58:21.78	87.18	17.40	
2025-01-09 16:58:21.98	87.13	17.41	
2025-01-09 16:58:22.19	87.09	17.43	
2025-01-09 16:58:22.39	87.05	17.45	
2025-01-09 16:58:22.60	87.00	17.46	
2025-01-09 16:58:22.80	86.96	17.48	
2025-01-09 16:58:23.00	86.91	17.49	
2025-01-09 16:58:23.21	86.87	17.51	
2025-01-09 16:58:23.41	86.83	17.53	
2025-01-09 16:58:23.62	86.78	17.54	
2025-01-09 16:58:23.84	86.73	17.56	
2025-01-09 16:58:24.04	86.69	17.57	
2025-01-09 16:58:24.25	86.64	17.59	
2025-01-09 16:58:24.45	86.60	17.61	
2025-01-09 16:58:24.66	86.55	17.62	
2025-01-09 16:58:24.87	86.51	17.64	
2025-01-09 16:58:25.07	86.46	17.65	
2025-01-09 16:58:25.28	86.42	17.67	
2025-01-09 16:58:25.48	86.37	17.69	
2025-01-09 16:58:25.69	86.33	17.70	
2025-01-09 16:58:25.89	86.28	17.72	
2025-01-09 16:58:26.09	86.24	17.73	
2025-01-09 16:58:26.30	86.19	17.75	
2025-01-09 16:58:26.50	86.15	17.76	
2025-01-09 16:58:26.71	86.10	17.78	
2025-01-09 16:58:26.91	86.06	17.80	
2025-01-09 16:58:27.12	86.01	17.81	
2025-01-09 16:58:27.32	85.97	17.83	
2025-01-09 16:58:27.53	85.92	17.84	
2025-01-09 16:58:27.73	85.88	17.86	
2025-01-09 16:58:27.94	85.83	17.87	
2025-01-09 16:58:28.14	85.79	17.89	
2025-01-09 16:58:28.35	85.74	17.91	
2025-01-09 16:58:28.55	85.70	17.92	
2025-01-09 16:58:28.76	85.65	17.94	
2025-01-09 16:58:28.96	85.60	17.95	
2025-01-09 16:58:29.17	85.56	17.97	
2025-01-09 16:58:29.37	85.51	17.98	
2025-01-09 16:58:29.58	85.47	18.00	
2025-01-09 16:58:29.78	85.42	18.02	
2025-01-09 16:58:29.99	85.37	18.03	
2025-01-09 16:58:30.19	85.33	18.05	
2025-01-09 16:58:30.40	85.28	18.06	
2025-01-09 16:58:30.60	85.24	18.08	
2025-01-09 16:58:30.81	85.19	18.09	
2025-01-09 16:58:31.01	85.14	18.11	
2025-01-09 16:58:31.22	85.10	18.13	
2025-01-09 16:58:31.42	85.05	18.14	
2025-01-09 16:58:31.62	85.01	18.16	
2025-01-09 16:58:31.83	84.96	18.17	
2025-01-09 16:58:32.04	84.91	18.19	
2025-01-09 16:58:32.24	84.86	18.20	
2025-01-09 16:58:32.44	84.82	18.22	
2025-01-09 16:58:32.65	84.77	18.23	
2025-01-09 16:58:32.86	84.72	18.25	
2025-01-09 16:58:33.06	84.68	18.26	
2025-01-09 16:58:33.27	84.63	18.28	
2025-01-09 16:58:33.47	84.58	18.30	
2025-01-09 16:58:33.68	84.54	18.31	
2025-01-09 16:58:33.89	84.49	18.33	
2025-01-09 16:58:34.09	84.44	18.34	
2025-01-09 16:58:34.30	84.39	18.36	
2025-01-09 16:58:34.50	84.35	18.37	
2025-01-09 16:58:34.71	84.30	18.39	
2025-01-09 16:58:34.91	84.25	18.40	
2025-01-09 16:58:35.12	84.20	18.42	
2025-01-09 16:58:35.32	84.16	18.44	
2025-01-09 16:58:35.53	84.11	18.45	
2025-01-09 16:58:35.73	84.06	18.47	
2025-01-09 16:58:35.94	84.02	18.48	
2025-01-09 16:58:36.14	83.97	18.50	
2025-01-09 16:58:36.35	83.92	18.51	
2025-01-09 16:58:36.56	83.87	18.53	
2025-01-09 16:58:36.76	83.82	18.54	
2025-01-09 16:58:36.96	83.78	18.56	
2025-01-09 16:58:37.17	83.73	18.57	
2025-01-09 16:58:37.38	83.68	18.59	
2025-01-09 16:58:37.58	83.63	18.61	
2025-01-09 16:58:37.78	83.59	18.62	
2025-01-09 16:58:37.99	83.54	18.64	
2025-01-09 16:58:38.19	83.49	18.65	
2025-01-09 16:58:38.40	83.44	18.67	
2025-01-09 16:58:38.60	83.39	18.68	
2025-01-09 16:58:38.81	83.34	18.70	
2025-01-09 16:58:39.01	83.30	18.71	
2025-01-09 16:58:39.22	83.25	18.73	
2025-01-09 16:58:39.42	83.20	18.74	
2025-01-09 16:58:39.63	83.15	18.76	
2025-01-09 16:58:39.83	83.10	18.77	
2025-01-09 16:58:40.04	83.05	18.79	
2025-01-09 16:58:40.24	83.01	18.80	
2025-01-09 16:58:40.45	82.96	18.82	
2025-01-09 16:58:40.65	82.91	18.83	
2025-01-09 16:58:40.86	82.86	18.85	
2025-01-09 16:58:41.06	82.81	18.86	
2025-01-09 16:58:41.27	82.76	18.88	
2025-01-09 16:58:41.48	82.71	18.90	
2025-01-09 16:58:41.68	82.66	18.91	
2025-01-09 16:58:41.89	82.61	18.93	
2025-01-09 16:58:42.10	82.56	18.94	
2025-01-09 16:58:42.31	82.51	18.96	
2025-01-09 16:58:42.51	82.47	18.97	
2025-01-09 16:58:42.72	82.41	18.99	
2025-01-09 16:58:42.92	82.37	19.00	
2025-01-09 16:58:43.13	82.32	19.02	
2025-01-09 16:58:43.33	82.27	19.03	
2025-01-09 16:58:43.54	82.22	19.05	
2025-01-09 16:58:43.74	82.17	19.06	
2025-01-09 16:58:43.95	82.12	19.08	
2025-01-09 16:58:44.15	82.07	19.09	
2025-01-09 16:58:44.36	82.02	19.11	
2025-01-09 16:58:44.56	81.97	19.12	
2025-01-09 16:58:44.77	81.92	19.14	
2025-01-09 16:58:44.97	81.87	19.15	
2025-01-09 16:58:45.18	81.82	19.17	
2025-01-09 16:58:45.38	81.77	19.18	
2025-01-09 16:58:45.59	81.72	19.20	
2025-01-09 16:58:45.79	81.67	19.21	
2025-01-09 16:58:46.00	81.62	19.23	
2025-01-09 16:58:46.20	81.57	19.24	
2025-01-09 16:58:46.41	81.52	19.26	
2025-01-09 16:58:46.61	81.47	19.27	
2025-01-09 16:58:46.82	81.42	19.29	
2025-01-09 16:58:47.02	81.37	19.30	
2025-01-09 16:58:47.23	81.32	19.32	
2025-01-09 16:58:47.43	81.27	19.33	
2025-01-09 16:58:47.64	81.22	19.35	
2025-01-09 16:58:47.84	81.17	19.36	
2025-01-09 16:58:48.05	81.12	19.38	
2025-01-09 16:58:48.25	81.07	19.39	
2025-01-09 16:58:48.46	81.02	19.40	
2025-01-09 16:58:48.66	80.97	19.42	
2025-01-09 16:58:48.87	80.91	19.43	
2025-01-09 16:58:49.07	80.87	19.45	
2025-01-09 16:58:49.28	80.81	19.46	
2025-01-09 16:58:49.48	80.76	19.48	
2025-01-09 16:58:49.69	80.71	19.49	
2025-01-09 16:58:49.89	80.66	19.51	
2025-01-09 16:58:50.10	80.61	19.52	
2025-01-09 16:58:50.30	80.56	19.54	
2025-01-09 16:58:50.51	80.51	19.55	
2025-01-09 16:58:50.71	80.46	19.57	
2025-01-09 16:58:50.92	80.40	19.58	
2025-01-09 16:58:51.13	80.35	19.60	
2025-01-09 16:58:51.33	80.30	19.61	
2025-01-09 16:58:51.53	80.25	19.62	
2025-01-09 16:58:51.74	80.20	19.64	
2025-01-09 16:58:51.94	80.15	19.65	
2025-01-09 16:58:52.15	80.10	19.67	
2025-01-09 16:58:52.35	80.04	19.68	
2025-01-09 16:58:52.56	79.99	19.70	
2025-01-09 16:58:52.78	79.94	19.71	
2025-01-09 16:58:52.98	79.89	19.73	
2025-01-09 16:58:53.19	79.83	19.74	
2025-01-09 16:58:53.39	79.78	19.76	
2025-01-09 16:58:53.60	79.73	19.77	
2025-01-09 16:58:53.80	79.68	19.78	
2025-01-09 16:58:54.01	79.62	19.80	
2025-01-09 16:58:54.21	79.57	19.81	
2025-01-09 16:58:54.42	79.52	19.83	
2025-01-09 16:58:54.62	79.47	19.84	
2025-01-09 16:58:54.84	79.41	19.86	
2025-01-09 16:58:55.05	79.36	19.87	
2025-01-09 16:58:55.25	79.31	19.89	
2025-01-09 16:58:55.46	79.26	19.90	
2025-01-09 16:58:55.66	79.20	19.91	
2025-01-09 16:58:55.86	79.15	19.93	
2025-01-09 16:58:56.07	79.10	19.94	
2025-01-09 16:58:56.27	79.05	19.96	
2025-01-09 16:58:56.48	78.99	19.97	
2025-01-09 16:58:56.69	78.94	19.99	
2025-01-09 16:58:56.89	78.89	20.00	
2025-01-09 16:58:57.09	78.84	20.01	
2025-01-09 16:58:57.30	78.78	20.03	
2025-01-09 16:58:57.51	78.73	20.04	
2025-01-09 16:58:57.71	78.68	20.06	
2025-01-09 16:58:57.92	78.62	20.07	
2025-01-09 16:58:58.12	78.57	20.08	
2025-01-09 16:58:58.32	78.52	20.10	
2025-01-09 16:58:58.53	78.46	20.11	
2025-01-09 16:58:58.74	78.41	20.13	
2025-01-09 16:58:58.94	78.36	20.14	
2025-01-09 16:58:59.15	78.30	20.16	
2025-01-09 16:58:59.35	78.25	20.17	
2025-01-09 16:58:59.56	78.20	20.18	
2025-01-09 16:58:59.76	78.14	20.20	
2025-01-09 16:58:59.97	78.09	20.21	
2025-01-09 16:59:00.17	78.04	20.22	
2025-01-09 16:59:00.38	77.98	20.24	
2025-01-09 16:59:00.59	77.93	20.25	
2025-01-09 16:59:00.79	77.87	20.27	
2025-01-09 16:59:01.00	77.82	20.28	
2025-01-09 16:59:01.20	77.77	20.29	
2025-01-09 16:59:01.41	77.71	20.31	
2025-01-09 16:59:01.61	77.66	20.32	
2025-01-09 16:59:01.82	77.60	20.34	
2025-01-09 16:59:02.02	77.55	20.35	
2025-01-09 16:59:02.24	77.49	20.36	
2025-01-09 16:59:02.45	77.44	20.38	
2025-01-09 16:59:02.65	77.38	20.39	
2025-01-09 16:59:02.86	77.33	20.41	
2025-01-09 16:59:03.06	77.28	20.42	
2025-01-09 16:59:03.27	77.22	20.43	
2025-01-09 16:59:03.47	77.17	20.45	
2025-01-09 16:59:03.68	77.11	20.46	
2025-01-09 16:59:03.88	77.06	20.47	
2025-01-09 16:59:04.08	77.00	20.49	
2025-01-09 16:59:04.29	76.95	20.50	
2025-01-09 16:59:04.49	76.89	20.51	
2025-01-09 16:59:04.70	76.84	20.53	
2025-01-09 16:59:04.90	76.79	20.54	
2025-01-09 16:59:05.11	76.73	20.55	
2025-01-09 16:59:05.31	76.68	20.57	
2025-01-09 16:59:05.53	76.62	20.58	
2025-01-09 16:59:05.73	76.56	20.60	
2025-01-09 16:59:05.94	76.51	20.61	
2025-01-09 16:59:06.14	76.45	20.62	
2025-01-09 16:59:06.35	76.40	20.64	
2025-01-09 16:59:06.55	76.34	20.65	
2025-01-09 16:59:06.76	76.29	20.66	
2025-01-09 16:59:06.96	76.23	20.68	
2025-01-09 16:59:07.17	76.18	20.69	
2025-01-09 16:59:07.37	76.12	20.70	
2025-01-09 16:59:07.58	76.06	20.72	
2025-01-09 16:59:07.78	76.01	20.73	
2025-01-09 16:59:07.99	75.95	20.74	
2025-01-09 16:59:08.19	75.90	20.75	
2025-01-09 16:59:08.40	75.84	20.77	
2025-01-09 16:59:08.60	75.79	20.78	
2025-01-09 16:59:08.81	75.73	20.79	
2025-01-09 16:59:09.01	75.68	20.81	
2025-01-09 16:59:09.22	75.62	20.82	
2025-01-09 16:59:09.42	75.56	20.83	
2025-01-09 16:59:09.63	75.51	20.85	
2025-01-09 16:59:09.85	75.45	20.86	
2025-01-09 16:59:10.05	75.39	20.87	
2025-01-09 16:59:10.26	75.33	20.89	
2025-01-09 16:59:10.46	75.28	20.90	
2025-01-09 16:59:10.67	75.22	20.91	
2025-01-09 16:59:10.87	75.17	20.93	
2025-01-09 16:59:11.08	75.11	20.94	
2025-01-09 16:59:11.28	75.05	20.95	
2025-01-09 16:59:11.49	75.00	20.96	
2025-01-09 16:59:11.69	74.94	20.98	
2025-01-09 16:59:11.90	74.88	20.99	
2025-01-09 16:59:12.10	74.83	21.00	
2025-01-09 16:59:12.31	74.77	21.02	
2025-01-09 16:59:12.51	74.72	21.03	
2025-01-09 16:59:12.72	74.66	21.04	
2025-01-09 16:59:12.92	74.60	21.05	
2025-01-09 16:59:13.13	74.54	21.07	
2025-01-09 16:59:13.33	74.49	21.08	
2025-01-09 16:59:13.54	74.43	21.09	
2025-01-09 16:59:13.75	74.37	21.10	
2025-01-09 16:59:13.95	74.32	21.12	
2025-01-09 16:59:14.16	74.26	21.13	
2025-01-09 16:59:14.36	74.20	21.14	
2025-01-09 16:59:14.57	74.14	21.16	
2025-01-09 16:59:14.77	74.09	21.17	
2025-01-09 16:59:14.98	74.03	21.18	
2025-01-09 16:59:15.18	73.97	21.19	
2025-01-09 16:59:15.39	73.91	21.21	
2025-01-09 16:59:15.59	73.86	21.22	
2025-01-09 16:59:15.80	73.80	21.23	
2025-01-09 16:59:16.00	73.74	21.24	
2025-01-09 16:59:16.21	73.68	21.25	
2025-01-09 16:59:16.41	73.63	21.27	
2025-01-09 16:59:16.62	73.57	21.28	
2025-01-09 16:59:16.82	73.51	21.29	
2025-01-09 16:59:17.03	73.45	21.30	
2025-01-09 16:59:17.23	73.40	21.32	
2025-01-09 16:59:17.44	73.34	21.33	
2025-01-09 16:59:17.64	73.28	21.34	
2025-01-09 16:59:17.85	73.22	21.35	
2025-01-09 16:59:18.06	73.16	21.37	
2025-01-09 16:59:18.26	73.11	21.38	
2025-01-09 16:59:18.46	73.05	21.39	
2025-01-09 16:59:18.67	72.99	21.40	
2025-01-09 16:59:18.87	72.93	21.41	
2025-01-09 16:59:19.08	72.87	21.43	
2025-01-09 16:59:19.28	72.82	21.44	
2025-01-09 16:59:19.48	72.76	21.45	
2025-01-09 16:59:19.69	72.70	21.46	
2025-01-09 16:59:19.90	72.64	21.47	
2025-01-09 16:59:20.10	72.58	21.48	
2025-01-09 16:59:20.31	72.52	21.50	
2025-01-09 16:59:20.52	72.46	21.51	
2025-01-09 16:59:20.73	72.40	21.52	
2025-01-09 16:59:20.94	72.34	21.53	
2025-01-09 16:59:21.14	72.29	21.54	
2025-01-09 16:59:21.35	72.23	21.56	
2025-01-09 16:59:21.55	72.17	21.57	
2025-01-09 16:59:21.76	72.11	21.58	
2025-01-09 16:59:21.96	72.05	21.59	
2025-01-09 16:59:22.17	71.99	21.60	
2025-01-09 16:59:22.37	71.93	21.62	
2025-01-09 16:59:22.58	71.87	21.63	
2025-01-09 16:59:22.78	71.82	21.64	
2025-01-09 16:59:22.99	71.76	21.65	
2025-01-09 16:59:23.19	71.70	21.66	
2025-01-09 16:59:23.40	71.64	21.67	
2025-01-09 16:59:23.60	71.58	21.68	
2025-01-09 16:59:23.81	71.52	21.70	
2025-01-09 16:59:24.01	71.46	21.71	
2025-01-09 16:59:24.22	71.40	21.72	
2025-01-09 16:59:24.43	71.34	21.73	
2025-01-09 16:59:24.63	71.28	21.74	
2025-01-09 16:59:24.84	71.22	21.75	
2025-01-09 16:59:25.04	71.16	21.76	
2025-01-09 16:59:25.25	71.10	21.78	
2025-01-09 16:59:25.45	71.04	21.79	
2025-01-09 16:59:25.66	70.98	21.80	
2025-01-09 16:59:25.86	70.92	21.81	
2025-01-09 16:59:26.07	70.86	21.82	
2025-01-09 16:59:26.27	70.80	21.83	
2025-01-09 16:59:26.48	70.74	21.84	
2025-01-09 16:59:26.69	70.68	21.85	
2025-01-09 16:59:26.90	70.62	21.87	
2025-01-09 16:59:27.11	70.56	21.88	
2025-01-09 16:59:27.32	70.50	21.89	
2025-01-09 16:59:27.52	70.44	21.90	
2025-01-09 16:59:27.73	70.38	21.91	
2025-01-09 16:59:27.93	70.32	21.92	
2025-01-09 16:59:28.14	70.26	21.93	
2025-01-09 16:59:28.34	70.20	21.94	
2025-01-09 16:59:28.55	70.14	21.95	
2025-01-09 16:59:28.75	70.08	21.96	
2025-01-09 16:59:28.97	70.01	21.98	
2025-01-09 16:59:29.18	69.95	21.99	
2025-01-09 16:59:29.38	69.89	22.00	
2025-01-09 16:59:29.59	69.83	22.01	
2025-01-09 16:59:29.79	69.77	22.02	
2025-01-09 16:59:30.00	69.71	22.03	
2025-01-09 16:59:30.20	69.65	22.04	
2025-01-09 16:59:30.41	69.59	22.05	
2025-01-09 16:59:30.62	69.52	22.06	
2025-01-09 16:59:30.82	69.46	22.07	
2025-01-09 16:59:31.02	69.40	22.08	
2025-01-09 16:59:31.23	69.34	22.09	
2025-01-09 16:59:31.43	69.28	22.10	
2025-01-09 16:59:31.64	69.22	22.11	
2025-01-09 16:59:31.84	69.16	22.12	
2025-01-09 16:59:32.05	69.10	22.13	
2025-01-09 16:59:32.25	69.04	22.14	
2025-01-09 16:59:32.46	68.98	22.16	
2025-01-09 16:59:32.66	68.92	22.17	
2025-01-09 16:59:32.87	68.85	22.18	
2025-01-09 16:59:33.07	68.79	22.19	
2025-01-09 16:59:33.29	68.73	22.20	
2025-01-09 16:59:33.50	68.67	22.21	
2025-01-09 16:59:33.70	68.61	22.22	
2025-01-09 16:59:33.91	68.54	22.23	
2025-01-09 16:59:34.11	68.48	22.24	
2025-01-09 16:59:34.32	68.42	22.25	
2025-01-09 16:59:34.53	68.36	22.26	
2025-01-09 16:59:34.73	68.30	22.27	
2025-01-09 16:59:34.94	68.23	22.28	
2025-01-09 16:59:35.14	68.17	22.29	
2025-01-09 16:59:35.34	68.11	22.30	
2025-01-09 16:59:35.55	68.05	22.31	
2025-01-09 16:59:35.76	67.99	22.32	
2025-01-09 16:59:35.96	67.93	22.33	
2025-01-09 16:59:36.17	67.86	22.34	
2025-01-09 16:59:36.38	67.80	22.35	
2025-01-09 16:59:36.59	67.74	22.36	
2025-01-09 16:59:36.79	67.67	22.37	
2025-01-09 16:59:37.00	67.61	22.38	
2025-01-09 16:59:37.20	67.55	22.39	
2025-01-09 16:59:37.41	67.49	22.40	
2025-01-09 16:59:37.62	67.42	22.40	
2025-01-09 16:59:37.82	67.36	22.41	
2025-01-09 16:59:38.03	67.30	22.42	
2025-01-09 16:59:38.23	67.24	22.43	
2025-01-09 16:59:38.44	67.17	22.44	
2025-01-09 16:59:38.64	67.11	22.45	
2025-01-09 16:59:38.85	67.05	22.46	
2025-01-09 16:59:39.05	66.99	22.47	
2025-01-09 16:59:39.26	66.92	22.48	
2025-01-09 16:59:39.47	66.86	22.49	
2025-01-09 16:59:39.67	66.80	22.50	
2025-01-09 16:59:39.88	66.73	22.51	
2025-01-09 16:59:40.08	66.67	22.52	
2025-01-09 16:59:40.29	66.61	22.53	
2025-01-09 16:59:40.49	66.55	22.54	
2025-01-09 16:59:40.70	66.48	22.54	
2025-01-09 16:59:40.90	66.42	22.55	
2025-01-09 16:59:41.11	66.36	22.56	
2025-01-09 16:59:41.31	66.30	22.57	
2025-01-09 16:59:41.52	66.23	22.58	
2025-01-09 16:59:41.72	66.17	22.59	
2025-01-09 16:59:41.93	66.11	22.60	
2025-01-09 16:59:42.13	66.05	22.61	
2025-01-09 16:59:42.34	65.98	22.62	
2025-01-09 16:59:42.54	65.92	22.62	
2025-01-09 16:59:42.75	65.85	22.63	
2025-01-09 16:59:42.95	65.79	22.64	
2025-01-09 16:59:43.16	65.73	22.65	
2025-01-09 16:59:43.36	65.67	22.66	
2025-01-09 16:59:43.57	65.60	22.67	
2025-01-09 16:59:43.77	65.54	22.68	
2025-01-09 16:59:43.98	65.47	22.69	
2025-01-09 16:59:44.18	65.41	22.69	
2025-01-09 16:59:44.39	65.35	22.70	
2025-01-09 16:59:44.59	65.29	22.71	
2025-01-09 16:59:44.80	65.22	22.72	
2025-01-09 16:59:45.00	65.16	22.73	
2025-01-09 16:59:45.21	65.09	22.74	
2025-01-09 16:59:45.41	65.03	22.74	
2025-01-09 16:59:45.62	64.97	22.75	
2025-01-09 16:59:45.82	64.90	22.76	
2025-01-09 16:59:46.03	64.84	22.77	
2025-01-09 16:59:46.23	64.78	22.78	
2025-01-09 16:59:46.44	64.71	22.79	
2025-01-09 16:59:46.64	64.65	22.79	
2025-01-09 16:59:46.85	64.58	22.80	
2025-01-09 16:59:47.07	64.51	22.81	
2025-01-09 16:59:47.27	64.45	22.82	
2025-01-09 16:59:47.48	64.39	22.83	
2025-01-09 16:59:47.68	64.32	22.83	
2025-01-09 16:59:47.89	64.26	22.84	
2025-01-09 16:59:48.09	64.20	22.85	
2025-01-09 16:59:48.30	64.13	22.86	
2025-01-09 16:59:48.50	64.07	22.87	
2025-01-09 16:59:48.71	64.00	22.87	
2025-01-09 16:59:48.91	63.94	22.88	
2025-01-09 16:59:49.12	63.87	22.89	
2025-01-09 16:59:49.32	63.81	22.90	
2025-01-09 16:59:49.53	63.75	22.90	
2025-01-09 16:59:49.73	63.68	22.91	
2025-01-09 16:59:49.94	63.62	22.92	
2025-01-09 16:59:50.14	63.55	22.93	
2025-01-09 16:59:50.35	63.49	22.93	
2025-01-09 16:59:50.55	63.42	22.94	
2025-01-09 16:59:50.76	63.36	22.95	
2025-01-09 16:59:50.96	63.30	22.96	
2025-01-09 16:59:51.17	63.23	22.96	
2025-01-09 16:59:51.37	63.17	22.97	
2025-01-09 16:59:51.58	63.10	22.98	
2025-01-09 16:59:51.79	63.03	22.99	
2025-01-09 16:59:51.99	62.97	22.99	
2025-01-09 16:59:52.19	62.91	23.00	
2025-01-09 16:59:52.40	62.84	23.01	
2025-01-09 16:59:52.60	62.78	23.01	
2025-01-09 16:59:52.81	62.71	23.02	
2025-01-09 16:59:53.02	62.65	23.03	
2025-01-09 16:59:53.22	62.58	23.04	
2025-01-09 16:59:53.42	62.52	23.04	
2025-01-09 16:59:53.63	62.45	23.05	
2025-01-09 16:59:53.84	62.39	23.06	
2025-01-09 16:59:54.04	62.32	23.06	
2025-01-09 16:59:54.25	62.26	23.07	
2025-01-09 16:59:54.45	62.19	23.08	
2025-01-09 16:59:54.65	62.13	23.08	
2025-01-09 16:59:54.86	62.06	23.09	
2025-01-09 16:59:55.07	62.00	23.10	
2025-01-09 16:59:55.27	61.93	23.10	
2025-01-09 16:59:55.48	61.86	23.11	
2025-01-09 16:59:55.68	61.80	23.12	
2025-01-09 16:59:55.89	61.73	23.12	
2025-01-09 16:59:56.09	61.67	23.13	
2025-01-09 16:59:56.30	61.60	23.14	
2025-01-09 16:59:56.50	61.54	23.14	
2025-01-09 16:59:56.70	61.48	23.15	
2025-01-09 16:59:56.91	61.41	23.16	
2025-01-09 16:59:57.11	61.35	23.16	
2025-01-09 16:59:57.32	61.28	23.17	
2025-01-09 16:59:57.53	61.21	23.17	
2025-01-09 16:59:57.74	61.14	23.18	
2025-01-09 16:59:57.95	61.08	23.19	
2025-01-09 16:59:58.15	61.01	23.19	
2025-01-09 16:59:58.36	60.95	23.20	
2025-01-09 16:59:58.57	60.88	23.21	
2025-01-09 16:59:58.77	60.81	23.21	
2025-01-09 16:59:58.98	60.75	23.22	
2025-01-09 16:59:59.18	60.68	23.22	
2025-01-09 16:59:59.39	60.62	23.23	
2025-01-09 16:59:59.59	60.55	23.24	
2025-01-09 16:59:59.79	60.49	23.24	
2025-01-09 17:00:00.00	60.42	23.25	
2025-01-09 17:00:00.22	60.35	23.25	
2025-01-09 17:00:00.42	60.29	23.26	
2025-01-09 17:00:00.63	60.22	23.26	
2025-01-09 17:00:00.83	60.15	23.27	
2025-01-09 17:00:01.04	60.09	23.28	
2025-01-09 17:00:01.24	60.02	23.28	
2025-01-09 17:00:01.45	59.95	23.29	
2025-01-09 17:00:01.65	59.89	23.29	
2025-01-09 17:00:01.86	59.82	23.30	
2025-01-09 17:00:02.06	59.76	23.30	
2025-01-09 17:00:02.27	59.69	23.31	
2025-01-09 17:00:02.47	59.63	23.31	
2025-01-09 17:00:02.68	59.56	23.32	
2025-01-09 17:00:02.88	59.49	23.32	
2025-01-09 17:00:03.10	59.42	23.33	
2025-01-09 17:00:03.30	59.36	23.33	
2025-01-09 17:00:03.51	59.29	23.34	
2025-01-09 17:00:03.71	59.22	23.35	
2025-01-09 17:00:03.92	59.16	23.35	
2025-01-09 17:00:04.12	59.09	23.36	
2025-01-09 17:00:04.33	59.02	23.36	
2025-01-09 17:00:04.54	58.96	23.37	
2025-01-09 17:00:04.74	58.89	23.37	
2025-01-09 17:00:04.95	58.82	23.38	
2025-01-09 17:00:05.15	58.76	23.38	
2025-01-09 17:00:05.35	58.69	23.38	
2025-01-09 17:00:05.56	58.63	23.39	
2025-01-09 17:00:05.76	58.56	23.39	
2025-01-09 17:00:05.97	58.49	23.40	
2025-01-09 17:00:06.17	58.43	23.40	
2025-01-09 17:00:06.38	58.36	23.41	
2025-01-09 17:00:06.59	58.29	23.41	
2025-01-09 17:00:06.79	58.23	23.42	
2025-01-09 17:00:07.00	58.16	23.42	
2025-01-09 17:00:07.21	58.09	23.43	
2025-01-09 17:00:07.41	58.03	23.43	
2025-01-09 17:00:07.62	57.96	23.43	
2025-01-09 17:00:07.82	57.89	23.44	
2025-01-09 17:00:08.03	57.82	23.44	
2025-01-09 17:00:08.23	57.76	23.45	
2025-01-09 17:00:08.45	57.69	23.45	
2025-01-09 17:00:08.65	57.62	23.46	
2025-01-09 17:00:08.86	57.55	23.46	
2025-01-09 17:00:09.07	57.49	23.46	
2025-01-09 17:00:09.27	57.42	23.47	
2025-01-09 17:00:09.48	57.35	23.47	
2025-01-09 17:00:09.68	57.29	23.48	
2025-01-09 17:00:09.89	57.22	23.48	
2025-01-09 17:00:10.09	57.15	23.48	
2025-01-09 17:00:10.30	57.08	23.49	
2025-01-09 17:00:10.50	57.02	23.49	
2025-01-09 17:00:10.71	56.95	23.50	
2025-01-09 17:00:10.91	56.89	23.50	
2025-01-09 17:00:11.12	56.82	23.50	
2025-01-09 17:00:11.32	56.75	23.51	
2025-01-09 17:00:11.53	56.68	23.51	
2025-01-09 17:00:11.73	56.62	23.51	
2025-01-09 17:00:11.94	56.55	23.52	
2025-01-09 17:00:12.14	56.48	23.52	
2025-01-09 17:00:12.35	56.42	23.52	
2025-01-09 17:00:12.55	56.35	23.53	
2025-01-09 17:00:12.76	56.28	23.53	
2025-01-09 17:00:12.96	56.22	23.53	
2025-01-09 17:00:13.17	56.15	23.54	
2025-01-09 17:00:13.37	56.08	23.54	
2025-01-09 17:00:13.58	56.01	23.54	
2025-01-09 17:00:13.78	55.95	23.55	
2025-01-09 17:00:13.99	55.88	23.55	
2025-01-09 17:00:14.19	55.81	23.55	
2025-01-09 17:00:14.40	55.74	23.56	
2025-01-09 17:00:14.60	55.68	23.56	
2025-01-09 17:00:14.81	55.61	23.56	
2025-01-09 17:00:15.01	55.54	23.56	
2025-01-09 17:00:15.22	55.48	23.57	
2025-01-09 17:00:15.44	55.40	23.57	
2025-01-09 17:00:15.64	55.34	23.57	
2025-01-09 17:00:15.86	55.27	23.58	
2025-01-09 17:00:16.06	55.20	23.58	
2025-01-09 17:00:16.27	55.13	23.58	
2025-01-09 17:00:16.48	55.06	23.58	
2025-01-09 17:00:16.68	55.00	23.59	
2025-01-09 17:00:16.88	54.93	23.59	
2025-01-09 17:00:17.09	54.86	23.59	
2025-01-09 17:00:17.30	54.79	23.59	
2025-01-09 17:00:17.50	54.73	23.60	
2025-01-09 17:00:17.71	54.66	23.60	
2025-01-09 17:00:17.91	54.59	23.60	
2025-01-09 17:00:18.12	54.52	23.60	
2025-01-09 17:00:18.32	54.46	23.61	
2025-01-09 17:00:18.53	54.39	23.61	
2025-01-09 17:00:18.73	54.32	23.61	
2025-01-09 17:00:18.94	54.25	23.61	
2025-01-09 17:00:19.14	54.19	23.61	
2025-01-09 17:00:19.35	54.12	23.62	
2025-01-09 17:00:19.55	54.05	23.62	
2025-01-09 17:00:19.76	53.98	23.62	
2025-01-09 17:00:19.96	53.92	23.62	
2025-01-09 17:00:20.17	53.85	23.62	
2025-01-09 17:00:20.37	53.78	23.63	
2025-01-09 17:00:20.58	53.71	23.63	
2025-01-09 17:00:20.78	53.65	23.63	
2025-01-09 17:00:20.99	53.58	23.63	
2025-01-09 17:00:21.19	53.51	23.63	
2025-01-09 17:00:21.40	53.44	23.63	
2025-01-09 17:00:21.60	53.38	23.64	
2025-01-09 17:00:21.81	53.31	23.64	
2025-01-09 17:00:22.01	53.24	23.64	
2025-01-09 17:00:22.21	53.18	23.64	
2025-01-09 17:00:22.42	53.11	23.64	
2025-01-09 17:00:22.63	53.04	23.64	
2025-01-09 17:00:22.84	52.97	23.65	
2025-01-09 17:00:23.05	52.90	23.65	
2025-01-09 17:00:23.25	52.83	23.65	
2025-01-09 17:00:23.46	52.76	23.65	
2025-01-09 17:00:23.66	52.70	23.65	
2025-01-09 17:00:23.87	52.63	23.65	
2025-01-09 17:00:24.08	52.56	23.65	
2025-01-09 17:00:24.28	52.49	23.65	
2025-01-09 17:00:24.49	52.43	23.65	
2025-01-09 17:00:24.69	52.36	23.66	
2025-01-09 17:00:24.90	52.29	23.66	
2025-01-09 17:00:25.10	52.22	23.66	
2025-01-09 17:00:25.31	52.15	23.66	
2025-01-09 17:00:25.51	52.09	23.66	
2025-01-09 17:00:25.72	52.02	23.66	
2025-01-09 17:00:25.92	51.95	23.66	
2025-01-09 17:00:26.13	51.88	23.66	
2025-01-09 17:00:26.33	51.82	23.66	
2025-01-09 17:00:26.54	51.75	23.66	
2025-01-09 17:00:26.74	51.68	23.66	
2025-01-09 17:00:26.95	51.61	23.66	
2025-01-09 17:00:27.15	51.55	23.66	
2025-01-09 17:00:27.36	51.48	23.66	
2025-01-09 17:00:27.56	51.41	23.66	
2025-01-09 17:00:27.77	51.34	23.66	
2025-01-09 17:00:27.97	51.28	23.66	
2025-01-09 17:00:28.18	51.21	23.67	
2025-01-09 17:00:28.38	51.14	23.67	
2025-01-09 17:00:28.59	51.07	23.67	
2025-01-09 17:00:28.79	51.01	23.67	
2025-01-09 17:00:29.00	50.94	23.67	
2025-01-09 17:00:29.20	50.87	23.67	
2025-01-09 17:00:29.41	50.80	23.67	
2025-01-09 17:00:29.61	50.74	23.67	
2025-01-09 17:00:29.82	50.67	23.67	
2025-01-09 17:00:30.02	50.60	23.67	
2025-01-09 17:00:30.23	50.53	23.67	
2025-01-09 17:00:30.43	50.47	23.67	
2025-01-09 17:00:30.64	50.40	23.67	
2025-01-09 17:00:30.85	50.33	23.66	
2025-01-09 17:00:31.05	50.26	23.66	
2025-01-09 17:00:31.25	50.19	23.66	
2025-01-09 17:00:31.46	50.13	23.66	
2025-01-09 17:00:31.66	50.06	23.66	
2025-01-09 17:00:31.87	49.99	23.66	
2025-01-09 17:00:32.07	49.92	23.66	
2025-01-09 17:00:32.28	49.86	23.66	
2025-01-09 17:00:32.48	49.79	23.66	
2025-01-09 17:00:32.69	49.72	23.66	
2025-01-09 17:00:32.90	49.65	23.66	
2025-01-09 17:00:33.11	49.58	23.66	
2025-01-09 17:00:33.31	49.52	23.66	
2025-01-09 17:00:33.52	49.45	23.66	
2025-01-09 17:00:33.73	49.38	23.66	
2025-01-09 17:00:33.93	49.31	23.66	
2025-01-09 17:00:34.14	49.24	23.65	
2025-01-09 17:00:34.34	49.18	23.65	
2025-01-09 17:00:34.54	49.11	23.65	
2025-01-09 17:00:34.75	49.04	23.65	
2025-01-09 17:00:34.95	48.97	23.65	
2025-01-09 17:00:35.16	48.91	23.65	
2025-01-09 17:00:35.36	48.84	23.65	
2025-01-09 17:00:35.57	48.77	23.65	
2025-01-09 17:00:35.77	48.70	23.65	
2025-01-09 17:00:35.98	48.64	23.64	
2025-01-09 17:00:36.18	48.57	23.64	
2025-01-09 17:00:36.39	48.50	23.64	
2025-01-09 17:00:36.59	48.43	23.64	
2025-01-09 17:00:36.79	48.37	23.64	
2025-01-09 17:00:37.00	48.30	23.64	
2025-01-09 17:00:37.20	48.23	23.64	
2025-01-09 17:00:37.41	48.16	23.63	
2025-01-09 17:00:37.61	48.10	23.63	
2025-01-09 17:00:37.82	48.03	23.63	
2025-01-09 17:00:38.02	47.96	23.63	
2025-01-09 17:00:38.24	47.89	23.63	
2025-01-09 17:00:38.45	47.82	23.62	
2025-01-09 17:00:38.65	47.76	23.62	
2025-01-09 17:00:38.86	47.69	23.62	
2025-01-09 17:00:39.06	47.62	23.62	
2025-01-09 17:00:39.28	47.55	23.62	
2025-01-09 17:00:39.48	47.48	23.61	
2025-01-09 17:00:39.69	47.41	23.61	
2025-01-09 17:00:39.89	47.35	23.61	
2025-01-09 17:00:40.10	47.28	23.61	
2025-01-09 17:00:40.32	47.21	23.61	
2025-01-09 17:00:40.52	47.14	23.60	
2025-01-09 17:00:40.73	47.07	23.60	
2025-01-09 17:00:40.93	47.01	23.60	
2025-01-09 17:00:41.14	46.94	23.60	
2025-01-09 17:00:41.34	46.87	23.59	
2025-01-09 17:00:41.55	46.80	23.59	
2025-01-09 17:00:41.76	46.73	23.59	
2025-01-09 17:00:41.96	46.67	23.59	
2025-01-09 17:00:42.17	46.60	23.58	
2025-01-09 17:00:42.37	46.53	23.58	
2025-01-09 17:00:42.58	46.47	23.58	
2025-01-09 17:00:42.78	46.40	23.58	
2025-01-09 17:00:42.99	46.33	23.57	
2025-01-09 17:00:43.19	46.27	23.57	
2025-01-09 17:00:43.40	46.20	23.57	
2025-01-09 17:00:43.60	46.13	23.57	
2025-01-09 17:00:43.81	46.06	23.56	
2025-01-09 17:00:44.02	45.99	23.56	
2025-01-09 17:00:44.22	45.93	23.56	
2025-01-09 17:00:44.43	45.86	23.55	
2025-01-09 17:00:44.63	45.79	23.55	
2025-01-09 17:00:44.83	45.73	23.55	
2025-01-09 17:00:45.04	45.66	23.54	
2025-01-09 17:00:45.25	45.59	23.54	
2025-01-09 17:00:45.45	45.53	23.54	
2025-01-09 17:00:45.66	45.46	23.53	
2025-01-09 17:00:45.86	45.39	23.53	
2025-01-09 17:00:46.07	45.32	23.53	
2025-01-09 17:00:46.27	45.26	23.52	
2025-01-09 17:00:46.48	45.19	23.52	
2025-01-09 17:00:46.68	45.12	23.52	
2025-01-09 17:00:46.89	45.05	23.51	
2025-01-09 17:00:47.09	44.99	23.51	
2025-01-09 17:00:47.30	44.92	23.51	
2025-01-09 17:00:47.50	44.86	23.50	
2025-01-09 17:00:47.71	44.79	23.50	
2025-01-09 17:00:47.91	44.72	23.50	
2025-01-09 17:00:48.12	44.65	23.49	
2025-01-09 17:00:48.32	44.59	23.49	
2025-01-09 17:00:48.53	44.52	23.48	
2025-01-09 17:00:48.73	44.45	23.48	
2025-01-09 17:00:48.94	44.39	23.48	
2025-01-09 17:00:49.14	44.32	23.47	
2025-01-09 17:00:49.35	44.25	23.47	
2025-01-09 17:00:49.55	44.19	23.47	
2025-01-09 17:00:49.76	44.12	23.46	
2025-01-09 17:00:49.97	44.05	23.46	
2025-01-09 17:00:50.18	43.98	23.45	
2025-01-09 17:00:50.39	43.91	23.45	
2025-01-09 17:00:50.59	43.85	23.44	
2025-01-09 17:00:50.80	43.78	23.44	
2025-01-09 17:00:51.00	43.72	23.44	
2025-01-09 17:00:51.21	43.65	23.43	
2025-01-09 17:00:51.41	43.58	23.43	
2025-01-09 17:00:51.62	43.51	23.42	
2025-01-09 17:00:51.83	43.45	23.42	
2025-01-09 17:00:52.03	43.38	23.41	
2025-01-09 17:00:52.23	43.32	23.41	
2025-01-09 17:00:52.44	43.25	23.40	
2025-01-09 17:00:52.65	43.18	23.40	
2025-01-09 17:00:52.85	43.12	23.40	
2025-01-09 17:00:53.06	43.05	23.39	
2025-01-09 17:00:53.26	42.98	23.39	
2025-01-09 17:00:53.46	42.92	23.38	
2025-01-09 17:00:53.67	42.85	23.38	
2025-01-09 17:00:53.88	42.78	23.37	
2025-01-09 17:00:54.08	42.72	23.37	
2025-01-09 17:00:54.28	42.65	23.36	
2025-01-09 17:00:54.49	42.59	23.36	
2025-01-09 17:00:54.69	42.52	23.35	
2025-01-09 17:00:54.90	42.45	23.35	
2025-01-09 17:00:55.10	42.39	23.34	
2025-01-09 17:00:55.31	42.32	23.34	
2025-01-09 17:00:55.51	42.26	23.33	
2025-01-09 17:00:55.72	42.19	23.33	
2025-01-09 17:00:55.93	42.12	23.32	
2025-01-09 17:00:56.13	42.06	23.32	
2025-01-09 17:00:56.35	41.99	23.31	
2025-01-09 17:00:56.55	41.92	23.30	
2025-01-09 17:00:56.76	41.85	23.30	
2025-01-09 17:00:56.97	41.79	23.29	
2025-01-09 17:00:57.17	41.72	23.29	
2025-01-09 17:00:57.38	41.65	23.28	
2025-01-09 17:00:57.58	41.59	23.28	
2025-01-09 17:00:57.79	41.52	23.27	
2025-01-09 17:00:57.99	41.46	23.27	
2025-01-09 17:00:58.20	41.39	23.26	
2025-01-09 17:00:58.40	41.33	23.25	
2025-01-09 17:00:58.61	41.26	23.25	
2025-01-09 17:00:58.81	41.20	23.24	
2025-01-09 17:00:59.02	41.13	23.24	
2025-01-09 17:00:59.22	41.06	23.23	
