passes_logs/2025/01/09/SPB_Silybum_02/SPB_Silybum_02__20250109_105301_AQUA_rec.log

#Pass ID: 20250109_105301_AQUA
#Satellite: AQUA
#Configuration: AQUA
#Start time: 2025-01-09 10:53:01

#Version: 2.0.20230423
#Station: SPB_Silybum_02
#Location: 30.233357 lon 59.946436 lat
#TLE: 1 27424U 02022A   25008.83930641  .00002008  00000+0  42243-3 0  9991
#TLE: 2 27424  98.3576 325.4481 0001488 117.9026 295.2820 14.60658995206721

#Time	Az	El	Level	Level2	SNR	BER	Gain	Gain2
2025-01-09 10:53:04.00	145.30	4.14	
2025-01-09 10:53:04.22	145.30	4.16	
2025-01-09 10:53:04.42	145.29	4.17	
2025-01-09 10:53:04.63	145.29	4.19	
2025-01-09 10:53:04.84	145.28	4.20	
2025-01-09 10:53:05.04	145.28	4.22	
2025-01-09 10:53:05.25	145.27	4.23	
2025-01-09 10:53:05.45	145.27	4.25	
2025-01-09 10:53:05.66	145.26	4.26	
2025-01-09 10:53:05.86	145.26	4.28	
2025-01-09 10:53:06.07	145.25	4.29	
2025-01-09 10:53:06.27	145.25	4.31	
2025-01-09 10:53:06.48	145.24	4.32	
2025-01-09 10:53:06.68	145.24	4.34	
2025-01-09 10:53:06.89	145.23	4.35	
2025-01-09 10:53:07.09	145.23	4.37	
2025-01-09 10:53:07.30	145.22	4.38	
2025-01-09 10:53:07.50	145.22	4.40	
2025-01-09 10:53:07.71	145.21	4.41	
2025-01-09 10:53:07.91	145.21	4.43	
2025-01-09 10:53:08.12	145.20	4.44	
2025-01-09 10:53:08.32	145.20	4.46	
2025-01-09 10:53:08.53	145.19	4.47	
2025-01-09 10:53:08.73	145.19	4.49	
2025-01-09 10:53:08.94	145.18	4.50	
2025-01-09 10:53:09.15	145.18	4.52	
2025-01-09 10:53:09.35	145.17	4.53	
2025-01-09 10:53:09.56	145.17	4.55	
2025-01-09 10:53:09.76	145.16	4.56	
2025-01-09 10:53:09.97	145.16	4.58	
2025-01-09 10:53:10.17	145.15	4.59	
2025-01-09 10:53:10.38	145.15	4.61	
2025-01-09 10:53:10.58	145.14	4.62	
2025-01-09 10:53:10.79	145.14	4.64	
2025-01-09 10:53:11.00	145.13	4.65	
2025-01-09 10:53:11.20	145.13	4.67	
2025-01-09 10:53:11.41	145.12	4.68	
2025-01-09 10:53:11.61	145.12	4.70	
2025-01-09 10:53:11.82	145.11	4.71	
2025-01-09 10:53:12.02	145.11	4.73	
2025-01-09 10:53:12.23	145.10	4.74	
2025-01-09 10:53:12.44	145.10	4.76	
2025-01-09 10:53:12.64	145.09	4.77	
2025-01-09 10:53:12.84	145.09	4.79	
2025-01-09 10:53:13.05	145.08	4.80	
2025-01-09 10:53:13.25	145.08	4.82	
2025-01-09 10:53:13.46	145.07	4.83	
2025-01-09 10:53:13.67	145.07	4.85	
2025-01-09 10:53:13.87	145.06	4.86	
2025-01-09 10:53:14.08	145.06	4.88	
2025-01-09 10:53:14.28	145.05	4.89	
2025-01-09 10:53:14.49	145.05	4.91	
2025-01-09 10:53:14.69	145.04	4.92	
2025-01-09 10:53:14.90	145.04	4.94	
2025-01-09 10:53:15.10	145.03	4.95	
2025-01-09 10:53:15.31	145.03	4.97	
2025-01-09 10:53:15.51	145.02	4.98	
2025-01-09 10:53:15.72	145.02	5.00	
2025-01-09 10:53:15.92	145.01	5.01	
2025-01-09 10:53:16.13	145.00	5.03	
2025-01-09 10:53:16.33	145.00	5.05	
2025-01-09 10:53:16.54	144.99	5.06	
2025-01-09 10:53:16.75	144.99	5.08	
2025-01-09 10:53:16.95	144.98	5.09	
2025-01-09 10:53:17.16	144.98	5.11	
2025-01-09 10:53:17.36	144.97	5.12	
2025-01-09 10:53:17.57	144.97	5.14	
2025-01-09 10:53:17.77	144.96	5.15	
2025-01-09 10:53:17.98	144.96	5.17	
2025-01-09 10:53:18.20	144.95	5.18	
2025-01-09 10:53:18.41	144.95	5.20	
2025-01-09 10:53:18.61	144.94	5.22	
2025-01-09 10:53:18.82	144.94	5.23	
2025-01-09 10:53:19.02	144.93	5.25	
2025-01-09 10:53:19.23	144.93	5.26	
2025-01-09 10:53:19.43	144.92	5.28	
2025-01-09 10:53:19.64	144.92	5.29	
2025-01-09 10:53:19.84	144.91	5.31	
2025-01-09 10:53:20.05	144.90	5.32	
2025-01-09 10:53:20.25	144.90	5.34	
2025-01-09 10:53:20.45	144.89	5.35	
2025-01-09 10:53:20.66	144.89	5.37	
2025-01-09 10:53:20.87	144.88	5.39	
2025-01-09 10:53:21.07	144.88	5.40	
2025-01-09 10:53:21.27	144.87	5.42	
2025-01-09 10:53:21.48	144.87	5.43	
2025-01-09 10:53:21.68	144.86	5.45	
2025-01-09 10:53:21.89	144.86	5.46	
2025-01-09 10:53:22.10	144.85	5.48	
2025-01-09 10:53:22.30	144.85	5.49	
2025-01-09 10:53:22.50	144.84	5.51	
2025-01-09 10:53:22.71	144.83	5.53	
2025-01-09 10:53:22.91	144.83	5.54	
2025-01-09 10:53:23.12	144.82	5.56	
2025-01-09 10:53:23.32	144.82	5.57	
2025-01-09 10:53:23.53	144.81	5.59	
2025-01-09 10:53:23.74	144.81	5.60	
2025-01-09 10:53:23.95	144.80	5.62	
2025-01-09 10:53:24.15	144.80	5.63	
2025-01-09 10:53:24.36	144.79	5.65	
2025-01-09 10:53:24.56	144.79	5.67	
2025-01-09 10:53:24.77	144.78	5.68	
2025-01-09 10:53:24.97	144.78	5.70	
2025-01-09 10:53:25.18	144.77	5.71	
2025-01-09 10:53:25.38	144.76	5.73	
2025-01-09 10:53:25.59	144.76	5.74	
2025-01-09 10:53:25.79	144.75	5.76	
2025-01-09 10:53:26.00	144.75	5.78	
2025-01-09 10:53:26.20	144.74	5.79	
2025-01-09 10:53:26.41	144.74	5.81	
2025-01-09 10:53:26.62	144.73	5.82	
2025-01-09 10:53:26.82	144.73	5.84	
2025-01-09 10:53:27.03	144.72	5.86	
2025-01-09 10:53:27.23	144.71	5.87	
2025-01-09 10:53:27.44	144.71	5.89	
2025-01-09 10:53:27.64	144.70	5.90	
2025-01-09 10:53:27.86	144.70	5.92	
2025-01-09 10:53:28.07	144.69	5.94	
2025-01-09 10:53:28.27	144.69	5.95	
2025-01-09 10:53:28.48	144.68	5.97	
2025-01-09 10:53:28.68	144.67	5.98	
2025-01-09 10:53:28.89	144.67	6.00	
2025-01-09 10:53:29.09	144.66	6.01	
2025-01-09 10:53:29.30	144.66	6.03	
2025-01-09 10:53:29.51	144.65	6.05	
2025-01-09 10:53:29.71	144.65	6.06	
2025-01-09 10:53:29.92	144.64	6.08	
2025-01-09 10:53:30.12	144.64	6.09	
2025-01-09 10:53:30.33	144.63	6.11	
2025-01-09 10:53:30.53	144.62	6.13	
2025-01-09 10:53:30.74	144.62	6.14	
2025-01-09 10:53:30.94	144.61	6.16	
2025-01-09 10:53:31.15	144.61	6.17	
2025-01-09 10:53:31.35	144.60	6.19	
2025-01-09 10:53:31.56	144.60	6.21	
2025-01-09 10:53:31.76	144.59	6.22	
2025-01-09 10:53:31.97	144.58	6.24	
2025-01-09 10:53:32.19	144.58	6.26	
2025-01-09 10:53:32.39	144.57	6.27	
2025-01-09 10:53:32.60	144.57	6.29	
2025-01-09 10:53:32.80	144.56	6.30	
2025-01-09 10:53:33.01	144.55	6.32	
2025-01-09 10:53:33.21	144.55	6.34	
2025-01-09 10:53:33.42	144.54	6.35	
2025-01-09 10:53:33.62	144.54	6.37	
2025-01-09 10:53:33.83	144.53	6.38	
2025-01-09 10:53:34.03	144.53	6.40	
2025-01-09 10:53:34.24	144.52	6.42	
2025-01-09 10:53:34.44	144.51	6.43	
2025-01-09 10:53:34.64	144.51	6.45	
2025-01-09 10:53:34.85	144.50	6.47	
2025-01-09 10:53:35.06	144.50	6.48	
2025-01-09 10:53:35.26	144.49	6.50	
2025-01-09 10:53:35.47	144.48	6.51	
2025-01-09 10:53:35.67	144.48	6.53	
2025-01-09 10:53:35.88	144.47	6.55	
2025-01-09 10:53:36.09	144.47	6.56	
2025-01-09 10:53:36.29	144.46	6.58	
2025-01-09 10:53:36.49	144.46	6.60	
2025-01-09 10:53:36.70	144.45	6.61	
2025-01-09 10:53:36.90	144.44	6.63	
2025-01-09 10:53:37.11	144.44	6.64	
2025-01-09 10:53:37.32	144.43	6.66	
2025-01-09 10:53:37.53	144.43	6.68	
2025-01-09 10:53:37.74	144.42	6.69	
2025-01-09 10:53:37.95	144.41	6.71	
2025-01-09 10:53:38.15	144.41	6.73	
2025-01-09 10:53:38.36	144.40	6.74	
2025-01-09 10:53:38.56	144.40	6.76	
2025-01-09 10:53:38.77	144.39	6.78	
2025-01-09 10:53:38.97	144.38	6.79	
2025-01-09 10:53:39.18	144.38	6.81	
2025-01-09 10:53:39.38	144.37	6.83	
2025-01-09 10:53:39.60	144.37	6.84	
2025-01-09 10:53:39.81	144.36	6.86	
2025-01-09 10:53:40.01	144.35	6.88	
2025-01-09 10:53:40.22	144.35	6.89	
2025-01-09 10:53:40.42	144.34	6.91	
2025-01-09 10:53:40.63	144.33	6.93	
2025-01-09 10:53:40.83	144.33	6.94	
2025-01-09 10:53:41.04	144.32	6.96	
2025-01-09 10:53:41.24	144.32	6.98	
2025-01-09 10:53:41.45	144.31	6.99	
2025-01-09 10:53:41.65	144.30	7.01	
2025-01-09 10:53:41.86	144.30	7.03	
2025-01-09 10:53:42.07	144.29	7.04	
2025-01-09 10:53:42.28	144.29	7.06	
2025-01-09 10:53:42.49	144.28	7.08	
2025-01-09 10:53:42.69	144.27	7.09	
2025-01-09 10:53:42.90	144.27	7.11	
2025-01-09 10:53:43.11	144.26	7.13	
2025-01-09 10:53:43.31	144.26	7.14	
2025-01-09 10:53:43.52	144.25	7.16	
2025-01-09 10:53:43.72	144.24	7.18	
2025-01-09 10:53:43.93	144.24	7.19	
2025-01-09 10:53:44.13	144.23	7.21	
2025-01-09 10:53:44.34	144.22	7.23	
2025-01-09 10:53:44.54	144.22	7.24	
2025-01-09 10:53:44.75	144.21	7.26	
2025-01-09 10:53:44.95	144.21	7.28	
2025-01-09 10:53:45.16	144.20	7.29	
2025-01-09 10:53:45.36	144.19	7.31	
2025-01-09 10:53:45.57	144.19	7.33	
2025-01-09 10:53:45.77	144.18	7.34	
2025-01-09 10:53:45.97	144.17	7.36	
2025-01-09 10:53:46.18	144.17	7.38	
2025-01-09 10:53:46.38	144.16	7.39	
2025-01-09 10:53:46.59	144.16	7.41	
2025-01-09 10:53:46.80	144.15	7.43	
2025-01-09 10:53:47.00	144.14	7.44	
2025-01-09 10:53:47.21	144.14	7.46	
2025-01-09 10:53:47.41	144.13	7.48	
2025-01-09 10:53:47.63	144.12	7.50	
2025-01-09 10:53:47.83	144.12	7.51	
2025-01-09 10:53:48.03	144.11	7.53	
2025-01-09 10:53:48.23	144.10	7.55	
2025-01-09 10:53:48.44	144.10	7.56	
2025-01-09 10:53:48.64	144.09	7.58	
2025-01-09 10:53:48.84	144.09	7.60	
2025-01-09 10:53:49.04	144.08	7.61	
2025-01-09 10:53:49.25	144.07	7.63	
2025-01-09 10:53:49.45	144.07	7.65	
2025-01-09 10:53:49.66	144.06	7.66	
2025-01-09 10:53:49.86	144.05	7.68	
2025-01-09 10:53:50.07	144.05	7.70	
2025-01-09 10:53:50.27	144.04	7.72	
2025-01-09 10:53:50.48	144.03	7.73	
2025-01-09 10:53:50.68	144.03	7.75	
2025-01-09 10:53:50.89	144.02	7.77	
2025-01-09 10:53:51.10	144.01	7.78	
2025-01-09 10:53:51.30	144.01	7.80	
2025-01-09 10:53:51.50	144.00	7.82	
2025-01-09 10:53:51.71	144.00	7.84	
2025-01-09 10:53:51.91	143.99	7.85	
2025-01-09 10:53:52.12	143.98	7.87	
2025-01-09 10:53:52.32	143.98	7.89	
2025-01-09 10:53:52.53	143.97	7.90	
2025-01-09 10:53:52.73	143.96	7.92	
2025-01-09 10:53:52.94	143.96	7.94	
2025-01-09 10:53:53.14	143.95	7.96	
2025-01-09 10:53:53.35	143.94	7.97	
2025-01-09 10:53:53.55	143.94	7.99	
2025-01-09 10:53:53.76	143.93	8.01	
2025-01-09 10:53:53.97	143.92	8.03	
2025-01-09 10:53:54.17	143.92	8.04	
2025-01-09 10:53:54.38	143.91	8.06	
2025-01-09 10:53:54.58	143.90	8.08	
2025-01-09 10:53:54.79	143.90	8.09	
2025-01-09 10:53:54.99	143.89	8.11	
2025-01-09 10:53:55.20	143.88	8.13	
2025-01-09 10:53:55.40	143.88	8.15	
2025-01-09 10:53:55.62	143.87	8.17	
2025-01-09 10:53:55.83	143.86	8.18	
2025-01-09 10:53:56.03	143.86	8.20	
2025-01-09 10:53:56.24	143.85	8.22	
2025-01-09 10:53:56.44	143.84	8.24	
2025-01-09 10:53:56.65	143.84	8.25	
2025-01-09 10:53:56.85	143.83	8.27	
2025-01-09 10:53:57.06	143.82	8.29	
2025-01-09 10:53:57.27	143.82	8.31	
2025-01-09 10:53:57.47	143.81	8.32	
2025-01-09 10:53:57.68	143.80	8.34	
2025-01-09 10:53:57.88	143.79	8.36	
2025-01-09 10:53:58.09	143.79	8.38	
2025-01-09 10:53:58.29	143.78	8.39	
2025-01-09 10:53:58.50	143.77	8.41	
2025-01-09 10:53:58.70	143.77	8.43	
2025-01-09 10:53:58.90	143.76	8.45	
2025-01-09 10:53:59.11	143.75	8.46	
2025-01-09 10:53:59.32	143.75	8.48	
2025-01-09 10:53:59.52	143.74	8.50	
2025-01-09 10:53:59.72	143.73	8.52	
2025-01-09 10:53:59.93	143.73	8.53	
2025-01-09 10:54:00.13	143.72	8.55	
2025-01-09 10:54:00.34	143.71	8.57	
2025-01-09 10:54:00.54	143.71	8.59	
2025-01-09 10:54:00.75	143.70	8.60	
2025-01-09 10:54:00.96	143.69	8.62	
2025-01-09 10:54:01.16	143.68	8.64	
2025-01-09 10:54:01.37	143.68	8.66	
2025-01-09 10:54:01.57	143.67	8.68	
2025-01-09 10:54:01.78	143.66	8.69	
2025-01-09 10:54:01.98	143.66	8.71	
2025-01-09 10:54:02.19	143.65	8.73	
2025-01-09 10:54:02.40	143.64	8.75	
2025-01-09 10:54:02.60	143.64	8.77	
2025-01-09 10:54:02.81	143.63	8.78	
2025-01-09 10:54:03.02	143.62	8.80	
2025-01-09 10:54:03.23	143.61	8.82	
2025-01-09 10:54:03.44	143.61	8.84	
2025-01-09 10:54:03.64	143.60	8.86	
2025-01-09 10:54:03.85	143.59	8.87	
2025-01-09 10:54:04.05	143.59	8.89	
2025-01-09 10:54:04.26	143.58	8.91	
2025-01-09 10:54:04.47	143.57	8.93	
2025-01-09 10:54:04.67	143.56	8.95	
2025-01-09 10:54:04.88	143.56	8.96	
2025-01-09 10:54:05.08	143.55	8.98	
2025-01-09 10:54:05.28	143.54	9.00	
2025-01-09 10:54:05.49	143.54	9.02	
2025-01-09 10:54:05.69	143.53	9.04	
2025-01-09 10:54:05.90	143.52	9.05	
2025-01-09 10:54:06.10	143.51	9.07	
2025-01-09 10:54:06.31	143.51	9.09	
2025-01-09 10:54:06.51	143.50	9.11	
2025-01-09 10:54:06.72	143.49	9.13	
2025-01-09 10:54:06.93	143.48	9.15	
2025-01-09 10:54:07.13	143.48	9.16	
2025-01-09 10:54:07.33	143.47	9.18	
2025-01-09 10:54:07.54	143.46	9.20	
2025-01-09 10:54:07.75	143.46	9.22	
2025-01-09 10:54:07.95	143.45	9.24	
2025-01-09 10:54:08.16	143.44	9.25	
2025-01-09 10:54:08.38	143.43	9.27	
2025-01-09 10:54:08.58	143.43	9.29	
2025-01-09 10:54:08.79	143.42	9.31	
2025-01-09 10:54:08.99	143.41	9.33	
2025-01-09 10:54:09.20	143.40	9.35	
2025-01-09 10:54:09.40	143.40	9.37	
2025-01-09 10:54:09.61	143.39	9.38	
2025-01-09 10:54:09.81	143.38	9.40	
2025-01-09 10:54:10.03	143.37	9.42	
2025-01-09 10:54:10.23	143.37	9.44	
2025-01-09 10:54:10.44	143.36	9.46	
2025-01-09 10:54:10.64	143.35	9.48	
2025-01-09 10:54:10.85	143.34	9.50	
2025-01-09 10:54:11.06	143.34	9.51	
2025-01-09 10:54:11.27	143.33	9.53	
2025-01-09 10:54:11.47	143.32	9.55	
2025-01-09 10:54:11.68	143.31	9.57	
2025-01-09 10:54:11.88	143.31	9.59	
2025-01-09 10:54:12.09	143.30	9.61	
2025-01-09 10:54:12.29	143.29	9.63	
2025-01-09 10:54:12.50	143.28	9.64	
2025-01-09 10:54:12.72	143.28	9.66	
2025-01-09 10:54:12.93	143.27	9.68	
2025-01-09 10:54:13.13	143.26	9.70	
2025-01-09 10:54:13.34	143.25	9.72	
2025-01-09 10:54:13.54	143.25	9.74	
2025-01-09 10:54:13.75	143.24	9.76	
2025-01-09 10:54:13.95	143.23	9.78	
2025-01-09 10:54:14.16	143.22	9.79	
2025-01-09 10:54:14.36	143.22	9.81	
2025-01-09 10:54:14.57	143.21	9.83	
2025-01-09 10:54:14.77	143.20	9.85	
2025-01-09 10:54:14.98	143.19	9.87	
2025-01-09 10:54:15.18	143.18	9.89	
2025-01-09 10:54:15.39	143.18	9.91	
2025-01-09 10:54:15.59	143.17	9.93	
2025-01-09 10:54:15.80	143.16	9.94	
2025-01-09 10:54:16.00	143.15	9.96	
2025-01-09 10:54:16.21	143.15	9.98	
2025-01-09 10:54:16.42	143.14	10.00	
2025-01-09 10:54:16.62	143.13	10.02	
2025-01-09 10:54:16.83	143.12	10.04	
2025-01-09 10:54:17.03	143.11	10.06	
2025-01-09 10:54:17.24	143.11	10.08	
2025-01-09 10:54:17.44	143.10	10.10	
2025-01-09 10:54:17.65	143.09	10.11	
2025-01-09 10:54:17.85	143.08	10.13	
2025-01-09 10:54:18.06	143.08	10.15	
2025-01-09 10:54:18.26	143.07	10.17	
2025-01-09 10:54:18.47	143.06	10.19	
2025-01-09 10:54:18.67	143.05	10.21	
2025-01-09 10:54:18.88	143.04	10.23	
2025-01-09 10:54:19.08	143.04	10.25	
2025-01-09 10:54:19.29	143.03	10.27	
2025-01-09 10:54:19.49	143.02	10.29	
2025-01-09 10:54:19.70	143.01	10.31	
2025-01-09 10:54:19.91	143.00	10.32	
2025-01-09 10:54:20.12	143.00	10.34	
2025-01-09 10:54:20.33	142.99	10.36	
2025-01-09 10:54:20.54	142.98	10.38	
2025-01-09 10:54:20.74	142.97	10.40	
2025-01-09 10:54:20.95	142.96	10.42	
2025-01-09 10:54:21.15	142.96	10.44	
2025-01-09 10:54:21.36	142.95	10.46	
2025-01-09 10:54:21.57	142.94	10.48	
2025-01-09 10:54:21.77	142.93	10.50	
2025-01-09 10:54:21.98	142.92	10.52	
2025-01-09 10:54:22.18	142.92	10.54	
2025-01-09 10:54:22.38	142.91	10.56	
2025-01-09 10:54:22.59	142.90	10.58	
2025-01-09 10:54:22.80	142.89	10.60	
2025-01-09 10:54:23.00	142.88	10.61	
2025-01-09 10:54:23.21	142.87	10.63	
2025-01-09 10:54:23.41	142.87	10.65	
2025-01-09 10:54:23.62	142.86	10.67	
2025-01-09 10:54:23.82	142.85	10.69	
2025-01-09 10:54:24.03	142.84	10.71	
2025-01-09 10:54:24.24	142.83	10.73	
2025-01-09 10:54:24.44	142.83	10.75	
2025-01-09 10:54:24.65	142.82	10.77	
2025-01-09 10:54:24.85	142.81	10.79	
2025-01-09 10:54:25.06	142.80	10.81	
2025-01-09 10:54:25.26	142.79	10.83	
2025-01-09 10:54:25.46	142.78	10.85	
2025-01-09 10:54:25.67	142.78	10.87	
2025-01-09 10:54:25.87	142.77	10.89	
2025-01-09 10:54:26.08	142.76	10.91	
2025-01-09 10:54:26.28	142.75	10.93	
2025-01-09 10:54:26.49	142.74	10.95	
2025-01-09 10:54:26.69	142.73	10.97	
2025-01-09 10:54:26.90	142.73	10.99	
2025-01-09 10:54:27.10	142.72	11.00	
2025-01-09 10:54:27.31	142.71	11.02	
2025-01-09 10:54:27.51	142.70	11.04	
2025-01-09 10:54:27.72	142.69	11.06	
2025-01-09 10:54:27.93	142.68	11.08	
2025-01-09 10:54:28.13	142.68	11.10	
2025-01-09 10:54:28.34	142.67	11.12	
2025-01-09 10:54:28.54	142.66	11.14	
2025-01-09 10:54:28.75	142.65	11.16	
2025-01-09 10:54:28.95	142.64	11.18	
2025-01-09 10:54:29.16	142.63	11.20	
2025-01-09 10:54:29.36	142.62	11.22	
2025-01-09 10:54:29.57	142.62	11.24	
2025-01-09 10:54:29.77	142.61	11.26	
2025-01-09 10:54:29.98	142.60	11.28	
2025-01-09 10:54:30.18	142.59	11.30	
2025-01-09 10:54:30.39	142.58	11.32	
2025-01-09 10:54:30.60	142.57	11.34	
2025-01-09 10:54:30.80	142.56	11.36	
2025-01-09 10:54:31.00	142.56	11.38	
2025-01-09 10:54:31.21	142.55	11.40	
2025-01-09 10:54:31.41	142.54	11.42	
2025-01-09 10:54:31.62	142.53	11.44	
2025-01-09 10:54:31.82	142.52	11.46	
2025-01-09 10:54:32.03	142.51	11.48	
2025-01-09 10:54:32.23	142.50	11.50	
2025-01-09 10:54:32.44	142.49	11.52	
2025-01-09 10:54:32.64	142.49	11.54	
2025-01-09 10:54:32.85	142.48	11.56	
2025-01-09 10:54:33.05	142.47	11.58	
2025-01-09 10:54:33.26	142.46	11.60	
2025-01-09 10:54:33.47	142.45	11.62	
2025-01-09 10:54:33.67	142.44	11.64	
2025-01-09 10:54:33.87	142.43	11.66	
2025-01-09 10:54:34.08	142.42	11.68	
2025-01-09 10:54:34.28	142.42	11.70	
2025-01-09 10:54:34.49	142.41	11.73	
2025-01-09 10:54:34.69	142.40	11.75	
2025-01-09 10:54:34.90	142.39	11.77	
2025-01-09 10:54:35.10	142.38	11.79	
2025-01-09 10:54:35.31	142.37	11.81	
2025-01-09 10:54:35.51	142.36	11.83	
2025-01-09 10:54:35.72	142.35	11.85	
2025-01-09 10:54:35.92	142.34	11.87	
2025-01-09 10:54:36.13	142.33	11.89	
2025-01-09 10:54:36.33	142.33	11.91	
2025-01-09 10:54:36.54	142.32	11.93	
2025-01-09 10:54:36.74	142.31	11.95	
2025-01-09 10:54:36.95	142.30	11.97	
2025-01-09 10:54:37.15	142.29	11.99	
2025-01-09 10:54:37.36	142.28	12.01	
2025-01-09 10:54:37.56	142.27	12.03	
2025-01-09 10:54:37.77	142.26	12.05	
2025-01-09 10:54:37.98	142.25	12.07	
2025-01-09 10:54:38.18	142.24	12.09	
2025-01-09 10:54:38.39	142.23	12.11	
2025-01-09 10:54:38.59	142.23	12.13	
2025-01-09 10:54:38.80	142.22	12.16	
2025-01-09 10:54:39.00	142.21	12.18	
2025-01-09 10:54:39.21	142.20	12.20	
2025-01-09 10:54:39.41	142.19	12.22	
2025-01-09 10:54:39.62	142.18	12.24	
2025-01-09 10:54:39.82	142.17	12.26	
2025-01-09 10:54:40.03	142.16	12.28	
2025-01-09 10:54:40.23	142.15	12.30	
2025-01-09 10:54:40.44	142.14	12.32	
2025-01-09 10:54:40.64	142.13	12.34	
2025-01-09 10:54:40.85	142.12	12.36	
2025-01-09 10:54:41.05	142.11	12.38	
2025-01-09 10:54:41.26	142.11	12.41	
2025-01-09 10:54:41.48	142.10	12.43	
2025-01-09 10:54:41.68	142.09	12.45	
2025-01-09 10:54:41.89	142.08	12.47	
2025-01-09 10:54:42.09	142.07	12.49	
2025-01-09 10:54:42.30	142.06	12.51	
2025-01-09 10:54:42.50	142.05	12.53	
2025-01-09 10:54:42.71	142.04	12.55	
2025-01-09 10:54:42.91	142.03	12.57	
2025-01-09 10:54:43.12	142.02	12.60	
2025-01-09 10:54:43.32	142.01	12.62	
2025-01-09 10:54:43.52	142.00	12.64	
2025-01-09 10:54:43.73	141.99	12.66	
2025-01-09 10:54:43.94	141.98	12.68	
2025-01-09 10:54:44.15	141.97	12.70	
2025-01-09 10:54:44.35	141.96	12.72	
2025-01-09 10:54:44.56	141.95	12.75	
2025-01-09 10:54:44.76	141.94	12.77	
2025-01-09 10:54:44.97	141.93	12.79	
2025-01-09 10:54:45.17	141.92	12.81	
2025-01-09 10:54:45.39	141.91	12.83	
2025-01-09 10:54:45.59	141.90	12.85	
2025-01-09 10:54:45.79	141.89	12.87	
2025-01-09 10:54:46.00	141.88	12.89	
2025-01-09 10:54:46.21	141.87	12.92	
2025-01-09 10:54:46.41	141.87	12.94	
2025-01-09 10:54:46.62	141.86	12.96	
2025-01-09 10:54:46.82	141.85	12.98	
2025-01-09 10:54:47.03	141.84	13.00	
2025-01-09 10:54:47.24	141.83	13.02	
2025-01-09 10:54:47.44	141.82	13.05	
2025-01-09 10:54:47.65	141.81	13.07	
2025-01-09 10:54:47.85	141.80	13.09	
2025-01-09 10:54:48.05	141.79	13.11	
2025-01-09 10:54:48.26	141.78	13.13	
2025-01-09 10:54:48.46	141.77	13.15	
2025-01-09 10:54:48.67	141.76	13.17	
2025-01-09 10:54:48.89	141.75	13.20	
2025-01-09 10:54:49.09	141.74	13.22	
2025-01-09 10:54:49.30	141.73	13.24	
2025-01-09 10:54:49.50	141.72	13.26	
2025-01-09 10:54:49.71	141.71	13.28	
2025-01-09 10:54:49.91	141.70	13.31	
2025-01-09 10:54:50.12	141.69	13.33	
2025-01-09 10:54:50.32	141.68	13.35	
2025-01-09 10:54:50.53	141.67	13.37	
2025-01-09 10:54:50.73	141.66	13.39	
2025-01-09 10:54:50.94	141.65	13.42	
2025-01-09 10:54:51.14	141.64	13.44	
2025-01-09 10:54:51.35	141.63	13.46	
2025-01-09 10:54:51.55	141.62	13.48	
2025-01-09 10:54:51.76	141.61	13.50	
2025-01-09 10:54:51.96	141.60	13.52	
2025-01-09 10:54:52.16	141.59	13.55	
2025-01-09 10:54:52.37	141.58	13.57	
2025-01-09 10:54:52.58	141.56	13.59	
2025-01-09 10:54:52.78	141.55	13.61	
2025-01-09 10:54:52.98	141.54	13.63	
2025-01-09 10:54:53.19	141.53	13.66	
2025-01-09 10:54:53.40	141.52	13.68	
2025-01-09 10:54:53.60	141.51	13.70	
2025-01-09 10:54:53.81	141.50	13.72	
2025-01-09 10:54:54.01	141.49	13.75	
2025-01-09 10:54:54.22	141.48	13.77	
2025-01-09 10:54:54.42	141.47	13.79	
2025-01-09 10:54:54.63	141.46	13.81	
2025-01-09 10:54:54.83	141.45	13.83	
2025-01-09 10:54:55.04	141.44	13.86	
2025-01-09 10:54:55.24	141.43	13.88	
2025-01-09 10:54:55.45	141.42	13.90	
2025-01-09 10:54:55.65	141.41	13.92	
2025-01-09 10:54:55.86	141.40	13.95	
2025-01-09 10:54:56.06	141.39	13.97	
2025-01-09 10:54:56.27	141.38	13.99	
2025-01-09 10:54:56.47	141.37	14.01	
2025-01-09 10:54:56.68	141.36	14.04	
2025-01-09 10:54:56.88	141.35	14.06	
2025-01-09 10:54:57.09	141.33	14.08	
2025-01-09 10:54:57.29	141.32	14.10	
2025-01-09 10:54:57.50	141.31	14.13	
2025-01-09 10:54:57.70	141.30	14.15	
2025-01-09 10:54:57.91	141.29	14.17	
2025-01-09 10:54:58.11	141.28	14.19	
2025-01-09 10:54:58.32	141.27	14.22	
2025-01-09 10:54:58.54	141.26	14.24	
2025-01-09 10:54:58.74	141.25	14.26	
2025-01-09 10:54:58.95	141.24	14.29	
2025-01-09 10:54:59.16	141.23	14.31	
2025-01-09 10:54:59.36	141.22	14.33	
2025-01-09 10:54:59.56	141.21	14.35	
2025-01-09 10:54:59.77	141.19	14.38	
2025-01-09 10:54:59.97	141.18	14.40	
2025-01-09 10:55:00.18	141.17	14.42	
2025-01-09 10:55:00.38	141.16	14.45	
2025-01-09 10:55:00.59	141.15	14.47	
2025-01-09 10:55:00.79	141.14	14.49	
2025-01-09 10:55:01.00	141.13	14.51	
2025-01-09 10:55:01.21	141.12	14.54	
2025-01-09 10:55:01.41	141.11	14.56	
2025-01-09 10:55:01.62	141.10	14.58	
2025-01-09 10:55:01.82	141.08	14.61	
2025-01-09 10:55:02.03	141.07	14.63	
2025-01-09 10:55:02.23	141.06	14.65	
2025-01-09 10:55:02.44	141.05	14.68	
2025-01-09 10:55:02.65	141.04	14.70	
2025-01-09 10:55:02.85	141.03	14.72	
2025-01-09 10:55:03.06	141.02	14.75	
2025-01-09 10:55:03.26	141.01	14.77	
2025-01-09 10:55:03.47	140.99	14.79	
2025-01-09 10:55:03.67	140.98	14.81	
2025-01-09 10:55:03.87	140.97	14.84	
2025-01-09 10:55:04.08	140.96	14.86	
2025-01-09 10:55:04.29	140.95	14.89	
2025-01-09 10:55:04.49	140.94	14.91	
2025-01-09 10:55:04.70	140.93	14.93	
2025-01-09 10:55:04.90	140.92	14.95	
2025-01-09 10:55:05.10	140.90	14.98	
2025-01-09 10:55:05.31	140.89	15.00	
2025-01-09 10:55:05.51	140.88	15.02	
2025-01-09 10:55:05.72	140.87	15.05	
2025-01-09 10:55:05.92	140.86	15.07	
2025-01-09 10:55:06.13	140.85	15.10	
2025-01-09 10:55:06.34	140.84	15.12	
2025-01-09 10:55:06.54	140.82	15.14	
2025-01-09 10:55:06.75	140.81	15.17	
2025-01-09 10:55:06.95	140.80	15.19	
2025-01-09 10:55:07.15	140.79	15.21	
2025-01-09 10:55:07.36	140.78	15.24	
2025-01-09 10:55:07.57	140.77	15.26	
2025-01-09 10:55:07.77	140.76	15.28	
2025-01-09 10:55:07.98	140.74	15.31	
2025-01-09 10:55:08.18	140.73	15.33	
2025-01-09 10:55:08.39	140.72	15.36	
2025-01-09 10:55:08.59	140.71	15.38	
2025-01-09 10:55:08.80	140.70	15.40	
2025-01-09 10:55:09.00	140.68	15.43	
2025-01-09 10:55:09.21	140.67	15.45	
2025-01-09 10:55:09.41	140.66	15.47	
2025-01-09 10:55:09.62	140.65	15.50	
2025-01-09 10:55:09.83	140.64	15.52	
2025-01-09 10:55:10.03	140.63	15.55	
2025-01-09 10:55:10.24	140.61	15.57	
2025-01-09 10:55:10.45	140.60	15.60	
2025-01-09 10:55:10.66	140.59	15.62	
2025-01-09 10:55:10.86	140.58	15.64	
2025-01-09 10:55:11.07	140.56	15.67	
2025-01-09 10:55:11.27	140.55	15.69	
2025-01-09 10:55:11.48	140.54	15.72	
2025-01-09 10:55:11.68	140.53	15.74	
2025-01-09 10:55:11.89	140.52	15.77	
2025-01-09 10:55:12.10	140.50	15.79	
2025-01-09 10:55:12.30	140.49	15.81	
2025-01-09 10:55:12.51	140.48	15.84	
2025-01-09 10:55:12.71	140.47	15.86	
2025-01-09 10:55:12.92	140.46	15.89	
2025-01-09 10:55:13.12	140.44	15.91	
2025-01-09 10:55:13.33	140.43	15.94	
2025-01-09 10:55:13.53	140.42	15.96	
2025-01-09 10:55:13.74	140.41	15.99	
2025-01-09 10:55:13.94	140.39	16.01	
2025-01-09 10:55:14.15	140.38	16.03	
2025-01-09 10:55:14.35	140.37	16.06	
2025-01-09 10:55:14.57	140.36	16.08	
2025-01-09 10:55:14.78	140.34	16.11	
2025-01-09 10:55:14.98	140.33	16.13	
2025-01-09 10:55:15.19	140.32	16.16	
2025-01-09 10:55:15.39	140.31	16.18	
2025-01-09 10:55:15.60	140.29	16.21	
2025-01-09 10:55:15.80	140.28	16.23	
2025-01-09 10:55:16.01	140.27	16.26	
2025-01-09 10:55:16.22	140.26	16.28	
2025-01-09 10:55:16.42	140.24	16.31	
2025-01-09 10:55:16.62	140.23	16.33	
2025-01-09 10:55:16.83	140.22	16.36	
2025-01-09 10:55:17.04	140.21	16.38	
2025-01-09 10:55:17.24	140.19	16.41	
2025-01-09 10:55:17.45	140.18	16.43	
2025-01-09 10:55:17.65	140.17	16.46	
2025-01-09 10:55:17.85	140.16	16.48	
2025-01-09 10:55:18.06	140.14	16.51	
2025-01-09 10:55:18.27	140.13	16.53	
2025-01-09 10:55:18.47	140.12	16.56	
2025-01-09 10:55:18.68	140.10	16.58	
2025-01-09 10:55:18.88	140.09	16.61	
2025-01-09 10:55:19.09	140.08	16.63	
2025-01-09 10:55:19.29	140.07	16.66	
2025-01-09 10:55:19.50	140.05	16.68	
2025-01-09 10:55:19.70	140.04	16.71	
2025-01-09 10:55:19.92	140.03	16.73	
2025-01-09 10:55:20.13	140.01	16.76	
2025-01-09 10:55:20.33	140.00	16.78	
2025-01-09 10:55:20.54	139.99	16.81	
2025-01-09 10:55:20.74	139.97	16.83	
2025-01-09 10:55:20.95	139.96	16.86	
2025-01-09 10:55:21.15	139.95	16.89	
2025-01-09 10:55:21.36	139.94	16.91	
2025-01-09 10:55:21.57	139.92	16.94	
2025-01-09 10:55:21.77	139.91	16.96	
2025-01-09 10:55:21.98	139.90	16.99	
2025-01-09 10:55:22.18	139.88	17.01	
2025-01-09 10:55:22.39	139.87	17.04	
2025-01-09 10:55:22.59	139.86	17.06	
2025-01-09 10:55:22.80	139.84	17.09	
2025-01-09 10:55:23.00	139.83	17.12	
2025-01-09 10:55:23.21	139.82	17.14	
2025-01-09 10:55:23.41	139.80	17.17	
2025-01-09 10:55:23.62	139.79	17.19	
2025-01-09 10:55:23.84	139.77	17.22	
2025-01-09 10:55:24.04	139.76	17.25	
2025-01-09 10:55:24.24	139.75	17.27	
2025-01-09 10:55:24.45	139.73	17.30	
2025-01-09 10:55:24.65	139.72	17.32	
2025-01-09 10:55:24.86	139.71	17.35	
2025-01-09 10:55:25.06	139.69	17.38	
2025-01-09 10:55:25.27	139.68	17.40	
2025-01-09 10:55:25.47	139.67	17.43	
2025-01-09 10:55:25.68	139.65	17.45	
2025-01-09 10:55:25.88	139.64	17.48	
2025-01-09 10:55:26.09	139.63	17.51	
2025-01-09 10:55:26.29	139.61	17.53	
2025-01-09 10:55:26.50	139.60	17.56	
2025-01-09 10:55:26.70	139.58	17.58	
2025-01-09 10:55:26.91	139.57	17.61	
2025-01-09 10:55:27.11	139.56	17.64	
2025-01-09 10:55:27.32	139.54	17.66	
2025-01-09 10:55:27.52	139.53	17.69	
2025-01-09 10:55:27.73	139.51	17.72	
2025-01-09 10:55:27.93	139.50	17.74	
2025-01-09 10:55:28.14	139.49	17.77	
2025-01-09 10:55:28.34	139.47	17.79	
2025-01-09 10:55:28.55	139.46	17.82	
2025-01-09 10:55:28.75	139.45	17.85	
2025-01-09 10:55:28.96	139.43	17.87	
2025-01-09 10:55:29.16	139.42	17.90	
2025-01-09 10:55:29.37	139.40	17.93	
2025-01-09 10:55:29.58	139.39	17.95	
2025-01-09 10:55:29.78	139.37	17.98	
2025-01-09 10:55:29.99	139.36	18.01	
2025-01-09 10:55:30.19	139.35	18.03	
2025-01-09 10:55:30.40	139.33	18.06	
2025-01-09 10:55:30.60	139.32	18.09	
2025-01-09 10:55:30.81	139.30	18.11	
2025-01-09 10:55:31.02	139.29	18.14	
2025-01-09 10:55:31.22	139.27	18.17	
2025-01-09 10:55:31.43	139.26	18.19	
2025-01-09 10:55:31.63	139.24	18.22	
2025-01-09 10:55:31.84	139.23	18.25	
2025-01-09 10:55:32.04	139.22	18.27	
2025-01-09 10:55:32.25	139.20	18.30	
2025-01-09 10:55:32.45	139.19	18.33	
2025-01-09 10:55:32.66	139.17	18.36	
2025-01-09 10:55:32.86	139.16	18.38	
2025-01-09 10:55:33.07	139.14	18.41	
2025-01-09 10:55:33.27	139.13	18.44	
2025-01-09 10:55:33.48	139.11	18.46	
2025-01-09 10:55:33.68	139.10	18.49	
2025-01-09 10:55:33.89	139.08	18.52	
2025-01-09 10:55:34.09	139.07	18.55	
2025-01-09 10:55:34.30	139.05	18.57	
2025-01-09 10:55:34.50	139.04	18.60	
2025-01-09 10:55:34.71	139.02	18.63	
2025-01-09 10:55:34.91	139.01	18.65	
2025-01-09 10:55:35.12	138.99	18.68	
2025-01-09 10:55:35.32	138.98	18.71	
2025-01-09 10:55:35.53	138.96	18.74	
2025-01-09 10:55:35.74	138.95	18.77	
2025-01-09 10:55:35.94	138.93	18.79	
2025-01-09 10:55:36.15	138.92	18.82	
2025-01-09 10:55:36.35	138.90	18.85	
2025-01-09 10:55:36.56	138.89	18.88	
2025-01-09 10:55:36.76	138.87	18.90	
2025-01-09 10:55:36.97	138.86	18.93	
2025-01-09 10:55:37.17	138.84	18.96	
2025-01-09 10:55:37.38	138.83	18.99	
2025-01-09 10:55:37.59	138.81	19.02	
2025-01-09 10:55:37.79	138.80	19.04	
2025-01-09 10:55:38.00	138.78	19.07	
2025-01-09 10:55:38.20	138.77	19.10	
2025-01-09 10:55:38.41	138.75	19.13	
2025-01-09 10:55:38.61	138.74	19.15	
2025-01-09 10:55:38.82	138.72	19.18	
2025-01-09 10:55:39.02	138.70	19.21	
2025-01-09 10:55:39.23	138.69	19.24	
2025-01-09 10:55:39.43	138.67	19.27	
2025-01-09 10:55:39.64	138.66	19.29	
2025-01-09 10:55:39.84	138.64	19.32	
2025-01-09 10:55:40.05	138.63	19.35	
2025-01-09 10:55:40.25	138.61	19.38	
2025-01-09 10:55:40.46	138.60	19.41	
2025-01-09 10:55:40.66	138.58	19.43	
2025-01-09 10:55:40.87	138.56	19.46	
2025-01-09 10:55:41.07	138.55	19.49	
2025-01-09 10:55:41.28	138.53	19.52	
2025-01-09 10:55:41.48	138.52	19.55	
2025-01-09 10:55:41.69	138.50	19.58	
2025-01-09 10:55:41.90	138.48	19.61	
2025-01-09 10:55:42.10	138.47	19.63	
2025-01-09 10:55:42.31	138.45	19.66	
2025-01-09 10:55:42.51	138.44	19.69	
2025-01-09 10:55:42.72	138.42	19.72	
2025-01-09 10:55:42.92	138.40	19.75	
2025-01-09 10:55:43.13	138.39	19.78	
2025-01-09 10:55:43.33	138.37	19.81	
2025-01-09 10:55:43.54	138.36	19.83	
2025-01-09 10:55:43.74	138.34	19.86	
2025-01-09 10:55:43.95	138.32	19.89	
2025-01-09 10:55:44.16	138.31	19.92	
2025-01-09 10:55:44.36	138.29	19.95	
2025-01-09 10:55:44.56	138.27	19.98	
2025-01-09 10:55:44.77	138.26	20.01	
2025-01-09 10:55:44.97	138.24	20.04	
2025-01-09 10:55:45.18	138.22	20.07	
2025-01-09 10:55:45.38	138.21	20.09	
2025-01-09 10:55:45.59	138.19	20.12	
2025-01-09 10:55:45.79	138.18	20.15	
2025-01-09 10:55:46.00	138.16	20.18	
2025-01-09 10:55:46.20	138.14	20.21	
2025-01-09 10:55:46.41	138.12	20.24	
2025-01-09 10:55:46.61	138.11	20.27	
2025-01-09 10:55:46.82	138.09	20.30	
2025-01-09 10:55:47.03	138.07	20.33	
2025-01-09 10:55:47.23	138.06	20.36	
2025-01-09 10:55:47.44	138.04	20.39	
2025-01-09 10:55:47.64	138.02	20.42	
2025-01-09 10:55:47.85	138.01	20.45	
2025-01-09 10:55:48.05	137.99	20.48	
2025-01-09 10:55:48.26	137.97	20.51	
2025-01-09 10:55:48.46	137.96	20.53	
2025-01-09 10:55:48.67	137.94	20.56	
2025-01-09 10:55:48.87	137.92	20.59	
2025-01-09 10:55:49.08	137.90	20.62	
2025-01-09 10:55:49.28	137.89	20.65	
2025-01-09 10:55:49.49	137.87	20.68	
2025-01-09 10:55:49.69	137.85	20.71	
2025-01-09 10:55:49.90	137.84	20.74	
2025-01-09 10:55:50.10	137.82	20.77	
2025-01-09 10:55:50.31	137.80	20.80	
2025-01-09 10:55:50.51	137.78	20.83	
2025-01-09 10:55:50.72	137.77	20.86	
2025-01-09 10:55:50.92	137.75	20.89	
2025-01-09 10:55:51.13	137.73	20.92	
2025-01-09 10:55:51.33	137.71	20.95	
2025-01-09 10:55:51.54	137.70	20.98	
2025-01-09 10:55:51.75	137.68	21.01	
2025-01-09 10:55:51.95	137.66	21.04	
2025-01-09 10:55:52.15	137.64	21.07	
2025-01-09 10:55:52.36	137.63	21.10	
2025-01-09 10:55:52.57	137.61	21.13	
2025-01-09 10:55:52.77	137.59	21.16	
2025-01-09 10:55:52.98	137.57	21.19	
2025-01-09 10:55:53.18	137.55	21.22	
2025-01-09 10:55:53.39	137.54	21.26	
2025-01-09 10:55:53.59	137.52	21.28	
2025-01-09 10:55:53.80	137.50	21.32	
2025-01-09 10:55:54.00	137.48	21.35	
2025-01-09 10:55:54.21	137.46	21.38	
2025-01-09 10:55:54.42	137.45	21.41	
2025-01-09 10:55:54.62	137.43	21.44	
2025-01-09 10:55:54.83	137.41	21.47	
2025-01-09 10:55:55.03	137.39	21.50	
2025-01-09 10:55:55.24	137.37	21.53	
2025-01-09 10:55:55.45	137.35	21.56	
2025-01-09 10:55:55.65	137.34	21.59	
2025-01-09 10:55:55.86	137.32	21.62	
2025-01-09 10:55:56.06	137.30	21.65	
2025-01-09 10:55:56.27	137.28	21.69	
2025-01-09 10:55:56.47	137.26	21.72	
2025-01-09 10:55:56.68	137.24	21.75	
2025-01-09 10:55:56.88	137.22	21.78	
2025-01-09 10:55:57.09	137.21	21.81	
2025-01-09 10:55:57.29	137.19	21.84	
2025-01-09 10:55:57.50	137.17	21.87	
2025-01-09 10:55:57.70	137.15	21.90	
2025-01-09 10:55:57.91	137.13	21.94	
2025-01-09 10:55:58.11	137.11	21.97	
2025-01-09 10:55:58.32	137.09	22.00	
2025-01-09 10:55:58.52	137.07	22.03	
2025-01-09 10:55:58.73	137.06	22.06	
2025-01-09 10:55:58.93	137.04	22.09	
2025-01-09 10:55:59.14	137.02	22.12	
2025-01-09 10:55:59.34	137.00	22.15	
2025-01-09 10:55:59.55	136.98	22.19	
2025-01-09 10:55:59.76	136.96	22.22	
2025-01-09 10:55:59.96	136.94	22.25	
2025-01-09 10:56:00.18	136.92	22.28	
2025-01-09 10:56:00.38	136.90	22.31	
2025-01-09 10:56:00.58	136.88	22.35	
2025-01-09 10:56:00.79	136.86	22.38	
2025-01-09 10:56:00.99	136.84	22.41	
2025-01-09 10:56:01.20	136.82	22.44	
2025-01-09 10:56:01.41	136.80	22.47	
2025-01-09 10:56:01.61	136.78	22.51	
2025-01-09 10:56:01.82	136.76	22.54	
2025-01-09 10:56:02.02	136.75	22.57	
2025-01-09 10:56:02.23	136.73	22.60	
2025-01-09 10:56:02.44	136.71	22.64	
2025-01-09 10:56:02.64	136.69	22.67	
2025-01-09 10:56:02.85	136.67	22.70	
2025-01-09 10:56:03.05	136.65	22.73	
2025-01-09 10:56:03.26	136.63	22.76	
2025-01-09 10:56:03.46	136.61	22.80	
2025-01-09 10:56:03.67	136.59	22.83	
2025-01-09 10:56:03.87	136.57	22.86	
2025-01-09 10:56:04.08	136.55	22.89	
2025-01-09 10:56:04.28	136.53	22.93	
2025-01-09 10:56:04.49	136.51	22.96	
2025-01-09 10:56:04.69	136.49	22.99	
2025-01-09 10:56:04.90	136.47	23.02	
2025-01-09 10:56:05.10	136.45	23.06	
2025-01-09 10:56:05.31	136.42	23.09	
2025-01-09 10:56:05.51	136.40	23.12	
2025-01-09 10:56:05.72	136.38	23.15	
2025-01-09 10:56:05.92	136.36	23.19	
2025-01-09 10:56:06.13	136.34	23.22	
2025-01-09 10:56:06.33	136.32	23.25	
2025-01-09 10:56:06.54	136.30	23.29	
2025-01-09 10:56:06.74	136.28	23.32	
2025-01-09 10:56:06.94	136.26	23.35	
2025-01-09 10:56:07.15	136.24	23.38	
2025-01-09 10:56:07.36	136.22	23.42	
2025-01-09 10:56:07.56	136.20	23.45	
2025-01-09 10:56:07.77	136.18	23.48	
2025-01-09 10:56:07.97	136.16	23.52	
2025-01-09 10:56:08.18	136.14	23.55	
2025-01-09 10:56:08.39	136.11	23.58	
2025-01-09 10:56:08.59	136.09	23.62	
2025-01-09 10:56:08.79	136.07	23.65	
2025-01-09 10:56:09.00	136.05	23.68	
2025-01-09 10:56:09.21	136.03	23.72	
2025-01-09 10:56:09.41	136.01	23.75	
2025-01-09 10:56:09.62	135.99	23.79	
2025-01-09 10:56:09.82	135.97	23.82	
2025-01-09 10:56:10.03	135.94	23.85	
2025-01-09 10:56:10.23	135.92	23.89	
2025-01-09 10:56:10.44	135.90	23.92	
2025-01-09 10:56:10.64	135.88	23.95	
2025-01-09 10:56:10.85	135.86	23.99	
2025-01-09 10:56:11.05	135.84	24.02	
2025-01-09 10:56:11.26	135.81	24.06	
2025-01-09 10:56:11.46	135.79	24.09	
2025-01-09 10:56:11.67	135.77	24.12	
2025-01-09 10:56:11.87	135.75	24.16	
2025-01-09 10:56:12.08	135.73	24.19	
2025-01-09 10:56:12.29	135.70	24.23	
2025-01-09 10:56:12.49	135.68	24.26	
2025-01-09 10:56:12.70	135.66	24.29	
2025-01-09 10:56:12.90	135.64	24.33	
2025-01-09 10:56:13.11	135.62	24.36	
2025-01-09 10:56:13.31	135.59	24.40	
2025-01-09 10:56:13.52	135.57	24.43	
2025-01-09 10:56:13.73	135.55	24.47	
2025-01-09 10:56:13.94	135.53	24.50	
2025-01-09 10:56:14.15	135.50	24.54	
2025-01-09 10:56:14.35	135.48	24.57	
2025-01-09 10:56:14.55	135.46	24.60	
2025-01-09 10:56:14.76	135.44	24.64	
2025-01-09 10:56:14.96	135.41	24.67	
2025-01-09 10:56:15.17	135.39	24.71	
2025-01-09 10:56:15.37	135.37	24.74	
2025-01-09 10:56:15.58	135.34	24.78	
2025-01-09 10:56:15.78	135.32	24.81	
2025-01-09 10:56:15.98	135.30	24.85	
2025-01-09 10:56:16.19	135.28	24.88	
2025-01-09 10:56:16.39	135.25	24.92	
2025-01-09 10:56:16.60	135.23	24.95	
2025-01-09 10:56:16.80	135.21	24.99	
2025-01-09 10:56:17.02	135.18	25.03	
2025-01-09 10:56:17.23	135.16	25.06	
2025-01-09 10:56:17.43	135.14	25.10	
2025-01-09 10:56:17.64	135.11	25.13	
2025-01-09 10:56:17.84	135.09	25.17	
2025-01-09 10:56:18.05	135.07	25.20	
2025-01-09 10:56:18.25	135.04	25.24	
2025-01-09 10:56:18.46	135.02	25.27	
2025-01-09 10:56:18.66	134.99	25.31	
2025-01-09 10:56:18.87	134.97	25.34	
2025-01-09 10:56:19.07	134.95	25.38	
2025-01-09 10:56:19.27	134.92	25.41	
2025-01-09 10:56:19.48	134.90	25.45	
2025-01-09 10:56:19.68	134.88	25.49	
2025-01-09 10:56:19.89	134.85	25.52	
2025-01-09 10:56:20.10	134.83	25.56	
2025-01-09 10:56:20.30	134.80	25.59	
2025-01-09 10:56:20.51	134.78	25.63	
2025-01-09 10:56:20.71	134.76	25.67	
2025-01-09 10:56:20.92	134.73	25.70	
2025-01-09 10:56:21.12	134.71	25.74	
2025-01-09 10:56:21.33	134.68	25.77	
2025-01-09 10:56:21.54	134.66	25.81	
2025-01-09 10:56:21.75	134.63	25.85	
2025-01-09 10:56:21.96	134.61	25.89	
2025-01-09 10:56:22.17	134.58	25.92	
2025-01-09 10:56:22.37	134.56	25.96	
2025-01-09 10:56:22.58	134.53	26.00	
2025-01-09 10:56:22.79	134.51	26.03	
2025-01-09 10:56:23.00	134.48	26.07	
2025-01-09 10:56:23.21	134.46	26.11	
2025-01-09 10:56:23.41	134.43	26.14	
2025-01-09 10:56:23.62	134.41	26.18	
2025-01-09 10:56:23.82	134.38	26.22	
2025-01-09 10:56:24.03	134.35	26.25	
2025-01-09 10:56:24.23	134.33	26.29	
2025-01-09 10:56:24.44	134.30	26.33	
2025-01-09 10:56:24.65	134.28	26.37	
2025-01-09 10:56:24.85	134.25	26.40	
2025-01-09 10:56:25.06	134.23	26.44	
2025-01-09 10:56:25.26	134.20	26.48	
2025-01-09 10:56:25.47	134.18	26.51	
2025-01-09 10:56:25.67	134.15	26.55	
2025-01-09 10:56:25.88	134.12	26.59	
2025-01-09 10:56:26.08	134.10	26.62	
2025-01-09 10:56:26.29	134.07	26.66	
2025-01-09 10:56:26.49	134.05	26.70	
2025-01-09 10:56:26.70	134.02	26.74	
2025-01-09 10:56:26.90	134.00	26.77	
2025-01-09 10:56:27.11	133.97	26.81	
2025-01-09 10:56:27.31	133.94	26.85	
2025-01-09 10:56:27.52	133.92	26.89	
2025-01-09 10:56:27.73	133.89	26.93	
2025-01-09 10:56:27.94	133.86	26.96	
2025-01-09 10:56:28.14	133.84	27.00	
2025-01-09 10:56:28.34	133.81	27.04	
2025-01-09 10:56:28.55	133.78	27.08	
2025-01-09 10:56:28.76	133.76	27.12	
2025-01-09 10:56:28.96	133.73	27.15	
2025-01-09 10:56:29.16	133.70	27.19	
2025-01-09 10:56:29.37	133.68	27.23	
2025-01-09 10:56:29.57	133.65	27.27	
2025-01-09 10:56:29.78	133.62	27.30	
2025-01-09 10:56:29.99	133.59	27.34	
2025-01-09 10:56:30.19	133.57	27.38	
2025-01-09 10:56:30.40	133.54	27.42	
2025-01-09 10:56:30.60	133.51	27.46	
2025-01-09 10:56:30.81	133.49	27.50	
2025-01-09 10:56:31.02	133.46	27.54	
2025-01-09 10:56:31.22	133.43	27.57	
2025-01-09 10:56:31.42	133.40	27.61	
2025-01-09 10:56:31.63	133.38	27.65	
2025-01-09 10:56:31.84	133.35	27.69	
2025-01-09 10:56:32.04	133.32	27.73	
2025-01-09 10:56:32.25	133.29	27.77	
2025-01-09 10:56:32.45	133.26	27.81	
2025-01-09 10:56:32.65	133.24	27.84	
2025-01-09 10:56:32.86	133.21	27.88	
2025-01-09 10:56:33.07	133.18	27.92	
2025-01-09 10:56:33.27	133.15	27.96	
2025-01-09 10:56:33.47	133.12	28.00	
2025-01-09 10:56:33.68	133.10	28.04	
2025-01-09 10:56:33.89	133.07	28.08	
2025-01-09 10:56:34.09	133.04	28.12	
2025-01-09 10:56:34.30	133.01	28.16	
2025-01-09 10:56:34.50	132.98	28.20	
2025-01-09 10:56:34.71	132.95	28.24	
2025-01-09 10:56:34.91	132.92	28.27	
2025-01-09 10:56:35.12	132.89	28.31	
2025-01-09 10:56:35.32	132.87	28.35	
2025-01-09 10:56:35.53	132.84	28.39	
2025-01-09 10:56:35.73	132.81	28.43	
2025-01-09 10:56:35.94	132.78	28.47	
2025-01-09 10:56:36.15	132.75	28.51	
2025-01-09 10:56:36.35	132.72	28.55	
2025-01-09 10:56:36.56	132.69	28.59	
2025-01-09 10:56:36.76	132.66	28.63	
2025-01-09 10:56:36.97	132.63	28.67	
2025-01-09 10:56:37.17	132.60	28.71	
2025-01-09 10:56:37.38	132.57	28.75	
2025-01-09 10:56:37.59	132.54	28.79	
2025-01-09 10:56:37.79	132.51	28.83	
2025-01-09 10:56:38.00	132.48	28.87	
2025-01-09 10:56:38.20	132.45	28.91	
2025-01-09 10:56:38.41	132.42	28.95	
2025-01-09 10:56:38.61	132.39	28.99	
2025-01-09 10:56:38.82	132.36	29.04	
2025-01-09 10:56:39.02	132.33	29.07	
2025-01-09 10:56:39.23	132.30	29.12	
2025-01-09 10:56:39.43	132.27	29.16	
2025-01-09 10:56:39.64	132.24	29.20	
2025-01-09 10:56:39.84	132.21	29.24	
2025-01-09 10:56:40.04	132.18	29.28	
2025-01-09 10:56:40.25	132.15	29.32	
2025-01-09 10:56:40.46	132.11	29.36	
2025-01-09 10:56:40.67	132.08	29.40	
2025-01-09 10:56:40.87	132.05	29.44	
2025-01-09 10:56:41.08	132.02	29.48	
2025-01-09 10:56:41.28	131.99	29.52	
2025-01-09 10:56:41.49	131.96	29.57	
2025-01-09 10:56:41.69	131.93	29.61	
2025-01-09 10:56:41.90	131.90	29.65	
2025-01-09 10:56:42.10	131.86	29.69	
2025-01-09 10:56:42.31	131.83	29.73	
2025-01-09 10:56:42.51	131.80	29.77	
2025-01-09 10:56:42.72	131.77	29.81	
2025-01-09 10:56:42.92	131.74	29.85	
2025-01-09 10:56:43.13	131.70	29.90	
2025-01-09 10:56:43.33	131.67	29.94	
2025-01-09 10:56:43.54	131.64	29.98	
2025-01-09 10:56:43.74	131.61	30.02	
2025-01-09 10:56:43.95	131.58	30.06	
2025-01-09 10:56:44.15	131.54	30.10	
2025-01-09 10:56:44.36	131.51	30.15	
2025-01-09 10:56:44.57	131.48	30.19	
2025-01-09 10:56:44.77	131.45	30.23	
2025-01-09 10:56:44.97	131.41	30.27	
2025-01-09 10:56:45.18	131.38	30.31	
2025-01-09 10:56:45.38	131.35	30.36	
2025-01-09 10:56:45.59	131.31	30.40	
2025-01-09 10:56:45.79	131.28	30.44	
2025-01-09 10:56:46.00	131.25	30.48	
2025-01-09 10:56:46.21	131.21	30.53	
2025-01-09 10:56:46.41	131.18	30.57	
2025-01-09 10:56:46.61	131.15	30.61	
2025-01-09 10:56:46.82	131.11	30.65	
2025-01-09 10:56:47.03	131.08	30.70	
2025-01-09 10:56:47.23	131.05	30.74	
2025-01-09 10:56:47.44	131.01	30.78	
2025-01-09 10:56:47.64	130.98	30.82	
2025-01-09 10:56:47.85	130.94	30.87	
2025-01-09 10:56:48.05	130.91	30.91	
2025-01-09 10:56:48.26	130.87	30.95	
2025-01-09 10:56:48.46	130.84	31.00	
2025-01-09 10:56:48.66	130.81	31.04	
2025-01-09 10:56:48.87	130.77	31.08	
2025-01-09 10:56:49.08	130.74	31.13	
2025-01-09 10:56:49.28	130.70	31.17	
2025-01-09 10:56:49.48	130.67	31.21	
2025-01-09 10:56:49.69	130.63	31.25	
2025-01-09 10:56:49.89	130.60	31.30	
2025-01-09 10:56:50.10	130.56	31.34	
2025-01-09 10:56:50.30	130.53	31.38	
2025-01-09 10:56:50.51	130.49	31.43	
2025-01-09 10:56:50.71	130.46	31.47	
2025-01-09 10:56:50.92	130.42	31.52	
2025-01-09 10:56:51.13	130.38	31.56	
2025-01-09 10:56:51.33	130.35	31.60	
2025-01-09 10:56:51.54	130.31	31.65	
2025-01-09 10:56:51.74	130.28	31.69	
2025-01-09 10:56:51.95	130.24	31.74	
2025-01-09 10:56:52.15	130.21	31.78	
2025-01-09 10:56:52.36	130.17	31.82	
2025-01-09 10:56:52.57	130.13	31.87	
2025-01-09 10:56:52.77	130.10	31.91	
2025-01-09 10:56:52.97	130.06	31.95	
2025-01-09 10:56:53.18	130.02	32.00	
2025-01-09 10:56:53.39	129.98	32.05	
2025-01-09 10:56:53.59	129.95	32.09	
2025-01-09 10:56:53.80	129.91	32.13	
2025-01-09 10:56:54.00	129.87	32.18	
2025-01-09 10:56:54.20	129.84	32.22	
2025-01-09 10:56:54.41	129.80	32.27	
2025-01-09 10:56:54.62	129.76	32.31	
2025-01-09 10:56:54.82	129.72	32.36	
2025-01-09 10:56:55.03	129.69	32.40	
2025-01-09 10:56:55.23	129.65	32.45	
2025-01-09 10:56:55.44	129.61	32.49	
2025-01-09 10:56:55.64	129.57	32.54	
2025-01-09 10:56:55.84	129.54	32.58	
2025-01-09 10:56:56.05	129.50	32.63	
2025-01-09 10:56:56.25	129.46	32.67	
2025-01-09 10:56:56.46	129.42	32.72	
2025-01-09 10:56:56.66	129.38	32.76	
2025-01-09 10:56:56.87	129.34	32.81	
2025-01-09 10:56:57.07	129.31	32.85	
2025-01-09 10:56:57.28	129.27	32.90	
2025-01-09 10:56:57.49	129.23	32.94	
2025-01-09 10:56:57.69	129.19	32.99	
2025-01-09 10:56:57.90	129.15	33.03	
2025-01-09 10:56:58.12	129.11	33.08	
2025-01-09 10:56:58.32	129.07	33.13	
2025-01-09 10:56:58.53	129.03	33.18	
2025-01-09 10:56:58.73	128.99	33.22	
2025-01-09 10:56:58.94	128.95	33.27	
2025-01-09 10:56:59.15	128.91	33.31	
2025-01-09 10:56:59.36	128.87	33.36	
2025-01-09 10:56:59.57	128.82	33.41	
2025-01-09 10:56:59.77	128.79	33.45	
2025-01-09 10:56:59.98	128.74	33.50	
2025-01-09 10:57:00.20	128.70	33.55	
2025-01-09 10:57:00.40	128.66	33.60	
2025-01-09 10:57:00.61	128.62	33.64	
2025-01-09 10:57:00.81	128.58	33.69	
2025-01-09 10:57:01.02	128.54	33.74	
2025-01-09 10:57:01.22	128.50	33.78	
2025-01-09 10:57:01.43	128.46	33.83	
2025-01-09 10:57:01.63	128.41	33.87	
2025-01-09 10:57:01.84	128.37	33.92	
2025-01-09 10:57:02.04	128.33	33.97	
2025-01-09 10:57:02.25	128.29	34.02	
2025-01-09 10:57:02.45	128.25	34.06	
2025-01-09 10:57:02.66	128.21	34.11	
2025-01-09 10:57:02.86	128.16	34.15	
2025-01-09 10:57:03.07	128.12	34.20	
2025-01-09 10:57:03.27	128.08	34.25	
2025-01-09 10:57:03.48	128.04	34.30	
2025-01-09 10:57:03.68	127.99	34.34	
2025-01-09 10:57:03.89	127.95	34.39	
2025-01-09 10:57:04.09	127.91	34.44	
2025-01-09 10:57:04.30	127.87	34.49	
2025-01-09 10:57:04.50	127.82	34.53	
2025-01-09 10:57:04.71	127.78	34.58	
2025-01-09 10:57:04.91	127.74	34.63	
2025-01-09 10:57:05.12	127.69	34.68	
2025-01-09 10:57:05.33	127.65	34.73	
2025-01-09 10:57:05.54	127.60	34.77	
2025-01-09 10:57:05.75	127.56	34.82	
2025-01-09 10:57:05.96	127.51	34.87	
2025-01-09 10:57:06.16	127.47	34.92	
2025-01-09 10:57:06.37	127.42	34.97	
2025-01-09 10:57:06.57	127.38	35.02	
2025-01-09 10:57:06.78	127.33	35.06	
2025-01-09 10:57:06.98	127.29	35.11	
2025-01-09 10:57:07.19	127.25	35.16	
2025-01-09 10:57:07.39	127.20	35.21	
2025-01-09 10:57:07.60	127.15	35.26	
2025-01-09 10:57:07.80	127.11	35.30	
2025-01-09 10:57:08.01	127.06	35.35	
2025-01-09 10:57:08.21	127.02	35.40	
2025-01-09 10:57:08.42	126.97	35.45	
2025-01-09 10:57:08.62	126.93	35.50	
2025-01-09 10:57:08.83	126.88	35.55	
2025-01-09 10:57:09.03	126.84	35.60	
2025-01-09 10:57:09.24	126.79	35.65	
2025-01-09 10:57:09.44	126.74	35.69	
2025-01-09 10:57:09.65	126.70	35.74	
2025-01-09 10:57:09.85	126.65	35.79	
2025-01-09 10:57:10.06	126.60	35.84	
2025-01-09 10:57:10.27	126.55	35.89	
2025-01-09 10:57:10.47	126.51	35.94	
2025-01-09 10:57:10.68	126.46	35.99	
2025-01-09 10:57:10.88	126.41	36.04	
2025-01-09 10:57:11.08	126.37	36.09	
2025-01-09 10:57:11.29	126.32	36.14	
2025-01-09 10:57:11.49	126.27	36.19	
2025-01-09 10:57:11.70	126.22	36.24	
2025-01-09 10:57:11.90	126.18	36.28	
2025-01-09 10:57:12.11	126.13	36.34	
2025-01-09 10:57:12.31	126.08	36.38	
2025-01-09 10:57:12.52	126.03	36.43	
2025-01-09 10:57:12.72	125.98	36.48	
2025-01-09 10:57:12.93	125.93	36.53	
2025-01-09 10:57:13.14	125.88	36.59	
2025-01-09 10:57:13.34	125.83	36.63	
2025-01-09 10:57:13.55	125.78	36.69	
2025-01-09 10:57:13.75	125.73	36.73	
2025-01-09 10:57:13.95	125.69	36.78	
2025-01-09 10:57:14.17	125.63	36.84	
2025-01-09 10:57:14.38	125.58	36.89	
2025-01-09 10:57:14.58	125.53	36.94	
2025-01-09 10:57:14.79	125.48	36.99	
2025-01-09 10:57:14.99	125.43	37.04	
2025-01-09 10:57:15.21	125.38	37.09	
2025-01-09 10:57:15.42	125.32	37.14	
2025-01-09 10:57:15.62	125.27	37.19	
2025-01-09 10:57:15.83	125.22	37.24	
2025-01-09 10:57:16.03	125.17	37.29	
2025-01-09 10:57:16.24	125.12	37.35	
2025-01-09 10:57:16.44	125.07	37.40	
2025-01-09 10:57:16.65	125.02	37.45	
2025-01-09 10:57:16.86	124.96	37.50	
2025-01-09 10:57:17.06	124.91	37.55	
2025-01-09 10:57:17.27	124.86	37.60	
2025-01-09 10:57:17.47	124.81	37.65	
2025-01-09 10:57:17.68	124.75	37.70	
2025-01-09 10:57:17.88	124.70	37.75	
2025-01-09 10:57:18.09	124.65	37.81	
2025-01-09 10:57:18.29	124.59	37.86	
2025-01-09 10:57:18.50	124.54	37.91	
2025-01-09 10:57:18.70	124.49	37.96	
2025-01-09 10:57:18.91	124.43	38.01	
2025-01-09 10:57:19.12	124.38	38.06	
2025-01-09 10:57:19.32	124.32	38.12	
2025-01-09 10:57:19.52	124.27	38.17	
2025-01-09 10:57:19.73	124.22	38.22	
2025-01-09 10:57:19.94	124.16	38.27	
2025-01-09 10:57:20.14	124.11	38.32	
2025-01-09 10:57:20.35	124.05	38.38	
2025-01-09 10:57:20.57	123.99	38.43	
2025-01-09 10:57:20.77	123.94	38.48	
2025-01-09 10:57:20.98	123.88	38.53	
2025-01-09 10:57:21.18	123.83	38.59	
2025-01-09 10:57:21.39	123.77	38.64	
2025-01-09 10:57:21.59	123.71	38.69	
2025-01-09 10:57:21.80	123.66	38.74	
2025-01-09 10:57:22.00	123.60	38.79	
2025-01-09 10:57:22.21	123.54	38.85	
2025-01-09 10:57:22.41	123.49	38.90	
2025-01-09 10:57:22.62	123.43	38.95	
2025-01-09 10:57:22.82	123.37	39.00	
2025-01-09 10:57:23.03	123.32	39.06	
2025-01-09 10:57:23.23	123.26	39.11	
2025-01-09 10:57:23.44	123.20	39.16	
2025-01-09 10:57:23.64	123.14	39.21	
2025-01-09 10:57:23.85	123.08	39.27	
2025-01-09 10:57:24.05	123.03	39.32	
2025-01-09 10:57:24.26	122.97	39.37	
2025-01-09 10:57:24.46	122.91	39.43	
2025-01-09 10:57:24.67	122.85	39.48	
2025-01-09 10:57:24.87	122.79	39.53	
2025-01-09 10:57:25.08	122.73	39.59	
2025-01-09 10:57:25.28	122.67	39.64	
2025-01-09 10:57:25.49	122.61	39.69	
2025-01-09 10:57:25.69	122.55	39.74	
2025-01-09 10:57:25.91	122.49	39.80	
2025-01-09 10:57:26.12	122.43	39.86	
2025-01-09 10:57:26.33	122.36	39.91	
2025-01-09 10:57:26.53	122.31	39.96	
2025-01-09 10:57:26.74	122.24	40.02	
2025-01-09 10:57:26.94	122.18	40.07	
2025-01-09 10:57:27.15	122.12	40.12	
2025-01-09 10:57:27.35	122.06	40.18	
2025-01-09 10:57:27.55	122.00	40.23	
2025-01-09 10:57:27.76	121.94	40.28	
2025-01-09 10:57:27.96	121.88	40.34	
2025-01-09 10:57:28.17	121.81	40.39	
2025-01-09 10:57:28.38	121.75	40.45	
2025-01-09 10:57:28.58	121.69	40.50	
2025-01-09 10:57:28.79	121.62	40.55	
2025-01-09 10:57:28.99	121.56	40.61	
2025-01-09 10:57:29.20	121.49	40.66	
2025-01-09 10:57:29.41	121.43	40.72	
2025-01-09 10:57:29.61	121.37	40.77	
2025-01-09 10:57:29.82	121.30	40.83	
2025-01-09 10:57:30.02	121.24	40.88	
2025-01-09 10:57:30.22	121.18	40.93	
2025-01-09 10:57:30.43	121.11	40.99	
2025-01-09 10:57:30.63	121.05	41.04	
2025-01-09 10:57:30.84	120.98	41.10	
2025-01-09 10:57:31.04	120.91	41.15	
2025-01-09 10:57:31.25	120.85	41.20	
2025-01-09 10:57:31.45	120.78	41.26	
2025-01-09 10:57:31.66	120.72	41.31	
2025-01-09 10:57:31.86	120.65	41.37	
2025-01-09 10:57:32.07	120.58	41.42	
2025-01-09 10:57:32.27	120.52	41.48	
2025-01-09 10:57:32.48	120.45	41.53	
2025-01-09 10:57:32.68	120.38	41.59	
2025-01-09 10:57:32.89	120.31	41.64	
2025-01-09 10:57:33.09	120.25	41.69	
2025-01-09 10:57:33.30	120.18	41.75	
2025-01-09 10:57:33.50	120.11	41.80	
2025-01-09 10:57:33.71	120.04	41.86	
2025-01-09 10:57:33.91	119.97	41.91	
2025-01-09 10:57:34.12	119.90	41.97	
2025-01-09 10:57:34.32	119.84	42.02	
2025-01-09 10:57:34.53	119.76	42.08	
2025-01-09 10:57:34.74	119.69	42.14	
2025-01-09 10:57:34.94	119.62	42.19	
2025-01-09 10:57:35.15	119.55	42.25	
2025-01-09 10:57:35.35	119.48	42.30	
2025-01-09 10:57:35.56	119.41	42.36	
2025-01-09 10:57:35.76	119.34	42.41	
2025-01-09 10:57:35.97	119.27	42.47	
2025-01-09 10:57:36.18	119.20	42.53	
2025-01-09 10:57:36.38	119.13	42.58	
2025-01-09 10:57:36.58	119.06	42.63	
2025-01-09 10:57:36.79	118.98	42.69	
2025-01-09 10:57:37.00	118.91	42.75	
2025-01-09 10:57:37.20	118.84	42.80	
2025-01-09 10:57:37.40	118.77	42.86	
2025-01-09 10:57:37.61	118.69	42.91	
2025-01-09 10:57:37.82	118.62	42.97	
2025-01-09 10:57:38.02	118.54	43.03	
2025-01-09 10:57:38.23	118.47	43.08	
2025-01-09 10:57:38.43	118.39	43.14	
2025-01-09 10:57:38.63	118.32	43.19	
2025-01-09 10:57:38.84	118.25	43.25	
2025-01-09 10:57:39.05	118.17	43.31	
2025-01-09 10:57:39.25	118.09	43.36	
2025-01-09 10:57:39.46	118.02	43.42	
2025-01-09 10:57:39.66	117.94	43.47	
2025-01-09 10:57:39.87	117.87	43.53	
2025-01-09 10:57:40.07	117.79	43.58	
2025-01-09 10:57:40.28	117.71	43.64	
2025-01-09 10:57:40.49	117.63	43.70	
2025-01-09 10:57:40.69	117.56	43.75	
2025-01-09 10:57:40.89	117.48	43.81	
2025-01-09 10:57:41.10	117.40	43.87	
2025-01-09 10:57:41.31	117.32	43.92	
2025-01-09 10:57:41.51	117.25	43.98	
2025-01-09 10:57:41.72	117.17	44.04	
2025-01-09 10:57:41.92	117.09	44.09	
2025-01-09 10:57:42.13	117.01	44.15	
2025-01-09 10:57:42.33	116.93	44.20	
2025-01-09 10:57:42.54	116.85	44.26	
2025-01-09 10:57:42.74	116.77	44.32	
2025-01-09 10:57:42.96	116.68	44.38	
2025-01-09 10:57:43.16	116.60	44.43	
2025-01-09 10:57:43.37	116.52	44.49	
2025-01-09 10:57:43.58	116.44	44.55	
2025-01-09 10:57:43.78	116.36	44.60	
2025-01-09 10:57:43.99	116.27	44.66	
2025-01-09 10:57:44.19	116.19	44.72	
2025-01-09 10:57:44.40	116.11	44.77	
2025-01-09 10:57:44.60	116.03	44.83	
2025-01-09 10:57:44.81	115.94	44.89	
2025-01-09 10:57:45.01	115.86	44.94	
2025-01-09 10:57:45.21	115.78	45.00	
2025-01-09 10:57:45.42	115.70	45.06	
2025-01-09 10:57:45.62	115.61	45.11	
2025-01-09 10:57:45.83	115.53	45.17	
2025-01-09 10:57:46.04	115.44	45.23	
2025-01-09 10:57:46.24	115.36	45.28	
2025-01-09 10:57:46.45	115.27	45.34	
2025-01-09 10:57:46.65	115.18	45.40	
2025-01-09 10:57:46.86	115.10	45.45	
2025-01-09 10:57:47.06	115.01	45.51	
2025-01-09 10:57:47.27	114.92	45.57	
2025-01-09 10:57:47.47	114.84	45.62	
2025-01-09 10:57:47.68	114.75	45.68	
2025-01-09 10:57:47.89	114.66	45.74	
2025-01-09 10:57:48.09	114.57	45.79	
2025-01-09 10:57:48.29	114.49	45.85	
2025-01-09 10:57:48.50	114.40	45.91	
2025-01-09 10:57:48.71	114.30	45.97	
2025-01-09 10:57:48.91	114.22	46.02	
2025-01-09 10:57:49.12	114.13	46.08	
2025-01-09 10:57:49.32	114.04	46.13	
2025-01-09 10:57:49.53	113.94	46.19	
2025-01-09 10:57:49.73	113.86	46.25	
2025-01-09 10:57:49.94	113.76	46.31	
2025-01-09 10:57:50.15	113.67	46.37	
2025-01-09 10:57:50.35	113.58	46.42	
2025-01-09 10:57:50.56	113.49	46.48	
2025-01-09 10:57:50.76	113.40	46.53	
2025-01-09 10:57:50.97	113.30	46.59	
2025-01-09 10:57:51.17	113.21	46.65	
2025-01-09 10:57:51.38	113.11	46.71	
2025-01-09 10:57:51.58	113.02	46.76	
2025-01-09 10:57:51.79	112.93	46.82	
2025-01-09 10:57:52.00	112.83	46.88	
2025-01-09 10:57:52.20	112.74	46.93	
2025-01-09 10:57:52.41	112.64	46.99	
2025-01-09 10:57:52.61	112.55	47.05	
2025-01-09 10:57:52.82	112.45	47.11	
2025-01-09 10:57:53.03	112.35	47.16	
2025-01-09 10:57:53.23	112.26	47.22	
2025-01-09 10:57:53.44	112.16	47.28	
2025-01-09 10:57:53.64	112.06	47.33	
2025-01-09 10:57:53.85	111.96	47.39	
2025-01-09 10:57:54.05	111.87	47.45	
2025-01-09 10:57:54.26	111.76	47.50	
2025-01-09 10:57:54.46	111.67	47.56	
2025-01-09 10:57:54.67	111.57	47.62	
2025-01-09 10:57:54.87	111.47	47.67	
2025-01-09 10:57:55.08	111.37	47.73	
2025-01-09 10:57:55.29	111.26	47.79	
2025-01-09 10:57:55.49	111.17	47.84	
2025-01-09 10:57:55.69	111.07	47.90	
2025-01-09 10:57:55.90	110.96	47.96	
2025-01-09 10:57:56.11	110.86	48.02	
2025-01-09 10:57:56.31	110.76	48.07	
2025-01-09 10:57:56.52	110.66	48.13	
2025-01-09 10:57:56.72	110.55	48.18	
2025-01-09 10:57:56.94	110.44	48.24	
2025-01-09 10:57:57.14	110.34	48.30	
2025-01-09 10:57:57.35	110.24	48.36	
2025-01-09 10:57:57.56	110.13	48.42	
2025-01-09 10:57:57.76	110.03	48.47	
2025-01-09 10:57:57.96	109.92	48.53	
2025-01-09 10:57:58.17	109.82	48.58	
2025-01-09 10:57:58.37	109.71	48.64	
2025-01-09 10:57:58.58	109.60	48.70	
2025-01-09 10:57:58.79	109.49	48.75	
2025-01-09 10:57:58.99	109.39	48.81	
2025-01-09 10:57:59.20	109.28	48.87	
2025-01-09 10:57:59.40	109.17	48.92	
2025-01-09 10:57:59.61	109.06	48.98	
2025-01-09 10:57:59.82	108.95	49.04	
2025-01-09 10:58:00.02	108.84	49.09	
2025-01-09 10:58:00.22	108.74	49.14	
2025-01-09 10:58:00.43	108.63	49.20	
2025-01-09 10:58:00.63	108.52	49.26	
2025-01-09 10:58:00.84	108.40	49.31	
2025-01-09 10:58:01.05	108.29	49.37	
2025-01-09 10:58:01.25	108.18	49.43	
2025-01-09 10:58:01.46	108.07	49.48	
2025-01-09 10:58:01.66	107.96	49.54	
2025-01-09 10:58:01.87	107.84	49.59	
2025-01-09 10:58:02.07	107.73	49.65	
2025-01-09 10:58:02.28	107.61	49.71	
2025-01-09 10:58:02.48	107.50	49.76	
2025-01-09 10:58:02.69	107.38	49.82	
2025-01-09 10:58:02.89	107.27	49.87	
2025-01-09 10:58:03.10	107.15	49.93	
2025-01-09 10:58:03.30	107.04	49.98	
2025-01-09 10:58:03.52	106.92	50.04	
2025-01-09 10:58:03.73	106.80	50.10	
2025-01-09 10:58:03.93	106.68	50.15	
2025-01-09 10:58:04.14	106.56	50.21	
2025-01-09 10:58:04.34	106.45	50.26	
2025-01-09 10:58:04.56	106.32	50.32	
2025-01-09 10:58:04.76	106.20	50.37	
2025-01-09 10:58:04.97	106.08	50.43	
2025-01-09 10:58:05.17	105.96	50.48	
2025-01-09 10:58:05.38	105.84	50.54	
2025-01-09 10:58:05.58	105.72	50.59	
2025-01-09 10:58:05.79	105.60	50.65	
2025-01-09 10:58:05.99	105.48	50.70	
2025-01-09 10:58:06.20	105.36	50.76	
2025-01-09 10:58:06.40	105.24	50.81	
2025-01-09 10:58:06.61	105.11	50.87	
2025-01-09 10:58:06.81	104.99	50.92	
2025-01-09 10:58:07.02	104.86	50.97	
2025-01-09 10:58:07.22	104.74	51.03	
2025-01-09 10:58:07.43	104.61	51.08	
2025-01-09 10:58:07.63	104.49	51.13	
2025-01-09 10:58:07.84	104.36	51.19	
2025-01-09 10:58:08.04	104.24	51.24	
2025-01-09 10:58:08.25	104.11	51.30	
2025-01-09 10:58:08.46	103.98	51.35	
2025-01-09 10:58:08.67	103.85	51.41	
2025-01-09 10:58:08.88	103.72	51.46	
2025-01-09 10:58:09.09	103.59	51.52	
2025-01-09 10:58:09.29	103.46	51.57	
2025-01-09 10:58:09.50	103.33	51.62	
2025-01-09 10:58:09.72	103.19	51.68	
2025-01-09 10:58:09.92	103.06	51.73	
2025-01-09 10:58:10.13	102.93	51.79	
2025-01-09 10:58:10.33	102.80	51.84	
2025-01-09 10:58:10.54	102.67	51.89	
2025-01-09 10:58:10.74	102.54	51.94	
2025-01-09 10:58:10.95	102.40	52.00	
2025-01-09 10:58:11.15	102.27	52.05	
2025-01-09 10:58:11.36	102.13	52.10	
2025-01-09 10:58:11.56	102.00	52.15	
2025-01-09 10:58:11.78	101.86	52.21	
2025-01-09 10:58:11.99	101.72	52.26	
2025-01-09 10:58:12.19	101.59	52.31	
2025-01-09 10:58:12.40	101.45	52.36	
2025-01-09 10:58:12.60	101.31	52.41	
2025-01-09 10:58:12.81	101.17	52.47	
2025-01-09 10:58:13.01	101.04	52.52	
2025-01-09 10:58:13.22	100.90	52.57	
2025-01-09 10:58:13.42	100.76	52.62	
2025-01-09 10:58:13.63	100.62	52.67	
2025-01-09 10:58:13.83	100.48	52.72	
2025-01-09 10:58:14.04	100.34	52.77	
2025-01-09 10:58:14.24	100.20	52.82	
2025-01-09 10:58:14.45	100.06	52.88	
2025-01-09 10:58:14.65	99.92	52.92	
2025-01-09 10:58:14.86	99.78	52.98	
2025-01-09 10:58:15.06	99.64	53.03	
2025-01-09 10:58:15.27	99.49	53.08	
2025-01-09 10:58:15.47	99.35	53.13	
2025-01-09 10:58:15.68	99.20	53.18	
2025-01-09 10:58:15.89	99.06	53.23	
2025-01-09 10:58:16.09	98.91	53.28	
2025-01-09 10:58:16.29	98.77	53.32	
2025-01-09 10:58:16.50	98.62	53.37	
2025-01-09 10:58:16.71	98.47	53.42	
2025-01-09 10:58:16.91	98.33	53.47	
2025-01-09 10:58:17.12	98.18	53.52	
2025-01-09 10:58:17.32	98.03	53.57	
2025-01-09 10:58:17.53	97.88	53.62	
2025-01-09 10:58:17.73	97.74	53.67	
2025-01-09 10:58:17.94	97.58	53.72	
2025-01-09 10:58:18.14	97.44	53.76	
2025-01-09 10:58:18.35	97.28	53.81	
2025-01-09 10:58:18.55	97.14	53.86	
2025-01-09 10:58:18.76	96.98	53.91	
2025-01-09 10:58:18.96	96.83	53.95	
2025-01-09 10:58:19.17	96.68	54.00	
2025-01-09 10:58:19.37	96.53	54.05	
2025-01-09 10:58:19.58	96.37	54.10	
2025-01-09 10:58:19.78	96.22	54.14	
2025-01-09 10:58:19.99	96.06	54.19	
2025-01-09 10:58:20.19	95.91	54.24	
2025-01-09 10:58:20.40	95.75	54.28	
2025-01-09 10:58:20.60	95.60	54.33	
2025-01-09 10:58:20.81	95.44	54.38	
2025-01-09 10:58:21.01	95.28	54.42	
2025-01-09 10:58:21.22	95.12	54.47	
2025-01-09 10:58:21.42	94.97	54.51	
2025-01-09 10:58:21.63	94.81	54.56	
2025-01-09 10:58:21.83	94.65	54.60	
2025-01-09 10:58:22.04	94.49	54.65	
2025-01-09 10:58:22.24	94.33	54.69	
2025-01-09 10:58:22.45	94.17	54.74	
2025-01-09 10:58:22.65	94.01	54.78	
2025-01-09 10:58:22.86	93.84	54.83	
2025-01-09 10:58:23.06	93.69	54.87	
2025-01-09 10:58:23.27	93.52	54.91	
2025-01-09 10:58:23.47	93.36	54.96	
2025-01-09 10:58:23.67	93.20	55.00	
2025-01-09 10:58:23.88	93.03	55.04	
2025-01-09 10:58:24.09	92.86	55.09	
2025-01-09 10:58:24.29	92.70	55.13	
2025-01-09 10:58:24.50	92.53	55.17	
2025-01-09 10:58:24.70	92.37	55.21	
2025-01-09 10:58:24.91	92.20	55.26	
2025-01-09 10:58:25.11	92.04	55.30	
2025-01-09 10:58:25.32	91.87	55.34	
2025-01-09 10:58:25.53	91.69	55.38	
2025-01-09 10:58:25.73	91.53	55.42	
2025-01-09 10:58:25.93	91.36	55.46	
2025-01-09 10:58:26.14	91.19	55.51	
2025-01-09 10:58:26.35	91.02	55.55	
2025-01-09 10:58:26.55	90.85	55.59	
2025-01-09 10:58:26.76	90.67	55.63	
2025-01-09 10:58:26.96	90.51	55.67	
2025-01-09 10:58:27.17	90.33	55.71	
2025-01-09 10:58:27.37	90.16	55.75	
2025-01-09 10:58:27.58	89.98	55.79	
2025-01-09 10:58:27.78	89.82	55.83	
2025-01-09 10:58:27.98	89.65	55.86	
2025-01-09 10:58:28.19	89.47	55.90	
2025-01-09 10:58:28.40	89.29	55.94	
2025-01-09 10:58:28.60	89.12	55.98	
2025-01-09 10:58:28.82	88.93	56.02	
2025-01-09 10:58:29.02	88.75	56.06	
2025-01-09 10:58:29.23	88.57	56.10	
2025-01-09 10:58:29.43	88.40	56.13	
2025-01-09 10:58:29.64	88.22	56.17	
2025-01-09 10:58:29.84	88.04	56.21	
2025-01-09 10:58:30.05	87.86	56.24	
2025-01-09 10:58:30.25	87.69	56.28	
2025-01-09 10:58:30.46	87.50	56.32	
2025-01-09 10:58:30.66	87.32	56.35	
2025-01-09 10:58:30.87	87.14	56.39	
2025-01-09 10:58:31.07	86.96	56.42	
2025-01-09 10:58:31.28	86.78	56.46	
2025-01-09 10:58:31.49	86.59	56.49	
2025-01-09 10:58:31.69	86.41	56.53	
2025-01-09 10:58:31.90	86.22	56.56	
2025-01-09 10:58:32.12	86.03	56.60	
2025-01-09 10:58:32.32	85.85	56.63	
2025-01-09 10:58:32.53	85.66	56.67	
2025-01-09 10:58:32.73	85.48	56.70	
2025-01-09 10:58:32.94	85.29	56.73	
2025-01-09 10:58:33.14	85.11	56.77	
2025-01-09 10:58:33.35	84.92	56.80	
2025-01-09 10:58:33.55	84.73	56.83	
2025-01-09 10:58:33.76	84.54	56.86	
2025-01-09 10:58:33.96	84.36	56.89	
2025-01-09 10:58:34.17	84.17	56.93	
2025-01-09 10:58:34.37	83.98	56.96	
2025-01-09 10:58:34.58	83.79	56.99	
2025-01-09 10:58:34.78	83.60	57.02	
2025-01-09 10:58:34.99	83.41	57.05	
2025-01-09 10:58:35.19	83.22	57.08	
2025-01-09 10:58:35.40	83.03	57.11	
2025-01-09 10:58:35.60	82.84	57.14	
2025-01-09 10:58:35.81	82.65	57.17	
2025-01-09 10:58:36.01	82.46	57.19	
2025-01-09 10:58:36.22	82.26	57.22	
2025-01-09 10:58:36.42	82.07	57.25	
2025-01-09 10:58:36.63	81.87	57.28	
2025-01-09 10:58:36.84	81.68	57.31	
2025-01-09 10:58:37.04	81.49	57.34	
2025-01-09 10:58:37.25	81.29	57.36	
2025-01-09 10:58:37.45	81.10	57.39	
