passes_logs/2025/01/09/SPB_Silybum_02/SPB_Silybum_02__20250109_103315_TERRA_rec.log

#Pass ID: 20250109_103315_TERRA
#Satellite: TERRA
#Configuration: TERRA
#Start time: 2025-01-09 10:33:13

#Version: 2.0.20230423
#Station: SPB_Silybum_02
#Location: 30.233357 lon 59.946436 lat
#TLE: 1 25994U 99068A   25008.82275774  .00000946  00000+0  20487-3 0  9990
#TLE: 2 25994  98.0228  72.0493 0003564  84.8498   6.9254 14.60383008333170

#Time	Az	El	Level	Level2	SNR	BER	Gain	Gain2
2025-01-09 10:33:15.78	8.03	4.02	
2025-01-09 10:33:15.99	8.01	4.03	
2025-01-09 10:33:16.19	7.99	4.04	
2025-01-09 10:33:16.40	7.97	4.05	
2025-01-09 10:33:16.60	7.95	4.06	
2025-01-09 10:33:16.81	7.93	4.08	
2025-01-09 10:33:17.01	7.91	4.09	
2025-01-09 10:33:17.22	7.89	4.10	
2025-01-09 10:33:17.42	7.87	4.11	
2025-01-09 10:33:17.63	7.84	4.12	
2025-01-09 10:33:17.83	7.82	4.13	
2025-01-09 10:33:18.04	7.80	4.15	
2025-01-09 10:33:18.24	7.78	4.16	
2025-01-09 10:33:18.45	7.76	4.17	
2025-01-09 10:33:18.65	7.74	4.18	
2025-01-09 10:33:18.86	7.72	4.19	
2025-01-09 10:33:19.06	7.70	4.20	
2025-01-09 10:33:19.27	7.68	4.21	
2025-01-09 10:33:19.47	7.65	4.23	
2025-01-09 10:33:19.68	7.63	4.24	
2025-01-09 10:33:19.88	7.61	4.25	
2025-01-09 10:33:20.09	7.59	4.26	
2025-01-09 10:33:20.29	7.57	4.27	
2025-01-09 10:33:20.50	7.55	4.28	
2025-01-09 10:33:20.70	7.53	4.30	
2025-01-09 10:33:20.91	7.51	4.31	
2025-01-09 10:33:21.11	7.48	4.32	
2025-01-09 10:33:21.32	7.46	4.33	
2025-01-09 10:33:21.52	7.44	4.34	
2025-01-09 10:33:21.73	7.42	4.35	
2025-01-09 10:33:21.94	7.40	4.36	
2025-01-09 10:33:22.14	7.38	4.38	
2025-01-09 10:33:22.35	7.36	4.39	
2025-01-09 10:33:22.55	7.33	4.40	
2025-01-09 10:33:22.76	7.31	4.41	
2025-01-09 10:33:22.97	7.29	4.42	
2025-01-09 10:33:23.18	7.27	4.43	
2025-01-09 10:33:23.39	7.25	4.45	
2025-01-09 10:33:23.60	7.22	4.46	
2025-01-09 10:33:23.80	7.20	4.47	
2025-01-09 10:33:24.01	7.18	4.48	
2025-01-09 10:33:24.21	7.16	4.49	
2025-01-09 10:33:24.42	7.14	4.50	
2025-01-09 10:33:24.62	7.12	4.52	
2025-01-09 10:33:24.83	7.09	4.53	
2025-01-09 10:33:25.04	7.07	4.54	
2025-01-09 10:33:25.24	7.05	4.55	
2025-01-09 10:33:25.45	7.03	4.56	
2025-01-09 10:33:25.65	7.01	4.57	
2025-01-09 10:33:25.86	6.99	4.59	
2025-01-09 10:33:26.06	6.96	4.60	
2025-01-09 10:33:26.27	6.94	4.61	
2025-01-09 10:33:26.47	6.92	4.62	
2025-01-09 10:33:26.68	6.90	4.63	
2025-01-09 10:33:26.88	6.88	4.64	
2025-01-09 10:33:27.09	6.85	4.66	
2025-01-09 10:33:27.29	6.83	4.67	
2025-01-09 10:33:27.50	6.81	4.68	
2025-01-09 10:33:27.70	6.79	4.69	
2025-01-09 10:33:27.91	6.77	4.70	
2025-01-09 10:33:28.11	6.75	4.71	
2025-01-09 10:33:28.32	6.72	4.73	
2025-01-09 10:33:28.54	6.70	4.74	
2025-01-09 10:33:28.74	6.68	4.75	
2025-01-09 10:33:28.95	6.66	4.76	
2025-01-09 10:33:29.15	6.63	4.77	
2025-01-09 10:33:29.36	6.61	4.78	
2025-01-09 10:33:29.56	6.59	4.80	
2025-01-09 10:33:29.77	6.57	4.81	
2025-01-09 10:33:29.97	6.55	4.82	
2025-01-09 10:33:30.18	6.52	4.83	
2025-01-09 10:33:30.38	6.50	4.84	
2025-01-09 10:33:30.59	6.48	4.85	
2025-01-09 10:33:30.79	6.46	4.87	
2025-01-09 10:33:31.00	6.43	4.88	
2025-01-09 10:33:31.21	6.41	4.89	
2025-01-09 10:33:31.41	6.39	4.90	
2025-01-09 10:33:31.62	6.37	4.91	
2025-01-09 10:33:31.82	6.34	4.92	
2025-01-09 10:33:32.03	6.32	4.94	
2025-01-09 10:33:32.23	6.30	4.95	
2025-01-09 10:33:32.44	6.28	4.96	
2025-01-09 10:33:32.64	6.26	4.97	
2025-01-09 10:33:32.85	6.23	4.98	
2025-01-09 10:33:33.05	6.21	4.99	
2025-01-09 10:33:33.26	6.19	5.01	
2025-01-09 10:33:33.47	6.16	5.02	
2025-01-09 10:33:33.67	6.14	5.03	
2025-01-09 10:33:33.87	6.12	5.04	
2025-01-09 10:33:34.08	6.10	5.05	
2025-01-09 10:33:34.29	6.07	5.06	
2025-01-09 10:33:34.49	6.05	5.08	
2025-01-09 10:33:34.70	6.03	5.09	
2025-01-09 10:33:34.92	6.00	5.10	
2025-01-09 10:33:35.12	5.98	5.11	
2025-01-09 10:33:35.33	5.96	5.12	
2025-01-09 10:33:35.53	5.94	5.13	
2025-01-09 10:33:35.74	5.91	5.15	
2025-01-09 10:33:35.94	5.89	5.16	
2025-01-09 10:33:36.15	5.87	5.17	
2025-01-09 10:33:36.35	5.85	5.18	
2025-01-09 10:33:36.56	5.82	5.19	
2025-01-09 10:33:36.76	5.80	5.20	
2025-01-09 10:33:36.97	5.78	5.22	
2025-01-09 10:33:37.17	5.75	5.23	
2025-01-09 10:33:37.38	5.73	5.24	
2025-01-09 10:33:37.58	5.71	5.25	
2025-01-09 10:33:37.79	5.69	5.26	
2025-01-09 10:33:38.00	5.66	5.28	
2025-01-09 10:33:38.20	5.64	5.29	
2025-01-09 10:33:38.41	5.62	5.30	
2025-01-09 10:33:38.61	5.59	5.31	
2025-01-09 10:33:38.82	5.57	5.32	
2025-01-09 10:33:39.02	5.55	5.33	
2025-01-09 10:33:39.23	5.52	5.35	
2025-01-09 10:33:39.43	5.50	5.36	
2025-01-09 10:33:39.64	5.48	5.37	
2025-01-09 10:33:39.85	5.45	5.38	
2025-01-09 10:33:40.05	5.43	5.39	
2025-01-09 10:33:40.26	5.41	5.40	
2025-01-09 10:33:40.46	5.39	5.42	
2025-01-09 10:33:40.67	5.36	5.43	
2025-01-09 10:33:40.87	5.34	5.44	
2025-01-09 10:33:41.08	5.32	5.45	
2025-01-09 10:33:41.28	5.29	5.46	
2025-01-09 10:33:41.49	5.27	5.47	
2025-01-09 10:33:41.69	5.25	5.49	
2025-01-09 10:33:41.90	5.22	5.50	
2025-01-09 10:33:42.10	5.20	5.51	
2025-01-09 10:33:42.30	5.18	5.52	
2025-01-09 10:33:42.51	5.15	5.53	
2025-01-09 10:33:42.72	5.13	5.55	
2025-01-09 10:33:42.92	5.11	5.56	
2025-01-09 10:33:43.13	5.08	5.57	
2025-01-09 10:33:43.33	5.06	5.58	
2025-01-09 10:33:43.54	5.03	5.59	
2025-01-09 10:33:43.75	5.01	5.60	
2025-01-09 10:33:43.95	4.99	5.62	
2025-01-09 10:33:44.16	4.96	5.63	
2025-01-09 10:33:44.36	4.94	5.64	
2025-01-09 10:33:44.57	4.92	5.65	
2025-01-09 10:33:44.77	4.89	5.66	
2025-01-09 10:33:44.98	4.87	5.67	
2025-01-09 10:33:45.18	4.85	5.69	
2025-01-09 10:33:45.39	4.82	5.70	
2025-01-09 10:33:45.60	4.80	5.71	
2025-01-09 10:33:45.81	4.77	5.72	
2025-01-09 10:33:46.02	4.75	5.73	
2025-01-09 10:33:46.22	4.73	5.75	
2025-01-09 10:33:46.43	4.70	5.76	
2025-01-09 10:33:46.63	4.68	5.77	
2025-01-09 10:33:46.84	4.65	5.78	
2025-01-09 10:33:47.04	4.63	5.79	
2025-01-09 10:33:47.25	4.61	5.80	
2025-01-09 10:33:47.46	4.58	5.82	
2025-01-09 10:33:47.67	4.56	5.83	
2025-01-09 10:33:47.88	4.53	5.84	
2025-01-09 10:33:48.09	4.51	5.85	
2025-01-09 10:33:48.29	4.48	5.86	
2025-01-09 10:33:48.50	4.46	5.88	
2025-01-09 10:33:48.70	4.44	5.89	
2025-01-09 10:33:48.90	4.41	5.90	
2025-01-09 10:33:49.11	4.39	5.91	
2025-01-09 10:33:49.32	4.36	5.92	
2025-01-09 10:33:49.52	4.34	5.94	
2025-01-09 10:33:49.72	4.32	5.95	
2025-01-09 10:33:49.93	4.29	5.96	
2025-01-09 10:33:50.14	4.27	5.97	
2025-01-09 10:33:50.34	4.24	5.98	
2025-01-09 10:33:50.55	4.22	5.99	
2025-01-09 10:33:50.75	4.19	6.01	
2025-01-09 10:33:50.96	4.17	6.02	
2025-01-09 10:33:51.16	4.15	6.03	
2025-01-09 10:33:51.37	4.12	6.04	
2025-01-09 10:33:51.58	4.10	6.05	
2025-01-09 10:33:51.78	4.07	6.07	
2025-01-09 10:33:51.99	4.05	6.08	
2025-01-09 10:33:52.19	4.02	6.09	
2025-01-09 10:33:52.40	4.00	6.10	
2025-01-09 10:33:52.60	3.97	6.11	
2025-01-09 10:33:52.81	3.95	6.12	
2025-01-09 10:33:53.01	3.93	6.14	
2025-01-09 10:33:53.22	3.90	6.15	
2025-01-09 10:33:53.43	3.87	6.16	
2025-01-09 10:33:53.63	3.85	6.17	
2025-01-09 10:33:53.84	3.83	6.18	
2025-01-09 10:33:54.04	3.80	6.20	
2025-01-09 10:33:54.25	3.78	6.21	
2025-01-09 10:33:54.45	3.75	6.22	
2025-01-09 10:33:54.66	3.73	6.23	
2025-01-09 10:33:54.86	3.70	6.24	
2025-01-09 10:33:55.07	3.68	6.25	
2025-01-09 10:33:55.27	3.65	6.27	
2025-01-09 10:33:55.48	3.63	6.28	
2025-01-09 10:33:55.68	3.60	6.29	
2025-01-09 10:33:55.89	3.58	6.30	
2025-01-09 10:33:56.09	3.55	6.31	
2025-01-09 10:33:56.30	3.53	6.33	
2025-01-09 10:33:56.50	3.50	6.34	
2025-01-09 10:33:56.71	3.48	6.35	
2025-01-09 10:33:56.91	3.45	6.36	
2025-01-09 10:33:57.12	3.43	6.37	
2025-01-09 10:33:57.34	3.40	6.39	
2025-01-09 10:33:57.54	3.38	6.40	
2025-01-09 10:33:57.75	3.35	6.41	
2025-01-09 10:33:57.95	3.33	6.42	
2025-01-09 10:33:58.16	3.30	6.43	
2025-01-09 10:33:58.37	3.28	6.44	
2025-01-09 10:33:58.57	3.25	6.46	
2025-01-09 10:33:58.78	3.23	6.47	
2025-01-09 10:33:58.98	3.20	6.48	
2025-01-09 10:33:59.19	3.18	6.49	
2025-01-09 10:33:59.39	3.15	6.50	
2025-01-09 10:33:59.60	3.13	6.52	
2025-01-09 10:33:59.80	3.10	6.53	
2025-01-09 10:34:00.01	3.07	6.54	
2025-01-09 10:34:00.21	3.05	6.55	
2025-01-09 10:34:00.42	3.02	6.56	
2025-01-09 10:34:00.62	3.00	6.57	
2025-01-09 10:34:00.83	2.97	6.59	
2025-01-09 10:34:01.03	2.95	6.60	
2025-01-09 10:34:01.24	2.92	6.61	
2025-01-09 10:34:01.44	2.90	6.62	
2025-01-09 10:34:01.65	2.87	6.63	
2025-01-09 10:34:01.85	2.85	6.65	
2025-01-09 10:34:02.06	2.82	6.66	
2025-01-09 10:34:02.26	2.80	6.67	
2025-01-09 10:34:02.47	2.77	6.68	
2025-01-09 10:34:02.68	2.74	6.69	
2025-01-09 10:34:02.89	2.72	6.71	
2025-01-09 10:34:03.10	2.69	6.72	
2025-01-09 10:34:03.30	2.67	6.73	
2025-01-09 10:34:03.51	2.64	6.74	
2025-01-09 10:34:03.71	2.61	6.75	
2025-01-09 10:34:03.92	2.59	6.77	
2025-01-09 10:34:04.12	2.56	6.78	
2025-01-09 10:34:04.33	2.54	6.79	
2025-01-09 10:34:04.53	2.51	6.80	
2025-01-09 10:34:04.75	2.48	6.81	
2025-01-09 10:34:04.96	2.46	6.83	
2025-01-09 10:34:05.16	2.43	6.84	
2025-01-09 10:34:05.37	2.41	6.85	
2025-01-09 10:34:05.57	2.38	6.86	
2025-01-09 10:34:05.78	2.35	6.87	
2025-01-09 10:34:05.99	2.33	6.89	
2025-01-09 10:34:06.19	2.30	6.90	
2025-01-09 10:34:06.39	2.28	6.91	
2025-01-09 10:34:06.60	2.25	6.92	
2025-01-09 10:34:06.80	2.22	6.93	
2025-01-09 10:34:07.01	2.20	6.94	
2025-01-09 10:34:07.21	2.17	6.96	
2025-01-09 10:34:07.42	2.15	6.97	
2025-01-09 10:34:07.62	2.12	6.98	
2025-01-09 10:34:07.83	2.09	6.99	
2025-01-09 10:34:08.05	2.06	7.00	
2025-01-09 10:34:08.25	2.04	7.02	
2025-01-09 10:34:08.46	2.01	7.03	
2025-01-09 10:34:08.66	1.99	7.04	
2025-01-09 10:34:08.87	1.96	7.05	
2025-01-09 10:34:09.09	1.93	7.07	
2025-01-09 10:34:09.29	1.91	7.08	
2025-01-09 10:34:09.50	1.88	7.09	
2025-01-09 10:34:09.70	1.85	7.10	
2025-01-09 10:34:09.91	1.83	7.11	
2025-01-09 10:34:10.11	1.80	7.12	
2025-01-09 10:34:10.32	1.77	7.14	
2025-01-09 10:34:10.53	1.75	7.15	
2025-01-09 10:34:10.73	1.72	7.16	
2025-01-09 10:34:10.94	1.69	7.17	
2025-01-09 10:34:11.14	1.67	7.18	
2025-01-09 10:34:11.35	1.64	7.20	
2025-01-09 10:34:11.55	1.61	7.21	
2025-01-09 10:34:11.76	1.59	7.22	
2025-01-09 10:34:11.97	1.56	7.23	
2025-01-09 10:34:12.17	1.53	7.24	
2025-01-09 10:34:12.37	1.51	7.26	
2025-01-09 10:34:12.58	1.48	7.27	
2025-01-09 10:34:12.78	1.45	7.28	
2025-01-09 10:34:12.99	1.43	7.29	
2025-01-09 10:34:13.19	1.40	7.30	
2025-01-09 10:34:13.40	1.37	7.32	
2025-01-09 10:34:13.60	1.35	7.33	
2025-01-09 10:34:13.81	1.32	7.34	
2025-01-09 10:34:14.02	1.29	7.35	
2025-01-09 10:34:14.22	1.26	7.36	
2025-01-09 10:34:14.43	1.24	7.37	
2025-01-09 10:34:14.63	1.21	7.39	
2025-01-09 10:34:14.84	1.18	7.40	
2025-01-09 10:34:15.04	1.16	7.41	
2025-01-09 10:34:15.25	1.13	7.42	
2025-01-09 10:34:15.47	1.10	7.44	
2025-01-09 10:34:15.67	1.07	7.45	
2025-01-09 10:34:15.87	1.05	7.46	
2025-01-09 10:34:16.08	1.02	7.47	
2025-01-09 10:34:16.29	0.99	7.48	
2025-01-09 10:34:16.49	0.97	7.49	
2025-01-09 10:34:16.70	0.94	7.51	
2025-01-09 10:34:16.90	0.91	7.52	
2025-01-09 10:34:17.11	0.88	7.53	
2025-01-09 10:34:17.31	0.86	7.54	
2025-01-09 10:34:17.52	0.83	7.55	
2025-01-09 10:34:17.72	0.80	7.57	
2025-01-09 10:34:17.93	0.77	7.58	
2025-01-09 10:34:18.13	0.75	7.59	
2025-01-09 10:34:18.34	0.72	7.60	
2025-01-09 10:34:18.54	0.69	7.61	
2025-01-09 10:34:18.75	0.66	7.63	
2025-01-09 10:34:18.95	0.64	7.64	
2025-01-09 10:34:19.16	0.61	7.65	
2025-01-09 10:34:19.36	0.58	7.66	
2025-01-09 10:34:19.57	0.55	7.67	
2025-01-09 10:34:19.79	0.52	7.69	
2025-01-09 10:34:19.99	0.50	7.70	
2025-01-09 10:34:20.20	0.47	7.71	
2025-01-09 10:34:20.40	0.44	7.72	
2025-01-09 10:34:20.61	0.41	7.73	
2025-01-09 10:34:20.83	0.38	7.75	
2025-01-09 10:34:21.03	0.36	7.76	
2025-01-09 10:34:21.24	0.33	7.77	
2025-01-09 10:34:21.45	0.30	7.78	
2025-01-09 10:34:21.65	0.27	7.79	
2025-01-09 10:34:21.86	0.24	7.81	
2025-01-09 10:34:22.06	0.22	7.82	
2025-01-09 10:34:22.27	0.19	7.83	
2025-01-09 10:34:22.47	0.16	7.84	
2025-01-09 10:34:22.68	0.13	7.85	
2025-01-09 10:34:22.88	0.10	7.87	
2025-01-09 10:34:23.08	0.08	7.88	
2025-01-09 10:34:23.29	0.05	7.89	
2025-01-09 10:34:23.49	0.02	7.90	
2025-01-09 10:34:23.70	359.99	7.91	
2025-01-09 10:34:23.91	359.96	7.93	
2025-01-09 10:34:24.11	359.94	7.94	
2025-01-09 10:34:24.31	359.91	7.95	
2025-01-09 10:34:24.52	359.88	7.96	
2025-01-09 10:34:24.73	359.85	7.97	
2025-01-09 10:34:24.93	359.82	7.98	
2025-01-09 10:34:25.13	359.80	8.00	
2025-01-09 10:34:25.34	359.77	8.01	
2025-01-09 10:34:25.55	359.74	8.02	
2025-01-09 10:34:25.75	359.71	8.03	
2025-01-09 10:34:25.96	359.68	8.04	
2025-01-09 10:34:26.18	359.65	8.06	
2025-01-09 10:34:26.38	359.62	8.07	
2025-01-09 10:34:26.59	359.59	8.08	
2025-01-09 10:34:26.79	359.57	8.09	
2025-01-09 10:34:27.00	359.54	8.10	
2025-01-09 10:34:27.20	359.51	8.12	
2025-01-09 10:34:27.41	359.48	8.13	
2025-01-09 10:34:27.61	359.45	8.14	
2025-01-09 10:34:27.82	359.42	8.15	
2025-01-09 10:34:28.03	359.39	8.16	
2025-01-09 10:34:28.23	359.37	8.18	
2025-01-09 10:34:28.44	359.34	8.19	
2025-01-09 10:34:28.64	359.31	8.20	
2025-01-09 10:34:28.85	359.28	8.21	
2025-01-09 10:34:29.05	359.25	8.22	
2025-01-09 10:34:29.26	359.22	8.24	
2025-01-09 10:34:29.46	359.19	8.25	
2025-01-09 10:34:29.67	359.16	8.26	
2025-01-09 10:34:29.87	359.14	8.27	
2025-01-09 10:34:30.08	359.11	8.28	
2025-01-09 10:34:30.29	359.08	8.30	
2025-01-09 10:34:30.50	359.05	8.31	
2025-01-09 10:34:30.71	359.02	8.32	
2025-01-09 10:34:30.92	358.99	8.33	
2025-01-09 10:34:31.12	358.96	8.34	
2025-01-09 10:34:31.33	358.93	8.36	
2025-01-09 10:34:31.53	358.90	8.37	
2025-01-09 10:34:31.74	358.87	8.38	
2025-01-09 10:34:31.94	358.84	8.39	
2025-01-09 10:34:32.15	358.81	8.40	
2025-01-09 10:34:32.35	358.78	8.42	
2025-01-09 10:34:32.56	358.75	8.43	
2025-01-09 10:34:32.76	358.73	8.44	
2025-01-09 10:34:32.97	358.70	8.45	
2025-01-09 10:34:33.18	358.67	8.46	
2025-01-09 10:34:33.38	358.64	8.48	
2025-01-09 10:34:33.59	358.61	8.49	
2025-01-09 10:34:33.79	358.58	8.50	
2025-01-09 10:34:34.00	358.55	8.51	
2025-01-09 10:34:34.20	358.52	8.52	
2025-01-09 10:34:34.41	358.49	8.54	
2025-01-09 10:34:34.61	358.46	8.55	
2025-01-09 10:34:34.82	358.43	8.56	
2025-01-09 10:34:35.02	358.40	8.57	
2025-01-09 10:34:35.23	358.37	8.58	
2025-01-09 10:34:35.43	358.34	8.59	
2025-01-09 10:34:35.64	358.31	8.61	
2025-01-09 10:34:35.84	358.28	8.62	
2025-01-09 10:34:36.05	358.25	8.63	
2025-01-09 10:34:36.25	358.22	8.64	
2025-01-09 10:34:36.46	358.19	8.65	
2025-01-09 10:34:36.66	358.16	8.67	
2025-01-09 10:34:36.87	358.13	8.68	
2025-01-09 10:34:37.07	358.10	8.69	
2025-01-09 10:34:37.28	358.07	8.70	
2025-01-09 10:34:37.48	358.04	8.71	
2025-01-09 10:34:37.69	358.01	8.73	
2025-01-09 10:34:37.91	357.98	8.74	
2025-01-09 10:34:38.11	357.95	8.75	
2025-01-09 10:34:38.32	357.92	8.76	
2025-01-09 10:34:38.52	357.89	8.77	
2025-01-09 10:34:38.73	357.86	8.79	
2025-01-09 10:34:38.95	357.83	8.80	
2025-01-09 10:34:39.15	357.80	8.81	
2025-01-09 10:34:39.36	357.77	8.82	
2025-01-09 10:34:39.57	357.74	8.83	
2025-01-09 10:34:39.77	357.71	8.85	
2025-01-09 10:34:39.99	357.68	8.86	
2025-01-09 10:34:40.20	357.65	8.87	
2025-01-09 10:34:40.40	357.62	8.88	
2025-01-09 10:34:40.62	357.58	8.90	
2025-01-09 10:34:40.82	357.55	8.91	
2025-01-09 10:34:41.02	357.53	8.92	
2025-01-09 10:34:41.23	357.49	8.93	
2025-01-09 10:34:41.43	357.46	8.94	
2025-01-09 10:34:41.64	357.43	8.95	
2025-01-09 10:34:41.85	357.40	8.97	
2025-01-09 10:34:42.05	357.37	8.98	
2025-01-09 10:34:42.25	357.34	8.99	
2025-01-09 10:34:42.46	357.31	9.00	
2025-01-09 10:34:42.66	357.28	9.01	
2025-01-09 10:34:42.87	357.25	9.03	
2025-01-09 10:34:43.07	357.22	9.04	
2025-01-09 10:34:43.28	357.19	9.05	
2025-01-09 10:34:43.48	357.16	9.06	
2025-01-09 10:34:43.69	357.13	9.07	
2025-01-09 10:34:43.90	357.10	9.08	
2025-01-09 10:34:44.10	357.07	9.10	
2025-01-09 10:34:44.31	357.03	9.11	
2025-01-09 10:34:44.51	357.00	9.12	
2025-01-09 10:34:44.72	356.97	9.13	
2025-01-09 10:34:44.92	356.94	9.14	
2025-01-09 10:34:45.13	356.91	9.16	
2025-01-09 10:34:45.33	356.88	9.17	
2025-01-09 10:34:45.54	356.85	9.18	
2025-01-09 10:34:45.74	356.82	9.19	
2025-01-09 10:34:45.95	356.79	9.20	
2025-01-09 10:34:46.15	356.76	9.22	
2025-01-09 10:34:46.36	356.73	9.23	
2025-01-09 10:34:46.56	356.70	9.24	
2025-01-09 10:34:46.77	356.66	9.25	
2025-01-09 10:34:46.98	356.63	9.26	
2025-01-09 10:34:47.18	356.60	9.27	
2025-01-09 10:34:47.38	356.57	9.29	
2025-01-09 10:34:47.59	356.54	9.30	
2025-01-09 10:34:47.80	356.51	9.31	
2025-01-09 10:34:48.00	356.48	9.32	
2025-01-09 10:34:48.21	356.44	9.33	
2025-01-09 10:34:48.41	356.41	9.35	
2025-01-09 10:34:48.62	356.38	9.36	
2025-01-09 10:34:48.82	356.35	9.37	
2025-01-09 10:34:49.03	356.32	9.38	
2025-01-09 10:34:49.23	356.29	9.39	
2025-01-09 10:34:49.44	356.26	9.40	
2025-01-09 10:34:49.66	356.22	9.42	
2025-01-09 10:34:49.87	356.19	9.43	
2025-01-09 10:34:50.07	356.16	9.44	
2025-01-09 10:34:50.28	356.13	9.45	
2025-01-09 10:34:50.48	356.10	9.46	
2025-01-09 10:34:50.69	356.06	9.48	
2025-01-09 10:34:50.89	356.03	9.49	
2025-01-09 10:34:51.10	356.00	9.50	
2025-01-09 10:34:51.31	355.97	9.51	
2025-01-09 10:34:51.51	355.94	9.52	
2025-01-09 10:34:51.72	355.90	9.54	
2025-01-09 10:34:51.92	355.87	9.55	
2025-01-09 10:34:52.13	355.84	9.56	
2025-01-09 10:34:52.33	355.81	9.57	
2025-01-09 10:34:52.54	355.78	9.58	
2025-01-09 10:34:52.74	355.75	9.59	
2025-01-09 10:34:52.95	355.71	9.61	
2025-01-09 10:34:53.15	355.68	9.62	
2025-01-09 10:34:53.36	355.65	9.63	
2025-01-09 10:34:53.57	355.62	9.64	
2025-01-09 10:34:53.77	355.59	9.65	
2025-01-09 10:34:53.98	355.55	9.67	
2025-01-09 10:34:54.18	355.52	9.68	
2025-01-09 10:34:54.39	355.49	9.69	
2025-01-09 10:34:54.59	355.46	9.70	
2025-01-09 10:34:54.80	355.42	9.71	
2025-01-09 10:34:55.00	355.39	9.72	
2025-01-09 10:34:55.21	355.36	9.74	
2025-01-09 10:34:55.41	355.33	9.75	
2025-01-09 10:34:55.62	355.29	9.76	
2025-01-09 10:34:55.82	355.26	9.77	
2025-01-09 10:34:56.04	355.23	9.78	
2025-01-09 10:34:56.25	355.20	9.80	
2025-01-09 10:34:56.45	355.16	9.81	
2025-01-09 10:34:56.66	355.13	9.82	
2025-01-09 10:34:56.86	355.10	9.83	
2025-01-09 10:34:57.07	355.07	9.84	
2025-01-09 10:34:57.27	355.03	9.85	
2025-01-09 10:34:57.47	355.00	9.87	
2025-01-09 10:34:57.68	354.97	9.88	
2025-01-09 10:34:57.89	354.93	9.89	
2025-01-09 10:34:58.09	354.90	9.90	
2025-01-09 10:34:58.30	354.87	9.91	
2025-01-09 10:34:58.50	354.84	9.93	
2025-01-09 10:34:58.71	354.80	9.94	
2025-01-09 10:34:58.91	354.77	9.95	
2025-01-09 10:34:59.12	354.74	9.96	
2025-01-09 10:34:59.33	354.70	9.97	
2025-01-09 10:34:59.54	354.67	9.98	
2025-01-09 10:34:59.74	354.64	10.00	
2025-01-09 10:34:59.95	354.61	10.01	
2025-01-09 10:35:00.17	354.57	10.02	
2025-01-09 10:35:00.39	354.53	10.03	
2025-01-09 10:35:00.59	354.50	10.04	
2025-01-09 10:35:00.80	354.47	10.06	
2025-01-09 10:35:01.00	354.44	10.07	
2025-01-09 10:35:01.21	354.40	10.08	
2025-01-09 10:35:01.43	354.37	10.09	
2025-01-09 10:35:01.63	354.33	10.10	
2025-01-09 10:35:01.84	354.30	10.12	
2025-01-09 10:35:02.04	354.27	10.13	
2025-01-09 10:35:02.24	354.24	10.14	
2025-01-09 10:35:02.45	354.20	10.15	
2025-01-09 10:35:02.65	354.17	10.16	
2025-01-09 10:35:02.86	354.13	10.17	
2025-01-09 10:35:03.06	354.10	10.19	
2025-01-09 10:35:03.27	354.07	10.20	
2025-01-09 10:35:03.47	354.04	10.21	
2025-01-09 10:35:03.68	354.00	10.22	
2025-01-09 10:35:03.88	353.97	10.23	
2025-01-09 10:35:04.09	353.93	10.24	
2025-01-09 10:35:04.29	353.90	10.26	
2025-01-09 10:35:04.50	353.87	10.27	
2025-01-09 10:35:04.70	353.83	10.28	
2025-01-09 10:35:04.91	353.80	10.29	
2025-01-09 10:35:05.12	353.77	10.30	
2025-01-09 10:35:05.32	353.73	10.31	
2025-01-09 10:35:05.52	353.70	10.33	
2025-01-09 10:35:05.73	353.66	10.34	
2025-01-09 10:35:05.94	353.63	10.35	
2025-01-09 10:35:06.14	353.60	10.36	
2025-01-09 10:35:06.34	353.56	10.37	
2025-01-09 10:35:06.55	353.53	10.38	
2025-01-09 10:35:06.75	353.50	10.40	
2025-01-09 10:35:06.96	353.46	10.41	
2025-01-09 10:35:07.17	353.43	10.42	
2025-01-09 10:35:07.37	353.39	10.43	
2025-01-09 10:35:07.58	353.36	10.44	
2025-01-09 10:35:07.78	353.33	10.45	
2025-01-09 10:35:07.99	353.29	10.47	
2025-01-09 10:35:08.19	353.26	10.48	
2025-01-09 10:35:08.40	353.22	10.49	
2025-01-09 10:35:08.60	353.19	10.50	
2025-01-09 10:35:08.81	353.15	10.51	
2025-01-09 10:35:09.01	353.12	10.52	
2025-01-09 10:35:09.22	353.09	10.53	
2025-01-09 10:35:09.43	353.05	10.55	
2025-01-09 10:35:09.63	353.02	10.56	
2025-01-09 10:35:09.83	352.98	10.57	
2025-01-09 10:35:10.04	352.95	10.58	
2025-01-09 10:35:10.25	352.91	10.59	
2025-01-09 10:35:10.45	352.88	10.60	
2025-01-09 10:35:10.66	352.84	10.62	
2025-01-09 10:35:10.86	352.81	10.63	
2025-01-09 10:35:11.07	352.78	10.64	
2025-01-09 10:35:11.27	352.74	10.65	
2025-01-09 10:35:11.47	352.71	10.66	
2025-01-09 10:35:11.68	352.67	10.67	
2025-01-09 10:35:11.89	352.64	10.69	
2025-01-09 10:35:12.09	352.60	10.70	
2025-01-09 10:35:12.30	352.57	10.71	
2025-01-09 10:35:12.50	352.53	10.72	
2025-01-09 10:35:12.71	352.50	10.73	
2025-01-09 10:35:12.91	352.46	10.74	
2025-01-09 10:35:13.12	352.43	10.75	
2025-01-09 10:35:13.32	352.39	10.77	
2025-01-09 10:35:13.53	352.36	10.78	
2025-01-09 10:35:13.73	352.32	10.79	
2025-01-09 10:35:13.94	352.29	10.80	
2025-01-09 10:35:14.14	352.25	10.81	
2025-01-09 10:35:14.35	352.22	10.82	
2025-01-09 10:35:14.55	352.18	10.83	
2025-01-09 10:35:14.76	352.15	10.85	
2025-01-09 10:35:14.96	352.11	10.86	
2025-01-09 10:35:15.17	352.08	10.87	
2025-01-09 10:35:15.37	352.04	10.88	
2025-01-09 10:35:15.58	352.01	10.89	
2025-01-09 10:35:15.78	351.97	10.90	
2025-01-09 10:35:15.99	351.94	10.92	
2025-01-09 10:35:16.19	351.90	10.93	
2025-01-09 10:35:16.41	351.87	10.94	
2025-01-09 10:35:16.61	351.83	10.95	
2025-01-09 10:35:16.82	351.79	10.96	
2025-01-09 10:35:17.02	351.76	10.97	
2025-01-09 10:35:17.24	351.72	10.99	
2025-01-09 10:35:17.44	351.69	11.00	
2025-01-09 10:35:17.65	351.65	11.01	
2025-01-09 10:35:17.85	351.62	11.02	
2025-01-09 10:35:18.06	351.58	11.03	
2025-01-09 10:35:18.26	351.55	11.04	
2025-01-09 10:35:18.47	351.51	11.05	
2025-01-09 10:35:18.67	351.47	11.06	
2025-01-09 10:35:18.88	351.44	11.08	
2025-01-09 10:35:19.09	351.40	11.09	
2025-01-09 10:35:19.29	351.37	11.10	
2025-01-09 10:35:19.50	351.33	11.11	
2025-01-09 10:35:19.70	351.29	11.12	
2025-01-09 10:35:19.91	351.26	11.13	
2025-01-09 10:35:20.11	351.22	11.14	
2025-01-09 10:35:20.32	351.19	11.16	
2025-01-09 10:35:20.52	351.15	11.17	
2025-01-09 10:35:20.73	351.11	11.18	
2025-01-09 10:35:20.93	351.08	11.19	
2025-01-09 10:35:21.14	351.04	11.20	
2025-01-09 10:35:21.34	351.01	11.21	
2025-01-09 10:35:21.55	350.97	11.22	
2025-01-09 10:35:21.75	350.93	11.24	
2025-01-09 10:35:21.96	350.90	11.25	
2025-01-09 10:35:22.17	350.86	11.26	
2025-01-09 10:35:22.37	350.83	11.27	
2025-01-09 10:35:22.58	350.79	11.28	
2025-01-09 10:35:22.78	350.75	11.29	
2025-01-09 10:35:22.99	350.72	11.30	
2025-01-09 10:35:23.19	350.68	11.32	
2025-01-09 10:35:23.39	350.64	11.33	
2025-01-09 10:35:23.60	350.61	11.34	
2025-01-09 10:35:23.80	350.57	11.35	
2025-01-09 10:35:24.02	350.53	11.36	
2025-01-09 10:35:24.23	350.50	11.37	
2025-01-09 10:35:24.43	350.46	11.38	
2025-01-09 10:35:24.64	350.42	11.40	
2025-01-09 10:35:24.84	350.39	11.41	
2025-01-09 10:35:25.05	350.35	11.42	
2025-01-09 10:35:25.25	350.31	11.43	
2025-01-09 10:35:25.46	350.28	11.44	
2025-01-09 10:35:25.67	350.24	11.45	
2025-01-09 10:35:25.87	350.20	11.46	
2025-01-09 10:35:26.08	350.16	11.47	
2025-01-09 10:35:26.28	350.13	11.49	
2025-01-09 10:35:26.49	350.09	11.50	
2025-01-09 10:35:26.69	350.06	11.51	
2025-01-09 10:35:26.90	350.02	11.52	
2025-01-09 10:35:27.11	349.98	11.53	
2025-01-09 10:35:27.32	349.94	11.54	
2025-01-09 10:35:27.52	349.91	11.55	
2025-01-09 10:35:27.73	349.87	11.56	
2025-01-09 10:35:27.94	349.83	11.58	
2025-01-09 10:35:28.14	349.79	11.59	
2025-01-09 10:35:28.34	349.76	11.60	
2025-01-09 10:35:28.55	349.72	11.61	
2025-01-09 10:35:28.76	349.68	11.62	
2025-01-09 10:35:28.96	349.65	11.63	
2025-01-09 10:35:29.17	349.61	11.64	
2025-01-09 10:35:29.37	349.57	11.65	
2025-01-09 10:35:29.58	349.53	11.67	
2025-01-09 10:35:29.78	349.50	11.68	
2025-01-09 10:35:29.99	349.46	11.69	
2025-01-09 10:35:30.19	349.42	11.70	
2025-01-09 10:35:30.40	349.38	11.71	
2025-01-09 10:35:30.61	349.34	11.72	
2025-01-09 10:35:30.81	349.31	11.73	
2025-01-09 10:35:31.02	349.27	11.74	
2025-01-09 10:35:31.22	349.23	11.75	
2025-01-09 10:35:31.43	349.19	11.77	
2025-01-09 10:35:31.63	349.16	11.78	
2025-01-09 10:35:31.84	349.12	11.79	
2025-01-09 10:35:32.05	349.08	11.80	
2025-01-09 10:35:32.25	349.04	11.81	
2025-01-09 10:35:32.46	349.01	11.82	
2025-01-09 10:35:32.66	348.97	11.83	
2025-01-09 10:35:32.87	348.93	11.84	
2025-01-09 10:35:33.07	348.89	11.85	
2025-01-09 10:35:33.28	348.85	11.87	
2025-01-09 10:35:33.48	348.82	11.88	
2025-01-09 10:35:33.69	348.78	11.89	
2025-01-09 10:35:33.89	348.74	11.90	
2025-01-09 10:35:34.10	348.70	11.91	
2025-01-09 10:35:34.31	348.66	11.92	
2025-01-09 10:35:34.51	348.63	11.93	
2025-01-09 10:35:34.72	348.59	11.94	
2025-01-09 10:35:34.92	348.55	11.95	
2025-01-09 10:35:35.12	348.51	11.96	
2025-01-09 10:35:35.33	348.47	11.98	
2025-01-09 10:35:35.53	348.44	11.99	
2025-01-09 10:35:35.74	348.40	12.00	
2025-01-09 10:35:35.95	348.36	12.01	
2025-01-09 10:35:36.15	348.32	12.02	
2025-01-09 10:35:36.36	348.28	12.03	
2025-01-09 10:35:36.56	348.24	12.04	
2025-01-09 10:35:36.77	348.21	12.05	
2025-01-09 10:35:36.97	348.17	12.06	
2025-01-09 10:35:37.18	348.13	12.07	
2025-01-09 10:35:37.38	348.09	12.08	
2025-01-09 10:35:37.59	348.05	12.10	
2025-01-09 10:35:37.79	348.01	12.11	
2025-01-09 10:35:38.00	347.97	12.12	
2025-01-09 10:35:38.21	347.94	12.13	
2025-01-09 10:35:38.41	347.90	12.14	
2025-01-09 10:35:38.62	347.86	12.15	
2025-01-09 10:35:38.82	347.82	12.16	
2025-01-09 10:35:39.03	347.78	12.17	
2025-01-09 10:35:39.23	347.74	12.18	
2025-01-09 10:35:39.44	347.70	12.19	
2025-01-09 10:35:39.64	347.66	12.20	
2025-01-09 10:35:39.85	347.63	12.22	
2025-01-09 10:35:40.05	347.59	12.23	
2025-01-09 10:35:40.26	347.55	12.24	
2025-01-09 10:35:40.46	347.51	12.25	
2025-01-09 10:35:40.67	347.47	12.26	
2025-01-09 10:35:40.87	347.43	12.27	
2025-01-09 10:35:41.07	347.39	12.28	
2025-01-09 10:35:41.28	347.35	12.29	
2025-01-09 10:35:41.48	347.32	12.30	
2025-01-09 10:35:41.69	347.28	12.31	
2025-01-09 10:35:41.89	347.24	12.32	
2025-01-09 10:35:42.10	347.20	12.33	
2025-01-09 10:35:42.30	347.16	12.34	
2025-01-09 10:35:42.51	347.12	12.36	
2025-01-09 10:35:42.71	347.08	12.37	
2025-01-09 10:35:42.91	347.04	12.38	
2025-01-09 10:35:43.12	347.00	12.39	
2025-01-09 10:35:43.32	346.96	12.40	
2025-01-09 10:35:43.53	346.92	12.41	
2025-01-09 10:35:43.74	346.88	12.42	
2025-01-09 10:35:43.94	346.84	12.43	
2025-01-09 10:35:44.16	346.80	12.44	
2025-01-09 10:35:44.37	346.76	12.45	
2025-01-09 10:35:44.57	346.72	12.46	
2025-01-09 10:35:44.78	346.68	12.47	
2025-01-09 10:35:44.98	346.64	12.48	
2025-01-09 10:35:45.19	346.60	12.50	
2025-01-09 10:35:45.39	346.56	12.51	
2025-01-09 10:35:45.60	346.52	12.52	
2025-01-09 10:35:45.80	346.48	12.53	
2025-01-09 10:35:46.01	346.44	12.54	
2025-01-09 10:35:46.21	346.40	12.55	
2025-01-09 10:35:46.42	346.36	12.56	
2025-01-09 10:35:46.62	346.32	12.57	
2025-01-09 10:35:46.83	346.28	12.58	
2025-01-09 10:35:47.03	346.25	12.59	
2025-01-09 10:35:47.24	346.20	12.60	
2025-01-09 10:35:47.44	346.17	12.61	
2025-01-09 10:35:47.65	346.12	12.62	
2025-01-09 10:35:47.86	346.08	12.63	
2025-01-09 10:35:48.06	346.04	12.64	
2025-01-09 10:35:48.27	346.00	12.65	
2025-01-09 10:35:48.47	345.96	12.66	
2025-01-09 10:35:48.67	345.92	12.67	
2025-01-09 10:35:48.88	345.88	12.69	
2025-01-09 10:35:49.08	345.84	12.70	
2025-01-09 10:35:49.29	345.80	12.71	
2025-01-09 10:35:49.49	345.76	12.72	
2025-01-09 10:35:49.70	345.72	12.73	
2025-01-09 10:35:49.90	345.68	12.74	
2025-01-09 10:35:50.11	345.64	12.75	
2025-01-09 10:35:50.32	345.60	12.76	
2025-01-09 10:35:50.52	345.56	12.77	
2025-01-09 10:35:50.72	345.52	12.78	
2025-01-09 10:35:50.93	345.48	12.79	
2025-01-09 10:35:51.13	345.44	12.80	
2025-01-09 10:35:51.34	345.40	12.81	
2025-01-09 10:35:51.55	345.36	12.82	
2025-01-09 10:35:51.75	345.32	12.83	
2025-01-09 10:35:51.96	345.28	12.84	
2025-01-09 10:35:52.16	345.24	12.85	
2025-01-09 10:35:52.37	345.19	12.86	
2025-01-09 10:35:52.57	345.15	12.87	
2025-01-09 10:35:52.78	345.11	12.88	
2025-01-09 10:35:52.98	345.07	12.89	
2025-01-09 10:35:53.19	345.03	12.90	
2025-01-09 10:35:53.40	344.99	12.91	
2025-01-09 10:35:53.60	344.95	12.92	
2025-01-09 10:35:53.81	344.91	12.94	
2025-01-09 10:35:54.01	344.87	12.95	
2025-01-09 10:35:54.22	344.82	12.96	
2025-01-09 10:35:54.42	344.78	12.97	
2025-01-09 10:35:54.63	344.74	12.98	
2025-01-09 10:35:54.83	344.70	12.99	
2025-01-09 10:35:55.04	344.66	13.00	
2025-01-09 10:35:55.24	344.62	13.01	
2025-01-09 10:35:55.45	344.58	13.02	
2025-01-09 10:35:55.65	344.54	13.03	
2025-01-09 10:35:55.86	344.50	13.04	
2025-01-09 10:35:56.07	344.45	13.05	
2025-01-09 10:35:56.28	344.41	13.06	
2025-01-09 10:35:56.48	344.37	13.07	
2025-01-09 10:35:56.69	344.33	13.08	
2025-01-09 10:35:56.89	344.29	13.09	
2025-01-09 10:35:57.10	344.25	13.10	
2025-01-09 10:35:57.30	344.20	13.11	
2025-01-09 10:35:57.51	344.16	13.12	
2025-01-09 10:35:57.71	344.12	13.13	
2025-01-09 10:35:57.92	344.08	13.14	
2025-01-09 10:35:58.14	344.03	13.15	
2025-01-09 10:35:58.34	343.99	13.16	
2025-01-09 10:35:58.55	343.95	13.17	
2025-01-09 10:35:58.76	343.91	13.18	
2025-01-09 10:35:58.96	343.87	13.19	
2025-01-09 10:35:59.18	343.82	13.20	
2025-01-09 10:35:59.39	343.78	13.21	
2025-01-09 10:35:59.59	343.74	13.22	
2025-01-09 10:35:59.80	343.70	13.23	
2025-01-09 10:36:00.00	343.66	13.24	
2025-01-09 10:36:00.21	343.61	13.25	
2025-01-09 10:36:00.41	343.57	13.26	
2025-01-09 10:36:00.62	343.53	13.27	
2025-01-09 10:36:00.82	343.49	13.28	
2025-01-09 10:36:01.03	343.44	13.29	
2025-01-09 10:36:01.24	343.40	13.30	
2025-01-09 10:36:01.44	343.36	13.31	
2025-01-09 10:36:01.65	343.32	13.32	
2025-01-09 10:36:01.85	343.28	13.33	
2025-01-09 10:36:02.06	343.23	13.34	
2025-01-09 10:36:02.26	343.19	13.35	
2025-01-09 10:36:02.47	343.15	13.36	
2025-01-09 10:36:02.67	343.11	13.37	
2025-01-09 10:36:02.88	343.06	13.38	
2025-01-09 10:36:03.08	343.02	13.39	
2025-01-09 10:36:03.29	342.98	13.40	
2025-01-09 10:36:03.49	342.94	13.41	
2025-01-09 10:36:03.70	342.89	13.42	
2025-01-09 10:36:03.90	342.85	13.43	
2025-01-09 10:36:04.11	342.81	13.44	
2025-01-09 10:36:04.31	342.77	13.45	
2025-01-09 10:36:04.52	342.72	13.46	
2025-01-09 10:36:04.72	342.68	13.47	
2025-01-09 10:36:04.93	342.64	13.48	
2025-01-09 10:36:05.13	342.60	13.49	
2025-01-09 10:36:05.34	342.55	13.50	
2025-01-09 10:36:05.54	342.51	13.51	
2025-01-09 10:36:05.75	342.47	13.52	
2025-01-09 10:36:05.95	342.43	13.53	
2025-01-09 10:36:06.16	342.38	13.54	
2025-01-09 10:36:06.37	342.34	13.55	
2025-01-09 10:36:06.57	342.30	13.56	
2025-01-09 10:36:06.78	342.25	13.57	
2025-01-09 10:36:06.98	342.21	13.58	
2025-01-09 10:36:07.19	342.17	13.59	
2025-01-09 10:36:07.39	342.12	13.60	
2025-01-09 10:36:07.60	342.08	13.61	
2025-01-09 10:36:07.80	342.04	13.62	
2025-01-09 10:36:08.01	341.99	13.63	
2025-01-09 10:36:08.22	341.95	13.63	
2025-01-09 10:36:08.42	341.91	13.64	
2025-01-09 10:36:08.62	341.87	13.65	
2025-01-09 10:36:08.83	341.82	13.66	
2025-01-09 10:36:09.03	341.78	13.67	
2025-01-09 10:36:09.24	341.73	13.68	
2025-01-09 10:36:09.45	341.69	13.69	
2025-01-09 10:36:09.65	341.65	13.70	
2025-01-09 10:36:09.87	341.60	13.71	
2025-01-09 10:36:10.07	341.56	13.72	
2025-01-09 10:36:10.28	341.51	13.73	
2025-01-09 10:36:10.48	341.47	13.74	
2025-01-09 10:36:10.69	341.43	13.75	
2025-01-09 10:36:10.89	341.39	13.76	
2025-01-09 10:36:11.10	341.34	13.77	
2025-01-09 10:36:11.31	341.30	13.78	
2025-01-09 10:36:11.51	341.25	13.79	
2025-01-09 10:36:11.72	341.21	13.80	
2025-01-09 10:36:11.94	341.16	13.81	
2025-01-09 10:36:12.14	341.12	13.82	
2025-01-09 10:36:12.35	341.07	13.83	
2025-01-09 10:36:12.55	341.03	13.83	
2025-01-09 10:36:12.76	340.99	13.84	
2025-01-09 10:36:12.96	340.94	13.85	
2025-01-09 10:36:13.17	340.90	13.86	
2025-01-09 10:36:13.37	340.86	13.87	
2025-01-09 10:36:13.58	340.81	13.88	
2025-01-09 10:36:13.78	340.77	13.89	
2025-01-09 10:36:13.99	340.72	13.90	
2025-01-09 10:36:14.19	340.68	13.91	
2025-01-09 10:36:14.40	340.64	13.92	
2025-01-09 10:36:14.60	340.59	13.93	
2025-01-09 10:36:14.81	340.55	13.94	
2025-01-09 10:36:15.01	340.50	13.95	
2025-01-09 10:36:15.22	340.46	13.96	
2025-01-09 10:36:15.42	340.42	13.96	
2025-01-09 10:36:15.63	340.37	13.97	
2025-01-09 10:36:15.83	340.33	13.98	
2025-01-09 10:36:16.04	340.28	13.99	
2025-01-09 10:36:16.25	340.24	14.00	
2025-01-09 10:36:16.46	340.19	14.01	
2025-01-09 10:36:16.67	340.15	14.02	
2025-01-09 10:36:16.88	340.10	14.03	
2025-01-09 10:36:17.08	340.06	14.04	
2025-01-09 10:36:17.28	340.01	14.05	
2025-01-09 10:36:17.49	339.97	14.06	
2025-01-09 10:36:17.69	339.92	14.07	
2025-01-09 10:36:17.90	339.88	14.07	
2025-01-09 10:36:18.11	339.83	14.08	
2025-01-09 10:36:18.31	339.79	14.09	
2025-01-09 10:36:18.52	339.74	14.10	
2025-01-09 10:36:18.72	339.70	14.11	
2025-01-09 10:36:18.93	339.65	14.12	
2025-01-09 10:36:19.13	339.61	14.13	
2025-01-09 10:36:19.34	339.56	14.14	
2025-01-09 10:36:19.54	339.52	14.15	
2025-01-09 10:36:19.74	339.48	14.16	
2025-01-09 10:36:19.95	339.43	14.16	
2025-01-09 10:36:20.16	339.39	14.17	
2025-01-09 10:36:20.36	339.34	14.18	
2025-01-09 10:36:20.58	339.29	14.19	
2025-01-09 10:36:20.79	339.25	14.20	
2025-01-09 10:36:20.99	339.20	14.21	
2025-01-09 10:36:21.20	339.16	14.22	
2025-01-09 10:36:21.40	339.11	14.23	
2025-01-09 10:36:21.61	339.07	14.24	
2025-01-09 10:36:21.81	339.02	14.24	
2025-01-09 10:36:22.02	338.98	14.25	
2025-01-09 10:36:22.22	338.93	14.26	
2025-01-09 10:36:22.43	338.89	14.27	
2025-01-09 10:36:22.63	338.84	14.28	
2025-01-09 10:36:22.84	338.80	14.29	
2025-01-09 10:36:23.04	338.75	14.30	
2025-01-09 10:36:23.25	338.71	14.31	
2025-01-09 10:36:23.45	338.66	14.31	
2025-01-09 10:36:23.66	338.62	14.32	
2025-01-09 10:36:23.86	338.57	14.33	
2025-01-09 10:36:24.07	338.52	14.34	
2025-01-09 10:36:24.28	338.48	14.35	
2025-01-09 10:36:24.48	338.43	14.36	
2025-01-09 10:36:24.68	338.39	14.37	
2025-01-09 10:36:24.89	338.34	14.37	
2025-01-09 10:36:25.10	338.30	14.38	
2025-01-09 10:36:25.30	338.25	14.39	
2025-01-09 10:36:25.51	338.20	14.40	
2025-01-09 10:36:25.71	338.16	14.41	
2025-01-09 10:36:25.92	338.11	14.42	
2025-01-09 10:36:26.12	338.07	14.43	
2025-01-09 10:36:26.33	338.02	14.43	
2025-01-09 10:36:26.53	337.98	14.44	
2025-01-09 10:36:26.74	337.93	14.45	
2025-01-09 10:36:26.94	337.89	14.46	
2025-01-09 10:36:27.15	337.84	14.47	
2025-01-09 10:36:27.35	337.79	14.48	
2025-01-09 10:36:27.56	337.75	14.49	
2025-01-09 10:36:27.76	337.70	14.49	
2025-01-09 10:36:27.96	337.66	14.50	
2025-01-09 10:36:28.17	337.61	14.51	
2025-01-09 10:36:28.38	337.56	14.52	
2025-01-09 10:36:28.58	337.52	14.53	
2025-01-09 10:36:28.79	337.47	14.54	
2025-01-09 10:36:29.01	337.42	14.54	
2025-01-09 10:36:29.21	337.38	14.55	
2025-01-09 10:36:29.42	337.33	14.56	
2025-01-09 10:36:29.62	337.28	14.57	
2025-01-09 10:36:29.83	337.24	14.58	
2025-01-09 10:36:30.03	337.19	14.59	
2025-01-09 10:36:30.24	337.14	14.59	
2025-01-09 10:36:30.44	337.10	14.60	
2025-01-09 10:36:30.65	337.05	14.61	
2025-01-09 10:36:30.85	337.01	14.62	
2025-01-09 10:36:31.06	336.96	14.63	
2025-01-09 10:36:31.26	336.91	14.63	
2025-01-09 10:36:31.47	336.87	14.64	
2025-01-09 10:36:31.67	336.82	14.65	
2025-01-09 10:36:31.88	336.77	14.66	
2025-01-09 10:36:32.08	336.73	14.67	
2025-01-09 10:36:32.29	336.68	14.67	
2025-01-09 10:36:32.50	336.63	14.68	
2025-01-09 10:36:32.70	336.59	14.69	
2025-01-09 10:36:32.91	336.54	14.70	
2025-01-09 10:36:33.11	336.49	14.71	
2025-01-09 10:36:33.32	336.45	14.72	
2025-01-09 10:36:33.52	336.40	14.72	
2025-01-09 10:36:33.73	336.35	14.73	
2025-01-09 10:36:33.93	336.31	14.74	
2025-01-09 10:36:34.14	336.26	14.75	
2025-01-09 10:36:34.36	336.21	14.76	
2025-01-09 10:36:34.56	336.16	14.76	
2025-01-09 10:36:34.77	336.11	14.77	
2025-01-09 10:36:34.97	336.07	14.78	
2025-01-09 10:36:35.18	336.02	14.79	
2025-01-09 10:36:35.38	335.97	14.79	
2025-01-09 10:36:35.59	335.93	14.80	
2025-01-09 10:36:35.80	335.88	14.81	
2025-01-09 10:36:36.00	335.83	14.82	
2025-01-09 10:36:36.21	335.78	14.83	
2025-01-09 10:36:36.41	335.74	14.83	
2025-01-09 10:36:36.62	335.69	14.84	
2025-01-09 10:36:36.82	335.64	14.85	
2025-01-09 10:36:37.03	335.60	14.86	
2025-01-09 10:36:37.23	335.55	14.86	
2025-01-09 10:36:37.44	335.50	14.87	
2025-01-09 10:36:37.64	335.46	14.88	
2025-01-09 10:36:37.85	335.41	14.89	
2025-01-09 10:36:38.05	335.36	14.90	
2025-01-09 10:36:38.26	335.31	14.90	
2025-01-09 10:36:38.47	335.26	14.91	
2025-01-09 10:36:38.67	335.22	14.92	
2025-01-09 10:36:38.88	335.17	14.93	
2025-01-09 10:36:39.08	335.12	14.93	
2025-01-09 10:36:39.29	335.07	14.94	
2025-01-09 10:36:39.49	335.03	14.95	
2025-01-09 10:36:39.70	334.98	14.96	
2025-01-09 10:36:39.91	334.93	14.96	
2025-01-09 10:36:40.11	334.88	14.97	
2025-01-09 10:36:40.32	334.84	14.98	
2025-01-09 10:36:40.52	334.79	14.99	
2025-01-09 10:36:40.72	334.74	14.99	
2025-01-09 10:36:40.93	334.69	15.00	
2025-01-09 10:36:41.13	334.65	15.01	
2025-01-09 10:36:41.34	334.60	15.02	
2025-01-09 10:36:41.54	334.55	15.02	
2025-01-09 10:36:41.75	334.50	15.03	
2025-01-09 10:36:41.95	334.46	15.04	
2025-01-09 10:36:42.16	334.41	15.04	
2025-01-09 10:36:42.36	334.36	15.05	
2025-01-09 10:36:42.57	334.31	15.06	
2025-01-09 10:36:42.77	334.26	15.07	
2025-01-09 10:36:42.99	334.21	15.07	
2025-01-09 10:36:43.20	334.16	15.08	
2025-01-09 10:36:43.40	334.12	15.09	
2025-01-09 10:36:43.61	334.07	15.10	
2025-01-09 10:36:43.81	334.02	15.10	
2025-01-09 10:36:44.02	333.97	15.11	
2025-01-09 10:36:44.23	333.92	15.12	
2025-01-09 10:36:44.43	333.88	15.12	
2025-01-09 10:36:44.64	333.83	15.13	
2025-01-09 10:36:44.84	333.78	15.14	
2025-01-09 10:36:45.04	333.73	15.15	
2025-01-09 10:36:45.25	333.68	15.15	
2025-01-09 10:36:45.45	333.64	15.16	
2025-01-09 10:36:45.66	333.59	15.17	
2025-01-09 10:36:45.87	333.54	15.17	
2025-01-09 10:36:46.07	333.49	15.18	
2025-01-09 10:36:46.27	333.44	15.19	
2025-01-09 10:36:46.48	333.39	15.19	
2025-01-09 10:36:46.69	333.34	15.20	
2025-01-09 10:36:46.89	333.30	15.21	
2025-01-09 10:36:47.10	333.25	15.22	
2025-01-09 10:36:47.30	333.20	15.22	
2025-01-09 10:36:47.51	333.15	15.23	
2025-01-09 10:36:47.71	333.10	15.24	
2025-01-09 10:36:47.92	333.05	15.24	
2025-01-09 10:36:48.13	333.00	15.25	
2025-01-09 10:36:48.34	332.95	15.26	
2025-01-09 10:36:48.54	332.91	15.26	
2025-01-09 10:36:48.75	332.86	15.27	
2025-01-09 10:36:48.95	332.81	15.28	
2025-01-09 10:36:49.16	332.76	15.28	
2025-01-09 10:36:49.36	332.71	15.29	
2025-01-09 10:36:49.57	332.66	15.30	
2025-01-09 10:36:49.77	332.61	15.30	
2025-01-09 10:36:49.98	332.56	15.31	
2025-01-09 10:36:50.19	332.51	15.32	
2025-01-09 10:36:50.39	332.47	15.32	
2025-01-09 10:36:50.59	332.42	15.33	
2025-01-09 10:36:50.80	332.37	15.34	
2025-01-09 10:36:51.01	332.32	15.34	
2025-01-09 10:36:51.21	332.27	15.35	
2025-01-09 10:36:51.42	332.22	15.36	
2025-01-09 10:36:51.62	332.17	15.36	
2025-01-09 10:36:51.83	332.12	15.37	
2025-01-09 10:36:52.03	332.08	15.38	
2025-01-09 10:36:52.24	332.03	15.38	
2025-01-09 10:36:52.45	331.98	15.39	
2025-01-09 10:36:52.65	331.93	15.40	
2025-01-09 10:36:52.86	331.88	15.40	
2025-01-09 10:36:53.06	331.83	15.41	
2025-01-09 10:36:53.26	331.78	15.41	
2025-01-09 10:36:53.47	331.73	15.42	
2025-01-09 10:36:53.67	331.68	15.43	
2025-01-09 10:36:53.88	331.63	15.43	
2025-01-09 10:36:54.09	331.58	15.44	
2025-01-09 10:36:54.29	331.53	15.45	
2025-01-09 10:36:54.50	331.48	15.45	
2025-01-09 10:36:54.70	331.44	15.46	
2025-01-09 10:36:54.90	331.39	15.46	
2025-01-09 10:36:55.11	331.34	15.47	
2025-01-09 10:36:55.32	331.29	15.48	
2025-01-09 10:36:55.52	331.24	15.48	
2025-01-09 10:36:55.72	331.19	15.49	
2025-01-09 10:36:55.93	331.14	15.49	
2025-01-09 10:36:56.14	331.09	15.50	
2025-01-09 10:36:56.34	331.04	15.51	
2025-01-09 10:36:56.55	330.99	15.51	
2025-01-09 10:36:56.76	330.94	15.52	
2025-01-09 10:36:56.96	330.89	15.53	
2025-01-09 10:36:57.17	330.84	15.53	
2025-01-09 10:36:57.37	330.79	15.54	
2025-01-09 10:36:57.58	330.74	15.54	
2025-01-09 10:36:57.78	330.69	15.55	
2025-01-09 10:36:57.98	330.64	15.56	
2025-01-09 10:36:58.19	330.59	15.56	
2025-01-09 10:36:58.40	330.54	15.57	
2025-01-09 10:36:58.60	330.49	15.57	
2025-01-09 10:36:58.81	330.44	15.58	
2025-01-09 10:36:59.01	330.40	15.58	
2025-01-09 10:36:59.22	330.34	15.59	
2025-01-09 10:36:59.43	330.29	15.60	
2025-01-09 10:36:59.63	330.24	15.60	
2025-01-09 10:36:59.84	330.19	15.61	
2025-01-09 10:37:00.04	330.14	15.61	
2025-01-09 10:37:00.26	330.09	15.62	
2025-01-09 10:37:00.47	330.04	15.63	
2025-01-09 10:37:00.69	329.99	15.63	
2025-01-09 10:37:00.89	329.94	15.64	
2025-01-09 10:37:01.09	329.89	15.64	
2025-01-09 10:37:01.30	329.84	15.65	
2025-01-09 10:37:01.51	329.79	15.65	
2025-01-09 10:37:01.71	329.74	15.66	
2025-01-09 10:37:01.92	329.69	15.67	
2025-01-09 10:37:02.12	329.64	15.67	
2025-01-09 10:37:02.33	329.59	15.68	
2025-01-09 10:37:02.53	329.54	15.68	
2025-01-09 10:37:02.74	329.49	15.69	
2025-01-09 10:37:02.95	329.44	15.69	
2025-01-09 10:37:03.15	329.39	15.70	
2025-01-09 10:37:03.35	329.34	15.70	
2025-01-09 10:37:03.56	329.29	15.71	
2025-01-09 10:37:03.77	329.23	15.71	
2025-01-09 10:37:03.97	329.19	15.72	
2025-01-09 10:37:04.18	329.13	15.72	
2025-01-09 10:37:04.39	329.08	15.73	
2025-01-09 10:37:04.60	329.03	15.74	
2025-01-09 10:37:04.80	328.98	15.74	
2025-01-09 10:37:05.01	328.93	15.75	
2025-01-09 10:37:05.22	328.88	15.75	
2025-01-09 10:37:05.42	328.83	15.76	
2025-01-09 10:37:05.63	328.78	15.76	
2025-01-09 10:37:05.83	328.73	15.77	
2025-01-09 10:37:06.04	328.68	15.77	
2025-01-09 10:37:06.24	328.63	15.78	
2025-01-09 10:37:06.45	328.58	15.78	
2025-01-09 10:37:06.65	328.53	15.79	
2025-01-09 10:37:06.86	328.48	15.79	
2025-01-09 10:37:07.06	328.43	15.80	
2025-01-09 10:37:07.27	328.37	15.80	
2025-01-09 10:37:07.47	328.33	15.81	
2025-01-09 10:37:07.68	328.27	15.81	
2025-01-09 10:37:07.88	328.22	15.82	
2025-01-09 10:37:08.09	328.17	15.82	
2025-01-09 10:37:08.29	328.12	15.83	
2025-01-09 10:37:08.50	328.07	15.83	
2025-01-09 10:37:08.72	328.02	15.84	
2025-01-09 10:37:08.92	327.97	15.84	
2025-01-09 10:37:09.13	327.92	15.85	
2025-01-09 10:37:09.33	327.87	15.85	
2025-01-09 10:37:09.54	327.81	15.86	
2025-01-09 10:37:09.76	327.76	15.86	
2025-01-09 10:37:09.96	327.71	15.87	
2025-01-09 10:37:10.17	327.66	15.87	
2025-01-09 10:37:10.37	327.61	15.88	
2025-01-09 10:37:10.58	327.56	15.88	
2025-01-09 10:37:10.78	327.51	15.89	
2025-01-09 10:37:10.99	327.45	15.89	
2025-01-09 10:37:11.19	327.41	15.90	
2025-01-09 10:37:11.40	327.35	15.90	
2025-01-09 10:37:11.60	327.30	15.90	
2025-01-09 10:37:11.81	327.25	15.91	
2025-01-09 10:37:12.01	327.20	15.91	
2025-01-09 10:37:12.22	327.15	15.92	
2025-01-09 10:37:12.42	327.10	15.92	
2025-01-09 10:37:12.63	327.05	15.93	
2025-01-09 10:37:12.83	327.00	15.93	
2025-01-09 10:37:13.04	326.95	15.94	
2025-01-09 10:37:13.25	326.89	15.94	
2025-01-09 10:37:13.45	326.84	15.94	
2025-01-09 10:37:13.66	326.79	15.95	
2025-01-09 10:37:13.86	326.74	15.95	
2025-01-09 10:37:14.07	326.69	15.96	
2025-01-09 10:37:14.27	326.64	15.96	
2025-01-09 10:37:14.48	326.59	15.97	
2025-01-09 10:37:14.68	326.54	15.97	
2025-01-09 10:37:14.89	326.48	15.98	
2025-01-09 10:37:15.09	326.43	15.98	
2025-01-09 10:37:15.30	326.38	15.98	
2025-01-09 10:37:15.51	326.33	15.99	
2025-01-09 10:37:15.71	326.28	15.99	
2025-01-09 10:37:15.92	326.23	16.00	
2025-01-09 10:37:16.12	326.18	16.00	
2025-01-09 10:37:16.33	326.12	16.00	
2025-01-09 10:37:16.53	326.07	16.01	
2025-01-09 10:37:16.74	326.02	16.01	
2025-01-09 10:37:16.94	325.97	16.02	
2025-01-09 10:37:17.15	325.92	16.02	
2025-01-09 10:37:17.35	325.87	16.02	
2025-01-09 10:37:17.56	325.82	16.03	
2025-01-09 10:37:17.76	325.77	16.03	
2025-01-09 10:37:17.97	325.71	16.04	
2025-01-09 10:37:18.17	325.66	16.04	
2025-01-09 10:37:18.38	325.61	16.04	
2025-01-09 10:37:18.59	325.56	16.05	
2025-01-09 10:37:18.79	325.51	16.05	
2025-01-09 10:37:19.00	325.46	16.06	
2025-01-09 10:37:19.20	325.41	16.06	
2025-01-09 10:37:19.41	325.35	16.06	
2025-01-09 10:37:19.61	325.30	16.07	
2025-01-09 10:37:19.82	325.25	16.07	
2025-01-09 10:37:20.02	325.20	16.07	
2025-01-09 10:37:20.23	325.15	16.08	
2025-01-09 10:37:20.43	325.10	16.08	
2025-01-09 10:37:20.64	325.04	16.09	
2025-01-09 10:37:20.84	324.99	16.09	
2025-01-09 10:37:21.05	324.94	16.09	
2025-01-09 10:37:21.25	324.89	16.10	
2025-01-09 10:37:21.47	324.83	16.10	
2025-01-09 10:37:21.68	324.78	16.10	
2025-01-09 10:37:21.88	324.73	16.11	
2025-01-09 10:37:22.09	324.68	16.11	
2025-01-09 10:37:22.29	324.63	16.11	
2025-01-09 10:37:22.50	324.57	16.12	
2025-01-09 10:37:22.70	324.52	16.12	
2025-01-09 10:37:22.91	324.47	16.13	
2025-01-09 10:37:23.11	324.42	16.13	
2025-01-09 10:37:23.32	324.37	16.13	
2025-01-09 10:37:23.52	324.32	16.14	
2025-01-09 10:37:23.73	324.26	16.14	
2025-01-09 10:37:23.93	324.21	16.14	
2025-01-09 10:37:24.14	324.16	16.15	
2025-01-09 10:37:24.34	324.11	16.15	
2025-01-09 10:37:24.55	324.06	16.15	
2025-01-09 10:37:24.77	324.00	16.16	
2025-01-09 10:37:24.97	323.95	16.16	
2025-01-09 10:37:25.18	323.90	16.16	
2025-01-09 10:37:25.39	323.84	16.16	
2025-01-09 10:37:25.59	323.79	16.17	
2025-01-09 10:37:25.79	323.74	16.17	
2025-01-09 10:37:26.00	323.69	16.17	
2025-01-09 10:37:26.20	323.64	16.18	
2025-01-09 10:37:26.41	323.59	16.18	
2025-01-09 10:37:26.61	323.54	16.18	
2025-01-09 10:37:26.82	323.48	16.19	
2025-01-09 10:37:27.02	323.43	16.19	
2025-01-09 10:37:27.23	323.38	16.19	
2025-01-09 10:37:27.43	323.33	16.19	
2025-01-09 10:37:27.64	323.27	16.20	
2025-01-09 10:37:27.84	323.22	16.20	
2025-01-09 10:37:28.05	323.17	16.20	
2025-01-09 10:37:28.25	323.12	16.21	
2025-01-09 10:37:28.46	323.07	16.21	
2025-01-09 10:37:28.66	323.02	16.21	
2025-01-09 10:37:28.87	322.96	16.21	
2025-01-09 10:37:29.07	322.91	16.22	
2025-01-09 10:37:29.28	322.86	16.22	
2025-01-09 10:37:29.48	322.81	16.22	
2025-01-09 10:37:29.69	322.75	16.23	
2025-01-09 10:37:29.90	322.70	16.23	
2025-01-09 10:37:30.10	322.65	16.23	
2025-01-09 10:37:30.31	322.60	16.23	
2025-01-09 10:37:30.51	322.55	16.24	
2025-01-09 10:37:30.72	322.49	16.24	
2025-01-09 10:37:30.93	322.44	16.24	
2025-01-09 10:37:31.13	322.39	16.24	
2025-01-09 10:37:31.34	322.33	16.25	
2025-01-09 10:37:31.54	322.28	16.25	
2025-01-09 10:37:31.75	322.23	16.25	
2025-01-09 10:37:31.95	322.18	16.25	
2025-01-09 10:37:32.16	322.13	16.26	
2025-01-09 10:37:32.36	322.07	16.26	
2025-01-09 10:37:32.57	322.02	16.26	
2025-01-09 10:37:32.77	321.97	16.26	
2025-01-09 10:37:32.98	321.92	16.27	
2025-01-09 10:37:33.18	321.87	16.27	
2025-01-09 10:37:33.39	321.81	16.27	
2025-01-09 10:37:33.59	321.76	16.27	
2025-01-09 10:37:33.80	321.71	16.27	
2025-01-09 10:37:34.00	321.66	16.28	
2025-01-09 10:37:34.21	321.60	16.28	
2025-01-09 10:37:34.41	321.55	16.28	
2025-01-09 10:37:34.62	321.50	16.28	
2025-01-09 10:37:34.83	321.44	16.29	
2025-01-09 10:37:35.03	321.39	16.29	
2025-01-09 10:37:35.23	321.34	16.29	
2025-01-09 10:37:35.44	321.29	16.29	
2025-01-09 10:37:35.64	321.24	16.29	
2025-01-09 10:37:35.85	321.18	16.30	
2025-01-09 10:37:36.06	321.13	16.30	
2025-01-09 10:37:36.26	321.08	16.30	
2025-01-09 10:37:36.47	321.03	16.30	
2025-01-09 10:37:36.67	320.97	16.30	
2025-01-09 10:37:36.88	320.92	16.31	
2025-01-09 10:37:37.08	320.87	16.31	
2025-01-09 10:37:37.29	320.82	16.31	
2025-01-09 10:37:37.49	320.76	16.31	
2025-01-09 10:37:37.70	320.71	16.31	
2025-01-09 10:37:37.90	320.66	16.31	
2025-01-09 10:37:38.11	320.61	16.32	
2025-01-09 10:37:38.31	320.56	16.32	
2025-01-09 10:37:38.52	320.50	16.32	
2025-01-09 10:37:38.72	320.45	16.32	
2025-01-09 10:37:38.93	320.40	16.32	
2025-01-09 10:37:39.14	320.34	16.32	
2025-01-09 10:37:39.34	320.29	16.33	
2025-01-09 10:37:39.54	320.24	16.33	
2025-01-09 10:37:39.75	320.19	16.33	
2025-01-09 10:37:39.95	320.14	16.33	
2025-01-09 10:37:40.16	320.08	16.33	
2025-01-09 10:37:40.37	320.03	16.33	
2025-01-09 10:37:40.57	319.98	16.34	
2025-01-09 10:37:40.77	319.93	16.34	
2025-01-09 10:37:40.98	319.87	16.34	
2025-01-09 10:37:41.18	319.82	16.34	
2025-01-09 10:37:41.39	319.77	16.34	
2025-01-09 10:37:41.59	319.72	16.34	
2025-01-09 10:37:41.81	319.66	16.34	
2025-01-09 10:37:42.02	319.60	16.34	
2025-01-09 10:37:42.22	319.55	16.35	
2025-01-09 10:37:42.43	319.50	16.35	
2025-01-09 10:37:42.63	319.45	16.35	
2025-01-09 10:37:42.84	319.39	16.35	
2025-01-09 10:37:43.04	319.34	16.35	
2025-01-09 10:37:43.25	319.29	16.35	
2025-01-09 10:37:43.45	319.24	16.35	
2025-01-09 10:37:43.66	319.18	16.35	
2025-01-09 10:37:43.86	319.13	16.36	
2025-01-09 10:37:44.07	319.08	16.36	
2025-01-09 10:37:44.27	319.03	16.36	
2025-01-09 10:37:44.48	318.97	16.36	
2025-01-09 10:37:44.68	318.92	16.36	
2025-01-09 10:37:44.89	318.87	16.36	
2025-01-09 10:37:45.09	318.82	16.36	
2025-01-09 10:37:45.30	318.76	16.36	
2025-01-09 10:37:45.51	318.71	16.36	
2025-01-09 10:37:45.71	318.66	16.36	
2025-01-09 10:37:45.92	318.60	16.37	
2025-01-09 10:37:46.12	318.55	16.37	
2025-01-09 10:37:46.33	318.50	16.37	
2025-01-09 10:37:46.53	318.45	16.37	
2025-01-09 10:37:46.74	318.39	16.37	
2025-01-09 10:37:46.95	318.34	16.37	
2025-01-09 10:37:47.16	318.29	16.37	
2025-01-09 10:37:47.37	318.23	16.37	
2025-01-09 10:37:47.58	318.18	16.37	
2025-01-09 10:37:47.78	318.13	16.37	
2025-01-09 10:37:47.99	318.07	16.37	
2025-01-09 10:37:48.19	318.02	16.37	
2025-01-09 10:37:48.39	317.97	16.37	
2025-01-09 10:37:48.60	317.92	16.37	
2025-01-09 10:37:48.81	317.86	16.37	
2025-01-09 10:37:49.01	317.81	16.38	
2025-01-09 10:37:49.22	317.76	16.38	
2025-01-09 10:37:49.42	317.71	16.38	
2025-01-09 10:37:49.63	317.65	16.38	
2025-01-09 10:37:49.83	317.60	16.38	
2025-01-09 10:37:50.04	317.55	16.38	
2025-01-09 10:37:50.24	317.49	16.38	
2025-01-09 10:37:50.45	317.44	16.38	
2025-01-09 10:37:50.65	317.39	16.38	
2025-01-09 10:37:50.86	317.33	16.38	
2025-01-09 10:37:51.07	317.28	16.38	
2025-01-09 10:37:51.27	317.23	16.38	
2025-01-09 10:37:51.47	317.18	16.38	
2025-01-09 10:37:51.68	317.12	16.38	
2025-01-09 10:37:51.89	317.07	16.38	
2025-01-09 10:37:52.09	317.02	16.38	
2025-01-09 10:37:52.30	316.96	16.38	
2025-01-09 10:37:52.50	316.91	16.38	
2025-01-09 10:37:52.71	316.86	16.38	
2025-01-09 10:37:52.91	316.81	16.38	
2025-01-09 10:37:53.12	316.75	16.38	
2025-01-09 10:37:53.32	316.70	16.38	
2025-01-09 10:37:53.54	316.65	16.38	
2025-01-09 10:37:53.75	316.59	16.38	
2025-01-09 10:37:53.95	316.54	16.38	
2025-01-09 10:37:54.16	316.49	16.38	
2025-01-09 10:37:54.36	316.44	16.38	
2025-01-09 10:37:54.58	316.38	16.38	
2025-01-09 10:37:54.78	316.33	16.38	
2025-01-09 10:37:54.99	316.27	16.38	
2025-01-09 10:37:55.19	316.22	16.38	
2025-01-09 10:37:55.40	316.17	16.38	
2025-01-09 10:37:55.60	316.12	16.38	
2025-01-09 10:37:55.81	316.06	16.38	
2025-01-09 10:37:56.01	316.01	16.38	
2025-01-09 10:37:56.22	315.96	16.38	
2025-01-09 10:37:56.42	315.91	16.38	
2025-01-09 10:37:56.63	315.85	16.38	
2025-01-09 10:37:56.84	315.80	16.38	
2025-01-09 10:37:57.05	315.74	16.38	
2025-01-09 10:37:57.26	315.69	16.38	
2025-01-09 10:37:57.46	315.64	16.38	
2025-01-09 10:37:57.67	315.58	16.38	
2025-01-09 10:37:57.87	315.53	16.37	
2025-01-09 10:37:58.08	315.48	16.37	
2025-01-09 10:37:58.28	315.43	16.37	
2025-01-09 10:37:58.49	315.37	16.37	
2025-01-09 10:37:58.69	315.32	16.37	
2025-01-09 10:37:58.90	315.27	16.37	
2025-01-09 10:37:59.10	315.22	16.37	
2025-01-09 10:37:59.31	315.16	16.37	
2025-01-09 10:37:59.52	315.11	16.37	
2025-01-09 10:37:59.72	315.06	16.37	
2025-01-09 10:37:59.93	315.00	16.37	
2025-01-09 10:38:00.14	314.95	16.37	
2025-01-09 10:38:00.34	314.90	16.37	
2025-01-09 10:38:00.55	314.84	16.37	
2025-01-09 10:38:00.75	314.79	16.37	
2025-01-09 10:38:00.96	314.74	16.36	
2025-01-09 10:38:01.16	314.69	16.36	
2025-01-09 10:38:01.37	314.63	16.36	
2025-01-09 10:38:01.58	314.58	16.36	
2025-01-09 10:38:01.78	314.53	16.36	
2025-01-09 10:38:01.99	314.47	16.36	
2025-01-09 10:38:02.20	314.42	16.36	
2025-01-09 10:38:02.41	314.37	16.36	
2025-01-09 10:38:02.61	314.32	16.36	
2025-01-09 10:38:02.82	314.26	16.36	
2025-01-09 10:38:03.02	314.21	16.35	
2025-01-09 10:38:03.23	314.16	16.35	
2025-01-09 10:38:03.43	314.10	16.35	
2025-01-09 10:38:03.64	314.05	16.35	
2025-01-09 10:38:03.84	314.00	16.35	
2025-01-09 10:38:04.05	313.95	16.35	
2025-01-09 10:38:04.25	313.89	16.35	
2025-01-09 10:38:04.46	313.84	16.35	
2025-01-09 10:38:04.67	313.79	16.34	
2025-01-09 10:38:04.87	313.74	16.34	
2025-01-09 10:38:05.08	313.68	16.34	
2025-01-09 10:38:05.28	313.63	16.34	
2025-01-09 10:38:05.48	313.58	16.34	
2025-01-09 10:38:05.69	313.53	16.34	
2025-01-09 10:38:05.90	313.47	16.34	
2025-01-09 10:38:06.10	313.42	16.34	
2025-01-09 10:38:06.31	313.37	16.33	
2025-01-09 10:38:06.51	313.31	16.33	
2025-01-09 10:38:06.72	313.26	16.33	
2025-01-09 10:38:06.93	313.21	16.33	
2025-01-09 10:38:07.13	313.16	16.33	
2025-01-09 10:38:07.34	313.10	16.33	
2025-01-09 10:38:07.54	313.05	16.32	
2025-01-09 10:38:07.75	313.00	16.32	
2025-01-09 10:38:07.95	312.95	16.32	
2025-01-09 10:38:08.16	312.89	16.32	
2025-01-09 10:38:08.36	312.84	16.32	
2025-01-09 10:38:08.57	312.79	16.32	
2025-01-09 10:38:08.77	312.74	16.31	
2025-01-09 10:38:08.98	312.68	16.31	
2025-01-09 10:38:09.19	312.63	16.31	
2025-01-09 10:38:09.39	312.58	16.31	
2025-01-09 10:38:09.60	312.52	16.31	
2025-01-09 10:38:09.80	312.47	16.30	
2025-01-09 10:38:10.01	312.42	16.30	
2025-01-09 10:38:10.21	312.37	16.30	
2025-01-09 10:38:10.42	312.31	16.30	
2025-01-09 10:38:10.62	312.26	16.30	
2025-01-09 10:38:10.83	312.21	16.30	
2025-01-09 10:38:11.03	312.16	16.29	
2025-01-09 10:38:11.24	312.10	16.29	
2025-01-09 10:38:11.44	312.05	16.29	
2025-01-09 10:38:11.65	312.00	16.29	
2025-01-09 10:38:11.85	311.95	16.29	
2025-01-09 10:38:12.06	311.89	16.28	
2025-01-09 10:38:12.26	311.84	16.28	
2025-01-09 10:38:12.47	311.79	16.28	
2025-01-09 10:38:12.68	311.74	16.28	
2025-01-09 10:38:12.88	311.69	16.27	
2025-01-09 10:38:13.09	311.63	16.27	
2025-01-09 10:38:13.29	311.58	16.27	
2025-01-09 10:38:13.50	311.53	16.27	
2025-01-09 10:38:13.70	311.48	16.27	
2025-01-09 10:38:13.91	311.42	16.26	
2025-01-09 10:38:14.11	311.37	16.26	
2025-01-09 10:38:14.32	311.32	16.26	
2025-01-09 10:38:14.53	311.26	16.26	
2025-01-09 10:38:14.73	311.21	16.25	
2025-01-09 10:38:14.93	311.16	16.25	
2025-01-09 10:38:15.14	311.11	16.25	
2025-01-09 10:38:15.35	311.06	16.25	
2025-01-09 10:38:15.55	311.00	16.24	
2025-01-09 10:38:15.76	310.95	16.24	
2025-01-09 10:38:15.96	310.90	16.24	
2025-01-09 10:38:16.17	310.85	16.24	
2025-01-09 10:38:16.37	310.80	16.23	
2025-01-09 10:38:16.58	310.74	16.23	
2025-01-09 10:38:16.78	310.69	16.23	
2025-01-09 10:38:16.99	310.64	16.23	
2025-01-09 10:38:17.19	310.59	16.22	
2025-01-09 10:38:17.40	310.53	16.22	
2025-01-09 10:38:17.60	310.48	16.22	
2025-01-09 10:38:17.81	310.43	16.21	
2025-01-09 10:38:18.01	310.38	16.21	
2025-01-09 10:38:18.22	310.33	16.21	
2025-01-09 10:38:18.43	310.27	16.21	
2025-01-09 10:38:18.63	310.22	16.20	
2025-01-09 10:38:18.84	310.17	16.20	
2025-01-09 10:38:19.04	310.12	16.20	
2025-01-09 10:38:19.25	310.06	16.19	
2025-01-09 10:38:19.45	310.01	16.19	
2025-01-09 10:38:19.66	309.96	16.19	
2025-01-09 10:38:19.86	309.91	16.19	
2025-01-09 10:38:20.07	309.86	16.18	
2025-01-09 10:38:20.27	309.81	16.18	
2025-01-09 10:38:20.48	309.75	16.18	
2025-01-09 10:38:20.68	309.70	16.17	
2025-01-09 10:38:20.89	309.65	16.17	
2025-01-09 10:38:21.09	309.60	16.17	
2025-01-09 10:38:21.30	309.54	16.16	
2025-01-09 10:38:21.50	309.49	16.16	
2025-01-09 10:38:21.71	309.44	16.16	
2025-01-09 10:38:21.91	309.39	16.15	
2025-01-09 10:38:22.12	309.34	16.15	
2025-01-09 10:38:22.32	309.29	16.15	
2025-01-09 10:38:22.53	309.23	16.14	
2025-01-09 10:38:22.73	309.18	16.14	
2025-01-09 10:38:22.94	309.13	16.14	
2025-01-09 10:38:23.15	309.08	16.13	
2025-01-09 10:38:23.35	309.03	16.13	
2025-01-09 10:38:23.55	308.97	16.13	
2025-01-09 10:38:23.76	308.92	16.12	
2025-01-09 10:38:23.96	308.87	16.12	
2025-01-09 10:38:24.17	308.82	16.12	
2025-01-09 10:38:24.37	308.77	16.11	
2025-01-09 10:38:24.58	308.71	16.11	
2025-01-09 10:38:24.78	308.66	16.11	
2025-01-09 10:38:24.99	308.61	16.10	
2025-01-09 10:38:25.19	308.56	16.10	
2025-01-09 10:38:25.40	308.51	16.10	
2025-01-09 10:38:25.61	308.46	16.09	
2025-01-09 10:38:25.81	308.40	16.09	
2025-01-09 10:38:26.01	308.35	16.09	
2025-01-09 10:38:26.22	308.30	16.08	
2025-01-09 10:38:26.42	308.25	16.08	
2025-01-09 10:38:26.63	308.20	16.07	
2025-01-09 10:38:26.83	308.15	16.07	
2025-01-09 10:38:27.04	308.10	16.07	
2025-01-09 10:38:27.24	308.04	16.06	
2025-01-09 10:38:27.45	307.99	16.06	
2025-01-09 10:38:27.65	307.94	16.06	
2025-01-09 10:38:27.86	307.89	16.05	
2025-01-09 10:38:28.06	307.84	16.05	
2025-01-09 10:38:28.27	307.79	16.04	
2025-01-09 10:38:28.47	307.74	16.04	
2025-01-09 10:38:28.68	307.68	16.04	
2025-01-09 10:38:28.88	307.63	16.03	
2025-01-09 10:38:29.09	307.58	16.03	
2025-01-09 10:38:29.29	307.53	16.02	
2025-01-09 10:38:29.50	307.48	16.02	
2025-01-09 10:38:29.70	307.43	16.02	
2025-01-09 10:38:29.92	307.37	16.01	
2025-01-09 10:38:30.13	307.32	16.01	
2025-01-09 10:38:30.33	307.27	16.00	
2025-01-09 10:38:30.54	307.22	16.00	
2025-01-09 10:38:30.74	307.17	16.00	
2025-01-09 10:38:30.95	307.11	15.99	
2025-01-09 10:38:31.15	307.06	15.99	
2025-01-09 10:38:31.36	307.01	15.98	
2025-01-09 10:38:31.56	306.96	15.98	
2025-01-09 10:38:31.77	306.91	15.98	
2025-01-09 10:38:31.97	306.86	15.97	
2025-01-09 10:38:32.18	306.81	15.97	
2025-01-09 10:38:32.38	306.76	15.96	
2025-01-09 10:38:32.59	306.70	15.96	
2025-01-09 10:38:32.80	306.65	15.95	
2025-01-09 10:38:33.00	306.60	15.95	
2025-01-09 10:38:33.20	306.55	15.94	
2025-01-09 10:38:33.41	306.50	15.94	
2025-01-09 10:38:33.62	306.45	15.94	
2025-01-09 10:38:33.82	306.40	15.93	
2025-01-09 10:38:34.03	306.35	15.93	
2025-01-09 10:38:34.24	306.29	15.92	
2025-01-09 10:38:34.45	306.24	15.92	
2025-01-09 10:38:34.66	306.19	15.91	
2025-01-09 10:38:34.86	306.14	15.91	
2025-01-09 10:38:35.07	306.09	15.90	
2025-01-09 10:38:35.27	306.04	15.90	
2025-01-09 10:38:35.47	305.99	15.89	
2025-01-09 10:38:35.68	305.93	15.89	
2025-01-09 10:38:35.89	305.88	15.89	
2025-01-09 10:38:36.09	305.83	15.88	
2025-01-09 10:38:36.29	305.78	15.88	
2025-01-09 10:38:36.50	305.73	15.87	
2025-01-09 10:38:36.71	305.68	15.87	
2025-01-09 10:38:36.91	305.63	15.86	
2025-01-09 10:38:37.12	305.58	15.86	
2025-01-09 10:38:37.32	305.53	15.85	
2025-01-09 10:38:37.53	305.48	15.85	
2025-01-09 10:38:37.73	305.43	15.84	
2025-01-09 10:38:37.94	305.37	15.84	
2025-01-09 10:38:38.14	305.32	15.83	
2025-01-09 10:38:38.35	305.27	15.83	
2025-01-09 10:38:38.55	305.22	15.82	
2025-01-09 10:38:38.76	305.17	15.82	
2025-01-09 10:38:38.96	305.12	15.81	
2025-01-09 10:38:39.17	305.07	15.81	
2025-01-09 10:38:39.37	305.02	15.80	
2025-01-09 10:38:39.58	304.97	15.80	
2025-01-09 10:38:39.78	304.92	15.79	
2025-01-09 10:38:39.99	304.87	15.79	
2025-01-09 10:38:40.19	304.82	15.78	
2025-01-09 10:38:40.40	304.77	15.78	
2025-01-09 10:38:40.60	304.72	15.77	
2025-01-09 10:38:40.81	304.67	15.77	
2025-01-09 10:38:41.01	304.62	15.76	
2025-01-09 10:38:41.22	304.56	15.76	
2025-01-09 10:38:41.42	304.52	15.75	
2025-01-09 10:38:41.63	304.46	15.75	
2025-01-09 10:38:41.83	304.41	15.74	
2025-01-09 10:38:42.04	304.36	15.74	
2025-01-09 10:38:42.24	304.31	15.73	
2025-01-09 10:38:42.45	304.26	15.73	
2025-01-09 10:38:42.65	304.21	15.72	
2025-01-09 10:38:42.86	304.16	15.71	
2025-01-09 10:38:43.06	304.11	15.71	
2025-01-09 10:38:43.26	304.06	15.70	
2025-01-09 10:38:43.47	304.01	15.70	
2025-01-09 10:38:43.67	303.96	15.69	
2025-01-09 10:38:43.88	303.91	15.69	
2025-01-09 10:38:44.09	303.86	15.68	
2025-01-09 10:38:44.29	303.81	15.68	
2025-01-09 10:38:44.50	303.76	15.67	
2025-01-09 10:38:44.70	303.71	15.67	
2025-01-09 10:38:44.91	303.66	15.66	
2025-01-09 10:38:45.11	303.61	15.65	
2025-01-09 10:38:45.32	303.56	15.65	
2025-01-09 10:38:45.52	303.51	15.64	
2025-01-09 10:38:45.73	303.46	15.64	
2025-01-09 10:38:45.93	303.41	15.63	
2025-01-09 10:38:46.14	303.36	15.63	
2025-01-09 10:38:46.35	303.31	15.62	
2025-01-09 10:38:46.55	303.26	15.61	
2025-01-09 10:38:46.76	303.21	15.61	
2025-01-09 10:38:46.96	303.16	15.60	
2025-01-09 10:38:47.17	303.11	15.60	
2025-01-09 10:38:47.37	303.06	15.59	
2025-01-09 10:38:47.58	303.01	15.59	
2025-01-09 10:38:47.79	302.96	15.58	
2025-01-09 10:38:47.99	302.91	15.57	
2025-01-09 10:38:48.20	302.86	15.57	
2025-01-09 10:38:48.40	302.81	15.56	
2025-01-09 10:38:48.61	302.76	15.56	
2025-01-09 10:38:48.81	302.71	15.55	
2025-01-09 10:38:49.02	302.66	15.54	
2025-01-09 10:38:49.22	302.61	15.54	
2025-01-09 10:38:49.43	302.56	15.53	
2025-01-09 10:38:49.64	302.51	15.53	
2025-01-09 10:38:49.84	302.46	15.52	
2025-01-09 10:38:50.05	302.41	15.51	
2025-01-09 10:38:50.25	302.36	15.51	
2025-01-09 10:38:50.46	302.31	15.50	
2025-01-09 10:38:50.66	302.26	15.50	
2025-01-09 10:38:50.87	302.21	15.49	
2025-01-09 10:38:51.07	302.16	15.48	
2025-01-09 10:38:51.28	302.11	15.48	
2025-01-09 10:38:51.48	302.06	15.47	
2025-01-09 10:38:51.69	302.01	15.47	
2025-01-09 10:38:51.89	301.97	15.46	
2025-01-09 10:38:52.10	301.92	15.45	
2025-01-09 10:38:52.30	301.87	15.45	
2025-01-09 10:38:52.51	301.82	15.44	
2025-01-09 10:38:52.72	301.77	15.43	
2025-01-09 10:38:52.92	301.72	15.43	
2025-01-09 10:38:53.13	301.67	15.42	
2025-01-09 10:38:53.33	301.62	15.42	
