passes_logs/2025/01/09/SPB_Silybum_02/SPB_Silybum_02__20250109_020553_SUOMI_NPP_rec.log

#Pass ID: 20250109_020553_SUOMI NPP
#Satellite: SUOMI NPP
#Configuration: NPP
#Start time: 2025-01-09 02:05:53

#Version: 2.0.20230423
#Station: SPB_Silybum_02
#Location: 30.233357 lon 59.946436 lat
#TLE: 1 37849U 11061A   25008.15329241  .00000250  00000+0  13932-3 0  9999
#TLE: 2 37849  98.7439 309.2289 0001915  51.2946 308.8402 14.19535012683945

#Time	Az	El	Level	Level2	SNR	BER	Gain	Gain2
2025-01-09 02:05:55.74	14.25	4.11	
2025-01-09 02:05:55.95	14.24	4.12	
2025-01-09 02:05:56.15	14.22	4.13	
2025-01-09 02:05:56.35	14.21	4.14	
2025-01-09 02:05:56.56	14.19	4.16	
2025-01-09 02:05:56.76	14.18	4.17	
2025-01-09 02:05:56.97	14.17	4.18	
2025-01-09 02:05:57.17	14.15	4.19	
2025-01-09 02:05:57.38	14.14	4.21	
2025-01-09 02:05:57.58	14.12	4.22	
2025-01-09 02:05:57.79	14.11	4.23	
2025-01-09 02:05:57.99	14.10	4.24	
2025-01-09 02:05:58.20	14.08	4.26	
2025-01-09 02:05:58.40	14.07	4.27	
2025-01-09 02:05:58.61	14.05	4.28	
2025-01-09 02:05:58.81	14.04	4.29	
2025-01-09 02:05:59.02	14.03	4.31	
2025-01-09 02:05:59.22	14.01	4.32	
2025-01-09 02:05:59.43	14.00	4.33	
2025-01-09 02:05:59.63	13.98	4.34	
2025-01-09 02:05:59.84	13.97	4.36	
2025-01-09 02:06:00.04	13.95	4.37	
2025-01-09 02:06:00.24	13.94	4.38	
2025-01-09 02:06:00.45	13.93	4.39	
2025-01-09 02:06:00.65	13.91	4.41	
2025-01-09 02:06:00.86	13.90	4.42	
2025-01-09 02:06:01.06	13.88	4.43	
2025-01-09 02:06:01.27	13.87	4.44	
2025-01-09 02:06:01.47	13.85	4.46	
2025-01-09 02:06:01.68	13.84	4.47	
2025-01-09 02:06:01.89	13.82	4.48	
2025-01-09 02:06:02.09	13.81	4.49	
2025-01-09 02:06:02.29	13.80	4.51	
2025-01-09 02:06:02.50	13.78	4.52	
2025-01-09 02:06:02.70	13.77	4.53	
2025-01-09 02:06:02.91	13.75	4.54	
2025-01-09 02:06:03.11	13.74	4.56	
2025-01-09 02:06:03.32	13.72	4.57	
2025-01-09 02:06:03.52	13.71	4.58	
2025-01-09 02:06:03.73	13.69	4.59	
2025-01-09 02:06:03.93	13.68	4.61	
2025-01-09 02:06:04.14	13.67	4.62	
2025-01-09 02:06:04.34	13.65	4.63	
2025-01-09 02:06:04.54	13.64	4.64	
2025-01-09 02:06:04.75	13.62	4.66	
2025-01-09 02:06:04.96	13.61	4.67	
2025-01-09 02:06:05.16	13.59	4.68	
2025-01-09 02:06:05.37	13.58	4.70	
2025-01-09 02:06:05.57	13.56	4.71	
2025-01-09 02:06:05.78	13.55	4.72	
2025-01-09 02:06:05.98	13.53	4.73	
2025-01-09 02:06:06.19	13.52	4.75	
2025-01-09 02:06:06.40	13.50	4.76	
2025-01-09 02:06:06.60	13.49	4.77	
2025-01-09 02:06:06.81	13.47	4.78	
2025-01-09 02:06:07.02	13.46	4.80	
2025-01-09 02:06:07.22	13.45	4.81	
2025-01-09 02:06:07.44	13.43	4.82	
2025-01-09 02:06:07.64	13.42	4.84	
2025-01-09 02:06:07.85	13.40	4.85	
2025-01-09 02:06:08.05	13.39	4.86	
2025-01-09 02:06:08.26	13.37	4.87	
2025-01-09 02:06:08.46	13.36	4.89	
2025-01-09 02:06:08.67	13.34	4.90	
2025-01-09 02:06:08.87	13.33	4.91	
2025-01-09 02:06:09.08	13.31	4.93	
2025-01-09 02:06:09.29	13.30	4.94	
2025-01-09 02:06:09.49	13.28	4.95	
2025-01-09 02:06:09.69	13.27	4.96	
2025-01-09 02:06:09.90	13.25	4.98	
2025-01-09 02:06:10.10	13.24	4.99	
2025-01-09 02:06:10.31	13.22	5.00	
2025-01-09 02:06:10.52	13.21	5.01	
2025-01-09 02:06:10.72	13.19	5.03	
2025-01-09 02:06:10.92	13.18	5.04	
2025-01-09 02:06:11.13	13.16	5.05	
2025-01-09 02:06:11.34	13.15	5.07	
2025-01-09 02:06:11.54	13.13	5.08	
2025-01-09 02:06:11.74	13.12	5.09	
2025-01-09 02:06:11.95	13.10	5.10	
2025-01-09 02:06:12.15	13.09	5.12	
2025-01-09 02:06:12.35	13.07	5.13	
2025-01-09 02:06:12.56	13.06	5.14	
2025-01-09 02:06:12.76	13.04	5.15	
2025-01-09 02:06:12.97	13.03	5.17	
2025-01-09 02:06:13.17	13.01	5.18	
2025-01-09 02:06:13.38	13.00	5.19	
2025-01-09 02:06:13.58	12.98	5.21	
2025-01-09 02:06:13.79	12.97	5.22	
2025-01-09 02:06:14.01	12.95	5.23	
2025-01-09 02:06:14.21	12.93	5.25	
2025-01-09 02:06:14.42	12.92	5.26	
2025-01-09 02:06:14.62	12.90	5.27	
2025-01-09 02:06:14.83	12.89	5.28	
2025-01-09 02:06:15.03	12.87	5.30	
2025-01-09 02:06:15.24	12.86	5.31	
2025-01-09 02:06:15.44	12.84	5.32	
2025-01-09 02:06:15.65	12.83	5.34	
2025-01-09 02:06:15.85	12.81	5.35	
2025-01-09 02:06:16.06	12.80	5.36	
2025-01-09 02:06:16.26	12.78	5.37	
2025-01-09 02:06:16.47	12.77	5.39	
2025-01-09 02:06:16.67	12.75	5.40	
2025-01-09 02:06:16.88	12.73	5.41	
2025-01-09 02:06:17.08	12.72	5.43	
2025-01-09 02:06:17.29	12.70	5.44	
2025-01-09 02:06:17.49	12.69	5.45	
2025-01-09 02:06:17.70	12.67	5.46	
2025-01-09 02:06:17.90	12.66	5.48	
2025-01-09 02:06:18.11	12.64	5.49	
2025-01-09 02:06:18.31	12.63	5.50	
2025-01-09 02:06:18.51	12.61	5.52	
2025-01-09 02:06:18.72	12.60	5.53	
2025-01-09 02:06:18.93	12.58	5.54	
2025-01-09 02:06:19.13	12.56	5.55	
2025-01-09 02:06:19.35	12.55	5.57	
2025-01-09 02:06:19.55	12.53	5.58	
2025-01-09 02:06:19.76	12.52	5.59	
2025-01-09 02:06:19.96	12.50	5.61	
2025-01-09 02:06:20.17	12.49	5.62	
2025-01-09 02:06:20.37	12.47	5.63	
2025-01-09 02:06:20.58	12.45	5.65	
2025-01-09 02:06:20.79	12.44	5.66	
2025-01-09 02:06:20.99	12.42	5.67	
2025-01-09 02:06:21.20	12.41	5.69	
2025-01-09 02:06:21.40	12.39	5.70	
2025-01-09 02:06:21.61	12.37	5.71	
2025-01-09 02:06:21.81	12.36	5.72	
2025-01-09 02:06:22.02	12.34	5.74	
2025-01-09 02:06:22.22	12.33	5.75	
2025-01-09 02:06:22.43	12.31	5.76	
2025-01-09 02:06:22.63	12.30	5.78	
2025-01-09 02:06:22.84	12.28	5.79	
2025-01-09 02:06:23.04	12.26	5.80	
2025-01-09 02:06:23.25	12.25	5.82	
2025-01-09 02:06:23.45	12.23	5.83	
2025-01-09 02:06:23.66	12.22	5.84	
2025-01-09 02:06:23.86	12.20	5.85	
2025-01-09 02:06:24.07	12.18	5.87	
2025-01-09 02:06:24.27	12.17	5.88	
2025-01-09 02:06:24.48	12.15	5.89	
2025-01-09 02:06:24.68	12.14	5.91	
2025-01-09 02:06:24.89	12.12	5.92	
2025-01-09 02:06:25.09	12.11	5.93	
2025-01-09 02:06:25.30	12.09	5.95	
2025-01-09 02:06:25.50	12.07	5.96	
2025-01-09 02:06:25.72	12.06	5.97	
2025-01-09 02:06:25.92	12.04	5.99	
2025-01-09 02:06:26.13	12.02	6.00	
2025-01-09 02:06:26.33	12.01	6.01	
2025-01-09 02:06:26.54	11.99	6.03	
2025-01-09 02:06:26.74	11.98	6.04	
2025-01-09 02:06:26.95	11.96	6.05	
2025-01-09 02:06:27.15	11.94	6.06	
2025-01-09 02:06:27.36	11.93	6.08	
2025-01-09 02:06:27.56	11.91	6.09	
2025-01-09 02:06:27.77	11.89	6.10	
2025-01-09 02:06:27.97	11.88	6.12	
2025-01-09 02:06:28.17	11.86	6.13	
2025-01-09 02:06:28.38	11.85	6.14	
2025-01-09 02:06:28.59	11.83	6.16	
2025-01-09 02:06:28.79	11.81	6.17	
2025-01-09 02:06:28.99	11.80	6.18	
2025-01-09 02:06:29.20	11.78	6.20	
2025-01-09 02:06:29.41	11.76	6.21	
2025-01-09 02:06:29.61	11.75	6.22	
2025-01-09 02:06:29.82	11.73	6.24	
2025-01-09 02:06:30.04	11.71	6.25	
2025-01-09 02:06:30.24	11.70	6.26	
2025-01-09 02:06:30.45	11.68	6.28	
2025-01-09 02:06:30.65	11.67	6.29	
2025-01-09 02:06:30.85	11.65	6.30	
2025-01-09 02:06:31.06	11.63	6.32	
2025-01-09 02:06:31.26	11.62	6.33	
2025-01-09 02:06:31.47	11.60	6.34	
2025-01-09 02:06:31.67	11.58	6.35	
2025-01-09 02:06:31.88	11.57	6.37	
2025-01-09 02:06:32.08	11.55	6.38	
2025-01-09 02:06:32.29	11.53	6.39	
2025-01-09 02:06:32.49	11.52	6.41	
2025-01-09 02:06:32.70	11.50	6.42	
2025-01-09 02:06:32.90	11.48	6.43	
2025-01-09 02:06:33.11	11.47	6.45	
2025-01-09 02:06:33.31	11.45	6.46	
2025-01-09 02:06:33.52	11.43	6.47	
2025-01-09 02:06:33.72	11.42	6.49	
2025-01-09 02:06:33.93	11.40	6.50	
2025-01-09 02:06:34.13	11.38	6.51	
2025-01-09 02:06:34.34	11.37	6.53	
2025-01-09 02:06:34.54	11.35	6.54	
2025-01-09 02:06:34.75	11.33	6.55	
2025-01-09 02:06:34.97	11.32	6.57	
2025-01-09 02:06:35.17	11.30	6.58	
2025-01-09 02:06:35.38	11.28	6.59	
2025-01-09 02:06:35.58	11.27	6.61	
2025-01-09 02:06:35.78	11.25	6.62	
2025-01-09 02:06:35.99	11.23	6.63	
2025-01-09 02:06:36.20	11.22	6.65	
2025-01-09 02:06:36.40	11.20	6.66	
2025-01-09 02:06:36.61	11.18	6.67	
2025-01-09 02:06:36.81	11.17	6.69	
2025-01-09 02:06:37.02	11.15	6.70	
2025-01-09 02:06:37.22	11.13	6.71	
2025-01-09 02:06:37.42	11.11	6.73	
2025-01-09 02:06:37.63	11.10	6.74	
2025-01-09 02:06:37.83	11.08	6.75	
2025-01-09 02:06:38.04	11.06	6.77	
2025-01-09 02:06:38.24	11.05	6.78	
2025-01-09 02:06:38.45	11.03	6.79	
2025-01-09 02:06:38.65	11.01	6.81	
2025-01-09 02:06:38.86	11.00	6.82	
2025-01-09 02:06:39.06	10.98	6.83	
2025-01-09 02:06:39.27	10.96	6.85	
2025-01-09 02:06:39.48	10.94	6.86	
2025-01-09 02:06:39.68	10.93	6.87	
2025-01-09 02:06:39.88	10.91	6.89	
2025-01-09 02:06:40.09	10.89	6.90	
2025-01-09 02:06:40.30	10.88	6.91	
2025-01-09 02:06:40.50	10.86	6.93	
2025-01-09 02:06:40.71	10.84	6.94	
2025-01-09 02:06:40.91	10.82	6.95	
2025-01-09 02:06:41.12	10.81	6.97	
2025-01-09 02:06:41.33	10.79	6.98	
2025-01-09 02:06:41.53	10.77	7.00	
2025-01-09 02:06:41.74	10.75	7.01	
2025-01-09 02:06:41.94	10.74	7.02	
2025-01-09 02:06:42.15	10.72	7.04	
2025-01-09 02:06:42.35	10.70	7.05	
2025-01-09 02:06:42.56	10.68	7.06	
2025-01-09 02:06:42.76	10.67	7.08	
2025-01-09 02:06:42.97	10.65	7.09	
2025-01-09 02:06:43.17	10.63	7.10	
2025-01-09 02:06:43.38	10.62	7.12	
2025-01-09 02:06:43.58	10.60	7.13	
2025-01-09 02:06:43.79	10.58	7.14	
2025-01-09 02:06:43.99	10.56	7.16	
2025-01-09 02:06:44.20	10.55	7.17	
2025-01-09 02:06:44.41	10.53	7.18	
2025-01-09 02:06:44.61	10.51	7.20	
2025-01-09 02:06:44.82	10.49	7.21	
2025-01-09 02:06:45.02	10.48	7.22	
2025-01-09 02:06:45.22	10.46	7.24	
2025-01-09 02:06:45.43	10.44	7.25	
2025-01-09 02:06:45.64	10.42	7.27	
2025-01-09 02:06:45.84	10.41	7.28	
2025-01-09 02:06:46.05	10.39	7.29	
2025-01-09 02:06:46.25	10.37	7.31	
2025-01-09 02:06:46.45	10.35	7.32	
2025-01-09 02:06:46.66	10.33	7.33	
2025-01-09 02:06:46.87	10.32	7.35	
2025-01-09 02:06:47.07	10.30	7.36	
2025-01-09 02:06:47.27	10.28	7.37	
2025-01-09 02:06:47.48	10.26	7.39	
2025-01-09 02:06:47.69	10.25	7.40	
2025-01-09 02:06:47.89	10.23	7.41	
2025-01-09 02:06:48.09	10.21	7.43	
2025-01-09 02:06:48.30	10.19	7.44	
2025-01-09 02:06:48.51	10.17	7.45	
2025-01-09 02:06:48.71	10.16	7.47	
2025-01-09 02:06:48.92	10.14	7.48	
2025-01-09 02:06:49.12	10.12	7.50	
2025-01-09 02:06:49.32	10.10	7.51	
2025-01-09 02:06:49.53	10.09	7.52	
2025-01-09 02:06:49.73	10.07	7.54	
2025-01-09 02:06:49.94	10.05	7.55	
2025-01-09 02:06:50.14	10.03	7.56	
2025-01-09 02:06:50.36	10.01	7.58	
2025-01-09 02:06:50.56	9.99	7.59	
2025-01-09 02:06:50.77	9.98	7.60	
2025-01-09 02:06:50.97	9.96	7.62	
2025-01-09 02:06:51.18	9.94	7.63	
2025-01-09 02:06:51.38	9.92	7.65	
2025-01-09 02:06:51.59	9.90	7.66	
2025-01-09 02:06:51.79	9.89	7.67	
2025-01-09 02:06:52.00	9.87	7.69	
2025-01-09 02:06:52.20	9.85	7.70	
2025-01-09 02:06:52.41	9.83	7.71	
2025-01-09 02:06:52.61	9.81	7.73	
2025-01-09 02:06:52.82	9.79	7.74	
2025-01-09 02:06:53.02	9.78	7.75	
2025-01-09 02:06:53.23	9.76	7.77	
2025-01-09 02:06:53.43	9.74	7.78	
2025-01-09 02:06:53.64	9.72	7.80	
2025-01-09 02:06:53.84	9.70	7.81	
2025-01-09 02:06:54.05	9.69	7.82	
2025-01-09 02:06:54.26	9.67	7.84	
2025-01-09 02:06:54.46	9.65	7.85	
2025-01-09 02:06:54.66	9.63	7.86	
2025-01-09 02:06:54.87	9.61	7.88	
2025-01-09 02:06:55.08	9.59	7.89	
2025-01-09 02:06:55.28	9.57	7.91	
2025-01-09 02:06:55.49	9.56	7.92	
2025-01-09 02:06:55.69	9.54	7.93	
2025-01-09 02:06:55.90	9.52	7.95	
2025-01-09 02:06:56.10	9.50	7.96	
2025-01-09 02:06:56.31	9.48	7.97	
2025-01-09 02:06:56.52	9.46	7.99	
2025-01-09 02:06:56.72	9.45	8.00	
2025-01-09 02:06:56.93	9.43	8.02	
2025-01-09 02:06:57.13	9.41	8.03	
2025-01-09 02:06:57.34	9.39	8.04	
2025-01-09 02:06:57.54	9.37	8.06	
2025-01-09 02:06:57.76	9.35	8.07	
2025-01-09 02:06:57.96	9.33	8.09	
2025-01-09 02:06:58.17	9.31	8.10	
2025-01-09 02:06:58.38	9.29	8.11	
2025-01-09 02:06:58.58	9.28	8.13	
2025-01-09 02:06:58.78	9.26	8.14	
2025-01-09 02:06:58.99	9.24	8.16	
2025-01-09 02:06:59.19	9.22	8.17	
2025-01-09 02:06:59.40	9.20	8.18	
2025-01-09 02:06:59.61	9.18	8.20	
2025-01-09 02:06:59.81	9.16	8.21	
2025-01-09 02:07:00.01	9.14	8.22	
2025-01-09 02:07:00.22	9.13	8.24	
2025-01-09 02:07:00.42	9.11	8.25	
2025-01-09 02:07:00.63	9.09	8.27	
2025-01-09 02:07:00.83	9.07	8.28	
2025-01-09 02:07:01.04	9.05	8.29	
2025-01-09 02:07:01.24	9.03	8.31	
2025-01-09 02:07:01.45	9.01	8.32	
2025-01-09 02:07:01.65	8.99	8.33	
2025-01-09 02:07:01.86	8.97	8.35	
2025-01-09 02:07:02.06	8.96	8.36	
2025-01-09 02:07:02.27	8.94	8.38	
2025-01-09 02:07:02.47	8.92	8.39	
2025-01-09 02:07:02.68	8.90	8.40	
2025-01-09 02:07:02.88	8.88	8.42	
2025-01-09 02:07:03.09	8.86	8.43	
2025-01-09 02:07:03.29	8.84	8.45	
2025-01-09 02:07:03.50	8.82	8.46	
2025-01-09 02:07:03.70	8.80	8.47	
2025-01-09 02:07:03.91	8.78	8.49	
2025-01-09 02:07:04.11	8.76	8.50	
2025-01-09 02:07:04.32	8.74	8.52	
2025-01-09 02:07:04.52	8.73	8.53	
2025-01-09 02:07:04.73	8.71	8.54	
2025-01-09 02:07:04.93	8.69	8.56	
2025-01-09 02:07:05.14	8.67	8.57	
2025-01-09 02:07:05.34	8.65	8.58	
2025-01-09 02:07:05.55	8.63	8.60	
2025-01-09 02:07:05.75	8.61	8.61	
2025-01-09 02:07:05.96	8.59	8.63	
2025-01-09 02:07:06.16	8.57	8.64	
2025-01-09 02:07:06.36	8.55	8.65	
2025-01-09 02:07:06.57	8.53	8.67	
2025-01-09 02:07:06.78	8.51	8.68	
2025-01-09 02:07:06.98	8.49	8.70	
2025-01-09 02:07:07.19	8.47	8.71	
2025-01-09 02:07:07.39	8.45	8.72	
2025-01-09 02:07:07.59	8.43	8.74	
2025-01-09 02:07:07.80	8.41	8.75	
2025-01-09 02:07:08.00	8.40	8.77	
2025-01-09 02:07:08.21	8.38	8.78	
2025-01-09 02:07:08.41	8.36	8.79	
2025-01-09 02:07:08.62	8.34	8.81	
2025-01-09 02:07:08.82	8.32	8.82	
2025-01-09 02:07:09.03	8.30	8.84	
2025-01-09 02:07:09.23	8.28	8.85	
2025-01-09 02:07:09.44	8.26	8.86	
2025-01-09 02:07:09.64	8.24	8.88	
2025-01-09 02:07:09.85	8.22	8.89	
2025-01-09 02:07:10.05	8.20	8.91	
2025-01-09 02:07:10.26	8.18	8.92	
2025-01-09 02:07:10.46	8.16	8.93	
2025-01-09 02:07:10.67	8.14	8.95	
2025-01-09 02:07:10.87	8.12	8.96	
2025-01-09 02:07:11.08	8.10	8.98	
2025-01-09 02:07:11.28	8.08	8.99	
2025-01-09 02:07:11.49	8.06	9.01	
2025-01-09 02:07:11.69	8.04	9.02	
2025-01-09 02:07:11.90	8.02	9.03	
2025-01-09 02:07:12.10	8.00	9.05	
2025-01-09 02:07:12.31	7.98	9.06	
2025-01-09 02:07:12.51	7.96	9.08	
2025-01-09 02:07:12.71	7.94	9.09	
2025-01-09 02:07:12.92	7.92	9.10	
2025-01-09 02:07:13.13	7.90	9.12	
2025-01-09 02:07:13.33	7.88	9.13	
2025-01-09 02:07:13.54	7.86	9.15	
2025-01-09 02:07:13.74	7.84	9.16	
2025-01-09 02:07:13.95	7.82	9.17	
2025-01-09 02:07:14.15	7.80	9.19	
2025-01-09 02:07:14.36	7.78	9.20	
2025-01-09 02:07:14.57	7.76	9.22	
2025-01-09 02:07:14.77	7.74	9.23	
2025-01-09 02:07:14.97	7.72	9.25	
2025-01-09 02:07:15.18	7.70	9.26	
2025-01-09 02:07:15.38	7.68	9.27	
2025-01-09 02:07:15.59	7.66	9.29	
2025-01-09 02:07:15.79	7.64	9.30	
2025-01-09 02:07:16.00	7.62	9.32	
2025-01-09 02:07:16.20	7.60	9.33	
2025-01-09 02:07:16.41	7.57	9.34	
2025-01-09 02:07:16.62	7.55	9.36	
2025-01-09 02:07:16.82	7.53	9.37	
2025-01-09 02:07:17.02	7.51	9.39	
2025-01-09 02:07:17.23	7.49	9.40	
2025-01-09 02:07:17.44	7.47	9.42	
2025-01-09 02:07:17.64	7.45	9.43	
2025-01-09 02:07:17.85	7.43	9.44	
2025-01-09 02:07:18.05	7.41	9.46	
2025-01-09 02:07:18.26	7.39	9.47	
2025-01-09 02:07:18.46	7.37	9.49	
2025-01-09 02:07:18.67	7.35	9.50	
2025-01-09 02:07:18.87	7.33	9.52	
2025-01-09 02:07:19.08	7.31	9.53	
2025-01-09 02:07:19.28	7.29	9.54	
2025-01-09 02:07:19.49	7.26	9.56	
2025-01-09 02:07:19.69	7.24	9.57	
2025-01-09 02:07:19.89	7.22	9.59	
2025-01-09 02:07:20.10	7.20	9.60	
2025-01-09 02:07:20.31	7.18	9.62	
2025-01-09 02:07:20.51	7.16	9.63	
2025-01-09 02:07:20.73	7.14	9.65	
2025-01-09 02:07:20.93	7.12	9.66	
2025-01-09 02:07:21.14	7.10	9.67	
2025-01-09 02:07:21.34	7.08	9.69	
2025-01-09 02:07:21.55	7.06	9.70	
2025-01-09 02:07:21.75	7.04	9.72	
2025-01-09 02:07:21.96	7.01	9.73	
2025-01-09 02:07:22.16	6.99	9.74	
2025-01-09 02:07:22.36	6.97	9.76	
2025-01-09 02:07:22.57	6.95	9.77	
2025-01-09 02:07:22.77	6.93	9.79	
2025-01-09 02:07:22.98	6.91	9.80	
2025-01-09 02:07:23.19	6.89	9.82	
2025-01-09 02:07:23.39	6.87	9.83	
2025-01-09 02:07:23.59	6.85	9.84	
2025-01-09 02:07:23.80	6.82	9.86	
2025-01-09 02:07:24.01	6.80	9.87	
2025-01-09 02:07:24.21	6.78	9.89	
2025-01-09 02:07:24.42	6.76	9.90	
2025-01-09 02:07:24.62	6.74	9.92	
2025-01-09 02:07:24.83	6.72	9.93	
2025-01-09 02:07:25.03	6.70	9.95	
2025-01-09 02:07:25.24	6.67	9.96	
2025-01-09 02:07:25.44	6.65	9.97	
2025-01-09 02:07:25.66	6.63	9.99	
2025-01-09 02:07:25.86	6.61	10.00	
2025-01-09 02:07:26.07	6.59	10.02	
2025-01-09 02:07:26.27	6.57	10.03	
2025-01-09 02:07:26.48	6.55	10.05	
2025-01-09 02:07:26.68	6.52	10.06	
2025-01-09 02:07:26.88	6.50	10.08	
2025-01-09 02:07:27.09	6.48	10.09	
2025-01-09 02:07:27.29	6.46	10.10	
2025-01-09 02:07:27.50	6.44	10.12	
2025-01-09 02:07:27.70	6.42	10.13	
2025-01-09 02:07:27.91	6.40	10.15	
2025-01-09 02:07:28.11	6.37	10.16	
2025-01-09 02:07:28.32	6.35	10.18	
2025-01-09 02:07:28.52	6.33	10.19	
2025-01-09 02:07:28.73	6.31	10.21	
2025-01-09 02:07:28.93	6.29	10.22	
2025-01-09 02:07:29.14	6.26	10.24	
2025-01-09 02:07:29.35	6.24	10.25	
2025-01-09 02:07:29.55	6.22	10.26	
2025-01-09 02:07:29.75	6.20	10.28	
2025-01-09 02:07:29.96	6.18	10.29	
2025-01-09 02:07:30.16	6.16	10.31	
2025-01-09 02:07:30.37	6.13	10.32	
2025-01-09 02:07:30.57	6.11	10.34	
2025-01-09 02:07:30.78	6.09	10.35	
2025-01-09 02:07:30.99	6.07	10.37	
2025-01-09 02:07:31.19	6.05	10.38	
2025-01-09 02:07:31.40	6.02	10.39	
2025-01-09 02:07:31.60	6.00	10.41	
2025-01-09 02:07:31.81	5.98	10.42	
2025-01-09 02:07:32.01	5.96	10.44	
2025-01-09 02:07:32.22	5.94	10.45	
2025-01-09 02:07:32.43	5.91	10.47	
2025-01-09 02:07:32.64	5.89	10.48	
2025-01-09 02:07:32.85	5.87	10.50	
2025-01-09 02:07:33.05	5.85	10.51	
2025-01-09 02:07:33.26	5.82	10.53	
2025-01-09 02:07:33.46	5.80	10.54	
2025-01-09 02:07:33.67	5.78	10.56	
2025-01-09 02:07:33.87	5.76	10.57	
2025-01-09 02:07:34.09	5.73	10.59	
2025-01-09 02:07:34.30	5.71	10.60	
2025-01-09 02:07:34.50	5.69	10.61	
2025-01-09 02:07:34.71	5.67	10.63	
2025-01-09 02:07:34.91	5.64	10.64	
2025-01-09 02:07:35.12	5.62	10.66	
2025-01-09 02:07:35.32	5.60	10.67	
2025-01-09 02:07:35.52	5.58	10.69	
2025-01-09 02:07:35.73	5.55	10.70	
2025-01-09 02:07:35.94	5.53	10.72	
2025-01-09 02:07:36.14	5.51	10.73	
2025-01-09 02:07:36.34	5.49	10.75	
2025-01-09 02:07:36.55	5.46	10.76	
2025-01-09 02:07:36.75	5.44	10.78	
2025-01-09 02:07:36.96	5.42	10.79	
2025-01-09 02:07:37.17	5.40	10.81	
2025-01-09 02:07:37.37	5.37	10.82	
2025-01-09 02:07:37.57	5.35	10.83	
2025-01-09 02:07:37.78	5.33	10.85	
2025-01-09 02:07:37.98	5.31	10.86	
2025-01-09 02:07:38.19	5.28	10.88	
2025-01-09 02:07:38.39	5.26	10.89	
2025-01-09 02:07:38.60	5.24	10.91	
2025-01-09 02:07:38.81	5.21	10.92	
2025-01-09 02:07:39.01	5.19	10.94	
2025-01-09 02:07:39.22	5.17	10.95	
2025-01-09 02:07:39.42	5.15	10.97	
2025-01-09 02:07:39.63	5.12	10.98	
2025-01-09 02:07:39.83	5.10	11.00	
2025-01-09 02:07:40.04	5.08	11.01	
2025-01-09 02:07:40.25	5.05	11.03	
2025-01-09 02:07:40.46	5.03	11.04	
2025-01-09 02:07:40.67	5.01	11.06	
2025-01-09 02:07:40.87	4.98	11.07	
2025-01-09 02:07:41.08	4.96	11.09	
2025-01-09 02:07:41.28	4.94	11.10	
2025-01-09 02:07:41.49	4.91	11.11	
2025-01-09 02:07:41.69	4.89	11.13	
2025-01-09 02:07:41.90	4.87	11.14	
2025-01-09 02:07:42.10	4.84	11.16	
2025-01-09 02:07:42.31	4.82	11.17	
2025-01-09 02:07:42.51	4.80	11.19	
2025-01-09 02:07:42.72	4.77	11.20	
2025-01-09 02:07:42.92	4.75	11.22	
2025-01-09 02:07:43.13	4.73	11.23	
2025-01-09 02:07:43.33	4.70	11.25	
2025-01-09 02:07:43.54	4.68	11.26	
2025-01-09 02:07:43.75	4.66	11.28	
2025-01-09 02:07:43.96	4.63	11.29	
2025-01-09 02:07:44.16	4.61	11.31	
2025-01-09 02:07:44.37	4.59	11.32	
2025-01-09 02:07:44.58	4.56	11.34	
2025-01-09 02:07:44.78	4.54	11.35	
2025-01-09 02:07:44.99	4.51	11.37	
2025-01-09 02:07:45.19	4.49	11.38	
2025-01-09 02:07:45.40	4.47	11.40	
2025-01-09 02:07:45.60	4.44	11.41	
2025-01-09 02:07:45.80	4.42	11.43	
2025-01-09 02:07:46.01	4.40	11.44	
2025-01-09 02:07:46.22	4.37	11.46	
2025-01-09 02:07:46.42	4.35	11.47	
2025-01-09 02:07:46.63	4.32	11.49	
2025-01-09 02:07:46.83	4.30	11.50	
2025-01-09 02:07:47.04	4.28	11.52	
2025-01-09 02:07:47.24	4.25	11.53	
2025-01-09 02:07:47.45	4.23	11.54	
2025-01-09 02:07:47.65	4.21	11.56	
2025-01-09 02:07:47.86	4.18	11.57	
2025-01-09 02:07:48.06	4.16	11.59	
2025-01-09 02:07:48.27	4.13	11.60	
2025-01-09 02:07:48.47	4.11	11.62	
2025-01-09 02:07:48.68	4.09	11.63	
2025-01-09 02:07:48.88	4.06	11.65	
2025-01-09 02:07:49.09	4.04	11.66	
2025-01-09 02:07:49.29	4.01	11.68	
2025-01-09 02:07:49.50	3.99	11.69	
2025-01-09 02:07:49.70	3.97	11.71	
2025-01-09 02:07:49.91	3.94	11.72	
2025-01-09 02:07:50.11	3.92	11.74	
2025-01-09 02:07:50.32	3.89	11.75	
2025-01-09 02:07:50.52	3.87	11.77	
2025-01-09 02:07:50.73	3.84	11.78	
2025-01-09 02:07:50.93	3.82	11.80	
2025-01-09 02:07:51.14	3.80	11.81	
2025-01-09 02:07:51.34	3.77	11.83	
2025-01-09 02:07:51.55	3.75	11.84	
2025-01-09 02:07:51.75	3.72	11.86	
2025-01-09 02:07:51.96	3.70	11.87	
2025-01-09 02:07:52.16	3.67	11.89	
2025-01-09 02:07:52.37	3.65	11.90	
2025-01-09 02:07:52.57	3.63	11.92	
2025-01-09 02:07:52.78	3.60	11.93	
2025-01-09 02:07:52.98	3.58	11.95	
2025-01-09 02:07:53.19	3.55	11.96	
2025-01-09 02:07:53.39	3.53	11.98	
2025-01-09 02:07:53.60	3.50	11.99	
2025-01-09 02:07:53.80	3.48	12.01	
2025-01-09 02:07:54.01	3.45	12.02	
2025-01-09 02:07:54.21	3.43	12.04	
2025-01-09 02:07:54.42	3.40	12.05	
2025-01-09 02:07:54.62	3.38	12.07	
2025-01-09 02:07:54.83	3.35	12.08	
2025-01-09 02:07:55.03	3.33	12.10	
2025-01-09 02:07:55.24	3.30	12.11	
2025-01-09 02:07:55.44	3.28	12.13	
2025-01-09 02:07:55.65	3.25	12.14	
2025-01-09 02:07:55.85	3.23	12.16	
2025-01-09 02:07:56.06	3.20	12.17	
2025-01-09 02:07:56.27	3.18	12.19	
2025-01-09 02:07:56.47	3.16	12.20	
2025-01-09 02:07:56.67	3.13	12.22	
2025-01-09 02:07:56.88	3.11	12.23	
2025-01-09 02:07:57.09	3.08	12.25	
2025-01-09 02:07:57.29	3.05	12.26	
2025-01-09 02:07:57.50	3.03	12.28	
2025-01-09 02:07:57.70	3.00	12.29	
2025-01-09 02:07:57.91	2.98	12.31	
2025-01-09 02:07:58.11	2.95	12.32	
2025-01-09 02:07:58.32	2.93	12.34	
2025-01-09 02:07:58.52	2.90	12.35	
2025-01-09 02:07:58.73	2.88	12.37	
2025-01-09 02:07:58.93	2.85	12.38	
2025-01-09 02:07:59.14	2.83	12.40	
2025-01-09 02:07:59.34	2.80	12.41	
2025-01-09 02:07:59.55	2.78	12.43	
2025-01-09 02:07:59.75	2.75	12.44	
2025-01-09 02:07:59.95	2.73	12.46	
2025-01-09 02:08:00.16	2.70	12.47	
2025-01-09 02:08:00.37	2.67	12.49	
2025-01-09 02:08:00.57	2.65	12.50	
2025-01-09 02:08:00.79	2.62	12.52	
2025-01-09 02:08:00.99	2.60	12.53	
2025-01-09 02:08:01.20	2.57	12.55	
2025-01-09 02:08:01.40	2.55	12.56	
2025-01-09 02:08:01.61	2.52	12.58	
2025-01-09 02:08:01.82	2.49	12.60	
2025-01-09 02:08:02.02	2.47	12.61	
2025-01-09 02:08:02.22	2.44	12.62	
2025-01-09 02:08:02.43	2.42	12.64	
2025-01-09 02:08:02.64	2.39	12.66	
2025-01-09 02:08:02.84	2.37	12.67	
2025-01-09 02:08:03.04	2.34	12.69	
2025-01-09 02:08:03.25	2.31	12.70	
2025-01-09 02:08:03.45	2.29	12.72	
2025-01-09 02:08:03.66	2.26	12.73	
2025-01-09 02:08:03.86	2.24	12.75	
2025-01-09 02:08:04.07	2.21	12.76	
2025-01-09 02:08:04.27	2.19	12.78	
2025-01-09 02:08:04.48	2.16	12.79	
2025-01-09 02:08:04.69	2.13	12.81	
2025-01-09 02:08:04.89	2.11	12.82	
2025-01-09 02:08:05.09	2.08	12.84	
2025-01-09 02:08:05.30	2.05	12.85	
2025-01-09 02:08:05.50	2.03	12.87	
2025-01-09 02:08:05.71	2.00	12.88	
2025-01-09 02:08:05.91	1.98	12.90	
2025-01-09 02:08:06.13	1.95	12.91	
2025-01-09 02:08:06.35	1.92	12.93	
2025-01-09 02:08:06.55	1.89	12.95	
2025-01-09 02:08:06.76	1.87	12.96	
2025-01-09 02:08:06.96	1.84	12.98	
2025-01-09 02:08:07.17	1.81	12.99	
2025-01-09 02:08:07.37	1.79	13.01	
2025-01-09 02:08:07.58	1.76	13.02	
2025-01-09 02:08:07.78	1.74	13.04	
2025-01-09 02:08:07.99	1.71	13.05	
2025-01-09 02:08:08.19	1.68	13.07	
2025-01-09 02:08:08.40	1.66	13.08	
2025-01-09 02:08:08.60	1.63	13.10	
2025-01-09 02:08:08.81	1.60	13.11	
2025-01-09 02:08:09.01	1.58	13.13	
2025-01-09 02:08:09.22	1.55	13.14	
2025-01-09 02:08:09.42	1.52	13.16	
2025-01-09 02:08:09.63	1.50	13.17	
2025-01-09 02:08:09.83	1.47	13.19	
2025-01-09 02:08:10.04	1.44	13.20	
2025-01-09 02:08:10.24	1.42	13.22	
2025-01-09 02:08:10.46	1.39	13.24	
2025-01-09 02:08:10.67	1.36	13.25	
2025-01-09 02:08:10.87	1.33	13.27	
2025-01-09 02:08:11.08	1.31	13.28	
2025-01-09 02:08:11.28	1.28	13.30	
2025-01-09 02:08:11.50	1.25	13.31	
2025-01-09 02:08:11.70	1.22	13.33	
2025-01-09 02:08:11.91	1.20	13.34	
2025-01-09 02:08:12.11	1.17	13.36	
2025-01-09 02:08:12.32	1.14	13.37	
2025-01-09 02:08:12.52	1.12	13.39	
2025-01-09 02:08:12.72	1.09	13.40	
2025-01-09 02:08:12.93	1.06	13.42	
2025-01-09 02:08:13.14	1.03	13.44	
2025-01-09 02:08:13.34	1.01	13.45	
2025-01-09 02:08:13.55	0.98	13.47	
2025-01-09 02:08:13.75	0.95	13.48	
2025-01-09 02:08:13.95	0.93	13.50	
2025-01-09 02:08:14.16	0.90	13.51	
2025-01-09 02:08:14.37	0.87	13.53	
2025-01-09 02:08:14.57	0.84	13.54	
2025-01-09 02:08:14.77	0.82	13.56	
2025-01-09 02:08:14.98	0.79	13.57	
2025-01-09 02:08:15.18	0.76	13.59	
2025-01-09 02:08:15.39	0.73	13.60	
2025-01-09 02:08:15.60	0.70	13.62	
2025-01-09 02:08:15.80	0.68	13.63	
2025-01-09 02:08:16.00	0.65	13.65	
2025-01-09 02:08:16.21	0.62	13.67	
2025-01-09 02:08:16.41	0.60	13.68	
2025-01-09 02:08:16.62	0.57	13.70	
2025-01-09 02:08:16.82	0.54	13.71	
2025-01-09 02:08:17.03	0.51	13.73	
2025-01-09 02:08:17.23	0.48	13.74	
2025-01-09 02:08:17.44	0.46	13.76	
2025-01-09 02:08:17.64	0.43	13.77	
2025-01-09 02:08:17.84	0.40	13.79	
2025-01-09 02:08:18.05	0.37	13.80	
2025-01-09 02:08:18.25	0.35	13.82	
2025-01-09 02:08:18.46	0.32	13.83	
2025-01-09 02:08:18.67	0.29	13.85	
2025-01-09 02:08:18.87	0.26	13.86	
2025-01-09 02:08:19.07	0.23	13.88	
2025-01-09 02:08:19.28	0.21	13.90	
2025-01-09 02:08:19.49	0.18	13.91	
2025-01-09 02:08:19.69	0.15	13.93	
2025-01-09 02:08:19.90	0.12	13.94	
2025-01-09 02:08:20.11	0.09	13.96	
2025-01-09 02:08:20.32	0.06	13.97	
2025-01-09 02:08:20.52	0.03	13.99	
2025-01-09 02:08:20.73	0.01	14.00	
2025-01-09 02:08:20.93	359.98	14.02	
2025-01-09 02:08:21.15	359.95	14.04	
2025-01-09 02:08:21.36	359.92	14.05	
2025-01-09 02:08:21.56	359.89	14.07	
2025-01-09 02:08:21.77	359.86	14.08	
2025-01-09 02:08:21.97	359.83	14.10	
2025-01-09 02:08:22.19	359.80	14.11	
2025-01-09 02:08:22.40	359.77	14.13	
2025-01-09 02:08:22.60	359.75	14.15	
2025-01-09 02:08:22.81	359.72	14.16	
2025-01-09 02:08:23.01	359.69	14.18	
2025-01-09 02:08:23.22	359.66	14.19	
2025-01-09 02:08:23.42	359.63	14.21	
2025-01-09 02:08:23.63	359.60	14.22	
2025-01-09 02:08:23.83	359.57	14.24	
2025-01-09 02:08:24.04	359.54	14.25	
2025-01-09 02:08:24.24	359.52	14.27	
2025-01-09 02:08:24.45	359.49	14.28	
2025-01-09 02:08:24.65	359.46	14.30	
2025-01-09 02:08:24.85	359.43	14.31	
2025-01-09 02:08:25.06	359.40	14.33	
2025-01-09 02:08:25.26	359.37	14.35	
2025-01-09 02:08:25.47	359.34	14.36	
2025-01-09 02:08:25.67	359.31	14.38	
2025-01-09 02:08:25.88	359.28	14.39	
2025-01-09 02:08:26.09	359.25	14.41	
2025-01-09 02:08:26.29	359.23	14.42	
2025-01-09 02:08:26.49	359.20	14.44	
2025-01-09 02:08:26.70	359.17	14.45	
2025-01-09 02:08:26.90	359.14	14.47	
2025-01-09 02:08:27.11	359.11	14.49	
2025-01-09 02:08:27.32	359.08	14.50	
2025-01-09 02:08:27.53	359.05	14.52	
2025-01-09 02:08:27.74	359.02	14.53	
2025-01-09 02:08:27.94	358.99	14.55	
2025-01-09 02:08:28.15	358.96	14.56	
2025-01-09 02:08:28.35	358.93	14.58	
2025-01-09 02:08:28.56	358.90	14.60	
2025-01-09 02:08:28.76	358.87	14.61	
2025-01-09 02:08:28.97	358.84	14.63	
2025-01-09 02:08:29.17	358.81	14.64	
2025-01-09 02:08:29.38	358.78	14.66	
2025-01-09 02:08:29.58	358.75	14.67	
2025-01-09 02:08:29.79	358.72	14.69	
2025-01-09 02:08:29.99	358.70	14.70	
2025-01-09 02:08:30.20	358.66	14.72	
2025-01-09 02:08:30.40	358.64	14.73	
2025-01-09 02:08:30.61	358.61	14.75	
2025-01-09 02:08:30.81	358.58	14.77	
2025-01-09 02:08:31.02	358.55	14.78	
2025-01-09 02:08:31.22	358.52	14.80	
2025-01-09 02:08:31.43	358.49	14.81	
2025-01-09 02:08:31.64	358.45	14.83	
2025-01-09 02:08:31.85	358.42	14.84	
2025-01-09 02:08:32.06	358.39	14.86	
2025-01-09 02:08:32.26	358.36	14.88	
2025-01-09 02:08:32.47	358.33	14.89	
2025-01-09 02:08:32.67	358.30	14.91	
2025-01-09 02:08:32.88	358.27	14.92	
2025-01-09 02:08:33.08	358.24	14.94	
2025-01-09 02:08:33.29	358.21	14.95	
2025-01-09 02:08:33.49	358.18	14.97	
2025-01-09 02:08:33.70	358.15	14.98	
2025-01-09 02:08:33.90	358.12	15.00	
2025-01-09 02:08:34.11	358.09	15.02	
2025-01-09 02:08:34.31	358.06	15.03	
2025-01-09 02:08:34.52	358.03	15.05	
2025-01-09 02:08:34.72	358.00	15.06	
2025-01-09 02:08:34.94	357.97	15.08	
2025-01-09 02:08:35.14	357.94	15.09	
2025-01-09 02:08:35.35	357.91	15.11	
2025-01-09 02:08:35.55	357.88	15.13	
2025-01-09 02:08:35.76	357.85	15.14	
2025-01-09 02:08:35.96	357.82	15.16	
2025-01-09 02:08:36.17	357.78	15.17	
2025-01-09 02:08:36.37	357.75	15.19	
2025-01-09 02:08:36.58	357.72	15.20	
2025-01-09 02:08:36.78	357.69	15.22	
2025-01-09 02:08:36.99	357.66	15.23	
2025-01-09 02:08:37.19	357.63	15.25	
2025-01-09 02:08:37.40	357.60	15.27	
2025-01-09 02:08:37.60	357.57	15.28	
2025-01-09 02:08:37.81	357.54	15.30	
2025-01-09 02:08:38.01	357.51	15.31	
2025-01-09 02:08:38.22	357.48	15.33	
2025-01-09 02:08:38.42	357.45	15.34	
2025-01-09 02:08:38.63	357.41	15.36	
2025-01-09 02:08:38.83	357.38	15.37	
2025-01-09 02:08:39.04	357.35	15.39	
2025-01-09 02:08:39.24	357.32	15.41	
2025-01-09 02:08:39.45	357.29	15.42	
2025-01-09 02:08:39.65	357.26	15.44	
2025-01-09 02:08:39.86	357.23	15.45	
2025-01-09 02:08:40.06	357.20	15.47	
2025-01-09 02:08:40.26	357.17	15.48	
2025-01-09 02:08:40.47	357.13	15.50	
2025-01-09 02:08:40.67	357.10	15.51	
2025-01-09 02:08:40.88	357.07	15.53	
2025-01-09 02:08:41.08	357.04	15.55	
2025-01-09 02:08:41.28	357.01	15.56	
2025-01-09 02:08:41.49	356.98	15.58	
2025-01-09 02:08:41.70	356.94	15.59	
2025-01-09 02:08:41.90	356.91	15.61	
2025-01-09 02:08:42.11	356.88	15.62	
2025-01-09 02:08:42.31	356.85	15.64	
2025-01-09 02:08:42.52	356.82	15.66	
2025-01-09 02:08:42.72	356.79	15.67	
2025-01-09 02:08:42.93	356.75	15.69	
2025-01-09 02:08:43.14	356.72	15.70	
2025-01-09 02:08:43.34	356.69	15.72	
2025-01-09 02:08:43.54	356.66	15.73	
2025-01-09 02:08:43.75	356.63	15.75	
2025-01-09 02:08:43.95	356.60	15.76	
2025-01-09 02:08:44.16	356.56	15.78	
2025-01-09 02:08:44.36	356.53	15.80	
2025-01-09 02:08:44.57	356.50	15.81	
2025-01-09 02:08:44.77	356.47	15.83	
2025-01-09 02:08:44.98	356.44	15.84	
2025-01-09 02:08:45.18	356.40	15.86	
2025-01-09 02:08:45.39	356.37	15.87	
2025-01-09 02:08:45.59	356.34	15.89	
2025-01-09 02:08:45.80	356.31	15.91	
2025-01-09 02:08:46.00	356.27	15.92	
2025-01-09 02:08:46.21	356.24	15.94	
2025-01-09 02:08:46.41	356.21	15.95	
2025-01-09 02:08:46.62	356.18	15.97	
2025-01-09 02:08:46.82	356.15	15.98	
2025-01-09 02:08:47.03	356.11	16.00	
2025-01-09 02:08:47.23	356.08	16.01	
2025-01-09 02:08:47.44	356.05	16.03	
2025-01-09 02:08:47.64	356.02	16.05	
2025-01-09 02:08:47.85	355.98	16.06	
2025-01-09 02:08:48.05	355.95	16.08	
2025-01-09 02:08:48.26	355.92	16.09	
2025-01-09 02:08:48.46	355.88	16.11	
2025-01-09 02:08:48.67	355.85	16.12	
2025-01-09 02:08:48.87	355.82	16.14	
2025-01-09 02:08:49.08	355.79	16.16	
2025-01-09 02:08:49.28	355.75	16.17	
2025-01-09 02:08:49.49	355.72	16.19	
2025-01-09 02:08:49.69	355.69	16.20	
2025-01-09 02:08:49.90	355.65	16.22	
2025-01-09 02:08:50.10	355.62	16.23	
2025-01-09 02:08:50.31	355.59	16.25	
2025-01-09 02:08:50.52	355.55	16.27	
2025-01-09 02:08:50.72	355.52	16.28	
2025-01-09 02:08:50.93	355.49	16.30	
2025-01-09 02:08:51.13	355.46	16.31	
2025-01-09 02:08:51.33	355.42	16.33	
2025-01-09 02:08:51.54	355.39	16.34	
2025-01-09 02:08:51.75	355.36	16.36	
2025-01-09 02:08:51.95	355.32	16.37	
2025-01-09 02:08:52.16	355.29	16.39	
2025-01-09 02:08:52.36	355.26	16.41	
2025-01-09 02:08:52.57	355.22	16.42	
2025-01-09 02:08:52.77	355.19	16.44	
2025-01-09 02:08:52.98	355.15	16.45	
2025-01-09 02:08:53.18	355.12	16.47	
2025-01-09 02:08:53.39	355.09	16.48	
2025-01-09 02:08:53.59	355.06	16.50	
2025-01-09 02:08:53.80	355.02	16.52	
2025-01-09 02:08:54.00	354.99	16.53	
2025-01-09 02:08:54.22	354.95	16.55	
2025-01-09 02:08:54.42	354.92	16.56	
2025-01-09 02:08:54.63	354.88	16.58	
2025-01-09 02:08:54.84	354.85	16.60	
2025-01-09 02:08:55.04	354.82	16.61	
2025-01-09 02:08:55.25	354.78	16.63	
2025-01-09 02:08:55.45	354.75	16.64	
2025-01-09 02:08:55.66	354.71	16.66	
2025-01-09 02:08:55.86	354.68	16.67	
2025-01-09 02:08:56.07	354.65	16.69	
2025-01-09 02:08:56.27	354.61	16.70	
2025-01-09 02:08:56.48	354.58	16.72	
2025-01-09 02:08:56.68	354.54	16.74	
2025-01-09 02:08:56.89	354.51	16.75	
2025-01-09 02:08:57.09	354.48	16.77	
2025-01-09 02:08:57.30	354.44	16.78	
2025-01-09 02:08:57.50	354.41	16.80	
2025-01-09 02:08:57.71	354.37	16.81	
2025-01-09 02:08:57.91	354.34	16.83	
2025-01-09 02:08:58.12	354.30	16.85	
2025-01-09 02:08:58.32	354.27	16.86	
2025-01-09 02:08:58.52	354.24	16.88	
2025-01-09 02:08:58.73	354.20	16.89	
2025-01-09 02:08:58.94	354.17	16.91	
2025-01-09 02:08:59.14	354.13	16.92	
2025-01-09 02:08:59.35	354.10	16.94	
2025-01-09 02:08:59.56	354.06	16.96	
2025-01-09 02:08:59.77	354.03	16.97	
2025-01-09 02:08:59.97	353.99	16.99	
2025-01-09 02:09:00.18	353.96	17.00	
2025-01-09 02:09:00.38	353.92	17.02	
2025-01-09 02:09:00.59	353.89	17.03	
2025-01-09 02:09:00.79	353.85	17.05	
2025-01-09 02:09:01.00	353.82	17.07	
2025-01-09 02:09:01.20	353.78	17.08	
2025-01-09 02:09:01.40	353.75	17.10	
2025-01-09 02:09:01.62	353.71	17.11	
2025-01-09 02:09:01.83	353.68	17.13	
2025-01-09 02:09:02.03	353.64	17.14	
2025-01-09 02:09:02.24	353.61	17.16	
2025-01-09 02:09:02.44	353.57	17.18	
2025-01-09 02:09:02.65	353.53	17.19	
2025-01-09 02:09:02.85	353.50	17.21	
2025-01-09 02:09:03.06	353.46	17.22	
2025-01-09 02:09:03.26	353.43	17.24	
2025-01-09 02:09:03.47	353.39	17.25	
2025-01-09 02:09:03.68	353.36	17.27	
2025-01-09 02:09:03.88	353.32	17.28	
2025-01-09 02:09:04.09	353.29	17.30	
2025-01-09 02:09:04.29	353.25	17.32	
2025-01-09 02:09:04.50	353.22	17.33	
2025-01-09 02:09:04.71	353.18	17.35	
2025-01-09 02:09:04.91	353.14	17.36	
2025-01-09 02:09:05.12	353.11	17.38	
2025-01-09 02:09:05.32	353.07	17.39	
2025-01-09 02:09:05.53	353.04	17.41	
2025-01-09 02:09:05.73	353.00	17.43	
2025-01-09 02:09:05.93	352.97	17.44	
2025-01-09 02:09:06.14	352.93	17.46	
2025-01-09 02:09:06.35	352.89	17.47	
2025-01-09 02:09:06.55	352.86	17.49	
2025-01-09 02:09:06.76	352.82	17.50	
2025-01-09 02:09:06.98	352.78	17.52	
2025-01-09 02:09:07.18	352.75	17.54	
2025-01-09 02:09:07.39	352.71	17.55	
2025-01-09 02:09:07.59	352.68	17.57	
2025-01-09 02:09:07.80	352.64	17.58	
2025-01-09 02:09:08.00	352.60	17.60	
2025-01-09 02:09:08.20	352.57	17.61	
2025-01-09 02:09:08.41	352.53	17.63	
2025-01-09 02:09:08.62	352.49	17.65	
2025-01-09 02:09:08.82	352.46	17.66	
2025-01-09 02:09:09.02	352.42	17.68	
2025-01-09 02:09:09.23	352.39	17.69	
2025-01-09 02:09:09.44	352.35	17.71	
2025-01-09 02:09:09.64	352.31	17.72	
2025-01-09 02:09:09.85	352.28	17.74	
2025-01-09 02:09:10.05	352.24	17.75	
2025-01-09 02:09:10.26	352.20	17.77	
2025-01-09 02:09:10.46	352.17	17.79	
2025-01-09 02:09:10.66	352.13	17.80	
2025-01-09 02:09:10.87	352.09	17.82	
2025-01-09 02:09:11.07	352.06	17.83	
2025-01-09 02:09:11.29	352.02	17.85	
2025-01-09 02:09:11.50	351.98	17.86	
2025-01-09 02:09:11.70	351.94	17.88	
2025-01-09 02:09:11.91	351.91	17.90	
2025-01-09 02:09:12.11	351.87	17.91	
2025-01-09 02:09:12.32	351.83	17.93	
2025-01-09 02:09:12.52	351.80	17.94	
2025-01-09 02:09:12.73	351.76	17.96	
2025-01-09 02:09:12.93	351.72	17.97	
2025-01-09 02:09:13.14	351.68	17.99	
2025-01-09 02:09:13.34	351.65	18.00	
2025-01-09 02:09:13.55	351.61	18.02	
2025-01-09 02:09:13.75	351.57	18.03	
2025-01-09 02:09:13.96	351.54	18.05	
2025-01-09 02:09:14.16	351.50	18.07	
2025-01-09 02:09:14.36	351.46	18.08	
2025-01-09 02:09:14.57	351.42	18.10	
2025-01-09 02:09:14.78	351.39	18.11	
2025-01-09 02:09:14.98	351.35	18.13	
2025-01-09 02:09:15.19	351.31	18.14	
2025-01-09 02:09:15.39	351.27	18.16	
2025-01-09 02:09:15.60	351.24	18.17	
2025-01-09 02:09:15.80	351.20	18.19	
2025-01-09 02:09:16.01	351.16	18.21	
2025-01-09 02:09:16.21	351.12	18.22	
2025-01-09 02:09:16.42	351.08	18.24	
2025-01-09 02:09:16.62	351.05	18.25	
2025-01-09 02:09:16.83	351.01	18.27	
2025-01-09 02:09:17.03	350.97	18.28	
2025-01-09 02:09:17.24	350.93	18.30	
2025-01-09 02:09:17.44	350.90	18.31	
2025-01-09 02:09:17.64	350.86	18.33	
2025-01-09 02:09:17.85	350.82	18.34	
2025-01-09 02:09:18.06	350.78	18.36	
2025-01-09 02:09:18.26	350.74	18.37	
2025-01-09 02:09:18.46	350.71	18.39	
2025-01-09 02:09:18.67	350.67	18.41	
2025-01-09 02:09:18.87	350.63	18.42	
2025-01-09 02:09:19.08	350.59	18.44	
2025-01-09 02:09:19.28	350.55	18.45	
2025-01-09 02:09:19.49	350.51	18.47	
2025-01-09 02:09:19.69	350.48	18.48	
2025-01-09 02:09:19.90	350.44	18.50	
2025-01-09 02:09:20.11	350.40	18.51	
2025-01-09 02:09:20.31	350.36	18.53	
2025-01-09 02:09:20.52	350.32	18.54	
2025-01-09 02:09:20.72	350.28	18.56	
2025-01-09 02:09:20.93	350.24	18.58	
2025-01-09 02:09:21.13	350.21	18.59	
2025-01-09 02:09:21.34	350.17	18.61	
2025-01-09 02:09:21.54	350.13	18.62	
2025-01-09 02:09:21.75	350.09	18.64	
2025-01-09 02:09:21.95	350.05	18.65	
2025-01-09 02:09:22.15	350.01	18.67	
2025-01-09 02:09:22.36	349.97	18.68	
2025-01-09 02:09:22.57	349.93	18.70	
2025-01-09 02:09:22.77	349.90	18.71	
2025-01-09 02:09:22.98	349.86	18.73	
2025-01-09 02:09:23.18	349.82	18.74	
2025-01-09 02:09:23.38	349.78	18.76	
2025-01-09 02:09:23.59	349.74	18.78	
2025-01-09 02:09:23.79	349.70	18.79	
2025-01-09 02:09:24.01	349.66	18.81	
2025-01-09 02:09:24.22	349.62	18.82	
2025-01-09 02:09:24.42	349.58	18.84	
2025-01-09 02:09:24.63	349.54	18.85	
2025-01-09 02:09:24.83	349.50	18.87	
2025-01-09 02:09:25.05	349.46	18.88	
2025-01-09 02:09:25.26	349.42	18.90	
2025-01-09 02:09:25.46	349.38	18.91	
2025-01-09 02:09:25.67	349.34	18.93	
2025-01-09 02:09:25.87	349.30	18.95	
2025-01-09 02:09:26.07	349.26	18.96	
2025-01-09 02:09:26.28	349.22	18.98	
2025-01-09 02:09:26.49	349.18	18.99	
2025-01-09 02:09:26.69	349.14	19.01	
2025-01-09 02:09:26.89	349.10	19.02	
2025-01-09 02:09:27.10	349.06	19.04	
2025-01-09 02:09:27.30	349.02	19.05	
2025-01-09 02:09:27.51	348.98	19.07	
2025-01-09 02:09:27.71	348.94	19.08	
2025-01-09 02:09:27.92	348.90	19.10	
2025-01-09 02:09:28.13	348.86	19.11	
2025-01-09 02:09:28.33	348.82	19.13	
2025-01-09 02:09:28.54	348.78	19.14	
2025-01-09 02:09:28.74	348.74	19.16	
2025-01-09 02:09:28.95	348.70	19.17	
2025-01-09 02:09:29.15	348.66	19.19	
2025-01-09 02:09:29.36	348.62	19.20	
2025-01-09 02:09:29.56	348.58	19.22	
2025-01-09 02:09:29.77	348.54	19.24	
2025-01-09 02:09:29.97	348.50	19.25	
2025-01-09 02:09:30.18	348.46	19.27	
2025-01-09 02:09:30.38	348.42	19.28	
2025-01-09 02:09:30.59	348.38	19.30	
2025-01-09 02:09:30.79	348.34	19.31	
2025-01-09 02:09:31.00	348.30	19.33	
2025-01-09 02:09:31.21	348.26	19.34	
2025-01-09 02:09:31.41	348.22	19.36	
2025-01-09 02:09:31.62	348.17	19.37	
2025-01-09 02:09:31.82	348.13	19.39	
2025-01-09 02:09:32.03	348.09	19.40	
2025-01-09 02:09:32.23	348.05	19.42	
2025-01-09 02:09:32.43	348.01	19.43	
2025-01-09 02:09:32.64	347.97	19.45	
2025-01-09 02:09:32.84	347.93	19.46	
2025-01-09 02:09:33.05	347.89	19.48	
2025-01-09 02:09:33.26	347.85	19.49	
2025-01-09 02:09:33.46	347.81	19.51	
2025-01-09 02:09:33.67	347.76	19.52	
2025-01-09 02:09:33.87	347.72	19.54	
2025-01-09 02:09:34.08	347.68	19.55	
2025-01-09 02:09:34.28	347.64	19.57	
2025-01-09 02:09:34.49	347.60	19.58	
2025-01-09 02:09:34.69	347.56	19.60	
2025-01-09 02:09:34.90	347.52	19.61	
2025-01-09 02:09:35.11	347.47	19.63	
2025-01-09 02:09:35.31	347.43	19.64	
2025-01-09 02:09:35.51	347.39	19.66	
2025-01-09 02:09:35.72	347.35	19.67	
2025-01-09 02:09:35.92	347.31	19.69	
2025-01-09 02:09:36.13	347.27	19.70	
2025-01-09 02:09:36.34	347.23	19.72	
2025-01-09 02:09:36.54	347.18	19.73	
2025-01-09 02:09:36.76	347.14	19.75	
2025-01-09 02:09:36.96	347.10	19.76	
2025-01-09 02:09:37.17	347.06	19.78	
2025-01-09 02:09:37.38	347.01	19.79	
2025-01-09 02:09:37.58	346.97	19.81	
2025-01-09 02:09:37.79	346.93	19.82	
2025-01-09 02:09:37.99	346.89	19.84	
2025-01-09 02:09:38.20	346.85	19.85	
2025-01-09 02:09:38.41	346.80	19.87	
2025-01-09 02:09:38.61	346.76	19.88	
2025-01-09 02:09:38.82	346.72	19.90	
2025-01-09 02:09:39.02	346.68	19.91	
2025-01-09 02:09:39.23	346.63	19.93	
2025-01-09 02:09:39.43	346.59	19.94	
2025-01-09 02:09:39.64	346.55	19.96	
2025-01-09 02:09:39.84	346.51	19.97	
2025-01-09 02:09:40.05	346.46	19.99	
2025-01-09 02:09:40.25	346.42	20.00	
2025-01-09 02:09:40.46	346.38	20.02	
2025-01-09 02:09:40.66	346.34	20.03	
2025-01-09 02:09:40.87	346.29	20.05	
2025-01-09 02:09:41.08	346.25	20.06	
2025-01-09 02:09:41.29	346.21	20.08	
2025-01-09 02:09:41.50	346.16	20.09	
2025-01-09 02:09:41.70	346.12	20.11	
2025-01-09 02:09:41.91	346.08	20.12	
2025-01-09 02:09:42.12	346.03	20.14	
2025-01-09 02:09:42.33	345.99	20.15	
2025-01-09 02:09:42.54	345.95	20.17	
2025-01-09 02:09:42.74	345.90	20.18	
2025-01-09 02:09:42.94	345.86	20.20	
2025-01-09 02:09:43.15	345.82	20.21	
2025-01-09 02:09:43.35	345.77	20.23	
2025-01-09 02:09:43.56	345.73	20.24	
2025-01-09 02:09:43.76	345.69	20.26	
2025-01-09 02:09:43.97	345.64	20.27	
2025-01-09 02:09:44.17	345.60	20.29	
2025-01-09 02:09:44.38	345.56	20.30	
2025-01-09 02:09:44.58	345.52	20.31	
2025-01-09 02:09:44.79	345.47	20.33	
2025-01-09 02:09:44.99	345.43	20.34	
2025-01-09 02:09:45.20	345.38	20.36	
2025-01-09 02:09:45.40	345.34	20.37	
2025-01-09 02:09:45.62	345.29	20.39	
2025-01-09 02:09:45.82	345.25	20.40	
2025-01-09 02:09:46.03	345.21	20.42	
2025-01-09 02:09:46.23	345.16	20.43	
2025-01-09 02:09:46.44	345.12	20.45	
2025-01-09 02:09:46.64	345.08	20.46	
2025-01-09 02:09:46.85	345.03	20.48	
2025-01-09 02:09:47.05	344.99	20.49	
2025-01-09 02:09:47.26	344.94	20.51	
2025-01-09 02:09:47.46	344.90	20.52	
2025-01-09 02:09:47.67	344.86	20.54	
2025-01-09 02:09:47.87	344.81	20.55	
2025-01-09 02:09:48.08	344.77	20.56	
2025-01-09 02:09:48.28	344.73	20.58	
2025-01-09 02:09:48.49	344.68	20.59	
2025-01-09 02:09:48.69	344.64	20.61	
2025-01-09 02:09:48.90	344.59	20.62	
2025-01-09 02:09:49.10	344.55	20.64	
2025-01-09 02:09:49.31	344.50	20.65	
2025-01-09 02:09:49.51	344.46	20.67	
2025-01-09 02:09:49.71	344.42	20.68	
2025-01-09 02:09:49.92	344.37	20.69	
2025-01-09 02:09:50.13	344.33	20.71	
2025-01-09 02:09:50.33	344.28	20.72	
2025-01-09 02:09:50.54	344.24	20.74	
2025-01-09 02:09:50.74	344.19	20.75	
2025-01-09 02:09:50.95	344.15	20.77	
2025-01-09 02:09:51.15	344.10	20.78	
2025-01-09 02:09:51.36	344.06	20.79	
2025-01-09 02:09:51.56	344.01	20.81	
2025-01-09 02:09:51.78	343.97	20.82	
2025-01-09 02:09:51.99	343.92	20.84	
2025-01-09 02:09:52.19	343.88	20.85	
2025-01-09 02:09:52.40	343.83	20.87	
2025-01-09 02:09:52.60	343.79	20.88	
2025-01-09 02:09:52.81	343.74	20.90	
2025-01-09 02:09:53.01	343.70	20.91	
2025-01-09 02:09:53.21	343.65	20.92	
2025-01-09 02:09:53.42	343.61	20.94	
2025-01-09 02:09:53.62	343.56	20.95	
2025-01-09 02:09:53.83	343.52	20.97	
2025-01-09 02:09:54.04	343.47	20.98	
2025-01-09 02:09:54.24	343.42	21.00	
2025-01-09 02:09:54.44	343.38	21.01	
2025-01-09 02:09:54.65	343.33	21.02	
2025-01-09 02:09:54.85	343.29	21.04	
2025-01-09 02:09:55.06	343.24	21.05	
2025-01-09 02:09:55.26	343.20	21.07	
2025-01-09 02:09:55.47	343.15	21.08	
2025-01-09 02:09:55.67	343.11	21.09	
2025-01-09 02:09:55.88	343.06	21.11	
2025-01-09 02:09:56.08	343.02	21.12	
2025-01-09 02:09:56.29	342.97	21.14	
2025-01-09 02:09:56.49	342.92	21.15	
2025-01-09 02:09:56.70	342.88	21.17	
2025-01-09 02:09:56.91	342.83	21.18	
2025-01-09 02:09:57.11	342.79	21.19	
2025-01-09 02:09:57.32	342.74	21.21	
2025-01-09 02:09:57.52	342.69	21.22	
2025-01-09 02:09:57.73	342.65	21.24	
2025-01-09 02:09:57.93	342.60	21.25	
2025-01-09 02:09:58.13	342.56	21.26	
2025-01-09 02:09:58.34	342.51	21.28	
2025-01-09 02:09:58.54	342.46	21.29	
2025-01-09 02:09:58.75	342.42	21.31	
2025-01-09 02:09:58.95	342.37	21.32	
2025-01-09 02:09:59.16	342.32	21.33	
2025-01-09 02:09:59.36	342.28	21.35	
2025-01-09 02:09:59.57	342.23	21.36	
2025-01-09 02:09:59.77	342.19	21.37	
2025-01-09 02:09:59.98	342.14	21.39	
2025-01-09 02:10:00.18	342.09	21.40	
2025-01-09 02:10:00.39	342.04	21.42	
2025-01-09 02:10:00.59	342.00	21.43	
2025-01-09 02:10:00.80	341.95	21.44	
2025-01-09 02:10:01.00	341.91	21.46	
2025-01-09 02:10:01.21	341.86	21.47	
2025-01-09 02:10:01.41	341.81	21.49	
2025-01-09 02:10:01.62	341.76	21.50	
2025-01-09 02:10:01.82	341.72	21.51	
2025-01-09 02:10:02.03	341.67	21.53	
2025-01-09 02:10:02.23	341.62	21.54	
2025-01-09 02:10:02.43	341.58	21.55	
2025-01-09 02:10:02.64	341.53	21.57	
2025-01-09 02:10:02.84	341.48	21.58	
2025-01-09 02:10:03.05	341.44	21.60	
2025-01-09 02:10:03.25	341.39	21.61	
2025-01-09 02:10:03.46	341.34	21.62	
2025-01-09 02:10:03.66	341.29	21.64	
2025-01-09 02:10:03.87	341.25	21.65	
2025-01-09 02:10:04.07	341.20	21.66	
2025-01-09 02:10:04.28	341.15	21.68	
2025-01-09 02:10:04.48	341.11	21.69	
2025-01-09 02:10:04.69	341.06	21.70	
2025-01-09 02:10:04.89	341.01	21.72	
2025-01-09 02:10:05.10	340.96	21.73	
2025-01-09 02:10:05.30	340.92	21.74	
2025-01-09 02:10:05.51	340.87	21.76	
2025-01-09 02:10:05.73	340.81	21.77	
2025-01-09 02:10:05.93	340.77	21.79	
2025-01-09 02:10:06.14	340.72	21.80	
2025-01-09 02:10:06.34	340.67	21.81	
2025-01-09 02:10:06.55	340.62	21.83	
2025-01-09 02:10:06.75	340.58	21.84	
2025-01-09 02:10:06.96	340.53	21.85	
2025-01-09 02:10:07.16	340.48	21.87	
2025-01-09 02:10:07.37	340.43	21.88	
2025-01-09 02:10:07.57	340.38	21.89	
2025-01-09 02:10:07.79	340.33	21.91	
2025-01-09 02:10:07.99	340.29	21.92	
2025-01-09 02:10:08.20	340.24	21.93	
2025-01-09 02:10:08.41	340.19	21.95	
2025-01-09 02:10:08.61	340.14	21.96	
2025-01-09 02:10:08.82	340.09	21.97	
2025-01-09 02:10:09.02	340.04	21.99	
2025-01-09 02:10:09.23	339.99	22.00	
2025-01-09 02:10:09.43	339.95	22.01	
2025-01-09 02:10:09.64	339.90	22.03	
2025-01-09 02:10:09.84	339.85	22.04	
2025-01-09 02:10:10.05	339.80	22.05	
2025-01-09 02:10:10.25	339.75	22.07	
2025-01-09 02:10:10.46	339.70	22.08	
2025-01-09 02:10:10.66	339.65	22.09	
2025-01-09 02:10:10.86	339.61	22.11	
2025-01-09 02:10:11.07	339.56	22.12	
2025-01-09 02:10:11.28	339.51	22.13	
2025-01-09 02:10:11.48	339.46	22.15	
2025-01-09 02:10:11.69	339.41	22.16	
2025-01-09 02:10:11.91	339.36	22.17	
2025-01-09 02:10:12.11	339.31	22.19	
2025-01-09 02:10:12.32	339.26	22.20	
2025-01-09 02:10:12.52	339.21	22.21	
2025-01-09 02:10:12.73	339.16	22.23	
2025-01-09 02:10:12.93	339.11	22.24	
2025-01-09 02:10:13.14	339.06	22.25	
2025-01-09 02:10:13.34	339.01	22.26	
2025-01-09 02:10:13.55	338.96	22.28	
2025-01-09 02:10:13.75	338.92	22.29	
2025-01-09 02:10:13.96	338.86	22.30	
2025-01-09 02:10:14.17	338.81	22.32	
2025-01-09 02:10:14.38	338.76	22.33	
2025-01-09 02:10:14.58	338.71	22.34	
2025-01-09 02:10:14.79	338.66	22.35	
2025-01-09 02:10:15.00	338.61	22.37	
2025-01-09 02:10:15.20	338.56	22.38	
2025-01-09 02:10:15.40	338.52	22.39	
2025-01-09 02:10:15.61	338.47	22.41	
2025-01-09 02:10:15.82	338.41	22.42	
2025-01-09 02:10:16.02	338.37	22.43	
2025-01-09 02:10:16.22	338.32	22.44	
2025-01-09 02:10:16.43	338.27	22.46	
2025-01-09 02:10:16.63	338.22	22.47	
2025-01-09 02:10:16.84	338.17	22.48	
2025-01-09 02:10:17.04	338.12	22.49	
2025-01-09 02:10:17.25	338.07	22.51	
2025-01-09 02:10:17.45	338.02	22.52	
2025-01-09 02:10:17.66	337.97	22.53	
2025-01-09 02:10:17.86	337.92	22.54	
2025-01-09 02:10:18.07	337.87	22.56	
2025-01-09 02:10:18.27	337.82	22.57	
2025-01-09 02:10:18.48	337.76	22.58	
2025-01-09 02:10:18.68	337.72	22.59	
2025-01-09 02:10:18.89	337.66	22.61	
2025-01-09 02:10:19.09	337.61	22.62	
2025-01-09 02:10:19.30	337.56	22.63	
2025-01-09 02:10:19.50	337.51	22.64	
2025-01-09 02:10:19.70	337.46	22.66	
2025-01-09 02:10:19.91	337.41	22.67	
2025-01-09 02:10:20.11	337.36	22.68	
2025-01-09 02:10:20.32	337.31	22.69	
2025-01-09 02:10:20.52	337.26	22.71	
2025-01-09 02:10:20.73	337.21	22.72	
2025-01-09 02:10:20.93	337.16	22.73	
2025-01-09 02:10:21.14	337.11	22.74	
2025-01-09 02:10:21.34	337.06	22.76	
2025-01-09 02:10:21.55	337.01	22.77	
2025-01-09 02:10:21.75	336.96	22.78	
2025-01-09 02:10:21.96	336.90	22.79	
2025-01-09 02:10:22.16	336.85	22.80	
2025-01-09 02:10:22.37	336.80	22.82	
2025-01-09 02:10:22.57	336.75	22.83	
2025-01-09 02:10:22.78	336.70	22.84	
2025-01-09 02:10:22.98	336.65	22.85	
2025-01-09 02:10:23.19	336.60	22.87	
2025-01-09 02:10:23.39	336.55	22.88	
2025-01-09 02:10:23.60	336.49	22.89	
2025-01-09 02:10:23.80	336.44	22.90	
2025-01-09 02:10:24.01	336.39	22.91	
2025-01-09 02:10:24.21	336.34	22.93	
2025-01-09 02:10:24.42	336.29	22.94	
2025-01-09 02:10:24.62	336.24	22.95	
2025-01-09 02:10:24.83	336.19	22.96	
2025-01-09 02:10:25.03	336.14	22.97	
2025-01-09 02:10:25.24	336.08	22.99	
2025-01-09 02:10:25.44	336.03	23.00	
2025-01-09 02:10:25.65	335.98	23.01	
2025-01-09 02:10:25.85	335.93	23.02	
2025-01-09 02:10:26.06	335.88	23.03	
2025-01-09 02:10:26.26	335.83	23.04	
2025-01-09 02:10:26.47	335.77	23.06	
2025-01-09 02:10:26.67	335.72	23.07	
2025-01-09 02:10:26.88	335.67	23.08	
2025-01-09 02:10:27.08	335.62	23.09	
2025-01-09 02:10:27.29	335.56	23.10	
2025-01-09 02:10:27.49	335.51	23.11	
2025-01-09 02:10:27.70	335.46	23.13	
2025-01-09 02:10:27.91	335.41	23.14	
2025-01-09 02:10:28.12	335.35	23.15	
2025-01-09 02:10:28.33	335.30	23.16	
2025-01-09 02:10:28.53	335.25	23.17	
2025-01-09 02:10:28.74	335.19	23.19	
2025-01-09 02:10:28.94	335.14	23.20	
2025-01-09 02:10:29.15	335.09	23.21	
2025-01-09 02:10:29.35	335.04	23.22	
2025-01-09 02:10:29.56	334.98	23.23	
2025-01-09 02:10:29.76	334.93	23.24	
2025-01-09 02:10:29.97	334.88	23.25	
2025-01-09 02:10:30.17	334.83	23.27	
2025-01-09 02:10:30.37	334.78	23.28	
2025-01-09 02:10:30.58	334.72	23.29	
2025-01-09 02:10:30.79	334.67	23.30	
2025-01-09 02:10:30.99	334.62	23.31	
2025-01-09 02:10:31.20	334.56	23.32	
2025-01-09 02:10:31.40	334.51	23.33	
2025-01-09 02:10:31.61	334.46	23.35	
2025-01-09 02:10:31.81	334.41	23.36	
2025-01-09 02:10:32.02	334.35	23.37	
2025-01-09 02:10:32.22	334.30	23.38	
2025-01-09 02:10:32.43	334.25	23.39	
2025-01-09 02:10:32.63	334.19	23.40	
2025-01-09 02:10:32.84	334.14	23.41	
2025-01-09 02:10:33.04	334.09	23.42	
2025-01-09 02:10:33.25	334.03	23.43	
2025-01-09 02:10:33.46	333.98	23.45	
2025-01-09 02:10:33.67	333.92	23.46	
2025-01-09 02:10:33.88	333.87	23.47	
2025-01-09 02:10:34.08	333.82	23.48	
2025-01-09 02:10:34.28	333.77	23.49	
2025-01-09 02:10:34.49	333.71	23.50	
2025-01-09 02:10:34.69	333.66	23.51	
2025-01-09 02:10:34.90	333.60	23.52	
2025-01-09 02:10:35.10	333.55	23.53	
2025-01-09 02:10:35.31	333.50	23.55	
2025-01-09 02:10:35.51	333.44	23.56	
2025-01-09 02:10:35.72	333.39	23.57	
2025-01-09 02:10:35.92	333.34	23.58	
2025-01-09 02:10:36.13	333.28	23.59	
2025-01-09 02:10:36.33	333.23	23.60	
2025-01-09 02:10:36.53	333.18	23.61	
2025-01-09 02:10:36.74	333.12	23.62	
2025-01-09 02:10:36.94	333.07	23.63	
2025-01-09 02:10:37.15	333.01	23.64	
2025-01-09 02:10:37.35	332.96	23.65	
2025-01-09 02:10:37.56	332.91	23.66	
2025-01-09 02:10:37.76	332.85	23.67	
2025-01-09 02:10:37.97	332.80	23.68	
2025-01-09 02:10:38.17	332.75	23.69	
2025-01-09 02:10:38.38	332.69	23.71	
2025-01-09 02:10:38.58	332.64	23.72	
2025-01-09 02:10:38.79	332.58	23.73	
2025-01-09 02:10:39.00	332.53	23.74	
2025-01-09 02:10:39.20	332.47	23.75	
2025-01-09 02:10:39.41	332.42	23.76	
2025-01-09 02:10:39.61	332.37	23.77	
2025-01-09 02:10:39.82	332.31	23.78	
2025-01-09 02:10:40.02	332.26	23.79	
2025-01-09 02:10:40.23	332.20	23.80	
2025-01-09 02:10:40.43	332.15	23.81	
2025-01-09 02:10:40.64	332.09	23.82	
2025-01-09 02:10:40.84	332.04	23.83	
2025-01-09 02:10:41.05	331.98	23.84	
2025-01-09 02:10:41.25	331.93	23.85	
2025-01-09 02:10:41.46	331.87	23.86	
2025-01-09 02:10:41.66	331.82	23.87	
2025-01-09 02:10:41.87	331.76	23.88	
2025-01-09 02:10:42.07	331.71	23.89	
2025-01-09 02:10:42.28	331.65	23.90	
2025-01-09 02:10:42.48	331.60	23.91	
2025-01-09 02:10:42.69	331.54	23.92	
2025-01-09 02:10:42.89	331.49	23.93	
2025-01-09 02:10:43.10	331.43	23.94	
2025-01-09 02:10:43.30	331.38	23.95	
2025-01-09 02:10:43.51	331.32	23.96	
2025-01-09 02:10:43.72	331.27	23.97	
2025-01-09 02:10:43.92	331.21	23.98	
2025-01-09 02:10:44.13	331.16	23.99	
2025-01-09 02:10:44.33	331.10	24.00	
2025-01-09 02:10:44.54	331.05	24.01	
2025-01-09 02:10:44.74	330.99	24.02	
2025-01-09 02:10:44.95	330.94	24.03	
2025-01-09 02:10:45.15	330.88	24.04	
2025-01-09 02:10:45.36	330.83	24.05	
2025-01-09 02:10:45.56	330.77	24.06	
2025-01-09 02:10:45.77	330.72	24.07	
2025-01-09 02:10:45.98	330.66	24.08	
2025-01-09 02:10:46.18	330.60	24.09	
2025-01-09 02:10:46.39	330.55	24.10	
2025-01-09 02:10:46.59	330.49	24.11	
2025-01-09 02:10:46.80	330.44	24.12	
2025-01-09 02:10:47.00	330.38	24.13	
2025-01-09 02:10:47.20	330.33	24.14	
2025-01-09 02:10:47.41	330.27	24.15	
2025-01-09 02:10:47.61	330.22	24.15	
2025-01-09 02:10:47.82	330.16	24.16	
2025-01-09 02:10:48.03	330.10	24.17	
2025-01-09 02:10:48.23	330.05	24.18	
2025-01-09 02:10:48.43	329.99	24.19	
2025-01-09 02:10:48.64	329.94	24.20	
2025-01-09 02:10:48.85	329.88	24.21	
2025-01-09 02:10:49.05	329.82	24.22	
2025-01-09 02:10:49.26	329.77	24.23	
2025-01-09 02:10:49.46	329.71	24.24	
2025-01-09 02:10:49.67	329.65	24.25	
2025-01-09 02:10:49.87	329.60	24.26	
2025-01-09 02:10:50.08	329.54	24.27	
2025-01-09 02:10:50.28	329.49	24.27	
2025-01-09 02:10:50.48	329.43	24.28	
2025-01-09 02:10:50.69	329.38	24.29	
2025-01-09 02:10:50.89	329.32	24.30	
2025-01-09 02:10:51.10	329.26	24.31	
2025-01-09 02:10:51.30	329.21	24.32	
2025-01-09 02:10:51.51	329.15	24.33	
2025-01-09 02:10:51.71	329.10	24.34	
2025-01-09 02:10:51.92	329.04	24.35	
2025-01-09 02:10:52.12	328.98	24.36	
2025-01-09 02:10:52.34	328.92	24.36	
2025-01-09 02:10:52.54	328.87	24.37	
2025-01-09 02:10:52.75	328.81	24.38	
2025-01-09 02:10:52.95	328.75	24.39	
2025-01-09 02:10:53.16	328.70	24.40	
2025-01-09 02:10:53.36	328.64	24.41	
2025-01-09 02:10:53.56	328.59	24.42	
2025-01-09 02:10:53.77	328.53	24.43	
2025-01-09 02:10:53.97	328.47	24.43	
2025-01-09 02:10:54.18	328.41	24.44	
2025-01-09 02:10:54.38	328.36	24.45	
2025-01-09 02:10:54.59	328.30	24.46	
2025-01-09 02:10:54.79	328.24	24.47	
2025-01-09 02:10:55.00	328.19	24.48	
2025-01-09 02:10:55.20	328.13	24.48	
2025-01-09 02:10:55.41	328.07	24.49	
2025-01-09 02:10:55.61	328.02	24.50	
2025-01-09 02:10:55.82	327.96	24.51	
2025-01-09 02:10:56.02	327.90	24.52	
2025-01-09 02:10:56.23	327.84	24.53	
2025-01-09 02:10:56.43	327.79	24.53	
2025-01-09 02:10:56.64	327.73	24.54	
2025-01-09 02:10:56.84	327.67	24.55	
2025-01-09 02:10:57.05	327.62	24.56	
2025-01-09 02:10:57.25	327.56	24.57	
2025-01-09 02:10:57.46	327.50	24.58	
2025-01-09 02:10:57.66	327.45	24.58	
2025-01-09 02:10:57.88	327.38	24.59	
2025-01-09 02:10:58.09	327.32	24.60	
2025-01-09 02:10:58.29	327.27	24.61	
2025-01-09 02:10:58.50	327.21	24.62	
2025-01-09 02:10:58.71	327.15	24.62	
2025-01-09 02:10:58.91	327.10	24.63	
2025-01-09 02:10:59.11	327.04	24.64	
2025-01-09 02:10:59.32	326.98	24.65	
2025-01-09 02:10:59.53	326.92	24.66	
2025-01-09 02:10:59.73	326.87	24.66	
2025-01-09 02:10:59.94	326.81	24.67	
2025-01-09 02:11:00.14	326.75	24.68	
2025-01-09 02:11:00.35	326.69	24.69	
2025-01-09 02:11:00.55	326.63	24.69	
2025-01-09 02:11:00.76	326.58	24.70	
2025-01-09 02:11:00.97	326.52	24.71	
2025-01-09 02:11:01.17	326.46	24.72	
2025-01-09 02:11:01.37	326.40	24.72	
2025-01-09 02:11:01.58	326.34	24.73	
2025-01-09 02:11:01.78	326.29	24.74	
2025-01-09 02:11:01.99	326.23	24.75	
2025-01-09 02:11:02.19	326.17	24.75	
2025-01-09 02:11:02.40	326.11	24.76	
2025-01-09 02:11:02.60	326.06	24.77	
2025-01-09 02:11:02.81	326.00	24.78	
2025-01-09 02:11:03.01	325.94	24.78	
2025-01-09 02:11:03.22	325.88	24.79	
2025-01-09 02:11:03.42	325.82	24.80	
2025-01-09 02:11:03.63	325.76	24.81	
2025-01-09 02:11:03.83	325.71	24.81	
2025-01-09 02:11:04.04	325.65	24.82	
2025-01-09 02:11:04.24	325.59	24.83	
2025-01-09 02:11:04.45	325.53	24.83	
2025-01-09 02:11:04.65	325.47	24.84	
2025-01-09 02:11:04.86	325.42	24.85	
2025-01-09 02:11:05.06	325.36	24.86	
2025-01-09 02:11:05.27	325.30	24.86	
2025-01-09 02:11:05.47	325.24	24.87	
2025-01-09 02:11:05.68	325.18	24.88	
2025-01-09 02:11:05.88	325.12	24.88	
2025-01-09 02:11:06.09	325.07	24.89	
2025-01-09 02:11:06.30	325.01	24.90	
2025-01-09 02:11:06.51	324.95	24.90	
2025-01-09 02:11:06.72	324.89	24.91	
2025-01-09 02:11:06.92	324.83	24.92	
2025-01-09 02:11:07.13	324.77	24.92	
2025-01-09 02:11:07.34	324.71	24.93	
2025-01-09 02:11:07.54	324.65	24.94	
2025-01-09 02:11:07.75	324.59	24.94	
2025-01-09 02:11:07.95	324.53	24.95	
2025-01-09 02:11:08.16	324.47	24.96	
2025-01-09 02:11:08.36	324.42	24.96	
2025-01-09 02:11:08.56	324.36	24.97	
2025-01-09 02:11:08.77	324.30	24.98	
2025-01-09 02:11:08.97	324.24	24.98	
2025-01-09 02:11:09.18	324.18	24.99	
2025-01-09 02:11:09.38	324.12	25.00	
2025-01-09 02:11:09.59	324.06	25.00	
2025-01-09 02:11:09.79	324.01	25.01	
2025-01-09 02:11:10.00	323.95	25.02	
2025-01-09 02:11:10.20	323.89	25.02	
2025-01-09 02:11:10.41	323.83	25.03	
2025-01-09 02:11:10.61	323.77	25.03	
2025-01-09 02:11:10.82	323.71	25.04	
2025-01-09 02:11:11.02	323.65	25.05	
2025-01-09 02:11:11.23	323.59	25.05	
2025-01-09 02:11:11.43	323.53	25.06	
2025-01-09 02:11:11.64	323.47	25.06	
2025-01-09 02:11:11.84	323.42	25.07	
2025-01-09 02:11:12.05	323.36	25.08	
2025-01-09 02:11:12.25	323.30	25.08	
2025-01-09 02:11:12.46	323.24	25.09	
2025-01-09 02:11:12.66	323.18	25.09	
2025-01-09 02:11:12.88	323.12	25.10	
2025-01-09 02:11:13.08	323.06	25.11	
2025-01-09 02:11:13.29	323.00	25.11	
2025-01-09 02:11:13.50	322.94	25.12	
2025-01-09 02:11:13.70	322.88	25.12	
2025-01-09 02:11:13.92	322.82	25.13	
2025-01-09 02:11:14.12	322.76	25.13	
2025-01-09 02:11:14.33	322.70	25.14	
2025-01-09 02:11:14.53	322.64	25.15	
2025-01-09 02:11:14.74	322.58	25.15	
2025-01-09 02:11:14.94	322.52	25.16	
2025-01-09 02:11:15.15	322.46	25.16	
2025-01-09 02:11:15.35	322.40	25.17	
2025-01-09 02:11:15.56	322.34	25.17	
2025-01-09 02:11:15.76	322.28	25.18	
2025-01-09 02:11:15.97	322.22	25.18	
2025-01-09 02:11:16.17	322.16	25.19	
2025-01-09 02:11:16.38	322.10	25.19	
2025-01-09 02:11:16.58	322.04	25.20	
2025-01-09 02:11:16.79	321.98	25.20	
2025-01-09 02:11:16.99	321.92	25.21	
2025-01-09 02:11:17.20	321.86	25.21	
2025-01-09 02:11:17.40	321.80	25.22	
2025-01-09 02:11:17.61	321.74	25.22	
2025-01-09 02:11:17.81	321.69	25.23	
2025-01-09 02:11:18.02	321.62	25.23	
2025-01-09 02:11:18.22	321.57	25.24	
2025-01-09 02:11:18.43	321.50	25.24	
2025-01-09 02:11:18.63	321.45	25.25	
2025-01-09 02:11:18.84	321.39	25.25	
2025-01-09 02:11:19.04	321.33	25.26	
2025-01-09 02:11:19.25	321.27	25.26	
2025-01-09 02:11:19.45	321.21	25.27	
2025-01-09 02:11:19.66	321.15	25.27	
2025-01-09 02:11:19.86	321.09	25.28	
2025-01-09 02:11:20.07	321.03	25.28	
2025-01-09 02:11:20.27	320.97	25.29	
2025-01-09 02:11:20.48	320.91	25.29	
2025-01-09 02:11:20.68	320.85	25.30	
2025-01-09 02:11:20.89	320.79	25.30	
2025-01-09 02:11:21.09	320.73	25.31	
2025-01-09 02:11:21.29	320.67	25.31	
2025-01-09 02:11:21.50	320.61	25.31	
2025-01-09 02:11:21.70	320.55	25.32	
2025-01-09 02:11:21.91	320.49	25.32	
2025-01-09 02:11:22.11	320.43	25.33	
2025-01-09 02:11:22.32	320.37	25.33	
2025-01-09 02:11:22.52	320.31	25.34	
2025-01-09 02:11:22.73	320.25	25.34	
2025-01-09 02:11:22.93	320.19	25.34	
2025-01-09 02:11:23.14	320.13	25.35	
2025-01-09 02:11:23.35	320.06	25.35	
2025-01-09 02:11:23.55	320.01	25.36	
2025-01-09 02:11:23.75	319.95	25.36	
2025-01-09 02:11:23.96	319.89	25.37	
2025-01-09 02:11:24.17	319.82	25.37	
2025-01-09 02:11:24.37	319.76	25.37	
2025-01-09 02:11:24.58	319.70	25.38	
2025-01-09 02:11:24.78	319.64	25.38	
2025-01-09 02:11:24.99	319.58	25.38	
2025-01-09 02:11:25.19	319.52	25.39	
2025-01-09 02:11:25.39	319.46	25.39	
2025-01-09 02:11:25.61	319.40	25.40	
2025-01-09 02:11:25.82	319.34	25.40	
2025-01-09 02:11:26.02	319.28	25.40	
2025-01-09 02:11:26.23	319.22	25.41	
2025-01-09 02:11:26.44	319.16	25.41	
2025-01-09 02:11:26.64	319.10	25.41	
2025-01-09 02:11:26.85	319.03	25.42	
2025-01-09 02:11:27.05	318.98	25.42	
2025-01-09 02:11:27.26	318.91	25.43	
2025-01-09 02:11:27.46	318.85	25.43	
2025-01-09 02:11:27.67	318.79	25.43	
2025-01-09 02:11:27.87	318.73	25.44	
2025-01-09 02:11:28.08	318.67	25.44	
2025-01-09 02:11:28.28	318.61	25.44	
2025-01-09 02:11:28.49	318.55	25.45	
2025-01-09 02:11:28.69	318.49	25.45	
2025-01-09 02:11:28.91	318.43	25.45	
2025-01-09 02:11:29.12	318.36	25.46	
2025-01-09 02:11:29.32	318.30	25.46	
2025-01-09 02:11:29.53	318.24	25.46	
2025-01-09 02:11:29.74	318.18	25.46	
2025-01-09 02:11:29.95	318.12	25.47	
2025-01-09 02:11:30.16	318.06	25.47	
2025-01-09 02:11:30.37	317.99	25.47	
2025-01-09 02:11:30.57	317.94	25.48	
2025-01-09 02:11:30.78	317.87	25.48	
2025-01-09 02:11:30.98	317.81	25.48	
2025-01-09 02:11:31.19	317.75	25.49	
2025-01-09 02:11:31.39	317.69	25.49	
2025-01-09 02:11:31.60	317.63	25.49	
2025-01-09 02:11:31.81	317.57	25.49	
2025-01-09 02:11:32.01	317.51	25.50	
2025-01-09 02:11:32.21	317.45	25.50	
2025-01-09 02:11:32.42	317.39	25.50	
2025-01-09 02:11:32.62	317.33	25.50	
2025-01-09 02:11:32.83	317.27	25.51	
2025-01-09 02:11:33.03	317.21	25.51	
2025-01-09 02:11:33.24	317.14	25.51	
2025-01-09 02:11:33.44	317.08	25.51	
2025-01-09 02:11:33.65	317.02	25.52	
2025-01-09 02:11:33.85	316.96	25.52	
2025-01-09 02:11:34.06	316.90	25.52	
2025-01-09 02:11:34.26	316.84	25.52	
2025-01-09 02:11:34.47	316.78	25.53	
2025-01-09 02:11:34.68	316.72	25.53	
2025-01-09 02:11:34.88	316.66	25.53	
2025-01-09 02:11:35.08	316.60	25.53	
