passes_logs/2026/01/01/T1/T1__20260101_202537_KHAYYAM_rec.log

#Pass ID: 20260101_202537_KHAYYAM
#Satellite: KHAYYAM
#Configuration: KHAYYAM_480M
#almurnet v.1.7.20251203
#Start time: 2026-01-01 20:25:38

#Version: 2.0.20230620
#Station: T1
#Location: 37.570604 lon 55.790049 lat
#TLE: 1 53370U 22096A   25365.91236145  .00003272  00000+0  13536-3 0  9993
#TLE: 2 53370  97.3565 268.1736 0001188  73.2664 286.8704 15.24655091189094

#Time	Az	El	Level	Level2	SNR	BER	BlckErr	Temp	State	Recorded	gain1	gain2
2026-01-01 20:25:38.04	28.77	5.68	-49.1	-52.0	3.7	0.00e+00	0	41	0	0	68	21618
2026-01-01 20:25:39.04	28.87	5.75	-49.1	-51.9	3.9	0.00e+00	0	41	104	0	68	21575
2026-01-01 20:25:40.04	28.98	5.82	-49.1	-52.0	3.9	0.00e+00	0	41	104	0	68	21644
2026-01-01 20:25:41.04	29.08	5.90	-49.1	-51.9	3.9	0.00e+00	0	42	104	0	68	21584
2026-01-01 20:25:42.04	29.18	5.97	-49.1	-51.9	3.9	0.00e+00	0	42	104	0	68	21585
2026-01-01 20:25:43.04	29.28	6.05	-49.1	-51.9	3.9	0.00e+00	0	42	104	0	68	21602
2026-01-01 20:25:44.04	29.39	6.12	-49.1	-51.9	3.9	0.00e+00	0	42	104	0	68	21601
2026-01-01 20:25:45.04	29.49	6.20	-49.1	-52.0	3.9	0.00e+00	0	42	104	0	68	21658
2026-01-01 20:25:46.04	29.60	6.28	-49.1	-51.9	3.9	0.00e+00	0	42	104	0	68	21586
2026-01-01 20:25:47.04	29.70	6.35	-49.1	-52.0	3.9	0.00e+00	0	42	104	0	68	21621
2026-01-01 20:25:48.04	29.81	6.43	-49.1	-52.0	3.9	0.00e+00	0	42	104	0	68	21712
2026-01-01 20:25:49.04	29.92	6.51	-49.1	-52.0	3.9	0.00e+00	0	42	104	0	68	21716
2026-01-01 20:25:50.04	30.03	6.58	-49.1	-52.0	3.9	0.00e+00	0	42	104	0	68	21714
2026-01-01 20:25:51.04	30.13	6.66	-49.1	-52.0	3.9	0.00e+00	0	42	104	0	68	21733
2026-01-01 20:25:52.04	30.24	6.74	-49.1	-52.0	3.9	0.00e+00	0	42	104	0	68	21679
2026-01-01 20:25:53.04	30.35	6.81	-49.1	-52.0	3.9	0.00e+00	0	43	104	0	68	21750
2026-01-01 20:25:54.04	30.46	6.89	-49.1	-52.0	3.9	0.00e+00	0	42	104	0	68	21631
2026-01-01 20:25:55.05	30.58	6.97	-49.1	-52.0	3.9	0.00e+00	0	43	104	0	68	21770
2026-01-01 20:25:56.05	30.69	7.05	-49.1	-52.0	3.9	0.00e+00	0	43	104	0	68	21786
2026-01-01 20:25:57.05	30.80	7.13	-49.1	-52.0	3.9	0.00e+00	0	43	104	0	68	21743
2026-01-01 20:25:58.05	30.92	7.21	-49.1	-52.0	3.9	0.00e+00	0	43	104	0	68	21741
2026-01-01 20:25:59.06	31.03	7.29	-49.1	-52.0	3.9	0.00e+00	0	43	104	0	68	21673
2026-01-01 20:26:00.06	31.15	7.36	-49.1	-52.0	3.9	0.00e+00	0	43	104	0	68	21681
2026-01-01 20:26:01.06	31.26	7.44	-49.1	-52.0	3.9	0.00e+00	0	43	104	0	68	21686
2026-01-01 20:26:02.07	31.38	7.53	-49.1	-52.0	3.9	0.00e+00	0	43	104	0	68	21708
2026-01-01 20:26:03.07	31.50	7.61	-49.1	-52.0	3.9	0.00e+00	0	43	104	0	68	21737
2026-01-01 20:26:04.07	31.62	7.69	-49.1	-52.0	3.9	0.00e+00	0	43	104	0	68	21647
2026-01-01 20:26:05.07	31.74	7.77	-49.1	-52.0	3.9	0.00e+00	0	43	104	0	68	21738
2026-01-01 20:26:06.07	31.86	7.85	-49.1	-52.0	3.9	0.00e+00	0	43	104	0	68	21719
2026-01-01 20:26:07.08	31.98	7.93	-49.1	-52.0	3.9	0.00e+00	0	43	104	0	68	21764
2026-01-01 20:26:08.08	32.10	8.01	-49.1	-52.0	3.9	0.00e+00	0	43	104	0	68	21708
2026-01-01 20:26:09.08	32.22	8.09	-49.1	-52.0	3.9	0.00e+00	0	44	104	0	68	21739
2026-01-01 20:26:10.08	32.35	8.17	-49.1	-52.0	3.9	0.00e+00	0	44	104	0	68	21684
2026-01-01 20:26:11.09	32.47	8.26	-49.1	-52.0	3.9	0.00e+00	0	44	104	0	68	21705
2026-01-01 20:26:12.09	32.60	8.34	-49.1	-52.0	3.9	0.00e+00	0	44	104	0	68	21661
2026-01-01 20:26:13.09	32.72	8.42	-49.1	-52.0	3.9	0.00e+00	0	44	104	0	68	21730
2026-01-01 20:26:14.09	32.85	8.50	-49.1	-52.0	3.9	0.00e+00	0	44	104	0	68	21645
2026-01-01 20:26:15.09	32.98	8.59	-49.1	-52.0	3.9	0.00e+00	0	44	104	0	68	21631
2026-01-01 20:26:16.10	33.11	8.67	-49.1	-52.0	3.9	0.00e+00	0	44	104	0	68	21692
2026-01-01 20:26:17.10	33.24	8.76	-49.1	-52.0	3.9	0.00e+00	0	44	104	0	68	21660
2026-01-01 20:26:18.10	33.37	8.84	-49.1	-52.0	3.9	0.00e+00	0	44	104	0	68	21641
2026-01-01 20:26:19.10	33.50	8.92	-49.1	-52.0	3.9	0.00e+00	0	44	104	0	68	21799
2026-01-01 20:26:20.11	33.63	9.01	-49.1	-51.9	3.9	0.00e+00	0	44	104	0	68	21598
2026-01-01 20:26:21.11	33.77	9.09	-46.4	-48.5	3.6	0.00e+00	0	44	104	0	63	19407
2026-01-01 20:26:22.11	33.90	9.18	-43.9	-45.5	3.9	0.00e+00	0	44	104	0	59	17329
2026-01-01 20:26:23.11	34.03	9.26	-46.8	-49.0	4.3	0.00e+00	0	44	104	0	64	19435
2026-01-01 20:26:24.11	34.17	9.35	-38.5	-39.9	3.4	0.00e+00	0	44	104	0	48	16991
2026-01-01 20:26:25.11	34.31	9.44	-49.2	-52.0	3.7	0.00e+00	0	44	104	0	70	19309
2026-01-01 20:26:26.12	34.45	9.52	-40.8	-42.2	3.3	0.00e+00	0	44	104	0	53	16758
2026-01-01 20:26:27.12	34.59	9.61	-43.8	-45.4	3.4	0.00e+00	0	45	104	0	58	18029
2026-01-01 20:26:28.12	34.73	9.70	-47.7	-50.0	3.7	0.00e+00	0	44	104	0	65	20504
2026-01-01 20:26:29.12	34.87	9.78	-47.4	-49.6	3.6	0.00e+00	0	45	104	0	66	18601
2026-01-01 20:26:30.11	35.01	9.87	-42.8	-44.4	3.5	0.00e+00	0	45	104	0	56	18055
2026-01-01 20:26:31.11	35.15	9.96	-44.5	-46.3	3.6	0.00e+00	0	45	104	0	60	17831
2026-01-01 20:26:32.12	35.30	10.05	-44.6	-46.5	3.5	0.00e+00	0	45	104	0	59	19270
2026-01-01 20:26:33.11	35.44	10.13	-45.6	-47.8	3.6	0.00e+00	0	44	104	0	62	19019
2026-01-01 20:26:34.12	35.59	10.22	-41.7	-43.2	3.5	0.00e+00	0	45	104	0	55	16594
2026-01-01 20:26:35.12	35.73	10.31	-42.4	-44.0	3.5	0.00e+00	0	45	104	0	55	18319
2026-01-01 20:26:36.12	35.88	10.40	-43.4	-45.0	3.5	0.00e+00	0	45	104	0	57	18389
2026-01-01 20:26:37.12	36.03	10.49	-44.9	-46.8	3.6	0.00e+00	0	45	104	0	60	19016
2026-01-01 20:26:38.12	36.18	10.58	-46.4	-48.8	3.6	0.00e+00	0	45	104	0	63	20103
2026-01-01 20:26:39.12	36.33	10.67	-46.6	-48.8	4.1	0.00e+00	0	45	104	0	64	18838
2026-01-01 20:26:40.12	36.49	10.76	-46.5	-48.7	4.0	0.00e+00	0	45	104	0	64	18721
2026-01-01 20:26:41.13	36.64	10.85	-45.3	-47.0	3.8	0.00e+00	0	45	104	0	62	17345
2026-01-01 20:26:42.13	36.80	10.94	-43.2	-44.8	3.8	0.00e+00	0	45	104	0	58	16832
2026-01-01 20:26:43.13	36.95	11.04	-43.4	-44.8	4.4	0.00e+00	0	45	104	0	58	16942
2026-01-01 20:26:44.13	37.11	11.13	-42.8	-44.2	4.3	0.00e+00	0	45	104	0	57	16685
2026-01-01 20:26:45.13	37.27	11.22	-42.8	-44.2	4.1	0.00e+00	0	45	104	0	57	16651
2026-01-01 20:26:46.13	37.43	11.31	-43.0	-44.4	4.0	0.00e+00	0	45	104	0	57	17126
2026-01-01 20:26:47.13	37.59	11.40	-43.5	-45.0	3.8	0.00e+00	0	45	104	0	57	18205
2026-01-01 20:26:48.13	37.75	11.50	-44.2	-45.8	3.8	0.00e+00	0	45	104	0	59	17859
2026-01-01 20:26:49.13	37.92	11.59	-44.7	-46.3	4.3	0.00e+00	0	45	104	0	60	17837
2026-01-01 20:26:50.13	38.08	11.68	-42.7	-44.2	4.5	0.00e+00	0	45	104	0	57	16609
2026-01-01 20:26:51.14	38.25	11.78	-44.4	-46.1	4.2	0.00e+00	0	45	104	0	59	18429
2026-01-01 20:26:52.14	38.41	11.87	-44.0	-45.5	3.5	0.00e+00	0	45	104	0	59	17355
2026-01-01 20:26:53.14	38.58	11.97	-44.7	-46.3	4.0	0.00e+00	0	45	104	0	60	17967
2026-01-01 20:26:54.14	38.75	12.06	-45.7	-47.4	3.8	0.00e+00	0	45	104	0	61	19137
2026-01-01 20:26:55.14	38.92	12.15	-46.2	-48.1	3.7	0.00e+00	0	45	104	0	63	18455
2026-01-01 20:26:56.14	39.10	12.25	-46.8	-48.8	3.8	0.00e+00	0	45	104	0	64	18848
2026-01-01 20:26:57.14	39.27	12.34	-47.2	-49.2	4.2	0.00e+00	0	45	104	0	65	18758
2026-01-01 20:26:58.15	39.45	12.44	-47.7	-49.7	4.1	0.00e+00	0	45	104	0	65	19898
2026-01-01 20:26:59.15	39.62	12.54	-48.8	-51.3	3.7	0.00e+00	0	45	104	0	69	18831
2026-01-01 20:27:00.15	39.80	12.63	-46.8	-48.7	4.3	0.00e+00	0	46	104	0	65	17669
2026-01-01 20:27:01.16	39.98	12.73	-49.1	-51.7	3.8	0.00e+00	0	46	104	0	69	19806
2026-01-01 20:27:02.15	40.16	12.83	-49.1	-51.6	3.9	0.00e+00	0	45	104	0	69	19689
2026-01-01 20:27:03.15	40.34	12.92	-49.1	-51.7	3.7	0.00e+00	0	45	104	0	69	19871
2026-01-01 20:27:04.16	40.53	13.02	-47.7	-50.0	3.6	0.00e+00	0	46	104	0	67	18217
2026-01-01 20:27:05.16	40.71	13.12	-47.5	-49.8	3.7	0.00e+00	0	46	104	0	66	18855
2026-01-01 20:27:06.16	40.90	13.22	-49.8	-52.9	3.7	0.00e+00	0	45	104	0	70	21600
2026-01-01 20:27:07.16	41.09	13.32	-49.4	-52.4	3.8	0.00e+00	0	46	104	0	69	21400
2026-01-01 20:27:08.16	41.28	13.42	-50.3	-53.4	3.7	0.00e+00	0	45	104	0	71	21511
2026-01-01 20:27:09.16	41.47	13.51	-49.9	-53.0	3.7	0.00e+00	0	46	104	0	71	20433
2026-01-01 20:27:10.16	41.66	13.61	-50.2	-53.4	3.7	0.00e+00	0	46	104	0	71	21548
2026-01-01 20:27:11.16	41.85	13.71	-49.8	-52.8	3.7	0.00e+00	0	46	104	0	71	19983
2026-01-01 20:27:12.17	42.05	13.81	-49.4	-52.1	3.6	0.00e+00	0	46	104	0	70	19521
2026-01-01 20:27:13.17	42.25	13.91	-49.0	-51.4	3.6	0.00e+00	0	45	104	0	69	19131
2026-01-01 20:27:14.17	42.44	14.01	-48.8	-51.2	3.6	0.00e+00	0	46	104	0	69	18679
2026-01-01 20:27:15.17	42.64	14.11	-51.0	-54.6	3.7	0.00e+00	0	46	104	0	72	23252
2026-01-01 20:27:16.17	42.85	14.22	-50.4	-53.4	3.7	0.00e+00	0	46	104	0	71	21493
2026-01-01 20:27:17.18	43.05	14.32	-50.7	-53.7	3.7	0.00e+00	0	46	104	0	72	21091
2026-01-01 20:27:18.18	43.26	14.42	-51.2	-54.7	3.7	0.00e+00	0	46	104	0	73	22294
2026-01-01 20:27:19.18	43.46	14.52	-50.1	-52.8	3.7	0.00e+00	0	46	104	0	71	20148
2026-01-01 20:27:20.18	43.67	14.62	-50.3	-53.2	3.6	0.00e+00	0	46	104	0	71	21051
2026-01-01 20:27:21.18	43.88	14.72	-51.1	-54.6	3.7	0.00e+00	0	46	104	0	72	23211
2026-01-01 20:27:22.18	44.09	14.83	-51.7	-55.6	3.7	0.00e+00	0	46	104	0	73	24639
2026-01-01 20:27:23.18	44.31	14.93	-50.9	-54.4	3.6	0.00e+00	0	46	104	0	73	21443
2026-01-01 20:27:24.18	44.52	15.03	-49.6	-52.4	3.6	0.00e+00	0	46	104	0	71	19110
2026-01-01 20:27:25.18	44.74	15.14	-50.0	-53.0	3.7	0.00e+00	0	46	104	0	71	20422
2026-01-01 20:27:26.19	44.96	15.24	-48.9	-51.5	3.7	0.00e+00	0	46	104	0	69	19375
2026-01-01 20:27:27.18	45.18	15.34	-48.5	-50.8	3.7	0.00e+00	0	46	104	0	68	18897
2026-01-01 20:27:28.19	45.40	15.45	-49.9	-52.7	3.7	0.00e+00	0	46	104	0	70	20902
2026-01-01 20:27:29.19	45.62	15.55	-50.0	-52.8	3.7	0.00e+00	0	46	104	0	71	20154
2026-01-01 20:27:30.19	45.85	15.66	-50.6	-53.9	3.7	0.00e+00	0	46	104	0	72	21432
2026-01-01 20:27:31.20	46.08	15.76	-51.0	-54.5	3.7	0.00e+00	0	46	104	0	72	23032
2026-01-01 20:27:32.20	46.31	15.87	-51.0	-54.6	3.7	0.00e+00	0	46	104	0	72	23289
2026-01-01 20:27:33.20	46.54	15.97	-51.3	-55.1	3.7	0.00e+00	0	46	104	0	73	23378
2026-01-01 20:27:34.20	46.77	16.08	-51.1	-54.8	3.7	0.00e+00	0	46	104	0	73	22499
2026-01-01 20:27:35.20	47.01	16.18	-51.8	-55.9	3.7	0.00e+00	0	46	104	0	74	24111
2026-01-01 20:27:36.19	47.24	16.29	-51.6	-55.5	3.7	0.00e+00	0	46	104	0	74	23132
2026-01-01 20:27:37.19	47.48	16.39	-51.4	-55.3	3.7	0.00e+00	0	46	104	0	74	22445
2026-01-01 20:27:38.19	47.72	16.50	-51.9	-56.0	3.7	0.00e+00	0	46	104	0	74	24505
2026-01-01 20:27:39.19	47.97	16.60	-52.1	-56.3	3.7	0.00e+00	0	46	104	0	74	25359
2026-01-01 20:27:40.19	48.21	16.71	-51.7	-55.7	3.7	0.00e+00	0	46	104	0	74	23491
2026-01-01 20:27:41.19	48.46	16.82	-51.4	-55.2	3.7	0.00e+00	0	46	104	0	74	22170
2026-01-01 20:27:42.19	48.71	16.92	-51.7	-55.9	3.7	0.00e+00	0	46	104	0	74	24010
2026-01-01 20:27:43.19	48.96	17.03	-51.6	-55.6	3.7	0.00e+00	0	46	104	0	74	23415
2026-01-01 20:27:44.19	49.21	17.14	-51.7	-55.8	3.7	0.00e+00	0	46	104	0	74	23837
2026-01-01 20:27:45.19	49.47	17.24	-52.1	-56.6	3.7	0.00e+00	0	46	104	0	74	26131
2026-01-01 20:27:46.19	49.73	17.35	-51.9	-56.2	3.7	0.00e+00	0	46	104	0	74	24985
2026-01-01 20:27:47.19	49.99	17.46	-52.0	-56.5	3.7	0.00e+00	0	46	104	0	74	25974
2026-01-01 20:27:48.18	50.24	17.56	-52.1	-56.5	3.7	0.00e+00	0	46	104	0	75	24516
2026-01-01 20:27:49.18	50.51	17.67	-51.9	-56.3	3.7	0.00e+00	0	46	104	0	75	23756
2026-01-01 20:27:50.19	50.78	17.78	-52.1	-56.5	3.7	0.00e+00	0	47	104	0	75	24264
2026-01-01 20:27:51.19	51.04	17.89	-51.8	-56.1	3.7	0.00e+00	0	47	104	0	75	23290
2026-01-01 20:27:52.19	51.32	17.99	-52.1	-56.6	3.7	0.00e+00	0	46	104	0	75	24706
2026-01-01 20:27:53.19	51.59	18.10	-51.9	-56.5	3.7	0.00e+00	0	46	104	0	75	24496
2026-01-01 20:27:54.19	51.86	18.21	-52.0	-56.6	3.7	0.00e+00	0	47	104	0	75	24646
2026-01-01 20:27:55.19	52.14	18.32	-51.8	-56.3	3.7	0.00e+00	0	47	104	0	75	23924
2026-01-01 20:27:56.19	52.42	18.43	-51.8	-56.3	3.7	0.00e+00	0	47	104	0	75	23911
2026-01-01 20:27:57.19	52.70	18.53	-52.2	-56.7	3.7	0.00e+00	0	47	104	0	75	24899
2026-01-01 20:27:58.19	52.98	18.64	-52.1	-56.7	3.7	0.00e+00	0	47	104	0	75	24970
2026-01-01 20:27:59.18	53.27	18.75	-52.2	-56.7	3.7	0.00e+00	0	47	104	0	75	24839
2026-01-01 20:28:00.18	53.56	18.86	-52.3	-56.8	3.7	0.00e+00	0	47	104	0	75	25187
2026-01-01 20:28:01.18	53.85	18.96	-51.9	-56.2	3.7	0.00e+00	0	47	104	0	75	23667
2026-01-01 20:28:02.18	54.14	19.07	-52.2	-56.6	3.7	0.00e+00	0	46	104	0	75	24716
2026-01-01 20:28:03.18	54.44	19.18	-52.0	-56.6	3.7	0.00e+00	0	47	104	0	75	24760
2026-01-01 20:28:04.17	54.73	19.29	-51.5	-55.8	3.7	0.00e+00	0	47	104	0	74	23803
2026-01-01 20:28:05.17	55.03	19.39	-52.0	-56.3	3.7	0.00e+00	0	47	104	0	74	25149
2026-01-01 20:28:06.17	55.33	19.50	-51.8	-56.3	3.7	0.00e+00	0	47	104	0	74	25241
2026-01-01 20:28:07.17	55.64	19.61	-51.9	-56.2	3.7	0.00e+00	0	47	104	0	74	25002
2026-01-01 20:28:08.17	55.95	19.72	-52.0	-56.4	3.7	0.00e+00	0	47	104	0	74	25656
2026-01-01 20:28:09.17	56.26	19.82	-52.0	-56.6	3.7	0.00e+00	0	47	104	0	74	26025
2026-01-01 20:28:10.17	56.57	19.93	-52.1	-56.8	3.7	0.00e+00	0	47	104	0	74	26687
2026-01-01 20:28:11.16	56.88	20.03	-52.1	-56.8	3.7	0.00e+00	0	47	104	0	74	26665
2026-01-01 20:28:12.16	57.20	20.14	-52.1	-56.8	3.7	0.00e+00	0	47	104	0	74	26706
2026-01-01 20:28:13.16	57.52	20.25	-52.4	-57.0	3.7	0.00e+00	0	47	104	0	75	25826
2026-01-01 20:28:14.16	57.84	20.35	-52.0	-56.5	3.7	0.00e+00	0	47	104	0	75	24521
2026-01-01 20:28:15.16	58.17	20.46	-52.4	-57.0	3.7	0.00e+00	0	47	104	0	75	25881
2026-01-01 20:28:16.16	58.49	20.56	-51.7	-56.3	3.7	0.00e+00	0	47	104	0	75	23695
2026-01-01 20:28:17.16	58.82	20.67	-51.3	-56.2	3.7	0.00e+00	0	46	104	0	74	24853
2026-01-01 20:28:18.16	59.16	20.77	-51.4	-56.0	3.7	0.00e+00	0	47	104	0	74	24445
2026-01-01 20:28:19.16	59.49	20.88	-51.3	-56.1	3.7	0.00e+00	0	47	104	0	74	24652
2026-01-01 20:28:20.16	59.83	20.98	-51.9	-56.4	3.7	0.00e+00	0	47	104	0	74	25480
2026-01-01 20:28:21.16	60.17	21.09	-51.7	-55.9	3.7	0.00e+00	0	47	104	0	74	24008
2026-01-01 20:28:22.16	60.51	21.19	-51.8	-56.4	3.7	0.00e+00	0	47	104	0	74	25537
2026-01-01 20:28:23.16	60.86	21.29	-51.7	-56.0	3.7	0.00e+00	0	47	104	0	74	24361
2026-01-01 20:28:24.16	61.21	21.40	-51.9	-56.7	3.7	0.00e+00	0	47	104	0	74	26287
2026-01-01 20:28:25.16	61.56	21.50	-52.0	-56.8	3.7	0.00e+00	0	47	104	0	74	26631
2026-01-01 20:28:26.16	61.91	21.60	-52.1	-56.8	3.7	0.00e+00	0	47	104	0	74	26596
2026-01-01 20:28:27.16	62.27	21.70	-52.2	-56.8	3.7	0.00e+00	0	47	104	0	74	26728
2026-01-01 20:28:28.15	62.62	21.80	-52.0	-56.3	3.7	0.00e+00	0	47	104	0	75	23935
2026-01-01 20:28:29.16	62.99	21.90	-52.1	-56.5	3.7	0.00e+00	0	47	104	0	75	24320
2026-01-01 20:28:30.16	63.35	22.00	-52.1	-56.8	3.7	0.00e+00	0	47	104	0	75	25228
2026-01-01 20:28:31.15	63.72	22.10	-52.2	-56.6	3.7	0.00e+00	0	47	104	0	75	24752
2026-01-01 20:28:32.15	64.09	22.20	-52.1	-56.6	3.7	0.00e+00	0	47	104	0	75	24550
2026-01-01 20:28:33.15	64.46	22.30	-52.3	-56.6	3.7	0.00e+00	0	47	104	0	75	24757
2026-01-01 20:28:34.14	64.83	22.39	-52.3	-56.9	3.7	0.00e+00	0	47	104	0	75	25468
2026-01-01 20:28:35.15	65.21	22.49	-52.1	-56.8	3.7	0.00e+00	0	47	104	0	75	25257
2026-01-01 20:28:36.14	65.59	22.59	-52.0	-56.8	3.7	0.00e+00	0	47	104	0	75	25097
2026-01-01 20:28:37.14	65.97	22.68	-52.2	-56.9	3.7	0.00e+00	0	47	104	0	75	25532
2026-01-01 20:28:38.15	66.36	22.78	-52.6	-57.1	3.7	0.00e+00	0	47	104	0	75	26176
2026-01-01 20:28:39.15	66.75	22.87	-52.4	-56.7	3.7	0.00e+00	0	47	104	0	75	25063
2026-01-01 20:28:40.14	67.13	22.96	-52.6	-57.1	3.7	0.00e+00	0	47	104	0	75	26229
2026-01-01 20:28:41.14	67.52	23.05	-52.2	-56.6	3.7	0.00e+00	0	47	104	0	75	24757
2026-01-01 20:28:42.14	67.92	23.15	-52.3	-56.8	3.7	0.00e+00	0	47	104	0	75	25304
2026-01-01 20:28:43.14	68.32	23.24	-52.2	-56.7	3.7	0.00e+00	0	47	104	0	75	24929
2026-01-01 20:28:44.14	68.72	23.33	-52.4	-57.0	3.7	0.00e+00	0	47	104	0	75	25869
2026-01-01 20:28:45.13	69.12	23.41	-52.1	-56.4	3.7	0.00e+00	0	47	104	0	75	24224
2026-01-01 20:28:46.13	69.52	23.50	-52.1	-56.8	3.7	0.00e+00	0	47	104	0	75	25117
2026-01-01 20:28:47.13	69.93	23.59	-52.3	-56.9	3.7	0.00e+00	0	47	104	0	75	25586
2026-01-01 20:28:48.12	70.34	23.67	-52.3	-57.0	3.7	0.00e+00	0	47	104	0	75	25739
2026-01-01 20:28:49.12	70.75	23.76	-52.3	-56.9	3.7	0.00e+00	0	47	104	0	75	25598
2026-01-01 20:28:50.12	71.17	23.84	-52.4	-56.9	3.7	0.00e+00	0	47	104	0	75	25452
2026-01-01 20:28:51.12	71.59	23.92	-52.4	-57.0	3.7	0.00e+00	0	47	104	0	75	25726
2026-01-01 20:28:52.12	72.01	24.00	-52.4	-57.0	3.7	0.00e+00	0	47	104	0	75	25845
2026-01-01 20:28:53.12	72.43	24.08	-52.3	-56.7	3.7	0.00e+00	0	47	104	0	75	25081
2026-01-01 20:28:54.11	72.85	24.16	-52.2	-56.6	3.7	0.00e+00	0	47	104	0	75	24590
2026-01-01 20:28:55.11	73.28	24.24	-52.1	-56.5	3.7	0.00e+00	0	47	104	0	75	24481
2026-01-01 20:28:56.11	73.71	24.31	-52.0	-56.3	3.7	0.00e+00	0	47	104	0	75	23842
2026-01-01 20:28:57.11	74.14	24.39	-52.0	-56.4	3.7	0.00e+00	0	47	104	0	75	24014
2026-01-01 20:28:58.10	74.57	24.46	-52.3	-56.7	3.7	0.00e+00	0	47	104	0	75	24957
2026-01-01 20:28:59.10	75.01	24.53	-51.8	-56.3	3.7	0.00e+00	0	47	104	0	75	23875
2026-01-01 20:29:00.10	75.45	24.61	-52.1	-56.6	3.7	0.00e+00	0	47	104	0	75	24720
2026-01-01 20:29:01.09	75.89	24.67	-51.9	-56.5	3.7	0.00e+00	0	47	104	0	75	24252
2026-01-01 20:29:02.09	76.33	24.74	-51.7	-56.1	3.7	0.00e+00	0	47	104	0	75	23236
2026-01-01 20:29:03.09	76.77	24.81	-52.0	-56.4	3.7	0.00e+00	0	47	104	0	75	24015
2026-01-01 20:29:04.09	77.22	24.88	-51.8	-56.2	3.7	0.00e+00	0	47	104	0	75	23436
2026-01-01 20:29:05.09	77.67	24.94	-52.0	-56.5	3.7	0.00e+00	0	47	104	0	75	24381
2026-01-01 20:29:06.09	78.12	25.00	-52.0	-56.6	3.7	0.00e+00	0	47	104	0	75	24764
2026-01-01 20:29:07.09	78.58	25.06	-52.0	-56.7	3.7	0.00e+00	0	47	104	0	75	25085
2026-01-01 20:29:08.08	79.03	25.12	-52.1	-57.0	3.7	0.00e+00	0	47	104	0	75	25723
2026-01-01 20:29:09.08	79.49	25.18	-52.2	-56.9	3.7	0.00e+00	0	47	104	0	75	25676
2026-01-01 20:29:10.08	79.95	25.24	-52.2	-56.9	3.7	0.00e+00	0	47	104	0	75	25675
2026-01-01 20:29:11.08	80.41	25.29	-51.8	-56.7	3.7	0.00e+00	0	47	104	0	75	24893
2026-01-01 20:29:12.07	80.87	25.34	-51.7	-56.7	3.7	0.00e+00	0	47	104	0	75	24869
2026-01-01 20:29:13.07	81.33	25.39	-51.6	-56.6	3.7	0.00e+00	0	47	104	0	75	24797
2026-01-01 20:29:14.07	81.80	25.44	-51.7	-56.6	3.7	0.00e+00	0	47	104	0	75	24640
2026-01-01 20:29:15.08	82.27	25.49	-51.8	-56.8	3.7	0.00e+00	0	47	104	0	75	25288
2026-01-01 20:29:16.08	82.74	25.54	-51.4	-56.5	3.7	0.00e+00	0	47	104	0	74	25767
2026-01-01 20:29:17.08	83.21	25.58	-51.5	-56.6	3.7	0.00e+00	0	47	104	0	74	26011
2026-01-01 20:29:18.08	83.68	25.62	-51.2	-56.0	3.7	0.00e+00	0	47	104	0	74	24496
2026-01-01 20:29:19.07	84.15	25.66	-51.5	-56.4	3.7	0.00e+00	0	47	104	0	74	25441
2026-01-01 20:29:20.07	84.63	25.70	-51.7	-56.5	3.7	0.00e+00	0	47	104	0	74	25871
2026-01-01 20:29:21.07	85.10	25.74	-51.5	-56.3	3.7	0.00e+00	0	47	104	0	74	25139
2026-01-01 20:29:22.07	85.58	25.78	-51.4	-56.4	3.7	0.00e+00	0	47	104	0	74	25408
2026-01-01 20:29:23.07	86.06	25.81	-51.3	-56.4	3.7	0.00e+00	0	47	104	0	74	25543
2026-01-01 20:29:24.07	86.54	25.84	-51.8	-56.6	3.7	0.00e+00	0	47	104	0	74	26126
2026-01-01 20:29:25.06	87.02	25.87	-51.5	-56.4	3.6	0.00e+00	0	47	104	0	74	25675
2026-01-01 20:29:26.06	87.50	25.90	-52.0	-56.7	3.7	0.00e+00	0	47	104	0	74	26366
2026-01-01 20:29:27.06	87.98	25.92	-52.1	-56.9	3.7	0.00e+00	0	47	104	0	74	26934
2026-01-01 20:29:28.06	88.46	25.95	-51.7	-56.7	3.7	0.00e+00	0	47	104	0	74	26424
2026-01-01 20:29:29.06	88.95	25.97	-51.8	-56.8	3.7	0.00e+00	0	47	104	0	74	26668
2026-01-01 20:29:30.06	89.43	25.99	-51.9	-56.8	3.7	0.00e+00	0	47	104	0	74	26796
2026-01-01 20:29:31.06	89.92	26.01	-52.1	-56.6	3.7	0.00e+00	0	47	104	0	74	26264
2026-01-01 20:29:32.05	90.40	26.02	-52.1	-56.6	3.7	0.00e+00	0	47	104	0	74	26071
2026-01-01 20:29:33.05	90.89	26.03	-52.1	-56.5	3.7	0.00e+00	0	47	104	0	74	25845
2026-01-01 20:29:34.05	91.37	26.05	-51.9	-56.4	3.7	0.00e+00	0	47	104	0	74	25636
2026-01-01 20:29:35.05	91.86	26.06	-52.1	-56.9	3.7	0.00e+00	0	47	104	0	74	27029
2026-01-01 20:29:36.05	92.35	26.06	-51.9	-56.5	3.7	0.00e+00	0	47	104	0	74	25763
2026-01-01 20:29:37.05	92.84	26.07	-51.8	-56.6	3.7	0.00e+00	0	47	104	0	74	26198
2026-01-01 20:29:38.05	93.33	26.07	-52.0	-56.1	3.7	0.00e+00	0	47	104	0	74	24792
2026-01-01 20:29:39.04	93.81	26.08	-52.4	-56.8	3.7	0.00e+00	0	47	104	0	75	25284
2026-01-01 20:29:40.04	94.30	26.07	-52.0	-56.2	3.7	0.00e+00	0	47	104	0	75	23478
2026-01-01 20:29:41.04	94.79	26.07	-51.9	-56.1	3.7	0.00e+00	0	47	104	0	75	23314
2026-01-01 20:29:42.04	95.28	26.07	-51.8	-56.0	3.7	0.00e+00	0	47	104	0	75	23115
2026-01-01 20:29:43.04	95.77	26.06	-51.7	-55.9	3.7	0.00e+00	0	47	104	0	75	22748
2026-01-01 20:29:44.04	96.25	26.05	-51.8	-56.1	3.7	0.00e+00	0	47	104	0	75	23159
2026-01-01 20:29:45.04	96.74	26.04	-52.0	-56.2	3.7	0.00e+00	0	48	104	0	75	23651
2026-01-01 20:29:46.04	97.23	26.03	-52.0	-56.3	3.7	0.00e+00	0	48	104	0	75	23753
2026-01-01 20:29:47.04	97.72	26.02	-52.0	-56.3	3.7	0.00e+00	0	47	104	0	75	23773
2026-01-01 20:29:48.04	98.20	26.00	-51.9	-56.3	3.7	0.00e+00	0	48	104	0	75	23931
2026-01-01 20:29:49.04	98.69	25.98	-51.9	-56.7	3.7	0.00e+00	0	47	104	0	75	24980
2026-01-01 20:29:50.04	99.17	25.96	-51.9	-56.5	3.7	0.00e+00	0	47	104	0	75	24465
2026-01-01 20:29:51.03	99.65	25.94	-52.3	-57.0	3.7	0.00e+00	0	48	104	0	75	25863
2026-01-01 20:29:52.04	100.14	25.91	-52.1	-56.5	3.7	0.00e+00	0	47	104	0	75	24287
2026-01-01 20:29:53.04	100.63	25.89	-52.4	-56.9	3.7	0.00e+00	0	47	104	0	75	25472
2026-01-01 20:29:54.03	101.10	25.86	-52.4	-56.8	3.7	0.00e+00	0	47	104	0	75	25177
2026-01-01 20:29:55.03	101.58	25.83	-52.5	-57.1	3.7	0.00e+00	0	47	104	0	75	26136
2026-01-01 20:29:56.02	102.06	25.80	-52.4	-57.1	3.7	0.00e+00	0	47	104	0	75	26100
2026-01-01 20:29:57.02	102.54	25.76	-52.3	-56.9	3.7	0.00e+00	0	47	104	0	75	25649
2026-01-01 20:29:58.02	103.02	25.73	-52.3	-57.0	3.7	0.00e+00	0	47	104	0	75	25705
2026-01-01 20:29:59.01	103.49	25.69	-52.4	-57.0	3.7	0.00e+00	0	47	104	0	75	25687
2026-01-01 20:30:00.01	103.97	25.65	-52.4	-57.0	3.7	0.00e+00	0	47	104	0	75	25976
2026-01-01 20:30:01.01	104.44	25.61	-52.3	-57.0	3.7	0.00e+00	0	47	104	0	75	25688
2026-01-01 20:30:02.00	104.91	25.57	-52.2	-56.9	3.7	0.00e+00	0	48	104	0	75	25539
2026-01-01 20:30:03.00	105.38	25.52	-52.4	-57.0	3.7	0.00e+00	0	47	104	0	75	25833
2026-01-01 20:30:04.00	105.85	25.48	-52.3	-57.0	3.7	0.00e+00	0	48	104	0	75	25798
2026-01-01 20:30:04.99	106.31	25.43	-52.2	-56.8	3.7	0.00e+00	0	47	104	0	75	25330
2026-01-01 20:30:05.99	106.78	25.38	-52.1	-56.8	3.7	0.00e+00	0	47	104	0	75	25267
2026-01-01 20:30:06.99	107.25	25.33	-52.4	-56.9	3.7	0.00e+00	0	47	104	0	75	25541
2026-01-01 20:30:07.98	107.70	25.27	-52.6	-57.1	3.7	0.00e+00	0	47	104	0	75	26222
2026-01-01 20:30:08.98	108.17	25.22	-52.3	-57.0	3.7	0.00e+00	0	48	104	0	75	25823
2026-01-01 20:30:09.98	108.63	25.16	-52.5	-57.1	3.7	0.00e+00	0	47	104	0	75	26119
2026-01-01 20:30:10.98	109.09	25.10	-51.9	-56.7	3.6	0.00e+00	0	47	104	0	75	24873
2026-01-01 20:30:11.98	109.54	25.04	-51.7	-56.4	3.7	0.00e+00	0	47	104	0	75	24099
2026-01-01 20:30:12.97	109.99	24.98	-52.0	-56.6	3.7	0.00e+00	0	48	104	0	75	24601
2026-01-01 20:30:13.97	110.44	24.92	-51.8	-56.4	3.7	0.00e+00	0	47	104	0	75	24098
2026-01-01 20:30:14.96	110.89	24.85	-51.9	-56.7	3.7	0.00e+00	0	47	104	0	75	24945
2026-01-01 20:30:15.97	111.34	24.79	-52.0	-56.7	3.7	0.00e+00	0	47	104	0	75	24986
2026-01-01 20:30:16.96	111.79	24.72	-52.2	-56.8	3.7	0.00e+00	0	48	104	0	75	25305
2026-01-01 20:30:17.96	112.23	24.65	-52.0	-56.8	3.7	0.00e+00	0	48	104	0	75	25164
2026-01-01 20:30:18.95	112.67	24.58	-52.2	-56.8	3.7	0.00e+00	0	47	104	0	75	25231
2026-01-01 20:30:19.95	113.11	24.51	-52.1	-56.7	3.7	0.00e+00	0	47	104	0	75	25017
2026-01-01 20:30:20.95	113.55	24.44	-52.1	-56.7	3.7	0.00e+00	0	47	104	0	75	24944
2026-01-01 20:30:21.94	113.98	24.36	-52.0	-56.6	3.7	0.00e+00	0	47	104	0	75	24775
2026-01-01 20:30:22.95	114.42	24.29	-52.3	-56.8	3.7	0.00e+00	0	47	104	0	75	25297
2026-01-01 20:30:23.95	114.85	24.21	-52.2	-56.9	3.7	0.00e+00	0	48	104	0	75	25487
2026-01-01 20:30:24.94	115.27	24.13	-52.3	-56.9	3.7	0.00e+00	0	48	104	0	75	25635
2026-01-01 20:30:25.94	115.70	24.05	-52.4	-57.0	3.7	0.00e+00	0	47	104	0	75	25742
2026-01-01 20:30:26.94	116.12	23.97	-52.2	-57.0	3.7	0.00e+00	0	47	104	0	75	25826
2026-01-01 20:30:27.94	116.54	23.89	-51.8	-56.5	3.7	0.00e+00	0	48	104	0	75	24384
2026-01-01 20:30:28.94	116.96	23.81	-52.2	-56.6	3.7	0.00e+00	0	47	104	0	75	24548
2026-01-01 20:30:29.94	117.38	23.72	-52.1	-56.4	3.7	0.00e+00	0	48	104	0	75	24238
2026-01-01 20:30:30.94	117.79	23.64	-52.2	-56.7	3.7	0.00e+00	0	48	104	0	75	24919
2026-01-01 20:30:31.94	118.21	23.55	-52.3	-56.9	3.7	0.00e+00	0	48	104	0	75	25483
2026-01-01 20:30:32.94	118.61	23.46	-52.3	-56.9	3.7	0.00e+00	0	48	104	0	75	25536
2026-01-01 20:30:33.94	119.02	23.38	-52.2	-56.9	3.7	0.00e+00	0	48	104	0	75	25427
2026-01-01 20:30:34.94	119.43	23.29	-52.4	-56.9	3.7	0.00e+00	0	48	104	0	75	25548
2026-01-01 20:30:35.94	119.83	23.20	-52.5	-56.9	3.7	0.00e+00	0	47	104	0	75	25660
2026-01-01 20:30:36.94	120.23	23.10	-52.5	-57.0	3.7	0.00e+00	0	48	104	0	75	25919
2026-01-01 20:30:37.94	120.62	23.01	-52.5	-57.0	3.7	0.00e+00	0	48	104	0	75	25740
2026-01-01 20:30:38.94	121.02	22.92	-52.4	-56.9	3.7	0.00e+00	0	48	104	0	75	25542
2026-01-01 20:30:39.93	121.40	22.83	-52.2	-56.7	3.7	0.00e+00	0	48	104	0	75	24932
2026-01-01 20:30:40.93	121.79	22.73	-52.2	-56.5	3.7	0.00e+00	0	47	104	0	75	24468
2026-01-01 20:30:41.94	122.18	22.64	-52.2	-56.6	3.7	0.00e+00	0	47	104	0	75	24633
2026-01-01 20:30:42.93	122.56	22.54	-52.0	-56.3	3.7	0.00e+00	0	48	104	0	75	23944
2026-01-01 20:30:43.93	122.94	22.44	-52.1	-56.5	3.7	0.00e+00	0	48	104	0	75	24425
2026-01-01 20:30:44.93	123.32	22.35	-52.2	-56.7	3.7	0.00e+00	0	48	104	0	75	24908
2026-01-01 20:30:45.93	123.70	22.25	-52.1	-56.6	3.7	0.00e+00	0	48	104	0	75	24772
2026-01-01 20:30:46.93	124.07	22.15	-52.3	-56.9	3.7	0.00e+00	0	48	104	0	75	25600
2026-01-01 20:30:47.93	124.44	22.05	-52.2	-56.6	3.7	0.00e+00	0	48	104	0	75	24780
2026-01-01 20:30:48.93	124.81	21.95	-51.8	-56.5	3.7	0.00e+00	0	48	104	0	75	24292
2026-01-01 20:30:49.94	125.18	21.85	-52.2	-56.7	3.7	0.00e+00	0	48	104	0	75	24941
2026-01-01 20:30:50.94	125.54	21.75	-51.6	-56.4	3.7	0.00e+00	0	48	104	0	75	24019
2026-01-01 20:30:51.93	125.90	21.65	-51.6	-56.4	3.7	0.00e+00	0	48	104	0	74	25634
2026-01-01 20:30:52.93	126.25	21.54	-51.7	-56.5	3.7	0.00e+00	0	47	104	0	74	25786
2026-01-01 20:30:53.93	126.61	21.44	-51.4	-56.4	3.7	0.00e+00	0	48	104	0	74	25575
2026-01-01 20:30:54.93	126.96	21.34	-52.0	-56.5	3.7	0.00e+00	0	48	104	0	74	25879
2026-01-01 20:30:55.93	127.31	21.23	-52.0	-56.2	3.7	0.00e+00	0	48	104	0	74	25065
2026-01-01 20:30:56.93	127.65	21.13	-52.4	-56.8	3.7	0.00e+00	0	47	104	0	75	25182
2026-01-01 20:30:57.92	128.00	21.03	-52.2	-56.5	3.7	0.00e+00	0	47	104	0	75	24283
2026-01-01 20:30:58.93	128.34	20.92	-52.4	-56.8	3.7	0.00e+00	0	47	104	0	75	25211
2026-01-01 20:30:59.93	128.68	20.82	-52.1	-56.5	3.7	0.00e+00	0	48	104	0	75	24344
2026-01-01 20:31:00.92	129.01	20.71	-51.8	-56.2	3.7	0.00e+00	0	48	104	0	75	23514
2026-01-01 20:31:01.92	129.35	20.61	-52.0	-56.2	3.7	0.00e+00	0	48	104	0	75	23653
2026-01-01 20:31:02.92	129.68	20.50	-51.7	-55.9	3.7	0.00e+00	0	48	104	0	75	22868
2026-01-01 20:31:03.92	130.01	20.39	-52.0	-56.6	3.7	0.00e+00	0	48	104	0	75	24547
2026-01-01 20:31:04.92	130.33	20.29	-52.0	-56.4	3.7	0.00e+00	0	48	104	0	75	24191
2026-01-01 20:31:05.92	130.65	20.18	-51.9	-56.4	3.7	0.00e+00	0	48	104	0	75	24037
2026-01-01 20:31:06.92	130.98	20.07	-52.0	-56.4	3.7	0.00e+00	0	48	104	0	75	24060
2026-01-01 20:31:07.91	131.29	19.97	-52.0	-56.4	3.7	0.00e+00	0	48	104	0	75	24030
2026-01-01 20:31:08.91	131.61	19.86	-52.1	-56.4	3.7	0.00e+00	0	48	104	0	75	24153
2026-01-01 20:31:09.91	131.92	19.75	-52.0	-56.4	3.7	0.00e+00	0	48	104	0	75	24065
2026-01-01 20:31:10.91	132.23	19.64	-51.8	-56.1	3.7	0.00e+00	0	48	104	0	75	23256
2026-01-01 20:31:11.91	132.54	19.53	-51.8	-56.2	3.7	0.00e+00	0	48	104	0	75	23523
2026-01-01 20:31:12.91	132.85	19.43	-51.9	-56.2	3.7	0.00e+00	0	48	104	0	75	23660
2026-01-01 20:31:13.92	133.15	19.32	-51.8	-56.1	3.7	0.00e+00	0	47	104	0	75	23161
2026-01-01 20:31:14.92	133.45	19.21	-52.0	-56.4	3.7	0.00e+00	0	48	104	0	75	24218
2026-01-01 20:31:15.92	133.75	19.10	-52.2	-56.5	3.7	0.00e+00	0	48	104	0	75	24278
2026-01-01 20:31:16.91	134.04	18.99	-52.1	-56.5	3.7	0.00e+00	0	48	104	0	75	24327
2026-01-01 20:31:17.92	134.34	18.88	-52.1	-56.4	3.7	0.00e+00	0	48	104	0	75	24195
2026-01-01 20:31:18.91	134.63	18.77	-52.0	-56.4	3.7	0.00e+00	0	48	104	0	75	24017
2026-01-01 20:31:19.91	134.92	18.67	-52.1	-56.5	3.7	0.00e+00	0	48	104	0	75	24390
2026-01-01 20:31:20.91	135.21	18.56	-52.1	-56.5	3.7	0.00e+00	0	47	104	0	75	24485
2026-01-01 20:31:21.91	135.49	18.45	-52.1	-56.5	3.7	0.00e+00	0	47	104	0	75	24412
2026-01-01 20:31:22.91	135.77	18.34	-52.2	-56.6	3.7	0.00e+00	0	48	104	0	75	24644
2026-01-01 20:31:23.91	136.05	18.23	-51.7	-56.2	3.7	0.00e+00	0	48	104	0	75	23601
2026-01-01 20:31:24.91	136.33	18.12	-51.8	-56.2	3.7	0.00e+00	0	48	104	0	75	23628
2026-01-01 20:31:25.91	136.61	18.01	-51.7	-56.2	3.7	0.00e+00	0	48	104	0	75	23471
2026-01-01 20:31:26.91	136.88	17.90	-51.8	-56.3	3.7	0.00e+00	0	48	104	0	75	23932
2026-01-01 20:31:27.90	137.15	17.80	-52.1	-56.5	3.7	0.00e+00	0	48	104	0	75	24474
2026-01-01 20:31:28.90	137.42	17.69	-52.0	-56.5	3.7	0.00e+00	0	48	104	0	75	24415
2026-01-01 20:31:29.90	137.68	17.58	-52.0	-56.6	3.7	0.00e+00	0	48	104	0	75	24537
2026-01-01 20:31:30.90	137.95	17.47	-52.0	-56.4	3.7	0.00e+00	0	48	104	0	75	23980
2026-01-01 20:31:31.89	138.21	17.36	-51.9	-56.3	3.7	0.00e+00	0	48	104	0	75	23773
2026-01-01 20:31:32.90	138.47	17.26	-51.9	-56.2	3.7	0.00e+00	0	48	104	0	75	23660
2026-01-01 20:31:33.90	138.73	17.15	-51.9	-56.3	3.7	0.00e+00	0	48	104	0	75	23827
2026-01-01 20:31:34.90	138.98	17.04	-52.0	-56.5	3.7	0.00e+00	0	48	104	0	75	24458
2026-01-01 20:31:35.90	139.24	16.93	-52.0	-56.5	3.7	0.00e+00	0	48	104	0	75	24274
2026-01-01 20:31:36.90	139.49	16.82	-52.0	-56.6	3.7	0.00e+00	0	48	104	0	75	24581
2026-01-01 20:31:37.89	139.74	16.72	-52.0	-56.5	3.7	0.00e+00	0	48	104	0	75	24330
2026-01-01 20:31:38.89	139.98	16.61	-51.8	-56.3	3.7	0.00e+00	0	48	104	0	75	23765
2026-01-01 20:31:39.89	140.23	16.50	-51.4	-56.0	3.7	0.00e+00	0	48	104	0	74	24360
2026-01-01 20:31:40.89	140.47	16.40	-51.6	-56.0	3.7	0.00e+00	0	48	104	0	74	24409
2026-01-01 20:31:41.89	140.71	16.29	-51.4	-56.1	3.7	0.00e+00	0	48	104	0	74	24530
2026-01-01 20:31:42.89	140.95	16.18	-51.4	-56.3	3.7	0.00e+00	0	48	104	0	74	25230
2026-01-01 20:31:43.88	141.19	16.08	-51.3	-56.2	3.7	0.00e+00	0	48	104	0	74	25043
2026-01-01 20:31:44.88	141.42	15.97	-51.5	-56.3	3.7	0.00e+00	0	48	104	0	74	25309
2026-01-01 20:31:45.88	141.66	15.87	-50.8	-55.7	3.7	0.00e+00	0	48	104	0	73	25018
2026-01-01 20:31:46.88	141.89	15.76	-50.9	-55.9	3.7	0.00e+00	0	48	104	0	73	25538
2026-01-01 20:31:47.89	142.12	15.65	-50.8	-55.6	3.7	0.00e+00	0	48	104	0	73	24790
2026-01-01 20:31:48.88	142.35	15.55	-50.7	-55.6	3.7	0.00e+00	0	48	104	0	73	24650
2026-01-01 20:31:49.88	142.57	15.44	-50.8	-55.5	3.7	0.00e+00	0	48	104	0	73	24409
2026-01-01 20:31:50.89	142.80	15.34	-51.2	-56.0	3.7	0.00e+00	0	48	104	0	73	25800
2026-01-01 20:31:51.88	143.02	15.23	-52.0	-56.7	3.7	0.00e+00	0	48	104	0	74	26328
2026-01-01 20:31:52.88	143.24	15.13	-51.5	-56.3	3.7	0.00e+00	0	48	104	0	74	25100
2026-01-01 20:31:53.88	143.46	15.03	-52.0	-56.7	3.7	0.00e+00	0	48	104	0	74	26468
2026-01-01 20:31:54.88	143.68	14.92	-52.1	-56.6	3.7	0.00e+00	0	48	104	0	74	26184
2026-01-01 20:31:55.89	143.89	14.82	-51.7	-56.3	3.7	0.00e+00	0	48	104	0	74	25362
2026-01-01 20:31:56.89	144.11	14.71	-51.8	-56.4	3.7	0.00e+00	0	48	104	0	74	25534
2026-01-01 20:31:57.88	144.32	14.61	-51.8	-56.4	3.7	0.00e+00	0	48	104	0	74	25423
2026-01-01 20:31:58.88	144.53	14.51	-51.9	-56.4	3.7	0.00e+00	0	48	104	0	74	25574
2026-01-01 20:31:59.88	144.74	14.41	-51.9	-56.5	3.7	0.00e+00	0	48	104	0	74	25817
2026-01-01 20:32:00.88	144.94	14.30	-52.0	-56.5	3.7	0.00e+00	0	48	104	0	74	25753
2026-01-01 20:32:01.88	145.15	14.20	-51.8	-56.4	3.7	0.00e+00	0	48	104	0	74	25469
2026-01-01 20:32:02.88	145.35	14.10	-51.7	-56.4	3.7	0.00e+00	0	48	104	0	74	25397
2026-01-01 20:32:03.88	145.55	14.00	-50.8	-55.7	3.7	0.00e+00	0	48	104	0	73	24914
2026-01-01 20:32:04.87	145.75	13.90	-51.3	-56.1	3.7	0.00e+00	0	48	104	0	73	26230
2026-01-01 20:32:05.87	145.95	13.80	-51.0	-55.6	3.7	0.00e+00	0	48	104	0	73	24738
2026-01-01 20:32:06.87	146.15	13.69	-51.1	-55.4	3.7	0.00e+00	0	48	104	0	73	24077
2026-01-01 20:32:07.87	146.34	13.59	-51.5	-55.9	3.7	0.00e+00	0	48	104	0	73	25600
2026-01-01 20:32:08.87	146.54	13.49	-51.8	-56.3	3.7	0.00e+00	0	48	104	0	74	25098
2026-01-01 20:32:09.87	146.73	13.39	-52.0	-56.3	3.7	0.00e+00	0	48	104	0	74	25292
2026-01-01 20:32:10.87	146.92	13.29	-51.9	-56.3	3.7	0.00e+00	0	48	104	0	74	25259
2026-01-01 20:32:11.87	147.11	13.20	-51.4	-56.1	3.7	0.00e+00	0	48	104	0	74	24526
2026-01-01 20:32:12.87	147.30	13.10	-51.1	-55.8	3.7	0.00e+00	0	48	104	0	74	23881
2026-01-01 20:32:13.87	147.49	13.00	-51.8	-56.4	3.7	0.00e+00	0	48	104	0	74	25451
2026-01-01 20:32:14.87	147.67	12.90	-51.2	-55.9	3.7	0.00e+00	0	48	104	0	74	24188
2026-01-01 20:32:15.87	147.85	12.80	-51.4	-56.0	3.7	0.00e+00	0	48	104	0	74	24368
2026-01-01 20:32:16.87	148.04	12.70	-51.8	-56.3	3.7	0.00e+00	0	48	104	0	74	25194
2026-01-01 20:32:17.87	148.22	12.61	-51.9	-56.3	3.7	0.00e+00	0	48	104	0	74	25252
2026-01-01 20:32:18.87	148.40	12.51	-51.9	-56.2	3.7	0.00e+00	0	48	104	0	74	25045
2026-01-01 20:32:19.86	148.57	12.41	-51.7	-56.1	3.7	0.00e+00	0	48	104	0	74	24559
2026-01-01 20:32:20.86	148.75	12.32	-51.0	-55.6	3.7	0.00e+00	0	48	104	0	74	23350
2026-01-01 20:32:21.85	148.92	12.22	-50.7	-55.4	3.7	0.00e+00	0	48	104	0	73	24132
2026-01-01 20:32:22.84	149.09	12.12	-51.5	-55.9	3.7	0.00e+00	0	48	104	0	73	25486
2026-01-01 20:32:23.84	149.27	12.03	-50.8	-55.4	3.7	0.00e+00	0	48	104	0	73	24128
2026-01-01 20:32:24.83	149.44	11.93	-50.9	-55.6	3.7	0.00e+00	0	48	104	0	73	24616
2026-01-01 20:32:25.83	149.61	11.84	-51.3	-56.0	3.7	0.00e+00	0	48	104	0	73	25845
2026-01-01 20:32:26.83	149.77	11.74	-50.7	-55.4	3.7	0.00e+00	0	48	104	0	73	24084
2026-01-01 20:32:27.82	149.94	11.65	-51.1	-55.8	3.7	0.00e+00	0	48	104	0	73	25193
2026-01-01 20:32:28.83	150.11	11.56	-51.0	-55.6	3.7	0.00e+00	0	48	104	0	73	24748
2026-01-01 20:32:29.83	150.27	11.46	-51.3	-55.9	3.7	0.00e+00	0	48	104	0	73	25610
2026-01-01 20:32:30.82	150.43	11.37	-51.5	-56.1	3.7	0.00e+00	0	48	104	0	73	26086
2026-01-01 20:32:31.82	150.60	11.27	-51.5	-56.1	3.7	0.00e+00	0	48	104	0	73	26005
2026-01-01 20:32:32.82	150.76	11.18	-51.3	-55.9	3.7	0.00e+00	0	48	104	0	73	25610
2026-01-01 20:32:33.82	150.92	11.09	-51.2	-55.6	3.7	0.00e+00	0	48	104	0	73	24751
2026-01-01 20:32:34.81	151.07	11.00	-51.0	-55.7	3.7	0.00e+00	0	48	104	0	73	24995
2026-01-01 20:32:35.81	151.23	10.91	-51.3	-56.1	3.7	0.00e+00	0	48	104	0	73	26060
2026-01-01 20:32:36.81	151.39	10.81	-51.5	-56.2	3.7	0.00e+00	0	48	104	0	73	26391
2026-01-01 20:32:37.81	151.54	10.72	-51.1	-56.1	3.7	0.00e+00	0	48	104	0	73	26085
2026-01-01 20:32:38.81	151.70	10.63	-50.9	-55.8	3.7	0.00e+00	0	48	104	0	73	25136
2026-01-01 20:32:39.81	151.85	10.54	-51.2	-56.0	3.7	0.00e+00	0	48	104	0	73	25907
2026-01-01 20:32:40.80	152.00	10.45	-51.2	-56.0	3.7	0.00e+00	0	48	104	0	73	25945
2026-01-01 20:32:41.80	152.15	10.36	-50.9	-55.8	3.7	0.00e+00	0	48	104	0	73	25114
2026-01-01 20:32:42.80	152.30	10.27	-50.3	-55.3	3.7	0.00e+00	0	48	104	0	72	25243
2026-01-01 20:32:43.80	152.45	10.18	-50.7	-55.6	3.7	0.00e+00	0	48	104	0	72	26074
2026-01-01 20:32:44.80	152.59	10.09	-50.7	-55.6	3.7	0.00e+00	0	48	104	0	72	26054
2026-01-01 20:32:45.80	152.74	10.00	-50.5	-55.4	3.7	0.00e+00	0	48	104	0	72	25574
2026-01-01 20:32:46.79	152.88	9.91	-50.9	-55.5	3.7	0.00e+00	0	48	104	0	72	25961
2026-01-01 20:32:47.79	153.03	9.82	-50.5	-55.4	3.7	0.00e+00	0	48	104	0	72	25419
2026-01-01 20:32:48.79	153.17	9.74	-50.8	-55.5	3.7	0.00e+00	0	48	104	0	72	25906
2026-01-01 20:32:49.79	153.31	9.65	-51.1	-55.7	3.7	0.00e+00	0	48	104	0	72	26451
2026-01-01 20:32:50.79	153.45	9.56	-50.7	-55.4	3.7	0.00e+00	0	48	104	0	73	24211
2026-01-01 20:32:51.78	153.59	9.47	-50.9	-55.5	3.7	0.00e+00	0	48	104	0	73	24449
2026-01-01 20:32:52.79	153.73	9.38	-50.5	-55.1	3.7	0.00e+00	0	48	104	0	73	23254
2026-01-01 20:32:53.78	153.87	9.30	-50.7	-55.4	3.7	0.00e+00	0	48	104	0	72	25625
2026-01-01 20:32:54.78	154.01	9.21	-50.3	-54.9	3.7	0.00e+00	0	48	104	0	72	24054
2026-01-01 20:32:55.79	154.14	9.12	-49.9	-54.5	3.7	0.00e+00	0	48	104	0	71	24436
2026-01-01 20:32:56.78	154.28	9.04	-49.9	-54.7	3.7	0.00e+00	0	48	104	0	71	24859
2026-01-01 20:32:57.78	154.41	8.95	-50.3	-54.9	3.7	0.00e+00	0	48	104	0	71	25593
2026-01-01 20:32:58.78	154.54	8.87	-51.4	-56.1	3.7	0.00e+00	0	48	104	0	73	26165
2026-01-01 20:32:59.77	154.68	8.78	-51.3	-56.0	3.7	0.00e+00	0	48	104	0	73	25910
2026-01-01 20:33:00.77	154.81	8.70	-51.9	-56.4	3.7	0.00e+00	0	48	104	0	74	25672
2026-01-01 20:33:01.77	154.94	8.61	-52.1	-56.6	3.7	0.00e+00	0	48	104	0	74	26127
2026-01-01 20:33:02.76	155.06	8.53	-51.0	-56.2	3.7	0.00e+00	0	48	104	0	72	28051
2026-01-01 20:33:03.76	155.19	8.45	-52.0	-56.9	3.7	0.00e+00	0	48	104	0	75	25622
2026-01-01 20:33:04.76	155.32	8.36	-51.8	-56.6	3.7	0.00e+00	0	48	104	0	75	24748
2026-01-01 20:33:05.76	155.45	8.28	-52.4	-56.8	3.7	0.00e+00	0	48	104	0	75	25106
2026-01-01 20:33:06.76	155.57	8.20	-52.4	-57.0	3.7	0.00e+00	0	48	104	0	75	25943
2026-01-01 20:33:07.76	155.70	8.11	-52.5	-57.0	3.7	0.00e+00	0	48	104	0	75	25959
2026-01-01 20:33:08.75	155.82	8.03	-52.1	-56.3	3.7	0.00e+00	0	48	104	0	75	23944
2026-01-01 20:33:09.75	155.94	7.95	-52.1	-56.3	3.7	0.00e+00	0	48	104	0	75	23900
2026-01-01 20:33:10.74	156.07	7.87	-52.1	-56.3	3.7	0.00e+00	0	48	104	0	75	23861
2026-01-01 20:33:11.74	156.19	7.79	-52.0	-56.2	3.7	0.00e+00	0	48	104	0	75	23653
2026-01-01 20:33:12.74	156.31	7.70	-52.3	-56.5	3.7	0.00e+00	0	48	104	0	75	24289
2026-01-01 20:33:13.74	156.43	7.62	-52.4	-56.9	3.7	0.00e+00	0	48	104	0	75	25470
2026-01-01 20:33:14.74	156.55	7.54	-52.6	-57.1	3.7	0.00e+00	0	48	104	0	75	25990
2026-01-01 20:33:15.74	156.67	7.46	-52.8	-57.1	3.7	0.00e+00	0	48	104	0	76	24749
2026-01-01 20:33:16.74	156.78	7.38	-52.1	-56.5	3.7	0.00e+00	0	48	104	0	76	23144
2026-01-01 20:33:17.73	156.90	7.30	-52.1	-56.4	3.7	0.00e+00	0	48	104	0	76	22868
2026-01-01 20:33:18.73	157.01	7.22	-52.6	-56.7	3.7	0.00e+00	0	48	104	0	76	23476
2026-01-01 20:33:19.73	157.13	7.14	-52.3	-56.9	3.7	0.00e+00	0	48	104	0	76	24067
2026-01-01 20:33:20.72	157.24	7.06	-52.0	-56.8	3.7	0.00e+00	0	48	104	0	75	25278
2026-01-01 20:33:21.72	157.36	6.98	-51.9	-56.5	3.7	0.00e+00	0	48	104	0	75	24270
2026-01-01 20:33:22.72	157.47	6.90	-51.9	-56.5	3.7	0.00e+00	0	48	104	0	75	24341
2026-01-01 20:33:23.72	157.58	6.82	-51.9	-56.5	3.7	0.00e+00	0	48	104	0	75	24252
2026-01-01 20:33:24.72	157.69	6.75	-51.9	-56.5	3.7	0.00e+00	0	48	104	0	75	24298
2026-01-01 20:33:25.72	157.80	6.67	-51.9	-56.5	3.7	0.00e+00	0	48	104	0	75	24381
2026-01-01 20:33:26.72	157.91	6.59	-51.8	-56.5	3.7	0.00e+00	0	48	104	0	75	24253
2026-01-01 20:33:27.72	158.02	6.51	-51.9	-56.4	3.7	0.00e+00	0	48	104	0	75	24230
2026-01-01 20:33:28.72	158.13	6.43	-51.9	-56.5	3.7	0.00e+00	0	48	104	0	75	24296
2026-01-01 20:33:29.72	158.24	6.36	-51.9	-56.4	3.7	0.00e+00	0	48	104	0	75	24237
2026-01-01 20:33:30.72	158.35	6.28	-51.9	-56.5	3.7	0.00e+00	0	48	104	0	75	24249
2026-01-01 20:33:31.72	158.45	6.20	-51.9	-56.4	3.7	0.00e+00	0	48	104	0	75	24228
2026-01-01 20:33:32.71	158.56	6.13	-51.9	-56.5	3.7	0.00e+00	0	48	104	0	75	24260
2026-01-01 20:33:33.71	158.66	6.05	-51.9	-56.4	3.7	0.00e+00	0	48	104	0	75	24217
2026-01-01 20:33:34.70	158.77	5.97	-51.8	-56.4	3.7	0.00e+00	0	48	104	0	75	24222
2026-01-01 20:33:35.69	158.87	5.90	-51.8	-56.4	3.7	0.00e+00	0	49	104	0	75	24200
2026-01-01 20:33:36.69	158.97	5.82	-51.8	-56.5	3.7	0.00e+00	0	48	104	0	75	24284
2026-01-01 20:33:37.68	159.07	5.75	-51.9	-56.5	3.7	0.00e+00	0	48	104	0	75	24270
2026-01-01 20:33:38.68	159.17	5.67	-51.8	-56.5	3.7	0.00e+00	0	48	104	0	75	24260
2026-01-01 20:33:39.68	159.27	5.60	-51.8	-56.4	3.7	0.00e+00	0	48	104	0	75	24129
2026-01-01 20:33:40.68	159.38	5.52	-51.8	-56.4	3.7	0.00e+00	0	48	104	0	75	24236
2026-01-01 20:33:41.68	159.48	5.45	-51.9	-56.5	3.7	0.00e+00	0	48	104	0	75	24247
2026-01-01 20:33:42.68	159.57	5.38	-51.8	-56.4	3.7	0.00e+00	0	48	104	0	75	24210
2026-01-01 20:33:43.68	159.67	5.30	-51.8	-56.4	3.7	0.00e+00	0	49	104	0	75	24241
2026-01-01 20:33:44.68	159.77	5.23	-51.8	-56.5	3.7	0.00e+00	0	48	104	0	75	24279
2026-01-01 20:33:45.67	159.87	5.15	-51.8	-56.4	3.7	0.00e+00	0	48	104	0	75	24153
2026-01-01 20:33:46.67	159.96	5.08	-51.8	-56.4	3.7	0.00e+00	0	48	104	0	75	24217
2026-01-01 20:33:47.67	160.06	5.01	-51.8	-56.4	3.7	0.00e+00	0	48	104	0	75	24182
2026-01-01 20:33:48.66	160.16	4.94	-51.8	-56.4	3.7	0.00e+00	0	48	104	0	75	24178
2026-01-01 20:33:49.65	160.25	4.86	-51.8	-56.4	3.7	0.00e+00	0	48	104	0	75	24181
2026-01-01 20:33:50.65	160.34	4.79	-51.8	-56.4	3.7	0.00e+00	0	48	104	0	75	24194
2026-01-01 20:33:51.65	160.44	4.72	-51.8	-56.4	3.7	0.00e+00	0	48	104	0	75	24147
2026-01-01 20:33:52.64	160.53	4.65	-51.8	-56.4	3.7	0.00e+00	0	48	104	0	75	24194
2026-01-01 20:33:53.64	160.62	4.57	-51.8	-56.4	3.7	0.00e+00	0	48	104	0	75	24179
2026-01-01 20:33:54.63	160.71	4.50	-51.8	-56.4	3.7	0.00e+00	0	48	104	0	75	24146
2026-01-01 20:33:55.63	160.81	4.43	-51.8	-56.4	3.7	0.00e+00	0	49	104	0	75	24236
2026-01-01 20:33:56.62	160.90	4.36	-51.8	-56.4	3.7	0.00e+00	0	48	104	0	75	24073
2026-01-01 20:33:57.62	160.99	4.29	-51.8	-56.4	3.7	0.00e+00	0	48	104	0	75	24198

#Closed at: 2026-01-01 20:33:58
#Recorded file [0 MB]: D:/Data/31040_260101_232538.dat