passes_logs/2026/01/01/T1/T1__20260101_023940_NOAA_20_JPSS-1_rec.log

#Pass ID: 20260101_023940_NOAA 20 (JPSS-1)
#Satellite: NOAA 20 (JPSS-1)
#Configuration: NOAA 20
#almurnet v.1.7.20251203
#Start time: 2026-01-01 02:39:43

#Version: 2.0.20230620
#Station: T1
#Location: 37.570604 lon 55.790049 lat
#TLE: 1 43013U 17073A   25365.45761817  .00000173  00000+0  10307-3 0  9993
#TLE: 2 43013  98.7620 301.5517 0001951  60.3814 299.7557 14.19531661420675

#Time	Az	El	Level	Level2	SNR	BER	BlckErr	Temp	State	Recorded	gain1	gain2
2026-01-01 02:39:43.11	357.92	5.09	-51.2	-66.4	3.8	1.49e+00	0	41	0	0	73	21506
2026-01-01 02:39:44.11	357.79	5.12	-51.3	-66.5	3.8	1.49e+00	0	41	104	0	74	20345
2026-01-01 02:39:45.11	357.66	5.16	-51.3	-66.5	3.8	1.49e+00	0	41	104	0	74	20336
2026-01-01 02:39:46.12	357.53	5.20	-51.2	-66.5	3.8	1.49e+00	0	41	104	0	74	20318
2026-01-01 02:39:47.12	357.40	5.23	-51.2	-66.5	3.8	1.49e+00	0	41	104	0	74	20335
2026-01-01 02:39:48.12	357.27	5.27	-51.2	-66.5	3.8	1.49e+00	0	41	104	0	74	20382
2026-01-01 02:39:49.13	357.13	5.31	-51.2	-66.4	3.8	1.49e+00	0	41	104	0	74	20251
2026-01-01 02:39:50.13	357.00	5.34	-51.2	-66.5	3.8	1.49e+00	0	41	104	0	74	20304
2026-01-01 02:39:51.14	356.87	5.38	-51.2	-66.4	3.8	1.49e+00	0	41	104	0	74	20199
2026-01-01 02:39:52.14	356.74	5.42	-51.2	-66.5	3.8	1.49e+00	0	41	104	0	74	20347
2026-01-01 02:39:53.14	356.60	5.45	-51.2	-66.5	3.8	1.49e+00	0	41	104	0	74	20345
2026-01-01 02:39:54.15	356.47	5.49	-51.3	-66.4	3.8	1.49e+00	0	41	104	0	74	20301
2026-01-01 02:39:55.15	356.34	5.52	-51.2	-66.4	3.8	1.49e+00	0	42	104	0	74	20274
2026-01-01 02:39:56.15	356.20	5.56	-51.2	-66.5	3.8	1.49e+00	0	42	104	0	74	20329
2026-01-01 02:39:57.16	356.07	5.60	-51.2	-66.4	3.8	1.49e+00	0	42	104	0	74	20234
2026-01-01 02:39:58.17	355.93	5.63	-51.3	-66.5	3.8	1.49e+00	0	42	104	0	74	20365
2026-01-01 02:39:59.17	355.80	5.67	-51.2	-66.5	3.8	1.49e+00	0	42	104	0	74	20319
2026-01-01 02:40:00.17	355.66	5.70	-51.2	-66.5	3.8	1.49e+00	0	42	104	0	74	20319
2026-01-01 02:40:01.18	355.52	5.74	-51.2	-66.4	3.8	1.49e+00	0	42	104	0	74	20281
2026-01-01 02:40:02.18	355.39	5.77	-51.2	-66.4	3.8	1.49e+00	0	42	104	0	74	20247
2026-01-01 02:40:03.18	355.25	5.81	-51.2	-66.4	3.8	1.49e+00	0	42	104	0	74	20126
2026-01-01 02:40:04.19	355.11	5.84	-51.2	-66.4	3.8	1.49e+00	0	42	104	0	74	20208
2026-01-01 02:40:05.19	354.98	5.88	-51.2	-66.4	3.8	1.49e+00	0	42	104	0	74	20200
2026-01-01 02:40:06.20	354.84	5.91	-51.2	-66.4	3.8	1.49e+00	0	42	104	0	74	20259
2026-01-01 02:40:07.20	354.70	5.95	-51.2	-66.4	3.8	1.49e+00	0	42	104	0	74	20143
2026-01-01 02:40:08.21	354.56	5.98	-51.2	-66.4	3.8	1.49e+00	0	42	104	0	74	20205
2026-01-01 02:40:09.21	354.42	6.02	-51.2	-66.4	3.8	1.49e+00	0	42	104	0	74	20288
2026-01-01 02:40:10.22	354.28	6.05	-51.2	-66.4	3.8	1.49e+00	0	42	104	0	74	20296
2026-01-01 02:40:11.22	354.15	6.09	-51.3	-66.5	3.8	1.49e+00	0	42	104	0	74	20353
2026-01-01 02:40:12.22	354.01	6.12	-51.3	-66.4	3.8	1.49e+00	0	42	104	0	74	20300
2026-01-01 02:40:13.23	353.87	6.15	-51.2	-66.4	3.8	1.49e+00	0	42	104	0	74	20285
2026-01-01 02:40:14.23	353.73	6.19	-51.2	-66.4	3.8	1.49e+00	0	42	104	0	74	20226
2026-01-01 02:40:15.24	353.58	6.22	-51.2	-66.4	3.8	1.49e+00	0	42	104	0	74	20215
2026-01-01 02:40:16.24	353.44	6.26	-51.2	-66.4	3.8	1.49e+00	0	42	104	0	74	20230
2026-01-01 02:40:17.24	353.30	6.29	-51.2	-66.4	3.8	1.49e+00	0	42	104	0	74	20231
2026-01-01 02:40:18.25	353.16	6.32	-51.2	-66.4	3.8	1.49e+00	0	42	104	0	74	20248
2026-01-01 02:40:19.25	353.02	6.36	-51.2	-66.4	3.8	1.49e+00	0	42	104	0	74	20146
2026-01-01 02:40:20.26	352.88	6.39	-51.2	-66.5	3.8	1.49e+00	0	42	104	0	74	20313
2026-01-01 02:40:21.26	352.73	6.42	-51.2	-66.4	3.8	1.49e+00	0	42	104	0	74	20197
2026-01-01 02:40:22.27	352.59	6.46	-51.2	-66.4	3.8	1.49e+00	0	42	104	0	74	20232
2026-01-01 02:40:23.27	352.45	6.49	-51.2	-66.4	3.8	1.49e+00	0	43	104	0	74	20149
2026-01-01 02:40:24.28	352.30	6.52	-51.2	-66.4	3.8	1.49e+00	0	42	104	0	74	20225
2026-01-01 02:40:25.28	352.16	6.55	-51.2	-66.4	3.8	1.49e+00	0	42	104	0	74	20221
2026-01-01 02:40:26.28	352.02	6.59	-51.2	-66.4	3.8	1.49e+00	0	42	104	0	74	20231
2026-01-01 02:40:27.29	351.87	6.62	-51.2	-66.4	3.8	1.49e+00	0	42	104	0	74	20277
2026-01-01 02:40:28.29	351.73	6.65	-51.2	-66.4	3.8	1.49e+00	0	42	104	0	74	20209
2026-01-01 02:40:29.29	351.58	6.68	-51.2	-66.4	3.8	1.49e+00	0	42	104	0	74	20236
2026-01-01 02:40:30.30	351.43	6.71	-51.2	-66.4	3.8	1.49e+00	0	42	104	0	74	20180
2026-01-01 02:40:31.31	351.29	6.75	-51.2	-66.4	3.8	1.49e+00	0	42	104	0	74	20236
2026-01-01 02:40:32.31	351.14	6.78	-51.2	-66.4	3.8	1.49e+00	0	42	104	0	74	20273
2026-01-01 02:40:33.31	351.00	6.81	-51.2	-66.4	3.8	1.49e+00	0	43	104	0	74	20222
2026-01-01 02:40:34.32	350.85	6.84	-51.2	-66.4	3.8	1.49e+00	0	42	104	0	74	20195
2026-01-01 02:40:35.32	350.70	6.87	-51.2	-66.4	3.8	1.49e+00	0	42	104	0	74	20157
2026-01-01 02:40:36.33	350.55	6.90	-51.2	-66.4	3.8	1.49e+00	0	42	104	0	74	20212
2026-01-01 02:40:37.33	350.41	6.93	-51.2	-66.4	3.8	1.49e+00	0	43	104	0	74	20288
2026-01-01 02:40:38.33	350.26	6.96	-51.2	-66.4	3.8	1.49e+00	0	43	104	0	74	20216
2026-01-01 02:40:39.34	350.11	7.00	-51.2	-66.4	3.8	1.49e+00	0	43	104	0	74	20132
2026-01-01 02:40:40.34	349.96	7.03	-51.2	-66.4	3.8	1.49e+00	0	43	104	0	74	20230
2026-01-01 02:40:41.35	349.81	7.06	-51.2	-66.4	3.8	1.49e+00	0	43	104	0	74	20178
2026-01-01 02:40:42.35	349.66	7.09	-51.2	-66.4	3.8	1.49e+00	0	43	104	0	74	20227
2026-01-01 02:40:43.36	349.51	7.12	-51.2	-66.4	3.8	1.49e+00	0	43	104	0	74	20257
2026-01-01 02:40:44.36	349.36	7.15	-51.2	-66.4	3.8	1.49e+00	0	43	104	0	74	20210
2026-01-01 02:40:45.37	349.21	7.18	-51.2	-66.4	3.8	1.49e+00	0	43	104	0	74	20127
2026-01-01 02:40:46.37	349.06	7.21	-51.2	-66.4	3.8	1.49e+00	0	43	104	0	74	20194
2026-01-01 02:40:47.37	348.91	7.24	-51.2	-66.4	3.8	1.49e+00	0	43	104	0	74	20189
2026-01-01 02:40:48.38	348.76	7.27	-51.2	-66.4	3.8	1.49e+00	0	43	104	0	74	20279
2026-01-01 02:40:49.38	348.61	7.29	-51.2	-66.4	3.8	1.49e+00	0	43	104	0	74	20296
2026-01-01 02:40:50.39	348.45	7.32	-51.2	-66.4	3.8	1.49e+00	0	43	104	0	74	20234
2026-01-01 02:40:51.39	348.30	7.35	-51.2	-66.5	3.8	1.49e+00	0	43	104	0	74	20305
2026-01-01 02:40:52.39	348.15	7.38	-51.2	-66.4	3.8	1.49e+00	0	43	104	0	74	20237
2026-01-01 02:40:53.40	348.00	7.41	-51.2	-66.4	3.8	1.49e+00	0	43	104	0	74	20247
2026-01-01 02:40:54.40	347.84	7.44	-51.3	-66.5	3.8	1.49e+00	0	43	104	0	74	20406
2026-01-01 02:40:55.41	347.69	7.47	-51.2	-66.5	3.8	1.49e+00	0	43	104	0	74	20314
2026-01-01 02:40:56.41	347.54	7.49	-51.2	-66.4	3.8	1.49e+00	0	43	104	0	74	20248
2026-01-01 02:40:57.41	347.38	7.52	-51.3	-66.5	3.8	1.49e+00	0	43	104	0	74	20304
2026-01-01 02:40:58.42	347.23	7.55	-51.2	-66.4	3.8	1.49e+00	0	43	104	0	74	20263
2026-01-01 02:40:59.42	347.07	7.58	-51.2	-66.4	3.8	1.49e+00	0	43	104	0	74	20219
2026-01-01 02:41:00.43	346.92	7.61	-51.2	-66.5	3.8	1.49e+00	0	43	104	0	74	20375
2026-01-01 02:41:01.43	346.76	7.63	-51.2	-66.5	3.8	1.49e+00	0	43	104	0	74	20316
2026-01-01 02:41:02.44	346.60	7.66	-51.2	-66.4	3.8	1.49e+00	0	43	104	0	74	20208
2026-01-01 02:41:03.44	346.45	7.69	-51.2	-66.4	3.8	1.49e+00	0	43	104	0	74	20258
2026-01-01 02:41:04.44	346.29	7.71	-51.2	-66.4	3.8	1.49e+00	0	43	104	0	74	20247
2026-01-01 02:41:05.45	346.14	7.74	-51.2	-66.4	3.8	1.49e+00	0	43	104	0	74	20272
2026-01-01 02:41:06.51	345.97	7.77	-51.3	-66.5	3.8	1.49e+00	0	43	104	0	74	20333
2026-01-01 02:41:07.39	345.83	7.79	-51.2	-66.4	3.8	1.49e+00	0	43	104	0	74	20278
2026-01-01 02:41:08.54	345.65	7.82	-51.2	-66.4	3.8	1.49e+00	0	43	104	0	74	20272
2026-01-01 02:41:09.43	345.51	7.84	-51.2	-66.5	3.8	1.49e+00	0	43	104	0	74	20345
2026-01-01 02:41:10.61	345.33	7.87	-51.2	-66.4	3.8	1.49e+00	0	43	104	0	74	20291
2026-01-01 02:41:11.47	345.19	7.90	-51.2	-66.4	3.8	1.49e+00	0	43	104	0	74	20159
2026-01-01 02:41:12.78	344.98	7.93	-51.2	-66.4	3.8	1.49e+00	0	43	104	0	74	20276
2026-01-01 02:41:13.50	344.87	7.95	-51.2	-66.4	3.8	1.49e+00	0	43	104	0	74	20202
2026-01-01 02:41:14.79	344.67	7.98	-51.2	-66.4	3.8	1.49e+00	0	43	104	0	74	20179
2026-01-01 02:41:15.50	344.55	8.00	-51.2	-66.4	3.8	1.49e+00	0	43	104	0	74	20269
2026-01-01 02:41:16.80	344.35	8.03	-51.2	-66.4	3.8	1.49e+00	0	43	104	0	74	20259
2026-01-01 02:41:17.51	344.23	8.04	-51.2	-66.4	3.8	1.49e+00	0	43	104	0	74	20257
2026-01-01 02:41:18.80	344.03	8.08	-51.2	-66.4	3.8	1.49e+00	0	43	104	0	74	20292
2026-01-01 02:41:19.52	343.91	8.09	-51.2	-66.5	3.8	1.49e+00	0	43	104	0	74	20389
2026-01-01 02:41:20.81	343.71	8.12	-51.2	-66.5	3.8	1.49e+00	0	43	104	0	74	20309
2026-01-01 02:41:21.53	343.59	8.14	-51.2	-66.5	3.8	1.49e+00	0	43	104	0	74	20378
2026-01-01 02:41:22.82	343.38	8.17	-51.2	-66.4	3.8	1.49e+00	0	43	104	0	74	20252
2026-01-01 02:41:23.54	343.27	8.19	-51.2	-66.4	3.8	1.49e+00	0	43	104	0	74	20270
2026-01-01 02:41:24.83	343.06	8.22	-51.2	-66.4	3.8	1.49e+00	0	43	104	0	74	20249
2026-01-01 02:41:25.55	342.94	8.23	-51.2	-66.4	3.8	1.49e+00	0	43	104	0	74	20303
2026-01-01 02:41:26.84	342.73	8.26	-51.2	-66.4	3.8	1.49e+00	0	43	104	0	74	20264
2026-01-01 02:41:27.55	342.62	8.28	-51.2	-66.4	3.8	1.49e+00	0	43	104	0	74	20225
2026-01-01 02:41:28.85	342.41	8.31	-51.2	-66.4	3.8	1.49e+00	0	43	104	0	74	20156
2026-01-01 02:41:29.56	342.29	8.32	-51.2	-66.5	3.8	1.49e+00	0	43	104	0	74	20360
2026-01-01 02:41:30.86	342.08	8.35	-51.2	-66.4	3.8	1.49e+00	0	43	104	0	74	20217
2026-01-01 02:41:31.57	341.97	8.37	-51.2	-66.5	3.8	1.49e+00	0	43	104	0	74	20304
2026-01-01 02:41:32.90	341.75	8.39	-51.2	-66.4	3.8	1.49e+00	0	43	104	0	74	20285
2026-01-01 02:41:33.61	341.63	8.41	-51.2	-66.5	3.8	1.49e+00	0	43	104	0	74	20318
2026-01-01 02:41:34.94	341.41	8.44	-51.3	-66.5	3.8	1.49e+00	0	43	104	0	74	20341
2026-01-01 02:41:35.65	341.30	8.45	-51.2	-66.4	3.8	1.49e+00	0	43	104	0	74	20287
2026-01-01 02:41:36.94	341.09	8.48	-51.2	-66.4	3.8	1.49e+00	0	43	104	0	74	20246
2026-01-01 02:41:37.66	340.97	8.49	-51.2	-66.4	3.8	1.49e+00	0	43	104	0	74	20249
2026-01-01 02:41:38.95	340.76	8.52	-51.2	-66.4	3.8	1.49e+00	0	43	104	0	74	20256
2026-01-01 02:41:39.67	340.64	8.53	-51.2	-66.4	3.8	1.49e+00	0	43	104	0	74	20255
2026-01-01 02:41:40.96	340.42	8.56	-51.2	-66.5	3.8	1.49e+00	0	43	104	0	74	20309
2026-01-01 02:41:41.68	340.30	8.57	-51.3	-66.5	3.8	1.49e+00	0	43	104	0	74	20304
2026-01-01 02:41:42.97	340.09	8.60	-51.2	-66.4	3.8	1.49e+00	0	43	104	0	74	20302
2026-01-01 02:41:43.69	339.97	8.61	-51.2	-66.4	3.8	1.49e+00	0	43	104	0	74	20295
2026-01-01 02:41:44.98	339.76	8.64	-51.2	-66.5	3.8	1.49e+00	0	43	104	0	74	20328
2026-01-01 02:41:45.70	339.64	8.65	-51.2	-66.5	3.8	1.49e+00	0	43	104	0	74	20335
2026-01-01 02:41:46.99	339.42	8.67	-51.2	-66.4	3.8	1.49e+00	0	43	104	0	74	20294
2026-01-01 02:41:47.70	339.30	8.69	-51.2	-66.5	3.8	1.49e+00	0	44	104	0	74	20364
2026-01-01 02:41:48.99	339.09	8.71	-51.2	-66.5	3.8	1.49e+00	0	43	104	0	74	20329
2026-01-01 02:41:49.71	338.97	8.72	-51.2	-66.4	3.8	1.49e+00	0	44	104	0	74	20286
2026-01-01 02:41:51.00	338.75	8.74	-51.2	-66.4	3.8	1.49e+00	0	44	104	0	74	20248
2026-01-01 02:41:51.72	338.63	8.76	-51.3	-66.4	3.8	1.49e+00	0	44	104	0	74	20303
2026-01-01 02:41:53.01	338.42	8.78	-51.2	-66.4	3.8	1.49e+00	0	43	104	0	74	20300
2026-01-01 02:41:53.72	338.30	8.79	-51.2	-66.4	3.8	1.49e+00	0	43	104	0	74	20294
2026-01-01 02:41:55.01	338.08	8.81	-51.2	-66.4	3.8	1.49e+00	0	43	104	0	74	20220
2026-01-01 02:41:55.73	337.96	8.82	-51.2	-66.5	3.8	1.49e+00	0	44	104	0	74	20393
2026-01-01 02:41:57.02	337.74	8.84	-51.2	-66.5	3.8	1.49e+00	0	44	104	0	74	20304
2026-01-01 02:41:57.74	337.62	8.86	-51.2	-66.4	3.8	1.49e+00	0	44	104	0	74	20210
2026-01-01 02:41:59.03	337.40	8.88	-51.2	-66.4	3.8	1.49e+00	0	44	104	0	74	20282
2026-01-01 02:41:59.75	337.28	8.89	-51.2	-66.4	3.8	1.49e+00	0	44	104	0	74	20215
2026-01-01 02:42:01.04	337.06	8.91	-51.2	-66.4	3.8	1.49e+00	0	44	104	0	74	20192
2026-01-01 02:42:01.76	336.94	8.92	-51.2	-66.4	3.8	1.49e+00	0	43	104	0	74	20272
2026-01-01 02:42:03.05	336.72	8.94	-51.2	-66.4	3.8	1.49e+00	0	43	104	0	74	20268
2026-01-01 02:42:03.77	336.60	8.95	-51.2	-66.4	3.8	1.49e+00	0	43	104	0	74	20237
2026-01-01 02:42:05.06	336.38	8.97	-51.2	-66.4	3.8	1.49e+00	0	43	104	0	74	20277
2026-01-01 02:42:05.77	336.26	8.98	-51.2	-66.4	3.8	1.49e+00	0	44	104	0	74	20284
2026-01-01 02:42:07.06	336.04	8.99	-51.2	-66.5	3.8	1.49e+00	0	43	104	0	74	20386
2026-01-01 02:42:07.78	335.92	9.00	-51.2	-66.5	3.8	1.49e+00	0	43	104	0	74	20318
2026-01-01 02:42:09.07	335.70	9.02	-51.2	-66.4	3.8	1.49e+00	0	44	104	0	74	20202
2026-01-01 02:42:09.79	335.57	9.03	-51.2	-66.4	3.8	1.49e+00	0	43	104	0	74	20181
2026-01-01 02:42:11.08	335.35	9.05	-51.2	-66.4	3.8	1.49e+00	0	44	104	0	74	20196
2026-01-01 02:42:11.79	335.23	9.06	-51.2	-66.4	3.8	1.49e+00	0	43	104	0	74	20278
2026-01-01 02:42:13.08	335.01	9.07	-51.2	-66.4	3.8	1.49e+00	0	44	104	0	74	20216
2026-01-01 02:42:13.80	334.89	9.08	-51.2	-66.5	3.8	1.49e+00	0	43	104	0	74	20305
2026-01-01 02:42:15.09	334.66	9.10	-51.2	-66.4	3.8	1.49e+00	0	43	104	0	74	20256
2026-01-01 02:42:15.81	334.54	9.10	-51.2	-66.4	3.8	1.49e+00	0	44	104	0	74	20204
2026-01-01 02:42:17.09	334.32	9.12	-51.2	-66.4	3.8	1.49e+00	0	43	104	0	74	20214
2026-01-01 02:42:17.81	334.20	9.13	-51.2	-66.4	3.8	1.49e+00	0	43	104	0	74	20296
2026-01-01 02:42:19.10	333.97	9.14	-51.2	-66.4	3.8	1.49e+00	0	44	104	0	74	20228
2026-01-01 02:42:19.82	333.85	9.15	-51.2	-66.5	3.8	1.49e+00	0	44	104	0	74	20316
2026-01-01 02:42:21.11	333.63	9.16	-51.2	-66.4	3.8	1.49e+00	0	44	104	0	74	20152
2026-01-01 02:42:21.82	333.51	9.17	-51.2	-66.4	3.8	1.49e+00	0	44	104	0	74	20254
2026-01-01 02:42:23.11	333.28	9.18	-51.2	-66.4	3.8	1.49e+00	0	43	104	0	74	20213
2026-01-01 02:42:23.83	333.16	9.19	-51.2	-66.5	3.8	1.49e+00	0	44	104	0	74	20312
2026-01-01 02:42:25.12	332.94	9.20	-51.2	-66.4	3.8	1.49e+00	0	44	104	0	74	20279
2026-01-01 02:42:25.84	332.81	9.21	-51.2	-66.4	3.8	1.49e+00	0	44	104	0	74	20205
2026-01-01 02:42:27.12	332.59	9.22	-51.2	-66.4	3.8	1.49e+00	0	44	104	0	74	20247
2026-01-01 02:42:27.84	332.46	9.23	-51.2	-66.4	3.8	1.49e+00	0	44	104	0	74	20249
2026-01-01 02:42:29.13	332.24	9.24	-51.2	-66.4	3.8	1.49e+00	0	43	104	0	74	20182
2026-01-01 02:42:29.85	332.12	9.24	-51.2	-66.4	3.8	1.49e+00	0	44	104	0	74	20196
2026-01-01 02:42:31.14	331.89	9.25	-51.2	-66.4	3.8	1.49e+00	0	44	104	0	74	20250
2026-01-01 02:42:31.86	331.77	9.26	-51.2	-66.4	3.8	1.49e+00	0	44	104	0	74	20215
2026-01-01 02:42:33.15	331.54	9.27	-51.2	-66.5	3.8	1.49e+00	0	44	104	0	74	20374
2026-01-01 02:42:33.86	331.42	9.28	-51.2	-66.4	3.8	1.49e+00	0	43	104	0	74	20259
2026-01-01 02:42:35.15	331.20	9.28	-51.2	-66.5	3.8	1.49e+00	0	44	104	0	74	20327
2026-01-01 02:42:35.87	331.07	9.29	-51.2	-66.4	3.8	1.49e+00	0	43	104	0	74	20255
2026-01-01 02:42:37.16	330.85	9.30	-51.2	-66.4	3.8	1.49e+00	0	44	104	0	74	20239
2026-01-01 02:42:37.88	330.72	9.30	-51.2	-66.4	3.8	1.49e+00	0	44	104	0	74	20248
2026-01-01 02:42:39.17	330.50	9.31	-51.2	-66.5	3.8	1.49e+00	0	44	104	0	74	20309
2026-01-01 02:42:39.89	330.37	9.31	-51.2	-66.4	3.8	1.49e+00	0	44	104	0	74	20259
2026-01-01 02:42:41.18	330.14	9.32	-51.2	-66.5	3.8	1.49e+00	0	44	104	0	74	20334
2026-01-01 02:42:41.89	330.02	9.33	-51.2	-66.4	3.8	1.49e+00	0	43	104	0	74	20175
2026-01-01 02:42:43.19	329.79	9.33	-51.2	-66.4	3.8	1.49e+00	0	43	104	0	74	20191
2026-01-01 02:42:43.90	329.67	9.34	-51.2	-66.4	3.8	1.49e+00	0	44	104	0	74	20161
2026-01-01 02:42:45.19	329.44	9.34	-51.2	-66.4	3.8	1.49e+00	0	44	104	0	74	20176
2026-01-01 02:42:45.91	329.32	9.34	-51.2	-66.4	3.8	1.49e+00	0	44	104	0	74	20164
2026-01-01 02:42:47.20	329.09	9.35	-51.2	-66.4	3.8	1.49e+00	0	44	104	0	74	20235
2026-01-01 02:42:47.92	328.97	9.35	-51.2	-66.5	3.8	1.49e+00	0	43	104	0	74	20372
2026-01-01 02:42:49.21	328.74	9.36	-51.2	-66.4	3.8	1.49e+00	0	44	104	0	74	20248
2026-01-01 02:42:49.93	328.62	9.36	-51.2	-66.4	3.8	1.49e+00	0	44	104	0	74	20280
2026-01-01 02:42:51.22	328.39	9.36	-51.2	-66.4	3.8	1.49e+00	0	44	104	0	74	20256
2026-01-01 02:42:51.93	328.27	9.37	-51.2	-66.4	3.8	1.49e+00	0	44	104	0	74	20223
2026-01-01 02:42:53.22	328.04	9.37	-51.2	-66.4	3.8	1.49e+00	0	44	104	0	74	20244
2026-01-01 02:42:53.94	327.91	9.37	-51.2	-66.4	3.8	1.49e+00	0	44	104	0	74	20206
2026-01-01 02:42:55.23	327.69	9.37	-51.2	-66.4	3.8	1.49e+00	0	44	104	0	74	20154
2026-01-01 02:42:55.95	327.56	9.37	-51.2	-66.4	3.8	1.49e+00	0	44	104	0	74	20213
2026-01-01 02:42:57.24	327.34	9.38	-51.2	-66.4	3.8	1.49e+00	0	44	104	0	74	20239
2026-01-01 02:42:57.95	327.21	9.38	-51.2	-66.4	3.8	1.49e+00	0	44	104	0	74	20165
2026-01-01 02:42:59.24	326.99	9.38	-51.2	-66.4	3.8	1.49e+00	0	44	104	0	74	20244
2026-01-01 02:42:59.96	326.86	9.38	-51.2	-66.4	3.8	1.49e+00	0	43	104	0	74	20201
2026-01-01 02:43:01.25	326.63	9.38	-51.2	-66.4	3.8	1.49e+00	0	44	104	0	74	20169
2026-01-01 02:43:01.97	326.51	9.38	-51.2	-66.4	3.8	1.49e+00	0	44	104	0	74	20232
2026-01-01 02:43:03.26	326.28	9.38	-51.2	-66.4	3.8	1.49e+00	0	44	104	0	74	20151
2026-01-01 02:43:03.98	326.16	9.38	-51.2	-66.4	3.8	1.49e+00	0	44	104	0	74	20222
2026-01-01 02:43:05.27	325.93	9.38	-51.2	-66.4	3.8	1.49e+00	0	44	104	0	74	20175
2026-01-01 02:43:05.98	325.81	9.38	-51.2	-66.4	3.8	1.49e+00	0	44	104	0	74	20160
2026-01-01 02:43:07.28	325.58	9.38	-51.2	-66.4	3.8	1.49e+00	0	44	104	0	74	20261
2026-01-01 02:43:07.99	325.45	9.38	-51.2	-66.4	3.8	1.49e+00	0	44	104	0	74	20202
2026-01-01 02:43:09.28	325.23	9.37	-51.2	-66.4	3.8	1.49e+00	0	44	104	0	74	20254
2026-01-01 02:43:10.00	325.10	9.37	-51.2	-66.4	3.8	1.49e+00	0	44	104	0	74	20251
2026-01-01 02:43:11.29	324.88	9.37	-51.2	-66.4	3.8	1.49e+00	0	44	104	0	74	20254
2026-01-01 02:43:12.01	324.75	9.37	-51.2	-66.4	3.8	1.49e+00	0	44	104	0	74	20151
2026-01-01 02:43:13.30	324.52	9.36	-51.2	-66.4	3.8	1.49e+00	0	44	104	0	74	20205
2026-01-01 02:43:14.02	324.40	9.36	-51.2	-66.4	3.8	1.49e+00	0	44	104	0	74	20250
2026-01-01 02:43:15.31	324.17	9.36	-51.2	-66.4	3.8	1.49e+00	0	44	104	0	74	20108
2026-01-01 02:43:16.02	324.05	9.36	-51.2	-66.4	3.8	1.49e+00	0	44	104	0	74	20149
2026-01-01 02:43:17.31	323.82	9.35	-51.2	-66.4	3.8	1.49e+00	0	44	104	0	74	20236
2026-01-01 02:43:18.03	323.70	9.35	-51.2	-66.4	3.8	1.49e+00	0	44	104	0	74	20200
2026-01-01 02:43:19.32	323.47	9.34	-51.2	-66.4	3.8	1.49e+00	0	44	104	0	74	20144
2026-01-01 02:43:20.04	323.34	9.34	-51.2	-66.4	3.8	1.49e+00	0	44	104	0	74	20166
2026-01-01 02:43:21.33	323.12	9.33	-51.2	-66.4	3.8	1.49e+00	0	44	104	0	74	20123
2026-01-01 02:43:22.05	322.99	9.33	-51.2	-66.4	3.8	1.49e+00	0	44	104	0	74	20254
2026-01-01 02:43:23.34	322.77	9.32	-51.2	-66.4	3.8	1.49e+00	0	44	104	0	74	20244
2026-01-01 02:43:24.06	322.64	9.32	-51.2	-66.4	3.8	1.49e+00	0	44	104	0	74	20245
2026-01-01 02:43:25.35	322.42	9.31	-51.2	-66.4	3.8	1.49e+00	0	44	104	0	74	20217
2026-01-01 02:43:26.07	322.29	9.31	-51.2	-66.4	3.8	1.49e+00	0	44	104	0	74	20147
2026-01-01 02:43:27.36	322.07	9.30	-51.2	-66.4	3.8	1.49e+00	0	44	104	0	74	20261
2026-01-01 02:43:28.08	321.94	9.30	-51.2	-66.4	3.8	1.49e+00	0	44	104	0	74	20279
2026-01-01 02:43:29.36	321.72	9.29	-51.2	-66.4	3.8	1.49e+00	0	44	104	0	74	20217
2026-01-01 02:43:30.08	321.59	9.28	-51.2	-66.4	3.8	1.49e+00	0	44	104	0	74	20181
2026-01-01 02:43:31.38	321.37	9.27	-51.2	-66.3	3.8	1.49e+00	0	44	104	0	74	20066
2026-01-01 02:43:32.09	321.24	9.27	-51.2	-66.4	3.8	1.49e+00	0	44	104	0	74	20173
2026-01-01 02:43:33.38	321.02	9.26	-51.2	-66.4	3.8	1.49e+00	0	44	104	0	74	20278
2026-01-01 02:43:34.10	320.89	9.25	-51.2	-66.4	3.8	1.49e+00	0	44	104	0	74	20222
2026-01-01 02:43:35.39	320.67	9.24	-51.2	-66.4	3.8	1.49e+00	0	44	104	0	74	20230
2026-01-01 02:43:36.11	320.54	9.24	-51.2	-66.4	3.8	1.49e+00	0	44	104	0	74	20130
2026-01-01 02:43:37.40	320.32	9.23	-51.2	-66.4	3.8	1.49e+00	0	44	104	0	74	20107
2026-01-01 02:43:38.12	320.20	9.22	-51.2	-66.4	3.8	1.49e+00	0	44	104	0	74	20186
2026-01-01 02:43:39.41	319.97	9.21	-51.2	-66.4	3.8	1.49e+00	0	44	104	0	74	20127
2026-01-01 02:43:40.12	319.85	9.20	-51.2	-66.4	3.8	1.49e+00	0	44	104	0	74	20155
2026-01-01 02:43:41.41	319.63	9.19	-51.2	-66.4	3.8	1.49e+00	0	44	104	0	74	20171
2026-01-01 02:43:42.13	319.50	9.18	-51.2	-66.4	3.8	1.49e+00	0	44	104	0	74	20172
2026-01-01 02:43:43.42	319.28	9.17	-51.2	-66.4	3.8	1.49e+00	0	44	104	0	74	20137
2026-01-01 02:43:44.14	319.16	9.16	-51.2	-66.4	3.8	1.49e+00	0	44	104	0	74	20154
2026-01-01 02:43:45.43	318.93	9.15	-51.2	-66.4	3.8	1.49e+00	0	44	104	0	74	20174
2026-01-01 02:43:46.16	318.81	9.14	-51.2	-66.4	3.8	1.49e+00	0	44	104	0	74	20243
2026-01-01 02:43:47.45	318.58	9.12	-51.2	-66.4	3.8	1.49e+00	0	44	104	0	74	20241
2026-01-01 02:43:48.20	318.46	9.12	-51.2	-66.4	3.8	1.49e+00	0	44	104	0	74	20237
2026-01-01 02:43:49.49	318.23	9.10	-51.2	-66.4	3.8	1.49e+00	0	44	104	0	74	20289
2026-01-01 02:43:50.21	318.11	9.09	-51.2	-66.4	3.8	1.49e+00	0	44	104	0	74	20192
2026-01-01 02:43:51.50	317.89	9.08	-51.2	-66.4	3.8	1.49e+00	0	44	104	0	74	20179
2026-01-01 02:43:52.22	317.76	9.07	-51.2	-66.4	3.8	1.49e+00	0	44	104	0	74	20234
2026-01-01 02:43:53.51	317.54	9.05	-51.2	-66.4	3.8	1.49e+00	0	44	104	0	74	20159
2026-01-01 02:43:54.23	317.42	9.04	-51.2	-66.4	3.8	1.49e+00	0	44	104	0	74	20120
2026-01-01 02:43:55.52	317.20	9.03	-51.2	-66.4	3.8	1.49e+00	0	44	104	0	74	20153
2026-01-01 02:43:56.23	317.08	9.02	-51.2	-66.4	3.8	1.49e+00	0	44	104	0	74	20115
2026-01-01 02:43:57.52	316.86	9.00	-51.2	-66.4	3.8	1.49e+00	0	44	104	0	74	20132
2026-01-01 02:43:58.24	316.73	8.99	-51.2	-66.4	3.8	1.49e+00	0	44	104	0	74	20217
2026-01-01 02:43:59.53	316.51	8.97	-51.2	-66.4	3.8	1.49e+00	0	44	104	0	74	20254
2026-01-01 02:44:00.25	316.39	8.96	-51.2	-66.4	3.8	1.49e+00	0	44	104	0	74	20266
2026-01-01 02:44:01.54	316.17	8.94	-51.2	-66.4	3.8	1.49e+00	0	44	104	0	74	20303
2026-01-01 02:44:02.25	316.05	8.93	-51.2	-66.4	3.8	1.49e+00	0	44	104	0	74	20209
2026-01-01 02:44:03.54	315.83	8.91	-51.2	-66.4	3.8	1.49e+00	0	44	104	0	74	20295
2026-01-01 02:44:04.26	315.71	8.90	-51.2	-66.4	3.8	1.49e+00	0	44	104	0	74	20181
2026-01-01 02:44:05.55	315.49	8.88	-51.2	-66.4	3.8	1.49e+00	0	44	104	0	74	20289
2026-01-01 02:44:06.27	315.37	8.87	-51.2	-66.4	3.8	1.49e+00	0	44	104	0	74	20280
2026-01-01 02:44:07.56	315.15	8.85	-51.2	-66.4	3.8	1.49e+00	0	44	104	0	74	20209
2026-01-01 02:44:08.28	315.03	8.84	-51.2	-66.4	3.8	1.49e+00	0	44	104	0	74	20205
2026-01-01 02:44:09.57	314.81	8.82	-51.2	-66.4	3.8	1.49e+00	0	44	104	0	74	20204
2026-01-01 02:44:10.30	314.69	8.81	-51.2	-66.4	3.8	1.49e+00	0	44	104	0	74	20258
2026-01-01 02:44:11.59	314.47	8.78	-51.2	-66.4	3.8	1.49e+00	0	44	104	0	74	20274
2026-01-01 02:44:12.31	314.35	8.77	-51.2	-66.4	3.8	1.49e+00	0	44	104	0	74	20178
2026-01-01 02:44:13.60	314.13	8.75	-51.2	-66.4	3.8	1.49e+00	0	44	104	0	74	20267
2026-01-01 02:44:14.32	314.01	8.74	-51.2	-66.4	3.8	1.49e+00	0	44	104	0	74	20254
2026-01-01 02:44:15.61	313.80	8.71	-51.2	-66.4	3.8	1.49e+00	0	44	104	0	74	20115
2026-01-01 02:44:16.32	313.68	8.70	-51.2	-66.4	3.8	1.49e+00	0	44	104	0	74	20262
2026-01-01 02:44:17.61	313.46	8.68	-51.2	-66.4	3.8	1.49e+00	0	44	104	0	74	20223
2026-01-01 02:44:18.33	313.34	8.67	-51.2	-66.4	3.8	1.49e+00	0	44	104	0	74	20273
2026-01-01 02:44:19.62	313.13	8.64	-51.2	-66.4	3.8	1.49e+00	0	44	104	0	74	20238
2026-01-01 02:44:20.34	313.01	8.63	-51.2	-66.4	3.8	1.49e+00	0	44	104	0	74	20256
2026-01-01 02:44:21.63	312.79	8.60	-51.2	-66.4	3.8	1.49e+00	0	44	104	0	74	20218
2026-01-01 02:44:22.35	312.67	8.59	-51.2	-66.4	3.8	1.49e+00	0	44	104	0	74	20153
2026-01-01 02:44:23.64	312.46	8.57	-51.2	-66.4	3.8	1.49e+00	0	44	104	0	74	20237
2026-01-01 02:44:24.35	312.34	8.55	-51.2	-66.4	3.8	1.49e+00	0	44	104	0	74	20256
2026-01-01 02:44:25.65	312.13	8.53	-51.2	-66.4	3.8	1.49e+00	0	44	104	0	74	20185
2026-01-01 02:44:26.36	312.01	8.51	-51.2	-66.4	3.8	1.49e+00	0	44	104	0	74	20164
2026-01-01 02:44:27.65	311.80	8.49	-51.2	-66.5	3.8	1.49e+00	0	44	104	0	74	20305
2026-01-01 02:44:28.37	311.68	8.47	-51.2	-66.5	3.8	1.49e+00	0	44	104	0	74	20310
2026-01-01 02:44:29.66	311.47	8.44	-51.2	-66.4	3.8	1.49e+00	0	44	104	0	74	20285
2026-01-01 02:44:30.38	311.35	8.43	-51.2	-66.4	3.8	1.49e+00	0	44	104	0	74	20186
2026-01-01 02:44:31.67	311.14	8.40	-51.2	-66.4	3.8	1.49e+00	0	44	104	0	74	20249
2026-01-01 02:44:32.39	311.02	8.39	-51.2	-66.5	3.8	1.49e+00	0	44	104	0	74	20315
2026-01-01 02:44:33.68	310.81	8.36	-51.2	-66.5	3.8	1.49e+00	0	44	104	0	74	20305
2026-01-01 02:44:34.39	310.69	8.34	-51.2	-66.4	3.8	1.49e+00	0	44	104	0	74	20252
2026-01-01 02:44:35.69	310.48	8.32	-51.2	-66.4	3.8	1.49e+00	0	44	104	0	74	20243
2026-01-01 02:44:36.40	310.37	8.30	-51.2	-66.4	3.8	1.49e+00	0	44	104	0	74	20297
2026-01-01 02:44:37.69	310.16	8.27	-51.2	-66.4	3.8	1.49e+00	0	44	104	0	74	20279
2026-01-01 02:44:38.41	310.04	8.26	-51.2	-66.5	3.8	1.49e+00	0	44	104	0	74	20368
2026-01-01 02:44:39.70	309.83	8.23	-51.2	-66.4	3.8	1.49e+00	0	44	104	0	74	20218
2026-01-01 02:44:40.42	309.71	8.21	-51.2	-66.4	3.8	1.49e+00	0	44	104	0	74	20279
2026-01-01 02:44:41.71	309.50	8.18	-51.2	-66.4	3.8	1.49e+00	0	44	104	0	74	20121
2026-01-01 02:44:42.42	309.39	8.16	-51.2	-66.4	3.8	1.49e+00	0	44	104	0	74	20217
2026-01-01 02:44:43.72	309.18	8.13	-51.2	-66.4	3.8	1.49e+00	0	44	104	0	74	20193
2026-01-01 02:44:44.43	309.07	8.12	-51.2	-66.4	3.8	1.49e+00	0	44	104	0	74	20235
2026-01-01 02:44:45.75	308.86	8.09	-51.2	-66.4	3.8	1.49e+00	0	44	104	0	74	20209
2026-01-01 02:44:46.47	308.74	8.07	-51.2	-66.4	3.8	1.49e+00	0	44	104	0	74	20260
2026-01-01 02:44:47.79	308.53	8.04	-51.2	-66.4	3.8	1.49e+00	0	44	104	0	74	20303
2026-01-01 02:44:48.51	308.41	8.02	-51.2	-66.4	3.8	1.49e+00	0	44	104	0	74	20238
2026-01-01 02:44:49.83	308.20	7.99	-51.2	-66.4	3.8	1.49e+00	0	44	104	0	74	20286
2026-01-01 02:44:50.55	308.09	7.97	-51.2	-66.5	3.8	1.49e+00	0	44	104	0	74	20324
2026-01-01 02:44:51.87	307.88	7.94	-51.2	-66.4	3.8	1.49e+00	0	44	104	0	74	20283
2026-01-01 02:44:52.59	307.77	7.92	-51.2	-66.4	3.8	1.49e+00	0	44	104	0	74	20197
2026-01-01 02:44:53.91	307.56	7.88	-51.2	-66.4	3.8	1.49e+00	0	44	104	0	74	20235
2026-01-01 02:44:54.63	307.44	7.87	-51.2	-66.4	3.8	1.49e+00	0	44	104	0	74	20290
2026-01-01 02:44:55.92	307.24	7.83	-51.2	-66.4	3.8	1.49e+00	0	44	104	0	74	20288
2026-01-01 02:44:56.64	307.13	7.81	-51.2	-66.4	3.8	1.49e+00	0	44	104	0	74	20244
2026-01-01 02:44:57.93	306.92	7.78	-51.3	-66.5	3.8	1.49e+00	0	44	104	0	74	20333
2026-01-01 02:44:58.65	306.81	7.76	-51.2	-66.5	3.8	1.49e+00	0	44	104	0	74	20363
2026-01-01 02:44:59.93	306.61	7.73	-51.2	-66.4	3.8	1.49e+00	0	44	104	0	74	20261
2026-01-01 02:45:00.65	306.50	7.71	-51.2	-66.4	3.8	1.49e+00	0	44	104	0	74	20282
2026-01-01 02:45:01.94	306.30	7.67	-51.2	-66.5	3.8	1.49e+00	0	44	104	0	74	20405
2026-01-01 02:45:02.66	306.18	7.66	-51.2	-66.4	3.8	1.49e+00	0	44	104	0	74	20255
2026-01-01 02:45:03.95	305.98	7.62	-51.2	-66.5	3.8	1.49e+00	0	44	104	0	74	20334
2026-01-01 02:45:04.67	305.87	7.60	-51.2	-66.5	3.8	1.49e+00	0	44	104	0	74	20321
2026-01-01 02:45:05.95	305.67	7.57	-51.2	-66.5	3.8	1.49e+00	0	44	104	0	74	20324
2026-01-01 02:45:06.67	305.56	7.55	-51.2	-66.5	3.8	1.49e+00	0	44	104	0	74	20321
2026-01-01 02:45:07.96	305.36	7.51	-51.2	-66.4	3.8	1.49e+00	0	44	104	0	74	20301
2026-01-01 02:45:08.68	305.25	7.49	-51.2	-66.4	3.8	1.49e+00	0	44	104	0	74	20278
2026-01-01 02:45:09.97	305.05	7.45	-51.2	-66.4	3.8	1.49e+00	0	44	104	0	74	20247
2026-01-01 02:45:10.69	304.94	7.43	-51.2	-66.4	3.8	1.49e+00	0	44	104	0	74	20297
2026-01-01 02:45:11.98	304.75	7.40	-51.2	-66.4	3.8	1.49e+00	0	44	104	0	74	20231
2026-01-01 02:45:12.69	304.64	7.38	-51.2	-66.5	3.8	1.49e+00	0	44	104	0	74	20304
2026-01-01 02:45:13.99	304.44	7.34	-51.2	-66.4	3.8	1.49e+00	0	44	104	0	74	20269
2026-01-01 02:45:14.70	304.33	7.32	-51.2	-66.4	3.8	1.49e+00	0	44	104	0	74	20217
2026-01-01 02:45:15.99	304.14	7.28	-51.2	-66.5	3.8	1.49e+00	0	44	104	0	74	20347
2026-01-01 02:45:16.71	304.03	7.26	-51.3	-66.4	3.8	1.49e+00	0	44	104	0	74	20283
2026-01-01 02:45:18.00	303.83	7.22	-51.2	-66.4	3.8	1.49e+00	0	44	104	0	74	20211
2026-01-01 02:45:18.71	303.73	7.20	-51.2	-66.4	3.8	1.49e+00	0	44	104	0	74	20194
2026-01-01 02:45:20.00	303.53	7.16	-51.3	-66.4	3.8	1.49e+00	0	44	104	0	74	20265
2026-01-01 02:45:20.72	303.42	7.14	-51.3	-66.5	3.8	1.49e+00	0	44	104	0	74	20397
2026-01-01 02:45:22.01	303.23	7.10	-51.2	-66.5	3.8	1.49e+00	0	44	104	0	74	20393
2026-01-01 02:45:22.73	303.12	7.08	-51.2	-66.4	3.8	1.49e+00	0	44	104	0	74	20211
2026-01-01 02:45:24.01	302.93	7.04	-51.2	-66.4	3.8	1.49e+00	0	44	104	0	74	20247
2026-01-01 02:45:24.73	302.82	7.02	-51.2	-66.4	3.8	1.49e+00	0	44	104	0	74	20184
2026-01-01 02:45:26.02	302.63	6.98	-51.2	-66.4	3.8	1.49e+00	0	44	104	0	74	20292
2026-01-01 02:45:26.74	302.52	6.96	-51.2	-66.4	3.8	1.49e+00	0	44	104	0	74	20300
2026-01-01 02:45:28.03	302.33	6.92	-51.2	-66.4	3.8	1.49e+00	0	44	104	0	74	20251
2026-01-01 02:45:28.75	302.23	6.90	-51.2	-66.4	3.8	1.49e+00	0	44	104	0	74	20290
2026-01-01 02:45:30.04	302.04	6.86	-51.2	-66.5	3.8	1.49e+00	0	44	104	0	74	20310
2026-01-01 02:45:30.76	301.93	6.84	-51.2	-66.4	3.8	1.49e+00	0	44	104	0	74	20243
2026-01-01 02:45:32.05	301.74	6.80	-51.2	-66.5	3.8	1.49e+00	0	44	104	0	74	20340
2026-01-01 02:45:32.76	301.64	6.77	-51.2	-66.4	3.8	1.49e+00	0	44	104	0	74	20258
2026-01-01 02:45:34.05	301.45	6.73	-51.2	-66.4	3.8	1.49e+00	0	44	104	0	74	20248
2026-01-01 02:45:34.77	301.34	6.71	-51.2	-66.5	3.8	1.49e+00	0	44	104	0	74	20335
2026-01-01 02:45:36.06	301.16	6.67	-51.2	-66.4	3.8	1.49e+00	0	44	104	0	74	20260
2026-01-01 02:45:36.78	301.05	6.65	-51.2	-66.4	3.8	1.49e+00	0	44	104	0	74	20143
2026-01-01 02:45:38.07	300.87	6.60	-51.2	-66.4	3.8	1.49e+00	0	44	104	0	74	20214
2026-01-01 02:45:38.79	300.76	6.58	-51.2	-66.5	3.8	1.49e+00	0	44	104	0	74	20314
2026-01-01 02:45:40.08	300.58	6.54	-51.2	-66.5	3.8	1.49e+00	0	44	104	0	74	20329
2026-01-01 02:45:40.79	300.47	6.52	-51.2	-66.4	3.8	1.49e+00	0	44	104	0	74	20280
2026-01-01 02:45:42.08	300.29	6.47	-51.2	-66.4	3.8	1.49e+00	0	44	104	0	74	20211
2026-01-01 02:45:42.80	300.19	6.45	-51.2	-66.4	3.8	1.49e+00	0	44	104	0	74	20236
2026-01-01 02:45:44.10	300.00	6.41	-51.2	-66.4	3.8	1.49e+00	0	44	104	0	74	20223
2026-01-01 02:45:44.81	299.90	6.38	-51.2	-66.4	3.8	1.49e+00	0	44	104	0	74	20293
2026-01-01 02:45:46.10	299.72	6.34	-51.2	-66.5	3.8	1.49e+00	0	44	104	0	74	20304
2026-01-01 02:45:46.82	299.61	6.32	-51.2	-66.4	3.8	1.49e+00	0	44	104	0	74	20298
2026-01-01 02:45:48.11	299.43	6.27	-51.2	-66.4	3.8	1.49e+00	0	44	104	0	74	20198
2026-01-01 02:45:48.83	299.33	6.25	-51.2	-66.4	3.8	1.49e+00	0	44	104	0	74	20210
2026-01-01 02:45:50.12	299.15	6.21	-51.2	-66.4	3.8	1.49e+00	0	44	104	0	74	20210
2026-01-01 02:45:50.83	299.05	6.18	-51.2	-66.4	3.8	1.49e+00	0	44	104	0	74	20167
2026-01-01 02:45:52.12	298.87	6.14	-51.3	-66.5	3.8	1.49e+00	0	44	104	0	74	20349
2026-01-01 02:45:52.84	298.77	6.11	-51.3	-66.4	3.8	1.49e+00	0	44	104	0	74	20271
2026-01-01 02:45:54.13	298.59	6.07	-51.2	-66.5	3.8	1.49e+00	0	44	104	0	74	20319
2026-01-01 02:45:54.85	298.49	6.05	-51.2	-66.5	3.8	1.49e+00	0	44	104	0	74	20330
2026-01-01 02:45:56.14	298.31	6.00	-51.3	-66.4	3.8	1.49e+00	0	44	104	0	74	20301
2026-01-01 02:45:56.86	298.21	5.98	-51.2	-66.5	3.8	1.49e+00	0	44	104	0	74	20307
2026-01-01 02:45:58.15	298.03	5.93	-51.2	-66.4	3.8	1.49e+00	0	44	104	0	74	20236
2026-01-01 02:45:58.87	297.93	5.91	-51.3	-66.5	3.8	1.49e+00	0	44	104	0	74	20368
2026-01-01 02:46:00.16	297.75	5.86	-51.2	-66.5	3.8	1.49e+00	0	44	104	0	74	20382
2026-01-01 02:46:00.87	297.65	5.84	-51.2	-66.5	3.8	1.49e+00	0	44	104	0	74	20329
2026-01-01 02:46:02.17	297.48	5.79	-51.3	-66.4	3.8	1.49e+00	0	44	104	0	74	20267
2026-01-01 02:46:02.88	297.38	5.77	-51.2	-66.4	3.8	1.49e+00	0	44	104	0	74	20247
2026-01-01 02:46:04.17	297.20	5.72	-51.2	-66.4	3.8	1.49e+00	0	44	104	0	74	20295
2026-01-01 02:46:04.89	297.11	5.70	-51.3	-66.5	3.8	1.49e+00	0	44	104	0	74	20334
2026-01-01 02:46:06.18	296.93	5.65	-51.2	-66.5	3.8	1.49e+00	0	44	104	0	74	20473
2026-01-01 02:46:06.90	296.83	5.63	-51.2	-66.4	3.8	1.49e+00	0	44	104	0	74	20233
2026-01-01 02:46:08.19	296.66	5.58	-51.2	-66.5	3.8	1.49e+00	0	44	104	0	74	20338
2026-01-01 02:46:08.91	296.56	5.55	-51.2	-66.5	3.8	1.49e+00	0	44	104	0	74	20315
2026-01-01 02:46:10.19	296.39	5.51	-51.2	-66.5	3.8	1.49e+00	0	44	104	0	74	20392
2026-01-01 02:46:10.91	296.29	5.48	-51.2	-66.5	3.8	1.49e+00	0	44	104	0	74	20335
2026-01-01 02:46:12.20	296.12	5.44	-51.3	-66.5	3.8	1.49e+00	0	44	104	0	74	20313
2026-01-01 02:46:12.91	296.03	5.41	-51.3	-66.5	3.8	1.49e+00	0	44	104	0	74	20355
2026-01-01 02:46:14.21	295.85	5.36	-51.2	-66.4	3.8	1.49e+00	0	44	104	0	74	20273
2026-01-01 02:46:14.92	295.76	5.34	-51.2	-66.5	3.8	1.49e+00	0	44	104	0	74	20330
2026-01-01 02:46:16.21	295.59	5.29	-51.2	-66.4	3.8	1.49e+00	0	44	104	0	74	20249
2026-01-01 02:46:16.93	295.50	5.27	-51.2	-66.4	3.8	1.49e+00	0	44	104	0	74	20303
2026-01-01 02:46:18.22	295.33	5.22	-51.3	-66.5	3.8	1.49e+00	0	44	104	0	74	20351
2026-01-01 02:46:18.94	295.23	5.19	-51.2	-66.5	3.8	1.49e+00	0	44	104	0	74	20310
2026-01-01 02:46:20.23	295.06	5.14	-51.2	-66.4	3.8	1.49e+00	0	44	104	0	74	20245
2026-01-01 02:46:20.95	294.97	5.12	-51.2	-66.4	3.8	1.49e+00	0	44	104	0	74	20273
2026-01-01 02:46:22.24	294.80	5.07	-51.3	-66.4	3.8	1.49e+00	0	44	104	0	74	20280
2026-01-01 02:46:22.95	294.71	5.04	-51.3	-66.5	3.8	1.49e+00	0	44	104	0	74	20365
2026-01-01 02:46:24.24	294.54	5.00	-51.2	-66.4	3.8	1.49e+00	0	44	104	0	74	20280

#Closed at: 2026-01-01 02:46:24
#Recorded file [0 MB]: D:/Data/31040_260101_053943.dat