passes_logs/2026/01/01/T1/T1__20260101_123434_NOAA_20_JPSS-1_rec.log

#Pass ID: 20260101_123434_NOAA 20 (JPSS-1)
#Satellite: NOAA 20 (JPSS-1)
#Configuration: NOAA 20
#almurnet v.1.7.20251203
#Start time: 2026-01-01 12:34:36

#Version: 2.0.20230620
#Station: T1
#Location: 37.570604 lon 55.790049 lat
#TLE: 1 43013U 17073A   25365.45761817  .00000173  00000+0  10307-3 0  9993
#TLE: 2 43013  98.7620 301.5517 0001951  60.3814 299.7557 14.19531661420675

#Time	Az	El	Level	Level2	SNR	BER	BlckErr	Temp	State	Recorded	gain1	gain2
2026-01-01 12:34:36.11	259.86	5.04	-51.8	-67.0	3.8	1.49e+00	0	37	0	0	74	21585
2026-01-01 12:34:37.11	260.00	5.07	-51.8	-67.0	3.8	1.49e+00	0	37	104	0	75	20305
2026-01-01 12:34:38.11	260.14	5.10	-51.8	-67.0	3.8	1.49e+00	0	37	104	0	75	20444
2026-01-01 12:34:39.11	260.29	5.12	-51.8	-67.0	3.8	1.49e+00	0	37	104	0	75	20413
2026-01-01 12:34:40.10	260.43	5.15	-51.8	-67.0	3.8	1.49e+00	0	38	104	0	75	20428
2026-01-01 12:34:41.09	260.57	5.18	-51.8	-67.0	3.8	1.49e+00	0	38	104	0	75	20483
2026-01-01 12:34:42.09	260.71	5.20	-51.8	-67.0	3.8	1.49e+00	0	37	104	0	75	20504
2026-01-01 12:34:43.09	260.85	5.23	-51.8	-67.0	3.8	1.49e+00	0	38	104	0	75	20469
2026-01-01 12:34:44.09	261.00	5.25	-51.8	-67.0	3.8	1.49e+00	0	38	104	0	75	20367
2026-01-01 12:34:45.09	261.14	5.28	-51.7	-67.0	3.8	1.49e+00	0	38	104	0	75	20359
2026-01-01 12:34:46.08	261.28	5.30	-51.8	-67.0	3.8	1.49e+00	0	38	104	0	75	20448
2026-01-01 12:34:47.07	261.42	5.33	-51.7	-66.9	3.8	1.49e+00	0	38	104	0	75	20301
2026-01-01 12:34:48.07	261.57	5.35	-51.7	-67.0	3.8	1.49e+00	0	38	104	0	75	20360
2026-01-01 12:34:49.07	261.71	5.38	-51.7	-66.9	3.8	1.49e+00	0	38	104	0	75	20291
2026-01-01 12:34:50.06	261.85	5.40	-51.8	-67.0	3.8	1.49e+00	0	38	104	0	75	20426
2026-01-01 12:34:51.06	262.00	5.43	-51.8	-67.0	3.8	1.49e+00	0	38	104	0	75	20517
2026-01-01 12:34:52.05	262.14	5.45	-51.7	-67.0	3.8	1.49e+00	0	38	104	0	75	20380
2026-01-01 12:34:53.04	262.29	5.48	-51.8	-67.0	3.8	1.49e+00	0	38	104	0	75	20344
2026-01-01 12:34:54.04	262.43	5.50	-51.7	-67.0	3.8	1.49e+00	0	38	104	0	75	20354
2026-01-01 12:34:55.04	262.58	5.53	-51.8	-67.0	3.8	1.49e+00	0	38	104	0	75	20361
2026-01-01 12:34:56.04	262.72	5.55	-51.7	-66.9	3.8	1.49e+00	0	38	104	0	75	20274
2026-01-01 12:34:57.05	262.87	5.57	-51.7	-67.0	3.8	1.49e+00	0	38	104	0	75	20340
2026-01-01 12:34:58.04	263.02	5.60	-51.7	-66.9	3.8	1.49e+00	0	39	104	0	75	20284
2026-01-01 12:34:59.04	263.16	5.62	-51.7	-67.0	3.8	1.49e+00	0	38	104	0	75	20332
2026-01-01 12:35:00.04	263.31	5.64	-51.7	-66.9	3.8	1.49e+00	0	38	104	0	75	20263
2026-01-01 12:35:01.04	263.46	5.67	-51.7	-67.0	3.8	1.49e+00	0	38	104	0	75	20312
2026-01-01 12:35:02.04	263.60	5.69	-51.8	-67.0	3.8	1.49e+00	0	39	104	0	75	20313
2026-01-01 12:35:03.05	263.75	5.71	-51.7	-67.0	3.8	1.49e+00	0	39	104	0	75	20340
2026-01-01 12:35:04.05	263.90	5.74	-51.7	-67.0	3.8	1.49e+00	0	39	104	0	75	20332
2026-01-01 12:35:05.05	264.05	5.76	-51.7	-67.0	3.8	1.49e+00	0	39	104	0	75	20387
2026-01-01 12:35:06.05	264.20	5.78	-51.7	-66.9	3.8	1.49e+00	0	38	104	0	75	20247
2026-01-01 12:35:07.05	264.35	5.81	-51.7	-66.9	3.8	1.49e+00	0	39	104	0	75	20231
2026-01-01 12:35:08.06	264.50	5.83	-51.7	-66.9	3.8	1.49e+00	0	39	104	0	75	20201
2026-01-01 12:35:09.06	264.64	5.85	-51.7	-67.0	3.8	1.49e+00	0	39	104	0	75	20401
2026-01-01 12:35:10.06	264.79	5.87	-51.7	-67.0	3.8	1.49e+00	0	39	104	0	75	20338
2026-01-01 12:35:11.06	264.94	5.90	-51.7	-67.0	3.8	1.49e+00	0	39	104	0	75	20318
2026-01-01 12:35:12.06	265.09	5.92	-51.7	-66.9	3.8	1.49e+00	0	39	104	0	75	20263
2026-01-01 12:35:13.05	265.24	5.94	-51.7	-67.0	3.8	1.49e+00	0	39	104	0	75	20339
2026-01-01 12:35:14.06	265.39	5.96	-51.7	-66.9	3.8	1.49e+00	0	39	104	0	75	20225
2026-01-01 12:35:15.06	265.54	5.98	-51.7	-66.9	3.8	1.49e+00	0	39	104	0	75	20218
2026-01-01 12:35:16.06	265.69	6.00	-51.7	-66.9	3.8	1.49e+00	0	39	104	0	75	20175
2026-01-01 12:35:17.06	265.84	6.02	-51.7	-66.9	3.8	1.49e+00	0	39	104	0	75	20163
2026-01-01 12:35:18.06	265.99	6.05	-51.7	-66.9	3.8	1.49e+00	0	39	104	0	75	20251
2026-01-01 12:35:19.06	266.14	6.07	-51.7	-66.9	3.8	1.49e+00	0	39	104	0	75	20208
2026-01-01 12:35:20.05	266.29	6.09	-51.8	-67.0	3.8	1.49e+00	0	39	104	0	75	20391
2026-01-01 12:35:21.05	266.45	6.11	-51.7	-66.9	3.8	1.49e+00	0	39	104	0	75	20261
2026-01-01 12:35:22.05	266.60	6.13	-51.7	-67.0	3.8	1.49e+00	0	39	104	0	75	20349
2026-01-01 12:35:23.04	266.75	6.15	-51.7	-66.9	3.8	1.49e+00	0	39	104	0	75	20232
2026-01-01 12:35:24.04	266.90	6.17	-51.7	-66.9	3.8	1.49e+00	0	39	104	0	75	20202
2026-01-01 12:35:25.03	267.05	6.19	-51.7	-66.9	3.8	1.49e+00	0	39	104	0	75	20204
2026-01-01 12:35:26.03	267.20	6.21	-51.7	-66.9	3.8	1.49e+00	0	39	104	0	75	20212
2026-01-01 12:35:27.04	267.36	6.23	-51.7	-67.0	3.8	1.49e+00	0	39	104	0	75	20405
2026-01-01 12:35:28.04	267.51	6.25	-51.7	-66.9	3.8	1.49e+00	0	39	104	0	75	20266
2026-01-01 12:35:29.04	267.66	6.27	-51.7	-66.9	3.8	1.49e+00	0	39	104	0	75	20143
2026-01-01 12:35:30.05	267.82	6.29	-51.7	-66.9	3.8	1.49e+00	0	39	104	0	75	20184
2026-01-01 12:35:31.05	267.97	6.30	-51.7	-67.0	3.8	1.49e+00	0	39	104	0	75	20321
2026-01-01 12:35:32.05	268.12	6.32	-51.7	-66.9	3.8	1.49e+00	0	39	104	0	75	20146
2026-01-01 12:35:33.05	268.28	6.34	-51.7	-66.9	3.8	1.49e+00	0	39	104	0	75	20297
2026-01-01 12:35:34.05	268.43	6.36	-51.6	-66.8	3.8	1.49e+00	0	39	104	0	75	20065
2026-01-01 12:35:35.05	268.59	6.38	-51.7	-67.0	3.8	1.49e+00	0	39	104	0	75	20316
2026-01-01 12:35:36.06	268.74	6.40	-51.7	-66.9	3.8	1.49e+00	0	39	104	0	75	20190
2026-01-01 12:35:37.06	268.90	6.42	-51.7	-66.9	3.8	1.49e+00	0	39	104	0	75	20289
2026-01-01 12:35:38.06	269.05	6.43	-51.7	-66.9	3.8	1.49e+00	0	39	104	0	75	20238
2026-01-01 12:35:39.06	269.21	6.45	-51.7	-66.9	3.8	1.49e+00	0	40	104	0	75	20200
2026-01-01 12:35:40.06	269.36	6.47	-51.7	-66.9	3.8	1.49e+00	0	39	104	0	75	20207
2026-01-01 12:35:41.06	269.52	6.49	-51.7	-66.9	3.8	1.49e+00	0	40	104	0	75	20174
2026-01-01 12:35:42.07	269.67	6.50	-51.7	-66.9	3.8	1.49e+00	0	40	104	0	75	20113
2026-01-01 12:35:43.07	269.83	6.52	-51.7	-66.9	3.8	1.49e+00	0	39	104	0	75	20084
2026-01-01 12:35:44.07	269.98	6.54	-51.6	-66.9	3.8	1.49e+00	0	39	104	0	75	20127
2026-01-01 12:35:45.08	270.14	6.55	-51.7	-66.9	3.8	1.49e+00	0	39	104	0	75	20219
2026-01-01 12:35:46.08	270.30	6.57	-51.7	-66.9	3.8	1.49e+00	0	39	104	0	75	20176
2026-01-01 12:35:47.06	270.45	6.59	-51.7	-66.9	3.8	1.49e+00	0	40	104	0	75	20199
2026-01-01 12:35:48.06	270.61	6.60	-51.7	-66.9	3.8	1.49e+00	0	39	104	0	75	20168
2026-01-01 12:35:49.06	270.76	6.62	-51.7	-66.9	3.8	1.49e+00	0	39	104	0	75	20168
2026-01-01 12:35:50.05	270.92	6.64	-51.7	-66.9	3.8	1.49e+00	0	39	104	0	75	20139
2026-01-01 12:35:51.06	271.08	6.65	-51.6	-66.8	3.8	1.49e+00	0	39	104	0	75	20067
2026-01-01 12:35:52.06	271.24	6.67	-51.6	-66.9	3.8	1.49e+00	0	39	104	0	75	20103
2026-01-01 12:35:53.06	271.39	6.68	-51.7	-66.9	3.8	1.49e+00	0	40	104	0	75	20208
2026-01-01 12:35:54.06	271.55	6.70	-51.7	-66.9	3.8	1.49e+00	0	39	104	0	75	20233
2026-01-01 12:35:55.06	271.71	6.71	-51.7	-66.9	3.8	1.49e+00	0	40	104	0	75	20205
2026-01-01 12:35:56.06	271.87	6.73	-51.7	-67.0	3.8	1.49e+00	0	40	104	0	75	20349
2026-01-01 12:35:57.05	272.02	6.74	-51.7	-66.9	3.8	1.49e+00	0	40	104	0	75	20302
2026-01-01 12:35:58.05	272.18	6.76	-51.7	-66.9	3.8	1.49e+00	0	40	104	0	75	20215
2026-01-01 12:35:59.05	272.34	6.77	-51.7	-67.0	3.8	1.49e+00	0	40	104	0	75	20327
2026-01-01 12:36:00.04	272.49	6.78	-51.7	-66.9	3.8	1.49e+00	0	40	104	0	75	20240
2026-01-01 12:36:01.04	272.65	6.80	-51.7	-66.9	3.8	1.49e+00	0	40	104	0	75	20255
2026-01-01 12:36:02.03	272.81	6.81	-51.7	-66.9	3.8	1.49e+00	0	39	104	0	75	20199
2026-01-01 12:36:03.03	272.97	6.83	-51.7	-66.9	3.8	1.49e+00	0	40	104	0	75	20159
2026-01-01 12:36:04.03	273.13	6.84	-51.7	-67.0	3.8	1.49e+00	0	40	104	0	75	20362
2026-01-01 12:36:05.03	273.29	6.85	-51.7	-66.9	3.8	1.49e+00	0	40	104	0	75	20243
2026-01-01 12:36:06.03	273.45	6.87	-51.7	-67.0	3.8	1.49e+00	0	40	104	0	75	20386
2026-01-01 12:36:07.03	273.60	6.88	-51.7	-67.0	3.8	1.49e+00	0	40	104	0	75	20356
2026-01-01 12:36:08.03	273.76	6.89	-51.7	-66.9	3.8	1.49e+00	0	40	104	0	75	20287
2026-01-01 12:36:09.04	273.93	6.90	-51.7	-66.9	3.8	1.49e+00	0	40	104	0	75	20252
2026-01-01 12:36:10.04	274.08	6.92	-51.7	-66.9	3.8	1.49e+00	0	40	104	0	75	20258
2026-01-01 12:36:11.04	274.24	6.93	-51.7	-66.9	3.8	1.49e+00	0	40	104	0	75	20242
2026-01-01 12:36:12.04	274.40	6.94	-51.7	-67.0	3.8	1.49e+00	0	40	104	0	75	20377
2026-01-01 12:36:13.04	274.56	6.95	-51.7	-66.9	3.8	1.49e+00	0	40	104	0	75	20293
2026-01-01 12:36:14.04	274.72	6.96	-51.7	-66.9	3.8	1.49e+00	0	40	104	0	75	20302
2026-01-01 12:36:15.04	274.89	6.98	-51.7	-66.9	3.8	1.49e+00	0	40	104	0	75	20225
2026-01-01 12:36:16.03	275.04	6.99	-51.7	-66.9	3.8	1.49e+00	0	40	104	0	75	20289
2026-01-01 12:36:17.04	275.21	7.00	-51.7	-66.9	3.8	1.49e+00	0	40	104	0	75	20160
2026-01-01 12:36:18.04	275.37	7.01	-51.7	-66.9	3.8	1.49e+00	0	40	104	0	75	20278
2026-01-01 12:36:19.04	275.53	7.02	-51.6	-66.9	3.8	1.49e+00	0	40	104	0	75	20084
2026-01-01 12:36:20.05	275.69	7.03	-51.8	-67.0	3.8	1.49e+00	0	40	104	0	75	20315
2026-01-01 12:36:21.05	275.85	7.04	-51.7	-66.9	3.8	1.49e+00	0	40	104	0	75	20291
2026-01-01 12:36:22.05	276.01	7.05	-51.7	-66.9	3.8	1.49e+00	0	40	104	0	75	20285
2026-01-01 12:36:23.05	276.17	7.06	-51.7	-66.9	3.8	1.49e+00	0	40	104	0	75	20253
2026-01-01 12:36:24.05	276.33	7.07	-51.7	-66.9	3.8	1.49e+00	0	40	104	0	75	20218
2026-01-01 12:36:25.05	276.50	7.08	-51.7	-66.9	3.8	1.49e+00	0	40	104	0	75	20195
2026-01-01 12:36:26.05	276.66	7.09	-51.6	-66.9	3.8	1.49e+00	0	40	104	0	75	20083
2026-01-01 12:36:27.05	276.82	7.10	-51.7	-66.9	3.8	1.49e+00	0	40	104	0	75	20233
2026-01-01 12:36:28.05	276.98	7.11	-51.7	-66.9	3.8	1.49e+00	0	40	104	0	75	20303
2026-01-01 12:36:29.04	277.14	7.12	-51.7	-66.9	3.8	1.49e+00	0	40	104	0	75	20227
2026-01-01 12:36:30.04	277.30	7.12	-51.7	-66.9	3.8	1.49e+00	0	40	104	0	75	20275
2026-01-01 12:36:31.04	277.46	7.13	-51.7	-67.0	3.8	1.49e+00	0	40	104	0	75	20321
2026-01-01 12:36:32.04	277.63	7.14	-51.7	-66.9	3.8	1.49e+00	0	40	104	0	75	20216
2026-01-01 12:36:33.05	277.79	7.15	-51.7	-66.9	3.8	1.49e+00	0	40	104	0	75	20217
2026-01-01 12:36:34.04	277.95	7.16	-51.7	-66.9	3.8	1.49e+00	0	40	104	0	75	20180
2026-01-01 12:36:35.04	278.11	7.17	-51.7	-66.9	3.8	1.49e+00	0	40	104	0	75	20168
2026-01-01 12:36:36.04	278.28	7.17	-51.7	-66.9	3.8	1.49e+00	0	40	104	0	75	20124
2026-01-01 12:36:37.04	278.44	7.18	-51.7	-66.9	3.8	1.49e+00	0	40	104	0	75	20168
2026-01-01 12:36:38.04	278.60	7.19	-51.7	-66.9	3.8	1.49e+00	0	40	104	0	75	20119
2026-01-01 12:36:39.04	278.76	7.19	-51.7	-66.9	3.8	1.49e+00	0	40	104	0	75	20127
2026-01-01 12:36:40.04	278.93	7.20	-51.7	-67.0	3.8	1.49e+00	0	40	104	0	75	20331
2026-01-01 12:36:41.04	279.09	7.21	-51.7	-66.9	3.8	1.49e+00	0	40	104	0	75	20238
2026-01-01 12:36:42.04	279.25	7.21	-51.7	-66.9	3.8	1.49e+00	0	40	104	0	75	20198
2026-01-01 12:36:43.04	279.41	7.22	-51.7	-66.9	3.8	1.49e+00	0	40	104	0	75	20185
2026-01-01 12:36:44.04	279.58	7.23	-51.7	-66.9	3.8	1.49e+00	0	40	104	0	75	20201
2026-01-01 12:36:45.05	279.74	7.23	-51.7	-66.9	3.8	1.49e+00	0	40	104	0	75	20165
2026-01-01 12:36:46.05	279.90	7.24	-51.7	-66.9	3.8	1.49e+00	0	40	104	0	75	20128
2026-01-01 12:36:47.04	280.07	7.24	-51.7	-66.9	3.8	1.49e+00	0	40	104	0	75	20128
2026-01-01 12:36:48.04	280.23	7.25	-51.7	-66.9	3.8	1.49e+00	0	40	104	0	75	20134
2026-01-01 12:36:49.04	280.39	7.25	-51.6	-66.9	3.8	1.49e+00	0	40	104	0	75	20134
2026-01-01 12:36:50.04	280.56	7.26	-51.6	-66.9	3.8	1.49e+00	0	40	104	0	75	20076
2026-01-01 12:36:51.04	280.72	7.26	-51.7	-66.9	3.8	1.49e+00	0	40	104	0	75	20268
2026-01-01 12:36:52.05	280.88	7.27	-51.7	-67.0	3.8	1.49e+00	0	40	104	0	75	20340
2026-01-01 12:36:53.05	281.05	7.27	-51.7	-66.9	3.8	1.49e+00	0	40	104	0	75	20256
2026-01-01 12:36:54.05	281.21	7.27	-51.7	-66.9	3.8	1.49e+00	0	40	104	0	75	20245
2026-01-01 12:36:55.05	281.37	7.28	-51.7	-66.9	3.8	1.49e+00	0	40	104	0	75	20184
2026-01-01 12:36:56.05	281.54	7.28	-51.7	-66.9	3.8	1.49e+00	0	40	104	0	75	20123
2026-01-01 12:36:57.05	281.70	7.28	-51.7	-66.9	3.8	1.49e+00	0	40	104	0	75	20117
2026-01-01 12:36:58.04	281.86	7.29	-51.7	-66.9	3.8	1.49e+00	0	40	104	0	75	20153
2026-01-01 12:36:59.04	282.03	7.29	-51.7	-66.9	3.8	1.49e+00	0	40	104	0	75	20096
2026-01-01 12:37:00.04	282.19	7.29	-51.7	-66.9	3.8	1.49e+00	0	40	104	0	75	20136
2026-01-01 12:37:01.05	282.36	7.30	-51.7	-67.0	3.8	1.49e+00	0	40	104	0	75	20310
2026-01-01 12:37:02.05	282.52	7.30	-51.7	-66.9	3.8	1.49e+00	0	40	104	0	75	20170
2026-01-01 12:37:03.05	282.68	7.30	-51.7	-66.9	3.8	1.49e+00	0	40	104	0	75	20217
2026-01-01 12:37:04.06	282.85	7.30	-51.7	-66.9	3.8	1.49e+00	0	40	104	0	75	20188
2026-01-01 12:37:05.06	283.01	7.30	-51.7	-66.9	3.8	1.49e+00	0	40	104	0	75	20139
2026-01-01 12:37:06.06	283.18	7.31	-51.7	-66.9	3.8	1.49e+00	0	40	104	0	75	20189
2026-01-01 12:37:07.06	283.34	7.31	-51.7	-66.9	3.8	1.49e+00	0	40	104	0	75	20186
2026-01-01 12:37:08.07	283.50	7.31	-51.7	-66.9	3.8	1.49e+00	0	40	104	0	75	20235
2026-01-01 12:37:09.07	283.67	7.31	-51.6	-66.8	3.8	1.49e+00	0	40	104	0	75	20069
2026-01-01 12:37:10.07	283.83	7.31	-51.7	-66.9	3.8	1.49e+00	0	40	104	0	75	20134
2026-01-01 12:37:11.07	284.00	7.31	-51.6	-66.8	3.8	1.49e+00	0	40	104	0	75	20064
2026-01-01 12:37:12.07	284.16	7.31	-51.7	-66.9	3.8	1.49e+00	0	40	104	0	75	20224
2026-01-01 12:37:13.07	284.32	7.31	-51.7	-66.9	3.8	1.49e+00	0	40	104	0	75	20187
2026-01-01 12:37:14.07	284.49	7.31	-51.7	-66.9	3.8	1.49e+00	0	40	104	0	75	20189
2026-01-01 12:37:15.07	284.65	7.31	-51.7	-66.9	3.8	1.49e+00	0	40	104	0	75	20169
2026-01-01 12:37:16.07	284.81	7.31	-51.7	-66.9	3.8	1.49e+00	0	40	104	0	75	20218
2026-01-01 12:37:17.07	284.98	7.31	-51.7	-66.9	3.8	1.49e+00	0	40	104	0	75	20200
2026-01-01 12:37:18.08	285.14	7.31	-51.7	-66.9	3.8	1.49e+00	0	40	104	0	75	20206
2026-01-01 12:37:19.07	285.31	7.31	-51.7	-66.9	3.8	1.49e+00	0	40	104	0	75	20179
2026-01-01 12:37:20.08	285.47	7.31	-51.7	-66.9	3.8	1.49e+00	0	40	104	0	75	20218
2026-01-01 12:37:21.07	285.63	7.31	-51.6	-66.9	3.8	1.49e+00	0	40	104	0	75	20124
2026-01-01 12:37:22.07	285.80	7.30	-51.7	-66.9	3.8	1.49e+00	0	40	104	0	75	20225
2026-01-01 12:37:23.07	285.96	7.30	-51.7	-67.0	3.8	1.49e+00	0	40	104	0	75	20355
2026-01-01 12:37:24.07	286.12	7.30	-51.7	-66.9	3.8	1.49e+00	0	40	104	0	75	20188
2026-01-01 12:37:25.07	286.29	7.30	-51.7	-66.9	3.8	1.49e+00	0	40	104	0	75	20232
2026-01-01 12:37:26.07	286.45	7.30	-51.7	-66.9	3.8	1.49e+00	0	40	104	0	75	20224
2026-01-01 12:37:27.07	286.62	7.29	-51.7	-66.9	3.8	1.49e+00	0	40	104	0	75	20222
2026-01-01 12:37:28.07	286.78	7.29	-51.7	-66.9	3.8	1.49e+00	0	41	104	0	75	20220
2026-01-01 12:37:29.07	286.94	7.29	-51.7	-66.9	3.8	1.49e+00	0	40	104	0	75	20121
2026-01-01 12:37:30.07	287.11	7.28	-51.7	-66.9	3.8	1.49e+00	0	40	104	0	75	20198
2026-01-01 12:37:31.07	287.27	7.28	-51.7	-66.9	3.8	1.49e+00	0	40	104	0	75	20155
2026-01-01 12:37:32.06	287.43	7.28	-51.7	-66.9	3.8	1.49e+00	0	40	104	0	75	20214
2026-01-01 12:37:33.06	287.59	7.27	-51.7	-66.9	3.8	1.49e+00	0	40	104	0	75	20188
2026-01-01 12:37:34.06	287.76	7.27	-51.7	-66.9	3.8	1.49e+00	0	40	104	0	75	20220
2026-01-01 12:37:35.05	287.92	7.27	-51.7	-66.9	3.8	1.49e+00	0	40	104	0	75	20217
2026-01-01 12:37:36.05	288.08	7.26	-51.7	-67.0	3.8	1.49e+00	0	40	104	0	75	20327
2026-01-01 12:37:37.05	288.25	7.26	-51.7	-66.9	3.8	1.49e+00	0	40	104	0	75	20270
2026-01-01 12:37:38.05	288.41	7.25	-51.7	-66.9	3.8	1.49e+00	0	40	104	0	75	20290
2026-01-01 12:37:39.05	288.57	7.25	-51.7	-66.9	3.8	1.49e+00	0	40	104	0	75	20224
2026-01-01 12:37:40.05	288.73	7.24	-51.7	-67.0	3.8	1.49e+00	0	40	104	0	75	20382
2026-01-01 12:37:41.05	288.90	7.24	-51.7	-67.0	3.8	1.49e+00	0	40	104	0	75	20347
2026-01-01 12:37:42.06	289.06	7.23	-51.7	-67.0	3.8	1.49e+00	0	40	104	0	75	20340
2026-01-01 12:37:43.06	289.22	7.23	-51.7	-67.0	3.8	1.49e+00	0	40	104	0	75	20320
2026-01-01 12:37:44.06	289.39	7.22	-51.8	-67.0	3.8	1.49e+00	0	40	104	0	75	20430
2026-01-01 12:37:45.06	289.55	7.21	-51.7	-67.0	3.8	1.49e+00	0	40	104	0	75	20345
2026-01-01 12:37:46.06	289.71	7.21	-51.7	-67.0	3.8	1.49e+00	0	40	104	0	75	20321
2026-01-01 12:37:47.06	289.88	7.20	-51.7	-66.9	3.8	1.49e+00	0	41	104	0	75	20281
2026-01-01 12:37:48.06	290.04	7.19	-51.7	-66.9	3.8	1.49e+00	0	41	104	0	75	20278
2026-01-01 12:37:49.06	290.20	7.19	-51.7	-67.0	3.8	1.49e+00	0	40	104	0	75	20316
2026-01-01 12:37:50.06	290.36	7.18	-51.7	-66.9	3.8	1.49e+00	0	40	104	0	75	20260
2026-01-01 12:37:51.07	290.53	7.17	-51.7	-66.9	3.8	1.49e+00	0	41	104	0	75	20249
2026-01-01 12:37:52.07	290.69	7.16	-51.7	-66.9	3.8	1.49e+00	0	41	104	0	75	20279
2026-01-01 12:37:53.07	290.85	7.16	-51.8	-67.0	3.8	1.49e+00	0	40	104	0	75	20351
2026-01-01 12:37:54.08	291.01	7.15	-51.8	-67.0	3.8	1.49e+00	0	41	104	0	75	20374
2026-01-01 12:37:55.08	291.18	7.14	-51.8	-67.0	3.8	1.49e+00	0	40	104	0	75	20385
2026-01-01 12:37:56.08	291.34	7.13	-51.8	-67.0	3.8	1.49e+00	0	40	104	0	75	20346
2026-01-01 12:37:57.09	291.50	7.12	-51.8	-67.0	3.8	1.49e+00	0	41	104	0	75	20390
2026-01-01 12:37:58.09	291.66	7.12	-51.7	-66.9	3.8	1.49e+00	0	40	104	0	75	20267
2026-01-01 12:37:59.10	291.83	7.11	-51.8	-67.0	3.8	1.49e+00	0	40	104	0	75	20377
2026-01-01 12:38:00.10	291.99	7.10	-51.7	-67.0	3.8	1.49e+00	0	40	104	0	75	20335
2026-01-01 12:38:01.11	292.15	7.09	-51.7	-67.0	3.8	1.49e+00	0	40	104	0	75	20353
2026-01-01 12:38:02.11	292.31	7.08	-51.8	-67.0	3.8	1.49e+00	0	40	104	0	75	20466
2026-01-01 12:38:03.12	292.47	7.07	-51.8	-67.0	3.8	1.49e+00	0	40	104	0	75	20358
2026-01-01 12:38:04.11	292.63	7.06	-51.8	-67.0	3.8	1.49e+00	0	40	104	0	75	20366
2026-01-01 12:38:05.12	292.79	7.05	-51.8	-67.0	3.8	1.49e+00	0	41	104	0	75	20358
2026-01-01 12:38:06.12	292.96	7.04	-51.8	-67.0	3.8	1.49e+00	0	41	104	0	75	20414
2026-01-01 12:38:07.12	293.12	7.03	-51.8	-67.0	3.8	1.49e+00	0	41	104	0	75	20450
2026-01-01 12:38:08.13	293.28	7.02	-51.8	-67.0	3.8	1.49e+00	0	41	104	0	75	20410
2026-01-01 12:38:09.13	293.44	7.01	-51.9	-67.1	3.8	1.49e+00	0	40	104	0	75	20600
2026-01-01 12:38:10.12	293.60	7.00	-51.9	-67.1	3.8	1.49e+00	0	41	104	0	75	20594
2026-01-01 12:38:11.12	293.76	6.99	-51.9	-67.1	3.8	1.49e+00	0	41	104	0	75	20577
2026-01-01 12:38:12.12	293.92	6.98	-51.8	-67.0	3.8	1.49e+00	0	40	104	0	75	20510
2026-01-01 12:38:13.11	294.08	6.96	-51.9	-67.1	3.8	1.49e+00	0	40	104	0	75	20636
2026-01-01 12:38:14.12	294.24	6.95	-51.8	-67.1	3.8	1.49e+00	0	40	104	0	75	20594
2026-01-01 12:38:15.12	294.40	6.94	-51.9	-67.1	3.8	1.49e+00	0	41	104	0	75	20541
2026-01-01 12:38:16.12	294.56	6.93	-51.8	-67.1	3.8	1.49e+00	0	41	104	0	75	20559
2026-01-01 12:38:17.12	294.72	6.92	-51.9	-67.1	3.8	1.49e+00	0	41	104	0	75	20715
2026-01-01 12:38:18.12	294.87	6.90	-51.9	-67.1	3.8	1.49e+00	0	41	104	0	75	20660
2026-01-01 12:38:19.13	295.04	6.89	-51.9	-67.1	3.8	1.49e+00	0	40	104	0	75	20636
2026-01-01 12:38:20.13	295.19	6.88	-51.9	-67.1	3.8	1.49e+00	0	41	104	0	75	20693
2026-01-01 12:38:21.13	295.35	6.87	-51.9	-67.1	3.8	1.49e+00	0	40	104	0	75	20629
2026-01-01 12:38:22.14	295.51	6.85	-51.9	-67.1	3.8	1.49e+00	0	41	104	0	75	20755
2026-01-01 12:38:23.14	295.67	6.84	-51.9	-67.1	3.8	1.49e+00	0	41	104	0	75	20645
2026-01-01 12:38:24.14	295.83	6.83	-51.9	-67.1	3.8	1.49e+00	0	41	104	0	75	20617
2026-01-01 12:38:25.14	295.99	6.81	-51.9	-67.1	3.8	1.49e+00	0	40	104	0	75	20728
2026-01-01 12:38:26.13	296.15	6.80	-51.9	-67.1	3.8	1.49e+00	0	41	104	0	75	20696
2026-01-01 12:38:27.13	296.30	6.78	-51.9	-67.1	3.8	1.49e+00	0	41	104	0	75	20682
2026-01-01 12:38:28.13	296.46	6.77	-51.9	-67.1	3.8	1.49e+00	0	40	104	0	75	20645
2026-01-01 12:38:29.14	296.62	6.76	-51.9	-67.1	3.8	1.49e+00	0	40	104	0	75	20552
2026-01-01 12:38:30.14	296.78	6.74	-51.9	-67.1	3.8	1.49e+00	0	41	104	0	75	20665
2026-01-01 12:38:31.14	296.94	6.73	-51.9	-67.1	3.8	1.49e+00	0	41	104	0	75	20569
2026-01-01 12:38:32.14	297.09	6.71	-51.8	-67.1	3.8	1.49e+00	0	41	104	0	75	20665
2026-01-01 12:38:33.15	297.25	6.70	-51.9	-67.1	3.8	1.49e+00	0	40	104	0	75	20673
2026-01-01 12:38:34.14	297.41	6.68	-51.9	-67.1	3.8	1.49e+00	0	40	104	0	75	20669
2026-01-01 12:38:35.14	297.56	6.67	-51.9	-67.1	3.8	1.49e+00	0	41	104	0	75	20688
2026-01-01 12:38:36.14	297.72	6.65	-51.9	-67.1	3.8	1.49e+00	0	41	104	0	75	20619
2026-01-01 12:38:37.14	297.88	6.64	-51.9	-67.1	3.8	1.49e+00	0	41	104	0	75	20630
2026-01-01 12:38:38.14	298.03	6.62	-51.9	-67.1	3.8	1.49e+00	0	40	104	0	75	20574
2026-01-01 12:38:39.14	298.19	6.60	-51.9	-67.1	3.8	1.49e+00	0	41	104	0	75	20729
2026-01-01 12:38:40.14	298.34	6.59	-51.9	-67.1	3.8	1.49e+00	0	41	104	0	75	20675
2026-01-01 12:38:41.14	298.50	6.57	-51.9	-67.1	3.8	1.49e+00	0	41	104	0	75	20695
2026-01-01 12:38:42.14	298.66	6.56	-51.9	-67.1	3.8	1.49e+00	0	40	104	0	75	20698
2026-01-01 12:38:43.14	298.81	6.54	-51.9	-67.1	3.8	1.49e+00	0	41	104	0	75	20648
2026-01-01 12:38:44.14	298.97	6.52	-51.8	-67.1	3.8	1.49e+00	0	41	104	0	75	20646
2026-01-01 12:38:45.15	299.12	6.50	-51.9	-67.1	3.8	1.49e+00	0	41	104	0	75	20621
2026-01-01 12:38:46.15	299.28	6.49	-51.8	-67.1	3.8	1.49e+00	0	41	104	0	75	20629
2026-01-01 12:38:47.15	299.43	6.47	-51.9	-67.1	3.8	1.49e+00	0	40	104	0	75	20672
2026-01-01 12:38:48.15	299.59	6.45	-51.9	-67.1	3.8	1.49e+00	0	41	104	0	75	20611
2026-01-01 12:38:49.15	299.74	6.43	-51.9	-67.2	3.8	1.49e+00	0	41	104	0	75	20815
2026-01-01 12:38:50.14	299.89	6.42	-51.9	-67.1	3.8	1.49e+00	0	41	104	0	75	20752
2026-01-01 12:38:51.14	300.05	6.40	-51.9	-67.1	3.8	1.49e+00	0	41	104	0	75	20750
2026-01-01 12:38:52.13	300.20	6.38	-51.9	-67.2	3.8	1.49e+00	0	40	104	0	75	20830
2026-01-01 12:38:53.13	300.35	6.36	-51.9	-67.2	3.8	1.49e+00	0	41	104	0	75	20778
2026-01-01 12:38:54.13	300.51	6.34	-51.9	-67.1	3.8	1.49e+00	0	41	104	0	75	20755
2026-01-01 12:38:55.12	300.66	6.33	-51.9	-67.2	3.8	1.49e+00	0	41	104	0	75	20848
2026-01-01 12:38:56.12	300.81	6.31	-52.0	-67.1	3.8	1.49e+00	0	41	104	0	75	20774
2026-01-01 12:38:57.12	300.96	6.29	-51.9	-67.1	3.8	1.49e+00	0	41	104	0	75	20741
2026-01-01 12:38:58.13	301.12	6.27	-51.9	-67.1	3.8	1.49e+00	0	41	104	0	75	20715
2026-01-01 12:38:59.13	301.27	6.25	-51.9	-67.1	3.8	1.49e+00	0	41	104	0	75	20656
2026-01-01 12:39:00.13	301.42	6.23	-51.9	-67.1	3.8	1.49e+00	0	41	104	0	75	20694
2026-01-01 12:39:01.14	301.58	6.21	-51.9	-67.2	3.8	1.49e+00	0	41	104	0	75	20824
2026-01-01 12:39:02.14	301.73	6.19	-52.0	-67.2	3.8	1.49e+00	0	41	104	0	75	20904
2026-01-01 12:39:03.15	301.88	6.17	-51.9	-67.1	3.8	1.49e+00	0	41	104	0	75	20700
2026-01-01 12:39:04.15	302.03	6.15	-52.0	-67.2	3.8	1.49e+00	0	41	104	0	75	20839
2026-01-01 12:39:05.15	302.18	6.13	-51.9	-67.2	3.8	1.49e+00	0	41	104	0	75	20832
2026-01-01 12:39:06.15	302.34	6.11	-51.9	-67.1	3.8	1.49e+00	0	41	104	0	75	20759
2026-01-01 12:39:07.15	302.49	6.09	-51.9	-67.2	3.8	1.49e+00	0	40	104	0	75	20883
2026-01-01 12:39:08.16	302.64	6.07	-51.9	-67.1	3.8	1.49e+00	0	40	104	0	75	20715
2026-01-01 12:39:09.16	302.79	6.05	-51.9	-67.1	3.8	1.49e+00	0	41	104	0	75	20683
2026-01-01 12:39:10.16	302.94	6.03	-51.9	-67.1	3.8	1.49e+00	0	41	104	0	75	20749
2026-01-01 12:39:11.15	303.09	6.01	-51.9	-67.1	3.8	1.49e+00	0	41	104	0	75	20742
2026-01-01 12:39:12.15	303.24	5.99	-51.9	-67.1	3.8	1.49e+00	0	41	104	0	75	20712
2026-01-01 12:39:13.16	303.39	5.96	-52.0	-67.2	3.8	1.49e+00	0	41	104	0	75	20999
2026-01-01 12:39:14.16	303.54	5.94	-52.0	-67.2	3.8	1.49e+00	0	41	104	0	75	20860
2026-01-01 12:39:15.16	303.69	5.92	-52.0	-67.2	3.8	1.49e+00	0	41	104	0	75	20804
2026-01-01 12:39:16.17	303.84	5.90	-52.0	-67.2	3.8	1.49e+00	0	41	104	0	75	20910
2026-01-01 12:39:17.17	303.99	5.88	-51.9	-67.2	3.8	1.49e+00	0	41	104	0	75	20801
2026-01-01 12:39:18.17	304.13	5.86	-52.0	-67.2	3.8	1.49e+00	0	41	104	0	75	20918
2026-01-01 12:39:19.17	304.28	5.83	-52.0	-67.1	3.8	1.49e+00	0	41	104	0	75	20726
2026-01-01 12:39:20.17	304.43	5.81	-51.9	-67.2	3.8	1.49e+00	0	41	104	0	75	20839
2026-01-01 12:39:21.17	304.58	5.79	-51.9	-67.2	3.8	1.49e+00	0	41	104	0	75	20777
2026-01-01 12:39:22.16	304.72	5.77	-51.9	-67.1	3.8	1.49e+00	0	41	104	0	75	20659
2026-01-01 12:39:23.17	304.87	5.74	-51.9	-67.1	3.8	1.49e+00	0	41	104	0	75	20757
2026-01-01 12:39:24.16	305.02	5.72	-51.9	-67.2	3.8	1.49e+00	0	41	104	0	75	20814
2026-01-01 12:39:25.16	305.16	5.70	-52.0	-67.2	3.8	1.49e+00	0	41	104	0	75	20956
2026-01-01 12:39:26.16	305.31	5.67	-52.0	-67.2	3.8	1.49e+00	0	41	104	0	75	20886
2026-01-01 12:39:27.15	305.46	5.65	-52.1	-67.3	3.8	1.49e+00	0	41	104	0	75	21117
2026-01-01 12:39:28.15	305.60	5.63	-52.0	-67.2	3.8	1.49e+00	0	41	104	0	75	20870
2026-01-01 12:39:29.15	305.75	5.60	-52.0	-67.2	3.8	1.49e+00	0	41	104	0	75	20875
2026-01-01 12:39:30.14	305.89	5.58	-52.0	-67.2	3.8	1.49e+00	0	41	104	0	75	20796
2026-01-01 12:39:31.14	306.04	5.56	-51.9	-67.1	3.8	1.49e+00	0	41	104	0	75	20664
2026-01-01 12:39:32.14	306.18	5.53	-51.9	-67.1	3.8	1.49e+00	0	41	104	0	75	20731
2026-01-01 12:39:33.14	306.33	5.51	-51.9	-67.1	3.8	1.49e+00	0	41	104	0	75	20613
2026-01-01 12:39:34.14	306.47	5.49	-51.9	-67.1	3.8	1.49e+00	0	41	104	0	75	20731
2026-01-01 12:39:35.14	306.62	5.46	-52.0	-67.2	3.8	1.49e+00	0	41	104	0	75	20895
2026-01-01 12:39:36.14	306.76	5.44	-52.0	-67.3	3.8	1.49e+00	0	41	104	0	75	21021
2026-01-01 12:39:37.14	306.91	5.41	-52.0	-67.2	3.8	1.49e+00	0	41	104	0	75	20839
2026-01-01 12:39:38.14	307.05	5.39	-52.0	-67.2	3.8	1.49e+00	0	41	104	0	75	20860
2026-01-01 12:39:39.14	307.19	5.36	-52.0	-67.2	3.8	1.49e+00	0	41	104	0	75	20975
2026-01-01 12:39:40.14	307.34	5.34	-52.0	-67.2	3.8	1.49e+00	0	41	104	0	75	20920
2026-01-01 12:39:41.13	307.48	5.31	-52.0	-67.2	3.8	1.49e+00	0	41	104	0	75	20889
2026-01-01 12:39:42.13	307.62	5.29	-51.9	-67.2	3.8	1.49e+00	0	41	104	0	75	20808
2026-01-01 12:39:43.12	307.76	5.26	-51.9	-67.1	3.8	1.49e+00	0	41	104	0	75	20742
2026-01-01 12:39:44.13	307.91	5.24	-51.9	-67.1	3.8	1.49e+00	0	41	104	0	75	20612
2026-01-01 12:39:45.13	308.05	5.21	-51.9	-67.1	3.8	1.49e+00	0	41	104	0	75	20759
2026-01-01 12:39:46.12	308.19	5.19	-51.9	-67.1	3.8	1.49e+00	0	41	104	0	75	20633
2026-01-01 12:39:47.13	308.33	5.16	-52.0	-67.2	3.8	1.49e+00	0	41	104	0	75	20923
2026-01-01 12:39:48.12	308.47	5.13	-52.0	-67.2	3.8	1.49e+00	0	41	104	0	75	20929
2026-01-01 12:39:49.12	308.61	5.11	-51.9	-67.1	3.8	1.49e+00	0	41	104	0	75	20758
2026-01-01 12:39:50.12	308.75	5.08	-52.0	-67.2	3.8	1.49e+00	0	41	104	0	75	20814
2026-01-01 12:39:51.12	308.90	5.06	-52.0	-67.2	3.8	1.49e+00	0	41	104	0	75	20863
2026-01-01 12:39:52.12	309.04	5.03	-51.9	-67.2	3.8	1.49e+00	0	41	104	0	75	20846
2026-01-01 12:39:53.13	309.18	5.00	-51.9	-67.2	3.8	1.49e+00	0	41	104	0	75	20827

#Closed at: 2026-01-01 12:39:54
#Recorded file [0 MB]: D:/Data/31040_260101_153436.dat