passes_logs/2026/01/01/T1/T1__20260101_064802_FENGYUN_3E_rec.log

#Pass ID: 20260101_064802_FENGYUN 3E
#Satellite: FENGYUN 3E
#Configuration: FENGYUN 3E
#almurnet v.1.7.20251203
#Start time: 2026-01-01 06:48:02

#Version: 2.0.20230620
#Station: T1
#Location: 37.570604 lon 55.790049 lat
#TLE: 1 49008U 21062A   25365.55977344  .00000403  00000+0  21051-3 0  9995
#TLE: 2 49008  98.7483   5.8586 0001311 170.0615 190.0588 14.19883886232790

#Time	Az	El	Level	Level2	SNR	BER	BlckErr	Temp	State	Recorded	gain1	gain2
2026-01-01 06:48:02.42	359.19	5.02	-51.1	-63.0	3.8	8.47e-01	0	40	0	0	72	14286
2026-01-01 06:48:03.42	359.07	5.06	-50.1	-62.9	3.8	8.47e-01	0	41	104	0	70	15794
2026-01-01 06:48:04.42	358.94	5.10	-50.1	-63.0	3.8	8.48e-01	0	41	104	0	70	15959
2026-01-01 06:48:05.43	358.81	5.14	-50.1	-62.9	3.8	8.46e-01	0	41	104	0	70	15820
2026-01-01 06:48:06.43	358.69	5.18	-50.1	-62.9	3.8	8.47e-01	0	41	104	0	70	15929
2026-01-01 06:48:07.44	358.56	5.22	-50.1	-62.9	3.8	8.47e-01	0	41	104	0	70	15895
2026-01-01 06:48:08.44	358.43	5.26	-50.1	-62.8	3.8	8.47e-01	0	41	104	0	70	15735
2026-01-01 06:48:09.44	358.31	5.30	-50.1	-62.9	3.8	8.47e-01	0	41	104	0	70	15858
2026-01-01 06:48:10.45	358.18	5.34	-50.1	-62.9	3.8	8.47e-01	0	41	104	0	70	15823
2026-01-01 06:48:11.45	358.05	5.38	-50.1	-62.9	3.8	8.47e-01	0	41	104	0	70	15798
2026-01-01 06:48:12.46	357.92	5.42	-50.1	-62.8	3.8	8.46e-01	0	41	104	0	70	15715
2026-01-01 06:48:13.46	357.79	5.46	-50.0	-62.9	3.8	8.47e-01	0	41	104	0	70	15761
2026-01-01 06:48:14.47	357.66	5.50	-50.1	-62.8	3.8	8.47e-01	0	41	104	0	70	15742
2026-01-01 06:48:15.47	357.53	5.54	-50.1	-62.9	3.8	8.47e-01	0	41	104	0	70	15806
2026-01-01 06:48:16.48	357.40	5.58	-50.1	-63.0	3.8	8.47e-01	0	41	104	0	70	16028
2026-01-01 06:48:17.48	357.27	5.62	-50.1	-62.9	3.8	8.47e-01	0	41	104	0	70	15918
2026-01-01 06:48:18.48	357.14	5.66	-50.1	-62.9	3.8	8.48e-01	0	41	104	0	70	15926
2026-01-01 06:48:19.49	357.01	5.70	-50.1	-62.8	3.8	8.47e-01	0	41	104	0	70	15707
2026-01-01 06:48:20.49	356.88	5.74	-50.1	-62.9	3.8	8.46e-01	0	41	104	0	70	15821
2026-01-01 06:48:21.49	356.75	5.77	-50.1	-62.8	3.8	8.47e-01	0	41	104	0	70	15755
2026-01-01 06:48:22.50	356.62	5.81	-50.1	-62.8	3.8	8.46e-01	0	41	104	0	70	15734
2026-01-01 06:48:23.51	356.48	5.85	-50.1	-62.8	3.8	8.48e-01	0	41	104	0	70	15665
2026-01-01 06:48:24.51	356.35	5.89	-50.1	-62.9	3.8	8.46e-01	0	41	104	0	70	15821
2026-01-01 06:48:25.51	356.22	5.93	-50.1	-62.9	3.8	8.47e-01	0	41	104	0	70	15871
2026-01-01 06:48:26.52	356.08	5.97	-50.1	-62.8	3.8	8.47e-01	0	42	104	0	70	15743
2026-01-01 06:48:27.52	355.95	6.01	-50.1	-62.9	3.8	8.47e-01	0	41	104	0	70	15797
2026-01-01 06:48:28.53	355.82	6.04	-50.1	-62.9	3.8	8.47e-01	0	42	104	0	70	15856
2026-01-01 06:48:29.53	355.68	6.08	-50.1	-62.9	3.8	8.47e-01	0	42	104	0	70	15778
2026-01-01 06:48:30.54	355.55	6.12	-50.1	-62.8	3.8	8.47e-01	0	42	104	0	70	15730
2026-01-01 06:48:31.54	355.41	6.16	-50.1	-62.8	3.8	8.46e-01	0	42	104	0	70	15704
2026-01-01 06:48:32.55	355.27	6.20	-50.1	-62.9	3.8	8.47e-01	0	42	104	0	70	15836
2026-01-01 06:48:33.55	355.14	6.23	-50.1	-62.9	3.8	8.47e-01	0	42	104	0	70	15773
2026-01-01 06:48:34.55	355.00	6.27	-50.0	-62.8	3.8	8.47e-01	0	42	104	0	70	15720
2026-01-01 06:48:35.56	354.87	6.31	-50.0	-62.8	3.8	8.46e-01	0	42	104	0	70	15613
2026-01-01 06:48:36.56	354.73	6.35	-50.1	-62.9	3.8	8.47e-01	0	42	104	0	70	15895
2026-01-01 06:48:37.57	354.59	6.39	-50.1	-62.9	3.8	8.46e-01	0	42	104	0	70	15850
2026-01-01 06:48:38.57	354.45	6.42	-50.1	-62.9	3.8	8.47e-01	0	42	104	0	70	15797
2026-01-01 06:48:39.57	354.32	6.46	-50.1	-62.9	3.8	8.46e-01	0	42	104	0	70	15810
2026-01-01 06:48:40.58	354.18	6.50	-50.1	-62.9	3.8	8.46e-01	0	42	104	0	70	15850
2026-01-01 06:48:41.58	354.04	6.53	-50.1	-62.9	3.8	8.46e-01	0	42	104	0	70	15832
2026-01-01 06:48:42.59	353.90	6.57	-50.1	-62.9	3.8	8.47e-01	0	42	104	0	70	15821
2026-01-01 06:48:43.59	353.76	6.61	-50.1	-62.9	3.8	8.47e-01	0	42	104	0	70	15826
2026-01-01 06:48:44.60	353.62	6.64	-50.1	-62.9	3.8	8.48e-01	0	42	104	0	70	15925
2026-01-01 06:48:45.60	353.48	6.68	-50.1	-62.9	3.8	8.47e-01	0	42	104	0	70	15821
2026-01-01 06:48:46.61	353.34	6.72	-50.1	-62.9	3.8	8.46e-01	0	42	104	0	70	15812
2026-01-01 06:48:47.61	353.19	6.75	-50.1	-62.9	3.8	8.48e-01	0	42	104	0	70	15858
2026-01-01 06:48:48.61	353.05	6.79	-50.1	-62.9	3.8	8.46e-01	0	42	104	0	70	15819
2026-01-01 06:48:49.62	352.91	6.83	-50.1	-62.9	3.8	8.47e-01	0	42	104	0	70	15803
2026-01-01 06:48:50.62	352.77	6.86	-50.1	-62.9	3.8	8.47e-01	0	42	104	0	70	15886
2026-01-01 06:48:51.63	352.63	6.90	-50.1	-62.8	3.8	8.47e-01	0	42	104	0	70	15730
2026-01-01 06:48:52.63	352.48	6.93	-50.1	-62.9	3.8	8.47e-01	0	42	104	0	70	15837
2026-01-01 06:48:53.63	352.34	6.97	-50.1	-62.8	3.8	8.47e-01	0	42	104	0	70	15699
2026-01-01 06:48:54.64	352.20	7.01	-50.1	-62.9	3.8	8.47e-01	0	42	104	0	70	15821
2026-01-01 06:48:55.64	352.05	7.04	-50.1	-62.8	3.8	8.46e-01	0	42	104	0	70	15760
2026-01-01 06:48:56.65	351.91	7.08	-50.1	-62.9	3.8	8.47e-01	0	42	104	0	70	15898
2026-01-01 06:48:57.65	351.76	7.11	-50.1	-62.9	3.8	8.47e-01	0	42	104	0	70	15924
2026-01-01 06:48:58.66	351.62	7.15	-50.1	-62.9	3.8	8.46e-01	0	42	104	0	70	15834
2026-01-01 06:48:59.66	351.47	7.18	-50.1	-62.9	3.8	8.47e-01	0	42	104	0	70	15920
2026-01-01 06:49:00.67	351.33	7.22	-50.2	-62.9	3.8	8.46e-01	0	42	104	0	70	15940
2026-01-01 06:49:01.67	351.18	7.25	-50.1	-62.9	3.8	8.46e-01	0	42	104	0	70	15904
2026-01-01 06:49:02.67	351.03	7.29	-50.1	-62.8	3.8	8.48e-01	0	42	104	0	70	15733
2026-01-01 06:49:03.68	350.89	7.32	-50.1	-62.9	3.8	8.46e-01	0	42	104	0	70	15849
2026-01-01 06:49:04.68	350.74	7.35	-50.1	-62.9	3.8	8.47e-01	0	42	104	0	70	15835
2026-01-01 06:49:05.69	350.59	7.39	-50.1	-62.8	3.8	8.46e-01	0	42	104	0	70	15758
2026-01-01 06:49:06.69	350.44	7.42	-50.1	-62.9	3.8	8.48e-01	0	42	104	0	70	15876
2026-01-01 06:49:07.69	350.30	7.46	-50.1	-62.9	3.8	8.47e-01	0	42	104	0	70	15828
2026-01-01 06:49:08.70	350.15	7.49	-50.1	-62.9	3.8	8.47e-01	0	42	104	0	70	15813
2026-01-01 06:49:09.70	350.00	7.52	-50.1	-62.9	3.8	8.47e-01	0	42	104	0	70	15857
2026-01-01 06:49:10.71	349.85	7.56	-50.2	-62.9	3.8	8.47e-01	0	42	104	0	70	15913
2026-01-01 06:49:11.71	349.70	7.59	-50.1	-62.9	3.8	8.46e-01	0	42	104	0	70	15880
2026-01-01 06:49:12.71	349.55	7.62	-50.1	-63.0	3.8	8.47e-01	0	42	104	0	70	16065
2026-01-01 06:49:13.72	349.40	7.66	-50.2	-63.0	3.8	8.47e-01	0	42	104	0	70	15957
2026-01-01 06:49:14.72	349.25	7.69	-50.2	-63.1	3.8	8.47e-01	0	42	104	0	70	16154
2026-01-01 06:49:15.73	349.09	7.72	-50.3	-63.1	3.8	8.46e-01	0	42	104	0	70	16145
2026-01-01 06:49:16.73	348.94	7.76	-50.3	-63.0	3.8	8.47e-01	0	42	104	0	70	15992
2026-01-01 06:49:17.74	348.79	7.79	-50.3	-63.0	3.8	8.46e-01	0	42	104	0	70	16062
2026-01-01 06:49:18.74	348.64	7.82	-50.2	-63.0	3.8	8.46e-01	0	42	104	0	70	15956
2026-01-01 06:49:19.74	348.49	7.85	-50.2	-63.0	3.8	8.46e-01	0	43	104	0	70	15965
2026-01-01 06:49:20.75	348.33	7.88	-50.2	-62.8	3.8	8.48e-01	0	43	104	0	70	15693
2026-01-01 06:49:21.75	348.18	7.92	-50.2	-62.9	3.8	8.47e-01	0	42	104	0	70	15865
2026-01-01 06:49:22.76	348.03	7.95	-50.1	-62.8	3.8	8.47e-01	0	43	104	0	70	15743
2026-01-01 06:49:23.76	347.87	7.98	-50.1	-62.8	3.8	8.46e-01	0	43	104	0	70	15648
2026-01-01 06:49:24.76	347.72	8.01	-50.1	-62.8	3.8	8.47e-01	0	43	104	0	70	15692
2026-01-01 06:49:25.77	347.56	8.04	-50.1	-62.8	3.8	8.48e-01	0	42	104	0	70	15648
2026-01-01 06:49:26.77	347.41	8.07	-50.1	-62.8	3.8	8.47e-01	0	42	104	0	70	15730
2026-01-01 06:49:27.78	347.25	8.10	-50.1	-62.8	3.8	8.47e-01	0	42	104	0	70	15684
2026-01-01 06:49:28.78	347.10	8.14	-50.1	-62.8	3.8	8.47e-01	0	42	104	0	70	15608
2026-01-01 06:49:29.79	346.94	8.17	-50.1	-62.9	3.8	8.47e-01	0	43	104	0	70	15776
2026-01-01 06:49:30.79	346.79	8.20	-50.1	-62.9	3.8	8.47e-01	0	43	104	0	70	15904
2026-01-01 06:49:31.79	346.63	8.23	-50.1	-62.9	3.8	8.48e-01	0	43	104	0	70	15766
2026-01-01 06:49:32.80	346.47	8.26	-50.1	-62.9	3.8	8.46e-01	0	42	104	0	70	15791
2026-01-01 06:49:33.80	346.32	8.29	-50.1	-62.8	3.8	8.46e-01	0	43	104	0	70	15740
2026-01-01 06:49:34.81	346.16	8.32	-50.1	-62.8	3.8	8.47e-01	0	43	104	0	70	15688
2026-01-01 06:49:35.81	346.00	8.35	-50.1	-62.7	3.8	8.46e-01	0	42	104	0	70	15547
2026-01-01 06:49:36.82	345.84	8.38	-50.1	-62.8	3.8	8.48e-01	0	43	104	0	70	15597
2026-01-01 06:49:37.82	345.68	8.41	-50.1	-62.9	3.8	8.47e-01	0	43	104	0	70	15886
2026-01-01 06:49:38.83	345.52	8.43	-50.1	-62.8	3.8	8.47e-01	0	43	104	0	70	15718
2026-01-01 06:49:39.83	345.36	8.46	-50.1	-62.7	3.8	8.47e-01	0	43	104	0	70	15467
2026-01-01 06:49:40.84	345.20	8.49	-50.1	-62.6	3.8	8.45e-01	0	43	104	0	70	15350
2026-01-01 06:49:41.84	345.04	8.52	-50.1	-62.5	3.8	8.45e-01	0	43	104	0	70	15054
2026-01-01 06:49:42.84	344.88	8.55	-50.2	-62.5	3.8	8.48e-01	0	43	104	0	70	15180
2026-01-01 06:49:43.85	344.72	8.58	-50.2	-62.7	3.8	8.47e-01	0	43	104	0	70	15512
2026-01-01 06:49:44.86	344.56	8.61	-50.2	-63.0	3.8	8.46e-01	0	43	104	0	70	15950
2026-01-01 06:49:45.86	344.40	8.63	-50.2	-62.6	3.8	8.47e-01	0	43	104	0	70	15256
2026-01-01 06:49:46.86	344.24	8.66	-50.1	-61.6	3.8	8.47e-01	0	43	104	0	70	13705
2026-01-01 06:49:47.87	344.08	8.69	-50.0	-60.6	3.8	8.46e-01	0	43	104	0	70	12231
2026-01-01 06:49:48.87	343.92	8.72	-49.9	-59.8	4.1	8.41e-01	0	43	0	0	70	11057
2026-01-01 06:49:49.88	343.75	8.74	-49.9	-59.3	4.2	8.38e-01	0	43	0	0	70	10461
2026-01-01 06:49:50.88	343.59	8.77	-49.8	-59.2	4.3	8.35e-01	0	43	0	0	70	10301
2026-01-01 06:49:51.89	343.43	8.80	-49.8	-58.8	4.4	8.32e-01	0	43	0	0	70	9908
2026-01-01 06:49:52.89	343.26	8.82	-49.7	-58.3	4.6	8.20e-01	0	43	0	0	70	9349
2026-01-01 06:49:53.90	343.10	8.85	-49.6	-57.5	5.0	7.83e-01	0	43	0	0	70	8535
2026-01-01 06:49:54.90	342.93	8.88	-49.3	-56.3	5.8	7.10e-01	0	43	0	0	69	7839
2026-01-01 06:49:55.90	342.77	8.90	-48.8	-54.4	7.3	1.70e-01	0	43	0	7340032	68	6704
2026-01-01 06:49:56.91	342.61	8.93	-47.8	-52.1	9.5	3.05e-02	0	43	0	14680064	66	5771
2026-01-01 06:49:57.91	342.44	8.95	-46.7	-49.9	11.7	9.94e-04	0	43	0	22020096	64	5036
2026-01-01 06:49:58.92	342.28	8.98	-45.6	-48.1	13.8	2.28e-05	0	43	0	29360128	62	4558
2026-01-01 06:49:59.92	342.11	9.00	-44.5	-46.4	15.3	0.00e+00	0	43	0	36700160	59	4459
2026-01-01 06:50:00.92	341.95	9.03	-45.1	-47.2	14.5	2.20e-06	0	43	0	44040192	59	4882
2026-01-01 06:50:01.92	341.78	9.05	-50.5	-58.0	4.7	9.10e-02	0	43	0	50331648	70	9002
2026-01-01 06:50:02.93	341.61	9.08	-43.1	-44.7	17.0	0.00e+00	0	43	0	55574528	56	4356
2026-01-01 06:50:03.93	341.45	9.10	-45.4	-47.4	14.4	0.00e+00	0	43	0	62914560	60	4725
2026-01-01 06:50:04.93	341.28	9.13	-42.6	-44.1	17.6	0.00e+00	0	43	0	70254592	56	4077
2026-01-01 06:50:05.94	341.11	9.15	-42.8	-44.2	17.4	0.00e+00	0	43	0	77594624	56	4140
2026-01-01 06:50:06.94	340.95	9.17	-42.8	-44.2	17.5	0.00e+00	0	43	0	84934656	56	4142
2026-01-01 06:50:07.99	340.77	9.20	-42.8	-44.1	17.5	0.00e+00	0	43	0	92274688	56	4096
2026-01-01 06:50:08.91	340.62	9.22	-42.9	-44.3	17.4	0.00e+00	0	43	0	98566144	56	4149
2026-01-01 06:50:09.91	340.45	9.24	-42.7	-44.1	17.6	0.00e+00	0	42	0	105906176	56	4066
2026-01-01 06:50:10.91	340.28	9.26	-42.8	-44.2	17.5	0.00e+00	0	43	0	113246208	56	4103
2026-01-01 06:50:11.92	340.11	9.29	-42.7	-44.1	17.6	0.00e+00	0	43	0	120586240	56	4067
2026-01-01 06:50:12.92	339.94	9.31	-42.7	-44.1	17.6	0.00e+00	0	43	0	127926272	56	4074
2026-01-01 06:50:13.92	339.77	9.33	-42.7	-44.1	17.5	0.00e+00	0	43	0	135266304	56	4086
2026-01-01 06:50:14.92	339.60	9.35	-42.7	-44.0	17.7	0.00e+00	0	43	0	142606336	56	4045
2026-01-01 06:50:15.92	339.44	9.38	-42.7	-44.1	17.6	0.00e+00	0	43	0	149946368	56	4072
2026-01-01 06:50:16.93	339.26	9.40	-42.7	-44.1	17.6	0.00e+00	0	43	0	156237824	56	4057
2026-01-01 06:50:17.93	339.09	9.42	-42.7	-44.0	17.6	0.00e+00	0	43	0	163577856	56	4036
2026-01-01 06:50:18.93	338.92	9.44	-42.8	-44.2	17.6	0.00e+00	0	43	0	170917888	56	4102
2026-01-01 06:50:19.93	338.75	9.46	-42.8	-44.2	17.6	0.00e+00	0	43	0	178257920	56	4103
2026-01-01 06:50:20.93	338.58	9.48	-42.7	-44.1	17.7	0.00e+00	0	43	0	185597952	56	4056
2026-01-01 06:50:21.93	338.41	9.50	-42.7	-44.1	17.6	0.00e+00	0	43	0	192937984	56	4095
2026-01-01 06:50:22.93	338.24	9.52	-42.6	-44.1	17.6	0.00e+00	0	43	0	200278016	56	4059
2026-01-01 06:50:23.93	338.07	9.54	-42.6	-44.1	17.5	0.00e+00	0	43	0	207618048	56	4056
2026-01-01 06:50:24.93	337.90	9.56	-42.8	-44.2	17.5	0.00e+00	0	43	0	214958080	56	4119
2026-01-01 06:50:25.93	337.73	9.58	-42.8	-44.3	17.4	0.00e+00	0	43	0	221249536	56	4146
2026-01-01 06:50:26.93	337.56	9.60	-42.9	-44.3	17.4	0.00e+00	0	43	0	228589568	56	4178
2026-01-01 06:50:27.93	337.38	9.62	-43.0	-44.4	17.4	0.00e+00	0	43	0	235929600	56	4194
2026-01-01 06:50:28.94	337.21	9.64	-43.0	-44.4	17.4	0.00e+00	0	43	0	243269632	56	4212
2026-01-01 06:50:29.94	337.04	9.66	-42.9	-44.3	17.5	0.00e+00	0	43	0	250609664	56	4190
2026-01-01 06:50:30.94	336.86	9.67	-42.9	-44.3	17.5	0.00e+00	0	43	0	257949696	56	4175
2026-01-01 06:50:31.95	336.69	9.69	-42.8	-44.2	17.5	0.00e+00	0	43	0	265289728	56	4139
2026-01-01 06:50:32.95	336.52	9.71	-42.7	-44.1	17.6	0.00e+00	0	43	0	272629760	56	4084
2026-01-01 06:50:33.95	336.34	9.73	-42.7	-44.0	17.7	0.00e+00	0	43	0	278921216	56	4045
2026-01-01 06:50:34.96	336.17	9.75	-42.6	-43.9	17.8	0.00e+00	0	43	0	286261248	56	3995
2026-01-01 06:50:35.96	335.99	9.76	-42.4	-43.8	17.8	0.00e+00	0	43	0	293601280	55	4157
2026-01-01 06:50:36.96	335.82	9.78	-42.4	-43.7	17.9	0.00e+00	0	43	0	300941312	55	4124
2026-01-01 06:50:37.96	335.65	9.80	-42.4	-43.7	17.9	0.00e+00	0	43	0	308281344	55	4099
2026-01-01 06:50:38.96	335.47	9.81	-42.4	-43.7	17.8	0.00e+00	0	43	0	315621376	55	4141
2026-01-01 06:50:39.97	335.29	9.83	-42.4	-43.7	17.8	0.00e+00	0	43	0	322961408	55	4115
2026-01-01 06:50:40.97	335.12	9.84	-42.4	-43.6	17.8	0.00e+00	0	43	0	330301440	55	4098
2026-01-01 06:50:41.97	334.94	9.86	-42.5	-43.7	17.8	0.00e+00	0	43	0	337641472	55	4136
2026-01-01 06:50:42.97	334.77	9.88	-42.5	-43.7	17.8	0.00e+00	0	43	0	344981504	55	4133
2026-01-01 06:50:43.98	334.59	9.89	-42.6	-43.9	17.6	0.00e+00	0	43	0	352321536	55	4205
2026-01-01 06:50:44.98	334.42	9.91	-42.6	-43.9	17.7	0.00e+00	0	43	0	359661568	55	4207
2026-01-01 06:50:45.98	334.24	9.92	-42.8	-44.0	17.5	0.00e+00	0	43	0	365953024	55	4288
2026-01-01 06:50:46.99	334.06	9.93	-42.8	-44.0	17.5	0.00e+00	0	43	0	373293056	55	4287
2026-01-01 06:50:47.99	333.89	9.95	-42.8	-44.1	17.5	0.00e+00	0	43	0	380633088	55	4302
2026-01-01 06:50:48.99	333.71	9.96	-42.8	-44.1	17.5	0.00e+00	0	43	0	387973120	55	4312
2026-01-01 06:50:49.99	333.53	9.98	-42.7	-44.0	17.5	0.00e+00	0	43	0	395313152	55	4279
2026-01-01 06:50:50.99	333.36	9.99	-42.7	-44.0	17.5	0.00e+00	0	43	0	402653184	55	4275
2026-01-01 06:50:51.99	333.18	10.00	-42.8	-44.1	17.5	0.00e+00	0	43	0	409993216	55	4314
2026-01-01 06:50:53.00	333.00	10.02	-42.7	-43.9	17.6	0.00e+00	0	43	0	417333248	55	4235
2026-01-01 06:50:54.00	332.82	10.03	-42.6	-43.9	17.6	0.00e+00	0	43	0	424673280	55	4206
2026-01-01 06:50:55.00	332.65	10.04	-42.5	-43.7	17.7	0.00e+00	0	43	0	430964736	55	4132
2026-01-01 06:50:56.01	332.47	10.05	-42.5	-43.7	17.7	0.00e+00	0	42	0	438304768	55	4137
2026-01-01 06:50:57.01	332.29	10.06	-42.4	-43.7	17.7	0.00e+00	0	43	0	445644800	55	4114
2026-01-01 06:50:58.01	332.11	10.08	-42.4	-43.7	17.8	0.00e+00	0	43	0	452984832	55	4145
2026-01-01 06:50:59.01	331.93	10.09	-42.5	-43.8	17.7	0.00e+00	0	43	0	460324864	55	4155
2026-01-01 06:51:00.02	331.75	10.10	-42.6	-43.9	17.6	0.00e+00	0	43	0	467664896	55	4228
2026-01-01 06:51:01.02	331.58	10.11	-42.5	-43.8	17.7	0.00e+00	0	43	0	475004928	55	4185
2026-01-01 06:51:02.02	331.40	10.12	-42.6	-43.9	17.7	0.00e+00	0	43	0	482344960	55	4207
2026-01-01 06:51:03.03	331.22	10.13	-42.5	-43.8	17.8	0.00e+00	0	43	0	489684992	55	4167
2026-01-01 06:51:04.03	331.04	10.14	-42.6	-43.8	17.7	0.00e+00	0	43	0	497025024	55	4180
2026-01-01 06:51:05.03	330.86	10.15	-42.6	-43.8	17.8	0.00e+00	0	43	0	504365056	55	4184
2026-01-01 06:51:06.03	330.68	10.16	-42.4	-43.6	18.0	0.00e+00	0	43	0	510656512	55	4082
2026-01-01 06:51:07.03	330.50	10.17	-42.3	-43.5	18.0	0.00e+00	0	43	0	517996544	55	4042
2026-01-01 06:51:08.04	330.32	10.18	-42.2	-43.4	18.0	0.00e+00	0	43	0	525336576	55	3997
2026-01-01 06:51:09.04	330.14	10.19	-42.1	-43.3	18.2	0.00e+00	0	43	0	532676608	54	4175
2026-01-01 06:51:10.04	329.96	10.19	-42.1	-43.2	18.2	0.00e+00	0	43	0	540016640	54	4144
2026-01-01 06:51:11.04	329.78	10.20	-42.0	-43.2	18.3	0.00e+00	0	43	0	547356672	54	4111
2026-01-01 06:51:12.05	329.60	10.21	-42.1	-43.3	18.2	0.00e+00	0	43	0	554696704	54	4151
2026-01-01 06:51:13.05	329.42	10.22	-41.9	-43.1	18.2	0.00e+00	0	43	0	562036736	54	4089
2026-01-01 06:51:14.05	329.24	10.23	-42.0	-43.2	18.2	0.00e+00	0	43	0	569376768	54	4123
2026-01-01 06:51:15.06	329.06	10.23	-42.1	-43.2	18.2	0.00e+00	0	43	0	575668224	54	4144
2026-01-01 06:51:16.47	328.81	10.24	-42.1	-43.3	18.1	0.00e+00	0	43	0	586153984	54	4188
2026-01-01 06:51:17.19	328.68	10.25	-42.2	-43.4	18.1	0.00e+00	0	43	0	591396864	54	4218
2026-01-01 06:51:18.48	328.45	10.25	-42.3	-43.5	18.1	0.00e+00	0	43	0	600834048	54	4259
2026-01-01 06:51:19.19	328.32	10.26	-42.3	-43.5	18.0	0.00e+00	0	43	0	606076928	54	4269
2026-01-01 06:51:20.48	328.09	10.27	-42.4	-43.6	17.9	0.00e+00	0	43	0	615514112	54	4339
2026-01-01 06:51:21.20	327.96	10.27	-42.4	-43.6	18.0	0.00e+00	0	43	0	620756992	54	4317
2026-01-01 06:51:22.48	327.72	10.28	-42.4	-43.7	18.0	0.00e+00	0	43	0	630194176	54	4343
2026-01-01 06:51:23.20	327.59	10.28	-42.5	-43.7	17.9	0.00e+00	0	43	0	635437056	54	4372
2026-01-01 06:51:24.54	327.35	10.29	-42.6	-43.8	17.8	0.00e+00	0	43	0	644874240	54	4413
2026-01-01 06:51:25.26	327.22	10.29	-42.5	-43.7	18.0	0.00e+00	0	43	0	650117120	54	4355
2026-01-01 06:51:26.55	326.99	10.29	-42.4	-43.6	18.2	0.00e+00	0	43	0	659554304	54	4294
2026-01-01 06:51:27.26	326.86	10.30	-42.4	-43.5	18.2	0.00e+00	0	43	0	663748608	54	4271
2026-01-01 06:51:28.55	326.63	10.30	-42.4	-43.6	18.1	0.00e+00	0	43	0	673185792	54	4317
2026-01-01 06:51:29.27	326.50	10.30	-42.4	-43.6	18.1	0.00e+00	0	43	0	678428672	54	4318
2026-01-01 06:51:30.56	326.26	10.31	-42.4	-43.6	18.1	0.00e+00	0	43	0	687865856	54	4334
2026-01-01 06:51:31.28	326.13	10.31	-42.4	-43.7	18.1	0.00e+00	0	43	0	693108736	54	4363
2026-01-01 06:51:32.84	325.85	10.31	-42.5	-43.7	18.0	0.00e+00	0	42	0	704643072	54	4387
2026-01-01 06:51:33.43	325.75	10.31	-42.4	-43.7	18.0	0.00e+00	0	43	0	708837376	54	4375
2026-01-01 06:51:35.00	325.46	10.32	-42.4	-43.7	18.0	0.00e+00	0	43	0	720371712	54	4372
2026-01-01 06:51:35.59	325.35	10.32	-42.4	-43.7	18.0	0.00e+00	0	43	0	724566016	54	4378
2026-01-01 06:51:37.17	325.07	10.32	-42.4	-43.7	18.0	0.00e+00	0	43	0	736100352	54	4388
2026-01-01 06:51:37.77	324.96	10.32	-42.3	-43.6	18.0	0.00e+00	0	43	0	740294656	54	4336
2026-01-01 06:51:39.35	324.67	10.32	-42.2	-43.6	18.1	0.00e+00	0	43	0	751828992	54	4314
2026-01-01 06:51:39.98	324.56	10.32	-42.2	-43.7	18.0	0.00e+00	0	43	0	756023296	54	4347
2026-01-01 06:51:41.41	324.30	10.32	-42.1	-43.5	18.1	0.00e+00	0	43	0	766509056	54	4274
2026-01-01 06:51:42.13	324.17	10.32	-42.1	-43.5	18.2	0.00e+00	0	43	0	771751936	54	4261
2026-01-01 06:51:43.69	323.89	10.32	-42.3	-43.7	18.1	0.00e+00	0	43	0	783286272	54	4347
2026-01-01 06:51:44.67	323.71	10.32	-42.3	-43.7	18.0	0.00e+00	0	43	0	789577728	54	4359
2026-01-01 06:51:45.67	323.53	10.32	-42.3	-43.7	17.9	1.10e-06	0	43	0	796917760	54	4389
2026-01-01 06:51:46.67	323.35	10.31	-42.3	-43.7	18.0	0.00e+00	0	43	0	804257792	54	4373
2026-01-01 06:51:47.68	323.17	10.31	-42.3	-43.7	18.1	0.00e+00	0	43	0	811597824	54	4345
2026-01-01 06:51:48.68	322.99	10.31	-42.3	-43.7	18.0	0.00e+00	0	43	0	818937856	54	4365
2026-01-01 06:51:49.68	322.80	10.31	-42.3	-43.7	18.0	0.00e+00	0	42	0	826277888	54	4348
2026-01-01 06:51:50.69	322.62	10.31	-42.4	-43.7	18.0	0.00e+00	0	43	0	833617920	54	4377
2026-01-01 06:51:51.77	322.43	10.30	-42.4	-43.7	18.0	0.00e+00	0	43	0	840957952	54	4350
2026-01-01 06:51:52.66	322.27	10.30	-42.5	-43.7	18.0	0.00e+00	0	43	0	847249408	54	4364
2026-01-01 06:51:54.00	322.02	10.29	-42.5	-43.7	18.1	0.00e+00	0	43	0	857735168	54	4355
2026-01-01 06:51:54.71	321.89	10.29	-42.4	-43.6	18.1	0.00e+00	0	43	0	861929472	54	4321
2026-01-01 06:51:56.21	321.62	10.29	-42.5	-43.6	18.1	0.00e+00	0	43	0	873463808	54	4335
2026-01-01 06:51:56.93	321.49	10.28	-42.5	-43.6	18.1	0.00e+00	0	43	0	878706688	54	4335
2026-01-01 06:51:58.28	321.25	10.28	-42.5	-43.7	18.0	0.00e+00	0	43	0	888143872	54	4348
2026-01-01 06:51:59.00	321.12	10.27	-42.4	-43.6	18.1	0.00e+00	0	43	0	893386752	54	4306
2026-01-01 06:52:00.29	320.89	10.27	-42.5	-43.7	18.0	0.00e+00	0	43	0	902823936	54	4367
2026-01-01 06:52:01.00	320.76	10.26	-42.6	-43.8	17.9	0.00e+00	0	43	0	908066816	54	4408
2026-01-01 06:52:02.29	320.53	10.25	-42.6	-43.8	17.9	0.00e+00	0	43	0	917504000	54	4425
2026-01-01 06:52:03.01	320.40	10.25	-42.7	-43.9	17.8	0.00e+00	0	43	0	922746880	54	4492
2026-01-01 06:52:04.29	320.17	10.24	-42.8	-44.0	17.8	0.00e+00	0	43	0	931135488	55	4277
2026-01-01 06:52:05.01	320.04	10.24	-42.7	-44.0	17.7	0.00e+00	0	43	0	936378368	55	4261
2026-01-01 06:52:06.31	319.80	10.23	-42.8	-44.2	17.6	0.00e+00	0	43	0	945815552	55	4342
2026-01-01 06:52:07.12	319.66	10.22	-42.8	-44.1	17.6	0.00e+00	0	43	0	952107008	55	4334
2026-01-01 06:52:08.60	319.39	10.21	-42.8	-44.2	17.6	0.00e+00	0	43	0	962592768	55	4341
2026-01-01 06:52:09.31	319.26	10.21	-42.8	-44.2	17.6	0.00e+00	0	43	0	967835648	55	4345
2026-01-01 06:52:10.60	319.03	10.20	-42.7	-44.0	17.7	0.00e+00	0	43	0	977272832	55	4263
2026-01-01 06:52:11.32	318.90	10.19	-42.7	-44.0	17.7	0.00e+00	0	43	0	982515712	55	4250
2026-01-01 06:52:12.61	318.67	10.18	-42.7	-44.0	17.7	0.00e+00	0	43	0	991952896	55	4276
2026-01-01 06:52:13.33	318.54	10.17	-42.7	-44.0	17.7	0.00e+00	0	43	0	997195776	55	4246
2026-01-01 06:52:14.62	318.31	10.16	-42.8	-44.1	17.6	0.00e+00	0	43	0	1005584384	55	4331
2026-01-01 06:52:15.33	318.18	10.15	-42.8	-44.1	17.6	0.00e+00	0	43	0	1011875840	55	4335
2026-01-01 06:52:16.62	317.95	10.14	-42.8	-44.1	17.6	0.00e+00	0	43	0	1021313024	55	4323
2026-01-01 06:52:17.34	317.82	10.13	-42.9	-44.2	17.5	0.00e+00	0	43	0	1025507328	55	4353
2026-01-01 06:52:18.63	317.59	10.12	-42.9	-44.3	17.4	0.00e+00	0	43	0	1034944512	55	4398
2026-01-01 06:52:19.59	317.42	10.11	-42.9	-44.2	17.5	0.00e+00	0	43	0	1042284544	55	4363
2026-01-01 06:52:20.91	317.19	10.10	-42.9	-44.2	17.4	0.00e+00	0	43	0	1051721728	55	4377
2026-01-01 06:52:21.62	317.06	10.09	-43.0	-44.3	17.3	0.00e+00	0	43	0	1056964608	55	4414
2026-01-01 06:52:23.27	316.77	10.07	-43.1	-44.4	17.3	0.00e+00	0	42	0	1068498944	55	4452
2026-01-01 06:52:23.84	316.66	10.06	-43.0	-44.3	17.5	0.00e+00	0	43	0	1072693248	55	4395
2026-01-01 06:52:25.49	316.37	10.04	-43.1	-44.3	17.3	0.00e+00	0	43	0	1084227584	55	4428
2026-01-01 06:52:26.06	316.27	10.04	-43.0	-44.3	17.4	0.00e+00	0	42	0	1088421888	55	4393
2026-01-01 06:52:27.64	315.99	10.02	-42.7	-43.9	17.6	3.40e-06	0	43	0	1099956224	55	4237
2026-01-01 06:52:28.24	315.88	10.01	-42.5	-43.6	17.8	0.00e+00	0	42	0	1104150528	55	4095
2026-01-01 06:52:29.82	315.60	9.99	-42.4	-43.6	17.6	0.00e+00	0	43	0	1115684864	55	4067
2026-01-01 06:52:30.41	315.50	9.98	-42.3	-43.6	17.6	0.00e+00	0	43	0	1119879168	55	4055
2026-01-01 06:52:31.99	315.22	9.96	-42.3	-43.6	17.6	0.00e+00	0	43	0	1131413504	55	4081
2026-01-01 06:52:32.59	315.11	9.95	-42.3	-43.6	17.6	0.00e+00	0	42	0	1135607808	55	4079
2026-01-01 06:52:34.17	314.83	9.93	-42.3	-43.6	17.6	0.00e+00	0	43	0	1147142144	55	4089
2026-01-01 06:52:34.76	314.73	9.92	-42.3	-43.7	17.5	0.00e+00	0	42	0	1151336448	55	4108
2026-01-01 06:52:36.56	314.41	9.89	-42.3	-43.6	17.6	0.00e+00	0	43	0	1164967936	55	4067
2026-01-01 06:52:37.13	314.31	9.89	-42.3	-43.6	17.6	0.00e+00	0	43	0	1169162240	55	4080
2026-01-01 06:52:38.75	314.03	9.86	-42.4	-43.6	17.6	0.00e+00	0	42	0	1180696576	55	4085
2026-01-01 06:52:39.32	313.93	9.85	-42.3	-43.6	17.6	0.00e+00	0	42	0	1183842304	55	4056
2026-01-01 06:52:40.94	313.64	9.83	-42.4	-43.6	17.5	0.00e+00	0	43	0	1196425216	55	4096
2026-01-01 06:52:41.51	313.54	9.82	-42.3	-43.6	17.5	0.00e+00	0	43	0	1200619520	55	4082
2026-01-01 06:52:43.11	313.26	9.79	-42.4	-43.6	17.6	0.00e+00	0	43	0	1212153856	55	4068
2026-01-01 06:52:43.68	313.17	9.78	-42.4	-43.6	17.6	0.00e+00	0	42	0	1216348160	55	4095
2026-01-01 06:52:45.46	312.85	9.75	-42.2	-43.5	17.8	0.00e+00	0	42	0	1228931072	55	4005
2026-01-01 06:52:46.03	312.76	9.74	-42.3	-43.5	17.7	0.00e+00	0	43	0	1233125376	55	4045
2026-01-01 06:52:47.63	312.48	9.71	-42.5	-43.7	17.5	0.00e+00	0	43	0	1244659712	55	4125
2026-01-01 06:52:48.52	312.32	9.70	-42.5	-43.8	17.4	0.00e+00	0	43	0	1250951168	55	4150
2026-01-01 06:52:49.55	312.14	9.68	-42.6	-43.8	17.4	0.00e+00	0	43	0	1258291200	55	4163
2026-01-01 06:52:50.56	311.97	9.66	-42.6	-43.9	17.3	0.00e+00	0	43	0	1265631232	55	4199
2026-01-01 06:52:51.56	311.80	9.64	-42.8	-44.0	17.2	0.00e+00	0	42	0	1272971264	55	4282
2026-01-01 06:52:52.56	311.62	9.62	-42.8	-44.1	17.1	0.00e+00	0	43	0	1280311296	55	4301
2026-01-01 06:52:53.57	311.45	9.61	-42.8	-44.2	17.0	0.00e+00	0	43	0	1287651328	55	4344
2026-01-01 06:52:54.57	311.28	9.59	-42.8	-44.1	17.0	0.00e+00	0	43	0	1293942784	55	4327
2026-01-01 06:52:55.57	311.10	9.57	-42.7	-43.9	17.1	0.00e+00	0	42	0	1302331392	55	4220
2026-01-01 06:52:56.58	310.93	9.55	-42.8	-44.1	17.1	0.00e+00	0	43	0	1309671424	55	4314
2026-01-01 06:52:57.58	310.76	9.53	-42.8	-44.0	17.1	0.00e+00	0	42	0	1315962880	55	4283
2026-01-01 06:52:58.58	310.59	9.51	-42.8	-44.1	17.1	0.00e+00	0	43	0	1323302912	55	4304
2026-01-01 06:52:59.58	310.42	9.49	-42.9	-44.2	17.0	0.00e+00	0	42	0	1330642944	55	4360
2026-01-01 06:53:00.58	310.25	9.47	-42.9	-44.2	17.0	0.00e+00	0	42	0	1337982976	55	4344
2026-01-01 06:53:01.58	310.08	9.45	-42.8	-44.1	17.0	0.00e+00	0	42	0	1345323008	55	4321
2026-01-01 06:53:02.95	309.84	9.42	-42.9	-44.2	17.0	0.00e+00	0	43	0	1354760192	55	4374
2026-01-01 06:53:03.70	309.71	9.40	-42.9	-44.3	16.9	0.00e+00	0	42	0	1360003072	55	4403
2026-01-01 06:53:04.99	309.49	9.37	-43.0	-44.4	16.8	0.00e+00	0	43	0	1369440256	55	4444
2026-01-01 06:53:05.71	309.37	9.36	-42.9	-44.3	16.8	0.00e+00	0	42	0	1374683136	55	4427
2026-01-01 06:53:07.00	309.15	9.33	-42.9	-44.2	16.9	0.00e+00	0	42	0	1384120320	55	4388
2026-01-01 06:53:07.71	309.03	9.31	-42.9	-44.3	16.9	0.00e+00	0	43	0	1389363200	55	4392
2026-01-01 06:53:09.00	308.82	9.28	-43.1	-44.4	16.8	0.00e+00	0	43	0	1398800384	55	4472
2026-01-01 06:53:09.72	308.69	9.27	-42.9	-44.3	16.9	0.00e+00	0	42	0	1404043264	55	4401
2026-01-01 06:53:11.04	308.47	9.24	-43.0	-44.4	16.8	0.00e+00	0	43	0	1413480448	55	4449
2026-01-01 06:53:11.76	308.35	9.22	-43.0	-44.4	16.8	0.00e+00	0	43	0	1418723328	55	4446
2026-01-01 06:53:13.12	308.12	9.19	-43.0	-44.3	16.9	0.00e+00	0	42	0	1428160512	55	4421
2026-01-01 06:53:13.84	308.00	9.17	-43.0	-44.3	16.8	0.00e+00	0	43	0	1433403392	55	4428
2026-01-01 06:53:15.20	307.78	9.14	-43.0	-44.3	16.8	0.00e+00	0	43	0	1443889152	55	4428
2026-01-01 06:53:15.91	307.66	9.12	-42.9	-44.2	16.8	0.00e+00	0	43	0	1448083456	55	4391
2026-01-01 06:53:17.28	307.43	9.09	-43.1	-44.4	16.7	0.00e+00	0	43	0	1458569216	55	4470
2026-01-01 06:53:18.27	307.26	9.07	-43.2	-44.5	16.6	0.00e+00	0	42	0	1465909248	55	4512
2026-01-01 06:53:19.27	307.10	9.04	-43.2	-44.6	16.6	0.00e+00	0	42	0	1472200704	55	4560
2026-01-01 06:53:20.27	306.93	9.02	-43.5	-44.8	16.5	0.00e+00	0	43	0	1479540736	56	4409
2026-01-01 06:53:21.28	306.77	8.99	-51.6	-62.2	3.8	8.44e-01	0	42	104	1484783616	72	13027
2026-01-01 06:53:22.28	306.60	8.97	-51.9	-62.7	3.8	8.47e-01	0	42	104	1484783616	73	13015
2026-01-01 06:53:23.28	306.44	8.94	-51.9	-62.9	3.8	8.47e-01	0	43	104	1484783616	73	13383
2026-01-01 06:53:24.29	306.27	8.92	-52.1	-63.0	3.8	8.47e-01	0	42	104	1484783616	73	13469
2026-01-01 06:53:25.29	306.10	8.89	-52.2	-63.1	3.8	8.49e-01	0	43	104	1484783616	73	13625
2026-01-01 06:53:26.30	305.94	8.86	-52.1	-63.2	3.8	8.47e-01	0	43	104	1484783616	73	13759
2026-01-01 06:53:27.30	305.78	8.84	-52.4	-63.2	3.8	8.47e-01	0	43	104	1484783616	74	13062
2026-01-01 06:53:28.31	305.61	8.81	-52.2	-63.3	3.8	8.47e-01	0	42	104	1484783616	74	13150
2026-01-01 06:53:29.31	305.45	8.79	-52.2	-63.3	3.8	8.47e-01	0	43	104	1484783616	74	13129
2026-01-01 06:53:30.31	305.28	8.76	-52.4	-63.3	3.8	8.46e-01	0	43	104	1484783616	74	13202
2026-01-01 06:53:31.32	305.12	8.73	-52.5	-63.3	3.8	8.46e-01	0	43	104	1484783616	74	13215
2026-01-01 06:53:32.32	304.96	8.70	-52.4	-63.3	3.8	8.48e-01	0	43	104	1484783616	74	13200
2026-01-01 06:53:33.33	304.79	8.68	-52.4	-63.4	3.8	8.46e-01	0	43	104	1484783616	74	13298
2026-01-01 06:53:34.33	304.63	8.65	-52.4	-63.3	3.8	8.47e-01	0	43	104	1484783616	74	13211
2026-01-01 06:53:35.34	304.47	8.62	-52.4	-63.3	3.8	8.46e-01	0	43	104	1484783616	74	13206
2026-01-01 06:53:36.34	304.31	8.59	-52.4	-63.3	3.8	8.47e-01	0	43	104	1484783616	74	13220
2026-01-01 06:53:37.35	304.15	8.56	-52.4	-63.3	3.8	8.47e-01	0	43	104	1484783616	74	13121
2026-01-01 06:53:38.35	303.99	8.54	-52.4	-63.3	3.8	8.47e-01	0	42	104	1484783616	74	13187
2026-01-01 06:53:39.35	303.83	8.51	-52.4	-63.3	3.8	8.46e-01	0	43	104	1484783616	74	13217
2026-01-01 06:53:40.36	303.66	8.48	-52.3	-63.4	3.8	8.47e-01	0	43	104	1484783616	74	13272
2026-01-01 06:53:41.36	303.51	8.45	-52.3	-63.2	3.8	8.47e-01	0	43	104	1484783616	74	13105
2026-01-01 06:53:42.37	303.34	8.42	-52.2	-63.2	3.8	8.46e-01	0	43	104	1484783616	74	13108
2026-01-01 06:53:43.37	303.19	8.39	-52.2	-63.3	3.8	8.46e-01	0	43	104	1484783616	74	13169
2026-01-01 06:53:44.37	303.03	8.36	-52.2	-63.2	3.8	8.47e-01	0	43	104	1484783616	74	13054
2026-01-01 06:53:45.38	302.87	8.33	-52.3	-63.3	3.8	8.47e-01	0	43	104	1484783616	74	13116
2026-01-01 06:53:46.38	302.71	8.30	-52.3	-63.3	3.8	8.46e-01	0	42	104	1484783616	74	13117
2026-01-01 06:53:47.38	302.55	8.27	-52.3	-63.3	3.8	8.48e-01	0	43	104	1484783616	74	13111
2026-01-01 06:53:48.39	302.39	8.24	-52.3	-63.3	3.8	8.47e-01	0	43	104	1484783616	74	13173
2026-01-01 06:53:49.39	302.24	8.21	-52.2	-63.2	3.8	8.47e-01	0	43	104	1484783616	74	13019
2026-01-01 06:53:50.40	302.08	8.18	-52.3	-63.2	3.8	8.45e-01	0	42	104	1484783616	74	13086
2026-01-01 06:53:51.40	301.92	8.15	-52.2	-63.3	3.8	8.47e-01	0	43	104	1484783616	74	13162
2026-01-01 06:53:52.41	301.77	8.12	-52.2	-63.2	3.8	8.48e-01	0	43	104	1484783616	74	12996
2026-01-01 06:53:53.41	301.61	8.09	-52.3	-63.3	3.8	8.45e-01	0	43	104	1484783616	74	13171
2026-01-01 06:53:54.42	301.45	8.06	-52.3	-63.3	3.8	8.47e-01	0	43	104	1484783616	74	13113
2026-01-01 06:53:55.42	301.30	8.03	-52.2	-63.3	3.8	8.47e-01	0	43	104	1484783616	74	13120
2026-01-01 06:53:56.42	301.14	8.00	-52.2	-63.2	3.8	8.45e-01	0	43	104	1484783616	74	13109
2026-01-01 06:53:57.43	300.99	7.97	-52.2	-63.2	3.8	8.47e-01	0	42	104	1484783616	74	13109
2026-01-01 06:53:58.43	300.83	7.93	-52.2	-63.3	3.8	8.47e-01	0	43	104	1484783616	74	13172
2026-01-01 06:53:59.44	300.68	7.90	-52.3	-63.2	3.8	8.47e-01	0	43	104	1484783616	74	13081
2026-01-01 06:54:00.44	300.53	7.87	-52.3	-63.2	3.8	8.47e-01	0	43	104	1484783616	74	13047
2026-01-01 06:54:01.44	300.37	7.84	-52.3	-63.3	3.8	8.46e-01	0	43	104	1484783616	74	13130
2026-01-01 06:54:02.45	300.22	7.81	-52.3	-63.3	3.8	8.47e-01	0	43	104	1484783616	74	13142
2026-01-01 06:54:03.45	300.07	7.77	-52.3	-63.3	3.8	8.47e-01	0	43	104	1484783616	74	13189
2026-01-01 06:54:04.46	299.91	7.74	-52.2	-63.2	3.8	8.46e-01	0	43	104	1484783616	74	13007
2026-01-01 06:54:05.46	299.76	7.71	-52.3	-63.3	3.8	8.46e-01	0	43	104	1484783616	74	13196
2026-01-01 06:54:06.47	299.61	7.67	-52.3	-63.2	3.8	8.47e-01	0	43	104	1484783616	74	13020
2026-01-01 06:54:07.47	299.46	7.64	-52.3	-63.2	3.8	8.47e-01	0	43	104	1484783616	74	13082
2026-01-01 06:54:08.48	299.31	7.61	-52.3	-63.2	3.8	8.45e-01	0	43	104	1484783616	74	13086
2026-01-01 06:54:09.48	299.16	7.58	-52.3	-63.3	3.8	8.46e-01	0	43	104	1484783616	74	13120
2026-01-01 06:54:10.49	299.01	7.54	-52.3	-63.2	3.8	8.47e-01	0	43	104	1484783616	74	13098
2026-01-01 06:54:11.49	298.86	7.51	-52.3	-63.3	3.8	8.46e-01	0	43	104	1484783616	74	13121
2026-01-01 06:54:12.49	298.71	7.47	-52.3	-63.3	3.8	8.47e-01	0	43	104	1484783616	74	13250
2026-01-01 06:54:13.50	298.56	7.44	-52.3	-63.2	3.8	8.48e-01	0	43	104	1484783616	74	13099
2026-01-01 06:54:14.50	298.41	7.41	-52.3	-63.2	3.8	8.47e-01	0	43	104	1484783616	74	13061
2026-01-01 06:54:15.51	298.26	7.37	-52.3	-63.2	3.8	8.47e-01	0	43	104	1484783616	74	13048
2026-01-01 06:54:16.51	298.11	7.34	-52.3	-63.2	3.8	8.47e-01	0	43	104	1484783616	74	13107
2026-01-01 06:54:17.52	297.96	7.30	-52.3	-63.3	3.8	8.47e-01	0	43	104	1484783616	74	13138
2026-01-01 06:54:18.52	297.82	7.27	-52.3	-63.2	3.8	8.46e-01	0	43	104	1484783616	74	13101
2026-01-01 06:54:19.53	297.67	7.23	-52.3	-63.2	3.8	8.46e-01	0	43	104	1484783616	74	13091
2026-01-01 06:54:20.53	297.52	7.20	-52.3	-63.2	3.8	8.47e-01	0	42	104	1484783616	74	13026
2026-01-01 06:54:21.53	297.38	7.16	-52.3	-63.2	3.8	8.46e-01	0	43	104	1484783616	74	13010
2026-01-01 06:54:22.54	297.23	7.13	-52.3	-63.3	3.8	8.46e-01	0	43	104	1484783616	74	13202
2026-01-01 06:54:23.54	297.08	7.09	-52.3	-63.3	3.8	8.47e-01	0	42	104	1484783616	74	13112
2026-01-01 06:54:24.55	296.94	7.06	-52.3	-63.3	3.8	8.47e-01	0	43	104	1484783616	74	13205
2026-01-01 06:54:25.55	296.79	7.02	-52.3	-63.3	3.8	8.48e-01	0	42	104	1484783616	74	13245
2026-01-01 06:54:26.56	296.65	6.99	-52.4	-63.3	3.8	8.46e-01	0	42	104	1484783616	74	13259
2026-01-01 06:54:27.56	296.51	6.95	-52.3	-63.4	3.8	8.46e-01	0	43	104	1484783616	74	13315
2026-01-01 06:54:28.57	296.36	6.92	-52.4	-63.3	3.8	8.46e-01	0	43	104	1484783616	74	13209
2026-01-01 06:54:29.57	296.22	6.88	-52.4	-63.4	3.8	8.47e-01	0	42	104	1484783616	74	13381
2026-01-01 06:54:30.57	296.07	6.84	-52.4	-63.4	3.8	8.46e-01	0	43	104	1484783616	74	13349
2026-01-01 06:54:31.58	295.93	6.81	-52.4	-63.4	3.8	8.47e-01	0	43	104	1484783616	74	13278
2026-01-01 06:54:32.58	295.79	6.77	-52.4	-63.4	3.8	8.47e-01	0	43	104	1484783616	74	13374
2026-01-01 06:54:33.59	295.65	6.73	-52.4	-63.5	3.8	8.46e-01	0	42	104	1484783616	74	13418
2026-01-01 06:54:34.59	295.51	6.70	-52.5	-63.6	3.8	8.47e-01	0	43	104	1484783616	74	13603
2026-01-01 06:54:35.60	295.36	6.66	-52.5	-63.5	3.8	8.46e-01	0	43	104	1484783616	74	13564
2026-01-01 06:54:36.60	295.22	6.63	-52.5	-63.5	3.8	8.46e-01	0	43	104	1484783616	74	13536
2026-01-01 06:54:37.61	295.08	6.59	-52.4	-63.4	3.8	8.46e-01	0	42	104	1484783616	74	13360
2026-01-01 06:54:38.61	294.94	6.55	-52.5	-63.6	3.8	8.47e-01	0	43	104	1484783616	74	13601
2026-01-01 06:54:39.61	294.80	6.51	-52.5	-63.5	3.8	8.48e-01	0	42	104	1484783616	74	13432
2026-01-01 06:54:40.62	294.66	6.48	-52.5	-63.4	3.8	8.46e-01	0	43	104	1484783616	74	13406
2026-01-01 06:54:41.62	294.52	6.44	-52.4	-63.5	3.8	8.48e-01	0	43	104	1484783616	74	13449
2026-01-01 06:54:42.62	294.38	6.40	-52.4	-63.4	3.8	8.46e-01	0	43	104	1484783616	74	13334
2026-01-01 06:54:43.63	294.24	6.36	-52.4	-63.4	3.8	8.48e-01	0	43	104	1484783616	74	13328
2026-01-01 06:54:44.63	294.11	6.33	-52.4	-63.5	3.8	8.47e-01	0	43	104	1484783616	74	13454
2026-01-01 06:54:45.64	293.97	6.29	-52.4	-63.3	3.8	8.46e-01	0	43	104	1484783616	74	13235
2026-01-01 06:54:46.64	293.83	6.25	-52.4	-63.5	3.8	8.47e-01	0	43	104	1484783616	74	13423
2026-01-01 06:54:47.65	293.69	6.21	-52.5	-63.4	3.8	8.47e-01	0	42	104	1484783616	74	13408
2026-01-01 06:54:48.65	293.56	6.18	-52.5	-63.5	3.8	8.46e-01	0	42	104	1484783616	74	13478
2026-01-01 06:54:49.66	293.42	6.14	-52.5	-63.5	3.8	8.47e-01	0	42	104	1484783616	74	13500
2026-01-01 06:54:50.66	293.29	6.10	-52.5	-63.5	3.8	8.46e-01	0	43	104	1484783616	74	13471
2026-01-01 06:54:51.66	293.15	6.06	-52.6	-63.5	3.8	8.47e-01	0	42	104	1484783616	74	13520
2026-01-01 06:54:52.67	293.01	6.02	-52.6	-63.5	3.8	8.47e-01	0	43	104	1484783616	74	13539
2026-01-01 06:54:53.67	292.88	5.98	-52.6	-63.6	3.8	8.46e-01	0	43	104	1484783616	74	13631
2026-01-01 06:54:54.68	292.74	5.95	-52.6	-63.5	3.8	8.48e-01	0	42	104	1484783616	74	13508
2026-01-01 06:54:55.68	292.61	5.91	-52.5	-63.5	3.8	8.47e-01	0	42	104	1484783616	74	13537
2026-01-01 06:54:56.68	292.48	5.87	-52.5	-63.5	3.8	8.46e-01	0	43	104	1484783616	74	13462
2026-01-01 06:54:57.69	292.34	5.83	-52.5	-63.5	3.8	8.46e-01	0	43	104	1484783616	74	13428
2026-01-01 06:54:58.70	292.21	5.79	-52.5	-63.5	3.8	8.47e-01	0	43	104	1484783616	74	13475
2026-01-01 06:54:59.70	292.08	5.75	-52.4	-63.4	3.8	8.47e-01	0	42	104	1484783616	74	13388
2026-01-01 06:55:00.70	291.95	5.71	-52.4	-63.4	3.8	8.47e-01	0	43	104	1484783616	74	13317
2026-01-01 06:55:01.71	291.81	5.67	-52.5	-63.4	3.8	8.47e-01	0	43	104	1484783616	74	13409
2026-01-01 06:55:02.71	291.68	5.63	-52.5	-63.5	3.8	8.47e-01	0	43	104	1484783616	74	13494
2026-01-01 06:55:03.72	291.55	5.60	-52.5	-63.5	3.8	8.48e-01	0	43	104	1484783616	74	13448
2026-01-01 06:55:04.72	291.42	5.56	-52.5	-63.5	3.8	8.47e-01	0	43	104	1484783616	74	13498
2026-01-01 06:55:05.73	291.29	5.52	-52.5	-63.5	3.8	8.47e-01	0	43	104	1484783616	74	13453
2026-01-01 06:55:06.73	291.16	5.48	-52.5	-63.5	3.8	8.47e-01	0	43	104	1484783616	74	13457
2026-01-01 06:55:07.74	291.03	5.44	-52.5	-63.4	3.8	8.47e-01	0	42	104	1484783616	74	13365
2026-01-01 06:55:08.74	290.90	5.40	-52.5	-63.5	3.8	8.46e-01	0	42	104	1484783616	74	13421
2026-01-01 06:55:09.74	290.77	5.36	-52.5	-63.4	3.8	8.45e-01	0	43	104	1484783616	74	13316
2026-01-01 06:55:10.75	290.64	5.32	-52.4	-63.5	3.8	8.47e-01	0	43	104	1484783616	74	13424
2026-01-01 06:55:11.75	290.51	5.28	-52.4	-63.4	3.8	8.48e-01	0	42	104	1484783616	74	13376
2026-01-01 06:55:12.76	290.38	5.24	-52.4	-63.4	3.8	8.47e-01	0	42	104	1484783616	74	13274
2026-01-01 06:55:13.76	290.26	5.20	-52.4	-63.4	3.8	8.47e-01	0	43	104	1484783616	74	13390
2026-01-01 06:55:14.76	290.13	5.16	-52.4	-63.5	3.8	8.47e-01	0	42	104	1484783616	74	13422
2026-01-01 06:55:15.77	290.00	5.12	-52.4	-63.4	3.8	8.46e-01	0	42	104	1484783616	74	13301
2026-01-01 06:55:16.77	289.88	5.08	-52.4	-63.4	3.8	8.46e-01	0	42	104	1484783616	74	13288
2026-01-01 06:55:17.78	289.75	5.04	-52.4	-63.4	3.8	8.46e-01	0	42	104	1484783616	74	13299
2026-01-01 06:55:18.78	289.62	5.00	-52.4	-63.4	3.8	8.46e-01	0	43	104	1484783616	74	13327

#Closed at: 2026-01-01 06:55:20
#Recorded file [1484 MB]: D:/Data/31040_260101_094802.dat