passes_logs/2026/01/01/T1/T1__20260101_070822_FENGYUN_3G_rec.log

#Pass ID: 20260101_070822_FENGYUN 3G
#Satellite: FENGYUN 3G
#Configuration: FENGYUN 3G
#almurnet v.1.7.20251203
#Start time: 2026-01-01 07:08:23

#Version: 2.0.20230620
#Station: T1
#Location: 37.570604 lon 55.790049 lat
#TLE: 1 56232U 23055A   25365.50856095  .00043589  00000+0  69982-3 0  9997
#TLE: 2 56232  49.9923 130.6499 0004081 319.7782  40.2882 15.52545779153944

#Time	Az	El	Level	Level2	SNR	BER	BlckErr	Temp	State	Recorded	gain1	gain2
2026-01-01 07:08:23.72	258.70	5.14	-51.1	-70.1	3.8	8.48e-01	0	38	0	0	73	32682
2026-01-01 07:08:24.72	258.57	5.21	-51.1	-70.1	3.8	8.38e-01	0	38	104	0	74	30831
2026-01-01 07:08:25.72	258.43	5.28	-51.1	-70.1	3.8	8.46e-01	0	38	104	0	74	30755
2026-01-01 07:08:26.73	258.30	5.34	-51.1	-70.1	3.8	8.48e-01	0	38	104	0	74	30889
2026-01-01 07:08:27.73	258.17	5.41	-51.1	-70.1	3.8	8.48e-01	0	38	104	0	74	30806
2026-01-01 07:08:28.73	258.03	5.48	-51.0	-70.0	3.8	8.46e-01	0	38	104	0	74	30599
2026-01-01 07:08:29.73	257.90	5.55	-51.1	-70.0	3.8	8.47e-01	0	38	104	0	74	30691
2026-01-01 07:08:30.73	257.76	5.61	-51.1	-70.0	3.8	8.47e-01	0	38	104	0	74	30725
2026-01-01 07:08:31.74	257.62	5.68	-51.1	-70.1	3.8	8.47e-01	0	38	104	0	74	30895
2026-01-01 07:08:32.74	257.48	5.75	-51.1	-70.0	3.8	8.46e-01	0	38	104	0	74	30715
2026-01-01 07:08:33.74	257.35	5.82	-51.1	-70.1	3.8	8.46e-01	0	38	104	0	74	30788
2026-01-01 07:08:34.74	257.21	5.89	-51.1	-70.0	3.8	8.46e-01	0	38	104	0	74	30534
2026-01-01 07:08:35.74	257.06	5.95	-51.1	-70.0	3.8	8.47e-01	0	38	104	0	74	30634
2026-01-01 07:08:36.74	256.92	6.02	-51.1	-70.0	3.8	8.47e-01	0	38	104	0	74	30614
2026-01-01 07:08:37.75	256.78	6.09	-51.1	-70.0	3.8	8.47e-01	0	38	104	0	74	30581
2026-01-01 07:08:38.75	256.64	6.16	-51.1	-70.1	3.8	8.47e-01	0	38	104	0	74	30757
2026-01-01 07:08:39.75	256.49	6.23	-51.0	-70.0	3.8	8.47e-01	0	38	104	0	74	30480
2026-01-01 07:08:40.75	256.35	6.30	-51.0	-69.9	3.8	8.47e-01	0	38	104	0	73	32094
2026-01-01 07:08:41.75	256.20	6.37	-51.1	-70.0	3.8	8.47e-01	0	38	104	0	73	32280
2026-01-01 07:08:42.75	256.05	6.44	-51.1	-69.9	3.8	8.48e-01	0	38	104	0	73	32132
2026-01-01 07:08:43.75	255.90	6.51	-51.1	-69.9	3.8	8.48e-01	0	38	104	0	73	32122
2026-01-01 07:08:44.75	255.75	6.58	-51.1	-69.9	3.8	8.47e-01	0	38	104	0	73	32104
2026-01-01 07:08:45.75	255.60	6.65	-51.1	-70.0	3.8	8.46e-01	0	38	104	0	73	32342
2026-01-01 07:08:46.75	255.45	6.72	-51.1	-70.0	3.8	8.46e-01	0	39	104	0	73	32484
2026-01-01 07:08:47.75	255.30	6.79	-51.1	-70.1	3.8	8.47e-01	0	38	104	0	73	32626
2026-01-01 07:08:48.75	255.15	6.86	-51.1	-70.1	3.8	8.48e-01	0	38	104	0	73	32587
2026-01-01 07:08:49.75	254.99	6.93	-51.1	-70.1	3.8	8.48e-01	0	39	104	0	73	32681
2026-01-01 07:08:50.76	254.83	7.00	-51.1	-70.0	3.8	8.47e-01	0	38	104	0	73	32327
2026-01-01 07:08:51.76	254.68	7.07	-51.1	-69.9	3.8	8.48e-01	0	39	104	0	73	32028
2026-01-01 07:08:52.76	254.52	7.14	-51.1	-69.8	3.8	8.48e-01	0	39	104	0	73	31604
2026-01-01 07:08:53.76	254.36	7.21	-51.1	-69.7	3.8	8.47e-01	0	39	104	0	73	31265
2026-01-01 07:08:54.76	254.20	7.28	-51.1	-69.6	3.8	8.46e-01	0	39	104	0	73	31085
2026-01-01 07:08:55.76	254.04	7.36	-51.1	-69.8	3.8	8.47e-01	0	39	104	0	73	31588
2026-01-01 07:08:56.77	253.88	7.43	-51.1	-69.9	3.8	8.47e-01	0	39	104	0	73	31929
2026-01-01 07:08:57.77	253.71	7.50	-51.1	-70.0	3.8	8.47e-01	0	39	104	0	73	32240
2026-01-01 07:08:58.77	253.55	7.57	-51.1	-70.0	3.8	8.47e-01	0	39	104	0	73	32424
2026-01-01 07:08:59.77	253.38	7.64	-51.1	-70.0	3.8	8.47e-01	0	39	104	0	73	32305
2026-01-01 07:09:00.77	253.22	7.71	-51.1	-69.8	3.8	8.48e-01	0	39	104	0	73	31788
2026-01-01 07:09:01.77	253.05	7.79	-51.1	-69.7	3.8	8.46e-01	0	39	104	0	73	31374
2026-01-01 07:09:02.77	252.88	7.86	-51.1	-69.6	3.8	8.46e-01	0	39	104	0	73	31032
2026-01-01 07:09:03.77	252.71	7.93	-51.1	-69.8	3.8	8.47e-01	0	39	104	0	73	31522
2026-01-01 07:09:04.78	252.54	8.00	-51.1	-70.1	3.8	8.47e-01	0	39	104	0	73	32667
2026-01-01 07:09:05.78	252.36	8.08	-51.1	-70.0	3.8	8.47e-01	0	39	104	0	73	32235
2026-01-01 07:09:06.78	252.19	8.15	-51.1	-69.5	3.8	8.47e-01	0	39	104	0	73	30661
2026-01-01 07:09:07.78	252.01	8.22	-51.1	-69.1	3.8	8.48e-01	0	39	104	0	73	29118
2026-01-01 07:09:08.78	251.84	8.30	-51.1	-69.2	3.8	8.48e-01	0	39	104	0	73	29530
2026-01-01 07:09:09.78	251.66	8.37	-51.1	-69.5	3.8	8.47e-01	0	39	104	0	73	30570
2026-01-01 07:09:10.78	251.48	8.44	-51.1	-69.3	3.8	8.47e-01	0	39	104	0	73	29756
2026-01-01 07:09:11.79	251.30	8.52	-51.1	-68.3	3.8	8.46e-01	0	39	104	0	73	26732
2026-01-01 07:09:12.78	251.12	8.59	-51.1	-67.9	3.9	8.46e-01	0	39	104	0	73	25509
2026-01-01 07:09:13.79	250.94	8.66	-51.1	-69.1	3.8	8.46e-01	0	39	104	0	73	29175
2026-01-01 07:09:14.79	250.75	8.74	-51.1	-68.3	3.8	8.47e-01	0	39	104	0	73	26494
2026-01-01 07:09:15.79	250.57	8.81	-50.7	-61.9	6.7	8.47e-01	0	39	0	0	73	12804
2026-01-01 07:09:16.80	250.38	8.89	-49.9	-57.2	11.6	5.69e-01	0	39	0	0	71	8302
2026-01-01 07:09:17.80	250.19	8.96	-48.6	-53.7	15.2	5.33e-03	0	39	0	0	69	6246
2026-01-01 07:09:18.80	250.01	9.03	-47.2	-51.2	17.7	5.33e-03	0	39	0	0	66	5532
2026-01-01 07:09:19.80	249.82	9.11	-46.5	-50.0	18.8	0.00e+00	0	39	0	0	65	5158
2026-01-01 07:09:20.80	249.62	9.18	-48.4	-53.9	15.3	0.00e+00	0	39	0	0	67	7141
2026-01-01 07:09:21.80	249.43	9.26	-45.8	-49.0	19.9	0.00e+00	0	39	0	0	63	5114
2026-01-01 07:09:22.80	249.24	9.33	-44.2	-46.8	22.2	0.00e+00	0	39	0	0	60	4756
2026-01-01 07:09:23.80	249.04	9.40	-47.4	-51.9	17.5	0.00e+00	0	39	0	0	65	6366
2026-01-01 07:09:24.80	248.84	9.48	-44.0	-46.7	22.2	0.00e+00	0	39	0	0	59	4942
2026-01-01 07:09:25.80	248.65	9.55	-43.7	-46.3	22.8	0.00e+00	0	39	0	0	59	4716
2026-01-01 07:09:26.80	248.45	9.63	-43.7	-46.2	22.8	0.00e+00	0	39	0	0	59	4683
2026-01-01 07:09:27.80	248.25	9.70	-43.9	-46.5	22.6	0.00e+00	0	39	0	0	59	4840
2026-01-01 07:09:28.80	248.04	9.78	-44.1	-46.8	22.3	0.00e+00	0	39	0	0	59	5015
2026-01-01 07:09:29.80	247.84	9.85	-44.1	-46.8	22.3	0.00e+00	0	39	0	0	59	4994
2026-01-01 07:09:30.80	247.64	9.93	-44.0	-46.7	22.4	0.00e+00	0	39	0	0	59	4929
2026-01-01 07:09:31.81	247.43	10.00	-43.8	-46.4	22.6	0.00e+00	0	39	0	0	59	4814
2026-01-01 07:09:32.81	247.22	10.08	-43.7	-46.3	22.9	0.00e+00	0	39	0	0	59	4711
2026-01-01 07:09:33.81	247.01	10.15	-43.5	-46.0	23.0	0.00e+00	0	39	0	0	59	4596
2026-01-01 07:09:34.81	246.80	10.23	-43.3	-45.8	23.2	0.00e+00	0	39	0	0	58	4737
2026-01-01 07:09:35.81	246.59	10.31	-43.4	-45.9	23.2	0.00e+00	0	39	0	0	58	4773
2026-01-01 07:09:36.81	246.37	10.38	-43.6	-46.0	23.1	0.00e+00	0	39	0	0	58	4856
2026-01-01 07:09:37.81	246.16	10.46	-43.5	-45.9	23.2	0.00e+00	0	39	0	0	58	4804
2026-01-01 07:09:38.80	245.94	10.53	-43.5	-45.9	23.2	0.00e+00	0	39	0	0	58	4789
2026-01-01 07:09:39.80	245.72	10.61	-43.6	-46.1	23.0	0.00e+00	0	39	0	0	58	4898
2026-01-01 07:09:40.81	245.50	10.68	-43.7	-46.1	23.0	0.00e+00	0	39	0	0	58	4921
2026-01-01 07:09:41.81	245.28	10.76	-43.7	-46.2	23.0	0.00e+00	0	39	0	0	58	4947
2026-01-01 07:09:42.81	245.06	10.83	-43.7	-46.1	23.0	0.00e+00	0	39	0	0	58	4905
2026-01-01 07:09:43.81	244.83	10.91	-43.7	-46.1	23.0	0.00e+00	0	39	0	0	58	4915
2026-01-01 07:09:44.82	244.61	10.99	-43.7	-46.1	23.0	0.00e+00	0	40	0	0	58	4923
2026-01-01 07:09:45.82	244.38	11.06	-43.4	-45.8	23.3	0.00e+00	0	39	0	0	58	4739
2026-01-01 07:09:46.82	244.15	11.14	-43.2	-45.6	23.5	0.00e+00	0	39	0	0	58	4615
2026-01-01 07:09:47.82	243.92	11.21	-43.2	-45.6	23.6	0.00e+00	0	40	0	0	58	4614
2026-01-01 07:09:48.82	243.69	11.29	-43.3	-45.8	23.4	0.00e+00	0	39	0	0	58	4712
2026-01-01 07:09:49.82	243.45	11.36	-43.3	-45.7	23.4	0.00e+00	0	40	0	0	58	4702
2026-01-01 07:09:50.82	243.22	11.44	-43.3	-45.7	23.6	0.00e+00	0	40	0	0	58	4655
2026-01-01 07:09:51.82	242.98	11.51	-43.3	-45.7	23.5	0.00e+00	0	39	0	0	58	4683
2026-01-01 07:09:52.83	242.74	11.59	-43.3	-45.7	23.5	0.00e+00	0	39	0	0	58	4681
2026-01-01 07:09:53.83	242.50	11.66	-43.2	-45.6	23.6	0.00e+00	0	40	0	0	58	4637
2026-01-01 07:09:54.83	242.26	11.74	-43.0	-45.4	23.8	0.00e+00	0	39	0	0	58	4512
2026-01-01 07:09:55.83	242.01	11.82	-43.0	-45.4	23.9	0.00e+00	0	39	0	0	58	4495
2026-01-01 07:09:56.83	241.77	11.89	-43.2	-45.6	23.7	0.00e+00	0	40	0	0	58	4600
2026-01-01 07:09:57.84	241.52	11.97	-43.3	-45.7	23.5	0.00e+00	0	40	0	0	58	4694
2026-01-01 07:09:58.84	241.27	12.04	-43.6	-46.0	23.3	0.00e+00	0	39	0	0	58	4834
2026-01-01 07:09:59.84	241.02	12.12	-43.6	-46.1	23.1	0.00e+00	0	39	0	0	58	4894
2026-01-01 07:10:00.84	240.77	12.19	-43.7	-46.2	23.1	0.00e+00	0	40	0	0	58	4927
2026-01-01 07:10:01.84	240.51	12.27	-43.8	-46.3	23.1	0.00e+00	0	39	0	0	58	4987
2026-01-01 07:10:02.84	240.26	12.34	-43.7	-46.1	23.2	0.00e+00	0	39	0	0	58	4907
2026-01-01 07:10:03.84	240.00	12.41	-43.6	-46.0	23.2	0.00e+00	0	39	0	0	58	4857
2026-01-01 07:10:04.84	239.74	12.49	-43.4	-45.8	23.4	0.00e+00	0	39	0	0	58	4719
2026-01-01 07:10:05.84	239.48	12.56	-43.3	-45.7	23.5	0.00e+00	0	40	0	0	58	4658
2026-01-01 07:10:06.85	239.22	12.64	-43.2	-45.5	23.7	0.00e+00	0	40	0	0	58	4558
2026-01-01 07:10:07.85	238.95	12.71	-43.1	-45.4	23.7	0.00e+00	0	40	0	0	58	4542
2026-01-01 07:10:08.85	238.69	12.79	-42.9	-45.2	23.9	0.00e+00	0	39	0	0	57	4660
2026-01-01 07:10:09.85	238.42	12.86	-43.2	-45.5	23.7	0.00e+00	0	40	0	0	57	4822
2026-01-01 07:10:10.85	238.15	12.93	-43.0	-45.3	23.8	0.00e+00	0	39	0	0	57	4748
2026-01-01 07:10:11.85	237.88	13.01	-42.9	-45.2	24.0	0.00e+00	0	39	0	0	57	4671
2026-01-01 07:10:12.84	237.61	13.08	-43.2	-45.5	23.7	0.00e+00	0	40	0	0	57	4837
2026-01-01 07:10:13.84	237.34	13.15	-43.1	-45.4	23.7	0.00e+00	0	40	0	0	57	4804
2026-01-01 07:10:14.85	237.06	13.23	-43.2	-45.5	23.6	0.00e+00	0	40	0	0	57	4865
2026-01-01 07:10:15.85	236.78	13.30	-43.0	-45.4	23.7	0.00e+00	0	39	0	0	57	4778
2026-01-01 07:10:16.85	236.50	13.37	-42.7	-45.0	24.1	0.00e+00	0	40	0	0	57	4591
2026-01-01 07:10:17.84	236.22	13.44	-42.8	-45.1	24.1	0.00e+00	0	39	0	0	57	4603
2026-01-01 07:10:18.84	235.94	13.51	-42.5	-44.8	24.3	0.00e+00	0	40	0	0	57	4444
2026-01-01 07:10:19.84	235.65	13.58	-42.3	-44.5	24.5	0.00e+00	0	40	0	0	56	4593
2026-01-01 07:10:20.85	235.36	13.66	-42.4	-44.6	24.5	0.00e+00	0	40	0	0	56	4647
2026-01-01 07:10:21.85	235.07	13.73	-42.4	-44.6	24.5	0.00e+00	0	39	0	0	56	4626
2026-01-01 07:10:22.85	234.78	13.80	-42.7	-44.9	24.3	0.00e+00	0	40	0	0	56	4798
2026-01-01 07:10:23.85	234.49	13.87	-43.0	-45.3	23.9	0.00e+00	0	40	0	0	56	5016
2026-01-01 07:10:24.85	234.20	13.94	-42.8	-45.1	24.2	0.00e+00	0	40	0	0	56	4877
2026-01-01 07:10:25.86	233.90	14.01	-42.8	-45.1	24.2	0.00e+00	0	39	0	0	56	4891
2026-01-01 07:10:26.86	233.60	14.08	-42.8	-45.1	24.2	0.00e+00	0	40	0	0	56	4895
2026-01-01 07:10:27.86	233.30	14.15	-42.8	-45.1	24.2	0.00e+00	0	40	0	0	56	4877
2026-01-01 07:10:28.86	233.00	14.22	-42.6	-44.8	24.4	0.00e+00	0	40	0	0	56	4738
2026-01-01 07:10:29.86	232.70	14.29	-42.3	-44.4	24.8	0.00e+00	0	40	0	0	56	4532
2026-01-01 07:10:30.86	232.39	14.35	-42.3	-44.5	24.8	0.00e+00	0	40	0	0	56	4573
2026-01-01 07:10:31.86	232.09	14.42	-42.2	-44.4	24.8	0.00e+00	0	40	0	0	56	4497
2026-01-01 07:10:32.86	231.78	14.49	-42.2	-44.4	24.9	0.00e+00	0	40	0	0	56	4525
2026-01-01 07:10:33.86	231.47	14.55	-42.4	-44.6	24.7	0.00e+00	0	40	0	0	56	4635
2026-01-01 07:10:34.86	231.15	14.62	-42.3	-44.5	24.7	0.00e+00	0	39	0	0	56	4561
2026-01-01 07:10:35.86	230.84	14.69	-42.1	-44.3	24.9	0.00e+00	0	40	0	0	56	4457
2026-01-01 07:10:36.86	230.53	14.75	-42.1	-44.2	25.0	0.00e+00	0	40	0	0	56	4440
2026-01-01 07:10:37.87	230.21	14.82	-41.6	-43.7	25.3	0.00e+00	0	40	0	0	55	4398
2026-01-01 07:10:38.86	229.89	14.88	-41.7	-43.8	25.3	0.00e+00	0	40	0	0	55	4449
2026-01-01 07:10:39.86	229.57	14.95	-41.9	-44.1	25.0	0.00e+00	0	39	0	0	55	4615
2026-01-01 07:10:40.87	229.24	15.01	-42.2	-44.4	24.7	0.00e+00	0	40	0	0	55	4771
2026-01-01 07:10:41.87	228.92	15.07	-42.2	-44.4	24.7	0.00e+00	0	40	0	0	55	4810
2026-01-01 07:10:42.87	228.59	15.14	-42.3	-44.4	24.7	0.00e+00	0	40	0	0	55	4808
2026-01-01 07:10:43.87	228.26	15.20	-42.3	-44.5	24.7	0.00e+00	0	39	0	0	55	4819
2026-01-01 07:10:44.87	227.93	15.26	-42.4	-44.7	24.5	0.00e+00	0	40	0	0	55	4932
2026-01-01 07:10:45.87	227.60	15.32	-42.4	-44.6	24.6	0.00e+00	0	40	0	0	55	4910
2026-01-01 07:10:46.87	227.27	15.38	-42.3	-44.5	24.6	0.00e+00	0	40	0	0	55	4835
2026-01-01 07:10:47.87	226.94	15.44	-42.2	-44.4	24.7	0.00e+00	0	40	0	0	55	4773
2026-01-01 07:10:48.87	226.60	15.50	-42.3	-44.5	24.6	0.00e+00	0	40	0	0	55	4833
2026-01-01 07:10:49.87	226.26	15.56	-42.3	-44.5	24.6	0.00e+00	0	40	0	0	55	4855
2026-01-01 07:10:50.87	225.92	15.62	-42.2	-44.4	24.8	0.00e+00	0	40	0	0	55	4768
2026-01-01 07:10:51.87	225.58	15.67	-42.4	-44.6	24.5	0.00e+00	0	40	0	0	55	4913
2026-01-01 07:10:52.87	225.24	15.73	-42.3	-44.5	24.6	0.00e+00	0	40	0	0	55	4861
2026-01-01 07:10:53.88	224.89	15.79	-42.3	-44.5	24.6	0.00e+00	0	40	0	0	55	4832
2026-01-01 07:10:54.88	224.54	15.84	-42.3	-44.5	24.7	0.00e+00	0	40	0	0	55	4856
2026-01-01 07:10:55.88	224.20	15.90	-42.3	-44.5	24.6	0.00e+00	0	40	0	0	55	4836
2026-01-01 07:10:56.89	223.84	15.95	-42.1	-44.3	24.8	0.00e+00	0	40	0	0	55	4714
2026-01-01 07:10:57.89	223.49	16.00	-42.1	-44.3	24.7	0.00e+00	0	40	0	0	55	4740
2026-01-01 07:10:58.89	223.14	16.06	-41.9	-44.1	24.9	0.00e+00	0	40	0	0	55	4617
2026-01-01 07:10:59.89	222.78	16.11	-42.0	-44.2	24.9	0.00e+00	0	40	0	0	55	4658
2026-01-01 07:11:00.89	222.43	16.16	-42.0	-44.1	24.9	0.00e+00	0	40	0	0	55	4649
2026-01-01 07:11:01.89	222.07	16.21	-42.0	-44.2	24.9	0.00e+00	0	40	0	0	55	4674
2026-01-01 07:11:02.90	221.71	16.26	-41.9	-44.0	25.0	0.00e+00	0	40	0	0	55	4579
2026-01-01 07:11:03.90	221.35	16.31	-41.8	-44.0	25.1	0.00e+00	0	40	0	0	55	4559
2026-01-01 07:11:04.90	220.99	16.36	-41.5	-43.7	25.4	0.00e+00	0	40	0	0	55	4393
2026-01-01 07:11:05.90	220.62	16.40	-41.5	-43.6	25.4	0.00e+00	0	40	0	0	55	4358
2026-01-01 07:11:06.90	220.26	16.45	-41.5	-43.7	25.3	0.00e+00	0	40	0	0	54	4655
2026-01-01 07:11:07.90	219.89	16.49	-41.4	-43.5	25.5	0.00e+00	0	40	0	0	54	4577
2026-01-01 07:11:08.90	219.53	16.54	-41.5	-43.6	25.4	0.00e+00	0	40	0	0	54	4620
2026-01-01 07:11:09.90	219.16	16.58	-41.6	-43.7	25.3	0.00e+00	0	40	0	0	54	4676
2026-01-01 07:11:10.90	218.79	16.62	-41.6	-43.8	25.3	0.00e+00	0	40	0	0	54	4708
2026-01-01 07:11:11.90	218.42	16.67	-41.6	-43.7	25.3	0.00e+00	0	40	0	0	54	4695
2026-01-01 07:11:12.90	218.04	16.71	-41.6	-43.7	25.2	0.00e+00	0	40	0	0	54	4695
2026-01-01 07:11:13.90	217.67	16.75	-41.4	-43.5	25.5	0.00e+00	0	40	0	0	54	4573
2026-01-01 07:11:14.90	217.30	16.78	-41.4	-43.5	25.5	0.00e+00	0	40	0	0	54	4554
2026-01-01 07:11:15.90	216.92	16.82	-41.3	-43.4	25.4	0.00e+00	0	40	0	0	54	4496
2026-01-01 07:11:16.90	216.54	16.86	-41.3	-43.4	25.6	0.00e+00	0	40	0	0	54	4518
2026-01-01 07:11:17.90	216.16	16.90	-41.4	-43.5	25.5	0.00e+00	0	40	0	0	54	4563
2026-01-01 07:11:18.91	215.78	16.93	-41.4	-43.5	25.5	0.00e+00	0	40	0	0	54	4573
2026-01-01 07:11:19.91	215.40	16.96	-41.4	-43.5	25.5	0.00e+00	0	40	0	0	54	4576
2026-01-01 07:11:20.91	215.02	17.00	-41.5	-43.6	25.5	0.00e+00	0	40	0	0	54	4626
2026-01-01 07:11:21.90	214.64	17.03	-41.4	-43.5	25.6	0.00e+00	0	40	0	0	54	4558
2026-01-01 07:11:22.91	214.25	17.06	-41.3	-43.3	25.8	0.00e+00	0	40	0	0	54	4475
2026-01-01 07:11:23.91	213.87	17.09	-41.3	-43.4	25.7	0.00e+00	0	40	0	0	54	4494
2026-01-01 07:11:24.91	213.48	17.12	-41.2	-43.3	25.7	0.00e+00	0	40	0	0	54	4468
2026-01-01 07:11:25.91	213.09	17.15	-41.2	-43.2	25.9	0.00e+00	0	40	0	0	54	4424
2026-01-01 07:11:26.91	212.71	17.17	-41.0	-43.0	26.0	0.00e+00	0	40	0	0	54	4315
2026-01-01 07:11:27.91	212.32	17.20	-41.1	-43.2	25.9	0.00e+00	0	40	0	0	53	4656
2026-01-01 07:11:28.91	211.93	17.22	-41.2	-43.3	25.8	0.00e+00	0	40	0	0	53	4711
2026-01-01 07:11:29.90	211.54	17.25	-41.3	-43.3	25.8	0.00e+00	0	40	0	0	53	4749
2026-01-01 07:11:30.90	211.15	17.27	-41.1	-43.1	25.9	0.00e+00	0	40	0	0	53	4647
2026-01-01 07:11:31.91	210.76	17.29	-41.2	-43.3	25.8	0.00e+00	0	40	0	0	53	4720
2026-01-01 07:11:32.91	210.37	17.31	-41.5	-43.6	25.6	0.00e+00	0	40	0	0	53	4873
2026-01-01 07:11:33.91	209.97	17.33	-41.5	-43.6	25.6	0.00e+00	0	40	0	0	53	4878
2026-01-01 07:11:34.91	209.58	17.35	-41.5	-43.6	25.5	0.00e+00	0	40	0	0	53	4915
2026-01-01 07:11:35.91	209.19	17.36	-41.6	-43.7	25.4	0.00e+00	0	40	0	0	53	4967
2026-01-01 07:11:36.92	208.79	17.38	-41.7	-43.8	25.3	0.00e+00	0	40	0	0	54	4753
2026-01-01 07:11:37.92	208.39	17.40	-41.5	-43.6	25.5	0.00e+00	0	40	0	0	54	4633
2026-01-01 07:11:38.92	208.00	17.41	-41.3	-43.4	25.7	0.00e+00	0	40	0	0	54	4541
2026-01-01 07:11:39.92	207.60	17.42	-41.4	-43.5	25.7	0.00e+00	0	40	0	0	54	4550
2026-01-01 07:11:40.92	207.21	17.43	-41.6	-43.7	25.4	0.00e+00	0	40	0	0	54	4689
2026-01-01 07:11:41.92	206.81	17.44	-41.7	-43.8	25.5	0.00e+00	0	40	0	0	54	4715
2026-01-01 07:11:42.92	206.41	17.45	-41.6	-43.7	25.4	0.00e+00	0	40	0	0	54	4697
2026-01-01 07:11:43.92	206.02	17.46	-41.6	-43.7	25.4	0.00e+00	0	40	0	0	54	4700
2026-01-01 07:11:44.92	205.62	17.46	-41.5	-43.6	25.5	0.00e+00	0	40	0	0	54	4617
2026-01-01 07:11:45.92	205.22	17.47	-41.3	-43.4	25.7	0.00e+00	0	40	0	0	54	4501
2026-01-01 07:11:46.92	204.82	17.47	-41.0	-43.0	26.0	0.00e+00	0	40	0	0	54	4339
2026-01-01 07:11:47.92	204.43	17.48	-40.9	-42.9	26.1	0.00e+00	0	40	0	0	53	4509
2026-01-01 07:11:48.92	204.03	17.48	-41.1	-43.2	25.9	0.00e+00	0	40	0	0	53	4675
2026-01-01 07:11:49.92	203.63	17.48	-41.1	-43.2	25.9	0.00e+00	0	40	0	0	53	4678
2026-01-01 07:11:50.92	203.23	17.48	-41.0	-43.0	26.0	0.00e+00	0	40	0	0	53	4596
2026-01-01 07:11:51.92	202.83	17.48	-41.0	-43.0	26.0	0.00e+00	0	40	0	0	53	4598
2026-01-01 07:11:52.92	202.44	17.47	-41.2	-43.3	25.8	0.00e+00	0	40	0	0	53	4716
2026-01-01 07:11:53.92	202.04	17.47	-40.9	-43.0	26.1	0.00e+00	0	40	0	0	53	4554
2026-01-01 07:11:54.93	201.64	17.46	-40.9	-42.9	26.1	0.00e+00	0	40	0	0	53	4542
2026-01-01 07:11:55.92	201.24	17.46	-41.1	-43.2	26.0	0.00e+00	0	40	0	0	53	4653
2026-01-01 07:11:56.93	200.84	17.45	-41.3	-43.4	25.8	0.00e+00	0	40	0	0	53	4762
2026-01-01 07:11:57.93	200.45	17.44	-41.3	-43.4	25.8	0.00e+00	0	40	0	0	53	4787
2026-01-01 07:11:58.93	200.05	17.43	-41.3	-43.4	25.8	0.00e+00	0	40	0	0	53	4771
2026-01-01 07:11:59.93	199.65	17.42	-41.5	-43.6	25.5	0.00e+00	0	40	0	0	53	4915
2026-01-01 07:12:00.93	199.26	17.41	-41.5	-43.7	25.5	0.00e+00	0	39	0	0	54	4652
2026-01-01 07:12:01.93	198.86	17.39	-41.4	-43.5	25.6	0.00e+00	0	40	0	0	54	4579
2026-01-01 07:12:02.93	198.47	17.38	-41.4	-43.4	25.8	0.00e+00	0	40	0	0	54	4529
2026-01-01 07:12:03.93	198.07	17.36	-41.4	-43.5	25.7	0.00e+00	0	40	0	0	54	4563
2026-01-01 07:12:04.93	197.68	17.34	-41.5	-43.6	25.6	0.00e+00	0	40	0	0	54	4616
2026-01-01 07:12:05.94	197.28	17.33	-41.5	-43.6	25.6	0.00e+00	0	40	0	0	54	4605
2026-01-01 07:12:06.94	196.89	17.31	-41.5	-43.6	25.6	0.00e+00	0	40	0	0	54	4629
2026-01-01 07:12:07.94	196.50	17.29	-41.4	-43.5	25.6	0.00e+00	0	40	0	0	54	4589
2026-01-01 07:12:08.94	196.11	17.26	-41.5	-43.6	25.6	0.00e+00	0	40	0	0	54	4621
2026-01-01 07:12:09.94	195.71	17.24	-41.2	-43.3	25.8	0.00e+00	0	40	0	0	54	4489
2026-01-01 07:12:10.95	195.32	17.22	-41.2	-43.3	25.8	0.00e+00	0	40	0	0	54	4457
2026-01-01 07:12:11.95	194.93	17.19	-41.2	-43.3	25.8	0.00e+00	0	40	0	0	54	4484
2026-01-01 07:12:12.95	194.54	17.17	-41.1	-43.2	26.0	0.00e+00	0	40	0	0	54	4407
2026-01-01 07:12:13.95	194.16	17.14	-40.8	-42.9	26.2	0.00e+00	0	40	0	0	53	4513
2026-01-01 07:12:14.95	193.77	17.11	-40.9	-43.0	26.1	0.00e+00	0	40	0	0	53	4580
2026-01-01 07:12:15.95	193.38	17.08	-41.2	-43.3	25.8	0.00e+00	0	40	0	0	53	4719
2026-01-01 07:12:16.95	193.00	17.05	-41.1	-43.2	25.9	0.00e+00	0	40	0	0	53	4655
2026-01-01 07:12:17.95	192.61	17.02	-40.9	-43.0	26.0	0.00e+00	0	40	0	0	53	4591
2026-01-01 07:12:18.95	192.23	16.99	-40.9	-43.0	26.1	0.00e+00	0	40	0	0	53	4569
2026-01-01 07:12:19.95	191.85	16.96	-41.1	-43.2	25.9	0.00e+00	0	40	0	0	53	4700
2026-01-01 07:12:20.96	191.47	16.92	-41.2	-43.3	25.8	0.00e+00	0	40	0	0	53	4716
2026-01-01 07:12:21.95	191.09	16.89	-41.2	-43.4	25.7	0.00e+00	0	40	0	0	53	4767
2026-01-01 07:12:22.95	190.71	16.85	-41.4	-43.5	25.7	0.00e+00	0	40	0	0	53	4841
2026-01-01 07:12:23.95	190.33	16.81	-41.3	-43.5	25.7	0.00e+00	0	40	0	0	53	4817
2026-01-01 07:12:24.95	189.96	16.78	-41.4	-43.6	25.6	0.00e+00	0	40	0	0	53	4871
2026-01-01 07:12:25.95	189.58	16.74	-41.7	-43.9	25.4	0.00e+00	0	39	0	0	54	4786
2026-01-01 07:12:26.95	189.21	16.70	-41.7	-43.9	25.3	0.00e+00	0	40	0	0	54	4774
2026-01-01 07:12:27.95	188.84	16.66	-41.6	-43.7	25.5	0.00e+00	0	40	0	0	54	4699
2026-01-01 07:12:28.96	188.46	16.61	-41.6	-43.7	25.6	0.00e+00	0	39	0	0	54	4676
2026-01-01 07:12:29.95	188.09	16.57	-41.5	-43.6	25.7	0.00e+00	0	40	0	0	54	4620
2026-01-01 07:12:30.95	187.73	16.53	-41.8	-43.9	25.4	0.00e+00	0	40	0	0	54	4778
2026-01-01 07:12:31.96	187.35	16.48	-42.0	-44.2	25.0	0.00e+00	0	40	0	0	54	4969
2026-01-01 07:12:32.96	186.99	16.44	-42.2	-44.5	24.8	0.00e+00	0	40	0	0	55	4851
2026-01-01 07:12:33.96	186.62	16.39	-42.1	-44.4	24.9	0.00e+00	0	40	0	0	55	4786
2026-01-01 07:12:34.96	186.26	16.34	-41.9	-44.2	25.1	0.00e+00	0	39	0	0	55	4679
2026-01-01 07:12:35.96	185.90	16.30	-42.0	-44.3	25.1	0.00e+00	0	40	0	0	55	4723
2026-01-01 07:12:36.96	185.54	16.25	-41.6	-43.8	25.4	0.00e+00	0	40	0	0	55	4488
2026-01-01 07:12:37.96	185.18	16.20	-41.5	-43.7	25.5	0.00e+00	0	40	0	0	55	4427
2026-01-01 07:12:38.97	184.82	16.15	-41.6	-43.7	25.5	0.00e+00	0	40	0	0	54	4696
2026-01-01 07:12:39.97	184.46	16.10	-41.6	-43.7	25.5	0.00e+00	0	40	0	0	54	4692
2026-01-01 07:12:40.97	184.11	16.04	-41.7	-43.8	25.4	0.00e+00	0	40	0	0	54	4743
2026-01-01 07:12:41.97	183.76	15.99	-41.6	-43.8	25.4	0.00e+00	0	40	0	0	54	4714
2026-01-01 07:12:42.98	183.40	15.94	-41.5	-43.6	25.6	0.00e+00	0	40	0	0	54	4636
2026-01-01 07:12:43.97	183.05	15.88	-41.4	-43.5	25.7	0.00e+00	0	40	0	0	54	4571
2026-01-01 07:12:44.98	182.70	15.83	-41.7	-43.8	25.5	0.00e+00	0	40	0	0	54	4746
2026-01-01 07:12:45.98	182.36	15.77	-41.9	-44.1	25.2	0.00e+00	0	40	0	0	54	4894
2026-01-01 07:12:46.98	182.01	15.72	-42.1	-44.3	25.1	0.00e+00	0	39	0	0	54	4990
2026-01-01 07:12:47.98	181.67	15.66	-42.3	-44.5	24.8	0.00e+00	0	40	0	0	55	4857
2026-01-01 07:12:48.98	181.33	15.60	-42.5	-44.8	24.6	0.00e+00	0	39	0	0	55	4999
2026-01-01 07:12:49.98	180.99	15.54	-42.4	-44.7	24.6	0.00e+00	0	40	0	0	55	4970
2026-01-01 07:12:50.98	180.65	15.48	-42.3	-44.5	24.9	0.00e+00	0	40	0	0	55	4858
2026-01-01 07:12:51.98	180.31	15.43	-42.0	-44.3	25.1	0.00e+00	0	40	0	0	55	4708
2026-01-01 07:12:52.98	179.98	15.37	-41.8	-44.0	25.3	0.00e+00	0	40	0	0	55	4595
2026-01-01 07:12:53.98	179.64	15.30	-41.8	-44.0	25.3	0.00e+00	0	40	0	0	55	4571
2026-01-01 07:12:54.98	179.31	15.24	-42.3	-44.5	24.8	0.00e+00	0	40	0	0	55	4861
2026-01-01 07:12:55.98	178.98	15.18	-42.6	-44.9	24.5	0.00e+00	0	40	0	0	55	5073
2026-01-01 07:12:56.99	178.65	15.12	-42.6	-44.8	24.6	0.00e+00	0	40	0	0	55	5034
2026-01-01 07:12:57.99	178.33	15.06	-42.7	-44.9	24.4	0.00e+00	0	40	0	0	55	5098
2026-01-01 07:12:58.99	178.00	14.99	-42.8	-45.0	24.6	0.00e+00	0	40	0	0	56	4857
2026-01-01 07:12:59.99	177.68	14.93	-42.6	-44.9	24.7	0.00e+00	0	40	0	0	56	4764
2026-01-01 07:13:00.99	177.36	14.86	-42.5	-44.8	24.8	0.00e+00	0	40	0	0	56	4715
2026-01-01 07:13:01.99	177.04	14.80	-42.7	-44.9	24.6	0.00e+00	0	40	0	0	56	4786
2026-01-01 07:13:02.99	176.72	14.73	-42.5	-44.8	24.8	0.00e+00	0	40	0	0	56	4708
2026-01-01 07:13:03.99	176.40	14.67	-42.5	-44.7	24.8	0.00e+00	0	40	0	0	56	4672
2026-01-01 07:13:04.99	176.09	14.60	-42.6	-44.9	24.7	0.00e+00	0	40	0	0	56	4774
2026-01-01 07:13:05.99	175.78	14.54	-42.4	-44.7	24.8	0.00e+00	0	40	0	0	56	4656
2026-01-01 07:13:06.99	175.47	14.47	-42.4	-44.6	24.9	0.00e+00	0	40	0	0	56	4626
2026-01-01 07:13:07.99	175.16	14.40	-42.3	-44.5	25.0	0.00e+00	0	40	0	0	56	4572
2026-01-01 07:13:08.99	174.85	14.33	-42.4	-44.6	24.8	0.00e+00	0	40	0	0	56	4614
2026-01-01 07:13:09.99	174.55	14.27	-42.5	-44.7	24.8	0.00e+00	0	40	0	0	56	4686
2026-01-01 07:13:10.99	174.24	14.20	-42.6	-44.9	24.6	0.00e+00	0	40	0	0	56	4765
2026-01-01 07:13:11.99	173.94	14.13	-42.7	-45.0	24.5	0.00e+00	0	40	0	0	56	4833
2026-01-01 07:13:12.99	173.64	14.06	-42.8	-45.2	24.4	0.00e+00	0	40	0	0	56	4936
2026-01-01 07:13:13.99	173.35	13.99	-42.9	-45.2	24.3	0.00e+00	0	40	0	0	56	4968
2026-01-01 07:13:14.99	173.05	13.92	-42.8	-45.1	24.4	0.00e+00	0	40	0	0	56	4914
2026-01-01 07:13:15.99	172.76	13.85	-42.9	-45.2	24.3	0.00e+00	0	40	0	0	56	4966
2026-01-01 07:13:17.00	172.46	13.78	-42.9	-45.3	24.2	0.00e+00	0	40	0	0	56	5016
2026-01-01 07:13:18.00	172.17	13.71	-42.7	-45.1	24.4	0.00e+00	0	40	0	0	56	4884
2026-01-01 07:13:19.00	171.88	13.63	-42.7	-45.0	24.5	0.00e+00	0	40	0	0	56	4819
2026-01-01 07:13:20.00	171.59	13.56	-42.9	-45.2	24.4	0.00e+00	0	39	0	0	56	4954
2026-01-01 07:13:21.01	171.31	13.49	-42.9	-45.2	24.3	0.00e+00	0	40	0	0	56	4977
2026-01-01 07:13:22.01	171.02	13.42	-43.0	-45.3	24.2	0.00e+00	0	40	0	0	56	5027
2026-01-01 07:13:23.01	170.74	13.35	-43.0	-45.3	24.2	0.00e+00	0	40	0	0	56	5023
2026-01-01 07:13:24.01	170.46	13.27	-43.0	-45.3	24.1	0.00e+00	0	39	0	0	56	5030
2026-01-01 07:13:25.01	170.18	13.20	-43.1	-45.5	24.0	0.00e+00	0	40	0	0	56	5147
2026-01-01 07:13:26.02	169.90	13.13	-43.2	-45.6	23.9	0.00e+00	0	40	0	0	57	4888
2026-01-01 07:13:27.01	169.63	13.06	-43.1	-45.5	23.9	0.00e+00	0	40	0	0	57	4829
2026-01-01 07:13:28.01	169.36	12.98	-43.1	-45.5	23.9	0.00e+00	0	39	0	0	57	4850
2026-01-01 07:13:29.01	169.09	12.91	-43.1	-45.5	24.0	0.00e+00	0	40	0	0	57	4837
2026-01-01 07:13:30.02	168.81	12.83	-43.0	-45.4	24.1	0.00e+00	0	40	0	0	57	4760
2026-01-01 07:13:31.02	168.55	12.76	-42.8	-45.1	24.2	0.00e+00	0	40	0	0	57	4633
2026-01-01 07:13:32.02	168.28	12.69	-42.8	-45.0	24.2	0.00e+00	0	40	0	0	57	4598
2026-01-01 07:13:33.02	168.02	12.61	-42.7	-45.0	24.4	0.00e+00	0	40	0	0	57	4580
2026-01-01 07:13:34.01	167.76	12.54	-42.8	-45.1	24.3	0.00e+00	0	40	0	0	57	4638
2026-01-01 07:13:35.02	167.49	12.46	-43.1	-45.4	24.1	0.00e+00	0	40	0	0	57	4789
2026-01-01 07:13:36.02	167.23	12.39	-43.2	-45.6	23.9	0.00e+00	0	40	0	0	57	4897
2026-01-01 07:13:37.02	166.98	12.31	-43.2	-45.5	23.9	0.00e+00	0	40	0	0	57	4857
2026-01-01 07:13:38.02	166.72	12.24	-43.1	-45.4	24.0	0.00e+00	0	40	0	0	57	4793
2026-01-01 07:13:39.02	166.47	12.16	-43.0	-45.3	24.1	0.00e+00	0	39	0	0	57	4759
2026-01-01 07:13:40.02	166.22	12.09	-42.9	-45.3	24.2	0.00e+00	0	40	0	0	57	4715
2026-01-01 07:13:41.03	165.96	12.01	-43.0	-45.3	24.1	0.00e+00	0	39	0	0	57	4728
2026-01-01 07:13:42.03	165.71	11.94	-43.0	-45.4	24.1	0.00e+00	0	40	0	0	57	4766
2026-01-01 07:13:43.03	165.47	11.86	-43.1	-45.5	24.0	0.00e+00	0	40	0	0	57	4824
2026-01-01 07:13:44.03	165.22	11.79	-43.2	-45.6	23.9	0.00e+00	0	40	0	0	57	4871
2026-01-01 07:13:45.03	164.98	11.71	-43.5	-45.8	23.6	0.00e+00	0	40	0	0	57	5036
2026-01-01 07:13:46.03	164.74	11.64	-43.6	-46.0	23.5	0.00e+00	0	39	0	0	57	5126
2026-01-01 07:13:47.03	164.49	11.56	-43.8	-46.2	23.3	0.00e+00	0	40	0	0	58	4980
2026-01-01 07:13:48.04	164.25	11.49	-43.9	-46.4	23.1	0.00e+00	0	40	0	0	58	5048
2026-01-01 07:13:49.04	164.02	11.41	-44.1	-46.5	21.9	0.00e+00	0	40	0	0	58	5139
2026-01-01 07:13:50.04	163.78	11.33	-44.1	-46.6	22.9	0.00e+00	0	40	0	0	58	5190
2026-01-01 07:13:51.05	163.54	11.26	-44.1	-46.6	22.9	0.00e+00	0	40	0	0	59	4901
2026-01-01 07:13:52.04	163.31	11.18	-44.1	-46.5	23.0	0.00e+00	0	40	0	0	59	4847
2026-01-01 07:13:53.05	163.08	11.11	-44.0	-46.5	23.0	0.00e+00	0	40	0	0	59	4822
2026-01-01 07:13:54.05	162.85	11.03	-44.0	-46.5	23.0	0.00e+00	0	40	0	0	59	4823
2026-01-01 07:13:55.05	162.62	10.96	-44.0	-46.5	23.0	0.00e+00	0	40	0	0	59	4851
2026-01-01 07:13:56.05	162.40	10.88	-44.1	-46.6	22.8	0.00e+00	0	40	0	0	59	4911
2026-01-01 07:13:57.05	162.17	10.80	-44.1	-46.6	22.8	0.00e+00	0	40	0	0	59	4924
2026-01-01 07:13:58.04	161.95	10.73	-44.1	-46.6	22.8	0.00e+00	0	40	0	0	59	4901
2026-01-01 07:13:59.04	161.73	10.65	-44.0	-46.5	22.9	0.00e+00	0	40	0	0	59	4858
2026-01-01 07:14:00.04	161.51	10.58	-44.0	-46.4	22.9	0.00e+00	0	40	0	0	59	4810
2026-01-01 07:14:01.04	161.29	10.50	-43.9	-46.4	22.9	0.00e+00	0	40	0	0	59	4778
2026-01-01 07:14:02.05	161.07	10.43	-43.9	-46.3	23.1	0.00e+00	0	40	0	0	59	4743
2026-01-01 07:14:03.05	160.86	10.35	-44.0	-46.4	23.0	0.00e+00	0	40	0	0	59	4785
2026-01-01 07:14:04.05	160.64	10.27	-44.0	-46.4	23.0	0.00e+00	0	40	0	0	59	4807
2026-01-01 07:14:05.05	160.43	10.20	-43.9	-46.4	23.1	0.00e+00	0	40	0	0	59	4760
2026-01-01 07:14:06.05	160.22	10.12	-43.9	-46.3	23.1	0.00e+00	0	40	0	0	59	4749
2026-01-01 07:14:07.05	160.01	10.05	-44.0	-46.5	23.0	0.00e+00	0	40	0	0	59	4830
2026-01-01 07:14:08.05	159.80	9.97	-44.2	-46.7	22.7	0.00e+00	0	40	0	0	59	4927
2026-01-01 07:14:09.05	159.59	9.90	-44.2	-46.7	22.7	0.00e+00	0	40	0	0	59	4977
2026-01-01 07:14:10.05	159.39	9.82	-44.3	-46.8	22.6	0.00e+00	0	39	0	0	59	5040
2026-01-01 07:14:11.05	159.18	9.75	-44.4	-47.0	22.4	0.00e+00	0	40	0	0	59	5122
2026-01-01 07:14:12.05	158.98	9.67	-44.3	-46.9	19.2	0.00e+00	0	40	0	0	59	5045
2026-01-01 07:14:13.05	158.78	9.60	-44.3	-46.8	22.6	0.00e+00	0	40	0	0	59	5017
2026-01-01 07:14:14.05	158.58	9.52	-44.3	-46.8	22.6	0.00e+00	0	40	0	0	59	5010
2026-01-01 07:14:15.05	158.38	9.45	-44.4	-46.9	22.6	0.00e+00	0	40	0	0	59	5043
2026-01-01 07:14:16.05	158.19	9.37	-44.3	-46.8	22.6	0.00e+00	0	40	0	0	59	5024
2026-01-01 07:14:17.05	157.99	9.30	-44.2	-46.6	22.8	0.00e+00	0	40	0	0	59	4916
2026-01-01 07:14:18.05	157.80	9.22	-44.3	-46.8	22.6	0.00e+00	0	40	0	0	59	5019
2026-01-01 07:14:19.05	157.60	9.15	-44.6	-47.2	22.2	0.00e+00	0	40	0	0	59	5256
2026-01-01 07:14:20.06	157.41	9.07	-44.6	-47.2	22.0	0.00e+00	0	40	0	0	60	4974
2026-01-01 07:14:21.06	157.22	9.00	-44.6	-47.2	22.1	0.00e+00	0	40	0	0	60	4953
2026-01-01 07:14:22.06	157.03	8.93	-51.2	-62.2	9.7	0.00e+00	0	40	0	0	73	13258
2026-01-01 07:14:23.06	156.84	8.85	-51.2	-68.6	3.9	2.70e-02	0	40	104	0	74	26119
2026-01-01 07:14:24.06	156.66	8.78	-51.7	-70.3	3.8	8.46e-01	0	40	104	0	74	31701
2026-01-01 07:14:25.06	156.47	8.70	-51.8	-70.7	3.8	8.47e-01	0	40	104	0	74	33089
2026-01-01 07:14:26.07	156.28	8.63	-51.9	-71.0	3.8	8.47e-01	0	40	104	0	74	34130
2026-01-01 07:14:27.07	156.10	8.56	-51.7	-70.9	3.8	8.47e-01	0	40	104	0	74	33976
2026-01-01 07:14:28.07	155.92	8.48	-52.1	-71.0	3.8	8.46e-01	0	40	104	0	74	34353
2026-01-01 07:14:29.08	155.74	8.41	-52.2	-71.0	3.8	8.46e-01	0	40	104	0	75	32493
2026-01-01 07:14:30.08	155.56	8.33	-52.4	-71.1	3.8	8.47e-01	0	40	104	0	75	32700
2026-01-01 07:14:31.08	155.38	8.26	-52.4	-71.1	3.8	8.47e-01	0	40	104	0	75	32753
2026-01-01 07:14:32.08	155.21	8.19	-52.5	-71.2	3.8	8.47e-01	0	40	104	0	75	33113
2026-01-01 07:14:33.09	155.03	8.11	-52.5	-71.2	3.8	8.47e-01	0	40	104	0	75	32972
2026-01-01 07:14:34.09	154.86	8.04	-52.4	-71.1	3.8	8.47e-01	0	40	104	0	75	32887
2026-01-01 07:14:35.09	154.68	7.97	-52.5	-71.1	3.8	8.47e-01	0	40	104	0	75	32840
2026-01-01 07:14:36.10	154.51	7.90	-52.4	-71.1	3.8	8.47e-01	0	40	104	0	75	32832
2026-01-01 07:14:37.10	154.34	7.82	-52.4	-71.2	3.8	8.47e-01	0	40	104	0	75	32973
2026-01-01 07:14:38.10	154.17	7.75	-52.5	-71.1	3.8	8.47e-01	0	40	104	0	75	32899
2026-01-01 07:14:39.11	154.00	7.68	-52.5	-71.2	3.8	8.47e-01	0	40	104	0	75	33042
2026-01-01 07:14:40.11	153.83	7.61	-52.5	-71.2	3.8	8.48e-01	0	40	104	0	75	33065
2026-01-01 07:14:41.11	153.67	7.53	-52.3	-71.1	3.8	8.48e-01	0	40	104	0	75	32865
2026-01-01 07:14:42.12	153.50	7.46	-52.3	-71.2	3.8	8.48e-01	0	40	104	0	75	32942
2026-01-01 07:14:43.12	153.34	7.39	-52.4	-71.1	3.8	8.46e-01	0	40	104	0	75	32880
2026-01-01 07:14:44.12	153.17	7.32	-52.4	-71.1	3.8	8.47e-01	0	40	104	0	75	32874
2026-01-01 07:14:45.13	153.01	7.25	-52.3	-71.1	3.8	8.47e-01	0	40	104	0	75	32745
2026-01-01 07:14:46.13	152.85	7.17	-52.3	-71.1	3.8	8.47e-01	0	40	104	0	75	32782
2026-01-01 07:14:47.13	152.69	7.10	-52.3	-71.1	3.8	8.48e-01	0	40	104	0	75	32695
2026-01-01 07:14:48.14	152.53	7.03	-52.3	-71.1	3.8	8.48e-01	0	40	104	0	75	32854
2026-01-01 07:14:49.14	152.38	6.96	-52.2	-71.1	3.8	8.46e-01	0	40	104	0	75	32611
2026-01-01 07:14:50.14	152.22	6.89	-52.3	-71.1	3.8	8.47e-01	0	40	104	0	75	32780
2026-01-01 07:14:51.14	152.06	6.82	-52.2	-71.1	3.8	8.47e-01	0	40	104	0	75	32574
2026-01-01 07:14:52.15	151.91	6.75	-52.3	-71.1	3.8	8.47e-01	0	40	104	0	75	32765
2026-01-01 07:14:53.15	151.76	6.68	-52.2	-71.0	3.8	8.47e-01	0	40	104	0	75	32550
2026-01-01 07:14:54.15	151.60	6.61	-52.3	-71.1	3.8	8.47e-01	0	40	104	0	75	32627
2026-01-01 07:14:55.15	151.45	6.54	-52.3	-71.1	3.8	8.47e-01	0	40	104	0	75	32629
2026-01-01 07:14:56.16	151.30	6.47	-52.3	-71.0	3.9	8.46e-01	0	40	104	0	75	32526
2026-01-01 07:14:57.16	151.15	6.40	-52.3	-71.1	3.8	8.48e-01	0	40	104	0	75	32808
2026-01-01 07:14:58.16	151.01	6.33	-52.3	-71.1	3.8	8.48e-01	0	40	104	0	75	32772
2026-01-01 07:14:59.17	150.86	6.26	-52.3	-71.1	3.8	8.47e-01	0	40	104	0	75	32713
2026-01-01 07:15:00.17	150.71	6.19	-52.3	-71.1	3.8	8.47e-01	0	40	104	0	75	32790
2026-01-01 07:15:01.17	150.57	6.12	-52.3	-71.1	3.8	8.47e-01	0	40	104	0	75	32641
2026-01-01 07:15:02.17	150.42	6.05	-52.3	-71.1	3.8	8.46e-01	0	40	104	0	75	32750
2026-01-01 07:15:03.18	150.28	5.98	-52.3	-71.1	3.8	8.46e-01	0	40	104	0	75	32819
2026-01-01 07:15:04.18	150.14	5.91	-52.3	-71.1	3.8	8.46e-01	0	40	104	0	75	32658
2026-01-01 07:15:05.18	150.00	5.84	-52.3	-71.0	3.8	8.47e-01	0	40	104	0	75	32542
2026-01-01 07:15:06.18	149.86	5.78	-52.2	-71.1	3.8	8.47e-01	0	40	104	0	75	32682
2026-01-01 07:15:07.18	149.72	5.71	-52.3	-71.1	3.8	8.47e-01	0	40	104	0	75	32603
2026-01-01 07:15:08.18	149.58	5.64	-52.3	-71.1	3.8	8.47e-01	0	40	104	0	75	32677
2026-01-01 07:15:09.19	149.44	5.57	-52.3	-71.1	3.8	8.47e-01	0	40	104	0	75	32918
2026-01-01 07:15:10.19	149.30	5.50	-52.3	-71.1	3.8	8.47e-01	0	40	104	0	75	32884
2026-01-01 07:15:11.19	149.17	5.44	-52.3	-71.1	3.8	8.47e-01	0	40	104	0	75	32807
2026-01-01 07:15:12.20	149.03	5.37	-52.3	-71.1	3.8	8.47e-01	0	40	104	0	75	32850
2026-01-01 07:15:13.20	148.90	5.30	-52.3	-71.1	3.8	8.48e-01	0	40	104	0	75	32825
2026-01-01 07:15:14.20	148.77	5.23	-52.3	-71.1	3.8	8.48e-01	0	40	104	0	75	32752
2026-01-01 07:15:15.20	148.63	5.17	-52.3	-71.1	3.8	8.48e-01	0	40	104	0	75	32651
2026-01-01 07:15:16.21	148.50	5.10	-52.3	-71.1	3.8	8.47e-01	0	40	104	0	75	32640
2026-01-01 07:15:17.21	148.37	5.03	-52.3	-71.1	3.8	8.47e-01	0	40	104	0	75	32685
2026-01-01 07:15:18.21	148.24	4.96	-52.3	-71.1	3.8	8.47e-01	0	40	104	0	75	32720

#Closed at: 2026-01-01 07:15:19
#Recorded file [0 MB]: D:/Data/31040_260101_100823.dat