passes_logs/2026/01/01/T1/T1__20260101_095829_NOAA_21_JPSS-2_rec.log

#Pass ID: 20260101_095829_NOAA 21 (JPSS-2)
#Satellite: NOAA 21 (JPSS-2)
#Configuration: NOAA 21
#almurnet v.1.7.20251203
#Start time: 2026-01-01 09:58:30

#Version: 2.0.20230620
#Station: T1
#Location: 37.570604 lon 55.790049 lat
#TLE: 1 54234U 22150A   25365.42224288  .00000199  00000+0  11529-3 0  9990
#TLE: 2 54234  98.7483 301.4995 0001320 356.2106   3.9060 14.19530300162743

#Time	Az	El	Level	Level2	SNR	BER	BlckErr	Temp	State	Recorded	gain1	gain2
2026-01-01 09:58:30.17	161.83	5.07	-52.4	-65.4	3.8	1.49e+00	0	41	0	0	75	16897
2026-01-01 09:58:31.17	161.84	5.15	-52.3	-65.3	3.8	1.49e+00	0	41	104	0	76	15851
2026-01-01 09:58:32.18	161.84	5.22	-52.3	-65.3	3.8	1.49e+00	0	41	104	0	76	15839
2026-01-01 09:58:33.18	161.85	5.29	-52.3	-65.3	3.8	1.49e+00	0	41	104	0	76	15814
2026-01-01 09:58:34.58	161.85	5.39	-52.3	-65.3	3.8	1.49e+00	0	41	104	0	76	15853
2026-01-01 09:58:35.33	161.85	5.45	-52.4	-65.3	3.8	1.49e+00	0	41	104	0	76	15942
2026-01-01 09:58:36.63	161.86	5.54	-52.3	-65.4	3.8	1.49e+00	0	41	104	0	76	15945
2026-01-01 09:58:37.34	161.86	5.60	-52.3	-65.3	3.8	1.49e+00	0	41	104	0	76	15894
2026-01-01 09:58:38.63	161.87	5.69	-52.4	-65.3	3.8	1.49e+00	0	41	104	0	76	15928
2026-01-01 09:58:39.35	161.87	5.74	-52.4	-65.4	3.8	1.49e+00	0	41	104	0	76	15993
2026-01-01 09:58:40.65	161.88	5.84	-52.3	-65.4	3.8	1.49e+00	0	41	104	0	76	15960
2026-01-01 09:58:41.36	161.88	5.89	-52.3	-65.3	3.8	1.49e+00	0	42	104	0	76	15832
2026-01-01 09:58:42.72	161.89	5.99	-52.3	-65.3	3.8	1.49e+00	0	41	104	0	76	15834
2026-01-01 09:58:43.43	161.89	6.05	-52.3	-65.3	3.8	1.49e+00	0	41	104	0	76	15881
2026-01-01 09:58:44.79	161.90	6.15	-52.3	-65.3	3.8	1.49e+00	0	42	104	0	76	15877
2026-01-01 09:58:45.50	161.90	6.20	-52.3	-65.3	3.8	1.49e+00	0	42	104	0	76	15823
2026-01-01 09:58:46.86	161.91	6.31	-52.4	-65.4	3.8	1.49e+00	0	41	104	0	76	16021
2026-01-01 09:58:47.57	161.91	6.36	-52.4	-65.4	3.8	1.49e+00	0	42	104	0	76	16085
2026-01-01 09:58:48.87	161.91	6.46	-52.4	-65.4	3.8	1.49e+00	0	42	104	0	76	15973
2026-01-01 09:58:49.58	161.92	6.51	-52.4	-65.4	3.8	1.49e+00	0	42	104	0	76	15945
2026-01-01 09:58:50.87	161.92	6.61	-52.4	-65.4	3.8	1.49e+00	0	42	104	0	76	15979
2026-01-01 09:58:51.59	161.93	6.66	-52.3	-65.3	3.8	1.49e+00	0	41	104	0	76	15902
2026-01-01 09:58:52.88	161.93	6.76	-52.3	-65.3	3.8	1.49e+00	0	42	104	0	76	15932
2026-01-01 09:58:53.60	161.94	6.82	-52.3	-65.3	3.8	1.49e+00	0	42	104	0	76	15913
2026-01-01 09:58:54.89	161.94	6.92	-52.3	-65.3	3.8	1.49e+00	0	42	104	0	76	15902
2026-01-01 09:58:55.61	161.95	6.97	-52.3	-65.3	3.8	1.49e+00	0	42	104	0	76	15931
2026-01-01 09:58:56.90	161.95	7.07	-52.3	-65.4	3.8	1.49e+00	0	42	104	0	76	15946
2026-01-01 09:58:57.62	161.95	7.13	-52.3	-65.3	3.8	1.49e+00	0	42	104	0	76	15937
2026-01-01 09:58:58.91	161.96	7.23	-52.4	-65.4	3.8	1.49e+00	0	42	104	0	76	15975
2026-01-01 09:58:59.63	161.96	7.29	-52.3	-65.4	3.8	1.49e+00	0	42	104	0	76	15957
2026-01-01 09:59:00.92	161.97	7.39	-52.4	-65.4	3.8	1.49e+00	0	42	104	0	76	16009
2026-01-01 09:59:01.64	161.97	7.45	-52.4	-65.4	3.8	1.49e+00	0	42	104	0	76	16005
2026-01-01 09:59:02.93	161.98	7.55	-52.4	-65.4	3.8	1.49e+00	0	42	104	0	76	16023
2026-01-01 09:59:03.64	161.98	7.60	-52.3	-65.4	3.8	1.49e+00	0	42	104	0	76	15975
2026-01-01 09:59:04.93	161.99	7.71	-52.4	-65.4	3.8	1.49e+00	0	42	104	0	76	15958
2026-01-01 09:59:05.65	161.99	7.76	-52.4	-65.3	3.8	1.49e+00	0	42	104	0	76	15917
2026-01-01 09:59:06.94	162.00	7.87	-52.3	-65.3	3.8	1.49e+00	0	42	104	0	76	15884
2026-01-01 09:59:07.66	162.00	7.93	-52.3	-65.3	3.8	1.49e+00	0	42	104	0	76	15894
2026-01-01 09:59:08.95	162.01	8.03	-52.3	-65.3	3.8	1.49e+00	0	42	104	0	76	15941
2026-01-01 09:59:09.67	162.01	8.09	-52.4	-65.4	3.8	1.49e+00	0	42	104	0	76	15969
2026-01-01 09:59:10.96	162.02	8.19	-52.3	-65.3	3.8	1.49e+00	0	42	104	0	76	15923
2026-01-01 09:59:11.68	162.02	8.25	-52.3	-65.3	3.8	1.49e+00	0	42	104	0	76	15847
2026-01-01 09:59:12.97	162.03	8.36	-52.3	-65.3	3.8	1.49e+00	0	42	104	0	76	15859
2026-01-01 09:59:13.69	162.03	8.42	-52.3	-65.3	3.8	1.49e+00	0	43	104	0	76	15923
2026-01-01 09:59:14.98	162.04	8.52	-52.3	-65.3	3.8	1.49e+00	0	42	104	0	76	15885
2026-01-01 09:59:15.69	162.04	8.58	-52.3	-65.3	3.8	1.49e+00	0	43	104	0	76	15875
2026-01-01 09:59:16.98	162.05	8.69	-52.3	-65.3	3.8	1.49e+00	0	42	104	0	76	15828
2026-01-01 09:59:17.70	162.05	8.75	-52.3	-65.3	3.8	1.49e+00	0	42	104	0	76	15875
2026-01-01 09:59:18.99	162.06	8.85	-52.3	-65.3	3.8	1.49e+00	0	42	104	0	76	15853
2026-01-01 09:59:19.71	162.06	8.91	-52.3	-65.4	3.8	1.49e+00	0	42	104	0	76	15948
2026-01-01 09:59:21.00	162.07	9.02	-52.3	-65.3	3.8	1.49e+00	0	42	104	0	76	15934
2026-01-01 09:59:21.72	162.07	9.08	-52.4	-65.4	3.8	1.49e+00	0	42	104	0	76	15975
2026-01-01 09:59:23.01	162.08	9.19	-52.3	-65.4	3.8	1.49e+00	0	42	104	0	76	15960
2026-01-01 09:59:23.73	162.08	9.25	-52.4	-65.4	3.8	1.49e+00	0	42	104	0	76	15996
2026-01-01 09:59:25.02	162.09	9.36	-52.3	-65.3	3.8	1.49e+00	0	42	104	0	76	15885
2026-01-01 09:59:25.74	162.09	9.42	-52.3	-65.3	3.8	1.49e+00	0	43	104	0	76	15857
2026-01-01 09:59:27.03	162.10	9.53	-52.3	-65.3	3.8	1.49e+00	0	42	104	0	76	15884
2026-01-01 09:59:27.74	162.10	9.60	-52.3	-65.3	3.8	1.49e+00	0	43	104	0	76	15883
2026-01-01 09:59:29.03	162.11	9.71	-52.3	-65.3	3.8	1.49e+00	0	42	104	0	76	15861
2026-01-01 09:59:29.75	162.11	9.77	-52.3	-65.3	3.8	1.49e+00	0	43	104	0	76	15879
2026-01-01 09:59:31.04	162.12	9.88	-52.3	-65.4	3.8	1.49e+00	0	43	104	0	76	15983
2026-01-01 09:59:31.76	162.12	9.94	-52.3	-65.3	3.8	1.49e+00	0	43	104	0	76	15862
2026-01-01 09:59:33.05	162.13	10.06	-52.3	-65.3	3.8	1.49e+00	0	42	104	0	76	15913
2026-01-01 09:59:33.77	162.13	10.12	-52.3	-65.3	3.8	1.49e+00	0	43	104	0	76	15858
2026-01-01 09:59:35.06	162.14	10.23	-52.3	-65.3	3.8	1.49e+00	0	43	104	0	76	15858
2026-01-01 09:59:35.78	162.14	10.30	-52.3	-65.3	3.8	1.49e+00	0	43	104	0	76	15845
2026-01-01 09:59:37.07	162.15	10.41	-52.3	-65.3	3.8	1.49e+00	0	43	104	0	76	15883
2026-01-01 09:59:37.79	162.15	10.47	-52.3	-65.3	3.8	1.49e+00	0	43	104	0	76	15840
2026-01-01 09:59:39.08	162.16	10.59	-52.3	-65.3	3.8	1.49e+00	0	43	104	0	76	15896
2026-01-01 09:59:39.79	162.16	10.65	-52.3	-65.3	3.8	1.49e+00	0	43	104	0	76	15810
2026-01-01 09:59:41.08	162.17	10.77	-52.3	-65.3	3.8	1.49e+00	0	43	104	0	76	15894
2026-01-01 09:59:41.80	162.17	10.83	-52.3	-65.3	3.8	1.49e+00	0	43	104	0	76	15887
2026-01-01 09:59:43.09	162.18	10.95	-52.3	-65.3	3.8	1.49e+00	0	43	104	0	76	15910
2026-01-01 09:59:43.81	162.18	11.02	-52.4	-65.3	3.8	1.49e+00	0	43	104	0	76	15911
2026-01-01 09:59:45.10	162.19	11.14	-52.3	-65.3	3.8	1.49e+00	0	43	104	0	76	15892
2026-01-01 09:59:45.82	162.19	11.20	-52.4	-65.4	3.8	1.49e+00	0	43	104	0	76	15947
2026-01-01 09:59:47.11	162.20	11.32	-52.4	-65.4	3.8	1.49e+00	0	43	104	0	76	15954
2026-01-01 09:59:47.83	162.20	11.39	-52.3	-65.3	3.8	1.49e+00	0	43	104	0	76	15927
2026-01-01 09:59:49.12	162.21	11.51	-52.3	-65.3	3.8	1.49e+00	0	43	104	0	76	15885
2026-01-01 09:59:49.84	162.21	11.57	-52.3	-65.3	3.8	1.49e+00	0	43	104	0	76	15809
2026-01-01 09:59:51.13	162.22	11.69	-52.3	-65.3	3.8	1.49e+00	0	43	104	0	76	15870
2026-01-01 09:59:51.85	162.22	11.76	-52.3	-65.3	3.8	1.49e+00	0	43	104	0	76	15842
2026-01-01 09:59:53.14	162.23	11.88	-52.3	-65.3	3.8	1.49e+00	0	43	104	0	76	15900
2026-01-01 09:59:53.86	162.23	11.95	-52.3	-65.3	3.8	1.49e+00	0	43	104	0	76	15936
2026-01-01 09:59:55.15	162.24	12.07	-52.4	-65.4	3.8	1.49e+00	0	43	104	0	76	16004
2026-01-01 09:59:55.87	162.24	12.14	-52.4	-65.4	3.8	1.49e+00	0	43	104	0	76	15955
2026-01-01 09:59:57.15	162.25	12.26	-52.4	-65.4	3.8	1.49e+00	0	43	104	0	76	15974
2026-01-01 09:59:57.87	162.26	12.33	-52.4	-65.4	3.8	1.49e+00	0	43	104	0	76	16008
2026-01-01 09:59:59.16	162.26	12.46	-52.4	-65.4	3.8	1.49e+00	0	43	104	0	76	15968
2026-01-01 09:59:59.88	162.27	12.53	-52.4	-65.3	3.8	1.49e+00	0	43	104	0	76	15928
2026-01-01 10:00:01.17	162.27	12.65	-52.3	-65.3	3.8	1.49e+00	0	43	104	0	76	15943
2026-01-01 10:00:01.89	162.28	12.72	-52.3	-65.3	3.8	1.49e+00	0	43	104	0	76	15864
2026-01-01 10:00:03.18	162.28	12.85	-52.4	-65.4	3.8	1.49e+00	0	43	104	0	76	15969
2026-01-01 10:00:03.90	162.29	12.92	-52.4	-65.4	3.8	1.49e+00	0	43	104	0	76	15963
2026-01-01 10:00:05.19	162.30	13.05	-52.4	-65.4	3.8	1.49e+00	0	43	104	0	76	15976
2026-01-01 10:00:06.10	162.30	13.14	-52.4	-65.3	3.8	1.49e+00	0	43	104	0	76	15912
2026-01-01 10:00:07.10	162.31	13.24	-52.4	-65.4	3.8	1.49e+00	0	43	104	0	76	16004
2026-01-01 10:00:08.11	162.31	13.34	-52.4	-65.3	3.8	1.49e+00	0	43	104	0	76	15899
2026-01-01 10:00:09.11	162.32	13.44	-52.3	-65.3	3.8	1.49e+00	0	43	104	0	76	15872
2026-01-01 10:00:10.12	162.32	13.54	-52.3	-65.3	3.8	1.49e+00	0	43	104	0	76	15872
2026-01-01 10:00:11.12	162.33	13.64	-52.3	-65.3	3.8	1.49e+00	0	43	104	0	76	15866
2026-01-01 10:00:12.13	162.33	13.74	-52.3	-65.3	3.8	1.49e+00	0	43	104	0	76	15930
2026-01-01 10:00:13.13	162.34	13.85	-52.3	-65.3	3.8	1.49e+00	0	43	104	0	76	15900
2026-01-01 10:00:14.13	162.35	13.95	-52.4	-65.4	3.8	1.49e+00	0	43	104	0	76	15962
2026-01-01 10:00:15.14	162.35	14.05	-52.3	-65.4	3.8	1.49e+00	0	43	104	0	76	15981
2026-01-01 10:00:16.14	162.36	14.16	-52.3	-65.3	3.8	1.49e+00	0	43	104	0	76	15935
2026-01-01 10:00:17.15	162.36	14.26	-52.3	-65.3	3.8	1.49e+00	0	43	104	0	76	15868
2026-01-01 10:00:18.15	162.37	14.37	-52.3	-65.3	3.8	1.49e+00	0	43	104	0	76	15890
2026-01-01 10:00:19.16	162.38	14.47	-52.3	-65.3	3.8	1.49e+00	0	43	104	0	76	15897
2026-01-01 10:00:20.16	162.38	14.58	-52.3	-65.3	3.8	1.49e+00	0	43	104	0	76	15909
2026-01-01 10:00:21.16	162.39	14.68	-52.3	-65.3	3.8	1.49e+00	0	43	104	0	76	15861
2026-01-01 10:00:22.17	162.39	14.79	-52.3	-65.3	3.8	1.49e+00	0	43	104	0	76	15939
2026-01-01 10:00:23.17	162.40	14.90	-52.4	-65.4	3.8	1.49e+00	0	43	104	0	76	16009
2026-01-01 10:00:24.18	162.41	15.00	-52.4	-65.3	3.8	1.49e+00	0	43	104	0	76	15928
2026-01-01 10:00:25.18	162.41	15.11	-52.3	-65.3	3.8	1.49e+00	0	44	104	0	76	15900
2026-01-01 10:00:26.19	162.42	15.22	-52.3	-65.3	3.8	1.49e+00	0	43	104	0	76	15914
2026-01-01 10:00:27.19	162.42	15.33	-52.4	-65.3	3.8	1.49e+00	0	43	104	0	76	15897
2026-01-01 10:00:28.23	162.43	15.44	-52.3	-65.3	3.8	1.49e+00	0	43	104	0	76	15914
2026-01-01 10:00:29.24	162.44	15.55	-52.3	-65.4	3.8	1.49e+00	0	43	104	0	76	15944
2026-01-01 10:00:30.28	162.44	15.67	-52.3	-65.4	3.8	1.49e+00	0	43	104	0	76	15977
2026-01-01 10:00:31.31	162.45	15.78	-52.3	-65.3	3.8	1.49e+00	0	43	104	0	76	15836
2026-01-01 10:00:32.34	162.45	15.90	-52.3	-65.3	3.8	1.49e+00	0	43	104	0	76	15826
2026-01-01 10:00:33.40	162.46	16.02	-52.3	-65.3	3.8	1.49e+00	0	43	104	0	76	15784
2026-01-01 10:00:34.30	162.47	16.12	-52.4	-65.4	3.8	1.49e+00	0	43	104	0	76	15970
2026-01-01 10:00:35.52	162.47	16.25	-52.3	-65.3	3.8	1.49e+00	0	43	104	0	76	15935
2026-01-01 10:00:36.38	162.48	16.35	-52.3	-65.3	3.8	1.49e+00	0	43	104	0	76	15927
2026-01-01 10:00:37.69	162.49	16.50	-52.3	-65.3	3.8	1.49e+00	0	43	104	0	76	15862
2026-01-01 10:00:38.41	162.49	16.58	-52.3	-65.3	3.8	1.49e+00	0	43	104	0	76	15889
2026-01-01 10:00:39.70	162.50	16.73	-52.3	-65.3	3.8	1.49e+00	0	43	104	0	76	15867
2026-01-01 10:00:40.41	162.51	16.81	-52.3	-65.3	3.8	1.49e+00	0	43	104	0	76	15843
2026-01-01 10:00:41.71	162.51	16.96	-52.3	-65.3	3.8	1.49e+00	0	43	104	0	76	15833
2026-01-01 10:00:42.42	162.52	17.05	-52.3	-65.3	3.8	1.49e+00	0	43	104	0	76	15854
2026-01-01 10:00:43.72	162.53	17.20	-52.3	-65.3	3.8	1.49e+00	0	43	104	0	76	15888
2026-01-01 10:00:44.43	162.53	17.28	-52.3	-65.3	3.8	1.49e+00	0	43	104	0	76	15858
2026-01-01 10:00:45.72	162.54	17.43	-52.3	-65.3	3.8	1.49e+00	0	43	104	0	76	15824
2026-01-01 10:00:46.44	162.54	17.52	-52.4	-65.4	3.8	1.49e+00	0	43	104	0	76	16026
2026-01-01 10:00:47.81	162.55	17.68	-52.4	-65.4	3.8	1.49e+00	0	43	104	0	76	15992
2026-01-01 10:00:48.53	162.56	17.77	-52.4	-65.3	3.8	1.49e+00	0	43	104	0	76	15914
2026-01-01 10:00:49.88	162.57	17.93	-52.4	-65.3	3.8	1.49e+00	0	43	104	0	76	15897
2026-01-01 10:00:50.60	162.57	18.02	-52.3	-65.3	3.8	1.49e+00	0	43	104	0	76	15917
2026-01-01 10:00:51.89	162.58	18.18	-52.3	-65.3	3.8	1.49e+00	0	43	104	0	76	15904
2026-01-01 10:00:52.61	162.58	18.27	-52.3	-65.3	3.8	1.49e+00	0	43	104	0	76	15910
2026-01-01 10:00:53.90	162.59	18.42	-52.3	-65.3	3.8	1.49e+00	0	43	104	0	76	15877
2026-01-01 10:00:54.62	162.60	18.51	-52.3	-65.3	3.8	1.49e+00	0	43	104	0	76	15809
2026-01-01 10:00:55.91	162.61	18.67	-52.4	-65.3	3.8	1.49e+00	0	43	104	0	76	15889
2026-01-01 10:00:56.62	162.61	18.76	-52.3	-65.3	3.8	1.49e+00	0	43	104	0	76	15865
2026-01-01 10:00:57.92	162.62	18.93	-52.4	-65.4	3.8	1.49e+00	0	43	104	0	76	16009
2026-01-01 10:00:58.63	162.63	19.02	-52.3	-65.3	3.8	1.49e+00	0	43	104	0	76	15937
2026-01-01 10:00:59.92	162.63	19.18	-52.4	-65.3	3.8	1.49e+00	0	43	104	0	76	15921
2026-01-01 10:01:00.64	162.64	19.27	-52.4	-65.4	3.8	1.49e+00	0	43	104	0	76	15966
2026-01-01 10:01:01.93	162.65	19.44	-52.3	-65.3	3.8	1.49e+00	0	43	104	0	76	15918
2026-01-01 10:01:02.65	162.65	19.53	-52.3	-65.3	3.8	1.49e+00	0	43	104	0	76	15941
2026-01-01 10:01:03.94	162.66	19.70	-52.3	-65.3	3.8	1.49e+00	0	43	104	0	76	15933
2026-01-01 10:01:04.66	162.67	19.79	-52.3	-65.3	3.8	1.49e+00	0	43	104	0	76	15903
2026-01-01 10:01:05.95	162.68	19.96	-52.3	-65.4	3.8	1.49e+00	0	43	104	0	76	15953
2026-01-01 10:01:06.67	162.68	20.05	-52.3	-65.3	3.8	1.49e+00	0	43	104	0	76	15878
2026-01-01 10:01:07.96	162.69	20.22	-52.4	-65.4	3.8	1.49e+00	0	43	104	0	76	16039
2026-01-01 10:01:08.67	162.70	20.32	-52.4	-65.3	3.8	1.49e+00	0	43	104	0	76	15921
2026-01-01 10:01:09.97	162.71	20.49	-52.4	-65.4	3.8	1.49e+00	0	43	104	0	76	15953
2026-01-01 10:01:10.68	162.71	20.59	-52.4	-65.4	3.8	1.49e+00	0	44	104	0	76	15974
2026-01-01 10:01:11.98	162.72	20.76	-52.3	-65.3	3.8	1.49e+00	0	43	104	0	76	15883
2026-01-01 10:01:12.69	162.73	20.86	-52.3	-65.3	3.8	1.49e+00	0	44	104	0	76	15893
2026-01-01 10:01:13.99	162.74	21.04	-52.3	-65.3	3.8	1.49e+00	0	43	104	0	76	15921
2026-01-01 10:01:14.70	162.74	21.14	-52.3	-65.3	3.8	1.49e+00	0	43	104	0	76	15930
2026-01-01 10:01:15.99	162.75	21.31	-52.3	-65.3	3.8	1.49e+00	0	43	104	0	76	15914
2026-01-01 10:01:16.71	162.76	21.41	-52.3	-65.3	3.8	1.49e+00	0	43	104	0	76	15900
2026-01-01 10:01:18.00	162.77	21.59	-52.3	-65.3	3.8	1.49e+00	0	43	104	0	76	15841
2026-01-01 10:01:18.72	162.77	21.70	-52.3	-65.3	3.8	1.49e+00	0	43	104	0	76	15898
2026-01-01 10:01:20.01	162.78	21.88	-52.4	-65.4	3.8	1.49e+00	0	43	104	0	76	15980
2026-01-01 10:01:20.73	162.79	21.98	-52.3	-65.3	3.8	1.49e+00	0	43	104	0	76	15922
2026-01-01 10:01:22.02	162.80	22.16	-52.4	-65.4	3.8	1.49e+00	0	43	104	0	76	15986
2026-01-01 10:01:22.74	162.80	22.27	-52.4	-65.3	3.8	1.49e+00	0	43	104	0	76	15935
2026-01-01 10:01:24.03	162.81	22.45	-52.3	-65.3	3.8	1.49e+00	0	43	104	0	76	15845
2026-01-01 10:01:24.75	162.82	22.56	-52.3	-65.4	3.8	1.49e+00	0	43	104	0	76	15945
2026-01-01 10:01:26.04	162.83	22.75	-52.3	-65.3	3.8	1.49e+00	0	43	104	0	76	15816
2026-01-01 10:01:26.76	162.83	22.85	-52.3	-65.3	3.8	1.49e+00	0	43	104	0	76	15930
2026-01-01 10:01:28.05	162.85	23.04	-52.3	-65.3	3.8	1.49e+00	0	44	104	0	76	15823
2026-01-01 10:01:28.77	162.85	23.15	-52.3	-65.3	3.8	1.49e+00	0	43	104	0	76	15902
2026-01-01 10:01:30.06	162.86	23.34	-52.3	-65.3	3.8	1.49e+00	0	43	104	0	76	15871
2026-01-01 10:01:30.77	162.87	23.45	-52.3	-65.3	3.8	1.49e+00	0	43	104	0	76	15824
2026-01-01 10:01:32.07	162.88	23.65	-52.3	-65.3	3.8	1.49e+00	0	43	104	0	76	15936
2026-01-01 10:01:32.78	162.88	23.76	-52.4	-65.4	3.8	1.49e+00	0	43	104	0	76	15961
2026-01-01 10:01:34.07	162.89	23.95	-52.4	-65.4	3.8	1.49e+00	0	43	104	0	76	15950
2026-01-01 10:01:34.79	162.90	24.06	-52.3	-65.3	3.8	1.49e+00	0	43	104	0	76	15905
2026-01-01 10:01:36.08	162.91	24.26	-52.3	-65.3	3.8	1.49e+00	0	43	104	0	76	15871
2026-01-01 10:01:36.80	162.92	24.38	-52.3	-65.3	3.8	1.49e+00	0	43	104	0	76	15866
2026-01-01 10:01:38.09	162.93	24.58	-52.3	-65.3	3.8	1.49e+00	0	44	104	0	76	15828
2026-01-01 10:01:38.81	162.94	24.69	-52.3	-65.3	3.8	1.49e+00	0	43	104	0	76	15879
2026-01-01 10:01:40.10	162.95	24.90	-52.3	-65.3	3.8	1.49e+00	0	43	104	0	76	15809
2026-01-01 10:01:40.82	162.95	25.01	-52.3	-65.3	3.8	1.49e+00	0	43	104	0	76	15816
2026-01-01 10:01:42.11	162.96	25.22	-52.3	-65.3	3.8	1.49e+00	0	44	104	0	76	15920
2026-01-01 10:01:42.82	162.97	25.33	-52.3	-65.4	3.8	1.49e+00	0	43	104	0	76	15953
2026-01-01 10:01:44.12	162.98	25.55	-52.3	-65.3	3.8	1.49e+00	0	43	104	0	76	15864
2026-01-01 10:01:44.83	162.99	25.66	-52.3	-65.3	3.8	1.49e+00	0	43	104	0	76	15835
2026-01-01 10:01:46.12	163.00	25.88	-52.3	-65.3	3.8	1.49e+00	0	43	104	0	76	15862
2026-01-01 10:01:46.84	163.01	25.99	-52.3	-65.3	3.8	1.49e+00	0	44	104	0	76	15840
2026-01-01 10:01:48.13	163.02	26.21	-52.3	-65.3	3.8	1.49e+00	0	44	104	0	76	15824
2026-01-01 10:01:48.85	163.02	26.33	-52.3	-65.3	3.8	1.49e+00	0	44	104	0	76	15819
2026-01-01 10:01:50.14	163.04	26.55	-52.3	-65.3	3.8	1.49e+00	0	44	104	0	76	15768
2026-01-01 10:01:50.86	163.04	26.67	-52.3	-65.3	3.8	1.49e+00	0	44	104	0	76	15823
2026-01-01 10:01:52.15	163.06	26.89	-52.3	-65.3	3.8	1.49e+00	0	43	104	0	76	15845
2026-01-01 10:01:52.87	163.06	27.02	-52.3	-65.3	3.8	1.49e+00	0	43	104	0	76	15836
2026-01-01 10:01:54.16	163.08	27.24	-52.3	-65.2	3.8	1.49e+00	0	44	104	0	76	15750
2026-01-01 10:01:54.87	163.08	27.36	-52.2	-65.2	3.8	1.49e+00	0	44	104	0	76	15742
2026-01-01 10:01:56.17	163.09	27.59	-52.3	-65.4	3.8	1.49e+00	0	43	104	0	76	15953
2026-01-01 10:01:56.88	163.10	27.72	-52.3	-65.3	3.8	1.49e+00	0	43	104	0	76	15865
2026-01-01 10:01:58.18	163.11	27.95	-52.3	-65.3	3.8	1.49e+00	0	44	104	0	76	15821
2026-01-01 10:01:58.89	163.12	28.07	-52.3	-65.3	3.8	1.49e+00	0	43	104	0	76	15815
2026-01-01 10:02:00.18	163.13	28.31	-52.3	-65.3	3.8	1.49e+00	0	44	104	0	76	15795
2026-01-01 10:02:00.90	163.14	28.44	-52.3	-65.3	3.8	1.49e+00	0	44	104	0	76	15870
2026-01-01 10:02:02.19	163.15	28.67	-52.3	-65.3	3.8	1.49e+00	0	44	104	0	76	15939
2026-01-01 10:02:03.00	163.16	28.82	-52.3	-65.3	3.8	1.49e+00	0	44	104	0	76	15871
2026-01-01 10:02:04.15	163.17	29.03	-52.3	-65.3	3.8	1.49e+00	0	43	104	0	76	15895
2026-01-01 10:02:05.01	163.18	29.19	-52.3	-65.3	3.8	1.49e+00	0	44	104	0	76	15815
2026-01-01 10:02:06.15	163.20	29.41	-52.3	-65.3	3.8	1.49e+00	0	43	104	0	76	15854
2026-01-01 10:02:07.02	163.21	29.57	-52.3	-65.3	3.8	1.49e+00	0	43	104	0	76	15907
2026-01-01 10:02:08.16	163.22	29.79	-52.4	-65.3	3.8	1.49e+00	0	44	104	0	76	15934
2026-01-01 10:02:09.02	163.23	29.95	-52.3	-65.3	3.8	1.49e+00	0	44	104	0	76	15880
2026-01-01 10:02:10.17	163.24	30.17	-52.3	-65.3	3.8	1.49e+00	0	43	104	0	76	15922
2026-01-01 10:02:11.03	163.25	30.34	-52.3	-65.3	3.8	1.49e+00	0	44	104	0	76	15844
2026-01-01 10:02:12.18	163.26	30.56	-52.3	-65.3	3.8	1.49e+00	0	44	104	0	76	15838
2026-01-01 10:02:13.04	163.27	30.73	-52.3	-65.3	3.8	1.49e+00	0	44	104	0	76	15887
2026-01-01 10:02:14.19	163.28	30.96	-52.3	-65.3	3.8	1.49e+00	0	44	104	0	76	15828
2026-01-01 10:02:15.05	163.29	31.13	-52.3	-65.3	3.8	1.49e+00	0	43	104	0	76	15850
2026-01-01 10:02:16.20	163.31	31.36	-52.3	-65.3	3.8	1.49e+00	0	44	104	0	76	15851
2026-01-01 10:02:17.15	163.32	31.55	-52.3	-65.3	3.8	1.49e+00	0	43	104	0	76	15806
2026-01-01 10:02:18.16	163.33	31.76	-52.3	-65.3	3.8	1.49e+00	0	44	104	0	76	15841
2026-01-01 10:02:19.16	163.34	31.96	-52.3	-65.3	3.8	1.49e+00	0	44	104	0	76	15844
2026-01-01 10:02:20.17	163.35	32.17	-52.3	-65.3	3.8	1.49e+00	0	44	104	0	76	15815
2026-01-01 10:02:21.17	163.37	32.38	-52.3	-65.3	3.8	1.49e+00	0	43	104	0	76	15882
2026-01-01 10:02:22.18	163.38	32.59	-52.3	-65.3	3.8	1.49e+00	0	43	104	0	76	15832
2026-01-01 10:02:23.18	163.39	32.80	-52.3	-65.3	3.8	1.49e+00	0	43	104	0	76	15857
2026-01-01 10:02:24.18	163.40	33.01	-52.3	-65.3	3.8	1.49e+00	0	44	104	0	76	15877
2026-01-01 10:02:25.19	163.41	33.23	-52.3	-65.3	3.8	1.49e+00	0	44	104	0	76	15794
2026-01-01 10:02:26.64	163.43	33.54	-52.3	-65.3	3.8	1.49e+00	0	43	104	0	76	15816
2026-01-01 10:02:27.36	163.44	33.70	-52.3	-65.3	3.8	1.49e+00	0	43	104	0	76	15883
2026-01-01 10:02:28.65	163.46	33.98	-52.3	-65.3	3.8	1.49e+00	0	44	104	0	76	15779
2026-01-01 10:02:29.37	163.47	34.14	-52.3	-65.3	3.8	1.49e+00	0	43	104	0	76	15872
2026-01-01 10:02:30.66	163.49	34.42	-52.3	-65.3	3.8	1.49e+00	0	44	104	0	76	15927
2026-01-01 10:02:31.38	163.50	34.58	-52.3	-65.3	3.8	1.49e+00	0	44	104	0	76	15879
2026-01-01 10:02:32.67	163.51	34.87	-52.3	-65.3	3.8	1.49e+00	0	44	104	0	76	15890
2026-01-01 10:02:33.40	163.52	35.04	-52.3	-65.3	3.8	1.49e+00	0	44	104	0	76	15852
2026-01-01 10:02:34.74	163.54	35.34	-52.4	-65.4	3.8	1.49e+00	0	44	104	0	76	16022
2026-01-01 10:02:35.46	163.55	35.51	-52.4	-65.4	3.8	1.49e+00	0	44	104	0	76	15967
2026-01-01 10:02:36.81	163.57	35.82	-52.3	-65.3	3.8	1.49e+00	0	44	104	0	76	15912
2026-01-01 10:02:37.53	163.58	35.99	-52.3	-65.3	3.8	1.49e+00	0	44	104	0	76	15917
2026-01-01 10:02:38.88	163.60	36.31	-52.3	-65.3	3.8	1.49e+00	0	44	104	0	76	15913
2026-01-01 10:02:39.60	163.61	36.48	-52.3	-65.3	3.8	1.49e+00	0	44	104	0	76	15878
2026-01-01 10:02:40.89	163.63	36.79	-52.3	-65.3	3.8	1.49e+00	0	44	104	0	76	15910
2026-01-01 10:02:41.61	163.64	36.96	-52.3	-65.3	3.8	1.49e+00	0	44	104	0	76	15841
2026-01-01 10:02:42.90	163.66	37.27	-52.3	-65.3	3.8	1.49e+00	0	44	104	0	76	15897
2026-01-01 10:02:43.62	163.67	37.45	-52.3	-65.3	3.8	1.49e+00	0	44	104	0	76	15861
2026-01-01 10:02:44.91	163.69	37.76	-52.3	-65.3	3.8	1.49e+00	0	44	104	0	76	15829
2026-01-01 10:02:45.63	163.70	37.94	-52.3	-65.3	3.8	1.49e+00	0	44	104	0	76	15849
2026-01-01 10:02:46.92	163.72	38.26	-52.4	-65.3	3.8	1.49e+00	0	43	104	0	76	15912
2026-01-01 10:02:47.64	163.73	38.45	-52.4	-65.4	3.8	1.49e+00	0	43	104	0	76	15975
2026-01-01 10:02:48.93	163.75	38.77	-52.4	-65.4	3.8	1.49e+00	0	43	104	0	76	15971
2026-01-01 10:02:49.64	163.77	38.95	-52.3	-65.3	3.8	1.49e+00	0	43	104	0	76	15907
2026-01-01 10:02:50.93	163.79	39.28	-52.4	-65.4	3.8	1.49e+00	0	44	104	0	76	16031
2026-01-01 10:02:51.65	163.80	39.47	-52.4	-65.4	3.8	1.49e+00	0	44	104	0	76	15988
2026-01-01 10:02:52.94	163.82	39.81	-52.4	-65.4	3.8	1.49e+00	0	44	104	0	76	15967
2026-01-01 10:02:53.66	163.83	40.00	-52.4	-65.4	3.8	1.49e+00	0	44	104	0	76	15956
2026-01-01 10:02:54.95	163.86	40.34	-52.4	-65.4	3.8	1.49e+00	0	44	104	0	76	15948
2026-01-01 10:02:55.67	163.87	40.53	-52.4	-65.3	3.8	1.49e+00	0	44	104	0	76	15917
2026-01-01 10:02:56.96	163.89	40.88	-52.3	-65.3	3.8	1.49e+00	0	44	104	0	76	15911
2026-01-01 10:02:57.68	163.91	41.07	-52.4	-65.4	3.8	1.49e+00	0	44	104	0	76	15950
2026-01-01 10:02:58.97	163.93	41.42	-52.4	-65.3	3.8	1.49e+00	0	44	104	0	76	15931
2026-01-01 10:02:59.69	163.94	41.62	-52.4	-65.3	3.8	1.49e+00	0	44	104	0	76	15918
2026-01-01 10:03:00.98	163.97	41.98	-52.4	-65.4	3.8	1.49e+00	0	44	104	0	76	16046
2026-01-01 10:03:01.69	163.98	42.18	-52.3	-65.3	3.8	1.49e+00	0	44	104	0	76	15877
2026-01-01 10:03:02.98	164.01	42.54	-52.3	-65.3	3.8	1.49e+00	0	44	104	0	76	15847
2026-01-01 10:03:03.70	164.02	42.74	-52.3	-65.3	3.8	1.49e+00	0	44	104	0	76	15901
2026-01-01 10:03:04.99	164.05	43.11	-52.3	-65.3	3.8	1.49e+00	0	44	104	0	76	15792
2026-01-01 10:03:05.71	164.06	43.32	-52.3	-65.3	3.8	1.49e+00	0	44	104	0	76	15825
2026-01-01 10:03:07.00	164.09	43.69	-52.3	-65.3	3.8	1.49e+00	0	44	104	0	76	15902
2026-01-01 10:03:07.72	164.10	43.90	-52.4	-65.4	3.8	1.49e+00	0	44	104	0	76	15949
2026-01-01 10:03:09.01	164.13	44.28	-52.4	-65.3	3.8	1.49e+00	0	44	104	0	76	15926
2026-01-01 10:03:09.73	164.15	44.50	-52.3	-65.3	3.8	1.49e+00	0	44	104	0	76	15835
2026-01-01 10:03:11.02	164.18	44.88	-52.4	-65.4	3.8	1.49e+00	0	44	104	0	76	15977
2026-01-01 10:03:11.74	164.19	45.10	-52.3	-65.3	3.8	1.49e+00	0	44	104	0	76	15886
2026-01-01 10:03:13.03	164.22	45.49	-52.4	-65.4	3.8	1.49e+00	0	44	104	0	76	16059
2026-01-01 10:03:13.75	164.24	45.71	-52.4	-65.4	3.8	1.49e+00	0	44	104	0	76	15960
2026-01-01 10:03:15.04	164.27	46.11	-52.4	-65.4	3.8	1.49e+00	0	44	104	0	76	15948
2026-01-01 10:03:15.76	164.29	46.33	-52.4	-65.4	3.8	1.49e+00	0	44	104	0	76	15955
2026-01-01 10:03:17.05	164.32	46.74	-52.3	-65.3	3.8	1.49e+00	0	44	104	0	76	15844
2026-01-01 10:03:17.77	164.34	46.96	-52.4	-65.3	3.8	1.49e+00	0	44	104	0	76	15942
2026-01-01 10:03:19.06	164.37	47.37	-52.3	-65.3	3.8	1.49e+00	0	44	104	0	76	15884
2026-01-01 10:03:19.77	164.39	47.60	-52.4	-65.4	3.8	1.49e+00	0	44	104	0	76	15969
2026-01-01 10:03:21.06	164.42	48.01	-52.4	-65.3	3.8	1.49e+00	0	44	104	0	76	15933
2026-01-01 10:03:21.78	164.44	48.25	-52.3	-65.3	3.8	1.49e+00	0	44	104	0	76	15876
2026-01-01 10:03:23.07	164.48	48.67	-52.3	-65.3	3.8	1.49e+00	0	44	104	0	76	15875
2026-01-01 10:03:23.79	164.50	48.91	-52.3	-65.3	3.8	1.49e+00	0	44	104	0	76	15875
2026-01-01 10:03:25.08	164.53	49.34	-52.4	-65.4	3.8	1.49e+00	0	44	104	0	76	15951
2026-01-01 10:03:25.80	164.55	49.58	-52.4	-65.4	3.8	1.49e+00	0	44	104	0	76	15946
2026-01-01 10:03:27.09	164.59	50.01	-52.4	-65.4	3.8	1.49e+00	0	44	104	0	76	15982
2026-01-01 10:03:27.81	164.61	50.26	-52.3	-65.3	3.8	1.49e+00	0	44	104	0	76	15869
2026-01-01 10:03:29.10	164.65	50.70	-52.3	-65.3	3.8	1.49e+00	0	44	104	0	76	15891
2026-01-01 10:03:29.82	164.67	50.95	-52.3	-65.3	3.8	1.49e+00	0	44	104	0	76	15835
2026-01-01 10:03:31.11	164.72	51.39	-52.3	-65.3	3.8	1.49e+00	0	43	104	0	76	15883
2026-01-01 10:03:31.82	164.74	51.64	-52.3	-65.3	3.8	1.49e+00	0	44	104	0	76	15879
2026-01-01 10:03:33.11	164.78	52.10	-52.3	-65.4	3.8	1.49e+00	0	44	104	0	76	15967
2026-01-01 10:03:33.83	164.81	52.35	-52.3	-65.3	3.8	1.49e+00	0	44	104	0	76	15840
2026-01-01 10:03:35.12	164.85	52.81	-52.3	-65.3	3.8	1.49e+00	0	44	104	0	76	15882
2026-01-01 10:03:35.84	164.88	53.07	-52.3	-65.3	3.8	1.49e+00	0	44	104	0	76	15827
2026-01-01 10:03:37.13	164.92	53.54	-52.3	-65.3	3.8	1.49e+00	0	44	104	0	76	15927
2026-01-01 10:03:37.85	164.95	53.80	-52.3	-65.3	3.8	1.49e+00	0	44	104	0	76	15799
2026-01-01 10:03:39.14	165.00	54.28	-52.3	-65.3	3.8	1.49e+00	0	44	104	0	76	15892
2026-01-01 10:03:39.86	165.03	54.54	-52.4	-65.4	3.8	1.49e+00	0	44	104	0	76	16036
2026-01-01 10:03:41.15	165.08	55.03	-52.3	-65.3	3.8	1.49e+00	0	44	104	0	76	15912
2026-01-01 10:03:41.87	165.11	55.30	-52.3	-65.3	3.8	1.49e+00	0	44	104	0	76	15895
2026-01-01 10:03:43.16	165.16	55.79	-52.3	-65.3	3.8	1.49e+00	0	44	104	0	76	15922
2026-01-01 10:03:43.87	165.19	56.06	-52.4	-65.3	3.8	1.49e+00	0	44	104	0	76	15927
2026-01-01 10:03:45.16	165.25	56.55	-52.3	-65.3	3.8	1.49e+00	0	44	104	0	76	15941
2026-01-01 10:03:45.88	165.28	56.83	-52.3	-65.3	3.8	1.49e+00	0	44	104	0	76	15922
2026-01-01 10:03:47.17	165.34	57.33	-52.3	-65.3	3.8	1.49e+00	0	44	104	0	76	15842
2026-01-01 10:03:47.89	165.38	57.61	-52.3	-65.3	3.8	1.49e+00	0	44	104	0	76	15915
2026-01-01 10:03:49.18	165.44	58.12	-52.3	-65.3	3.8	1.49e+00	0	44	104	0	76	15858
2026-01-01 10:03:49.90	165.48	58.41	-52.3	-65.3	3.8	1.49e+00	0	44	104	0	76	15822
2026-01-01 10:03:51.19	165.55	58.92	-52.4	-65.4	3.8	1.49e+00	0	44	104	0	76	15992
2026-01-01 10:03:52.02	165.59	59.26	-52.3	-65.3	3.8	1.49e+00	0	44	104	0	76	15847
2026-01-01 10:03:53.17	165.65	59.72	-52.3	-65.3	3.8	1.49e+00	0	44	104	0	76	15912
2026-01-01 10:03:54.03	165.70	60.07	-52.3	-65.3	3.8	1.49e+00	0	44	104	0	76	15859
2026-01-01 10:03:55.18	165.77	60.55	-52.3	-65.3	3.8	1.49e+00	0	44	104	0	76	15832
2026-01-01 10:03:56.04	165.82	60.90	-52.3	-65.3	3.8	1.49e+00	0	44	104	0	76	15938
2026-01-01 10:03:57.18	165.89	61.38	-52.3	-65.3	3.8	1.49e+00	0	44	104	0	76	15887
2026-01-01 10:03:58.05	165.95	61.74	-52.3	-65.3	3.8	1.49e+00	0	44	104	0	76	15811
2026-01-01 10:03:59.19	166.02	62.22	-52.3	-65.3	3.8	1.49e+00	0	44	104	0	76	15839
2026-01-01 10:04:00.13	166.09	62.62	-52.3	-65.3	3.8	1.49e+00	0	44	104	0	76	15892
2026-01-01 10:04:01.14	166.16	63.05	-52.3	-65.3	3.8	1.49e+00	0	44	104	0	76	15827
2026-01-01 10:04:02.14	166.23	63.48	-52.3	-65.3	3.8	1.49e+00	0	44	104	0	76	15882
2026-01-01 10:04:03.15	166.31	63.91	-52.3	-65.3	3.8	1.49e+00	0	44	104	0	76	15837
2026-01-01 10:04:04.15	166.39	64.35	-52.3	-65.3	3.8	1.49e+00	0	44	104	0	76	15875
2026-01-01 10:04:05.16	166.47	64.79	-52.3	-65.3	3.8	1.49e+00	0	44	104	0	76	15882
2026-01-01 10:04:06.16	166.56	65.22	-52.4	-65.3	3.8	1.49e+00	0	44	104	0	76	15879
2026-01-01 10:04:07.17	166.65	65.67	-52.3	-65.3	3.8	1.49e+00	0	44	104	0	76	15818
2026-01-01 10:04:08.17	166.74	66.11	-52.3	-65.3	3.8	1.49e+00	0	44	104	0	76	15824
2026-01-01 10:04:09.17	166.83	66.56	-52.3	-65.3	3.8	1.49e+00	0	44	104	0	76	15811
2026-01-01 10:04:10.18	166.93	67.01	-52.3	-65.3	3.8	1.49e+00	0	44	104	0	76	15870
2026-01-01 10:04:11.18	167.04	67.46	-52.3	-65.3	3.8	1.49e+00	0	44	104	0	76	15875
2026-01-01 10:04:12.19	167.15	67.92	-52.3	-65.3	3.8	1.49e+00	0	44	104	0	76	15813
2026-01-01 10:04:13.19	167.26	68.38	-52.3	-65.3	3.8	1.49e+00	0	44	104	0	76	15790
2026-01-01 10:04:14.32	167.39	68.89	-52.3	-65.3	3.8	1.49e+00	0	44	104	0	76	15790
2026-01-01 10:04:15.20	167.50	69.30	-52.3	-65.3	3.8	1.49e+00	0	44	104	0	76	15765
2026-01-01 10:04:16.54	167.68	69.92	-52.4	-65.3	3.8	1.49e+00	0	44	104	0	76	15860
2026-01-01 10:04:17.26	167.77	70.25	-52.3	-65.3	3.8	1.49e+00	0	44	104	0	76	15921
2026-01-01 10:04:18.74	167.99	70.94	-52.3	-65.3	3.8	1.49e+00	0	44	104	0	76	15825
2026-01-01 10:04:19.46	168.10	71.28	-52.3	-65.3	3.8	1.49e+00	0	44	104	0	76	15863
2026-01-01 10:04:20.75	168.31	71.89	-52.3	-65.3	3.8	1.49e+00	0	44	104	0	76	15816
2026-01-01 10:04:21.47	168.43	72.23	-52.3	-65.3	3.8	1.49e+00	0	44	104	0	76	15911
2026-01-01 10:04:22.76	168.66	72.84	-52.3	-65.3	3.8	1.49e+00	0	43	104	0	76	15876
2026-01-01 10:04:23.48	168.80	73.18	-52.3	-65.3	3.8	1.49e+00	0	44	104	0	76	15916
2026-01-01 10:04:24.77	169.06	73.80	-52.3	-65.3	3.8	1.49e+00	0	44	104	0	76	15914
2026-01-01 10:04:25.48	169.21	74.14	-52.4	-65.5	3.8	1.49e+00	0	44	104	0	76	16133
2026-01-01 10:04:26.78	169.51	74.77	-52.3	-65.3	3.8	1.49e+00	0	44	104	0	76	15943
2026-01-01 10:04:27.49	169.68	75.11	-52.4	-65.3	3.8	1.49e+00	0	44	104	0	76	15882
2026-01-01 10:04:28.78	170.02	75.74	-52.4	-65.3	3.8	1.49e+00	0	44	104	0	76	15900
2026-01-01 10:04:29.50	170.22	76.09	-52.4	-65.4	3.8	1.49e+00	0	44	104	0	76	15974
2026-01-01 10:04:30.79	170.61	76.72	-52.4	-65.4	3.8	1.49e+00	0	44	104	0	76	15993
2026-01-01 10:04:31.51	170.84	77.07	-52.4	-65.3	3.8	1.49e+00	0	44	104	0	76	15935
2026-01-01 10:04:32.87	171.32	77.74	-52.4	-65.3	3.8	1.49e+00	0	44	104	0	76	15928
2026-01-01 10:04:33.58	171.59	78.09	-52.3	-65.3	3.8	1.49e+00	0	44	104	0	76	15829
2026-01-01 10:04:34.88	172.13	78.73	-52.3	-65.3	3.8	1.49e+00	0	44	104	0	76	15891
2026-01-01 10:04:35.59	172.45	79.08	-52.3	-65.3	3.8	1.49e+00	0	44	104	0	76	15939
2026-01-01 10:04:36.88	173.09	79.71	-52.3	-65.3	3.8	1.49e+00	0	44	104	0	76	15864
2026-01-01 10:04:37.60	173.49	80.07	-52.4	-65.4	3.8	1.49e+00	0	44	104	0	76	16011
2026-01-01 10:04:38.89	174.27	80.70	-52.4	-65.4	3.8	1.49e+00	0	44	104	0	76	15950
2026-01-01 10:04:39.61	174.76	81.06	-52.4	-65.4	3.8	1.49e+00	0	44	104	0	76	15951
2026-01-01 10:04:40.90	175.74	81.70	-52.3	-65.3	3.8	1.49e+00	0	44	104	0	76	15927
2026-01-01 10:04:41.62	176.35	82.05	-52.3	-65.3	3.8	1.49e+00	0	44	104	0	76	15891
2026-01-01 10:04:42.91	177.60	82.69	-52.3	-65.3	3.8	1.49e+00	0	44	104	0	76	15879
2026-01-01 10:04:43.63	178.40	83.04	-52.3	-65.3	3.8	1.49e+00	0	44	104	0	76	15930
2026-01-01 10:04:44.92	180.05	83.67	-52.3	-65.3	3.8	1.49e+00	0	44	104	0	76	15808
2026-01-01 10:04:45.63	181.11	84.02	-52.4	-65.4	3.8	1.49e+00	0	44	104	0	76	15988
2026-01-01 10:04:46.93	183.40	84.64	-52.4	-65.3	3.8	1.49e+00	0	44	104	0	76	15931
2026-01-01 10:04:47.65	184.91	84.99	-52.3	-65.3	3.8	1.49e+00	0	44	104	0	76	15853
2026-01-01 10:04:48.94	188.21	85.59	-52.4	-65.3	3.8	1.49e+00	0	44	104	0	76	15917
2026-01-01 10:04:49.65	190.44	85.92	-52.3	-65.3	3.8	1.49e+00	0	44	104	0	76	15911
2026-01-01 10:04:50.95	195.58	86.49	-52.3	-65.3	3.8	1.49e+00	0	44	104	0	76	15854
2026-01-01 10:04:51.66	199.15	86.79	-52.3	-65.3	3.8	1.49e+00	0	44	104	0	76	15891
2026-01-01 10:04:52.96	207.67	87.30	-52.4	-65.4	3.8	1.49e+00	0	44	104	0	76	16009
2026-01-01 10:04:53.67	213.74	87.54	-52.4	-65.4	3.8	1.49e+00	0	44	104	0	76	16026
2026-01-01 10:04:54.96	228.01	87.90	-52.3	-65.4	3.8	1.49e+00	0	44	104	0	76	15969
2026-01-01 10:04:55.68	237.84	88.02	-52.4	-65.4	3.8	1.49e+00	0	44	104	0	76	16019
2026-01-01 10:04:56.97	257.40	88.08	-52.4	-65.4	3.8	1.49e+00	0	44	104	0	76	15964
2026-01-01 10:04:57.69	268.13	88.01	-52.4	-65.4	3.8	1.49e+00	0	44	104	0	76	15949
2026-01-01 10:04:58.98	284.60	87.74	-52.3	-65.3	3.8	1.49e+00	0	44	104	0	76	15848
2026-01-01 10:04:59.70	291.90	87.52	-52.3	-65.3	3.8	1.49e+00	0	44	104	0	76	15887
2026-01-01 10:05:00.99	301.97	87.06	-52.3	-65.3	3.8	1.49e+00	0	44	104	0	76	15925
2026-01-01 10:05:01.71	306.25	86.77	-52.4	-65.4	3.8	1.49e+00	0	44	104	0	76	15959
2026-01-01 10:05:03.00	312.22	86.21	-52.3	-65.3	3.8	1.49e+00	0	44	104	0	76	15931
2026-01-01 10:05:03.71	314.79	85.89	-52.3	-65.3	3.8	1.49e+00	0	44	104	0	76	15931
2026-01-01 10:05:05.01	318.60	85.29	-52.4	-65.3	3.8	1.49e+00	0	44	104	0	76	15925
2026-01-01 10:05:05.73	320.31	84.95	-52.4	-65.3	3.8	1.49e+00	0	44	104	0	76	15930
2026-01-01 10:05:07.02	322.85	84.34	-52.3	-65.4	3.8	1.49e+00	0	44	104	0	76	15945
2026-01-01 10:05:07.73	324.03	83.99	-52.3	-65.3	3.8	1.49e+00	0	44	104	0	76	15864
2026-01-01 10:05:09.03	325.87	83.36	-52.3	-65.3	3.8	1.49e+00	0	44	104	0	76	15886
2026-01-01 10:05:09.74	326.73	83.01	-52.3	-65.3	3.8	1.49e+00	0	44	104	0	76	15898
2026-01-01 10:05:11.04	328.10	82.38	-52.4	-65.3	3.8	1.49e+00	0	44	104	0	76	15943
2026-01-01 10:05:11.75	328.76	82.03	-52.3	-65.3	3.8	1.49e+00	0	44	104	0	76	15862
2026-01-01 10:05:13.04	329.81	81.39	-52.4	-65.3	3.8	1.49e+00	0	44	104	0	76	15918
2026-01-01 10:05:13.76	330.34	81.03	-52.3	-65.3	3.8	1.49e+00	0	44	104	0	76	15847
2026-01-01 10:05:15.05	331.18	80.40	-52.3	-65.3	3.8	1.49e+00	0	44	104	0	76	15909
2026-01-01 10:05:15.77	331.60	80.04	-52.3	-65.4	3.8	1.49e+00	0	44	104	0	76	15977
2026-01-01 10:05:17.06	332.28	79.41	-52.4	-65.4	3.8	1.49e+00	0	44	104	0	76	15953
2026-01-01 10:05:17.78	332.63	79.05	-52.3	-65.3	3.8	1.49e+00	0	44	104	0	76	15927
2026-01-01 10:05:19.07	333.20	78.42	-52.3	-65.3	3.8	1.49e+00	0	44	104	0	76	15831
2026-01-01 10:05:19.79	333.49	78.06	-52.3	-65.3	3.8	1.49e+00	0	44	104	0	76	15851
2026-01-01 10:05:21.08	333.97	77.43	-52.3	-65.3	3.8	1.49e+00	0	44	104	0	76	15913
2026-01-01 10:05:21.79	334.21	77.08	-52.3	-65.3	3.8	1.49e+00	0	44	104	0	76	15838
2026-01-01 10:05:23.09	334.62	76.45	-52.3	-65.3	3.8	1.49e+00	0	44	104	0	76	15888
2026-01-01 10:05:23.80	334.83	76.10	-52.3	-65.3	3.8	1.49e+00	0	44	104	0	76	15934
2026-01-01 10:05:25.09	335.19	75.48	-52.3	-65.3	3.8	1.49e+00	0	44	104	0	76	15899
2026-01-01 10:05:25.81	335.37	75.13	-52.3	-65.3	3.8	1.49e+00	0	44	104	0	76	15853
2026-01-01 10:05:27.10	335.68	74.51	-52.3	-65.3	3.8	1.49e+00	0	44	104	0	76	15851
2026-01-01 10:05:27.82	335.84	74.16	-52.3	-65.3	3.8	1.49e+00	0	44	104	0	76	15888
2026-01-01 10:05:29.11	336.11	73.54	-52.3	-65.3	3.8	1.49e+00	0	44	104	0	76	15848
2026-01-01 10:05:29.83	336.26	73.20	-52.3	-65.3	3.8	1.49e+00	0	44	104	0	76	15859
2026-01-01 10:05:31.12	336.50	72.59	-52.3	-65.4	3.8	1.49e+00	0	44	104	0	76	15951
2026-01-01 10:05:31.84	336.63	72.25	-52.3	-65.3	3.8	1.49e+00	0	44	104	0	76	15904
2026-01-01 10:05:33.13	336.84	71.64	-52.3	-65.4	3.8	1.49e+00	0	44	104	0	76	15963
2026-01-01 10:05:33.85	336.96	71.30	-52.4	-65.4	3.8	1.49e+00	0	44	104	0	76	15972
2026-01-01 10:05:35.14	337.15	70.70	-52.3	-65.3	3.8	1.49e+00	0	44	104	0	76	15923
2026-01-01 10:05:35.86	337.25	70.36	-52.3	-65.3	3.8	1.49e+00	0	44	104	0	76	15888
2026-01-01 10:05:37.15	337.43	69.76	-52.3	-65.3	3.8	1.49e+00	0	44	104	0	76	15881
2026-01-01 10:05:37.87	337.52	69.43	-52.3	-65.3	3.8	1.49e+00	0	44	104	0	76	15902
2026-01-01 10:05:39.16	337.68	68.84	-52.3	-65.3	3.8	1.49e+00	0	44	104	0	76	15887
2026-01-01 10:05:39.88	337.77	68.51	-52.3	-65.3	3.8	1.49e+00	0	44	104	0	76	15824
2026-01-01 10:05:41.17	337.92	67.93	-52.3	-65.3	3.8	1.49e+00	0	44	104	0	76	15869
2026-01-01 10:05:41.89	337.99	67.60	-52.4	-65.3	3.8	1.49e+00	0	44	104	0	76	15907
2026-01-01 10:05:43.18	338.13	67.02	-52.3	-65.3	3.8	1.49e+00	0	44	104	0	76	15908
2026-01-01 10:05:43.89	338.20	66.70	-52.3	-65.3	3.8	1.49e+00	0	44	104	0	76	15840
2026-01-01 10:05:45.19	338.32	66.12	-52.3	-65.3	3.8	1.49e+00	0	44	104	0	76	15866
2026-01-01 10:05:45.90	338.39	65.81	-52.3	-65.4	3.8	1.49e+00	0	44	104	0	76	15978
2026-01-01 10:05:47.20	338.50	65.24	-52.3	-65.3	3.8	1.49e+00	0	44	104	0	76	15939
2026-01-01 10:05:47.91	338.56	64.93	-52.3	-65.3	3.8	1.49e+00	0	44	104	0	76	15836
2026-01-01 10:05:49.20	338.67	64.37	-52.3	-65.3	3.8	1.49e+00	0	44	104	0	76	15800
2026-01-01 10:05:49.97	338.73	64.03	-52.3	-65.3	3.8	1.49e+00	0	44	104	0	76	15801
2026-01-01 10:05:51.26	338.83	63.48	-52.3	-65.3	3.8	1.49e+00	0	44	104	0	76	15826
2026-01-01 10:05:52.03	338.89	63.15	-52.3	-65.3	3.8	1.49e+00	0	44	104	0	76	15806
2026-01-01 10:05:53.32	338.98	62.60	-52.4	-65.3	3.8	1.49e+00	0	44	104	0	76	15939
2026-01-01 10:05:54.15	339.04	62.25	-52.3	-65.3	3.8	1.49e+00	0	44	104	0	76	15904
2026-01-01 10:05:55.29	339.11	61.77	-52.3	-65.4	3.8	1.49e+00	0	44	104	0	76	15957
2026-01-01 10:05:56.38	339.18	61.32	-52.4	-65.4	3.8	1.49e+00	0	44	104	0	76	15990
2026-01-01 10:05:57.42	339.25	60.89	-52.4	-65.4	3.8	1.49e+00	0	44	104	0	76	15972
2026-01-01 10:05:58.59	339.32	60.41	-52.4	-65.4	3.8	1.49e+00	0	44	104	0	76	15947
2026-01-01 10:05:59.48	339.37	60.04	-52.4	-65.4	3.8	1.49e+00	0	44	104	0	76	15945
2026-01-01 10:06:00.63	339.43	59.58	-52.4	-65.4	3.8	1.49e+00	0	44	104	0	76	15948
2026-01-01 10:06:01.49	339.48	59.23	-52.4	-65.4	3.8	1.49e+00	0	44	104	0	76	16056
2026-01-01 10:06:02.64	339.54	58.77	-52.4	-65.3	3.8	1.49e+00	0	44	104	0	76	15934
2026-01-01 10:06:03.50	339.58	58.43	-52.4	-65.3	3.8	1.49e+00	0	44	104	0	76	15938
2026-01-01 10:06:04.64	339.64	57.98	-52.4	-65.3	3.8	1.49e+00	0	44	104	0	76	15930
2026-01-01 10:06:05.50	339.68	57.64	-52.3	-65.3	3.8	1.49e+00	0	44	104	0	76	15930
2026-01-01 10:06:06.65	339.74	57.19	-52.4	-65.3	3.8	1.49e+00	0	44	104	0	76	15941
2026-01-01 10:06:07.51	339.78	56.86	-52.4	-65.4	3.8	1.49e+00	0	44	104	0	76	15956
2026-01-01 10:06:08.66	339.83	56.42	-52.4	-65.3	3.8	1.49e+00	0	44	104	0	76	15922
2026-01-01 10:06:09.52	339.87	56.09	-52.4	-65.3	3.8	1.49e+00	0	44	104	0	76	15920
2026-01-01 10:06:10.68	339.92	55.65	-52.4	-65.4	3.8	1.49e+00	0	44	104	0	76	15976
2026-01-01 10:06:11.55	339.95	55.32	-52.3	-65.4	3.8	1.49e+00	0	44	104	0	76	15944
2026-01-01 10:06:12.76	340.00	54.87	-52.3	-65.3	3.8	1.49e+00	0	44	104	0	76	15921
2026-01-01 10:06:13.62	340.04	54.55	-52.3	-65.3	3.8	1.49e+00	0	44	104	0	76	15932
2026-01-01 10:06:14.76	340.08	54.13	-52.3	-65.3	3.8	1.49e+00	0	44	104	0	76	15870
2026-01-01 10:06:15.62	340.12	53.82	-52.4	-65.4	3.8	1.49e+00	0	44	104	0	76	15949
2026-01-01 10:06:16.77	340.16	53.40	-52.4	-65.3	3.8	1.49e+00	0	44	104	0	76	15940
2026-01-01 10:06:17.63	340.19	53.09	-52.4	-65.4	3.8	1.49e+00	0	44	104	0	76	15962
2026-01-01 10:06:18.78	340.23	52.68	-52.3	-65.3	3.8	1.49e+00	0	44	104	0	76	15933
2026-01-01 10:06:19.64	340.26	52.37	-52.4	-65.3	3.8	1.49e+00	0	44	104	0	76	15878
2026-01-01 10:06:20.79	340.30	51.97	-52.3	-65.3	3.8	1.49e+00	0	44	104	0	76	15913
2026-01-01 10:06:21.65	340.33	51.67	-52.3	-65.3	3.8	1.49e+00	0	44	104	0	76	15904
2026-01-01 10:06:22.80	340.37	51.27	-52.3	-65.3	3.8	1.49e+00	0	44	104	0	76	15857
2026-01-01 10:06:23.66	340.39	50.97	-52.3	-65.3	3.8	1.49e+00	0	44	104	0	76	15864
2026-01-01 10:06:24.81	340.43	50.58	-52.3	-65.3	3.8	1.49e+00	0	44	104	0	76	15810
2026-01-01 10:06:25.67	340.46	50.28	-52.3	-65.3	3.8	1.49e+00	0	44	104	0	76	15844
2026-01-01 10:06:26.82	340.49	49.90	-52.3	-65.3	3.8	1.49e+00	0	44	104	0	76	15885
2026-01-01 10:06:27.68	340.52	49.61	-52.3	-65.3	3.8	1.49e+00	0	44	104	0	76	15889
2026-01-01 10:06:28.82	340.55	49.23	-52.3	-65.3	3.8	1.49e+00	0	44	104	0	76	15932
2026-01-01 10:06:29.69	340.57	48.94	-52.3	-65.3	3.8	1.49e+00	0	44	104	0	76	15938
2026-01-01 10:06:30.83	340.61	48.57	-52.3	-65.3	3.8	1.49e+00	0	44	104	0	76	15943
2026-01-01 10:06:31.69	340.63	48.29	-52.3	-65.3	3.8	1.49e+00	0	44	104	0	76	15903
2026-01-01 10:06:32.84	340.66	47.92	-52.3	-65.3	3.8	1.49e+00	0	44	104	0	76	15888
2026-01-01 10:06:33.70	340.68	47.64	-52.3	-65.3	3.8	1.49e+00	0	44	104	0	76	15876
2026-01-01 10:06:34.85	340.71	47.28	-52.3	-65.4	3.8	1.49e+00	0	44	104	0	76	15957
2026-01-01 10:06:35.71	340.73	47.01	-52.3	-65.4	3.8	1.49e+00	0	44	104	0	76	15961
2026-01-01 10:06:36.86	340.76	46.65	-52.3	-65.3	3.8	1.49e+00	0	44	104	0	76	15884
2026-01-01 10:06:37.72	340.78	46.38	-52.3	-65.3	3.8	1.49e+00	0	44	104	0	76	15851
2026-01-01 10:06:38.87	340.81	46.03	-52.4	-65.3	3.8	1.49e+00	0	44	104	0	76	15926
2026-01-01 10:06:39.73	340.83	45.76	-52.3	-65.4	3.8	1.49e+00	0	44	104	0	76	15963
2026-01-01 10:06:40.88	340.86	45.41	-52.4	-65.3	3.8	1.49e+00	0	44	104	0	76	15930
2026-01-01 10:06:41.74	340.88	45.15	-52.3	-65.3	3.8	1.49e+00	0	44	104	0	76	15930
2026-01-01 10:06:42.89	340.91	44.81	-52.3	-65.4	3.8	1.49e+00	0	44	104	0	76	15952
2026-01-01 10:06:43.75	340.93	44.55	-52.3	-65.3	3.8	1.49e+00	0	44	104	0	76	15921
2026-01-01 10:06:44.90	340.95	44.22	-52.3	-65.3	3.8	1.49e+00	0	44	104	0	76	15931
2026-01-01 10:06:45.76	340.97	43.96	-52.3	-65.4	3.8	1.49e+00	0	44	104	0	76	15954
2026-01-01 10:06:46.90	340.99	43.63	-52.3	-65.3	3.8	1.49e+00	0	44	104	0	76	15886
2026-01-01 10:06:47.76	341.01	43.39	-52.3	-65.3	3.8	1.49e+00	0	44	104	0	76	15901
2026-01-01 10:06:48.91	341.04	43.06	-52.4	-65.4	3.8	1.49e+00	0	44	104	0	76	16000
2026-01-01 10:06:49.77	341.05	42.81	-52.4	-65.4	3.8	1.49e+00	0	44	104	0	76	16004
2026-01-01 10:06:50.92	341.08	42.49	-52.4	-65.4	3.8	1.49e+00	0	44	104	0	76	15972
2026-01-01 10:06:51.78	341.09	42.25	-52.4	-65.4	3.8	1.49e+00	0	44	104	0	76	16000
2026-01-01 10:06:52.93	341.12	41.93	-52.3	-65.3	3.8	1.49e+00	0	44	104	0	76	15885
2026-01-01 10:06:53.79	341.13	41.69	-52.4	-65.3	3.8	1.49e+00	0	44	104	0	76	15923
2026-01-01 10:06:54.94	341.15	41.38	-52.4	-65.4	3.8	1.49e+00	0	44	104	0	76	15963
2026-01-01 10:06:55.80	341.17	41.15	-52.3	-65.3	3.8	1.49e+00	0	44	104	0	76	15901
2026-01-01 10:06:56.95	341.19	40.84	-52.4	-65.3	3.8	1.49e+00	0	44	104	0	76	15908
2026-01-01 10:06:57.81	341.21	40.61	-52.3	-65.3	3.8	1.49e+00	0	44	104	0	76	15885
2026-01-01 10:06:58.96	341.23	40.30	-52.4	-65.3	3.8	1.49e+00	0	44	104	0	76	15930
2026-01-01 10:06:59.82	341.24	40.08	-52.3	-65.3	3.8	1.49e+00	0	44	104	0	76	15876
2026-01-01 10:07:00.97	341.26	39.78	-52.4	-65.4	3.8	1.49e+00	0	44	104	0	76	15977
2026-01-01 10:07:01.83	341.28	39.55	-52.3	-65.3	3.8	1.49e+00	0	44	104	0	76	15906
2026-01-01 10:07:02.97	341.30	39.26	-52.3	-65.3	3.8	1.49e+00	0	44	104	0	76	15900
2026-01-01 10:07:03.83	341.31	39.04	-52.3	-65.3	3.8	1.49e+00	0	44	104	0	76	15830
2026-01-01 10:07:04.98	341.33	38.75	-52.3	-65.3	3.8	1.49e+00	0	44	104	0	76	15849
2026-01-01 10:07:05.84	341.35	38.53	-52.3	-65.3	3.8	1.49e+00	0	44	104	0	76	15898
2026-01-01 10:07:06.99	341.37	38.25	-52.4	-65.4	3.8	1.49e+00	0	44	104	0	76	15959
2026-01-01 10:07:07.84	341.38	38.04	-52.3	-65.3	3.8	1.49e+00	0	44	104	0	76	15798
2026-01-01 10:07:08.99	341.40	37.75	-52.3	-65.3	3.8	1.49e+00	0	44	104	0	76	15862
2026-01-01 10:07:09.86	341.41	37.54	-52.3	-65.3	3.8	1.49e+00	0	44	104	0	76	15855
2026-01-01 10:07:11.00	341.43	37.26	-52.3	-65.3	3.8	1.49e+00	0	44	104	0	76	15803
2026-01-01 10:07:11.86	341.44	37.06	-52.4	-65.4	3.8	1.49e+00	0	44	104	0	76	15977
2026-01-01 10:07:13.01	341.46	36.78	-52.4	-65.4	3.8	1.49e+00	0	44	104	0	76	15949
2026-01-01 10:07:13.87	341.47	36.58	-52.4	-65.4	3.8	1.49e+00	0	44	104	0	76	15957
2026-01-01 10:07:15.02	341.49	36.31	-52.4	-65.3	3.8	1.49e+00	0	44	104	0	76	15922
2026-01-01 10:07:15.88	341.50	36.11	-52.3	-65.3	3.8	1.49e+00	0	44	104	0	76	15890
2026-01-01 10:07:17.03	341.52	35.84	-52.3	-65.3	3.8	1.49e+00	0	44	104	0	76	15913
2026-01-01 10:07:17.89	341.53	35.64	-52.3	-65.3	3.8	1.49e+00	0	44	104	0	76	15893
2026-01-01 10:07:19.04	341.55	35.38	-52.3	-65.3	3.8	1.49e+00	0	44	104	0	76	15855
2026-01-01 10:07:19.90	341.56	35.18	-52.3	-65.3	3.8	1.49e+00	0	44	104	0	76	15856
2026-01-01 10:07:21.05	341.58	34.93	-52.4	-65.3	3.8	1.49e+00	0	44	104	0	76	15914
2026-01-01 10:07:21.91	341.59	34.73	-52.4	-65.4	3.8	1.49e+00	0	44	104	0	76	15965
2026-01-01 10:07:23.05	341.60	34.48	-52.3	-65.4	3.8	1.49e+00	0	44	104	0	76	15983
2026-01-01 10:07:23.92	341.62	34.29	-52.3	-65.3	3.8	1.49e+00	0	44	104	0	76	15937
2026-01-01 10:07:25.06	341.63	34.04	-52.4	-65.4	3.8	1.49e+00	0	44	104	0	76	15986
2026-01-01 10:07:25.93	341.64	33.85	-52.3	-65.3	3.8	1.49e+00	0	44	104	0	76	15920
2026-01-01 10:07:27.07	341.66	33.60	-52.3	-65.3	3.8	1.49e+00	0	44	104	0	76	15868
2026-01-01 10:07:27.94	341.67	33.42	-52.3	-65.3	3.8	1.49e+00	0	44	104	0	76	15908
2026-01-01 10:07:29.08	341.68	33.17	-52.3	-65.3	3.8	1.49e+00	0	44	104	0	76	15862
2026-01-01 10:07:29.94	341.70	32.99	-52.3	-65.3	3.8	1.49e+00	0	44	104	0	76	15814
2026-01-01 10:07:31.09	341.71	32.75	-52.3	-65.3	3.8	1.49e+00	0	44	104	0	76	15849
2026-01-01 10:07:31.95	341.72	32.57	-52.4	-65.4	3.8	1.49e+00	0	44	104	0	76	15946
2026-01-01 10:07:33.10	341.74	32.33	-52.4	-65.3	3.8	1.49e+00	0	44	104	0	76	15935
2026-01-01 10:07:33.96	341.75	32.16	-52.4	-65.4	3.8	1.49e+00	0	44	104	0	76	15998
2026-01-01 10:07:35.11	341.76	31.92	-52.4	-65.3	3.8	1.49e+00	0	44	104	0	76	15932
2026-01-01 10:07:35.97	341.77	31.75	-52.4	-65.3	3.8	1.49e+00	0	44	104	0	76	15877
2026-01-01 10:07:37.12	341.78	31.52	-52.3	-65.3	3.8	1.49e+00	0	44	104	0	76	15928
2026-01-01 10:07:37.98	341.79	31.34	-52.4	-65.4	3.8	1.49e+00	0	44	104	0	76	16052
2026-01-01 10:07:39.13	341.81	31.12	-52.4	-65.4	3.8	1.49e+00	0	44	104	0	76	15998
2026-01-01 10:07:39.99	341.82	30.95	-52.4	-65.4	3.8	1.49e+00	0	44	104	0	76	16020
2026-01-01 10:07:41.13	341.83	30.72	-52.4	-65.4	3.8	1.49e+00	0	44	104	0	76	15976
2026-01-01 10:07:42.00	341.84	30.55	-52.4	-65.3	3.8	1.49e+00	0	44	104	0	76	15917
2026-01-01 10:07:43.14	341.86	30.33	-52.4	-65.3	3.8	1.49e+00	0	44	104	0	76	15936
2026-01-01 10:07:44.00	341.87	30.17	-52.3	-65.3	3.8	1.49e+00	0	44	104	0	76	15902
2026-01-01 10:07:45.15	341.88	29.95	-52.4	-65.4	3.8	1.49e+00	0	44	104	0	76	15967
2026-01-01 10:07:46.01	341.89	29.79	-52.4	-65.4	3.8	1.49e+00	0	44	104	0	76	15951
2026-01-01 10:07:47.16	341.90	29.57	-52.3	-65.3	3.8	1.49e+00	0	44	104	0	76	15932
2026-01-01 10:07:48.02	341.91	29.41	-52.4	-65.3	3.8	1.49e+00	0	44	104	0	76	15929
2026-01-01 10:07:49.17	341.92	29.20	-52.3	-65.3	3.8	1.49e+00	0	44	104	0	76	15932
2026-01-01 10:07:50.03	341.93	29.04	-52.3	-65.3	3.8	1.49e+00	0	44	104	0	76	15842
2026-01-01 10:07:51.18	341.94	28.83	-52.3	-65.3	3.8	1.49e+00	0	44	104	0	76	15835
2026-01-01 10:07:52.04	341.95	28.67	-52.3	-65.4	3.8	1.49e+00	0	44	104	0	76	15982
2026-01-01 10:07:53.19	341.97	28.46	-52.4	-65.4	3.8	1.49e+00	0	44	104	0	76	15956
2026-01-01 10:07:54.05	341.98	28.31	-52.4	-65.4	3.8	1.49e+00	0	44	104	0	76	16017
2026-01-01 10:07:55.20	341.99	28.10	-52.4	-65.4	3.8	1.49e+00	0	44	104	0	76	15991
2026-01-01 10:07:56.41	342.00	27.89	-52.4	-65.4	3.8	1.49e+00	0	44	104	0	76	16044
2026-01-01 10:07:57.45	342.01	27.71	-52.4	-65.4	3.8	1.49e+00	0	44	104	0	76	15950
2026-01-01 10:07:58.62	342.02	27.50	-52.3	-65.4	3.8	1.49e+00	0	44	104	0	76	15956
2026-01-01 10:07:59.48	342.03	27.35	-52.3	-65.3	3.8	1.49e+00	0	44	104	0	76	15851
2026-01-01 10:08:00.63	342.04	27.15	-52.4	-65.4	3.8	1.49e+00	0	44	104	0	76	15993
2026-01-01 10:08:01.49	342.05	27.01	-52.3	-65.3	3.8	1.49e+00	0	44	104	0	76	15858
2026-01-01 10:08:02.64	342.06	26.81	-52.4	-65.4	3.8	1.49e+00	0	44	104	0	76	15986
2026-01-01 10:08:03.50	342.07	26.67	-52.4	-65.4	3.8	1.49e+00	0	44	104	0	76	15967
2026-01-01 10:08:04.65	342.08	26.47	-52.3	-65.4	3.8	1.49e+00	0	44	104	0	76	15969
2026-01-01 10:08:05.51	342.09	26.33	-52.4	-65.4	3.8	1.49e+00	0	44	104	0	76	15981
2026-01-01 10:08:06.66	342.10	26.14	-52.4	-65.4	3.8	1.49e+00	0	44	104	0	76	15973
2026-01-01 10:08:07.52	342.11	26.00	-52.4	-65.4	3.8	1.49e+00	0	44	104	0	76	16040
2026-01-01 10:08:08.67	342.12	25.81	-52.4	-65.4	3.8	1.49e+00	0	44	104	0	76	16023
2026-01-01 10:08:09.53	342.13	25.67	-52.4	-65.4	3.8	1.49e+00	0	44	104	0	76	16021
2026-01-01 10:08:10.71	342.14	25.48	-52.4	-65.4	3.8	1.49e+00	0	44	104	0	76	16046
2026-01-01 10:08:11.57	342.15	25.34	-52.4	-65.4	3.8	1.49e+00	0	44	104	0	76	15988
2026-01-01 10:08:12.72	342.16	25.16	-52.4	-65.4	3.8	1.49e+00	0	44	104	0	76	15956
2026-01-01 10:08:13.58	342.17	25.02	-52.4	-65.4	3.8	1.49e+00	0	44	104	0	76	16068
2026-01-01 10:08:14.72	342.18	24.84	-52.4	-65.4	3.8	1.49e+00	0	44	104	0	76	15988
2026-01-01 10:08:15.59	342.19	24.70	-52.4	-65.4	3.8	1.49e+00	0	44	104	0	76	15978
2026-01-01 10:08:16.73	342.20	24.52	-52.4	-65.4	3.8	1.49e+00	0	44	104	0	76	15991
2026-01-01 10:08:17.59	342.21	24.39	-52.4	-65.4	3.8	1.49e+00	0	44	104	0	76	15955
2026-01-01 10:08:18.74	342.22	24.21	-52.3	-65.4	3.8	1.49e+00	0	44	104	0	76	15986
2026-01-01 10:08:19.60	342.22	24.08	-52.4	-65.4	3.8	1.49e+00	0	44	104	0	76	15980
2026-01-01 10:08:20.75	342.23	23.91	-52.4	-65.4	3.8	1.49e+00	0	44	104	0	76	16055
2026-01-01 10:08:21.61	342.24	23.78	-52.3	-65.3	3.8	1.49e+00	0	44	104	0	76	15909
2026-01-01 10:08:22.76	342.25	23.60	-44.7	-63.0	4.0	1.49e+00	0	44	104	0	68	19351
2026-01-01 10:08:23.62	342.26	23.47	-43.0	-63.8	4.1	1.50e+00	0	44	104	0	54	47555
2026-01-01 10:08:24.77	342.27	23.30	-41.9	-64.3	3.9	1.50e+00	0	44	104	0	56	44727
2026-01-01 10:08:25.63	342.28	23.18	-41.7	-64.0	4.0	1.50e+00	0	44	104	0	56	43265
2026-01-01 10:08:26.78	342.29	23.01	-43.5	-64.4	4.0	1.50e+00	0	44	104	0	56	45077
2026-01-01 10:08:27.64	342.29	22.88	-42.8	-64.7	3.8	1.50e+00	0	44	104	0	58	41786
2026-01-01 10:08:28.79	342.30	22.71	-42.8	-64.3	3.9	1.50e+00	0	44	104	0	58	40003
2026-01-01 10:08:29.65	342.31	22.59	-44.1	-63.8	3.9	1.50e+00	0	44	104	0	58	37464
2026-01-01 10:08:30.80	342.32	22.42	-44.9	-64.1	4.0	1.50e+00	0	44	104	0	59	36688
2026-01-01 10:08:31.66	342.33	22.30	-45.7	-64.7	3.8	1.50e+00	0	44	104	0	60	37191
2026-01-01 10:08:32.81	342.34	22.14	-46.0	-64.2	4.0	1.50e+00	0	44	104	0	61	33125
2026-01-01 10:08:33.67	342.35	22.01	-47.1	-64.0	4.0	1.50e+00	0	44	104	0	64	27330
2026-01-01 10:08:34.81	342.36	21.85	-46.8	-64.6	4.0	1.50e+00	0	44	104	0	65	27452
2026-01-01 10:08:35.68	342.36	21.73	-52.4	-65.4	3.8	1.49e+00	0	44	104	0	75	16898
2026-01-01 10:08:36.83	342.37	21.57	-52.4	-65.4	3.8	1.49e+00	0	44	104	0	75	16914
2026-01-01 10:08:37.68	342.38	21.46	-52.4	-65.4	3.8	1.49e+00	0	44	104	0	75	16895
2026-01-01 10:08:38.83	342.39	21.30	-52.4	-65.3	3.8	1.49e+00	0	44	104	0	75	16852
2026-01-01 10:08:39.69	342.40	21.18	-52.3	-65.3	3.8	1.49e+00	0	44	104	0	75	16820
2026-01-01 10:08:40.84	342.40	21.02	-52.3	-65.3	3.8	1.49e+00	0	44	104	0	75	16818
2026-01-01 10:08:41.70	342.41	20.91	-52.3	-65.3	3.8	1.49e+00	0	44	104	0	75	16800
2026-01-01 10:08:42.85	342.42	20.75	-52.3	-65.3	3.8	1.49e+00	0	44	104	0	75	16834
2026-01-01 10:08:43.71	342.43	20.64	-52.3	-65.3	3.8	1.49e+00	0	44	104	0	75	16878
2026-01-01 10:08:44.86	342.44	20.48	-52.4	-65.4	3.8	1.49e+00	0	44	104	0	75	16907
2026-01-01 10:08:45.72	342.44	20.37	-52.4	-65.4	3.8	1.49e+00	0	44	104	0	75	16944
2026-01-01 10:08:46.87	342.45	20.22	-52.4	-65.3	3.8	1.49e+00	0	44	104	0	75	16850
2026-01-01 10:08:47.73	342.46	20.11	-52.4	-65.4	3.8	1.49e+00	0	44	104	0	75	16899
2026-01-01 10:08:48.88	342.47	19.96	-52.3	-65.3	3.8	1.49e+00	0	44	104	0	75	16852
2026-01-01 10:08:49.74	342.48	19.84	-52.4	-65.4	3.8	1.49e+00	0	44	104	0	75	16914
2026-01-01 10:08:50.89	342.48	19.70	-52.4	-65.3	3.8	1.49e+00	0	44	104	0	75	16887
2026-01-01 10:08:51.75	342.49	19.59	-52.3	-65.4	3.8	1.49e+00	0	44	104	0	75	16901
2026-01-01 10:08:52.89	342.50	19.44	-52.3	-65.3	3.8	1.49e+00	0	44	104	0	75	16839
2026-01-01 10:08:53.75	342.51	19.33	-52.3	-65.3	3.8	1.49e+00	0	44	104	0	75	16857
2026-01-01 10:08:54.90	342.52	19.19	-52.3	-65.4	3.8	1.49e+00	0	44	104	0	75	16907
2026-01-01 10:08:55.76	342.52	19.08	-52.3	-65.3	3.8	1.49e+00	0	44	104	0	75	16863
2026-01-01 10:08:56.91	342.53	18.93	-52.3	-65.3	3.8	1.49e+00	0	44	104	0	75	16773
2026-01-01 10:08:57.77	342.54	18.83	-52.3	-65.3	3.8	1.49e+00	0	44	104	0	75	16824
2026-01-01 10:08:58.92	342.55	18.68	-52.4	-65.4	3.8	1.49e+00	0	44	104	0	75	16982
2026-01-01 10:08:59.78	342.55	18.58	-52.4	-65.4	3.8	1.49e+00	0	44	104	0	75	16924
2026-01-01 10:09:00.93	342.56	18.44	-52.4	-65.3	3.8	1.49e+00	0	44	104	0	75	16878
2026-01-01 10:09:01.79	342.57	18.33	-52.4	-65.3	3.8	1.49e+00	0	44	104	0	75	16885
2026-01-01 10:09:02.94	342.58	18.19	-52.4	-65.4	3.8	1.49e+00	0	44	104	0	75	16894
2026-01-01 10:09:03.80	342.58	18.09	-52.4	-65.4	3.8	1.49e+00	0	44	104	0	75	16920
2026-01-01 10:09:04.94	342.59	17.95	-52.3	-65.3	3.8	1.49e+00	0	44	104	0	75	16792
2026-01-01 10:09:05.80	342.60	17.85	-52.4	-65.4	3.8	1.49e+00	0	44	104	0	75	16952
2026-01-01 10:09:06.95	342.61	17.71	-52.4	-65.3	3.8	1.49e+00	0	44	104	0	75	16826
2026-01-01 10:09:07.81	342.61	17.61	-52.3	-65.3	3.8	1.49e+00	0	44	104	0	75	16797
2026-01-01 10:09:08.96	342.62	17.48	-52.4	-65.4	3.8	1.49e+00	0	44	104	0	75	16922
2026-01-01 10:09:09.82	342.63	17.37	-52.4	-65.4	3.8	1.49e+00	0	44	104	0	75	16894
2026-01-01 10:09:10.97	342.63	17.24	-52.3	-65.3	3.8	1.49e+00	0	44	104	0	75	16859
2026-01-01 10:09:11.83	342.64	17.14	-52.4	-65.4	3.8	1.49e+00	0	44	104	0	75	16925
2026-01-01 10:09:12.98	342.65	17.01	-52.4	-65.4	3.8	1.49e+00	0	44	104	0	75	16926
2026-01-01 10:09:13.84	342.66	16.91	-52.4	-65.4	3.8	1.49e+00	0	44	104	0	75	16950
2026-01-01 10:09:14.99	342.66	16.78	-52.4	-65.4	3.8	1.49e+00	0	44	104	0	75	16913
2026-01-01 10:09:15.85	342.67	16.68	-52.4	-65.4	3.8	1.49e+00	0	44	104	0	75	16951
2026-01-01 10:09:17.00	342.68	16.55	-52.4	-65.4	3.8	1.49e+00	0	44	104	0	75	16914
2026-01-01 10:09:17.86	342.68	16.45	-52.4	-65.3	3.8	1.49e+00	0	44	104	0	75	16856
2026-01-01 10:09:19.01	342.69	16.32	-52.3	-65.3	3.8	1.49e+00	0	44	104	0	75	16857
2026-01-01 10:09:19.87	342.70	16.23	-52.4	-65.3	3.8	1.49e+00	0	44	104	0	75	16873
2026-01-01 10:09:21.02	342.71	16.10	-52.4	-65.4	3.8	1.49e+00	0	44	104	0	75	16920
2026-01-01 10:09:21.88	342.71	16.00	-52.3	-65.3	3.8	1.49e+00	0	44	104	0	75	16848
2026-01-01 10:09:23.02	342.72	15.88	-52.4	-65.3	3.8	1.49e+00	0	44	104	0	75	16863
2026-01-01 10:09:23.88	342.73	15.78	-52.4	-65.4	3.8	1.49e+00	0	44	104	0	75	16922
2026-01-01 10:09:25.03	342.73	15.66	-52.4	-65.3	3.8	1.49e+00	0	44	104	0	75	16848
2026-01-01 10:09:25.89	342.74	15.56	-52.4	-65.4	3.8	1.49e+00	0	44	104	0	75	16934
2026-01-01 10:09:27.04	342.75	15.44	-52.4	-65.4	3.8	1.49e+00	0	44	104	0	75	16958
2026-01-01 10:09:27.90	342.75	15.35	-52.4	-65.4	3.8	1.49e+00	0	44	104	0	75	16936
2026-01-01 10:09:29.05	342.76	15.22	-52.4	-65.3	3.8	1.49e+00	0	44	104	0	75	16827
2026-01-01 10:09:29.91	342.77	15.13	-52.4	-65.4	3.8	1.49e+00	0	44	104	0	75	16898
2026-01-01 10:09:31.06	342.77	15.01	-52.3	-65.3	3.8	1.49e+00	0	44	104	0	75	16843
2026-01-01 10:09:31.92	342.78	14.92	-52.4	-65.4	3.8	1.49e+00	0	44	104	0	75	16937
2026-01-01 10:09:33.07	342.79	14.80	-52.4	-65.4	3.8	1.49e+00	0	44	104	0	75	16950
2026-01-01 10:09:33.93	342.79	14.71	-52.4	-65.4	3.8	1.49e+00	0	44	104	0	75	16974
2026-01-01 10:09:35.08	342.80	14.58	-52.4	-65.4	3.8	1.49e+00	0	44	104	0	75	16929
2026-01-01 10:09:35.94	342.81	14.50	-52.4	-65.4	3.8	1.49e+00	0	44	104	0	75	17058
2026-01-01 10:09:37.09	342.82	14.38	-52.5	-65.5	3.8	1.49e+00	0	44	104	0	75	17108
2026-01-01 10:09:37.95	342.82	14.29	-52.4	-65.4	3.8	1.49e+00	0	44	104	0	75	16992
2026-01-01 10:09:39.09	342.83	14.17	-52.4	-65.4	3.8	1.49e+00	0	44	104	0	75	16899
2026-01-01 10:09:39.95	342.83	14.08	-52.4	-65.4	3.8	1.49e+00	0	44	104	0	75	16907
2026-01-01 10:09:41.10	342.84	13.97	-52.4	-65.3	3.8	1.49e+00	0	44	104	0	75	16885
2026-01-01 10:09:41.96	342.85	13.88	-52.4	-65.3	3.8	1.49e+00	0	44	104	0	75	16877
2026-01-01 10:09:43.11	342.86	13.76	-52.4	-65.3	3.8	1.49e+00	0	44	104	0	75	16806
2026-01-01 10:09:43.97	342.86	13.67	-52.3	-65.4	3.8	1.49e+00	0	44	104	0	75	16899
2026-01-01 10:09:45.12	342.87	13.56	-52.3	-65.3	3.8	1.49e+00	0	44	104	0	75	16856
2026-01-01 10:09:45.98	342.87	13.47	-52.3	-65.3	3.8	1.49e+00	0	44	104	0	75	16830
2026-01-01 10:09:47.13	342.88	13.36	-52.3	-65.3	3.8	1.49e+00	0	44	104	0	75	16830
2026-01-01 10:09:47.99	342.89	13.27	-52.4	-65.4	3.8	1.49e+00	0	44	104	0	75	17012
2026-01-01 10:09:49.14	342.89	13.16	-52.4	-65.4	3.8	1.49e+00	0	44	104	0	75	16978
2026-01-01 10:09:50.00	342.90	13.08	-52.4	-65.4	3.8	1.49e+00	0	44	104	0	75	16983
2026-01-01 10:09:51.15	342.91	12.96	-52.4	-65.4	3.8	1.49e+00	0	44	104	0	75	16914
2026-01-01 10:09:52.01	342.91	12.88	-52.4	-65.4	3.8	1.49e+00	0	44	104	0	75	16926
2026-01-01 10:09:53.15	342.92	12.77	-52.4	-65.4	3.8	1.49e+00	0	44	104	0	75	16995
2026-01-01 10:09:54.01	342.93	12.69	-52.4	-65.4	3.8	1.49e+00	0	44	104	0	75	16969
2026-01-01 10:09:55.16	342.93	12.58	-52.4	-65.3	3.8	1.49e+00	0	44	104	0	75	16865
2026-01-01 10:09:56.02	342.94	12.49	-52.4	-65.4	3.8	1.49e+00	0	44	104	0	75	16903
2026-01-01 10:09:57.17	342.95	12.38	-52.4	-65.3	3.8	1.49e+00	0	44	104	0	75	16839
2026-01-01 10:09:58.03	342.95	12.30	-52.3	-65.3	3.8	1.49e+00	0	44	104	0	75	16835
2026-01-01 10:09:59.18	342.96	12.19	-52.4	-65.4	3.8	1.49e+00	0	44	104	0	75	16985
2026-01-01 10:10:00.04	342.96	12.11	-52.4	-65.4	3.8	1.49e+00	0	44	104	0	75	16937
2026-01-01 10:10:01.19	342.97	12.00	-52.3	-65.4	3.8	1.49e+00	0	44	104	0	75	16900
2026-01-01 10:10:02.05	342.98	11.92	-52.4	-65.4	3.8	1.49e+00	0	44	104	0	75	17046
2026-01-01 10:10:03.20	342.98	11.82	-52.4	-65.4	3.8	1.49e+00	0	44	104	0	75	16890
2026-01-01 10:10:04.06	342.99	11.74	-52.4	-65.3	3.8	1.49e+00	0	44	104	0	75	16837
2026-01-01 10:10:05.21	343.00	11.63	-52.4	-65.4	3.8	1.49e+00	0	44	104	0	75	16925
2026-01-01 10:10:06.19	343.00	11.54	-52.4	-65.3	3.8	1.49e+00	0	44	104	0	75	16822
2026-01-01 10:10:07.20	343.01	11.45	-52.4	-65.3	3.8	1.49e+00	0	44	104	0	75	16840
2026-01-01 10:10:08.20	343.02	11.36	-52.4	-65.3	3.8	1.49e+00	0	44	104	0	75	16883
2026-01-01 10:10:09.45	343.02	11.24	-52.3	-65.3	3.8	1.49e+00	0	44	104	0	75	16833
2026-01-01 10:10:10.33	343.03	11.16	-52.4	-65.3	3.8	1.49e+00	0	44	104	0	75	16873
2026-01-01 10:10:11.65	343.04	11.04	-52.4	-65.4	3.8	1.49e+00	0	44	104	0	75	16938
2026-01-01 10:10:12.37	343.04	10.98	-52.4	-65.4	3.8	1.49e+00	0	44	104	0	75	16900
2026-01-01 10:10:13.86	343.05	10.84	-52.4	-65.4	3.8	1.49e+00	0	44	104	0	75	16973
2026-01-01 10:10:14.57	343.05	10.78	-52.4	-65.3	3.8	1.49e+00	0	44	104	0	75	16887
2026-01-01 10:10:15.86	343.06	10.67	-52.4	-65.4	3.8	1.49e+00	0	44	104	0	75	16995
2026-01-01 10:10:16.58	343.07	10.60	-52.4	-65.4	3.8	1.49e+00	0	44	104	0	75	16906
2026-01-01 10:10:17.87	343.07	10.49	-52.3	-65.3	3.8	1.49e+00	0	44	104	0	75	16870
2026-01-01 10:10:18.59	343.08	10.42	-52.4	-65.4	3.8	1.49e+00	0	44	104	0	75	16919
2026-01-01 10:10:19.88	343.09	10.31	-52.4	-65.3	3.8	1.49e+00	0	44	104	0	75	16824
2026-01-01 10:10:20.60	343.09	10.25	-52.4	-65.4	3.8	1.49e+00	0	44	104	0	75	16892
2026-01-01 10:10:21.89	343.10	10.14	-52.4	-65.4	3.8	1.49e+00	0	44	104	0	75	16905
2026-01-01 10:10:22.61	343.10	10.07	-52.4	-65.4	3.8	1.49e+00	0	44	104	0	75	16895
2026-01-01 10:10:23.90	343.11	9.96	-52.4	-65.4	3.8	1.49e+00	0	44	104	0	75	16892
2026-01-01 10:10:24.61	343.12	9.90	-52.4	-65.4	3.8	1.49e+00	0	44	104	0	75	17047
2026-01-01 10:10:25.91	343.12	9.79	-52.4	-65.4	3.8	1.49e+00	0	44	104	0	75	17002
2026-01-01 10:10:26.62	343.13	9.73	-52.4	-65.4	3.8	1.49e+00	0	44	104	0	75	16935
2026-01-01 10:10:27.91	343.14	9.62	-52.4	-65.3	3.8	1.49e+00	0	44	104	0	75	16885
2026-01-01 10:10:28.63	343.14	9.56	-52.4	-65.4	3.8	1.49e+00	0	44	104	0	75	16943
2026-01-01 10:10:29.92	343.15	9.45	-52.4	-65.4	3.8	1.49e+00	0	44	104	0	75	16962
2026-01-01 10:10:30.64	343.15	9.39	-52.4	-65.4	3.8	1.49e+00	0	44	104	0	75	16986
2026-01-01 10:10:31.93	343.16	9.28	-52.4	-65.4	3.8	1.49e+00	0	44	104	0	75	16993
2026-01-01 10:10:32.65	343.16	9.22	-52.4	-65.4	3.8	1.49e+00	0	44	104	0	75	16918
2026-01-01 10:10:33.94	343.17	9.11	-52.4	-65.4	3.8	1.49e+00	0	44	104	0	75	16958
2026-01-01 10:10:34.66	343.18	9.05	-52.4	-65.4	3.8	1.49e+00	0	44	104	0	75	17006
2026-01-01 10:10:35.95	343.18	8.94	-52.4	-65.4	3.8	1.49e+00	0	44	104	0	75	17010
2026-01-01 10:10:36.67	343.19	8.88	-52.4	-65.5	3.8	1.49e+00	0	44	104	0	75	17110
2026-01-01 10:10:37.96	343.19	8.78	-52.4	-65.4	3.8	1.49e+00	0	44	104	0	75	17014
2026-01-01 10:10:38.67	343.20	8.72	-52.4	-65.4	3.8	1.49e+00	0	44	104	0	75	16965
2026-01-01 10:10:39.97	343.21	8.61	-52.4	-65.4	3.8	1.49e+00	0	44	104	0	75	16928
2026-01-01 10:10:40.68	343.21	8.55	-52.4	-65.4	3.8	1.49e+00	0	44	104	0	75	17035
2026-01-01 10:10:41.98	343.22	8.45	-52.4	-65.4	3.8	1.49e+00	0	44	104	0	75	16950
2026-01-01 10:10:42.69	343.22	8.39	-52.4	-65.4	3.8	1.49e+00	0	44	104	0	75	17045
2026-01-01 10:10:43.99	343.23	8.29	-52.4	-65.4	3.8	1.49e+00	0	44	104	0	75	16961
2026-01-01 10:10:44.70	343.23	8.23	-52.4	-65.4	3.8	1.49e+00	0	44	104	0	75	16985
2026-01-01 10:10:45.99	343.24	8.13	-52.4	-65.4	3.8	1.49e+00	0	44	104	0	75	16892
2026-01-01 10:10:46.71	343.25	8.07	-52.4	-65.4	3.8	1.49e+00	0	44	104	0	75	16944
2026-01-01 10:10:48.00	343.25	7.96	-52.5	-65.4	3.8	1.49e+00	0	44	104	0	75	17081
2026-01-01 10:10:48.72	343.26	7.91	-52.5	-65.5	3.8	1.49e+00	0	44	104	0	75	17188
2026-01-01 10:10:50.01	343.27	7.81	-52.4	-65.4	3.8	1.49e+00	0	44	104	0	75	16954
2026-01-01 10:10:50.73	343.27	7.75	-52.4	-65.4	3.8	1.49e+00	0	44	104	0	75	16992
2026-01-01 10:10:52.02	343.28	7.65	-52.4	-65.4	3.8	1.49e+00	0	44	104	0	75	16981
