passes_logs/2026/01/01/T1/T1__20260101_084839_SUOMI_NPP_rec.log

#Pass ID: 20260101_084839_SUOMI NPP
#Satellite: SUOMI NPP
#Configuration: NPP
#almurnet v.1.7.20251203
#Start time: 2026-01-01 08:48:38

#Version: 2.0.20230620
#Station: T1
#Location: 37.570604 lon 55.790049 lat
#TLE: 1 37849U 11061A   25364.87906317  .00000195  00000+0  11345-3 0  9992
#TLE: 2 37849  98.7794 302.0592 0002571  89.2401 270.9069 14.19520347734561

#Time	Az	El	Level	Level2	SNR	BER	BlckErr	Temp	State	Recorded	gain1	gain2
2026-01-01 08:48:38.98	122.96	4.99	-51.4	-66.5	3.8	1.49e+00	0	39	0	0	73	21722
2026-01-01 08:48:39.98	122.90	5.05	-51.5	-66.6	3.8	1.49e+00	0	39	104	0	74	20711
2026-01-01 08:48:40.99	122.84	5.12	-51.5	-66.6	3.8	1.49e+00	0	40	104	0	74	20656
2026-01-01 08:48:41.99	122.78	5.19	-51.5	-66.6	3.8	1.49e+00	0	40	104	0	74	20690
2026-01-01 08:48:43.00	122.72	5.25	-51.5	-66.6	3.8	1.49e+00	0	40	104	0	74	20728
2026-01-01 08:48:44.00	122.65	5.32	-51.5	-66.7	3.8	1.49e+00	0	40	104	0	74	20818
2026-01-01 08:48:45.01	122.59	5.39	-51.5	-66.6	3.8	1.49e+00	0	40	104	0	74	20707
2026-01-01 08:48:46.01	122.53	5.45	-51.5	-66.6	3.8	1.49e+00	0	40	104	0	74	20671
2026-01-01 08:48:47.01	122.47	5.52	-51.5	-66.6	3.8	1.49e+00	0	40	104	0	74	20764
2026-01-01 08:48:48.02	122.40	5.59	-51.5	-66.6	3.8	1.49e+00	0	40	104	0	74	20680
2026-01-01 08:48:49.02	122.34	5.66	-51.5	-66.6	3.8	1.49e+00	0	40	104	0	74	20757
2026-01-01 08:48:50.03	122.28	5.72	-51.5	-66.7	3.8	1.49e+00	0	40	104	0	74	20815
2026-01-01 08:48:51.03	122.21	5.79	-51.5	-66.7	3.8	1.49e+00	0	40	104	0	74	20814
2026-01-01 08:48:52.03	122.15	5.86	-51.5	-66.6	3.8	1.49e+00	0	40	104	0	74	20768
2026-01-01 08:48:53.04	122.08	5.93	-51.5	-66.6	3.8	1.49e+00	0	40	104	0	74	20626
2026-01-01 08:48:54.04	122.02	5.99	-51.5	-66.7	3.8	1.49e+00	0	40	104	0	74	20793
2026-01-01 08:48:55.05	121.95	6.06	-51.5	-66.6	3.8	1.49e+00	0	40	104	0	74	20645
2026-01-01 08:48:56.05	121.89	6.13	-51.5	-66.7	3.8	1.49e+00	0	40	104	0	74	20793
2026-01-01 08:48:57.06	121.82	6.20	-51.5	-66.7	3.8	1.49e+00	0	40	104	0	74	20791
2026-01-01 08:48:58.06	121.76	6.27	-51.6	-66.6	3.8	1.49e+00	0	40	104	0	74	20764
2026-01-01 08:48:59.06	121.69	6.34	-51.5	-66.7	3.8	1.49e+00	0	40	104	0	74	20805
2026-01-01 08:49:00.07	121.62	6.41	-51.5	-66.6	3.8	1.49e+00	0	40	104	0	74	20751
2026-01-01 08:49:01.07	121.56	6.48	-51.5	-66.6	3.8	1.49e+00	0	40	104	0	74	20759
2026-01-01 08:49:02.08	121.49	6.54	-51.6	-66.6	3.8	1.49e+00	0	40	104	0	74	20762
2026-01-01 08:49:03.08	121.42	6.61	-51.6	-66.7	3.8	1.49e+00	0	40	104	0	74	20794
2026-01-01 08:49:04.08	121.35	6.68	-51.6	-66.7	3.8	1.49e+00	0	40	104	0	74	20870
2026-01-01 08:49:05.09	121.28	6.75	-51.6	-66.7	3.8	1.49e+00	0	40	104	0	74	20838
2026-01-01 08:49:06.09	121.21	6.82	-51.5	-66.6	3.8	1.49e+00	0	40	104	0	74	20751
2026-01-01 08:49:07.10	121.14	6.89	-51.5	-66.6	3.8	1.49e+00	0	40	104	0	74	20756
2026-01-01 08:49:08.10	121.07	6.96	-51.5	-66.7	3.8	1.49e+00	0	40	104	0	74	20783
2026-01-01 08:49:09.11	121.00	7.03	-51.5	-66.6	3.8	1.49e+00	0	41	104	0	74	20771
2026-01-01 08:49:10.11	120.93	7.10	-51.6	-66.7	3.8	1.49e+00	0	41	104	0	74	20777
2026-01-01 08:49:11.12	120.86	7.17	-51.5	-66.7	3.8	1.49e+00	0	41	104	0	74	20802
2026-01-01 08:49:12.12	120.79	7.25	-51.6	-66.7	3.8	1.49e+00	0	41	104	0	74	20950
2026-01-01 08:49:13.12	120.72	7.32	-51.5	-66.7	3.8	1.49e+00	0	41	104	0	74	20826
2026-01-01 08:49:14.13	120.65	7.39	-51.6	-66.7	3.8	1.49e+00	0	41	104	0	74	20874
2026-01-01 08:49:15.13	120.58	7.46	-51.6	-66.7	3.8	1.49e+00	0	41	104	0	74	20865
2026-01-01 08:49:16.14	120.50	7.53	-51.5	-66.7	3.8	1.49e+00	0	41	104	0	74	20837
2026-01-01 08:49:17.14	120.43	7.60	-51.6	-66.7	3.8	1.49e+00	0	41	104	0	74	20786
2026-01-01 08:49:18.15	120.36	7.67	-51.5	-66.6	3.8	1.49e+00	0	41	104	0	74	20712
2026-01-01 08:49:19.15	120.29	7.75	-51.5	-66.6	3.8	1.49e+00	0	41	104	0	74	20746
2026-01-01 08:49:20.15	120.21	7.82	-51.5	-66.7	3.8	1.49e+00	0	41	104	0	74	20801
2026-01-01 08:49:21.16	120.14	7.89	-51.5	-66.7	3.8	1.49e+00	0	41	104	0	74	20784
2026-01-01 08:49:22.16	120.06	7.96	-51.6	-66.7	3.8	1.49e+00	0	41	104	0	74	20851
2026-01-01 08:49:23.17	119.99	8.03	-51.6	-66.7	3.8	1.49e+00	0	41	104	0	74	20962
2026-01-01 08:49:24.17	119.91	8.11	-51.6	-66.7	3.8	1.49e+00	0	41	104	0	74	20804
2026-01-01 08:49:25.18	119.84	8.18	-51.6	-66.7	3.8	1.49e+00	0	41	104	0	74	20806
2026-01-01 08:49:26.18	119.76	8.25	-51.6	-66.7	3.8	1.49e+00	0	41	104	0	74	20850
2026-01-01 08:49:27.19	119.68	8.33	-51.5	-66.6	3.8	1.49e+00	0	41	104	0	74	20764
2026-01-01 08:49:28.19	119.61	8.40	-51.5	-66.7	3.8	1.49e+00	0	41	104	0	74	20826
2026-01-01 08:49:29.20	119.53	8.47	-51.5	-66.6	3.8	1.49e+00	0	41	104	0	74	20759
2026-01-01 08:49:30.20	119.45	8.55	-51.5	-66.6	3.8	1.49e+00	0	41	104	0	74	20766
2026-01-01 08:49:31.20	119.37	8.62	-51.5	-66.6	3.8	1.49e+00	0	41	104	0	74	20740
2026-01-01 08:49:32.21	119.29	8.69	-51.5	-66.6	3.8	1.49e+00	0	41	104	0	74	20687
2026-01-01 08:49:33.21	119.21	8.77	-51.5	-66.6	3.8	1.49e+00	0	41	104	0	74	20757
2026-01-01 08:49:34.22	119.13	8.84	-51.5	-66.6	3.8	1.49e+00	0	41	104	0	74	20674
2026-01-01 08:49:35.22	119.05	8.92	-51.5	-66.6	3.8	1.49e+00	0	41	104	0	74	20742
2026-01-01 08:49:36.23	118.97	8.99	-51.5	-66.6	3.8	1.49e+00	0	41	104	0	74	20677
2026-01-01 08:49:37.23	118.89	9.07	-51.5	-66.6	3.8	1.49e+00	0	41	104	0	74	20687
2026-01-01 08:49:38.24	118.81	9.14	-51.5	-66.6	3.8	1.49e+00	0	41	104	0	74	20710
2026-01-01 08:49:39.24	118.73	9.22	-51.5	-66.6	3.8	1.49e+00	0	41	104	0	74	20715
2026-01-01 08:49:40.24	118.65	9.29	-51.5	-66.6	3.8	1.49e+00	0	41	104	0	74	20699
2026-01-01 08:49:41.25	118.57	9.37	-51.5	-66.7	3.8	1.49e+00	0	41	104	0	74	20789
2026-01-01 08:49:42.25	118.48	9.44	-51.6	-66.7	3.8	1.49e+00	0	41	104	0	74	20802
2026-01-01 08:49:43.25	118.40	9.52	-51.5	-66.7	3.8	1.49e+00	0	41	104	0	74	20785
2026-01-01 08:49:44.26	118.32	9.60	-51.5	-66.7	3.8	1.49e+00	0	41	104	0	74	20780
2026-01-01 08:49:45.27	118.23	9.67	-51.5	-66.7	3.8	1.49e+00	0	42	104	0	74	20810
2026-01-01 08:49:46.27	118.15	9.75	-51.5	-66.6	3.8	1.49e+00	0	42	104	0	74	20770
2026-01-01 08:49:47.27	118.06	9.82	-51.5	-66.7	3.8	1.49e+00	0	41	104	0	74	20839
2026-01-01 08:49:48.28	117.98	9.90	-51.5	-66.7	3.8	1.49e+00	0	41	104	0	74	20797
2026-01-01 08:49:49.28	117.89	9.98	-51.6	-66.7	3.8	1.49e+00	0	42	104	0	74	20815
2026-01-01 08:49:50.29	117.80	10.06	-51.5	-66.7	3.8	1.49e+00	0	42	104	0	74	20839
2026-01-01 08:49:51.29	117.72	10.13	-51.5	-66.6	3.8	1.49e+00	0	41	104	0	74	20738
2026-01-01 08:49:52.30	117.63	10.21	-51.5	-66.7	3.8	1.49e+00	0	42	104	0	74	20819
2026-01-01 08:49:53.30	117.54	10.29	-51.5	-66.7	3.8	1.49e+00	0	41	104	0	74	20777
2026-01-01 08:49:54.31	117.45	10.37	-51.5	-66.6	3.8	1.49e+00	0	42	104	0	74	20747
2026-01-01 08:49:55.31	117.36	10.44	-51.5	-66.6	3.8	1.49e+00	0	41	104	0	74	20767
2026-01-01 08:49:56.31	117.27	10.52	-51.5	-66.6	3.8	1.49e+00	0	41	104	0	74	20721
2026-01-01 08:49:57.32	117.18	10.60	-51.6	-66.7	3.8	1.49e+00	0	42	104	0	74	20871
2026-01-01 08:49:58.32	117.09	10.68	-51.5	-66.7	3.8	1.49e+00	0	41	104	0	74	20820
2026-01-01 08:49:59.33	117.00	10.76	-51.6	-66.7	3.8	1.49e+00	0	41	104	0	74	20782
2026-01-01 08:50:00.33	116.91	10.84	-51.5	-66.7	3.8	1.49e+00	0	42	104	0	74	20778
2026-01-01 08:50:01.33	116.82	10.91	-51.5	-66.7	3.8	1.49e+00	0	42	104	0	74	20782
2026-01-01 08:50:02.34	116.73	10.99	-51.5	-66.6	3.8	1.49e+00	0	42	104	0	74	20765
2026-01-01 08:50:03.34	116.63	11.07	-51.5	-66.6	3.8	1.49e+00	0	42	104	0	74	20754
2026-01-01 08:50:04.34	116.54	11.15	-51.5	-66.6	3.8	1.49e+00	0	42	104	0	74	20769
2026-01-01 08:50:05.35	116.45	11.23	-51.5	-66.6	3.8	1.49e+00	0	42	104	0	74	20702
2026-01-01 08:50:06.35	116.35	11.31	-51.5	-66.6	3.8	1.49e+00	0	42	104	0	74	20631
2026-01-01 08:50:07.36	116.26	11.39	-51.5	-66.6	3.8	1.49e+00	0	42	104	0	74	20626
2026-01-01 08:50:08.36	116.16	11.47	-51.5	-66.6	3.8	1.49e+00	0	42	104	0	74	20750
2026-01-01 08:50:09.37	116.06	11.55	-51.5	-66.7	3.8	1.49e+00	0	42	104	0	74	20778
2026-01-01 08:50:10.37	115.97	11.63	-51.5	-66.6	3.8	1.49e+00	0	42	104	0	74	20765
2026-01-01 08:50:11.37	115.87	11.71	-51.5	-66.6	3.8	1.49e+00	0	42	104	0	74	20753
2026-01-01 08:50:12.38	115.77	11.80	-51.5	-66.6	3.8	1.49e+00	0	42	104	0	74	20704
2026-01-01 08:50:13.38	115.67	11.88	-51.5	-66.6	3.8	1.49e+00	0	42	104	0	74	20741
2026-01-01 08:50:14.39	115.58	11.96	-51.5	-66.6	3.8	1.49e+00	0	42	104	0	74	20679
2026-01-01 08:50:15.39	115.48	12.04	-51.5	-66.6	3.8	1.49e+00	0	42	104	0	74	20724
2026-01-01 08:50:16.40	115.38	12.12	-51.5	-66.6	3.8	1.49e+00	0	42	104	0	74	20728
2026-01-01 08:50:17.40	115.28	12.20	-51.5	-66.6	3.8	1.49e+00	0	42	104	0	74	20677
2026-01-01 08:50:18.41	115.17	12.29	-51.5	-66.6	3.8	1.49e+00	0	42	104	0	74	20760
2026-01-01 08:50:19.41	115.07	12.37	-51.5	-66.6	3.8	1.49e+00	0	42	104	0	74	20716
2026-01-01 08:50:20.42	114.97	12.45	-51.5	-66.6	3.8	1.49e+00	0	42	104	0	74	20642
2026-01-01 08:50:21.42	114.87	12.53	-51.5	-66.6	3.8	1.49e+00	0	42	104	0	74	20683
2026-01-01 08:50:22.42	114.76	12.62	-51.5	-66.6	3.8	1.49e+00	0	42	104	0	74	20671
2026-01-01 08:50:23.43	114.66	12.70	-51.5	-66.6	3.8	1.49e+00	0	42	104	0	74	20709
2026-01-01 08:50:24.43	114.55	12.78	-51.5	-66.6	3.8	1.49e+00	0	42	104	0	74	20739
2026-01-01 08:50:25.43	114.45	12.87	-51.5	-66.6	3.8	1.49e+00	0	42	104	0	74	20656
2026-01-01 08:50:26.44	114.34	12.95	-51.5	-66.6	3.8	1.49e+00	0	42	104	0	74	20714
2026-01-01 08:50:27.44	114.24	13.03	-51.5	-66.6	3.8	1.49e+00	0	42	104	0	74	20599
2026-01-01 08:50:28.45	114.13	13.12	-51.5	-66.6	3.8	1.49e+00	0	42	104	0	74	20708
2026-01-01 08:50:29.45	114.02	13.20	-51.5	-66.6	3.8	1.49e+00	0	42	104	0	74	20728
2026-01-01 08:50:30.46	113.91	13.29	-51.5	-66.6	3.8	1.49e+00	0	42	104	0	74	20585
2026-01-01 08:50:31.46	113.80	13.37	-51.5	-66.6	3.8	1.49e+00	0	42	104	0	74	20625
2026-01-01 08:50:32.47	113.69	13.46	-51.5	-66.6	3.8	1.49e+00	0	42	104	0	74	20673
2026-01-01 08:50:33.47	113.58	13.54	-51.5	-66.6	3.8	1.49e+00	0	42	104	0	74	20644
2026-01-01 08:50:34.47	113.47	13.63	-51.5	-66.6	3.8	1.49e+00	0	42	104	0	74	20683
2026-01-01 08:50:35.48	113.36	13.71	-51.5	-66.6	3.8	1.49e+00	0	42	104	0	74	20650
2026-01-01 08:50:36.48	113.25	13.80	-51.5	-66.6	3.8	1.49e+00	0	42	104	0	74	20540
2026-01-01 08:50:37.49	113.14	13.88	-51.5	-66.6	3.8	1.49e+00	0	42	104	0	74	20638
2026-01-01 08:50:38.49	113.02	13.97	-51.5	-66.6	3.8	1.49e+00	0	42	104	0	74	20670
2026-01-01 08:50:39.50	112.91	14.06	-51.5	-66.6	3.8	1.49e+00	0	42	104	0	74	20587
2026-01-01 08:50:40.50	112.79	14.14	-51.5	-66.6	3.8	1.49e+00	0	42	104	0	74	20652
2026-01-01 08:50:41.51	112.68	14.23	-51.5	-66.6	3.8	1.49e+00	0	42	104	0	74	20679
2026-01-01 08:50:42.51	112.56	14.32	-51.5	-66.6	3.8	1.49e+00	0	42	104	0	74	20572
2026-01-01 08:50:43.52	112.44	14.40	-51.5	-66.6	3.8	1.49e+00	0	42	104	0	74	20741
2026-01-01 08:50:44.52	112.33	14.49	-51.5	-66.6	3.8	1.49e+00	0	42	104	0	74	20642
2026-01-01 08:50:45.52	112.21	14.58	-51.5	-66.6	3.8	1.49e+00	0	42	104	0	74	20668
2026-01-01 08:50:46.53	112.09	14.67	-51.5	-66.6	3.8	1.49e+00	0	42	104	0	74	20632
2026-01-01 08:50:47.53	111.97	14.75	-51.5	-66.6	3.8	1.49e+00	0	42	104	0	74	20602
2026-01-01 08:50:48.54	111.85	14.84	-51.5	-66.6	3.8	1.49e+00	0	42	104	0	74	20558
2026-01-01 08:50:49.54	111.73	14.93	-51.5	-66.6	3.8	1.49e+00	0	42	104	0	74	20657
2026-01-01 08:50:50.55	111.60	15.02	-51.5	-66.6	3.8	1.49e+00	0	42	104	0	74	20663
2026-01-01 08:50:51.55	111.48	15.11	-51.5	-66.6	3.8	1.49e+00	0	42	104	0	74	20674
2026-01-01 08:50:52.55	111.36	15.19	-51.5	-66.6	3.8	1.49e+00	0	42	104	0	74	20658
2026-01-01 08:50:53.56	111.23	15.28	-51.5	-66.6	3.8	1.49e+00	0	42	104	0	74	20689
2026-01-01 08:50:54.56	111.11	15.37	-51.4	-66.6	3.8	1.49e+00	0	42	104	0	74	20539
2026-01-01 08:50:55.56	110.98	15.46	-51.5	-66.6	3.8	1.49e+00	0	42	104	0	74	20662
2026-01-01 08:50:56.57	110.86	15.55	-51.5	-66.6	3.8	1.49e+00	0	42	104	0	74	20639
2026-01-01 08:50:57.57	110.73	15.64	-51.5	-66.6	3.8	1.49e+00	0	42	104	0	74	20591
2026-01-01 08:50:58.58	110.60	15.73	-51.5	-66.6	3.8	1.49e+00	0	42	104	0	74	20689
2026-01-01 08:50:59.58	110.47	15.82	-51.5	-66.6	3.8	1.49e+00	0	42	104	0	74	20601
2026-01-01 08:51:00.59	110.34	15.91	-51.5	-66.6	3.8	1.49e+00	0	42	104	0	74	20621
2026-01-01 08:51:01.59	110.21	16.00	-51.5	-66.6	3.8	1.49e+00	0	42	104	0	74	20571
2026-01-01 08:51:02.60	110.08	16.09	-51.5	-66.6	3.8	1.49e+00	0	42	104	0	74	20637
2026-01-01 08:51:03.60	109.95	16.18	-51.5	-66.6	3.8	1.49e+00	0	42	104	0	74	20627
2026-01-01 08:51:04.61	109.81	16.27	-51.5	-66.6	3.8	1.49e+00	0	42	104	0	74	20605
2026-01-01 08:51:05.61	109.68	16.36	-51.5	-66.6	3.8	1.49e+00	0	42	104	0	74	20706
2026-01-01 08:51:06.62	109.55	16.46	-51.5	-66.6	3.8	1.49e+00	0	42	104	0	74	20703
2026-01-01 08:51:07.62	109.41	16.55	-51.5	-66.6	3.8	1.49e+00	0	42	104	0	74	20726
2026-01-01 08:51:08.62	109.28	16.64	-51.5	-66.6	3.8	1.49e+00	0	42	104	0	74	20657
2026-01-01 08:51:09.63	109.14	16.73	-51.5	-66.6	3.8	1.49e+00	0	42	104	0	74	20640
2026-01-01 08:51:10.63	109.00	16.82	-51.5	-66.6	3.8	1.49e+00	0	42	104	0	74	20608
2026-01-01 08:51:11.63	108.86	16.91	-51.5	-66.6	3.8	1.49e+00	0	42	104	0	74	20601
2026-01-01 08:51:12.64	108.72	17.01	-51.5	-66.6	3.8	1.49e+00	0	42	104	0	74	20594
2026-01-01 08:51:13.64	108.58	17.10	-51.5	-66.6	3.8	1.49e+00	0	42	104	0	74	20634
2026-01-01 08:51:14.65	108.44	17.19	-51.5	-66.6	3.8	1.49e+00	0	42	104	0	74	20604
2026-01-01 08:51:15.65	108.30	17.28	-51.5	-66.6	3.8	1.49e+00	0	42	104	0	74	20695
2026-01-01 08:51:16.65	108.16	17.38	-51.5	-66.6	3.8	1.49e+00	0	42	104	0	74	20655
2026-01-01 08:51:17.66	108.01	17.47	-51.5	-66.6	3.8	1.49e+00	0	42	104	0	74	20688
2026-01-01 08:51:18.66	107.87	17.56	-51.5	-66.6	3.8	1.49e+00	0	42	104	0	74	20577
2026-01-01 08:51:19.67	107.72	17.66	-51.5	-66.6	3.8	1.49e+00	0	42	104	0	74	20694
2026-01-01 08:51:20.67	107.57	17.75	-51.5	-66.6	3.8	1.49e+00	0	42	104	0	74	20657
2026-01-01 08:51:21.68	107.42	17.85	-51.5	-66.6	3.8	1.49e+00	0	42	104	0	74	20659
2026-01-01 08:51:22.68	107.28	17.94	-51.5	-66.6	3.8	1.49e+00	0	42	104	0	74	20577
2026-01-01 08:51:23.68	107.13	18.03	-51.5	-66.6	3.8	1.49e+00	0	42	104	0	74	20697
2026-01-01 08:51:24.69	106.98	18.13	-51.5	-66.6	3.8	1.49e+00	0	42	104	0	74	20588
2026-01-01 08:51:25.69	106.82	18.22	-51.5	-66.6	3.8	1.49e+00	0	42	104	0	74	20644
2026-01-01 08:51:26.70	106.67	18.32	-51.5	-66.6	3.8	1.49e+00	0	42	104	0	74	20652
2026-01-01 08:51:27.70	106.52	18.41	-51.5	-66.6	3.8	1.49e+00	0	42	104	0	74	20694
2026-01-01 08:51:28.70	106.36	18.51	-51.5	-66.6	3.8	1.49e+00	0	42	104	0	74	20763
2026-01-01 08:51:29.71	106.21	18.60	-51.5	-66.6	3.8	1.49e+00	0	42	104	0	74	20675
2026-01-01 08:51:30.71	106.05	18.70	-51.5	-66.6	3.8	1.49e+00	0	42	104	0	74	20621
2026-01-01 08:51:31.72	105.89	18.79	-51.5	-66.6	3.8	1.49e+00	0	42	104	0	74	20655
2026-01-01 08:51:32.72	105.74	18.89	-51.5	-66.6	3.8	1.49e+00	0	42	104	0	74	20732
2026-01-01 08:51:33.73	105.58	18.98	-51.5	-66.6	3.8	1.49e+00	0	42	104	0	74	20699
2026-01-01 08:51:34.73	105.42	19.08	-51.5	-66.6	3.8	1.49e+00	0	42	104	0	74	20665
2026-01-01 08:51:35.73	105.26	19.17	-51.5	-66.6	3.8	1.49e+00	0	42	104	0	74	20699
2026-01-01 08:51:36.74	105.09	19.27	-51.5	-66.6	3.8	1.49e+00	0	42	104	0	74	20659
2026-01-01 08:51:37.74	104.93	19.37	-51.5	-66.6	3.8	1.49e+00	0	42	104	0	74	20587
2026-01-01 08:51:38.75	104.76	19.46	-51.5	-66.6	3.8	1.49e+00	0	42	104	0	74	20672
2026-01-01 08:51:39.75	104.60	19.56	-51.5	-66.6	3.8	1.49e+00	0	42	104	0	74	20731
2026-01-01 08:51:40.76	104.43	19.66	-51.5	-66.7	3.8	1.49e+00	0	42	104	0	74	20788
2026-01-01 08:51:41.76	104.26	19.75	-51.5	-66.6	3.8	1.49e+00	0	42	104	0	74	20699
2026-01-01 08:51:42.77	104.09	19.85	-51.5	-66.6	3.8	1.49e+00	0	42	104	0	74	20646
2026-01-01 08:51:43.77	103.93	19.95	-51.5	-66.6	3.8	1.49e+00	0	43	104	0	74	20723
2026-01-01 08:51:44.77	103.76	20.04	-51.5	-66.6	3.8	1.49e+00	0	42	104	0	74	20682
2026-01-01 08:51:45.78	103.58	20.14	-51.5	-66.6	3.8	1.49e+00	0	42	104	0	74	20672
2026-01-01 08:51:46.78	103.41	20.24	-51.5	-66.6	3.8	1.49e+00	0	42	104	0	74	20639
2026-01-01 08:51:47.79	103.23	20.34	-51.5	-66.6	3.8	1.49e+00	0	42	104	0	74	20649
2026-01-01 08:51:48.79	103.06	20.43	-51.5	-66.6	3.8	1.49e+00	0	43	104	0	74	20717
2026-01-01 08:51:49.79	102.88	20.53	-51.5	-66.6	3.8	1.49e+00	0	42	104	0	74	20703
2026-01-01 08:51:50.80	102.71	20.63	-51.5	-66.6	3.8	1.49e+00	0	42	104	0	74	20652
2026-01-01 08:51:51.80	102.53	20.72	-51.5	-66.6	3.8	1.49e+00	0	43	104	0	74	20654
2026-01-01 08:51:52.80	102.35	20.82	-51.5	-66.7	3.8	1.49e+00	0	42	104	0	74	20777
2026-01-01 08:51:53.81	102.17	20.92	-51.5	-66.6	3.8	1.49e+00	0	42	104	0	74	20721
2026-01-01 08:51:54.81	101.98	21.02	-51.5	-66.6	3.8	1.49e+00	0	43	104	0	74	20709
2026-01-01 08:51:55.82	101.80	21.12	-51.5	-66.6	3.8	1.49e+00	0	42	104	0	74	20674
2026-01-01 08:51:56.82	101.62	21.21	-51.5	-66.6	3.8	1.49e+00	0	43	104	0	74	20625
2026-01-01 08:51:57.83	101.43	21.31	-51.5	-66.6	3.8	1.49e+00	0	42	104	0	74	20694
2026-01-01 08:51:58.83	101.24	21.41	-51.5	-66.6	3.8	1.49e+00	0	42	104	0	74	20656
2026-01-01 08:51:59.83	101.06	21.51	-51.5	-66.6	3.8	1.49e+00	0	43	104	0	74	20622
2026-01-01 08:52:00.84	100.87	21.61	-51.5	-66.6	3.8	1.49e+00	0	42	104	0	74	20683
2026-01-01 08:52:01.84	100.68	21.70	-51.5	-66.6	3.8	1.49e+00	0	43	104	0	74	20745
2026-01-01 08:52:02.85	100.48	21.80	-51.5	-66.6	3.8	1.49e+00	0	42	104	0	74	20664
2026-01-01 08:52:03.85	100.29	21.90	-51.5	-66.6	3.8	1.49e+00	0	42	104	0	74	20581
2026-01-01 08:52:04.86	100.10	22.00	-51.5	-66.6	3.8	1.49e+00	0	42	104	0	74	20677
2026-01-01 08:52:05.86	99.90	22.10	-51.5	-66.6	3.8	1.49e+00	0	42	104	0	74	20705
2026-01-01 08:52:06.87	99.70	22.20	-51.5	-66.6	3.8	1.49e+00	0	43	104	0	74	20742
2026-01-01 08:52:07.87	99.51	22.30	-51.5	-66.6	3.8	1.49e+00	0	42	104	0	74	20623
2026-01-01 08:52:08.87	99.31	22.39	-51.5	-66.6	3.8	1.49e+00	0	42	104	0	74	20718
2026-01-01 08:52:09.88	99.10	22.49	-51.5	-66.6	3.8	1.49e+00	0	42	104	0	74	20692
2026-01-01 08:52:10.88	98.90	22.59	-51.5	-66.6	3.8	1.49e+00	0	42	104	0	74	20617
2026-01-01 08:52:11.89	98.70	22.69	-51.5	-66.6	3.8	1.49e+00	0	42	104	0	74	20678
2026-01-01 08:52:12.89	98.50	22.79	-51.5	-66.6	3.8	1.49e+00	0	42	104	0	74	20611
2026-01-01 08:52:13.89	98.29	22.89	-51.5	-66.6	3.8	1.49e+00	0	43	104	0	74	20664
2026-01-01 08:52:14.90	98.08	22.98	-51.5	-66.6	3.8	1.49e+00	0	43	104	0	74	20697
2026-01-01 08:52:15.90	97.88	23.08	-51.5	-66.6	3.8	1.49e+00	0	42	104	0	74	20577
2026-01-01 08:52:16.90	97.67	23.18	-51.5	-66.6	3.8	1.49e+00	0	43	104	0	74	20639
2026-01-01 08:52:17.91	97.45	23.28	-51.5	-66.6	3.8	1.49e+00	0	43	104	0	74	20732
2026-01-01 08:52:18.91	97.24	23.38	-51.5	-66.6	3.8	1.49e+00	0	42	104	0	74	20727
2026-01-01 08:52:19.92	97.03	23.48	-51.5	-66.6	3.8	1.49e+00	0	43	104	0	74	20674
2026-01-01 08:52:20.92	96.81	23.57	-51.5	-66.6	3.8	1.49e+00	0	43	104	0	74	20696
2026-01-01 08:52:21.93	96.60	23.67	-51.5	-66.6	3.8	1.49e+00	0	43	104	0	74	20720
2026-01-01 08:52:22.93	96.38	23.77	-51.5	-66.6	3.8	1.49e+00	0	42	104	0	74	20606
2026-01-01 08:52:23.93	96.16	23.87	-51.5	-66.6	3.8	1.49e+00	0	42	104	0	74	20680
2026-01-01 08:52:24.94	95.94	23.97	-51.5	-66.6	3.8	1.49e+00	0	43	104	0	74	20713
2026-01-01 08:52:25.94	95.72	24.06	-51.5	-66.6	3.8	1.49e+00	0	43	104	0	74	20568
2026-01-01 08:52:26.95	95.49	24.16	-51.5	-66.6	3.8	1.49e+00	0	43	104	0	74	20585
2026-01-01 08:52:27.95	95.27	24.26	-51.5	-66.6	3.8	1.49e+00	0	42	104	0	74	20658
2026-01-01 08:52:28.96	95.04	24.36	-51.5	-66.6	3.8	1.49e+00	0	42	104	0	74	20677
2026-01-01 08:52:29.96	94.81	24.45	-51.5	-66.5	3.8	1.49e+00	0	43	104	0	74	20514
2026-01-01 08:52:30.97	94.58	24.55	-51.5	-66.6	3.8	1.49e+00	0	42	104	0	74	20748
2026-01-01 08:52:31.97	94.35	24.65	-51.5	-66.6	3.8	1.49e+00	0	43	104	0	74	20681
2026-01-01 08:52:32.98	94.12	24.75	-51.5	-66.7	3.8	1.49e+00	0	42	104	0	74	20808
2026-01-01 08:52:33.98	93.89	24.84	-51.5	-66.6	3.8	1.49e+00	0	43	104	0	74	20629
2026-01-01 08:52:34.98	93.66	24.94	-51.5	-66.6	3.8	1.49e+00	0	43	104	0	74	20719
2026-01-01 08:52:35.99	93.42	25.03	-51.5	-66.6	3.8	1.49e+00	0	43	104	0	74	20750
2026-01-01 08:52:37.00	93.18	25.13	-51.5	-66.6	3.8	1.49e+00	0	43	104	0	74	20665
2026-01-01 08:52:38.00	92.94	25.23	-51.5	-66.6	3.8	1.49e+00	0	43	104	0	74	20591
2026-01-01 08:52:39.00	92.70	25.32	-51.5	-66.6	3.8	1.49e+00	0	43	104	0	74	20624
2026-01-01 08:52:40.01	92.46	25.42	-51.5	-66.6	3.8	1.49e+00	0	43	104	0	74	20610
2026-01-01 08:52:41.01	92.21	25.51	-51.5	-66.6	3.8	1.49e+00	0	43	104	0	74	20644
2026-01-01 08:52:42.02	91.97	25.61	-51.5	-66.6	3.8	1.49e+00	0	42	104	0	74	20650
2026-01-01 08:52:43.02	91.72	25.70	-51.5	-66.6	3.8	1.49e+00	0	43	104	0	74	20739
2026-01-01 08:52:44.02	91.48	25.80	-51.5	-66.6	3.8	1.49e+00	0	43	104	0	74	20627
2026-01-01 08:52:45.03	91.23	25.89	-51.5	-66.6	3.8	1.49e+00	0	43	104	0	74	20775
2026-01-01 08:52:46.03	90.98	25.99	-51.5	-66.7	3.8	1.49e+00	0	43	104	0	74	20806
2026-01-01 08:52:47.04	90.72	26.08	-51.5	-66.6	3.8	1.49e+00	0	43	104	0	74	20660
2026-01-01 08:52:48.04	90.47	26.17	-51.5	-66.6	3.8	1.49e+00	0	43	104	0	74	20739
2026-01-01 08:52:49.05	90.21	26.27	-51.5	-66.6	3.8	1.49e+00	0	43	104	0	74	20691
2026-01-01 08:52:50.05	89.96	26.36	-51.5	-66.6	3.8	1.49e+00	0	43	104	0	74	20628
2026-01-01 08:52:51.05	89.70	26.45	-51.5	-66.6	3.8	1.49e+00	0	43	104	0	74	20722
2026-01-01 08:52:52.06	89.44	26.54	-51.5	-66.6	3.8	1.49e+00	0	43	104	0	74	20752
2026-01-01 08:52:53.06	89.18	26.64	-51.5	-66.6	3.8	1.49e+00	0	43	104	0	74	20625
2026-01-01 08:52:54.07	88.91	26.73	-51.5	-66.6	3.8	1.49e+00	0	43	104	0	74	20681
2026-01-01 08:52:55.07	88.65	26.82	-51.5	-66.6	3.8	1.49e+00	0	43	104	0	74	20768
2026-01-01 08:52:56.07	88.38	26.91	-51.5	-66.7	3.8	1.49e+00	0	43	104	0	74	20789
2026-01-01 08:52:57.08	88.11	27.00	-51.5	-66.6	3.8	1.49e+00	0	42	104	0	74	20688
2026-01-01 08:52:58.09	87.84	27.09	-51.5	-66.6	3.8	1.49e+00	0	43	104	0	74	20738
2026-01-01 08:52:59.09	87.57	27.18	-51.5	-66.6	3.8	1.49e+00	0	43	104	0	74	20688
2026-01-01 08:53:00.09	87.30	27.27	-51.5	-66.6	3.8	1.49e+00	0	43	104	0	74	20739
2026-01-01 08:53:01.10	87.03	27.36	-51.5	-66.7	3.8	1.49e+00	0	43	104	0	74	20799
2026-01-01 08:53:02.10	86.75	27.45	-51.5	-66.6	3.8	1.49e+00	0	42	104	0	74	20757
2026-01-01 08:53:03.11	86.48	27.53	-51.5	-66.6	3.8	1.49e+00	0	42	104	0	74	20738
2026-01-01 08:53:04.11	86.20	27.62	-51.5	-66.6	3.8	1.49e+00	0	43	104	0	74	20691
2026-01-01 08:53:05.12	85.92	27.71	-51.6	-66.7	3.8	1.49e+00	0	43	104	0	74	20838
2026-01-01 08:53:06.12	85.64	27.79	-51.6	-66.7	3.8	1.49e+00	0	43	104	0	74	20895
2026-01-01 08:53:07.13	85.35	27.88	-51.5	-66.7	3.8	1.49e+00	0	43	104	0	74	20861
2026-01-01 08:53:08.13	85.07	27.97	-51.5	-66.6	3.8	1.49e+00	0	42	104	0	74	20772
2026-01-01 08:53:09.13	84.78	28.05	-51.5	-66.6	3.8	1.49e+00	0	42	104	0	74	20764
2026-01-01 08:53:10.14	84.49	28.14	-51.5	-66.7	3.8	1.49e+00	0	43	104	0	74	20783
2026-01-01 08:53:11.14	84.21	28.22	-51.6	-66.7	3.8	1.49e+00	0	43	104	0	74	20908
2026-01-01 08:53:12.15	83.92	28.30	-51.6	-66.7	3.8	1.49e+00	0	43	104	0	74	20850
2026-01-01 08:53:13.15	83.62	28.38	-51.6	-66.7	3.8	1.49e+00	0	43	104	0	74	20845
2026-01-01 08:53:14.16	83.33	28.47	-51.6	-66.7	3.8	1.49e+00	0	43	104	0	74	20843
2026-01-01 08:53:15.16	83.04	28.55	-51.6	-66.7	3.8	1.49e+00	0	43	104	0	74	20828
2026-01-01 08:53:16.16	82.74	28.63	-51.6	-66.7	3.8	1.49e+00	0	43	104	0	74	20900
2026-01-01 08:53:17.17	82.44	28.71	-51.6	-66.7	3.8	1.49e+00	0	43	104	0	74	20829
2026-01-01 08:53:18.17	82.14	28.79	-51.5	-66.7	3.8	1.49e+00	0	43	104	0	74	20811
2026-01-01 08:53:19.18	81.84	28.87	-51.6	-66.7	3.8	1.49e+00	0	42	104	0	74	20786
2026-01-01 08:53:20.18	81.54	28.95	-51.6	-66.7	3.8	1.49e+00	0	43	104	0	74	20884
2026-01-01 08:53:21.19	81.23	29.02	-51.6	-66.7	3.8	1.49e+00	0	43	104	0	74	20783
2026-01-01 08:53:22.19	80.93	29.10	-51.5	-66.7	3.8	1.49e+00	0	43	104	0	74	20818
2026-01-01 08:53:23.19	80.62	29.18	-51.6	-66.7	3.8	1.49e+00	0	43	104	0	74	20816
2026-01-01 08:53:24.20	80.31	29.25	-51.6	-66.7	3.8	1.49e+00	0	43	104	0	74	20792
2026-01-01 08:53:25.20	80.00	29.33	-51.6	-66.7	3.8	1.49e+00	0	43	104	0	74	20787
2026-01-01 08:53:26.21	79.69	29.40	-51.6	-66.7	3.8	1.49e+00	0	42	104	0	74	20873
2026-01-01 08:53:27.21	79.38	29.47	-51.6	-66.7	3.8	1.49e+00	0	43	104	0	74	20813
2026-01-01 08:53:28.22	79.06	29.55	-51.6	-66.7	3.8	1.49e+00	0	43	104	0	74	20789
2026-01-01 08:53:29.22	78.75	29.62	-51.6	-66.7	3.8	1.49e+00	0	43	104	0	74	20840
2026-01-01 08:53:30.23	78.43	29.69	-51.6	-66.7	3.8	1.49e+00	0	43	104	0	74	20838
2026-01-01 08:53:31.23	78.11	29.76	-51.6	-66.7	3.8	1.49e+00	0	43	104	0	74	20801
2026-01-01 08:53:32.24	77.79	29.83	-51.5	-66.7	3.8	1.49e+00	0	43	104	0	74	20824
2026-01-01 08:53:33.24	77.47	29.90	-51.5	-66.6	3.8	1.49e+00	0	43	104	0	74	20776
2026-01-01 08:53:34.25	77.15	29.97	-51.5	-66.7	3.8	1.49e+00	0	43	104	0	74	20813
2026-01-01 08:53:35.25	76.83	30.03	-51.6	-66.7	3.8	1.49e+00	0	43	104	0	74	20802
2026-01-01 08:53:36.25	76.50	30.10	-51.5	-66.6	3.8	1.49e+00	0	43	104	0	74	20754
2026-01-01 08:53:37.26	76.18	30.16	-51.6	-66.7	3.8	1.49e+00	0	43	104	0	74	20951
2026-01-01 08:53:38.26	75.85	30.23	-51.6	-66.6	3.8	1.49e+00	0	43	104	0	74	20773
2026-01-01 08:53:39.26	75.52	30.29	-51.6	-66.7	3.8	1.49e+00	0	43	104	0	74	20869
2026-01-01 08:53:40.27	75.19	30.35	-51.6	-66.7	3.8	1.49e+00	0	42	104	0	74	20829
2026-01-01 08:53:41.27	74.86	30.41	-51.5	-66.7	3.8	1.49e+00	0	43	104	0	74	20804
2026-01-01 08:53:42.28	74.52	30.47	-51.5	-66.7	3.8	1.49e+00	0	43	104	0	74	20809
2026-01-01 08:53:43.28	74.19	30.53	-51.5	-66.7	3.8	1.49e+00	0	43	104	0	74	20820
2026-01-01 08:53:44.29	73.85	30.59	-51.5	-66.6	3.8	1.49e+00	0	43	104	0	74	20755
2026-01-01 08:53:45.29	73.52	30.65	-51.6	-66.7	3.8	1.49e+00	0	43	104	0	74	20844
2026-01-01 08:53:46.30	73.18	30.70	-51.5	-66.6	3.8	1.49e+00	0	43	104	0	74	20775
2026-01-01 08:53:47.30	72.84	30.76	-51.5	-66.7	3.8	1.49e+00	0	43	104	0	74	20800
2026-01-01 08:53:48.31	72.50	30.81	-51.5	-66.7	3.8	1.49e+00	0	43	104	0	74	20784
2026-01-01 08:53:49.31	72.16	30.87	-51.6	-66.7	3.8	1.49e+00	0	43	104	0	74	20783
2026-01-01 08:53:50.31	71.82	30.92	-51.5	-66.7	3.8	1.49e+00	0	43	104	0	74	20853
2026-01-01 08:53:51.32	71.48	30.97	-51.5	-66.6	3.8	1.49e+00	0	43	104	0	74	20689
2026-01-01 08:53:52.32	71.13	31.02	-51.5	-66.6	3.8	1.49e+00	0	43	104	0	74	20679
2026-01-01 08:53:53.33	70.79	31.07	-51.5	-66.7	3.8	1.49e+00	0	43	104	0	74	20813
2026-01-01 08:53:54.33	70.44	31.12	-51.5	-66.6	3.8	1.49e+00	0	43	104	0	74	20769
2026-01-01 08:53:55.34	70.09	31.16	-51.6	-66.7	3.8	1.49e+00	0	43	104	0	74	20873
2026-01-01 08:53:56.34	69.74	31.21	-51.6	-66.7	3.8	1.49e+00	0	43	104	0	74	20871
2026-01-01 08:53:57.34	69.40	31.25	-51.6	-66.7	3.8	1.49e+00	0	43	104	0	74	20797
2026-01-01 08:53:58.35	69.04	31.30	-51.5	-66.7	3.8	1.49e+00	0	43	104	0	74	20785
2026-01-01 08:53:59.35	68.69	31.34	-51.5	-66.6	3.8	1.49e+00	0	43	104	0	74	20728
2026-01-01 08:54:00.36	68.34	31.38	-51.5	-66.6	3.8	1.49e+00	0	43	104	0	74	20698
2026-01-01 08:54:01.36	67.99	31.42	-51.5	-66.7	3.8	1.49e+00	0	43	104	0	74	20822
2026-01-01 08:54:02.37	67.63	31.46	-51.5	-66.7	3.8	1.49e+00	0	43	104	0	74	20883
2026-01-01 08:54:03.37	67.28	31.50	-51.5	-66.6	3.8	1.49e+00	0	43	104	0	74	20776
2026-01-01 08:54:04.38	66.92	31.53	-51.5	-66.6	3.8	1.49e+00	0	42	104	0	74	20745
2026-01-01 08:54:05.38	66.57	31.57	-51.5	-66.6	3.8	1.49e+00	0	43	104	0	74	20770
2026-01-01 08:54:06.39	66.21	31.60	-51.5	-66.6	3.8	1.49e+00	0	43	104	0	74	20765
2026-01-01 08:54:07.39	65.85	31.64	-51.5	-66.6	3.8	1.49e+00	0	43	104	0	74	20708
2026-01-01 08:54:08.39	65.49	31.67	-51.6	-66.7	3.8	1.49e+00	0	43	104	0	74	20835
2026-01-01 08:54:09.40	65.13	31.70	-51.5	-66.6	3.8	1.49e+00	0	43	104	0	74	20751
2026-01-01 08:54:10.40	64.78	31.73	-51.5	-66.6	3.8	1.49e+00	0	43	104	0	74	20739
2026-01-01 08:54:11.41	64.41	31.75	-51.5	-66.6	3.8	1.49e+00	0	43	104	0	74	20754
2026-01-01 08:54:12.41	64.05	31.78	-51.5	-66.6	3.8	1.49e+00	0	43	104	0	74	20756
2026-01-01 08:54:13.42	63.69	31.81	-51.5	-66.6	3.8	1.49e+00	0	43	104	0	74	20688
2026-01-01 08:54:14.42	63.33	31.83	-51.5	-66.6	3.8	1.49e+00	0	43	104	0	74	20577
2026-01-01 08:54:15.42	62.97	31.85	-51.5	-66.6	3.8	1.49e+00	0	43	104	0	74	20671
2026-01-01 08:54:16.43	62.60	31.87	-51.5	-66.6	3.8	1.49e+00	0	43	104	0	74	20715
2026-01-01 08:54:17.43	62.24	31.89	-51.6	-66.7	3.8	1.49e+00	0	43	104	0	74	20855
2026-01-01 08:54:18.44	61.87	31.91	-51.5	-66.7	3.8	1.49e+00	0	43	104	0	74	20869
2026-01-01 08:54:19.44	61.51	31.93	-51.5	-66.7	3.8	1.49e+00	0	43	104	0	74	20875
2026-01-01 08:54:20.45	61.14	31.95	-51.6	-66.7	3.8	1.49e+00	0	43	104	0	74	20799
2026-01-01 08:54:21.45	60.78	31.96	-51.6	-66.7	3.8	1.49e+00	0	43	104	0	74	20820
2026-01-01 08:54:22.46	60.41	31.98	-51.5	-66.6	3.8	1.49e+00	0	43	104	0	74	20731
2026-01-01 08:54:23.46	60.05	31.99	-51.5	-66.7	3.8	1.49e+00	0	43	104	0	74	20788
2026-01-01 08:54:24.46	59.68	32.00	-51.5	-66.6	3.8	1.49e+00	0	43	104	0	74	20750
2026-01-01 08:54:25.47	59.32	32.01	-51.5	-66.7	3.8	1.49e+00	0	43	104	0	74	20781
2026-01-01 08:54:26.47	58.95	32.02	-51.5	-66.6	3.8	1.49e+00	0	43	104	0	74	20744
2026-01-01 08:54:27.48	58.58	32.02	-51.6	-66.7	3.8	1.49e+00	0	43	104	0	74	20816
2026-01-01 08:54:28.48	58.22	32.03	-51.5	-66.6	3.8	1.49e+00	0	43	104	0	74	20707
2026-01-01 08:54:29.49	57.85	32.03	-51.5	-66.6	3.8	1.49e+00	0	43	104	0	74	20771
2026-01-01 08:54:30.49	57.48	32.04	-51.6	-66.6	3.8	1.49e+00	0	43	104	0	74	20773
2026-01-01 08:54:31.50	57.11	32.04	-51.5	-66.7	3.8	1.49e+00	0	43	104	0	74	20825
2026-01-01 08:54:32.50	56.75	32.04	-51.5	-66.6	3.8	1.49e+00	0	43	104	0	74	20774
2026-01-01 08:54:33.51	56.38	32.04	-51.6	-66.7	3.8	1.49e+00	0	43	104	0	74	20802
2026-01-01 08:54:34.51	56.01	32.04	-51.6	-66.7	3.8	1.49e+00	0	43	104	0	74	20808
2026-01-01 08:54:35.51	55.65	32.03	-51.5	-66.7	3.8	1.49e+00	0	43	104	0	74	20832
2026-01-01 08:54:36.52	55.28	32.03	-51.6	-66.7	3.8	1.49e+00	0	43	104	0	74	20805
2026-01-01 08:54:37.52	54.92	32.02	-51.6	-66.7	3.8	1.49e+00	0	43	104	0	74	20788
2026-01-01 08:54:38.53	54.55	32.01	-51.6	-66.7	3.8	1.49e+00	0	43	104	0	74	20865
2026-01-01 08:54:39.53	54.18	32.00	-51.6	-66.7	3.8	1.49e+00	0	43	104	0	74	20797
2026-01-01 08:54:40.54	53.81	31.99	-51.6	-66.7	3.8	1.49e+00	0	43	104	0	74	20834
2026-01-01 08:54:41.54	53.45	31.98	-51.5	-66.7	3.8	1.49e+00	0	43	104	0	74	20824
2026-01-01 08:54:42.54	53.09	31.97	-51.6	-66.7	3.8	1.49e+00	0	43	104	0	74	20815
2026-01-01 08:54:43.55	52.72	31.96	-51.6	-66.6	3.8	1.49e+00	0	43	104	0	74	20758
2026-01-01 08:54:44.55	52.35	31.94	-51.6	-66.7	3.8	1.49e+00	0	43	104	0	74	20820
2026-01-01 08:54:45.55	51.99	31.92	-51.5	-66.6	3.8	1.49e+00	0	43	104	0	74	20691
2026-01-01 08:54:46.56	51.63	31.91	-51.6	-66.7	3.8	1.49e+00	0	43	104	0	74	20843
2026-01-01 08:54:47.56	51.26	31.89	-51.6	-66.7	3.8	1.49e+00	0	43	104	0	74	20937
2026-01-01 08:54:48.57	50.90	31.87	-51.6	-66.7	3.8	1.49e+00	0	43	104	0	74	20919
2026-01-01 08:54:49.57	50.54	31.84	-51.6	-66.7	3.8	1.49e+00	0	43	104	0	74	20804
2026-01-01 08:54:50.58	50.17	31.82	-51.6	-66.7	3.8	1.49e+00	0	43	104	0	74	20790
2026-01-01 08:54:51.58	49.81	31.80	-51.5	-66.6	3.8	1.49e+00	0	42	104	0	74	20728
2026-01-01 08:54:52.59	49.45	31.77	-51.5	-66.7	3.8	1.49e+00	0	43	104	0	74	20797
2026-01-01 08:54:53.59	49.09	31.74	-51.5	-66.6	3.8	1.49e+00	0	43	104	0	74	20754
2026-01-01 08:54:54.59	48.73	31.72	-51.6	-66.6	3.8	1.49e+00	0	43	104	0	74	20710
2026-01-01 08:54:55.60	48.37	31.69	-51.5	-66.7	3.8	1.49e+00	0	43	104	0	74	20862
2026-01-01 08:54:56.60	48.01	31.66	-51.6	-66.7	3.8	1.49e+00	0	43	104	0	74	20992
2026-01-01 08:54:57.61	47.65	31.62	-51.6	-66.7	3.8	1.49e+00	0	43	104	0	74	20874
2026-01-01 08:54:58.61	47.30	31.59	-51.6	-66.7	3.8	1.49e+00	0	43	104	0	74	20867
2026-01-01 08:54:59.62	46.94	31.56	-51.6	-66.7	3.8	1.49e+00	0	43	104	0	74	20907
2026-01-01 08:55:00.62	46.59	31.52	-51.6	-66.7	3.8	1.49e+00	0	43	104	0	74	20811
2026-01-01 08:55:01.63	46.23	31.48	-51.6	-66.7	3.8	1.49e+00	0	43	104	0	74	20783
2026-01-01 08:55:02.63	45.88	31.45	-51.6	-66.7	3.8	1.49e+00	0	43	104	0	74	20799
2026-01-01 08:55:03.63	45.53	31.41	-51.6	-66.6	3.8	1.49e+00	0	43	104	0	74	20772
2026-01-01 08:55:04.64	45.17	31.37	-51.6	-66.7	3.8	1.49e+00	0	43	104	0	74	20802
2026-01-01 08:55:05.64	44.82	31.32	-51.6	-66.6	3.8	1.49e+00	0	43	104	0	74	20754
2026-01-01 08:55:06.65	44.47	31.28	-51.6	-66.7	3.8	1.49e+00	0	43	104	0	74	20833
2026-01-01 08:55:07.65	44.12	31.24	-51.6	-66.6	3.8	1.49e+00	0	43	104	0	74	20766
2026-01-01 08:55:08.65	43.77	31.19	-51.6	-66.7	3.8	1.49e+00	0	43	104	0	74	20852
2026-01-01 08:55:09.66	43.43	31.15	-51.6	-66.7	3.8	1.49e+00	0	43	104	0	74	20857
2026-01-01 08:55:10.66	43.08	31.10	-51.6	-66.7	3.8	1.49e+00	0	43	104	0	74	20806
2026-01-01 08:55:11.67	42.73	31.05	-51.6	-66.7	3.8	1.49e+00	0	43	104	0	74	20803
2026-01-01 08:55:12.67	42.39	31.00	-51.6	-66.7	3.8	1.49e+00	0	43	104	0	74	20904
2026-01-01 08:55:13.68	42.04	30.95	-51.6	-66.7	3.8	1.49e+00	0	43	104	0	74	20841
2026-01-01 08:55:14.68	41.70	30.90	-51.6	-66.7	3.8	1.49e+00	0	43	104	0	74	20913
2026-01-01 08:55:15.68	41.36	30.85	-51.6	-66.7	3.8	1.49e+00	0	43	104	0	74	20845
2026-01-01 08:55:16.69	41.02	30.80	-51.6	-66.7	3.8	1.49e+00	0	43	104	0	74	20910
2026-01-01 08:55:17.69	40.69	30.74	-51.6	-66.7	3.8	1.49e+00	0	43	104	0	74	20905
2026-01-01 08:55:18.70	40.35	30.68	-51.6	-66.7	3.8	1.49e+00	0	43	104	0	74	20858
2026-01-01 08:55:19.70	40.01	30.63	-51.6	-66.7	3.8	1.49e+00	0	43	104	0	74	20831
2026-01-01 08:55:20.71	39.67	30.57	-51.6	-66.7	3.8	1.49e+00	0	43	104	0	74	20846
2026-01-01 08:55:21.71	39.34	30.51	-51.6	-66.7	3.8	1.49e+00	0	43	104	0	74	20813
2026-01-01 08:55:22.71	39.01	30.45	-51.6	-66.7	3.8	1.49e+00	0	43	104	0	74	20844
2026-01-01 08:55:23.72	38.68	30.39	-51.5	-66.7	3.8	1.49e+00	0	43	104	0	74	20825
2026-01-01 08:55:24.72	38.35	30.33	-51.6	-66.7	3.8	1.49e+00	0	43	104	0	74	20929
2026-01-01 08:55:25.73	38.02	30.27	-51.6	-66.7	3.8	1.49e+00	0	43	104	0	74	20831
2026-01-01 08:55:26.73	37.69	30.21	-51.6	-66.7	3.8	1.49e+00	0	43	104	0	74	20906
2026-01-01 08:55:27.73	37.37	30.14	-51.6	-66.7	3.8	1.49e+00	0	43	104	0	74	20931
2026-01-01 08:55:28.74	37.04	30.08	-51.6	-66.7	3.8	1.49e+00	0	43	104	0	74	20838
2026-01-01 08:55:29.74	36.72	30.01	-51.6	-66.7	3.8	1.49e+00	0	43	104	0	74	20889
2026-01-01 08:55:30.75	36.39	29.94	-51.5	-66.7	3.8	1.49e+00	0	43	104	0	74	20843
2026-01-01 08:55:31.75	36.07	29.88	-51.6	-66.7	3.8	1.49e+00	0	43	104	0	74	20824
2026-01-01 08:55:32.76	35.75	29.81	-51.6	-66.7	3.8	1.49e+00	0	43	104	0	74	20861
2026-01-01 08:55:33.76	35.43	29.74	-51.6	-66.7	3.8	1.49e+00	0	43	104	0	74	20945
2026-01-01 08:55:34.77	35.11	29.67	-51.6	-66.7	3.8	1.49e+00	0	43	104	0	74	20938
2026-01-01 08:55:35.77	34.80	29.60	-51.6	-66.7	3.8	1.49e+00	0	43	104	0	74	20929
2026-01-01 08:55:36.77	34.49	29.53	-51.6	-66.7	3.8	1.49e+00	0	43	104	0	74	20853
2026-01-01 08:55:37.78	34.17	29.45	-51.6	-66.7	3.8	1.49e+00	0	43	104	0	74	20863
2026-01-01 08:55:38.78	33.86	29.38	-51.6	-66.6	3.8	1.49e+00	0	43	104	0	74	20770
2026-01-01 08:55:39.79	33.55	29.30	-51.6	-66.7	3.8	1.49e+00	0	43	104	0	74	20829
2026-01-01 08:55:40.79	33.25	29.23	-51.5	-66.7	3.8	1.49e+00	0	43	104	0	74	20856
2026-01-01 08:55:41.79	32.94	29.16	-51.6	-66.7	3.8	1.49e+00	0	43	104	0	74	20830
2026-01-01 08:55:42.80	32.63	29.08	-51.6	-66.7	3.8	1.49e+00	0	43	104	0	74	20851
2026-01-01 08:55:43.80	32.33	29.00	-51.6	-66.7	3.8	1.49e+00	0	43	104	0	74	20933
2026-01-01 08:55:44.81	32.03	28.92	-51.6	-66.7	3.8	1.49e+00	0	43	104	0	74	20828
2026-01-01 08:55:45.81	31.73	28.85	-51.6	-66.7	3.8	1.49e+00	0	43	104	0	74	20819
2026-01-01 08:55:46.82	31.42	28.77	-51.6	-66.7	3.8	1.49e+00	0	43	104	0	74	20827
2026-01-01 08:55:47.82	31.13	28.69	-51.5	-66.6	3.8	1.49e+00	0	43	104	0	74	20762
2026-01-01 08:55:48.82	30.83	28.61	-51.5	-66.6	3.8	1.49e+00	0	43	104	0	74	20768
2026-01-01 08:55:49.83	30.54	28.53	-51.6	-66.7	3.8	1.49e+00	0	43	104	0	74	20808
2026-01-01 08:55:50.83	30.24	28.45	-51.6	-66.7	3.8	1.49e+00	0	43	104	0	74	20854
2026-01-01 08:55:51.83	29.95	28.36	-51.6	-66.7	3.8	1.49e+00	0	43	104	0	74	20878
2026-01-01 08:55:52.84	29.66	28.28	-51.6	-66.6	3.8	1.49e+00	0	43	104	0	74	20768
2026-01-01 08:55:53.84	29.37	28.20	-51.6	-66.7	3.8	1.49e+00	0	43	104	0	74	20877
2026-01-01 08:55:54.85	29.08	28.11	-51.6	-66.7	3.8	1.49e+00	0	43	104	0	74	20870
2026-01-01 08:55:55.85	28.80	28.03	-51.6	-66.7	3.8	1.49e+00	0	43	104	0	74	20903
2026-01-01 08:55:56.86	28.51	27.94	-51.6	-66.7	3.8	1.49e+00	0	43	104	0	74	20881
2026-01-01 08:55:57.86	28.23	27.86	-51.6	-66.7	3.8	1.49e+00	0	43	104	0	74	20804
2026-01-01 08:55:58.87	27.95	27.77	-51.6	-66.7	3.8	1.49e+00	0	43	104	0	74	20871
2026-01-01 08:55:59.87	27.67	27.69	-51.6	-66.7	3.8	1.49e+00	0	43	104	0	74	20871
2026-01-01 08:56:00.88	27.39	27.60	-51.6	-66.7	3.8	1.49e+00	0	43	104	0	74	20819
2026-01-01 08:56:01.88	27.11	27.51	-51.6	-66.7	3.8	1.49e+00	0	43	104	0	74	20827
2026-01-01 08:56:02.88	26.84	27.43	-51.6	-66.7	3.8	1.49e+00	0	43	104	0	74	20858
2026-01-01 08:56:03.89	26.56	27.34	-51.6	-66.7	3.8	1.49e+00	0	43	104	0	74	20960
2026-01-01 08:56:04.89	26.29	27.25	-51.6	-66.7	3.8	1.49e+00	0	43	104	0	74	21010
2026-01-01 08:56:05.89	26.02	27.16	-51.6	-66.7	3.8	1.49e+00	0	43	104	0	74	20939
2026-01-01 08:56:06.90	25.75	27.07	-51.6	-66.7	3.8	1.49e+00	0	43	104	0	74	20804
2026-01-01 08:56:07.90	25.49	26.98	-51.6	-66.7	3.8	1.49e+00	0	43	104	0	74	20916
2026-01-01 08:56:08.91	25.22	26.89	-51.6	-66.7	3.8	1.49e+00	0	43	104	0	74	20871
2026-01-01 08:56:09.91	24.96	26.80	-51.6	-66.7	3.8	1.49e+00	0	43	104	0	74	20838
2026-01-01 08:56:10.92	24.69	26.71	-51.6	-66.7	3.8	1.49e+00	0	43	104	0	74	20851
2026-01-01 08:56:11.92	24.43	26.62	-51.6	-66.7	3.8	1.49e+00	0	43	104	0	74	20892
2026-01-01 08:56:12.92	24.17	26.53	-51.6	-66.7	3.8	1.49e+00	0	43	104	0	74	20978
2026-01-01 08:56:13.93	23.91	26.43	-51.6	-66.7	3.8	1.49e+00	0	43	104	0	74	20942
2026-01-01 08:56:14.93	23.66	26.34	-51.6	-66.7	3.8	1.49e+00	0	43	104	0	74	20961
2026-01-01 08:56:15.94	23.40	26.25	-51.6	-66.8	3.8	1.49e+00	0	43	104	0	74	21028
2026-01-01 08:56:16.94	23.15	26.16	-51.6	-66.7	3.8	1.49e+00	0	43	104	0	74	20902
2026-01-01 08:56:17.94	22.90	26.06	-51.6	-66.7	3.8	1.49e+00	0	43	104	0	74	20865
2026-01-01 08:56:18.95	22.64	25.97	-51.6	-66.7	3.8	1.49e+00	0	43	104	0	74	20940
2026-01-01 08:56:19.96	22.39	25.87	-51.6	-66.7	3.8	1.49e+00	0	43	104	0	74	20960
2026-01-01 08:56:20.96	22.15	25.78	-51.6	-66.7	3.8	1.49e+00	0	43	104	0	74	20920
2026-01-01 08:56:21.96	21.90	25.69	-51.6	-66.7	3.8	1.49e+00	0	43	104	0	74	20982
2026-01-01 08:56:22.97	21.65	25.59	-51.6	-66.7	3.8	1.49e+00	0	43	104	0	74	20920
2026-01-01 08:56:23.97	21.41	25.50	-51.6	-66.7	3.8	1.49e+00	0	43	104	0	74	20929
2026-01-01 08:56:24.97	21.17	25.40	-51.6	-66.7	3.8	1.49e+00	0	43	104	0	74	20981
2026-01-01 08:56:25.98	20.93	25.31	-51.6	-66.7	3.8	1.49e+00	0	43	104	0	74	20920
2026-01-01 08:56:26.98	20.69	25.21	-51.6	-66.7	3.8	1.49e+00	0	43	104	0	74	20929
2026-01-01 08:56:27.99	20.45	25.12	-51.6	-66.7	3.8	1.49e+00	0	43	104	0	74	20884
2026-01-01 08:56:28.99	20.22	25.02	-51.6	-66.7	3.8	1.49e+00	0	43	104	0	74	20915
2026-01-01 08:56:29.99	19.98	24.93	-51.6	-66.7	3.8	1.49e+00	0	43	104	0	74	20867
2026-01-01 08:56:31.00	19.75	24.83	-51.6	-66.7	3.8	1.49e+00	0	43	104	0	74	20926
2026-01-01 08:56:32.00	19.52	24.73	-51.6	-66.8	3.8	1.49e+00	0	43	104	0	74	21050
2026-01-01 08:56:33.01	19.29	24.64	-51.6	-66.8	3.8	1.49e+00	0	43	104	0	74	21073
2026-01-01 08:56:34.01	19.06	24.54	-51.6	-66.8	3.8	1.49e+00	0	43	104	0	74	21024
2026-01-01 08:56:35.02	18.83	24.44	-51.7	-66.8	3.8	1.49e+00	0	43	104	0	74	21091
2026-01-01 08:56:36.02	18.60	24.35	-51.6	-66.7	3.8	1.49e+00	0	43	104	0	74	20946
2026-01-01 08:56:37.02	18.38	24.25	-51.6	-66.7	3.8	1.49e+00	0	43	104	0	74	20945
2026-01-01 08:56:38.03	18.16	24.15	-51.6	-66.7	3.8	1.49e+00	0	43	104	0	74	20965
2026-01-01 08:56:39.03	17.93	24.05	-51.6	-66.7	3.8	1.49e+00	0	43	104	0	74	20940
2026-01-01 08:56:40.04	17.71	23.96	-51.6	-66.7	3.8	1.49e+00	0	43	104	0	74	20936
2026-01-01 08:56:41.04	17.49	23.86	-51.6	-66.7	3.8	1.49e+00	0	43	104	0	74	20883
2026-01-01 08:56:42.05	17.28	23.76	-51.6	-66.8	3.8	1.49e+00	0	43	104	0	74	21059
2026-01-01 08:56:43.05	17.06	23.66	-51.6	-66.8	3.8	1.49e+00	0	43	104	0	74	21051
2026-01-01 08:56:44.06	16.84	23.57	-51.6	-66.7	3.8	1.49e+00	0	43	104	0	74	21014
2026-01-01 08:56:45.06	16.63	23.47	-51.6	-66.7	3.8	1.49e+00	0	43	104	0	74	20954
2026-01-01 08:56:46.07	16.42	23.37	-51.6	-66.7	3.8	1.49e+00	0	43	104	0	74	20935
2026-01-01 08:56:47.07	16.21	23.27	-51.6	-66.7	3.8	1.49e+00	0	43	104	0	74	20949
2026-01-01 08:56:48.07	16.00	23.18	-51.6	-66.7	3.8	1.49e+00	0	43	104	0	74	20923
2026-01-01 08:56:49.08	15.79	23.08	-51.6	-66.7	3.8	1.49e+00	0	43	104	0	74	20903
2026-01-01 08:56:50.08	15.58	22.98	-51.6	-66.7	3.8	1.49e+00	0	43	104	0	74	20866
2026-01-01 08:56:51.09	15.38	22.88	-51.6	-66.7	3.8	1.49e+00	0	43	104	0	74	20839
2026-01-01 08:56:52.09	15.17	22.78	-51.6	-66.7	3.8	1.49e+00	0	43	104	0	74	20853
2026-01-01 08:56:53.10	14.97	22.68	-51.6	-66.7	3.8	1.49e+00	0	43	104	0	74	20817
2026-01-01 08:56:54.10	14.77	22.59	-51.6	-66.7	3.8	1.49e+00	0	43	104	0	74	20960
2026-01-01 08:56:55.11	14.57	22.49	-51.6	-66.8	3.8	1.49e+00	0	43	104	0	74	21018
2026-01-01 08:56:56.11	14.37	22.39	-51.6	-66.7	3.8	1.49e+00	0	43	104	0	74	20953
2026-01-01 08:56:57.11	14.17	22.29	-51.6	-66.7	3.8	1.49e+00	0	43	104	0	74	20923
2026-01-01 08:56:58.12	13.97	22.19	-51.6	-66.7	3.8	1.49e+00	0	43	104	0	74	20882
2026-01-01 08:56:59.13	13.78	22.10	-51.6	-66.7	3.8	1.49e+00	0	43	104	0	74	20891
2026-01-01 08:57:00.13	13.58	22.00	-51.6	-66.7	3.8	1.49e+00	0	43	104	0	74	20886
2026-01-01 08:57:01.13	13.39	21.90	-51.6	-66.7	3.8	1.49e+00	0	43	104	0	74	20892
2026-01-01 08:57:02.14	13.20	21.80	-51.6	-66.7	3.8	1.49e+00	0	43	104	0	74	20871
2026-01-01 08:57:03.14	13.01	21.70	-51.6	-66.7	3.8	1.49e+00	0	43	104	0	74	20815
2026-01-01 08:57:04.15	12.82	21.61	-51.6	-66.7	3.8	1.49e+00	0	43	104	0	74	20973
2026-01-01 08:57:05.15	12.63	21.51	-51.6	-66.7	3.8	1.49e+00	0	43	104	0	74	20964
2026-01-01 08:57:06.16	12.44	21.41	-51.6	-66.7	3.8	1.49e+00	0	43	104	0	74	20921
2026-01-01 08:57:07.16	12.26	21.31	-51.6	-66.7	3.8	1.49e+00	0	43	104	0	74	20934
2026-01-01 08:57:08.17	12.07	21.22	-51.6	-66.7	3.8	1.49e+00	0	43	104	0	74	21000
2026-01-01 08:57:09.17	11.89	21.12	-51.6	-66.8	3.8	1.49e+00	0	43	104	0	74	21026
2026-01-01 08:57:10.17	11.71	21.02	-51.6	-66.7	3.8	1.49e+00	0	43	104	0	74	20874
2026-01-01 08:57:11.18	11.53	20.92	-51.6	-66.7	3.8	1.49e+00	0	43	104	0	74	20964
2026-01-01 08:57:12.18	11.35	20.83	-51.6	-66.7	3.8	1.49e+00	0	43	104	0	74	20949
2026-01-01 08:57:13.19	11.17	20.73	-51.6	-66.7	3.8	1.49e+00	0	43	104	0	74	20941
2026-01-01 08:57:14.19	10.99	20.63	-51.6	-66.7	3.8	1.49e+00	0	43	104	0	74	20963
2026-01-01 08:57:15.19	10.82	20.53	-51.7	-66.8	3.8	1.49e+00	0	43	104	0	74	21037
2026-01-01 08:57:16.20	10.64	20.44	-51.6	-66.7	3.8	1.49e+00	0	43	104	0	74	20978
2026-01-01 08:57:17.20	10.47	20.34	-51.6	-66.7	3.8	1.49e+00	0	43	104	0	74	20946
2026-01-01 08:57:18.20	10.30	20.24	-51.6	-66.7	3.8	1.49e+00	0	43	104	0	74	20979
2026-01-01 08:57:19.21	10.12	20.15	-51.6	-66.8	3.8	1.49e+00	0	43	104	0	74	21021
2026-01-01 08:57:20.21	9.95	20.05	-51.6	-66.8	3.8	1.49e+00	0	43	104	0	74	21055
2026-01-01 08:57:21.22	9.78	19.95	-51.6	-66.8	3.8	1.49e+00	0	43	104	0	74	21033
2026-01-01 08:57:22.22	9.62	19.86	-51.6	-66.7	3.8	1.49e+00	0	43	104	0	74	20957
2026-01-01 08:57:23.23	9.45	19.76	-51.6	-66.7	3.8	1.49e+00	0	43	104	0	74	20968
2026-01-01 08:57:24.25	9.28	19.66	-51.6	-66.7	3.8	1.49e+00	0	43	104	0	74	20963
2026-01-01 08:57:25.25	9.11	19.57	-51.7	-66.8	3.8	1.49e+00	0	43	104	0	74	21095
2026-01-01 08:57:26.26	8.95	19.47	-51.7	-66.8	3.8	1.49e+00	0	43	104	0	74	21050
2026-01-01 08:57:27.37	8.77	19.36	-51.7	-66.8	3.8	1.49e+00	0	43	104	0	74	21111
2026-01-01 08:57:28.26	8.62	19.28	-51.7	-66.8	3.8	1.49e+00	0	43	104	0	74	21110
2026-01-01 08:57:29.41	8.44	19.17	-51.7	-66.7	3.8	1.49e+00	0	43	104	0	74	20954
2026-01-01 08:57:30.27	8.30	19.09	-51.6	-66.7	3.8	1.49e+00	0	43	104	0	74	20960
2026-01-01 08:57:31.41	8.12	18.98	-51.7	-66.8	3.8	1.49e+00	0	43	104	0	74	21040
2026-01-01 08:57:32.27	7.99	18.90	-51.7	-66.8	3.8	1.49e+00	0	43	104	0	74	21130
2026-01-01 08:57:33.42	7.81	18.79	-51.6	-66.8	3.8	1.49e+00	0	43	104	0	74	21039
2026-01-01 08:57:34.28	7.67	18.71	-51.7	-66.8	3.8	1.49e+00	0	43	104	0	74	21065
2026-01-01 08:57:35.43	7.50	18.60	-51.7	-66.8	3.8	1.49e+00	0	43	104	0	74	21049
2026-01-01 08:57:36.29	7.37	18.52	-51.7	-66.8	3.8	1.49e+00	0	43	104	0	74	21038
2026-01-01 08:57:37.44	7.19	18.41	-51.6	-66.8	3.8	1.49e+00	0	43	104	0	74	21075
2026-01-01 08:57:38.30	7.06	18.33	-51.6	-66.8	3.8	1.49e+00	0	43	104	0	74	21023
2026-01-01 08:57:39.44	6.89	18.22	-51.6	-66.7	3.8	1.49e+00	0	43	104	0	74	20964
2026-01-01 08:57:40.31	6.76	18.14	-51.6	-66.7	3.8	1.49e+00	0	43	104	0	74	20943
2026-01-01 08:57:41.45	6.59	18.04	-51.6	-66.7	3.8	1.49e+00	0	43	104	0	74	20979
2026-01-01 08:57:42.31	6.46	17.96	-51.6	-66.7	3.8	1.49e+00	0	43	104	0	74	20919
2026-01-01 08:57:43.46	6.29	17.85	-51.7	-66.8	3.8	1.49e+00	0	43	104	0	74	21024
2026-01-01 08:57:44.32	6.17	17.77	-51.7	-66.8	3.8	1.49e+00	0	43	104	0	74	21067
2026-01-01 08:57:45.47	6.00	17.66	-51.6	-66.8	3.8	1.49e+00	0	43	104	0	74	21038
2026-01-01 08:57:46.33	5.88	17.58	-51.6	-66.8	3.8	1.49e+00	0	43	104	0	74	21033
2026-01-01 08:57:47.48	5.71	17.48	-51.7	-66.7	3.8	1.49e+00	0	43	104	0	74	20952
2026-01-01 08:57:48.34	5.59	17.40	-51.6	-66.7	3.8	1.49e+00	0	43	104	0	74	20978
2026-01-01 08:57:49.49	5.43	17.29	-51.7	-66.8	3.8	1.49e+00	0	43	104	0	74	21085
2026-01-01 08:57:50.35	5.31	17.21	-51.6	-66.8	3.8	1.49e+00	0	43	104	0	74	21023
2026-01-01 08:57:51.49	5.15	17.11	-51.6	-66.7	3.8	1.49e+00	0	43	104	0	74	20993
2026-01-01 08:57:52.36	5.03	17.03	-51.6	-66.8	3.8	1.49e+00	0	43	104	0	74	21055
2026-01-01 08:57:53.50	4.87	16.92	-51.6	-66.7	3.8	1.49e+00	0	43	104	0	74	20977
2026-01-01 08:57:54.36	4.75	16.84	-51.6	-66.7	3.8	1.49e+00	0	43	104	0	74	20992
2026-01-01 08:57:55.51	4.60	16.74	-51.6	-66.7	3.8	1.49e+00	0	43	104	0	74	20893
2026-01-01 08:57:56.37	4.48	16.66	-51.7	-66.7	3.8	1.49e+00	0	43	104	0	74	20975
2026-01-01 08:57:57.53	4.32	16.56	-51.6	-66.7	3.8	1.49e+00	0	43	104	0	74	20974
2026-01-01 08:57:58.40	4.21	16.48	-51.6	-66.7	3.8	1.49e+00	0	43	104	0	74	20967
2026-01-01 08:57:59.54	4.06	16.37	-51.6	-66.7	3.8	1.49e+00	0	43	104	0	74	20972
2026-01-01 08:58:00.40	3.94	16.30	-51.6	-66.8	3.8	1.49e+00	0	43	104	0	74	21044
2026-01-01 08:58:01.55	3.79	16.19	-51.6	-66.8	3.8	1.49e+00	0	43	104	0	74	21031
2026-01-01 08:58:02.41	3.68	16.12	-51.6	-66.8	3.8	1.49e+00	0	43	104	0	74	21028
2026-01-01 08:58:03.56	3.53	16.01	-51.7	-66.8	3.8	1.49e+00	0	43	104	0	74	21061
2026-01-01 08:58:04.42	3.42	15.94	-51.6	-66.7	3.8	1.49e+00	0	43	104	0	74	21014
2026-01-01 08:58:05.57	3.27	15.83	-51.6	-66.8	3.8	1.49e+00	0	43	104	0	74	21044
2026-01-01 08:58:06.43	3.17	15.76	-51.6	-66.8	3.8	1.49e+00	0	43	104	0	74	21060
2026-01-01 08:58:07.58	3.02	15.65	-51.7	-66.8	3.8	1.49e+00	0	43	104	0	74	21079
2026-01-01 08:58:08.44	2.91	15.58	-51.6	-66.7	3.8	1.49e+00	0	43	104	0	74	20974
2026-01-01 08:58:09.59	2.77	15.48	-51.7	-66.8	3.8	1.49e+00	0	43	104	0	74	21186
2026-01-01 08:58:10.45	2.66	15.40	-51.7	-66.8	3.8	1.49e+00	0	43	104	0	74	21104
2026-01-01 08:58:11.60	2.52	15.30	-51.7	-66.8	3.8	1.49e+00	0	43	104	0	74	21056
2026-01-01 08:58:12.46	2.42	15.22	-51.7	-66.8	3.8	1.49e+00	0	43	104	0	74	21143
2026-01-01 08:58:13.60	2.28	15.12	-51.7	-66.8	3.8	1.49e+00	0	43	104	0	74	21180
2026-01-01 08:58:14.47	2.17	15.05	-51.7	-66.8	3.8	1.49e+00	0	43	104	0	74	21148
2026-01-01 08:58:15.61	2.03	14.95	-51.7	-66.8	3.8	1.49e+00	0	43	104	0	74	21095
2026-01-01 08:58:16.47	1.93	14.87	-51.7	-66.8	3.8	1.49e+00	0	43	104	0	74	21024
2026-01-01 08:58:17.62	1.79	14.77	-51.7	-66.7	3.8	1.49e+00	0	43	104	0	74	20996
2026-01-01 08:58:18.48	1.69	14.70	-51.7	-66.8	3.8	1.49e+00	0	43	104	0	74	21139
2026-01-01 08:58:19.63	1.56	14.60	-51.7	-66.8	3.8	1.49e+00	0	43	104	0	74	21120
2026-01-01 08:58:20.49	1.46	14.52	-51.7	-66.8	3.8	1.49e+00	0	43	104	0	74	21075
2026-01-01 08:58:21.64	1.32	14.42	-51.7	-66.8	3.8	1.49e+00	0	43	104	0	74	21141
2026-01-01 08:58:22.50	1.23	14.35	-51.7	-66.8	3.8	1.49e+00	0	43	104	0	74	21071
2026-01-01 08:58:23.65	1.09	14.25	-51.7	-66.8	3.8	1.49e+00	0	43	104	0	74	21040
2026-01-01 08:58:24.50	1.00	14.18	-51.7	-66.8	3.8	1.49e+00	0	43	104	0	74	21091
2026-01-01 08:58:25.65	0.87	14.08	-51.7	-66.8	3.8	1.49e+00	0	43	104	0	74	21124
2026-01-01 08:58:26.51	0.77	14.00	-51.7	-66.8	3.8	1.49e+00	0	43	104	0	74	21182
2026-01-01 08:58:27.66	0.64	13.91	-51.7	-66.8	3.8	1.49e+00	0	43	104	0	74	21229
2026-01-01 08:58:28.52	0.55	13.83	-51.7	-66.8	3.8	1.49e+00	0	43	104	0	74	21223
2026-01-01 08:58:29.67	0.42	13.74	-51.7	-66.8	3.8	1.49e+00	0	43	104	0	74	21189
2026-01-01 08:58:30.53	0.32	13.66	-51.7	-66.9	3.8	1.49e+00	0	43	104	0	74	21261
2026-01-01 08:58:31.68	0.20	13.57	-51.7	-66.8	3.8	1.49e+00	0	43	104	0	74	21090
2026-01-01 08:58:32.54	0.10	13.49	-51.7	-66.8	3.8	1.49e+00	0	43	104	0	74	21177
2026-01-01 08:58:33.69	359.98	13.40	-51.7	-66.8	3.8	1.49e+00	0	43	104	0	74	21245
2026-01-01 08:58:34.55	359.89	13.32	-51.7	-66.8	3.8	1.49e+00	0	43	104	0	74	21152
2026-01-01 08:58:35.70	359.77	13.23	-51.7	-66.8	3.8	1.49e+00	0	43	104	0	74	21042
2026-01-01 08:58:36.56	359.67	13.16	-51.7	-66.8	3.8	1.49e+00	0	43	104	0	74	21088
2026-01-01 08:58:37.70	359.55	13.06	-51.7	-66.8	3.8	1.49e+00	0	43	104	0	74	21083
2026-01-01 08:58:38.57	359.46	12.99	-51.7	-66.8	3.8	1.49e+00	0	43	104	0	74	21204
2026-01-01 08:58:39.71	359.34	12.89	-51.7	-66.8	3.8	1.49e+00	0	43	104	0	74	21062
2026-01-01 08:58:40.57	359.25	12.82	-51.7	-66.8	3.8	1.49e+00	0	43	104	0	74	21067
2026-01-01 08:58:41.72	359.14	12.73	-51.7	-66.8	3.8	1.49e+00	0	43	104	0	74	21172
2026-01-01 08:58:42.58	359.05	12.66	-51.7	-66.8	3.8	1.49e+00	0	43	104	0	74	21219
2026-01-01 08:58:43.73	358.93	12.56	-51.7	-66.8	3.8	1.49e+00	0	43	104	0	74	21086
2026-01-01 08:58:44.59	358.84	12.49	-51.7	-66.8	3.8	1.49e+00	0	43	104	0	74	21102
2026-01-01 08:58:45.74	358.73	12.40	-51.7	-66.7	3.8	1.49e+00	0	43	104	0	74	21012
2026-01-01 08:58:46.60	358.64	12.33	-51.7	-66.7	3.8	1.49e+00	0	43	104	0	74	21006
2026-01-01 08:58:47.75	358.53	12.23	-51.7	-66.8	3.8	1.49e+00	0	43	104	0	74	21153
2026-01-01 08:58:48.61	358.44	12.16	-51.7	-66.7	3.8	1.49e+00	0	43	104	0	74	20981
2026-01-01 08:58:49.76	358.33	12.07	-51.7	-66.8	3.8	1.49e+00	0	43	104	0	74	21113
2026-01-01 08:58:50.62	358.25	12.00	-51.7	-66.8	3.8	1.49e+00	0	43	104	0	74	21116
2026-01-01 08:58:51.76	358.13	11.91	-51.7	-66.8	3.8	1.49e+00	0	43	104	0	74	21132
2026-01-01 08:58:52.62	358.05	11.84	-51.7	-66.8	3.8	1.49e+00	0	43	104	0	74	21189
2026-01-01 08:58:53.77	357.94	11.75	-51.7	-66.8	3.8	1.49e+00	0	43	104	0	74	21210
2026-01-01 08:58:54.63	357.86	11.68	-51.7	-66.8	3.8	1.49e+00	0	43	104	0	74	21158
2026-01-01 08:58:55.78	357.75	11.59	-51.7	-66.8	3.8	1.49e+00	0	43	104	0	74	21119
2026-01-01 08:58:56.64	357.67	11.52	-51.7	-66.7	3.8	1.49e+00	0	43	104	0	74	20999
2026-01-01 08:58:57.79	357.56	11.43	-51.7	-66.8	3.8	1.49e+00	0	43	104	0	74	21158
2026-01-01 08:58:58.65	357.48	11.36	-51.7	-66.8	3.8	1.49e+00	0	43	104	0	74	21086
2026-01-01 08:58:59.80	357.37	11.27	-51.7	-66.8	3.8	1.49e+00	0	43	104	0	74	21045
2026-01-01 08:59:00.65	357.29	11.20	-51.7	-66.8	3.8	1.49e+00	0	43	104	0	74	21102
2026-01-01 08:59:01.80	357.19	11.11	-51.7	-66.8	3.8	1.49e+00	0	43	104	0	74	21098
2026-01-01 08:59:02.67	357.11	11.04	-51.7	-66.8	3.8	1.49e+00	0	43	104	0	74	21142
2026-01-01 08:59:03.81	357.01	10.95	-51.7	-66.8	3.8	1.49e+00	0	43	104	0	74	21180
2026-01-01 08:59:04.67	356.93	10.88	-51.7	-66.8	3.8	1.49e+00	0	43	104	0	74	21084
2026-01-01 08:59:05.82	356.82	10.79	-51.6	-66.7	3.8	1.49e+00	0	43	104	0	74	20997
2026-01-01 08:59:06.68	356.75	10.73	-51.7	-66.8	3.8	1.49e+00	0	43	104	0	74	21168
2026-01-01 08:59:07.83	356.65	10.64	-51.7	-66.8	3.8	1.49e+00	0	43	104	0	74	21193
2026-01-01 08:59:08.69	356.57	10.57	-51.8	-66.8	3.8	1.49e+00	0	43	104	0	74	21212
2026-01-01 08:59:09.84	356.47	10.48	-51.8	-66.9	3.8	1.49e+00	0	43	104	0	74	21353
2026-01-01 08:59:10.70	356.39	10.42	-51.7	-66.9	3.8	1.49e+00	0	43	104	0	74	21263
2026-01-01 08:59:11.85	356.29	10.33	-51.7	-66.8	3.8	1.49e+00	0	43	104	0	74	21247
2026-01-01 08:59:12.71	356.22	10.26	-51.7	-66.8	3.8	1.49e+00	0	43	104	0	74	21258
2026-01-01 08:59:13.86	356.12	10.17	-51.7	-66.8	3.8	1.49e+00	0	43	104	0	74	21142
2026-01-01 08:59:14.72	356.05	10.11	-51.7	-66.8	3.8	1.49e+00	0	43	104	0	74	21202
2026-01-01 08:59:15.86	355.95	10.02	-51.7	-66.8	3.8	1.49e+00	0	43	104	0	74	21111
2026-01-01 08:59:16.73	355.88	9.95	-51.8	-66.9	3.8	1.49e+00	0	43	104	0	74	21263
2026-01-01 08:59:17.87	355.78	9.87	-51.7	-66.9	3.8	1.49e+00	0	43	104	0	74	21336
2026-01-01 08:59:18.73	355.71	9.80	-51.7	-66.8	3.8	1.49e+00	0	43	104	0	74	21133
2026-01-01 08:59:19.88	355.61	9.71	-51.7	-66.8	3.8	1.49e+00	0	43	104	0	74	21199
2026-01-01 08:59:20.74	355.54	9.65	-51.7	-66.8	3.8	1.49e+00	0	43	104	0	74	21176
2026-01-01 08:59:21.89	355.45	9.56	-51.7	-66.8	3.8	1.49e+00	0	43	104	0	74	21211
2026-01-01 08:59:22.75	355.38	9.50	-51.7	-66.8	3.8	1.49e+00	0	43	104	0	74	21203
2026-01-01 08:59:23.90	355.28	9.41	-51.7	-66.8	3.8	1.49e+00	0	43	104	0	74	21196
2026-01-01 08:59:24.76	355.21	9.35	-51.7	-66.8	3.8	1.49e+00	0	43	104	0	74	21176
2026-01-01 08:59:25.91	355.12	9.26	-51.7	-66.9	3.8	1.49e+00	0	43	104	0	74	21320
2026-01-01 08:59:26.77	355.05	9.20	-51.7	-66.9	3.8	1.49e+00	0	43	104	0	74	21305
2026-01-01 08:59:27.92	354.96	9.11	-51.8	-66.8	3.8	1.49e+00	0	43	104	0	74	21257
2026-01-01 08:59:28.78	354.89	9.05	-51.8	-66.8	3.8	1.49e+00	0	43	104	0	74	21211
2026-01-01 08:59:29.93	354.80	8.96	-51.7	-66.8	3.8	1.49e+00	0	43	104	0	74	21194
2026-01-01 08:59:30.79	354.73	8.90	-51.7	-66.8	3.8	1.49e+00	0	43	104	0	74	21219
2026-01-01 08:59:31.94	354.64	8.81	-51.7	-66.8	3.8	1.49e+00	0	43	104	0	74	21151
2026-01-01 08:59:32.80	354.58	8.75	-51.7	-66.9	3.8	1.49e+00	0	43	104	0	74	21312
2026-01-01 08:59:33.94	354.49	8.67	-51.7	-66.8	3.8	1.49e+00	0	43	104	0	74	21131
2026-01-01 08:59:34.80	354.42	8.60	-51.7	-66.9	3.8	1.49e+00	0	43	104	0	74	21313
2026-01-01 08:59:35.95	354.34	8.52	-51.8	-66.8	3.8	1.49e+00	0	43	104	0	74	21245
2026-01-01 08:59:36.81	354.27	8.46	-51.7	-66.9	3.8	1.49e+00	0	43	104	0	74	21295
2026-01-01 08:59:37.96	354.18	8.37	-51.8	-66.8	3.8	1.49e+00	0	43	104	0	74	21211
2026-01-01 08:59:38.82	354.12	8.31	-51.7	-66.8	3.8	1.49e+00	0	43	104	0	74	21232
2026-01-01 08:59:39.97	354.03	8.23	-51.7	-66.8	3.8	1.49e+00	0	43	104	0	74	21169
2026-01-01 08:59:40.83	353.97	8.17	-51.7	-66.8	3.8	1.49e+00	0	43	104	0	74	21202
2026-01-01 08:59:41.98	353.88	8.08	-51.7	-66.8	3.8	1.49e+00	0	43	104	0	74	21189
2026-01-01 08:59:42.84	353.82	8.02	-51.8	-66.9	3.8	1.49e+00	0	43	104	0	74	21278
2026-01-01 08:59:43.99	353.74	7.94	-51.7	-66.9	3.8	1.49e+00	0	43	104	0	74	21276
2026-01-01 08:59:44.85	353.67	7.88	-51.8	-66.9	3.8	1.49e+00	0	43	104	0	74	21291
2026-01-01 08:59:46.00	353.59	7.79	-51.8	-66.9	3.8	1.49e+00	0	43	104	0	74	21276
2026-01-01 08:59:46.86	353.53	7.73	-51.7	-66.8	3.8	1.49e+00	0	43	104	0	74	21240
2026-01-01 08:59:48.01	353.45	7.65	-51.7	-66.8	3.8	1.49e+00	0	43	104	0	74	21235
2026-01-01 08:59:48.86	353.39	7.59	-51.7	-66.8	3.8	1.49e+00	0	43	104	0	74	21121
2026-01-01 08:59:50.01	353.30	7.51	-51.7	-66.9	3.8	1.49e+00	0	43	104	0	74	21279
2026-01-01 08:59:50.87	353.24	7.45	-51.7	-66.8	3.8	1.49e+00	0	43	104	0	74	21165
2026-01-01 08:59:52.02	353.16	7.37	-51.8	-66.8	3.8	1.49e+00	0	43	104	0	74	21252
2026-01-01 08:59:52.88	353.10	7.31	-51.7	-66.8	3.8	1.49e+00	0	43	104	0	74	21243
2026-01-01 08:59:54.03	353.02	7.23	-51.7	-66.8	3.8	1.49e+00	0	43	104	0	74	21248
2026-01-01 08:59:54.89	352.96	7.17	-51.8	-66.9	3.8	1.49e+00	0	43	104	0	74	21263
2026-01-01 08:59:56.04	352.88	7.09	-51.8	-66.9	3.8	1.49e+00	0	43	104	0	74	21316
2026-01-01 08:59:56.90	352.83	7.03	-51.7	-66.8	3.8	1.49e+00	0	43	104	0	74	21214
2026-01-01 08:59:58.05	352.75	6.95	-51.7	-66.8	3.8	1.49e+00	0	43	104	0	74	21254
2026-01-01 08:59:58.91	352.69	6.89	-51.7	-66.8	3.8	1.49e+00	0	43	104	0	74	21177
2026-01-01 09:00:00.06	352.61	6.81	-51.7	-66.8	3.8	1.49e+00	0	43	104	0	74	21201
2026-01-01 09:00:00.92	352.55	6.75	-51.7	-66.9	3.8	1.49e+00	0	43	104	0	74	21291
2026-01-01 09:00:02.07	352.48	6.67	-51.8	-66.9	3.8	1.49e+00	0	43	104	0	74	21317
2026-01-01 09:00:02.93	352.42	6.61	-51.7	-66.8	3.8	1.49e+00	0	43	104	0	74	21240
2026-01-01 09:00:04.07	352.34	6.53	-51.7	-66.8	3.8	1.49e+00	0	43	104	0	74	21230
2026-01-01 09:00:04.93	352.29	6.47	-51.8	-66.9	3.8	1.49e+00	0	43	104	0	74	21268
2026-01-01 09:00:06.08	352.21	6.39	-51.7	-66.8	3.8	1.49e+00	0	43	104	0	74	21148
2026-01-01 09:00:06.94	352.16	6.33	-51.7	-66.8	3.8	1.49e+00	0	43	104	0	74	21165
2026-01-01 09:00:08.09	352.08	6.26	-51.7	-66.8	3.8	1.49e+00	0	43	104	0	74	21177
2026-01-01 09:00:08.95	352.03	6.20	-51.7	-66.8	3.8	1.49e+00	0	43	104	0	74	21179
2026-01-01 09:00:10.10	351.95	6.12	-51.8	-66.9	3.8	1.49e+00	0	43	104	0	74	21309
2026-01-01 09:00:10.96	351.90	6.06	-51.8	-66.9	3.8	1.49e+00	0	43	104	0	74	21319
2026-01-01 09:00:12.11	351.83	5.98	-51.8	-66.9	3.8	1.49e+00	0	43	104	0	74	21394
2026-01-01 09:00:12.97	351.77	5.92	-51.8	-66.9	3.8	1.49e+00	0	43	104	0	74	21272
2026-01-01 09:00:14.12	351.70	5.85	-51.7	-66.9	3.8	1.49e+00	0	43	104	0	74	21267
2026-01-01 09:00:14.98	351.64	5.79	-51.7	-66.8	3.8	1.49e+00	0	43	104	0	74	21229
2026-01-01 09:00:16.13	351.57	5.71	-51.7	-66.8	3.8	1.49e+00	0	43	104	0	74	21149
2026-01-01 09:00:16.99	351.52	5.66	-51.7	-66.8	3.8	1.49e+00	0	43	104	0	74	21215
2026-01-01 09:00:18.13	351.45	5.58	-51.7	-66.8	3.8	1.49e+00	0	43	104	0	74	21213
2026-01-01 09:00:18.99	351.40	5.52	-51.8	-66.9	3.8	1.49e+00	0	43	104	0	74	21365
2026-01-01 09:00:20.14	351.33	5.45	-51.8	-66.9	3.8	1.49e+00	0	43	104	0	74	21367
2026-01-01 09:00:21.00	351.27	5.39	-51.8	-66.8	3.8	1.49e+00	0	43	104	0	74	21237
2026-01-01 09:00:22.15	351.20	5.31	-51.8	-66.9	3.8	1.49e+00	0	43	104	0	74	21301
2026-01-01 09:00:23.01	351.15	5.26	-51.7	-66.9	3.8	1.49e+00	0	43	104	0	74	21277
2026-01-01 09:00:24.16	351.08	5.18	-51.7	-66.8	3.8	1.49e+00	0	43	104	0	74	21190
2026-01-01 09:00:25.02	351.03	5.12	-51.7	-66.9	3.8	1.49e+00	0	43	104	0	74	21299
2026-01-01 09:00:26.17	350.96	5.05	-51.7	-66.8	3.8	1.49e+00	0	43	104	0	74	21199
2026-01-01 09:00:27.03	350.91	4.99	-51.7	-66.8	3.8	1.49e+00	0	43	104	0	74	21200

#Closed at: 2026-01-01 09:00:28
#Recorded file [0 MB]: D:/Data/31040_260101_114838.dat