passes_logs/2026/01/01/T1/T1__20260101_215909_KHAYYAM_rec.log

#Pass ID: 20260101_215909_KHAYYAM
#Satellite: KHAYYAM
#Configuration: KHAYYAM_480M
#almurnet v.1.7.20251203
#Start time: 2026-01-01 21:59:09

#Version: 2.0.20230620
#Station: T1
#Location: 37.570604 lon 55.790049 lat
#TLE: 1 53370U 22096A   25365.91236145  .00003272  00000+0  13536-3 0  9993
#TLE: 2 53370  97.3565 268.1736 0001189  73.2664 286.8704 15.24655091189095

#Time	Az	El	Level	Level2	SNR	BER	BlckErr	Temp	State	Recorded	gain1	gain2
2026-01-01 21:59:09.92	4.62	5.77	-47.4	-53.8	3.6	0.00e+00	0	45	0	0	66	29933
2026-01-01 21:59:10.92	4.55	5.86	-49.3	-55.6	3.7	0.00e+00	0	45	104	0	69	30907
2026-01-01 21:59:11.92	4.48	5.94	-49.3	-55.6	3.7	0.00e+00	0	45	104	0	69	30980
2026-01-01 21:59:12.93	4.42	6.02	-49.3	-55.7	3.7	0.00e+00	0	46	104	0	69	31245
2026-01-01 21:59:13.93	4.35	6.10	-49.3	-55.6	3.7	0.00e+00	0	45	104	0	69	31169
2026-01-01 21:59:14.94	4.28	6.18	-49.3	-55.6	3.7	0.00e+00	0	46	104	0	69	31109
2026-01-01 21:59:15.94	4.21	6.26	-49.3	-55.6	3.7	0.00e+00	0	46	104	0	69	31174
2026-01-01 21:59:16.94	4.14	6.34	-49.3	-55.6	3.7	0.00e+00	0	46	104	0	69	31126
2026-01-01 21:59:17.95	4.07	6.43	-49.3	-55.6	3.7	0.00e+00	0	46	104	0	69	31124
2026-01-01 21:59:18.95	4.00	6.51	-49.3	-55.6	3.7	0.00e+00	0	46	104	0	69	30941
2026-01-01 21:59:19.95	3.93	6.59	-49.3	-55.6	3.7	0.00e+00	0	46	104	0	69	31131
2026-01-01 21:59:20.96	3.86	6.68	-49.3	-55.6	3.7	0.00e+00	0	46	104	0	69	30976
2026-01-01 21:59:21.97	3.78	6.76	-49.3	-55.6	3.7	0.00e+00	0	46	104	0	69	31005
2026-01-01 21:59:22.97	3.71	6.85	-49.3	-55.6	3.7	0.00e+00	0	47	104	0	69	31150
2026-01-01 21:59:23.97	3.64	6.93	-49.3	-55.6	3.7	0.00e+00	0	46	104	0	69	30985
2026-01-01 21:59:24.98	3.56	7.02	-49.3	-55.6	3.7	0.00e+00	0	47	104	0	69	30939
2026-01-01 21:59:25.98	3.49	7.10	-49.3	-55.5	3.7	0.00e+00	0	47	104	0	69	30864
2026-01-01 21:59:26.99	3.41	7.19	-49.3	-55.6	3.7	0.00e+00	0	47	104	0	69	31070
2026-01-01 21:59:27.99	3.34	7.27	-49.3	-55.6	3.7	0.00e+00	0	47	104	0	69	31192
2026-01-01 21:59:29.00	3.26	7.36	-49.3	-55.5	3.7	0.00e+00	0	47	104	0	69	30856
2026-01-01 21:59:30.00	3.18	7.45	-49.2	-55.6	3.7	0.00e+00	0	47	104	0	69	30884
2026-01-01 21:59:31.00	3.11	7.53	-49.3	-55.6	3.7	0.00e+00	0	47	104	0	69	31104
2026-01-01 21:59:32.01	3.03	7.62	-49.3	-55.6	3.7	0.00e+00	0	47	104	0	69	30916
2026-01-01 21:59:33.01	2.95	7.71	-49.3	-55.6	3.7	0.00e+00	0	47	104	0	69	30873
2026-01-01 21:59:34.02	2.87	7.80	-49.3	-55.6	3.7	0.00e+00	0	47	104	0	69	30974
2026-01-01 21:59:35.02	2.79	7.89	-49.3	-55.6	3.7	0.00e+00	0	47	104	0	69	31019
2026-01-01 21:59:36.02	2.71	7.97	-49.2	-55.6	3.7	0.00e+00	0	47	104	0	69	30890
2026-01-01 21:59:37.03	2.63	8.06	-49.3	-55.5	3.7	0.00e+00	0	48	104	0	69	30704
2026-01-01 21:59:38.03	2.54	8.15	-49.3	-55.6	3.7	0.00e+00	0	47	104	0	69	30988
2026-01-01 21:59:39.04	2.46	8.24	-49.3	-55.6	3.7	0.00e+00	0	48	104	0	69	30905
2026-01-01 21:59:40.04	2.38	8.34	-49.3	-55.6	3.7	0.00e+00	0	48	104	0	69	30927
2026-01-01 21:59:41.05	2.29	8.43	-49.3	-55.6	3.7	0.00e+00	0	48	104	0	69	30900
2026-01-01 21:59:42.05	2.21	8.52	-49.2	-55.6	3.7	0.00e+00	0	48	104	0	69	31039
2026-01-01 21:59:43.05	2.12	8.61	-49.3	-55.6	3.7	0.00e+00	0	48	104	0	69	30947
2026-01-01 21:59:44.06	2.04	8.70	-49.3	-55.6	3.7	0.00e+00	0	48	104	0	69	30978
2026-01-01 21:59:45.06	1.95	8.79	-49.3	-55.6	3.7	0.00e+00	0	48	104	0	69	31023
2026-01-01 21:59:46.07	1.86	8.89	-49.3	-55.5	3.7	0.00e+00	0	48	104	0	69	30840
2026-01-01 21:59:47.07	1.77	8.98	-49.3	-55.6	3.7	0.00e+00	0	48	104	0	69	31046
2026-01-01 21:59:48.11	1.68	9.08	-49.3	-55.6	3.7	0.00e+00	0	48	104	0	69	31028
2026-01-01 21:59:49.14	1.59	9.17	-48.7	-55.1	3.7	0.00e+00	0	48	104	0	69	29299
2026-01-01 21:59:50.19	1.49	9.27	-48.0	-54.6	3.8	0.00e+00	0	48	104	0	67	30937
2026-01-01 21:59:51.09	1.41	9.36	-49.5	-55.6	3.7	0.00e+00	0	48	104	0	70	29324
2026-01-01 21:59:52.27	1.30	9.47	-49.8	-55.3	3.7	0.00e+00	0	48	104	0	70	28468
2026-01-01 21:59:53.15	1.22	9.55	-49.5	-55.6	3.7	0.00e+00	0	48	104	0	70	29154
2026-01-01 21:59:54.30	1.11	9.66	-50.5	-56.0	3.7	0.00e+00	0	48	104	0	71	29048
2026-01-01 21:59:55.22	1.03	9.75	-50.6	-56.0	3.7	0.00e+00	0	48	104	0	72	27397
2026-01-01 21:59:56.40	0.91	9.87	-50.8	-56.1	3.7	0.00e+00	0	49	104	0	72	27641
2026-01-01 21:59:57.26	0.83	9.95	-50.8	-56.1	3.7	0.00e+00	0	49	104	0	72	27823
2026-01-01 21:59:58.61	0.70	10.08	-50.9	-56.3	3.7	0.00e+00	0	48	104	0	72	28339
2026-01-01 21:59:59.33	0.63	10.15	-50.9	-56.2	3.7	0.00e+00	0	48	104	0	72	28117
2026-01-01 22:00:00.81	0.48	10.30	-48.9	-55.1	3.7	0.00e+00	0	49	104	0	69	29310
2026-01-01 22:00:01.53	0.41	10.37	-48.9	-55.1	3.7	0.00e+00	0	49	104	0	69	29226
2026-01-01 22:00:02.82	0.28	10.50	-48.5	-54.7	3.7	0.00e+00	0	49	104	0	69	28031
2026-01-01 22:00:03.53	0.21	10.57	-48.7	-55.0	3.7	0.00e+00	0	49	104	0	69	29018
2026-01-01 22:00:04.82	0.08	10.70	-48.8	-54.8	3.7	0.00e+00	0	49	104	0	69	28193
2026-01-01 22:00:05.54	0.00	10.78	-48.9	-54.8	3.7	0.00e+00	0	49	104	0	69	28392
2026-01-01 22:00:06.83	359.87	10.91	-49.1	-55.1	3.7	0.00e+00	0	49	104	0	69	29188
2026-01-01 22:00:07.54	359.79	10.98	-49.2	-55.1	3.7	0.00e+00	0	49	104	0	69	29465
2026-01-01 22:00:08.83	359.66	11.11	-49.1	-55.1	3.7	0.00e+00	0	49	104	0	69	29311
2026-01-01 22:00:09.55	359.58	11.19	-49.9	-55.8	3.7	0.00e+00	0	49	104	0	70	29894
2026-01-01 22:00:10.84	359.44	11.32	-50.2	-55.2	3.7	0.00e+00	0	49	104	0	71	26533
2026-01-01 22:00:11.56	359.36	11.39	-49.6	-55.1	3.7	0.00e+00	0	49	104	0	71	26000
2026-01-01 22:00:12.85	359.22	11.53	-50.1	-55.5	3.7	0.00e+00	0	49	104	0	71	27485
2026-01-01 22:00:13.56	359.14	11.60	-50.3	-55.9	3.7	0.00e+00	0	49	104	0	71	28789
2026-01-01 22:00:14.93	358.99	11.75	-50.3	-56.0	3.7	0.00e+00	0	49	104	0	71	28978
2026-01-01 22:00:15.90	358.88	11.85	-50.5	-56.0	3.7	0.00e+00	0	49	104	0	71	28950
2026-01-01 22:00:16.91	358.76	11.96	-50.4	-56.0	3.7	0.00e+00	0	49	104	0	71	28883
2026-01-01 22:00:17.91	358.65	12.07	-50.6	-56.4	3.7	0.00e+00	0	49	104	0	72	28556
2026-01-01 22:00:18.91	358.53	12.18	-51.0	-56.6	3.7	0.00e+00	0	49	104	0	72	29378
2026-01-01 22:00:19.91	358.41	12.28	-51.1	-56.5	3.7	0.00e+00	0	49	104	0	72	28923
2026-01-01 22:00:21.35	358.24	12.44	-50.3	-56.1	3.7	0.00e+00	0	49	104	0	72	27533
2026-01-01 22:00:22.10	358.15	12.52	-51.0	-56.6	3.7	0.00e+00	0	49	104	0	73	27785
2026-01-01 22:00:23.39	357.99	12.67	-50.4	-56.2	3.7	0.00e+00	0	50	104	0	72	28117
2026-01-01 22:00:24.17	357.90	12.75	-50.5	-56.3	3.7	0.00e+00	0	49	104	0	72	28233
2026-01-01 22:00:25.77	357.70	12.93	-50.4	-56.2	3.7	0.00e+00	0	49	104	0	72	28094
2026-01-01 22:00:26.35	357.63	13.00	-50.4	-56.2	3.7	0.00e+00	0	50	104	0	72	27990
2026-01-01 22:00:27.93	357.43	13.18	-51.2	-56.7	3.7	0.00e+00	0	50	104	0	73	28018
2026-01-01 22:00:28.56	357.35	13.25	-50.4	-56.0	3.7	0.00e+00	0	49	104	0	72	27335
2026-01-01 22:00:29.99	357.16	13.41	-50.9	-56.5	3.7	0.00e+00	0	50	104	0	73	27303
2026-01-01 22:00:30.71	357.07	13.49	-50.6	-56.0	3.7	0.00e+00	0	50	104	0	73	25927
2026-01-01 22:00:32.08	356.89	13.65	-50.9	-56.5	3.7	0.00e+00	0	50	104	0	72	28874
2026-01-01 22:00:33.05	356.76	13.76	-50.9	-56.5	3.7	0.00e+00	0	50	104	0	72	28834
2026-01-01 22:00:34.05	356.63	13.88	-51.1	-56.7	3.7	0.00e+00	0	50	104	0	72	29757
2026-01-01 22:00:35.44	356.44	14.04	-51.0	-56.5	3.7	0.00e+00	0	50	104	0	72	28991
2026-01-01 22:00:36.20	356.33	14.13	-50.9	-56.3	3.7	0.00e+00	0	50	104	0	72	28357
2026-01-01 22:00:37.49	356.15	14.29	-51.4	-56.9	3.7	0.00e+00	0	50	104	0	73	28640
2026-01-01 22:00:38.20	356.05	14.37	-49.4	-55.9	3.7	0.00e+00	0	50	104	0	71	28492
2026-01-01 22:00:39.49	355.87	14.52	-49.1	-55.4	3.7	0.00e+00	0	50	104	0	69	30470
2026-01-01 22:00:40.21	355.77	14.61	-49.6	-55.8	3.7	0.00e+00	0	50	104	0	70	30097
2026-01-01 22:00:41.50	355.58	14.77	-49.1	-55.3	3.7	0.00e+00	0	50	104	0	69	29848
2026-01-01 22:00:42.45	355.44	14.88	-49.5	-55.6	3.7	0.00e+00	0	50	104	0	69	31081
2026-01-01 22:00:43.77	355.25	15.05	-50.0	-55.8	3.7	0.00e+00	0	50	104	0	70	30086
2026-01-01 22:00:44.49	355.14	15.13	-50.6	-56.3	3.7	0.00e+00	0	50	104	0	71	30005
2026-01-01 22:00:45.78	354.95	15.29	-50.1	-55.9	3.7	0.00e+00	0	50	104	0	72	27118
2026-01-01 22:00:46.50	354.84	15.38	-48.8	-55.2	3.8	0.00e+00	0	50	104	0	69	29505
2026-01-01 22:00:47.79	354.64	15.55	-49.6	-55.7	3.7	0.00e+00	0	50	104	0	69	31261
2026-01-01 22:00:48.50	354.53	15.63	-49.2	-55.4	3.7	0.00e+00	0	50	104	0	70	28498
2026-01-01 22:00:49.79	354.32	15.80	-48.9	-55.2	3.7	0.00e+00	0	50	104	0	69	29538
2026-01-01 22:00:50.50	354.21	15.89	-48.9	-55.1	3.7	0.00e+00	0	50	104	0	69	29342
2026-01-01 22:00:51.87	353.99	16.06	-49.6	-55.6	3.7	0.00e+00	0	50	104	0	69	31052
2026-01-01 22:00:52.59	353.87	16.16	-50.1	-56.0	3.7	0.00e+00	0	50	104	0	70	30704
2026-01-01 22:00:53.88	353.66	16.32	-50.9	-56.4	3.7	0.00e+00	0	50	104	0	72	28549
2026-01-01 22:00:54.60	353.54	16.42	-51.3	-56.5	3.7	0.00e+00	0	50	104	0	73	27243
2026-01-01 22:00:55.89	353.33	16.59	-53.0	-57.5	3.7	0.00e+00	0	50	104	0	76	25918
2026-01-01 22:00:56.60	353.21	16.68	-52.7	-57.1	3.7	0.00e+00	0	50	104	0	76	24609
2026-01-01 22:00:57.89	352.99	16.85	-52.0	-57.0	3.7	0.00e+00	0	50	104	0	76	24488
2026-01-01 22:00:58.66	352.85	16.95	-52.8	-57.5	3.7	0.00e+00	0	50	104	0	76	25745
2026-01-01 22:01:00.25	352.58	17.16	-53.0	-57.5	3.7	0.00e+00	0	50	104	0	76	25877
2026-01-01 22:01:00.82	352.48	17.24	-52.8	-57.4	3.7	0.00e+00	0	50	104	0	76	25525
2026-01-01 22:01:02.42	352.19	17.46	-52.1	-57.1	3.7	0.00e+00	0	50	104	0	76	24665
2026-01-01 22:01:03.13	352.06	17.55	-51.4	-56.7	3.7	0.00e+00	0	50	104	0	74	26423
2026-01-01 22:01:04.43	351.82	17.73	-50.8	-56.3	3.7	0.00e+00	0	50	104	0	73	26736
2026-01-01 22:01:05.14	351.69	17.83	-51.2	-56.6	3.7	0.00e+00	0	50	104	0	73	27654
2026-01-01 22:01:06.44	351.45	18.01	-50.7	-56.4	3.7	0.00e+00	0	50	104	0	73	26896
2026-01-01 22:01:07.16	351.31	18.11	-50.5	-56.2	3.7	0.00e+00	0	50	104	0	73	26462
2026-01-01 22:01:08.53	351.05	18.30	-50.6	-56.3	3.7	0.00e+00	0	50	104	0	73	26668
2026-01-01 22:01:09.24	350.91	18.40	-50.7	-56.3	3.7	0.00e+00	0	50	104	0	73	26781
2026-01-01 22:01:10.63	350.64	18.60	-50.6	-56.3	3.7	0.00e+00	0	50	104	0	73	26592
2026-01-01 22:01:11.34	350.50	18.70	-50.5	-56.2	3.7	0.00e+00	0	50	104	0	72	28009
2026-01-01 22:01:12.63	350.24	18.88	-50.5	-56.3	3.7	0.00e+00	0	50	104	0	72	28350
2026-01-01 22:01:13.35	350.09	18.98	-50.5	-56.3	3.7	0.00e+00	0	50	104	0	72	28397
2026-01-01 22:01:14.64	349.83	19.17	-51.0	-56.5	3.7	0.00e+00	0	50	104	0	72	29120
2026-01-01 22:01:15.36	349.68	19.27	-51.1	-56.5	3.7	0.00e+00	0	50	104	0	73	27402
2026-01-01 22:01:16.65	349.41	19.46	-51.2	-56.6	3.7	0.00e+00	0	50	104	0	72	29365
2026-01-01 22:01:17.36	349.26	19.57	-51.5	-56.8	3.7	0.00e+00	0	50	104	0	74	26837
2026-01-01 22:01:18.65	348.98	19.76	-52.4	-57.4	3.7	0.00e+00	0	50	104	0	75	26910
2026-01-01 22:01:19.36	348.83	19.86	-52.9	-57.7	3.7	0.00e+00	0	50	104	0	77	24965
2026-01-01 22:01:20.65	348.55	20.05	-51.8	-56.9	3.7	0.00e+00	0	50	104	0	74	26899
2026-01-01 22:01:21.37	348.39	20.16	-52.2	-56.9	3.7	0.00e+00	0	50	104	0	75	25664
2026-01-01 22:01:22.66	348.10	20.35	-53.2	-57.7	3.7	0.00e+00	0	50	104	0	76	26342
2026-01-01 22:01:23.37	347.94	20.46	-53.4	-57.9	3.7	0.00e+00	0	51	104	0	77	25672
2026-01-01 22:01:24.74	347.62	20.67	-53.2	-57.8	3.7	0.00e+00	0	50	104	0	77	25294
2026-01-01 22:01:25.76	347.38	20.82	-52.9	-57.7	3.7	0.00e+00	0	50	104	0	77	25030
2026-01-01 22:01:26.77	347.15	20.98	-52.8	-57.6	3.7	0.00e+00	0	50	104	0	77	24675
2026-01-01 22:01:28.12	346.82	21.19	-53.0	-58.0	3.7	0.00e+00	0	50	104	0	77	25712
2026-01-01 22:01:28.88	346.64	21.30	-53.0	-57.8	3.7	0.00e+00	0	50	104	0	77	25375
2026-01-01 22:01:30.18	346.32	21.51	-53.1	-57.5	3.7	0.00e+00	0	50	104	0	77	24301
2026-01-01 22:01:30.90	346.14	21.62	-52.7	-57.7	3.7	0.00e+00	0	50	104	0	77	24965
2026-01-01 22:01:32.18	345.82	21.82	-51.3	-56.7	3.7	0.00e+00	0	51	104	0	74	26566
2026-01-01 22:01:32.90	345.64	21.93	-50.6	-56.2	3.7	0.00e+00	0	50	104	0	73	26418
2026-01-01 22:01:34.19	345.31	22.14	-50.0	-55.6	3.7	0.00e+00	0	50	104	0	71	27732
2026-01-01 22:01:34.91	345.12	22.25	-50.3	-55.6	3.7	0.00e+00	0	50	104	0	71	27622
2026-01-01 22:01:36.20	344.79	22.46	-50.7	-56.0	3.7	0.00e+00	0	50	104	0	72	27287
2026-01-01 22:01:36.91	344.60	22.57	-52.3	-57.1	3.7	0.00e+00	0	50	104	0	75	26020
2026-01-01 22:01:38.20	344.25	22.78	-51.7	-55.7	3.7	0.00e+00	0	51	104	0	75	22208
2026-01-01 22:01:38.91	344.06	22.89	-52.1	-56.8	3.7	0.00e+00	0	50	104	0	75	25369
2026-01-01 22:01:40.28	343.68	23.12	-50.2	-55.4	3.7	0.00e+00	0	51	104	0	72	25531
2026-01-01 22:01:41.00	343.48	23.23	-50.2	-55.6	3.7	0.00e+00	0	50	104	0	72	26173
2026-01-01 22:01:42.35	343.10	23.45	-50.5	-55.7	3.7	0.00e+00	0	51	104	0	72	26493
2026-01-01 22:01:43.07	342.89	23.57	-50.8	-55.9	3.7	0.00e+00	0	50	104	0	72	26955
2026-01-01 22:01:44.45	342.49	23.80	-52.0	-56.5	3.7	0.00e+00	0	51	104	0	75	24482
2026-01-01 22:01:45.17	342.28	23.92	-51.6	-56.2	3.7	0.00e+00	0	51	104	0	74	24947
2026-01-01 22:01:46.46	341.90	24.13	-51.6	-56.1	3.7	0.00e+00	0	51	104	0	75	23388
2026-01-01 22:01:47.17	341.69	24.25	-51.3	-56.0	3.7	0.00e+00	0	51	104	0	74	24488
2026-01-01 22:01:48.46	341.30	24.47	-51.5	-56.2	3.7	0.00e+00	0	51	104	0	74	25014
2026-01-01 22:01:49.18	341.07	24.59	-50.5	-55.1	3.7	0.00e+00	0	51	104	0	72	24792
2026-01-01 22:01:50.73	340.59	24.85	-51.9	-56.7	3.7	0.00e+00	0	51	104	0	74	26418
2026-01-01 22:01:51.44	340.37	24.97	-52.5	-57.2	3.7	0.00e+00	0	51	104	0	75	26391
2026-01-01 22:01:52.82	339.93	25.20	-52.5	-56.5	3.7	0.00e+00	0	51	104	0	75	24365
2026-01-01 22:01:53.54	339.69	25.32	-52.4	-56.3	3.7	0.00e+00	0	51	104	0	75	23791
2026-01-01 22:01:54.83	339.27	25.54	-51.7	-56.5	3.7	0.00e+00	0	50	104	0	75	24309
2026-01-01 22:01:55.54	339.03	25.66	-51.8	-56.2	3.7	0.00e+00	0	51	104	0	74	24976
2026-01-01 22:01:56.83	338.60	25.89	-51.5	-56.4	3.7	0.00e+00	0	51	104	0	74	25599
2026-01-01 22:01:57.55	338.36	26.01	-51.8	-57.0	3.7	0.00e+00	0	51	104	0	74	27401
2026-01-01 22:01:58.84	337.91	26.23	-52.4	-57.1	3.7	0.00e+00	0	51	104	0	75	26150
2026-01-01 22:01:59.55	337.66	26.35	-52.1	-57.1	3.7	0.00e+00	0	51	104	0	75	26118
2026-01-01 22:02:00.85	337.21	26.58	-53.1	-57.3	3.7	0.00e+00	0	51	104	0	76	25230
2026-01-01 22:02:01.58	336.94	26.70	-53.0	-57.3	3.7	0.00e+00	0	51	104	0	76	25125
2026-01-01 22:02:02.87	336.48	26.92	-51.6	-56.6	3.7	0.00e+00	0	50	104	0	75	24636
2026-01-01 22:02:03.58	336.22	27.05	-51.7	-56.5	3.7	0.00e+00	0	51	104	0	75	24397
2026-01-01 22:02:04.87	335.74	27.27	-51.4	-56.3	3.7	0.00e+00	0	51	104	0	74	25310
2026-01-01 22:02:05.70	335.43	27.41	-51.7	-56.9	3.7	0.00e+00	0	51	104	0	74	27006
2026-01-01 22:02:06.85	334.99	27.61	-52.2	-57.0	3.7	0.00e+00	0	51	104	0	75	25854
2026-01-01 22:02:07.71	334.66	27.76	-52.2	-57.0	3.7	0.00e+00	0	51	104	0	75	25833
2026-01-01 22:02:08.85	334.22	27.96	-50.6	-56.0	3.7	0.00e+00	0	51	104	0	73	25942
2026-01-01 22:02:09.71	333.88	28.11	-50.7	-56.6	3.7	0.00e+00	0	51	104	0	72	29183
2026-01-01 22:02:10.86	333.42	28.30	-50.5	-56.2	3.7	0.00e+00	0	51	104	0	71	29568
2026-01-01 22:02:11.72	333.08	28.45	-51.2	-56.5	3.7	0.00e+00	0	51	104	0	73	27305
2026-01-01 22:02:12.90	332.60	28.66	-52.2	-56.9	3.7	0.00e+00	0	51	104	0	75	25587
2026-01-01 22:02:13.75	332.24	28.80	-52.2	-56.8	3.7	0.00e+00	0	51	104	0	75	25212
2026-01-01 22:02:14.90	331.76	29.00	-52.3	-56.9	3.7	0.00e+00	0	51	104	0	75	25467
2026-01-01 22:02:15.76	331.40	29.15	-52.1	-57.0	3.7	0.00e+00	0	51	104	0	75	25948
2026-01-01 22:02:16.91	330.91	29.35	-52.4	-57.2	3.7	0.00e+00	0	51	104	0	75	26524
2026-01-01 22:02:17.80	330.52	29.50	-51.2	-56.6	3.7	0.00e+00	0	51	104	0	74	26066
2026-01-01 22:02:19.02	329.99	29.71	-51.5	-56.7	3.7	0.00e+00	0	51	104	0	74	26449
2026-01-01 22:02:19.88	329.61	29.85	-51.0	-56.4	3.7	0.00e+00	0	51	104	0	74	25639
2026-01-01 22:02:21.03	329.09	30.05	-50.8	-56.3	3.7	0.00e+00	0	51	104	0	73	26865
2026-01-01 22:02:21.89	328.70	30.19	-51.3	-56.6	3.7	0.00e+00	0	51	104	0	73	27625
2026-01-01 22:02:23.04	328.17	30.38	-50.8	-56.4	3.7	0.00e+00	0	51	104	0	73	27164
2026-01-01 22:02:23.90	327.77	30.53	-52.6	-57.3	3.7	0.00e+00	0	51	104	0	75	26883
2026-01-01 22:02:25.04	327.24	30.72	-52.5	-57.0	3.7	0.00e+00	0	51	104	0	76	24333
2026-01-01 22:02:25.90	326.83	30.86	-53.1	-57.5	3.7	0.00e+00	0	51	104	0	76	25706
2026-01-01 22:02:27.05	326.28	31.05	-53.0	-57.3	3.7	0.00e+00	0	51	104	0	76	25375
2026-01-01 22:02:27.91	325.86	31.19	-53.2	-57.6	3.7	0.00e+00	0	51	104	0	77	24765
2026-01-01 22:02:29.05	325.30	31.37	-53.1	-57.4	3.7	0.00e+00	0	51	104	0	77	24232
2026-01-01 22:02:29.91	324.87	31.51	-51.5	-56.7	3.7	0.00e+00	0	51	104	0	75	24957
2026-01-01 22:02:31.06	324.30	31.70	-52.1	-56.8	3.7	0.00e+00	0	51	104	0	75	25347
2026-01-01 22:02:31.92	323.86	31.83	-51.2	-56.6	3.7	0.00e+00	0	51	104	0	74	26275
2026-01-01 22:02:33.07	323.27	32.01	-51.6	-56.8	3.7	0.00e+00	0	51	104	0	74	26799
2026-01-01 22:02:33.93	322.82	32.15	-52.2	-57.3	3.7	0.00e+00	0	51	104	0	75	26682
2026-01-01 22:02:35.23	322.14	32.35	-52.5	-57.6	3.7	0.00e+00	0	51	104	0	75	27711
2026-01-01 22:02:35.95	321.76	32.46	-52.5	-57.6	3.7	0.00e+00	0	51	104	0	75	27553
2026-01-01 22:02:37.24	321.07	32.65	-52.6	-57.6	3.7	0.00e+00	0	51	104	0	75	27791
2026-01-01 22:02:37.96	320.68	32.76	-51.7	-57.0	3.7	0.00e+00	0	51	104	0	75	25853
2026-01-01 22:02:39.25	319.98	32.95	-51.3	-56.8	3.7	0.00e+00	0	51	104	0	74	26643
2026-01-01 22:02:39.97	319.58	33.05	-51.2	-56.7	3.7	0.00e+00	0	51	104	0	74	26424
2026-01-01 22:02:41.26	318.87	33.23	-51.9	-56.9	3.7	0.00e+00	0	51	104	0	74	27048
2026-01-01 22:02:41.98	318.46	33.34	-52.4	-57.0	3.7	0.00e+00	0	51	104	0	75	25898
2026-01-01 22:02:43.27	317.73	33.51	-53.0	-57.2	3.7	0.00e+00	0	51	104	0	76	24974
2026-01-01 22:02:43.98	317.32	33.61	-53.0	-57.2	3.7	0.00e+00	0	51	104	0	76	24828
2026-01-01 22:02:45.28	316.57	33.78	-53.1	-57.4	3.7	0.00e+00	0	51	104	0	76	25518
2026-01-01 22:02:45.99	316.16	33.88	-53.1	-57.5	3.7	0.00e+00	0	51	104	0	76	25779
2026-01-01 22:02:47.28	315.40	34.04	-53.0	-57.6	3.7	0.00e+00	0	51	104	0	76	26248
2026-01-01 22:02:48.00	314.98	34.13	-53.0	-57.5	3.7	0.00e+00	0	51	104	0	76	25942
2026-01-01 22:02:49.29	314.21	34.29	-53.0	-57.5	3.7	0.00e+00	0	51	104	0	76	25960
2026-01-01 22:02:50.00	313.78	34.38	-53.1	-57.6	3.7	0.00e+00	0	51	104	0	76	26025
2026-01-01 22:02:51.30	312.99	34.53	-53.3	-58.0	3.7	0.00e+00	0	51	104	0	77	25687
2026-01-01 22:02:52.01	312.56	34.61	-52.9	-57.4	3.7	0.00e+00	0	51	104	0	77	24169
2026-01-01 22:02:53.30	311.76	34.76	-53.0	-57.6	3.7	0.00e+00	0	51	104	0	77	24637
2026-01-01 22:02:54.08	311.28	34.84	-52.8	-57.4	3.7	0.00e+00	0	51	104	0	77	24157
2026-01-01 22:02:55.37	310.47	34.98	-53.1	-57.9	3.7	0.00e+00	0	51	104	0	77	25462
2026-01-01 22:02:56.08	310.02	35.05	-53.1	-57.7	3.7	0.00e+00	0	51	104	0	77	25051
2026-01-01 22:02:57.37	309.21	35.18	-53.1	-57.8	3.7	0.00e+00	0	51	104	0	77	25159
2026-01-01 22:02:58.23	308.66	35.26	-53.5	-57.6	3.7	0.00e+00	0	51	104	0	77	24792
2026-01-01 22:02:59.38	307.92	35.36	-53.4	-57.7	3.7	0.00e+00	0	51	104	0	77	25028
2026-01-01 22:03:00.24	307.36	35.44	-53.0	-57.6	3.7	0.00e+00	0	51	104	0	77	24668
2026-01-01 22:03:01.38	306.62	35.53	-53.1	-57.6	3.7	0.00e+00	0	51	104	0	77	24655
2026-01-01 22:03:02.24	306.06	35.60	-53.1	-57.5	3.7	0.00e+00	0	51	104	0	77	24455
2026-01-01 22:03:03.39	305.31	35.69	-52.7	-57.0	3.7	0.00e+00	0	51	104	0	77	23086
2026-01-01 22:03:04.25	304.74	35.75	-52.7	-56.7	3.7	0.00e+00	0	51	104	0	77	22358
2026-01-01 22:03:05.43	303.96	35.84	-52.6	-56.7	3.6	0.00e+00	0	51	104	0	77	22320
2026-01-01 22:03:06.29	303.38	35.89	-53.0	-57.0	3.7	0.00e+00	0	51	104	0	77	23103
2026-01-01 22:03:07.44	302.62	35.96	-53.1	-57.4	3.7	0.00e+00	0	51	104	0	77	23977
2026-01-01 22:03:08.29	302.04	36.01	-52.9	-57.5	3.6	0.00e+00	0	51	104	0	77	24325
2026-01-01 22:03:09.44	301.27	36.07	-52.9	-57.3	3.7	0.00e+00	0	51	104	0	77	23766
2026-01-01 22:03:10.30	300.69	36.11	-53.0	-57.1	3.7	0.00e+00	0	51	104	0	77	23212
2026-01-01 22:03:11.44	299.92	36.16	-53.2	-57.3	3.7	0.00e+00	0	51	104	0	77	23824
2026-01-01 22:03:12.30	299.33	36.19	-53.1	-57.2	3.7	0.00e+00	0	51	104	0	77	23476
2026-01-01 22:03:13.45	298.55	36.23	-53.2	-57.4	3.7	0.00e+00	0	51	104	0	77	24004
2026-01-01 22:03:14.31	297.96	36.26	-53.2	-57.4	3.7	0.00e+00	0	51	104	0	77	24140
2026-01-01 22:03:15.45	297.18	36.29	-53.4	-57.8	3.7	0.00e+00	0	51	104	0	77	25307
2026-01-01 22:03:16.31	296.59	36.31	-52.8	-57.4	3.7	0.00e+00	0	51	104	0	77	24079
2026-01-01 22:03:17.46	295.80	36.33	-52.7	-57.4	3.7	0.00e+00	0	51	104	0	77	23978
2026-01-01 22:03:18.32	295.21	36.34	-52.9	-57.4	3.7	0.00e+00	0	51	104	0	77	24212
2026-01-01 22:03:19.46	294.43	36.35	-53.6	-58.2	3.7	0.00e+00	0	51	104	0	77	26461
2026-01-01 22:03:20.32	293.83	36.35	-53.6	-58.3	3.7	0.00e+00	0	51	104	0	77	26808
2026-01-01 22:03:21.55	292.99	36.35	-53.5	-58.0	3.7	0.00e+00	0	51	104	0	77	25852
2026-01-01 22:03:22.41	292.40	36.35	-53.6	-57.9	3.7	0.00e+00	0	51	104	0	77	25623
2026-01-01 22:03:23.65	291.54	36.34	-53.6	-58.2	3.7	0.00e+00	0	51	104	0	77	26355
2026-01-01 22:03:24.50	290.96	36.33	-53.5	-58.2	3.7	0.00e+00	0	51	104	0	77	26426
2026-01-01 22:03:25.65	290.17	36.30	-53.6	-58.2	3.7	0.00e+00	0	51	104	0	77	26513
2026-01-01 22:03:26.51	289.58	36.28	-53.8	-58.3	3.7	0.00e+00	0	51	104	0	78	25100
2026-01-01 22:03:27.66	288.79	36.25	-53.8	-58.4	3.7	0.00e+00	0	51	104	0	78	25589
2026-01-01 22:03:28.52	288.21	36.23	-53.6	-58.4	3.7	0.00e+00	0	51	104	0	78	25492
2026-01-01 22:03:29.89	287.27	36.17	-53.4	-58.2	3.7	0.00e+00	0	51	104	0	78	24958
2026-01-01 22:03:30.61	286.78	36.14	-53.6	-58.2	3.7	0.00e+00	0	51	104	0	78	24985
2026-01-01 22:03:32.10	285.77	36.08	-53.9	-58.4	3.7	0.00e+00	0	51	104	0	78	25573
2026-01-01 22:03:32.82	285.29	36.04	-53.9	-58.4	3.7	0.00e+00	0	51	104	0	78	25652
2026-01-01 22:03:34.11	284.42	35.97	-53.6	-58.2	3.7	0.00e+00	0	51	104	0	78	25073
2026-01-01 22:03:35.19	283.70	35.90	-53.7	-58.3	3.7	0.00e+00	0	51	104	0	78	25342
2026-01-01 22:03:36.05	283.12	35.85	-53.7	-58.3	3.7	0.00e+00	0	51	104	0	78	25181
2026-01-01 22:03:37.19	282.36	35.77	-53.7	-58.3	3.7	0.00e+00	0	51	104	0	78	25230
2026-01-01 22:03:38.06	281.79	35.71	-53.5	-58.0	3.7	0.00e+00	0	51	104	0	78	24381
2026-01-01 22:03:39.20	281.04	35.62	-53.5	-58.2	3.7	0.00e+00	0	51	104	0	78	24914
2026-01-01 22:03:40.11	280.44	35.55	-53.6	-58.3	3.7	0.00e+00	0	51	104	0	78	25139
2026-01-01 22:03:41.11	279.79	35.47	-53.4	-58.1	3.7	0.00e+00	0	51	104	0	78	24791
2026-01-01 22:03:42.35	278.99	35.36	-53.7	-58.3	3.7	0.00e+00	0	51	104	0	78	25224
2026-01-01 22:03:43.20	278.44	35.28	-53.7	-58.1	3.7	0.00e+00	0	51	104	0	78	24653
2026-01-01 22:03:44.57	277.56	35.15	-53.3	-57.9	3.7	0.00e+00	0	51	104	0	78	24033
2026-01-01 22:03:45.29	277.11	35.08	-53.3	-57.9	3.7	0.00e+00	0	51	104	0	78	24037
2026-01-01 22:03:46.58	276.29	34.95	-53.9	-58.4	3.7	0.00e+00	0	51	104	0	78	25399
2026-01-01 22:03:47.29	275.85	34.88	-53.9	-58.4	3.7	0.00e+00	0	51	104	0	78	25499
2026-01-01 22:03:48.58	275.04	34.74	-53.5	-58.2	3.7	0.00e+00	0	51	104	0	78	25072
2026-01-01 22:03:49.30	274.60	34.66	-53.5	-58.2	3.6	0.00e+00	0	51	104	0	78	24943
2026-01-01 22:03:50.59	273.81	34.51	-53.6	-58.3	3.7	0.00e+00	0	51	104	0	78	25226
2026-01-01 22:03:51.31	273.37	34.42	-53.6	-58.4	3.7	0.00e+00	0	51	104	0	78	25461
2026-01-01 22:03:52.60	272.59	34.27	-53.5	-58.3	3.7	0.00e+00	0	51	104	0	78	25237
2026-01-01 22:03:53.32	272.16	34.18	-53.5	-58.3	3.6	0.00e+00	0	51	104	0	78	25283
2026-01-01 22:03:54.61	271.39	34.02	-53.2	-57.8	3.7	0.00e+00	0	51	104	0	78	23958
2026-01-01 22:03:55.32	270.97	33.92	-53.2	-57.9	3.7	0.00e+00	0	51	104	0	78	24028
2026-01-01 22:03:56.61	270.22	33.75	-53.4	-57.9	3.7	0.00e+00	0	51	104	0	78	24192
2026-01-01 22:03:57.33	269.80	33.66	-53.4	-57.9	3.7	0.00e+00	0	51	104	0	78	24135
2026-01-01 22:03:58.62	269.06	33.48	-53.8	-58.4	3.7	0.00e+00	0	51	104	0	78	25483
2026-01-01 22:03:59.34	268.65	33.38	-53.5	-58.3	3.7	0.00e+00	0	51	104	0	78	25249
2026-01-01 22:04:00.62	267.93	33.20	-53.3	-58.3	3.7	0.00e+00	0	51	104	0	78	25096
2026-01-01 22:04:01.34	267.53	33.10	-53.3	-58.2	3.7	0.00e+00	0	51	104	0	78	24934
2026-01-01 22:04:02.63	266.81	32.91	-53.5	-58.2	3.7	0.00e+00	0	51	104	0	78	24866
2026-01-01 22:04:03.34	266.43	32.81	-53.4	-58.1	3.7	0.00e+00	0	51	104	0	78	24788
2026-01-01 22:04:04.63	265.73	32.61	-53.6	-58.1	3.7	0.00e+00	0	51	104	0	78	24634
2026-01-01 22:04:05.49	265.26	32.48	-53.6	-58.1	3.7	0.00e+00	0	51	104	0	78	24727
2026-01-01 22:04:06.64	264.65	32.31	-53.2	-57.7	3.7	0.00e+00	0	51	104	0	78	23688
2026-01-01 22:04:07.72	264.08	32.14	-53.0	-57.8	3.7	0.00e+00	0	51	104	0	77	25270
2026-01-01 22:04:08.58	263.64	32.01	-53.1	-57.8	3.7	0.00e+00	0	51	104	0	77	25273
2026-01-01 22:04:09.73	263.05	31.83	-53.8	-58.3	3.7	0.00e+00	0	51	104	0	78	25143
2026-01-01 22:04:10.59	262.61	31.69	-53.7	-58.3	3.7	0.00e+00	0	51	104	0	78	25124
2026-01-01 22:04:11.74	262.03	31.50	-53.2	-58.0	3.7	0.00e+00	0	51	104	0	78	24472
2026-01-01 22:04:12.60	261.60	31.37	-53.2	-58.0	3.7	0.00e+00	0	51	104	0	78	24471
2026-01-01 22:04:13.75	261.03	31.18	-53.4	-58.1	3.7	0.00e+00	0	51	104	0	78	24668
2026-01-01 22:04:14.61	260.61	31.04	-53.4	-58.0	3.7	0.00e+00	0	51	104	0	78	24250
2026-01-01 22:04:15.83	260.02	30.84	-53.3	-57.9	3.7	0.00e+00	0	51	104	0	78	24232
2026-01-01 22:04:16.69	259.61	30.69	-53.4	-58.0	3.7	0.00e+00	0	51	104	0	78	24384
2026-01-01 22:04:17.84	259.07	30.50	-53.4	-58.0	3.7	0.00e+00	0	51	104	0	78	24261
2026-01-01 22:04:18.70	258.67	30.36	-53.3	-57.7	3.7	0.00e+00	0	51	104	0	78	23508
2026-01-01 22:04:19.85	258.14	30.16	-52.9	-57.9	3.7	0.00e+00	0	51	104	0	77	25575
2026-01-01 22:04:20.70	257.75	30.02	-53.0	-57.9	3.7	0.00e+00	0	51	104	0	77	25604
2026-01-01 22:04:21.85	257.24	29.82	-52.7	-57.9	3.7	0.00e+00	0	51	104	0	77	25437
2026-01-01 22:04:22.71	256.85	29.68	-52.8	-57.6	3.7	0.00e+00	0	51	104	0	77	24622
2026-01-01 22:04:23.86	256.35	29.48	-52.7	-57.7	3.7	0.00e+00	0	51	104	0	77	24935
2026-01-01 22:04:24.72	255.97	29.33	-52.7	-57.6	3.7	0.00e+00	0	51	104	0	77	24803
2026-01-01 22:04:25.87	255.48	29.13	-53.0	-58.0	3.7	0.00e+00	0	51	104	0	77	25890
2026-01-01 22:04:26.73	255.11	28.99	-53.2	-58.1	3.7	0.00e+00	0	51	104	0	77	26080
2026-01-01 22:04:27.87	254.63	28.79	-52.8	-57.9	3.7	0.00e+00	0	51	104	0	77	25514
2026-01-01 22:04:28.73	254.28	28.64	-52.8	-57.9	3.7	0.00e+00	0	51	104	0	77	25663
2026-01-01 22:04:29.88	253.81	28.44	-53.3	-58.2	3.7	0.00e+00	0	51	104	0	77	26322
2026-01-01 22:04:30.74	253.46	28.29	-53.2	-57.9	3.7	0.00e+00	0	51	104	0	77	25506
2026-01-01 22:04:31.95	252.97	28.08	-52.8	-57.6	3.7	0.00e+00	0	51	104	0	77	24793
2026-01-01 22:04:32.81	252.63	27.93	-53.0	-57.7	3.7	0.00e+00	0	51	104	0	77	24969
2026-01-01 22:04:33.96	252.18	27.73	-52.7	-57.4	3.7	0.00e+00	0	51	104	0	77	24089
2026-01-01 22:04:34.82	251.85	27.58	-52.7	-57.8	3.7	0.00e+00	0	51	104	0	77	25221
2026-01-01 22:04:36.12	251.36	27.35	-53.4	-58.0	3.7	0.00e+00	0	51	104	0	77	25801
2026-01-01 22:04:36.84	251.08	27.23	-53.1	-57.8	3.7	0.00e+00	0	51	104	0	77	25231
2026-01-01 22:04:38.34	250.53	26.97	-53.5	-58.0	3.7	0.00e+00	0	51	104	0	77	25975
2026-01-01 22:04:39.05	250.27	26.85	-53.4	-58.2	3.7	0.00e+00	0	51	104	0	77	26494
2026-01-01 22:04:40.43	249.77	26.61	-53.2	-57.7	3.7	0.00e+00	0	51	104	0	77	24882
2026-01-01 22:04:41.14	249.51	26.48	-53.3	-57.9	3.7	0.00e+00	0	51	104	0	77	25444
2026-01-01 22:04:42.51	249.03	26.25	-52.9	-57.2	3.7	0.00e+00	0	51	104	0	77	23441
2026-01-01 22:04:43.23	248.78	26.12	-52.5	-57.0	3.7	0.00e+00	0	51	104	0	77	22961
2026-01-01 22:04:44.52	248.34	25.90	-52.9	-57.1	3.7	0.00e+00	0	51	104	0	77	23195
2026-01-01 22:04:45.24	248.09	25.78	-52.8	-57.0	3.7	0.00e+00	0	51	104	0	77	22890
2026-01-01 22:04:46.53	247.66	25.55	-52.8	-57.4	3.7	0.00e+00	0	51	104	0	77	23985
2026-01-01 22:04:47.24	247.42	25.43	-52.9	-57.5	3.7	0.00e+00	0	51	104	0	77	24315
2026-01-01 22:04:48.53	247.00	25.21	-53.1	-57.8	3.7	0.00e+00	0	51	104	0	77	25312
2026-01-01 22:04:49.36	246.73	25.07	-53.0	-57.7	3.7	0.00e+00	0	51	104	0	77	24912
2026-01-01 22:04:50.51	246.36	24.88	-53.6	-58.2	3.7	0.00e+00	0	51	104	0	77	26310
2026-01-01 22:04:51.61	246.01	24.69	-53.4	-58.1	3.7	0.00e+00	0	51	104	0	77	26215
2026-01-01 22:04:52.47	245.75	24.54	-53.4	-58.2	3.7	0.00e+00	0	51	104	0	77	26302
2026-01-01 22:04:53.61	245.39	24.35	-53.4	-58.2	3.7	0.00e+00	0	51	104	0	77	26395
2026-01-01 22:04:54.48	245.13	24.20	-53.3	-58.1	3.7	0.00e+00	0	51	104	0	77	26106
2026-01-01 22:04:55.63	244.78	24.01	-53.4	-58.1	3.7	0.00e+00	0	51	104	0	77	26273
2026-01-01 22:04:56.48	244.53	23.87	-53.5	-58.1	3.7	0.00e+00	0	51	104	0	77	26117
2026-01-01 22:04:57.63	244.19	23.68	-53.4	-58.0	3.7	0.00e+00	0	51	104	0	77	25893
2026-01-01 22:04:58.49	243.94	23.54	-53.6	-58.1	3.7	0.00e+00	0	51	104	0	77	26214
2026-01-01 22:04:59.64	243.61	23.35	-53.4	-58.0	3.7	0.00e+00	0	51	104	0	77	25744
2026-01-01 22:05:00.49	243.37	23.21	-53.4	-58.0	3.7	0.00e+00	0	51	104	0	77	25681
2026-01-01 22:05:01.64	243.05	23.02	-53.3	-58.0	3.7	0.00e+00	0	51	104	0	77	25904
2026-01-01 22:05:02.71	242.75	22.84	-53.3	-57.9	3.7	0.00e+00	0	51	104	0	77	25445
2026-01-01 22:05:03.71	242.48	22.68	-53.6	-58.0	3.7	0.00e+00	0	51	104	0	77	25794
2026-01-01 22:05:04.72	242.21	22.52	-53.5	-57.9	3.7	0.00e+00	0	51	104	0	78	24023
2026-01-01 22:05:05.72	241.94	22.36	-53.7	-58.0	3.7	0.00e+00	0	51	104	0	78	24406
2026-01-01 22:05:06.72	241.68	22.20	-53.7	-58.0	3.7	0.00e+00	0	51	104	0	78	24365
2026-01-01 22:05:07.72	241.42	22.04	-53.3	-57.8	3.7	0.00e+00	0	51	104	0	78	23870
2026-01-01 22:05:08.72	241.16	21.88	-53.6	-57.9	3.7	0.00e+00	0	51	104	0	78	24049
2026-01-01 22:05:09.73	240.90	21.72	-53.1	-57.9	3.7	0.00e+00	0	51	104	0	78	24063
2026-01-01 22:05:10.73	240.65	21.56	-53.0	-57.8	3.7	0.00e+00	0	51	104	0	77	25096
2026-01-01 22:05:11.73	240.40	21.40	-53.3	-58.0	3.7	0.00e+00	0	51	104	0	77	25690
2026-01-01 22:05:12.74	240.16	21.24	-53.1	-58.0	3.7	0.00e+00	0	51	104	0	77	25717
2026-01-01 22:05:13.79	239.90	21.08	-53.3	-58.0	3.7	0.00e+00	0	51	104	0	77	25791
2026-01-01 22:05:14.72	239.68	20.94	-53.3	-58.1	3.7	0.00e+00	0	51	104	0	77	26086
2026-01-01 22:05:15.73	239.44	20.78	-52.5	-57.7	3.6	0.00e+00	0	51	104	0	76	26456
2026-01-01 22:05:16.89	239.17	20.60	-52.9	-57.9	3.7	0.00e+00	0	51	104	0	76	27034
2026-01-01 22:05:17.75	238.97	20.47	-52.6	-57.8	3.7	0.00e+00	0	51	104	0	76	26692
2026-01-01 22:05:18.90	238.70	20.30	-52.7	-57.7	3.7	0.00e+00	0	51	104	0	76	26360
2026-01-01 22:05:19.76	238.51	20.17	-52.8	-57.7	3.7	0.00e+00	0	51	104	0	76	26466
2026-01-01 22:05:20.90	238.25	20.00	-52.8	-57.7	3.7	0.00e+00	0	51	104	0	76	26302
2026-01-01 22:05:21.76	238.06	19.87	-53.0	-57.9	3.7	0.00e+00	0	51	104	0	76	26895
2026-01-01 22:05:22.91	237.81	19.70	-52.6	-57.9	3.7	0.00e+00	0	51	104	0	76	26901
2026-01-01 22:05:23.77	237.62	19.57	-52.7	-58.1	3.7	0.00e+00	0	51	104	0	76	27571
2026-01-01 22:05:24.92	237.38	19.40	-52.8	-58.0	3.7	0.00e+00	0	51	104	0	76	27331
2026-01-01 22:05:25.78	237.20	19.27	-53.0	-58.1	3.7	0.00e+00	0	51	104	0	76	27590
2026-01-01 22:05:26.93	236.96	19.10	-52.7	-57.9	3.7	0.00e+00	0	51	104	0	76	27125
2026-01-01 22:05:27.79	236.78	18.98	-52.9	-57.8	3.7	0.00e+00	0	51	104	0	76	26710
2026-01-01 22:05:29.05	236.52	18.80	-52.8	-58.0	3.7	0.00e+00	0	51	104	0	76	27305
2026-01-01 22:05:29.81	236.37	18.69	-53.2	-57.9	3.7	0.00e+00	0	51	104	0	77	25634
2026-01-01 22:05:31.09	236.11	18.50	-53.0	-57.9	3.7	0.00e+00	0	51	104	0	77	25571
2026-01-01 22:05:32.29	235.87	18.33	-53.3	-58.0	3.7	0.00e+00	0	51	104	0	77	25937
2026-01-01 22:05:33.15	235.71	18.21	-53.3	-57.9	3.7	0.00e+00	0	51	104	0	77	25610
2026-01-01 22:05:34.29	235.49	18.05	-53.3	-58.0	3.7	0.00e+00	0	51	104	0	77	25863
2026-01-01 22:05:35.15	235.32	17.93	-53.1	-58.0	3.7	0.00e+00	0	51	104	0	77	25725
2026-01-01 22:05:36.32	235.10	17.77	-53.3	-58.0	3.7	0.00e+00	0	51	104	0	77	25696
2026-01-01 22:05:37.18	234.94	17.65	-53.2	-57.9	3.7	0.00e+00	0	51	104	0	77	25556
2026-01-01 22:05:38.33	234.73	17.49	-53.3	-57.9	3.7	0.00e+00	0	51	104	0	77	25520
2026-01-01 22:05:39.66	234.49	17.31	-53.2	-57.9	3.7	0.00e+00	0	51	104	0	77	25632
2026-01-01 22:05:40.38	234.36	17.21	-53.1	-58.0	3.7	0.00e+00	0	51	104	0	77	25754
2026-01-01 22:05:41.67	234.13	17.04	-53.0	-58.0	3.7	0.00e+00	0	51	104	0	77	25949
2026-01-01 22:05:42.39	234.00	16.94	-53.0	-58.0	3.7	0.00e+00	0	51	104	0	77	25955
2026-01-01 22:05:43.68	233.78	16.77	-53.3	-58.1	3.7	0.00e+00	0	51	104	0	77	26024
2026-01-01 22:05:44.40	233.65	16.67	-53.3	-58.0	3.7	0.00e+00	0	51	104	0	77	25964
2026-01-01 22:05:45.80	233.41	16.49	-53.0	-58.0	3.7	0.00e+00	0	51	104	0	77	25943
2026-01-01 22:05:46.52	233.29	16.39	-53.3	-58.0	3.7	0.00e+00	0	51	104	0	77	25879
2026-01-01 22:05:47.80	233.08	16.23	-53.2	-57.8	3.7	0.00e+00	0	51	104	0	77	25307
2026-01-01 22:05:48.90	232.89	16.08	-53.3	-58.0	3.7	0.00e+00	0	51	104	0	77	25777
2026-01-01 22:05:49.76	232.75	15.97	-53.2	-57.8	3.7	0.00e+00	0	51	104	0	77	25276
2026-01-01 22:05:50.90	232.57	15.82	-53.3	-58.0	3.7	0.00e+00	0	51	104	0	77	25738
2026-01-01 22:05:51.76	232.43	15.71	-53.3	-58.0	3.7	0.00e+00	0	51	104	0	77	25726
2026-01-01 22:05:52.99	232.24	15.56	-53.3	-58.0	3.7	0.00e+00	0	51	104	0	77	25698
2026-01-01 22:05:53.85	232.10	15.45	-53.4	-58.0	3.7	0.00e+00	0	51	104	0	77	25759
2026-01-01 22:05:55.00	231.92	15.30	-53.2	-57.8	3.7	0.00e+00	0	51	104	0	77	25269
2026-01-01 22:05:55.86	231.79	15.20	-53.0	-57.7	3.7	0.00e+00	0	51	104	0	77	24865
2026-01-01 22:05:57.00	231.62	15.05	-53.2	-57.8	3.7	0.00e+00	0	51	104	0	77	25320
2026-01-01 22:05:57.91	231.48	14.94	-53.1	-57.7	3.7	0.00e+00	0	51	104	0	77	24833
2026-01-01 22:05:59.10	231.30	14.79	-53.1	-57.7	3.7	0.00e+00	0	51	104	0	77	24998
2026-01-01 22:06:00.01	231.17	14.68	-53.2	-57.8	3.7	0.00e+00	0	51	104	0	77	25355
2026-01-01 22:06:01.22	230.99	14.54	-53.0	-57.6	3.7	0.00e+00	0	51	104	0	77	24754
2026-01-01 22:06:02.08	230.87	14.43	-52.9	-57.6	3.7	0.00e+00	0	51	104	0	77	24778
2026-01-01 22:06:03.38	230.68	14.27	-53.5	-57.9	3.7	0.00e+00	0	51	104	0	77	25670
2026-01-01 22:06:04.10	230.58	14.19	-53.3	-57.9	3.7	0.00e+00	0	51	104	0	77	25664
2026-01-01 22:06:05.39	230.40	14.03	-53.2	-57.9	3.7	0.00e+00	0	51	104	0	77	25535
2026-01-01 22:06:06.11	230.30	13.95	-53.1	-58.0	3.7	0.00e+00	0	51	104	0	77	25774
2026-01-01 22:06:07.68	230.09	13.76	-53.2	-57.8	3.7	0.00e+00	0	51	104	0	77	25099
2026-01-01 22:06:08.26	230.01	13.70	-53.2	-57.8	3.7	0.00e+00	0	51	104	0	77	25155
2026-01-01 22:06:10.04	229.77	13.49	-52.8	-57.8	3.7	0.00e+00	0	51	104	0	77	25115
2026-01-01 22:06:10.62	229.69	13.42	-53.3	-57.9	3.7	0.00e+00	0	51	104	0	77	25398
2026-01-01 22:06:12.20	229.49	13.24	-53.2	-57.8	3.7	0.00e+00	0	51	104	0	77	25326
2026-01-01 22:06:12.79	229.41	13.17	-53.3	-57.9	3.7	0.00e+00	0	51	104	0	77	25471
2026-01-01 22:06:14.36	229.21	12.99	-53.2	-57.9	3.7	0.00e+00	0	51	104	0	77	25579
2026-01-01 22:06:14.95	229.13	12.93	-53.0	-57.6	3.7	0.00e+00	0	51	104	0	77	24689
2026-01-01 22:06:16.52	228.93	12.75	-53.0	-57.6	3.7	0.00e+00	0	51	104	0	77	24800
2026-01-01 22:06:17.14	228.86	12.68	-53.1	-57.8	3.7	0.00e+00	0	51	104	0	77	25106
2026-01-01 22:06:18.84	228.65	12.49	-52.9	-57.7	3.7	0.00e+00	0	51	104	0	77	24999
2026-01-01 22:06:19.42	228.58	12.43	-52.9	-57.7	3.7	0.00e+00	0	51	104	0	77	24944
2026-01-01 22:06:20.99	228.39	12.25	-52.9	-57.6	3.7	0.00e+00	0	51	104	0	77	24761
2026-01-01 22:06:21.59	228.32	12.19	-53.1	-57.6	3.7	0.00e+00	0	51	104	0	77	24762
2026-01-01 22:06:23.17	228.13	12.02	-53.1	-57.6	3.7	0.00e+00	0	51	104	0	77	24724
2026-01-01 22:06:23.78	228.06	11.95	-53.0	-57.6	3.7	0.00e+00	0	51	104	0	77	24796
2026-01-01 22:06:25.56	227.85	11.76	-53.1	-57.6	3.7	0.00e+00	0	51	104	0	77	24602
2026-01-01 22:06:26.13	227.78	11.70	-52.9	-57.6	3.7	0.00e+00	0	51	104	0	77	24627
2026-01-01 22:06:27.77	227.60	11.52	-53.0	-57.8	3.7	0.00e+00	0	51	104	0	77	25208
2026-01-01 22:06:28.72	227.49	11.42	-52.9	-57.7	3.7	0.00e+00	0	51	104	0	77	24857
2026-01-01 22:06:29.73	227.38	11.31	-53.0	-57.6	3.7	0.00e+00	0	51	104	0	77	24772
2026-01-01 22:06:30.73	227.27	11.21	-53.1	-57.7	3.7	0.00e+00	0	51	104	0	77	24985
2026-01-01 22:06:31.73	227.16	11.11	-53.1	-57.5	3.7	0.00e+00	0	51	104	0	77	24488
2026-01-01 22:06:32.79	227.05	11.00	-53.1	-57.7	3.7	0.00e+00	0	51	104	0	77	24956
2026-01-01 22:06:33.66	226.95	10.91	-53.3	-57.6	3.7	0.00e+00	0	51	104	0	77	24747
2026-01-01 22:06:34.98	226.81	10.77	-52.9	-57.6	3.7	0.00e+00	0	51	104	0	77	24602
2026-01-01 22:06:35.70	226.74	10.70	-52.8	-57.4	3.7	0.00e+00	0	51	104	0	77	24123
2026-01-01 22:06:36.98	226.60	10.57	-53.1	-57.5	3.7	0.00e+00	0	51	104	0	77	24521
2026-01-01 22:06:37.70	226.53	10.49	-53.3	-57.8	3.7	0.00e+00	0	51	104	0	77	25196
2026-01-01 22:06:38.99	226.40	10.36	-52.3	-57.1	3.7	0.00e+00	0	51	104	0	76	24576
2026-01-01 22:06:39.70	226.32	10.29	-52.4	-56.9	3.7	0.00e+00	0	51	104	0	76	24227
2026-01-01 22:06:40.99	226.19	10.16	-52.5	-57.2	3.7	0.00e+00	0	51	104	0	76	24854
2026-01-01 22:06:41.71	226.12	10.09	-52.3	-56.9	3.7	0.00e+00	0	51	104	0	76	24234
2026-01-01 22:06:43.00	225.99	9.96	-52.5	-56.8	3.7	0.00e+00	0	51	104	0	76	23730
2026-01-01 22:06:43.71	225.92	9.89	-52.5	-56.6	3.7	0.00e+00	0	51	104	0	76	23360
2026-01-01 22:06:45.00	225.80	9.77	-52.1	-56.4	3.7	0.00e+00	0	51	104	0	76	22834
2026-01-01 22:06:45.72	225.73	9.70	-51.8	-56.4	3.7	0.00e+00	0	51	104	0	75	24086
2026-01-01 22:06:47.01	225.60	9.57	-51.9	-56.4	3.7	0.00e+00	0	51	104	0	75	24164
2026-01-01 22:06:47.72	225.54	9.50	-52.9	-57.1	3.7	0.00e+00	0	51	104	0	76	24599
2026-01-01 22:06:49.01	225.42	9.38	-51.0	-55.5	3.7	0.00e+00	0	51	104	0	74	23090
2026-01-01 22:06:49.73	225.35	9.31	-51.9	-56.4	3.7	0.00e+00	0	51	104	0	74	25495
2026-01-01 22:06:51.02	225.23	9.19	-50.9	-55.4	3.7	0.00e+00	0	51	104	0	73	24130
2026-01-01 22:06:51.73	225.16	9.12	-50.5	-55.1	3.7	0.00e+00	0	51	104	0	73	23376
2026-01-01 22:06:53.20	225.03	8.98	-50.2	-55.0	3.7	0.00e+00	0	51	104	0	72	24339
2026-01-01 22:06:53.92	224.96	8.91	-52.3	-56.6	3.7	0.00e+00	0	51	104	0	75	24605
2026-01-01 22:06:55.20	224.85	8.79	-53.3	-58.0	3.7	0.00e+00	0	51	104	0	77	25822
2026-01-01 22:06:55.92	224.79	8.73	-53.5	-58.0	3.7	0.00e+00	0	51	104	0	77	25849
2026-01-01 22:06:57.36	224.66	8.59	-53.7	-58.2	3.7	0.00e+00	0	51	104	0	78	24888
2026-01-01 22:06:58.08	224.60	8.53	-53.3	-57.9	3.7	0.00e+00	0	51	104	0	78	24145
2026-01-01 22:06:59.45	224.48	8.40	-53.2	-58.0	3.7	0.00e+00	0	51	104	0	78	24419
2026-01-01 22:07:00.16	224.42	8.34	-53.7	-58.2	3.7	0.00e+00	0	51	104	0	78	24957
2026-01-01 22:07:01.50	224.30	8.21	-54.0	-58.5	3.7	0.00e+00	0	52	104	0	78	25901
2026-01-01 22:07:02.22	224.24	8.15	-53.5	-58.2	3.7	0.00e+00	0	51	104	0	78	24838
2026-01-01 22:07:03.58	224.13	8.03	-53.7	-58.0	3.7	0.00e+00	0	51	104	0	78	24505
2026-01-01 22:07:04.29	224.07	7.96	-53.8	-58.3	3.7	0.00e+00	0	51	104	0	78	25374
2026-01-01 22:07:05.66	223.96	7.84	-53.9	-58.3	3.7	0.00e+00	0	51	104	0	78	25274
2026-01-01 22:07:06.38	223.90	7.78	-54.0	-58.5	3.7	0.00e+00	0	51	104	0	78	25701
2026-01-01 22:07:07.72	223.79	7.66	-53.9	-58.4	3.7	0.00e+00	0	51	104	0	78	25433
2026-01-01 22:07:08.44	223.73	7.59	-53.7	-58.2	3.7	0.00e+00	0	51	104	0	78	24950
2026-01-01 22:07:09.73	223.63	7.48	-53.7	-58.1	3.7	0.00e+00	0	51	104	0	78	24548
2026-01-01 22:07:10.45	223.57	7.42	-53.6	-57.9	3.7	0.00e+00	0	51	104	0	78	24035
2026-01-01 22:07:11.74	223.47	7.30	-53.3	-57.7	3.7	0.00e+00	0	51	104	0	78	23515
2026-01-01 22:07:12.46	223.41	7.24	-53.4	-57.7	3.6	0.00e+00	0	51	104	0	78	23556
2026-01-01 22:07:13.75	223.32	7.13	-53.5	-58.2	3.7	0.00e+00	0	51	104	0	78	24979
2026-01-01 22:07:14.46	223.26	7.07	-53.5	-58.2	3.7	0.00e+00	0	51	104	0	78	24920
2026-01-01 22:07:15.76	223.16	6.96	-53.3	-57.8	3.7	0.00e+00	0	51	104	0	78	23801
2026-01-01 22:07:16.47	223.11	6.90	-53.3	-57.8	3.7	0.00e+00	0	51	104	0	78	23782
2026-01-01 22:07:17.77	223.01	6.79	-53.3	-57.8	3.7	0.00e+00	0	51	104	0	78	23746
2026-01-01 22:07:18.48	222.96	6.73	-53.3	-57.8	3.7	0.00e+00	0	51	104	0	78	23843
2026-01-01 22:07:19.77	222.86	6.62	-53.3	-57.8	3.7	0.00e+00	0	51	104	0	78	23736
2026-01-01 22:07:20.49	222.81	6.56	-53.3	-57.8	3.7	0.00e+00	0	51	104	0	78	23740
2026-01-01 22:07:21.78	222.72	6.45	-53.3	-57.8	3.7	0.00e+00	0	51	104	0	78	23744
2026-01-01 22:07:22.50	222.67	6.39	-53.3	-57.8	3.7	0.00e+00	0	51	104	0	78	23727
2026-01-01 22:07:23.87	222.57	6.28	-53.3	-57.8	3.7	0.00e+00	0	51	104	0	78	23806
2026-01-01 22:07:24.59	222.52	6.22	-53.3	-57.8	3.7	0.00e+00	0	51	104	0	78	23719
2026-01-01 22:07:25.88	222.43	6.11	-53.3	-57.8	3.7	0.00e+00	0	52	104	0	78	23743
2026-01-01 22:07:26.59	222.38	6.05	-53.3	-57.8	3.7	0.00e+00	0	51	104	0	78	23712
2026-01-01 22:07:27.88	222.29	5.95	-53.3	-57.8	3.7	0.00e+00	0	51	104	0	78	23794
2026-01-01 22:07:28.60	222.24	5.89	-53.3	-57.7	3.7	0.00e+00	0	51	104	0	78	23685
2026-01-01 22:07:29.89	222.15	5.78	-53.3	-57.8	3.7	0.00e+00	0	51	104	0	78	23734
2026-01-01 22:07:30.61	222.10	5.73	-53.3	-57.8	3.7	0.00e+00	0	51	104	0	78	23753
2026-01-01 22:07:31.90	222.01	5.62	-53.3	-57.7	3.7	0.00e+00	0	51	104	0	78	23672
2026-01-01 22:07:32.62	221.96	5.56	-53.3	-57.8	3.7	0.00e+00	0	51	104	0	78	23716
2026-01-01 22:07:33.91	221.88	5.46	-53.3	-57.8	3.7	0.00e+00	0	51	104	0	78	23727
2026-01-01 22:07:34.63	221.83	5.40	-53.3	-57.8	3.7	0.00e+00	0	51	104	0	78	23791
2026-01-01 22:07:35.92	221.75	5.30	-53.3	-57.8	3.7	0.00e+00	0	51	104	0	78	23716
2026-01-01 22:07:36.64	221.70	5.24	-53.3	-57.8	3.7	0.00e+00	0	51	104	0	78	23837
2026-01-01 22:07:37.93	221.62	5.14	-53.3	-57.8	3.7	0.00e+00	0	51	104	0	78	23705
2026-01-01 22:07:38.65	221.57	5.09	-53.3	-57.8	3.7	0.00e+00	0	52	104	0	78	23762
2026-01-01 22:07:39.94	221.49	4.99	-53.3	-57.8	3.7	0.00e+00	0	51	104	0	78	23753
2026-01-01 22:07:40.65	221.44	4.93	-53.3	-57.8	3.7	0.00e+00	0	51	104	0	78	23748
2026-01-01 22:07:41.95	221.36	4.83	-53.3	-57.8	3.7	0.00e+00	0	51	104	0	78	23741
2026-01-01 22:07:42.66	221.32	4.77	-53.3	-57.8	3.7	0.00e+00	0	51	104	0	78	23766
2026-01-01 22:07:43.95	221.24	4.67	-53.3	-57.8	3.7	0.00e+00	0	51	104	0	78	23699
2026-01-01 22:07:44.67	221.19	4.62	-53.3	-57.8	3.7	0.00e+00	0	51	104	0	78	23722
2026-01-01 22:07:45.96	221.12	4.52	-53.3	-57.8	3.7	0.00e+00	0	51	104	0	78	23765
2026-01-01 22:07:46.68	221.07	4.47	-53.3	-57.8	3.7	0.00e+00	0	51	104	0	78	23737
2026-01-01 22:07:47.97	220.99	4.37	-53.3	-57.8	3.7	0.00e+00	0	51	104	0	78	23700
2026-01-01 22:07:48.69	220.95	4.31	-53.3	-57.8	3.7	0.00e+00	0	51	104	0	78	23706
2026-01-01 22:07:49.98	220.88	4.22	-53.3	-57.8	3.7	0.00e+00	0	51	104	0	78	23720

#Closed at: 2026-01-01 22:07:50
#Recorded file [0 MB]: D:/Data/31040_260102_005909.dat