passes_logs/2026/01/01/T1/T1__20260101_021833_SUOMI_NPP_rec.log

#Pass ID: 20260101_021833_SUOMI NPP
#Satellite: SUOMI NPP
#Configuration: NPP
#almurnet v.1.7.20251203
#Start time: 2026-01-01 02:18:35

#Version: 2.0.20230620
#Station: T1
#Location: 37.570604 lon 55.790049 lat
#TLE: 1 37849U 11061A   25364.87906317  .00000195  00000+0  11345-3 0  9992
#TLE: 2 37849  98.7794 302.0592 0002571  89.2401 270.9069 14.19520347734561

#Time	Az	El	Level	Level2	SNR	BER	BlckErr	Temp	State	Recorded	gain1	gain2
2026-01-01 02:18:35.68	1.11	5.11	-51.2	-66.4	3.8	1.49e+00	0	41	0	0	73	21459
2026-01-01 02:18:36.68	0.99	5.15	-51.2	-66.4	3.8	1.49e+00	0	41	104	0	74	20264
2026-01-01 02:18:37.69	0.87	5.20	-51.2	-66.4	3.8	1.49e+00	0	41	104	0	74	20233
2026-01-01 02:18:38.69	0.76	5.24	-51.3	-66.5	3.8	1.49e+00	0	41	104	0	74	20491
2026-01-01 02:18:39.70	0.64	5.29	-51.3	-66.5	3.8	1.49e+00	0	41	104	0	74	20406
2026-01-01 02:18:40.70	0.52	5.34	-51.2	-66.5	3.8	1.49e+00	0	41	104	0	74	20329
2026-01-01 02:18:41.71	0.40	5.38	-51.3	-66.5	3.8	1.49e+00	0	41	104	0	74	20349
2026-01-01 02:18:42.71	0.28	5.43	-51.3	-66.5	3.8	1.49e+00	0	41	104	0	74	20395
2026-01-01 02:18:43.72	0.16	5.48	-51.3	-66.4	3.8	1.49e+00	0	41	104	0	74	20261
2026-01-01 02:18:44.72	0.05	5.52	-51.2	-66.5	3.8	1.49e+00	0	41	104	0	74	20319
2026-01-01 02:18:45.72	359.93	5.57	-51.2	-66.4	3.8	1.49e+00	0	41	104	0	74	20288
2026-01-01 02:18:46.73	359.81	5.61	-51.3	-66.5	3.8	1.49e+00	0	41	104	0	74	20406
2026-01-01 02:18:47.73	359.69	5.66	-51.2	-66.4	3.8	1.49e+00	0	41	104	0	74	20215
2026-01-01 02:18:48.73	359.57	5.70	-51.3	-66.5	3.8	1.49e+00	0	41	104	0	74	20366
2026-01-01 02:18:49.74	359.44	5.75	-51.3	-66.5	3.8	1.49e+00	0	41	104	0	74	20336
2026-01-01 02:18:50.74	359.32	5.80	-51.2	-66.5	3.8	1.49e+00	0	41	104	0	74	20307
2026-01-01 02:18:51.74	359.20	5.84	-51.2	-66.4	3.8	1.49e+00	0	41	104	0	74	20252
2026-01-01 02:18:52.75	359.08	5.89	-51.2	-66.5	3.8	1.49e+00	0	41	104	0	74	20324
2026-01-01 02:18:53.75	358.96	5.93	-51.3	-66.5	3.8	1.49e+00	0	41	104	0	74	20393
2026-01-01 02:18:54.76	358.83	5.98	-51.2	-66.4	3.8	1.49e+00	0	42	104	0	74	20228
2026-01-01 02:18:55.76	358.71	6.03	-51.3	-66.4	3.8	1.49e+00	0	41	104	0	74	20249
2026-01-01 02:18:56.77	358.58	6.07	-51.2	-66.5	3.8	1.49e+00	0	41	104	0	74	20354
2026-01-01 02:18:57.77	358.46	6.12	-51.2	-66.5	3.8	1.49e+00	0	41	104	0	74	20360
2026-01-01 02:18:58.78	358.33	6.16	-51.2	-66.4	3.8	1.49e+00	0	41	104	0	74	20298
2026-01-01 02:18:59.78	358.21	6.21	-51.2	-66.4	3.8	1.49e+00	0	41	104	0	74	20281
2026-01-01 02:19:00.78	358.08	6.25	-51.2	-66.4	3.8	1.49e+00	0	42	104	0	74	20270
2026-01-01 02:19:01.79	357.96	6.30	-51.3	-66.5	3.8	1.49e+00	0	42	104	0	74	20361
2026-01-01 02:19:02.80	357.83	6.34	-51.3	-66.4	3.8	1.49e+00	0	42	104	0	74	20277
2026-01-01 02:19:03.80	357.70	6.39	-51.2	-66.5	3.8	1.49e+00	0	42	104	0	74	20347
2026-01-01 02:19:04.80	357.58	6.43	-51.2	-66.4	3.8	1.49e+00	0	42	104	0	74	20290
2026-01-01 02:19:05.81	357.45	6.48	-51.3	-66.5	3.8	1.49e+00	0	42	104	0	74	20406
2026-01-01 02:19:06.81	357.32	6.52	-51.3	-66.5	3.8	1.49e+00	0	42	104	0	74	20344
2026-01-01 02:19:07.81	357.19	6.57	-51.2	-66.4	3.8	1.49e+00	0	42	104	0	74	20292
2026-01-01 02:19:08.82	357.06	6.61	-51.2	-66.5	3.8	1.49e+00	0	42	104	0	74	20328
2026-01-01 02:19:09.82	356.94	6.66	-51.2	-66.4	3.8	1.49e+00	0	42	104	0	74	20279
2026-01-01 02:19:10.83	356.81	6.70	-51.2	-66.4	3.8	1.49e+00	0	42	104	0	74	20181
2026-01-01 02:19:11.83	356.68	6.75	-51.2	-66.5	3.8	1.49e+00	0	42	104	0	74	20307
2026-01-01 02:19:12.84	356.54	6.79	-51.2	-66.4	3.8	1.49e+00	0	42	104	0	74	20212
2026-01-01 02:19:13.84	356.41	6.84	-51.2	-66.5	3.8	1.49e+00	0	42	104	0	74	20327
2026-01-01 02:19:14.85	356.28	6.88	-51.3	-66.5	3.8	1.49e+00	0	42	104	0	74	20379
2026-01-01 02:19:15.85	356.15	6.93	-51.2	-66.4	3.8	1.49e+00	0	42	104	0	74	20293
2026-01-01 02:19:16.85	356.02	6.97	-51.3	-66.5	3.8	1.49e+00	0	42	104	0	74	20311
2026-01-01 02:19:17.86	355.89	7.02	-51.2	-66.5	3.8	1.49e+00	0	42	104	0	74	20312
2026-01-01 02:19:18.86	355.75	7.06	-51.2	-66.5	3.8	1.49e+00	0	42	104	0	74	20325
2026-01-01 02:19:19.87	355.62	7.11	-51.3	-66.5	3.8	1.49e+00	0	42	104	0	74	20328
2026-01-01 02:19:20.87	355.49	7.15	-51.2	-66.5	3.8	1.49e+00	0	42	104	0	74	20310
2026-01-01 02:19:21.88	355.35	7.19	-51.2	-66.5	3.8	1.49e+00	0	42	104	0	74	20367
2026-01-01 02:19:22.88	355.22	7.24	-51.2	-66.4	3.8	1.49e+00	0	42	104	0	74	20249
2026-01-01 02:19:23.89	355.08	7.28	-51.2	-66.5	3.8	1.49e+00	0	42	104	0	74	20327
2026-01-01 02:19:24.89	354.95	7.33	-51.2	-66.4	3.8	1.49e+00	0	42	104	0	74	20238
2026-01-01 02:19:25.89	354.81	7.37	-51.2	-66.4	3.8	1.49e+00	0	42	104	0	74	20300
2026-01-01 02:19:26.90	354.67	7.41	-51.2	-66.5	3.8	1.49e+00	0	42	104	0	74	20379
2026-01-01 02:19:27.90	354.54	7.46	-51.2	-66.5	3.8	1.49e+00	0	42	104	0	74	20359
2026-01-01 02:19:28.91	354.40	7.50	-51.2	-66.4	3.8	1.49e+00	0	42	104	0	74	20260
2026-01-01 02:19:29.91	354.26	7.54	-51.2	-66.4	3.8	1.49e+00	0	42	104	0	74	20184
2026-01-01 02:19:30.92	354.12	7.59	-51.3	-66.5	3.8	1.49e+00	0	42	104	0	74	20392
2026-01-01 02:19:31.92	353.99	7.63	-51.2	-66.4	3.8	1.49e+00	0	42	104	0	74	20284
2026-01-01 02:19:32.93	353.85	7.67	-51.2	-66.4	3.8	1.49e+00	0	42	104	0	74	20282
2026-01-01 02:19:33.93	353.71	7.72	-51.2	-66.4	3.8	1.49e+00	0	42	104	0	74	20266
2026-01-01 02:19:34.93	353.57	7.76	-51.2	-66.4	3.8	1.49e+00	0	42	104	0	74	20147
2026-01-01 02:19:35.94	353.43	7.80	-51.2	-66.4	3.8	1.49e+00	0	43	104	0	74	20180
2026-01-01 02:19:36.94	353.29	7.85	-51.2	-66.4	3.8	1.49e+00	0	43	104	0	74	20167
2026-01-01 02:19:37.95	353.15	7.89	-51.2	-66.4	3.8	1.49e+00	0	43	104	0	74	20252
2026-01-01 02:19:38.95	353.00	7.93	-51.2	-66.4	3.8	1.49e+00	0	43	104	0	74	20203
2026-01-01 02:19:39.95	352.86	7.97	-51.2	-66.4	3.8	1.49e+00	0	43	104	0	74	20171
2026-01-01 02:19:40.96	352.72	8.02	-51.2	-66.4	3.8	1.49e+00	0	43	104	0	74	20300
2026-01-01 02:19:41.96	352.58	8.06	-51.2	-66.5	3.8	1.49e+00	0	42	104	0	74	20306
2026-01-01 02:19:42.97	352.43	8.10	-51.2	-66.4	3.8	1.49e+00	0	43	104	0	74	20242
2026-01-01 02:19:43.97	352.29	8.14	-51.2	-66.4	3.8	1.49e+00	0	43	104	0	74	20197
2026-01-01 02:19:44.98	352.15	8.19	-51.2	-66.4	3.8	1.49e+00	0	43	104	0	74	20225
2026-01-01 02:19:45.98	352.00	8.23	-51.2	-66.4	3.8	1.49e+00	0	43	104	0	74	20254
2026-01-01 02:19:46.98	351.86	8.27	-51.2	-66.5	3.8	1.49e+00	0	42	104	0	74	20366
2026-01-01 02:19:47.99	351.71	8.31	-51.2	-66.4	3.8	1.49e+00	0	43	104	0	74	20288
2026-01-01 02:19:48.99	351.57	8.35	-51.2	-66.4	3.8	1.49e+00	0	43	104	0	74	20262
2026-01-01 02:19:50.00	351.42	8.39	-51.2	-66.4	3.8	1.49e+00	0	43	104	0	74	20210
2026-01-01 02:19:51.00	351.27	8.44	-51.2	-66.5	3.8	1.49e+00	0	43	104	0	74	20347
2026-01-01 02:19:52.01	351.13	8.48	-51.2	-66.5	3.8	1.49e+00	0	43	104	0	74	20318
2026-01-01 02:19:53.01	350.98	8.52	-51.2	-66.4	3.8	1.49e+00	0	43	104	0	74	20234
2026-01-01 02:19:54.01	350.83	8.56	-51.2	-66.4	3.8	1.49e+00	0	43	104	0	74	20194
2026-01-01 02:19:55.02	350.68	8.60	-51.2	-66.4	3.8	1.49e+00	0	43	104	0	74	20291
2026-01-01 02:19:56.02	350.54	8.64	-51.2	-66.4	3.8	1.49e+00	0	43	104	0	74	20137
2026-01-01 02:19:57.03	350.39	8.68	-51.2	-66.4	3.8	1.49e+00	0	43	104	0	74	20267
2026-01-01 02:19:58.03	350.24	8.72	-51.2	-66.4	3.8	1.49e+00	0	43	104	0	74	20221
2026-01-01 02:19:59.04	350.09	8.76	-51.2	-66.4	3.8	1.49e+00	0	43	104	0	74	20216
2026-01-01 02:20:00.04	349.94	8.80	-51.2	-66.4	3.8	1.49e+00	0	43	104	0	74	20280
2026-01-01 02:20:01.05	349.78	8.84	-51.2	-66.5	3.8	1.49e+00	0	43	104	0	74	20337
2026-01-01 02:20:02.05	349.63	8.89	-51.2	-66.4	3.8	1.49e+00	0	43	104	0	74	20202
2026-01-01 02:20:03.06	349.48	8.93	-51.2	-66.4	3.8	1.49e+00	0	43	104	0	74	20175
2026-01-01 02:20:04.06	349.33	8.97	-51.2	-66.5	3.8	1.49e+00	0	43	104	0	74	20305
2026-01-01 02:20:05.06	349.18	9.00	-51.2	-66.4	3.8	1.49e+00	0	43	104	0	74	20255
2026-01-01 02:20:06.07	349.02	9.04	-51.2	-66.4	3.8	1.49e+00	0	43	104	0	74	20226
2026-01-01 02:20:07.07	348.87	9.08	-51.2	-66.4	3.8	1.49e+00	0	43	104	0	74	20155
2026-01-01 02:20:08.07	348.72	9.12	-51.2	-66.4	3.8	1.49e+00	0	43	104	0	74	20264
2026-01-01 02:20:09.08	348.56	9.16	-51.2	-66.4	3.8	1.49e+00	0	43	104	0	74	20245
2026-01-01 02:20:10.08	348.41	9.20	-51.2	-66.4	3.8	1.49e+00	0	43	104	0	74	20282
2026-01-01 02:20:11.09	348.25	9.24	-51.2	-66.5	3.8	1.49e+00	0	43	104	0	74	20318
2026-01-01 02:20:12.09	348.10	9.28	-51.2	-66.4	3.8	1.49e+00	0	43	104	0	74	20255
2026-01-01 02:20:13.10	347.94	9.32	-51.3	-66.5	3.8	1.49e+00	0	43	104	0	74	20397
2026-01-01 02:20:14.10	347.79	9.36	-51.2	-66.4	3.8	1.49e+00	0	43	104	0	74	20285
2026-01-01 02:20:15.11	347.63	9.40	-51.2	-66.5	3.8	1.49e+00	0	43	104	0	74	20314
2026-01-01 02:20:16.11	347.47	9.43	-51.2	-66.4	3.8	1.49e+00	0	43	104	0	74	20277
2026-01-01 02:20:17.11	347.31	9.47	-51.2	-66.5	3.8	1.49e+00	0	43	104	0	74	20318
2026-01-01 02:20:18.12	347.16	9.51	-51.2	-66.5	3.8	1.49e+00	0	43	104	0	74	20315
2026-01-01 02:20:19.12	347.00	9.55	-51.2	-66.5	3.8	1.49e+00	0	43	104	0	74	20351
2026-01-01 02:20:20.13	346.84	9.59	-51.2	-66.5	3.8	1.49e+00	0	43	104	0	74	20322
2026-01-01 02:20:21.13	346.68	9.62	-51.2	-66.4	3.8	1.49e+00	0	43	104	0	74	20184
2026-01-01 02:20:22.13	346.52	9.66	-51.2	-66.4	3.8	1.49e+00	0	43	104	0	74	20231
2026-01-01 02:20:23.14	346.36	9.70	-51.2	-66.4	3.8	1.49e+00	0	43	104	0	74	20303
2026-01-01 02:20:24.14	346.20	9.73	-51.2	-66.4	3.8	1.49e+00	0	43	104	0	74	20267
2026-01-01 02:20:25.14	346.04	9.77	-51.2	-66.4	3.8	1.49e+00	0	43	104	0	74	20287
2026-01-01 02:20:26.15	345.88	9.81	-51.2	-66.4	3.8	1.49e+00	0	43	104	0	74	20267
2026-01-01 02:20:27.16	345.71	9.85	-51.2	-66.4	3.8	1.49e+00	0	43	104	0	74	20099
2026-01-01 02:20:28.16	345.55	9.88	-51.2	-66.4	3.8	1.49e+00	0	43	104	0	74	20258
2026-01-01 02:20:29.16	345.39	9.92	-51.2	-66.4	3.8	1.49e+00	0	43	104	0	74	20209
2026-01-01 02:20:30.17	345.23	9.95	-51.2	-66.4	3.8	1.49e+00	0	43	104	0	74	20174
2026-01-01 02:20:31.17	345.06	9.99	-51.2	-66.4	3.8	1.49e+00	0	43	104	0	74	20248
2026-01-01 02:20:32.18	344.90	10.03	-51.2	-66.4	3.8	1.49e+00	0	43	104	0	74	20239
2026-01-01 02:20:33.18	344.73	10.06	-51.2	-66.5	3.8	1.49e+00	0	43	104	0	74	20345
2026-01-01 02:20:34.19	344.57	10.10	-51.3	-66.5	3.8	1.49e+00	0	43	104	0	74	20340
2026-01-01 02:20:35.19	344.40	10.13	-51.2	-66.4	3.8	1.49e+00	0	43	104	0	74	20243
2026-01-01 02:20:36.19	344.24	10.17	-51.2	-66.4	3.8	1.49e+00	0	43	104	0	74	20208
2026-01-01 02:20:37.20	344.07	10.20	-51.2	-66.4	3.8	1.49e+00	0	43	104	0	74	20182
2026-01-01 02:20:38.20	343.91	10.24	-51.2	-66.4	3.8	1.49e+00	0	43	104	0	74	20272
2026-01-01 02:20:39.21	343.74	10.27	-51.2	-66.4	3.8	1.49e+00	0	43	104	0	74	20145
2026-01-01 02:20:40.21	343.57	10.30	-51.2	-66.4	3.8	1.49e+00	0	43	104	0	74	20207
2026-01-01 02:20:41.22	343.41	10.34	-51.2	-66.4	3.8	1.49e+00	0	43	104	0	74	20171
2026-01-01 02:20:42.22	343.24	10.37	-51.2	-66.4	3.8	1.49e+00	0	43	104	0	74	20206
2026-01-01 02:20:43.22	343.07	10.41	-51.2	-66.4	3.8	1.49e+00	0	43	104	0	74	20264
2026-01-01 02:20:44.23	342.90	10.44	-51.2	-66.4	3.8	1.49e+00	0	43	104	0	74	20271
2026-01-01 02:20:45.23	342.73	10.47	-51.2	-66.4	3.8	1.49e+00	0	43	104	0	74	20206
2026-01-01 02:20:46.23	342.56	10.51	-51.2	-66.4	3.8	1.49e+00	0	43	104	0	74	20217
2026-01-01 02:20:47.24	342.39	10.54	-51.2	-66.4	3.8	1.49e+00	0	43	104	0	74	20268
2026-01-01 02:20:48.24	342.22	10.57	-51.2	-66.4	3.8	1.49e+00	0	43	104	0	74	20289
2026-01-01 02:20:49.25	342.05	10.60	-51.2	-66.4	3.8	1.49e+00	0	43	104	0	74	20215
2026-01-01 02:20:50.25	341.88	10.64	-51.2	-66.4	3.8	1.49e+00	0	43	104	0	74	20250
2026-01-01 02:20:51.26	341.71	10.67	-51.2	-66.4	3.8	1.49e+00	0	43	104	0	74	20158
2026-01-01 02:20:52.26	341.54	10.70	-51.2	-66.4	3.8	1.49e+00	0	43	104	0	74	20263
2026-01-01 02:20:53.26	341.37	10.73	-51.3	-66.4	3.8	1.49e+00	0	43	104	0	74	20271
2026-01-01 02:20:54.27	341.19	10.76	-51.2	-66.4	3.8	1.49e+00	0	43	104	0	74	20282
2026-01-01 02:20:55.27	341.02	10.80	-51.2	-66.5	3.8	1.49e+00	0	43	104	0	74	20342
2026-01-01 02:20:56.28	340.85	10.83	-51.2	-66.4	3.8	1.49e+00	0	43	104	0	74	20301
2026-01-01 02:20:57.28	340.67	10.86	-51.2	-66.5	3.8	1.49e+00	0	43	104	0	74	20358
2026-01-01 02:20:58.29	340.50	10.89	-51.2	-66.4	3.8	1.49e+00	0	43	104	0	74	20274
2026-01-01 02:20:59.29	340.32	10.92	-51.2	-66.4	3.8	1.49e+00	0	43	104	0	74	20238
2026-01-01 02:21:00.30	340.15	10.95	-51.2	-66.4	3.8	1.49e+00	0	43	104	0	74	20179
2026-01-01 02:21:01.30	339.97	10.98	-51.2	-66.5	3.8	1.49e+00	0	43	104	0	74	20349
2026-01-01 02:21:02.30	339.80	11.01	-51.2	-66.4	3.8	1.49e+00	0	43	104	0	74	20246
2026-01-01 02:21:03.31	339.62	11.04	-51.3	-66.5	3.8	1.49e+00	0	43	104	0	74	20348
2026-01-01 02:21:04.31	339.45	11.07	-51.2	-66.4	3.8	1.49e+00	0	43	104	0	74	20254
2026-01-01 02:21:05.31	339.27	11.10	-51.2	-66.4	3.8	1.49e+00	0	43	104	0	74	20245
2026-01-01 02:21:06.32	339.09	11.12	-51.2	-66.4	3.8	1.49e+00	0	43	104	0	74	20276
2026-01-01 02:21:07.32	338.92	11.15	-51.3	-66.5	3.8	1.49e+00	0	43	104	0	74	20365
2026-01-01 02:21:08.33	338.74	11.18	-51.2	-66.4	3.8	1.49e+00	0	43	104	0	74	20244
2026-01-01 02:21:09.33	338.56	11.21	-51.2	-66.5	3.8	1.49e+00	0	43	104	0	74	20367
2026-01-01 02:21:10.34	338.38	11.24	-51.2	-66.4	3.8	1.49e+00	0	43	104	0	74	20281
2026-01-01 02:21:11.34	338.20	11.27	-51.2	-66.4	3.8	1.49e+00	0	43	104	0	74	20298
2026-01-01 02:21:12.35	338.02	11.29	-51.2	-66.4	3.8	1.49e+00	0	43	104	0	74	20301
2026-01-01 02:21:13.35	337.84	11.32	-51.2	-66.5	3.8	1.49e+00	0	43	104	0	74	20324
2026-01-01 02:21:14.35	337.67	11.35	-51.2	-66.4	3.8	1.49e+00	0	43	104	0	74	20260
2026-01-01 02:21:15.36	337.48	11.37	-51.2	-66.5	3.8	1.49e+00	0	43	104	0	74	20305
2026-01-01 02:21:16.36	337.30	11.40	-51.3	-66.5	3.8	1.49e+00	0	43	104	0	74	20327
2026-01-01 02:21:17.37	337.12	11.43	-51.2	-66.4	3.8	1.49e+00	0	43	104	0	74	20196
2026-01-01 02:21:18.37	336.94	11.45	-51.2	-66.4	3.8	1.49e+00	0	43	104	0	74	20292
2026-01-01 02:21:19.45	336.75	11.48	-51.2	-66.4	3.8	1.49e+00	0	43	104	0	74	20233
2026-01-01 02:21:20.35	336.58	11.50	-51.2	-66.4	3.8	1.49e+00	0	44	104	0	74	20217
2026-01-01 02:21:21.37	336.40	11.53	-51.2	-66.4	3.8	1.49e+00	0	43	104	0	74	20296
2026-01-01 02:21:22.37	336.22	11.55	-51.2	-66.4	3.8	1.49e+00	0	43	104	0	74	20162
2026-01-01 02:21:23.37	336.04	11.58	-51.2	-66.4	3.8	1.49e+00	0	43	104	0	74	20219
2026-01-01 02:21:24.63	335.81	11.61	-51.2	-66.4	3.8	1.49e+00	0	44	104	0	74	20254
2026-01-01 02:21:25.37	335.67	11.63	-51.2	-66.4	3.8	1.49e+00	0	43	104	0	74	20148
2026-01-01 02:21:26.66	335.44	11.66	-51.2	-66.4	3.8	1.49e+00	0	43	104	0	74	20215
2026-01-01 02:21:27.38	335.30	11.67	-51.2	-66.4	3.8	1.49e+00	0	43	104	0	74	20213
2026-01-01 02:21:28.67	335.07	11.70	-51.2	-66.4	3.8	1.49e+00	0	43	104	0	74	20274
2026-01-01 02:21:29.38	334.94	11.72	-51.2	-66.4	3.8	1.49e+00	0	43	104	0	74	20288
2026-01-01 02:21:30.67	334.70	11.75	-51.2	-66.4	3.8	1.49e+00	0	44	104	0	74	20260
2026-01-01 02:21:31.39	334.57	11.77	-51.2	-66.4	3.8	1.49e+00	0	43	104	0	74	20291
2026-01-01 02:21:32.68	334.33	11.79	-51.2	-66.5	3.8	1.49e+00	0	43	104	0	74	20343
2026-01-01 02:21:33.40	334.19	11.81	-51.2	-66.4	3.8	1.49e+00	0	43	104	0	74	20220
2026-01-01 02:21:34.69	333.96	11.84	-51.3	-66.5	3.8	1.49e+00	0	43	104	0	74	20326
2026-01-01 02:21:35.41	333.82	11.85	-51.2	-66.5	3.8	1.49e+00	0	43	104	0	74	20364
2026-01-01 02:21:36.70	333.58	11.88	-51.2	-66.5	3.8	1.49e+00	0	43	104	0	74	20333
2026-01-01 02:21:37.42	333.45	11.90	-51.2	-66.4	3.8	1.49e+00	0	43	104	0	74	20234
2026-01-01 02:21:38.71	333.21	11.92	-51.2	-66.4	3.8	1.49e+00	0	43	104	0	74	20270
2026-01-01 02:21:39.42	333.08	11.94	-51.2	-66.5	3.8	1.49e+00	0	43	104	0	74	20344
2026-01-01 02:21:40.72	332.83	11.96	-51.2	-66.4	3.8	1.49e+00	0	43	104	0	74	20182
2026-01-01 02:21:41.43	332.70	11.98	-51.2	-66.4	3.8	1.49e+00	0	44	104	0	74	20167
2026-01-01 02:21:42.77	332.45	12.00	-51.2	-66.5	3.8	1.49e+00	0	43	104	0	74	20354
2026-01-01 02:21:43.49	332.31	12.02	-51.2	-66.5	3.8	1.49e+00	0	43	104	0	74	20329
2026-01-01 02:21:44.83	332.06	12.04	-51.3	-66.5	3.8	1.49e+00	0	43	104	0	74	20335
2026-01-01 02:21:45.55	331.93	12.05	-51.2	-66.5	3.8	1.49e+00	0	44	104	0	74	20305
2026-01-01 02:21:46.93	331.67	12.08	-51.2	-66.5	3.8	1.49e+00	0	44	104	0	74	20328
2026-01-01 02:21:47.65	331.53	12.09	-51.2	-66.4	3.8	1.49e+00	0	43	104	0	74	20294
2026-01-01 02:21:48.94	331.29	12.11	-51.2	-66.4	3.8	1.49e+00	0	43	104	0	74	20299
2026-01-01 02:21:49.66	331.15	12.13	-51.2	-66.5	3.8	1.49e+00	0	44	104	0	74	20346
2026-01-01 02:21:50.95	330.91	12.15	-51.2	-66.4	3.8	1.49e+00	0	43	104	0	74	20302
2026-01-01 02:21:51.67	330.77	12.16	-51.2	-66.5	3.8	1.49e+00	0	43	104	0	74	20311
2026-01-01 02:21:52.96	330.53	12.18	-51.2	-66.4	3.8	1.49e+00	0	43	104	0	74	20234
2026-01-01 02:21:53.67	330.39	12.19	-51.2	-66.4	3.8	1.49e+00	0	43	104	0	74	20237
2026-01-01 02:21:54.96	330.15	12.21	-51.2	-66.5	3.8	1.49e+00	0	43	104	0	74	20379
2026-01-01 02:21:55.68	330.01	12.23	-51.2	-66.4	3.8	1.49e+00	0	43	104	0	74	20287
2026-01-01 02:21:56.97	329.76	12.25	-51.2	-66.4	3.8	1.49e+00	0	44	104	0	74	20248
2026-01-01 02:21:57.69	329.62	12.26	-51.2	-66.5	3.8	1.49e+00	0	43	104	0	74	20345
2026-01-01 02:21:58.98	329.38	12.27	-51.2	-66.4	3.8	1.49e+00	0	43	104	0	74	20210
2026-01-01 02:21:59.70	329.24	12.29	-51.2	-66.4	3.8	1.49e+00	0	44	104	0	74	20267
2026-01-01 02:22:00.99	328.99	12.30	-51.2	-66.5	3.8	1.49e+00	0	43	104	0	74	20350
2026-01-01 02:22:01.71	328.86	12.31	-51.2	-66.4	3.8	1.49e+00	0	44	104	0	74	20229
2026-01-01 02:22:03.00	328.61	12.33	-51.2	-66.4	3.8	1.49e+00	0	43	104	0	74	20252
2026-01-01 02:22:03.71	328.47	12.34	-51.2	-66.4	3.8	1.49e+00	0	44	104	0	74	20209
2026-01-01 02:22:05.00	328.22	12.36	-51.2	-66.4	3.8	1.49e+00	0	44	104	0	74	20146
2026-01-01 02:22:05.72	328.09	12.37	-51.2	-66.4	3.8	1.49e+00	0	44	104	0	74	20168
2026-01-01 02:22:07.01	327.84	12.38	-51.2	-66.4	3.8	1.49e+00	0	43	104	0	74	20196
2026-01-01 02:22:07.73	327.70	12.39	-51.2	-66.4	3.8	1.49e+00	0	43	104	0	74	20163
2026-01-01 02:22:09.02	327.45	12.40	-51.2	-66.4	3.8	1.49e+00	0	43	104	0	74	20140
2026-01-01 02:22:09.73	327.31	12.41	-51.2	-66.4	3.8	1.49e+00	0	43	104	0	74	20194
2026-01-01 02:22:11.02	327.06	12.43	-51.2	-66.4	3.8	1.49e+00	0	43	104	0	74	20206
2026-01-01 02:22:11.74	326.92	12.43	-51.2	-66.4	3.8	1.49e+00	0	43	104	0	74	20220
2026-01-01 02:22:13.03	326.68	12.45	-51.2	-66.4	3.8	1.49e+00	0	43	104	0	74	20216
2026-01-01 02:22:13.75	326.54	12.45	-51.2	-66.4	3.8	1.49e+00	0	44	104	0	74	20188
2026-01-01 02:22:15.04	326.29	12.47	-51.2	-66.5	3.8	1.49e+00	0	44	104	0	74	20338
2026-01-01 02:22:15.76	326.15	12.47	-51.2	-66.4	3.8	1.49e+00	0	43	104	0	74	20143
2026-01-01 02:22:17.05	325.90	12.49	-51.2	-66.4	3.8	1.49e+00	0	43	104	0	74	20219
2026-01-01 02:22:17.77	325.76	12.49	-51.2	-66.4	3.8	1.49e+00	0	43	104	0	74	20152
2026-01-01 02:22:19.06	325.51	12.50	-51.2	-66.4	3.8	1.49e+00	0	44	104	0	74	20228
2026-01-01 02:22:19.77	325.37	12.51	-51.2	-66.4	3.8	1.49e+00	0	43	104	0	74	20172
2026-01-01 02:22:21.07	325.12	12.52	-51.2	-66.4	3.8	1.49e+00	0	43	104	0	74	20180
2026-01-01 02:22:21.78	324.98	12.52	-51.2	-66.4	3.8	1.49e+00	0	43	104	0	74	20195
2026-01-01 02:22:23.07	324.73	12.53	-51.2	-66.4	3.8	1.49e+00	0	44	104	0	74	20211
2026-01-01 02:22:23.79	324.59	12.54	-51.2	-66.4	3.8	1.49e+00	0	43	104	0	74	20203
2026-01-01 02:22:25.08	324.34	12.55	-51.2	-66.4	3.8	1.49e+00	0	44	104	0	74	20105
2026-01-01 02:22:25.80	324.20	12.55	-51.2	-66.4	3.8	1.49e+00	0	44	104	0	74	20134
2026-01-01 02:22:27.09	323.94	12.56	-51.2	-66.4	3.8	1.49e+00	0	43	104	0	74	20141
2026-01-01 02:22:27.81	323.80	12.56	-51.2	-66.4	3.8	1.49e+00	0	43	104	0	74	20114
2026-01-01 02:22:29.10	323.55	12.57	-51.2	-66.4	3.8	1.49e+00	0	43	104	0	74	20135
2026-01-01 02:22:29.82	323.41	12.57	-51.2	-66.4	3.8	1.49e+00	0	43	104	0	74	20156
2026-01-01 02:22:31.11	323.16	12.58	-51.2	-66.4	3.8	1.49e+00	0	44	104	0	74	20175
2026-01-01 02:22:31.83	323.02	12.58	-51.2	-66.4	3.8	1.49e+00	0	43	104	0	74	20106
2026-01-01 02:22:33.12	322.77	12.59	-51.2	-66.4	3.8	1.49e+00	0	44	104	0	74	20123
2026-01-01 02:22:33.84	322.63	12.59	-51.2	-66.4	3.8	1.49e+00	0	44	104	0	74	20178
2026-01-01 02:22:35.13	322.37	12.59	-51.2	-66.4	3.8	1.49e+00	0	44	104	0	74	20221
2026-01-01 02:22:35.84	322.24	12.59	-51.2	-66.4	3.8	1.49e+00	0	43	104	0	74	20233
2026-01-01 02:22:37.13	321.98	12.60	-51.2	-66.4	3.8	1.49e+00	0	43	104	0	74	20177
2026-01-01 02:22:37.85	321.84	12.60	-51.2	-66.4	3.8	1.49e+00	0	43	104	0	74	20201
2026-01-01 02:22:39.14	321.59	12.60	-51.2	-66.4	3.8	1.49e+00	0	44	104	0	74	20190
2026-01-01 02:22:39.86	321.45	12.60	-51.2	-66.4	3.8	1.49e+00	0	44	104	0	74	20282
2026-01-01 02:22:41.15	321.20	12.60	-51.2	-66.4	3.8	1.49e+00	0	44	104	0	74	20155
2026-01-01 02:22:41.87	321.06	12.60	-51.2	-66.4	3.8	1.49e+00	0	43	104	0	74	20223
2026-01-01 02:22:43.16	320.80	12.61	-51.2	-66.4	3.8	1.49e+00	0	44	104	0	74	20149
2026-01-01 02:22:43.88	320.66	12.61	-51.2	-66.4	3.8	1.49e+00	0	44	104	0	74	20072
2026-01-01 02:22:45.17	320.41	12.61	-51.2	-66.4	3.8	1.49e+00	0	44	104	0	74	20093
2026-01-01 02:22:45.89	320.27	12.61	-51.2	-66.4	3.8	1.49e+00	0	43	104	0	74	20151
2026-01-01 02:22:47.18	320.02	12.60	-51.2	-66.4	3.8	1.49e+00	0	44	104	0	74	20162
2026-01-01 02:22:47.89	319.88	12.60	-51.2	-66.4	3.8	1.49e+00	0	44	104	0	74	20165
2026-01-01 02:22:49.18	319.63	12.60	-51.2	-66.3	3.8	1.49e+00	0	43	104	0	74	20007
2026-01-01 02:22:49.90	319.49	12.60	-51.2	-66.4	3.8	1.49e+00	0	44	104	0	74	20251
2026-01-01 02:22:51.19	319.23	12.60	-51.2	-66.4	3.8	1.49e+00	0	44	104	0	74	20174
2026-01-01 02:22:51.91	319.09	12.60	-51.2	-66.4	3.8	1.49e+00	0	44	104	0	74	20094
2026-01-01 02:22:53.20	318.84	12.59	-51.2	-66.4	3.8	1.49e+00	0	44	104	0	74	20191
2026-01-01 02:22:53.92	318.70	12.59	-51.2	-66.4	3.8	1.49e+00	0	44	104	0	74	20120
2026-01-01 02:22:55.20	318.45	12.59	-51.2	-66.4	3.8	1.49e+00	0	44	104	0	74	20085
2026-01-01 02:22:55.92	318.31	12.58	-51.2	-66.4	3.8	1.49e+00	0	44	104	0	74	20230
2026-01-01 02:22:57.21	318.06	12.58	-51.2	-66.4	3.8	1.49e+00	0	43	104	0	74	20101
2026-01-01 02:22:57.93	317.92	12.58	-51.2	-66.4	3.8	1.49e+00	0	44	104	0	74	20089
2026-01-01 02:22:59.22	317.66	12.57	-51.2	-66.4	3.8	1.49e+00	0	44	104	0	74	20141
2026-01-01 02:22:59.94	317.52	12.57	-51.2	-66.4	3.8	1.49e+00	0	44	104	0	74	20132
2026-01-01 02:23:01.23	317.27	12.56	-51.2	-66.4	3.8	1.49e+00	0	44	104	0	74	20151
2026-01-01 02:23:01.95	317.13	12.55	-51.1	-66.4	3.8	1.49e+00	0	43	104	0	74	20106
2026-01-01 02:23:03.24	316.88	12.55	-51.2	-66.4	3.8	1.49e+00	0	43	104	0	74	20164
2026-01-01 02:23:03.96	316.74	12.54	-51.2	-66.4	3.8	1.49e+00	0	43	104	0	74	20103
2026-01-01 02:23:05.25	316.49	12.53	-51.2	-66.4	3.8	1.49e+00	0	43	104	0	74	20128
2026-01-01 02:23:05.96	316.35	12.53	-51.2	-66.4	3.8	1.49e+00	0	44	104	0	74	20163
2026-01-01 02:23:07.25	316.10	12.52	-51.2	-66.4	3.8	1.49e+00	0	44	104	0	74	20132
2026-01-01 02:23:07.97	315.96	12.51	-51.2	-66.4	3.8	1.49e+00	0	43	104	0	74	20238
2026-01-01 02:23:09.26	315.71	12.50	-51.2	-66.4	3.8	1.49e+00	0	44	104	0	74	20151
2026-01-01 02:23:09.98	315.57	12.50	-51.2	-66.4	3.8	1.49e+00	0	44	104	0	74	20082
2026-01-01 02:23:11.27	315.32	12.49	-51.2	-66.4	3.8	1.49e+00	0	44	104	0	74	20141
2026-01-01 02:23:11.99	315.18	12.48	-51.2	-66.4	3.8	1.49e+00	0	44	104	0	74	20216
2026-01-01 02:23:13.28	314.93	12.47	-51.2	-66.4	3.8	1.49e+00	0	43	104	0	74	20225
2026-01-01 02:23:14.00	314.79	12.46	-51.2	-66.4	3.8	1.49e+00	0	43	104	0	74	20210
2026-01-01 02:23:15.29	314.54	12.45	-51.2	-66.4	3.8	1.49e+00	0	44	104	0	74	20173
2026-01-01 02:23:16.00	314.40	12.44	-51.2	-66.4	3.8	1.49e+00	0	44	104	0	74	20072
2026-01-01 02:23:17.29	314.15	12.43	-51.2	-66.4	3.8	1.49e+00	0	44	104	0	74	20141
2026-01-01 02:23:18.01	314.01	12.42	-51.2	-66.4	3.8	1.49e+00	0	44	104	0	74	20106
2026-01-01 02:23:19.30	313.76	12.41	-51.2	-66.4	3.8	1.49e+00	0	44	104	0	74	20217
2026-01-01 02:23:20.02	313.62	12.40	-51.2	-66.4	3.8	1.49e+00	0	44	104	0	74	20091
2026-01-01 02:23:21.31	313.37	12.38	-51.2	-66.4	3.8	1.49e+00	0	44	104	0	74	20193
2026-01-01 02:23:22.03	313.24	12.37	-51.2	-66.4	3.8	1.49e+00	0	44	104	0	74	20146
2026-01-01 02:23:23.32	312.99	12.36	-51.2	-66.4	3.8	1.49e+00	0	44	104	0	74	20113
2026-01-01 02:23:24.03	312.85	12.35	-51.2	-66.4	3.8	1.49e+00	0	44	104	0	74	20079
2026-01-01 02:23:25.32	312.60	12.33	-51.2	-66.4	3.8	1.49e+00	0	44	104	0	74	20202
2026-01-01 02:23:26.04	312.46	12.32	-51.2	-66.4	3.8	1.49e+00	0	44	104	0	74	20111
2026-01-01 02:23:27.33	312.22	12.31	-51.2	-66.4	3.8	1.49e+00	0	44	104	0	74	20136
2026-01-01 02:23:28.05	312.08	12.30	-51.2	-66.4	3.8	1.49e+00	0	44	104	0	74	20240
2026-01-01 02:23:29.34	311.83	12.28	-51.2	-66.4	3.8	1.49e+00	0	44	104	0	74	20163
2026-01-01 02:23:30.06	311.69	12.27	-51.2	-66.4	3.8	1.49e+00	0	44	104	0	74	20136
2026-01-01 02:23:31.35	311.45	12.25	-51.2	-66.4	3.8	1.49e+00	0	44	104	0	74	20290
2026-01-01 02:23:32.07	311.31	12.24	-51.2	-66.4	3.8	1.49e+00	0	44	104	0	74	20141
2026-01-01 02:23:33.36	311.06	12.22	-51.2	-66.4	3.8	1.49e+00	0	44	104	0	74	20136
2026-01-01 02:23:34.08	310.93	12.21	-51.2	-66.4	3.8	1.49e+00	0	44	104	0	74	20082
2026-01-01 02:23:35.37	310.68	12.18	-51.2	-66.4	3.8	1.49e+00	0	44	104	0	74	20189
2026-01-01 02:23:36.08	310.55	12.17	-51.2	-66.4	3.8	1.49e+00	0	44	104	0	74	20144
2026-01-01 02:23:37.37	310.30	12.15	-51.2	-66.4	3.8	1.49e+00	0	44	104	0	74	20232
2026-01-01 02:23:38.09	310.16	12.14	-51.2	-66.4	3.8	1.49e+00	0	43	104	0	74	20174
2026-01-01 02:23:39.38	309.92	12.12	-51.2	-66.4	3.8	1.49e+00	0	44	104	0	74	20224
2026-01-01 02:23:40.18	309.77	12.10	-51.2	-66.4	3.8	1.49e+00	0	44	104	0	74	20123
2026-01-01 02:23:41.33	309.55	12.08	-51.2	-66.4	3.8	1.49e+00	0	44	104	0	74	20174
2026-01-01 02:23:42.19	309.39	12.07	-51.2	-66.4	3.8	1.49e+00	0	44	104	0	74	20229
2026-01-01 02:23:43.34	309.17	12.05	-51.2	-66.4	3.8	1.49e+00	0	44	104	0	74	20140
2026-01-01 02:23:44.20	309.01	12.03	-51.2	-66.4	3.8	1.49e+00	0	43	104	0	74	20268
2026-01-01 02:23:45.35	308.79	12.01	-51.2	-66.4	3.8	1.49e+00	0	44	104	0	74	20210
2026-01-01 02:23:46.21	308.63	11.99	-51.2	-66.4	3.8	1.49e+00	0	44	104	0	74	20152
2026-01-01 02:23:47.36	308.42	11.97	-51.2	-66.4	3.8	1.49e+00	0	44	104	0	74	20210
2026-01-01 02:23:48.22	308.26	11.95	-51.2	-66.4	3.8	1.49e+00	0	43	104	0	74	20247
2026-01-01 02:23:49.36	308.04	11.93	-51.2	-66.4	3.8	1.49e+00	0	44	104	0	74	20198
2026-01-01 02:23:50.22	307.88	11.91	-51.2	-66.4	3.8	1.49e+00	0	44	104	0	74	20161
2026-01-01 02:23:51.37	307.67	11.89	-51.2	-66.4	3.8	1.49e+00	0	43	104	0	74	20227
2026-01-01 02:23:52.23	307.51	11.87	-51.2	-66.4	3.8	1.49e+00	0	44	104	0	74	20252
2026-01-01 02:23:53.38	307.29	11.85	-51.2	-66.4	3.8	1.49e+00	0	44	104	0	74	20186
2026-01-01 02:23:54.37	307.11	11.82	-51.2	-66.4	3.8	1.49e+00	0	43	104	0	74	20233
2026-01-01 02:23:55.37	306.92	11.80	-51.2	-66.4	3.8	1.49e+00	0	44	104	0	74	20249
2026-01-01 02:23:56.38	306.74	11.78	-51.2	-66.4	3.8	1.49e+00	0	44	104	0	74	20099
2026-01-01 02:23:57.61	306.51	11.75	-51.2	-66.4	3.8	1.49e+00	0	43	104	0	74	20200
2026-01-01 02:23:58.47	306.35	11.73	-51.2	-66.4	3.8	1.49e+00	0	44	104	0	74	20266
2026-01-01 02:23:59.61	306.14	11.71	-51.2	-66.4	3.8	1.49e+00	0	44	104	0	74	20286
2026-01-01 02:24:00.48	305.98	11.69	-51.2	-66.4	3.8	1.49e+00	0	44	104	0	74	20205
2026-01-01 02:24:01.62	305.77	11.66	-51.2	-66.4	3.8	1.49e+00	0	43	104	0	74	20218
2026-01-01 02:24:02.48	305.61	11.64	-51.2	-66.4	3.8	1.49e+00	0	44	104	0	74	20139
2026-01-01 02:24:03.63	305.40	11.61	-51.2	-66.4	3.8	1.49e+00	0	44	104	0	74	20115
2026-01-01 02:24:04.49	305.25	11.59	-51.2	-66.4	3.8	1.49e+00	0	44	104	0	74	20157
2026-01-01 02:24:05.67	305.03	11.56	-51.2	-66.4	3.8	1.49e+00	0	44	104	0	74	20253
2026-01-01 02:24:06.53	304.87	11.54	-51.2	-66.4	3.8	1.49e+00	0	44	104	0	74	20170
2026-01-01 02:24:07.74	304.65	11.51	-51.2	-66.4	3.8	1.49e+00	0	44	104	0	74	20227
2026-01-01 02:24:08.60	304.50	11.49	-51.2	-66.4	3.8	1.49e+00	0	44	104	0	74	20210
2026-01-01 02:24:09.75	304.29	11.46	-51.2	-66.4	3.8	1.49e+00	0	44	104	0	74	20225
2026-01-01 02:24:10.61	304.13	11.44	-51.2	-66.4	3.8	1.49e+00	0	44	104	0	74	20276
2026-01-01 02:24:11.76	303.93	11.41	-51.2	-66.4	3.8	1.49e+00	0	44	104	0	74	20257
2026-01-01 02:24:12.62	303.77	11.39	-51.2	-66.4	3.8	1.49e+00	0	44	104	0	74	20276
2026-01-01 02:24:13.77	303.56	11.36	-51.2	-66.4	3.8	1.49e+00	0	44	104	0	74	20260
2026-01-01 02:24:14.63	303.41	11.33	-51.2	-66.4	3.8	1.49e+00	0	44	104	0	74	20237
2026-01-01 02:24:15.78	303.20	11.30	-51.2	-66.4	3.8	1.49e+00	0	44	104	0	74	20201
2026-01-01 02:24:16.63	303.05	11.28	-51.2	-66.3	3.8	1.49e+00	0	44	104	0	74	20057
2026-01-01 02:24:17.78	302.85	11.25	-51.2	-66.4	3.8	1.49e+00	0	44	104	0	74	20161
2026-01-01 02:24:18.65	302.69	11.22	-51.2	-66.4	3.8	1.49e+00	0	44	104	0	74	20133
2026-01-01 02:24:19.79	302.49	11.19	-51.2	-66.4	3.8	1.49e+00	0	43	104	0	74	20258
2026-01-01 02:24:20.65	302.34	11.17	-51.2	-66.4	3.8	1.49e+00	0	44	104	0	74	20147
2026-01-01 02:24:21.80	302.13	11.13	-51.2	-66.4	3.8	1.49e+00	0	44	104	0	74	20255
2026-01-01 02:24:22.66	301.98	11.11	-51.2	-66.4	3.8	1.49e+00	0	44	104	0	74	20266
2026-01-01 02:24:23.81	301.78	11.08	-51.2	-66.4	3.8	1.49e+00	0	44	104	0	74	20158
2026-01-01 02:24:24.67	301.62	11.05	-51.3	-66.5	3.8	1.49e+00	0	44	104	0	74	20345
2026-01-01 02:24:25.82	301.42	11.02	-51.2	-66.4	3.8	1.49e+00	0	44	104	0	74	20266
2026-01-01 02:24:26.68	301.27	10.99	-51.2	-66.4	3.8	1.49e+00	0	44	104	0	74	20256
2026-01-01 02:24:27.83	301.07	10.96	-51.2	-66.4	3.8	1.49e+00	0	44	104	0	74	20177
2026-01-01 02:24:28.69	300.92	10.93	-51.3	-66.5	3.8	1.49e+00	0	44	104	0	74	20367
2026-01-01 02:24:29.83	300.72	10.90	-51.2	-66.4	3.8	1.49e+00	0	44	104	0	74	20273
2026-01-01 02:24:30.70	300.57	10.87	-51.2	-66.4	3.8	1.49e+00	0	44	104	0	74	20228
2026-01-01 02:24:31.84	300.37	10.84	-51.2	-66.5	3.8	1.49e+00	0	44	104	0	74	20315
2026-01-01 02:24:32.70	300.22	10.81	-51.2	-66.4	3.8	1.49e+00	0	44	104	0	74	20245
2026-01-01 02:24:33.85	300.02	10.77	-51.2	-66.4	3.8	1.49e+00	0	44	104	0	74	20237
2026-01-01 02:24:34.71	299.88	10.75	-51.2	-66.5	3.8	1.49e+00	0	44	104	0	74	20309
2026-01-01 02:24:35.86	299.68	10.71	-51.3	-66.5	3.8	1.49e+00	0	44	104	0	74	20344
2026-01-01 02:24:36.72	299.53	10.68	-51.2	-66.4	3.8	1.49e+00	0	44	104	0	74	20282
2026-01-01 02:24:37.87	299.33	10.65	-51.3	-66.4	3.8	1.49e+00	0	44	104	0	74	20280
2026-01-01 02:24:38.73	299.19	10.62	-51.3	-66.4	3.8	1.49e+00	0	44	104	0	74	20252
2026-01-01 02:24:39.88	298.99	10.58	-51.2	-66.4	3.8	1.49e+00	0	44	104	0	74	20287
2026-01-01 02:24:40.74	298.84	10.55	-51.2	-66.4	3.8	1.49e+00	0	44	104	0	74	20230
2026-01-01 02:24:41.89	298.65	10.51	-51.2	-66.5	3.8	1.49e+00	0	44	104	0	74	20327
2026-01-01 02:24:42.75	298.50	10.49	-51.2	-66.4	3.8	1.49e+00	0	44	104	0	74	20258
2026-01-01 02:24:43.89	298.31	10.45	-51.2	-66.4	3.8	1.49e+00	0	44	104	0	74	20236
2026-01-01 02:24:44.75	298.16	10.42	-51.2	-66.4	3.8	1.49e+00	0	44	104	0	74	20239
2026-01-01 02:24:45.90	297.97	10.38	-51.2	-66.5	3.8	1.49e+00	0	44	104	0	74	20308
2026-01-01 02:24:46.76	297.83	10.35	-51.2	-66.4	3.8	1.49e+00	0	44	104	0	74	20248
2026-01-01 02:24:47.91	297.63	10.31	-51.2	-66.4	3.8	1.49e+00	0	44	104	0	74	20210
2026-01-01 02:24:48.77	297.49	10.28	-51.2	-66.5	3.8	1.49e+00	0	44	104	0	74	20331
2026-01-01 02:24:49.92	297.30	10.24	-51.2	-66.4	3.8	1.49e+00	0	44	104	0	74	20259
2026-01-01 02:24:50.78	297.16	10.22	-51.2	-66.4	3.8	1.49e+00	0	44	104	0	74	20240
2026-01-01 02:24:51.93	296.96	10.18	-51.2	-66.4	3.8	1.49e+00	0	44	104	0	74	20275
2026-01-01 02:24:52.79	296.82	10.15	-51.3	-66.4	3.8	1.49e+00	0	44	104	0	74	20288
2026-01-01 02:24:53.94	296.63	10.11	-51.3	-66.4	3.8	1.49e+00	0	44	104	0	74	20303
2026-01-01 02:24:54.80	296.49	10.07	-51.3	-66.5	3.8	1.49e+00	0	44	104	0	74	20409
2026-01-01 02:24:55.95	296.30	10.03	-51.3	-66.5	3.8	1.49e+00	0	44	104	0	74	20353
2026-01-01 02:24:56.81	296.16	10.00	-51.3	-66.5	3.8	1.49e+00	0	44	104	0	74	20388
2026-01-01 02:24:57.96	295.97	9.96	-51.3	-66.5	3.8	1.49e+00	0	44	104	0	74	20513
2026-01-01 02:24:58.82	295.83	9.93	-51.3	-66.4	3.8	1.49e+00	0	44	104	0	74	20260
2026-01-01 02:24:59.96	295.65	9.89	-51.3	-66.5	3.8	1.49e+00	0	44	104	0	74	20389
2026-01-01 02:25:00.83	295.51	9.86	-51.3	-66.5	3.8	1.49e+00	0	44	104	0	74	20405
2026-01-01 02:25:01.97	295.32	9.82	-51.3	-66.5	3.8	1.49e+00	0	44	104	0	74	20400
2026-01-01 02:25:02.83	295.18	9.79	-51.3	-66.5	3.8	1.49e+00	0	44	104	0	74	20474
2026-01-01 02:25:03.98	295.00	9.74	-51.3	-66.5	3.8	1.49e+00	0	44	104	0	74	20318
2026-01-01 02:25:04.84	294.86	9.71	-51.3	-66.5	3.8	1.49e+00	0	44	104	0	74	20411
2026-01-01 02:25:05.99	294.67	9.67	-51.3	-66.5	3.8	1.49e+00	0	44	104	0	74	20359
2026-01-01 02:25:06.85	294.54	9.64	-51.3	-66.4	3.8	1.49e+00	0	44	104	0	74	20299
2026-01-01 02:25:08.00	294.35	9.59	-51.2	-66.4	3.8	1.49e+00	0	44	104	0	74	20288
2026-01-01 02:25:08.86	294.22	9.56	-51.2	-66.4	3.8	1.49e+00	0	44	104	0	74	20217
2026-01-01 02:25:10.00	294.04	9.52	-51.2	-66.4	3.8	1.49e+00	0	44	104	0	74	20299
2026-01-01 02:25:10.86	293.90	9.49	-51.3	-66.5	3.8	1.49e+00	0	44	104	0	74	20434
2026-01-01 02:25:12.01	293.72	9.44	-51.3	-66.5	3.8	1.49e+00	0	44	104	0	74	20322
2026-01-01 02:25:12.87	293.58	9.41	-51.3	-66.5	3.8	1.49e+00	0	44	104	0	74	20441
2026-01-01 02:25:14.02	293.40	9.37	-51.3	-66.5	3.8	1.49e+00	0	44	104	0	74	20391
2026-01-01 02:25:14.88	293.27	9.33	-51.3	-66.5	3.8	1.49e+00	0	44	104	0	74	20368
2026-01-01 02:25:16.03	293.09	9.29	-51.2	-66.4	3.8	1.49e+00	0	43	104	0	74	20195
2026-01-01 02:25:16.89	292.95	9.26	-51.2	-66.5	3.8	1.49e+00	0	44	104	0	74	20327
2026-01-01 02:25:18.04	292.78	9.21	-51.3	-66.5	3.8	1.49e+00	0	44	104	0	74	20366
2026-01-01 02:25:18.90	292.64	9.18	-51.3	-66.5	3.8	1.49e+00	0	44	104	0	74	20388
2026-01-01 02:25:20.04	292.47	9.13	-51.3	-66.5	3.8	1.49e+00	0	44	104	0	74	20372
2026-01-01 02:25:20.90	292.33	9.10	-51.3	-66.5	3.8	1.49e+00	0	44	104	0	74	20376
2026-01-01 02:25:22.05	292.16	9.05	-51.3	-66.5	3.8	1.49e+00	0	44	104	0	74	20312
2026-01-01 02:25:22.91	292.03	9.02	-51.3	-66.5	3.8	1.49e+00	0	44	104	0	74	20400
2026-01-01 02:25:24.06	291.85	8.97	-51.3	-66.5	3.8	1.49e+00	0	44	104	0	74	20348
2026-01-01 02:25:24.92	291.72	8.94	-51.3	-66.5	3.8	1.49e+00	0	44	104	0	74	20417
2026-01-01 02:25:26.07	291.54	8.89	-51.3	-66.5	3.8	1.49e+00	0	44	104	0	74	20446
2026-01-01 02:25:26.93	291.41	8.86	-51.3	-66.5	3.8	1.49e+00	0	44	104	0	74	20355
2026-01-01 02:25:28.08	291.24	8.81	-51.3	-66.5	3.8	1.49e+00	0	44	104	0	74	20417
2026-01-01 02:25:28.94	291.11	8.78	-51.3	-66.5	3.8	1.49e+00	0	44	104	0	74	20428
2026-01-01 02:25:30.08	290.94	8.73	-51.3	-66.5	3.8	1.49e+00	0	44	104	0	74	20359
2026-01-01 02:25:30.94	290.81	8.70	-51.3	-66.5	3.8	1.49e+00	0	44	104	0	74	20423
2026-01-01 02:25:32.09	290.64	8.65	-51.3	-66.5	3.8	1.49e+00	0	44	104	0	74	20477
2026-01-01 02:25:32.95	290.51	8.62	-51.3	-66.5	3.8	1.49e+00	0	44	104	0	74	20321
2026-01-01 02:25:34.10	290.34	8.57	-51.3	-66.5	3.8	1.49e+00	0	44	104	0	74	20332
2026-01-01 02:25:34.96	290.21	8.53	-51.3	-66.5	3.8	1.49e+00	0	44	104	0	74	20344
2026-01-01 02:25:36.11	290.04	8.49	-51.3	-66.5	3.8	1.49e+00	0	44	104	0	74	20368
2026-01-01 02:25:36.97	289.92	8.45	-51.3	-66.5	3.8	1.49e+00	0	44	104	0	74	20346
2026-01-01 02:25:38.12	289.75	8.40	-51.3	-66.5	3.8	1.49e+00	0	44	104	0	74	20312
2026-01-01 02:25:38.98	289.62	8.37	-51.3	-66.5	3.8	1.49e+00	0	44	104	0	74	20360
2026-01-01 02:25:40.13	289.45	8.32	-51.3	-66.5	3.8	1.49e+00	0	44	104	0	74	20358
2026-01-01 02:25:40.99	289.33	8.28	-51.3	-66.5	3.8	1.49e+00	0	44	104	0	74	20345
2026-01-01 02:25:42.13	289.16	8.24	-51.3	-66.5	3.8	1.49e+00	0	44	104	0	74	20400
2026-01-01 02:25:43.00	289.04	8.20	-51.3	-66.5	3.8	1.49e+00	0	44	104	0	74	20370
2026-01-01 02:25:44.14	288.87	8.15	-51.3	-66.5	3.8	1.49e+00	0	44	104	0	74	20358
2026-01-01 02:25:45.00	288.75	8.12	-51.3	-66.5	3.8	1.49e+00	0	44	104	0	74	20377
2026-01-01 02:25:46.15	288.58	8.07	-51.3	-66.5	3.8	1.49e+00	0	44	104	0	74	20314
2026-01-01 02:25:47.01	288.46	8.03	-51.3	-66.5	3.8	1.49e+00	0	44	104	0	74	20431
2026-01-01 02:25:48.16	288.30	7.98	-51.3	-66.5	3.8	1.49e+00	0	44	104	0	74	20363
2026-01-01 02:25:49.02	288.18	7.95	-51.3	-66.5	3.8	1.49e+00	0	44	104	0	74	20408
2026-01-01 02:25:50.16	288.01	7.90	-51.3	-66.5	3.8	1.49e+00	0	44	104	0	74	20458
2026-01-01 02:25:51.03	287.89	7.86	-51.3	-66.5	3.8	1.49e+00	0	44	104	0	74	20355
2026-01-01 02:25:52.17	287.73	7.81	-51.3	-66.5	3.8	1.49e+00	0	44	104	0	74	20483
2026-01-01 02:25:53.03	287.61	7.77	-51.3	-66.5	3.8	1.49e+00	0	44	104	0	74	20392
2026-01-01 02:25:54.18	287.45	7.72	-51.3	-66.5	3.8	1.49e+00	0	44	104	0	74	20499
2026-01-01 02:25:55.04	287.33	7.69	-51.3	-66.5	3.8	1.49e+00	0	44	104	0	74	20459
2026-01-01 02:25:56.19	287.17	7.64	-51.3	-66.5	3.8	1.49e+00	0	44	104	0	74	20491
2026-01-01 02:25:57.05	287.05	7.60	-51.3	-66.5	3.8	1.49e+00	0	44	104	0	74	20445
2026-01-01 02:25:58.20	286.89	7.55	-51.3	-66.5	3.8	1.49e+00	0	43	104	0	74	20364
2026-01-01 02:25:59.06	286.77	7.51	-51.3	-66.5	3.8	1.49e+00	0	44	104	0	74	20436
2026-01-01 02:26:00.21	286.61	7.46	-51.2	-66.4	3.8	1.49e+00	0	44	104	0	74	20279
2026-01-01 02:26:01.07	286.50	7.43	-51.3	-66.5	3.8	1.49e+00	0	44	104	0	74	20401
2026-01-01 02:26:02.21	286.34	7.38	-51.3	-66.5	3.8	1.49e+00	0	44	104	0	74	20393
2026-01-01 02:26:03.07	286.22	7.34	-51.3	-66.5	3.8	1.49e+00	0	44	104	0	74	20369
2026-01-01 02:26:04.22	286.07	7.29	-51.3	-66.5	3.8	1.49e+00	0	44	104	0	74	20324
2026-01-01 02:26:05.08	285.95	7.25	-51.3	-66.5	3.8	1.49e+00	0	44	104	0	74	20358
2026-01-01 02:26:06.23	285.79	7.20	-51.3	-66.5	3.8	1.49e+00	0	44	104	0	74	20347
2026-01-01 02:26:07.09	285.68	7.16	-51.3	-66.4	3.8	1.49e+00	0	44	104	0	74	20295
2026-01-01 02:26:08.24	285.52	7.11	-51.3	-66.4	3.8	1.49e+00	0	44	104	0	74	20268
2026-01-01 02:26:09.10	285.41	7.07	-51.3	-66.5	3.8	1.49e+00	0	44	104	0	74	20357
2026-01-01 02:26:10.24	285.26	7.02	-51.3	-66.6	3.8	1.49e+00	0	44	104	0	74	20571
2026-01-01 02:26:11.10	285.14	6.99	-51.3	-66.5	3.8	1.49e+00	0	44	104	0	74	20435
2026-01-01 02:26:12.25	284.99	6.93	-51.3	-66.5	3.8	1.49e+00	0	44	104	0	74	20500
2026-01-01 02:26:13.11	284.88	6.90	-51.3	-66.5	3.8	1.49e+00	0	44	104	0	74	20453
2026-01-01 02:26:14.26	284.73	6.85	-51.3	-66.5	3.8	1.49e+00	0	44	104	0	74	20388
2026-01-01 02:26:15.12	284.61	6.81	-51.3	-66.5	3.8	1.49e+00	0	44	104	0	74	20485
2026-01-01 02:26:16.27	284.46	6.76	-51.3	-66.5	3.8	1.49e+00	0	44	104	0	74	20356
2026-01-01 02:26:17.13	284.35	6.72	-51.3	-66.5	3.8	1.49e+00	0	44	104	0	74	20415
2026-01-01 02:26:18.27	284.20	6.67	-51.3	-66.5	3.8	1.49e+00	0	44	104	0	74	20478
2026-01-01 02:26:19.13	284.09	6.63	-51.3	-66.5	3.8	1.49e+00	0	44	104	0	74	20399
2026-01-01 02:26:20.28	283.94	6.58	-51.3	-66.5	3.8	1.49e+00	0	44	104	0	74	20424
2026-01-01 02:26:21.14	283.83	6.54	-51.3	-66.5	3.8	1.49e+00	0	44	104	0	74	20444
2026-01-01 02:26:22.29	283.68	6.49	-51.3	-66.5	3.8	1.49e+00	0	44	104	0	74	20382
2026-01-01 02:26:23.15	283.57	6.45	-51.3	-66.5	3.8	1.49e+00	0	44	104	0	74	20377
2026-01-01 02:26:24.30	283.43	6.40	-51.3	-66.5	3.8	1.49e+00	0	44	104	0	74	20412
2026-01-01 02:26:25.16	283.32	6.36	-51.2	-66.5	3.8	1.49e+00	0	44	104	0	74	20344
2026-01-01 02:26:26.31	283.17	6.31	-51.3	-66.5	3.8	1.49e+00	0	44	104	0	74	20440
2026-01-01 02:26:27.17	283.06	6.27	-51.3	-66.5	3.8	1.49e+00	0	44	104	0	74	20387
2026-01-01 02:26:28.32	282.92	6.21	-51.3	-66.5	3.8	1.49e+00	0	44	104	0	74	20407
2026-01-01 02:26:29.18	282.81	6.18	-51.3	-66.5	3.8	1.49e+00	0	44	104	0	74	20324
2026-01-01 02:26:30.32	282.67	6.12	-51.3	-66.5	3.8	1.49e+00	0	44	104	0	74	20509
2026-01-01 02:26:31.19	282.56	6.08	-51.3	-66.5	3.8	1.49e+00	0	44	104	0	74	20334
2026-01-01 02:26:32.33	282.42	6.03	-51.3	-66.5	3.8	1.49e+00	0	44	104	0	74	20359
2026-01-01 02:26:33.19	282.31	5.99	-51.3	-66.5	3.8	1.49e+00	0	44	104	0	74	20378
2026-01-01 02:26:34.34	282.17	5.94	-51.3	-66.5	3.8	1.49e+00	0	44	104	0	74	20441
2026-01-01 02:26:35.20	282.06	5.90	-51.3	-66.5	3.8	1.49e+00	0	44	104	0	74	20383
2026-01-01 02:26:36.35	281.92	5.85	-51.3	-66.5	3.8	1.49e+00	0	44	104	0	74	
