passes_logs/2026/01/01/T1/T1__20260101_090857_NOAA_20_JPSS-1_rec.log

#Pass ID: 20260101_090857_NOAA 20 (JPSS-1)
#Satellite: NOAA 20 (JPSS-1)
#Configuration: NOAA 20
#almurnet v.1.7.20251203
#Start time: 2026-01-01 09:08:58

#Version: 2.0.20230620
#Station: T1
#Location: 37.570604 lon 55.790049 lat
#TLE: 1 43013U 17073A   25365.45761817  .00000173  00000+0  10307-3 0  9993
#TLE: 2 43013  98.7620 301.5517 0001951  60.3814 299.7557 14.19531661420675

#Time	Az	El	Level	Level2	SNR	BER	BlckErr	Temp	State	Recorded	gain1	gain2
2026-01-01 09:08:58.74	135.89	5.11	-51.9	-67.0	3.8	1.49e+00	0	40	0	0	74	21702
2026-01-01 09:08:59.74	135.85	5.18	-51.9	-67.0	3.8	1.49e+00	0	40	104	0	75	20369
2026-01-01 09:09:00.75	135.81	5.25	-51.9	-67.0	3.8	1.49e+00	0	40	104	0	75	20432
2026-01-01 09:09:01.75	135.77	5.32	-51.9	-67.1	3.8	1.49e+00	0	40	104	0	75	20604
2026-01-01 09:09:02.76	135.73	5.39	-51.9	-67.0	3.8	1.49e+00	0	40	104	0	75	20427
2026-01-01 09:09:03.76	135.68	5.46	-51.9	-67.1	3.8	1.49e+00	0	40	104	0	75	20572
2026-01-01 09:09:04.76	135.64	5.53	-51.9	-67.0	3.8	1.49e+00	0	41	104	0	75	20476
2026-01-01 09:09:05.77	135.60	5.60	-51.9	-67.0	3.8	1.49e+00	0	41	104	0	75	20482
2026-01-01 09:09:06.77	135.56	5.67	-51.9	-67.0	3.8	1.49e+00	0	41	104	0	75	20463
2026-01-01 09:09:07.78	135.52	5.75	-51.9	-67.0	3.8	1.49e+00	0	40	104	0	75	20528
2026-01-01 09:09:08.78	135.47	5.82	-51.9	-67.1	3.8	1.49e+00	0	41	104	0	75	20549
2026-01-01 09:09:09.79	135.43	5.89	-52.0	-67.1	3.8	1.49e+00	0	41	104	0	75	20729
2026-01-01 09:09:10.79	135.39	5.96	-52.0	-67.1	3.8	1.49e+00	0	41	104	0	75	20639
2026-01-01 09:09:11.80	135.35	6.03	-52.0	-67.1	3.8	1.49e+00	0	41	104	0	75	20721
2026-01-01 09:09:12.80	135.30	6.11	-52.0	-67.1	3.8	1.49e+00	0	41	104	0	75	20710
2026-01-01 09:09:13.81	135.26	6.18	-52.0	-67.1	3.8	1.49e+00	0	41	104	0	75	20676
2026-01-01 09:09:14.81	135.22	6.25	-52.0	-67.1	3.8	1.49e+00	0	41	104	0	75	20670
2026-01-01 09:09:15.81	135.17	6.32	-52.0	-67.1	3.8	1.49e+00	0	41	104	0	75	20728
2026-01-01 09:09:16.82	135.13	6.40	-52.0	-67.1	3.8	1.49e+00	0	41	104	0	75	20694
2026-01-01 09:09:17.82	135.08	6.47	-52.0	-67.1	3.8	1.49e+00	0	41	104	0	75	20744
2026-01-01 09:09:18.83	135.04	6.54	-52.0	-67.1	3.8	1.49e+00	0	41	104	0	75	20727
2026-01-01 09:09:19.83	134.99	6.62	-52.1	-67.2	3.8	1.49e+00	0	41	104	0	75	20864
2026-01-01 09:09:20.83	134.95	6.69	-52.0	-67.2	3.8	1.49e+00	0	41	104	0	75	20838
2026-01-01 09:09:21.84	134.90	6.76	-52.1	-67.2	3.8	1.49e+00	0	41	104	0	75	20801
2026-01-01 09:09:22.84	134.86	6.84	-52.1	-67.2	3.8	1.49e+00	0	41	104	0	75	20839
2026-01-01 09:09:23.85	134.81	6.91	-52.1	-67.2	3.8	1.49e+00	0	41	104	0	75	20928
2026-01-01 09:09:24.85	134.77	6.99	-52.1	-67.2	3.8	1.49e+00	0	41	104	0	75	20854
2026-01-01 09:09:25.86	134.72	7.06	-52.1	-67.2	3.8	1.49e+00	0	41	104	0	75	20842
2026-01-01 09:09:26.86	134.67	7.14	-52.1	-67.2	3.8	1.49e+00	0	41	104	0	75	20864
2026-01-01 09:09:27.86	134.63	7.21	-52.1	-67.2	3.8	1.49e+00	0	41	104	0	75	20920
2026-01-01 09:09:28.87	134.58	7.29	-52.1	-67.2	3.8	1.49e+00	0	41	104	0	75	20960
2026-01-01 09:09:29.87	134.53	7.36	-52.1	-67.2	3.8	1.49e+00	0	41	104	0	75	20907
2026-01-01 09:09:30.88	134.48	7.44	-52.1	-67.3	3.8	1.49e+00	0	41	104	0	75	21086
2026-01-01 09:09:31.88	134.44	7.51	-52.2	-67.3	3.8	1.49e+00	0	41	104	0	75	21042
2026-01-01 09:09:32.89	134.39	7.59	-52.1	-67.2	3.8	1.49e+00	0	41	104	0	75	20976
2026-01-01 09:09:33.89	134.34	7.67	-52.1	-67.3	3.8	1.49e+00	0	41	104	0	75	21037
2026-01-01 09:09:34.89	134.29	7.74	-52.1	-67.3	3.8	1.49e+00	0	41	104	0	75	21107
2026-01-01 09:09:35.90	134.24	7.82	-52.2	-67.3	3.8	1.49e+00	0	42	104	0	75	21122
2026-01-01 09:09:36.90	134.19	7.90	-52.2	-67.3	3.8	1.49e+00	0	41	104	0	75	21098
2026-01-01 09:09:37.90	134.14	7.97	-52.2	-67.3	3.8	1.49e+00	0	42	104	0	75	21100
2026-01-01 09:09:38.91	134.09	8.05	-52.2	-67.3	3.8	1.49e+00	0	41	104	0	75	21060
2026-01-01 09:09:39.91	134.04	8.13	-52.2	-67.3	3.8	1.49e+00	0	42	104	0	75	21235
2026-01-01 09:09:40.92	133.99	8.21	-52.2	-67.4	3.8	1.49e+00	0	42	104	0	75	21284
2026-01-01 09:09:41.92	133.94	8.29	-52.2	-67.4	3.8	1.49e+00	0	42	104	0	75	21276
2026-01-01 09:09:42.93	133.89	8.36	-52.2	-67.4	3.8	1.49e+00	0	42	104	0	75	21378
2026-01-01 09:09:43.93	133.84	8.44	-52.2	-67.3	3.8	1.49e+00	0	42	104	0	75	21209
2026-01-01 09:09:44.93	133.79	8.52	-52.2	-67.4	3.8	1.49e+00	0	42	104	0	75	21274
2026-01-01 09:09:45.94	133.74	8.60	-52.2	-67.3	3.8	1.49e+00	0	42	104	0	75	21245
2026-01-01 09:09:46.94	133.68	8.68	-52.3	-67.4	3.8	1.49e+00	0	42	104	0	75	21298
2026-01-01 09:09:47.95	133.63	8.76	-52.3	-67.4	3.8	1.49e+00	0	42	104	0	75	21434
2026-01-01 09:09:48.95	133.58	8.84	-52.3	-67.4	3.8	1.49e+00	0	42	104	0	75	21273
2026-01-01 09:09:49.96	133.53	8.92	-52.3	-67.4	3.8	1.49e+00	0	42	104	0	75	21369
2026-01-01 09:09:50.96	133.47	9.00	-52.2	-67.4	3.8	1.49e+00	0	42	104	0	75	21366
2026-01-01 09:09:51.97	133.42	9.08	-52.3	-67.4	3.8	1.49e+00	0	42	104	0	75	21310
2026-01-01 09:09:52.97	133.37	9.16	-52.3	-67.4	3.8	1.49e+00	0	42	104	0	75	21476
2026-01-01 09:09:53.97	133.31	9.24	-52.3	-67.4	3.8	1.49e+00	0	42	104	0	75	21432
2026-01-01 09:09:54.98	133.26	9.32	-52.3	-67.4	3.8	1.49e+00	0	42	104	0	75	21377
2026-01-01 09:09:55.98	133.20	9.40	-52.3	-67.4	3.8	1.49e+00	0	42	104	0	75	21422
2026-01-01 09:09:56.99	133.15	9.49	-52.3	-67.4	3.8	1.49e+00	0	42	104	0	75	21427
2026-01-01 09:09:57.99	133.09	9.57	-52.3	-67.4	3.8	1.49e+00	0	42	104	0	75	21453
2026-01-01 09:09:59.00	133.04	9.65	-52.3	-67.4	3.8	1.49e+00	0	42	104	0	75	21403
2026-01-01 09:10:00.00	132.98	9.73	-52.3	-67.4	3.8	1.49e+00	0	42	104	0	75	21457
2026-01-01 09:10:01.00	132.92	9.81	-52.4	-67.5	3.8	1.49e+00	0	42	104	0	75	21556
2026-01-01 09:10:02.01	132.87	9.90	-52.4	-67.5	3.8	1.49e+00	0	42	104	0	75	21538
2026-01-01 09:10:03.01	132.81	9.98	-52.3	-67.5	3.8	1.49e+00	0	42	104	0	75	21569
2026-01-01 09:10:04.02	132.75	10.06	-52.3	-67.4	3.8	1.49e+00	0	42	104	0	75	21502
2026-01-01 09:10:05.02	132.69	10.15	-52.4	-67.5	3.8	1.49e+00	0	42	104	0	75	21569
2026-01-01 09:10:06.02	132.64	10.23	-52.3	-67.5	3.8	1.49e+00	0	42	104	0	75	21555
2026-01-01 09:10:07.03	132.58	10.31	-52.3	-67.4	3.8	1.49e+00	0	42	104	0	75	21397
2026-01-01 09:10:08.03	132.52	10.40	-52.4	-67.5	3.8	1.49e+00	0	42	104	0	75	21606
2026-01-01 09:10:09.03	132.46	10.48	-52.4	-67.5	3.8	1.49e+00	0	42	104	0	75	21646
2026-01-01 09:10:10.04	132.40	10.57	-52.4	-67.5	3.8	1.49e+00	0	42	104	0	75	21596
2026-01-01 09:10:11.04	132.34	10.65	-52.4	-67.5	3.8	1.49e+00	0	42	104	0	75	21615
2026-01-01 09:10:12.04	132.28	10.74	-52.3	-67.4	3.8	1.49e+00	0	42	104	0	75	21495
2026-01-01 09:10:13.05	132.22	10.82	-52.3	-67.5	3.8	1.49e+00	0	42	104	0	75	21667
2026-01-01 09:10:14.05	132.16	10.91	-52.4	-67.5	3.8	1.49e+00	0	42	104	0	75	21666
2026-01-01 09:10:15.06	132.10	11.00	-52.4	-67.5	3.8	1.49e+00	0	42	104	0	75	21600
2026-01-01 09:10:16.06	132.04	11.08	-52.4	-67.5	3.8	1.49e+00	0	42	104	0	75	21644
2026-01-01 09:10:17.07	131.97	11.17	-52.5	-67.6	3.8	1.49e+00	0	42	104	0	75	21884
2026-01-01 09:10:18.07	131.91	11.26	-52.4	-67.6	3.8	1.49e+00	0	42	104	0	75	21871
2026-01-01 09:10:19.08	131.85	11.34	-52.5	-67.6	3.8	1.49e+00	0	42	104	0	75	21835
2026-01-01 09:10:20.08	131.78	11.43	-52.5	-67.6	3.8	1.49e+00	0	42	104	0	75	21796
2026-01-01 09:10:21.08	131.72	11.52	-52.4	-67.6	3.8	1.49e+00	0	42	104	0	75	21810
2026-01-01 09:10:22.09	131.66	11.61	-52.5	-67.6	3.8	1.49e+00	0	42	104	0	75	21789
2026-01-01 09:10:23.09	131.59	11.70	-52.5	-67.6	3.8	1.49e+00	0	42	104	0	75	21829
2026-01-01 09:10:24.10	131.53	11.78	-52.5	-67.6	3.8	1.49e+00	0	42	104	0	75	21928
2026-01-01 09:10:25.10	131.46	11.87	-52.5	-67.7	3.8	1.49e+00	0	42	104	0	75	22039
2026-01-01 09:10:26.11	131.40	11.96	-52.5	-67.6	3.8	1.49e+00	0	42	104	0	75	21857
2026-01-01 09:10:27.11	131.33	12.05	-52.5	-67.6	3.8	1.49e+00	0	42	104	0	75	21843
2026-01-01 09:10:28.11	131.26	12.14	-52.5	-67.6	3.8	1.49e+00	0	42	104	0	75	21965
2026-01-01 09:10:29.12	131.20	12.23	-52.5	-67.7	3.8	1.49e+00	0	42	104	0	75	22051
2026-01-01 09:10:30.12	131.13	12.32	-52.5	-67.6	3.8	1.49e+00	0	42	104	0	75	21997
2026-01-01 09:10:31.12	131.06	12.41	-52.5	-67.6	3.8	1.49e+00	0	42	104	0	75	21939
2026-01-01 09:10:32.13	130.99	12.50	-52.5	-67.7	3.8	1.49e+00	0	42	104	0	75	22045
2026-01-01 09:10:33.13	130.92	12.59	-52.5	-67.6	3.8	1.49e+00	0	42	104	0	75	21921
2026-01-01 09:10:34.14	130.85	12.69	-52.5	-67.6	3.8	1.49e+00	0	42	104	0	75	21871
2026-01-01 09:10:35.27	130.78	12.79	-52.6	-67.7	3.8	1.49e+00	0	42	104	0	75	22040
2026-01-01 09:10:36.13	130.72	12.87	-52.5	-67.6	3.8	1.49e+00	0	42	104	0	75	21789
2026-01-01 09:10:37.28	130.64	12.98	-52.5	-67.5	3.8	1.49e+00	0	42	104	0	75	21680
2026-01-01 09:10:38.24	130.57	13.06	-52.5	-67.5	3.8	1.49e+00	0	43	104	0	75	21693
2026-01-01 09:10:39.24	130.50	13.16	-52.5	-67.6	3.8	1.49e+00	0	42	104	0	75	21811
2026-01-01 09:10:40.24	130.42	13.25	-52.4	-67.6	3.8	1.49e+00	0	42	104	0	75	21782
2026-01-01 09:10:41.48	130.34	13.37	-52.4	-67.6	3.8	1.49e+00	0	42	104	0	75	21782
2026-01-01 09:10:42.37	130.27	13.45	-52.4	-67.6	3.8	1.49e+00	0	42	104	0	75	21779
2026-01-01 09:10:43.52	130.19	13.56	-52.4	-67.6	3.8	1.49e+00	0	43	104	0	75	21780
2026-01-01 09:10:44.44	130.12	13.64	-52.4	-67.6	3.8	1.49e+00	0	42	104	0	75	21824
2026-01-01 09:10:45.45	130.04	13.74	-52.4	-67.5	3.8	1.49e+00	0	42	104	0	75	21699
2026-01-01 09:10:46.45	129.97	13.84	-52.4	-67.6	3.8	1.49e+00	0	43	104	0	75	21760
2026-01-01 09:10:47.45	129.89	13.93	-52.4	-67.5	3.8	1.49e+00	0	42	104	0	75	21753
2026-01-01 09:10:48.46	129.82	14.03	-52.4	-67.5	3.8	1.49e+00	0	43	104	0	75	21735
2026-01-01 09:10:49.46	129.74	14.12	-52.4	-67.6	3.8	1.49e+00	0	43	104	0	75	21780
2026-01-01 09:10:50.46	129.66	14.22	-52.4	-67.5	3.8	1.49e+00	0	42	104	0	75	21669
2026-01-01 09:10:51.47	129.59	14.32	-52.4	-67.6	3.8	1.49e+00	0	42	104	0	75	21817
2026-01-01 09:10:52.47	129.51	14.41	-52.5	-67.6	3.8	1.49e+00	0	43	104	0	75	21780
2026-01-01 09:10:53.47	129.43	14.51	-52.5	-67.6	3.8	1.49e+00	0	42	104	0	75	21818
2026-01-01 09:10:54.48	129.35	14.61	-52.4	-67.6	3.8	1.49e+00	0	43	104	0	75	21815
2026-01-01 09:10:55.50	129.27	14.71	-52.4	-67.5	3.8	1.49e+00	0	43	104	0	75	21748
2026-01-01 09:10:56.57	129.19	14.82	-52.4	-67.5	3.8	1.49e+00	0	43	104	0	75	21713
2026-01-01 09:10:57.43	129.12	14.90	-52.4	-67.6	3.8	1.49e+00	0	42	104	0	75	21762
2026-01-01 09:10:58.58	129.02	15.01	-52.4	-67.5	3.8	1.49e+00	0	43	104	0	75	21657
2026-01-01 09:10:59.44	128.95	15.10	-52.4	-67.5	3.8	1.49e+00	0	43	104	0	75	21717
2026-01-01 09:11:00.58	128.86	15.21	-52.4	-67.5	3.8	1.49e+00	0	42	104	0	75	21724
2026-01-01 09:11:01.45	128.79	15.30	-52.4	-67.6	3.8	1.49e+00	0	43	104	0	75	21842
2026-01-01 09:11:02.59	128.69	15.42	-52.4	-67.5	3.8	1.49e+00	0	42	104	0	75	21674
2026-01-01 09:11:03.45	128.62	15.50	-52.4	-67.5	3.8	1.49e+00	0	43	104	0	75	21706
2026-01-01 09:11:04.60	128.52	15.62	-52.4	-67.5	3.8	1.49e+00	0	42	104	0	75	21661
2026-01-01 09:11:05.46	128.45	15.71	-52.4	-67.5	3.8	1.49e+00	0	43	104	0	75	21735
2026-01-01 09:11:06.61	128.35	15.82	-52.4	-67.5	3.8	1.49e+00	0	43	104	0	75	21656
2026-01-01 09:11:07.47	128.28	15.91	-52.4	-67.5	3.8	1.49e+00	0	43	104	0	75	21684
2026-01-01 09:11:08.65	128.18	16.03	-52.4	-67.5	3.8	1.49e+00	0	43	104	0	75	21748
2026-01-01 09:11:09.51	128.10	16.12	-52.4	-67.5	3.8	1.49e+00	0	43	104	0	75	21714
2026-01-01 09:11:10.66	128.00	16.24	-52.4	-67.5	3.8	1.49e+00	0	42	104	0	75	21733
2026-01-01 09:11:11.52	127.92	16.33	-52.4	-67.5	3.8	1.49e+00	0	43	104	0	75	21703
2026-01-01 09:11:12.67	127.82	16.45	-52.4	-67.6	3.8	1.49e+00	0	43	104	0	75	21768
2026-01-01 09:11:13.53	127.74	16.54	-52.4	-67.5	3.8	1.49e+00	0	43	104	0	75	21645
2026-01-01 09:11:14.67	127.64	16.66	-52.4	-67.6	3.8	1.49e+00	0	43	104	0	75	21807
2026-01-01 09:11:15.53	127.56	16.75	-52.4	-67.5	3.8	1.49e+00	0	43	104	0	75	21724
2026-01-01 09:11:16.68	127.46	16.87	-52.4	-67.5	3.8	1.49e+00	0	43	104	0	75	21736
2026-01-01 09:11:17.54	127.38	16.96	-52.4	-67.5	3.8	1.49e+00	0	43	104	0	75	21629
2026-01-01 09:11:18.69	127.27	17.08	-52.4	-67.5	3.8	1.49e+00	0	43	104	0	75	21600
2026-01-01 09:11:19.55	127.19	17.18	-52.4	-67.5	3.8	1.49e+00	0	43	104	0	75	21718
2026-01-01 09:11:20.70	127.08	17.30	-52.4	-67.5	3.8	1.49e+00	0	43	104	0	75	21609
2026-01-01 09:11:21.56	127.00	17.39	-52.4	-67.5	3.8	1.49e+00	0	43	104	0	75	21620
2026-01-01 09:11:22.71	126.89	17.52	-52.4	-67.5	3.8	1.49e+00	0	43	104	0	75	21578
2026-01-01 09:11:23.57	126.80	17.61	-52.3	-67.5	3.8	1.49e+00	0	43	104	0	75	21648
2026-01-01 09:11:24.71	126.69	17.73	-52.3	-67.5	3.8	1.49e+00	0	43	104	0	75	21541
2026-01-01 09:11:25.58	126.61	17.83	-52.4	-67.5	3.8	1.49e+00	0	43	104	0	75	21662
2026-01-01 09:11:26.72	126.50	17.95	-52.4	-67.5	3.8	1.49e+00	0	43	104	0	75	21629
2026-01-01 09:11:27.58	126.41	18.05	-52.4	-67.5	3.8	1.49e+00	0	43	104	0	75	21591
2026-01-01 09:11:28.73	126.29	18.17	-52.3	-67.5	3.8	1.49e+00	0	43	104	0	75	21599
2026-01-01 09:11:29.59	126.21	18.27	-52.3	-67.5	3.8	1.49e+00	0	43	104	0	75	21579
2026-01-01 09:11:30.74	126.09	18.40	-52.3	-67.5	3.8	1.49e+00	0	43	104	0	75	21551
2026-01-01 09:11:31.60	126.00	18.49	-52.4	-67.5	3.8	1.49e+00	0	43	104	0	75	21565
2026-01-01 09:11:32.75	125.88	18.62	-52.3	-67.4	3.8	1.49e+00	0	43	104	0	75	21462
2026-01-01 09:11:33.61	125.79	18.72	-52.3	-67.4	3.8	1.49e+00	0	43	104	0	75	21497
2026-01-01 09:11:34.76	125.67	18.85	-52.3	-67.4	3.8	1.49e+00	0	43	104	0	75	21502
2026-01-01 09:11:35.62	125.58	18.95	-52.3	-67.4	3.8	1.49e+00	0	43	104	0	75	21450
2026-01-01 09:11:36.77	125.46	19.08	-52.3	-67.4	3.8	1.49e+00	0	43	104	0	75	21448
2026-01-01 09:11:37.63	125.37	19.17	-52.3	-67.4	3.8	1.49e+00	0	43	104	0	75	21432
2026-01-01 09:11:38.77	125.24	19.31	-52.3	-67.4	3.8	1.49e+00	0	43	104	0	75	21345
2026-01-01 09:11:39.63	125.15	19.40	-52.2	-67.4	3.8	1.49e+00	0	43	104	0	75	21333
2026-01-01 09:11:40.78	125.02	19.54	-52.3	-67.4	3.8	1.49e+00	0	43	104	0	75	21372
2026-01-01 09:11:41.64	124.93	19.64	-52.3	-67.4	3.8	1.49e+00	0	43	104	0	75	21361
2026-01-01 09:11:42.79	124.80	19.77	-52.2	-67.4	3.8	1.49e+00	0	43	104	0	75	21265
2026-01-01 09:11:43.65	124.70	19.87	-52.2	-67.3	3.8	1.49e+00	0	43	104	0	75	21228
2026-01-01 09:11:44.79	124.57	20.00	-52.3	-67.4	3.8	1.49e+00	0	43	104	0	75	21292
2026-01-01 09:11:45.65	124.48	20.10	-52.2	-67.4	3.8	1.49e+00	0	43	104	0	75	21309
2026-01-01 09:11:46.80	124.34	20.24	-52.2	-67.3	3.8	1.49e+00	0	43	104	0	75	21248
2026-01-01 09:11:47.66	124.24	20.34	-52.2	-67.3	3.8	1.49e+00	0	43	104	0	75	21180
2026-01-01 09:11:48.81	124.11	20.48	-52.2	-67.3	3.8	1.49e+00	0	43	104	0	75	21213
2026-01-01 09:11:49.67	124.01	20.58	-52.2	-67.3	3.8	1.49e+00	0	43	104	0	75	21107
2026-01-01 09:11:50.82	123.87	20.72	-52.2	-67.3	3.8	1.49e+00	0	43	104	0	75	21059
2026-01-01 09:11:51.68	123.77	20.82	-52.2	-67.3	3.8	1.49e+00	0	43	104	0	75	21100
2026-01-01 09:11:52.83	123.63	20.96	-52.2	-67.3	3.8	1.49e+00	0	43	104	0	75	21170
2026-01-01 09:11:53.68	123.52	21.06	-52.2	-67.3	3.8	1.49e+00	0	43	104	0	75	21213
2026-01-01 09:11:54.83	123.38	21.20	-52.2	-67.3	3.8	1.49e+00	0	43	104	0	75	21206
2026-01-01 09:11:55.69	123.28	21.31	-52.2	-67.3	3.8	1.49e+00	0	43	104	0	75	21081
2026-01-01 09:11:56.84	123.13	21.45	-52.2	-67.3	3.8	1.49e+00	0	43	104	0	75	21150
2026-01-01 09:11:57.70	123.03	21.55	-52.2	-67.3	3.8	1.49e+00	0	43	104	0	75	21079
2026-01-01 09:11:58.85	122.88	21.70	-52.2	-67.2	3.8	1.49e+00	0	43	104	0	75	20984
2026-01-01 09:11:59.71	122.77	21.80	-52.2	-67.3	3.8	1.49e+00	0	43	104	0	75	21087
2026-01-01 09:12:00.86	122.62	21.95	-52.2	-67.3	3.8	1.49e+00	0	43	104	0	75	21091
2026-01-01 09:12:01.72	122.51	22.05	-52.2	-67.3	3.8	1.49e+00	0	43	104	0	75	21085
2026-01-01 09:12:02.87	122.36	22.20	-52.1	-67.3	3.8	1.49e+00	0	43	104	0	75	21045
2026-01-01 09:12:03.73	122.25	22.30	-52.2	-67.3	3.8	1.49e+00	0	43	104	0	75	21093
2026-01-01 09:12:04.87	122.09	22.45	-52.2	-67.3	3.8	1.49e+00	0	43	104	0	75	21161
2026-01-01 09:12:05.73	121.98	22.56	-52.2	-67.3	3.8	1.49e+00	0	43	104	0	75	21131
2026-01-01 09:12:06.88	121.82	22.70	-52.2	-67.3	3.8	1.49e+00	0	43	104	0	75	21114
2026-01-01 09:12:07.74	121.71	22.81	-52.2	-67.3	3.8	1.49e+00	0	43	104	0	75	21095
2026-01-01 09:12:08.89	121.55	22.96	-52.1	-67.3	3.8	1.49e+00	0	43	104	0	75	21081
2026-01-01 09:12:09.75	121.43	23.07	-52.1	-67.3	3.8	1.49e+00	0	43	104	0	75	21040
2026-01-01 09:12:10.90	121.27	23.22	-52.1	-67.2	3.8	1.49e+00	0	43	104	0	75	20995
2026-01-01 09:12:11.76	121.15	23.33	-52.2	-67.3	3.8	1.49e+00	0	43	104	0	75	21034
2026-01-01 09:12:12.91	120.98	23.48	-52.1	-67.2	3.8	1.49e+00	0	43	104	0	75	21002
2026-01-01 09:12:13.77	120.86	23.59	-52.2	-67.3	3.8	1.49e+00	0	43	104	0	75	21050
2026-01-01 09:12:14.91	120.69	23.74	-52.1	-67.2	3.8	1.49e+00	0	43	104	0	75	21009
2026-01-01 09:12:15.77	120.57	23.85	-52.2	-67.3	3.8	1.49e+00	0	43	104	0	75	21022
2026-01-01 09:12:16.92	120.40	24.00	-52.1	-67.2	3.8	1.49e+00	0	43	104	0	75	20992
2026-01-01 09:12:17.78	120.27	24.11	-52.1	-67.2	3.8	1.49e+00	0	43	104	0	75	20946
2026-01-01 09:12:18.93	120.10	24.27	-52.1	-67.2	3.8	1.49e+00	0	43	104	0	75	20878
2026-01-01 09:12:19.79	119.97	24.38	-52.1	-67.2	3.8	1.49e+00	0	43	104	0	75	21001
2026-01-01 09:12:20.94	119.79	24.53	-52.1	-67.2	3.8	1.49e+00	0	43	104	0	75	20840
2026-01-01 09:12:21.80	119.66	24.65	-52.1	-67.2	3.8	1.49e+00	0	43	104	0	75	21005
2026-01-01 09:12:22.95	119.48	24.80	-52.1	-67.2	3.8	1.49e+00	0	43	104	0	75	20803
2026-01-01 09:12:23.81	119.35	24.92	-52.1	-67.2	3.8	1.49e+00	0	43	104	0	75	20927
2026-01-01 09:12:24.95	119.17	25.07	-52.1	-67.2	3.8	1.49e+00	0	43	104	0	75	20965
2026-01-01 09:12:25.82	119.03	25.19	-52.1	-67.2	3.8	1.49e+00	0	43	104	0	75	20911
2026-01-01 09:12:26.96	118.85	25.35	-52.1	-67.2	3.8	1.49e+00	0	43	104	0	75	20953
2026-01-01 09:12:27.82	118.71	25.46	-52.1	-67.2	3.8	1.49e+00	0	43	104	0	75	20999
2026-01-01 09:12:28.97	118.52	25.62	-52.1	-67.2	3.8	1.49e+00	0	43	104	0	75	20954
2026-01-01 09:12:29.83	118.38	25.74	-52.1	-67.2	3.8	1.49e+00	0	43	104	0	75	20911
2026-01-01 09:12:30.98	118.19	25.90	-52.1	-67.2	3.8	1.49e+00	0	43	104	0	75	20856
2026-01-01 09:12:31.84	118.04	26.02	-52.1	-67.2	3.8	1.49e+00	0	43	104	0	75	20993
2026-01-01 09:12:32.99	117.85	26.18	-52.1	-67.2	3.8	1.49e+00	0	43	104	0	75	20966
2026-01-01 09:12:33.85	117.70	26.30	-52.1	-67.2	3.8	1.49e+00	0	43	104	0	75	20868
2026-01-01 09:12:35.00	117.50	26.46	-52.1	-67.2	3.8	1.49e+00	0	43	104	0	75	20998
2026-01-01 09:12:35.86	117.35	26.58	-52.2	-67.2	3.8	1.49e+00	0	43	104	0	75	21003
2026-01-01 09:12:37.00	117.15	26.74	-52.1	-67.2	3.8	1.49e+00	0	43	104	0	75	21005
2026-01-01 09:12:37.87	117.00	26.86	-52.1	-67.2	3.8	1.49e+00	0	43	104	0	75	21006
2026-01-01 09:12:39.01	116.80	27.02	-52.1	-67.3	3.8	1.49e+00	0	43	104	0	75	21080
2026-01-01 09:12:39.87	116.64	27.14	-52.1	-67.2	3.8	1.49e+00	0	43	104	0	75	20956
2026-01-01 09:12:41.02	116.43	27.31	-52.1	-67.2	3.8	1.49e+00	0	43	104	0	75	20951
2026-01-01 09:12:41.88	116.27	27.43	-52.1	-67.2	3.8	1.49e+00	0	43	104	0	75	20986
2026-01-01 09:12:43.02	116.06	27.59	-52.1	-67.2	3.8	1.49e+00	0	43	104	0	75	20832
2026-01-01 09:12:43.89	115.90	27.72	-52.1	-67.2	3.8	1.49e+00	0	43	104	0	75	20919
2026-01-01 09:12:45.03	115.69	27.88	-52.1	-67.2	3.8	1.49e+00	0	43	104	0	75	20970
2026-01-01 09:12:45.89	115.52	28.00	-52.1	-67.2	3.8	1.49e+00	0	43	104	0	75	20915
2026-01-01 09:12:47.04	115.30	28.17	-52.1	-67.2	3.8	1.49e+00	0	43	104	0	75	20922
2026-01-01 09:12:47.90	115.14	28.29	-52.1	-67.2	3.8	1.49e+00	0	43	104	0	75	20869
2026-01-01 09:12:49.05	114.91	28.46	-52.1	-67.2	3.8	1.49e+00	0	43	104	0	75	20983
2026-01-01 09:12:49.91	114.74	28.59	-52.1	-67.2	3.8	1.49e+00	0	43	104	0	75	20963
2026-01-01 09:12:51.06	114.51	28.76	-52.1	-67.2	3.8	1.49e+00	0	43	104	0	75	20990
2026-01-01 09:12:51.92	114.34	28.88	-52.1	-67.2	3.8	1.49e+00	0	43	104	0	75	20846
2026-01-01 09:12:53.07	114.11	29.05	-52.1	-67.2	3.8	1.49e+00	0	43	104	0	75	20904
2026-01-01 09:12:53.93	113.93	29.18	-52.1	-67.2	3.8	1.49e+00	0	43	104	0	75	20850
2026-01-01 09:12:55.07	113.69	29.35	-52.1	-67.2	3.8	1.49e+00	0	43	104	0	75	20938
2026-01-01 09:12:55.94	113.51	29.47	-52.1	-67.2	3.8	1.49e+00	0	43	104	0	75	20959
2026-01-01 09:12:57.08	113.27	29.64	-52.1	-67.2	3.8	1.49e+00	0	43	104	0	75	20988
2026-01-01 09:12:57.94	113.09	29.77	-52.1	-67.2	3.8	1.49e+00	0	43	104	0	75	20950
2026-01-01 09:12:59.09	112.84	29.94	-52.1	-67.2	3.8	1.49e+00	0	43	104	0	75	20985
2026-01-01 09:12:59.95	112.66	30.07	-52.1	-67.2	3.8	1.49e+00	0	43	104	0	75	20813
2026-01-01 09:13:01.10	112.40	30.24	-52.1	-67.2	3.8	1.49e+00	0	43	104	0	75	20975
2026-01-01 09:13:01.96	112.22	30.37	-52.1	-67.2	3.8	1.49e+00	0	43	104	0	75	20863
2026-01-01 09:13:03.11	111.96	30.54	-52.1	-67.2	3.8	1.49e+00	0	43	104	0	75	20895
2026-01-01 09:13:03.97	111.77	30.67	-52.1	-67.2	3.8	1.49e+00	0	43	104	0	75	20912
2026-01-01 09:13:05.12	111.50	30.85	-52.1	-67.2	3.8	1.49e+00	0	43	104	0	75	20941
2026-01-01 09:13:05.98	111.31	30.98	-52.1	-67.2	3.8	1.49e+00	0	43	104	0	75	20949
2026-01-01 09:13:07.12	111.04	31.15	-52.1	-67.2	3.8	1.49e+00	0	43	104	0	75	20868
2026-01-01 09:13:07.99	110.84	31.28	-52.1	-67.2	3.8	1.49e+00	0	43	104	0	75	20830
2026-01-01 09:13:09.13	110.57	31.45	-52.1	-67.2	3.8	1.49e+00	0	43	104	0	75	20909
2026-01-01 09:13:09.99	110.37	31.58	-52.1	-67.2	3.8	1.49e+00	0	43	104	0	75	20893
2026-01-01 09:13:11.14	110.09	31.76	-52.1	-67.2	3.8	1.49e+00	0	43	104	0	75	20871
2026-01-01 09:13:12.21	109.83	31.92	-52.1	-67.2	3.8	1.49e+00	0	43	104	0	75	20867
2026-01-01 09:13:13.26	109.57	32.08	-52.1	-67.2	3.8	1.49e+00	0	43	104	0	75	20852
2026-01-01 09:13:14.13	109.36	32.22	-52.1	-67.2	3.8	1.49e+00	0	43	104	0	75	20823
2026-01-01 09:13:15.27	109.07	32.39	-52.1	-67.2	3.8	1.49e+00	0	43	104	0	75	20782
2026-01-01 09:13:16.36	108.80	32.56	-52.1	-67.2	3.8	1.49e+00	0	43	104	0	75	20937
2026-01-01 09:13:17.43	108.53	32.72	-52.1	-67.2	3.8	1.49e+00	0	43	104	0	75	20944
2026-01-01 09:13:18.46	108.26	32.88	-52.1	-67.2	3.8	1.49e+00	0	43	104	0	75	20956
2026-01-01 09:13:19.46	108.00	33.03	-52.1	-67.2	3.8	1.49e+00	0	43	104	0	75	20963
2026-01-01 09:13:20.47	107.73	33.19	-52.1	-67.2	3.8	1.49e+00	0	43	104	0	75	20939
2026-01-01 09:13:21.47	107.47	33.34	-52.1	-67.2	3.8	1.49e+00	0	43	104	0	75	20952
2026-01-01 09:13:22.47	107.20	33.50	-52.1	-67.2	3.8	1.49e+00	0	43	104	0	75	20853
2026-01-01 09:13:23.48	106.93	33.65	-52.1	-67.2	3.8	1.49e+00	0	43	104	0	75	20942
2026-01-01 09:13:24.48	106.66	33.80	-52.1	-67.2	3.8	1.49e+00	0	43	104	0	75	20920
2026-01-01 09:13:25.49	106.38	33.96	-52.1	-67.2	3.8	1.49e+00	0	43	104	0	75	20898
2026-01-01 09:13:26.49	106.10	34.11	-52.1	-67.2	3.8	1.49e+00	0	43	104	0	75	20924
2026-01-01 09:13:27.49	105.82	34.27	-52.1	-67.2	3.8	1.49e+00	0	43	104	0	75	20947
2026-01-01 09:13:28.50	105.53	34.42	-52.1	-67.2	3.8	1.49e+00	0	43	104	0	75	20988
2026-01-01 09:13:29.50	105.25	34.58	-52.1	-67.2	3.8	1.49e+00	0	43	104	0	75	20964
2026-01-01 09:13:30.59	104.93	34.74	-52.1	-67.2	3.8	1.49e+00	0	43	104	0	75	21013
2026-01-01 09:13:31.48	104.67	34.88	-52.1	-67.2	3.8	1.49e+00	0	43	104	0	75	20961
2026-01-01 09:13:32.48	104.38	35.03	-52.1	-67.2	3.8	1.49e+00	0	43	104	0	75	21014
2026-01-01 09:13:33.49	104.08	35.19	-52.1	-67.2	3.8	1.49e+00	0	43	104	0	75	20934
2026-01-01 09:13:34.49	103.78	35.34	-52.2	-67.2	3.8	1.49e+00	0	43	104	0	75	20987
2026-01-01 09:13:35.49	103.47	35.50	-52.1	-67.2	3.8	1.49e+00	0	43	104	0	75	20908
2026-01-01 09:13:36.50	103.17	35.65	-52.1	-67.3	3.8	1.49e+00	0	43	104	0	75	21035
2026-01-01 09:13:37.50	102.86	35.80	-52.1	-67.3	3.8	1.49e+00	0	43	104	0	75	21030
2026-01-01 09:13:38.51	102.54	35.96	-52.1	-67.2	3.8	1.49e+00	0	43	104	0	75	20969
2026-01-01 09:13:39.51	102.23	36.11	-52.1	-67.3	3.8	1.49e+00	0	43	104	0	75	21027
2026-01-01 09:13:40.52	101.91	36.26	-52.1	-67.2	3.8	1.49e+00	0	43	104	0	75	20951
2026-01-01 09:13:41.52	101.59	36.41	-52.2	-67.3	3.8	1.49e+00	0	43	104	0	75	21087
2026-01-01 09:13:42.52	101.26	36.57	-52.2	-67.3	3.8	1.49e+00	0	43	104	0	75	21061
2026-01-01 09:13:43.59	100.91	36.73	-52.2	-67.3	3.8	1.49e+00	0	43	104	0	75	21048
2026-01-01 09:13:44.48	100.62	36.86	-52.2	-67.3	3.8	1.49e+00	0	43	104	0	75	21230
2026-01-01 09:13:45.52	100.27	37.02	-52.2	-67.3	3.8	1.49e+00	0	43	104	0	75	21220
2026-01-01 09:13:46.52	99.94	37.17	-52.2	-67.4	3.8	1.49e+00	0	43	104	0	75	21270
2026-01-01 09:13:47.52	99.60	37.32	-52.3	-67.3	3.8	1.49e+00	0	43	104	0	75	21251
2026-01-01 09:13:48.53	99.25	37.47	-52.3	-67.4	3.8	1.49e+00	0	43	104	0	75	21348
2026-01-01 09:13:49.53	98.91	37.62	-52.3	-67.4	3.8	1.49e+00	0	43	104	0	75	21503
2026-01-01 09:13:50.54	98.56	37.76	-52.3	-67.4	3.8	1.49e+00	0	43	104	0	75	21451
2026-01-01 09:13:51.54	98.21	37.91	-52.4	-67.5	3.8	1.49e+00	0	43	104	0	75	21546
2026-01-01 09:13:52.54	97.85	38.06	-52.4	-67.5	3.8	1.49e+00	0	43	104	0	75	21539
2026-01-01 09:13:53.55	97.49	38.21	-52.4	-67.5	3.8	1.49e+00	0	43	104	0	75	21550
2026-01-01 09:13:54.55	97.13	38.35	-52.4	-67.5	3.8	1.49e+00	0	43	104	0	75	21718
2026-01-01 09:13:55.56	96.76	38.50	-52.4	-67.5	3.8	1.49e+00	0	43	104	0	75	21707
2026-01-01 09:13:56.61	96.37	38.65	-52.4	-67.5	3.8	1.49e+00	0	43	104	0	75	21650
2026-01-01 09:13:57.48	96.05	38.77	-52.4	-67.5	3.8	1.49e+00	0	43	104	0	75	21692
2026-01-01 09:13:58.63	95.62	38.94	-52.4	-67.6	3.8	1.49e+00	0	43	104	0	75	21766
2026-01-01 09:13:59.49	95.30	39.06	-52.4	-67.5	3.8	1.49e+00	0	43	104	0	75	21688
2026-01-01 09:14:00.64	94.86	39.22	-52.4	-67.5	3.8	1.49e+00	0	43	104	0	75	21691
2026-01-01 09:14:01.50	94.53	39.34	-52.4	-67.5	3.8	1.49e+00	0	43	104	0	75	21687
2026-01-01 09:14:02.65	94.08	39.50	-52.3	-67.5	3.8	1.49e+00	0	43	104	0	75	21511
2026-01-01 09:14:03.51	93.75	39.62	-52.3	-67.4	3.8	1.49e+00	0	43	104	0	75	21387
2026-01-01 09:14:04.66	93.29	39.77	-52.3	-67.4	3.8	1.49e+00	0	43	104	0	75	21345
2026-01-01 09:14:05.52	92.95	39.89	-52.2	-67.3	3.8	1.49e+00	0	43	104	0	75	21196
2026-01-01 09:14:06.66	92.49	40.04	-52.2	-67.3	3.8	1.49e+00	0	43	104	0	75	21098
2026-01-01 09:14:07.53	92.14	40.16	-52.2	-67.3	3.8	1.49e+00	0	43	104	0	75	21089
2026-01-01 09:14:08.67	91.68	40.31	-52.1	-67.3	3.8	1.49e+00	0	43	104	0	75	21026
2026-01-01 09:14:09.53	91.33	40.43	-52.2	-67.3	3.8	1.49e+00	0	43	104	0	75	21111
2026-01-01 09:14:10.68	90.85	40.57	-52.1	-67.3	3.8	1.49e+00	0	43	104	0	75	21089
2026-01-01 09:14:11.54	90.49	40.69	-52.2	-67.3	3.8	1.49e+00	0	43	104	0	75	21110
2026-01-01 09:14:12.69	90.01	40.83	-52.2	-67.2	3.8	1.49e+00	0	43	104	0	75	21005
2026-01-01 09:14:13.55	89.64	40.94	-52.2	-67.3	3.8	1.49e+00	0	43	104	0	75	21070
2026-01-01 09:14:14.70	89.15	41.08	-52.2	-67.3	3.8	1.49e+00	0	43	104	0	75	21075
2026-01-01 09:14:15.56	88.78	41.19	-52.2	-67.3	3.8	1.49e+00	0	43	104	0	75	21131
2026-01-01 09:14:16.71	88.28	41.33	-52.1	-67.2	3.8	1.49e+00	0	43	104	0	75	20979
2026-01-01 09:14:17.57	87.90	41.43	-52.1	-67.3	3.8	1.49e+00	0	43	104	0	75	21032
2026-01-01 09:14:18.72	87.40	41.57	-52.1	-67.3	3.8	1.49e+00	0	43	104	0	75	21041
2026-01-01 09:14:19.58	87.01	41.67	-52.1	-67.3	3.8	1.49e+00	0	43	104	0	75	21092
2026-01-01 09:14:20.72	86.50	41.80	-52.1	-67.2	3.8	1.49e+00	0	43	104	0	75	20977
2026-01-01 09:14:21.58	86.12	41.90	-52.1	-67.2	3.8	1.49e+00	0	43	104	0	75	20973
2026-01-01 09:14:22.73	85.60	42.03	-52.2	-67.3	3.8	1.49e+00	0	43	104	0	75	21102
2026-01-01 09:14:23.59	85.20	42.13	-52.2	-67.3	3.8	1.49e+00	0	43	104	0	75	21100
2026-01-01 09:14:24.74	84.67	42.25	-52.1	-67.2	3.8	1.49e+00	0	43	104	0	75	21001
2026-01-01 09:14:25.60	84.28	42.35	-52.1	-67.3	3.8	1.49e+00	0	43	104	0	75	21073
2026-01-01 09:14:26.75	83.74	42.47	-52.2	-67.3	3.8	1.49e+00	0	43	104	0	75	21092
2026-01-01 09:14:27.61	83.34	42.56	-52.2	-67.3	3.8	1.49e+00	0	43	104	0	75	21105
2026-01-01 09:14:28.76	82.79	42.67	-52.1	-67.2	3.8	1.49e+00	0	43	104	0	75	21002
2026-01-01 09:14:29.62	82.38	42.76	-52.1	-67.2	3.8	1.49e+00	0	43	104	0	75	21015
2026-01-01 09:14:30.77	81.83	42.87	-52.1	-67.3	3.8	1.49e+00	0	43	104	0	75	21053
2026-01-01 09:14:31.63	81.42	42.95	-52.1	-67.3	3.8	1.49e+00	0	43	104	0	75	21062
2026-01-01 09:14:32.78	80.86	43.06	-52.1	-67.2	3.8	1.49e+00	0	43	104	0	75	20917
2026-01-01 09:14:33.64	80.45	43.14	-52.1	-67.2	3.8	1.49e+00	0	43	104	0	75	20984
2026-01-01 09:14:34.79	79.88	43.24	-52.1	-67.2	3.8	1.49e+00	0	43	104	0	75	21009
2026-01-01 09:14:35.65	79.46	43.32	-52.1	-67.2	3.8	1.49e+00	0	43	104	0	75	21001
2026-01-01 09:14:36.79	78.89	43.41	-52.1	-67.2	3.8	1.49e+00	0	43	104	0	75	20965
2026-01-01 09:14:37.66	78.46	43.49	-52.1	-67.2	3.8	1.49e+00	0	43	104	0	75	20910
2026-01-01 09:14:38.80	77.89	43.58	-52.1	-67.2	3.8	1.49e+00	0	43	104	0	75	20993
2026-01-01 09:14:39.66	77.46	43.65	-52.1	-67.2	3.8	1.49e+00	0	43	104	0	75	20961
2026-01-01 09:14:40.81	76.88	43.73	-52.1	-67.3	3.8	1.49e+00	0	43	104	0	75	21055
2026-01-01 09:14:41.68	76.44	43.80	-52.1	-67.2	3.8	1.49e+00	0	43	104	0	75	20979
2026-01-01 09:14:42.82	75.86	43.88	-52.1	-67.3	3.8	1.49e+00	0	43	104	0	75	21048
2026-01-01 09:14:43.68	75.42	43.94	-52.2	-67.3	3.8	1.49e+00	0	43	104	0	75	21020
2026-01-01 09:14:44.83	74.83	44.01	-52.1	-67.2	3.8	1.49e+00	0	44	104	0	75	20895
2026-01-01 09:14:45.69	74.38	44.07	-52.1	-67.2	3.8	1.49e+00	0	43	104	0	75	20949
2026-01-01 09:14:46.84	73.79	44.14	-52.1	-67.2	3.8	1.49e+00	0	43	104	0	75	20941
2026-01-01 09:14:47.70	73.34	44.19	-52.1	-67.2	3.8	1.49e+00	0	43	104	0	75	20961
2026-01-01 09:14:48.85	72.74	44.25	-52.1	-67.2	3.8	1.49e+00	0	43	104	0	75	20986
2026-01-01 09:14:49.71	72.29	44.30	-52.1	-67.2	3.8	1.49e+00	0	43	104	0	75	21015
2026-01-01 09:14:50.86	71.68	44.36	-52.1	-67.2	3.8	1.49e+00	0	43	104	0	75	20822
2026-01-01 09:14:51.72	71.23	44.40	-52.1	-67.2	3.8	1.49e+00	0	43	104	0	75	20895
2026-01-01 09:14:52.87	70.62	44.45	-52.1	-67.2	3.8	1.49e+00	0	43	104	0	75	20905
2026-01-01 09:14:53.73	70.17	44.49	-52.2	-67.2	3.8	1.49e+00	0	43	104	0	75	20967
2026-01-01 09:14:54.87	69.56	44.54	-52.1	-67.3	3.8	1.49e+00	0	43	104	0	75	21066
2026-01-01 09:14:55.74	69.10	44.57	-52.2	-67.2	3.8	1.49e+00	0	43	104	0	75	21014
2026-01-01 09:14:56.88	68.49	44.61	-52.1	-67.2	3.8	1.49e+00	0	43	104	0	75	20996
2026-01-01 09:14:57.74	68.03	44.63	-52.1	-67.2	3.8	1.49e+00	0	43	104	0	75	20973
2026-01-01 09:14:58.89	67.41	44.67	-52.1	-67.2	3.8	1.49e+00	0	43	104	0	75	20924
2026-01-01 09:14:59.75	66.95	44.69	-52.1	-67.2	3.8	1.49e+00	0	43	104	0	75	20932
2026-01-01 09:15:00.90	66.33	44.72	-52.1	-67.2	3.8	1.49e+00	0	43	104	0	75	20923
2026-01-01 09:15:01.76	65.87	44.74	-52.1	-67.2	3.8	1.49e+00	0	43	104	0	75	20980
2026-01-01 09:15:02.91	65.25	44.76	-52.1	-67.2	3.8	1.49e+00	0	43	104	0	75	20905
2026-01-01 09:15:03.77	64.78	44.77	-52.1	-67.2	3.8	1.49e+00	0	43	104	0	75	21009
2026-01-01 09:15:04.92	64.16	44.78	-52.1	-67.2	3.8	1.49e+00	0	43	104	0	75	20915
2026-01-01 09:15:05.78	63.69	44.79	-52.1	-67.3	3.8	1.49e+00	0	43	104	0	75	21058
2026-01-01 09:15:06.93	63.07	44.80	-52.1	-67.2	3.8	1.49e+00	0	43	104	0	75	20972
2026-01-01 09:15:07.79	62.61	44.80	-52.1	-67.2	3.8	1.49e+00	0	43	104	0	75	20938
2026-01-01 09:15:08.94	61.98	44.80	-52.1	-67.2	3.8	1.49e+00	0	43	104	0	75	20902
2026-01-01 09:15:09.80	61.52	44.80	-52.1	-67.2	3.8	1.49e+00	0	43	104	0	75	20944
2026-01-01 09:15:10.95	60.90	44.80	-52.1	-67.3	3.8	1.49e+00	0	43	104	0	75	21033
2026-01-01 09:15:11.81	60.43	44.79	-52.1	-67.2	3.8	1.49e+00	0	43	104	0	75	20941
2026-01-01 09:15:12.95	59.82	44.78	-52.1	-67.2	3.8	1.49e+00	0	43	104	0	75	20870
2026-01-01 09:15:13.81	59.35	44.77	-52.1	-67.3	3.8	1.49e+00	0	43	104	0	75	21105
2026-01-01 09:15:14.96	58.73	44.75	-52.1	-67.2	3.8	1.49e+00	0	43	104	0	75	20896
2026-01-01 09:15:15.82	58.27	44.73	-52.2	-67.3	3.8	1.49e+00	0	43	104	0	75	21019
2026-01-01 09:15:16.97	57.65	44.71	-52.1	-67.2	3.8	1.49e+00	0	43	104	0	75	20871
2026-01-01 09:15:17.83	57.19	44.68	-52.2	-67.3	3.8	1.49e+00	0	43	104	0	75	21191
2026-01-01 09:15:18.98	56.57	44.65	-52.2	-67.3	3.8	1.49e+00	0	43	104	0	75	21173
2026-01-01 09:15:19.84	56.11	44.63	-52.2	-67.3	3.8	1.49e+00	0	43	104	0	75	21143
2026-01-01 09:15:20.99	55.49	44.59	-52.1	-67.3	3.8	1.49e+00	0	43	104	0	75	21053
2026-01-01 09:15:21.85	55.04	44.56	-52.1	-67.2	3.8	1.49e+00	0	43	104	0	75	20984
2026-01-01 09:15:23.00	54.42	44.51	-52.2	-67.3	3.8	1.49e+00	0	43	104	0	75	21142
2026-01-01 09:15:23.86	53.97	44.48	-52.2	-67.3	3.8	1.49e+00	0	43	104	0	75	21112
2026-01-01 09:15:25.01	53.36	44.43	-52.1	-67.2	3.8	1.49e+00	0	43	104	0	75	20890
2026-01-01 09:15:25.87	52.91	44.39	-52.1	-67.2	3.8	1.49e+00	0	43	104	0	75	20947
2026-01-01 09:15:27.02	52.30	44.33	-52.1	-67.2	3.8	1.49e+00	0	43	104	0	75	21006
2026-01-01 09:15:27.88	51.85	44.29	-52.1	-67.2	3.8	1.49e+00	0	43	104	0	75	20992
2026-01-01 09:15:29.03	51.25	44.22	-52.1	-67.2	3.8	1.49e+00	0	43	104	0	75	21008
2026-01-01 09:15:29.89	50.80	44.17	-52.1	-67.2	3.8	1.49e+00	0	43	104	0	75	20877
2026-01-01 09:15:31.03	50.21	44.11	-52.2	-67.3	3.8	1.49e+00	0	43	104	0	75	21044
2026-01-01 09:15:31.89	49.77	44.05	-52.2	-67.3	3.8	1.49e+00	0	43	104	0	75	21042
2026-01-01 09:15:33.04	49.17	43.98	-52.1	-67.2	3.8	1.49e+00	0	43	104	0	75	20960
2026-01-01 09:15:33.90	48.73	43.92	-52.2	-67.3	3.8	1.49e+00	0	43	104	0	75	21067
2026-01-01 09:15:35.05	48.15	43.84	-52.1	-67.2	3.8	1.49e+00	0	43	104	0	75	20997
2026-01-01 09:15:35.91	47.71	43.78	-52.1	-67.2	3.8	1.49e+00	0	43	104	0	75	20948
2026-01-01 09:15:37.06	47.13	43.69	-52.1	-67.2	3.8	1.49e+00	0	43	104	0	75	20947
2026-01-01 09:15:37.92	46.69	43.63	-52.1	-67.3	3.8	1.49e+00	0	43	104	0	75	21078
2026-01-01 09:15:39.07	46.12	43.54	-52.1	-67.2	3.8	1.49e+00	0	43	104	0	75	21017
2026-01-01 09:15:39.93	45.69	43.47	-52.1	-67.2	3.8	1.49e+00	0	43	104	0	75	20945
2026-01-01 09:15:41.08	45.12	43.37	-52.2	-67.3	3.8	1.49e+00	0	43	104	0	75	21034
2026-01-01 09:15:41.94	44.70	43.30	-52.2	-67.3	3.8	1.49e+00	0	43	104	0	75	21094
2026-01-01 09:15:43.08	44.14	43.20	-52.2	-67.3	3.8	1.49e+00	0	43	104	0	75	21114
2026-01-01 09:15:43.95	43.71	43.12	-52.2	-67.3	3.8	1.49e+00	0	43	104	0	75	21067
2026-01-01 09:15:45.09	43.16	43.01	-52.2	-67.3	3.8	1.49e+00	0	43	104	0	75	21072
2026-01-01 09:15:45.95	42.75	42.93	-52.2	-67.2	3.8	1.49e+00	0	43	104	0	75	21015
2026-01-01 09:15:47.10	42.20	42.82	-52.1	-67.2	3.8	1.49e+00	0	43	104	0	75	20992
2026-01-01 09:15:47.96	41.79	42.74	-52.1	-67.2	3.8	1.49e+00	0	43	104	0	75	21014
2026-01-01 09:15:49.11	41.24	42.62	-52.2	-67.3	3.8	1.49e+00	0	43	104	0	75	21053
2026-01-01 09:15:49.97	40.84	42.53	-52.2	-67.3	3.8	1.49e+00	0	43	104	0	75	21080
2026-01-01 09:15:51.12	40.30	42.41	-52.2	-67.3	3.8	1.49e+00	0	43	104	0	75	21125
2026-01-01 09:15:51.98	39.90	42.32	-52.2	-67.3	3.8	1.49e+00	0	43	104	0	75	21071
2026-01-01 09:15:53.13	39.37	42.20	-52.2	-67.3	3.8	1.49e+00	0	43	104	0	75	21043
2026-01-01 09:15:53.99	38.98	42.10	-52.2	-67.3	3.8	1.49e+00	0	43	104	0	75	21113
2026-01-01 09:15:55.13	38.46	41.98	-52.2	-67.3	3.8	1.49e+00	0	43	104	0	75	21060
2026-01-01 09:15:55.99	38.07	41.88	-52.1	-67.2	3.8	1.49e+00	0	43	104	0	75	20996
2026-01-01 09:15:57.14	37.56	41.75	-52.1	-67.3	3.8	1.49e+00	0	43	104	0	75	21078
2026-01-01 09:15:58.00	37.17	41.65	-52.2	-67.3	3.8	1.49e+00	0	43	104	0	75	21100
2026-01-01 09:15:59.15	36.67	41.51	-52.1	-67.2	3.8	1.49e+00	0	43	104	0	75	20971
2026-01-01 09:16:00.01	36.29	41.41	-52.2	-67.2	3.8	1.49e+00	0	43	104	0	75	21006
2026-01-01 09:16:01.16	35.79	41.27	-52.1	-67.2	3.8	1.49e+00	0	43	104	0	75	20949
2026-01-01 09:16:02.23	35.33	41.14	-52.1	-67.3	3.8	1.49e+00	0	43	104	0	75	21028
2026-01-01 09:16:03.25	34.89	41.01	-52.2	-67.3	3.8	1.49e+00	0	43	104	0	75	21112
2026-01-01 09:16:04.44	34.39	40.86	-52.1	-67.2	3.8	1.49e+00	0	43	104	0	75	20976
2026-01-01 09:16:05.33	34.01	40.75	-52.1	-67.3	3.8	1.49e+00	0	43	104	0	75	21109
2026-01-01 09:16:06.47	33.54	40.61	-52.1	-67.2	3.8	1.49e+00	0	43	104	0	75	21017
2026-01-01 09:16:07.40	33.15	40.49	-52.1	-67.3	3.8	1.49e+00	0	43	104	0	75	21033
2026-01-01 09:16:08.58	32.67	40.33	-52.2	-67.3	3.8	1.49e+00	0	43	104	0	75	21051
2026-01-01 09:16:09.47	32.30	40.21	-52.1	-67.3	3.8	1.49e+00	0	43	104	0	75	21032
2026-01-01 09:16:10.50	31.89	40.08	-52.1	-67.2	3.8	1.49e+00	0	43	104	0	75	21010
2026-01-01 09:16:11.50	31.49	39.94	-52.1	-67.2	3.8	1.49e+00	0	43	104	0	75	20994
2026-01-01 09:16:12.51	31.09	39.81	-52.1	-67.2	3.8	1.49e+00	0	43	104	0	75	20989
2026-01-01 09:16:13.51	30.69	39.67	-52.2	-67.2	3.8	1.49e+00	0	43	104	0	75	21000
2026-01-01 09:16:14.51	30.30	39.53	-52.1	-67.2	3.8	1.49e+00	0	43	104	0	75	20996
2026-01-01 09:16:15.52	29.91	39.39	-52.2	-67.3	3.8	1.49e+00	0	43	104	0	75	21108
2026-01-01 09:16:16.52	29.53	39.26	-52.2	-67.3	3.8	1.49e+00	0	43	104	0	75	21115
2026-01-01 09:16:17.52	29.15	39.12	-52.2	-67.3	3.8	1.49e+00	0	43	104	0	75	21209
2026-01-01 09:16:18.53	28.77	38.97	-52.2	-67.3	3.8	1.49e+00	0	43	104	0	75	21198
2026-01-01 09:16:19.53	28.39	38.83	-52.2	-67.3	3.8	1.49e+00	0	43	104	0	75	21069
2026-01-01 09:16:20.53	28.02	38.69	-52.2	-67.3	3.8	1.49e+00	0	43	104	0	75	21087
2026-01-01 09:16:21.54	27.65	38.55	-52.2	-67.3	3.8	1.49e+00	0	43	104	0	75	21074
2026-01-01 09:16:22.56	27.28	38.40	-52.2	-67.3	3.8	1.49e+00	0	43	104	0	75	21085
2026-01-01 09:16:23.58	26.91	38.25	-52.2	-67.3	3.8	1.49e+00	0	43	104	0	75	21206
2026-01-01 09:16:24.58	26.55	38.11	-52.2	-67.3	3.8	1.49e+00	0	43	104	0	75	21125
2026-01-01 09:16:25.58	26.20	37.96	-52.2	-67.3	3.8	1.49e+00	0	43	104	0	75	21094
2026-01-01 09:16:26.59	25.85	37.81	-52.2	-67.3	3.8	1.49e+00	0	43	104	0	75	21107
2026-01-01 09:16:27.59	25.50	37.67	-52.2	-67.3	3.8	1.49e+00	0	43	104	0	75	21084
2026-01-01 09:16:28.59	25.15	37.52	-52.2	-67.3	3.8	1.49e+00	0	43	104	0	75	21074
2026-01-01 09:16:29.60	24.81	37.37	-52.2	-67.3	3.8	1.49e+00	0	43	104	0	75	21088
2026-01-01 09:16:30.59	24.47	37.22	-52.2	-67.2	3.8	1.49e+00	0	43	104	0	75	20992
2026-01-01 09:16:31.60	24.14	37.07	-52.1	-67.2	3.8	1.49e+00	0	43	104	0	75	20989
2026-01-01 09:16:32.60	23.80	36.92	-52.2	-67.3	3.8	1.49e+00	0	43	104	0	75	21140
2026-01-01 09:16:33.60	23.47	36.77	-52.2	-67.3	3.8	1.49e+00	0	43	104	0	75	21188
2026-01-01 09:16:34.61	23.15	36.62	-52.2	-67.3	3.8	1.49e+00	0	43	104	0	75	21156
2026-01-01 09:16:35.61	22.82	36.47	-52.2	-67.3	3.8	1.49e+00	0	43	104	0	75	21153
2026-01-01 09:16:36.62	22.50	36.32	-52.2	-67.3	3.8	1.49e+00	0	43	104	0	75	21159
2026-01-01 09:16:37.62	22.18	36.17	-52.2	-67.3	3.8	1.49e+00	0	43	104	0	75	21132
2026-01-01 09:16:38.63	21.86	36.01	-52.2	-67.3	3.8	1.49e+00	0	43	104	0	75	21124
2026-01-01 09:16:39.63	21.55	35.86	-52.2	-67.3	3.8	1.49e+00	0	43	104	0	75	21147
2026-01-01 09:16:40.63	21.25	35.71	-52.2	-67.3	3.8	1.49e+00	0	43	104	0	75	21126
2026-01-01 09:16:41.64	20.94	35.55	-52.2	-67.3	3.8	1.49e+00	0	43	104	0	75	21071
2026-01-01 09:16:42.64	20.64	35.40	-52.2	-67.3	3.8	1.49e+00	0	43	104	0	75	21119
2026-01-01 09:16:43.65	20.33	35.25	-52.2	-67.3	3.8	1.49e+00	0	43	104	0	75	21139
2026-01-01 09:16:44.65	20.04	35.10	-52.2	-67.3	3.8	1.49e+00	0	43	104	0	75	21242
2026-01-01 09:16:45.65	19.74	34.94	-52.3	-67.4	3.8	1.49e+00	0	43	104	0	75	21262
2026-01-01 09:16:46.66	19.45	34.79	-52.2	-67.4	3.8	1.49e+00	0	43	104	0	75	21309
2026-01-01 09:16:47.66	19.16	34.64	-52.2	-67.4	3.8	1.49e+00	0	43	104	0	75	21283
2026-01-01 09:16:48.67	18.87	34.48	-52.2	-67.3	3.8	1.49e+00	0	43	104	0	75	21188
2026-01-01 09:16:49.67	18.59	34.33	-52.2	-67.4	3.8	1.49e+00	0	43	104	0	75	21286
2026-01-01 09:16:50.67	18.31	34.17	-52.2	-67.3	3.8	1.49e+00	0	43	104	0	75	21217
2026-01-01 09:16:51.68	18.03	34.02	-52.2	-67.4	3.8	1.49e+00	0	43	104	0	75	21299
2026-01-01 09:16:52.68	17.75	33.87	-52.2	-67.3	3.8	1.49e+00	0	43	104	0	75	21203
2026-01-01 09:16:53.69	17.48	33.71	-52.2	-67.3	3.8	1.49e+00	0	43	104	0	75	21218
2026-01-01 09:16:54.69	17.21	33.56	-52.2	-67.3	3.8	1.49e+00	0	43	104	0	75	21172
2026-01-01 09:16:55.69	16.94	33.41	-52.2	-67.3	3.8	1.49e+00	0	43	104	0	75	21227
2026-01-01 09:16:56.70	16.68	33.25	-52.2	-67.3	3.8	1.49e+00	0	43	104	0	75	21150
2026-01-01 09:16:57.70	16.41	33.10	-52.1	-67.2	3.8	1.49e+00	0	43	104	0	75	20985
2026-01-01 09:16:58.71	16.15	32.94	-52.1	-67.2	3.8	1.49e+00	0	43	104	0	75	20955
2026-01-01 09:16:59.71	15.89	32.79	-52.1	-67.2	3.8	1.49e+00	0	43	104	0	75	21007
2026-01-01 09:17:00.72	15.64	32.64	-52.1	-67.2	3.8	1.49e+00	0	43	104	0	75	20949
2026-01-01 09:17:01.72	15.38	32.48	-52.1	-67.3	3.8	1.49e+00	0	43	104	0	75	21030
2026-01-01 09:17:02.72	15.13	32.33	-52.2	-67.3	3.8	1.49e+00	0	43	104	0	75	21130
2026-01-01 09:17:03.73	14.89	32.18	-52.2	-67.4	3.8	1.49e+00	0	43	104	0	75	21263
2026-01-01 09:17:04.73	14.64	32.03	-52.2	-67.3	3.8	1.49e+00	0	43	104	0	75	21152
2026-01-01 09:17:05.74	14.39	31.87	-52.2	-67.3	3.8	1.49e+00	0	43	104	0	75	21089
2026-01-01 09:17:06.74	14.15	31.72	-52.2	-67.2	3.8	1.49e+00	0	43	104	0	75	20991
2026-01-01 09:17:07.75	13.91	31.57	-52.2	-67.3	3.8	1.49e+00	0	43	104	0	75	21112
2026-01-01 09:17:08.75	13.68	31.42	-52.1	-67.2	3.8	1.49e+00	0	43	104	0	75	20980
2026-01-01 09:17:09.76	13.44	31.26	-52.2	-67.3	3.8	1.49e+00	0	43	104	0	75	21162
2026-01-01 09:17:10.76	13.21	31.11	-52.2	-67.3	3.8	1.49e+00	0	43	104	0	75	21090
2026-01-01 09:17:11.76	12.98	30.96	-52.1	-67.2	3.8	1.49e+00	0	43	104	0	75	21003
2026-01-01 09:17:12.77	12.75	30.81	-52.1	-67.3	3.8	1.49e+00	0	43	104	0	75	21086
2026-01-01 09:17:13.77	12.53	30.66	-52.1	-67.3	3.8	1.49e+00	0	43	104	0	75	21086
2026-01-01 09:17:14.78	12.30	30.51	-52.1	-67.2	3.8	1.49e+00	0	43	104	0	75	20899
2026-01-01 09:17:15.78	12.08	30.36	-52.2	-67.4	3.8	1.49e+00	0	43	104	0	75	21304
2026-01-01 09:17:16.79	11.86	30.21	-52.3	-67.4	3.8	1.49e+00	0	43	104	0	75	21303
2026-01-01 09:17:17.79	11.64	30.06	-52.3	-67.4	3.8	1.49e+00	0	43	104	0	75	21295
2026-01-01 09:17:18.80	11.43	29.91	-52.2	-67.4	3.8	1.49e+00	0	43	104	0	75	21292
2026-01-01 09:17:19.80	11.21	29.76	-52.3	-67.4	3.8	1.49e+00	0	43	104	0	75	21380
2026-01-01 09:17:20.81	11.00	29.62	-52.2	-67.4	3.8	1.49e+00	0	43	104	0	75	21280
2026-01-01 09:17:21.81	10.79	29.47	-52.2	-67.3	3.8	1.49e+00	0	43	104	0	75	21164
2026-01-01 09:17:22.81	10.59	29.32	-52.2	-67.3	3.8	1.49e+00	0	43	104	0	75	21149
2026-01-01 09:17:23.82	10.38	29.17	-52.2	-67.3	3.8	1.49e+00	0	43	104	0	75	21195
2026-01-01 09:17:24.82	10.18	29.03	-52.2	-67.4	3.8	1.49e+00	0	43	104	0	75	21270
2026-01-01 09:17:25.83	9.97	28.88	-52.2	-67.3	3.8	1.49e+00	0	43	104	0	75	21243
2026-01-01 09:17:26.83	9.77	28.73	-52.2	-67.4	3.8	1.49e+00	0	43	104	0	75	21266
2026-01-01 09:17:27.83	9.58	28.59	-52.2	-67.3	3.8	1.49e+00	0	43	104	0	75	21242
2026-01-01 09:17:28.84	9.38	28.44	-52.2	-67.3	3.8	1.49e+00	0	43	104	0	75	21201
2026-01-01 09:17:29.84	9.19	28.30	-52.2	-67.3	3.8	1.49e+00	0	43	104	0	75	21211
2026-01-01 09:17:30.84	8.99	28.15	-52.2	-67.3	3.8	1.49e+00	0	43	104	0	75	21237
2026-01-01 09:17:31.85	8.80	28.01	-52.2	-67.3	3.8	1.49e+00	0	43	104	0	75	21212
2026-01-01 09:17:32.85	8.61	27.86	-52.2	-67.3	3.8	1.49e+00	0	43	104	0	75	21236
2026-01-01 09:17:33.86	8.42	27.72	-52.2	-67.3	3.8	1.49e+00	0	43	104	0	75	21165
2026-01-01 09:17:34.86	8.24	27.58	-52.2	-67.3	3.8	1.49e+00	0	43	104	0	75	21094
2026-01-01 09:17:35.86	8.06	27.44	-52.2	-67.3	3.8	1.49e+00	0	43	104	0	75	21128
2026-01-01 09:17:36.87	7.87	27.29	-52.2	-67.3	3.8	1.49e+00	0	43	104	0	75	21151
2026-01-01 09:17:37.87	7.69	27.15	-52.2	-67.3	3.8	1.49e+00	0	43	104	0	75	21208
2026-01-01 09:17:38.88	7.51	27.01	-52.2	-67.3	3.8	1.49e+00	0	43	104	0	75	21226
2026-01-01 09:17:39.88	7.33	26.87	-52.2	-67.3	3.8	1.49e+00	0	43	104	0	75	21189
2026-01-01 09:17:40.89	7.16	26.73	-52.2	-67.3	3.8	1.49e+00	0	43	104	0	75	21182
2026-01-01 09:17:41.89	6.98	26.59	-52.2	-67.3	3.8	1.49e+00	0	43	104	0	75	21206
2026-01-01 09:17:42.90	6.81	26.45	-52.3	-67.4	3.8	1.49e+00	0	43	104	0	75	21271
2026-01-01 09:17:43.90	6.64	26.31	-52.2	-67.4	3.8	1.49e+00	0	43	104	0	75	21275
2026-01-01 09:17:44.91	6.47	26.17	-52.2	-67.4	3.8	1.49e+00	0	43	104	0	75	21267
2026-01-01 09:17:45.91	6.30	26.03	-52.2	-67.4	3.8	1.49e+00	0	43	104	0	75	21338
2026-01-01 09:17:46.91	6.14	25.89	-52.3	-67.4	3.8	1.49e+00	0	43	104	0	75	21327
2026-01-01 09:17:47.92	5.97	25.76	-52.2	-67.4	3.8	1.49e+00	0	43	104	0	75	21273
2026-01-01 09:17:48.92	5.81	25.62	-52.2	-67.3	3.8	1.49e+00	0	43	104	0	75	21255
2026-01-01 09:17:49.93	5.64	25.48	-52.2	-67.3	3.8	1.49e+00	0	43	104	0	75	21212
2026-01-01 09:17:50.93	5.48	25.35	-52.2	-67.3	3.8	1.49e+00	0	43	104	0	75	21225
2026-01-01 09:17:51.94	5.32	25.21	-52.2	-67.4	3.8	1.49e+00	0	43	104	0	75	21270
2026-01-01 09:17:52.94	5.16	25.07	-52.2	-67.3	3.8	1.49e+00	0	43	104	0	75	21240
2026-01-01 09:17:53.95	5.01	24.94	-52.2	-67.3	3.8	1.49e+00	0	43	104	0	75	21227
2026-01-01 09:17:54.95	4.85	24.81	-52.2	-67.3	3.8	1.49e+00	0	43	104	0	75	21192
2026-01-01 09:17:55.95	4.70	24.67	-52.2	-67.4	3.8	1.49e+00	0	43	104	0	75	21381
2026-01-01 09:17:56.96	4.54	24.54	-52.3	-67.3	3.8	1.49e+00	0	43	104	0	75	21245
2026-01-01 09:17:57.96	4.39	24.41	-52.2	-67.3	3.8	1.49e+00	0	43	104	0	75	21258
2026-01-01 09:17:58.97	4.24	24.27	-52.2	-67.3	3.8	1.49e+00	0	43	104	0	75	21215
2026-01-01 09:17:59.97	4.09	24.14	-52.2	-67.3	3.8	1.49e+00	0	43	104	0	75	21120
2026-01-01 09:18:00.98	3.95	24.01	-52.2	-67.3	3.8	1.49e+00	0	43	104	0	75	21118
2026-01-01 09:18:01.98	3.80	23.88	-52.1	-67.3	3.8	1.49e+00	0	43	104	0	75	21103
2026-01-01 09:18:02.99	3.65	23.75	-52.2	-67.3	3.8	1.49e+00	0	44	104	0	75	21119
2026-01-01 09:18:03.99	3.51	23.62	-52.1	-67.3	3.8	1.49e+00	0	43	104	0	75	21050
2026-01-01 09:18:04.99	3.37	23.49	-52.1	-67.2	3.8	1.49e+00	0	43	104	0	75	20972
2026-01-01 09:18:06.00	3.23	23.36	-52.1	-67.3	3.8	1.49e+00	0	43	104	0	75	21034
2026-01-01 09:18:07.00	3.09	23.23	-52.2	-67.4	3.8	1.49e+00	0	43	104	0	75	21369
2026-01-01 09:18:08.01	2.95	23.10	-52.2	-67.4	3.8	1.49e+00	0	43	104	0	75	21269
2026-01-01 09:18:09.01	2.81	22.97	-52.2	-67.4	3.8	1.49e+00	0	43	104	0	75	21282
2026-01-01 09:18:10.02	2.67	22.84	-52.3	-67.4	3.8	1.49e+00	0	43	104	0	75	21274
2026-01-01 09:18:11.02	2.54	22.72	-52.2	-67.4	3.8	1.49e+00	0	43	104	0	75	21275
2026-01-01 09:18:12.02	2.40	22.59	-52.3	-67.4	3.8	1.49e+00	0	43	104	0	75	21349
2026-01-01 09:18:13.03	2.27	22.46	-52.3	-67.4	3.8	1.49e+00	0	43	104	0	75	21344
2026-01-01 09:18:14.03	2.14	22.34	-52.3	-67.4	3.8	1.49e+00	0	43	104	0	75	21437
2026-01-01 09:18:15.04	2.00	22.21	-52.3	-67.4	3.8	1.49e+00	0	43	104	0	75	21324
2026-01-01 09:18:16.04	1.88	22.09	-52.3	-67.4	3.8	1.49e+00	0	43	104	0	75	21349
2026-01-01 09:18:17.04	1.75	21.96	-52.3	-67.4	3.8	1.49e+00	0	43	104	0	75	21374
2026-01-01 09:18:18.05	1.62	21.84	-52.3	-67.5	3.8	1.49e+00	0	43	104	0	75	21559
2026-01-01 09:18:19.05	1.49	21.72	-52.3	-67.4	3.8	1.49e+00	0	43	104	0	75	21467
2026-01-01 09:18:20.05	1.37	21.59	-52.3	-67.4	3.8	1.49e+00	0	43	104	0	75	21434
2026-01-01 09:18:21.06	1.24	21.47	-52.3	-67.4	3.8	1.49e+00	0	43	104	0	75	21342
2026-01-01 09:18:22.06	1.12	21.35	-52.3	-67.4	3.8	1.49e+00	0	44	104	0	75	21360
2026-01-01 09:18:23.07	0.99	21.23	-52.3	-67.4	3.8	1.49e+00	0	43	104	0	75	21441
2026-01-01 09:18:24.07	0.87	21.11	-52.3	-67.4	3.8	1.49e+00	0	43	104	0	75	21308
2026-01-01 09:18:25.07	0.75	20.99	-52.3	-67.4	3.8	1.49e+00	0	43	104	0	75	21390
2026-01-01 09:18:26.08	0.63	20.87	-52.3	-67.4	3.8	1.49e+00	0	43	104	0	75	21369
2026-01-01 09:18:27.08	0.51	20.75	-52.2	-67.3	3.8	1.49e+00	0	43	104	0	75	21217
2026-01-01 09:18:28.09	0.39	20.63	-52.2	-67.3	3.8	1.49e+00	0	43	104	0	75	21175
2026-01-01 09:18:29.09	0.28	20.51	-52.2	-67.3	3.8	1.49e+00	0	43	104	0	75	21175
2026-01-01 09:18:30.10	0.16	20.39	-52.2	-67.3	3.8	1.49e+00	0	43	104	0	75	21170
2026-01-01 09:18:31.10	0.05	20.27	-52.2	-67.3	3.8	1.49e+00	0	43	104	0	75	21208
2026-01-01 09:18:32.10	359.93	20.15	-52.3	-67.4	3.8	1.49e+00	0	43	104	0	75	21409
2026-01-01 09:18:33.11	359.82	20.04	-52.3	-67.4	3.8	1.49e+00	0	43	104	0	75	21395
2026-01-01 09:18:34.11	359.71	19.92	-52.3	-67.4	3.8	1.49e+00	0	43	104	0	75	21355
2026-01-01 09:18:35.12	359.59	19.80	-52.2	-67.4	3.8	1.49e+00	0	43	104	0	75	21305
2026-01-01 09:18:36.12	359.48	19.69	-52.2	-67.3	3.8	1.49e+00	0	43	104	0	75	21200
2026-01-01 09:18:37.12	359.37	19.57	-52.2	-67.3	3.8	1.49e+00	0	43	104	0	75	21215
2026-01-01 09:18:38.13	359.26	19.46	-52.3	-67.4	3.8	1.49e+00	0	43	104	0	75	21318
2026-01-01 09:18:39.13	359.16	19.34	-52.2	-67.3	3.8	1.49e+00	0	43	104	0	75	21081
2026-01-01 09:18:40.14	359.05	19.23	-52.2	-67.4	3.8	1.49e+00	0	43	104	0	75	21261
2026-01-01 09:18:41.14	358.94	19.11	-52.2	-67.3	3.8	1.49e+00	0	43	104	0	75	21155
2026-01-01 09:18:42.16	358.83	19.00	-52.2	-67.3	3.8	1.49e+00	0	43	104	0	75	21174
2026-01-01 09:18:43.17	358.73	18.88	-52.2	-67.3	3.8	1.49e+00	0	43	104	0	75	21094
2026-01-01 09:18:44.23	358.62	18.76	-52.2	-67.3	3.8	1.49e+00	0	43	104	0	75	21168
2026-01-01 09:18:45.13	358.53	18.66	-52.2	-67.3	3.8	1.49e+00	0	43	104	0	75	21155
2026-01-01 09:18:46.13	358.42	18.55	-52.2	-67.3	3.8	1.49e+00	0	43	104	0	75	21072
2026-01-01 09:18:47.14	358.32	18.44	-52.3	-67.4	3.8	1.49e+00	0	43	104	0	75	21368
2026-01-01 09:18:48.14	358.22	18.33	-52.3	-67.4	3.8	1.49e+00	0	43	104	0	75	21305
2026-01-01 09:18:49.15	358.12	18.22	-52.2	-67.2	3.8	1.49e+00	0	43	104	0	75	21003
2026-01-01 09:18:50.15	358.02	18.11	-52.2	-67.3	3.8	1.49e+00	0	43	104	0	75	21139
2026-01-01 09:18:51.15	357.92	18.00	-52.2	-67.3	3.8	1.49e+00	0	43	104	0	75	21101
2026-01-01 09:18:52.16	357.82	17.89	-52.2	-67.3	3.8	1.49e+00	0	43	104	0	75	21228
2026-01-01 09:18:53.16	357.73	17.78	-52.2	-67.3	3.8	1.49e+00	0	43	104	0	75	21213
2026-01-01 09:18:54.21	357.63	17.67	-52.2	-67.4	3.8	1.49e+00	0	43	104	0	75	21274
2026-01-01 09:18:55.08	357.54	17.57	-52.2	-67.3	3.8	1.49e+00	0	43	104	0	75	21163
2026-01-01 09:18:56.22	357.44	17.45	-52.1	-67.2	3.8	1.49e+00	0	43	104	0	75	21002
2026-01-01 09:18:57.20	357.34	17.35	-52.2	-67.3	3.8	1.49e+00	0	43	104	0	75	21112
2026-01-01 09:18:58.36	357.23	17.22	-52.2	-67.3	3.8	1.49e+00	0	43	104	0	75	21034
2026-01-01 09:18:59.28	357.15	17.13	-52.2	-67.3	3.8	1.49e+00	0	43	104	0	75	21105
2026-01-01 09:19:00.29	357.06	17.02	-52.2	-67.3	3.8	1.49e+00	0	43	104	0	75	21160
2026-01-01 09:19:01.50	356.95	16.89	-52.2	-67.3	3.8	1.49e+00	0	43	104	0	75	21182
2026-01-01 09:19:02.39	356.87	16.80	-52.2	-67.2	3.8	1.49e+00	0	43	104	0	75	21010
2026-01-01 09:19:03.71	356.75	16.66	-52.2	-67.3	3.8	1.49e+00	0	43	104	0	75	21100
2026-01-01 09:19:04.43	356.68	16.58	-52.1	-67.3	3.8	1.49e+00	0	43	104	0	75	21054
2026-01-01 09:19:05.72	356.57	16.45	-52.1	-67.3	3.8	1.49e+00	0	43	104	0	75	21055
2026-01-01 09:19:06.44	356.51	16.38	-52.2	-67.3	3.8	1.49e+00	0	43	104	0	75	21152
2026-01-01 09:19:07.73	356.39	16.24	-52.1	-67.3	3.8	1.49e+00	0	43	104	0	75	21081
2026-01-01 09:19:08.45	356.33	16.17	-52.3	-67.5	3.8	1.49e+00	0	43	104	0	75	21547
2026-01-01 09:19:09.74	356.22	16.04	-52.3	-67.4	3.8	1.49e+00	0	43	104	0	75	21447
2026-01-01 09:19:10.46	356.16	15.96	-52.3	-67.4	3.8	1.49e+00	0	43	104	0	75	21423
2026-01-01 09:19:11.75	356.05	15.83	-52.2	-67.3	3.8	1.49e+00	0	43	104	0	75	21142
2026-01-01 09:19:12.46	355.99	15.76	-52.2	-67.3	3.8	1.49e+00	0	43	104	0	75	21123
2026-01-01 09:19:13.75	355.88	15.63	-52.2	-67.3	3.8	1.49e+00	0	43	104	0	75	21109
2026-01-01 09:19:14.47	355.82	15.56	-52.2	-67.3	3.8	1.49e+00	0	43	104	0	75	21054
2026-01-01 09:19:15.76	355.72	15.43	-52.2	-67.4	3.8	1.49e+00	0	43	104	0	75	21271
2026-01-01 09:19:16.48	355.66	15.36	-52.2	-67.3	3.8	1.49e+00	0	43	104	0	75	21252
2026-01-01 09:19:17.77	355.55	15.23	-52.2	-67.3	3.8	1.49e+00	0	43	104	0	75	21177
2026-01-01 09:19:18.49	355.49	15.16	-52.2	-67.3	3.8	1.49e+00	0	43	104	0	75	21152
2026-01-01 09:19:19.78	355.39	15.03	-52.2	-67.3	3.8	1.49e+00	0	44	104	0	75	21221
2026-01-01 09:19:20.50	355.33	14.96	-52.2	-67.3	3.8	1.49e+00	0	43	104	0	75	21250
2026-01-01 09:19:21.79	355.23	14.83	-52.2	-67.4	3.8	1.49e+00	0	43	104	0	75	21265
2026-01-01 09:19:22.51	355.17	14.76	-52.2	-67.3	3.8	1.49e+00	0	43	104	0	75	21235
2026-01-01 09:19:23.80	355.07	14.64	-52.2	-67.4	3.8	1.49e+00	0	43	104	0	75	21309
2026-01-01 09:19:24.51	355.02	14.57	-52.2	-67.4	3.8	1.49e+00	0	43	104	0	75	21302
2026-01-01 09:19:25.81	354.92	14.44	-52.4	-67.4	3.8	1.49e+00	0	43	104	0	75	21506
2026-01-01 09:19:26.52	354.86	14.37	-52.3	-67.4	3.8	1.49e+00	0	43	104	0	75	21485
2026-01-01 09:19:27.81	354.77	14.25	-52.3	-67.4	3.8	1.49e+00	0	43	104	0	75	21502
2026-01-01 09:19:28.53	354.71	14.18	-52.3	-67.4	3.8	1.49e+00	0	43	104	0	75	21440
2026-01-01 09:19:29.82	354.62	14.06	-52.3	-67.4	3.8	1.49e+00	0	43	104	0	75	21399
2026-01-01 09:19:30.54	354.56	13.99	-52.3	-67.5	3.8	1.49e+00	0	43	104	0	75	21555
2026-01-01 09:19:31.82	354.47	13.87	-52.3	-67.4	3.8	1.49e+00	0	43	104	0	75	21456
2026-01-01 09:19:32.54	354.42	13.80	-52.3	-67.5	3.8	1.49e+00	0	43	104	0	75	21518
2026-01-01 09:19:33.83	354.32	13.68	-52.3	-67.4	3.8	1.49e+00	0	43	104	0	75	21405
2026-01-01 09:19:34.55	354.27	13.61	-52.3	-67.4	3.8	1.49e+00	0	43	104	0	75	21346
2026-01-01 09:19:35.84	354.18	13.49	-52.3	-67.5	3.8	1.49e+00	0	43	104	0	75	21522
2026-01-01 09:19:36.56	354.13	13.42	-52.3	-67.4	3.8	1.49e+00	0	44	104	0	75	21475
2026-01-01 09:19:37.85	354.03	13.30	-52.3	-67.4	3.8	1.49e+00	0	43	104	0	75	21446
2026-01-01 09:19:38.56	353.98	13.24	-52.3	-67.4	3.8	1.49e+00	0	44	104	0	75	21385
2026-01-01 09:19:39.86	353.89	13.12	-52.3	-67.4	3.8	1.49e+00	0	43	104	0	75	21425
2026-01-01 09:19:40.57	353.84	13.05	-52.3	-67.4	3.8	1.49e+00	0	43	104	0	75	21347
2026-01-01 09:19:41.86	353.75	12.93	-52.3	-67.4	3.8	1.49e+00	0	43	104	0	75	21365
2026-01-01 09:19:42.58	353.71	12.87	-52.3	-67.4	3.8	1.49e+00	0	43	104	0	75	21298
2026-01-01 09:19:43.87	353.62	12.75	-52.2	-67.4	3.8	1.49e+00	0	43	104	0	75	21302
2026-01-01 09:19:44.59	353.57	12.69	-52.2	-67.4	3.8	1.49e+00	0	43	104	0	75	21355
2026-01-01 09:19:45.88	353.48	12.57	-52.3	-67.4	3.8	1.49e+00	0	43	104	0	75	21292
2026-01-01 09:19:46.60	353.43	12.50	-52.3	-67.4	3.8	1.49e+00	0	43	104	0	75	21335
2026-01-01 09:19:47.89	353.35	12.39	-52.2	-67.3	3.8	1.49e+00	0	43	104	0	75	21153
2026-01-01 09:19:48.60	353.30	12.32	-52.3	-67.4	3.8	1.49e+00	0	44	104	0	75	21307
2026-01-01 09:19:49.89	353.22	12.21	-52.2	-67.3	3.8	1.49e+00	0	43	104	0	75	21040
2026-01-01 09:19:50.61	353.17	12.14	-52.2	-67.3	3.8	1.49e+00	0	43	104	0	75	21035
2026-01-01 09:19:51.90	353.09	12.03	-52.3	-67.4	3.8	1.49e+00	0	43	104	0	75	21389
2026-01-01 09:19:52.62	353.04	11.97	-52.3	-67.4	3.8	1.49e+00	0	43	104	0	75	21471
2026-01-01 09:19:53.90	352.96	11.85	-52.3	-67.4	3.8	1.49e+00	0	43	104	0	75	21453
2026-01-01 09:19:54.62	352.91	11.79	-52.3	-67.4	3.8	1.49e+00	0	43	104	0	75	21450
2026-01-01 09:19:55.91	352.83	11.68	-52.3	-67.4	3.8	1.49e+00	0	43	104	0	75	21437
2026-01-01 09:19:56.63	352.79	11.61	-52.3	-67.4	3.8	1.49e+00	0	43	104	0	75	21356
2026-01-01 09:19:57.92	352.71	11.50	-52.1	-67.3	3.8	1.49e+00	0	44	104	0	75	21062
2026-01-01 09:19:58.64	352.66	11.44	-52.2	-67.3	3.8	1.49e+00	0	43	104	0	75	21034
2026-01-01 09:19:59.93	352.58	11.33	-52.2	-67.3	3.8	1.49e+00	0	43	104	0	75	21169
2026-01-01 09:20:00.64	352.54	11.27	-52.2	-67.3	3.8	1.49e+00	0	43	104	0	75	21113
2026-01-01 09:20:01.93	352.46	11.16	-52.2	-67.3	3.8	1.49e+00	0	43	104	0	75	21083
2026-01-01 09:20:02.65	352.42	11.09	-52.2	-67.3	3.8	1.49e+00	0	44	104	0	75	21078
2026-01-01 09:20:03.94	352.34	10.98	-52.2	-67.3	3.8	1.49e+00	0	43	104	0	75	21164
2026-01-01 09:20:04.66	352.30	10.92	-52.2	-67.3	3.8	1.49e+00	0	43	104	0	75	21112
2026-01-01 09:20:05.95	352.22	10.81	-52.2	-67.3	3.8	1.49e+00	0	43	104	0	75	21026
2026-01-01 09:20:06.67	352.18	10.75	-52.2	-67.3	3.8	1.49e+00	0	43	104	0	75	21072
2026-01-01 09:20:07.96	352.10	10.64	-52.2	-67.3	3.8	1.49e+00	0	43	104	0	75	21230
2026-01-01 09:20:08.68	352.06	10.58	-52.2	-67.4	3.8	1.49e+00	0	43	104	0	75	21306
2026-01-01 09:20:09.97	351.99	10.48	-52.2	-67.4	3.8	1.49e+00	0	43	104	0	75	21276
2026-01-01 09:20:10.69	351.94	10.42	-52.2	-67.3	3.8	1.49e+00	0	43	104	0	75	21141
2026-01-01 09:20:11.97	351.87	10.31	-52.2	-67.3	3.8	1.49e+00	0	43	104	0	75	21242
2026-01-01 09:20:12.69	351.83	10.25	-52.2	-67.3	3.8	1.49e+00	0	44	104	0	75	21140
2026-01-01 09:20:13.98	351.76	10.14	-52.2	-67.3	3.8	1.49e+00	0	43	104	0	75	21192
2026-01-01 09:20:14.70	351.72	10.08	-52.2	-67.3	3.8	1.49e+00	0	43	104	0	75	21129
2026-01-01 09:20:15.99	351.65	9.98	-52.2	-67.3	3.8	1.49e+00	0	43	104	0	75	21222
2026-01-01 09:20:16.71	351.61	9.92	-52.2	-67.3	3.8	1.49e+00	0	43	104	0	75	21105
2026-01-01 09:20:18.00	351.53	9.81	-52.2	-67.3	3.8	1.49e+00	0	43	104	0	75	21104
2026-01-01 09:20:18.71	351.50	9.75	-52.2	-67.3	3.8	1.49e+00	0	43	104	0	75	21074
2026-01-01 09:20:20.00	351.43	9.65	-52.2	-67.3	3.8	1.49e+00	0	44	104	0	75	21205
2026-01-01 09:20:20.72	351.39	9.59	-52.2	-67.3	3.8	1.49e+00	0	43	104	0	75	21220
2026-01-01 09:20:22.02	351.32	9.48	-52.2	-67.3	3.8	1.49e+00	0	43	104	0	75	21085
2026-01-01 09:20:22.73	351.28	9.43	-52.2	-67.3	3.8	1.49e+00	0	43	104	0	75	21171
2026-01-01 09:20:24.02	351.21	9.32	-52.2	-67.3	3.8	1.49e+00	0	43	104	0	75	21128
2026-01-01 09:20:24.74	351.17	9.27	-52.2	-67.3	3.8	1.49e+00	0	43	104	0	75	21146
2026-01-01 09:20:26.03	351.10	9.16	-52.2	-67.3	3.8	1.49e+00	0	43	104	0	75	21078
2026-01-01 09:20:26.75	351.07	9.11	-52.2	-67.3	3.8	1.49e+00	0	43	104	0	75	21214
2026-01-01 09:20:28.04	351.00	9.00	-52.2	-67.3	3.8	1.49e+00	0	43	104	0	75	21160
2026-01-01 09:20:28.76	350.96	8.95	-52.2	-67.4	3.8	1.49e+00	0	43	104	0	75	21271
2026-01-01 09:20:30.05	350.90	8.84	-52.3	-67.4	3.8	1.49e+00	0	43	104	0	75	21263
2026-01-01 09:20:30.77	350.86	8.79	-52.3	-67.4	3.8	1.49e+00	0	43	104	0	75	21336
2026-01-01 09:20:32.06	350.79	8.69	-52.2	-67.3	3.8	1.49e+00	0	43	104	0	75	21173
2026-01-01 09:20:32.77	350.76	8.63	-52.2	-67.3	3.8	1.49e+00	0	43	104	0	75	21165
2026-01-01 09:20:34.07	350.69	8.53	-52.2	-67.3	3.8	1.49e+00	0	43	104	0	75	21258
2026-01-01 09:20:34.79	350.66	8.47	-52.2	-67.3	3.8	1.49e+00	0	43	104	0	75	21205
2026-01-01 09:20:36.07	350.59	8.37	-52.2	-67.3	3.8	1.49e+00	0	43	104	0	75	21204
2026-01-01 09:20:36.79	350.56	8.32	-52.2	-67.3	3.8	1.49e+00	0	43	104	0	75	21242
2026-01-01 09:20:38.08	350.50	8.22	-52.3	-67.4	3.8	1.49e+00	0	43	104	0	75	21314
2026-01-01 09:20:38.80	350.46	8.16	-52.2	-67.4	3.8	1.49e+00	0	43	104	0	75	21311
2026-01-01 09:20:40.09	350.40	8.06	-52.3	-67.4	3.8	1.49e+00	0	43	104	0	75	21294
2026-01-01 09:20:40.81	350.36	8.01	-52.3	-67.4	3.8	1.49e+00	0	43	104	0	75	21462
2026-01-01 09:20:42.10	350.30	7.91	-52.2	-67.2	3.8	1.49e+00	0	43	104	0	75	20779
2026-01-01 09:20:42.82	350.27	7.85	-52.3	-67.3	3.8	1.49e+00	0	43	104	0	75	21165
2026-01-01 09:20:44.11	350.21	7.76	-52.4	-67.4	3.8	1.49e+00	0	43	104	0	75	21494
2026-01-01 09:20:44.83	350.17	7.70	-52.2	-67.3	3.8	1.49e+00	0	43	104	0	75	21110
2026-01-01 09:20:46.12	350.11	7.60	-52.0	-67.1	3.8	1.49e+00	0	43	104	0	75	20615
2026-01-01 09:20:46.84	350.08	7.55	-52.2	-67.3	3.8	1.49e+00	0	43	104	0	75	21242
2026-01-01 09:20:48.13	350.02	7.45	-52.2	-67.3	3.8	1.49e+00	0	44	104	0	75	21196
2026-01-01 09:20:48.85	349.99	7.40	-51.9	-67.1	3.8	1.49e+00	0	43	104	0	75	20578
2026-01-01 09:20:50.14	349.93	7.30	-51.9	-67.0	3.8	1.49e+00	0	43	104	0	75	20516
2026-01-01 09:20:50.85	349.90	7.25	-51.9	-67.1	3.8	1.49e+00	0	43	104	0	75	20587
2026-01-01 09:20:52.15	349.84	7.15	-52.0	-67.0	3.8	1.49e+00	0	43	104	0	75	20494
2026-01-01 09:20:52.86	349.80	7.10	-51.9	-67.0	3.8	1.49e+00	0	43	104	0	75	20493
2026-01-01 09:20:54.15	349.75	7.01	-51.9	-67.1	3.8	1.49e+00	0	43	104	0	75	20565
2026-01-01 09:20:54.87	349.72	6.95	-51.9	-67.1	3.8	1.49e+00	0	43	104	0	75	20600
2026-01-01 09:20:56.16	349.66	6.86	-52.2	-67.4	3.8	1.49e+00	0	43	104	0	75	21276
2026-01-01 09:20:56.88	349.63	6.80	-52.2	-67.3	3.8	1.49e+00	0	43	104	0	75	21149
2026-01-01 09:20:58.17	349.57	6.71	-52.2	-67.4	3.8	1.49e+00	0	43	104	0	75	21282
2026-01-01 09:20:59.04	349.53	6.65	-52.2	-67.3	3.8	1.49e+00	0	43	104	0	75	21083
2026-01-01 09:21:00.18	349.48	6.56	-52.1	-67.2	3.8	1.49e+00	0	44	104	0	75	21003
2026-01-01 09:21:01.23	349.44	6.49	-52.2	-67.4	3.8	1.49e+00	0	43	104	0	75	21271
2026-01-01 09:21:02.29	349.39	6.41	-52.2	-67.3	3.8	1.49e+00	0	43	104	0	75	21183
2026-01-01 09:21:03.15	349.36	6.35	-52.2	-67.4	3.8	1.49e+00	0	43	104	0	75	21336
2026-01-01 09:21:04.30	349.31	6.27	-52.2	-67.3	3.8	1.49e+00	0	43	104	0	75	21234
2026-01-01 09:21:05.40	349.26	6.19	-52.2	-67.4	3.8	1.49e+00	0	43	104	0	75	21265
2026-01-01 09:21:06.26	349.23	6.13	-52.3	-67.4	3.8	1.49e+00	0	43	104	0	75	21397
2026-01-01 09:21:07.76	349.16	6.02	-52.2	-67.3	3.8	1.49e+00	0	43	104	0	75	21257
2026-01-01 09:21:08.47	349.13	5.97	-52.0	-67.1	3.8	1.49e+00	0	44	104	0	75	20713
2026-01-01 09:21:09.76	349.08	5.88	-52.2	-67.3	3.8	1.49e+00	0	44	104	0	75	21169
2026-01-01 09:21:10.48	349.05	5.83	-52.2	-67.3	3.8	1.49e+00	0	43	104	0	75	21239
2026-01-01 09:21:11.77	349.00	5.73	-52.2	-67.3	3.8	1.49e+00	0	44	104	0	75	21143
2026-01-01 09:21:12.49	348.97	5.68	-52.2	-67.3	3.8	1.49e+00	0	43	104	0	75	21177
2026-01-01 09:21:13.78	348.92	5.59	-52.2	-67.3	3.8	1.49e+00	0	43	104	0	75	21229
2026-01-01 09:21:14.50	348.89	5.54	-52.0	-67.1	3.8	1.49e+00	0	44	104	0	75	20633
2026-01-01 09:21:15.79	348.84	5.45	-52.2	-67.4	3.8	1.49e+00	0	44	104	0	75	21269
2026-01-01 09:21:16.51	348.81	5.40	-52.0	-67.1	3.8	1.49e+00	0	43	104	0	75	20672
2026-01-01 09:21:17.80	348.76	5.31	-52.0	-67.1	3.8	1.49e+00	0	43	104	0	75	20638
2026-01-01 09:21:18.52	348.73	5.26	-52.3	-67.5	3.8	1.49e+00	0	43	104	0	75	21543
2026-01-01 09:21:19.84	348.68	5.17	-52.0	-67.1	3.9	1.49e+00	0	43	104	0	75	20565
2026-01-01 09:21:20.56	348.65	5.12	-52.4	-67.5	3.8	1.49e+00	0	43	104	0	75	21676
2026-01-01 09:21:21.91	348.60	5.03	-52.3	-67.4	3.8	1.49e+00	0	43	104	0	75	21434
2026-01-01 09:21:22.63	348.57	4.98	-52.3	-67.4	3.8	1.49e+00	0	43	104	0	75	21451

#Closed at: 2026-01-01 09:21:23
#Recorded file [0 MB]: D:/Data/31040_260101_120858.dat