passes_logs/2026/01/01/T1/T1__20260101_212029_NOAA_20_JPSS-1_rec.log

#Pass ID: 20260101_212029_NOAA 20 (JPSS-1)
#Satellite: NOAA 20 (JPSS-1)
#Configuration: NOAA 20
#almurnet v.1.7.20251203
#Start time: 2026-01-01 21:20:29

#Version: 2.0.20230620
#Station: T1
#Location: 37.570604 lon 55.790049 lat
#TLE: 1 43013U 17073A   26001.30344297  .00000183  00000+0  10758-3 0  9995
#TLE: 2 43013  98.7621 302.3885 0001938  59.1624 300.9742 14.19532032420790

#Time	Az	El	Level	Level2	SNR	BER	BlckErr	Temp	State	Recorded	gain1	gain2
2026-01-01 21:20:29.06	44.97	4.99	-49.9	-65.2	3.8	1.49e+00	0	40	0	0	71	20842
2026-01-01 21:20:30.06	45.10	5.03	-49.9	-65.2	3.8	1.49e+00	0	40	104	0	71	20797
2026-01-01 21:20:31.06	45.23	5.06	-49.8	-65.1	3.8	1.49e+00	0	40	104	0	71	20725
2026-01-01 21:20:32.06	45.36	5.10	-49.8	-65.2	3.8	1.49e+00	0	40	104	0	71	20858
2026-01-01 21:20:33.07	45.50	5.13	-49.8	-65.1	3.8	1.49e+00	0	40	104	0	71	20702
2026-01-01 21:20:34.07	45.63	5.16	-49.8	-65.1	3.8	1.49e+00	0	40	104	0	71	20741
2026-01-01 21:20:35.07	45.76	5.20	-49.8	-65.1	3.8	1.49e+00	0	40	104	0	71	20708
2026-01-01 21:20:36.07	45.90	5.23	-49.8	-65.1	3.8	1.49e+00	0	40	104	0	71	20722
2026-01-01 21:20:37.08	46.03	5.27	-49.8	-65.1	3.8	1.49e+00	0	40	104	0	71	20736
2026-01-01 21:20:38.08	46.17	5.30	-49.8	-65.1	3.8	1.49e+00	0	40	104	0	71	20759
2026-01-01 21:20:39.09	46.30	5.34	-49.8	-65.1	3.8	1.49e+00	0	40	104	0	71	20762
2026-01-01 21:20:40.09	46.44	5.37	-49.8	-65.1	3.8	1.49e+00	0	40	104	0	71	20698
2026-01-01 21:20:41.10	46.57	5.40	-49.8	-65.1	3.8	1.49e+00	0	40	104	0	71	20687
2026-01-01 21:20:42.10	46.71	5.44	-49.8	-65.1	3.8	1.49e+00	0	40	104	0	71	20654
2026-01-01 21:20:43.10	46.85	5.47	-49.8	-65.1	3.8	1.49e+00	0	40	104	0	71	20725
2026-01-01 21:20:44.10	46.98	5.51	-49.8	-65.1	3.8	1.49e+00	0	40	104	0	71	20729
2026-01-01 21:20:45.11	47.12	5.54	-49.8	-65.1	3.8	1.49e+00	0	40	104	0	71	20645
2026-01-01 21:20:46.11	47.26	5.57	-49.8	-65.1	3.8	1.49e+00	0	40	104	0	71	20679
2026-01-01 21:20:47.12	47.39	5.61	-49.8	-65.1	3.8	1.49e+00	0	40	104	0	71	20749
2026-01-01 21:20:48.12	47.53	5.64	-49.8	-65.1	3.8	1.49e+00	0	41	104	0	71	20732
2026-01-01 21:20:49.12	47.67	5.67	-49.8	-65.1	3.8	1.49e+00	0	40	104	0	71	20737
2026-01-01 21:20:50.12	47.81	5.71	-49.8	-65.1	3.8	1.49e+00	0	40	104	0	71	20702
2026-01-01 21:20:51.13	47.95	5.74	-49.8	-65.1	3.8	1.49e+00	0	40	104	0	71	20681
2026-01-01 21:20:52.13	48.08	5.77	-49.8	-65.1	3.8	1.49e+00	0	41	104	0	71	20701
2026-01-01 21:20:53.14	48.22	5.81	-49.8	-65.1	3.8	1.49e+00	0	41	104	0	71	20732
2026-01-01 21:20:54.14	48.36	5.84	-49.8	-65.1	3.8	1.49e+00	0	41	104	0	71	20749
2026-01-01 21:20:55.14	48.50	5.87	-49.8	-65.1	3.8	1.49e+00	0	41	104	0	71	20741
2026-01-01 21:20:56.14	48.64	5.90	-49.8	-65.1	3.8	1.49e+00	0	41	104	0	71	20641
2026-01-01 21:20:57.15	48.78	5.94	-49.8	-65.1	3.8	1.49e+00	0	41	104	0	71	20620
2026-01-01 21:20:58.15	48.92	5.97	-49.8	-65.1	3.8	1.49e+00	0	41	104	0	71	20705
2026-01-01 21:20:59.16	49.06	6.00	-49.8	-65.1	3.8	1.49e+00	0	41	104	0	71	20663
2026-01-01 21:21:00.16	49.21	6.03	-49.8	-65.1	3.8	1.49e+00	0	41	104	0	71	20732
2026-01-01 21:21:01.16	49.35	6.06	-49.8	-65.1	3.8	1.49e+00	0	41	104	0	71	20726
2026-01-01 21:21:02.17	49.49	6.10	-49.8	-65.1	3.8	1.49e+00	0	41	104	0	71	20593
2026-01-01 21:21:03.17	49.63	6.13	-49.8	-65.1	3.8	1.49e+00	0	41	104	0	71	20722
2026-01-01 21:21:04.18	49.77	6.16	-49.8	-65.1	3.8	1.49e+00	0	41	104	0	71	20611
2026-01-01 21:21:05.18	49.92	6.19	-49.8	-65.1	3.8	1.49e+00	0	41	104	0	71	20677
2026-01-01 21:21:06.18	50.06	6.22	-49.8	-65.1	3.8	1.49e+00	0	41	104	0	71	20764
2026-01-01 21:21:07.19	50.20	6.25	-49.8	-65.1	3.8	1.49e+00	0	41	104	0	71	20688
2026-01-01 21:21:08.19	50.35	6.29	-49.8	-65.1	3.8	1.49e+00	0	41	104	0	71	20676
2026-01-01 21:21:09.20	50.49	6.32	-49.8	-65.1	3.8	1.49e+00	0	41	104	0	71	20673
2026-01-01 21:21:10.20	50.64	6.35	-49.8	-65.1	3.8	1.49e+00	0	41	104	0	71	20708
2026-01-01 21:21:11.21	50.78	6.38	-49.8	-65.1	3.8	1.49e+00	0	41	104	0	71	20691
2026-01-01 21:21:12.21	50.92	6.41	-49.8	-65.1	3.8	1.49e+00	0	41	104	0	71	20640
2026-01-01 21:21:13.21	51.07	6.44	-49.8	-65.2	3.8	1.49e+00	0	41	104	0	71	20796
2026-01-01 21:21:14.22	51.22	6.47	-49.8	-65.1	3.8	1.49e+00	0	41	104	0	71	20690
2026-01-01 21:21:15.22	51.36	6.50	-49.8	-65.1	3.8	1.49e+00	0	41	104	0	71	20663
2026-01-01 21:21:16.22	51.51	6.53	-49.8	-65.1	3.8	1.49e+00	0	41	104	0	71	20671
2026-01-01 21:21:17.23	51.65	6.56	-49.8	-65.1	3.8	1.49e+00	0	41	104	0	71	20738
2026-01-01 21:21:18.23	51.80	6.59	-49.8	-65.1	3.8	1.49e+00	0	41	104	0	71	20663
2026-01-01 21:21:19.23	51.95	6.62	-49.8	-65.1	3.8	1.49e+00	0	41	104	0	71	20749
2026-01-01 21:21:20.24	52.09	6.65	-49.8	-65.1	3.8	1.49e+00	0	41	104	0	71	20694
2026-01-01 21:21:21.24	52.24	6.68	-49.8	-65.1	3.8	1.49e+00	0	41	104	0	71	20635
2026-01-01 21:21:22.24	52.39	6.71	-49.8	-65.1	3.8	1.49e+00	0	42	104	0	71	20683
2026-01-01 21:21:23.25	52.54	6.74	-49.8	-65.1	3.8	1.49e+00	0	42	104	0	71	20707
2026-01-01 21:21:24.25	52.69	6.77	-49.8	-65.1	3.8	1.49e+00	0	41	104	0	71	20733
2026-01-01 21:21:25.26	52.84	6.80	-49.8	-65.1	3.8	1.49e+00	0	41	104	0	71	20659
2026-01-01 21:21:26.26	52.98	6.83	-49.8	-65.2	3.8	1.49e+00	0	41	104	0	71	20791
2026-01-01 21:21:27.26	53.13	6.86	-49.8	-65.1	3.8	1.49e+00	0	41	104	0	71	20706
2026-01-01 21:21:28.27	53.28	6.89	-49.8	-65.1	3.8	1.49e+00	0	42	104	0	71	20722
2026-01-01 21:21:29.27	53.43	6.92	-49.8	-65.1	3.8	1.49e+00	0	42	104	0	71	20707
2026-01-01 21:21:30.27	53.58	6.94	-49.8	-65.1	3.8	1.49e+00	0	42	104	0	71	20740
2026-01-01 21:21:31.28	53.73	6.97	-49.8	-65.1	3.8	1.49e+00	0	41	104	0	71	20675
2026-01-01 21:21:32.28	53.88	7.00	-49.8	-65.1	3.8	1.49e+00	0	42	104	0	71	20729
2026-01-01 21:21:33.29	54.04	7.03	-49.8	-65.2	3.8	1.49e+00	0	42	104	0	71	20782
2026-01-01 21:21:34.29	54.19	7.06	-49.8	-65.1	3.8	1.49e+00	0	42	104	0	71	20709
2026-01-01 21:21:35.30	54.34	7.09	-49.8	-65.1	3.8	1.49e+00	0	42	104	0	71	20772
2026-01-01 21:21:36.30	54.49	7.11	-49.8	-65.1	3.8	1.49e+00	0	41	104	0	71	20754
2026-01-01 21:21:37.30	54.64	7.14	-49.8	-65.1	3.8	1.49e+00	0	42	104	0	71	20721
2026-01-01 21:21:38.31	54.80	7.17	-49.8	-65.1	3.8	1.49e+00	0	42	104	0	71	20665
2026-01-01 21:21:39.31	54.95	7.20	-49.8	-65.1	3.8	1.49e+00	0	42	104	0	71	20656
2026-01-01 21:21:40.31	55.10	7.22	-49.8	-65.1	3.8	1.49e+00	0	42	104	0	71	20662
2026-01-01 21:21:41.32	55.25	7.25	-49.8	-65.1	3.8	1.49e+00	0	42	104	0	71	20702
2026-01-01 21:21:42.32	55.41	7.28	-49.8	-65.1	3.8	1.49e+00	0	42	104	0	71	20695
2026-01-01 21:21:43.32	55.56	7.30	-49.8	-65.1	3.8	1.49e+00	0	42	104	0	71	20622
2026-01-01 21:21:44.32	55.71	7.33	-49.8	-65.1	3.8	1.49e+00	0	42	104	0	71	20730
2026-01-01 21:21:45.32	55.87	7.36	-49.8	-65.1	3.8	1.49e+00	0	42	104	0	71	20676
2026-01-01 21:21:46.32	56.02	7.38	-49.8	-65.1	3.8	1.49e+00	0	42	104	0	71	20692
2026-01-01 21:21:47.33	56.18	7.41	-49.8	-65.1	3.8	1.49e+00	0	42	104	0	71	20746
2026-01-01 21:21:48.33	56.33	7.44	-49.8	-65.1	3.8	1.49e+00	0	42	104	0	71	20740
2026-01-01 21:21:49.33	56.49	7.46	-49.8	-65.1	3.8	1.49e+00	0	42	104	0	71	20654
2026-01-01 21:21:50.33	56.64	7.49	-49.8	-65.1	3.8	1.49e+00	0	42	104	0	71	20696
2026-01-01 21:21:51.33	56.80	7.51	-49.8	-65.1	3.8	1.49e+00	0	42	104	0	71	20715
2026-01-01 21:21:52.34	56.96	7.54	-49.8	-65.1	3.8	1.49e+00	0	42	104	0	71	20659
2026-01-01 21:21:53.34	57.11	7.56	-49.8	-65.1	3.8	1.49e+00	0	42	104	0	71	20747
2026-01-01 21:21:54.34	57.27	7.59	-49.8	-65.1	3.8	1.49e+00	0	42	104	0	71	20593
2026-01-01 21:21:55.34	57.42	7.61	-49.8	-65.1	3.8	1.49e+00	0	42	104	0	71	20684
2026-01-01 21:21:56.34	57.58	7.64	-49.8	-65.1	3.8	1.49e+00	0	42	104	0	71	20642
2026-01-01 21:21:57.35	57.74	7.66	-49.8	-65.1	3.8	1.49e+00	0	42	104	0	71	20720
2026-01-01 21:21:58.35	57.90	7.69	-49.8	-65.1	3.8	1.49e+00	0	42	104	0	71	20737
2026-01-01 21:21:59.35	58.05	7.71	-49.8	-65.1	3.8	1.49e+00	0	42	104	0	71	20674
2026-01-01 21:22:00.35	58.21	7.74	-49.8	-65.1	3.8	1.49e+00	0	42	104	0	71	20732
2026-01-01 21:22:01.35	58.37	7.76	-49.8	-65.1	3.8	1.49e+00	0	42	104	0	71	20712
2026-01-01 21:22:02.36	58.53	7.78	-49.8	-65.1	3.8	1.49e+00	0	42	104	0	71	20702
2026-01-01 21:22:03.36	58.69	7.81	-49.8	-65.1	3.8	1.49e+00	0	42	104	0	71	20682
2026-01-01 21:22:04.36	58.85	7.83	-49.8	-65.1	3.8	1.49e+00	0	42	104	0	71	20605
2026-01-01 21:22:05.37	59.01	7.85	-49.8	-65.1	3.8	1.49e+00	0	42	104	0	71	20747
2026-01-01 21:22:06.37	59.17	7.88	-49.8	-65.1	3.8	1.49e+00	0	42	104	0	71	20655
2026-01-01 21:22:07.38	59.33	7.90	-49.8	-65.1	3.8	1.49e+00	0	42	104	0	71	20655
2026-01-01 21:22:08.38	59.49	7.92	-49.8	-65.1	3.8	1.49e+00	0	42	104	0	71	20597
2026-01-01 21:22:09.38	59.65	7.95	-49.8	-65.1	3.8	1.49e+00	0	42	104	0	71	20715
2026-01-01 21:22:10.38	59.81	7.97	-49.8	-65.1	3.8	1.49e+00	0	42	104	0	71	20681
2026-01-01 21:22:11.39	59.97	7.99	-49.8	-65.1	3.8	1.49e+00	0	42	104	0	71	20727
2026-01-01 21:22:12.39	60.13	8.01	-49.8	-65.1	3.8	1.49e+00	0	42	104	0	71	20674
2026-01-01 21:22:13.39	60.29	8.04	-49.8	-65.1	3.8	1.49e+00	0	42	104	0	71	20704
2026-01-01 21:22:14.39	60.45	8.06	-49.8	-65.1	3.8	1.49e+00	0	42	104	0	71	20685
2026-01-01 21:22:15.40	60.62	8.08	-49.8	-65.1	3.8	1.49e+00	0	42	104	0	71	20766
2026-01-01 21:22:16.40	60.78	8.10	-49.8	-65.1	3.8	1.49e+00	0	42	104	0	71	20619
2026-01-01 21:22:17.40	60.94	8.12	-49.8	-65.1	3.8	1.49e+00	0	42	104	0	71	20729
2026-01-01 21:22:18.40	61.10	8.14	-49.8	-65.1	3.8	1.49e+00	0	42	104	0	71	20637
2026-01-01 21:22:19.41	61.27	8.16	-49.8	-65.1	3.8	1.49e+00	0	42	104	0	71	20671
2026-01-01 21:22:20.41	61.43	8.18	-49.8	-65.1	3.8	1.49e+00	0	42	104	0	71	20594
2026-01-01 21:22:21.41	61.59	8.21	-49.8	-65.1	3.8	1.49e+00	0	42	104	0	71	20681
2026-01-01 21:22:22.41	61.75	8.23	-49.8	-65.1	3.8	1.49e+00	0	42	104	0	71	20696
2026-01-01 21:22:23.42	61.92	8.25	-49.8	-65.1	3.8	1.49e+00	0	42	104	0	71	20703
2026-01-01 21:22:24.42	62.08	8.27	-49.8	-65.1	3.8	1.49e+00	0	42	104	0	71	20720
2026-01-01 21:22:25.42	62.25	8.29	-49.8	-65.1	3.8	1.49e+00	0	42	104	0	71	20659
2026-01-01 21:22:26.43	62.41	8.31	-49.8	-65.1	3.8	1.49e+00	0	43	104	0	71	20659
2026-01-01 21:22:27.43	62.58	8.32	-49.8	-65.1	3.8	1.49e+00	0	42	104	0	71	20727
2026-01-01 21:22:28.43	62.74	8.34	-49.8	-65.1	3.8	1.49e+00	0	42	104	0	71	20694
2026-01-01 21:22:29.43	62.91	8.36	-49.8	-65.1	3.8	1.49e+00	0	42	104	0	71	20678
2026-01-01 21:22:30.43	63.07	8.38	-49.8	-65.1	3.8	1.49e+00	0	42	104	0	71	20621
2026-01-01 21:22:31.44	63.24	8.40	-49.8	-65.1	3.8	1.49e+00	0	42	104	0	71	20647
2026-01-01 21:22:32.44	63.40	8.42	-49.8	-65.1	3.8	1.49e+00	0	42	104	0	71	20553
2026-01-01 21:22:33.44	63.57	8.44	-49.8	-65.1	3.8	1.49e+00	0	42	104	0	71	20621
2026-01-01 21:22:34.44	63.73	8.46	-49.8	-65.1	3.8	1.49e+00	0	42	104	0	71	20568
2026-01-01 21:22:35.45	63.90	8.47	-49.8	-65.0	3.8	1.49e+00	0	42	104	0	71	20532
2026-01-01 21:22:36.45	64.07	8.49	-49.8	-65.1	3.8	1.49e+00	0	42	104	0	71	20556
2026-01-01 21:22:37.46	64.24	8.51	-49.8	-65.1	3.8	1.49e+00	0	42	104	0	71	20554
2026-01-01 21:22:38.46	64.40	8.53	-49.8	-65.1	3.8	1.49e+00	0	42	104	0	71	20574
2026-01-01 21:22:39.46	64.57	8.54	-49.8	-65.1	3.8	1.49e+00	0	42	104	0	71	20556
2026-01-01 21:22:40.47	64.74	8.56	-49.8	-65.1	3.8	1.49e+00	0	42	104	0	71	20616
2026-01-01 21:22:41.47	64.90	8.58	-49.8	-65.1	3.8	1.49e+00	0	42	104	0	71	20695
2026-01-01 21:22:42.47	65.07	8.59	-49.8	-65.1	3.8	1.49e+00	0	42	104	0	71	20589
2026-01-01 21:22:43.48	65.24	8.61	-49.8	-65.1	3.8	1.49e+00	0	43	104	0	71	20638
2026-01-01 21:22:44.48	65.41	8.63	-49.8	-65.1	3.8	1.49e+00	0	42	104	0	71	20623
2026-01-01 21:22:45.48	65.58	8.64	-49.8	-65.1	3.8	1.49e+00	0	42	104	0	71	20565
2026-01-01 21:22:46.49	65.74	8.66	-49.8	-65.1	3.8	1.49e+00	0	42	104	0	71	20595
2026-01-01 21:22:47.49	65.91	8.67	-49.8	-65.1	3.8	1.49e+00	0	43	104	0	71	20625
2026-01-01 21:22:48.49	66.08	8.69	-49.8	-65.0	3.8	1.49e+00	0	42	104	0	71	20512
2026-01-01 21:22:49.50	66.25	8.70	-49.8	-65.0	3.8	1.49e+00	0	42	104	0	71	20503
2026-01-01 21:22:50.50	66.42	8.72	-49.8	-65.0	3.8	1.49e+00	0	42	104	0	71	20399
2026-01-01 21:22:51.50	66.59	8.73	-49.8	-65.0	3.8	1.49e+00	0	43	104	0	71	20384
2026-01-01 21:22:52.50	66.76	8.75	-49.8	-65.0	3.8	1.49e+00	0	43	104	0	71	20390
2026-01-01 21:22:53.51	66.93	8.76	-49.8	-65.0	3.8	1.49e+00	0	42	104	0	71	20366
2026-01-01 21:22:54.51	67.10	8.78	-49.8	-65.0	3.8	1.49e+00	0	42	104	0	71	20460
2026-01-01 21:22:55.51	67.27	8.79	-49.8	-65.1	3.8	1.49e+00	0	42	104	0	71	20551
2026-01-01 21:22:56.52	67.44	8.80	-49.8	-65.1	3.8	1.49e+00	0	42	104	0	71	20576
2026-01-01 21:22:57.52	67.61	8.82	-49.8	-65.1	3.8	1.49e+00	0	42	104	0	71	20553
2026-01-01 21:22:58.52	67.78	8.83	-49.8	-65.1	3.8	1.49e+00	0	42	104	0	71	20547
2026-01-01 21:22:59.53	67.95	8.84	-49.8	-65.0	3.8	1.49e+00	0	42	104	0	71	20471
2026-01-01 21:23:00.53	68.12	8.86	-49.8	-65.0	3.8	1.49e+00	0	42	104	0	71	20412
2026-01-01 21:23:01.53	68.29	8.87	-49.8	-64.8	3.8	1.49e+00	0	43	104	0	71	20066
2026-01-01 21:23:02.53	68.46	8.88	-49.8	-64.8	3.8	1.49e+00	0	43	104	0	71	19869
2026-01-01 21:23:03.53	68.63	8.89	-49.8	-64.6	3.8	1.49e+00	0	43	104	0	71	19416
2026-01-01 21:23:04.53	68.80	8.91	-49.8	-64.4	3.8	1.49e+00	0	42	104	0	71	19110
2026-01-01 21:23:05.54	68.98	8.92	-49.8	-64.4	3.8	1.49e+00	0	43	104	0	71	19039
2026-01-01 21:23:06.54	69.15	8.93	-49.8	-64.5	3.8	1.49e+00	0	43	104	0	71	19216
2026-01-01 21:23:07.54	69.32	8.94	-49.8	-64.6	3.8	1.49e+00	0	43	104	0	71	19577
2026-01-01 21:23:08.55	69.49	8.95	-49.8	-64.8	3.8	1.49e+00	0	42	104	0	71	20066
2026-01-01 21:23:09.55	69.66	8.96	-49.8	-65.0	3.8	1.49e+00	0	42	104	0	71	20388
2026-01-01 21:23:10.55	69.83	8.97	-49.8	-65.1	3.8	1.49e+00	0	42	104	0	71	20568
2026-01-01 21:23:11.56	70.01	8.98	-49.8	-65.1	3.8	1.49e+00	0	43	104	0	71	20749
2026-01-01 21:23:12.56	70.18	8.99	-49.8	-65.1	3.8	1.49e+00	0	43	104	0	71	20568
2026-01-01 21:23:13.56	70.35	9.00	-49.8	-64.3	3.8	1.49e+00	0	43	104	0	71	18851
2026-01-01 21:23:14.57	70.53	9.01	-48.9	-57.0	7.1	1.48e+00	0	42	104	0	69	9113
2026-01-01 21:23:15.57	70.70	9.02	-49.3	-58.8	5.9	1.10e+00	0	42	0	1048576	69	11206
2026-01-01 21:23:16.57	70.87	9.03	-49.6	-62.1	3.9	1.49e+00	0	42	104	1048576	70	15549
2026-01-01 21:23:17.57	71.04	9.04	-49.4	-61.0	4.5	2.56e-01	0	43	0	2097152	69	14384
2026-01-01 21:23:18.57	71.21	9.05	-48.8	-56.9	6.8	1.47e+00	0	43	0	2097152	69	8977
2026-01-01 21:23:19.58	71.39	9.06	-47.3	-52.5	11.3	8.88e-04	0	43	0	4194304	66	6477
2026-01-01 21:23:20.58	71.56	9.07	-47.3	-52.5	11.3	8.45e-04	0	43	0	5242880	66	6438
2026-01-01 21:23:21.58	71.73	9.08	-47.0	-51.8	12.0	7.10e-04	0	43	0	7340032	66	5937
2026-01-01 21:23:22.58	71.91	9.08	-46.7	-51.2	12.6	1.65e-04	0	43	0	9437184	65	5878
2026-01-01 21:23:23.58	72.08	9.09	-46.5	-50.8	13.1	4.80e-05	0	43	0	11534336	65	5601
2026-01-01 21:23:24.58	72.25	9.10	-46.6	-50.8	13.1	3.20e-05	0	43	0	12582912	65	5622
2026-01-01 21:23:25.58	72.43	9.11	-46.5	-50.6	13.3	3.50e-05	0	43	0	14680064	65	5473
2026-01-01 21:23:26.58	72.60	9.11	-46.3	-50.2	13.7	7.60e-06	0	43	0	16777216	64	5532
2026-01-01 21:23:27.58	72.77	9.12	-46.1	-49.8	14.1	3.80e-06	0	42	0	18874368	64	5313
2026-01-01 21:23:28.58	72.95	9.13	-46.0	-49.6	14.3	2.20e-06	0	42	0	20971520	63	5512
2026-01-01 21:23:29.58	73.12	9.13	-46.0	-49.7	14.3	0.00e+00	0	43	0	22020096	63	5552
2026-01-01 21:23:30.59	73.30	9.14	-46.0	-49.7	14.3	0.00e+00	0	42	0	24117248	63	5549
2026-01-01 21:23:31.59	73.47	9.15	-46.0	-49.7	14.3	1.50e-06	0	42	0	26214400	63	5558
2026-01-01 21:23:32.59	73.64	9.15	-46.1	-49.9	14.0	1.50e-06	0	42	0	28311552	63	5705
2026-01-01 21:23:33.59	73.82	9.16	-46.2	-50.0	14.0	3.80e-06	0	42	0	30408704	63	5738
2026-01-01 21:23:34.59	73.99	9.16	-46.1	-49.9	14.1	1.50e-06	0	43	0	31457280	63	5682
2026-01-01 21:23:35.59	74.16	9.17	-46.2	-50.1	13.8	1.50e-06	0	43	0	33554432	63	5802
2026-01-01 21:23:36.59	74.34	9.17	-46.2	-50.1	13.9	3.80e-06	0	43	0	35651584	63	5804
2026-01-01 21:23:37.60	74.51	9.18	-46.3	-50.2	13.7	5.30e-06	0	43	0	37748736	63	5883
2026-01-01 21:23:38.60	74.69	9.18	-46.3	-50.1	13.8	9.90e-06	0	43	0	39845888	63	5837
2026-01-01 21:23:39.60	74.86	9.19	-46.2	-50.0	14.0	4.50e-06	0	43	0	40894464	63	5753
2026-01-01 21:23:40.60	75.04	9.19	-46.1	-49.9	14.0	3.80e-06	0	43	0	42991616	63	5705
2026-01-01 21:23:41.60	75.21	9.19	-46.0	-49.7	14.2	0.00e+00	0	42	0	45088768	63	5572
2026-01-01 21:23:42.61	75.39	9.20	-46.1	-49.8	14.2	1.50e-06	0	43	0	47185920	63	5618
2026-01-01 21:23:43.61	75.56	9.20	-45.9	-49.4	14.5	0.00e+00	0	43	0	48234496	63	5389
2026-01-01 21:23:44.61	75.74	9.20	-45.7	-49.1	14.8	0.00e+00	0	43	0	50331648	63	5215
2026-01-01 21:23:45.61	75.91	9.21	-45.6	-49.0	14.9	7.00e-07	0	43	0	52428800	63	5157
2026-01-01 21:23:46.61	76.09	9.21	-45.5	-48.8	15.1	0.00e+00	0	42	0	54525952	63	5026
2026-01-01 21:23:47.62	76.26	9.21	-45.6	-48.9	15.0	0.00e+00	0	43	0	56623104	63	5093
2026-01-01 21:23:48.62	76.44	9.21	-45.5	-48.9	15.1	0.00e+00	0	43	0	57671680	63	5074
2026-01-01 21:23:49.62	76.61	9.21	-45.5	-48.9	15.0	0.00e+00	0	43	0	59768832	63	5089
2026-01-01 21:23:50.62	76.79	9.22	-45.5	-49.0	15.0	0.00e+00	0	43	0	61865984	62	5456
2026-01-01 21:23:51.62	76.96	9.22	-45.5	-49.0	15.0	0.00e+00	0	43	0	63963136	62	5418
2026-01-01 21:23:52.63	77.14	9.22	-45.4	-49.0	15.0	0.00e+00	0	43	0	66060288	62	5405
2026-01-01 21:23:53.63	77.31	9.22	-45.4	-48.9	15.0	0.00e+00	0	43	0	67108864	62	5394
2026-01-01 21:23:54.63	77.49	9.22	-45.4	-48.9	15.1	0.00e+00	0	43	0	69206016	62	5381
2026-01-01 21:23:55.63	77.66	9.22	-45.4	-48.8	15.1	0.00e+00	0	43	0	71303168	62	5315
2026-01-01 21:23:56.63	77.83	9.22	-45.3	-48.6	15.4	0.00e+00	0	43	0	73400320	62	5185
2026-01-01 21:23:57.63	78.01	9.22	-45.3	-48.6	15.4	0.00e+00	0	42	0	75497472	62	5162
2026-01-01 21:23:58.63	78.18	9.22	-45.2	-48.4	15.6	0.00e+00	0	42	0	76546048	62	5065
2026-01-01 21:23:59.63	78.36	9.22	-45.2	-48.3	15.7	0.00e+00	0	43	0	78643200	62	5020
2026-01-01 21:24:00.63	78.53	9.22	-45.1	-48.2	15.8	0.00e+00	0	43	0	80740352	62	4961
2026-01-01 21:24:01.63	78.71	9.22	-45.0	-48.2	15.8	0.00e+00	0	43	0	82837504	62	4935
2026-01-01 21:24:02.64	78.88	9.22	-45.1	-48.2	15.8	0.00e+00	0	43	0	84934656	62	4966
2026-01-01 21:24:03.63	79.06	9.22	-45.1	-48.3	15.6	0.00e+00	0	43	0	85983232	62	5034
2026-01-01 21:24:04.64	79.23	9.21	-45.2	-48.5	15.5	0.00e+00	0	42	0	88080384	62	5115
2026-01-01 21:24:05.64	79.41	9.21	-45.3	-48.6	15.4	0.00e+00	0	43	0	90177536	62	5186
2026-01-01 21:24:06.64	79.58	9.21	-45.3	-48.5	15.4	0.00e+00	0	42	0	92274688	62	5154
2026-01-01 21:24:07.64	79.76	9.21	-45.4	-48.7	15.3	0.00e+00	0	43	0	93323264	62	5228
2026-01-01 21:24:08.64	79.93	9.20	-45.3	-48.6	15.4	0.00e+00	0	43	0	95420416	62	5209
2026-01-01 21:24:09.64	80.11	9.20	-45.4	-48.7	15.3	0.00e+00	0	43	0	97517568	62	5248
2026-01-01 21:24:10.65	80.28	9.20	-45.4	-48.7	15.2	0.00e+00	0	42	0	99614720	62	5268
2026-01-01 21:24:11.65	80.46	9.20	-45.4	-48.7	15.3	0.00e+00	0	43	0	101711872	62	5262
2026-01-01 21:24:12.65	80.63	9.19	-45.4	-48.7	15.3	0.00e+00	0	43	0	102760448	62	5230
2026-01-01 21:24:13.65	80.81	9.19	-45.3	-48.7	15.3	0.00e+00	0	43	0	104857600	62	5220
2026-01-01 21:24:14.66	80.98	9.18	-45.3	-48.6	15.4	0.00e+00	0	43	0	106954752	62	5169
2026-01-01 21:24:15.66	81.16	9.18	-45.2	-48.6	15.4	0.00e+00	0	43	0	109051904	62	5168
2026-01-01 21:24:16.66	81.33	9.18	-45.3	-48.7	15.3	0.00e+00	0	43	0	111149056	62	5220
2026-01-01 21:24:17.66	81.51	9.17	-45.3	-48.7	15.3	0.00e+00	0	43	0	112197632	62	5221
2026-01-01 21:24:18.66	81.68	9.17	-45.2	-48.6	15.4	0.00e+00	0	43	0	114294784	62	5193
2026-01-01 21:24:19.67	81.86	9.16	-45.3	-48.7	15.3	0.00e+00	0	43	0	116391936	62	5250
2026-01-01 21:24:20.67	82.03	9.16	-45.4	-48.8	15.2	0.00e+00	0	42	0	118489088	62	5310
2026-01-01 21:24:21.67	82.20	9.15	-45.4	-48.8	15.2	0.00e+00	0	43	0	120586240	62	5299
2026-01-01 21:24:22.68	82.38	9.14	-45.4	-48.8	15.2	0.00e+00	0	43	0	121634816	62	5330
2026-01-01 21:24:23.68	82.55	9.14	-45.4	-48.8	15.2	0.00e+00	0	43	0	123731968	62	5295
2026-01-01 21:24:24.68	82.73	9.13	-45.4	-48.8	15.2	0.00e+00	0	42	0	125829120	62	5329
2026-01-01 21:24:25.69	82.90	9.13	-45.4	-48.8	15.2	0.00e+00	0	43	0	127926272	62	5325
2026-01-01 21:24:26.69	83.08	9.12	-45.3	-48.6	15.4	0.00e+00	0	43	0	130023424	62	5204
2026-01-01 21:24:27.69	83.25	9.11	-45.2	-48.4	15.5	0.00e+00	0	43	0	131072000	62	5082
2026-01-01 21:24:28.69	83.42	9.10	-45.1	-48.4	15.6	0.00e+00	0	43	0	133169152	62	5042
2026-01-01 21:24:29.69	83.60	9.10	-45.1	-48.3	15.6	0.00e+00	0	43	0	135266304	62	5030
2026-01-01 21:24:30.69	83.77	9.09	-45.1	-48.4	15.6	0.00e+00	0	43	0	137363456	62	5086
2026-01-01 21:24:31.70	83.94	9.08	-45.1	-48.4	15.6	0.00e+00	0	43	0	138412032	62	5078
2026-01-01 21:24:32.70	84.12	9.07	-45.1	-48.5	15.5	7.00e-07	0	43	0	140509184	62	5123
2026-01-01 21:24:33.70	84.29	9.07	-45.1	-48.5	15.4	0.00e+00	0	42	0	142606336	62	5154
2026-01-01 21:24:34.71	84.46	9.06	-45.1	-48.5	15.5	0.00e+00	0	43	0	144703488	62	5110
2026-01-01 21:24:35.71	84.64	9.05	-45.1	-48.6	15.4	0.00e+00	0	42	0	146800640	62	5162
2026-01-01 21:24:36.70	84.81	9.04	-45.2	-48.6	15.4	0.00e+00	0	43	0	147849216	62	5161
2026-01-01 21:24:37.71	84.98	9.03	-45.2	-48.6	15.4	0.00e+00	0	42	0	149946368	62	5176
2026-01-01 21:24:38.71	85.16	9.02	-45.2	-48.6	15.4	0.00e+00	0	43	0	152043520	62	5179
2026-01-01 21:24:39.71	85.33	9.01	-45.2	-48.6	15.3	0.00e+00	0	43	0	154140672	62	5213
2026-01-01 21:24:40.72	85.50	9.00	-47.3	-52.5	12.0	0.00e+00	0	43	0	156237824	65	6823
2026-01-01 21:24:41.72	85.67	8.99	-49.8	-65.4	3.8	1.49e+00	0	43	104	156237824	70	22740
2026-01-01 21:24:42.72	85.85	8.98	-49.9	-65.6	3.8	1.49e+00	0	42	104	156237824	70	23073
2026-01-01 21:24:43.72	86.02	8.97	-50.1	-65.7	3.8	1.49e+00	0	42	104	156237824	70	23421
2026-01-01 21:24:44.73	86.19	8.96	-50.1	-65.7	3.8	1.49e+00	0	43	104	156237824	70	23429
2026-01-01 21:24:45.73	86.36	8.95	-50.0	-65.8	3.8	1.49e+00	0	42	104	156237824	70	23588
2026-01-01 21:24:46.74	86.54	8.94	-50.1	-65.8	3.8	1.49e+00	0	43	104	156237824	70	23727
2026-01-01 21:24:47.74	86.71	8.93	-50.2	-65.8	3.8	1.49e+00	0	43	104	156237824	71	22392
2026-01-01 21:24:48.74	86.88	8.91	-50.2	-65.8	3.8	1.49e+00	0	43	104	156237824	71	22397
2026-01-01 21:24:49.75	87.05	8.90	-50.3	-65.8	3.8	1.49e+00	0	43	104	156237824	71	22491
2026-01-01 21:24:50.75	87.22	8.89	-50.4	-65.8	3.8	1.49e+00	0	43	104	156237824	71	22493
2026-01-01 21:24:51.76	87.40	8.88	-50.4	-65.9	3.8	1.49e+00	0	43	104	156237824	71	22547
2026-01-01 21:24:52.76	87.57	8.86	-50.4	-65.9	3.8	1.49e+00	0	43	104	156237824	71	22567
2026-01-01 21:24:53.76	87.74	8.85	-50.3	-65.9	3.8	1.49e+00	0	43	104	156237824	71	22550
2026-01-01 21:24:54.76	87.91	8.84	-50.4	-65.9	3.8	1.49e+00	0	42	104	156237824	71	22572
2026-01-01 21:24:55.77	88.08	8.83	-50.1	-65.9	3.8	1.49e+00	0	43	104	156237824	71	22570
2026-01-01 21:24:56.77	88.25	8.81	-50.3	-65.9	3.8	1.49e+00	0	43	104	156237824	71	22598
2026-01-01 21:24:57.77	88.42	8.80	-50.3	-65.9	3.8	1.49e+00	0	43	104	156237824	71	22616
2026-01-01 21:24:58.78	88.59	8.79	-50.3	-65.9	3.8	1.49e+00	0	43	104	156237824	71	22545
2026-01-01 21:24:59.78	88.76	8.77	-50.3	-65.9	3.8	1.49e+00	0	43	104	156237824	71	22656
2026-01-01 21:25:00.78	88.93	8.76	-50.4	-65.9	3.8	1.49e+00	0	43	104	156237824	71	22582
2026-01-01 21:25:01.79	89.10	8.74	-50.4	-65.9	3.8	1.49e+00	0	43	104	156237824	71	22533
2026-01-01 21:25:02.79	89.27	8.73	-50.4	-65.8	3.8	1.49e+00	0	43	104	156237824	71	22461
2026-01-01 21:25:03.79	89.44	8.71	-50.4	-65.8	3.8	1.49e+00	0	43	104	156237824	71	22518
2026-01-01 21:25:04.79	89.61	8.70	-50.4	-65.9	3.8	1.49e+00	0	43	104	156237824	71	22530
2026-01-01 21:25:05.80	89.78	8.68	-50.4	-65.8	3.8	1.49e+00	0	43	104	156237824	71	22508
2026-01-01 21:25:06.80	89.95	8.67	-50.4	-65.9	3.8	1.49e+00	0	43	104	156237824	71	22529
2026-01-01 21:25:07.80	90.12	8.65	-50.4	-65.8	3.8	1.49e+00	0	43	104	156237824	71	22428
2026-01-01 21:25:08.80	90.29	8.64	-50.4	-65.8	3.8	1.49e+00	0	43	104	156237824	71	22381
2026-01-01 21:25:09.80	90.46	8.62	-50.4	-65.8	3.8	1.49e+00	0	43	104	156237824	71	22495
2026-01-01 21:25:10.81	90.63	8.60	-50.4	-65.8	3.8	1.49e+00	0	43	104	156237824	71	22375
2026-01-01 21:25:11.81	90.79	8.59	-50.4	-65.8	3.8	1.49e+00	0	43	104	156237824	71	22508
2026-01-01 21:25:12.81	90.96	8.57	-50.4	-65.9	3.8	1.49e+00	0	43	104	156237824	71	22522
2026-01-01 21:25:13.82	91.13	8.55	-50.4	-65.8	3.8	1.49e+00	0	43	104	156237824	71	22443
2026-01-01 21:25:14.82	91.30	8.54	-50.4	-65.8	3.8	1.49e+00	0	43	104	156237824	71	22423
2026-01-01 21:25:15.82	91.46	8.52	-50.4	-65.8	3.8	1.49e+00	0	43	104	156237824	71	22519
2026-01-01 21:25:16.83	91.63	8.50	-50.4	-65.8	3.8	1.49e+00	0	43	104	156237824	71	22427
2026-01-01 21:25:17.83	91.80	8.48	-50.4	-65.8	3.8	1.49e+00	0	43	104	156237824	71	22430
2026-01-01 21:25:18.83	91.97	8.47	-50.4	-65.8	3.8	1.49e+00	0	43	104	156237824	71	22422
2026-01-01 21:25:19.84	92.13	8.45	-50.4	-65.8	3.8	1.49e+00	0	42	104	156237824	71	22415
2026-01-01 21:25:20.84	92.30	8.43	-50.4	-65.8	3.8	1.49e+00	0	43	104	156237824	71	22476
2026-01-01 21:25:21.84	92.47	8.41	-50.4	-65.8	3.8	1.49e+00	0	43	104	156237824	71	22442
2026-01-01 21:25:22.84	92.63	8.39	-50.4	-65.8	3.8	1.49e+00	0	43	104	156237824	71	22509
2026-01-01 21:25:23.85	92.80	8.37	-50.4	-65.8	3.8	1.49e+00	0	43	104	156237824	71	22477
2026-01-01 21:25:24.85	92.96	8.35	-50.4	-65.8	3.8	1.49e+00	0	43	104	156237824	71	22448
2026-01-01 21:25:25.85	93.13	8.34	-50.4	-65.8	3.8	1.49e+00	0	43	104	156237824	71	22478
2026-01-01 21:25:26.85	93.29	8.32	-50.4	-65.8	3.8	1.49e+00	0	43	104	156237824	71	22366
2026-01-01 21:25:27.85	93.46	8.30	-50.4	-65.8	3.8	1.49e+00	0	43	104	156237824	71	22381
2026-01-01 21:25:28.86	93.62	8.28	-50.4	-65.8	3.8	1.49e+00	0	43	104	156237824	71	22474
2026-01-01 21:25:29.86	93.79	8.26	-50.4	-65.9	3.8	1.49e+00	0	43	104	156237824	71	22521
2026-01-01 21:25:30.86	93.95	8.24	-50.4	-65.8	3.8	1.49e+00	0	43	104	156237824	71	22412
2026-01-01 21:25:31.86	94.12	8.22	-50.4	-65.8	3.8	1.49e+00	0	43	104	156237824	71	22490
2026-01-01 21:25:32.86	94.28	8.20	-50.4	-65.8	3.8	1.49e+00	0	43	104	156237824	71	22429
2026-01-01 21:25:33.86	94.44	8.17	-50.4	-65.8	3.8	1.49e+00	0	43	104	156237824	71	22429
2026-01-01 21:25:34.86	94.61	8.15	-50.4	-65.8	3.8	1.49e+00	0	43	104	156237824	71	22418
2026-01-01 21:25:35.86	94.77	8.13	-50.4	-65.8	3.8	1.49e+00	0	43	104	156237824	71	22469
2026-01-01 21:25:36.86	94.93	8.11	-50.4	-65.8	3.8	1.49e+00	0	43	104	156237824	71	22455
2026-01-01 21:25:37.87	95.10	8.09	-50.4	-65.8	3.8	1.49e+00	0	43	104	156237824	71	22465
2026-01-01 21:25:38.87	95.26	8.07	-50.4	-65.8	3.8	1.49e+00	0	43	104	156237824	71	22476
2026-01-01 21:25:39.87	95.42	8.05	-50.4	-65.8	3.8	1.49e+00	0	43	104	156237824	71	22447
2026-01-01 21:25:40.87	95.58	8.02	-50.4	-65.8	3.8	1.49e+00	0	43	104	156237824	71	22409
2026-01-01 21:25:41.87	95.74	8.00	-50.4	-65.8	3.8	1.49e+00	0	43	104	156237824	71	22435
2026-01-01 21:25:42.87	95.90	7.98	-50.4	-65.8	3.8	1.49e+00	0	42	104	156237824	71	22366
2026-01-01 21:25:43.87	96.07	7.96	-50.4	-65.8	3.8	1.49e+00	0	43	104	156237824	71	22415
2026-01-01 21:25:44.88	96.23	7.94	-50.4	-65.8	3.8	1.49e+00	0	43	104	156237824	71	22417
2026-01-01 21:25:45.88	96.39	7.91	-50.4	-65.8	3.8	1.49e+00	0	43	104	156237824	71	22301
2026-01-01 21:25:46.88	96.55	7.89	-50.4	-65.8	3.8	1.49e+00	0	43	104	156237824	71	22471
2026-01-01 21:25:47.89	96.71	7.87	-50.4	-65.8	3.8	1.49e+00	0	42	104	156237824	71	22396
2026-01-01 21:25:48.89	96.87	7.84	-50.4	-65.8	3.8	1.49e+00	0	43	104	156237824	71	22390
2026-01-01 21:25:49.89	97.03	7.82	-50.3	-65.8	3.8	1.49e+00	0	43	104	156237824	71	22459
2026-01-01 21:25:50.90	97.19	7.80	-50.4	-65.8	3.8	1.49e+00	0	43	104	156237824	71	22504
2026-01-01 21:25:51.90	97.35	7.77	-50.4	-65.8	3.8	1.49e+00	0	43	104	156237824	71	22386
2026-01-01 21:25:52.90	97.51	7.75	-50.4	-65.8	3.8	1.49e+00	0	43	104	156237824	71	22463
2026-01-01 21:25:53.91	97.67	7.72	-50.4	-65.8	3.8	1.49e+00	0	43	104	156237824	71	22450
2026-01-01 21:25:54.91	97.83	7.70	-50.4	-65.8	3.8	1.49e+00	0	43	104	156237824	71	22380
2026-01-01 21:25:55.92	97.99	7.67	-50.4	-65.8	3.8	1.49e+00	0	43	104	156237824	71	22402
2026-01-01 21:25:56.92	98.14	7.65	-50.4	-65.8	3.8	1.49e+00	0	43	104	156237824	71	22401
2026-01-01 21:25:57.92	98.30	7.62	-50.4	-65.8	3.8	1.49e+00	0	43	104	156237824	71	22436
2026-01-01 21:25:58.92	98.46	7.60	-50.4	-65.8	3.8	1.49e+00	0	43	104	156237824	71	22451
2026-01-01 21:25:59.92	98.62	7.57	-50.4	-65.8	3.8	1.49e+00	0	43	104	156237824	71	22434
2026-01-01 21:26:00.92	98.77	7.55	-50.4	-65.8	3.8	1.49e+00	0	43	104	156237824	71	22420
2026-01-01 21:26:01.93	98.93	7.52	-50.4	-65.8	3.8	1.49e+00	0	43	104	156237824	71	22472
2026-01-01 21:26:02.93	99.09	7.50	-50.4	-65.8	3.8	1.49e+00	0	43	104	156237824	71	22367
2026-01-01 21:26:03.93	99.24	7.47	-50.4	-65.8	3.8	1.49e+00	0	43	104	156237824	71	22516
2026-01-01 21:26:04.93	99.40	7.45	-50.4	-65.8	3.8	1.49e+00	0	43	104	156237824	71	22476
2026-01-01 21:26:05.93	99.55	7.42	-50.4	-65.8	3.8	1.49e+00	0	43	104	156237824	71	22398
2026-01-01 21:26:06.93	99.71	7.39	-50.4	-65.8	3.8	1.49e+00	0	43	104	156237824	71	22423
2026-01-01 21:26:07.93	99.86	7.37	-50.3	-65.8	3.8	1.49e+00	0	43	104	156237824	71	22335
2026-01-01 21:26:08.93	100.02	7.34	-50.4	-65.8	3.8	1.49e+00	0	43	104	156237824	71	22384
2026-01-01 21:26:09.93	100.17	7.31	-50.4	-65.8	3.8	1.49e+00	0	43	104	156237824	71	22432
2026-01-01 21:26:10.93	100.33	7.29	-50.4	-65.8	3.8	1.49e+00	0	43	104	156237824	71	22402
2026-01-01 21:26:11.94	100.48	7.26	-50.4	-65.8	3.8	1.49e+00	0	43	104	156237824	71	22454
2026-01-01 21:26:12.93	100.64	7.23	-50.4	-65.8	3.8	1.49e+00	0	43	104	156237824	71	22406
2026-01-01 21:26:13.94	100.79	7.21	-50.3	-65.8	3.8	1.49e+00	0	43	104	156237824	71	22388
2026-01-01 21:26:14.94	100.94	7.18	-50.4	-65.8	3.8	1.49e+00	0	43	104	156237824	71	22467
2026-01-01 21:26:15.94	101.10	7.15	-50.3	-65.8	3.8	1.49e+00	0	43	104	156237824	71	22422
2026-01-01 21:26:16.94	101.25	7.12	-50.3	-65.8	3.8	1.49e+00	0	43	104	156237824	71	22416
2026-01-01 21:26:17.94	101.40	7.09	-50.3	-65.8	3.8	1.49e+00	0	43	104	156237824	71	22438
2026-01-01 21:26:18.95	101.55	7.07	-50.4	-65.8	3.8	1.49e+00	0	43	104	156237824	71	22368
2026-01-01 21:26:19.95	101.70	7.04	-50.3	-65.8	3.8	1.49e+00	0	43	104	156237824	71	22437
2026-01-01 21:26:20.95	101.86	7.01	-50.3	-65.8	3.8	1.49e+00	0	43	104	156237824	71	22481
2026-01-01 21:26:21.95	102.01	6.98	-50.3	-65.8	3.8	1.49e+00	0	43	104	156237824	71	22398
2026-01-01 21:26:22.96	102.16	6.95	-50.3	-65.8	3.8	1.49e+00	0	43	104	156237824	71	22358
2026-01-01 21:26:23.96	102.31	6.92	-50.3	-65.8	3.8	1.49e+00	0	43	104	156237824	71	22448
2026-01-01 21:26:24.96	102.46	6.90	-50.3	-65.8	3.8	1.49e+00	0	43	104	156237824	71	22373
2026-01-01 21:26:25.96	102.61	6.87	-50.3	-65.8	3.8	1.49e+00	0	43	104	156237824	71	22477
2026-01-01 21:26:26.96	102.76	6.84	-50.3	-65.8	3.8	1.49e+00	0	43	104	156237824	71	22466
2026-01-01 21:26:27.96	102.91	6.81	-50.3	-65.8	3.8	1.49e+00	0	43	104	156237824	71	22433
2026-01-01 21:26:28.97	103.06	6.78	-50.3	-65.8	3.8	1.49e+00	0	43	104	156237824	71	22312
2026-01-01 21:26:29.97	103.21	6.75	-50.3	-65.8	3.8	1.49e+00	0	43	104	156237824	71	22344
2026-01-01 21:26:30.97	103.36	6.72	-50.3	-65.8	3.8	1.49e+00	0	43	104	156237824	71	22389
2026-01-01 21:26:31.97	103.50	6.69	-50.3	-65.8	3.8	1.49e+00	0	43	104	156237824	71	22379
2026-01-01 21:26:32.98	103.65	6.66	-50.3	-65.8	3.8	1.49e+00	0	43	104	156237824	71	22403
2026-01-01 21:26:33.98	103.80	6.63	-50.3	-65.8	3.8	1.49e+00	0	43	104	156237824	71	22405
2026-01-01 21:26:34.98	103.95	6.60	-50.3	-65.8	3.8	1.49e+00	0	43	104	156237824	71	22414
2026-01-01 21:26:35.98	104.10	6.57	-50.3	-65.8	3.8	1.49e+00	0	43	104	156237824	71	22417
2026-01-01 21:26:36.98	104.24	6.54	-50.3	-65.8	3.8	1.49e+00	0	43	104	156237824	71	22348
2026-01-01 21:26:37.99	104.39	6.51	-50.3	-65.8	3.8	1.49e+00	0	43	104	156237824	71	22440
2026-01-01 21:26:38.99	104.54	6.48	-50.3	-65.8	3.8	1.49e+00	0	43	104	156237824	71	22443
2026-01-01 21:26:39.99	104.68	6.45	-50.3	-65.8	3.8	1.49e+00	0	43	104	156237824	71	22424
2026-01-01 21:26:41.00	104.83	6.42	-50.3	-65.8	3.8	1.49e+00	0	43	104	156237824	71	22289
2026-01-01 21:26:42.00	104.97	6.38	-50.3	-65.8	3.8	1.49e+00	0	43	104	156237824	71	22417
2026-01-01 21:26:43.00	105.12	6.35	-50.3	-65.8	3.8	1.49e+00	0	43	104	156237824	71	22371
2026-01-01 21:26:44.00	105.26	6.32	-50.3	-65.8	3.8	1.49e+00	0	43	104	156237824	71	22377
2026-01-01 21:26:45.00	105.41	6.29	-50.3	-65.8	3.8	1.49e+00	0	43	104	156237824	71	22316
2026-01-01 21:26:46.00	105.55	6.26	-50.3	-65.8	3.8	1.49e+00	0	43	104	156237824	71	22351
2026-01-01 21:26:47.01	105.70	6.23	-50.3	-65.8	3.8	1.49e+00	0	43	104	156237824	71	22288
2026-01-01 21:26:48.01	105.84	6.20	-50.3	-65.8	3.8	1.49e+00	0	42	104	156237824	71	22355
2026-01-01 21:26:49.01	105.98	6.16	-50.3	-65.8	3.8	1.49e+00	0	43	104	156237824	71	22431
2026-01-01 21:26:50.01	106.13	6.13	-50.3	-65.8	3.8	1.49e+00	0	43	104	156237824	71	22404
2026-01-01 21:26:51.01	106.27	6.10	-50.3	-65.8	3.8	1.49e+00	0	43	104	156237824	71	22378
2026-01-01 21:26:52.02	106.41	6.07	-50.3	-65.8	3.8	1.49e+00	0	43	104	156237824	71	22344
2026-01-01 21:26:53.02	106.55	6.04	-50.3	-65.8	3.8	1.49e+00	0	43	104	156237824	71	22420
2026-01-01 21:26:54.02	106.70	6.00	-50.3	-65.8	3.8	1.49e+00	0	43	104	156237824	71	22402
2026-01-01 21:26:55.02	106.84	5.97	-50.3	-65.8	3.8	1.49e+00	0	43	104	156237824	71	22366
2026-01-01 21:26:56.03	106.98	5.94	-50.3	-65.8	3.8	1.49e+00	0	43	104	156237824	71	22436
2026-01-01 21:26:57.03	107.12	5.91	-50.3	-65.8	3.8	1.49e+00	0	43	104	156237824	71	22396
2026-01-01 21:26:58.03	107.26	5.87	-50.3	-65.8	3.8	1.49e+00	0	43	104	156237824	71	22390
2026-01-01 21:26:59.03	107.40	5.84	-50.3	-65.8	3.8	1.49e+00	0	43	104	156237824	71	22355
2026-01-01 21:27:00.04	107.54	5.81	-50.3	-65.8	3.8	1.49e+00	0	43	104	156237824	71	22440
2026-01-01 21:27:01.04	107.68	5.77	-50.3	-65.8	3.8	1.49e+00	0	43	104	156237824	71	22381
2026-01-01 21:27:02.04	107.82	5.74	-50.3	-65.8	3.8	1.49e+00	0	43	104	156237824	71	22441
2026-01-01 21:27:03.04	107.96	5.71	-50.3	-65.8	3.8	1.49e+00	0	43	104	156237824	71	22351
2026-01-01 21:27:04.04	108.10	5.67	-50.3	-65.8	3.8	1.49e+00	0	43	104	156237824	71	22388
2026-01-01 21:27:05.04	108.24	5.64	-50.3	-65.8	3.8	1.49e+00	0	43	104	156237824	71	22381
2026-01-01 21:27:06.05	108.38	5.61	-50.3	-65.8	3.8	1.49e+00	0	43	104	156237824	71	22411
2026-01-01 21:27:07.04	108.51	5.57	-50.3	-65.8	3.8	1.49e+00	0	43	104	156237824	71	22451
2026-01-01 21:27:08.05	108.65	5.54	-50.3	-65.8	3.8	1.49e+00	0	43	104	156237824	71	22358
2026-01-01 21:27:09.05	108.79	5.51	-50.3	-65.8	3.8	1.49e+00	0	43	104	156237824	71	22384
2026-01-01 21:27:10.05	108.92	5.47	-50.3	-65.8	3.8	1.49e+00	0	43	104	156237824	71	22371
2026-01-01 21:27:11.05	109.06	5.44	-50.3	-65.8	3.8	1.49e+00	0	43	104	156237824	71	22276
2026-01-01 21:27:12.05	109.20	5.40	-50.3	-65.8	3.8	1.49e+00	0	43	104	156237824	71	22356
2026-01-01 21:27:13.05	109.33	5.37	-50.3	-65.8	3.8	1.49e+00	0	43	104	156237824	71	22335
2026-01-01 21:27:14.06	109.47	5.33	-50.3	-65.8	3.8	1.49e+00	0	43	104	156237824	71	22324
2026-01-01 21:27:15.06	109.60	5.30	-50.3	-65.8	3.8	1.49e+00	0	43	104	156237824	71	22405
2026-01-01 21:27:16.07	109.74	5.27	-50.3	-65.8	3.8	1.49e+00	0	43	104	156237824	71	22398
2026-01-01 21:27:17.07	109.87	5.23	-50.3	-65.8	3.8	1.49e+00	0	43	104	156237824	71	22368
2026-01-01 21:27:18.07	110.01	5.20	-50.3	-65.8	3.8	1.49e+00	0	43	104	156237824	71	22313
2026-01-01 21:27:19.07	110.14	5.16	-50.3	-65.8	3.8	1.49e+00	0	43	104	156237824	71	22295
2026-01-01 21:27:20.08	110.28	5.13	-50.3	-65.8	3.8	1.49e+00	0	43	104	156237824	71	22444
2026-01-01 21:27:21.08	110.41	5.09	-50.3	-65.8	3.8	1.49e+00	0	43	104	156237824	71	22367
2026-01-01 21:27:22.09	110.55	5.06	-50.3	-65.8	3.8	1.49e+00	0	43	104	156237824	71	22389
2026-01-01 21:27:23.09	110.68	5.02	-50.3	-65.8	3.8	1.49e+00	0	43	104	156237824	71	22402
2026-01-01 21:27:24.09	110.81	4.99	-50.3	-65.8	3.8	1.49e+00	0	43	104	156237824	71	22352

#Closed at: 2026-01-01 21:27:25
#Recorded file [156 MB]: D:/Data/31040_260102_002029.dat