passes_logs/2026/01/01/T1/T1__20260101_225912_NOAA_20_JPSS-1_rec.log

#Pass ID: 20260101_225912_NOAA 20 (JPSS-1)
#Satellite: NOAA 20 (JPSS-1)
#Configuration: NOAA 20
#almurnet v.1.7.20251203
#Start time: 2026-01-01 22:59:13

#Version: 2.0.20230620
#Station: T1
#Location: 37.570604 lon 55.790049 lat
#TLE: 1 43013U 17073A   26001.30344297  .00000183  00000+0  10758-3 0  9995
#TLE: 2 43013  98.7621 302.3885 0001938  59.1624 300.9742 14.19532032420790

#Time	Az	El	Level	Level2	SNR	BER	BlckErr	Temp	State	Recorded	gain1	gain2
2026-01-01 22:59:13.92	21.56	5.09	-49.1	-65.2	3.8	1.49e+00	0	41	0	0	69	23456
2026-01-01 22:59:14.92	21.60	5.16	-49.1	-65.1	3.8	1.49e+00	0	41	104	0	68	24523
2026-01-01 22:59:15.92	21.64	5.23	-49.1	-65.1	3.8	1.49e+00	0	41	104	0	68	24582
2026-01-01 22:59:16.93	21.69	5.30	-49.1	-65.1	3.8	1.49e+00	0	41	104	0	68	24585
2026-01-01 22:59:17.93	21.73	5.37	-49.0	-65.1	3.8	1.49e+00	0	41	104	0	68	24619
2026-01-01 22:59:18.94	21.77	5.44	-49.0	-65.1	3.8	1.49e+00	0	41	104	0	68	24686
2026-01-01 22:59:19.94	21.82	5.51	-49.1	-65.1	3.8	1.49e+00	0	41	104	0	68	24687
2026-01-01 22:59:20.94	21.86	5.58	-49.1	-65.2	3.8	1.49e+00	0	41	104	0	68	24799
2026-01-01 22:59:21.95	21.91	5.65	-49.1	-65.2	3.8	1.49e+00	0	41	104	0	68	24857
2026-01-01 22:59:22.95	21.95	5.72	-49.0	-65.2	3.8	1.49e+00	0	41	104	0	68	24749
2026-01-01 22:59:23.96	22.00	5.79	-49.0	-65.2	3.8	1.49e+00	0	41	104	0	68	24779
2026-01-01 22:59:24.96	22.04	5.86	-49.1	-65.2	3.8	1.49e+00	0	41	104	0	68	24884
2026-01-01 22:59:25.97	22.08	5.93	-49.0	-65.2	3.8	1.49e+00	0	41	104	0	68	24848
2026-01-01 22:59:26.97	22.13	6.00	-49.0	-65.2	3.8	1.49e+00	0	41	104	0	68	24938
2026-01-01 22:59:27.97	22.17	6.07	-49.0	-65.2	3.8	1.49e+00	0	41	104	0	68	24785
2026-01-01 22:59:28.98	22.22	6.14	-49.0	-65.1	3.8	1.49e+00	0	41	104	0	68	24689
2026-01-01 22:59:29.98	22.27	6.22	-49.0	-65.1	3.8	1.49e+00	0	41	104	0	68	24638
2026-01-01 22:59:30.99	22.31	6.29	-49.0	-65.1	3.8	1.49e+00	0	41	104	0	68	24575
2026-01-01 22:59:31.99	22.36	6.36	-49.0	-65.1	3.8	1.49e+00	0	41	104	0	68	24429
2026-01-01 22:59:33.00	22.40	6.43	-49.0	-65.0	3.8	1.49e+00	0	41	104	0	68	24219
2026-01-01 22:59:34.00	22.45	6.50	-49.0	-64.9	3.8	1.49e+00	0	41	104	0	68	24002
2026-01-01 22:59:35.01	22.50	6.58	-49.0	-64.9	3.8	1.49e+00	0	42	104	0	68	23876
2026-01-01 22:59:36.01	22.54	6.65	-49.0	-64.8	3.8	1.49e+00	0	42	104	0	68	23593
2026-01-01 22:59:37.01	22.59	6.72	-49.0	-64.7	3.8	1.49e+00	0	41	104	0	68	23467
2026-01-01 22:59:38.02	22.64	6.79	-49.0	-64.7	3.8	1.49e+00	0	42	104	0	68	23396
2026-01-01 22:59:39.02	22.69	6.87	-49.0	-64.7	3.8	1.49e+00	0	42	104	0	68	23543
2026-01-01 22:59:40.03	22.73	6.94	-49.0	-64.8	3.8	1.49e+00	0	42	104	0	68	23668
2026-01-01 22:59:41.03	22.78	7.01	-49.0	-64.9	3.8	1.49e+00	0	41	104	0	68	23908
2026-01-01 22:59:42.04	22.83	7.09	-49.0	-65.0	3.8	1.49e+00	0	42	104	0	68	24174
2026-01-01 22:59:43.04	22.88	7.16	-49.1	-65.1	3.8	1.49e+00	0	42	104	0	68	24501
2026-01-01 22:59:44.05	22.93	7.24	-49.0	-65.2	3.8	1.49e+00	0	42	104	0	68	24768
2026-01-01 22:59:45.05	22.98	7.31	-49.1	-65.2	3.8	1.49e+00	0	42	104	0	68	24716
2026-01-01 22:59:46.48	23.05	7.42	-49.0	-65.1	3.8	1.49e+00	0	42	104	0	68	24564
2026-01-01 22:59:47.20	23.08	7.47	-49.0	-65.0	3.8	1.49e+00	0	42	104	0	68	24367
2026-01-01 22:59:48.49	23.14	7.57	-49.0	-64.7	3.8	1.49e+00	0	42	104	0	68	23511
2026-01-01 22:59:49.21	23.18	7.62	-49.0	-64.5	3.8	1.49e+00	0	42	104	0	68	22848
2026-01-01 22:59:50.50	23.24	7.72	-49.0	-63.8	3.8	1.49e+00	0	42	104	0	68	21214
2026-01-01 22:59:51.22	23.28	7.77	-48.9	-63.5	3.8	1.49e+00	0	42	104	0	68	20495
2026-01-01 22:59:52.51	23.35	7.87	-48.9	-62.9	3.8	1.49e+00	0	42	104	0	68	18952
2026-01-01 22:59:53.23	23.38	7.92	-48.9	-62.5	3.9	1.49e+00	0	42	104	0	68	18303
2026-01-01 22:59:54.57	23.45	8.03	-48.9	-62.0	4.1	1.44e+00	0	42	0	0	68	17139
2026-01-01 22:59:55.29	23.49	8.08	-48.9	-61.8	4.2	1.42e+00	0	42	0	0	68	16699
2026-01-01 22:59:56.64	23.56	8.18	-48.8	-61.5	4.2	1.39e+00	0	42	0	0	68	16219
2026-01-01 22:59:57.36	23.59	8.24	-48.8	-61.5	4.2	1.37e+00	0	42	0	0	68	16218
2026-01-01 22:59:58.71	23.66	8.34	-48.8	-61.5	4.2	1.38e+00	0	42	0	0	68	16234
2026-01-01 22:59:59.43	23.70	8.40	-48.8	-61.6	4.2	1.38e+00	0	42	0	0	68	16317
2026-01-01 23:00:00.79	23.77	8.50	-48.8	-61.5	4.2	1.38e+00	0	42	0	0	68	16253
2026-01-01 23:00:01.50	23.81	8.56	-48.8	-61.6	4.2	1.38e+00	0	42	0	0	68	16389
2026-01-01 23:00:02.86	23.88	8.67	-48.8	-61.2	4.3	1.36e+00	0	42	0	0	68	15726
2026-01-01 23:00:03.57	23.92	8.72	-48.8	-61.0	4.4	1.32e+00	0	42	0	1048576	68	15325
2026-01-01 23:00:04.87	23.99	8.82	-48.7	-60.4	4.6	1.00e+00	0	42	0	3145728	68	14228
2026-01-01 23:00:05.58	24.03	8.88	-48.7	-60.0	4.8	8.60e-01	0	42	0	4194304	68	13658
2026-01-01 23:00:06.87	24.10	8.98	-48.6	-59.3	5.2	6.60e-01	0	42	0	6291456	68	12528
2026-01-01 23:00:07.59	24.14	9.04	-48.6	-58.9	5.4	5.94e-01	0	42	0	8388608	68	12065
2026-01-01 23:00:08.88	24.21	9.14	-48.6	-59.6	5.0	5.36e-01	0	42	0	10485760	68	13030
2026-01-01 23:00:09.60	24.25	9.20	-49.0	-64.6	3.8	1.08e+00	0	42	104	11534336	68	23260
2026-01-01 23:00:10.89	24.32	9.30	-47.0	-52.5	11.1	7.63e-01	0	42	0	11534336	66	6475
2026-01-01 23:00:11.67	24.36	9.36	-47.8	-54.8	9.1	6.60e-03	0	42	0	12582912	66	8403
2026-01-01 23:00:13.28	24.45	9.49	-46.0	-50.3	13.7	2.07e-04	0	42	0	15728640	63	5990
2026-01-01 23:00:13.85	24.48	9.54	-45.9	-50.1	13.8	7.60e-06	0	42	0	16777216	63	5831
2026-01-01 23:00:15.67	24.58	9.68	-45.8	-49.9	14.0	3.80e-06	0	42	0	19922944	63	5716
2026-01-01 23:00:16.24	24.62	9.73	-45.6	-49.5	14.5	2.20e-06	0	42	0	20971520	63	5453
2026-01-01 23:00:17.84	24.71	9.86	-45.7	-49.6	14.4	7.00e-07	0	43	0	24117248	63	5483
2026-01-01 23:00:18.43	24.74	9.91	-45.6	-49.5	14.4	0.00e+00	0	42	0	25165824	63	5441
2026-01-01 23:00:20.00	24.83	10.04	-45.1	-48.8	15.2	0.00e+00	0	42	0	28311552	62	5287
2026-01-01 23:00:20.64	24.87	10.09	-45.1	-48.9	15.1	0.00e+00	0	42	0	29360128	62	5346
2026-01-01 23:00:22.10	24.95	10.21	-44.8	-48.4	15.5	0.00e+00	0	43	0	32505856	61	5380
2026-01-01 23:00:22.82	25.00	10.27	-44.9	-48.6	15.4	0.00e+00	0	42	0	33554432	61	5492
2026-01-01 23:00:24.23	25.08	10.38	-44.8	-48.4	15.6	0.00e+00	0	42	0	36700160	61	5371
2026-01-01 23:00:24.95	25.12	10.44	-44.6	-48.1	15.9	0.00e+00	0	42	0	37748736	61	5191
2026-01-01 23:00:26.24	25.20	10.55	-44.4	-47.8	16.1	0.00e+00	0	42	0	39845888	60	5340
2026-01-01 23:00:26.95	25.24	10.61	-44.5	-47.9	16.0	0.00e+00	0	42	0	40894464	60	5402
2026-01-01 23:00:28.24	25.32	10.72	-44.4	-47.9	16.1	0.00e+00	0	43	0	44040192	60	5355
2026-01-01 23:00:28.96	25.36	10.78	-44.5	-47.9	16.1	0.00e+00	0	42	0	45088768	60	5371
2026-01-01 23:00:30.25	25.44	10.89	-44.5	-47.9	16.1	0.00e+00	0	42	0	47185920	60	5348
2026-01-01 23:00:30.97	25.48	10.95	-44.6	-47.9	16.2	0.00e+00	0	42	0	49283072	60	5350
2026-01-01 23:00:32.52	25.58	11.08	-44.5	-47.7	16.3	0.00e+00	0	42	0	51380224	60	5268
2026-01-01 23:00:33.24	25.62	11.14	-44.5	-47.7	16.4	0.00e+00	0	42	0	53477376	60	5238
2026-01-01 23:00:34.57	25.71	11.26	-44.4	-47.6	16.4	0.00e+00	0	42	0	55574528	60	5212
2026-01-01 23:00:35.56	25.77	11.34	-44.4	-47.6	16.4	0.00e+00	0	42	0	57671680	60	5198
2026-01-01 23:00:36.88	25.85	11.46	-44.4	-47.6	16.5	0.00e+00	0	42	0	59768832	60	5160
2026-01-01 23:00:37.60	25.90	11.52	-44.4	-47.5	16.6	0.00e+00	0	42	0	60817408	60	5144
2026-01-01 23:00:38.89	25.98	11.63	-44.4	-47.5	16.6	0.00e+00	0	42	0	63963136	60	5111
2026-01-01 23:00:39.60	26.03	11.69	-44.3	-47.3	16.7	0.00e+00	0	43	0	65011712	60	5030
2026-01-01 23:00:40.89	26.11	11.81	-44.4	-47.3	16.7	0.00e+00	0	42	0	67108864	60	5038
2026-01-01 23:00:41.61	26.16	11.87	-44.3	-47.3	16.8	0.00e+00	0	43	0	69206016	60	4986
2026-01-01 23:00:42.90	26.24	11.98	-44.3	-47.2	16.9	0.00e+00	0	42	0	71303168	60	4951
2026-01-01 23:00:43.62	26.29	12.05	-44.3	-47.2	16.9	0.00e+00	0	43	0	72351744	60	4956
2026-01-01 23:00:44.92	26.37	12.16	-44.3	-47.2	16.9	0.00e+00	0	42	0	75497472	60	4965
2026-01-01 23:00:45.64	26.42	12.23	-44.3	-47.1	17.0	0.00e+00	0	42	0	76546048	60	4914
2026-01-01 23:00:46.93	26.51	12.34	-44.3	-47.1	17.0	0.00e+00	0	42	0	78643200	60	4922
2026-01-01 23:00:47.66	26.55	12.41	-44.3	-47.2	16.9	0.00e+00	0	42	0	79691776	60	4953
2026-01-01 23:00:48.94	26.64	12.52	-44.4	-47.3	16.8	0.00e+00	0	43	0	82837504	60	5029
2026-01-01 23:00:49.66	26.69	12.59	-44.4	-47.3	16.8	0.00e+00	0	43	0	83886080	60	5033
2026-01-01 23:00:50.95	26.78	12.70	-44.2	-47.1	17.0	0.00e+00	0	42	0	85983232	60	4874
2026-01-01 23:00:51.66	26.83	12.77	-44.2	-47.1	17.1	0.00e+00	0	42	0	88080384	60	4871
2026-01-01 23:00:52.95	26.92	12.88	-44.2	-47.2	16.9	0.00e+00	0	43	0	90177536	60	4946
2026-01-01 23:00:53.68	26.97	12.95	-44.1	-47.0	17.1	0.00e+00	0	42	0	91226112	60	4853
2026-01-01 23:00:54.97	27.06	13.07	-44.1	-47.0	17.1	0.00e+00	0	43	0	94371840	60	4819
2026-01-01 23:00:55.75	27.11	13.14	-44.0	-46.9	17.2	0.00e+00	0	43	0	95420416	60	4803
2026-01-01 23:00:57.04	27.20	13.26	-44.1	-47.0	17.1	0.00e+00	0	43	0	97517568	60	4824
2026-01-01 23:00:57.85	27.26	13.33	-44.0	-46.9	17.2	0.00e+00	0	43	0	99614720	59	5054
2026-01-01 23:00:59.32	27.37	13.47	-44.0	-46.9	17.2	0.00e+00	0	43	0	101711872	59	5058
2026-01-01 23:01:00.03	27.42	13.54	-44.1	-46.9	17.2	0.00e+00	0	43	0	103809024	59	5066
2026-01-01 23:01:01.32	27.51	13.66	-43.9	-46.7	17.4	0.00e+00	0	43	0	105906176	59	4958
2026-01-01 23:01:02.04	27.56	13.73	-43.9	-46.7	17.3	0.00e+00	0	43	0	106954752	59	4980
2026-01-01 23:01:03.33	27.66	13.85	-43.9	-46.7	17.3	0.00e+00	0	43	0	109051904	59	4959
2026-01-01 23:01:04.04	27.71	13.91	-43.9	-46.8	17.3	0.00e+00	0	42	0	111149056	59	4992
2026-01-01 23:01:05.34	27.81	14.04	-43.9	-46.7	17.3	0.00e+00	0	43	0	113246208	59	4978
2026-01-01 23:01:06.16	27.87	14.12	-43.9	-46.8	17.3	0.00e+00	0	43	0	114294784	59	5002
2026-01-01 23:01:07.63	27.98	14.26	-43.9	-46.7	17.4	0.00e+00	0	43	0	117440512	59	4944
2026-01-01 23:01:08.35	28.03	14.33	-43.9	-46.7	17.4	0.00e+00	0	43	0	118489088	59	4929
2026-01-01 23:01:09.64	28.13	14.45	-44.0	-46.8	17.3	0.00e+00	0	43	0	121634816	59	4998
2026-01-01 23:01:10.36	28.19	14.52	-43.9	-46.7	17.4	0.00e+00	0	43	0	122683392	59	4929
2026-01-01 23:01:11.64	28.28	14.64	-43.8	-46.6	17.5	0.00e+00	0	42	0	124780544	59	4891
2026-01-01 23:01:12.36	28.34	14.71	-43.8	-46.5	17.6	0.00e+00	0	43	0	126877696	59	4851
2026-01-01 23:01:13.65	28.44	14.84	-43.8	-46.5	17.6	0.00e+00	0	43	0	128974848	59	4846
2026-01-01 23:01:14.36	28.50	14.91	-43.9	-46.6	17.5	0.00e+00	0	43	0	130023424	59	4883
2026-01-01 23:01:15.65	28.60	15.04	-43.7	-46.4	17.7	0.00e+00	0	43	0	132120576	59	4784
2026-01-01 23:01:16.37	28.66	15.11	-43.7	-46.4	17.7	0.00e+00	0	43	0	134217728	59	4787
2026-01-01 23:01:17.66	28.76	15.24	-43.7	-46.4	17.7	0.00e+00	0	43	0	136314880	59	4769
2026-01-01 23:01:18.37	28.82	15.31	-43.7	-46.3	17.8	0.00e+00	0	43	0	137363456	59	4746
2026-01-01 23:01:19.74	28.93	15.44	-43.7	-46.3	17.8	0.00e+00	0	43	0	140509184	59	4729
2026-01-01 23:01:20.46	28.99	15.52	-43.7	-46.3	17.8	0.00e+00	0	43	0	141557760	59	4735
2026-01-01 23:01:21.75	29.09	15.65	-43.7	-46.3	17.8	0.00e+00	0	42	0	143654912	59	4710
2026-01-01 23:01:22.46	29.15	15.72	-43.7	-46.3	17.8	0.00e+00	0	42	0	145752064	59	4755
2026-01-01 23:01:23.75	29.26	15.85	-43.8	-46.4	17.7	0.00e+00	0	43	0	147849216	59	4800
2026-01-01 23:01:24.47	29.32	15.92	-43.8	-46.3	17.8	0.00e+00	0	43	0	148897792	59	4752
2026-01-01 23:01:26.06	29.45	16.08	-43.8	-46.4	17.7	0.00e+00	0	43	0	152043520	59	4790
2026-01-01 23:01:26.65	29.50	16.14	-43.8	-46.4	17.7	0.00e+00	0	43	0	153092096	59	4780
2026-01-01 23:01:28.23	29.64	16.31	-43.9	-46.5	17.6	0.00e+00	0	43	0	156237824	59	4853
2026-01-01 23:01:28.97	29.70	16.38	-44.0	-46.6	17.5	0.00e+00	0	43	0	157286400	59	4900
2026-01-01 23:01:30.26	29.81	16.52	-44.0	-46.6	17.5	0.00e+00	0	43	0	160432128	59	4925
2026-01-01 23:01:30.98	29.88	16.59	-44.1	-46.8	17.4	0.00e+00	0	43	0	161480704	59	4984
2026-01-01 23:01:32.26	29.99	16.73	-44.0	-46.6	17.5	0.00e+00	0	43	0	163577856	59	4919
2026-01-01 23:01:32.98	30.05	16.80	-44.1	-46.8	17.4	0.00e+00	0	43	0	164626432	59	4996
2026-01-01 23:01:34.34	30.18	16.95	-44.1	-46.8	17.4	0.00e+00	0	43	0	167772160	59	5013
2026-01-01 23:01:35.05	30.24	17.02	-44.2	-46.9	17.3	0.00e+00	0	43	0	168820736	59	5068
2026-01-01 23:01:36.42	30.36	17.17	-44.1	-46.8	17.4	0.00e+00	0	43	0	171966464	59	5020
2026-01-01 23:01:37.13	30.43	17.24	-44.1	-46.8	17.4	0.00e+00	0	43	0	173015040	59	5018
2026-01-01 23:01:38.43	30.55	17.38	-44.1	-46.9	17.3	0.00e+00	0	43	0	175112192	59	5042
2026-01-01 23:01:39.14	30.61	17.46	-44.2	-47.0	17.2	0.00e+00	0	43	0	176160768	59	5122
2026-01-01 23:01:40.43	30.73	17.60	-44.3	-47.0	17.2	0.00e+00	0	43	0	179306496	59	5121
2026-01-01 23:01:41.15	30.80	17.67	-44.2	-47.0	17.2	0.00e+00	0	43	0	180355072	59	5106
2026-01-01 23:01:42.44	30.92	17.81	-44.2	-46.9	17.2	0.00e+00	0	43	0	182452224	59	5089
2026-01-01 23:01:43.15	30.99	17.89	-44.2	-47.0	17.2	0.00e+00	0	43	0	184549376	59	5103
2026-01-01 23:01:44.45	31.11	18.03	-44.3	-47.0	17.2	0.00e+00	0	43	0	186646528	59	5135
2026-01-01 23:01:45.16	31.18	18.11	-44.3	-47.0	17.2	0.00e+00	0	43	0	187695104	59	5151
2026-01-01 23:01:46.45	31.31	18.25	-44.3	-47.0	17.2	0.00e+00	0	43	0	190840832	59	5138
2026-01-01 23:01:47.16	31.38	18.33	-44.3	-47.0	17.2	0.00e+00	0	43	0	191889408	59	5117
2026-01-01 23:01:48.45	31.50	18.48	-44.3	-47.0	17.2	0.00e+00	0	43	0	193986560	59	5131
2026-01-01 23:01:49.17	31.57	18.56	-44.4	-47.1	17.1	0.00e+00	0	43	0	195035136	59	5187
2026-01-01 23:01:50.46	31.70	18.70	-44.4	-47.2	17.0	0.00e+00	0	43	0	198180864	59	5226
2026-01-01 23:01:51.17	31.77	18.78	-44.4	-47.1	17.1	0.00e+00	0	43	0	199229440	59	5203
2026-01-01 23:01:52.46	31.90	18.93	-44.4	-47.2	17.0	0.00e+00	0	43	0	201326592	59	5235
2026-01-01 23:01:53.18	31.98	19.01	-44.5	-47.2	17.0	0.00e+00	0	43	0	203423744	59	5277
2026-01-01 23:01:54.58	32.12	19.17	-44.4	-47.2	17.0	0.00e+00	0	43	0	205520896	59	5262
2026-01-01 23:01:55.30	32.19	19.25	-44.4	-47.2	17.0	0.00e+00	0	42	0	206569472	59	5246
2026-01-01 23:01:56.63	32.33	19.40	-44.4	-47.1	17.1	0.00e+00	0	43	0	209715200	59	5217
2026-01-01 23:01:57.65	32.44	19.52	-44.3	-47.1	17.1	0.00e+00	0	43	0	211812352	59	5198
2026-01-01 23:01:58.66	32.55	19.64	-44.2	-47.0	17.2	0.00e+00	0	43	0	212860928	59	5118
2026-01-01 23:01:59.66	32.65	19.75	-44.2	-47.0	17.2	0.00e+00	0	43	0	214958080	59	5102
2026-01-01 23:02:00.66	32.76	19.87	-44.1	-46.9	17.3	0.00e+00	0	43	0	217055232	59	5056
2026-01-01 23:02:01.67	32.87	19.99	-44.1	-46.9	17.4	0.00e+00	0	43	0	219152384	59	5048
2026-01-01 23:02:02.67	32.98	20.11	-44.1	-46.9	17.3	0.00e+00	0	43	0	220200960	59	5050
2026-01-01 23:02:03.67	33.09	20.22	-44.1	-46.8	17.4	0.00e+00	0	43	0	222298112	59	5036
2026-01-01 23:02:04.67	33.20	20.34	-44.1	-46.8	17.4	0.00e+00	0	43	0	224395264	59	5032
2026-01-01 23:02:05.75	33.32	20.47	-44.2	-46.9	17.4	0.00e+00	0	43	0	226492416	59	5055
2026-01-01 23:02:06.61	33.42	20.57	-44.1	-46.8	17.4	0.00e+00	0	43	0	228589568	59	5006
2026-01-01 23:02:07.99	33.57	20.74	-44.1	-46.8	17.5	0.00e+00	0	42	0	230686720	59	4985
2026-01-01 23:02:08.70	33.65	20.83	-44.1	-46.7	17.5	0.00e+00	0	43	0	231735296	59	4973
2026-01-01 23:02:10.23	33.83	21.01	-44.1	-46.8	17.4	0.00e+00	0	43	0	234881024	59	5024
2026-01-01 23:02:10.95	33.91	21.10	-44.2	-46.9	17.4	0.00e+00	0	43	0	235929600	59	5047
2026-01-01 23:02:12.23	34.06	21.25	-44.2	-46.8	17.4	0.00e+00	0	43	0	239075328	59	5040
2026-01-01 23:02:12.95	34.15	21.34	-44.1	-46.7	17.5	0.00e+00	0	43	0	240123904	59	4968
2026-01-01 23:02:14.48	34.33	21.53	-44.1	-46.7	17.5	0.00e+00	0	43	0	243269632	59	4959
2026-01-01 23:02:15.46	34.45	21.65	-44.0	-46.7	17.6	0.00e+00	0	43	0	244318208	59	4940
2026-01-01 23:02:16.47	34.57	21.78	-44.0	-46.6	17.6	0.00e+00	0	43	0	246415360	59	4926
2026-01-01 23:02:17.47	34.69	21.90	-44.1	-46.7	17.5	0.00e+00	0	43	0	248512512	59	4955
2026-01-01 23:02:18.47	34.81	22.03	-44.2	-46.8	17.4	0.00e+00	0	43	0	250609664	59	5025
2026-01-01 23:02:19.48	34.94	22.15	-44.2	-46.9	17.4	0.00e+00	0	43	0	252706816	59	5071
2026-01-01 23:02:20.48	35.06	22.28	-44.3	-47.0	17.3	0.00e+00	0	43	0	253755392	59	5104
2026-01-01 23:02:21.48	35.19	22.41	-44.3	-47.0	17.3	0.00e+00	0	43	0	255852544	59	5135
2026-01-01 23:02:22.48	35.31	22.53	-44.2	-46.9	17.4	0.00e+00	0	43	0	257949696	59	5069
2026-01-01 23:02:23.49	35.44	22.66	-44.3	-47.0	17.3	0.00e+00	0	42	0	260046848	59	5123
2026-01-01 23:02:24.55	35.58	22.80	-44.2	-46.9	17.4	0.00e+00	0	43	0	262144000	59	5052
2026-01-01 23:02:25.41	35.69	22.91	-44.3	-47.0	17.3	0.00e+00	0	43	0	263192576	59	5113
2026-01-01 23:02:26.56	35.84	23.06	-44.2	-46.9	17.4	0.00e+00	0	43	0	265289728	59	5064
2026-01-01 23:02:27.42	35.95	23.17	-44.1	-46.8	17.4	0.00e+00	0	43	0	267386880	59	5019
2026-01-01 23:02:28.57	36.11	23.32	-44.0	-46.6	17.6	0.00e+00	0	43	0	269484032	59	4925
2026-01-01 23:02:29.43	36.22	23.43	-44.1	-46.7	17.5	0.00e+00	0	43	0	270532608	59	4981
2026-01-01 23:02:30.57	36.38	23.58	-44.1	-46.8	17.5	0.00e+00	0	43	0	272629760	59	4992
2026-01-01 23:02:31.43	36.49	23.69	-44.1	-46.7	17.6	0.00e+00	0	43	0	274726912	59	4968
2026-01-01 23:02:32.58	36.65	23.85	-44.1	-46.8	17.5	0.00e+00	0	43	0	276824064	59	4987
2026-01-01 23:02:33.44	36.77	23.96	-44.1	-46.7	17.6	0.00e+00	0	43	0	278921216	59	4973
2026-01-01 23:02:34.58	36.93	24.11	-44.1	-46.6	17.6	0.00e+00	0	43	0	281018368	59	4917
2026-01-01 23:02:35.44	37.05	24.23	-44.1	-46.8	17.5	0.00e+00	0	43	0	282066944	59	4990
2026-01-01 23:02:36.68	37.23	24.39	-44.2	-46.8	17.5	0.00e+00	0	43	0	284164096	59	5020
2026-01-01 23:02:37.54	37.35	24.51	-44.2	-46.8	17.4	0.00e+00	0	43	0	286261248	59	5034
2026-01-01 23:02:38.68	37.51	24.66	-44.0	-46.7	17.6	0.00e+00	0	43	0	288358400	59	4936
2026-01-01 23:02:40.00	37.71	24.84	-44.1	-46.7	17.5	0.00e+00	0	43	0	290455552	59	4982
2026-01-01 23:02:40.90	37.84	24.97	-44.0	-46.6	17.7	0.00e+00	0	43	0	292552704	59	4894
2026-01-01 23:02:41.92	37.99	25.10	-43.9	-46.5	17.7	0.00e+00	0	43	0	294649856	59	4863
2026-01-01 23:02:42.92	38.14	25.24	-43.9	-46.5	17.8	0.00e+00	0	43	0	295698432	59	4856
2026-01-01 23:02:43.92	38.29	25.38	-44.0	-46.6	17.7	0.00e+00	0	43	0	297795584	59	4872
2026-01-01 23:02:44.92	38.44	25.52	-43.9	-46.5	17.7	0.00e+00	0	43	0	299892736	59	4857
2026-01-01 23:02:45.93	38.60	25.66	-44.0	-46.5	17.7	0.00e+00	0	43	0	301989888	59	4866
2026-01-01 23:02:46.93	38.75	25.80	-44.0	-46.6	17.6	0.00e+00	0	43	0	304087040	59	4921
2026-01-01 23:02:47.95	38.91	25.94	-44.0	-46.6	17.7	0.00e+00	0	43	0	305135616	59	4894
2026-01-01 23:02:48.98	39.07	26.09	-44.1	-46.7	17.6	0.00e+00	0	43	0	307232768	59	4934
2026-01-01 23:02:49.98	39.23	26.23	-44.2	-46.9	17.4	0.00e+00	0	43	0	309329920	59	5055
2026-01-01 23:02:50.98	39.39	26.37	-44.2	-46.9	17.4	0.00e+00	0	43	0	311427072	59	5058
2026-01-01 23:02:52.16	39.59	26.54	-44.4	-47.1	17.2	0.00e+00	0	43	0	313524224	59	5182
2026-01-01 23:02:53.05	39.73	26.66	-44.5	-47.2	17.1	0.00e+00	0	43	0	315621376	59	5254
2026-01-01 23:02:54.08	39.90	26.81	-44.6	-47.4	16.9	0.00e+00	0	43	0	316669952	59	5351
2026-01-01 23:02:55.08	40.07	26.96	-44.6	-47.3	17.0	0.00e+00	0	43	0	318767104	59	5330
2026-01-01 23:02:56.09	40.24	27.10	-44.7	-47.5	16.9	0.00e+00	0	43	0	320864256	59	5404
2026-01-01 23:02:57.09	40.41	27.25	-44.7	-47.6	16.8	0.00e+00	0	43	0	322961408	60	5162
2026-01-01 23:02:58.46	40.64	27.45	-44.8	-47.7	16.7	0.00e+00	0	43	0	325058560	60	5225
2026-01-01 23:02:59.21	40.77	27.56	-44.8	-47.7	16.7	0.00e+00	0	43	0	327155712	60	5255
2026-01-01 23:03:00.50	40.99	27.75	-44.8	-47.6	16.8	0.00e+00	0	43	0	329252864	60	5199
2026-01-01 23:03:01.22	41.12	27.85	-44.7	-47.6	16.8	0.00e+00	0	43	0	330301440	60	5167
2026-01-01 23:03:02.86	41.41	28.09	-44.9	-47.8	16.6	0.00e+00	0	43	0	333447168	60	5310
2026-01-01 23:03:03.43	41.51	28.18	-45.0	-47.9	16.5	0.00e+00	0	43	0	334495744	60	5377
2026-01-01 23:03:05.05	41.81	28.42	-45.1	-48.1	16.4	0.00e+00	0	43	0	337641472	60	5470
2026-01-01 23:03:05.63	41.91	28.51	-45.2	-48.2	16.2	0.00e+00	0	43	0	338690048	61	5264
2026-01-01 23:03:07.22	42.21	28.74	-45.3	-48.3	16.1	0.00e+00	0	42	0	341835776	61	5333
2026-01-01 23:03:07.79	42.31	28.83	-45.4	-48.4	16.0	0.00e+00	0	43	0	342884352	61	5382
2026-01-01 23:03:09.39	42.62	29.07	-45.4	-48.5	15.9	0.00e+00	0	42	0	346030080	61	5412
2026-01-01 23:03:09.96	42.72	29.16	-45.5	-48.6	15.8	0.00e+00	0	42	0	347078656	61	5498
2026-01-01 23:03:11.60	43.04	29.41	-45.8	-49.1	15.3	0.00e+00	0	43	0	350224384	62	5481
2026-01-01 23:03:12.18	43.15	29.50	-45.9	-49.2	15.1	0.00e+00	0	43	0	351272960	62	5584
2026-01-01 23:03:13.80	43.47	29.74	-45.9	-49.3	15.1	0.00e+00	0	42	0	354418688	62	5599
2026-01-01 23:03:14.37	43.58	29.83	-45.9	-49.2	15.2	0.00e+00	0	43	0	355467264	62	5587
2026-01-01 23:03:15.95	43.90	30.07	-45.6	-48.8	15.6	0.00e+00	0	43	0	358612992	62	5338
2026-01-01 23:03:16.52	44.02	30.16	-45.7	-48.9	15.5	0.00e+00	0	43	0	359661568	62	5348
2026-01-01 23:03:18.10	44.34	30.41	-45.5	-48.6	15.8	0.00e+00	0	43	0	361758720	62	5203
2026-01-01 23:03:18.91	44.51	30.53	-45.5	-48.6	15.8	0.00e+00	0	43	0	363855872	62	5171
2026-01-01 23:03:20.05	44.74	30.71	-45.4	-48.5	15.9	0.00e+00	0	42	0	365953024	62	5142
2026-01-01 23:03:20.91	44.93	30.85	-45.3	-48.3	16.1	0.00e+00	0	42	0	367001600	62	5030
2026-01-01 23:03:22.06	45.17	31.03	-45.2	-48.2	16.2	0.00e+00	0	42	0	369098752	62	4946
2026-01-01 23:03:22.92	45.35	31.16	-45.2	-48.3	16.1	0.00e+00	0	43	0	371195904	62	5004
2026-01-01 23:03:24.06	45.60	31.34	-45.3	-48.4	16.0	0.00e+00	0	43	0	373293056	62	5074
2026-01-01 23:03:24.92	45.79	31.48	-45.3	-48.3	16.1	0.00e+00	0	43	0	375390208	62	5036
2026-01-01 23:03:26.07	46.04	31.66	-45.2	-48.2	16.2	0.00e+00	0	42	0	377487360	62	4972
2026-01-01 23:03:27.00	46.25	31.81	-45.2	-48.2	16.3	0.00e+00	0	43	0	378535936	62	4950
2026-01-01 23:03:28.01	46.48	31.97	-45.0	-48.0	16.5	0.00e+00	0	42	0	380633088	62	4816
2026-01-01 23:03:29.01	46.71	32.13	-44.8	-47.7	16.7	0.00e+00	0	42	0	382730240	61	4960
2026-01-01 23:03:30.01	46.94	32.29	-45.0	-47.9	16.5	0.00e+00	0	42	0	384827392	61	5057
2026-01-01 23:03:31.01	47.17	32.45	-45.0	-47.9	16.5	0.00e+00	0	42	0	385875968	61	5050
2026-01-01 23:03:32.02	47.41	32.61	-45.0	-47.9	16.5	0.00e+00	0	43	0	387973120	61	5072
2026-01-01 23:03:33.02	47.64	32.77	-44.9	-47.8	16.6	0.00e+00	0	43	0	390070272	61	5009
2026-01-01 23:03:34.02	47.88	32.94	-45.0	-47.9	16.6	0.00e+00	0	43	0	392167424	61	5052
2026-01-01 23:03:35.03	48.12	33.10	-44.9	-47.8	16.7	0.00e+00	0	43	0	394264576	61	4987
2026-01-01 23:03:36.03	48.37	33.26	-44.9	-47.8	16.6	0.00e+00	0	43	0	396361728	61	5040
2026-01-01 23:03:37.03	48.61	33.42	-44.8	-47.6	16.8	0.00e+00	0	43	0	397410304	61	4904
2026-01-01 23:03:38.03	48.86	33.59	-44.8	-47.6	16.8	0.00e+00	0	42	0	399507456	61	4918
2026-01-01 23:03:39.15	49.14	33.77	-44.9	-47.7	16.7	0.00e+00	0	43	0	401604608	61	4962
2026-01-01 23:03:40.03	49.37	33.91	-44.9	-47.8	16.6	0.00e+00	0	43	0	403701760	61	5012
2026-01-01 23:03:41.35	49.71	34.13	-45.1	-48.1	16.3	0.00e+00	0	42	0	405798912	61	5173
2026-01-01 23:03:42.06	49.89	34.25	-45.1	-48.1	16.3	0.00e+00	0	42	0	406847488	61	5197
2026-01-01 23:03:43.54	50.28	34.49	-45.0	-47.9	16.5	0.00e+00	0	43	0	409993216	61	5085
2026-01-01 23:03:44.26	50.47	34.61	-44.9	-47.9	16.5	0.00e+00	0	43	0	411041792	61	5067
2026-01-01 23:03:45.61	50.83	34.83	-44.8	-47.8	16.7	0.00e+00	0	42	0	414187520	61	4984
2026-01-01 23:03:46.32	51.02	34.95	-44.8	-47.7	16.8	0.00e+00	0	43	0	415236096	61	4942
2026-01-01 23:03:47.68	51.39	35.17	-45.1	-48.1	16.4	0.00e+00	0	43	0	417333248	61	5163
2026-01-01 23:03:48.67	51.66	35.34	-45.2	-48.2	16.2	0.00e+00	0	42	0	419430400	61	5231
2026-01-01 23:03:49.67	51.94	35.50	-45.4	-48.4	16.0	0.00e+00	0	43	0	421527552	61	5398
2026-01-01 23:03:50.67	52.23	35.67	-45.2	-48.3	16.2	0.00e+00	0	43	0	423624704	61	5290
2026-01-01 23:03:51.67	52.51	35.83	-45.0	-47.9	16.5	0.00e+00	0	43	0	424673280	61	5048
2026-01-01 23:03:52.67	52.80	36.00	-44.9	-47.8	16.7	0.00e+00	0	43	0	426770432	61	4991
2026-01-01 23:03:53.68	53.09	36.17	-44.6	-47.3	17.1	0.00e+00	0	42	0	428867584	61	4749
2026-01-01 23:03:54.68	53.38	36.33	-44.4	-47.1	17.4	0.00e+00	0	43	0	430964736	60	4875
2026-01-01 23:03:55.76	53.70	36.51	-44.2	-46.8	17.6	0.00e+00	0	42	0	433061888	60	4737
2026-01-01 23:03:56.65	53.97	36.66	-44.1	-46.8	17.6	0.00e+00	0	42	0	434110464	60	4708
2026-01-01 23:03:57.78	54.31	36.85	-44.3	-47.0	17.4	0.00e+00	0	42	0	436207616	60	4837
2026-01-01 23:03:58.64	54.57	36.99	-44.5	-47.3	17.2	0.00e+00	0	42	0	438304768	60	4992
2026-01-01 23:03:59.79	54.93	37.18	-44.7	-47.5	16.9	0.00e+00	0	43	0	440401920	60	5152
2026-01-01 23:04:00.65	55.20	37.32	-44.7	-47.5	16.9	0.00e+00	0	43	0	441450496	60	5107
2026-01-01 23:04:02.19	55.68	37.58	-44.6	-47.4	17.1	0.00e+00	0	43	0	444596224	60	5042
2026-01-01 23:04:02.90	55.91	37.69	-44.5	-47.3	17.1	0.00e+00	0	43	0	446693376	60	4996
2026-01-01 23:04:04.18	56.32	37.90	-44.2	-46.8	17.7	0.00e+00	0	43	0	448790528	60	4719
2026-01-01 23:04:04.90	56.56	38.02	-44.1	-46.7	17.7	0.00e+00	0	43	0	449839104	60	4680
2026-01-01 23:04:06.44	57.06	38.28	-44.1	-46.7	17.7	0.00e+00	0	43	0	452984832	60	4692
2026-01-01 23:04:07.15	57.30	38.39	-44.1	-46.8	17.7	0.00e+00	0	43	0	454033408	60	4710
2026-01-01 23:04:08.44	57.73	38.61	-44.3	-46.9	17.5	0.00e+00	0	43	0	456130560	60	4800
2026-01-01 23:04:09.16	57.98	38.72	-44.5	-47.2	17.2	0.00e+00	0	42	0	458227712	60	4963
2026-01-01 23:04:10.45	58.42	38.94	-44.6	-47.4	17.1	0.00e+00	0	43	0	460324864	60	5058
2026-01-01 23:04:11.16	58.67	39.05	-44.7	-47.5	17.0	0.00e+00	0	43	0	461373440	60	5137
2026-01-01 23:04:12.45	59.12	39.26	-44.9	-47.8	16.7	0.00e+00	0	43	0	464519168	60	5294
2026-01-01 23:04:13.17	59.37	39.38	-45.0	-47.9	16.6	0.00e+00	0	43	0	465567744	60	5347
2026-01-01 23:04:14.45	59.83	39.59	-44.8	-47.7	16.8	0.00e+00	0	43	0	467664896	60	5220
2026-01-01 23:04:15.28	60.13	39.72	-44.8	-47.6	16.8	0.00e+00	0	43	0	469762048	60	5197
2026-01-01 23:04:16.42	60.54	39.90	-44.7	-47.5	17.0	0.00e+00	0	42	0	471859200	60	5107
2026-01-01 23:04:17.28	60.86	40.04	-44.6	-47.3	17.1	0.00e+00	0	43	0	472907776	60	5016
2026-01-01 23:04:18.43	61.29	40.23	-44.5	-47.3	17.2	0.00e+00	0	42	0	475004928	60	4985
2026-01-01 23:04:19.29	61.61	40.36	-44.5	-47.2	17.2	0.00e+00	0	42	0	477102080	60	4935
2026-01-01 23:04:20.43	62.04	40.54	-44.5	-47.2	17.2	0.00e+00	0	43	0	479199232	60	4983
2026-01-01 23:04:21.29	62.37	40.68	-44.6	-47.3	17.1	0.00e+00	0	43	0	480247808	60	5008
2026-01-01 23:04:22.44	62.81	40.86	-44.5	-47.2	17.3	0.00e+00	0	42	0	482344960	60	4934
2026-01-01 23:04:23.29	63.14	40.99	-44.3	-47.0	17.4	0.00e+00	0	43	0	484442112	60	4818
2026-01-01 23:04:24.43	63.59	41.17	-44.1	-46.8	17.7	0.00e+00	0	43	0	486539264	60	4706
2026-01-01 23:04:25.29	63.93	41.30	-44.1	-46.7	17.7	0.00e+00	0	43	0	488636416	60	4677
2026-01-01 23:04:26.44	64.39	41.48	-44.0	-46.5	17.8	0.00e+00	0	42	0	490733568	59	4832
2026-01-01 23:04:27.30	64.74	41.61	-44.1	-46.6	17.8	0.00e+00	0	43	0	491782144	59	4902
2026-01-01 23:04:28.44	65.21	41.79	-44.3	-46.9	17.5	0.00e+00	0	43	0	493879296	59	5056
2026-01-01 23:04:29.30	65.56	41.92	-44.4	-47.0	17.4	0.00e+00	0	43	0	495976448	59	5130
2026-01-01 23:04:30.44	66.04	42.09	-44.3	-46.9	17.4	0.00e+00	0	43	0	498073600	59	5099
2026-01-01 23:04:31.30	66.40	42.22	-44.2	-46.8	17.6	0.00e+00	0	42	0	499122176	59	4992
2026-01-01 23:04:32.45	66.89	42.39	-44.1	-46.7	17.6	0.00e+00	0	43	0	501219328	59	4962
2026-01-01 23:04:33.31	67.25	42.51	-44.3	-47.0	17.4	0.00e+00	0	42	0	503316480	59	5119
2026-01-01 23:04:34.45	67.75	42.68	-44.5	-47.2	17.1	0.00e+00	0	43	0	505413632	59	5268
2026-01-01 23:04:35.31	68.12	42.80	-44.8	-47.6	16.9	0.00e+00	0	42	0	506462208	60	5180
2026-01-01 23:04:36.45	68.62	42.97	-44.8	-47.6	16.8	0.00e+00	0	43	0	509607936	60	5209
2026-01-01 23:04:37.31	69.00	43.09	-45.0	-47.8	16.6	0.00e+00	0	43	0	510656512	60	5339
2026-01-01 23:04:38.45	69.51	43.25	-45.1	-48.0	16.5	0.00e+00	0	42	0	512753664	60	5422
2026-01-01 23:04:39.31	69.90	43.37	-45.1	-48.1	16.4	0.00e+00	0	42	0	514850816	61	5200
2026-01-01 23:04:40.63	70.50	43.55	-45.3	-48.3	16.2	0.00e+00	0	43	0	516947968	61	5296
2026-01-01 23:04:41.35	70.83	43.65	-45.2	-48.2	16.2	0.00e+00	0	42	0	517996544	61	5249
2026-01-01 23:04:42.64	71.43	43.82	-45.6	-48.7	15.8	0.00e+00	0	43	0	521142272	61	5555
2026-01-01 23:04:43.35	71.76	43.92	-45.9	-49.2	15.3	0.00e+00	0	42	0	522190848	62	5559
2026-01-01 23:04:44.65	72.38	44.09	-46.0	-49.3	15.2	0.00e+00	0	43	0	524288000	62	5612
2026-01-01 23:04:45.36	72.71	44.18	-45.8	-49.0	15.4	0.00e+00	0	43	0	525336576	62	5451
2026-01-01 23:04:46.65	73.33	44.34	-45.3	-48.4	16.1	0.00e+00	0	43	0	528482304	62	5051
2026-01-01 23:04:47.37	73.68	44.43	-45.1	-48.0	16.4	0.00e+00	0	43	0	529530880	62	4846
2026-01-01 23:04:48.65	74.30	44.59	-45.2	-48.1	16.3	0.00e+00	0	42	0	531628032	62	4901
2026-01-01 23:04:49.37	74.65	44.68	-45.1	-48.0	16.4	0.00e+00	0	42	0	533725184	62	4866
2026-01-01 23:04:50.66	75.29	44.84	-45.3	-48.3	16.1	0.00e+00	0	42	0	535822336	62	5012
2026-01-01 23:04:51.60	75.76	44.95	-45.7	-48.9	15.6	0.00e+00	0	42	0	537919488	62	5348
2026-01-01 23:04:52.92	76.42	45.10	-45.8	-49.0	15.4	0.00e+00	0	42	0	540016640	62	5418
2026-01-01 23:04:53.68	76.81	45.19	-45.8	-49.0	15.4	0.00e+00	0	43	0	541065216	62	5451
2026-01-01 23:04:54.97	77.46	45.33	-45.4	-48.5	16.0	0.00e+00	0	42	0	544210944	62	5105
2026-01-01 23:04:55.68	77.83	45.41	-45.2	-48.2	16.2	0.00e+00	0	42	0	545259520	62	4966
2026-01-01 23:04:56.97	78.49	45.55	-45.2	-48.2	16.2	0.00e+00	0	42	0	547356672	62	4960
2026-01-01 23:04:57.69	78.87	45.62	-45.4	-48.5	16.0	0.00e+00	0	42	0	549453824	62	5109
2026-01-01 23:04:58.98	79.54	45.76	-45.3	-48.4	16.0	0.00e+00	0	42	0	551550976	62	5058
2026-01-01 23:04:59.69	79.92	45.83	-45.3	-48.4	16.0	0.00e+00	0	42	0	552599552	62	5084
2026-01-01 23:05:01.04	80.63	45.96	-45.2	-48.2	16.2	0.00e+00	0	42	0	554696704	62	4970
2026-01-01 23:05:01.76	81.02	46.03	-45.4	-48.5	15.9	0.00e+00	0	43	0	556793856	62	5155
2026-01-01 23:05:03.04	81.71	46.15	-45.7	-49.0	15.5	0.00e+00	0	42	0	558891008	62	5435
2026-01-01 23:05:03.76	82.09	46.21	-45.7	-49.0	15.5	0.00e+00	0	42	0	559939584	62	5426
2026-01-01 23:05:05.04	82.79	46.33	-45.5	-48.8	15.7	0.00e+00	0	42	0	563085312	62	5281
2026-01-01 23:05:05.76	83.18	46.39	-45.3	-48.5	15.9	0.00e+00	0	42	0	564133888	62	5145
2026-01-01 23:05:07.05	83.89	46.49	-44.9	-47.9	16.4	0.00e+00	0	42	0	566231040	61	5089
2026-01-01 23:05:07.76	84.28	46.55	-44.8	-47.9	16.5	0.00e+00	0	42	0	567279616	61	5064
2026-01-01 23:05:09.05	85.00	46.65	-44.7	-47.7	16.7	0.00e+00	0	42	0	570425344	61	4955
2026-01-01 23:05:09.77	85.40	46.70	-44.9	-48.0	16.4	0.00e+00	0	42	0	571473920	61	5103
2026-01-01 23:05:11.06	86.12	46.80	-45.1	-48.1	16.3	0.00e+00	0	42	0	573571072	61	5185
2026-01-01 23:05:11.92	86.61	46.86	-45.0	-48.0	16.4	0.00e+00	0	42	0	575668224	61	5159
2026-01-01 23:05:13.39	87.44	46.95	-45.5	-48.7	15.7	0.00e+00	0	42	0	578813952	61	5540
2026-01-01 23:05:14.11	87.85	47.00	-45.8	-49.3	15.2	0.00e+00	0	42	0	579862528	62	5607
2026-01-01 23:05:15.40	88.58	47.07	-45.7	-49.2	15.3	0.00e+00	0	43	0	581959680	62	5538
2026-01-01 23:05:16.11	88.99	47.11	-45.3	-48.5	15.9	0.00e+00	0	42	0	583008256	62	5124
2026-01-01 23:05:17.41	89.74	47.18	-44.6	-47.6	16.9	0.00e+00	0	42	0	586153984	61	4885
2026-01-01 23:05:18.12	90.14	47.22	-44.7	-47.6	16.8	0.00e+00	0	42	0	587202560	61	4904
2026-01-01 23:05:19.76	91.09	47.30	-45.6	-48.8	15.6	0.00e+00	0	42	0	590348288	61	5620
2026-01-01 23:05:20.33	91.42	47.32	-46.0	-49.4	15.2	0.00e+00	0	42	0	591396864	62	5660
2026-01-01 23:05:21.91	92.34	47.38	-46.0	-49.4	15.1	0.00e+00	0	42	0	594542592	62	5673
2026-01-01 23:05:22.51	92.69	47.40	-45.7	-49.0	15.5	0.00e+00	0	42	0	595591168	62	5424
2026-01-01 23:05:24.09	93.62	47.46	-44.8	-47.9	16.5	0.00e+00	0	42	0	598736896	61	5043
2026-01-01 23:05:24.76	94.01	47.48	-44.7	-47.6	16.8	0.00e+00	0	42	0	599785472	61	4896
2026-01-01 23:05:26.19	94.85	47.51	-43.8	-46.3	18.0	0.00e+00	0	42	0	601882624	59	4755
2026-01-01 23:05:26.98	95.32	47.53	-43.9	-46.4	17.9	0.00e+00	0	42	0	603979776	59	4790
2026-01-01 23:05:28.16	96.01	47.56	-44.2	-46.9	17.5	0.00e+00	0	42	0	606076928	59	5053
2026-01-01 23:05:29.21	96.63	47.57	-44.2	-46.8	17.5	0.00e+00	0	42	0	608174080	59	5038
2026-01-01 23:05:30.08	97.14	47.58	-44.3	-47.0	17.4	0.00e+00	0	42	0	609222656	59	5109
2026-01-01 23:05:31.59	98.04	47.60	-44.5	-47.2	17.2	0.00e+00	0	42	0	612368384	59	5261
2026-01-01 23:05:32.31	98.46	47.60	-44.7	-47.6	16.9	0.00e+00	0	43	0	613416960	60	5199
2026-01-01 23:05:33.82	99.35	47.60	-45.0	-47.9	16.5	0.00e+00	0	42	0	616562688	60	5380
2026-01-01 23:05:34.53	99.77	47.60	-45.1	-48.2	16.3	0.00e+00	0	42	0	617611264	61	5245
2026-01-01 23:05:35.82	100.54	47.60	-44.9	-47.8	16.6	0.00e+00	0	42	0	620756992	61	4994
2026-01-01 23:05:36.90	101.18	47.59	-44.9	-47.8	16.6	0.00e+00	0	42	0	622854144	61	5023
2026-01-01 23:05:37.76	101.68	47.58	-45.1	-48.1	16.4	0.00e+00	0	42	0	623902720	61	5179
2026-01-01 23:05:38.91	102.36	47.56	-45.1	-48.2	16.3	0.00e+00	0	42	0	625999872	61	5219
2026-01-01 23:05:39.77	102.87	47.54	-45.1	-48.1	16.3	0.00e+00	0	42	0	628097024	61	5213
2026-01-01 23:05:41.00	103.59	47.51	-45.0	-48.1	16.3	0.00e+00	0	42	0	630194176	61	5171
2026-01-01 23:05:41.85	104.09	47.49	-45.0	-48.0	16.4	0.00e+00	0	42	0	631242752	61	5114
2026-01-01 23:05:43.00	104.77	47.46	-45.4	-48.5	15.9	0.00e+00	0	42	0	634388480	61	5436
2026-01-01 23:05:43.85	105.27	47.43	-45.4	-48.5	15.9	0.00e+00	0	42	0	635437056	61	5428
2026-01-01 23:05:45.00	105.94	47.39	-45.3	-48.4	16.0	0.00e+00	0	42	0	637534208	61	5383
2026-01-01 23:05:45.86	106.44	47.36	-44.9	-47.9	16.5	0.00e+00	0	42	0	639631360	61	5053
2026-01-01 23:05:47.00	107.10	47.31	-44.6	-47.4	16.9	0.00e+00	0	42	0	641728512	61	4811
2026-01-01 23:05:48.02	107.70	47.27	-44.7	-47.6	16.9	0.00e+00	0	43	0	643825664	61	4874
2026-01-01 23:05:49.20	108.38	47.21	-45.2	-48.1	16.3	0.00e+00	0	42	0	645922816	61	5198
2026-01-01 23:05:50.06	108.87	47.17	-44.9	-47.7	16.6	0.00e+00	0	42	0	646971392	61	4983
2026-01-01 23:05:51.41	109.65	47.09	-44.7	-47.5	17.0	0.00e+00	0	42	0	650117120	61	4830
2026-01-01 23:05:52.12	110.06	47.05	-45.0	-47.9	16.5	0.00e+00	0	42	0	651165696	61	5074
2026-01-01 23:05:53.63	110.92	46.96	-45.9	-49.2	15.2	0.00e+00	0	42	0	654311424	62	5586
2026-01-01 23:05:54.34	111.32	46.92	-46.3	-49.9	14.6	1.50e-06	0	42	0	655360000	63	5678
2026-01-01 23:05:55.63	112.05	46.83	-46.1	-49.5	14.9	7.00e-07	0	42	0	657457152	63	5443
2026-01-01 23:05:56.35	112.45	46.78	-45.8	-49.1	15.2	0.00e+00	0	42	0	658505728	63	5210
2026-01-01 23:05:57.76	113.24	46.68	-45.6	-48.8	15.6	0.00e+00	0	42	0	661651456	62	5315
2026-01-01 23:05:58.47	113.64	46.62	-46.2	-49.7	14.7	0.00e+00	0	42	0	662700032	63	5561
2026-01-01 23:05:59.84	114.40	46.52	-46.7	-50.6	13.7	2.20e-06	0	42	0	665845760	64	5827
2026-01-01 23:06:00.86	114.96	46.43	-46.7	-50.5	13.8	5.30e-06	0	42	0	666894336	64	5775
2026-01-01 23:06:02.18	115.68	46.32	-46.3	-49.9	14.4	1.50e-06	0	42	0	670040064	64	5382
2026-01-01 23:06:02.89	116.07	46.26	-46.1	-49.6	14.7	0.00e+00	0	42	0	671088640	64	5191
2026-01-01 23:06:04.53	116.96	46.11	-46.2	-49.8	14.5	0.00e+00	0	43	0	674234368	64	5290
2026-01-01 23:06:05.10	117.26	46.06	-46.4	-50.1	14.2	7.00e-07	0	42	0	675282944	64	5467
2026-01-01 23:06:06.72	118.13	45.90	-46.4	-50.0	14.4	2.20e-06	0	42	0	678428672	64	5437
2026-01-01 23:06:07.30	118.44	45.84	-46.1	-49.6	14.8	7.00e-07	0	42	0	679477248	64	5175
2026-01-01 23:06:08.89	119.27	45.68	-46.0	-49.5	15.0	0.00e+00	0	42	0	682622976	63	5421
2026-01-01 23:06:09.55	119.62	45.61	-46.5	-50.2	14.3	0.00e+00	0	42	0	683671552	63	5895
2026-01-01 23:06:10.98	120.36	45.46	-46.8	-50.9	13.4	2.82e-05	0	42	0	686817280	64	6006
2026-01-01 23:06:11.75	120.76	45.38	-46.0	-49.4	14.9	4.50e-06	0	42	0	687865856	63	5384
2026-01-01 23:06:13.03	121.42	45.24	-45.2	-48.2	16.2	0.00e+00	0	42	0	689963008	62	4964
2026-01-01 23:06:13.75	121.78	45.15	-44.8	-47.6	16.8	0.00e+00	0	42	0	691011584	61	4892
2026-01-01 23:06:15.04	122.43	45.01	-44.8	-47.6	16.8	0.00e+00	0	42	0	694157312	61	4894
2026-01-01 23:06:15.76	122.79	44.92	-44.9	-47.7	16.7	0.00e+00	0	42	0	695205888	61	4980
2026-01-01 23:06:17.04	123.43	44.77	-44.2	-46.8	17.5	0.00e+00	0	42	0	697303040	60	4759
2026-01-01 23:06:17.76	123.79	44.68	-43.7	-46.2	18.1	0.00e+00	0	42	0	699400192	59	4677
2026-01-01 23:06:19.05	124.42	44.52	-43.6	-46.0	18.3	0.00e+00	0	42	0	701497344	59	4572
2026-01-01 23:06:19.76	124.76	44.43	-43.8	-46.3	18.0	0.00e+00	0	42	0	702545920	59	4723
2026-01-01 23:06:21.05	125.39	44.27	-44.2	-46.8	17.5	0.00e+00	0	42	0	705691648	59	5028
2026-01-01 23:06:22.16	125.92	44.13	-43.9	-46.4	17.9	0.00e+00	0	42	0	707788800	59	4789
2026-01-01 23:06:23.32	126.47	43.97	-43.6	-46.0	18.3	0.00e+00	0	42	0	709885952	59	4586
2026-01-01 23:06:24.18	126.87	43.86	-43.6	-46.1	18.2	0.00e+00	0	42	0	710934528	59	4634
2026-01-01 23:06:25.71	127.58	43.65	-43.7	-46.2	18.1	0.00e+00	0	42	0	714080256	59	4696
2026-01-01 23:06:26.42	127.91	43.56	-43.5	-45.9	18.4	0.00e+00	0	42	0	715128832	58	4787
2026-01-01 23:06:27.71	128.50	43.38	-43.3	-45.6	18.6	0.00e+00	0	42	0	717225984	58	4649
2026-01-01 23:06:28.43	128.83	43.28	-43.1	-45.5	18.8	0.00e+00	0	42	0	719323136	58	4546
2026-01-01 23:06:29.72	129.41	43.10	-43.7	-46.2	18.1	0.00e+00	0	42	0	721420288	58	4963
2026-01-01 23:06:30.48	129.74	42.99	-43.9	-46.5	17.9	0.00e+00	0	42	0	722468864	58	5110
2026-01-01 23:06:31.77	130.31	42.80	-43.7	-46.2	18.2	0.00e+00	0	42	0	725614592	58	4944
2026-01-01 23:06:32.58	130.67	42.69	-43.5	-45.9	18.4	0.00e+00	0	42	0	726663168	58	4779
2026-01-01 23:06:33.73	131.17	42.52	-43.4	-45.7	18.6	0.00e+00	0	42	0	728760320	58	4703
2026-01-01 23:06:34.58	131.53	42.39	-43.8	-46.3	18.0	0.00e+00	0	42	0	730857472	58	5022
2026-01-01 23:06:35.72	132.02	42.22	-44.1	-46.7	17.6	0.00e+00	0	42	0	732954624	58	5278
2026-01-01 23:06:36.58	132.38	42.09	-44.1	-46.7	17.6	0.00e+00	0	42	0	734003200	59	4952
2026-01-01 23:06:37.73	132.86	41.92	-43.5	-46.0	18.3	0.00e+00	0	42	0	736100352	59	4559
2026-01-01 23:06:38.59	133.22	41.79	-43.4	-45.8	18.5	0.00e+00	0	42	0	738197504	58	4728
2026-01-01 23:06:39.73	133.68	41.62	-43.8	-46.3	18.1	0.00e+00	0	42	0	740294656	58	5001
2026-01-01 23:06:40.59	134.03	41.48	-44.5	-47.3	17.1	0.00e+00	0	42	0	742391808	59	5286
2026-01-01 23:06:41.73	134.49	41.31	-45.1	-48.1	16.3	0.00e+00	0	42	0	744488960	60	5496
2026-01-01 23:06:42.61	134.84	41.17	-44.5	-47.2	17.1	0.00e+00	0	42	0	745537536	60	4974
2026-01-01 23:06:43.75	135.29	40.99	-43.5	-45.9	18.4	0.00e+00	0	42	0	747634688	59	4525
2026-01-01 23:06:44.70	135.66	40.84	-43.5	-45.9	18.4	0.00e+00	0	42	0	749731840	58	4786
2026-01-01 23:06:45.88	136.12	40.66	-44.8	-47.6	16.9	0.00e+00	0	42	0	751828992	60	5183
2026-01-01 23:06:46.74	136.45	40.52	-45.3	-48.4	16.0	0.00e+00	0	42	0	753926144	61	5355
2026-01-01 23:06:47.88	136.88	40.34	-45.1	-48.2	16.2	0.00e+00	0	42	0	756023296	61	5235
2026-01-01 23:06:48.84	137.24	40.18	-44.5	-47.3	17.1	0.00e+00	0	42	0	757071872	61	4732
2026-01-01 23:06:49.84	137.62	40.02	-44.0	-46.6	17.7	0.00e+00	0	42	0	759169024	60	4637
2026-01-01 23:06:51.06	138.06	39.83	-44.5	-47.2	17.2	0.00e+00	0	42	0	761266176	60	4964
2026-01-01 23:06:51.92	138.38	39.69	-45.3	-48.3	16.1	0.00e+00	0	42	0	763363328	61	5309
2026-01-01 23:06:53.07	138.79	39.50	-45.9	-49.3	15.2	0.00e+00	0	42	0	765460480	62	5600
2026-01-01 23:06:54.02	139.13	39.35	-45.5	-48.6	15.8	0.00e+00	0	42	0	766509056	62	5182
2026-01-01 23:06:55.03	139.49	39.18	-44.4	-47.2	17.2	0.00e+00	0	42	0	768606208	60	4931
2026-01-01 23:06:56.03	139.84	39.02	-44.3	-47.0	17.4	0.00e+00	0	42	0	770703360	60	4830
2026-01-01 23:06:57.03	140.19	38.85	-44.5	-47.2	17.2	0.00e+00	0	42	0	772800512	60	4960
2026-01-01 23:06:58.03	140.53	38.69	-45.9	-49.3	15.2	0.00e+00	0	42	0	774897664	62	5610
2026-01-01 23:06:59.03	140.87	38.52	-47.1	-51.3	12.9	2.74e-05	0	42	0	775946240	64	6345
2026-01-01 23:07:00.04	141.21	38.36	-47.1	-51.4	12.9	1.14e-04	0	42	0	778043392	65	6008
2026-01-01 23:07:01.04	141.54	38.19	-45.8	-49.1	15.3	7.00e-07	0	42	0	780140544	63	5160
2026-01-01 23:07:02.04	141.87	38.03	-44.8	-47.6	16.8	0.00e+00	0	42	0	782237696	61	4891
2026-01-01 23:07:03.04	142.20	37.86	-44.7	-47.6	16.8	0.00e+00	0	42	0	784334848	61	4874
2026-01-01 23:07:04.05	142.52	37.69	-45.4	-48.6	15.9	0.00e+00	0	42	0	785383424	61	5466
2026-01-01 23:07:05.05	142.84	37.53	-46.6	-50.3	14.1	0.00e+00	0	42	0	787480576	63	5966
2026-01-01 23:07:06.05	143.16	37.36	-46.7	-50.7	13.6	9.10e-06	0	42	0	789577728	64	5906
2026-01-01 23:07:07.10	143.49	37.19	-46.3	-50.0	14.2	3.80e-06	0	42	0	791674880	64	5442
2026-01-01 23:07:08.10	143.80	37.02	-45.4	-48.5	15.9	0.00e+00	0	42	0	793772032	62	5132
2026-01-01 23:07:09.11	144.11	36.85	-45.0	-47.8	16.5	0.00e+00	0	42	0	794820608	62	4753
2026-01-01 23:07:10.25	144.46	36.66	-44.8	-47.6	16.8	0.00e+00	0	42	0	797966336	61	4920
2026-01-01 23:07:11.12	144.72	36.51	-45.3	-48.3	16.1	0.00e+00	0	42	0	799014912	61	5324
2026-01-01 23:07:12.27	145.06	36.32	-46.5	-50.3	14.1	0.00e+00	0	42	0	801112064	63	5938
2026-01-01 23:07:13.21	145.34	36.17	-47.0	-51.3	13.0	1.22e-05	0	42	0	803209216	64	6281
2026-01-01 23:07:14.39	145.68	35.97	-46.6	-50.5	13.8	1.14e-05	0	42	0	805306368	64	5743
2026-01-01 23:07:15.25	145.93	35.83	-45.8	-49.1	15.3	0.00e+00	0	42	0	806354944	63	5194
2026-01-01 23:07:16.58	146.31	35.60	-44.9	-47.7	16.6	0.00e+00	0	42	0	809500672	61	4982
2026-01-01 23:07:17.29	146.51	35.49	-44.6	-47.4	17.0	0.00e+00	0	42	0	810549248	61	4764
2026-01-01 23:07:18.58	146.87	35.27	-45.0	-47.9	16.5	0.00e+00	0	42	0	812646400	61	5075
2026-01-01 23:07:19.29	147.07	35.15	-45.5	-48.6	15.8	0.00e+00	0	42	0	814743552	61	5488
2026-01-01 23:07:20.58	147.42	34.94	-46.7	-50.5	13.9	7.00e-07	0	42	0	816840704	63	6098
2026-01-01 23:07:21.30	147.62	34.82	-46.9	-51.0	13.4	4.50e-06	0	42	0	817889280	64	6101
2026-01-01 23:07:22.59	147.96	34.61	-46.6	-50.4	13.8	1.67e-05	0	42	0	821035008	64	5718
2026-01-01 23:07:23.30	148.15	34.49	-46.1	-49.7	14.6	2.20e-06	0	42	0	822083584	64	5226
2026-01-01 23:07:24.59	148.49	34.28	-45.0	-47.9	16.5	0.00e+00	0	42	0	824180736	61	5078
2026-01-01 23:07:25.30	148.68	34.16	-44.8	-47.8	16.6	0.00e+00	0	42	0	825229312	61	4989
2026-01-01 23:07:26.59	149.01	33.95	-44.7	-47.6	16.8	0.00e+00	0	42	0	828375040	61	4879
2026-01-01 23:07:27.30	149.19	33.83	-44.8	-47.7	16.7	0.00e+00	0	42	0	829423616	61	4948
2026-01-01 23:07:28.59	149.52	33.62	-45.9	-49.3	15.1	0.00e+00	0	42	0	831520768	62	5631
2026-01-01 23:07:29.30	149.69	33.50	-46.5	-50.3	14.1	0.00e+00	0	42	0	833617920	63	5967
2026-01-01 23:07:30.60	150.02	33.29	-47.3	-51.8	12.5	7.55e-05	0	42	0	835715072	65	6283
2026-01-01 23:07:31.31	150.19	33.17	-47.4	-51.9	12.4	1.50e-04	0	42	0	836763648	65	6380
2026-01-01 23:07:32.60	150.51	32.96	-46.5	-50.3	14.0	2.97e-05	0	42	0	838860800	65	5295
2026-01-01 23:07:33.32	150.68	32.84	-46.0	-49.4	15.0	0.00e+00	0	42	0	840957952	63	5379
2026-01-01 23:07:34.61	150.99	32.63	-45.4	-48.4	16.0	0.00e+00	0	42	0	843055104	62	5081
2026-01-01 23:07:35.32	151.15	32.52	-45.3	-48.3	16.1	0.00e+00	0	42	0	844103680	62	5013
2026-01-01 23:07:36.61	151.46	32.31	-45.6	-48.8	15.6	0.00e+00	0	42	0	847249408	62	5299
2026-01-01 23:07:37.41	151.64	32.18	-45.9	-49.3	15.1	0.00e+00	0	42	0	848297984	62	5628
2026-01-01 23:07:38.55	151.90	32.00	-46.3	-50.0	14.4	7.00e-07	0	42	0	850395136	63	5745
2026-01-01 23:07:39.60	152.14	31.83	-46.6	-50.5	13.8	3.00e-06	0	42	0	852492288	64	5774
2026-01-01 23:07:40.70	152.39	31.65	-46.1	-49.6	14.7	2.20e-06	0	42	0	854589440	64	5194
2026-01-01 23:07:41.55	152.58	31.52	-45.5	-48.7	15.6	0.00e+00	0	42	0	855638016	63	4976
2026-01-01 23:07:42.70	152.83	31.33	-45.0	-47.9	16.4	0.00e+00	0	42	0	858783744	62	4810
2026-01-01 23:07:43.74	153.06	31.17	-44.4	-47.1	17.3	0.00e+00	0	42	0	859832320	60	4881
2026-01-01 23:07:44.73	153.27	31.01	-44.2	-46.8	17.6	0.00e+00	0	42	0	861929472	60	4711
2026-01-01 23:07:45.73	153.48	30.85	-44.4	-47.1	17.3	0.00e+00	0	42	0	864026624	60	4882
2026-01-01 23:07:46.73	153.70	30.70	-44.9	-47.8	16.6	0.00e+00	0	42	0	866123776	60	5328
2026-01-01 23:07:47.73	153.91	30.54	-45.5	-48.9	15.5	0.00e+00	0	42	0	868220928	61	5669
2026-01-01 23:07:48.74	154.12	30.38	-46.1	-50.0	14.4	0.00e+00	0	42	0	869269504	62	6117
2026-01-01 23:07:49.74	154.32	30.22	-46.3	-50.5	13.9	4.50e-06	0	42	0	871366656	63	6067
2026-01-01 23:07:50.74	154.53	30.07	-46.1	-50.2	14.1	1.50e-06	0	42	0	873463808	63	5876
2026-01-01 23:07:51.74	154.73	29.91	-45.8	-49.7	14.7	2.20e-06	0	42	0	875560960	63	5562
2026-01-01 23:07:52.75	154.93	29.76	-45.4	-48.9	15.5	0.00e+00	0	42	0	877658112	62	5368
2026-01-01 23:07:53.74	155.13	29.60	-45.1	-48.4	15.9	0.00e+00	0	42	0	878706688	62	5080
2026-01-01 23:07:54.75	155.32	29.45	-44.8	-48.0	16.3	0.00e+00	0	42	0	880803840	61	5125
2026-01-01 23:07:55.75	155.52	29.29	-44.5	-47.4	16.9	0.00e+00	0	42	0	882900992	60	5090
2026-01-01 23:07:56.75	155.71	29.14	-44.8	-47.8	16.6	0.00e+00	0	42	0	884998144	60	5310
2026-01-01 23:07:57.75	155.90	28.99	-45.0	-48.1	16.2	0.00e+00	0	42	0	886046720	60	5505
2026-01-01 23:07:58.75	156.09	28.84	-45.4	-48.6	15.8	0.00e+00	0	42	0	888143872	61	5507
2026-01-01 23:07:59.75	156.28	28.69	-45.7	-49.0	15.3	0.00e+00	0	42	0	890241024	61	5782
2026-01-01 23:08:00.76	156.47	28.53	-45.8	-49.2	15.2	0.00e+00	0	42	0	892338176	62	5586
2026-01-01 23:08:01.76	156.65	28.38	-45.9	-49.3	15.0	0.00e+00	0	42	0	894435328	62	5638
2026-01-01 23:08:02.76	156.83	28.23	-45.6	-48.9	15.5	0.00e+00	0	42	0	895483904	62	5373
2026-01-01 23:08:03.76	157.01	28.08	-45.4	-48.6	15.7	0.00e+00	0	42	0	897581056	62	5198
2026-01-01 23:08:04.77	157.20	27.93	-45.1	-48.2	16.2	0.00e+00	0	42	0	899678208	62	4931
2026-01-01 23:08:05.80	157.38	27.78	-45.1	-48.1	16.3	0.00e+00	0	42	0	901775360	62	4877
2026-01-01 23:08:06.80	157.55	27.63	-45.0	-48.0	16.4	0.00e+00	0	42	0	903872512	62	4827
2026-01-01 23:08:07.88	157.74	27.47	-44.8	-47.6	16.7	0.00e+00	0	42	0	905969664	61	4914
2026-01-01 23:08:08.74	157.89	27.35	-44.5	-47.4	16.9	0.00e+00	0	42	0	907018240	61	4761
2026-01-01 23:08:09.88	158.09	27.18	-44.2	-46.9	17.4	0.00e+00	0	42	0	909115392	60	4763
2026-01-01 23:08:10.81	158.24	27.04	-44.2	-46.9	17.4	0.00e+00	0	42	0	911212544	60	4786
2026-01-01 23:08:11.80	158.41	26.90	-44.4	-47.2	17.2	0.00e+00	0	42	0	913309696	60	4931
2026-01-01 23:08:12.81	158.58	26.75	-44.3	-47.0	17.3	0.00e+00	0	42	0	914358272	60	4855
2026-01-01 23:08:13.81	158.74	26.61	-44.4	-47.2	17.1	0.00e+00	0	42	0	916455424	60	4973
2026-01-01 23:08:14.81	158.91	26.47	-44.6	-47.4	16.9	0.00e+00	0	42	0	918552576	60	5071
2026-01-01 23:08:15.81	159.07	26.32	-44.7	-47.5	16.8	0.00e+00	0	42	0	920649728	60	5139
2026-01-01 23:08:16.82	159.23	26.18	-44.8	-47.6	16.7	0.00e+00	0	42	0	922746880	60	5185
2026-01-01 23:08:17.82	159.39	26.04	-44.8	-47.6	16.7	0.00e+00	0	42	0	923795456	60	5199
2026-01-01 23:08:18.82	159.55	25.89	-44.7	-47.6	16.7	0.00e+00	0	42	0	925892608	60	5191
2026-01-01 23:08:19.84	159.71	25.75	-44.6	-47.4	16.9	0.00e+00	0	42	0	927989760	60	5083
2026-01-01 23:08:20.84	159.86	25.61	-44.5	-47.3	17.0	0.00e+00	0	42	0	930086912	60	5003
2026-01-01 23:08:21.84	160.02	25.47	-44.4	-47.1	17.1	0.00e+00	0	42	0	932184064	60	4918
2026-01-01 23:08:22.85	160.17	25.33	-44.3	-47.1	17.2	0.00e+00	0	42	0	933232640	60	4883
2026-01-01 23:08:23.85	160.32	25.19	-44.3	-47.1	17.2	0.00e+00	0	42	0	935329792	60	4894
2026-01-01 23:08:24.86	160.47	25.05	-44.5	-47.3	17.0	0.00e+00	0	42	0	937426944	60	5012
2026-01-01 23:08:25.86	160.62	24.91	-44.7	-47.5	16.8	0.00e+00	0	42	0	939524096	60	5150
2026-01-01 23:08:26.86	160.77	24.77	-44.9	-47.9	16.4	0.00e+00	0	42	0	940572672	60	5382
2026-01-01 23:08:27.87	160.92	24.64	-45.0	-48.0	16.3	0.00e+00	0	42	0	942669824	60	5442
2026-01-01 23:08:29.16	161.10	24.46	-45.2	-48.3	16.0	0.00e+00	0	42	0	945815552	61	5300
2026-01-01 23:08:29.90	161.21	24.36	-45.1	-48.2	16.1	0.00e+00	0	42	0	946864128	61	5242
2026-01-01 23:08:31.19	161.39	24.18	-45.0	-48.1	16.2	0.00e+00	0	42	0	948961280	61	5184
2026-01-01 23:08:31.97	161.51	24.08	-44.8	-47.8	16.4	0.00e+00	0	42	0	951058432	61	5034
2026-01-01 23:08:33.58	161.73	23.86	-44.4	-47.3	17.0	0.00e+00	0	42	0	954204160	60	4986
2026-01-01 23:08:34.41	161.84	23.75	-44.3	-47.1	17.2	0.00e+00	0	42	0	955252736	60	4913
2026-01-01 23:08:35.56	162.00	23.60	-44.2	-47.0	17.3	0.00e+00	0	42	0	957349888	60	4841
2026-01-01 23:08:36.83	162.18	23.43	-44.2	-47.0	17.3	0.00e+00	0	42	0	959447040	60	4823
2026-01-01 23:08:37.55	162.27	23.34	-44.2	-47.0	17.3	0.00e+00	0	42	0	961544192	60	4840
2026-01-01 23:08:38.84	162.44	23.17	-44.0	-46.7	17.5	0.00e+00	0	42	0	963641344	60	4705
2026-01-01 23:08:39.56	162.54	23.07	-44.1	-46.9	17.4	0.00e+00	0	42	0	964689920	60	4779
2026-01-01 23:08:40.84	162.71	22.91	-44.1	-47.0	17.3	0.00e+00	0	42	0	967835648	60	4818
2026-01-01 23:08:41.56	162.80	22.81	-44.1	-46.9	17.3	0.00e+00	0	42	0	968884224	60	4799
2026-01-01 23:08:42.84	162.97	22.65	-44.2	-47.1	17.2	0.00e+00	0	42	0	970981376	60	4899
2026-01-01 23:08:43.56	163.06	22.55	-44.2	-47.1	17.1	0.00e+00	0	42	0	972029952	60	4894
2026-01-01 23:08:45.06	163.25	22.36	-44.3	-47.2	17.0	0.00e+00	0	42	0	975175680	60	4981
2026-01-01 23:08:45.78	163.34	22.27	-44.4	-47.3	16.9	0.00e+00	0	42	0	976224256	60	5022
2026-01-01 23:08:47.11	163.51	22.10	-44.6	-47.5	16.7	0.00e+00	0	42	0	979369984	60	5134
2026-01-01 23:08:48.08	163.63	21.98	-44.6	-47.5	16.7	0.00e+00	0	42	0	980418560	60	5142
2026-01-01 23:08:49.08	163.75	21.85	-44.6	-47.5	16.7	0.00e+00	0	42	0	982515712	60	5152
2026-01-01 23:08:50.09	163.87	21.73	-44.7	-47.7	16.6	0.00e+00	0	42	0	984612864	60	5236
2026-01-01 23:08:51.09	164.00	21.60	-44.8	-47.7	16.5	0.00e+00	0	42	0	986710016	60	5267
2026-01-01 23:08:52.10	164.12	21.47	-44.8	-47.8	15.7	0.00e+00	0	42	0	988807168	60	5309
2026-01-01 23:08:53.10	164.24	21.35	-44.6	-47.5	16.8	0.00e+00	0	42	0	989855744	60	5110
2026-01-01 23:08:54.10	164.35	21.23	-44.4	-47.3	16.9	0.00e+00	0	42	0	991952896	60	5011
2026-01-01 23:08:55.15	164.48	21.10	-44.5	-47.3	16.9	0.00e+00	0	42	0	994050048	60	5014
2026-01-01 23:08:56.10	164.59	20.98	-44.3	-47.1	17.1	0.00e+00	0	42	0	996147200	60	4906
2026-01-01 23:08:57.11	164.71	20.86	-44.3	-47.1	17.2	0.00e+00	0	42	0	998244352	60	4878
2026-01-01 23:08:58.24	164.83	20.72	-44.3	-47.0	17.2	0.00e+00	0	42	0	1000341504	60	4850
2026-01-01 23:08:59.15	164.94	20.61	-44.3	-47.1	17.2	0.00e+00	0	42	0	1001390080	60	4880
2026-01-01 23:09:00.16	165.05	20.49	-44.4	-47.3	17.0	0.00e+00	0	42	0	1003487232	60	4986
2026-01-01 23:09:01.17	165.17	20.37	-44.5	-47.4	16.9	0.00e+00	0	42	0	1005584384	60	5051
2026-01-01 23:09:02.38	165.30	20.22	-44.6	-47.5	16.7	0.00e+00	0	42	0	1007681536	60	5157
2026-01-01 23:09:03.23	165.39	20.12	-44.7	-47.7	16.6	0.00e+00	0	42	0	1009778688	60	5224
2026-01-01 23:09:04.38	165.52	19.98	-44.8	-47.9	16.3	0.00e+00	0	42	0	1011875840	60	5376
2026-01-01 23:09:05.24	165.61	19.88	-44.9	-48.0	16.2	0.00e+00	0	42	0	1012924416	60	5459
2026-01-01 23:09:06.38	165.74	19.75	-45.0	-48.2	16.1	0.00e+00	0	42	0	1015021568	60	5543
2026-01-01 23:09:07.24	165.83	19.65	-45.1	-48.3	15.9	0.00e+00	0	42	0	1017118720	60	5632
2026-01-01 23:09:08.39	165.95	19.51	-45.1	-48.2	16.0	0.00e+00	0	42	0	1019215872	60	5588
2026-01-01 23:09:09.25	166.04	19.41	-45.0	-48.2	16.0	0.00e+00	0	42	0	1020264448	60	5559
2026-01-01 23:09:10.40	166.16	19.28	-45.0	-48.2	16.1	0.00e+00	0	42	0	1022361600	60	5538
2026-01-01 23:09:11.26	166.25	19.18	-45.0	-48.1	16.1	0.00e+00	0	42	0	1024458752	60	5520
2026-01-01 23:09:12.40	166.37	19.05	-44.9	-48.1	16.2	0.00e+00	0	42	0	1026555904	60	5483
2026-01-01 23:09:13.26	166.46	18.95	-44.8	-47.8	16.4	0.00e+00	0	42	0	1027604480	60	5338
2026-01-01 23:09:14.47	166.58	18.81	-44.6	-47.6	16.6	0.00e+00	0	42	0	1030750208	60	5202
2026-01-01 23:09:15.33	166.67	18.71	-44.5	-47.5	16.6	0.00e+00	0	42	0	1031798784	60	5135
2026-01-01 23:09:16.48	166.78	18.58	-44.3	-47.2	17.0	0.00e+00	0	42	0	1033895936	60	4936
2026-01-01 23:09:17.33	166.87	18.49	-44.2	-47.0	17.2	0.00e+00	0	42	0	1035993088	60	4856
2026-01-01 23:09:18.48	166.98	18.36	-44.1	-46.9	17.3	0.00e+00	0	42	0	1038090240	60	4781
2026-01-01 23:09:19.34	167.06	18.26	-44.0	-46.7	17.5	0.00e+00	0	42	0	1039138816	60	4685
2026-01-01 23:09:20.49	167.18	18.13	-44.1	-46.8	17.3	0.00e+00	0	42	0	1041235968	59	5031
2026-01-01 23:09:21.53	167.28	18.02	-44.0	-46.6	17.5	0.00e+00	0	42	0	1043333120	59	4922
2026-01-01 23:09:22.70	167.39	17.89	-43.9	-46.6	17.6	0.00e+00	0	42	0	1045430272	59	4875
2026-01-01 23:09:23.56	167.47	17.79	-43.9	-46.6	17.5	0.00e+00	0	42	0	1047527424	59	4900
2026-01-01 23:09:24.88	167.59	17.65	-43.9	-46.6	17.5	0.00e+00	0	42	0	1049624576	59	4897
2026-01-01 23:09:25.60	167.66	17.57	-44.0	-46.7	17.5	0.00e+00	0	42	0	1051721728	59	4939
2026-01-01 23:09:26.88	167.78	17.43	-44.1	-46.8	17.3	0.00e+00	0	42	0	1053818880	59	5039
2026-01-01 23:09:27.60	167.85	17.35	-44.1	-46.9	17.2	0.00e+00	0	42	0	1054867456	59	5079
2026-01-01 23:09:28.89	167.97	17.21	-44.2	-47.0	17.1	0.00e+00	0	42	0	1056964608	59	5142
2026-01-01 23:09:29.69	168.04	17.13	-44.2	-47.1	17.0	0.00e+00	0	42	0	1059061760	59	5174
2026-01-01 23:09:30.84	168.14	17.00	-44.3	-47.2	17.0	0.00e+00	0	42	0	1061158912	59	5231
2026-01-01 23:09:31.70	168.22	16.91	-44.3	-47.2	16.9	0.00e+00	0	42	0	1062207488	59	5236
2026-01-01 23:09:32.84	168.32	16.79	-44.3	-47.2	17.0	0.00e+00	0	42	0	1065353216	59	5230
2026-01-01 23:09:33.70	168.40	16.70	-44.4	-47.2	16.9	0.00e+00	0	42	0	1066401792	59	5232
2026-01-01 23:09:34.85	168.50	16.58	-44.3	-47.1	17.0	0.00e+00	0	42	0	1068498944	59	5184
2026-01-01 23:09:35.71	168.58	16.49	-44.3	-47.1	17.0	0.00e+00	0	42	0	1070596096	59	5168
2026-01-01 23:09:36.85	168.67	16.37	-44.2	-47.0	17.1	0.00e+00	0	42	0	1072693248	59	5138
2026-01-01 23:09:37.71	168.75	16.28	-44.3	-47.1	17.0	0.00e+00	0	42	0	1073741824	59	5160
2026-01-01 23:09:39.00	168.86	16.14	-44.2	-46.9	17.1	0.00e+00	0	42	0	1076887552	59	5098
2026-01-01 23:09:39.72	168.92	16.07	-44.1	-46.8	17.3	0.00e+00	0	42	0	1077936128	59	5014
2026-01-01 23:09:41.01	169.03	15.94	-44.0	-46.7	17.3	0.00e+00	0	42	0	1080033280	59	4934
2026-01-01 23:09:41.73	169.09	15.86	-44.0	-46.6	17.4	0.00e+00	0	42	0	1081081856	59	4915
2026-01-01 23:09:43.02	169.20	15.73	-43.9	-46.6	17.5	0.00e+00	0	42	0	1084227584	59	4910
2026-01-01 23:09:43.73	169.26	15.66	-43.9	-46.5	17.6	0.00e+00	0	42	0	1085276160	59	4844
2026-01-01 23:09:45.39	169.39	15.49	-43.9	-46.6	17.5	0.00e+00	0	42	0	1088421888	59	4873
2026-01-01 23:09:45.96	169.44	15.43	-43.9	-46.6	17.4	0.00e+00	0	42	0	1089470464	59	4893
2026-01-01 23:09:47.75	169.59	15.25	-43.9	-46.7	17.4	0.00e+00	0	42	0	1092616192	59	4945
2026-01-01 23:09:48.33	169.63	15.19	-43.9	-46.6	17.4	0.00e+00	0	42	0	1093664768	59	4915
2026-01-01 23:09:49.91	169.76	15.03	-44.1	-46.9	17.1	0.00e+00	0	42	0	1096810496	59	5096
2026-01-01 23:09:50.49	169.80	14.98	-44.0	-46.8	17.2	0.00e+00	0	42	0	1097859072	59	5033
2026-01-01 23:09:52.07	169.93	14.82	-44.1	-47.0	17.1	0.00e+00	0	42	0	1101004800	59	5117
2026-01-01 23:09:53.12	170.01	14.72	-44.2	-47.1	16.9	0.00e+00	0	42	0	1103101952	59	5214
2026-01-01 23:09:54.39	170.11	14.59	-44.3	-47.3	16.8	0.00e+00	0	42	0	1105199104	59	5292
2026-01-01 23:09:55.11	170.17	14.52	-44.3	-47.3	16.8	0.00e+00	0	42	0	1106247680	59	5324
2026-01-01 23:09:56.40	170.26	14.39	-44.4	-47.5	16.6	0.00e+00	0	42	0	1109393408	59	5404
2026-01-01 23:09:57.11	170.32	14.33	-44.4	-47.6	16.5	0.00e+00	0	42	0	1110441984	59	5465
2026-01-01 23:09:58.48	170.42	14.19	-44.5	-47.8	16.3	0.00e+00	0	42	0	1112539136	59	5603
2026-01-01 23:09:59.49	170.50	14.09	-44.6	-47.8	16.2	0.00e+00	0	42	0	1114636288	59	5654
2026-01-01 23:10:00.49	170.57	14.00	-44.6	-47.9	16.1	0.00e+00	0	42	0	1116733440	59	5711
2026-01-01 23:10:01.49	170.65	13.90	-44.6	-47.9	16.1	0.00e+00	0	42	0	1118830592	59	5681
2026-01-01 23:10:02.50	170.72	13.81	-44.6	-48.0	16.1	0.00e+00	0	42	0	1120927744	60	5415
2026-01-01 23:10:03.50	170.79	13.71	-44.7	-48.0	16.1	0.00e+00	0	42	0	1121976320	60	5423
2026-01-01 23:10:04.51	170.87	13.62	-44.7	-48.0	16.1	0.00e+00	0	42	0	1124073472	60	5417
2026-01-01 23:10:05.51	170.94	13.52	-44.6	-47.8	16.2	0.00e+00	0	42	0	1126170624	60	5332
2026-01-01 23:10:06.51	171.01	13.43	-44.6	-47.8	16.2	0.00e+00	0	42	0	1128267776	60	5325
2026-01-01 23:10:07.51	171.08	13.33	-44.6	-47.8	16.3	0.00e+00	0	42	0	1129316352	60	5333
2026-01-01 23:10:08.51	171.15	13.24	-44.7	-47.9	16.2	0.00e+00	0	42	0	1131413504	60	5347
2026-01-01 23:10:09.51	171.23	13.15	-44.5	-47.6	16.5	0.00e+00	0	42	0	1133510656	60	5195
2026-01-01 23:10:10.52	171.30	13.05	-44.4	-47.5	16.5	0.00e+00	0	42	0	1135607808	60	5144
2026-01-01 23:10:11.52	171.37	12.96	-44.4	-47.5	16.6	0.00e+00	0	42	0	1137704960	60	5116
2026-01-01 23:10:12.52	171.44	12.87	-44.5	-47.5	16.5	0.00e+00	0	42	0	1138753536	60	5150
2026-01-01 23:10:13.53	171.51	12.77	-44.4	-47.5	16.5	0.00e+00	0	42	0	1140850688	60	5116
2026-01-01 23:10:14.53	171.57	12.68	-44.3	-47.3	16.7	0.00e+00	0	42	0	1142947840	60	5037
2026-01-01 23:10:15.53	171.64	12.59	-44.3	-47.3	16.6	0.00e+00	0	42	0	1145044992	60	5007
2026-01-01 23:10:16.53	171.71	12.50	-44.3	-47.4	16.7	0.00e+00	0	42	0	1147142144	60	5047
2026-01-01 23:10:17.53	171.78	12.41	-44.3	-47.3	16.8	0.00e+00	0	42	0	1148190720	60	5014
2026-01-01 23:10:18.54	171.84	12.32	-44.4	-47.5	16.6	0.00e+00	0	42	0	1150287872	60	5113
2026-01-01 23:10:19.54	171.91	12.23	-44.5	-47.5	16.5	0.00e+00	0	42	0	1152385024	60	5138
2026-01-01 23:10:20.54	171.98	12.14	-44.3	-47.2	16.8	0.00e+00	0	42	0	1154482176	60	4971
2026-01-01 23:10:21.54	172.04	12.05	-44.2	-47.2	16.8	5.11e-04	0	42	0	1156579328	60	4974
2026-01-01 23:10:22.55	172.11	11.96	-44.2	-47.3	16.7	0.00e+00	0	42	0	1157627904	60	4998
2026-01-01 23:10:23.55	172.17	11.87	-44.1	-47.3	16.7	0.00e+00	0	42	0	1159725056	60	5023
2026-01-01 23:10:24.55	172.24	11.78	-44.1	-47.4	16.7	5.30e-06	0	42	0	1161822208	60	5050
2026-01-01 23:10:25.56	172.30	11.69	-44.1	-47.4	16.6	0.00e+00	0	42	0	1163919360	60	5083
2026-01-01 23:10:26.56	172.37	11.60	-44.0	-47.6	16.4	0.00e+00	0	42	0	1166016512	60	5179
2026-01-01 23:10:27.56	172.43	11.52	-44.0	-47.6	16.3	0.00e+00	0	42	0	1167065088	59	5495
2026-01-01 23:10:28.57	172.50	11.43	-43.9	-47.6	16.3	0.00e+00	0	42	0	1169162240	59	5520
2026-01-01 23:10:29.57	172.56	11.34	-43.9	-47.7	16.2	0.00e+00	0	42	0	1171259392	59	5586
2026-01-01 23:10:30.58	172.62	11.25	-43.8	-47.8	16.1	0.00e+00	0	42	0	1173356544	59	5643
2026-01-01 23:10:31.58	172.68	11.17	-43.8	-47.9	16.0	0.00e+00	0	42	0	1175453696	59	5719
2026-01-01 23:10:32.58	172.75	11.08	-43.7	-47.9	16.0	0.00e+00	0	42	0	1176502272	59	5715
2026-01-01 23:10:33.59	172.81	10.99	-43.7	-48.0	15.9	0.00e+00	0	42	0	1178599424	59	5761
2026-01-01 23:10:34.59	172.87	10.91	-43.7	-48.1	15.8	0.00e+00	0	42	0	1180696576	59	5800
2026-01-01 23:10:35.60	172.93	10.82	-43.7	-48.2	15.8	0.00e+00	0	42	0	1182793728	59	5867
2026-01-01 23:10:36.60	172.99	10.73	-43.7	-48.2	15.7	0.00e+00	0	42	0	1184890880	59	5907
2026-01-01 23:10:37.61	173.05	10.65	-43.6	-48.2	15.7	0.00e+00	0	42	0	1185939456	59	5892
2026-01-01 23:10:38.61	173.11	10.56	-43.6	-48.3	15.6	0.00e+00	0	42	0	1188036608	59	5933
2026-01-01 23:10:39.61	173.17	10.48	-43.5	-48.2	15.7	0.00e+00	0	42	0	1190133760	59	5910
2026-01-01 23:10:40.62	173.23	10.39	-43.5	-48.3	15.5	0.00e+00	0	42	0	1192230912	58	6329
2026-01-01 23:10:41.62	173.29	10.31	-43.5	-48.3	15.6	0.00e+00	0	42	0	1193279488	58	6323
2026-01-01 23:10:42.62	173.35	10.23	-43.4	-48.3	15.6	0.00e+00	0	42	0	1195376640	58	6293
2026-01-01 23:10:43.63	173.41	10.14	-43.5	-48.3	15.5	0.00e+00	0	42	0	1197473792	58	6339
2026-01-01 23:10:44.63	173.46	10.06	-43.4	-48.3	15.6	7.00e-07	0	42	0	1199570944	58	6316
2026-01-01 23:10:45.64	173.52	9.98	-43.4	-48.2	15.6	0.00e+00	0	42	0	1201668096	58	6254
2026-01-01 23:10:46.64	173.58	9.89	-43.5	-48.2	15.7	0.00e+00	0	42	0	1202716672	58	6245
2026-01-01 23:10:47.65	173.64	9.81	-43.6	-48.3	15.6	0.00e+00	0	42	0	1204813824	58	6275
2026-01-01 23:10:48.65	173.69	9.73	-43.7	-48.2	15.6	0.00e+00	0	42	0	1206910976	58	6256
2026-01-01 23:10:49.65	173.75	9.65	-43.8	-48.2	15.7	0.00e+00	0	42	0	1209008128	58	6237
2026-01-01 23:10:50.65	173.81	9.56	-43.9	-48.2	15.6	0.00e+00	0	42	0	1211105280	58	6258
2026-01-01 23:10:51.66	173.86	9.48	-44.0	-48.1	15.8	0.00e+00	0	42	0	1212153856	58	6175
2026-01-01 23:10:52.66	173.92	9.40	-44.0	-48.0	15.8	0.00e+00	0	42	0	1214251008	58	6128
2026-01-01 23:10:53.67	173.97	9.32	-44.1	-48.0	15.8	0.00e+00	0	42	0	1216348160	58	6108
2026-01-01 23:10:54.67	174.03	9.24	-44.1	-48.0	15.8	0.00e+00	0	42	0	1218445312	58	6115
2026-01-01 23:10:55.67	174.08	9.16	-44.0	-48.0	15.9	0.00e+00	0	42	0	1220542464	58	6084
2026-01-01 23:10:56.67	174.14	9.08	-44.0	-48.0	15.8	0.00e+00	0	42	0	1221591040	58	6091
2026-01-01 23:10:57.68	174.19	9.00	-44.7	-49.7	14.5	0.00e+00	0	42	0	1223688192	60	6591
2026-01-01 23:10:58.68	174.24	8.92	-49.1	-64.2	3.9	1.46e+00	0	42	104	1224736768	68	22231
2026-01-01 23:10:59.68	174.30	8.84	-49.5	-65.3	3.8	1.49e+00	0	42	104	1224736768	69	23843
2026-01-01 23:11:00.69	174.35	8.76	-49.9	-65.6	3.8	1.49e+00	0	42	104	1224736768	70	23066
2026-01-01 23:11:01.69	174.40	8.68	-50.0	-65.5	3.8	1.49e+00	0	42	104	1224736768	70	22999
2026-01-01 23:11:02.70	174.46	8.60	-50.0	-65.6	3.8	1.49e+00	0	42	104	1224736768	70	23247
2026-01-01 23:11:03.70	174.51	8.52	-50.2	-65.6	3.8	1.49e+00	0	42	104	1224736768	71	21965
2026-01-01 23:11:04.71	174.56	8.44	-50.4	-65.6	3.8	1.49e+00	0	42	104	1224736768	71	21998
