passes_logs/2026/01/01/T1/T1__20260101_102807_SUOMI_NPP_rec.log

#Pass ID: 20260101_102807_SUOMI NPP
#Satellite: SUOMI NPP
#Configuration: NPP
#almurnet v.1.7.20251203
#Start time: 2026-01-01 10:28:08

#Version: 2.0.20230620
#Station: T1
#Location: 37.570604 lon 55.790049 lat
#TLE: 1 37849U 11061A   25364.87906317  .00000195  00000+0  11345-3 0  9992
#TLE: 2 37849  98.7794 302.0592 0002571  89.2401 270.9069 14.19520347734561

#Time	Az	El	Level	Level2	SNR	BER	BlckErr	Temp	State	Recorded	gain1	gain2
2026-01-01 10:28:08.50	175.18	5.10	-52.5	-67.6	3.8	1.49e+00	0	41	104	0	77	19553
2026-01-01 10:28:09.50	175.21	5.17	-52.5	-67.6	3.8	1.49e+00	0	41	104	0	76	20659
2026-01-01 10:28:10.55	175.24	5.25	-52.5	-67.6	3.8	1.49e+00	0	41	104	0	76	20747
2026-01-01 10:28:11.44	175.27	5.31	-52.5	-67.6	3.8	1.49e+00	0	41	104	0	76	20704
2026-01-01 10:28:12.65	175.30	5.40	-52.5	-67.6	3.8	1.49e+00	0	41	104	0	76	20694
2026-01-01 10:28:13.51	175.32	5.46	-52.5	-67.6	3.8	1.49e+00	0	41	104	0	76	20697
2026-01-01 10:28:14.66	175.36	5.54	-52.5	-67.6	3.8	1.49e+00	0	41	104	0	76	20623
2026-01-01 10:28:15.52	175.38	5.61	-52.5	-67.6	3.8	1.49e+00	0	41	104	0	76	20609
2026-01-01 10:28:16.67	175.42	5.69	-52.4	-67.6	3.8	1.49e+00	0	41	104	0	76	20629
2026-01-01 10:28:17.53	175.44	5.75	-52.5	-67.6	3.8	1.49e+00	0	41	104	0	76	20628
2026-01-01 10:28:18.68	175.47	5.83	-52.5	-67.6	3.8	1.49e+00	0	41	104	0	76	20730
2026-01-01 10:28:19.54	175.50	5.90	-52.5	-67.7	3.8	1.49e+00	0	41	104	0	76	20790
2026-01-01 10:28:20.69	175.53	5.98	-52.5	-67.6	3.8	1.49e+00	0	41	104	0	76	20741
2026-01-01 10:28:21.55	175.56	6.04	-52.5	-67.6	3.8	1.49e+00	0	41	104	0	76	20749
2026-01-01 10:28:22.70	175.59	6.13	-52.5	-67.6	3.8	1.49e+00	0	42	104	0	76	20713
2026-01-01 10:28:23.56	175.62	6.19	-52.5	-67.7	3.8	1.49e+00	0	42	104	0	76	20863
2026-01-01 10:28:24.74	175.65	6.28	-52.5	-67.7	3.8	1.49e+00	0	41	104	0	76	20787
2026-01-01 10:28:25.60	175.68	6.34	-52.5	-67.6	3.8	1.49e+00	0	42	104	0	76	20763
2026-01-01 10:28:26.75	175.71	6.43	-52.5	-67.6	3.8	1.49e+00	0	42	104	0	76	20688
2026-01-01 10:28:27.61	175.74	6.49	-52.5	-67.6	3.8	1.49e+00	0	42	104	0	76	20726
2026-01-01 10:28:28.75	175.77	6.58	-52.5	-67.6	3.8	1.49e+00	0	42	104	0	76	20708
2026-01-01 10:28:29.61	175.80	6.64	-52.5	-67.6	3.8	1.49e+00	0	42	104	0	76	20626
2026-01-01 10:28:30.76	175.84	6.73	-52.4	-67.6	3.8	1.49e+00	0	42	104	0	76	20647
2026-01-01 10:28:31.62	175.86	6.79	-52.5	-67.7	3.8	1.49e+00	0	42	104	0	76	20807
2026-01-01 10:28:32.77	175.90	6.88	-52.5	-67.7	3.8	1.49e+00	0	42	104	0	76	20805
2026-01-01 10:28:33.63	175.93	6.95	-52.5	-67.7	3.8	1.49e+00	0	42	104	0	76	20812
2026-01-01 10:28:34.78	175.96	7.03	-52.5	-67.7	3.8	1.49e+00	0	42	104	0	76	20856
2026-01-01 10:28:35.64	175.99	7.10	-52.5	-67.7	3.8	1.49e+00	0	42	104	0	76	20814
2026-01-01 10:28:36.79	176.03	7.19	-52.5	-67.6	3.8	1.49e+00	0	42	104	0	76	20732
2026-01-01 10:28:37.65	176.05	7.25	-52.5	-67.6	3.8	1.49e+00	0	42	104	0	76	20718
2026-01-01 10:28:38.80	176.09	7.34	-52.5	-67.6	3.8	1.49e+00	0	42	104	0	76	20663
2026-01-01 10:28:39.65	176.12	7.41	-52.5	-67.6	3.8	1.49e+00	0	42	104	0	76	20734
2026-01-01 10:28:40.80	176.15	7.50	-52.5	-67.6	3.8	1.49e+00	0	42	104	0	76	20624
2026-01-01 10:28:41.66	176.18	7.56	-52.5	-67.6	3.8	1.49e+00	0	42	104	0	76	20643
2026-01-01 10:28:42.81	176.22	7.65	-52.5	-67.6	3.8	1.49e+00	0	42	104	0	76	20605
2026-01-01 10:28:43.67	176.25	7.72	-52.5	-67.6	3.8	1.49e+00	0	42	104	0	76	20745
2026-01-01 10:28:44.82	176.29	7.81	-52.5	-67.7	3.8	1.49e+00	0	42	104	0	76	20797
2026-01-01 10:28:45.68	176.31	7.88	-52.5	-67.7	3.8	1.49e+00	0	42	104	0	76	20899
2026-01-01 10:28:46.83	176.35	7.97	-52.5	-67.6	3.8	1.49e+00	0	42	104	0	76	20750
2026-01-01 10:28:47.69	176.38	8.04	-52.5	-67.6	3.8	1.49e+00	0	42	104	0	76	20693
2026-01-01 10:28:48.84	176.42	8.13	-52.5	-67.6	3.8	1.49e+00	0	42	104	0	76	20709
2026-01-01 10:28:49.70	176.45	8.20	-52.5	-67.6	3.8	1.49e+00	0	42	104	0	76	20626
2026-01-01 10:28:50.84	176.49	8.29	-52.5	-67.6	3.8	1.49e+00	0	42	104	0	76	20697
2026-01-01 10:28:51.70	176.52	8.36	-52.5	-67.6	3.8	1.49e+00	0	42	104	0	76	20667
2026-01-01 10:28:52.85	176.56	8.45	-52.5	-67.6	3.8	1.49e+00	0	42	104	0	76	20658
2026-01-01 10:28:53.71	176.59	8.52	-52.5	-67.6	3.8	1.49e+00	0	42	104	0	76	20686
2026-01-01 10:28:54.86	176.63	8.61	-52.5	-67.6	3.8	1.49e+00	0	42	104	0	76	20694
2026-01-01 10:28:55.72	176.66	8.68	-52.5	-67.6	3.8	1.49e+00	0	42	104	0	76	20699
2026-01-01 10:28:56.87	176.70	8.78	-52.5	-67.7	3.8	1.49e+00	0	42	104	0	76	20798
2026-01-01 10:28:57.73	176.73	8.85	-52.5	-67.7	3.8	1.49e+00	0	42	104	0	76	20819
2026-01-01 10:28:58.88	176.77	8.94	-52.5	-67.6	3.8	1.49e+00	0	42	104	0	76	20748
2026-01-01 10:28:59.74	176.80	9.01	-52.5	-67.6	3.8	1.49e+00	0	42	104	0	76	20722
2026-01-01 10:29:00.88	176.84	9.10	-52.5	-67.6	3.8	1.49e+00	0	42	104	0	76	20708
2026-01-01 10:29:01.74	176.87	9.18	-52.5	-67.6	3.8	1.49e+00	0	43	104	0	76	20721
2026-01-01 10:29:02.89	176.91	9.27	-52.5	-67.6	3.8	1.49e+00	0	43	104	0	76	20696
2026-01-01 10:29:03.75	176.94	9.34	-52.5	-67.6	3.8	1.49e+00	0	43	104	0	76	20672
2026-01-01 10:29:04.90	176.98	9.44	-52.5	-67.6	3.8	1.49e+00	0	42	104	0	76	20709
2026-01-01 10:29:05.76	177.02	9.51	-52.5	-67.6	3.8	1.49e+00	0	43	104	0	76	20590
2026-01-01 10:29:06.91	177.06	9.61	-52.5	-67.6	3.8	1.49e+00	0	42	104	0	76	20649
2026-01-01 10:29:07.77	177.09	9.68	-52.5	-67.6	3.8	1.49e+00	0	43	104	0	76	20687
2026-01-01 10:29:08.92	177.13	9.78	-52.5	-67.6	3.8	1.49e+00	0	43	104	0	76	20645
2026-01-01 10:29:09.78	177.16	9.85	-52.5	-67.6	3.8	1.49e+00	0	42	104	0	76	20735
2026-01-01 10:29:10.93	177.21	9.95	-52.5	-67.6	3.8	1.49e+00	0	43	104	0	76	20648
2026-01-01 10:29:11.79	177.24	10.02	-52.5	-67.6	3.8	1.49e+00	0	43	104	0	76	20570
2026-01-01 10:29:12.93	177.28	10.12	-52.5	-67.6	3.8	1.49e+00	0	43	104	0	76	20697
2026-01-01 10:29:13.80	177.32	10.19	-52.5	-67.6	3.8	1.49e+00	0	43	104	0	76	20655
2026-01-01 10:29:14.94	177.36	10.29	-52.5	-67.7	3.8	1.49e+00	0	43	104	0	76	20824
2026-01-01 10:29:15.80	177.39	10.37	-52.5	-67.7	3.8	1.49e+00	0	43	104	0	76	20784
2026-01-01 10:29:16.95	177.44	10.47	-52.6	-67.7	3.8	1.49e+00	0	42	104	0	76	20903
2026-01-01 10:29:17.81	177.47	10.54	-52.5	-67.6	3.8	1.49e+00	0	43	104	0	76	20744
2026-01-01 10:29:18.96	177.52	10.64	-52.5	-67.6	3.8	1.49e+00	0	43	104	0	76	20687
2026-01-01 10:29:19.82	177.55	10.72	-52.5	-67.6	3.8	1.49e+00	0	43	104	0	76	20711
2026-01-01 10:29:20.97	177.60	10.82	-52.5	-67.6	3.8	1.49e+00	0	43	104	0	76	20616
2026-01-01 10:29:21.83	177.63	10.90	-52.5	-67.6	3.8	1.49e+00	0	43	104	0	76	20695
2026-01-01 10:29:22.98	177.68	11.00	-52.5	-67.6	3.8	1.49e+00	0	43	104	0	76	20697
2026-01-01 10:29:23.84	177.71	11.07	-52.5	-67.6	3.8	1.49e+00	0	43	104	0	76	20776
2026-01-01 10:29:24.98	177.76	11.18	-52.5	-67.6	3.8	1.49e+00	0	43	104	0	76	20633
2026-01-01 10:29:25.85	177.80	11.25	-52.5	-67.7	3.8	1.49e+00	0	43	104	0	76	20824
2026-01-01 10:29:26.99	177.84	11.36	-52.5	-67.6	3.8	1.49e+00	0	43	104	0	76	20724
2026-01-01 10:29:27.85	177.88	11.43	-52.5	-67.7	3.8	1.49e+00	0	43	104	0	76	20777
2026-01-01 10:29:29.00	177.93	11.54	-52.5	-67.6	3.8	1.49e+00	0	43	104	0	76	20696
2026-01-01 10:29:29.86	177.96	11.62	-52.5	-67.6	3.8	1.49e+00	0	43	104	0	76	20715
2026-01-01 10:29:31.01	178.01	11.72	-52.5	-67.6	3.8	1.49e+00	0	43	104	0	76	20723
2026-01-01 10:29:31.87	178.05	11.80	-52.5	-67.6	3.8	1.49e+00	0	43	104	0	76	20716
2026-01-01 10:29:33.02	178.10	11.91	-52.5	-67.6	3.8	1.49e+00	0	43	104	0	76	20658
2026-01-01 10:29:33.88	178.13	11.99	-52.5	-67.6	3.8	1.49e+00	0	43	104	0	76	20628
2026-01-01 10:29:35.03	178.18	12.09	-52.5	-67.6	3.8	1.49e+00	0	43	104	0	76	20681
2026-01-01 10:29:35.89	178.22	12.17	-52.5	-67.6	3.8	1.49e+00	0	43	104	0	76	20643
2026-01-01 10:29:37.04	178.27	12.28	-52.5	-67.6	3.8	1.49e+00	0	43	104	0	76	20665
2026-01-01 10:29:37.90	178.31	12.36	-52.5	-67.6	3.8	1.49e+00	0	43	104	0	76	20611
2026-01-01 10:29:39.05	178.36	12.47	-52.5	-67.6	3.8	1.49e+00	0	43	104	0	76	20745
2026-01-01 10:29:39.91	178.40	12.55	-52.6	-67.7	3.8	1.49e+00	0	43	104	0	76	20838
2026-01-01 10:29:41.06	178.45	12.66	-52.5	-67.6	3.8	1.49e+00	0	43	104	0	76	20694
2026-01-01 10:29:41.92	178.49	12.74	-52.5	-67.6	3.8	1.49e+00	0	43	104	0	76	20710
2026-01-01 10:29:43.06	178.54	12.85	-52.5	-67.6	3.8	1.49e+00	0	43	104	0	76	20769
2026-01-01 10:29:43.93	178.58	12.93	-52.6	-67.7	3.8	1.49e+00	0	43	104	0	76	20858
2026-01-01 10:29:45.07	178.63	13.04	-52.5	-67.6	3.8	1.49e+00	0	43	104	0	76	20726
2026-01-01 10:29:45.93	178.67	13.12	-52.5	-67.7	3.8	1.49e+00	0	43	104	0	76	20779
2026-01-01 10:29:47.08	178.72	13.24	-52.5	-67.6	3.8	1.49e+00	0	43	104	0	76	20754
2026-01-01 10:29:47.94	178.76	13.32	-52.5	-67.6	3.8	1.49e+00	0	43	104	0	76	20750
2026-01-01 10:29:49.09	178.82	13.43	-52.6	-67.7	3.8	1.49e+00	0	43	104	0	76	20912
2026-01-01 10:29:49.95	178.86	13.52	-52.6	-67.7	3.8	1.49e+00	0	43	104	0	76	20920
2026-01-01 10:29:51.10	178.91	13.63	-52.6	-67.7	3.8	1.49e+00	0	43	104	0	76	21001
2026-01-01 10:29:51.96	178.95	13.72	-52.6	-67.7	3.8	1.49e+00	0	43	104	0	76	20956
2026-01-01 10:29:53.11	179.01	13.83	-52.6	-67.7	3.8	1.49e+00	0	43	104	0	76	20853
2026-01-01 10:29:53.97	179.05	13.91	-52.6	-67.7	3.8	1.49e+00	0	43	104	0	76	20923
2026-01-01 10:29:55.11	179.11	14.03	-52.6	-67.7	3.8	1.49e+00	0	43	104	0	76	20983
2026-01-01 10:29:55.98	179.15	14.12	-52.6	-67.7	3.8	1.49e+00	0	43	104	0	76	20935
2026-01-01 10:29:57.12	179.21	14.23	-52.6	-67.7	3.8	1.49e+00	0	43	104	0	76	20847
2026-01-01 10:29:57.98	179.25	14.32	-52.6	-67.7	3.8	1.49e+00	0	43	104	0	76	20895
2026-01-01 10:29:59.13	179.31	14.44	-52.6	-67.7	3.8	1.49e+00	0	43	104	0	76	20834
2026-01-01 10:29:59.99	179.35	14.52	-52.5	-67.7	3.8	1.49e+00	0	43	104	0	76	20779
2026-01-01 10:30:01.14	179.41	14.64	-52.6	-67.7	3.8	1.49e+00	0	43	104	0	76	20837
2026-01-01 10:30:02.00	179.45	14.73	-52.5	-67.6	3.8	1.49e+00	0	43	104	0	76	20754
2026-01-01 10:30:03.15	179.51	14.85	-52.5	-67.6	3.8	1.49e+00	0	43	104	0	76	20770
2026-01-01 10:30:04.01	179.56	14.94	-52.6	-67.7	3.8	1.49e+00	0	43	104	0	76	20902
2026-01-01 10:30:05.16	179.61	15.06	-52.6	-67.8	3.8	1.49e+00	0	43	104	0	76	21036
2026-01-01 10:30:06.02	179.66	15.15	-52.6	-67.7	3.8	1.49e+00	0	43	104	0	76	20875
2026-01-01 10:30:07.16	179.72	15.27	-52.5	-67.6	3.8	1.49e+00	0	43	104	0	76	20749
2026-01-01 10:30:08.02	179.77	15.36	-52.5	-67.7	3.8	1.49e+00	0	43	104	0	76	20836
2026-01-01 10:30:09.17	179.83	15.48	-52.6	-67.7	3.8	1.49e+00	0	43	104	0	76	20804
2026-01-01 10:30:10.03	179.87	15.57	-52.6	-67.7	3.8	1.49e+00	0	43	104	0	76	20792
2026-01-01 10:30:11.18	179.94	15.69	-52.5	-67.6	3.8	1.49e+00	0	43	104	0	76	20748
2026-01-01 10:30:12.04	179.98	15.79	-52.5	-67.6	3.8	1.49e+00	0	44	104	0	76	20750
2026-01-01 10:30:13.19	180.05	15.91	-52.5	-67.7	3.8	1.49e+00	0	43	104	0	76	20828
2026-01-01 10:30:14.05	180.09	16.00	-52.5	-67.6	3.8	1.49e+00	0	43	104	0	76	20760
2026-01-01 10:30:15.20	180.16	16.13	-52.6	-67.7	3.8	1.49e+00	0	43	104	0	76	20865
2026-01-01 10:30:16.06	180.21	16.22	-52.6	-67.7	3.8	1.49e+00	0	43	104	0	76	20884
2026-01-01 10:30:17.21	180.27	16.35	-52.6	-67.7	3.8	1.49e+00	0	43	104	0	76	20865
2026-01-01 10:30:18.07	180.32	16.44	-52.5	-67.7	3.8	1.49e+00	0	44	104	0	76	20829
2026-01-01 10:30:19.22	180.38	16.57	-52.6	-67.7	3.8	1.49e+00	0	43	104	0	76	20906
2026-01-01 10:30:20.36	180.45	16.70	-52.5	-67.7	3.8	1.49e+00	0	43	104	0	76	20839
2026-01-01 10:30:21.40	180.51	16.81	-52.5	-67.6	3.8	1.49e+00	0	43	104	0	76	20758
2026-01-01 10:30:22.57	180.58	16.94	-52.6	-67.7	3.8	1.49e+00	0	43	104	0	76	20895
2026-01-01 10:30:23.46	180.63	17.04	-52.6	-67.7	3.8	1.49e+00	0	43	104	0	76	20897
2026-01-01 10:30:24.49	180.69	17.16	-52.6	-67.7	3.8	1.49e+00	0	44	104	0	76	20831
2026-01-01 10:30:25.49	180.75	17.27	-52.6	-67.7	3.8	1.49e+00	0	43	104	0	76	20875
2026-01-01 10:30:26.49	180.81	17.39	-52.5	-67.6	3.8	1.49e+00	0	43	104	0	76	20743
2026-01-01 10:30:27.50	180.87	17.50	-52.6	-67.7	3.8	1.49e+00	0	43	104	0	76	20973
2026-01-01 10:30:28.50	180.94	17.62	-52.6	-67.7	3.8	1.49e+00	0	43	104	0	76	20969
2026-01-01 10:30:29.50	181.00	17.73	-52.6	-67.8	3.8	1.49e+00	0	43	104	0	76	21036
2026-01-01 10:30:30.51	181.06	17.85	-52.6	-67.7	3.8	1.49e+00	0	43	104	0	76	20933
2026-01-01 10:30:31.51	181.12	17.97	-52.6	-67.7	3.8	1.49e+00	0	43	104	0	76	20869
2026-01-01 10:30:32.52	181.19	18.09	-52.6	-67.7	3.8	1.49e+00	0	43	104	0	76	20909
2026-01-01 10:30:33.52	181.25	18.20	-52.6	-67.7	3.8	1.49e+00	0	43	104	0	76	20928
2026-01-01 10:30:34.53	181.31	18.32	-52.6	-67.7	3.8	1.49e+00	0	43	104	0	76	20859
2026-01-01 10:30:35.56	181.38	18.45	-52.6	-67.8	3.8	1.49e+00	0	43	104	0	76	21088
2026-01-01 10:30:36.59	181.45	18.57	-52.6	-67.7	3.8	1.49e+00	0	43	104	0	76	20935
2026-01-01 10:30:37.60	181.51	18.69	-52.6	-67.7	3.8	1.49e+00	0	43	104	0	76	20900
2026-01-01 10:30:38.60	181.58	18.81	-52.6	-67.7	3.8	1.49e+00	0	43	104	0	76	20849
2026-01-01 10:30:39.61	181.65	18.93	-52.6	-67.7	3.8	1.49e+00	0	43	104	0	76	20812
2026-01-01 10:30:40.61	181.71	19.05	-52.6	-67.7	3.8	1.49e+00	0	44	104	0	76	20821
2026-01-01 10:30:41.62	181.78	19.18	-52.5	-67.7	3.8	1.49e+00	0	43	104	0	76	20795
2026-01-01 10:30:42.62	181.85	19.30	-52.6	-67.7	3.8	1.49e+00	0	44	104	0	76	20834
2026-01-01 10:30:43.62	181.92	19.42	-52.6	-67.7	3.8	1.49e+00	0	43	104	0	76	20974
2026-01-01 10:30:44.63	181.99	19.55	-52.6	-67.7	3.8	1.49e+00	0	44	104	0	76	20958
2026-01-01 10:30:45.63	182.06	19.67	-52.6	-67.7	3.8	1.49e+00	0	44	104	0	76	20955
2026-01-01 10:30:46.64	182.13	19.80	-52.6	-67.7	3.8	1.49e+00	0	43	104	0	76	20931
2026-01-01 10:30:47.64	182.20	19.92	-52.6	-67.7	3.8	1.49e+00	0	44	104	0	76	20959
2026-01-01 10:30:48.65	182.27	20.05	-52.6	-67.7	3.8	1.49e+00	0	43	104	0	76	20942
2026-01-01 10:30:49.65	182.34	20.18	-52.6	-67.7	3.8	1.49e+00	0	44	104	0	76	20832
2026-01-01 10:30:50.65	182.41	20.31	-52.6	-67.7	3.8	1.49e+00	0	43	104	0	76	20908
2026-01-01 10:30:51.66	182.49	20.44	-52.6	-67.7	3.8	1.49e+00	0	43	104	0	76	20918
2026-01-01 10:30:52.66	182.56	20.56	-52.6	-67.7	3.8	1.49e+00	0	43	104	0	76	20794
2026-01-01 10:30:53.67	182.63	20.70	-52.6	-67.7	3.8	1.49e+00	0	43	104	0	76	20929
2026-01-01 10:30:54.67	182.71	20.83	-52.6	-67.8	3.8	1.49e+00	0	43	104	0	76	21019
2026-01-01 10:30:55.68	182.78	20.96	-52.6	-67.7	3.8	1.49e+00	0	43	104	0	76	20969
2026-01-01 10:30:56.68	182.86	21.09	-52.6	-67.7	3.8	1.49e+00	0	43	104	0	76	20950
2026-01-01 10:30:57.68	182.94	21.22	-52.6	-67.7	3.8	1.49e+00	0	43	104	0	76	20954
2026-01-01 10:30:58.69	183.01	21.35	-52.6	-67.7	3.8	1.49e+00	0	43	104	0	76	20925
2026-01-01 10:30:59.69	183.09	21.49	-52.6	-67.7	3.8	1.49e+00	0	43	104	0	76	20997
2026-01-01 10:31:00.70	183.17	21.62	-52.6	-67.7	3.8	1.49e+00	0	44	104	0	76	20845
2026-01-01 10:31:01.70	183.25	21.76	-52.6	-67.7	3.8	1.49e+00	0	44	104	0	76	20937
2026-01-01 10:31:02.71	183.33	21.89	-52.6	-67.7	3.8	1.49e+00	0	43	104	0	76	20928
2026-01-01 10:31:03.71	183.41	22.03	-52.6	-67.7	3.8	1.49e+00	0	43	104	0	76	20935
2026-01-01 10:31:04.72	183.49	22.17	-52.5	-67.7	3.8	1.49e+00	0	44	104	0	76	20797
2026-01-01 10:31:05.72	183.57	22.31	-52.6	-67.7	3.8	1.49e+00	0	44	104	0	76	20990
2026-01-01 10:31:06.73	183.66	22.44	-52.6	-67.7	3.8	1.49e+00	0	44	104	0	76	20895
2026-01-01 10:31:07.73	183.74	22.58	-52.6	-67.7	3.8	1.49e+00	0	43	104	0	76	20906
2026-01-01 10:31:08.74	183.83	22.72	-52.6	-67.7	3.8	1.49e+00	0	43	104	0	76	20892
2026-01-01 10:31:09.74	183.91	22.86	-52.6	-67.7	3.8	1.49e+00	0	44	104	0	76	20925
2026-01-01 10:31:10.74	184.00	23.00	-52.6	-67.7	3.8	1.49e+00	0	44	104	0	76	20825
2026-01-01 10:31:11.75	184.08	23.15	-52.6	-67.7	3.8	1.49e+00	0	43	104	0	76	20989
2026-01-01 10:31:12.75	184.17	23.29	-52.6	-67.7	3.8	1.49e+00	0	43	104	0	76	20936
2026-01-01 10:31:13.76	184.26	23.43	-52.7	-67.8	3.8	1.49e+00	0	44	104	0	76	21027
2026-01-01 10:31:14.76	184.35	23.58	-52.6	-67.8	3.8	1.49e+00	0	44	104	0	76	21025
2026-01-01 10:31:15.76	184.44	23.72	-52.6	-67.7	3.8	1.49e+00	0	43	104	0	76	20958
2026-01-01 10:31:16.77	184.53	23.87	-52.6	-67.8	3.8	1.49e+00	0	44	104	0	76	21044
2026-01-01 10:31:17.77	184.62	24.01	-52.6	-67.7	3.8	1.49e+00	0	43	104	0	76	20982
2026-01-01 10:31:18.78	184.71	24.16	-52.6	-67.7	3.8	1.49e+00	0	43	104	0	76	20963
2026-01-01 10:31:19.78	184.80	24.31	-52.6	-67.7	3.8	1.49e+00	0	44	104	0	76	20963
2026-01-01 10:31:20.79	184.90	24.46	-52.6	-67.7	3.8	1.49e+00	0	43	104	0	76	20864
2026-01-01 10:31:21.79	184.99	24.61	-52.6	-67.7	3.8	1.49e+00	0	44	104	0	76	20956
2026-01-01 10:31:22.80	185.09	24.76	-52.6	-67.8	3.8	1.49e+00	0	44	104	0	76	21064
2026-01-01 10:31:23.80	185.18	24.91	-52.6	-67.7	3.8	1.49e+00	0	44	104	0	76	20999
2026-01-01 10:31:24.80	185.28	25.06	-52.6	-67.8	3.8	1.49e+00	0	43	104	0	76	21094
2026-01-01 10:31:25.81	185.38	25.21	-52.6	-67.8	3.8	1.49e+00	0	43	104	0	76	21044
2026-01-01 10:31:26.81	185.48	25.37	-52.6	-67.8	3.8	1.49e+00	0	44	104	0	76	21077
2026-01-01 10:31:27.82	185.58	25.52	-52.6	-67.8	3.8	1.49e+00	0	44	104	0	76	21035
2026-01-01 10:31:28.82	185.68	25.68	-52.6	-67.7	3.8	1.49e+00	0	44	104	0	76	20938
2026-01-01 10:31:29.83	185.78	25.83	-52.6	-67.7	3.8	1.49e+00	0	43	104	0	76	20974
2026-01-01 10:31:30.83	185.88	25.99	-52.7	-67.8	3.8	1.49e+00	0	44	104	0	76	21092
2026-01-01 10:31:31.83	185.98	26.15	-52.7	-67.8	3.8	1.49e+00	0	44	104	0	76	21025
2026-01-01 10:31:32.84	186.09	26.31	-52.7	-67.8	3.8	1.49e+00	0	44	104	0	76	21151
2026-01-01 10:31:33.84	186.19	26.46	-52.7	-67.8	3.8	1.49e+00	0	44	104	0	76	21101
2026-01-01 10:31:34.85	186.30	26.63	-52.6	-67.8	3.8	1.49e+00	0	44	104	0	76	21074
2026-01-01 10:31:35.85	186.41	26.79	-52.7	-67.8	3.8	1.49e+00	0	44	104	0	76	21201
2026-01-01 10:31:36.85	186.52	26.95	-52.7	-67.8	3.8	1.49e+00	0	43	104	0	76	21055
2026-01-01 10:31:37.86	186.63	27.11	-52.7	-67.8	3.8	1.49e+00	0	43	104	0	76	21259
2026-01-01 10:31:38.86	186.74	27.27	-52.6	-67.8	3.8	1.49e+00	0	44	104	0	76	21069
2026-01-01 10:31:39.86	186.85	27.44	-52.6	-67.8	3.8	1.49e+00	0	44	104	0	76	21036
2026-01-01 10:31:40.87	186.96	27.60	-52.7	-67.8	3.8	1.49e+00	0	44	104	0	76	21135
2026-01-01 10:31:41.88	187.08	27.77	-52.6	-67.8	3.8	1.49e+00	0	44	104	0	76	21055
2026-01-01 10:31:42.88	187.19	27.94	-52.7	-67.7	3.8	1.49e+00	0	43	104	0	76	21003
2026-01-01 10:31:43.88	187.31	28.10	-52.7	-67.8	3.8	1.49e+00	0	44	104	0	76	21026
2026-01-01 10:31:44.89	187.43	28.27	-52.6	-67.7	3.8	1.49e+00	0	44	104	0	76	20902
2026-01-01 10:31:45.89	187.55	28.44	-52.6	-67.8	3.8	1.49e+00	0	44	104	0	76	21039
2026-01-01 10:31:46.90	187.67	28.61	-52.7	-67.8	3.8	1.49e+00	0	44	104	0	76	21059
2026-01-01 10:31:47.90	187.79	28.79	-52.6	-67.8	3.8	1.49e+00	0	44	104	0	76	21044
2026-01-01 10:31:48.90	187.91	28.96	-52.6	-67.8	3.8	1.49e+00	0	44	104	0	76	21044
2026-01-01 10:31:49.91	188.04	29.13	-52.6	-67.8	3.8	1.49e+00	0	43	104	0	76	21124
2026-01-01 10:31:50.91	188.16	29.31	-52.6	-67.7	3.8	1.49e+00	0	44	104	0	76	20952
2026-01-01 10:31:51.92	188.29	29.48	-52.6	-67.7	3.8	1.49e+00	0	44	104	0	76	20908
2026-01-01 10:31:52.92	188.42	29.66	-52.6	-67.8	3.8	1.49e+00	0	44	104	0	76	21087
2026-01-01 10:31:53.93	188.55	29.84	-52.7	-67.8	3.8	1.49e+00	0	44	104	0	76	21104
2026-01-01 10:31:54.93	188.68	30.01	-52.7	-67.8	3.8	1.49e+00	0	44	104	0	76	21185
2026-01-01 10:31:55.93	188.81	30.19	-52.7	-67.8	3.8	1.49e+00	0	44	104	0	76	21061
2026-01-01 10:31:56.94	188.94	30.37	-52.7	-67.8	3.8	1.49e+00	0	44	104	0	76	21105
2026-01-01 10:31:57.94	189.08	30.55	-52.7	-67.8	3.8	1.49e+00	0	44	104	0	76	21128
2026-01-01 10:31:58.95	189.22	30.74	-52.7	-67.8	3.8	1.49e+00	0	44	104	0	76	21137
2026-01-01 10:31:59.95	189.35	30.92	-52.7	-67.8	3.8	1.49e+00	0	44	104	0	76	21149
2026-01-01 10:32:00.95	189.49	31.10	-52.7	-67.8	3.8	1.49e+00	0	44	104	0	76	21132
2026-01-01 10:32:01.96	189.64	31.29	-52.7	-67.8	3.8	1.49e+00	0	44	104	0	76	21259
2026-01-01 10:32:02.96	189.78	31.47	-52.7	-67.8	3.8	1.49e+00	0	44	104	0	76	21107
2026-01-01 10:32:03.97	189.92	31.66	-52.7	-67.8	3.8	1.49e+00	0	43	104	0	76	21095
2026-01-01 10:32:04.97	190.07	31.85	-52.7	-67.8	3.8	1.49e+00	0	44	104	0	76	21078
2026-01-01 10:32:05.98	190.22	32.04	-52.6	-67.8	3.8	1.49e+00	0	43	104	0	76	21126
2026-01-01 10:32:06.98	190.37	32.23	-52.7	-67.8	3.8	1.49e+00	0	44	104	0	76	21194
2026-01-01 10:32:07.98	190.52	32.42	-52.7	-67.8	3.8	1.49e+00	0	44	104	0	76	21111
2026-01-01 10:32:08.99	190.67	32.61	-52.8	-67.9	3.8	1.49e+00	0	43	104	0	76	21290
2026-01-01 10:32:09.99	190.83	32.80	-52.7	-67.8	3.8	1.49e+00	0	44	104	0	76	21231
2026-01-01 10:32:11.00	190.98	33.00	-52.7	-67.8	3.8	1.49e+00	0	44	104	0	76	21240
2026-01-01 10:32:12.00	191.14	33.19	-52.7	-67.8	3.8	1.49e+00	0	44	104	0	76	21144
2026-01-01 10:32:13.00	191.30	33.39	-52.7	-67.8	3.8	1.49e+00	0	44	104	0	76	21138
2026-01-01 10:32:14.01	191.46	33.58	-52.7	-67.8	3.8	1.49e+00	0	44	104	0	76	21181
2026-01-01 10:32:15.01	191.63	33.78	-52.7	-67.8	3.8	1.49e+00	0	44	104	0	76	21127
2026-01-01 10:32:16.02	191.79	33.98	-52.7	-67.8	3.8	1.49e+00	0	44	104	0	76	21144
2026-01-01 10:32:17.02	191.96	34.18	-52.7	-67.8	3.8	1.49e+00	0	44	104	0	76	21057
2026-01-01 10:32:18.03	192.13	34.38	-52.7	-67.8	3.8	1.49e+00	0	44	104	0	76	21158
2026-01-01 10:32:19.03	192.30	34.58	-52.7	-67.8	3.8	1.49e+00	0	44	104	0	76	21111
2026-01-01 10:32:20.03	192.48	34.79	-52.7	-67.8	3.8	1.49e+00	0	44	104	0	76	21188
2026-01-01 10:32:21.04	192.65	34.99	-52.7	-67.8	3.8	1.49e+00	0	44	104	0	76	21152
2026-01-01 10:32:22.04	192.83	35.20	-52.7	-67.8	3.8	1.49e+00	0	44	104	0	76	21218
2026-01-01 10:32:23.04	193.01	35.40	-52.7	-67.8	3.8	1.49e+00	0	43	104	0	76	21133
2026-01-01 10:32:24.05	193.20	35.61	-52.7	-67.8	3.8	1.49e+00	0	44	104	0	76	21129
2026-01-01 10:32:25.05	193.38	35.82	-52.7	-67.8	3.8	1.49e+00	0	44	104	0	76	21089
2026-01-01 10:32:26.06	193.57	36.03	-52.7	-67.9	3.8	1.49e+00	0	44	104	0	76	21344
2026-01-01 10:32:27.06	193.76	36.24	-52.7	-67.8	3.8	1.49e+00	0	44	104	0	76	21201
2026-01-01 10:32:28.07	193.95	36.45	-52.7	-67.9	3.8	1.49e+00	0	44	104	0	76	21343
2026-01-01 10:32:29.07	194.15	36.66	-52.7	-67.8	3.8	1.49e+00	0	44	104	0	76	21240
2026-01-01 10:32:30.08	194.34	36.88	-52.7	-67.8	3.8	1.49e+00	0	44	104	0	76	21216
2026-01-01 10:32:31.08	194.54	37.09	-52.7	-67.8	3.8	1.49e+00	0	44	104	0	76	21259
2026-01-01 10:32:32.08	194.75	37.31	-52.7	-67.8	3.8	1.49e+00	0	44	104	0	76	21232
2026-01-01 10:32:33.09	194.95	37.52	-52.7	-67.8	3.8	1.49e+00	0	44	104	0	76	21252
2026-01-01 10:32:34.09	195.16	37.74	-52.8	-67.9	3.8	1.49e+00	0	44	104	0	76	21344
2026-01-01 10:32:35.09	195.37	37.96	-52.8	-67.9	3.8	1.49e+00	0	44	104	0	76	21408
2026-01-01 10:32:36.10	195.58	38.18	-52.8	-67.9	3.8	1.49e+00	0	44	104	0	76	21344
2026-01-01 10:32:37.10	195.80	38.40	-52.8	-67.9	3.8	1.49e+00	0	44	104	0	76	21324
2026-01-01 10:32:38.11	196.02	38.62	-52.7	-67.9	3.8	1.49e+00	0	44	104	0	76	21273
2026-01-01 10:32:39.11	196.24	38.84	-52.7	-67.8	3.8	1.49e+00	0	44	104	0	76	21252
2026-01-01 10:32:40.12	196.47	39.07	-52.7	-67.8	3.8	1.49e+00	0	44	104	0	76	21242
2026-01-01 10:32:41.12	196.69	39.29	-52.7	-67.8	3.8	1.49e+00	0	44	104	0	76	21243
2026-01-01 10:32:42.13	196.93	39.52	-52.7	-67.8	3.8	1.49e+00	0	44	104	0	76	21225
2026-01-01 10:32:43.13	197.16	39.74	-52.7	-67.8	3.8	1.49e+00	0	44	104	0	76	21155
2026-01-01 10:32:44.13	197.40	39.97	-52.7	-67.9	3.8	1.49e+00	0	44	104	0	76	21307
2026-01-01 10:32:45.14	197.64	40.20	-52.7	-67.8	3.8	1.49e+00	0	44	104	0	76	21259
2026-01-01 10:32:46.14	197.88	40.43	-52.7	-67.9	3.8	1.49e+00	0	44	104	0	76	21277
2026-01-01 10:32:47.14	198.13	40.66	-52.7	-67.8	3.8	1.49e+00	0	44	104	0	76	21160
2026-01-01 10:32:48.15	198.38	40.89	-52.7	-67.8	3.8	1.49e+00	0	44	104	0	76	21061
2026-01-01 10:32:49.15	198.64	41.12	-52.7	-67.8	3.8	1.49e+00	0	44	104	0	76	21122
2026-01-01 10:32:50.15	198.89	41.35	-52.7	-67.9	3.8	1.49e+00	0	44	104	0	76	21322
2026-01-01 10:32:51.16	199.16	41.59	-52.7	-67.9	3.8	1.49e+00	0	44	104	0	76	21277
2026-01-01 10:32:52.16	199.42	41.82	-52.7	-67.8	3.8	1.49e+00	0	44	104	0	76	21181
2026-01-01 10:32:53.17	199.69	42.06	-52.7	-67.8	3.8	1.49e+00	0	44	104	0	76	21155
2026-01-01 10:32:54.17	199.97	42.29	-52.7	-67.8	3.8	1.49e+00	0	44	104	0	76	21250
2026-01-01 10:32:55.17	200.24	42.53	-52.7	-67.8	3.8	1.49e+00	0	44	104	0	76	21072
2026-01-01 10:32:56.18	200.53	42.77	-52.6	-67.8	3.8	1.49e+00	0	44	104	0	76	21049
2026-01-01 10:32:57.18	200.81	43.01	-52.7	-67.8	3.8	1.49e+00	0	44	104	0	76	21123
2026-01-01 10:32:58.19	201.10	43.25	-52.7	-67.8	3.8	1.49e+00	0	44	104	0	76	21034
2026-01-01 10:32:59.19	201.40	43.48	-52.6	-67.8	3.8	1.49e+00	0	44	104	0	76	21051
2026-01-01 10:33:00.20	201.70	43.73	-52.7	-67.8	3.8	1.49e+00	0	44	104	0	76	21260
2026-01-01 10:33:01.20	202.00	43.97	-52.7	-67.8	3.8	1.49e+00	0	44	104	0	76	21255
2026-01-01 10:33:02.20	202.31	44.21	-52.8	-67.9	3.8	1.49e+00	0	44	104	0	76	21383
2026-01-01 10:33:03.21	202.62	44.45	-52.8	-67.9	3.8	1.49e+00	0	44	104	0	76	21360
2026-01-01 10:33:04.21	202.94	44.69	-52.7	-67.9	3.8	1.49e+00	0	44	104	0	76	21342
2026-01-01 10:33:05.22	203.26	44.94	-52.7	-67.9	3.8	1.49e+00	0	44	104	0	76	21271
2026-01-01 10:33:06.22	203.59	45.18	-52.7	-67.9	3.8	1.49e+00	0	44	104	0	76	21310
2026-01-01 10:33:07.40	203.98	45.47	-52.7	-67.8	3.8	1.49e+00	0	44	104	0	76	21096
2026-01-01 10:33:08.29	204.28	45.69	-52.7	-67.8	3.8	1.49e+00	0	44	104	0	76	21209
2026-01-01 10:33:09.59	204.72	46.00	-52.7	-67.9	3.8	1.49e+00	0	44	104	0	76	21302
2026-01-01 10:33:10.31	204.97	46.18	-52.7	-67.8	3.8	1.49e+00	0	44	104	0	76	21237
2026-01-01 10:33:11.82	205.50	46.55	-52.7	-67.8	3.8	1.49e+00	0	44	104	0	76	21195
2026-01-01 10:33:12.54	205.76	46.73	-52.7	-67.8	3.8	1.49e+00	0	44	104	0	76	21186
2026-01-01 10:33:13.89	206.26	47.06	-52.7	-67.8	3.8	1.49e+00	0	44	104	0	76	21163
2026-01-01 10:33:14.61	206.52	47.23	-52.7	-67.8	3.8	1.49e+00	0	44	104	0	76	21198
2026-01-01 10:33:15.90	207.01	47.55	-52.7	-67.8	3.8	1.49e+00	0	44	104	0	76	21093
2026-01-01 10:33:16.62	207.28	47.73	-52.7	-67.8	3.8	1.49e+00	0	44	104	0	76	21140
2026-01-01 10:33:17.91	207.79	48.05	-52.7	-67.8	3.8	1.49e+00	0	44	104	0	76	21167
2026-01-01 10:33:18.63	208.07	48.22	-52.7	-67.9	3.8	1.49e+00	0	44	104	0	76	21284
2026-01-01 10:33:19.92	208.59	48.54	-52.7	-67.8	3.8	1.49e+00	0	44	104	0	76	21206
2026-01-01 10:33:20.64	208.88	48.72	-52.7	-67.9	3.8	1.49e+00	0	44	104	0	76	21305
2026-01-01 10:33:21.93	209.42	49.03	-52.7	-67.8	3.8	1.49e+00	0	44	104	0	76	21064
2026-01-01 10:33:22.64	209.72	49.21	-52.7	-67.8	3.8	1.49e+00	0	44	104	0	76	21147
2026-01-01 10:33:23.94	210.27	49.53	-52.7	-67.8	3.8	1.49e+00	0	44	104	0	76	21164
2026-01-01 10:33:24.66	210.58	49.70	-52.7	-67.8	3.8	1.49e+00	0	44	104	0	76	21161
2026-01-01 10:33:25.95	211.15	50.02	-52.7	-67.8	3.8	1.49e+00	0	44	104	0	76	21124
2026-01-01 10:33:26.66	211.47	50.19	-52.7	-67.8	3.8	1.49e+00	0	44	104	0	76	21148
2026-01-01 10:33:27.96	212.06	50.51	-52.7	-67.8	3.8	1.49e+00	0	44	104	0	76	21134
2026-01-01 10:33:28.67	212.39	50.68	-52.7	-67.8	3.8	1.49e+00	0	44	104	0	76	21066
2026-01-01 10:33:29.96	213.00	50.99	-52.7	-67.8	3.8	1.49e+00	0	44	104	0	76	21057
2026-01-01 10:33:30.68	213.35	51.16	-52.7	-67.8	3.8	1.49e+00	0	44	104	0	76	21224
2026-01-01 10:33:31.97	213.97	51.47	-52.7	-67.8	3.8	1.49e+00	0	44	104	0	76	21152
2026-01-01 10:33:32.69	214.33	51.65	-52.7	-67.8	3.8	1.49e+00	0	44	104	0	76	21137
2026-01-01 10:33:33.98	214.97	51.95	-52.6	-67.8	3.8	1.49e+00	0	44	104	0	76	21062
2026-01-01 10:33:34.69	215.34	52.12	-52.6	-67.7	3.8	1.49e+00	0	44	104	0	76	20991
2026-01-01 10:33:35.99	216.01	52.43	-52.7	-67.8	3.8	1.49e+00	0	44	104	0	76	21048
2026-01-01 10:33:36.70	216.38	52.60	-52.6	-67.7	3.8	1.49e+00	0	44	104	0	76	20952
2026-01-01 10:33:37.99	217.07	52.90	-52.6	-67.8	3.8	1.49e+00	0	44	104	0	76	21073
2026-01-01 10:33:38.71	217.46	53.06	-52.6	-67.8	3.8	1.49e+00	0	44	104	0	76	21112
2026-01-01 10:33:40.00	218.18	53.36	-52.6	-67.7	3.8	1.49e+00	0	44	104	0	76	20973
2026-01-01 10:33:40.72	218.58	53.53	-52.6	-67.8	3.8	1.49e+00	0	44	104	0	76	21048
2026-01-01 10:33:42.01	219.31	53.82	-52.7	-67.8	3.8	1.49e+00	0	44	104	0	76	21148
2026-01-01 10:33:42.73	219.73	53.98	-52.7	-67.8	3.8	1.49e+00	0	44	104	0	76	21157
2026-01-01 10:33:44.02	220.49	54.27	-52.7	-67.8	3.8	1.49e+00	0	44	104	0	76	21127
2026-01-01 10:33:44.74	220.92	54.43	-52.7	-67.8	3.8	1.49e+00	0	44	104	0	76	21056
2026-01-01 10:33:46.03	221.70	54.71	-52.6	-67.8	3.8	1.49e+00	0	44	104	0	76	21049
2026-01-01 10:33:46.75	222.14	54.86	-52.6	-67.7	3.8	1.49e+00	0	44	104	0	76	20998
2026-01-01 10:33:48.04	222.95	55.14	-52.6	-67.8	3.8	1.49e+00	0	44	104	0	76	21099
2026-01-01 10:33:48.76	223.40	55.29	-52.6	-67.8	3.8	1.49e+00	0	44	104	0	76	21062
2026-01-01 10:33:50.05	224.23	55.56	-52.7	-67.8	3.8	1.49e+00	0	44	104	0	76	21119
2026-01-01 10:33:50.77	224.70	55.71	-52.7	-67.8	3.8	1.49e+00	0	44	104	0	76	21073
2026-01-01 10:33:52.06	225.55	55.97	-52.7	-67.8	3.8	1.49e+00	0	44	104	0	76	21142
2026-01-01 10:33:52.77	226.03	56.12	-52.7	-67.8	3.8	1.49e+00	0	44	104	0	76	21157
2026-01-01 10:33:54.07	226.92	56.37	-52.7	-67.8	3.8	1.49e+00	0	44	104	0	76	21156
2026-01-01 10:33:54.78	227.41	56.51	-52.7	-67.8	3.8	1.49e+00	0	44	104	0	76	21174
2026-01-01 10:33:56.07	228.31	56.76	-52.6	-67.8	3.8	1.49e+00	0	44	104	0	76	21038
2026-01-01 10:33:56.79	228.82	56.89	-52.7	-67.8	3.8	1.49e+00	0	44	104	0	76	21122
2026-01-01 10:33:58.08	229.75	57.13	-52.6	-67.8	3.8	1.49e+00	0	44	104	0	76	21099
2026-01-01 10:33:58.80	230.28	57.26	-52.7	-67.8	3.8	1.49e+00	0	44	104	0	76	21245
2026-01-01 10:34:00.09	231.23	57.48	-52.7	-67.8	3.8	1.49e+00	0	44	104	0	76	21110
2026-01-01 10:34:00.87	231.81	57.62	-52.7	-67.9	3.8	1.49e+00	0	44	104	0	76	21334
2026-01-01 10:34:02.16	232.79	57.83	-52.7	-67.8	3.8	1.49e+00	0	44	104	0	76	21260
2026-01-01 10:34:02.87	233.34	57.95	-52.7	-67.8	3.8	1.49e+00	0	44	104	0	76	21075
2026-01-01 10:34:04.17	234.35	58.15	-52.7	-67.8	3.8	1.49e+00	0	44	104	0	76	21169
2026-01-01 10:34:04.88	234.91	58.26	-52.7	-67.8	3.8	1.49e+00	0	44	104	0	76	21223
2026-01-01 10:34:06.17	235.93	58.46	-52.7	-67.8	3.8	1.49e+00	0	44	104	0	76	21218
2026-01-01 10:34:06.89	236.51	58.56	-52.7	-67.9	3.8	1.49e+00	0	44	104	0	76	21285
2026-01-01 10:34:08.18	237.56	58.74	-52.7	-67.8	3.8	1.49e+00	0	44	104	0	76	21250
2026-01-01 10:34:08.90	238.15	58.84	-52.7	-67.9	3.8	1.49e+00	0	44	104	0	76	21287
2026-01-01 10:34:10.19	239.22	59.01	-52.8	-67.9	3.8	1.49e+00	0	44	104	0	76	21394
2026-01-01 10:34:10.91	239.82	59.10	-52.7	-67.8	3.8	1.49e+00	0	44	104	0	76	21229
2026-01-01 10:34:12.20	240.91	59.25	-52.8	-67.9	3.8	1.49e+00	0	44	104	0	76	21299
2026-01-01 10:34:12.92	241.52	59.33	-52.7	-67.9	3.8	1.49e+00	0	44	104	0	76	21271
2026-01-01 10:34:14.21	242.63	59.47	-52.7	-67.9	3.8	1.49e+00	0	44	104	0	76	21265
2026-01-01 10:34:14.93	243.26	59.54	-52.7	-67.9	3.8	1.49e+00	0	44	104	0	76	21284
2026-01-01 10:34:16.22	244.38	59.67	-52.7	-67.9	3.8	1.49e+00	0	44	104	0	76	21389
2026-01-01 10:34:16.93	245.01	59.73	-52.7	-67.8	3.8	1.49e+00	0	44	104	0	76	21229
2026-01-01 10:34:18.23	246.16	59.84	-52.7	-67.8	3.8	1.49e+00	0	44	104	0	76	21242
2026-01-01 10:34:19.17	247.00	59.92	-52.7	-67.9	3.8	1.49e+00	0	44	104	0	76	21301
2026-01-01 10:34:20.17	247.89	59.99	-52.7	-67.8	3.8	1.49e+00	0	44	104	0	76	21250
2026-01-01 10:34:21.17	248.80	60.05	-52.7	-67.8	3.8	1.49e+00	0	44	104	0	76	21211
2026-01-01 10:34:22.18	249.71	60.11	-52.7	-67.8	3.8	1.49e+00	0	44	104	0	76	21200
2026-01-01 10:34:23.18	250.62	60.17	-52.7	-67.8	3.8	1.49e+00	0	44	104	0	76	21126
2026-01-01 10:34:24.19	251.54	60.21	-52.7	-67.9	3.8	1.49e+00	0	44	104	0	76	21275
2026-01-01 10:34:25.19	252.46	60.25	-52.8	-67.9	3.8	1.49e+00	0	44	104	0	76	21361
2026-01-01 10:34:26.20	253.39	60.29	-52.8	-68.0	3.8	1.49e+00	0	44	104	0	76	21507
2026-01-01 10:34:27.20	254.31	60.32	-52.7	-67.8	3.8	1.49e+00	0	44	104	0	76	21226
2026-01-01 10:34:28.21	255.24	60.34	-52.8	-67.9	3.8	1.49e+00	0	44	104	0	76	21347
2026-01-01 10:34:29.21	256.16	60.35	-52.8	-67.9	3.8	1.49e+00	0	44	104	0	76	21474
2026-01-01 10:34:30.21	257.09	60.36	-52.7	-67.8	3.8	1.49e+00	0	44	104	0	76	21237
2026-01-01 10:34:31.22	258.02	60.36	-52.7	-67.8	3.8	1.49e+00	0	44	104	0	76	21212
2026-01-01 10:34:32.22	258.95	60.35	-52.7	-67.8	3.8	1.49e+00	0	44	104	0	76	21140
2026-01-01 10:34:33.42	260.06	60.34	-52.7	-67.9	3.8	1.49e+00	0	44	104	0	76	21331
2026-01-01 10:34:34.31	260.88	60.32	-52.7	-67.9	3.8	1.49e+00	0	44	104	0	76	21411
2026-01-01 10:34:35.51	261.98	60.29	-52.8	-67.9	3.8	1.49e+00	0	44	104	0	76	21298
2026-01-01 10:34:36.38	262.78	60.26	-52.7	-67.8	3.8	1.49e+00	0	44	104	0	76	21180
2026-01-01 10:34:37.71	264.00	60.20	-52.7	-67.8	3.8	1.49e+00	0	44	104	0	76	21244
2026-01-01 10:34:38.42	264.65	60.17	-52.7	-67.8	3.8	1.49e+00	0	44	104	0	76	21248
2026-01-01 10:34:39.92	266.01	60.09	-52.7	-67.9	3.8	1.49e+00	0	44	104	0	76	21264
2026-01-01 10:34:40.64	266.66	60.05	-52.7	-67.8	3.8	1.49e+00	0	44	104	0	76	21162
2026-01-01 10:34:41.93	267.82	59.96	-52.7	-67.8	3.8	1.49e+00	0	44	104	0	76	21166
2026-01-01 10:34:42.65	268.47	59.91	-52.8	-67.9	3.8	1.49e+00	0	44	104	0	76	21363
2026-01-01 10:34:43.94	269.62	59.80	-52.8	-67.9	3.8	1.49e+00	0	44	104	0	76	21323
2026-01-01 10:34:44.66	270.25	59.74	-52.8	-67.9	3.8	1.49e+00	0	44	104	0	76	21470
2026-01-01 10:34:45.95	271.38	59.62	-52.8	-67.9	3.8	1.49e+00	0	44	104	0	76	21334
2026-01-01 10:34:46.67	272.01	59.55	-52.8	-67.8	3.8	1.49e+00	0	44	104	0	76	21244
2026-01-01 10:34:47.95	273.12	59.42	-52.7	-67.8	3.8	1.49e+00	0	44	104	0	76	21236
2026-01-01 10:34:48.67	273.73	59.34	-52.7	-67.8	3.8	1.49e+00	0	44	104	0	76	21207
2026-01-01 10:34:49.96	274.83	59.20	-52.7	-67.8	3.8	1.49e+00	0	44	104	0	76	21218
2026-01-01 10:34:50.68	275.44	59.11	-52.7	-67.8	3.8	1.49e+00	0	44	104	0	76	21164
2026-01-01 10:34:51.97	276.52	58.95	-52.7	-67.8	3.8	1.49e+00	0	44	104	0	76	21102
2026-01-01 10:34:52.69	277.11	58.85	-52.7	-67.8	3.8	1.49e+00	0	44	104	0	76	21072
2026-01-01 10:34:53.98	278.17	58.68	-52.7	-67.8	3.8	1.49e+00	0	44	104	0	76	21221
2026-01-01 10:34:54.70	278.75	58.58	-52.7	-67.8	3.8	1.49e+00	0	44	104	0	76	21252
2026-01-01 10:34:55.99	279.78	58.39	-52.7	-67.9	3.8	1.49e+00	0	44	104	0	76	21286
2026-01-01 10:34:56.70	280.35	58.28	-52.8	-67.9	3.8	1.49e+00	0	44	104	0	76	21324
2026-01-01 10:34:57.99	281.36	58.08	-52.7	-67.8	3.8	1.49e+00	0	44	104	0	76	21174
2026-01-01 10:34:58.71	281.91	57.97	-52.7	-67.8	3.8	1.49e+00	0	44	104	0	76	21195
2026-01-01 10:35:00.00	282.90	57.76	-52.7	-67.8	3.8	1.49e+00	0	44	104	0	76	21254
2026-01-01 10:35:00.72	283.44	57.64	-52.7	-67.8	3.8	1.49e+00	0	44	104	0	76	21108
2026-01-01 10:35:02.01	284.41	57.42	-52.7	-67.8	3.8	1.49e+00	0	44	104	0	76	21186
2026-01-01 10:35:02.72	284.93	57.29	-52.7	-67.9	3.8	1.49e+00	0	44	104	0	76	21264
2026-01-01 10:35:04.02	285.88	57.06	-52.7	-67.8	3.8	1.49e+00	0	44	104	0	76	21218
2026-01-01 10:35:04.73	286.38	56.93	-52.7	-67.8	3.8	1.49e+00	0	44	104	0	76	21238
2026-01-01 10:35:06.02	287.30	56.69	-52.7	-67.8	3.8	1.49e+00	0	44	104	0	76	21235
2026-01-01 10:35:06.74	287.80	56.55	-52.7	-67.8	3.8	1.49e+00	0	44	104	0	76	21159
2026-01-01 10:35:08.03	288.69	56.30	-52.7	-67.8	3.8	1.49e+00	0	44	104	0	76	21172
2026-01-01 10:35:08.75	289.18	56.16	-52.7	-67.8	3.8	1.49e+00	0	44	104	0	76	21074
2026-01-01 10:35:10.04	290.04	55.90	-52.7	-67.8	3.8	1.49e+00	0	44	104	0	76	21175
2026-01-01 10:35:10.76	290.52	55.75	-52.8	-67.9	3.8	1.49e+00	0	44	104	0	76	21360
2026-01-01 10:35:12.05	291.36	55.49	-52.7	-67.8	3.8	1.49e+00	0	44	104	0	76	21231
2026-01-01 10:35:12.77	291.82	55.34	-52.7	-67.8	3.8	1.49e+00	0	44	104	0	76	21131
2026-01-01 10:35:14.05	292.63	55.07	-52.7	-67.9	3.8	1.49e+00	0	44	104	0	76	21275
2026-01-01 10:35:14.77	293.07	54.91	-52.7	-67.9	3.8	1.49e+00	0	44	104	0	76	21318
2026-01-01 10:35:16.06	293.86	54.63	-52.7	-67.8	3.8	1.49e+00	0	44	104	0	76	21232
2026-01-01 10:35:16.78	294.30	54.48	-52.7	-67.8	3.8	1.49e+00	0	44	104	0	76	21227
2026-01-01 10:35:18.07	295.06	54.19	-52.7	-67.8	3.8	1.49e+00	0	44	104	0	76	21215
2026-01-01 10:35:18.79	295.49	54.03	-52.7	-67.9	3.8	1.49e+00	0	44	104	0	76	21308
2026-01-01 10:35:20.08	296.23	53.74	-52.7	-67.8	3.8	1.49e+00	0	44	104	0	76	21252
2026-01-01 10:35:20.80	296.64	53.58	-52.7	-67.8	3.8	1.49e+00	0	44	104	0	76	21210
2026-01-01 10:35:22.09	297.36	53.29	-52.8	-67.9	3.8	1.49e+00	0	44	104	0	76	21405
2026-01-01 10:35:22.81	297.75	53.12	-52.7	-67.8	3.8	1.49e+00	0	44	104	0	76	21247
2026-01-01 10:35:24.10	298.45	52.82	-52.7	-67.8	3.8	1.49e+00	0	44	104	0	76	21212
2026-01-01 10:35:24.82	298.84	52.66	-52.7	-67.8	3.8	1.49e+00	0	44	104	0	76	21151
2026-01-01 10:35:26.11	299.51	52.35	-52.7	-67.8	3.8	1.49e+00	0	44	104	0	76	21227
2026-01-01 10:35:26.82	299.88	52.19	-52.7	-67.8	3.8	1.49e+00	0	44	104	0	76	21173
2026-01-01 10:35:28.12	300.54	51.88	-52.7	-67.8	3.8	1.49e+00	0	44	104	0	76	21192
2026-01-01 10:35:28.83	300.89	51.71	-52.7	-67.8	3.8	1.49e+00	0	44	104	0	76	21175
2026-01-01 10:35:30.12	301.53	51.40	-52.7	-67.8	3.8	1.49e+00	0	44	104	0	76	21221
2026-01-01 10:35:30.84	301.88	51.23	-52.7	-67.9	3.8	1.49e+00	0	44	104	0	76	21347
2026-01-01 10:35:32.13	302.49	50.92	-52.7	-67.9	3.8	1.49e+00	0	44	104	0	76	21289
2026-01-01 10:35:32.85	302.83	50.75	-52.7	-67.8	3.8	1.49e+00	0	44	104	0	76	21161
2026-01-01 10:35:34.14	303.42	50.44	-52.7	-67.8	3.8	1.49e+00	0	44	104	0	76	21166
2026-01-01 10:35:34.86	303.75	50.26	-52.7	-67.9	3.8	1.49e+00	0	44	104	0	76	21270
2026-01-01 10:35:36.15	304.33	49.95	-52.7	-67.8	3.8	1.49e+00	0	44	104	0	76	21216
2026-01-01 10:35:36.87	304.65	49.77	-52.8	-67.9	3.8	1.49e+00	0	44	104	0	76	21305
2026-01-01 10:35:38.16	305.20	49.46	-52.8	-67.9	3.8	1.49e+00	0	44	104	0	76	21290
2026-01-01 10:35:38.88	305.51	49.28	-52.7	-67.8	3.8	1.49e+00	0	44	104	0	76	21259
2026-01-01 10:35:40.17	306.05	48.97	-52.7	-67.9	3.8	1.49e+00	0	44	104	0	76	21269
2026-01-01 10:35:40.88	306.35	48.79	-52.7	-67.8	3.8	1.49e+00	0	44	104	0	76	21200
2026-01-01 10:35:42.17	306.87	48.48	-52.7	-67.9	3.8	1.49e+00	0	44	104	0	76	21322
2026-01-01 10:35:42.89	307.16	48.30	-52.7	-67.8	3.8	1.49e+00	0	44	104	0	76	21198
2026-01-01 10:35:44.18	307.67	47.99	-52.8	-67.9	3.8	1.49e+00	0	44	104	0	76	21433
2026-01-01 10:35:44.90	307.95	47.81	-52.7	-67.8	3.8	1.49e+00	0	44	104	0	76	21221
2026-01-01 10:35:46.19	308.44	47.49	-52.7	-67.9	3.8	1.49e+00	0	44	104	0	76	21282
2026-01-01 10:35:46.91	308.71	47.32	-52.7	-67.8	3.8	1.49e+00	0	44	104	0	76	21232
2026-01-01 10:35:48.20	309.19	47.00	-52.8	-67.9	3.8	1.49e+00	0	44	104	0	76	21373
2026-01-01 10:35:48.92	309.45	46.83	-52.7	-67.8	3.8	1.49e+00	0	44	104	0	76	21184
2026-01-01 10:35:50.21	309.91	46.51	-52.7	-67.9	3.8	1.49e+00	0	44	104	0	76	21310
2026-01-01 10:35:50.92	310.16	46.34	-52.7	-67.8	3.8	1.49e+00	0	44	104	0	76	21213
2026-01-01 10:35:52.22	310.61	46.02	-52.7	-67.8	3.8	1.49e+00	0	44	104	0	76	21217
2026-01-01 10:35:52.94	310.86	45.85	-52.7	-67.8	3.8	1.49e+00	0	44	104	0	76	21170
2026-01-01 10:35:54.22	311.29	45.54	-52.7	-67.8	3.8	1.49e+00	0	44	104	0	76	21103
2026-01-01 10:35:54.94	311.53	45.36	-52.7	-67.8	3.8	1.49e+00	0	44	104	0	76	21071
2026-01-01 10:35:56.23	311.95	45.05	-52.7	-67.9	3.8	1.49e+00	0	44	104	0	76	21279
2026-01-01 10:35:57.06	312.22	44.85	-52.7	-67.8	3.8	1.49e+00	0	44	104	0	76	21214
2026-01-01 10:35:58.21	312.58	44.57	-52.8	-67.9	3.8	1.49e+00	0	44	104	0	76	21426
2026-01-01 10:35:59.07	312.85	44.36	-52.7	-67.8	3.8	1.49e+00	0	44	104	0	76	21186
2026-01-01 10:36:00.22	313.21	44.09	-52.7	-67.8	3.8	1.49e+00	0	44	104	0	76	21221
2026-01-01 10:36:01.07	313.46	43.89	-52.7	-67.8	3.8	1.49e+00	0	44	104	0	76	21231
2026-01-01 10:36:02.22	313.81	43.61	-52.7	-67.8	3.8	1.49e+00	0	44	104	0	76	21142
2026-01-01 10:36:03.08	314.06	43.41	-52.6	-67.8	3.8	1.49e+00	0	44	104	0	76	21172
2026-01-01 10:36:04.23	314.40	43.13	-52.7	-67.8	3.8	1.49e+00	0	44	104	0	76	21140
2026-01-01 10:36:05.50	314.76	42.83	-52.7	-67.9	3.8	1.49e+00	0	44	104	0	76	21290
2026-01-01 10:36:06.22	314.96	42.66	-52.7	-67.9	3.8	1.49e+00	0	44	104	0	76	21275
2026-01-01 10:36:07.51	315.32	42.36	-52.7	-67.8	3.8	1.49e+00	0	44	104	0	76	21247
2026-01-01 10:36:08.23	315.51	42.19	-52.7	-67.8	3.8	1.49e+00	0	44	104	0	76	21203
2026-01-01 10:36:09.55	315.87	41.88	-52.7	-67.8	3.8	1.49e+00	0	44	104	0	76	21204
2026-01-01 10:36:10.27	316.06	41.72	-52.7	-67.8	3.8	1.49e+00	0	44	104	0	76	21142
2026-01-01 10:36:11.64	316.42	41.40	-52.7	-67.8	3.8	1.49e+00	0	44	104	0	76	21226
2026-01-01 10:36:12.36	316.60	41.23	-52.7	-67.8	3.8	1.49e+00	0	44	104	0	76	21145
2026-01-01 10:36:13.70	316.94	40.93	-52.7	-67.8	3.8	1.49e+00	0	44	104	0	76	21141
2026-01-01 10:36:14.41	317.12	40.76	-52.7	-67.8	3.8	1.49e+00	0	44	104	0	76	21175
2026-01-01 10:36:15.79	317.46	40.45	-52.7	-67.8	3.8	1.49e+00	0	44	104	0	76	21186
2026-01-01 10:36:16.50	317.63	40.29	-52.7	-67.8	3.8	1.49e+00	0	44	104	0	76	21092
2026-01-01 10:36:17.87	317.96	39.98	-52.7	-67.8	3.8	1.49e+00	0	44	104	0	76	21141
2026-01-01 10:36:18.59	318.13	39.81	-52.7	-67.8	3.8	1.49e+00	0	44	104	0	76	21124
2026-01-01 10:36:19.88	318.43	39.53	-52.7	-67.8	3.8	1.49e+00	0	44	104	0	76	21166
2026-01-01 10:36:20.60	318.60	39.36	-52.7	-67.8	3.8	1.49e+00	0	44	104	0	76	21192
2026-01-01 10:36:21.89	318.89	39.08	-52.7	-67.8	3.8	1.49e+00	0	44	104	0	76	21257
2026-01-01 10:36:22.61	319.05	38.92	-52.7	-67.8	3.8	1.49e+00	0	44	104	0	76	21133
2026-01-01 10:36:23.90	319.34	38.63	-52.7	-67.8	3.8	1.49e+00	0	44	104	0	76	21203
2026-01-01 10:36:24.62	319.49	38.48	-52.7	-67.8	3.8	1.49e+00	0	44	104	0	76	21169
2026-01-01 10:36:25.91	319.77	38.19	-52.7	-67.8	3.8	1.49e+00	0	44	104	0	76	21075
2026-01-01 10:36:26.63	319.92	38.04	-52.7	-67.9	3.8	1.49e+00	0	44	104	0	76	21263
2026-01-01 10:36:27.92	320.19	37.76	-52.7	-67.8	3.8	1.49e+00	0	44	104	0	76	21244
2026-01-01 10:36:28.64	320.34	37.60	-52.7	-67.8	3.8	1.49e+00	0	44	104	0	76	21125
2026-01-01 10:36:29.93	320.60	37.33	-52.7	-67.8	3.8	1.49e+00	0	44	104	0	76	21187
2026-01-01 10:36:30.64	320.75	37.17	-52.6	-67.8	3.8	1.49e+00	0	44	104	0	76	21117
2026-01-01 10:36:31.94	321.01	36.90	-52.7	-67.8	3.8	1.49e+00	0	44	104	0	76	21241
2026-01-01 10:36:32.65	321.15	36.75	-52.7	-67.8	3.8	1.49e+00	0	44	104	0	76	21236
2026-01-01 10:36:33.95	321.40	36.47	-52.7	-67.8	3.8	1.49e+00	0	44	104	0	76	21208
2026-01-01 10:36:34.66	321.53	36.33	-52.7	-67.8	3.8	1.49e+00	0	44	104	0	76	21141
2026-01-01 10:36:35.95	321.78	36.06	-52.7	-67.8	3.8	1.49e+00	0	44	104	0	76	21255
2026-01-01 10:36:36.67	321.91	35.91	-52.7	-67.8	3.8	1.49e+00	0	44	104	0	76	21242
2026-01-01 10:36:37.96	322.15	35.64	-52.7	-67.8	3.8	1.49e+00	0	44	104	0	76	21140
2026-01-01 10:36:38.68	322.28	35.49	-52.7	-67.8	3.8	1.49e+00	0	44	104	0	76	21193
2026-01-01 10:36:39.97	322.51	35.23	-52.7	-67.8	3.8	1.49e+00	0	44	104	0	76	21170
2026-01-01 10:36:40.69	322.64	35.08	-52.7	-67.9	3.8	1.49e+00	0	44	104	0	76	21297
2026-01-01 10:36:41.98	322.87	34.82	-52.7	-67.8	3.8	1.49e+00	0	44	104	0	76	21079
2026-01-01 10:36:42.70	322.99	34.68	-52.7	-67.8	3.8	1.49e+00	0	44	104	0	76	21137
2026-01-01 10:36:43.99	323.21	34.42	-52.7	-67.8	3.8	1.49e+00	0	44	104	0	76	21145
2026-01-01 10:36:44.70	323.33	34.28	-52.7	-67.8	3.8	1.49e+00	0	44	104	0	76	21090
2026-01-01 10:36:45.99	323.55	34.02	-52.7	-67.8	3.8	1.49e+00	0	44	104	0	76	21183
2026-01-01 10:36:46.71	323.67	33.88	-52.7	-67.8	3.8	1.49e+00	0	44	104	0	76	21259
2026-01-01 10:36:48.00	323.88	33.63	-52.7	-67.8	3.8	1.49e+00	0	44	104	0	76	21162
2026-01-01 10:36:48.72	323.99	33.49	-52.7	-67.8	3.8	1.49e+00	0	44	104	0	76	21213
2026-01-01 10:36:50.01	324.20	33.24	-52.7	-67.8	3.8	1.49e+00	0	44	104	0	76	21160
2026-01-01 10:36:50.73	324.31	33.10	-52.7	-67.8	3.8	1.49e+00	0	44	104	0	76	21137
2026-01-01 10:36:52.02	324.51	32.85	-52.7	-67.9	3.8	1.49e+00	0	44	104	0	76	21293
2026-01-01 10:36:52.74	324.62	32.71	-52.7	-67.9	3.8	1.49e+00	0	44	104	0	76	21284
2026-01-01 10:36:54.03	324.82	32.47	-52.7	-67.8	3.8	1.49e+00	0	44	104	0	76	21178
2026-01-01 10:36:54.75	324.93	32.33	-52.7	-67.8	3.8	1.49e+00	0	44	104	0	76	21205
2026-01-01 10:36:56.04	325.12	32.09	-52.7	-67.8	3.8	1.49e+00	0	44	104	0	76	21214
2026-01-01 10:36:56.75	325.23	31.96	-52.7	-67.8	3.8	1.49e+00	0	44	104	0	76	21238
2026-01-01 10:36:58.04	325.41	31.72	-52.7	-67.8	3.8	1.49e+00	0	44	104	0	76	21181
2026-01-01 10:36:58.76	325.52	31.58	-52.7	-67.9	3.8	1.49e+00	0	44	104	0	76	21290
2026-01-01 10:37:00.05	325.70	31.34	-52.7	-67.9	3.8	1.49e+00	0	44	104	0	76	21280
2026-01-01 10:37:00.77	325.80	31.21	-52.7	-67.9	3.8	1.49e+00	0	44	104	0	76	21261
2026-01-01 10:37:02.06	325.98	30.98	-52.7	-67.8	3.8	1.49e+00	0	44	104	0	76	21153
2026-01-01 10:37:02.78	326.08	30.85	-52.7	-67.9	3.8	1.49e+00	0	44	104	0	76	21320
2026-01-01 10:37:04.07	326.26	30.61	-52.7	-67.8	3.8	1.49e+00	0	44	104	0	76	21131
2026-01-01 10:37:04.79	326.35	30.49	-52.7	-67.8	3.8	1.49e+00	0	44	104	0	76	21195
2026-01-01 10:37:06.08	326.53	30.26	-52.7	-67.8	3.8	1.49e+00	0	44	104	0	76	21095
2026-01-01 10:37:06.80	326.62	30.13	-52.7	-67.8	3.8	1.49e+00	0	44	104	0	76	21099
2026-01-01 10:37:08.09	326.79	29.90	-52.7	-67.8	3.8	1.49e+00	0	44	104	0	76	21142
2026-01-01 10:37:08.80	326.88	29.78	-52.7	-67.8	3.8	1.49e+00	0	44	104	0	76	21238
2026-01-01 10:37:10.10	327.05	29.55	-52.7	-67.8	3.8	1.49e+00	0	44	104	0	76	21218
2026-01-01 10:37:10.81	327.14	29.43	-52.7	-67.8	3.8	1.49e+00	0	44	104	0	76	21177
2026-01-01 10:37:12.10	327.30	29.20	-52.7	-67.8	3.8	1.49e+00	0	44	104	0	76	21120
2026-01-01 10:37:12.82	327.39	29.08	-52.7	-67.8	3.8	1.49e+00	0	44	104	0	76	21200
2026-01-01 10:37:14.11	327.54	28.86	-52.6	-67.8	3.8	1.49e+00	0	44	104	0	76	21201
2026-01-01 10:37:14.83	327.63	28.74	-52.6	-67.8	3.8	1.49e+00	0	44	104	0	76	21044
2026-01-01 10:37:16.12	327.79	28.52	-52.7	-67.8	3.8	1.49e+00	0	44	104	0	76	21197
2026-01-01 10:37:16.84	327.87	28.40	-52.7	-67.8	3.8	1.49e+00	0	44	104	0	76	21152
2026-01-01 10:37:18.13	328.02	28.18	-52.7	-67.8	3.8	1.49e+00	0	44	104	0	76	21193
2026-01-01 10:37:18.85	328.11	28.06	-52.7	-67.8	3.8	1.49e+00	0	44	104	0	76	21246
2026-01-01 10:37:20.14	328.26	27.85	-52.7	-67.8	3.8	1.49e+00	0	44	104	0	76	21064
2026-01-01 10:37:20.86	328.34	27.73	-52.7	-67.8	3.8	1.49e+00	0	44	104	0	76	21110
2026-01-01 10:37:22.15	328.48	27.52	-52.7	-67.8	3.8	1.49e+00	0	44	104	0	76	21137
2026-01-01 10:37:22.87	328.56	27.40	-52.7	-67.8	3.8	1.49e+00	0	44	104	0	76	21213
2026-01-01 10:37:24.16	328.71	27.19	-52.7	-67.8	3.8	1.49e+00	0	44	104	0	76	21162
2026-01-01 10:37:24.88	328.79	27.08	-52.7	-67.8	3.8	1.49e+00	0	44	104	0	76	21126
2026-01-01 10:37:26.17	328.93	26.87	-52.6	-67.8	3.8	1.49e+00	0	44	104	0	76	21056
2026-01-01 10:37:26.88	329.00	26.76	-52.6	-67.8	3.8	1.49e+00	0	44	104	0	76	21123
2026-01-01 10:37:28.18	329.14	26.55	-52.7	-67.8	3.8	1.49e+00	0	44	104	0	76	21146
2026-01-01 10:37:28.89	329.22	26.44	-52.7	-67.9	3.8	1.49e+00	0	44	104	0	76	21262
2026-01-01 10:37:30.18	329.35	26.24	-52.7	-67.8	3.8	1.49e+00	0	44	104	0	76	21223
2026-01-01 10:37:30.90	329.43	26.12	-52.7	-67.9	3.8	1.49e+00	0	44	104	0	76	21294
2026-01-01 10:37:32.20	329.56	25.92	-52.7	-67.9	3.8	1.49e+00	0	44	104	0	76	21263
2026-01-01 10:37:32.91	329.63	25.81	-52.7	-67.8	3.8	1.49e+00	0	44	104	0	76	21249
2026-01-01 10:37:34.20	329.76	25.61	-52.7	-67.8	3.8	1.49e+00	0	44	104	0	76	21148
2026-01-01 10:37:34.92	329.83	25.50	-52.7	-67.8	3.8	1.49e+00	0	44	104	0	76	21134
2026-01-01 10:37:36.21	329.96	25.31	-52.7	-67.8	3.8	1.49e+00	0	44	104	0	76	21140
2026-01-01 10:37:36.93	330.03	25.20	-52.7	-67.8	3.8	1.49e+00	0	44	104	0	76	21103
2026-01-01 10:37:38.22	330.16	25.00	-52.7	-67.8	3.8	1.49e+00	0	44	104	0	76	21248
2026-01-01 10:37:38.94	330.23	24.90	-52.8	-67.9	3.8	1.49e+00	0	44	104	0	76	21329
2026-01-01 10:37:40.23	330.35	24.70	-52.7	-67.9	3.8	1.49e+00	0	44	104	0	76	21315
2026-01-01 10:37:41.04	330.42	24.58	-52.8	-67.9	3.8	1.49e+00	0	44	104	0	76	21361
2026-01-01 10:37:42.19	330.53	24.42	-52.7	-67.9	3.8	1.49e+00	0	44	104	0	76	21328
2026-01-01 10:37:43.05	330.61	24.29	-52.7	-67.8	3.8	1.49e+00	0	44	104	0	76	21229
2026-01-01 10:37:44.20	330.72	24.12	-52.7	-67.9	3.8	1.49e+00	0	44	104	0	76	21282
2026-01-01 10:37:45.06	330.80	24.00	-52.7	-67.8	3.8	1.49e+00	0	44	104	0	76	21141
2026-01-01 10:37:46.21	330.90	23.83	-52.7	-67.9	3.8	1.49e+00	0	44	104	0	76	21328
2026-01-01 10:37:47.07	330.98	23.71	-52.7	-67.9	3.8	1.49e+00	0	44	104	0	76	21279
2026-01-01 10:37:48.21	331.08	23.54	-52.7	-67.9	3.8	1.49e+00	0	44	104	0	76	21348
2026-01-01 10:37:49.08	331.15	23.42	-52.7	-67.8	3.8	1.49e+00	0	44	104	0	76	21198
2026-01-01 10:37:50.22	331.25	23.26	-52.7	-67.8	3.8	1.49e+00	0	44	104	0	76	21184
2026-01-01 10:37:51.08	331.33	23.14	-52.7	-67.8	3.8	1.49e+00	0	44	104	0	76	21202
2026-01-01 10:37:52.23	331.43	22.98	-52.7	-67.8	3.8	1.49e+00	0	44	104	0	76	21234
2026-01-01 10:37:53.17	331.51	22.85	-52.7	-67.8	3.8	1.49e+00	0	44	104	0	76	21191
2026-01-01 10:37:54.17	331.59	22.71	-52.7	-67.8	3.8	1.49e+00	0	44	104	0	76	21128
2026-01-01 10:37:55.18	331.68	22.57	-52.7	-67.8	3.8	1.49e+00	0	44	104	0	76	21115
2026-01-01 10:37:56.18	331.76	22.43	-52.7	-67.8	3.8	1.49e+00	0	44	104	0	76	21253
2026-01-01 10:37:57.19	331.84	22.29	-52.8	-67.9	3.8	1.49e+00	0	44	104	0	76	21348
2026-01-01 10:37:58.19	331.92	22.16	-52.8	-67.9	3.8	1.49e+00	0	44	104	0	76	21423
2026-01-01 10:37:59.20	332.00	22.02	-52.8	-67.9	3.8	1.49e+00	0	44	104	0	76	21488
2026-01-01 10:38:00.20	332.08	21.89	-52.7	-67.9	3.8	1.49e+00	0	44	104	0	76	21335
2026-01-01 10:38:01.21	332.16	21.75	-52.7	-67.8	3.8	1.49e+00	0	44	104	0	76	21197
2026-01-01 10:38:02.21	332.24	21.62	-52.7	-67.9	3.8	1.49e+00	0	44	104	0	76	21326
2026-01-01 10:38:03.21	332.32	21.49	-52.7	-67.9	3.8	1.49e+00	0	44	104	0	76	21274
2026-01-01 10:38:04.22	332.40	21.35	-52.7	-67.8	3.8	1.49e+00	0	44	104	0	76	21228
2026-01-01 10:38:05.23	332.48	21.22	-52.7	-67.8	3.8	1.49e+00	0	44	104	0	76	21188
2026-01-01 10:38:06.23	332.55	21.09	-52.7	-67.8	3.8	1.49e+00	0	44	104	0	76	21190
2026-01-01 10:38:07.33	332.64	20.95	-52.8	-68.0	3.8	1.49e+00	0	44	104	0	76	21519
2026-01-01 10:38:08.27	332.71	20.83	-52.8	-67.9	3.8	1.49e+00	0	44	104	0	76	21465
2026-01-01 10:38:09.45	332.80	20.67	-52.8	-67.9	3.8	1.49e+00	0	44	104	0	76	21312
2026-01-01 10:38:10.34	332.86	20.56	-52.8	-67.9	3.8	1.49e+00	0	44	104	0	76	21324
2026-01-01 10:38:11.51	332.95	20.41	-52.7	-67.8	3.8	1.49e+00	0	44	104	0	76	21254
2026-01-01 10:38:12.43	333.01	20.29	-52.7	-67.9	3.8	1.49e+00	0	44	104	0	76	21281
2026-01-01 10:38:13.61	333.10	20.15	-52.7	-67.9	3.8	1.49e+00	0	44	104	0	76	21418
2026-01-01 10:38:14.47	333.16	20.04	-52.8	-67.9	3.8	1.49e+00	0	44	104	0	76	21387
2026-01-01 10:38:15.62	333.24	19.89	-52.7	-67.9	3.8	1.49e+00	0	44	104	0	76	21269
2026-01-01 10:38:16.48	333.30	19.79	-52.7	-67.9	3.8	1.49e+00	0	44	104	0	76	21286
2026-01-01 10:38:17.63	333.38	19.64	-52.8	-67.9	3.8	1.49e+00	0	44	104	0	76	21349
2026-01-01 10:38:18.49	333.44	19.54	-52.7	-67.9	3.8	1.49e+00	0	44	104	0	76	21304
2026-01-01 10:38:19.64	333.52	19.40	-52.7	-67.9	3.8	1.49e+00	0	44	104	0	76	21291
2026-01-01 10:38:20.50	333.58	19.29	-52.7	-67.9	3.8	1.49e+00	0	44	104	0	76	21297
2026-01-01 10:38:21.64	333.66	19.15	-52.7	-67.8	3.8	1.49e+00	0	44	104	0	76	21192
2026-01-01 10:38:22.50	333.71	19.05	-52.8	-67.9	3.8	1.49e+00	0	44	104	0	76	21315
2026-01-01 10:38:23.65	333.79	18.91	-52.7	-67.8	3.8	1.49e+00	0	44	104	0	76	21257
2026-01-01 10:38:24.51	333.85	18.81	-52.7	-67.8	3.8	1.49e+00	0	44	104	0	76	21177
2026-01-01 10:38:25.71	333.93	18.67	-52.7	-67.9	3.8	1.49e+00	0	44	104	0	76	21350
2026-01-01 10:38:26.57	333.98	18.56	-52.7	-67.9	3.8	1.49e+00	0	44	104	0	76	21333
2026-01-01 10:38:27.78	334.06	18.42	-52.7	-67.8	3.8	1.49e+00	0	44	104	0	76	21169
2026-01-01 10:38:28.64	334.12	18.32	-52.7	-67.8	3.8	1.49e+00	0	44	104	0	76	21132
2026-01-01 10:38:29.79	334.19	18.19	-52.7	-67.8	3.8	1.49e+00	0	44	104	0	76	21159
2026-01-01 10:38:30.65	334.24	18.08	-52.7	-67.8	3.8	1.49e+00	0	44	104	0	76	21103
2026-01-01 10:38:31.80	334.32	17.95	-52.7	-67.8	3.8	1.49e+00	0	44	104	0	76	21099
2026-01-01 10:38:32.66	334.37	17.85	-52.7	-67.8	3.8	1.49e+00	0	44	104	0	76	21144
2026-01-01 10:38:33.81	334.44	17.72	-52.7	-67.8	3.8	1.49e+00	0	44	104	0	76	21158
2026-01-01 10:38:34.67	334.50	17.62	-52.8	-67.9	3.8	1.49e+00	0	44	104	0	76	21305
2026-01-01 10:38:35.82	334.57	17.49	-52.8	-67.9	3.8	1.49e+00	0	44	104	0	76	21332
2026-01-01 10:38:36.68	334.62	17.39	-52.7	-67.9	3.8	1.49e+00	0	44	104	0	76	21289
2026-01-01 10:38:37.83	334.69	17.26	-52.7	-67.9	3.8	1.49e+00	0	44	104	0	76	21262
2026-01-01 10:38:38.69	334.74	17.17	-52.7	-67.8	3.8	1.49e+00	0	44	104	0	76	21184
2026-01-01 10:38:39.84	334.81	17.04	-52.7	-67.8	3.8	1.49e+00	0	44	104	0	76	21140
2026-01-01 10:38:40.70	334.86	16.94	-52.7	-67.8	3.8	1.49e+00	0	44	104	0	76	21160
2026-01-01 10:38:41.84	334.92	16.82	-52.7	-67.8	3.8	1.49e+00	0	44	104	0	76	21141
2026-01-01 10:38:42.71	334.98	16.72	-52.7	-67.8	3.8	1.49e+00	0	44	104	0	76	21238
2026-01-01 10:38:43.85	335.04	16.59	-52.6	-67.8	3.8	1.49e+00	0	44	104	0	76	21082
2026-01-01 10:38:44.72	335.09	16.50	-52.7	-67.9	3.8	1.49e+00	0	44	104	0	76	21281
2026-01-01 10:38:45.86	335.16	16.37	-52.7	-67.9	3.8	1.49e+00	0	44	104	0	76	21294
2026-01-01 10:38:46.72	335.21	16.28	-52.7	-67.8	3.8	1.49e+00	0	44	104	0	76	21226
2026-01-01 10:38:47.87	335.27	16.16	-52.7	-67.8	3.8	1.49e+00	0	44	104	0	76	21177
2026-01-01 10:38:48.73	335.32	16.06	-52.7	-67.8	3.8	1.49e+00	0	44	104	0	76	21232
2026-01-01 10:38:49.88	335.38	15.94	-52.7	-67.8	3.8	1.49e+00	0	44	104	0	76	21155
2026-01-01 10:38:50.74	335.43	15.85	-52.7	-67.8	3.8	1.49e+00	0	44	104	0	76	21202
2026-01-01 10:38:51.89	335.49	15.73	-52.7	-67.8	3.8	1.49e+00	0	44	104	0	76	21133
2026-01-01 10:38:52.75	335.54	15.64	-52.7	-67.8	3.8	1.49e+00	0	44	104	0	76	21219
2026-01-01 10:38:53.90	335.60	15.52	-52.7	-67.8	3.8	1.49e+00	0	44	104	0	76	21225
2026-01-01 10:38:54.76	335.65	15.42	-52.7	-67.8	3.8	1.49e+00	0	44	104	0	76	21195
2026-01-01 10:38:55.91	335.71	15.30	-52.7	-67.8	3.8	1.49e+00	0	44	104	0	76	21208
2026-01-01 10:38:56.77	335.76	15.22	-52.7	-67.8	3.8	1.49e+00	0	44	104	0	76	21114
2026-01-01 10:38:57.92	335.82	15.10	-52.7	-67.8	3.8	1.49e+00	0	44	104	0	76	21165
2026-01-01 10:38:58.78	335.86	15.01	-52.7	-67.9	3.8	1.49e+00	0	44	104	0	76	21289
2026-01-01 10:38:59.92	335.92	14.89	-52.7	-67.9	3.8	1.49e+00	0	44	104	0	76	21326
2026-01-01 10:39:00.79	335.97	14.80	-52.7	-67.9	3.8	1.49e+00	0	44	104	0	76	21279
2026-01-01 10:39:01.93	336.02	14.68	-52.7	-67.9	3.8	1.49e+00	0	44	104	0	76	21279
2026-01-01 10:39:02.80	336.07	14.60	-52.7	-67.8	3.8	1.49e+00	0	44	104	0	76	21148
2026-01-01 10:39:03.94	336.13	14.48	-52.7	-67.8	3.8	1.49e+00	0	44	104	0	76	21118
2026-01-01 10:39:04.80	336.17	14.39	-52.7	-67.8	3.8	1.49e+00	0	44	104	0	76	21038
2026-01-01 10:39:05.95	336.23	14.28	-52.7	-67.9	3.8	1.49e+00	0	44	104	0	76	21265
2026-01-01 10:39:06.81	336.27	14.19	-52.7	-67.8	3.8	1.49e+00	0	44	104	0	76	21156
2026-01-01 10:39:07.96	336.33	14.08	-52.7	-67.8	3.8	1.49e+00	0	44	104	0	76	21126
2026-01-01 10:39:08.82	336.37	13.99	-52.7	-67.8	3.8	1.49e+00	0	44	104	0	76	21185
2026-01-01 10:39:09.96	336.43	13.88	-52.7	-67.8	3.8	1.49e+00	0	44	104	0	76	21202
2026-01-01 10:39:10.83	336.47	13.79	-52.7	-67.8	3.8	1.49e+00	0	44	104	0	76	21207
2026-01-01 10:39:11.97	336.52	13.68	-52.8	-67.9	3.8	1.49e+00	0	44	104	0	76	21323
2026-01-01 10:39:12.83	336.56	13.60	-52.7	-67.9	3.8	1.49e+00	0	44	104	0	76	21285
2026-01-01 10:39:13.98	336.62	13.49	-52.7	-67.8	3.8	1.49e+00	0	44	104	0	76	21158
2026-01-01 10:39:14.84	336.66	13.40	-52.7	-67.8	3.8	1.49e+00	0	44	104	0	76	21088
2026-01-01 10:39:15.99	336.71	13.29	-52.7	-67.8	3.8	1.49e+00	0	44	104	0	76	21155
2026-01-01 10:39:16.85	336.75	13.21	-52.7	-67.8	3.8	1.49e+00	0	44	104	0	76	21180
2026-01-01 10:39:18.00	336.81	13.10	-52.7	-67.8	3.8	1.49e+00	0	44	104	0	76	21169
2026-01-01 10:39:18.86	336.85	13.02	-52.7	-67.8	3.8	1.49e+00	0	44	104	0	76	21063
2026-01-01 10:39:20.01	336.90	12.91	-52.7	-67.8	3.8	1.49e+00	0	44	104	0	76	21134
2026-01-01 10:39:20.87	336.94	12.83	-52.7	-67.8	3.8	1.49e+00	0	44	104	0	76	21155
2026-01-01 10:39:22.02	336.99	12.72	-52.7	-67.8	3.8	1.49e+00	0	44	104	0	76	21185
2026-01-01 10:39:22.88	337.03	12.64	-52.8	-67.9	3.8	1.49e+00	0	44	104	0	76	21336
2026-01-01 10:39:24.02	337.08	12.53	-52.7	-67.9	3.8	1.49e+00	0	44	104	0	76	21296
2026-01-01 10:39:24.89	337.12	12.45	-52.7	-67.9	3.8	1.49e+00	0	44	104	0	76	21313
2026-01-01 10:39:26.03	337.17	12.34	-52.7	-67.9	3.8	1.49e+00	0	44	104	0	76	21354
2026-01-01 10:39:26.90	337.21	12.26	-52.7	-67.9	3.8	1.49e+00	0	44	104	0	76	21279
2026-01-01 10:39:28.04	337.26	12.16	-52.7	-67.9	3.8	1.49e+00	0	44	104	0	76	21388
2026-01-01 10:39:28.90	337.30	12.08	-52.7	-67.8	3.8	1.49e+00	0	44	104	0	76	21172
2026-01-01 10:39:30.05	337.35	11.97	-52.7	-67.9	3.8	1.49e+00	0	44	104	0	76	21296
2026-01-01 10:39:30.91	337.39	11.90	-52.7	-67.9	3.8	1.49e+00	0	44	104	0	76	21278
2026-01-01 10:39:32.06	337.44	11.79	-52.7	-67.8	3.8	1.49e+00	0	44	104	0	76	21136
2026-01-01 10:39:32.92	337.47	11.71	-52.7	-67.8	3.8	1.49e+00	0	44	104	0	76	21242
2026-01-01 10:39:34.07	337.52	11.61	-52.7	-67.8	3.8	1.49e+00	0	44	104	0	76	21220
2026-01-01 10:39:34.93	337.56	11.53	-52.7	-67.9	3.8	1.49e+00	0	44	104	0	76	21309
2026-01-01 10:39:36.08	337.61	11.43	-52.7	-67.9	3.8	1.49e+00	0	44	104	0	76	21329
2026-01-01 10:39:36.94	337.64	11.35	-52.7	-67.9	3.8	1.49e+00	0	44	104	0	76	21316
2026-01-01 10:39:38.09	337.69	11.25	-52.7	-67.9	3.8	1.49e+00	0	44	104	0	76	21322
2026-01-01 10:39:38.95	337.73	11.17	-52.7	-67.8	3.8	1.49e+00	0	44	104	0	76	21255
2026-01-01 10:39:40.09	337.77	11.07	-52.7	-67.8	3.8	1.49e+00	0	44	104	0	76	21164
2026-01-01 10:39:40.95	337.81	11.00	-52.7	-67.8	3.8	1.49e+00	0	44	104	0	76	21229
2026-01-01 10:39:42.10	337.85	10.90	-52.7	-67.8	3.8	1.49e+00	0	44	104	0	76	21152
2026-01-01 10:39:42.96	337.89	10.82	-52.7	-67.9	3.8	1.49e+00	0	44	104	0	76	21313
2026-01-01 10:39:44.11	337.94	10.72	-52.7	-67.8	3.8	1.49e+00	0	44	104	0	76	21240
2026-01-01 10:39:44.97	337.97	10.65	-52.7	-67.8	3.8	1.49e+00	0	44	104	0	76	21215
2026-01-01 10:39:46.12	338.02	10.55	-52.7	-67.9	3.8	1.49e+00	0	44	104	0	76	21376
2026-01-01 10:39:46.98	338.05	10.47	-52.8	-67.9	3.8	1.49e+00	0	44	104	0	76	21369
2026-01-01 10:39:48.12	338.10	10.37	-52.7	-67.8	3.8	1.49e+00	0	44	104	0	76	21236
2026-01-01 10:39:48.99	338.13	10.30	-52.7	-67.9	3.8	1.49e+00	0	44	104	0	76	21350
2026-01-01 10:39:50.13	338.17	10.20	-52.7	-67.8	3.8	1.49e+00	0	44	104	0	76	21256
2026-01-01 10:39:50.99	338.21	10.13	-52.7	-67.8	3.8	1.49e+00	0	44	104	0	76	21251
2026-01-01 10:39:52.14	338.25	10.03	-52.7	-67.8	3.8	1.49e+00	0	44	104	0	76	21154
2026-01-01 10:39:53.00	338.29	9.96	-52.7	-67.8	3.8	1.49e+00	0	44	104	0	76	21193
2026-01-01 10:39:54.15	338.33	9.86	-52.7	-67.8	3.8	1.49e+00	0	44	104	0	76	21165
2026-01-01 10:39:55.01	338.36	9.79	-52.7	-67.8	3.8	1.49e+00	0	44	104	0	76	21138
2026-01-01 10:39:56.16	338.41	9.69	-52.7	-67.8	3.8	1.49e+00	0	44	104	0	76	21135
2026-01-01 10:39:57.02	338.44	9.62	-52.6	-67.8	3.8	1.49e+00	0	44	104	0	76	21029
2026-01-01 10:39:58.17	338.48	9.53	-52.6	-67.7	3.8	1.49e+00	0	44	104	0	76	20978
2026-01-01 10:39:59.03	338.51	9.45	-52.7	-67.8	3.8	1.49e+00	0	44	104	0	76	21249
2026-01-01 10:40:00.17	338.56	9.36	-52.7	-67.8	3.8	1.49e+00	0	44	104	0	76	21082
2026-01-01 10:40:01.04	338.59	9.29	-52.7	-67.8	3.8	1.49e+00	0	44	104	0	76	21210
2026-01-01 10:40:02.19	338.63	9.19	-52.7	-67.8	3.8	1.49e+00	0	44	104	0	76	21150
2026-01-01 10:40:03.05	338.66	9.12	-52.7	-67.8	3.8	1.49e+00	0	44	104	0	76	21173
2026-01-01 10:40:04.19	338.70	9.03	-52.7	-67.8	3.8	1.49e+00	0	44	104	0	76	21140
2026-01-01 10:40:05.05	338.73	8.96	-52.7	-67.8	3.8	1.49e+00	0	44	104	0	76	21098
2026-01-01 10:40:06.20	338.78	8.87	-52.7	-67.8	3.8	1.49e+00	0	44	104	0	76	21069
2026-01-01 10:40:07.06	338.81	8.80	-52.6	-67.8	3.8	1.49e+00	0	44	104	0	76	21099
2026-01-01 10:40:08.21	338.85	8.71	-52.7	-67.8	3.8	1.49e+00	0	44	104	0	76	21044
2026-01-01 10:40:09.07	338.88	8.64	-52.7	-67.8	3.8	1.49e+00	0	44	104	0	76	21184
2026-01-01 10:40:10.22	338.92	8.54	-52.7	-67.8	3.8	1.49e+00	0	44	104	0	76	21182
2026-01-01 10:40:11.08	338.95	8.48	-52.7	-67.9	3.8	1.49e+00	0	44	104	0	76	21313
2026-01-01 10:40:12.23	338.99	8.38	-52.7	-67.8	3.8	1.49e+00	0	44	104	0	76	21250
2026-01-01 10:40:13.23	339.02	8.31	-52.7	-67.8	3.8	1.49e+00	0	44	104	0	76	21160
2026-01-01 10:40:14.41	339.06	8.21	-52.7	-67.8	3.8	1.49e+00	0	44	104	0	76	21148
2026-01-01 10:40:15.29	339.09	8.14	-52.7	-67.8	3.8	1.49e+00	0	44	104	0	76	21202
2026-01-01 10:40:16.58	339.14	8.04	-52.7	-67.8	3.8	1.49e+00	0	44	104	0	76	21239
2026-01-01 10:40:17.30	339.16	7.99	-52.7	-67.8	3.8	1.49e+00	0	44	104	0	76	21124
2026-01-01 10:40:18.80	339.21	7.87	-52.7	-67.8	3.8	1.49e+00	0	44	104	0	76	21116
2026-01-01 10:40:19.51	339.24	7.81	-52.7	-67.8	3.8	1.49e+00	0	44	104	0	76	21154
2026-01-01 10:40:20.84	339.28	7.71	-52.7	-67.8	3.8	1.49e+00	0	44	104	0	76	21073
2026-01-01 10:40:21.55	339.31	7.66	-52.7	-67.8	3.8	1.49e+00	0	44	104	0	76	21131
2026-01-01 10:40:22.88	339.35	7.55	-52.6	-67.7	3.8	1.49e+00	0	44	104	0	76	20972
2026-01-01 10:40:23.59	339.37	7.50	-52.7	-67.8	3.8	1.49e+00	0	44	104	0	76	21056
2026-01-01 10:40:24.92	339.42	7.40	-52.6	-67.8	3.8	1.49e+00	0	44	104	0	76	21026
2026-01-01 10:40:25.63	339.44	7.34	-52.6	-67.7	3.8	1.49e+00	0	44	104	0	76	20974
2026-01-01 10:40:26.93	339.48	7.24	-52.7	-67.8	3.8	1.49e+00	0	44	104	0	76	21134
2026-01-01 10:40:27.64	339.51	7.19	-52.7	-67.8	3.8	1.49e+00	0	44	104	0	76	21179
2026-01-01 10:40:28.93	339.55	7.09	-52.7	-67.8	3.8	1.49e+00	0	44	104	0	76	21146
2026-01-01 10:40:29.65	339.57	7.04	-52.7	-67.8	3.8	1.49e+00	0	44	104	0	76	21205
