passes_logs/2026/01/01/T1/T1__20260101_111213_AQUA_rec.log

#Pass ID: 20260101_111213_AQUA
#Satellite: AQUA
#Configuration: AQUA
#almurnet v.1.7.20251203
#Start time: 2026-01-01 11:12:13

#Version: 2.0.20230620
#Station: T1
#Location: 37.570604 lon 55.790049 lat
#TLE: 1 27424U 02022A   25364.96158943  .00001951  00000+0  40088-3 0  9998
#TLE: 2 27424  98.4061 326.1389 0001917  95.3187 305.7939 14.61780362258696

#Time	Az	El	Level	Level2	SNR	BER	BlckErr	Temp	State	Recorded	gain1	gain2
2026-01-01 11:12:13.50	146.10	5.01	-54.4	-74.9	3.8	7.45e-01	0	38	0	0	80	37823
2026-01-01 11:12:14.49	146.07	5.08	-54.5	-74.9	3.8	7.47e-01	0	38	104	0	79	40214
2026-01-01 11:12:15.50	146.04	5.16	-54.5	-74.9	3.8	7.47e-01	0	38	104	0	79	40230
2026-01-01 11:12:16.50	146.01	5.23	-54.5	-74.9	3.8	7.48e-01	0	38	104	0	79	40131
2026-01-01 11:12:17.50	145.98	5.31	-54.6	-74.9	3.8	7.42e-01	0	38	104	0	79	40379
2026-01-01 11:12:18.50	145.95	5.38	-54.6	-74.9	3.8	7.46e-01	0	38	104	0	79	40398
2026-01-01 11:12:19.50	145.92	5.46	-54.6	-74.9	3.8	7.48e-01	0	38	104	0	79	40498
2026-01-01 11:12:20.51	145.89	5.53	-54.6	-74.9	3.8	7.46e-01	0	38	104	0	79	40248
2026-01-01 11:12:21.51	145.86	5.61	-54.6	-74.9	3.8	7.45e-01	0	38	104	0	79	40284
2026-01-01 11:12:22.51	145.83	5.69	-54.6	-74.9	3.8	7.45e-01	0	39	104	0	79	40065
2026-01-01 11:12:23.52	145.80	5.76	-54.7	-74.9	3.8	7.48e-01	0	38	104	0	79	40361
2026-01-01 11:12:24.52	145.77	5.84	-54.6	-74.8	3.8	7.46e-01	0	39	104	0	80	37794
2026-01-01 11:12:25.52	145.74	5.92	-54.6	-74.8	3.8	7.45e-01	0	39	104	0	80	37640
2026-01-01 11:12:26.53	145.71	5.99	-54.7	-74.9	3.8	7.46e-01	0	39	104	0	80	38053
2026-01-01 11:12:27.52	145.68	6.07	-54.6	-74.9	3.8	7.48e-01	0	39	104	0	80	37880
2026-01-01 11:12:28.52	145.65	6.15	-54.6	-74.8	3.8	7.46e-01	0	39	104	0	80	37686
2026-01-01 11:12:29.51	145.61	6.23	-54.6	-74.9	3.8	7.48e-01	0	39	104	0	80	37872
2026-01-01 11:12:30.52	145.58	6.31	-54.7	-74.9	3.8	7.47e-01	0	39	104	0	80	38155
2026-01-01 11:12:31.52	145.55	6.38	-54.6	-74.8	3.8	7.43e-01	0	39	104	0	80	37721
2026-01-01 11:12:32.52	145.52	6.46	-54.6	-74.8	3.8	7.47e-01	0	39	104	0	80	37688
2026-01-01 11:12:33.52	145.49	6.54	-54.6	-74.9	3.8	7.44e-01	0	39	104	0	80	37862
2026-01-01 11:12:34.52	145.45	6.62	-54.6	-74.8	3.8	7.45e-01	0	39	104	0	80	37741
2026-01-01 11:12:35.51	145.42	6.70	-54.6	-74.8	3.8	7.48e-01	0	39	104	0	80	37723
2026-01-01 11:12:36.51	145.39	6.78	-54.5	-74.8	3.8	7.42e-01	0	39	104	0	80	37649
2026-01-01 11:12:37.51	145.35	6.86	-54.6	-74.9	3.8	7.46e-01	0	39	104	0	80	37974
2026-01-01 11:12:38.51	145.32	6.94	-54.6	-74.9	3.8	7.49e-01	0	39	104	0	80	37819
2026-01-01 11:12:39.50	145.29	7.02	-54.6	-74.9	3.8	7.44e-01	0	39	104	0	80	37914
2026-01-01 11:12:40.50	145.25	7.10	-54.6	-74.8	3.8	7.46e-01	0	39	104	0	80	37777
2026-01-01 11:12:41.50	145.22	7.18	-54.5	-74.8	3.8	7.44e-01	0	39	104	0	80	37695
2026-01-01 11:12:42.50	145.19	7.26	-54.5	-74.8	3.8	7.47e-01	0	39	104	0	80	37713
2026-01-01 11:12:43.51	145.15	7.35	-54.6	-74.9	3.8	7.47e-01	0	39	104	0	80	37952
2026-01-01 11:12:44.51	145.12	7.43	-54.5	-74.9	3.8	7.45e-01	0	39	104	0	80	37872
2026-01-01 11:12:45.51	145.08	7.51	-54.5	-74.9	3.8	7.45e-01	0	39	104	0	80	37863
2026-01-01 11:12:46.51	145.05	7.59	-54.5	-74.8	3.8	7.46e-01	0	39	104	0	80	37773
2026-01-01 11:12:47.51	145.01	7.68	-54.5	-74.8	3.8	7.44e-01	0	39	104	0	80	37783
2026-01-01 11:12:48.51	144.97	7.76	-54.5	-74.9	3.8	7.42e-01	0	39	104	0	80	37915
2026-01-01 11:12:49.51	144.94	7.84	-54.5	-74.9	3.8	7.46e-01	0	39	104	0	80	37946
2026-01-01 11:12:50.51	144.90	7.93	-54.5	-74.8	3.8	7.40e-01	0	39	104	0	80	37740
2026-01-01 11:12:51.50	144.87	8.01	-54.5	-74.8	3.8	7.46e-01	0	40	104	0	80	37703
2026-01-01 11:12:52.51	144.83	8.10	-54.4	-74.8	3.8	7.44e-01	0	40	104	0	80	37659
2026-01-01 11:12:53.51	144.79	8.18	-54.5	-74.9	3.8	7.44e-01	0	39	104	0	80	37876
2026-01-01 11:12:54.51	144.76	8.26	-54.5	-74.9	3.8	7.44e-01	0	39	104	0	80	37956
2026-01-01 11:12:55.51	144.72	8.35	-54.4	-74.8	3.8	7.46e-01	0	40	104	0	80	37705
2026-01-01 11:12:56.50	144.68	8.43	-54.4	-74.8	3.8	7.47e-01	0	39	104	0	80	37792
2026-01-01 11:12:57.50	144.64	8.52	-54.4	-74.8	3.8	7.45e-01	0	40	104	0	80	37634
2026-01-01 11:12:58.50	144.60	8.61	-54.4	-74.9	3.8	7.47e-01	0	40	104	0	80	37811
2026-01-01 11:12:59.50	144.57	8.69	-54.4	-74.9	3.8	7.45e-01	0	40	104	0	80	37878
2026-01-01 11:13:00.50	144.53	8.78	-54.4	-74.8	3.8	7.48e-01	0	40	104	0	80	37738
2026-01-01 11:13:01.50	144.49	8.87	-54.4	-74.9	3.8	7.46e-01	0	40	104	0	80	38000
2026-01-01 11:13:02.49	144.45	8.95	-54.4	-74.8	3.8	7.46e-01	0	40	104	0	80	37742
2026-01-01 11:13:03.49	144.41	9.04	-54.4	-74.8	3.8	7.46e-01	0	40	104	0	80	37730
2026-01-01 11:13:04.50	144.37	9.13	-54.3	-74.8	3.8	7.46e-01	0	40	104	0	80	37597
2026-01-01 11:13:05.49	144.33	9.22	-54.4	-74.8	3.8	7.47e-01	0	40	104	0	80	37737
2026-01-01 11:13:06.49	144.29	9.31	-54.4	-74.8	3.8	7.46e-01	0	40	104	0	80	37668
2026-01-01 11:13:07.48	144.25	9.40	-54.4	-74.8	3.8	7.43e-01	0	40	104	0	80	37540
2026-01-01 11:13:08.48	144.21	9.49	-54.4	-74.9	3.8	7.47e-01	0	40	104	0	80	37876
2026-01-01 11:13:09.48	144.17	9.58	-54.4	-74.9	3.8	7.44e-01	0	40	104	0	80	37851
2026-01-01 11:13:10.47	144.13	9.67	-54.4	-74.8	3.8	7.46e-01	0	40	104	0	80	37745
2026-01-01 11:13:11.47	144.08	9.76	-54.4	-74.9	3.8	7.46e-01	0	40	104	0	80	37890
2026-01-01 11:13:12.48	144.04	9.85	-54.4	-74.8	3.8	7.45e-01	0	40	104	0	80	37736
2026-01-01 11:13:13.48	144.00	9.94	-54.5	-74.9	3.8	7.46e-01	0	40	104	0	80	37936
2026-01-01 11:13:14.48	143.96	10.03	-54.5	-74.8	3.8	7.45e-01	0	40	104	0	80	37723
2026-01-01 11:13:15.49	143.91	10.12	-54.5	-74.9	3.8	7.48e-01	0	40	104	0	80	37821
2026-01-01 11:13:16.49	143.87	10.22	-54.5	-74.8	3.8	7.45e-01	0	40	104	0	80	37597
2026-01-01 11:13:17.49	143.83	10.31	-54.6	-74.9	3.8	7.47e-01	0	40	104	0	80	37911
2026-01-01 11:13:18.50	143.78	10.40	-54.5	-74.8	3.8	7.46e-01	0	40	104	0	80	37787
2026-01-01 11:13:19.49	143.74	10.50	-54.6	-74.8	3.8	7.44e-01	0	40	104	0	80	37745
2026-01-01 11:13:20.49	143.69	10.59	-54.6	-74.8	3.8	7.47e-01	0	40	104	0	80	37658
2026-01-01 11:13:21.49	143.65	10.68	-54.6	-74.8	3.8	7.43e-01	0	40	104	0	80	37799
2026-01-01 11:13:22.49	143.60	10.78	-54.6	-74.8	3.8	7.48e-01	0	40	104	0	80	37684
2026-01-01 11:13:23.49	143.56	10.87	-54.6	-74.8	3.8	7.45e-01	0	40	104	0	80	37673
2026-01-01 11:13:24.50	143.51	10.97	-54.6	-74.8	3.8	7.45e-01	0	40	104	0	80	37687
2026-01-01 11:13:25.49	143.47	11.07	-54.6	-74.8	3.8	7.45e-01	0	40	104	0	80	37711
2026-01-01 11:13:26.49	143.42	11.16	-54.6	-74.8	3.8	7.46e-01	0	40	104	0	80	37474
2026-01-01 11:13:27.49	143.37	11.26	-54.6	-74.8	3.8	7.47e-01	0	40	104	0	80	37442
2026-01-01 11:13:28.49	143.32	11.36	-54.6	-74.7	3.8	7.49e-01	0	40	104	0	80	37360
2026-01-01 11:13:29.49	143.28	11.45	-54.6	-74.8	3.8	7.45e-01	0	40	104	0	80	37690
2026-01-01 11:13:30.49	143.23	11.55	-54.6	-74.8	3.8	7.45e-01	0	40	104	0	80	37599
2026-01-01 11:13:31.49	143.18	11.65	-54.7	-74.9	3.8	7.44e-01	0	40	104	0	80	37832
2026-01-01 11:13:32.49	143.13	11.75	-54.6	-74.8	3.8	7.44e-01	0	40	104	0	80	37730
2026-01-01 11:13:33.49	143.08	11.85	-54.6	-74.8	3.8	7.47e-01	0	40	104	0	80	37724
2026-01-01 11:13:34.49	143.03	11.95	-54.6	-74.8	3.8	7.46e-01	0	40	104	0	80	37635
2026-01-01 11:13:35.49	142.98	12.05	-54.6	-74.8	3.8	7.48e-01	0	40	104	0	80	37671
2026-01-01 11:13:36.50	142.93	12.15	-54.6	-74.8	3.8	7.47e-01	0	40	104	0	80	37686
2026-01-01 11:13:37.49	142.88	12.25	-54.6	-74.8	3.8	7.43e-01	0	40	104	0	80	37698
2026-01-01 11:13:38.49	142.83	12.35	-54.6	-74.8	3.8	7.44e-01	0	40	104	0	80	37586
2026-01-01 11:13:39.48	142.78	12.45	-54.6	-74.8	3.8	7.46e-01	0	40	104	0	80	37593
2026-01-01 11:13:40.49	142.73	12.55	-54.7	-74.9	3.8	7.49e-01	0	40	104	0	80	37830
2026-01-01 11:13:41.49	142.68	12.66	-54.7	-74.9	3.8	7.46e-01	0	40	104	0	80	37879
2026-01-01 11:13:42.49	142.62	12.76	-54.7	-74.9	3.8	7.45e-01	0	40	104	0	80	38026
2026-01-01 11:13:43.49	142.57	12.86	-54.7	-74.9	3.8	7.47e-01	0	40	104	0	80	37887
2026-01-01 11:13:44.49	142.52	12.97	-54.6	-74.8	3.8	7.45e-01	0	40	104	0	80	37602
2026-01-01 11:13:45.49	142.46	13.07	-54.6	-74.8	3.8	7.48e-01	0	40	104	0	80	37737
2026-01-01 11:13:46.49	142.41	13.18	-54.6	-74.9	3.8	7.45e-01	0	40	104	0	80	38028
2026-01-01 11:13:47.49	142.35	13.28	-54.6	-74.9	3.8	7.46e-01	0	40	104	0	80	37829
2026-01-01 11:13:48.48	142.30	13.39	-54.6	-74.8	3.8	7.47e-01	0	40	104	0	80	37607
2026-01-01 11:13:49.48	142.24	13.49	-54.5	-74.8	3.8	7.46e-01	0	40	104	0	80	37749
2026-01-01 11:13:50.48	142.19	13.60	-54.5	-74.8	3.8	7.45e-01	0	40	104	0	80	37636
2026-01-01 11:13:51.47	142.13	13.71	-54.5	-74.8	3.8	7.45e-01	0	40	104	0	80	37758
2026-01-01 11:13:52.47	142.07	13.82	-54.4	-74.8	3.8	7.47e-01	0	40	104	0	80	37568
2026-01-01 11:13:53.46	142.02	13.92	-54.3	-74.8	3.8	7.47e-01	0	40	104	0	80	37405
2026-01-01 11:13:54.45	141.96	14.03	-54.3	-74.8	3.8	7.47e-01	0	40	104	0	80	37580
2026-01-01 11:13:55.44	141.90	14.14	-54.3	-74.8	3.8	7.46e-01	0	40	104	0	80	37489
2026-01-01 11:13:56.44	141.84	14.25	-54.4	-74.9	3.8	7.44e-01	0	40	104	0	80	37861
2026-01-01 11:13:57.44	141.78	14.36	-54.3	-74.8	3.8	7.46e-01	0	40	104	0	80	37771
2026-01-01 11:13:58.43	141.72	14.47	-54.3	-74.8	3.8	7.48e-01	0	41	104	0	80	37772
2026-01-01 11:13:59.43	141.66	14.58	-54.3	-74.9	3.8	7.48e-01	0	40	104	0	80	37892
2026-01-01 11:14:00.42	141.60	14.69	-54.2	-74.8	3.8	7.45e-01	0	40	104	0	80	37720
2026-01-01 11:14:01.42	141.54	14.81	-54.2	-74.8	3.8	7.48e-01	0	41	104	0	80	37766
2026-01-01 11:14:02.42	141.48	14.92	-54.2	-74.8	3.8	7.48e-01	0	40	104	0	80	37574
2026-01-01 11:14:03.41	141.42	15.03	-54.1	-74.8	3.8	7.42e-01	0	40	104	0	80	37768
2026-01-01 11:14:04.41	141.35	15.15	-54.1	-74.8	3.8	7.44e-01	0	40	104	0	80	37624
2026-01-01 11:14:05.40	141.29	15.26	-54.1	-74.8	3.8	7.44e-01	0	40	104	0	80	37786
2026-01-01 11:14:06.40	141.23	15.38	-54.1	-74.9	3.8	7.45e-01	0	40	104	0	80	37819
2026-01-01 11:14:07.40	141.16	15.49	-54.2	-74.9	3.8	7.44e-01	0	40	104	0	80	37811
2026-01-01 11:14:08.40	141.10	15.61	-54.1	-74.9	3.8	7.46e-01	0	40	104	0	80	37840
2026-01-01 11:14:09.39	141.03	15.72	-54.1	-74.8	3.8	7.46e-01	0	41	104	0	80	37665
2026-01-01 11:14:10.39	140.97	15.84	-54.1	-74.8	3.8	7.47e-01	0	40	104	0	80	37586
2026-01-01 11:14:11.38	140.90	15.96	-54.1	-74.8	3.8	7.48e-01	0	40	104	0	80	37662
2026-01-01 11:14:12.38	140.83	16.08	-54.1	-74.8	3.8	7.46e-01	0	41	104	0	80	37537
2026-01-01 11:14:13.38	140.76	16.20	-54.1	-74.8	3.8	7.49e-01	0	40	104	0	80	37807
2026-01-01 11:14:14.38	140.69	16.32	-54.1	-74.8	3.8	7.47e-01	0	40	104	0	80	37704
2026-01-01 11:14:15.38	140.63	16.44	-54.2	-74.8	3.8	7.46e-01	0	40	104	0	80	37710
2026-01-01 11:14:16.38	140.56	16.56	-54.2	-74.8	3.8	7.47e-01	0	40	104	0	80	37644
2026-01-01 11:14:17.39	140.48	16.68	-54.2	-74.8	3.8	7.46e-01	0	40	104	0	80	37788
2026-01-01 11:14:18.39	140.41	16.81	-54.2	-74.9	3.8	7.48e-01	0	40	104	0	80	37834
2026-01-01 11:14:19.39	140.34	16.93	-54.3	-74.9	3.8	7.44e-01	0	40	104	0	80	37883
2026-01-01 11:14:20.38	140.27	17.05	-54.3	-74.8	3.8	7.46e-01	0	40	104	0	80	37735
2026-01-01 11:14:21.38	140.20	17.18	-54.3	-74.8	3.8	7.43e-01	0	40	104	0	80	37657
2026-01-01 11:14:22.38	140.12	17.30	-54.3	-74.8	3.8	7.48e-01	0	41	104	0	80	37753
2026-01-01 11:14:23.38	140.05	17.43	-54.3	-74.8	3.8	7.46e-01	0	41	104	0	80	37591
2026-01-01 11:14:24.38	139.97	17.56	-54.3	-74.8	3.8	7.45e-01	0	40	104	0	80	37631
2026-01-01 11:14:25.38	139.90	17.68	-54.4	-74.8	3.8	7.46e-01	0	40	104	0	80	37689
2026-01-01 11:14:26.38	139.82	17.81	-54.4	-74.8	3.8	7.44e-01	0	40	104	0	80	37735
2026-01-01 11:14:27.38	139.74	17.94	-54.5	-74.9	3.8	7.45e-01	0	41	104	0	80	37937
2026-01-01 11:14:28.38	139.66	18.07	-54.5	-74.9	3.8	7.43e-01	0	41	104	0	80	37809
2026-01-01 11:14:29.38	139.59	18.20	-54.5	-74.8	3.8	7.44e-01	0	41	104	0	80	37661
2026-01-01 11:14:30.38	139.51	18.33	-54.5	-74.8	3.8	7.48e-01	0	40	104	0	80	37669
2026-01-01 11:14:31.38	139.43	18.46	-54.5	-74.8	3.8	7.46e-01	0	41	104	0	80	37689
2026-01-01 11:14:32.38	139.35	18.59	-54.5	-74.8	3.8	7.48e-01	0	40	104	0	80	37735
2026-01-01 11:14:33.38	139.26	18.73	-54.6	-74.8	3.8	7.43e-01	0	41	104	0	80	37748
2026-01-01 11:14:34.38	139.18	18.86	-54.6	-74.8	3.8	7.45e-01	0	40	104	0	80	37687
2026-01-01 11:14:35.38	139.10	18.99	-54.6	-74.8	3.8	7.47e-01	0	41	104	0	80	37743
2026-01-01 11:14:36.39	139.01	19.13	-54.6	-74.8	3.8	7.47e-01	0	41	104	0	80	37646
2026-01-01 11:14:37.39	138.93	19.27	-54.6	-74.8	3.8	7.45e-01	0	41	104	0	80	37680
2026-01-01 11:14:38.39	138.84	19.40	-54.6	-74.8	3.8	7.46e-01	0	40	104	0	80	37599
2026-01-01 11:14:39.39	138.75	19.54	-54.6	-74.8	3.8	7.45e-01	0	41	104	0	80	37573
2026-01-01 11:14:40.40	138.67	19.68	-54.6	-74.8	3.8	7.48e-01	0	41	104	0	80	37732
2026-01-01 11:14:41.40	138.58	19.82	-54.6	-74.8	3.8	7.47e-01	0	41	104	0	80	37778
2026-01-01 11:14:42.40	138.49	19.96	-54.6	-74.8	3.8	7.44e-01	0	41	104	0	80	37732
2026-01-01 11:14:43.40	138.40	20.10	-54.6	-74.8	3.8	7.47e-01	0	40	104	0	80	37643
2026-01-01 11:14:44.40	138.31	20.24	-54.6	-74.8	3.8	7.42e-01	0	40	104	0	80	37736
2026-01-01 11:14:45.40	138.22	20.38	-54.6	-74.8	3.8	7.47e-01	0	40	104	0	80	37537
2026-01-01 11:14:46.41	138.12	20.53	-54.6	-74.8	3.8	7.48e-01	0	41	104	0	80	37508
2026-01-01 11:14:47.41	138.03	20.67	-54.6	-74.8	3.8	7.48e-01	0	41	104	0	80	37476
2026-01-01 11:14:48.41	137.93	20.82	-54.7	-74.9	3.8	7.49e-01	0	41	104	0	80	37810
2026-01-01 11:14:49.42	137.84	20.96	-54.6	-74.8	3.8	7.49e-01	0	41	104	0	80	37586
2026-01-01 11:14:50.41	137.74	21.11	-54.6	-74.8	3.8	7.46e-01	0	41	104	0	80	37708
2026-01-01 11:14:51.42	137.64	21.26	-54.6	-74.8	3.8	7.45e-01	0	41	104	0	80	37700
2026-01-01 11:14:52.42	137.54	21.40	-54.6	-74.8	3.8	7.46e-01	0	41	104	0	80	37692
2026-01-01 11:14:53.42	137.44	21.55	-54.6	-74.8	3.8	7.45e-01	0	41	104	0	80	37605
2026-01-01 11:14:54.42	137.34	21.70	-54.6	-74.8	3.8	7.46e-01	0	41	104	0	80	37609
2026-01-01 11:14:55.41	137.24	21.85	-54.6	-74.8	3.8	7.43e-01	0	41	104	0	80	37413
2026-01-01 11:14:56.41	137.14	22.00	-54.6	-74.8	3.8	7.47e-01	0	40	104	0	80	37582
2026-01-01 11:14:57.40	137.04	22.15	-54.6	-74.8	3.8	7.48e-01	0	41	104	0	80	37455
2026-01-01 11:14:58.40	136.93	22.31	-54.6	-74.8	3.8	7.42e-01	0	40	104	0	80	37770
2026-01-01 11:14:59.41	136.82	22.46	-54.6	-74.8	3.8	7.43e-01	0	41	104	0	80	37611
2026-01-01 11:15:00.40	136.72	22.62	-54.6	-74.8	3.8	7.46e-01	0	41	104	0	80	37577
2026-01-01 11:15:01.40	136.61	22.77	-54.5	-74.7	3.8	7.47e-01	0	41	104	0	80	37315
2026-01-01 11:15:02.40	136.50	22.93	-54.5	-74.8	3.8	7.46e-01	0	41	104	0	80	37513
2026-01-01 11:15:03.40	136.39	23.09	-54.5	-74.8	3.8	7.44e-01	0	41	104	0	80	37572
2026-01-01 11:15:04.40	136.28	23.25	-54.4	-74.8	3.8	7.50e-01	0	41	104	0	80	37499
2026-01-01 11:15:05.40	136.16	23.41	-54.4	-74.8	3.8	7.49e-01	0	41	104	0	80	37581
2026-01-01 11:15:06.39	136.05	23.56	-54.4	-74.8	3.8	7.44e-01	0	41	104	0	80	37705
2026-01-01 11:15:07.39	135.93	23.73	-54.3	-74.8	3.8	7.46e-01	0	41	104	0	80	37656
2026-01-01 11:15:08.39	135.82	23.89	-54.3	-74.8	3.8	7.45e-01	0	41	104	0	80	37666
2026-01-01 11:15:09.39	135.70	24.05	-54.4	-74.9	3.8	7.45e-01	0	41	104	0	80	37889
2026-01-01 11:15:10.39	135.58	24.22	-54.3	-74.9	3.8	7.46e-01	0	41	104	0	80	37809
2026-01-01 11:15:11.39	135.46	24.38	-54.3	-74.9	3.8	7.46e-01	0	41	104	0	80	38033
2026-01-01 11:15:12.40	135.33	24.55	-54.2	-74.8	3.8	7.46e-01	0	41	104	0	80	37681
2026-01-01 11:15:13.40	135.21	24.72	-54.2	-74.8	3.8	7.47e-01	0	41	104	0	80	37726
2026-01-01 11:15:14.40	135.08	24.89	-54.2	-74.9	3.8	7.48e-01	0	41	104	0	80	37861
2026-01-01 11:15:15.40	134.96	25.06	-54.1	-74.8	3.8	7.47e-01	0	41	104	0	80	37678
2026-01-01 11:15:16.40	134.83	25.23	-54.1	-74.8	3.8	7.43e-01	0	41	104	0	80	37774
2026-01-01 11:15:17.41	134.70	25.40	-54.1	-74.8	3.8	7.46e-01	0	41	104	0	80	37595
2026-01-01 11:15:18.40	134.57	25.57	-54.1	-74.8	3.8	7.45e-01	0	41	104	0	80	37576
2026-01-01 11:15:19.41	134.43	25.75	-54.0	-74.8	3.8	7.46e-01	0	41	104	0	80	37594
2026-01-01 11:15:20.41	134.30	25.92	-54.0	-74.8	3.8	7.45e-01	0	40	104	0	80	37595
2026-01-01 11:15:21.41	134.16	26.10	-54.1	-74.9	3.8	7.48e-01	0	41	104	0	80	37883
2026-01-01 11:15:22.42	134.02	26.28	-54.1	-74.8	3.8	7.46e-01	0	41	104	0	80	37805
2026-01-01 11:15:23.41	133.89	26.45	-54.0	-74.9	3.8	7.49e-01	0	41	104	0	80	37843
2026-01-01 11:15:24.41	133.75	26.63	-54.0	-74.8	3.8	7.46e-01	0	41	104	0	80	37641
2026-01-01 11:15:25.41	133.60	26.81	-54.0	-74.9	3.8	7.46e-01	0	41	104	0	80	37823
2026-01-01 11:15:26.41	133.46	26.99	-54.0	-74.9	3.8	7.46e-01	0	41	104	0	79	40267
2026-01-01 11:15:27.41	133.31	27.18	-54.0	-74.9	3.8	7.47e-01	0	41	104	0	79	40139
2026-01-01 11:15:28.41	133.17	27.36	-53.9	-74.9	3.8	7.48e-01	0	41	104	0	79	40155
2026-01-01 11:15:29.41	133.02	27.54	-53.9	-74.9	3.8	7.46e-01	0	41	104	0	79	40069
2026-01-01 11:15:30.39	132.87	27.73	-53.9	-74.9	3.8	7.49e-01	0	41	104	0	79	40148
2026-01-01 11:15:31.40	132.71	27.92	-53.8	-74.8	3.8	7.44e-01	0	41	104	0	79	40020
2026-01-01 11:15:32.40	132.56	28.10	-53.8	-74.9	3.8	7.47e-01	0	41	104	0	79	40165
2026-01-01 11:15:33.41	132.40	28.29	-53.9	-74.9	3.8	7.48e-01	0	41	104	0	79	40314
2026-01-01 11:15:34.41	132.24	28.49	-53.9	-74.9	3.8	7.42e-01	0	41	104	0	79	40453
2026-01-01 11:15:35.41	132.08	28.68	-53.8	-74.9	3.8	7.44e-01	0	41	104	0	79	40199
2026-01-01 11:15:36.41	131.92	28.87	-53.8	-74.9	3.8	7.47e-01	0	41	104	0	79	40147
2026-01-01 11:15:37.42	131.75	29.07	-53.8	-74.8	3.8	7.41e-01	0	40	104	0	79	39845
2026-01-01 11:15:38.42	131.58	29.26	-53.7	-74.8	3.8	7.47e-01	0	41	104	0	79	39834
2026-01-01 11:15:39.42	131.41	29.46	-53.8	-74.9	3.8	7.47e-01	0	41	104	0	79	40082
2026-01-01 11:15:40.42	131.24	29.65	-53.8	-74.8	3.8	7.46e-01	0	40	104	0	79	40044
2026-01-01 11:15:41.42	131.07	29.85	-53.8	-74.9	3.8	7.50e-01	0	40	104	0	79	40442
2026-01-01 11:15:42.41	130.89	30.05	-53.8	-74.9	3.8	7.47e-01	0	41	104	0	79	40340
2026-01-01 11:15:43.41	130.72	30.25	-53.8	-74.9	3.8	7.47e-01	0	41	104	0	79	40274
2026-01-01 11:15:44.41	130.54	30.45	-53.8	-74.9	3.8	7.44e-01	0	41	104	0	79	40166
2026-01-01 11:15:45.41	130.35	30.66	-53.8	-74.9	3.8	7.49e-01	0	41	104	0	79	40189
2026-01-01 11:15:46.41	130.17	30.86	-53.9	-74.9	3.8	7.46e-01	0	41	104	0	79	40158
2026-01-01 11:15:47.41	129.98	31.07	-53.9	-74.9	3.8	7.48e-01	0	41	104	0	79	40280
2026-01-01 11:15:48.41	129.79	31.28	-53.9	-74.9	3.8	7.45e-01	0	41	104	0	79	40260
2026-01-01 11:15:49.41	129.60	31.48	-53.9	-74.9	3.8	7.46e-01	0	40	104	0	79	40314
2026-01-01 11:15:50.40	129.40	31.69	-53.9	-74.9	3.8	7.46e-01	0	41	104	0	79	40159
2026-01-01 11:15:51.40	129.20	31.90	-54.0	-74.9	3.8	7.44e-01	0	41	104	0	79	40315
2026-01-01 11:15:52.40	129.00	32.11	-54.0	-74.9	3.8	7.45e-01	0	41	104	0	79	40203
2026-01-01 11:15:53.40	128.80	32.33	-54.0	-74.9	3.8	7.45e-01	0	41	104	0	79	40168
2026-01-01 11:15:54.40	128.59	32.54	-54.0	-74.9	3.8	7.45e-01	0	41	104	0	79	40289
2026-01-01 11:15:55.40	128.38	32.76	-54.1	-75.0	3.8	7.47e-01	0	41	104	0	79	40662
2026-01-01 11:15:56.40	128.17	32.97	-54.1	-74.9	3.8	7.49e-01	0	40	104	0	79	40360
2026-01-01 11:15:57.40	127.96	33.19	-54.1	-75.0	3.8	7.46e-01	0	40	104	0	79	40633
2026-01-01 11:15:58.40	127.74	33.41	-54.1	-74.9	3.8	7.49e-01	0	41	104	0	79	40357
2026-01-01 11:15:59.40	127.52	33.63	-54.1	-74.9	3.8	7.42e-01	0	41	104	0	79	40256
2026-01-01 11:16:00.40	127.29	33.85	-54.1	-74.9	3.8	7.40e-01	0	41	104	0	79	40230
2026-01-01 11:16:01.41	127.06	34.08	-54.1	-74.9	3.8	7.47e-01	0	41	104	0	79	40229
2026-01-01 11:16:02.41	126.83	34.30	-54.1	-74.9	3.8	7.46e-01	0	41	104	0	79	40154
2026-01-01 11:16:03.41	126.60	34.53	-54.2	-74.9	3.8	7.43e-01	0	41	104	0	79	40434
2026-01-01 11:16:04.41	126.36	34.76	-54.3	-75.0	3.8	7.46e-01	0	41	104	0	79	40576
2026-01-01 11:16:05.42	126.12	34.99	-54.2	-74.9	3.8	7.48e-01	0	40	104	0	79	40349
2026-01-01 11:16:06.41	125.87	35.21	-54.2	-74.9	3.8	7.49e-01	0	41	104	0	79	40268
2026-01-01 11:16:07.41	125.63	35.44	-54.3	-74.9	3.8	7.43e-01	0	41	104	0	79	40181
2026-01-01 11:16:08.41	125.37	35.67	-54.3	-74.9	3.8	7.44e-01	0	41	104	0	79	40130
2026-01-01 11:16:09.40	125.12	35.90	-54.2	-74.9	3.8	7.44e-01	0	41	104	0	79	40207
2026-01-01 11:16:10.41	124.86	36.14	-54.2	-74.9	3.8	7.47e-01	0	40	104	0	79	40127
2026-01-01 11:16:11.41	124.60	36.37	-54.3	-74.9	3.8	7.45e-01	0	40	104	0	79	40227
2026-01-01 11:16:12.41	124.33	36.61	-54.3	-74.8	3.8	7.44e-01	0	41	104	0	79	40018
2026-01-01 11:16:13.42	124.05	36.85	-54.3	-74.9	3.8	7.42e-01	0	41	104	0	79	40299
2026-01-01 11:16:14.42	123.78	37.09	-54.3	-74.9	3.8	7.45e-01	0	41	104	0	79	40076
2026-01-01 11:16:15.42	123.50	37.33	-54.4	-75.0	3.8	7.44e-01	0	41	104	0	79	40581
2026-01-01 11:16:16.42	123.22	37.57	-54.3	-74.9	3.8	7.45e-01	0	41	104	0	79	40263
2026-01-01 11:16:17.42	122.93	37.81	-54.4	-74.9	3.8	7.47e-01	0	41	104	0	79	40396
2026-01-01 11:16:18.42	122.63	38.05	-54.4	-74.9	3.8	7.46e-01	0	41	104	0	79	40407
2026-01-01 11:16:19.43	122.33	38.30	-54.4	-75.0	3.8	7.47e-01	0	41	104	0	79	40645
2026-01-01 11:16:20.43	122.03	38.54	-54.4	-74.9	3.8	7.45e-01	0	40	104	0	79	40451
2026-01-01 11:16:21.43	121.73	38.79	-54.3	-74.9	3.8	7.45e-01	0	41	104	0	79	40144
2026-01-01 11:16:22.44	121.41	39.03	-54.3	-74.9	3.8	7.48e-01	0	41	104	0	79	40265
2026-01-01 11:16:23.44	121.10	39.28	-54.3	-74.9	3.8	7.50e-01	0	41	104	0	79	40220
2026-01-01 11:16:24.44	120.77	39.53	-54.3	-74.9	3.8	7.48e-01	0	40	104	0	79	40089
2026-01-01 11:16:25.44	120.45	39.78	-54.3	-74.9	3.8	7.48e-01	0	41	104	0	79	40125
2026-01-01 11:16:26.45	120.11	40.03	-54.2	-74.8	3.8	7.48e-01	0	40	104	0	79	39965
2026-01-01 11:16:27.45	119.78	40.28	-54.2	-74.8	3.8	7.48e-01	0	41	104	0	79	39893
2026-01-01 11:16:28.45	119.44	40.53	-54.2	-74.8	3.8	7.45e-01	0	41	104	0	79	39909
2026-01-01 11:16:29.45	119.09	40.78	-54.3	-74.9	3.8	7.47e-01	0	41	104	0	79	40249
2026-01-01 11:16:30.43	118.74	41.03	-54.2	-74.9	3.8	7.47e-01	0	41	104	0	79	40240
2026-01-01 11:16:31.44	118.38	41.28	-54.2	-74.9	3.8	7.42e-01	0	41	104	0	79	40136
2026-01-01 11:16:32.44	118.02	41.54	-54.2	-74.9	3.8	7.43e-01	0	41	104	0	79	40111
2026-01-01 11:16:33.44	117.64	41.79	-54.2	-74.8	3.8	7.45e-01	0	40	104	0	79	39951
2026-01-01 11:16:34.45	117.26	42.05	-54.2	-74.9	3.8	7.48e-01	0	41	104	0	79	40182
2026-01-01 11:16:35.44	116.89	42.30	-54.2	-74.8	3.8	7.46e-01	0	41	104	0	79	39968
2026-01-01 11:16:36.44	116.50	42.56	-54.2	-74.8	3.8	7.46e-01	0	41	104	0	79	40026
2026-01-01 11:16:37.44	116.10	42.81	-54.2	-74.8	3.8	7.46e-01	0	41	104	0	79	40017
2026-01-01 11:16:38.44	115.70	43.07	-54.2	-74.8	3.8	7.46e-01	0	41	104	0	79	39859
2026-01-01 11:16:39.45	115.29	43.33	-54.2	-74.9	3.8	7.47e-01	0	41	104	0	79	40157
2026-01-01 11:16:40.45	114.87	43.58	-54.2	-74.8	3.8	7.47e-01	0	41	104	0	79	40000
2026-01-01 11:16:41.45	114.45	43.84	-54.2	-74.9	3.8	7.46e-01	0	41	104	0	79	40053
2026-01-01 11:16:42.45	114.02	44.10	-54.2	-74.8	3.8	7.47e-01	0	41	104	0	79	40013
2026-01-01 11:16:43.46	113.58	44.36	-54.1	-74.8	3.8	7.44e-01	0	41	104	0	79	40014
2026-01-01 11:16:44.46	113.14	44.61	-54.1	-74.8	3.8	7.44e-01	0	41	104	0	79	39839
2026-01-01 11:16:45.46	112.69	44.87	-54.2	-74.9	3.8	7.47e-01	0	41	104	0	79	40151
2026-01-01 11:16:46.46	112.23	45.12	-54.2	-74.8	3.8	7.44e-01	0	41	104	0	79	39999
2026-01-01 11:16:47.46	111.77	45.38	-54.2	-74.9	3.8	7.47e-01	0	41	104	0	79	40094
2026-01-01 11:16:48.47	111.29	45.64	-54.2	-74.8	3.8	7.45e-01	0	41	104	0	79	39975
2026-01-01 11:16:49.46	110.81	45.89	-54.2	-74.8	3.8	7.45e-01	0	41	104	0	79	39927
2026-01-01 11:16:50.47	110.32	46.15	-54.2	-74.8	3.8	7.46e-01	0	41	104	0	79	40035
2026-01-01 11:16:51.47	109.82	46.40	-54.2	-74.8	3.8	7.43e-01	0	41	104	0	79	39834
2026-01-01 11:16:52.48	109.31	46.65	-54.2	-74.8	3.8	7.44e-01	0	41	104	0	79	39644
2026-01-01 11:16:53.48	108.80	46.91	-54.1	-74.7	3.8	7.48e-01	0	41	104	0	79	39437
2026-01-01 11:16:54.48	108.27	47.16	-54.2	-74.8	3.8	7.47e-01	0	41	104	0	79	39903
2026-01-01 11:16:55.49	107.74	47.41	-54.2	-74.8	3.8	7.51e-01	0	41	104	0	79	39739
2026-01-01 11:16:56.48	107.20	47.66	-54.2	-74.7	3.8	7.47e-01	0	40	104	0	79	39480
2026-01-01 11:16:57.48	106.66	47.90	-54.2	-74.7	3.8	7.45e-01	0	41	104	0	79	39334
2026-01-01 11:16:58.48	106.10	48.15	-54.2	-74.7	3.8	7.47e-01	0	41	104	0	79	39498
2026-01-01 11:16:59.48	105.53	48.39	-54.2	-74.8	3.8	7.47e-01	0	41	104	0	79	39686
2026-01-01 11:17:00.48	104.96	48.64	-54.2	-74.7	3.8	7.42e-01	0	41	104	0	79	39461
2026-01-01 11:17:01.48	104.37	48.88	-54.2	-74.7	3.8	7.46e-01	0	41	104	0	79	39478
2026-01-01 11:17:02.48	103.78	49.12	-54.2	-74.8	3.8	7.48e-01	0	40	104	0	79	39669
2026-01-01 11:17:03.48	103.18	49.35	-54.1	-74.7	3.8	7.43e-01	0	41	104	0	79	39430
2026-01-01 11:17:04.48	102.56	49.59	-54.2	-74.7	3.8	7.47e-01	0	41	104	0	79	39545
2026-01-01 11:17:05.48	101.94	49.82	-54.2	-74.8	3.8	7.47e-01	0	41	104	0	79	39774
2026-01-01 11:17:06.48	101.31	50.05	-54.2	-74.8	3.8	7.47e-01	0	41	104	0	79	39875
2026-01-01 11:17:07.48	100.67	50.28	-54.2	-74.8	3.8	7.47e-01	0	41	104	0	79	39828
2026-01-01 11:17:08.48	100.01	50.50	-54.2	-74.8	3.8	7.47e-01	0	41	104	0	79	39741
2026-01-01 11:17:09.48	99.35	50.73	-54.2	-74.8	3.8	7.47e-01	0	41	104	0	79	39676
2026-01-01 11:17:10.48	98.68	50.94	-54.2	-74.8	3.8	7.46e-01	0	41	104	0	79	39705
2026-01-01 11:17:11.47	98.01	51.16	-54.2	-74.7	3.8	7.48e-01	0	41	104	0	79	39415
2026-01-01 11:17:12.47	97.32	51.37	-54.2	-74.7	3.8	7.47e-01	0	41	104	0	79	39562
2026-01-01 11:17:13.47	96.62	51.58	-54.2	-74.8	3.8	7.45e-01	0	41	104	0	79	39636
2026-01-01 11:17:14.46	95.91	51.78	-54.2	-74.6	3.8	7.47e-01	0	41	104	0	79	39112
2026-01-01 11:17:15.46	95.19	51.99	-54.2	-74.7	3.8	7.47e-01	0	41	104	0	79	39576
2026-01-01 11:17:16.46	94.46	52.19	-54.2	-74.8	3.8	7.42e-01	0	41	104	0	79	39981
2026-01-01 11:17:17.46	93.72	52.38	-54.2	-74.8	3.8	7.46e-01	0	41	104	0	79	39835
2026-01-01 11:17:18.46	92.97	52.57	-54.3	-74.8	3.8	7.45e-01	0	41	104	0	79	39829
2026-01-01 11:17:19.46	92.21	52.76	-54.2	-74.8	3.8	7.44e-01	0	41	104	0	79	39939
2026-01-01 11:17:20.46	91.44	52.94	-54.2	-74.8	3.8	7.47e-01	0	41	104	0	79	39911
2026-01-01 11:17:21.46	90.66	53.11	-54.2	-74.8	3.8	7.44e-01	0	41	104	0	79	39748
2026-01-01 11:17:22.46	89.87	53.29	-54.3	-74.8	3.8	7.45e-01	0	41	104	0	79	39819
2026-01-01 11:17:23.46	89.08	53.45	-54.3	-74.8	3.8	7.44e-01	0	41	104	0	79	39954
2026-01-01 11:17:24.46	88.27	53.61	-54.2	-74.8	3.8	7.48e-01	0	40	104	0	79	39891
2026-01-01 11:17:25.45	87.46	53.77	-54.2	-74.8	3.8	7.50e-01	0	41	104	0	79	39922
2026-01-01 11:17:26.45	86.64	53.92	-54.3	-74.9	3.8	7.45e-01	0	41	104	0	79	40279
2026-01-01 11:17:27.45	85.80	54.07	-54.3	-74.9	3.8	7.46e-01	0	41	104	0	79	40222
2026-01-01 11:17:28.44	84.97	54.20	-54.3	-74.9	3.8	7.47e-01	0	41	104	0	79	40304
2026-01-01 11:17:29.44	84.12	54.34	-54.3	-74.9	3.8	7.47e-01	0	41	104	0	79	40239
2026-01-01 11:17:30.44	83.26	54.47	-54.2	-74.9	3.8	7.48e-01	0	41	104	0	79	40099
2026-01-01 11:17:31.43	82.41	54.59	-54.2	-74.8	3.8	7.45e-01	0	41	104	0	79	39944
2026-01-01 11:17:32.44	81.52	54.70	-54.2	-74.8	3.8	7.48e-01	0	41	104	0	79	39768
2026-01-01 11:17:33.43	80.65	54.81	-54.2	-74.8	3.8	7.44e-01	0	41	104	0	79	39841
2026-01-01 11:17:34.43	79.77	54.91	-54.2	-74.8	3.8	7.48e-01	0	41	104	0	79	39800
2026-01-01 11:17:35.43	78.88	55.01	-54.3	-74.9	3.8	7.46e-01	0	40	104	0	79	40511
2026-01-01 11:17:36.43	77.98	55.10	-54.2	-74.9	3.8	7.46e-01	0	41	104	0	79	40167
2026-01-01 11:17:37.43	77.08	55.18	-54.2	-74.9	3.8	7.47e-01	0	41	104	0	79	40072
2026-01-01 11:17:38.43	76.17	55.26	-54.2	-74.9	3.8	7.46e-01	0	41	104	0	79	40062
2026-01-01 11:17:39.43	75.25	55.33	-54.3	-74.8	3.8	7.48e-01	0	40	104	0	79	40005
2026-01-01 11:17:40.43	74.34	55.39	-54.6	-74.8	3.9	7.43e-01	0	41	104	0	80	37589
2026-01-01 11:17:41.44	73.41	55.44	-54.4	-74.8	3.8	7.46e-01	0	41	104	0	80	37555
2026-01-01 11:17:42.44	72.48	55.49	-54.5	-74.8	3.8	7.47e-01	0	41	104	0	80	37688
2026-01-01 11:17:43.44	71.55	55.53	-54.2	-74.9	3.8	7.45e-01	0	41	104	0	79	40350
2026-01-01 11:17:44.45	70.61	55.56	-54.1	-74.9	3.8	7.47e-01	0	41	104	0	79	40131
2026-01-01 11:17:45.45	69.68	55.59	-54.2	-74.8	3.8	7.44e-01	0	41	104	0	79	39966
2026-01-01 11:17:46.45	68.75	55.60	-54.2	-74.9	3.8	7.48e-01	0	41	104	0	79	40258
2026-01-01 11:17:47.45	67.82	55.61	-54.2	-74.9	3.8	7.47e-01	0	41	104	0	79	40093
2026-01-01 11:17:48.45	66.88	55.62	-54.2	-74.8	3.8	7.46e-01	0	41	104	0	79	40016
2026-01-01 11:17:49.45	65.95	55.61	-54.1	-74.8	3.8	7.46e-01	0	41	104	0	79	39924
2026-01-01 11:17:50.46	65.00	55.60	-54.1	-74.8	3.8	7.46e-01	0	41	104	0	79	39863
2026-01-01 11:17:51.46	64.07	55.58	-54.1	-74.8	3.8	7.45e-01	0	41	104	0	79	39857
2026-01-01 11:17:52.46	63.14	55.55	-54.1	-74.8	3.8	7.44e-01	0	41	104	0	79	39964
2026-01-01 11:17:53.46	62.21	55.52	-54.2	-74.9	3.8	7.45e-01	0	41	104	0	79	40081
2026-01-01 11:17:54.45	61.29	55.48	-54.2	-74.8	3.8	7.44e-01	0	41	104	0	79	39915
2026-01-01 11:17:55.45	60.37	55.43	-54.1	-74.8	3.8	7.45e-01	0	41	104	0	79	39803
2026-01-01 11:17:56.45	59.45	55.37	-54.1	-74.8	3.8	7.45e-01	0	41	104	0	79	40033
2026-01-01 11:17:57.45	58.54	55.31	-54.1	-74.8	3.8	7.43e-01	0	41	104	0	79	39743
2026-01-01 11:17:58.45	57.62	55.24	-54.1	-74.8	3.8	7.47e-01	0	41	104	0	79	39745
2026-01-01 11:17:59.45	56.72	55.16	-54.1	-74.8	3.8	7.45e-01	0	40	104	0	79	39840
2026-01-01 11:18:00.45	55.82	55.07	-54.1	-74.7	3.8	7.48e-01	0	41	104	0	79	39474
2026-01-01 11:18:01.45	54.92	54.98	-54.1	-74.8	3.8	7.46e-01	0	41	104	0	79	39682
2026-01-01 11:18:02.45	54.03	54.89	-54.1	-74.8	3.8	7.43e-01	0	41	104	0	79	39746
2026-01-01 11:18:03.45	53.15	54.78	-54.1	-74.8	3.8	7.47e-01	0	41	104	0	79	39816
2026-01-01 11:18:04.45	52.27	54.67	-54.2	-74.9	3.8	7.48e-01	0	41	104	0	79	40100
2026-01-01 11:18:05.45	51.40	54.55	-54.2	-74.9	3.8	7.45e-01	0	41	104	0	79	40049
2026-01-01 11:18:06.45	50.54	54.43	-54.1	-74.8	3.8	7.46e-01	0	41	104	0	79	39914
2026-01-01 11:18:07.45	49.69	54.30	-54.1	-74.8	3.8	7.46e-01	0	41	104	0	79	39914
2026-01-01 11:18:08.45	48.84	54.16	-54.2	-74.8	3.8	7.46e-01	0	41	104	0	79	39824
2026-01-01 11:18:09.45	48.00	54.02	-54.1	-74.8	3.8	7.46e-01	0	41	104	0	79	39859
2026-01-01 11:18:10.46	47.17	53.87	-54.2	-74.8	3.8	7.44e-01	0	41	104	0	79	39877
2026-01-01 11:18:11.46	46.34	53.72	-54.4	-74.8	3.8	7.49e-01	0	41	104	0	79	40026
2026-01-01 11:18:12.46	45.53	53.56	-54.0	-74.8	3.8	7.45e-01	0	41	104	0	79	39887
2026-01-01 11:18:13.46	44.73	53.40	-53.9	-74.8	3.8	7.45e-01	0	41	104	0	79	39851
2026-01-01 11:18:14.46	43.94	53.23	-53.9	-74.8	3.8	7.46e-01	0	41	104	0	79	40029
2026-01-01 11:18:15.46	43.15	53.06	-53.9	-74.8	3.8	7.43e-01	0	41	104	0	79	39961
2026-01-01 11:18:16.46	42.38	52.88	-53.9	-74.8	3.8	7.47e-01	0	40	104	0	79	39919
2026-01-01 11:18:17.47	41.60	52.70	-53.9	-74.8	3.8	7.44e-01	0	41	104	0	79	39969
2026-01-01 11:18:18.47	40.85	52.51	-53.8	-74.8	3.8	7.46e-01	0	41	104	0	79	39864
2026-01-01 11:18:19.47	40.10	52.32	-53.8	-74.8	3.8	7.46e-01	0	41	104	0	79	39653
2026-01-01 11:18:20.47	39.37	52.13	-53.8	-74.8	3.8	7.46e-01	0	41	104	0	79	39744
2026-01-01 11:18:21.47	38.64	51.93	-53.7	-74.8	3.8	7.50e-01	0	41	104	0	79	39636
2026-01-01 11:18:22.48	37.92	51.72	-53.8	-74.8	3.8	7.48e-01	0	41	104	0	79	39898
2026-01-01 11:18:23.48	37.21	51.51	-53.7	-74.8	3.8	7.50e-01	0	41	104	0	79	39772
2026-01-01 11:18:24.48	36.52	51.30	-53.7	-74.8	3.8	7.46e-01	0	41	104	0	79	39961
2026-01-01 11:18:25.48	35.83	51.09	-53.7	-74.8	3.8	7.47e-01	0	41	104	0	79	39900
2026-01-01 11:18:26.47	35.16	50.88	-53.7	-74.8	3.8	7.45e-01	0	41	104	0	79	39925
2026-01-01 11:18:27.48	34.49	50.65	-53.7	-74.9	3.8	7.47e-01	0	41	104	0	79	40082
2026-01-01 11:18:28.47	33.84	50.43	-54.3	-74.9	3.8	7.44e-01	0	41	104	0	79	40052
2026-01-01 11:18:29.48	33.19	50.21	-54.2	-74.8	3.8	7.46e-01	0	41	104	0	79	39947
2026-01-01 11:18:30.48	32.55	49.98	-54.3	-74.9	3.8	7.49e-01	0	41	104	0	79	40102
2026-01-01 11:18:31.48	31.92	49.75	-54.2	-74.8	3.8	7.41e-01	0	41	104	0	79	39993
2026-01-01 11:18:32.48	31.30	49.52	-54.2	-74.8	3.8	7.46e-01	0	41	104	0	79	39944
2026-01-01 11:18:33.48	30.70	49.28	-54.2	-74.8	3.8	7.50e-01	0	41	104	0	79	39849
2026-01-01 11:18:34.47	30.10	49.05	-54.2	-74.9	3.8	7.42e-01	0	41	104	0	79	40136
2026-01-01 11:18:35.47	29.51	48.81	-54.2	-74.8	3.8	7.49e-01	0	40	104	0	79	40015
2026-01-01 11:18:36.47	28.93	48.57	-54.5	-74.9	3.8	7.46e-01	0	41	104	0	79	40179
2026-01-01 11:18:37.47	28.36	48.32	-54.5	-74.9	3.8	7.46e-01	0	41	104	0	79	40134
2026-01-01 11:18:38.47	27.80	48.08	-54.4	-74.8	3.8	7.45e-01	0	41	104	0	79	40013
2026-01-01 11:18:39.47	27.25	47.83	-54.8	-74.9	3.8	7.45e-01	0	41	104	0	80	38039
2026-01-01 11:18:40.47	26.71	47.59	-54.9	-74.9	3.8	7.43e-01	0	41	104	0	80	37824
2026-01-01 11:18:41.47	26.17	47.34	-54.5	-74.9	3.8	7.49e-01	0	41	104	0	80	37829
2026-01-01 11:18:42.47	25.64	47.09	-54.1	-74.7	3.8	7.46e-01	0	41	104	0	80	37222
2026-01-01 11:18:43.48	25.12	46.84	-54.0	-74.5	3.8	7.45e-01	0	41	104	0	79	38559
2026-01-01 11:18:44.48	24.61	46.59	-53.9	-74.7	3.8	7.50e-01	0	41	104	0	79	39208
2026-01-01 11:18:45.48	24.11	46.33	-52.5	-73.5	3.8	7.48e-01	0	41	104	0	77	38582
2026-01-01 11:18:46.48	23.62	46.08	-54.0	-67.5	6.4	6.80e-01	0	41	104	0	78	18225
2026-01-01 11:18:47.49	23.13	45.83	-52.7	-59.8	10.5	6.09e-01	0	41	0	524288	77	7927
2026-01-01 11:18:48.48	22.66	45.57	-53.0	-62.0	10.2	6.19e-01	0	41	0	2097152	77	10186
2026-01-01 11:18:49.49	22.18	45.32	-52.8	-61.6	11.4	6.15e-01	0	41	0	4194304	77	9828
2026-01-01 11:18:50.49	21.72	45.06	-52.6	-61.7	11.6	6.15e-01	0	41	0	5767168	77	9936
2026-01-01 11:18:51.48	21.27	44.81	-52.7	-62.3	11.2	6.15e-01	0	41	0	7864320	77	10534
2026-01-01 11:18:52.49	20.82	44.55	-52.7	-61.9	11.7	6.16e-01	0	41	0	9437184	77	10079
2026-01-01 11:18:53.49	20.38	44.30	-52.9	-62.6	10.9	6.19e-01	0	41	0	11534336	77	10955
2026-01-01 11:18:54.49	19.95	44.04	-52.9	-61.6	12.0	6.13e-01	0	41	0	13631488	77	9751
2026-01-01 11:18:55.49	19.52	43.79	-53.1	-62.6	10.9	6.20e-01	0	41	0	15204352	77	11024
2026-01-01 11:18:56.50	19.10	43.53	-53.1	-62.2	11.3	6.15e-01	0	41	0	17301504	77	10451
2026-01-01 11:18:57.50	18.69	43.27	-53.1	-62.1	11.5	6.17e-01	0	41	0	18874368	77	10326
2026-01-01 11:18:58.50	18.28	43.02	-53.3	-62.7	10.8	6.20e-01	0	41	0	20971520	77	11042
2026-01-01 11:18:59.50	17.88	42.76	-53.4	-62.0	11.5	6.15e-01	0	41	0	22544384	77	10255
2026-01-01 11:19:00.51	17.49	42.51	-53.6	-63.3	10.3	6.25e-01	0	41	0	24641536	77	11853
2026-01-01 11:19:01.51	17.10	42.25	-53.2	-62.2	11.4	6.17e-01	0	41	0	26738688	77	10415
2026-01-01 11:19:02.51	16.72	42.00	-53.0	-62.0	11.6	6.13e-01	0	41	0	28311552	77	10228
2026-01-01 11:19:03.51	16.35	41.74	-53.3	-62.9	10.7	6.21e-01	0	41	0	30408704	77	11320
2026-01-01 11:19:04.51	15.98	41.49	-53.3	-62.6	10.9	6.21e-01	0	41	0	31981568	77	11015
2026-01-01 11:19:05.52	15.62	41.24	-53.5	-63.0	10.4	6.21e-01	0	41	0	34078720	77	11510
2026-01-01 11:19:06.52	15.26	40.99	-53.3	-62.5	11.0	6.18e-01	0	41	0	36175872	77	10835
2026-01-01 11:19:07.52	14.91	40.73	-53.2	-62.5	11.0	6.17e-01	0	41	0	37748736	77	10876
2026-01-01 11:19:08.52	14.57	40.48	-53.2	-63.0	10.5	6.23e-01	0	41	0	39845888	77	11470
2026-01-01 11:19:09.52	14.23	40.23	-52.9	-61.7	11.9	6.13e-01	0	41	0	41418752	77	9839
2026-01-01 11:19:10.52	13.89	39.99	-53.1	-62.9	10.7	6.19e-01	0	41	0	43515904	77	11330
2026-01-01 11:19:11.53	13.56	39.74	-53.3	-63.4	10.1	6.25e-01	0	41	0	45088768	77	12069
2026-01-01 11:19:12.53	13.24	39.49	-53.2	-62.5	11.2	6.14e-01	0	41	0	47185920	77	10781
2026-01-01 11:19:13.53	12.92	39.24	-53.2	-62.6	11.0	6.17e-01	0	40	0	49283072	77	10955
2026-01-01 11:19:14.54	12.60	38.99	-53.2	-62.5	11.0	6.16e-01	0	41	0	50855936	77	10855
2026-01-01 11:19:15.53	12.30	38.75	-53.2	-62.5	11.1	6.20e-01	0	41	0	52953088	77	10856
2026-01-01 11:19:16.53	12.00	38.51	-53.4	-63.1	10.4	6.21e-01	0	41	0	54525952	77	11568
2026-01-01 11:19:17.53	11.70	38.26	-53.4	-62.6	10.9	6.22e-01	0	41	0	56623104	77	11027
2026-01-01 11:19:18.53	11.40	38.02	-53.5	-62.7	10.9	6.17e-01	0	41	0	58195968	77	11065
2026-01-01 11:19:19.53	11.11	37.78	-53.4	-62.9	10.6	6.21e-01	0	41	0	60293120	77	11352
2026-01-01 11:19:20.54	10.82	37.54	-53.2	-62.1	11.5	6.17e-01	0	41	0	62390272	77	10342
2026-01-01 11:19:21.54	10.54	37.30	-53.3	-62.3	11.4	6.10e-01	0	41	0	63963136	77	10580
2026-01-01 11:19:22.54	10.26	37.06	-53.3	-62.5	11.0	6.19e-01	0	41	0	66060288	77	10801
2026-01-01 11:19:23.54	9.99	36.83	-53.2	-61.7	11.9	6.11e-01	0	41	0	67633152	77	9874
2026-01-01 11:19:24.54	9.72	36.59	-53.1	-61.8	11.8	6.14e-01	0	41	0	69730304	77	9986
2026-01-01 11:19:25.54	9.46	36.36	-53.2	-62.3	11.3	6.16e-01	0	41	0	71827456	77	10633
2026-01-01 11:19:26.55	9.19	36.12	-53.3	-62.0	11.6	6.17e-01	0	41	0	73400320	77	10239
2026-01-01 11:19:27.55	8.94	35.89	-53.4	-62.0	11.6	6.15e-01	0	41	0	75497472	77	10290
2026-01-01 11:19:28.55	8.68	35.66	-53.4	-61.6	11.9	6.13e-01	0	41	0	77070336	77	9829
2026-01-01 11:19:29.55	8.43	35.43	-53.0	-60.8	12.8	6.11e-01	0	41	0	79167488	77	8891
2026-01-01 11:19:30.55	8.19	35.20	-52.7	-60.9	12.7	6.09e-01	0	41	0	81264640	77	9055
2026-01-01 11:19:31.55	7.94	34.97	-52.7	-61.7	11.9	6.15e-01	0	41	0	82837504	77	9934
2026-01-01 11:19:32.56	7.70	34.74	-52.5	-60.9	12.6	6.11e-01	0	41	0	84934656	77	9069
2026-01-01 11:19:33.56	7.47	34.52	-52.4	-60.4	13.2	6.10e-01	0	41	0	86507520	76	9042
2026-01-01 11:19:34.56	7.24	34.29	-52.6	-60.9	12.6	6.09e-01	0	41	0	88604672	76	9590
2026-01-01 11:19:35.56	7.01	34.07	-52.6	-60.6	12.9	6.10e-01	0	41	0	90177536	76	9260
2026-01-01 11:19:36.56	6.78	33.85	-52.5	-60.4	13.2	6.09e-01	0	41	0	92274688	76	9035
2026-01-01 11:19:37.56	6.56	33.63	-52.4	-60.8	12.8	6.09e-01	0	41	0	94371840	76	9466
2026-01-01 11:19:38.57	6.34	33.41	-52.2	-60.4	13.1	6.09e-01	0	40	0	95944704	76	9051
2026-01-01 11:19:39.57	6.12	33.19	-52.1	-59.8	13.8	6.05e-01	0	41	0	98041856	76	8429
2026-01-01 11:19:40.57	5.91	32.97	-52.1	-59.9	13.8	6.08e-01	0	41	0	99614720	76	8493
2026-01-01 11:19:41.57	5.70	32.76	-52.2	-60.2	13.4	6.10e-01	0	41	0	101711872	76	8798
2026-01-01 11:19:42.57	5.49	32.54	-52.2	-59.3	14.2	6.07e-01	0	40	0	103284736	76	7990
2026-01-01 11:19:43.57	5.28	32.33	-52.3	-58.9	14.7	6.09e-01	0	41	0	105381888	76	7613
2026-01-01 11:19:44.57	5.08	32.12	-52.6	-59.6	14.0	6.11e-01	0	41	0	107479040	76	8204
2026-01-01 11:19:45.57	4.88	31.91	-52.5	-59.4	14.2	6.06e-01	0	41	0	109051904	76	7998
2026-01-01 11:19:46.57	4.69	31.70	-52.2	-58.9	14.7	6.06e-01	0	41	0	111149056	76	7577
2026-01-01 11:19:47.57	4.49	31.49	-52.2	-59.0	14.7	6.06e-01	0	40	0	112721920	76	7636
2026-01-01 11:19:48.57	4.30	31.28	-52.4	-59.5	14.1	6.08e-01	0	40	0	114819072	76	8135
2026-01-01 11:19:49.57	4.11	31.08	-52.4	-59.2	14.4	6.09e-01	0	40	0	116391936	76	7842
2026-01-01 11:19:50.57	3.93	30.87	-52.4	-58.6	15.0	6.06e-01	0	41	0	118489088	76	7339
2026-01-01 11:19:51.58	3.74	30.67	-52.4	-58.8	14.8	6.07e-01	0	41	0	120586240	76	7469
2026-01-01 11:19:52.58	3.56	30.47	-52.5	-59.0	14.6	6.08e-01	0	41	0	122159104	76	7701
2026-01-01 11:19:53.58	3.38	30.26	-52.2	-58.5	15.0	6.07e-01	0	41	0	124256256	76	7277
2026-01-01 11:19:54.58	3.20	30.06	-52.1	-58.4	15.2	6.06e-01	0	40	0	126353408	76	7168
2026-01-01 11:19:55.59	3.03	29.86	-52.3	-59.0	14.7	6.08e-01	0	41	0	127926272	76	7634
2026-01-01 11:19:56.58	2.86	29.67	-52.4	-59.2	14.4	6.06e-01	0	40	0	130023424	76	7865
2026-01-01 11:19:57.59	2.68	29.47	-52.3	-58.8	14.7	6.08e-01	0	40	0	131596288	76	7515
2026-01-01 11:19:58.59	2.52	29.28	-52.3	-58.5	15.1	6.09e-01	0	41	0	133693440	76	7251
2026-01-01 11:19:59.59	2.35	29.08	-52.5	-58.9	14.7	6.07e-01	0	41	0	135266304	76	7570
2026-01-01 11:20:00.59	2.19	28.89	-52.4	-59.1	14.5	6.06e-01	0	41	0	137363456	76	7736
2026-01-01 11:20:01.59	2.03	28.70	-52.1	-58.7	14.9	6.04e-01	0	40	0	139460608	76	7376
2026-01-01 11:20:02.59	1.87	28.51	-51.9	-58.4	15.2	6.04e-01	0	41	0	141033472	75	7564
2026-01-01 11:20:03.59	1.71	28.32	-51.9	-58.7	14.9	6.01e-01	0	40	0	143130624	75	7828
2026-01-01 11:20:04.60	1.55	28.13	-52.0	-59.2	14.4	6.03e-01	0	41	0	144703488	75	8294
2026-01-01 11:20:05.60	1.40	27.94	-51.9	-58.9	14.7	6.02e-01	0	40	0	146800640	75	8064
2026-01-01 11:20:06.60	1.25	27.75	-51.9	-58.7	14.9	6.00e-01	0	41	0	148373504	75	7817
2026-01-01 11:20:07.60	1.10	27.57	-52.2	-58.7	14.9	6.01e-01	0	41	0	150470656	75	7822
2026-01-01 11:20:08.60	0.95	27.39	-52.6	-59.1	14.4	6.05e-01	0	41	0	152567808	75	8238
2026-01-01 11:20:09.60	0.80	27.20	-52.6	-58.8	14.8	6.01e-01	0	40	0	154140672	75	7921
2026-01-01 11:20:10.60	0.66	27.02	-52.4	-58.5	15.0	6.03e-01	0	40	0	156237824	75	7697
2026-01-01 11:20:11.61	0.51	26.84	-52.3	-58.4	15.1	5.98e-01	0	40	0	157810688	75	7585
2026-01-01 11:20:12.61	0.37	26.66	-52.5	-59.0	14.5	6.04e-01	0	40	0	159907840	75	8115
2026-01-01 11:20:13.61	0.23	26.48	-52.6	-59.2	14.2	6.02e-01	0	41	0	161480704	75	8347
2026-01-01 11:20:14.61	0.10	26.31	-52.6	-59.1	14.4	5.98e-01	0	41	0	163577856	75	8210
2026-01-01 11:20:15.61	359.96	26.13	-52.5	-58.9	14.6	6.02e-01	0	41	0	165675008	75	8038
2026-01-01 11:20:16.61	359.83	25.96	-52.5	-59.1	14.3	6.02e-01	0	41	0	167247872	75	8244
2026-01-01 11:20:17.62	359.69	25.78	-52.5	-59.7	13.8	6.07e-01	0	40	0	169345024	75	8814
2026-01-01 11:20:18.62	359.56	25.61	-52.3	-59.6	13.9	6.06e-01	0	40	0	170917888	75	8707
2026-01-01 11:20:19.62	359.43	25.44	-52.1	-59.2	14.3	6.01e-01	0	41	0	173015040	75	8277
2026-01-01 11:20:20.62	359.30	25.27	-51.9	-58.8	14.6	6.01e-01	0	40	0	174587904	75	7985
2026-01-01 11:20:21.62	359.17	25.10	-51.9	-58.9	14.6	6.02e-01	0	40	0	176685056	75	8060
2026-01-01 11:20:22.62	359.05	24.93	-52.0	-59.2	14.2	6.03e-01	0	40	0	178782208	75	8363
2026-01-01 11:20:23.62	358.93	24.76	-52.0	-59.3	14.3	6.05e-01	0	41	0	180355072	75	8400
2026-01-01 11:20:24.62	358.80	24.59	-51.8	-59.1	14.4	6.05e-01	0	41	0	182452224	75	8180
2026-01-01 11:20:25.62	358.68	24.43	-51.7	-58.8	14.7	6.02e-01	0	41	0	184025088	75	7906
2026-01-01 11:20:26.62	358.56	24.26	-51.6	-58.8	14.7	6.02e-01	0	40	0	186122240	75	7986
2026-01-01 11:20:27.62	358.44	24.10	-51.8	-59.4	14.2	6.03e-01	0	40	0	188219392	75	8530
2026-01-01 11:20:28.62	358.33	23.94	-51.7	-59.2	14.3	5.99e-01	0	40	0	189792256	75	8344
2026-01-01 11:20:29.62	358.21	23.78	-51.6	-58.9	14.6	6.03e-01	0	40	0	191889408	75	8002
2026-01-01 11:20:30.61	358.10	23.62	-51.4	-58.6	14.9	6.02e-01	0	41	0	193462272	74	8230
2026-01-01 11:20:31.61	357.98	23.46	-51.2	-58.7	14.8	6.03e-01	0	41	0	195559424	74	8334
2026-01-01 11:20:32.61	357.87	23.30	-51.1	-59.2	14.3	6.06e-01	0	41	0	197132288	74	8856
2026-01-01 11:20:33.61	357.76	23.14	-51.0	-59.3	14.1	6.02e-01	0	41	0	199229440	74	8946
2026-01-01 11:20:34.60	357.65	22.99	-51.0	-59.1	14.3	6.04e-01	0	41	0	201326592	73	9271
2026-01-01 11:20:35.60	357.54	22.83	-51.1	-58.9	14.6	6.02e-01	0	40	0	202899456	73	8991
2026-01-01 11:20:36.60	357.44	22.67	-51.3	-58.6	14.9	6.04e-01	0	41	0	204996608	73	8709
2026-01-01 11:20:37.60	357.33	22.52	-51.7	-58.8	14.6	6.04e-01	0	40	0	206569472	74	8444
2026-01-01 11:20:38.60	357.22	22.37	-52.0	-59.1	14.3	6.00e-01	0	40	0	208666624	74	8749
2026-01-01 11:20:39.60	357.12	22.21	-52.0	-58.9	14.5	6.04e-01	0	41	0	210239488	74	8536
2026-01-01 11:20:40.60	357.02	22.06	-51.9	-58.6	14.8	6.04e-01	0	41	0	212336640	74	8210
2026-01-01 11:20:41.60	356.91	21.91	-51.7	-58.2	15.2	6.04e-01	0	41	0	214433792	74	7848
2026-01-01 11:20:42.60	356.81	21.76	-51.5	-58.0	15.4	6.01e-01	0	41	0	216006656	74	7719
2026-01-01 11:20:43.60	356.71	21.61	-51.4	-58.3	15.1	6.03e-01	0	41	0	218103808	74	7952
2026-01-01 11:20:44.59	356.62	21.47	-51.4	-58.8	14.6	6.02e-01	0	41	0	219676672	74	8393
2026-01-01 11:20:45.59	356.52	21.32	-51.5	-58.5	14.9	6.03e-01	0	40	0	221773824	74	8161
2026-01-01 11:20:46.59	356.42	21.17	-51.6	-58.4	15.0	6.00e-01	0	41	0	223346688	74	8030
2026-01-01 11:20:47.59	356.33	21.03	-51.7	-58.1	15.4	6.00e-01	0	40	0	225443840	74	7723
2026-01-01 11:20:48.59	356.23	20.88	-51.8	-57.9	15.5	6.02e-01	0	40	0	227540992	74	7610
2026-01-01 11:20:49.59	356.14	20.74	-52.0	-58.2	15.3	6.02e-01	0	40	0	229113856	74	7850
2026-01-01 11:20:50.59	356.05	20.60	-52.2	-58.6	14.9	6.02e-01	0	41	0	231211008	75	7753
2026-01-01 11:20:51.59	355.95	20.46	-52.2	-58.5	15.0	6.02e-01	0	41	0	232783872	75	7679
2026-01-01 11:20:52.59	355.86	20.31	-52.0	-58.2	15.3	6.03e-01	0	41	0	234881024	75	7383
2026-01-01 11:20:53.59	355.77	20.17	-51.9	-57.9	15.6	6.01e-01	0	41	0	236978176	75	7136
2026-01-01 11:20:54.59	355.68	20.03	-51.7	-57.6	15.8	6.01e-01	0	40	0	238551040	75	6922
2026-01-01 11:20:55.60	355.59	19.89	-51.7	-57.7	15.8	6.01e-01	0	41	0	240648192	75	7003
2026-01-01 11:20:56.60	355.51	19.76	-51.8	-58.1	15.3	6.02e-01	0	40	0	242221056	75	7333
2026-01-01 11:20:57.60	355.42	19.62	-51.8	-58.2	15.2	6.00e-01	0	41	0	244318208	75	7408
2026-01-01 11:20:58.61	355.33	19.48	-51.7	-58.1	15.4	6.05e-01	0	41	0	245891072	75	7295
2026-01-01 11:20:59.61	355.25	19.34	-51.5	-57.8	15.6	6.01e-01	0	40	0	247988224	75	7092
2026-01-01 11:21:00.61	355.17	19.21	-51.3	-57.6	15.8	6.02e-01	0	41	0	250085376	74	7363
2026-01-01 11:21:01.61	355.08	19.07	-51.2	-57.7	15.8	6.01e-01	0	41	0	251658240	74	7406
2026-01-01 11:21:02.61	355.00	18.94	-51.0	-57.9	15.6	6.00e-01	0	41	0	253755392	74	7565
2026-01-01 11:21:03.61	354.92	18.81	-51.0	-58.2	15.2	6.04e-01	0	41	0	255328256	74	7862
2026-01-01 11:21:04.61	354.84	18.68	-50.9	-58.3	15.1	6.05e-01	0	40	0	257425408	73	8419
2026-01-01 11:21:05.61	354.76	18.54	-50.8	-58.0	15.4	6.01e-01	0	40	0	258998272	73	8174
2026-01-01 11:21:06.60	354.68	18.41	-50.8	-57.8	15.6	6.01e-01	0	41	0	261095424	73	7915
2026-01-01 11:21:07.61	354.60	18.28	-50.9	-57.5	15.9	6.01e-01	0	40	0	263192576	73	7681
2026-01-01 11:21:08.61	354.52	18.15	-51.0	-57.3	16.1	6.01e-01	0	40	0	264765440	73	7528
2026-01-01 11:21:09.61	354.44	18.03	-51.2	-57.4	16.0	6.03e-01	0	41	0	266862592	73	7614
2026-01-01 11:21:10.61	354.37	17.90	-51.4	-57.7	15.7	6.00e-01	0	41	0	268435456	73	7855
2026-01-01 11:21:11.60	354.29	17.77	-51.5	-57.9	15.5	6.02e-01	0	41	0	270532608	73	8031
2026-01-01 11:21:12.60	354.22	17.64	-51.5	-57.6	15.7	6.01e-01	0	40	0	272105472	73	7784
2026-01-01 11:21:13.60	354.14	17.52	-51.4	-57.4	15.9	6.00e-01	0	41	0	274202624	73	7578
2026-01-01 11:21:14.60	354.07	17.39	-51.3	-57.3	16.1	6.00e-01	0	40	0	276299776	73	7497
2026-01-01 11:21:15.60	354.00	17.27	-51.1	-57.1	16.3	6.02e-01	0	41	0	277872640	73	7319
2026-01-01 11:21:16.60	353.93	17.14	-51.0	-57.0	16.4	6.01e-01	0	40	0	279969792	73	7208
2026-01-01 11:21:17.60	353.85	17.02	-51.1	-57.1	16.3	5.99e-01	0	40	0	281542656	73	7335
2026-01-01 11:21:18.61	353.78	16.90	-51.2	-57.4	16.0	6.02e-01	0	41	0	283639808	73	7607
2026-01-01 11:21:19.61	353.71	16.78	-51.4	-57.4	15.9	6.04e-01	0	40	0	285212672	73	7628
2026-01-01 11:21:20.61	353.64	16.65	-51.4	-57.3	16.1	6.03e-01	0	40	0	287309824	73	7460
2026-01-01 11:21:21.61	353.57	16.53	-51.4	-57.1	16.3	5.99e-01	0	40	0	289406976	73	7298
2026-01-01 11:21:22.61	353.51	16.41	-51.4	-56.9	16.5	6.02e-01	0	40	0	290979840	73	7130
2026-01-01 11:21:23.62	353.44	16.29	-51.3	-56.7	16.6	6.04e-01	0	40	0	293076992	73	7033
2026-01-01 11:21:24.62	353.37	16.17	-51.1	-56.7	16.6	6.02e-01	0	40	0	294649856	73	6988
2026-01-01 11:21:25.62	353.30	16.05	-51.1	-57.0	16.5	6.05e-01	0	41	0	296747008	73	7214
2026-01-01 11:21:26.63	353.24	15.94	-51.0	-57.2	16.2	6.00e-01	0	41	0	298844160	73	7433
2026-01-01 11:21:27.63	353.17	15.82	-50.8	-57.4	16.0	6.02e-01	0	40	0	300417024	73	7600
2026-01-01 11:21:28.63	353.11	15.70	-50.5	-57.4	16.0	6.01e-01	0	40	0	302514176	72	8004
2026-01-01 11:21:29.63	353.04	15.59	-50.3	-57.1	16.2	6.04e-01	0	40	0	304087040	72	7796
2026-01-01 11:21:30.63	352.98	15.47	-50.3	-57.0	16.4	6.04e-01	0	41	0	306184192	72	7683
2026-01-01 11:21:31.63	352.92	15.35	-50.4	-56.9	16.5	6.03e-01	0	41	0	308281344	72	7550
2026-01-01 11:21:32.64	352.85	15.24	-50.6	-56.7	16.6	6.02e-01	0	40	0	309854208	72	7455
2026-01-01 11:21:33.64	352.79	15.13	-50.9	-56.8	16.6	6.03e-01	0	41	0	311951360	72	7496
2026-01-01 11:21:34.64	352.73	15.01	-51.1	-56.9	16.4	6.01e-01	0	40	0	313524224	72	7628
2026-01-01 11:21:35.64	352.67	14.90	-51.3	-57.2	16.1	6.03e-01	0	41	0	315621376	73	7441
2026-01-01 11:21:36.64	352.61	14.79	-51.4	-57.5	15.9	6.05e-01	0	40	0	317194240	73	7641
2026-01-01 11:21:37.64	352.55	14.68	-51.4	-57.4	16.0	6.00e-01	0	40	0	319291392	73	7577
2026-01-01 11:21:38.64	352.49	14.56	-51.4	-57.2	16.1	6.02e-01	0	40	0	321388544	73	7404
2026-01-01 11:21:39.64	352.43	14.45	-51.4	-57.1	16.3	6.00e-01	0	40	0	322961408	73	7318
2026-01-01 11:21:40.64	352.37	14.34	-51.3	-56.9	16.5	6.02e-01	0	40	0	325058560	73	7193
2026-01-01 11:21:41.64	352.31	14.23	-51.1	-56.7	16.6	6.01e-01	0	40	0	326631424	73	7026
2026-01-01 11:21:42.63	352.26	14.13	-50.9	-56.6	16.6	6.03e-01	0	40	0	328728576	73	6943
2026-01-01 11:21:43.64	352.20	14.02	-50.8	-56.7	16.7	6.02e-01	0	40	0	330301440	73	6972
2026-01-01 11:21:44.64	352.14	13.91	-50.7	-56.9	16.5	6.03e-01	0	40	0	332398592	73	7133
2026-01-01 11:21:45.64	352.09	13.80	-50.7	-57.1	16.3	6.02e-01	0	41	0	334495744	73	7315
2026-01-01 11:21:46.64	352.03	13.69	-50.6	-57.2	16.1	6.01e-01	0	41	0	336068608	73	7452
2026-01-01 11:21:47.64	351.97	13.59	-50.2	-57.1	16.2	6.01e-01	0	40	0	338165760	72	7734
2026-01-01 11:21:48.64	351.92	13.48	-49.8	-57.0	16.4	6.00e-01	0	41	0	339738624	71	8093
2026-01-01 11:21:49.64	351.87	13.38	-49.7	-56.8	16.6	6.02e-01	0	40	0	341835776	71	7987
2026-01-01 11:21:50.65	351.81	13.27	-49.7	-56.7	16.6	6.02e-01	0	40	0	343932928	71	7837
2026-01-01 11:21:51.65	351.76	13.17	-49.9	-56.6	16.8	6.02e-01	0	40	0	345505792	71	7764
2026-01-01 11:21:52.66	351.70	13.06	-50.2	-56.5	16.9	6.03e-01	0	40	0	347602944	71	7655
2026-01-01 11:21:53.66	351.65	12.96	-50.6	-56.5	17.0	5.98e-01	0	40	0	349175808	71	7631
2026-01-01 11:21:54.66	351.60	12.85	-50.9	-56.5	16.9	6.02e-01	0	40	0	351272960	72	7215
2026-01-01 11:21:55.66	351.55	12.75	-51.1	-56.8	16.6	6.02e-01	0	40	0	352845824	72	7460
2026-01-01 11:21:56.66	351.50	12.65	-51.1	-57.0	16.2	6.03e-01	0	40	0	354942976	73	7249
2026-01-01 11:21:57.66	351.45	12.55	-51.0	-57.2	16.0	6.02e-01	0	40	0	357040128	73	7441
2026-01-01 11:21:58.66	351.40	12.45	-50.6	-57.3	16.2	6.01e-01	0	40	0	358612992	73	7461
2026-01-01 11:21:59.66	351.35	12.35	-49.9	-56.9	16.2	6.02e-01	0	40	0	360710144	71	8051
2026-01-01 11:22:00.66	351.30	12.24	-49.4	-57.0	16.5	6.05e-01	0	40	0	362283008	70	8626
2026-01-01 11:22:01.66	351.25	12.14	-48.7	-56.8	16.4	6.01e-01	0	40	0	364380160	69	8942
2026-01-01 11:22:02.67	351.20	12.04	-48.0	-56.6	16.6	6.02e-01	0	41	0	365953024	68	9273
2026-01-01 11:22:03.67	351.15	11.95	-47.3	-56.5	16.7	5.98e-01	0	40	0	368050176	66	10191
2026-01-01 11:22:04.67	351.10	11.85	-47.0	-56.5	16.7	6.01e-01	0	41	0	370147328	66	10195
2026-01-01 11:22:05.68	351.05	11.75	-46.9	-56.4	16.8	6.01e-01	0	40	0	371720192	65	10715
2026-01-01 11:22:06.68	351.01	11.65	-46.9	-56.4	16.7	6.02e-01	0	41	0	373817344	65	10715
2026-01-01 11:22:07.68	350.96	11.55	-47.2	-56.6	16.5	6.03e-01	0	40	0	375390208	65	10931
2026-01-01 11:22:08.68	350.91	11.45	-47.6	-56.8	16.4	6.02e-01	0	40	0	377487360	65	11262
2026-01-01 11:22:09.68	350.87	11.36	-48.0	-56.9	16.2	6.04e-01	0	41	0	379060224	66	10712
2026-01-01 11:22:10.68	350.82	11.26	-48.4	-56.8	16.3	6.02e-01	0	40	0	381157376	67	9970
2026-01-01 11:22:11.68	350.77	11.17	-49.1	-56.8	16.4	5.97e-01	0	41	0	383254528	68	9483
2026-01-01 11:22:12.69	350.73	11.07	-49.5	-56.8	16.4	6.01e-01	0	40	0	384827392	69	8937
2026-01-01 11:22:13.69	350.68	10.97	-49.7	-56.7	16.5	6.03e-01	0	40	0	386924544	69	8809
2026-01-01 11:22:14.69	350.64	10.88	-49.7	-56.6	16.6	6.03e-01	0	40	0	389021696	70	8179
2026-01-01 11:22:15.68	350.60	10.79	-49.6	-56.5	16.8	6.02e-01	0	40	0	390594560	70	8090
2026-01-01 11:22:16.69	350.55	10.69	-49.2	-56.2	17.0	6.01e-01	0	41	0	392691712	70	7856
2026-01-01 11:22:17.68	350.51	10.60	-48.8	-56.2	17.0	6.01e-01	0	40	0	394264576	69	8279
2026-01-01 11:22:18.68	350.46	10.51	-48.4	-56.3	16.9	6.02e-01	0	40	0	396361728	68	8888
2026-01-01 11:22:19.69	350.42	10.41	-47.8	-56.2	16.9	6.03e-01	0	40	0	397934592	67	9302
2026-01-01 11:22:20.69	350.38	10.32	-47.4	-56.3	16.8	6.02e-01	0	40	0	400031744	66	9997
2026-01-01 11:22:21.68	350.34	10.23	-47.2	-56.4	16.6	6.03e-01	0	40	0	401604608	66	10172
2026-01-01 11:22:22.68	350.30	10.14	-46.9	-56.6	16.5	6.01e-01	0	40	0	403701760	65	10946
2026-01-01 11:22:23.67	350.25	10.05	-46.7	-56.6	16.4	6.01e-01	0	40	0	405798912	65	11029
2026-01-01 11:22:24.68	350.21	9.96	-46.7	-56.7	16.3	6.03e-01	0	40	0	407371776	65	11098
2026-01-01 11:22:25.67	350.17	9.87	-46.7	-56.8	16.3	6.02e-01	0	41	0	409468928	65	11267
2026-01-01 11:22:26.67	350.13	9.78	-46.7	-56.7	16.3	6.03e-01	0	41	0	411041792	65	11145
2026-01-01 11:22:27.67	350.09	9.69	-46.7	-56.7	16.4	6.02e-01	0	40	0	413138944	65	11084
2026-01-01 11:22:28.67	350.05	9.60	-46.9	-56.5	16.5	6.01e-01	0	40	0	414711808	65	10874
2026-01-01 11:22:29.67	350.01	9.51	-47.1	-56.4	16.6	6.01e-01	0	40	0	416808960	65	10730
2026-01-01 11:22:30.67	349.97	9.42	-47.5	-56.4	16.7	6.01e-01	0	40	0	418906112	65	10680
2026-01-01 11:22:31.67	349.93	9.33	-47.9	-56.2	16.8	6.01e-01	0	41	0	420478976	66	9930
2026-01-01 11:22:32.67	349.89	9.24	-48.2	-56.1	16.8	6.01e-01	0	40	0	422576128	67	9271
2026-01-01 11:22:33.67	349.85	9.15	-48.6	-56.1	16.9	6.04e-01	0	40	0	424148992	67	9253
2026-01-01 11:22:34.68	349.82	9.07	-49.0	-56.2	17.0	6.00e-01	0	41	0	426246144	68	8780
2026-01-01 11:22:35.68	349.78	8.98	-48.5	-68.6	6.7	7.16e-01	0	40	0	427819008	69	34534
2026-01-01 11:22:36.68	349.74	8.89	-49.1	-73.6	3.7	7.48e-01	0	41	104	427819008	68	65520
2026-01-01 11:22:37.68	349.70	8.80	-52.3	-73.6	3.9	7.44e-01	0	41	104	427819008	75	43694
2026-01-01 11:22:38.68	349.66	8.72	-51.1	-74.4	3.8	7.47e-01	0	40	104	427819008	72	56624
2026-01-01 11:22:39.68	349.63	8.63	-52.2	-74.5	3.8	7.47e-01	0	40	104	427819008	76	45488
2026-01-01 11:22:40.68	349.59	8.55	-53.2	-74.8	4.0	7.42e-01	0	40	104	427819008	76	47462
2026-01-01 11:22:41.68	349.55	8.46	-53.6	-74.7	3.8	7.48e-01	0	40	104	427819008	78	41911
2026-01-01 11:22:42.68	349.52	8.38	-53.3	-75.1	3.8	7.43e-01	0	40	104	427819008	77	46363
2026-01-01 11:22:43.67	349.48	8.29	-53.8	-74.8	3.8	7.49e-01	0	40	104	427819008	78	42221
2026-01-01 11:22:44.67	349.45	8.21	-53.7	-74.8	3.8	7.49e-01	0	40	104	427819008	78	41965
2026-01-01 11:22:45.67	349.41	8.12	-54.1	-74.8	3.8	7.46e-01	0	40	104	427819008	79	39620
2026-01-01 11:22:46.66	349.38	8.04	-54.4	-74.8	3.8	7.46e-01	0	40	104	427819008	79	39706
2026-01-01 11:22:47.66	349.34	7.96	-53.8	-74.9	3.8	7.49e-01	0	40	104	427819008	79	40305
2026-01-01 11:22:48.66	349.31	7.88	-54.3	-74.8	3.8	7.46e-01	0	40	104	427819008	79	40033
2026-01-01 11:22:49.66	349.27	7.79	-54.5	-74.9	3.8	7.46e-01	0	40	104	427819008	79	40202
2026-01-01 11:22:50.67	349.24	7.71	-54.5	-74.9	3.8	7.47e-01	0	40	104	427819008	79	40064
2026-01-01 11:22:51.66	349.20	7.63	-53.3	-74.9	3.8	7.43e-01	0	40	104	427819008	78	42447
2026-01-01 11:22:52.67	349.17	7.54	-54.4	-74.8	3.8	7.48e-01	0	40	104	427819008	79	39939
2026-01-01 11:22:53.66	349.14	7.46	-54.4	-74.9	3.8	7.45e-01	0	40	104	427819008	79	40187
2026-01-01 11:22:54.66	349.10	7.38	-54.3	-74.8	3.8	7.48e-01	0	40	104	427819008	79	40044
2026-01-01 11:22:55.66	349.07	7.30	-54.5	-74.8	3.8	7.47e-01	0	40	104	427819008	79	39803
2026-01-01 11:22:56.66	349.04	7.22	-54.3	-74.8	3.8	7.46e-01	0	40	104	427819008	79	39959
2026-01-01 11:22:57.66	349.00	7.14	-54.1	-74.8	3.8	7.46e-01	0	40	104	427819008	80	37386
2026-01-01 11:22:58.67	348.97	7.06	-54.3	-74.7	3.8	7.44e-01	0	40	104	427819008	80	37295
2026-01-01 11:22:59.67	348.94	6.98	-54.5	-74.8	3.8	7.45e-01	0	40	104	427819008	80	37633
2026-01-01 11:23:00.67	348.91	6.90	-54.2	-74.8	3.8	7.47e-01	0	40	104	427819008	80	37459
2026-01-01 11:23:01.67	348.87	6.82	-54.1	-74.8	3.8	7.45e-01	0	41	104	427819008	80	37382
2026-01-01 11:23:02.67	348.84	6.74	-53.4	-74.8	3.8	7.43e-01	0	41	104	427819008	78	42180
2026-01-01 11:23:03.67	348.81	6.66	-54.0	-74.8	3.8	7.48e-01	0	41	104	427819008	79	39892
2026-01-01 11:23:04.67	348.78	6.58	-53.9	-74.8	3.8	7.43e-01	0	40	104	427819008	79	39819
2026-01-01 11:23:05.67	348.75	6.50	-53.9	-74.8	3.8	7.46e-01	0	40	104	427819008	79	39609
2026-01-01 11:23:06.67	348.72	6.43	-53.9	-74.8	3.8	7.44e-01	0	40	104	427819008	79	39640
2026-01-01 11:23:07.68	348.69	6.35	-53.9	-74.8	3.8	7.48e-01	0	40	104	427819008	79	39617
2026-01-01 11:23:08.68	348.66	6.27	-53.9	-74.7	3.8	7.46e-01	0	40	104	427819008	79	39530
2026-01-01 11:23:09.68	348.63	6.19	-53.9	-74.7	3.8	7.45e-01	0	41	104	427819008	79	39513
2026-01-01 11:23:10.69	348.60	6.11	-53.9	-74.7	3.8	7.44e-01	0	40	104	427819008	79	39566
2026-01-01 11:23:11.69	348.57	6.04	-53.9	-74.7	3.8	7.47e-01	0	40	104	427819008	79	39539
2026-01-01 11:23:12.69	348.54	5.96	-53.9	-74.7	3.8	7.49e-01	0	40	104	427819008	79	39466
2026-01-01 11:23:13.69	348.51	5.88	-53.9	-74.8	3.8	7.47e-01	0	40	104	427819008	79	39615
2026-01-01 11:23:14.69	348.48	5.81	-53.9	-74.7	3.8	7.44e-01	0	40	104	427819008	79	39495
2026-01-01 11:23:15.69	348.45	5.73	-53.8	-74.7	3.8	7.44e-01	0	40	104	427819008	79	39380
2026-01-01 11:23:16.69	348.42	5.66	-53.9	-74.8	3.8	7.45e-01	0	40	104	427819008	79	39641
2026-01-01 11:23:17.69	348.39	5.58	-53.9	-74.8	3.8	7.48e-01	0	40	104	427819008	79	39639
2026-01-01 11:23:18.69	348.36	5.51	-53.9	-74.8	3.8	7.46e-01	0	40	104	427819008	79	39738
2026-01-01 11:23:19.69	348.33	5.43	-53.9	-74.8	3.8	7.44e-01	0	40	104	427819008	79	39597
2026-01-01 11:23:20.70	348.31	5.35	-53.9	-74.7	3.8	7.47e-01	0	40	104	427819008	79	39433
2026-01-01 11:23:21.69	348.28	5.28	-53.9	-74.7	3.8	7.46e-01	0	40	104	427819008	79	39531
2026-01-01 11:23:22.69	348.25	5.21	-53.9	-74.7	3.8	7.46e-01	0	40	104	427819008	79	39489
2026-01-01 11:23:23.69	348.22	5.13	-53.9	-74.7	3.8	7.45e-01	0	40	104	427819008	79	39443
2026-01-01 11:23:24.69	348.20	5.06	-53.9	-74.7	3.8	7.48e-01	0	40	104	427819008	79	39562
2026-01-01 11:23:25.69	348.17	4.98	-53.9	-74.7	3.8	7.48e-01	0	40	104	427819008	79	39448

#Closed at: 2026-01-01 11:23:26
#Recorded file [427 MB]: D:/Data/31040_260101_141213.dat