passes_logs/2026/01/01/T1/T1__20260101_050656_FENGYUN_3E_rec.log

#Pass ID: 20260101_050656_FENGYUN 3E
#Satellite: FENGYUN 3E
#Configuration: FENGYUN 3E
#almurnet v.1.7.20251203
#Start time: 2026-01-01 05:06:56

#Version: 2.0.20230620
#Station: T1
#Location: 37.570604 lon 55.790049 lat
#TLE: 1 49008U 21062A   25365.55977344  .00000403  00000+0  21051-3 0  9995
#TLE: 2 49008  98.7483   5.8586 0001311 170.0615 190.0588 14.19883886232790

#Time	Az	El	Level	Level2	SNR	BER	BlckErr	Temp	State	Recorded	gain1	gain2
2026-01-01 05:06:56.29	9.44	4.99	-52.8	-63.7	3.8	8.47e-01	0	43	0	0	75	13019
2026-01-01 05:06:57.29	9.38	5.05	-52.8	-63.7	3.8	8.47e-01	0	43	104	0	76	12243
2026-01-01 05:06:58.30	9.33	5.12	-52.8	-63.7	3.8	8.45e-01	0	43	104	0	76	12251
2026-01-01 05:06:59.30	9.27	5.19	-52.8	-63.7	3.8	8.47e-01	0	43	104	0	76	12242
2026-01-01 05:07:00.31	9.21	5.25	-52.8	-63.7	3.8	8.46e-01	0	43	104	0	76	12285
2026-01-01 05:07:01.31	9.16	5.32	-52.7	-63.7	3.8	8.46e-01	0	43	104	0	76	12246
2026-01-01 05:07:02.31	9.10	5.39	-52.7	-63.7	3.8	8.46e-01	0	43	104	0	76	12278
2026-01-01 05:07:03.32	9.04	5.46	-52.8	-63.7	3.8	8.47e-01	0	43	104	0	76	12358
2026-01-01 05:07:04.32	8.99	5.52	-52.8	-63.7	3.8	8.47e-01	0	43	104	0	76	12332
2026-01-01 05:07:05.33	8.93	5.59	-52.8	-63.7	3.8	8.47e-01	0	43	104	0	76	12341
2026-01-01 05:07:06.33	8.87	5.66	-52.8	-63.7	3.8	8.47e-01	0	43	104	0	76	12285
2026-01-01 05:07:07.34	8.81	5.73	-52.8	-63.7	3.8	8.47e-01	0	43	104	0	76	12275
2026-01-01 05:07:08.34	8.75	5.79	-52.8	-63.7	3.8	8.46e-01	0	43	104	0	76	12249
2026-01-01 05:07:09.34	8.69	5.86	-52.7	-63.7	3.8	8.47e-01	0	43	104	0	76	12301
2026-01-01 05:07:10.35	8.63	5.93	-52.8	-63.7	3.8	8.47e-01	0	43	104	0	76	12252
2026-01-01 05:07:11.35	8.57	6.00	-52.7	-63.7	3.8	8.47e-01	0	43	104	0	76	12263
2026-01-01 05:07:12.35	8.52	6.07	-52.7	-63.7	3.8	8.48e-01	0	43	104	0	76	12285
2026-01-01 05:07:13.36	8.45	6.14	-52.8	-63.7	3.8	8.47e-01	0	43	104	0	76	12353
2026-01-01 05:07:14.36	8.39	6.21	-52.7	-63.7	3.8	8.46e-01	0	43	104	0	76	12249
2026-01-01 05:07:15.37	8.33	6.28	-52.7	-63.7	3.8	8.47e-01	0	43	104	0	76	12321
2026-01-01 05:07:16.37	8.27	6.34	-52.7	-63.7	3.8	8.47e-01	0	43	104	0	76	12278
2026-01-01 05:07:17.37	8.21	6.41	-52.9	-63.7	3.8	8.47e-01	0	43	104	0	76	12327
2026-01-01 05:07:18.38	8.15	6.48	-52.8	-63.7	3.8	8.46e-01	0	43	104	0	76	12321
2026-01-01 05:07:19.38	8.09	6.55	-52.8	-63.7	3.8	8.47e-01	0	43	104	0	76	12374
2026-01-01 05:07:20.39	8.02	6.62	-52.8	-63.7	3.8	8.47e-01	0	43	104	0	76	12328
2026-01-01 05:07:21.39	7.96	6.69	-52.8	-63.7	3.8	8.46e-01	0	43	104	0	76	12350
2026-01-01 05:07:22.39	7.90	6.76	-52.8	-63.7	3.8	8.46e-01	0	43	104	0	76	12368
2026-01-01 05:07:23.40	7.83	6.83	-52.8	-63.7	3.8	8.46e-01	0	43	104	0	76	12371
2026-01-01 05:07:24.40	7.77	6.90	-52.8	-63.7	3.8	8.46e-01	0	43	104	0	76	12373
2026-01-01 05:07:25.41	7.71	6.97	-52.8	-63.7	3.8	8.46e-01	0	43	104	0	76	12360
2026-01-01 05:07:26.41	7.64	7.04	-52.8	-63.7	3.8	8.47e-01	0	43	104	0	76	12340
2026-01-01 05:07:27.42	7.58	7.12	-52.8	-63.7	3.8	8.47e-01	0	43	104	0	76	12344
2026-01-01 05:07:28.42	7.51	7.19	-52.8	-63.7	3.8	8.47e-01	0	43	104	0	76	12324
2026-01-01 05:07:29.43	7.45	7.26	-52.8	-63.7	3.8	8.48e-01	0	43	104	0	76	12286
2026-01-01 05:07:30.43	7.38	7.33	-52.8	-63.8	3.8	8.48e-01	0	43	104	0	76	12378
2026-01-01 05:07:31.43	7.32	7.40	-52.7	-63.7	3.8	8.46e-01	0	43	104	0	76	12304
2026-01-01 05:07:32.44	7.25	7.47	-52.7	-63.7	3.8	8.46e-01	0	43	104	0	76	12308
2026-01-01 05:07:33.44	7.18	7.54	-52.8	-63.7	3.8	8.46e-01	0	43	104	0	76	12307
2026-01-01 05:07:34.45	7.11	7.62	-52.8	-63.7	3.8	8.46e-01	0	43	104	0	76	12317
2026-01-01 05:07:35.45	7.05	7.69	-52.8	-63.7	3.8	8.46e-01	0	43	104	0	76	12313
2026-01-01 05:07:36.45	6.98	7.76	-52.8	-63.7	3.8	8.46e-01	0	43	104	0	76	12362
2026-01-01 05:07:37.46	6.91	7.83	-52.8	-63.7	3.8	8.46e-01	0	43	104	0	76	12313
2026-01-01 05:07:38.46	6.84	7.91	-52.8	-63.7	3.8	8.47e-01	0	43	104	0	76	12241
2026-01-01 05:07:39.46	6.77	7.98	-52.8	-63.7	3.8	8.46e-01	0	43	104	0	76	12338
2026-01-01 05:07:40.47	6.70	8.05	-52.8	-63.7	3.8	8.46e-01	0	43	104	0	76	12363
2026-01-01 05:07:41.47	6.64	8.13	-52.8	-63.8	3.8	8.48e-01	0	43	104	0	76	12415
2026-01-01 05:07:42.48	6.56	8.20	-52.8	-63.8	3.8	8.47e-01	0	43	104	0	76	12405
2026-01-01 05:07:43.48	6.49	8.27	-52.8	-63.7	3.8	8.47e-01	0	43	104	0	76	12334
2026-01-01 05:07:44.49	6.42	8.35	-52.8	-63.7	3.8	8.46e-01	0	43	104	0	76	12370
2026-01-01 05:07:45.49	6.35	8.42	-52.8	-63.7	3.8	8.46e-01	0	43	104	0	76	12253
2026-01-01 05:07:46.49	6.28	8.49	-52.8	-63.7	3.8	8.47e-01	0	43	104	0	76	12294
2026-01-01 05:07:47.50	6.21	8.57	-52.8	-63.7	3.8	8.45e-01	0	43	104	0	76	12375
2026-01-01 05:07:48.50	6.14	8.64	-52.8	-63.8	3.8	8.46e-01	0	43	104	0	76	12395
2026-01-01 05:07:49.51	6.06	8.72	-52.8	-63.8	3.8	8.46e-01	0	43	104	0	76	12405
2026-01-01 05:07:50.51	5.99	8.79	-52.8	-63.7	3.8	8.48e-01	0	43	104	0	76	12370
2026-01-01 05:07:51.51	5.92	8.87	-52.8	-63.8	3.8	8.47e-01	0	43	104	0	76	12427
2026-01-01 05:07:52.52	5.84	8.94	-52.8	-63.7	3.8	8.46e-01	0	43	104	0	76	12340
2026-01-01 05:07:53.52	5.77	9.02	-52.8	-63.8	3.8	8.47e-01	0	43	104	0	76	12385
2026-01-01 05:07:54.53	5.69	9.09	-52.8	-63.7	3.8	8.46e-01	0	43	104	0	76	12338
2026-01-01 05:07:55.53	5.62	9.17	-52.7	-63.6	3.8	8.47e-01	0	43	104	0	76	12180
2026-01-01 05:07:56.54	5.54	9.25	-52.8	-63.7	3.8	8.46e-01	0	43	104	0	76	12342
2026-01-01 05:07:57.54	5.47	9.32	-52.8	-63.7	3.8	8.47e-01	0	43	104	0	76	12296
2026-01-01 05:07:58.55	5.39	9.40	-52.8	-63.6	3.8	8.47e-01	0	43	104	0	76	12226
2026-01-01 05:07:59.55	5.31	9.47	-52.8	-63.6	3.8	8.47e-01	0	43	104	0	76	12203
2026-01-01 05:08:00.60	5.23	9.55	-52.8	-63.6	3.8	8.47e-01	0	43	104	0	76	12233
2026-01-01 05:08:01.50	5.16	9.62	-52.8	-63.6	3.8	8.46e-01	0	43	104	0	76	12214
2026-01-01 05:08:02.53	5.08	9.70	-52.8	-63.6	3.8	8.47e-01	0	43	104	0	76	12192
2026-01-01 05:08:03.53	5.01	9.78	-52.8	-63.7	3.8	8.46e-01	0	43	104	0	76	12283
2026-01-01 05:08:04.53	4.93	9.86	-52.7	-63.7	3.8	8.46e-01	0	43	104	0	76	12300
2026-01-01 05:08:05.54	4.85	9.93	-52.7	-63.6	3.8	8.47e-01	0	43	104	0	76	12212
2026-01-01 05:08:06.54	4.77	10.01	-52.7	-63.7	3.8	8.47e-01	0	43	104	0	76	12298
2026-01-01 05:08:07.54	4.69	10.09	-52.8	-63.7	3.8	8.47e-01	0	43	104	0	76	12329
2026-01-01 05:08:08.55	4.61	10.17	-52.9	-63.8	3.8	8.46e-01	0	43	104	0	76	12506
2026-01-01 05:08:09.55	4.53	10.25	-52.8	-63.8	3.8	8.46e-01	0	43	104	0	76	12433
2026-01-01 05:08:10.56	4.44	10.32	-52.9	-63.8	3.8	8.49e-01	0	43	104	0	76	12455
2026-01-01 05:08:11.56	4.36	10.40	-52.8	-63.8	3.8	8.47e-01	0	43	104	0	76	12384
2026-01-01 05:08:12.56	4.28	10.48	-52.8	-63.8	3.8	8.46e-01	0	43	104	0	76	12397
2026-01-01 05:08:13.62	4.19	10.57	-52.8	-63.8	3.8	8.47e-01	0	43	104	0	76	12392
2026-01-01 05:08:14.51	4.12	10.64	-52.8	-63.7	3.8	8.47e-01	0	43	104	0	76	12295
2026-01-01 05:08:15.53	4.03	10.72	-52.8	-63.7	3.8	8.46e-01	0	43	104	0	76	12331
2026-01-01 05:08:16.53	3.95	10.80	-52.8	-63.7	3.8	8.48e-01	0	43	104	0	76	12328
2026-01-01 05:08:17.54	3.86	10.88	-52.8	-63.7	3.8	8.48e-01	0	43	104	0	76	12336
2026-01-01 05:08:18.54	3.78	10.96	-52.8	-63.8	3.8	8.45e-01	0	43	104	0	76	12386
2026-01-01 05:08:19.55	3.69	11.04	-52.8	-63.7	3.8	8.48e-01	0	43	104	0	76	12356
2026-01-01 05:08:20.55	3.61	11.12	-52.8	-63.7	3.8	8.47e-01	0	43	104	0	76	12360
2026-01-01 05:08:21.56	3.52	11.20	-52.8	-63.7	3.8	8.48e-01	0	43	104	0	76	12279
2026-01-01 05:08:22.56	3.43	11.28	-52.8	-63.7	3.8	8.47e-01	0	43	104	0	76	12274
2026-01-01 05:08:23.57	3.34	11.36	-52.8	-63.7	3.8	8.47e-01	0	43	104	0	76	12369
2026-01-01 05:08:24.57	3.26	11.44	-52.8	-63.7	3.8	8.47e-01	0	43	104	0	76	12375
2026-01-01 05:08:25.57	3.17	11.52	-52.8	-63.8	3.8	8.46e-01	0	43	104	0	76	12382
2026-01-01 05:08:26.63	3.07	11.61	-52.8	-63.7	3.8	8.47e-01	0	43	104	0	76	12310
2026-01-01 05:08:27.49	3.00	11.68	-52.8	-63.7	3.8	8.47e-01	0	43	104	0	76	12351
2026-01-01 05:08:28.64	2.89	11.77	-52.8	-63.7	3.8	8.46e-01	0	43	104	0	76	12318
2026-01-01 05:08:29.50	2.81	11.84	-52.8	-63.7	3.8	8.47e-01	0	43	104	0	76	12349
2026-01-01 05:08:30.64	2.71	11.94	-52.8	-63.7	3.8	8.47e-01	0	43	104	0	76	12266
2026-01-01 05:08:31.50	2.63	12.01	-52.8	-63.7	3.8	8.47e-01	0	43	104	0	76	12299
2026-01-01 05:08:32.65	2.53	12.10	-52.7	-63.6	3.8	8.46e-01	0	43	104	0	76	12200
2026-01-01 05:08:33.51	2.45	12.17	-52.8	-63.8	3.8	8.47e-01	0	43	104	0	76	12418
2026-01-01 05:08:34.66	2.34	12.27	-52.8	-63.8	3.8	8.47e-01	0	43	104	0	76	12384
2026-01-01 05:08:35.52	2.26	12.34	-52.8	-63.8	3.8	8.47e-01	0	43	104	0	76	12417
2026-01-01 05:08:36.67	2.15	12.44	-52.8	-63.7	3.8	8.47e-01	0	43	104	0	76	12324
2026-01-01 05:08:37.53	2.07	12.51	-52.8	-63.8	3.8	8.46e-01	0	43	104	0	76	12395
2026-01-01 05:08:38.68	1.96	12.60	-52.8	-63.8	3.8	8.47e-01	0	43	104	0	76	12408
2026-01-01 05:08:39.54	1.88	12.68	-52.8	-63.7	3.8	8.47e-01	0	43	104	0	76	12333
2026-01-01 05:08:40.79	1.75	12.78	-52.8	-63.7	3.8	8.46e-01	0	43	104	0	76	12346
2026-01-01 05:08:41.64	1.67	12.85	-52.8	-63.7	3.8	8.47e-01	0	43	104	0	76	12318
2026-01-01 05:08:42.79	1.56	12.95	-52.8	-63.6	3.8	8.45e-01	0	43	104	0	76	12226
2026-01-01 05:08:43.65	1.47	13.02	-52.9	-63.8	3.8	8.47e-01	0	43	104	0	76	12469
2026-01-01 05:08:44.80	1.36	13.12	-52.8	-63.8	3.8	8.47e-01	0	43	104	0	76	12418
2026-01-01 05:08:45.66	1.28	13.19	-52.8	-63.8	3.8	8.47e-01	0	43	104	0	76	12422
2026-01-01 05:08:46.80	1.16	13.29	-52.8	-63.8	3.8	8.45e-01	0	43	104	0	76	12427
2026-01-01 05:08:47.67	1.07	13.37	-52.8	-63.7	3.8	8.47e-01	0	43	104	0	76	12306
2026-01-01 05:08:48.81	0.96	13.46	-52.8	-63.7	3.8	8.47e-01	0	43	104	0	76	12290
2026-01-01 05:08:49.67	0.87	13.54	-52.8	-63.7	3.8	8.48e-01	0	43	104	0	76	12349
2026-01-01 05:08:50.82	0.75	13.64	-52.8	-63.7	3.8	8.47e-01	0	43	104	0	76	12285
2026-01-01 05:08:51.68	0.66	13.71	-52.8	-63.7	3.8	8.47e-01	0	43	104	0	76	12259
2026-01-01 05:08:52.83	0.54	13.81	-52.8	-63.7	3.8	8.47e-01	0	43	104	0	76	12304
2026-01-01 05:08:53.69	0.45	13.89	-52.8	-63.7	3.8	8.47e-01	0	43	104	0	76	12326
2026-01-01 05:08:54.84	0.33	13.99	-52.7	-63.8	3.8	8.48e-01	0	43	104	0	76	12378
2026-01-01 05:08:55.70	0.24	14.06	-52.8	-63.7	3.8	8.47e-01	0	43	104	0	76	12339
2026-01-01 05:08:56.85	0.12	14.16	-52.8	-63.6	3.8	8.46e-01	0	43	104	0	76	12209
2026-01-01 05:08:57.71	0.03	14.24	-52.8	-63.7	3.8	8.47e-01	0	43	104	0	76	12287
2026-01-01 05:08:58.86	359.90	14.34	-52.9	-63.8	3.8	8.45e-01	0	43	104	0	76	12455
2026-01-01 05:08:59.72	359.81	14.41	-52.8	-63.7	3.8	8.48e-01	0	43	104	0	76	12336
2026-01-01 05:09:00.86	359.68	14.52	-52.8	-63.8	3.8	8.47e-01	0	43	104	0	76	12430
2026-01-01 05:09:01.73	359.59	14.59	-52.8	-63.7	3.8	8.48e-01	0	43	104	0	76	12297
2026-01-01 05:09:02.87	359.46	14.69	-52.8	-63.8	3.8	8.46e-01	0	43	104	0	76	12440
2026-01-01 05:09:03.73	359.37	14.77	-52.8	-63.7	3.8	8.47e-01	0	43	104	0	76	12318
2026-01-01 05:09:04.88	359.24	14.87	-52.8	-63.8	3.8	8.46e-01	0	43	104	0	76	12405
2026-01-01 05:09:05.74	359.14	14.95	-52.8	-63.8	3.8	8.46e-01	0	43	104	0	76	12415
2026-01-01 05:09:06.89	359.01	15.05	-52.8	-63.7	3.8	8.46e-01	0	43	104	0	76	12314
2026-01-01 05:09:07.75	358.91	15.13	-52.8	-63.7	3.8	8.47e-01	0	43	104	0	76	12275
2026-01-01 05:09:08.90	358.78	15.23	-52.8	-63.7	3.8	8.47e-01	0	43	104	0	76	12299
2026-01-01 05:09:09.76	358.68	15.31	-52.8	-63.7	3.8	8.46e-01	0	43	104	0	76	12337
2026-01-01 05:09:10.90	358.55	15.42	-52.8	-63.7	3.8	8.47e-01	0	43	104	0	76	12311
2026-01-01 05:09:11.76	358.45	15.49	-52.7	-63.7	3.8	8.45e-01	0	43	104	0	76	12248
2026-01-01 05:09:12.91	358.31	15.60	-52.8	-63.7	3.8	8.46e-01	0	43	104	0	76	12349
2026-01-01 05:09:13.77	358.21	15.68	-52.7	-63.7	3.8	8.46e-01	0	43	104	0	76	12295
2026-01-01 05:09:14.92	358.08	15.78	-52.8	-63.7	3.8	8.47e-01	0	43	104	0	76	12317
2026-01-01 05:09:15.78	357.97	15.86	-52.7	-63.6	3.8	8.48e-01	0	43	104	0	76	12173
2026-01-01 05:09:16.93	357.83	15.97	-52.7	-63.7	3.8	8.48e-01	0	43	104	0	76	12311
2026-01-01 05:09:17.79	357.73	16.05	-52.7	-63.7	3.8	8.46e-01	0	43	104	0	76	12259
2026-01-01 05:09:18.93	357.59	16.15	-52.7	-63.6	3.8	8.48e-01	0	43	104	0	76	12199
2026-01-01 05:09:19.80	357.48	16.23	-52.7	-63.7	3.8	8.46e-01	0	43	104	0	76	12264
2026-01-01 05:09:20.95	357.34	16.34	-52.7	-63.7	3.8	8.46e-01	0	43	104	0	76	12297
2026-01-01 05:09:21.81	357.23	16.42	-52.7	-63.7	3.8	8.47e-01	0	43	104	0	76	12262
2026-01-01 05:09:22.95	357.09	16.53	-52.7	-63.7	3.8	8.47e-01	0	43	104	0	76	12249
2026-01-01 05:09:23.81	356.98	16.61	-52.7	-63.6	3.8	8.48e-01	0	43	104	0	76	12217
2026-01-01 05:09:24.96	356.84	16.71	-52.7	-63.7	3.8	8.48e-01	0	43	104	0	76	12240
2026-01-01 05:09:25.82	356.73	16.79	-52.7	-63.7	3.8	8.47e-01	0	43	104	0	76	12236
2026-01-01 05:09:26.97	356.58	16.90	-52.7	-63.6	3.8	8.46e-01	0	43	104	0	76	12138
2026-01-01 05:09:27.83	356.47	16.98	-52.7	-63.6	3.8	8.47e-01	0	43	104	0	76	12176
2026-01-01 05:09:28.98	356.32	17.09	-52.8	-63.8	3.8	8.47e-01	0	43	104	0	76	12377
2026-01-01 05:09:29.84	356.20	17.17	-52.8	-63.7	3.8	8.47e-01	0	43	104	0	76	12318
2026-01-01 05:09:30.98	356.05	17.28	-52.8	-63.7	3.8	8.46e-01	0	43	104	0	76	12345
2026-01-01 05:09:31.84	355.94	17.36	-52.8	-63.7	3.8	8.46e-01	0	43	104	0	76	12326
2026-01-01 05:09:32.99	355.78	17.47	-52.8	-63.8	3.8	8.47e-01	0	43	104	0	76	12422
2026-01-01 05:09:33.85	355.67	17.56	-52.8	-63.7	3.8	8.46e-01	0	43	104	0	76	12292
2026-01-01 05:09:35.00	355.51	17.67	-52.8	-63.8	3.8	8.47e-01	0	43	104	0	76	12414
2026-01-01 05:09:35.86	355.40	17.75	-52.8	-63.7	3.8	8.47e-01	0	43	104	0	76	12242
2026-01-01 05:09:37.01	355.24	17.86	-52.8	-63.7	3.8	8.47e-01	0	43	104	0	76	12375
2026-01-01 05:09:37.87	355.12	17.94	-52.7	-63.6	3.8	8.47e-01	0	43	104	0	76	12199
2026-01-01 05:09:39.02	354.96	18.05	-52.7	-63.6	3.8	8.48e-01	0	43	104	0	76	12217
2026-01-01 05:09:39.88	354.84	18.14	-52.7	-63.6	3.8	8.48e-01	0	43	104	0	76	12181
2026-01-01 05:09:41.03	354.68	18.25	-52.7	-63.7	3.8	8.46e-01	0	43	104	0	76	12346
2026-01-01 05:09:41.89	354.55	18.33	-52.7	-63.7	3.8	8.47e-01	0	43	104	0	76	12243
2026-01-01 05:09:43.04	354.39	18.44	-52.7	-63.7	3.8	8.47e-01	0	43	104	0	76	12283
2026-01-01 05:09:43.90	354.27	18.53	-52.7	-63.7	3.8	8.47e-01	0	43	104	0	76	12240
2026-01-01 05:09:45.05	354.10	18.64	-52.7	-63.6	3.8	8.47e-01	0	43	104	0	76	12167
2026-01-01 05:09:45.90	353.98	18.72	-52.7	-63.6	3.8	8.46e-01	0	43	104	0	76	12231
2026-01-01 05:09:47.05	353.81	18.84	-52.8	-63.7	3.8	8.47e-01	0	43	104	0	76	12275
2026-01-01 05:09:47.91	353.68	18.92	-52.8	-63.7	3.8	8.46e-01	0	43	104	0	76	12275
2026-01-01 05:09:49.06	353.51	19.03	-52.7	-63.7	3.8	8.47e-01	0	43	104	0	76	12284
2026-01-01 05:09:49.92	353.38	19.12	-52.8	-63.7	3.8	8.47e-01	0	43	104	0	76	12262
2026-01-01 05:09:51.07	353.21	19.23	-52.7	-63.7	3.8	8.45e-01	0	43	104	0	76	12305
2026-01-01 05:09:51.93	353.08	19.32	-52.7	-63.7	3.8	8.47e-01	0	43	104	0	76	12247
2026-01-01 05:09:53.08	352.90	19.43	-52.7	-63.7	3.8	8.48e-01	0	43	104	0	76	12280
2026-01-01 05:09:53.94	352.77	19.52	-52.7	-63.7	3.8	8.46e-01	0	44	104	0	76	12267
2026-01-01 05:09:55.09	352.59	19.63	-52.7	-63.6	3.8	8.47e-01	0	43	104	0	76	12233
2026-01-01 05:09:55.95	352.46	19.72	-52.7	-63.6	3.8	8.47e-01	0	43	104	0	76	12182
2026-01-01 05:09:57.10	352.28	19.83	-52.7	-63.6	3.8	8.46e-01	0	43	104	0	76	12164
2026-01-01 05:09:57.96	352.14	19.92	-52.7	-63.6	3.8	8.46e-01	0	43	104	0	76	12200
2026-01-01 05:09:59.10	351.96	20.03	-52.7	-63.6	3.8	8.47e-01	0	43	104	0	76	12230
2026-01-01 05:09:59.97	351.82	20.12	-52.7	-63.6	3.8	8.46e-01	0	43	104	0	76	12182
2026-01-01 05:10:01.11	351.64	20.24	-52.7	-63.7	3.8	8.47e-01	0	43	104	0	76	12267
2026-01-01 05:10:01.97	351.50	20.32	-52.7	-63.7	3.8	8.47e-01	0	43	104	0	76	12257
2026-01-01 05:10:03.12	351.31	20.44	-52.7	-63.6	3.8	8.46e-01	0	43	104	0	76	12149
2026-01-01 05:10:03.98	351.17	20.53	-52.7	-63.6	3.8	8.47e-01	0	43	104	0	76	12167
2026-01-01 05:10:05.13	350.98	20.64	-52.7	-63.6	3.8	8.46e-01	0	43	104	0	76	12127
2026-01-01 05:10:05.99	350.84	20.73	-52.7	-63.6	3.8	8.46e-01	0	43	104	0	76	12198
2026-01-01 05:10:07.14	350.64	20.85	-52.7	-63.6	3.8	8.46e-01	0	43	104	0	76	12120
2026-01-01 05:10:08.00	350.50	20.94	-52.7	-63.6	3.8	8.47e-01	0	43	104	0	76	12192
2026-01-01 05:10:09.14	350.30	21.05	-52.8	-63.8	3.8	8.46e-01	0	43	104	0	76	12433
2026-01-01 05:10:10.00	350.16	21.14	-52.8	-63.7	3.8	8.46e-01	0	43	104	0	76	12341
2026-01-01 05:10:11.15	349.96	21.26	-52.8	-63.7	3.8	8.46e-01	0	43	104	0	76	12310
2026-01-01 05:10:12.01	349.81	21.35	-52.8	-63.8	3.8	8.47e-01	0	43	104	0	76	12456
2026-01-01 05:10:13.16	349.61	21.46	-52.8	-63.6	3.8	8.48e-01	0	43	104	0	76	12218
2026-01-01 05:10:14.02	349.46	21.55	-52.8	-63.7	3.8	8.48e-01	0	43	104	0	76	12298
2026-01-01 05:10:15.17	349.25	21.67	-52.8	-63.7	3.8	8.47e-01	0	43	104	0	76	12364
2026-01-01 05:10:16.03	349.10	21.76	-52.7	-63.7	3.8	8.47e-01	0	43	104	0	76	12329
2026-01-01 05:10:17.18	348.89	21.88	-52.8	-63.7	3.8	8.48e-01	0	43	104	0	76	12373
2026-01-01 05:10:18.04	348.74	21.97	-52.8	-63.7	3.8	8.47e-01	0	43	104	0	76	12284
2026-01-01 05:10:19.19	348.53	22.08	-52.8	-63.6	3.8	8.46e-01	0	43	104	0	76	12232
2026-01-01 05:10:20.05	348.37	22.17	-52.8	-63.7	3.8	8.47e-01	0	43	104	0	76	12362
2026-01-01 05:10:21.20	348.16	22.29	-52.7	-63.8	3.8	8.48e-01	0	43	104	0	76	12380
2026-01-01 05:10:22.06	348.00	22.38	-52.7	-63.7	3.8	8.47e-01	0	43	104	0	76	12256
2026-01-01 05:10:23.20	347.79	22.50	-52.7	-63.6	3.8	8.46e-01	0	43	104	0	76	12188
2026-01-01 05:10:24.07	347.62	22.59	-52.7	-63.7	3.8	8.47e-01	0	43	104	0	76	12355
2026-01-01 05:10:25.21	347.41	22.71	-52.7	-63.7	3.8	8.47e-01	0	43	104	0	76	12266
2026-01-01 05:10:26.07	347.24	22.80	-52.7	-63.7	3.8	8.48e-01	0	43	104	0	76	12293
2026-01-01 05:10:27.22	347.02	22.92	-52.7	-63.6	3.8	8.47e-01	0	43	104	0	76	12228
2026-01-01 05:10:28.08	346.86	23.01	-52.7	-63.7	3.8	8.46e-01	0	43	104	0	76	12299
2026-01-01 05:10:29.23	346.63	23.13	-52.7	-63.6	3.8	8.47e-01	0	43	104	0	76	12213
2026-01-01 05:10:30.09	346.46	23.22	-52.7	-63.7	3.8	8.46e-01	0	43	104	0	76	12255
2026-01-01 05:10:31.24	346.24	23.34	-52.7	-63.7	3.8	8.47e-01	0	43	104	0	76	12276
2026-01-01 05:10:32.10	346.07	23.43	-52.7	-63.7	3.8	8.47e-01	0	43	104	0	76	12256
2026-01-01 05:10:33.25	345.84	23.55	-52.7	-63.6	3.8	8.46e-01	0	43	104	0	76	12215
2026-01-01 05:10:34.11	345.66	23.64	-52.7	-63.7	3.8	8.47e-01	0	43	104	0	76	12272
2026-01-01 05:10:35.26	345.43	23.76	-52.8	-63.7	3.8	8.46e-01	0	43	104	0	76	12291
2026-01-01 05:10:36.12	345.25	23.85	-52.8	-63.7	3.8	8.46e-01	0	43	104	0	76	12337
2026-01-01 05:10:37.26	345.02	23.97	-52.8	-63.7	3.8	8.46e-01	0	43	104	0	76	12304
2026-01-01 05:10:38.12	344.84	24.06	-52.8	-63.6	3.8	8.47e-01	0	43	104	0	76	12230
2026-01-01 05:10:39.27	344.60	24.18	-52.8	-63.7	3.8	8.47e-01	0	44	104	0	76	12285
2026-01-01 05:10:40.13	344.42	24.27	-52.8	-63.7	3.8	8.48e-01	0	43	104	0	76	12278
2026-01-01 05:10:41.28	344.18	24.39	-52.8	-63.7	3.8	8.47e-01	0	43	104	0	76	12259
2026-01-01 05:10:42.14	343.99	24.48	-52.8	-63.7	3.8	8.46e-01	0	43	104	0	76	12299
2026-01-01 05:10:43.29	343.75	24.60	-52.8	-63.7	3.8	8.47e-01	0	43	104	0	76	12369
2026-01-01 05:10:44.15	343.56	24.69	-52.8	-63.7	3.8	8.47e-01	0	43	104	0	76	12372
2026-01-01 05:10:45.30	343.31	24.81	-52.8	-63.7	3.8	8.47e-01	0	43	104	0	76	12300
2026-01-01 05:10:46.16	343.12	24.90	-52.8	-63.7	3.8	8.47e-01	0	43	104	0	76	12286
2026-01-01 05:10:47.31	342.87	25.02	-52.8	-63.7	3.8	8.47e-01	0	44	104	0	76	12289
2026-01-01 05:10:48.17	342.68	25.11	-52.7	-63.7	3.8	8.47e-01	0	43	104	0	76	12262
2026-01-01 05:10:49.31	342.43	25.22	-52.7	-63.6	3.8	8.46e-01	0	44	104	0	76	12227
2026-01-01 05:10:50.17	342.23	25.31	-52.8	-63.6	3.8	8.46e-01	0	43	104	0	76	12232
2026-01-01 05:10:51.32	341.97	25.43	-52.7	-63.7	3.8	8.47e-01	0	43	104	0	76	12326
2026-01-01 05:10:52.18	341.78	25.52	-52.8	-63.7	3.8	8.47e-01	0	43	104	0	76	12307
2026-01-01 05:10:53.33	341.51	25.64	-52.7	-63.6	3.8	8.47e-01	0	43	104	0	76	12210
2026-01-01 05:10:54.19	341.32	25.73	-52.7	-63.7	3.8	8.46e-01	0	43	104	0	76	12373
2026-01-01 05:10:55.34	341.05	25.85	-52.7	-63.7	3.8	8.47e-01	0	44	104	0	76	12287
2026-01-01 05:10:56.20	340.85	25.94	-52.7	-63.7	3.8	8.47e-01	0	43	104	0	76	12247
2026-01-01 05:10:57.35	340.58	26.06	-52.7	-63.6	3.8	8.47e-01	0	43	104	0	76	12232
2026-01-01 05:10:58.21	340.37	26.15	-52.7	-63.6	3.8	8.47e-01	0	43	104	0	76	12161
2026-01-01 05:10:59.36	340.10	26.27	-52.9	-63.8	3.8	8.47e-01	0	43	104	0	76	12507
2026-01-01 05:11:00.22	339.89	26.36	-52.8	-63.8	3.8	8.47e-01	0	43	104	0	76	12430
2026-01-01 05:11:01.36	339.62	26.47	-52.8	-63.7	3.8	8.47e-01	0	43	104	0	76	12336
2026-01-01 05:11:02.22	339.41	26.56	-52.8	-63.7	3.8	8.47e-01	0	43	104	0	76	12283
2026-01-01 05:11:03.37	339.13	26.68	-52.8	-63.7	3.8	8.45e-01	0	43	104	0	76	12372
2026-01-01 05:11:04.23	338.91	26.77	-52.8	-63.7	3.8	8.47e-01	0	43	104	0	76	12327
2026-01-01 05:11:05.38	338.63	26.88	-52.8	-63.7	3.8	8.46e-01	0	43	104	0	76	12288
2026-01-01 05:11:06.24	338.41	26.97	-52.8	-63.8	3.8	8.48e-01	0	43	104	0	76	12378
2026-01-01 05:11:07.39	338.12	27.09	-52.8	-63.7	3.8	8.47e-01	0	43	104	0	76	12324
2026-01-01 05:11:08.25	337.91	27.18	-52.8	-63.7	3.8	8.46e-01	0	43	104	0	76	12354
2026-01-01 05:11:09.40	337.61	27.29	-52.8	-63.7	3.8	8.47e-01	0	43	104	0	76	12289
2026-01-01 05:11:10.26	337.39	27.38	-52.8	-63.7	3.8	8.47e-01	0	43	104	0	76	12322
2026-01-01 05:11:11.40	337.10	27.49	-52.8	-63.8	3.8	8.46e-01	0	44	104	0	76	12395
2026-01-01 05:11:12.26	336.88	27.58	-52.8	-63.8	3.8	8.47e-01	0	43	104	0	76	12392
2026-01-01 05:11:13.41	336.58	27.70	-52.8	-63.7	3.8	8.46e-01	0	43	104	0	76	12290
2026-01-01 05:11:14.27	336.35	27.78	-52.8	-63.8	3.8	8.47e-01	0	44	104	0	76	12389
2026-01-01 05:11:15.42	336.05	27.90	-52.8	-63.8	3.8	8.46e-01	0	43	104	0	76	12392
2026-01-01 05:11:16.28	335.82	27.98	-52.8	-63.7	3.8	8.47e-01	0	43	104	0	76	12332
2026-01-01 05:11:17.42	335.51	28.09	-52.8	-63.8	3.8	8.47e-01	0	44	104	0	76	12397
2026-01-01 05:11:18.28	335.28	28.18	-52.8	-63.7	3.8	8.46e-01	0	43	104	0	76	12319
2026-01-01 05:11:19.43	334.97	28.29	-52.8	-63.7	3.8	8.46e-01	0	43	104	0	76	12339
2026-01-01 05:11:20.29	334.73	28.38	-52.7	-63.7	3.8	8.47e-01	0	43	104	0	76	12245
2026-01-01 05:11:21.44	334.42	28.49	-52.8	-63.7	3.8	8.47e-01	0	43	104	0	76	12269
2026-01-01 05:11:22.30	334.18	28.57	-52.8	-63.7	3.8	8.47e-01	0	43	104	0	76	12320
2026-01-01 05:11:23.45	333.86	28.68	-52.8	-63.7	3.8	8.46e-01	0	43	104	0	76	12344
2026-01-01 05:11:24.31	333.62	28.76	-52.8	-63.7	3.8	8.46e-01	0	43	104	0	76	12244
2026-01-01 05:11:25.45	333.30	28.87	-52.7	-63.7	3.8	8.47e-01	0	43	104	0	76	12250
2026-01-01 05:11:26.32	333.05	28.96	-52.7	-63.7	3.8	8.48e-01	0	43	104	0	76	12313
2026-01-01 05:11:27.47	332.72	29.06	-52.8	-63.7	3.8	8.47e-01	0	43	104	0	76	12341
2026-01-01 05:11:28.32	332.48	29.15	-52.8	-63.7	3.8	8.46e-01	0	43	104	0	76	12306
2026-01-01 05:11:29.47	332.15	29.25	-52.7	-63.6	3.8	8.46e-01	0	43	104	0	76	12199
2026-01-01 05:11:30.33	331.90	29.33	-52.7	-63.6	3.8	8.47e-01	0	43	104	0	76	12229
2026-01-01 05:11:31.48	331.56	29.44	-52.7	-63.7	3.8	8.48e-01	0	43	104	0	76	12236
2026-01-01 05:11:32.34	331.31	29.52	-52.8	-63.8	3.8	8.46e-01	0	43	104	0	76	12382
2026-01-01 05:11:33.49	330.97	29.62	-52.8	-63.8	3.8	8.47e-01	0	43	104	0	76	12411
2026-01-01 05:11:34.35	330.72	29.70	-52.8	-63.7	3.8	8.47e-01	0	43	104	0	76	12351
2026-01-01 05:11:35.49	330.38	29.81	-52.8	-63.7	3.8	8.46e-01	0	43	104	0	76	12341
2026-01-01 05:11:36.60	330.04	29.91	-52.8	-63.7	3.8	8.47e-01	0	43	104	0	76	12339
2026-01-01 05:11:37.65	329.73	30.00	-52.8	-63.7	3.8	8.46e-01	0	43	104	0	76	12332
2026-01-01 05:11:38.54	329.45	30.08	-52.8	-63.7	3.8	8.47e-01	0	43	104	0	76	12278
2026-01-01 05:11:39.68	329.11	30.18	-52.8	-63.7	3.8	8.46e-01	0	43	104	0	76	12241
2026-01-01 05:11:40.53	328.84	30.25	-52.7	-63.7	3.8	8.47e-01	0	43	104	0	76	12242
2026-01-01 05:11:41.67	328.49	30.35	-52.7	-63.7	3.8	8.47e-01	0	43	104	0	76	12365
2026-01-01 05:11:42.53	328.23	30.43	-52.8	-63.7	3.8	8.47e-01	0	43	104	0	76	12333
2026-01-01 05:11:43.67	327.87	30.52	-52.8	-63.7	3.8	8.45e-01	0	43	104	0	76	12262
2026-01-01 05:11:44.52	327.60	30.59	-52.8	-63.7	3.8	8.46e-01	0	43	104	0	76	12245
2026-01-01 05:11:45.66	327.24	30.69	-52.7	-63.7	3.8	8.48e-01	0	43	104	0	76	12282
2026-01-01 05:11:46.51	326.97	30.76	-52.8	-63.8	3.8	8.47e-01	0	43	104	0	76	12389
2026-01-01 05:11:47.65	326.61	30.85	-52.8	-63.7	3.8	8.47e-01	0	43	104	0	76	12358
2026-01-01 05:11:48.51	326.33	30.92	-52.7	-63.7	3.8	8.46e-01	0	43	104	0	76	12306
2026-01-01 05:11:49.65	325.97	31.02	-52.8	-63.7	3.8	8.46e-01	0	43	104	0	76	12283
2026-01-01 05:11:50.50	325.69	31.08	-52.7	-63.7	3.8	8.47e-01	0	43	104	0	76	12278
2026-01-01 05:11:51.64	325.32	31.17	-52.9	-63.8	3.8	8.46e-01	0	43	104	0	76	12465
2026-01-01 05:11:52.50	325.04	31.24	-52.8	-63.8	3.8	8.47e-01	0	43	104	0	76	12391
2026-01-01 05:11:53.64	324.66	31.33	-52.8	-63.8	3.8	8.47e-01	0	44	104	0	76	12443
2026-01-01 05:11:54.49	324.38	31.39	-52.8	-63.7	3.8	8.47e-01	0	43	104	0	76	12343
2026-01-01 05:11:55.63	324.01	31.48	-52.8	-63.8	3.8	8.47e-01	0	43	104	0	76	12504
2026-01-01 05:11:56.49	323.72	31.55	-52.9	-63.8	3.8	8.47e-01	0	43	104	0	76	12379
2026-01-01 05:11:57.63	323.34	31.63	-52.6	-63.8	3.8	8.47e-01	0	43	104	0	76	12467
2026-01-01 05:11:58.49	323.05	31.69	-52.7	-63.8	3.8	8.47e-01	0	43	104	0	75	13150
2026-01-01 05:11:59.63	322.66	31.77	-52.7	-63.9	3.8	8.47e-01	0	43	104	0	75	13268
2026-01-01 05:12:00.49	322.37	31.84	-52.7	-63.8	3.8	8.47e-01	0	43	104	0	75	13210
2026-01-01 05:12:01.63	321.98	31.92	-52.6	-63.8	3.8	8.47e-01	0	43	104	0	75	13180
2026-01-01 05:12:02.48	321.69	31.97	-52.6	-63.9	3.8	8.46e-01	0	43	104	0	75	13266
2026-01-01 05:12:03.62	321.30	32.05	-52.6	-63.8	3.8	8.47e-01	0	43	104	0	75	13168
2026-01-01 05:12:04.48	321.00	32.11	-52.6	-63.8	3.8	8.47e-01	0	43	104	0	75	13143
2026-01-01 05:12:05.62	320.61	32.19	-52.8	-63.9	3.8	8.46e-01	0	43	104	0	75	13346
2026-01-01 05:12:06.48	320.31	32.24	-52.9	-63.8	3.8	8.46e-01	0	43	104	0	75	13251
2026-01-01 05:12:07.61	319.91	32.31	-53.0	-63.9	3.8	8.46e-01	0	43	104	0	75	13349
2026-01-01 05:12:08.47	319.61	32.37	-52.9	-63.8	3.8	8.46e-01	0	43	104	0	75	13239
2026-01-01 05:12:09.62	319.20	32.44	-53.0	-63.8	3.8	8.47e-01	0	44	104	0	75	13148
2026-01-01 05:12:10.47	318.90	32.49	-52.9	-63.8	3.8	8.48e-01	0	44	104	0	75	13219
2026-01-01 05:12:11.61	318.50	32.56	-52.9	-63.9	3.8	8.47e-01	0	43	104	0	75	13333
2026-01-01 05:12:12.47	318.19	32.61	-52.9	-63.8	3.8	8.47e-01	0	43	104	0	75	13190
2026-01-01 05:12:13.60	317.79	32.67	-52.9	-63.8	3.8	8.47e-01	0	43	104	0	75	13227
2026-01-01 05:12:14.46	317.48	32.72	-53.0	-63.9	3.8	8.47e-01	0	43	104	0	75	13320
2026-01-01 05:12:15.60	317.07	32.78	-53.1	-63.9	3.8	8.48e-01	0	44	104	0	75	13370
2026-01-01 05:12:16.45	316.76	32.83	-53.0	-63.9	3.8	8.47e-01	0	43	104	0	75	13365
2026-01-01 05:12:17.59	316.35	32.89	-53.2	-63.9	3.8	8.48e-01	0	44	104	0	75	13392
2026-01-01 05:12:18.45	316.04	32.93	-53.1	-64.0	3.8	8.47e-01	0	43	104	0	75	13478
2026-01-01 05:12:19.59	315.62	32.99	-53.1	-63.9	3.8	8.47e-01	0	43	104	0	75	13296
2026-01-01 05:12:20.44	315.31	33.03	-52.8	-63.9	3.8	8.47e-01	0	43	104	0	75	13344
2026-01-01 05:12:21.58	314.89	33.09	-52.9	-63.9	3.8	8.47e-01	0	43	104	0	75	13400
2026-01-01 05:12:22.43	314.58	33.13	-52.8	-63.8	3.8	8.47e-01	0	43	104	0	75	13241
2026-01-01 05:12:23.57	314.16	33.18	-52.6	-63.9	3.8	8.46e-01	0	44	104	0	75	13371
2026-01-01 05:12:24.43	313.84	33.22	-52.8	-62.7	3.8	8.46e-01	0	43	104	0	75	11678
2026-01-01 05:12:25.57	313.41	33.26	-52.6	-62.9	3.8	8.47e-01	0	43	104	0	75	11850
2026-01-01 05:12:26.42	313.10	33.30	-48.6	-51.1	11.6	2.92e-03	0	43	0	2097152	68	4586
2026-01-01 05:12:27.57	312.67	33.34	-45.5	-47.0	15.9	0.00e+00	0	43	0	10485760	61	4283
2026-01-01 05:12:28.42	312.35	33.38	-47.3	-49.3	13.6	2.20e-06	0	43	0	16777216	63	4936
2026-01-01 05:12:29.56	311.92	33.42	-42.1	-43.1	19.2	6.98e-05	0	43	0	24117248	55	3867
2026-01-01 05:12:30.42	311.60	33.45	-40.9	-41.8	20.7	0.00e+00	0	44	0	30408704	51	4177
2026-01-01 05:12:31.57	311.17	33.49	-39.8	-40.7	21.7	0.00e+00	0	43	0	38797312	50	3876
2026-01-01 05:12:32.42	310.85	33.52	-39.1	-40.0	22.3	0.00e+00	0	43	0	45088768	48	4030
2026-01-01 05:12:33.56	310.41	33.56	-39.3	-40.2	22.2	0.00e+00	0	43	0	52428800	48	4102
2026-01-01 05:12:34.41	310.09	33.58	-39.2	-40.1	22.2	0.00e+00	0	43	0	58720256	48	4053
2026-01-01 05:12:35.56	309.66	33.61	-39.2	-40.1	22.3	0.00e+00	0	43	0	67108864	48	4052
2026-01-01 05:12:36.41	309.33	33.64	-39.1	-40.0	22.3	0.00e+00	0	43	0	73400320	48	4028
2026-01-01 05:12:37.56	308.89	33.67	-39.1	-39.9	22.4	0.00e+00	0	43	0	81788928	48	3987
2026-01-01 05:12:38.41	308.57	33.69	-39.1	-39.9	22.4	0.00e+00	0	43	0	88080384	48	3996
2026-01-01 05:12:39.55	308.13	33.72	-39.3	-40.1	22.2	0.00e+00	0	44	0	96468992	48	4085
2026-01-01 05:12:40.41	307.81	33.73	-39.2	-40.1	22.2	0.00e+00	0	43	0	102760448	48	4066
2026-01-01 05:12:41.55	307.37	33.76	-39.3	-40.2	22.1	0.00e+00	0	43	0	111149056	48	4110
2026-01-01 05:12:42.40	307.04	33.77	-39.2	-40.1	22.2	0.00e+00	0	43	0	116391936	48	4062
2026-01-01 05:12:43.54	306.60	33.79	-39.2	-40.1	22.2	0.00e+00	0	43	0	124780544	48	4068
2026-01-01 05:12:44.40	306.27	33.81	-39.2	-40.1	22.2	0.00e+00	0	43	0	131072000	48	4055
2026-01-01 05:12:45.54	305.83	33.83	-39.1	-40.0	22.3	0.00e+00	0	43	0	139460608	48	4021
2026-01-01 05:12:46.40	305.50	33.84	-38.9	-39.8	22.4	0.00e+00	0	43	0	145752064	48	3924
2026-01-01 05:12:47.54	305.06	33.85	-38.9	-39.7	22.6	0.00e+00	0	43	0	154140672	48	3898
2026-01-01 05:12:48.40	304.73	33.86	-38.8	-39.7	22.7	0.00e+00	0	43	0	160432128	48	3871
2026-01-01 05:12:49.54	304.29	33.87	-38.7	-39.6	22.7	0.00e+00	0	44	0	167772160	48	3834
2026-01-01 05:12:50.39	303.96	33.88	-38.9	-39.7	22.6	0.00e+00	0	43	0	174063616	48	3896
2026-01-01 05:12:51.53	303.52	33.88	-38.8	-39.7	22.6	0.00e+00	0	43	0	182452224	48	3900
2026-01-01 05:12:52.38	303.19	33.89	-38.9	-39.7	22.6	0.00e+00	0	43	0	188743680	48	3902
2026-01-01 05:12:53.52	302.75	33.89	-38.8	-39.6	22.6	0.00e+00	0	44	0	197132288	48	3868
2026-01-01 05:12:54.37	302.42	33.89	-38.7	-39.5	22.7	0.00e+00	0	44	0	203423744	48	3824
2026-01-01 05:12:55.51	301.98	33.89	-38.7	-39.5	22.7	0.00e+00	0	43	0	211812352	48	3805
2026-01-01 05:12:56.36	301.65	33.89	-38.7	-39.5	22.7	0.00e+00	0	43	0	217055232	48	3806
2026-01-01 05:12:57.50	301.21	33.89	-38.7	-39.5	22.7	0.00e+00	0	44	0	225443840	48	3819
2026-01-01 05:12:58.35	300.88	33.88	-38.9	-39.8	22.5	0.00e+00	0	43	0	231735296	48	3935
2026-01-01 05:12:59.49	300.44	33.88	-39.0	-39.9	22.3	0.00e+00	0	43	0	240123904	48	3983
2026-01-01 05:13:00.35	300.11	33.87	-39.2	-40.1	22.2	0.00e+00	0	43	0	246415360	48	4072
2026-01-01 05:13:01.49	299.67	33.86	-39.3	-40.2	22.1	0.00e+00	0	44	0	254803968	48	4111
2026-01-01 05:13:02.34	299.34	33.85	-39.1	-40.0	22.3	0.00e+00	0	43	0	260046848	48	4040
2026-01-01 05:13:03.48	298.90	33.84	-39.0	-39.9	22.4	0.00e+00	0	43	0	268435456	48	3971
2026-01-01 05:13:04.33	298.58	33.83	-38.9	-39.8	22.5	0.00e+00	0	43	0	274726912	48	3928
2026-01-01 05:13:05.47	298.14	33.81	-38.9	-39.7	22.5	0.00e+00	0	43	0	283115520	48	3901
2026-01-01 05:13:06.32	297.81	33.80	-38.9	-39.8	22.5	0.00e+00	0	43	0	289406976	48	3920
2026-01-01 05:13:07.46	297.37	33.78	-38.9	-39.8	22.5	0.00e+00	0	44	0	297795584	48	3929
2026-01-01 05:13:08.32	297.04	33.76	-39.0	-39.9	22.4	0.00e+00	0	43	0	304087040	48	3966
2026-01-01 05:13:09.45	296.61	33.74	-39.0	-39.9	22.4	0.00e+00	0	43	0	312475648	48	3985
2026-01-01 05:13:10.31	296.28	33.72	-39.1	-40.0	22.3	0.00e+00	0	44	0	317718528	48	4014
2026-01-01 05:13:11.45	295.84	33.69	-38.9	-39.7	22.5	0.00e+00	0	43	0	326107136	48	3899
2026-01-01 05:13:12.31	295.51	33.67	-38.9	-39.7	22.5	0.00e+00	0	43	0	332398592	48	3900
2026-01-01 05:13:13.45	295.08	33.64	-38.8	-39.7	22.6	0.00e+00	0	44	0	340787200	48	3887
2026-01-01 05:13:14.31	294.75	33.62	-38.9	-39.8	22.5	0.00e+00	0	43	0	347078656	48	3914
2026-01-01 05:13:15.44	294.32	33.58	-38.8	-39.7	22.6	0.00e+00	0	43	0	355467264	48	3890
2026-01-01 05:13:16.29	294.00	33.56	-38.8	-39.7	22.5	0.00e+00	0	43	0	360710144	48	3889
2026-01-01 05:13:17.44	293.56	33.52	-38.9	-39.7	22.6	0.00e+00	0	43	0	369098752	48	3905
2026-01-01 05:13:18.29	293.24	33.49	-38.9	-39.8	22.5	0.00e+00	0	43	0	375390208	48	3926
2026-01-01 05:13:19.43	292.81	33.45	-38.8	-39.7	22.6	0.00e+00	0	43	0	383778816	48	3876
2026-01-01 05:13:20.29	292.49	33.42	-38.8	-39.7	22.6	0.00e+00	0	43	0	390070272	48	3881
2026-01-01 05:13:21.43	292.06	33.38	-38.8	-39.6	22.7	0.00e+00	0	44	0	398458880	48	3867
2026-01-01 05:13:22.29	291.74	33.35	-38.8	-39.6	22.7	0.00e+00	0	44	0	404750336	48	3852
2026-01-01 05:13:23.43	291.31	33.30	-38.8	-39.7	22.6	0.00e+00	0	43	0	413138944	48	3887
2026-01-01 05:13:24.29	290.99	33.27	-38.9	-39.7	22.6	0.00e+00	0	43	0	418381824	48	3908
2026-01-01 05:13:25.43	290.57	33.22	-38.8	-39.7	22.6	0.00e+00	0	43	0	426770432	48	3880
2026-01-01 05:13:26.29	290.25	33.18	-38.8	-39.7	22.6	0.00e+00	0	43	0	433061888	48	3880
2026-01-01 05:13:27.43	289.83	33.13	-38.8	-39.7	22.6	0.00e+00	0	43	0	441450496	48	3879
2026-01-01 05:13:28.28	289.51	33.09	-38.8	-39.6	22.6	0.00e+00	0	43	0	447741952	48	3856
2026-01-01 05:13:29.43	289.09	33.03	-38.9	-39.8	22.5	0.00e+00	0	43	0	456130560	48	3918
2026-01-01 05:13:30.28	288.78	32.99	-38.9	-39.8	22.6	0.00e+00	0	43	0	462422016	48	3915
2026-01-01 05:13:31.42	288.36	32.93	-38.9	-39.8	22.6	0.00e+00	0	43	0	470810624	48	3916
2026-01-01 05:13:32.28	288.05	32.89	-39.0	-39.9	22.4	0.00e+00	0	43	0	477102080	48	3986
2026-01-01 05:13:33.42	287.63	32.83	-39.1	-40.0	22.4	0.00e+00	0	43	0	484442112	48	4008
2026-01-01 05:13:34.28	287.32	32.78	-39.1	-39.9	22.4	0.00e+00	0	44	0	490733568	48	3986
2026-01-01 05:13:35.41	286.91	32.72	-39.0	-39.8	22.5	0.00e+00	0	43	0	499122176	48	3940
2026-01-01 05:13:36.27	286.61	32.67	-38.9	-39.8	22.5	0.00e+00	0	43	0	505413632	48	3914
2026-01-01 05:13:37.40	286.20	32.61	-39.0	-39.8	22.5	0.00e+00	0	43	0	513802240	48	3939
2026-01-01 05:13:38.26	285.89	32.56	-39.0	-39.9	22.4	0.00e+00	0	43	0	520093696	48	3972
2026-01-01 05:13:39.40	285.49	32.49	-39.1	-40.0	22.3	0.00e+00	0	43	0	528482304	48	4005
2026-01-01 05:13:40.26	285.18	32.44	-39.2	-40.0	22.4	0.00e+00	0	43	0	534773760	48	4036
2026-01-01 05:13:41.41	284.78	32.37	-39.2	-40.1	22.2	0.00e+00	0	43	0	543162368	48	4071
2026-01-01 05:13:42.26	284.48	32.31	-39.2	-40.1	22.3	0.00e+00	0	43	0	548405248	48	4076
2026-01-01 05:13:43.40	284.08	32.24	-39.1	-40.0	22.4	0.00e+00	0	43	0	556793856	48	4019
2026-01-01 05:13:44.26	283.78	32.18	-39.2	-40.0	22.3	0.00e+00	0	43	0	563085312	48	4040
2026-01-01 05:13:45.41	283.38	32.11	-39.2	-40.0	22.3	0.00e+00	0	44	0	571473920	48	4045
2026-01-01 05:13:46.26	283.08	32.05	-39.1	-39.9	22.4	0.00e+00	0	43	0	577765376	48	3990
2026-01-01 05:13:47.40	282.69	31.97	-38.9	-39.7	22.5	0.00e+00	0	43	0	586153984	48	3913
2026-01-01 05:13:48.26	282.39	31.91	-38.9	-39.8	22.5	0.00e+00	0	43	0	592445440	48	3932
2026-01-01 05:13:49.40	282.00	31.83	-38.8	-39.7	22.6	0.00e+00	0	43	0	600834048	48	3871
2026-01-01 05:13:50.26	281.71	31.77	-38.8	-39.6	22.7	0.00e+00	0	43	0	606076928	48	3843
2026-01-01 05:13:51.41	281.32	31.69	-38.9	-39.7	22.6	0.00e+00	0	43	0	614465536	48	3909
2026-01-01 05:13:52.27	281.03	31.63	-38.9	-39.8	22.6	0.00e+00	0	43	0	620756992	48	3914
2026-01-01 05:13:53.41	280.65	31.54	-38.9	-39.8	22.6	0.00e+00	0	43	0	629145600	48	3919
2026-01-01 05:13:54.27	280.36	31.48	-38.9	-39.8	22.5	0.00e+00	0	43	0	635437056	48	3936
2026-01-01 05:13:55.41	279.98	31.39	-38.9	-39.7	22.6	0.00e+00	0	43	0	643825664	48	3909
2026-01-01 05:13:56.27	279.70	31.32	-38.9	-39.8	22.5	0.00e+00	0	43	0	650117120	48	3915
2026-01-01 05:13:57.42	279.32	31.23	-39.0	-39.8	22.5	0.00e+00	0	43	0	658505728	48	3942
2026-01-01 05:13:58.27	279.04	31.17	-39.1	-39.9	22.4	0.00e+00	0	43	0	664797184	48	3989
2026-01-01 05:13:59.41	278.67	31.08	-39.1	-39.9	22.4	0.00e+00	0	43	0	672137216	48	4001
2026-01-01 05:14:00.27	278.39	31.01	-39.2	-40.1	22.3	0.00e+00	0	43	0	678428672	48	4052
2026-01-01 05:14:01.42	278.02	30.91	-39.2	-40.1	22.2	0.00e+00	0	43	0	686817280	48	4057
2026-01-01 05:14:02.28	277.74	30.84	-39.3	-40.1	22.1	0.00e+00	0	43	0	693108736	48	4095
2026-01-01 05:14:03.42	277.37	30.75	-39.3	-40.1	22.1	0.00e+00	0	43	0	701497344	48	4094
2026-01-01 05:14:04.28	277.10	30.68	-39.2	-40.0	22.3	0.00e+00	0	43	0	707788800	48	4043
2026-01-01 05:14:05.42	276.74	30.58	-39.1	-39.9	22.3	0.00e+00	0	43	0	716177408	48	3993
2026-01-01 05:14:06.27	276.47	30.51	-39.1	-39.9	22.4	0.00e+00	0	43	0	722468864	48	3996
2026-01-01 05:14:07.41	276.11	30.41	-39.0	-39.9	22.2	0.00e+00	0	43	0	730857472	48	3989
2026-01-01 05:14:08.27	275.85	30.34	-39.1	-40.0	22.3	0.00e+00	0	43	0	736100352	48	4008
2026-01-01 05:14:09.42	275.49	30.24	-39.1	-39.9	22.3	0.00e+00	0	43	0	744488960	48	3990
2026-01-01 05:14:10.27	275.23	30.16	-39.1	-40.0	22.3	0.00e+00	0	43	0	750780416	48	4015
2026-01-01 05:14:11.42	274.88	30.06	-39.3	-40.2	22.2	0.00e+00	0	43	0	759169024	48	4118
2026-01-01 05:14:12.28	274.61	29.99	-39.3	-40.1	22.2	0.00e+00	0	43	0	765460480	48	4085
2026-01-01 05:14:13.42	274.27	29.88	-39.3	-40.2	22.1	0.00e+00	0	43	0	773849088	48	4128
2026-01-01 05:14:14.28	274.01	29.81	-39.3	-40.2	22.1	0.00e+00	0	43	0	780140544	48	4121
2026-01-01 05:14:15.42	273.67	29.70	-39.2	-40.1	22.3	0.00e+00	0	43	0	788529152	48	4077
2026-01-01 05:14:16.28	273.41	29.62	-39.2	-40.1	22.2	0.00e+00	0	43	0	793772032	48	4073
2026-01-01 05:14:17.42	273.07	29.52	-39.2	-40.1	22.2	0.00e+00	0	43	0	802160640	48	4068
2026-01-01 05:14:18.28	272.82	29.44	-39.3	-40.1	22.2	0.00e+00	0	43	0	808452096	48	4089
2026-01-01 05:14:19.42	272.48	29.33	-39.3	-40.1	22.2	0.00e+00	0	43	0	816840704	48	4096
2026-01-01 05:14:20.28	272.23	29.25	-39.2	-40.1	22.2	0.00e+00	0	43	0	823132160	48	4076
2026-01-01 05:14:21.42	271.90	29.15	-39.2	-40.1	22.2	0.00e+00	0	43	0	831520768	48	4075
2026-01-01 05:14:22.28	271.66	29.06	-39.2	-40.1	22.2	0.00e+00	0	43	0	837812224	48	4078
2026-01-01 05:14:23.43	271.33	28.96	-39.3	-40.1	22.2	0.00e+00	0	43	0	846200832	48	4089
2026-01-01 05:14:24.28	271.08	28.87	-39.3	-40.2	22.1	0.00e+00	0	44	0	852492288	48	4126
2026-01-01 05:14:25.43	270.76	28.76	-39.4	-40.3	22.1	0.00e+00	0	43	0	859832320	48	4150
2026-01-01 05:14:26.29	270.52	28.68	-39.3	-40.2	22.1	0.00e+00	0	43	0	866123776	48	4128
2026-01-01 05:14:27.44	270.20	28.57	-39.2	-40.1	22.3	0.00e+00	0	43	0	874512384	48	4054
2026-01-01 05:14:28.29	269.96	28.49	-39.2	-40.1	21.8	0.00e+00	0	43	0	880803840	48	4087
2026-01-01 05:14:29.43	269.64	28.38	-39.0	-39.8	22.5	0.00e+00	0	43	0	889192448	48	3949
2026-01-01 05:14:30.29	269.41	28.29	-39.0	-39.8	22.4	0.00e+00	0	43	0	895483904	48	3953
2026-01-01 05:14:31.43	269.10	28.18	-39.0	-39.8	22.4	0.00e+00	0	43	0	903872512	48	3949
2026-01-01 05:14:32.30	268.86	28.09	-38.9	-39.8	22.5	0.00e+00	0	43	0	910163968	48	3924
2026-01-01 05:14:33.44	268.55	27.98	-39.0	-39.8	22.4	0.00e+00	0	43	0	918552576	48	3957
2026-01-01 05:14:34.30	268.32	27.89	-39.0	-39.9	22.4	0.00e+00	0	43	0	923795456	48	3973
2026-01-01 05:14:35.44	268.02	27.78	-39.1	-40.0	22.3	0.00e+00	0	43	0	932184064	48	4029
2026-01-01 05:14:36.30	267.79	27.69	-39.3	-40.2	22.1	0.00e+00	0	43	0	938475520	48	4103
2026-01-01 05:14:37.44	267.49	27.58	-39.5	-40.4	22.0	0.00e+00	0	43	0	946864128	48	4204
2026-01-01 05:14:38.30	267.27	27.49	-39.5	-40.4	21.9	0.00e+00	0	43	0	953155584	48	4223
2026-01-01 05:14:39.45	266.97	27.38	-39.7	-40.6	21.8	0.00e+00	0	43	0	961544192	48	4303
2026-01-01 05:14:40.31	266.75	27.29	-39.6	-40.5	21.9	0.00e+00	0	43	0	967835648	48	4246
2026-01-01 05:14:41.45	266.46	27.17	-39.6	-40.5	21.8	0.00e+00	0	43	0	976224256	48	4275
2026-01-01 05:14:42.31	266.24	27.09	-39.6	-40.5	21.9	0.00e+00	0	43	0	982515712	48	4272
2026-01-01 05:14:43.46	265.95	26.97	-39.6	-40.5	21.9	0.00e+00	0	43	0	990904320	48	4263
2026-01-01 05:14:44.31	265.73	26.88	-39.6	-40.5	21.9	0.00e+00	0	43	0	997195776	48	4254
2026-01-01 05:14:45.46	265.45	26.76	-39.6	-40.4	21.8	0.00e+00	0	43	0	1004535808	48	4241
2026-01-01 05:14:46.31	265.24	26.68	-39.5	-40.4	21.9	0.00e+00	0	43	0	1010827264	49	3965
2026-01-01 05:14:47.46	264.95	26.56	-39.4	-40.3	22.0	0.00e+00	0	43	0	1019215872	49	3935
2026-01-01 05:14:48.31	264.75	26.47	-39.4	-40.2	22.1	0.00e+00	0	43	0	1025507328	49	3908
2026-01-01 05:14:49.46	264.47	26.35	-39.3	-40.2	22.1	0.00e+00	0	43	0	1033895936	49	3884
2026-01-01 05:14:50.32	264.26	26.26	-39.4	-40.2	22.1	0.00e+00	0	43	0	1040187392	49	3899
2026-01-01 05:14:51.46	263.98	26.14	-39.4	-40.3	22.0	0.00e+00	0	43	0	1048576000	49	3930
2026-01-01 05:14:52.32	263.78	26.05	-39.5	-40.4	21.9	0.00e+00	0	43	0	1054867456	49	3977
2026-01-01 05:14:53.46	263.51	25.94	-39.6	-40.5	21.8	0.00e+00	0	43	0	1063256064	49	4036
2026-01-01 05:14:54.32	263.31	25.85	-39.6	-40.5	21.7	0.00e+00	0	43	0	1068498944	49	4008
2026-01-01 05:14:55.46	263.04	25.73	-39.7	-40.6	21.7	0.00e+00	0	43	0	1076887552	49	4088
2026-01-01 05:14:56.32	262.84	25.64	-39.7	-40.6	21.7	0.00e+00	0	43	0	1083179008	49	4059
2026-01-01 05:14:57.46	262.58	25.52	-39.6	-40.5	21.8	0.00e+00	0	43	0	1091567616	49	4017
2026-01-01 05:14:58.32	262.38	25.43	-39.6	-40.5	21.8	0.00e+00	0	43	0	1097859072	49	4042
2026-01-01 05:14:59.46	262.12	25.31	-39.6	-40.5	21.8	0.00e+00	0	43	0	1106247680	49	4008
2026-01-01 05:15:00.32	261.93	25.22	-39.5	-40.4	21.9	0.00e+00	0	43	0	1112539136	49	3991
2026-01-01 05:15:01.46	261.67	25.10	-39.6	-40.5	21.9	0.00e+00	0	43	0	1120927744	49	4007
2026-01-01 05:15:02.32	261.48	25.01	-39.6	-40.5	21.8	0.00e+00	0	43	0	1126170624	49	4044
2026-01-01 05:15:03.46	261.23	24.89	-39.4	-40.3	22.0	0.00e+00	0	43	0	1134559232	49	3933
2026-01-01 05:15:04.32	261.04	24.80	-39.4	-40.3	22.0	0.00e+00	0	43	0	1140850688	49	3934
2026-01-01 05:15:05.46	260.79	24.68	-39.5	-40.4	21.9	0.00e+00	0	43	0	1149239296	49	3979
2026-01-01 05:15:06.32	260.60	24.59	-39.5	-40.4	21.9	0.00e+00	0	43	0	1155530752	49	3993
2026-01-01 05:15:07.46	260.35	24.47	-39.7	-40.6	21.7	0.00e+00	0	43	0	1163919360	49	4077
2026-01-01 05:15:08.31	260.17	24.38	-39.8	-40.6	21.7	0.00e+00	0	43	0	1170210816	49	4096
2026-01-01 05:15:09.46	259.93	24.26	-39.7	-40.5	21.7	0.00e+00	0	43	0	1178599424	49	4049
2026-01-01 05:15:10.31	259.75	24.17	-39.8	-40.7	21.6	0.00e+00	0	43	0	1184890880	49	4120
2026-01-01 05:15:11.44	259.51	24.05	-39.9	-40.8	21.5	0.00e+00	0	43	0	1192230912	49	4156
2026-01-01 05:15:12.30	259.33	23.96	-39.8	-40.7	21.6	0.00e+00	0	43	0	1198522368	49	4141
2026-01-01 05:15:13.44	259.09	23.84	-39.9	-40.8	21.5	0.00e+00	0	43	0	1206910976	49	4193
2026-01-01 05:15:14.29	258.92	23.75	-39.8	-40.7	21.6	0.00e+00	0	43	0	1213202432	49	4117
2026-01-01 05:15:15.44	258.68	23.63	-39.7	-40.6	21.6	0.00e+00	0	43	0	1221591040	49	4080
2026-01-01 05:15:16.29	258.51	23.54	-39.7	-40.6	21.7	0.00e+00	0	43	0	1227882496	49	4086
2026-01-01 05:15:17.43	258.28	23.42	-39.6	-40.5	21.8	0.00e+00	0	43	0	1235222528	49	4005
2026-01-01 05:15:18.28	258.11	23.33	-39.6	-40.5	21.8	0.00e+00	0	43	0	1241513984	49	4018
2026-01-01 05:15:19.43	257.88	23.21	-39.6	-40.5	21.8	0.00e+00	0	43	0	1249902592	49	4008
2026-01-01 05:15:20.29	257.71	23.12	-39.7	-40.6	21.7	0.00e+00	0	43	0	1256194048	49	4058
2026-01-01 05:15:21.43	257.49	23.00	-39.6	-40.5	21.8	0.00e+00	0	43	0	1264582656	49	4025
2026-01-01 05:15:22.29	257.32	22.91	-39.7	-40.5	21.7	0.00e+00	0	43	0	1270874112	49	4046
2026-01-01 05:15:23.43	257.10	22.80	-39.7	-40.6	21.7	0.00e+00	0	43	0	1279262720	49	4065
2026-01-01 05:15:24.29	256.93	22.71	-39.8	-40.7	21.6	0.00e+00	0	43	0	1285554176	49	4111
2026-01-01 05:15:25.43	256.72	22.59	-39.7	-40.6	21.7	0.00e+00	0	43	0	1293942784	49	4064
2026-01-01 05:15:26.29	256.55	22.50	-39.7	-40.6	21.7	0.00e+00	0	43	0	1299185664	49	4060
2026-01-01 05:15:27.43	256.34	22.38	-39.7	-40.6	21.7	0.00e+00	0	43	0	1307574272	49	4064
2026-01-01 05:15:28.28	256.18	22.29	-39.8	-40.7	21.5	0.00e+00	0	43	0	1313865728	49	4126
2026-01-01 05:15:29.42	255.97	22.17	-39.7	-40.6	21.7	0.00e+00	0	43	0	1322254336	49	4052
2026-01-01 05:15:30.28	255.81	22.08	-39.7	-40.6	21.7	0.00e+00	0	44	0	1328545792	49	4066
2026-01-01 05:15:31.41	255.60	21.96	-39.7	-40.6	21.7	0.00e+00	0	43	0	1336934400	49	4070
2026-01-01 05:15:32.27	255.44	21.87	-39.8	-40.7	21.6	0.00e+00	0	43	0	1343225856	49	4102
2026-01-01 05:15:33.41	255.24	21.76	-39.8	-40.7	21.6	0.00e+00	0	43	0	1351614464	49	4141
2026-01-01 05:15:34.27	255.08	21.67	-39.9	-40.8	21.5	0.00e+00	0	43	0	1356857344	49	4160
2026-01-01 05:15:35.41	254.88	21.55	-40.1	-41.0	21.3	0.00e+00	0	43	0	1365245952	49	4250
2026-01-01 05:15:36.26	254.73	21.46	-40.0	-40.9	21.4	0.00e+00	0	43	0	1371537408	49	4217
2026-01-01 05:15:37.40	254.53	21.34	-40.1	-41.0	21.3	0.00e+00	0	43	0	1379926016	49	4253
2026-01-01 05:15:38.25	254.38	21.26	-40.0	-40.9	21.4	0.00e+00	0	43	0	1386217472	49	4208
2026-01-01 05:15:39.39	254.18	21.14	-39.9	-40.8	21.5	0.00e+00	0	43	0	1394606080	49	4184
2026-01-01 05:15:40.24	254.03	21.05	-39.9	-40.8	21.4	0.00e+00	0	43	0	1399848960	49	4178
2026-01-01 05:15:41.38	253.84	20.93	-39.9	-40.8	21.4	0.00e+00	0	43	0	1408237568	49	4172
2026-01-01 05:15:42.24	253.69	20.85	-39.9	-40.8	21.4	0.00e+00	0	43	0	1414529024	49	4161
2026-01-01 05:15:43.38	253.50	20.73	-40.0	-40.9	21.3	0.00e+00	0	43	0	1422917632	49	4209
2026-01-01 05:15:44.24	253.35	20.64	-40.1	-41.0	21.2	0.00e+00	0	43	0	1429209088	49	4274
2026-01-01 05:15:45.38	253.16	20.53	-40.1	-41.0	21.2	0.00e+00	0	43	0	1437597696	49	4280
2026-01-01 05:15:46.23	253.02	20.44	-40.2	-41.1	21.1	0.00e+00	0	43	0	1443889152	49	4310
2026-01-01 05:15:47.37	252.83	20.32	-40.2	-41.2	21.1	0.00e+00	0	43	0	1452277760	49	4357
2026-01-01 05:15:48.23	252.69	20.24	-40.4	-41.3	21.0	0.00e+00	0	43	0	1457520640	50	4183
2026-01-01 05:15:49.38	252.51	20.12	-40.4	-41.3	21.0	0.00e+00	0	43	0	1465909248	50	4163
2026-01-01 05:15:50.23	252.37	20.03	-40.4	-41.4	21.0	0.00e+00	0	43	0	1472200704	50	4196
2026-01-01 05:15:51.37	252.18	19.92	-40.2	-41.1	21.1	0.00e+00	0	44	0	1480589312	50	4087
2026-01-01 05:15:52.23	252.05	19.83	-40.2	-41.1	21.2	0.00e+00	0	43	0	1486880768	50	4074
2026-01-01 05:15:53.37	251.87	19.72	-40.2	-41.1	21.2	0.00e+00	0	44	0	1495269376	50	4067
2026-01-01 05:15:54.23	251.73	19.63	-40.1	-41.0	21.3	0.00e+00	0	43	0	1501560832	50	4008
2026-01-01 05:15:55.37	251.55	19.52	-40.2	-41.1	21.2	0.00e+00	0	43	0	1509949440	50	4066
2026-01-01 05:15:56.23	251.42	19.43	-40.2	-41.1	21.1	0.00e+00	0	43	0	1516240896	50	4079
2026-01-01 05:15:57.37	251.24	19.32	-40.3	-41.2	21.0	0.00e+00	0	43	0	1523580928	50	4124
2026-01-01 05:15:58.23	251.11	19.23	-40.4	-41.3	21.0	0.00e+00	0	43	0	1529872384	50	4172
2026-01-01 05:15:59.38	250.94	19.12	-40.5	-41.5	20.8	0.00e+00	0	43	0	1538260992	50	4252
2026-01-01 05:16:00.23	250.81	19.03	-40.6	-41.5	20.8	0.00e+00	0	43	0	1544552448	50	4275
2026-01-01 05:16:01.37	250.64	18.92	-40.6	-41.6	20.7	0.00e+00	0	43	0	1552941056	50	4300
2026-01-01 05:16:02.23	250.51	18.83	-40.6	-41.5	20.7	0.00e+00	0	43	0	1559232512	50	4273
2026-01-01 05:16:03.37	250.34	18.72	-40.6	-41.5	20.8	0.00e+00	0	43	0	1567621120	50	4261
2026-01-01 05:16:04.23	250.21	18.64	-40.5	-41.4	20.9	0.00e+00	0	43	0	1573912576	50	4224
2026-01-01 05:16:05.37	250.05	18.52	-40.5	-41.4	20.9	0.00e+00	0	43	0	1582301184	50	4228
2026-01-01 05:16:06.23	249.92	18.44	-40.5	-41.4	20.8	0.00e+00	0	43	0	1587544064	50	4238
2026-01-01 05:16:07.37	249.76	18.33	-40.6	-41.5	20.7	0.00e+00	0	43	0	1595932672	50	4268
2026-01-01 05:16:08.22	249.63	18.24	-40.6	-41.6	20.7	0.00e+00	0	44	0	1602224128	50	4304
2026-01-01 05:16:09.37	249.47	18.13	-40.7	-41.7	20.5	0.00e+00	0	43	0	1610612736	50	4370
2026-01-01 05:16:10.23	249.35	18.05	-40.8	-41.8	20.5	0.00e+00	0	44	0	1616904192	51	4147
2026-01-01 05:16:11.37	249.19	17.94	-41.0	-42.0	20.3	0.00e+00	0	43	0	1625292800	51	4250
2026-01-01 05:16:12.23	249.07	17.85	-41.0	-42.0	20.3	0.00e+00	0	43	0	1631584256	51	4273
2026-01-01 05:16:13.37	248.91	17.74	-41.1	-42.1	20.1	0.00e+00	0	43	0	1639972864	51	4325
2026-01-01 05:16:14.23	248.79	17.66	-41.1	-42.1	20.2	0.00e+00	0	43	0	1645215744	51	4318
2026-01-01 05:16:15.38	248.63	17.55	-41.1	-42.1	20.2	0.00e+00	0	43	0	1653604352	51	4302
2026-01-01 05:16:16.24	248.52	17.47	-40.9	-41.9	20.3	0.00e+00	0	43	0	1659895808	51	4230
2026-01-01 05:16:17.38	248.36	17.36	-40.9	-41.9	20.3	0.00e+00	0	43	0	1668284416	51	4237
2026-01-01 05:16:18.23	248.25	17.28	-40.9	-41.9	20.4	0.00e+00	0	43	0	1674575872	51	4217
2026-01-01 05:16:19.38	248.09	17.17	-40.8	-41.8	20.5	0.00e+00	0	43	0	1682964480	51	4173
2026-01-01 05:16:20.23	247.98	17.08	-40.8	-41.8	20.5	0.00e+00	0	43	0	1689255936	51	4178
2026-01-01 05:16:21.38	247.83	16.98	-40.8	-41.8	20.5	0.00e+00	0	43	0	1697644544	51	4172
2026-01-01 05:16:22.24	247.72	16.89	-40.8	-41.7	20.5	0.00e+00	0	43	0	1703936000	51	4144
2026-01-01 05:16:23.38	247.57	16.79	-40.7	-41.7	20.6	0.00e+00	0	43	0	1711276032	51	4102
2026-01-01 05:16:24.24	247.46	16.70	-40.8	-41.8	20.5	0.00e+00	0	43	0	1717567488	51	4149
2026-01-01 05:16:25.38	247.31	16.60	-40.9	-41.8	20.4	0.00e+00	0	43	0	1725956096	51	4182
2026-01-01 05:16:26.24	247.20	16.52	-40.9	-41.9	20.4	0.00e+00	0	43	0	1732247552	51	4213
2026-01-01 05:16:27.39	247.05	16.41	-41.0	-42.0	20.2	0.00e+00	0	43	0	1740636160	51	4259
2026-01-01 05:16:28.24	246.95	16.33	-41.0	-42.0	20.2	0.00e+00	0	43	0	1746927616	51	4273
2026-01-01 05:16:29.36	246.81	16.22	-41.1	-42.2	20.0	0.00e+00	0	43	0	1755316224	51	4355
2026-01-01 05:16:30.22	246.70	16.14	-41.3	-42.3	19.9	0.00e+00	0	43	0	1761607680	51	4413
2026-01-01 05:16:31.36	246.56	16.04	-41.3	-42.4	19.8	0.00e+00	0	44	0	1769996288	52	4216
2026-01-01 05:16:32.22	246.45	15.96	-41.5	-42.6	19.7	0.00e+00	0	43	0	1775239168	52	4296
2026-01-01 05:16:33.37	246.31	15.85	-41.6	-42.7	19.6	0.00e+00	0	43	0	1783627776	52	4341
2026-01-01 05:16:34.23	246.21	15.77	-41.7	-42.8	19.4	0.00e+00	0	43	0	1789919232	52	4394
2026-01-01 05:16:35.37	246.07	15.67	-41.8	-42.9	19.3	0.00e+00	0	43	0	1798307840	53	4199
2026-01-01 05:16:36.22	245.97	15.59	-41.8	-42.8	19.4	0.00e+00	0	43	0	1804599296	53	4189
2026-01-01 05:16:37.37	245.83	15.48	-41.7	-42.8	19.5	0.00e+00	0	43	0	1812987904	53	4156
2026-01-01 05:16:38.23	245.73	15.41	-41.6	-42.7	19.5	0.00e+00	0	43	0	1819279360	53	4119
2026-01-01 05:16:39.37	245.59	15.30	-41.5	-42.6	19.6	0.00e+00	0	43	0	1827667968	53	4058
2026-01-01 05:16:40.23	245.49	15.22	-41.5	-42.5	19.6	0.00e+00	0	43	0	1833959424	53	4036
2026-01-01 05:16:41.37	245.36	15.12	-41.3	-42.4	19.8	0.00e+00	0	43	0	1841299456	53	3959
2026-01-01 05:16:42.23	245.26	15.04	-41.2	-42.2	19.9	0.00e+00	0	43	0	1848639488	53	3900
2026-01-01 05:16:43.37	245.13	14.94	-41.2	-42.2	20.0	0.00e+00	0	44	0	1855979520	53	3895
2026-01-01 05:16:44.23	245.03	14.86	-41.3	-42.2	20.0	0.00e+00	0	43	0	1862270976	53	3910
2026-01-01 05:16:45.38	244.90	14.76	-41.2	-42.1	20.0	0.00e+00	0	43	0	1870659584	53	3863
2026-01-01 05:16:46.23	244.81	14.68	-41.1	-42.1	20.1	0.00e+00	0	43	0	1876951040	53	3837
2026-01-01 05:16:47.37	244.68	14.58	-41.2	-42.2	19.9	0.00e+00	0	44	0	1885339648	53	3912
2026-01-01 05:16:48.23	244.58	14.50	-41.2	-42.2	19.9	0.00e+00	0	43	0	1891631104	53	3903
2026-01-01 05:16:49.38	244.46	14.40	-41.4	-42.4	19.7	0.00e+00	0	43	0	1898971136	53	3981
2026-01-01 05:16:50.23	244.36	14.32	-41.4	-42.5	19.7	0.00e+00	0	43	0	1906311168	53	4005
2026-01-01 05:16:51.38	244.24	14.22	-41.5	-42.6	19.5	0.00e+00	0	44	0	1914699776	53	4098
2026-01-01 05:16:52.24	244.14	14.15	-41.6	-42.8	19.4	0.00e+00	0	43	0	1919942656	53	4148
2026-01-01 05:16:53.38	244.02	14.05	-41.6	-42.8	19.4	0.00e+00	0	43	0	1928331264	53	4148
2026-01-01 05:16:54.24	243.93	13.97	-41.7	-42.9	19.3	0.00e+00	0	44	0	1934622720	53	4205
2026-01-01 05:16:55.38	243.81	13.87	-41.7	-42.8	19.4	0.00e+00	0	43	0	1943011328	53	4158
2026-01-01 05:16:56.24	243.71	13.80	-41.6	-42.7	19.4	0.00e+00	0	44	0	1949302784	53	4134
2026-01-01 05:16:57.39	243.59	13.70	-41.6	-42.7	19.4	0.00e+00	0	43	0	1957691392	53	4141
2026-01-01 05:16:58.25	243.50	13.62	-41.7	-42.8	19.3	0.00e+00	0	43	0	1963982848	53	4167
2026-01-01 05:16:59.39	243.38	13.52	-41.6	-42.7	19.4	0.00e+00	0	43	0	1972371456	53	4125
2026-01-01 05:17:00.25	243.30	13.45	-41.7	-42.8	19.3	0.00e+00	0	43	0	1977614336	53	4172
2026-01-01 05:17:01.40	243.18	13.35	-41.7	-42.8	19.3	0.00e+00	0	43	0	1986002944	53	4171
2026-01-01 05:17:02.26	243.09	13.27	-41.8	-42.9	19.2	0.00e+00	0	43	0	1992294400	53	4208
2026-01-01 05:17:03.40	242.97	13.18	-41.9	-43.0	19.1	0.00e+00	0	43	0	2000683008	53	4260
2026-01-01 05:17:04.25	242.89	13.10	-42.0	-43.1	19.0	0.00e+00	0	43	0	2006974464	53	4318
2026-01-01 05:17:05.40	242.77	13.00	-42.1	-43.2	18.9	0.00e+00	0	44	0	2015363072	53	4341
2026-01-01 05:17:06.26	242.69	12.93	-42.1	-43.2	18.8	0.00e+00	0	43	0	2021654528	53	4385
2026-01-01 05:17:07.40	242.57	12.83	-42.3	-43.4	18.7	0.00e+00	0	43	0	2030043136	53	4464
2026-01-01 05:17:08.26	242.49	12.76	-42.4	-43.5	18.6	0.00e+00	0	44	0	2036334592	54	4279
2026-01-01 05:17:09.40	242.37	12.66	-42.4	-43.6	18.5	0.00e+00	0	43	0	2043674624	54	4300
2026-01-01 05:17:10.25	242.29	12.59	-42.4	-43.5	18.5	0.00e+00	0	43	0	2049966080	54	4285
2026-01-01 05:17:11.40	242.18	12.49	-42.4	-43.6	18.5	0.00e+00	0	43	0	2058354688	54	4303
2026-01-01 05:17:12.25	242.10	12.42	-42.5	-43.7	18.4	0.00e+00	0	43	0	2064646144	54	4360
2026-01-01 05:17:13.39	241.99	12.33	-42.5	-43.6	18.6	0.00e+00	0	43	0	2073034752	54	4327
2026-01-01 05:17:14.25	241.91	12.26	-42.3	-43.4	18.7	0.00e+00	0	43	0	2079326208	54	4217
2026-01-01 05:17:15.38	241.80	12.16	-42.4	-43.5	18.6	0.00e+00	0	43	0	2087714816	54	4259
2026-01-01 05:17:16.24	241.72	12.09	-42.2	-43.4	18.7	0.00e+00	0	43	0	2094006272	54	4194
2026-01-01 05:17:17.37	241.61	12.00	-42.2	-43.3	18.8	0.00e+00	0	43	0	2101346304	54	4188
2026-01-01 05:17:18.23	241.53	11.92	-42.3	-43.4	18.7	0.00e+00	0	43	0	2107637760	54	4202
2026-01-01 05:17:19.37	241.43	11.83	-42.1	-43.2	18.9	0.00e+00	0	44	0	2116026368	54	4101
2026-01-01 05:17:20.23	241.35	11.76	-42.1	-43.2	18.9	0.00e+00	0	43	0	2122317824	54	4114
2026-01-01 05:17:21.36	241.24	11.67	-42.1	-43.2	18.9	0.00e+00	0	43	0	2130706432	54	4110
2026-01-01 05:17:22.22	241.17	11.60	-42.1	-43.2	18.8	0.00e+00	0	43	0	2136997888	54	4127
2026-01-01 05:17:23.36	241.06	11.50	-42.1	-43.2	18.9	0.00e+00	0	43	0	2144337920	54	4110
2026-01-01 05:17:24.21	240.99	11.43	-42.1	-43.2	18.8	0.00e+00	0	43	0	2150629376	54	4127
2026-01-01 05:17:25.35	240.88	11.34	-42.2	-43.3	18.7	0.00e+00	0	43	0	2159017984	54	4183
2026-01-01 05:17:26.21	240.81	11.27	-42.2	-43.3	18.7	0.00e+00	0	43	0	2165309440	54	4183
2026-01-01 05:17:27.35	240.71	11.18	-42.2	-43.3	18.7	0.00e+00	0	43	0	2173698048	54	4175
2026-01-01 05:17:28.20	240.63	11.11	-42.3	-43.5	18.6	0.00e+00	0	43	0	2179989504	54	4252
2026-01-01 05:17:29.34	240.53	11.02	-42.4	-43.5	18.5	0.00e+00	0	43	0	2188378112	54	4251
2026-01-01 05:17:30.19	240.46	10.95	-42.4	-43.5	18.5	0.00e+00	0	43	0	2194669568	54	4275
2026-01-01 05:17:31.33	240.36	10.86	-42.4	-43.5	18.5	0.00e+00	0	43	0	2203058176	54	4269
2026-01-01 05:17:32.19	240.28	10.79	-42.4	-43.6	18.4	0.00e+00	0	43	0	2208301056	54	4308
2026-01-01 05:17:33.33	240.19	10.70	-42.5	-43.6	18.4	0.00e+00	0	43	0	2216689664	54	4339
2026-01-01 05:17:34.18	240.11	10.63	-42.4	-43.6	18.4	0.00e+00	0	43	0	2222981120	54	4320
2026-01-01 05:17:35.32	240.02	10.54	-42.5	-43.7	18.3	0.00e+00	0	43	0	2231369728	54	4361
2026-01-01 05:17:36.18	239.95	10.47	-42.4	-43.6	18.4	0.00e+00	0	43	0	2237661184	54	4300
2026-01-01 05:17:37.31	239.85	10.38	-42.5	-43.7	18.3	0.00e+00	0	43	0	2246049792	54	4345
2026-01-01 05:17:38.17	239.78	10.31	-42.6	-43.7	18.2	0.00e+00	0	43	0	2251292672	54	4390
2026-01-01 05:17:39.31	239.69	10.22	-42.6	-43.8	18.2	0.00e+00	0	43	0	2259681280	54	4404
2026-01-01 05:17:40.16	239.62	10.16	-42.7	-43.9	18.1	0.00e+00	0	43	0	2265972736	54	4454
2026-01-01 05:17:41.31	239.52	10.07	-42.7	-43.9	18.2	0.00e+00	0	44	0	2274361344	54	4459
2026-01-01 05:17:42.16	239.45	10.00	-42.7	-43.9	18.1	0.00e+00	0	43	0	2280652800	54	4472
2026-01-01 05:17:43.30	239.36	9.91	-42.9	-44.1	18.0	0.00e+00	0	43	0	2289041408	55	4305
2026-01-01 05:17:44.15	239.29	9.85	-42.9	-44.1	18.0	0.00e+00	0	44	0	2295332864	55	4298
2026-01-01 05:17:45.30	239.20	9.76	-42.9	-44.1	18.0	0.00e+00	0	44	0	2303721472	55	4308
2026-01-01 05:17:46.15	239.13	9.69	-42.8	-44.0	18.0	0.00e+00	0	43	0	2308964352	55	4281
2026-01-01 05:17:47.29	239.04	9.60	-42.9	-44.1	17.9	0.00e+00	0	43	0	2317352960	55	4312
2026-01-01 05:17:48.15	238.97	9.54	-42.9	-44.1	17.9	0.00e+00	0	43	0	2323644416	55	4310
2026-01-01 05:17:49.29	238.88	9.45	-42.8	-44.0	18.0	0.00e+00	0	43	0	2332033024	55	4281
2026-01-01 05:17:50.15	238.82	9.38	-42.8	-44.0	18.0	0.00e+00	0	43	0	2338324480	55	4245
2026-01-01 05:17:51.30	238.73	9.30	-42.9	-44.1	17.9	0.00e+00	0	43	0	2346713088	55	4305
2026-01-01 05:17:52.16	238.66	9.23	-42.9	-44.1	17.9	0.00e+00	0	43	0	2353004544	55	4314
2026-01-01 05:17:53.29	238.57	9.15	-42.9	-44.1	17.9	0.00e+00	0	43	0	2361393152	55	4308
2026-01-01 05:17:54.15	238.51	9.08	-42.8	-43.9	18.0	0.00e+00	0	43	0	2367684608	55	4236
2026-01-01 05:17:55.30	238.42	8.99	-42.7	-43.9	18.0	0.00e+00	0	43	0	2375024640	55	4205
2026-01-01 05:17:56.16	238.36	8.93	-52.5	-63.4	3.8	8.05e-01	0	43	104	2379218944	74	13410
2026-01-01 05:17:57.29	238.27	8.84	-52.5	-63.5	3.8	8.46e-01	0	43	104	2379218944	74	13539
2026-01-01 05:17:58.15	238.21	8.78	-52.8	-63.8	3.8	8.46e-01	0	43	104	2379218944	75	13118
2026-01-01 05:17:59.29	238.12	8.69	-52.8	-63.8	3.8	8.46e-01	0	44	104	2379218944	75	13203
2026-01-01 05:18:00.14	238.06	8.63	-52.6	-63.9	3.8	8.46e-01	0	43	104	2379218944	75	13277
2026-01-01 05:18:01.28	237.98	8.54	-52.9	-64.0	3.8	8.46e-01	0	44	104	2379218944	75	13441
2026-01-01 05:18:02.14	237.91	8.48	-52.9	-63.9	3.8	8.47e-01	0	43	104	2379218944	75	13265
2026-01-01 05:18:03.28	237.83	8.40	-53.1	-64.0	3.8	8.47e-01	0	43	104	2379218944	75	13522
2026-01-01 05:18:04.14	237.77	8.33	-53.0	-64.0	3.8	8.48e-01	0	43	104	2379218944	75	13478
2026-01-01 05:18:05.27	237.69	8.25	-53.2	-64.0	3.8	8.47e-01	0	43	104	2379218944	75	13445
2026-01-01 05:18:06.13	237.62	8.18	-52.9	-64.0	3.8	8.47e-01	0	44	104	2379218944	75	13471
2026-01-01 05:18:07.26	237.54	8.10	-53.1	-64.0	3.8	8.47e-01	0	43	104	2379218944	75	13498
2026-01-01 05:18:08.12	237.48	8.04	-53.1	-63.9	3.8	8.48e-01	0	43	104	2379218944	75	13405
2026-01-01 05:18:09.27	237.40	7.95	-53.1	-64.0	3.8	8.47e-01	0	44	104	2379218944	75	13544
2026-01-01 05:18:10.13	237.34	7.89	-53.0	-64.0	3.8	8.46e-01	0	43	104	2379218944	75	13510
2026-01-01 05:18:11.27	237.26	7.81	-53.1	-64.1	3.8	8.47e-01	0	44	104	2379218944	75	13658
2026-01-01 05:18:12.13	237.20	7.75	-53.2	-64.1	3.8	8.48e-01	0	44	104	2379218944	75	13580
2026-01-01 05:18:13.27	237.12	7.66	-53.2	-64.1	3.8	8.47e-01	0	44	104	2379218944	75	13719
2026-01-01 05:18:14.12	237.07	7.60	-53.1	-64.1	3.8	8.48e-01	0	43	104	2379218944	75	13624
2026-01-01 05:18:15.26	236.99	7.52	-53.2	-64.0	3.8	8.48e-01	0	44	104	2379218944	75	13538
2026-01-01 05:18:16.11	236.93	7.46	-53.1	-64.0	3.8	8.47e-01	0	44	104	2379218944	75	13544
2026-01-01 05:18:17.26	236.85	7.38	-53.0	-64.0	3.8	8.47e-01	0	43	104	2379218944	75	13519
2026-01-01 05:18:18.11	236.79	7.31	-53.0	-64.0	3.8	8.48e-01	0	43	104	2379218944	75	13435
2026-01-01 05:18:19.25	236.72	7.23	-53.0	-64.0	3.8	8.47e-01	0	43	104	2379218944	75	13508
2026-01-01 05:18:20.10	236.66	7.17	-53.1	-64.0	3.8	8.47e-01	0	43	104	2379218944	75	13489
2026-01-01 05:18:21.24	236.59	7.09	-53.0	-64.1	3.8	8.47e-01	0	44	104	2379218944	75	13594
2026-01-01 05:18:22.10	236.53	7.03	-53.0	-64.0	3.8	8.46e-01	0	44	104	2379218944	75	13505
2026-01-01 05:18:23.24	236.45	6.95	-53.1	-64.0	3.8	8.46e-01	0	44	104	2379218944	75	13452
2026-01-01 05:18:24.10	236.40	6.89	-53.0	-64.0	3.8	8.47e-01	0	44	104	2379218944	75	13514
2026-01-01 05:18:25.24	236.32	6.81	-53.0	-64.0	3.8	8.46e-01	0	44	104	2379218944	75	13491
2026-01-01 05:18:26.10	236.27	6.75	-53.0	-64.0	3.8	8.47e-01	0	43	104	2379218944	75	13564
2026-01-01 05:18:27.24	236.19	6.67	-53.0	-64.0	3.8	8.46e-01	0	44	104	2379218944	75	13442
2026-01-01 05:18:28.10	236.14	6.61	-53.0	-64.0	3.8	8.47e-01	0	44	104	2379218944	75	13550
2026-01-01 05:18:29.24	236.07	6.53	-53.0	-64.0	3.8	8.47e-01	0	44	104	2379218944	75	13422
2026-01-01 05:18:30.09	236.01	6.47	-53.0	-64.0	3.8	8.48e-01	0	44	104	2379218944	75	13464
2026-01-01 05:18:31.24	235.94	6.39	-53.0	-64.0	3.8	8.46e-01	0	44	104	2379218944	75	13484
2026-01-01 05:18:32.09	235.89	6.33	-53.2	-64.2	3.8	8.46e-01	0	44	104	2379218944	75	13798
2026-01-01 05:18:33.23	235.82	6.25	-53.1	-64.1	3.8	8.46e-01	0	44	104	2379218944	75	13636
2026-01-01 05:18:34.09	235.76	6.19	-53.1	-64.1	3.8	8.47e-01	0	43	104	2379218944	75	13658
2026-01-01 05:18:35.23	235.69	6.11	-53.1	-64.0	3.8	8.47e-01	0	44	104	2379218944	75	13516
2026-01-01 05:18:36.09	235.64	6.05	-53.1	-64.0	3.8	8.48e-01	0	43	104	2379218944	75	13564
2026-01-01 05:18:37.23	235.57	5.97	-53.0	-64.0	3.8	8.47e-01	0	44	104	2379218944	75	13450
2026-01-01 05:18:38.08	235.52	5.91	-53.0	-64.0	3.8	8.46e-01	0	43	104	2379218944	75	13525
2026-01-01 05:18:39.22	235.45	5.84	-53.0	-64.0	3.8	8.45e-01	0	44	104	2379218944	75	13428
2026-01-01 05:18:40.08	235.40	5.78	-53.0	-63.9	3.8	8.47e-01	0	44	104	2379218944	75	13403
2026-01-01 05:18:41.22	235.33	5.70	-53.0	-63.9	3.8	8.47e-01	0	44	104	2379218944	75	13374
2026-01-01 05:18:42.08	235.28	5.64	-53.0	-64.0	3.8	8.47e-01	0	44	104	2379218944	75	13426
2026-01-01 05:18:43.22	235.21	5.56	-53.0	-63.9	3.8	8.47e-01	0	44	104	2379218944	75	13392
