passes_logs/2026/01/01/T1/T1__20260101_050051_FENGYUN_3D_rec.log

#Pass ID: 20260101_050051_FENGYUN 3D
#Satellite: FENGYUN 3D
#Configuration: FENGYUN 3D
#almurnet v.1.7.20251203
#Start time: 2026-01-01 05:00:53

#Version: 2.0.20230620
#Station: T1
#Location: 37.570604 lon 55.790049 lat
#TLE: 1 43010U 17072A   25365.48527867  .00000101  00000+0  69745-4 0  9999
#TLE: 2 43010  98.9911 332.0787 0001837 134.4748 225.6578 14.19689788421190

#Time	Az	El	Level	Level2	SNR	BER	BlckErr	Temp	State	Recorded	gain1	gain2
2026-01-01 05:00:53.35	356.27	5.06	-52.3	-64.6	3.8	8.46e-01	0	39	0	0	75	15418
2026-01-01 05:00:54.35	356.13	5.09	-52.3	-64.6	3.8	8.47e-01	0	40	104	0	76	14541
2026-01-01 05:00:55.35	355.99	5.12	-52.3	-64.6	3.8	8.46e-01	0	40	104	0	76	14573
2026-01-01 05:00:56.36	355.85	5.15	-52.3	-64.6	3.8	8.49e-01	0	40	104	0	76	14557
2026-01-01 05:00:57.36	355.72	5.18	-52.4	-64.7	3.8	8.48e-01	0	40	104	0	76	14752
2026-01-01 05:00:58.37	355.58	5.21	-52.4	-64.6	3.8	8.48e-01	0	40	104	0	76	14659
2026-01-01 05:00:59.37	355.44	5.23	-52.4	-64.6	3.8	8.45e-01	0	40	104	0	76	14687
2026-01-01 05:01:00.37	355.30	5.26	-52.4	-64.7	3.8	8.47e-01	0	40	104	0	76	14745
2026-01-01 05:01:01.38	355.16	5.29	-52.4	-64.6	3.8	8.48e-01	0	40	104	0	76	14649
2026-01-01 05:01:02.38	355.02	5.32	-52.4	-64.6	3.8	8.48e-01	0	40	104	0	76	14636
2026-01-01 05:01:03.38	354.88	5.35	-52.4	-64.7	3.8	8.47e-01	0	40	104	0	76	14725
2026-01-01 05:01:04.39	354.74	5.38	-52.4	-64.6	3.8	8.47e-01	0	40	104	0	76	14647
2026-01-01 05:01:05.39	354.60	5.41	-52.4	-64.7	3.8	8.47e-01	0	40	104	0	76	14755
2026-01-01 05:01:06.40	354.45	5.44	-52.4	-64.7	3.8	8.47e-01	0	40	104	0	76	14752
2026-01-01 05:01:07.40	354.31	5.47	-52.4	-64.7	3.8	8.46e-01	0	40	104	0	76	14774
2026-01-01 05:01:08.41	354.17	5.49	-52.4	-64.7	3.8	8.48e-01	0	40	104	0	76	14797
2026-01-01 05:01:09.41	354.03	5.52	-52.4	-64.7	3.8	8.47e-01	0	40	104	0	76	14721
2026-01-01 05:01:10.42	353.89	5.55	-52.4	-64.6	3.8	8.46e-01	0	40	104	0	76	14691
2026-01-01 05:01:11.42	353.74	5.58	-52.4	-64.6	3.8	8.47e-01	0	40	104	0	76	14690
2026-01-01 05:01:12.42	353.60	5.61	-52.4	-64.6	3.8	8.46e-01	0	40	104	0	76	14646
2026-01-01 05:01:13.43	353.46	5.63	-52.3	-64.6	3.8	8.46e-01	0	40	104	0	76	14558
2026-01-01 05:01:14.43	353.31	5.66	-52.3	-64.6	3.8	8.48e-01	0	40	104	0	76	14601
2026-01-01 05:01:15.44	353.17	5.69	-52.4	-64.6	3.8	8.46e-01	0	41	104	0	76	14628
2026-01-01 05:01:16.44	353.03	5.71	-52.4	-64.6	3.8	8.47e-01	0	41	104	0	76	14653
2026-01-01 05:01:17.45	352.88	5.74	-52.4	-64.6	3.8	8.48e-01	0	41	104	0	76	14616
2026-01-01 05:01:18.45	352.74	5.77	-52.3	-64.5	3.8	8.47e-01	0	40	104	0	76	14504
2026-01-01 05:01:19.45	352.59	5.80	-52.4	-64.7	3.8	8.47e-01	0	41	104	0	76	14757
2026-01-01 05:01:20.46	352.45	5.82	-52.4	-64.7	3.8	8.47e-01	0	41	104	0	76	14727
2026-01-01 05:01:21.46	352.30	5.85	-52.4	-64.6	3.8	8.47e-01	0	41	104	0	76	14681
2026-01-01 05:01:22.47	352.15	5.88	-52.4	-64.6	3.8	8.47e-01	0	41	104	0	76	14668
2026-01-01 05:01:23.47	352.01	5.90	-52.4	-64.7	3.8	8.47e-01	0	41	104	0	76	14731
2026-01-01 05:01:24.47	351.86	5.93	-52.4	-64.6	3.8	8.47e-01	0	41	104	0	76	14668
2026-01-01 05:01:25.48	351.72	5.95	-52.4	-64.6	3.8	8.46e-01	0	41	104	0	76	14685
2026-01-01 05:01:26.48	351.57	5.98	-52.4	-64.6	3.8	8.47e-01	0	41	104	0	76	14662
2026-01-01 05:01:27.49	351.42	6.00	-52.4	-64.6	3.8	8.46e-01	0	41	104	0	76	14671
2026-01-01 05:01:28.49	351.28	6.03	-52.4	-64.6	3.8	8.47e-01	0	41	104	0	76	14698
2026-01-01 05:01:29.50	351.13	6.06	-52.4	-64.7	3.8	8.47e-01	0	41	104	0	76	14716
2026-01-01 05:01:30.50	350.98	6.08	-52.4	-64.6	3.8	8.47e-01	0	41	104	0	76	14660
2026-01-01 05:01:31.50	350.83	6.11	-52.4	-64.6	3.8	8.47e-01	0	41	104	0	76	14632
2026-01-01 05:01:32.51	350.68	6.13	-52.4	-64.6	3.8	8.46e-01	0	41	104	0	76	14608
2026-01-01 05:01:33.51	350.53	6.15	-52.3	-64.6	3.8	8.48e-01	0	41	104	0	76	14623
2026-01-01 05:01:34.52	350.38	6.18	-52.4	-64.6	3.8	8.47e-01	0	41	104	0	76	14635
2026-01-01 05:01:35.52	350.24	6.20	-52.3	-64.6	3.8	8.48e-01	0	41	104	0	76	14604
2026-01-01 05:01:36.52	350.09	6.23	-52.4	-64.6	3.8	8.47e-01	0	41	104	0	76	14590
2026-01-01 05:01:37.53	349.94	6.25	-52.4	-64.6	3.8	8.47e-01	0	41	104	0	76	14652
2026-01-01 05:01:38.53	349.79	6.28	-52.3	-64.6	3.8	8.47e-01	0	41	104	0	76	14555
2026-01-01 05:01:39.54	349.64	6.30	-52.3	-64.6	3.8	8.47e-01	0	41	104	0	76	14600
2026-01-01 05:01:40.62	349.47	6.32	-52.3	-64.6	3.8	8.48e-01	0	41	104	0	76	14614
2026-01-01 05:01:41.52	349.34	6.35	-52.3	-64.6	3.8	8.47e-01	0	41	104	0	76	14553
2026-01-01 05:01:42.55	349.18	6.37	-52.3	-64.5	3.8	8.47e-01	0	41	104	0	76	14523
2026-01-01 05:01:43.55	349.03	6.39	-52.4	-64.7	3.8	8.46e-01	0	41	104	0	76	14770
2026-01-01 05:01:44.55	348.88	6.42	-52.4	-64.6	3.8	8.47e-01	0	41	104	0	76	14661
2026-01-01 05:01:45.56	348.73	6.44	-52.4	-64.6	3.8	8.47e-01	0	41	104	0	76	14681
2026-01-01 05:01:46.56	348.58	6.46	-52.4	-64.6	3.8	8.45e-01	0	41	104	0	76	14663
2026-01-01 05:01:47.56	348.43	6.48	-52.4	-64.6	3.8	8.47e-01	0	41	104	0	76	14702
2026-01-01 05:01:48.57	348.27	6.51	-52.4	-64.6	3.8	8.47e-01	0	41	104	0	76	14674
2026-01-01 05:01:49.57	348.12	6.53	-52.4	-64.6	3.8	8.46e-01	0	41	104	0	76	14608
2026-01-01 05:01:50.58	347.97	6.55	-52.4	-64.6	3.8	8.47e-01	0	41	104	0	76	14637
2026-01-01 05:01:51.58	347.82	6.57	-52.4	-64.6	3.8	8.47e-01	0	41	104	0	76	14619
2026-01-01 05:01:52.58	347.66	6.59	-52.4	-64.6	3.8	8.47e-01	0	41	104	0	76	14636
2026-01-01 05:01:53.59	347.51	6.61	-52.3	-64.6	3.8	8.46e-01	0	42	104	0	76	14596
2026-01-01 05:01:54.64	347.35	6.64	-52.3	-64.6	3.8	8.47e-01	0	41	104	0	76	14604
2026-01-01 05:01:55.50	347.22	6.65	-52.3	-64.6	3.8	8.48e-01	0	41	104	0	76	14554
2026-01-01 05:01:56.65	347.04	6.68	-52.3	-64.6	3.8	8.47e-01	0	42	104	0	76	14581
2026-01-01 05:01:57.51	346.91	6.70	-52.4	-64.6	3.8	8.47e-01	0	41	104	0	76	14681
2026-01-01 05:01:58.66	346.73	6.72	-52.4	-64.6	3.8	8.47e-01	0	42	104	0	76	14640
2026-01-01 05:01:59.52	346.60	6.74	-52.4	-64.6	3.8	8.47e-01	0	41	104	0	76	14619
2026-01-01 05:02:00.66	346.42	6.76	-52.3	-64.6	3.8	8.46e-01	0	42	104	0	76	14622
2026-01-01 05:02:01.52	346.29	6.78	-52.3	-64.6	3.8	8.48e-01	0	42	104	0	76	14601
2026-01-01 05:02:02.67	346.11	6.80	-52.3	-64.6	3.8	8.48e-01	0	42	104	0	76	14561
2026-01-01 05:02:03.53	345.98	6.82	-52.3	-64.5	3.8	8.47e-01	0	42	104	0	76	14520
2026-01-01 05:02:04.68	345.80	6.84	-52.3	-64.5	3.8	8.47e-01	0	42	104	0	76	14520
2026-01-01 05:02:05.54	345.66	6.85	-52.4	-64.7	3.8	8.47e-01	0	42	104	0	76	14723
2026-01-01 05:02:06.77	345.47	6.88	-52.4	-64.6	3.8	8.47e-01	0	41	104	0	76	14689
2026-01-01 05:02:07.63	345.34	6.89	-52.4	-64.7	3.8	8.46e-01	0	42	104	0	76	14719
2026-01-01 05:02:08.78	345.16	6.91	-52.4	-64.6	3.8	8.47e-01	0	42	104	0	76	14652
2026-01-01 05:02:09.64	345.02	6.93	-52.4	-64.6	3.8	8.47e-01	0	42	104	0	76	14703
2026-01-01 05:02:10.79	344.84	6.95	-52.4	-64.6	3.8	8.45e-01	0	42	104	0	76	14647
2026-01-01 05:02:11.65	344.71	6.97	-52.4	-64.6	3.8	8.47e-01	0	42	104	0	76	14657
2026-01-01 05:02:12.80	344.53	6.99	-52.4	-64.6	3.8	8.47e-01	0	42	104	0	76	14661
2026-01-01 05:02:13.66	344.39	7.00	-52.4	-64.6	3.8	8.48e-01	0	42	104	0	76	14582
2026-01-01 05:02:14.81	344.21	7.02	-52.3	-64.6	3.8	8.47e-01	0	42	104	0	76	14600
2026-01-01 05:02:15.66	344.08	7.04	-52.3	-64.6	3.8	8.47e-01	0	42	104	0	76	14569
2026-01-01 05:02:16.81	343.90	7.06	-52.3	-64.6	3.8	8.47e-01	0	42	104	0	76	14597
2026-01-01 05:02:17.68	343.76	7.07	-52.3	-64.6	3.8	8.47e-01	0	42	104	0	76	14616
2026-01-01 05:02:18.82	343.58	7.09	-52.4	-64.6	3.8	8.48e-01	0	42	104	0	76	14639
2026-01-01 05:02:19.68	343.44	7.10	-52.4	-64.6	3.8	8.47e-01	0	42	104	0	76	14635
2026-01-01 05:02:20.83	343.26	7.12	-52.3	-64.6	3.8	8.46e-01	0	42	104	0	76	14626
2026-01-01 05:02:21.69	343.12	7.14	-52.3	-64.6	3.8	8.47e-01	0	42	104	0	76	14589
2026-01-01 05:02:22.84	342.94	7.16	-52.3	-64.6	3.8	8.47e-01	0	42	104	0	76	14559
2026-01-01 05:02:23.70	342.80	7.17	-52.5	-64.7	3.8	8.47e-01	0	42	104	0	76	14770
2026-01-01 05:02:24.85	342.62	7.19	-52.4	-64.7	3.8	8.47e-01	0	42	104	0	76	14716
2026-01-01 05:02:25.71	342.48	7.20	-52.4	-64.6	3.8	8.48e-01	0	42	104	0	76	14692
2026-01-01 05:02:26.86	342.30	7.22	-52.4	-64.6	3.8	8.47e-01	0	42	104	0	76	14705
2026-01-01 05:02:27.72	342.16	7.23	-52.4	-64.6	3.8	8.46e-01	0	42	104	0	76	14664
2026-01-01 05:02:28.86	341.98	7.25	-52.4	-64.6	3.8	8.47e-01	0	42	104	0	76	14678
2026-01-01 05:02:29.73	341.84	7.26	-52.4	-64.6	3.8	8.46e-01	0	42	104	0	76	14656
2026-01-01 05:02:30.87	341.66	7.28	-52.4	-64.6	3.8	8.47e-01	0	42	104	0	76	14640
2026-01-01 05:02:31.73	341.52	7.29	-52.4	-64.7	3.8	8.47e-01	0	42	104	0	76	14730
2026-01-01 05:02:32.88	341.34	7.30	-52.4	-64.6	3.8	8.48e-01	0	42	104	0	76	14661
2026-01-01 05:02:33.74	341.20	7.32	-52.4	-64.7	3.8	8.48e-01	0	42	104	0	76	14712
2026-01-01 05:02:34.89	341.01	7.33	-52.5	-64.8	3.8	8.49e-01	0	42	104	0	76	14913
2026-01-01 05:02:35.75	340.87	7.34	-52.5	-64.7	3.8	8.48e-01	0	42	104	0	76	14776
2026-01-01 05:02:36.90	340.69	7.36	-52.4	-64.7	3.8	8.47e-01	0	42	104	0	76	14757
2026-01-01 05:02:37.76	340.55	7.37	-52.4	-64.6	3.8	8.47e-01	0	42	104	0	76	14695
2026-01-01 05:02:38.91	340.36	7.38	-52.4	-64.7	3.8	8.47e-01	0	42	104	0	76	14729
2026-01-01 05:02:39.77	340.23	7.39	-52.4	-64.7	3.8	8.46e-01	0	42	104	0	76	14727
2026-01-01 05:02:40.91	340.04	7.41	-52.4	-64.7	3.8	8.46e-01	0	42	104	0	76	14714
2026-01-01 05:02:41.78	339.90	7.42	-52.4	-64.7	3.8	8.46e-01	0	42	104	0	76	14728
2026-01-01 05:02:42.92	339.72	7.43	-52.4	-64.7	3.8	8.48e-01	0	42	104	0	76	14719
2026-01-01 05:02:43.78	339.58	7.44	-52.4	-64.7	3.8	8.46e-01	0	42	104	0	76	14771
2026-01-01 05:02:44.93	339.39	7.45	-52.4	-64.7	3.8	8.47e-01	0	42	104	0	76	14715
2026-01-01 05:02:45.79	339.25	7.46	-52.4	-64.7	3.8	8.47e-01	0	42	104	0	76	14744
2026-01-01 05:02:46.94	339.06	7.48	-52.4	-64.6	3.8	8.48e-01	0	42	104	0	76	14699
2026-01-01 05:02:47.80	338.92	7.49	-52.4	-64.6	3.8	8.47e-01	0	42	104	0	76	14660
2026-01-01 05:02:48.95	338.74	7.50	-52.4	-64.6	3.8	8.46e-01	0	42	104	0	76	14641
2026-01-01 05:02:49.81	338.60	7.51	-52.4	-64.6	3.8	8.46e-01	0	42	104	0	76	14693
2026-01-01 05:02:50.96	338.41	7.52	-52.4	-64.6	3.8	8.47e-01	0	42	104	0	76	14642
2026-01-01 05:02:51.82	338.27	7.53	-52.4	-64.6	3.8	8.47e-01	0	42	104	0	76	14632
2026-01-01 05:02:52.97	338.08	7.54	-52.4	-64.6	3.8	8.48e-01	0	42	104	0	76	14630
2026-01-01 05:02:53.83	337.94	7.55	-52.5	-64.7	3.8	8.47e-01	0	42	104	0	76	14761
2026-01-01 05:02:54.97	337.75	7.56	-52.4	-64.7	3.8	8.46e-01	0	42	104	0	76	14747
2026-01-01 05:02:55.83	337.61	7.56	-52.4	-64.7	3.8	8.47e-01	0	42	104	0	76	14734
2026-01-01 05:02:56.98	337.42	7.57	-52.4	-64.6	3.8	8.47e-01	0	42	104	0	76	14694
2026-01-01 05:02:57.84	337.28	7.58	-52.4	-64.6	3.8	8.46e-01	0	42	104	0	76	14700
2026-01-01 05:02:58.99	337.09	7.59	-52.4	-64.6	3.8	8.47e-01	0	42	104	0	76	14699
2026-01-01 05:02:59.85	336.95	7.60	-52.4	-64.6	3.8	8.47e-01	0	42	104	0	76	14641
2026-01-01 05:03:01.00	336.76	7.61	-52.4	-64.6	3.8	8.47e-01	0	42	104	0	76	14683
2026-01-01 05:03:01.86	336.62	7.61	-52.4	-64.6	3.8	8.47e-01	0	42	104	0	76	14672
2026-01-01 05:03:03.01	336.43	7.62	-52.4	-64.7	3.8	8.47e-01	0	42	104	0	76	14738
2026-01-01 05:03:03.87	336.29	7.63	-52.5	-64.7	3.8	8.47e-01	0	42	104	0	76	14845
2026-01-01 05:03:05.02	336.10	7.64	-52.5	-64.7	3.8	8.46e-01	0	42	104	0	76	14829
2026-01-01 05:03:05.88	335.96	7.64	-52.5	-64.7	3.8	8.47e-01	0	42	104	0	76	14833
2026-01-01 05:03:07.02	335.77	7.65	-52.5	-64.7	3.8	8.47e-01	0	42	104	0	76	14797
2026-01-01 05:03:07.89	335.63	7.66	-52.5	-64.7	3.8	8.47e-01	0	42	104	0	76	14827
2026-01-01 05:03:09.03	335.44	7.66	-52.4	-64.7	3.8	8.46e-01	0	42	104	0	76	14790
2026-01-01 05:03:09.89	335.30	7.67	-52.5	-64.7	3.8	8.46e-01	0	42	104	0	76	14777
2026-01-01 05:03:11.04	335.11	7.67	-52.4	-64.7	3.8	8.47e-01	0	42	104	0	76	14723
2026-01-01 05:03:11.90	334.97	7.68	-52.5	-64.7	3.8	8.47e-01	0	42	104	0	76	14849
2026-01-01 05:03:13.05	334.78	7.69	-52.5	-64.8	3.8	8.46e-01	0	42	104	0	76	14885
2026-01-01 05:03:13.91	334.64	7.69	-52.5	-64.7	3.8	8.48e-01	0	42	104	0	76	14863
2026-01-01 05:03:15.06	334.45	7.70	-52.4	-64.7	3.8	8.46e-01	0	42	104	0	76	14803
2026-01-01 05:03:15.92	334.31	7.70	-52.6	-64.8	3.8	8.48e-01	0	42	104	0	76	14917
2026-01-01 05:03:17.07	334.12	7.70	-52.5	-64.8	3.8	8.47e-01	0	43	104	0	76	14894
2026-01-01 05:03:17.93	333.97	7.71	-52.5	-64.7	3.8	8.48e-01	0	43	104	0	76	14816
2026-01-01 05:03:19.07	333.79	7.71	-52.5	-64.7	3.8	8.46e-01	0	42	104	0	76	14773
2026-01-01 05:03:19.94	333.64	7.72	-52.4	-64.7	3.8	8.46e-01	0	42	104	0	76	14753
2026-01-01 05:03:21.08	333.45	7.72	-52.5	-64.7	3.8	8.48e-01	0	42	104	0	76	14812
2026-01-01 05:03:21.94	333.31	7.72	-52.4	-64.7	3.8	8.47e-01	0	42	104	0	76	14770
2026-01-01 05:03:23.09	333.12	7.73	-52.4	-64.7	3.8	8.46e-01	0	42	104	0	76	14747
2026-01-01 05:03:23.95	332.98	7.73	-52.4	-64.6	3.8	8.47e-01	0	42	104	0	76	14690
2026-01-01 05:03:25.10	332.79	7.73	-52.4	-64.7	3.8	8.47e-01	0	42	104	0	76	14754
2026-01-01 05:03:25.96	332.64	7.73	-52.4	-64.7	3.8	8.45e-01	0	42	104	0	76	14750
2026-01-01 05:03:27.11	332.45	7.74	-52.4	-64.6	3.8	8.47e-01	0	42	104	0	76	14647
2026-01-01 05:03:27.97	332.31	7.74	-52.5	-64.7	3.8	8.47e-01	0	42	104	0	76	14843
2026-01-01 05:03:29.12	332.12	7.74	-52.4	-64.6	3.8	8.46e-01	0	42	104	0	76	14696
2026-01-01 05:03:29.98	331.98	7.74	-52.4	-64.7	3.8	8.47e-01	0	42	104	0	76	14757
2026-01-01 05:03:31.13	331.79	7.74	-52.4	-64.6	3.8	8.47e-01	0	42	104	0	76	14678
2026-01-01 05:03:31.99	331.65	7.74	-52.4	-64.7	3.8	8.47e-01	0	42	104	0	76	14798
2026-01-01 05:03:33.14	331.45	7.74	-52.4	-64.6	3.8	8.46e-01	0	42	104	0	76	14672
2026-01-01 05:03:33.99	331.31	7.74	-52.4	-64.7	3.8	8.47e-01	0	42	104	0	76	14756
2026-01-01 05:03:35.14	331.12	7.74	-52.4	-64.7	3.8	8.47e-01	0	42	104	0	76	14721
2026-01-01 05:03:36.00	330.98	7.74	-52.4	-64.7	3.8	8.47e-01	0	43	104	0	76	14772
2026-01-01 05:03:37.15	330.79	7.74	-52.4	-64.6	3.8	8.47e-01	0	42	104	0	76	14707
2026-01-01 05:03:38.01	330.65	7.74	-52.4	-64.6	3.8	8.47e-01	0	43	104	0	76	14705
2026-01-01 05:03:39.16	330.46	7.74	-52.4	-64.7	3.8	8.47e-01	0	42	104	0	76	14714
2026-01-01 05:03:40.02	330.31	7.74	-52.5	-64.8	3.8	8.48e-01	0	43	104	0	76	14881
2026-01-01 05:03:41.17	330.12	7.74	-52.5	-64.7	3.8	8.46e-01	0	42	104	0	76	14796
2026-01-01 05:03:42.03	329.98	7.74	-52.5	-64.7	3.8	8.46e-01	0	42	104	0	76	14766
2026-01-01 05:03:43.17	329.79	7.74	-52.5	-64.7	3.8	8.47e-01	0	42	104	0	76	14781
2026-01-01 05:03:44.03	329.65	7.74	-52.4	-64.7	3.8	8.46e-01	0	42	104	0	76	14714
2026-01-01 05:03:45.18	329.46	7.73	-52.4	-64.7	3.8	8.46e-01	0	42	104	0	76	14758
2026-01-01 05:03:46.04	329.32	7.73	-52.4	-64.6	3.8	8.46e-01	0	42	104	0	76	14694
2026-01-01 05:03:47.19	329.13	7.73	-52.4	-64.7	3.8	8.46e-01	0	43	104	0	76	14760
2026-01-01 05:03:48.05	328.98	7.73	-52.4	-64.7	3.8	8.47e-01	0	42	104	0	76	14777
2026-01-01 05:03:49.20	328.79	7.72	-52.4	-64.7	3.8	8.47e-01	0	42	104	0	76	14723
2026-01-01 05:03:50.06	328.65	7.72	-52.4	-64.6	3.8	8.47e-01	0	42	104	0	76	14645
2026-01-01 05:03:51.21	328.46	7.72	-52.4	-64.6	3.8	8.47e-01	0	42	104	0	76	14698
2026-01-01 05:03:52.07	328.32	7.71	-52.4	-64.7	3.8	8.47e-01	0	42	104	0	76	14711
2026-01-01 05:03:53.22	328.13	7.71	-52.4	-64.6	3.8	8.47e-01	0	42	104	0	76	14702
2026-01-01 05:03:54.08	327.98	7.71	-52.4	-64.6	3.8	8.47e-01	0	42	104	0	76	14666
2026-01-01 05:03:55.23	327.79	7.70	-52.4	-64.6	3.8	8.47e-01	0	43	104	0	76	14645
2026-01-01 05:03:56.09	327.65	7.70	-52.4	-64.6	3.8	8.47e-01	0	42	104	0	76	14664
2026-01-01 05:03:57.24	327.46	7.69	-52.4	-64.6	3.8	8.47e-01	0	42	104	0	76	14643
2026-01-01 05:03:58.10	327.32	7.69	-52.5	-64.8	3.8	8.48e-01	0	43	104	0	76	14945
2026-01-01 05:03:59.24	327.13	7.68	-52.5	-64.7	3.8	8.47e-01	0	43	104	0	76	14804
2026-01-01 05:04:00.11	326.99	7.68	-52.4	-64.7	3.8	8.48e-01	0	42	104	0	76	14802
2026-01-01 05:04:01.25	326.80	7.67	-52.5	-64.7	3.8	8.48e-01	0	43	104	0	76	14786
2026-01-01 05:04:02.11	326.66	7.67	-52.5	-64.7	3.8	8.47e-01	0	42	104	0	76	14757
2026-01-01 05:04:03.26	326.47	7.66	-52.4	-64.6	3.8	8.46e-01	0	42	104	0	76	14706
2026-01-01 05:04:04.12	326.33	7.66	-52.4	-64.6	3.8	8.46e-01	0	43	104	0	76	14698
2026-01-01 05:04:05.27	326.14	7.65	-52.4	-64.7	3.8	8.47e-01	0	43	104	0	76	14726
2026-01-01 05:04:06.13	325.99	7.64	-52.4	-64.6	3.8	8.47e-01	0	43	104	0	76	14702
2026-01-01 05:04:07.28	325.81	7.63	-52.4	-64.6	3.8	8.46e-01	0	42	104	0	76	14658
2026-01-01 05:04:08.14	325.66	7.63	-52.5	-64.7	3.8	8.46e-01	0	42	104	0	76	14804
2026-01-01 05:04:09.29	325.47	7.62	-52.4	-64.7	3.8	8.48e-01	0	43	104	0	76	14711
2026-01-01 05:04:10.15	325.33	7.61	-52.4	-64.7	3.8	8.47e-01	0	42	104	0	76	14735
2026-01-01 05:04:11.29	325.15	7.60	-52.4	-64.6	3.8	8.47e-01	0	43	104	0	76	14628
2026-01-01 05:04:12.16	325.00	7.60	-52.4	-64.6	3.8	8.47e-01	0	42	104	0	76	14679
2026-01-01 05:04:13.30	324.82	7.59	-52.4	-64.6	3.8	8.46e-01	0	42	104	0	76	14676
2026-01-01 05:04:14.16	324.67	7.58	-52.4	-64.6	3.8	8.47e-01	0	42	104	0	76	14648
2026-01-01 05:04:15.30	324.49	7.57	-52.4	-64.6	3.8	8.47e-01	0	42	104	0	76	14687
2026-01-01 05:04:16.16	324.35	7.56	-52.4	-64.6	3.8	8.47e-01	0	43	104	0	76	14659
2026-01-01 05:04:17.31	324.16	7.55	-52.4	-64.6	3.8	8.46e-01	0	43	104	0	76	14632
2026-01-01 05:04:18.17	324.02	7.54	-52.4	-64.6	3.8	8.47e-01	0	42	104	0	76	14645
2026-01-01 05:04:19.32	323.83	7.53	-52.4	-64.6	3.8	8.46e-01	0	43	104	0	76	14661
2026-01-01 05:04:20.18	323.69	7.53	-52.3	-64.6	3.8	8.47e-01	0	43	104	0	76	14657
2026-01-01 05:04:21.33	323.50	7.51	-52.4	-64.6	3.8	8.47e-01	0	42	104	0	76	14621
2026-01-01 05:04:22.19	323.36	7.51	-52.4	-64.6	3.8	8.47e-01	0	43	104	0	76	14596
2026-01-01 05:04:23.34	323.17	7.49	-52.4	-64.6	3.8	8.46e-01	0	43	104	0	76	14631
2026-01-01 05:04:24.20	323.03	7.48	-52.4	-64.6	3.8	8.46e-01	0	42	104	0	76	14698
2026-01-01 05:04:25.35	322.85	7.47	-52.4	-64.6	3.8	8.46e-01	0	43	104	0	76	14672
2026-01-01 05:04:26.21	322.71	7.46	-52.4	-64.7	3.8	8.47e-01	0	43	104	0	76	14729
2026-01-01 05:04:27.36	322.52	7.45	-52.4	-64.7	3.8	8.46e-01	0	43	104	0	76	14728
2026-01-01 05:04:28.21	322.38	7.44	-52.3	-64.6	3.8	8.47e-01	0	43	104	0	76	14628
2026-01-01 05:04:29.36	322.19	7.43	-52.5	-64.7	3.8	8.47e-01	0	43	104	0	76	14760
2026-01-01 05:04:30.22	322.05	7.42	-52.4	-64.7	3.8	8.47e-01	0	43	104	0	76	14788
2026-01-01 05:04:31.37	321.87	7.40	-52.4	-64.7	3.8	8.47e-01	0	43	104	0	76	14747
2026-01-01 05:04:32.23	321.73	7.39	-52.4	-64.7	3.8	8.47e-01	0	42	104	0	76	14745
2026-01-01 05:04:33.38	321.54	7.38	-52.4	-64.7	3.8	8.46e-01	0	43	104	0	76	14753
2026-01-01 05:04:34.24	321.40	7.37	-52.4	-64.7	3.8	8.47e-01	0	43	104	0	76	14722
2026-01-01 05:04:35.39	321.22	7.35	-52.4	-64.7	3.8	8.47e-01	0	42	104	0	76	14724
2026-01-01 05:04:36.25	321.08	7.34	-52.4	-64.6	3.8	8.47e-01	0	43	104	0	76	14660
2026-01-01 05:04:37.40	320.89	7.33	-52.4	-64.7	3.8	8.47e-01	0	43	104	0	76	14712
2026-01-01 05:04:38.26	320.76	7.31	-52.4	-64.6	3.8	8.48e-01	0	43	104	0	76	14676
2026-01-01 05:04:39.41	320.57	7.30	-52.4	-64.6	3.8	8.46e-01	0	43	104	0	76	14674
2026-01-01 05:04:40.27	320.43	7.29	-52.4	-64.6	3.8	8.47e-01	0	43	104	0	76	14610
2026-01-01 05:04:41.41	320.25	7.27	-52.3	-64.6	3.8	8.48e-01	0	43	104	0	76	14636
2026-01-01 05:04:42.27	320.11	7.26	-52.3	-64.6	3.8	8.47e-01	0	43	104	0	76	14637
2026-01-01 05:04:43.42	319.93	7.24	-52.3	-64.6	3.8	8.47e-01	0	43	104	0	76	14611
2026-01-01 05:04:44.28	319.79	7.23	-52.5	-64.7	3.8	8.47e-01	0	43	104	0	76	14805
2026-01-01 05:04:45.43	319.60	7.21	-52.4	-64.7	3.8	8.46e-01	0	43	104	0	76	14757
2026-01-01 05:04:46.29	319.47	7.20	-52.4	-64.7	3.8	8.47e-01	0	42	104	0	76	14762
2026-01-01 05:04:47.44	319.28	7.18	-52.4	-64.6	3.8	8.46e-01	0	43	104	0	76	14667
2026-01-01 05:04:48.30	319.15	7.17	-52.4	-64.7	3.8	8.47e-01	0	43	104	0	76	14726
2026-01-01 05:04:49.45	318.96	7.15	-52.4	-64.7	3.8	8.46e-01	0	43	104	0	76	14709
2026-01-01 05:04:50.31	318.83	7.14	-52.4	-64.6	3.8	8.47e-01	0	43	104	0	76	14691
2026-01-01 05:04:51.46	318.64	7.12	-52.4	-64.6	3.8	8.47e-01	0	42	104	0	76	14708
2026-01-01 05:04:52.32	318.51	7.10	-52.4	-64.6	3.8	8.45e-01	0	43	104	0	76	14698
2026-01-01 05:04:53.47	318.32	7.08	-52.4	-64.6	3.8	8.47e-01	0	43	104	0	76	14693
2026-01-01 05:04:54.33	318.19	7.07	-52.4	-64.6	3.8	8.47e-01	0	43	104	0	76	14655
2026-01-01 05:04:55.47	318.01	7.05	-52.4	-64.6	3.8	8.48e-01	0	43	104	0	76	14635
2026-01-01 05:04:56.34	317.87	7.04	-52.4	-64.6	3.8	8.47e-01	0	43	104	0	76	14611
2026-01-01 05:04:57.48	317.69	7.02	-52.3	-64.6	3.8	8.47e-01	0	43	104	0	76	14568
2026-01-01 05:04:58.34	317.55	7.00	-52.4	-64.6	3.8	8.47e-01	0	43	104	0	76	14672
2026-01-01 05:04:59.49	317.37	6.98	-52.4	-64.6	3.8	8.48e-01	0	43	104	0	76	14634
2026-01-01 05:05:00.35	317.24	6.97	-52.4	-64.6	3.8	8.46e-01	0	43	104	0	76	14615
2026-01-01 05:05:01.50	317.06	6.94	-52.3	-64.6	3.8	8.46e-01	0	43	104	0	76	14563
2026-01-01 05:05:02.36	316.92	6.93	-52.5	-64.7	3.8	8.47e-01	0	43	104	0	76	14829
2026-01-01 05:05:03.51	316.74	6.91	-52.4	-64.7	3.8	8.47e-01	0	43	104	0	76	14727
2026-01-01 05:05:04.37	316.61	6.89	-52.4	-64.6	3.8	8.47e-01	0	43	104	0	76	14698
2026-01-01 05:05:05.52	316.43	6.87	-52.4	-64.6	3.8	8.47e-01	0	43	104	0	76	14706
2026-01-01 05:05:06.38	316.29	6.85	-52.4	-64.7	3.8	8.48e-01	0	43	104	0	76	14709
2026-01-01 05:05:07.53	316.11	6.83	-52.4	-64.6	3.8	8.47e-01	0	43	104	0	76	14652
2026-01-01 05:05:08.39	315.98	6.81	-52.4	-64.6	3.8	8.47e-01	0	43	104	0	76	14620
2026-01-01 05:05:09.54	315.80	6.79	-52.4	-64.6	3.8	8.46e-01	0	43	104	0	76	14698
2026-01-01 05:05:10.40	315.67	6.78	-52.4	-64.6	3.8	8.47e-01	0	43	104	0	76	14695
2026-01-01 05:05:11.55	315.49	6.75	-52.4	-64.6	3.8	8.47e-01	0	42	104	0	76	14612
2026-01-01 05:05:12.41	315.36	6.74	-52.4	-64.6	3.8	8.47e-01	0	43	104	0	76	14646
2026-01-01 05:05:13.55	315.18	6.71	-52.4	-64.6	3.8	8.47e-01	0	43	104	0	76	14648
2026-01-01 05:05:14.41	315.05	6.69	-52.4	-64.6	3.8	8.47e-01	0	43	104	0	76	14603
2026-01-01 05:05:15.56	314.87	6.67	-52.4	-64.6	3.8	8.46e-01	0	43	104	0	76	14667
2026-01-01 05:05:16.42	314.74	6.65	-52.3	-64.6	3.8	8.48e-01	0	43	104	0	76	14608
2026-01-01 05:05:17.57	314.56	6.63	-52.3	-64.6	3.8	8.48e-01	0	43	104	0	76	14567
2026-01-01 05:05:18.43	314.43	6.61	-52.3	-64.6	3.8	8.47e-01	0	43	104	0	76	14577
2026-01-01 05:05:19.58	314.25	6.59	-52.5	-64.7	3.8	8.47e-01	0	43	104	0	76	14810
2026-01-01 05:05:20.44	314.12	6.57	-52.4	-64.7	3.8	8.48e-01	0	42	104	0	76	14744
2026-01-01 05:05:21.59	313.95	6.54	-52.4	-64.6	3.8	8.47e-01	0	43	104	0	76	14636
2026-01-01 05:05:22.45	313.82	6.52	-52.4	-64.6	3.8	8.47e-01	0	43	104	0	76	14706
2026-01-01 05:05:23.60	313.64	6.50	-52.4	-64.6	3.8	8.47e-01	0	43	104	0	76	14686
2026-01-01 05:05:24.46	313.51	6.48	-52.4	-64.6	3.8	8.46e-01	0	43	104	0	76	14661
2026-01-01 05:05:25.60	313.34	6.45	-52.4	-64.6	3.8	8.46e-01	0	43	104	0	76	14605
2026-01-01 05:05:26.46	313.21	6.43	-52.3	-64.6	3.8	8.46e-01	0	43	104	0	76	14624
2026-01-01 05:05:27.61	313.03	6.41	-52.4	-64.6	3.8	8.47e-01	0	43	104	0	76	14659
2026-01-01 05:05:28.47	312.90	6.39	-52.4	-64.6	3.8	8.47e-01	0	43	104	0	76	14634
2026-01-01 05:05:29.62	312.73	6.36	-52.3	-64.6	3.8	8.47e-01	0	43	104	0	76	14609
2026-01-01 05:05:30.48	312.60	6.34	-52.3	-64.6	3.8	8.45e-01	0	43	104	0	76	14588
2026-01-01 05:05:31.63	312.43	6.32	-52.3	-64.6	3.8	8.48e-01	0	43	104	0	76	14585
2026-01-01 05:05:32.49	312.30	6.30	-52.4	-64.6	3.8	8.46e-01	0	43	104	0	76	14658
2026-01-01 05:05:33.64	312.12	6.27	-52.4	-64.7	3.8	8.47e-01	0	43	104	0	76	14754
2026-01-01 05:05:34.50	311.99	6.25	-52.4	-64.6	3.8	8.45e-01	0	43	104	0	76	14664
2026-01-01 05:05:35.64	311.82	6.22	-52.4	-64.6	3.8	8.48e-01	0	43	104	0	76	14614
2026-01-01 05:05:36.51	311.69	6.20	-52.3	-64.6	3.8	8.47e-01	0	43	104	0	76	14612
2026-01-01 05:05:37.65	311.53	6.17	-52.3	-64.6	3.8	8.46e-01	0	43	104	0	76	14618
2026-01-01 05:05:38.52	311.40	6.15	-52.3	-64.6	3.8	8.47e-01	0	43	104	0	76	14641
2026-01-01 05:05:39.66	311.23	6.12	-52.4	-64.6	3.8	8.47e-01	0	43	104	0	76	14589
2026-01-01 05:05:40.52	311.10	6.10	-52.4	-64.6	3.8	8.47e-01	0	43	104	0	76	14556
2026-01-01 05:05:41.67	310.93	6.07	-52.4	-64.6	3.8	8.47e-01	0	43	104	0	76	14659
2026-01-01 05:05:42.53	310.80	6.05	-52.4	-64.6	3.8	8.47e-01	0	43	104	0	76	14624
2026-01-01 05:05:43.68	310.63	6.02	-52.3	-64.5	3.8	8.47e-01	0	43	104	0	76	14527
2026-01-01 05:05:44.54	310.51	6.00	-52.4	-64.7	3.8	8.48e-01	0	43	104	0	76	14779
2026-01-01 05:05:45.69	310.34	5.97	-52.4	-64.7	3.8	8.47e-01	0	43	104	0	76	14712
2026-01-01 05:05:46.55	310.21	5.95	-52.4	-64.6	3.8	8.47e-01	0	43	104	0	76	14693
2026-01-01 05:05:47.70	310.04	5.92	-52.4	-64.6	3.8	8.46e-01	0	43	104	0	76	14622
2026-01-01 05:05:48.56	309.92	5.90	-52.4	-64.6	3.8	8.47e-01	0	43	104	0	76	14602
2026-01-01 05:05:49.71	309.75	5.87	-52.3	-64.5	3.8	8.46e-01	0	43	104	0	76	14493
2026-01-01 05:05:50.57	309.62	5.84	-52.4	-64.6	3.8	8.46e-01	0	43	104	0	76	14652
2026-01-01 05:05:51.72	309.46	5.81	-52.3	-64.6	3.8	8.47e-01	0	43	104	0	76	14575
2026-01-01 05:05:52.58	309.33	5.79	-52.4	-64.6	3.8	8.46e-01	0	43	104	0	76	14651
2026-01-01 05:05:53.73	309.17	5.76	-52.4	-64.6	3.8	8.46e-01	0	43	104	0	76	14613
2026-01-01 05:05:54.59	309.04	5.74	-52.4	-64.6	3.8	8.47e-01	0	43	104	0	76	14616
2026-01-01 05:05:55.80	308.87	5.70	-52.3	-64.6	3.8	8.47e-01	0	43	104	0	76	14542
2026-01-01 05:05:56.66	308.74	5.68	-52.4	-64.6	3.8	8.47e-01	0	43	104	0	76	14579
2026-01-01 05:05:57.81	308.58	5.65	-52.3	-64.6	3.8	8.48e-01	0	43	104	0	76	14595
2026-01-01 05:05:58.66	308.46	5.63	-52.4	-64.6	3.8	8.46e-01	0	43	104	0	76	14612
2026-01-01 05:05:59.81	308.29	5.60	-52.4	-64.7	3.8	8.46e-01	0	43	104	0	76	14772
2026-01-01 05:06:00.67	308.17	5.57	-52.4	-64.7	3.8	8.46e-01	0	43	104	0	76	14760
2026-01-01 05:06:01.82	308.00	5.54	-52.4	-64.7	3.8	8.47e-01	0	43	104	0	76	14717
2026-01-01 05:06:02.68	307.88	5.52	-52.4	-64.7	3.8	8.47e-01	0	43	104	0	76	14716
2026-01-01 05:06:03.83	307.72	5.48	-52.4	-64.7	3.8	8.47e-01	0	43	104	0	76	14725
2026-01-01 05:06:04.69	307.60	5.46	-52.4	-64.7	3.8	8.47e-01	0	43	104	0	76	14729
2026-01-01 05:06:05.84	307.43	5.43	-52.3	-64.5	3.8	8.47e-01	0	43	104	0	76	14473
2026-01-01 05:06:06.70	307.31	5.40	-52.4	-64.6	3.8	8.47e-01	0	43	104	0	76	14668
2026-01-01 05:06:07.85	307.15	5.37	-52.4	-64.7	3.8	8.46e-01	0	43	104	0	76	14716
2026-01-01 05:06:08.71	307.03	5.34	-52.4	-64.6	3.8	8.48e-01	0	43	104	0	76	14615
2026-01-01 05:06:09.86	306.87	5.31	-52.2	-64.5	3.8	8.47e-01	0	43	104	0	76	14377
2026-01-01 05:06:10.72	306.75	5.29	-52.3	-64.5	3.8	8.46e-01	0	43	104	0	76	14515
2026-01-01 05:06:11.86	306.59	5.25	-52.4	-64.7	3.8	8.47e-01	0	43	104	0	76	14734
2026-01-01 05:06:12.72	306.47	5.23	-52.4	-64.7	3.8	8.47e-01	0	43	104	0	76	14750
2026-01-01 05:06:13.87	306.31	5.19	-52.4	-64.6	3.8	8.47e-01	0	43	104	0	76	14697
2026-01-01 05:06:14.73	306.19	5.17	-52.4	-64.7	3.8	8.47e-01	0	43	104	0	76	14727
2026-01-01 05:06:15.88	306.03	5.13	-52.2	-64.5	3.8	8.47e-01	0	43	104	0	76	14396
2026-01-01 05:06:16.74	305.91	5.11	-52.2	-64.4	3.8	8.47e-01	0	43	104	0	76	14336
2026-01-01 05:06:17.89	305.75	5.07	-52.2	-64.4	3.8	8.47e-01	0	43	104	0	76	14358
2026-01-01 05:06:18.75	305.63	5.05	-52.2	-64.5	3.8	8.47e-01	0	43	104	0	76	14386
2026-01-01 05:06:19.90	305.48	5.01	-52.2	-64.4	3.8	8.46e-01	0	43	104	0	76	14352
2026-01-01 05:06:20.76	305.36	4.99	-52.2	-64.4	3.8	8.47e-01	0	43	104	0	76	14342

#Closed at: 2026-01-01 05:06:21
#Recorded file [0 MB]: D:/Data/31040_260101_080053.dat