passes_logs/2026/01/01/T1/T1__20260101_131727_FENGYUN_3E_rec.log

#Pass ID: 20260101_131727_FENGYUN 3E
#Satellite: FENGYUN 3E
#Configuration: FENGYUN 3E
#almurnet v.1.7.20251203
#Start time: 2026-01-01 13:17:29

#Version: 2.0.20230620
#Station: T1
#Location: 37.570604 lon 55.790049 lat
#TLE: 1 49008U 21062A   25365.98258168  .00000149  00000+0  90987-4 0  9990
#TLE: 2 49008  98.7481   6.2763 0001360 169.3782 190.7423 14.19883270232859

#Time	Az	El	Level	Level2	SNR	BER	BlckErr	Temp	State	Recorded	gain1	gain2
2026-01-01 13:17:29.19	131.48	5.12	-53.1	-63.7	3.8	8.47e-01	0	40	0	0	76	12244
2026-01-01 13:17:30.19	131.43	5.19	-53.1	-63.7	3.8	8.47e-01	0	40	104	0	76	12290
2026-01-01 13:17:31.19	131.38	5.26	-53.1	-63.7	3.8	8.47e-01	0	40	104	0	76	12242
2026-01-01 13:17:32.20	131.34	5.33	-53.1	-63.6	3.8	8.47e-01	0	40	104	0	76	12209
2026-01-01 13:17:33.20	131.29	5.40	-53.1	-63.8	3.8	8.47e-01	0	40	104	0	76	12437
2026-01-01 13:17:34.20	131.24	5.47	-53.1	-63.8	3.8	8.47e-01	0	40	104	0	76	12408
2026-01-01 13:17:35.21	131.19	5.54	-53.1	-63.9	3.8	8.46e-01	0	41	104	0	76	12554
2026-01-01 13:17:36.21	131.14	5.61	-53.1	-63.9	3.8	8.47e-01	0	40	104	0	76	12576
2026-01-01 13:17:37.21	131.09	5.68	-53.1	-63.9	3.8	8.47e-01	0	41	104	0	76	12642
2026-01-01 13:17:38.22	131.04	5.75	-53.1	-63.9	3.8	8.47e-01	0	41	104	0	76	12575
2026-01-01 13:17:39.22	130.99	5.82	-53.1	-63.8	3.8	8.47e-01	0	41	104	0	76	12433
2026-01-01 13:17:40.22	130.94	5.89	-53.1	-63.7	3.8	8.46e-01	0	40	104	0	76	12298
2026-01-01 13:17:41.23	130.89	5.96	-53.0	-63.5	3.8	8.47e-01	0	41	104	0	76	12016
2026-01-01 13:17:42.23	130.84	6.03	-53.0	-63.4	3.8	8.47e-01	0	41	104	0	76	11880
2026-01-01 13:17:43.23	130.79	6.10	-53.0	-63.3	3.8	8.47e-01	0	41	104	0	76	11686
2026-01-01 13:17:44.24	130.74	6.17	-53.0	-63.1	3.8	8.46e-01	0	41	104	0	76	11524
2026-01-01 13:17:45.24	130.69	6.24	-53.0	-63.1	3.8	8.47e-01	0	41	104	0	76	11498
2026-01-01 13:17:46.24	130.64	6.31	-53.0	-63.1	3.8	8.47e-01	0	41	104	0	76	11430
2026-01-01 13:17:47.25	130.58	6.38	-53.0	-63.2	3.8	8.46e-01	0	41	104	0	76	11561
2026-01-01 13:17:48.25	130.53	6.46	-53.0	-63.3	3.8	8.48e-01	0	41	104	0	76	11703
2026-01-01 13:17:49.25	130.48	6.53	-53.1	-63.4	3.8	8.47e-01	0	41	104	0	76	11869
2026-01-01 13:17:50.26	130.43	6.60	-53.0	-63.5	3.8	8.48e-01	0	41	104	0	76	11993
2026-01-01 13:17:51.26	130.37	6.67	-53.0	-63.3	3.8	8.47e-01	0	41	104	0	76	11768
2026-01-01 13:17:52.26	130.32	6.75	-53.0	-63.1	3.8	8.46e-01	0	41	104	0	76	11531
2026-01-01 13:17:53.27	130.27	6.82	-52.9	-62.8	3.8	8.46e-01	0	41	104	0	76	11074
2026-01-01 13:17:54.27	130.21	6.89	-53.0	-62.5	3.8	8.46e-01	0	41	104	0	76	10742
2026-01-01 13:17:55.28	130.16	6.96	-52.9	-61.8	3.9	8.46e-01	0	41	104	0	76	9886
2026-01-01 13:17:56.28	130.10	7.04	-52.7	-61.3	3.9	8.44e-01	0	41	104	0	76	9291
2026-01-01 13:17:57.28	130.05	7.11	-52.6	-60.5	4.2	8.39e-01	0	41	0	0	76	8522
2026-01-01 13:17:58.29	129.99	7.18	-52.4	-59.6	4.4	8.31e-01	0	41	0	0	75	8126
2026-01-01 13:17:59.29	129.94	7.26	-52.1	-58.6	4.9	7.97e-01	0	41	0	0	75	7224
2026-01-01 13:18:00.30	129.88	7.33	-51.8	-57.4	5.6	7.18e-01	0	41	0	0	74	6657
2026-01-01 13:18:01.30	129.83	7.41	-51.2	-55.8	6.9	2.18e-01	0	41	0	6291456	73	5876
2026-01-01 13:18:02.30	129.77	7.48	-50.6	-54.5	8.1	7.78e-02	0	41	0	13631488	71	5683
2026-01-01 13:18:03.30	129.72	7.56	-49.8	-53.1	9.5	2.14e-02	0	42	0	20971520	70	5150
2026-01-01 13:18:04.31	129.66	7.63	-48.9	-51.6	11.0	2.33e-03	0	42	0	28311552	68	4862
2026-01-01 13:18:05.31	129.60	7.71	-47.8	-50.3	12.3	2.89e-04	0	41	0	35651584	66	4661
2026-01-01 13:18:06.32	129.54	7.78	-47.0	-49.2	13.5	2.97e-05	0	42	0	41943040	64	4599
2026-01-01 13:18:07.32	129.49	7.86	-46.2	-48.2	14.5	0.00e+00	0	42	0	49283072	63	4373
2026-01-01 13:18:08.33	129.43	7.93	-45.6	-47.4	15.2	0.00e+00	0	42	0	56623104	62	4239
2026-01-01 13:18:09.33	129.37	8.01	-45.0	-46.8	15.8	0.00e+00	0	42	0	63963136	60	4409
2026-01-01 13:18:10.33	129.31	8.08	-44.7	-46.4	16.1	0.00e+00	0	42	0	71303168	60	4239
2026-01-01 13:18:11.34	129.25	8.16	-44.5	-46.2	16.3	0.00e+00	0	41	0	78643200	59	4356
2026-01-01 13:18:12.34	129.19	8.24	-44.6	-46.2	16.2	0.00e+00	0	42	0	85983232	59	4391
2026-01-01 13:18:13.34	129.13	8.31	-44.8	-46.5	16.0	0.00e+00	0	42	0	93323264	59	4505
2026-01-01 13:18:14.34	129.07	8.39	-45.2	-47.0	15.4	0.00e+00	0	42	0	100663296	59	4793
2026-01-01 13:18:15.35	129.01	8.47	-46.0	-48.0	14.8	0.00e+00	0	42	0	108003328	61	4765
2026-01-01 13:18:16.35	128.95	8.54	-46.9	-49.1	13.6	1.10e-06	0	42	0	115343360	63	4845
2026-01-01 13:18:17.35	128.89	8.62	-47.9	-50.4	12.2	6.29e-05	0	42	0	122683392	65	5033
2026-01-01 13:18:18.35	128.83	8.70	-49.0	-52.0	10.6	1.87e-03	0	42	0	128974848	67	5356
2026-01-01 13:18:19.36	128.77	8.78	-50.5	-54.4	8.3	2.59e-02	0	42	0	136314880	70	5931
2026-01-01 13:18:20.36	128.71	8.85	-51.6	-56.8	6.1	2.63e-01	0	42	0	143654912	72	7039
2026-01-01 13:18:21.37	128.64	8.93	-52.5	-59.7	4.4	8.02e-01	0	42	0	145752064	74	8671
2026-01-01 13:18:22.37	128.58	9.01	-52.8	-61.8	3.8	8.42e-01	0	42	104	145752064	75	10468
2026-01-01 13:18:23.38	128.52	9.09	-52.7	-61.0	3.9	8.47e-01	0	42	104	145752064	75	9515
2026-01-01 13:18:24.37	128.46	9.17	-49.1	-52.1	10.8	1.67e-03	0	42	0	149946368	68	5112
2026-01-01 13:18:25.38	128.39	9.25	-51.9	-57.6	5.7	1.25e-01	0	42	0	156237824	73	7240
2026-01-01 13:18:26.37	128.33	9.33	-52.8	-61.9	3.9	8.47e-01	0	42	104	156237824	75	10593
2026-01-01 13:18:27.37	128.26	9.41	-49.6	-52.9	10.0	3.15e-03	0	42	0	157286400	69	5308
2026-01-01 13:18:28.37	128.20	9.49	-51.0	-55.6	7.0	3.06e-01	0	42	0	164626432	72	6121
2026-01-01 13:18:29.37	128.13	9.57	-49.2	-52.1	10.8	3.14e-03	0	42	0	171966464	68	5135
2026-01-01 13:18:30.37	128.07	9.65	-47.9	-50.4	12.4	1.83e-04	0	42	0	179306496	66	4733
2026-01-01 13:18:31.37	128.00	9.73	-46.7	-48.9	14.0	9.10e-06	0	42	0	186646528	64	4448
2026-01-01 13:18:32.37	127.94	9.81	-46.2	-48.2	14.7	0.00e+00	0	42	0	193986560	63	4361
2026-01-01 13:18:33.37	127.87	9.89	-46.2	-48.2	14.7	1.10e-06	0	42	0	200278016	62	4615
2026-01-01 13:18:34.36	127.81	9.97	-45.7	-47.6	15.3	0.00e+00	0	42	0	207618048	62	4336
2026-01-01 13:18:35.36	127.74	10.05	-45.7	-47.6	15.3	0.00e+00	0	42	0	214958080	62	4300
2026-01-01 13:18:36.36	127.67	10.13	-45.2	-47.1	15.8	0.00e+00	0	42	0	222298112	61	4304
2026-01-01 13:18:37.36	127.60	10.21	-45.6	-47.5	15.5	0.00e+00	0	42	0	229638144	61	4507
2026-01-01 13:18:38.36	127.53	10.29	-45.2	-47.0	15.9	0.00e+00	0	42	0	236978176	61	4278
2026-01-01 13:18:39.36	127.47	10.37	-44.6	-46.4	16.5	0.00e+00	0	42	0	244318208	60	4202
2026-01-01 13:18:40.36	127.40	10.46	-44.2	-45.9	16.8	0.00e+00	0	42	0	251658240	59	4201
2026-01-01 13:18:41.36	127.33	10.54	-44.1	-45.7	17.0	0.00e+00	0	42	0	258998272	59	4141
2026-01-01 13:18:42.36	127.26	10.62	-44.0	-45.6	17.1	0.00e+00	0	42	0	265289728	58	4331
2026-01-01 13:18:43.36	127.19	10.70	-43.8	-45.3	17.4	0.00e+00	0	42	0	272629760	57	4423
2026-01-01 13:18:44.36	127.12	10.79	-43.8	-45.3	17.4	0.00e+00	0	42	0	279969792	57	4417
2026-01-01 13:18:45.35	127.04	10.87	-43.7	-45.2	17.5	0.00e+00	0	42	0	287309824	57	4371
2026-01-01 13:18:46.35	126.97	10.95	-43.6	-45.1	17.5	0.00e+00	0	42	0	294649856	57	4313
2026-01-01 13:18:47.35	126.90	11.04	-43.6	-45.1	17.5	0.00e+00	0	42	0	301989888	57	4330
2026-01-01 13:18:48.35	126.83	11.12	-43.5	-45.0	17.5	0.00e+00	0	42	0	309329920	57	4291
2026-01-01 13:18:49.35	126.76	11.21	-43.6	-45.2	17.4	0.00e+00	0	42	0	316669952	57	4372
2026-01-01 13:18:50.35	126.68	11.29	-43.6	-45.2	17.4	0.00e+00	0	42	0	322961408	57	4352
2026-01-01 13:18:51.35	126.61	11.38	-43.6	-45.2	17.5	0.00e+00	0	42	0	330301440	57	4368
2026-01-01 13:18:52.35	126.53	11.46	-43.5	-45.1	17.6	0.00e+00	0	42	0	337641472	57	4315
2026-01-01 13:18:53.35	126.46	11.55	-43.5	-45.1	17.6	0.00e+00	0	42	0	344981504	57	4302
2026-01-01 13:18:54.35	126.38	11.63	-43.5	-45.0	17.6	0.00e+00	0	42	0	352321536	57	4290
2026-01-01 13:18:55.35	126.31	11.72	-43.4	-45.0	17.6	0.00e+00	0	42	0	359661568	57	4250
2026-01-01 13:18:56.35	126.23	11.80	-43.4	-45.0	17.6	0.00e+00	0	42	0	367001600	57	4266
2026-01-01 13:18:57.35	126.16	11.89	-43.4	-44.9	17.7	0.00e+00	0	42	0	374341632	57	4239
2026-01-01 13:18:58.35	126.08	11.98	-43.5	-45.1	17.5	0.00e+00	0	42	0	381681664	57	4324
2026-01-01 13:18:59.35	126.00	12.06	-43.3	-44.9	17.7	0.00e+00	0	42	0	387973120	57	4198
2026-01-01 13:19:00.35	125.92	12.15	-43.4	-44.9	17.7	0.00e+00	0	43	0	395313152	57	4223
2026-01-01 13:19:01.34	125.85	12.24	-43.3	-44.9	17.7	0.00e+00	0	43	0	402653184	57	4222
2026-01-01 13:19:02.35	125.77	12.32	-43.3	-44.9	17.8	0.00e+00	0	42	0	409993216	57	4217
2026-01-01 13:19:03.35	125.69	12.41	-43.3	-44.9	17.7	0.00e+00	0	42	0	417333248	57	4215
2026-01-01 13:19:04.34	125.61	12.50	-43.3	-44.8	17.8	0.00e+00	0	43	0	424673280	56	4438
2026-01-01 13:19:05.34	125.53	12.59	-43.3	-44.8	17.8	0.00e+00	0	43	0	432013312	56	4433
2026-01-01 13:19:06.34	125.45	12.68	-43.2	-44.8	17.8	0.00e+00	0	42	0	438304768	56	4394
2026-01-01 13:19:07.34	125.37	12.77	-43.2	-44.7	17.9	0.00e+00	0	42	0	445644800	56	4359
2026-01-01 13:19:08.33	125.29	12.85	-43.2	-44.8	17.8	0.00e+00	0	42	0	452984832	56	4399
2026-01-01 13:19:09.33	125.20	12.94	-43.2	-44.7	17.8	0.00e+00	0	42	0	460324864	56	4360
2026-01-01 13:19:10.32	125.12	13.03	-43.3	-44.8	17.7	0.00e+00	0	43	0	467664896	56	4416
2026-01-01 13:19:11.32	125.04	13.12	-43.3	-44.8	17.8	0.00e+00	0	43	0	475004928	56	4412
2026-01-01 13:19:12.32	124.95	13.21	-43.2	-44.8	17.9	0.00e+00	0	42	0	482344960	56	4392
2026-01-01 13:19:13.32	124.87	13.30	-43.0	-44.5	18.1	0.00e+00	0	42	0	488636416	56	4268
2026-01-01 13:19:14.32	124.78	13.39	-42.7	-44.2	18.4	0.00e+00	0	42	0	495976448	56	4123
2026-01-01 13:19:15.31	124.70	13.48	-42.9	-44.4	18.1	0.00e+00	0	42	0	503316480	56	4211
2026-01-01 13:19:16.31	124.61	13.58	-42.8	-44.3	18.2	0.00e+00	0	42	0	510656512	56	4166
2026-01-01 13:19:17.31	124.53	13.67	-42.8	-44.2	18.2	0.00e+00	0	42	0	517996544	56	4139
2026-01-01 13:19:18.31	124.44	13.76	-42.7	-44.2	18.3	0.00e+00	0	42	0	525336576	56	4121
2026-01-01 13:19:19.32	124.35	13.85	-42.7	-44.1	18.3	0.00e+00	0	43	0	532676608	56	4095
2026-01-01 13:19:20.32	124.26	13.95	-42.5	-44.0	18.3	0.00e+00	0	42	0	540016640	55	4275
2026-01-01 13:19:21.32	124.17	14.04	-42.4	-43.9	18.4	0.00e+00	0	43	0	547356672	55	4202
2026-01-01 13:19:22.32	124.09	14.13	-42.5	-43.9	18.4	0.00e+00	0	43	0	553648128	55	4229
2026-01-01 13:19:23.31	124.00	14.22	-42.5	-44.0	18.4	0.00e+00	0	43	0	560988160	55	4248
2026-01-01 13:19:24.31	123.91	14.32	-42.4	-43.9	18.4	0.00e+00	0	42	0	568328192	55	4218
2026-01-01 13:19:25.30	123.82	14.41	-42.5	-43.9	18.4	0.00e+00	0	42	0	575668224	55	4230
2026-01-01 13:19:26.30	123.72	14.50	-42.4	-43.8	18.5	0.00e+00	0	43	0	583008256	55	4175
2026-01-01 13:19:27.30	123.63	14.60	-42.5	-44.0	18.4	0.00e+00	0	43	0	590348288	55	4247
2026-01-01 13:19:28.30	123.54	14.69	-42.6	-44.0	18.3	0.00e+00	0	43	0	597688320	55	4288
2026-01-01 13:19:29.30	123.45	14.79	-42.5	-44.0	18.4	0.00e+00	0	42	0	605028352	55	4269
2026-01-01 13:19:30.30	123.35	14.88	-42.5	-44.0	18.4	0.00e+00	0	43	0	612368384	55	4259
2026-01-01 13:19:31.30	123.26	14.98	-42.5	-43.9	18.4	0.00e+00	0	43	0	618659840	55	4237
2026-01-01 13:19:32.30	123.16	15.08	-42.4	-43.8	18.5	0.00e+00	0	42	0	625999872	55	4193
2026-01-01 13:19:33.30	123.06	15.17	-42.2	-43.6	18.6	0.00e+00	0	43	0	633339904	55	4083
2026-01-01 13:19:34.30	122.97	15.27	-42.2	-43.6	18.6	0.00e+00	0	42	0	640679936	55	4083
2026-01-01 13:19:35.30	122.87	15.37	-42.2	-43.6	18.6	0.00e+00	0	43	0	648019968	54	4334
2026-01-01 13:19:36.30	122.77	15.46	-42.0	-43.5	18.8	0.00e+00	0	43	0	655360000	54	4249
2026-01-01 13:19:37.30	122.67	15.56	-42.0	-43.4	18.8	0.00e+00	0	43	0	662700032	54	4221
2026-01-01 13:19:38.30	122.58	15.66	-42.0	-43.5	18.8	0.00e+00	0	42	0	670040064	54	4246
2026-01-01 13:19:39.30	122.48	15.76	-42.0	-43.4	18.8	0.00e+00	0	43	0	676331520	54	4233
2026-01-01 13:19:40.30	122.37	15.85	-42.0	-43.4	18.9	0.00e+00	0	43	0	683671552	54	4209
2026-01-01 13:19:41.29	122.27	15.95	-41.9	-43.3	18.9	0.00e+00	0	43	0	691011584	54	4154
2026-01-01 13:19:42.29	122.17	16.05	-41.9	-43.3	18.9	0.00e+00	0	43	0	698351616	54	4156
2026-01-01 13:19:43.29	122.07	16.15	-41.9	-43.2	19.0	0.00e+00	0	43	0	705691648	54	4145
2026-01-01 13:19:44.29	121.97	16.25	-41.7	-43.1	19.1	0.00e+00	0	43	0	713031680	54	4091
2026-01-01 13:19:45.29	121.86	16.35	-41.8	-43.2	19.0	0.00e+00	0	43	0	720371712	54	4104
2026-01-01 13:19:46.29	121.76	16.45	-41.6	-43.0	19.2	0.00e+00	0	43	0	726663168	53	4261
2026-01-01 13:19:47.29	121.65	16.55	-41.6	-42.9	19.2	0.00e+00	0	43	0	734003200	53	4234
2026-01-01 13:19:48.28	121.55	16.65	-41.5	-42.9	19.3	0.00e+00	0	43	0	741343232	53	4216
2026-01-01 13:19:49.28	121.44	16.75	-41.6	-43.0	19.2	0.00e+00	0	43	0	748683264	53	4253
2026-01-01 13:19:50.28	121.33	16.85	-41.5	-42.9	19.3	0.00e+00	0	43	0	756023296	53	4210
2026-01-01 13:19:51.28	121.22	16.96	-41.5	-42.8	19.4	0.00e+00	0	43	0	763363328	53	4166
2026-01-01 13:19:52.28	121.12	17.06	-41.4	-42.7	19.4	0.00e+00	0	43	0	770703360	53	4143
2026-01-01 13:19:53.28	121.01	17.16	-41.4	-42.8	19.4	0.00e+00	0	43	0	778043392	53	4148
2026-01-01 13:19:54.28	120.89	17.26	-41.4	-42.8	19.4	0.00e+00	0	43	0	784334848	53	4161
2026-01-01 13:19:55.28	120.78	17.37	-41.4	-42.7	19.4	0.00e+00	0	43	0	791674880	53	4132
2026-01-01 13:19:56.28	120.67	17.47	-40.9	-42.2	19.8	0.00e+00	0	43	0	799014912	52	4111
2026-01-01 13:19:57.28	120.56	17.57	-41.2	-42.6	19.5	0.00e+00	0	43	0	806354944	52	4315
2026-01-01 13:19:58.28	120.44	17.68	-41.2	-42.6	19.5	0.00e+00	0	43	0	813694976	52	4313
2026-01-01 13:19:59.28	120.33	17.78	-41.2	-42.6	19.5	0.00e+00	0	43	0	821035008	52	4300
2026-01-01 13:20:00.28	120.21	17.89	-41.4	-42.7	19.4	0.00e+00	0	43	0	828375040	52	4384
2026-01-01 13:20:01.28	120.10	17.99	-41.2	-42.5	19.5	0.00e+00	0	43	0	835715072	52	4284
2026-01-01 13:20:02.28	119.98	18.10	-41.4	-42.8	19.3	0.00e+00	0	43	0	842006528	52	4404
2026-01-01 13:20:03.28	119.86	18.20	-41.3	-42.6	19.5	0.00e+00	0	43	0	849346560	52	4326
2026-01-01 13:20:04.28	119.74	18.31	-41.3	-42.7	19.4	0.00e+00	0	43	0	856686592	52	4366
2026-01-01 13:20:05.28	119.62	18.42	-41.2	-42.6	19.5	0.00e+00	0	43	0	864026624	52	4322
2026-01-01 13:20:06.27	119.51	18.52	-41.2	-42.6	19.4	0.00e+00	0	43	0	871366656	52	4325
2026-01-01 13:20:07.27	119.38	18.63	-41.2	-42.6	19.4	0.00e+00	0	43	0	878706688	52	4327
2026-01-01 13:20:08.28	119.26	18.74	-41.0	-42.4	19.6	0.00e+00	0	43	0	886046720	52	4205
2026-01-01 13:20:09.27	119.14	18.84	-41.1	-42.5	19.6	0.00e+00	0	43	0	893386752	52	4253
2026-01-01 13:20:10.27	119.02	18.95	-41.1	-42.5	19.6	0.00e+00	0	43	0	900726784	52	4251
2026-01-01 13:20:11.28	118.89	19.06	-40.9	-42.2	19.8	0.00e+00	0	43	0	907018240	52	4125
2026-01-01 13:20:12.27	118.76	19.17	-40.8	-42.1	19.8	0.00e+00	0	43	0	914358272	52	4092
2026-01-01 13:20:13.27	118.64	19.28	-40.8	-42.1	19.9	0.00e+00	0	43	0	921698304	52	4064
2026-01-01 13:20:14.27	118.51	19.39	-40.8	-42.1	19.9	0.00e+00	0	43	0	929038336	52	4063
2026-01-01 13:20:15.27	118.38	19.50	-40.7	-42.0	19.9	0.00e+00	0	43	0	936378368	52	4012
2026-01-01 13:20:16.27	118.25	19.61	-40.7	-42.0	19.9	0.00e+00	0	43	0	943718400	52	4017
2026-01-01 13:20:17.27	118.12	19.72	-41.0	-41.9	20.3	0.00e+00	0	43	0	951058432	52	4000
2026-01-01 13:20:18.27	117.99	19.83	-41.0	-41.9	20.3	0.00e+00	0	43	0	958398464	52	3992
2026-01-01 13:20:19.27	117.86	19.94	-41.0	-41.9	20.4	0.00e+00	0	43	0	964689920	52	3999
2026-01-01 13:20:20.27	117.73	20.05	-40.9	-41.8	20.5	0.00e+00	0	43	0	972029952	52	3941
2026-01-01 13:20:21.27	117.59	20.16	-40.9	-41.9	20.4	0.00e+00	0	43	0	979369984	52	3966
2026-01-01 13:20:22.28	117.45	20.27	-40.9	-41.8	20.4	0.00e+00	0	43	0	986710016	52	3941
2026-01-01 13:20:23.28	117.32	20.39	-41.1	-42.0	20.3	0.00e+00	0	43	0	994050048	52	4024
2026-01-01 13:20:24.28	117.18	20.50	-41.1	-42.1	20.2	0.00e+00	0	43	0	1001390080	52	4064
2026-01-01 13:20:25.27	117.04	20.61	-41.1	-42.1	20.2	0.00e+00	0	43	0	1008730112	52	4060
2026-01-01 13:20:26.27	116.90	20.72	-41.3	-42.2	20.1	0.00e+00	0	43	0	1016070144	52	4128
2026-01-01 13:20:27.27	116.76	20.84	-41.2	-42.2	20.1	0.00e+00	0	43	0	1023410176	52	4100
2026-01-01 13:20:28.27	116.62	20.95	-41.4	-42.4	20.0	0.00e+00	0	43	0	1029701632	52	4210
2026-01-01 13:20:29.27	116.48	21.07	-41.4	-42.4	20.0	0.00e+00	0	43	0	1037041664	52	4194
2026-01-01 13:20:30.27	116.34	21.18	-41.4	-42.3	20.0	0.00e+00	0	43	0	1044381696	52	4181
2026-01-01 13:20:31.27	116.19	21.30	-41.4	-42.4	19.9	0.00e+00	0	43	0	1051721728	52	4206
2026-01-01 13:20:32.27	116.05	21.41	-41.3	-42.2	20.0	0.00e+00	0	43	0	1059061760	52	4144
2026-01-01 13:20:33.27	115.90	21.53	-41.3	-42.3	20.0	0.00e+00	0	43	0	1066401792	52	4147
2026-01-01 13:20:34.27	115.75	21.64	-41.2	-42.2	20.1	0.00e+00	0	43	0	1073741824	52	4099
2026-01-01 13:20:35.27	115.60	21.76	-41.2	-42.2	20.1	0.00e+00	0	43	0	1081081856	52	4121
2026-01-01 13:20:36.27	115.45	21.88	-41.1	-42.1	20.2	0.00e+00	0	43	0	1088421888	52	4065
2026-01-01 13:20:37.27	115.30	21.99	-41.1	-42.1	20.2	0.00e+00	0	43	0	1094713344	52	4058
2026-01-01 13:20:38.27	115.15	22.11	-41.0	-42.0	20.3	0.00e+00	0	43	0	1102053376	52	4011
2026-01-01 13:20:39.27	114.99	22.23	-41.0	-41.9	20.3	0.00e+00	0	43	0	1109393408	52	3995
2026-01-01 13:20:40.27	114.84	22.34	-40.9	-41.8	20.4	0.00e+00	0	43	0	1116733440	52	3944
2026-01-01 13:20:41.26	114.68	22.46	-40.8	-41.7	20.5	0.00e+00	0	43	0	1124073472	52	3910
2026-01-01 13:20:42.26	114.53	22.58	-40.7	-41.6	20.6	0.00e+00	0	43	0	1131413504	52	3850
2026-01-01 13:20:43.25	114.37	22.70	-40.9	-41.9	20.4	0.00e+00	0	43	0	1138753536	52	3963
2026-01-01 13:20:44.25	114.21	22.82	-40.8	-41.8	20.4	0.00e+00	0	43	0	1146093568	52	3921
2026-01-01 13:20:45.25	114.05	22.94	-40.9	-41.8	20.4	0.00e+00	0	43	0	1152385024	52	3928
2026-01-01 13:20:46.25	113.89	23.06	-40.8	-41.7	20.4	0.00e+00	0	43	0	1159725056	52	3901
2026-01-01 13:20:47.25	113.72	23.18	-40.7	-41.6	20.5	0.00e+00	0	43	0	1167065088	52	3856
2026-01-01 13:20:48.25	113.56	23.30	-40.7	-41.6	20.6	0.00e+00	0	43	0	1174405120	51	4071
2026-01-01 13:20:49.25	113.39	23.42	-40.7	-41.6	20.6	0.00e+00	0	43	0	1181745152	51	4071
2026-01-01 13:20:50.26	113.22	23.54	-40.7	-41.6	20.5	0.00e+00	0	43	0	1189085184	51	4089
2026-01-01 13:20:51.26	113.05	23.66	-40.7	-41.6	20.6	0.00e+00	0	43	0	1196425216	51	4061
2026-01-01 13:20:52.26	112.88	23.78	-40.6	-41.5	20.6	0.00e+00	0	43	0	1203765248	51	4028
2026-01-01 13:20:53.26	112.71	23.90	-40.6	-41.5	20.7	0.00e+00	0	43	0	1211105280	51	4034
2026-01-01 13:20:54.25	112.54	24.03	-40.5	-41.4	20.7	0.00e+00	0	43	0	1217396736	51	4001
2026-01-01 13:20:55.25	112.37	24.15	-40.5	-41.4	20.7	0.00e+00	0	43	0	1224736768	51	3978
2026-01-01 13:20:56.25	112.19	24.27	-40.5	-41.4	20.7	0.00e+00	0	43	0	1232076800	51	3986
2026-01-01 13:20:57.25	112.02	24.39	-40.6	-41.5	20.7	0.00e+00	0	43	0	1239416832	51	4015
2026-01-01 13:20:58.25	111.84	24.52	-40.6	-41.6	20.6	0.00e+00	0	43	0	1246756864	51	4052
2026-01-01 13:20:59.25	111.66	24.64	-40.6	-41.5	20.6	0.00e+00	0	43	0	1254096896	51	4039
2026-01-01 13:21:00.25	111.48	24.76	-40.6	-41.5	20.5	0.00e+00	0	43	0	1261436928	51	4037
2026-01-01 13:21:01.25	111.29	24.89	-40.4	-41.3	20.7	0.00e+00	0	43	0	1268776960	51	3944
2026-01-01 13:21:02.25	111.11	25.01	-40.4	-41.3	20.9	0.00e+00	0	43	0	1276116992	51	3924
2026-01-01 13:21:03.25	110.93	25.14	-40.2	-41.1	20.9	0.00e+00	0	43	0	1282408448	51	3843
2026-01-01 13:21:04.24	110.74	25.26	-40.2	-41.1	20.9	0.00e+00	0	43	0	1289748480	50	4090
2026-01-01 13:21:05.24	110.55	25.39	-40.1	-41.0	21.1	0.00e+00	0	43	0	1297088512	50	4024
2026-01-01 13:21:06.24	110.36	25.51	-40.1	-41.0	21.1	0.00e+00	0	43	0	1304428544	50	4039
2026-01-01 13:21:07.24	110.17	25.64	-40.2	-41.0	21.0	0.00e+00	0	43	0	1311768576	50	4047
2026-01-01 13:21:08.24	109.98	25.76	-40.3	-41.2	20.9	0.00e+00	0	43	0	1318060032	50	4140
2026-01-01 13:21:09.24	109.78	25.89	-40.0	-40.9	21.2	0.00e+00	0	43	0	1325400064	50	3967
2026-01-01 13:21:10.23	109.59	26.01	-40.2	-41.0	21.0	0.00e+00	0	43	0	1332740096	50	4041
2026-01-01 13:21:11.23	109.39	26.14	-40.2	-41.1	20.9	0.00e+00	0	43	0	1340080128	50	4077
2026-01-01 13:21:12.23	109.19	26.27	-40.2	-41.1	20.9	0.00e+00	0	43	0	1347420160	50	4058
2026-01-01 13:21:13.23	108.99	26.39	-40.3	-41.1	20.9	0.00e+00	0	43	0	1354760192	50	4094
2026-01-01 13:21:14.23	108.79	26.52	-40.4	-41.3	20.8	0.00e+00	0	43	0	1362100224	50	4159
2026-01-01 13:21:15.23	108.58	26.65	-40.4	-41.3	20.7	0.00e+00	0	43	0	1369440256	50	4184
2026-01-01 13:21:16.22	108.38	26.77	-40.3	-41.2	20.8	0.00e+00	0	43	0	1376780288	50	4109
2026-01-01 13:21:17.22	108.17	26.90	-40.3	-41.2	20.8	0.00e+00	0	43	0	1383071744	50	4126
2026-01-01 13:21:18.22	107.96	27.03	-40.2	-41.1	20.9	0.00e+00	0	43	0	1390411776	50	4076
2026-01-01 13:21:19.21	107.75	27.16	-40.3	-41.2	20.8	0.00e+00	0	43	0	1397751808	50	4113
2026-01-01 13:21:20.21	107.54	27.28	-40.3	-41.2	20.8	0.00e+00	0	43	0	1405091840	50	4114
2026-01-01 13:21:21.21	107.33	27.41	-40.3	-41.2	20.8	0.00e+00	0	43	0	1412431872	50	4099
2026-01-01 13:21:22.21	107.11	27.54	-40.3	-41.2	20.8	0.00e+00	0	43	0	1419771904	50	4125
2026-01-01 13:21:23.21	106.89	27.67	-40.4	-41.3	20.7	0.00e+00	0	43	0	1427111936	50	4190
2026-01-01 13:21:24.21	106.67	27.80	-40.5	-41.5	20.6	0.00e+00	0	43	0	1434451968	50	4244
2026-01-01 13:21:25.21	106.45	27.93	-40.6	-41.5	20.5	0.00e+00	0	43	0	1441792000	50	4270
2026-01-01 13:21:26.21	106.23	28.06	-40.8	-41.7	20.4	0.00e+00	0	43	0	1448083456	51	4127
2026-01-01 13:21:27.21	106.00	28.19	-40.7	-41.6	20.4	0.00e+00	0	43	0	1455423488	51	4073
2026-01-01 13:21:28.22	105.78	28.32	-40.7	-41.6	20.5	0.00e+00	0	43	0	1462763520	51	4069
2026-01-01 13:21:29.22	105.55	28.45	-40.6	-41.5	20.5	0.00e+00	0	43	0	1470103552	51	4042
2026-01-01 13:21:30.22	105.32	28.58	-40.7	-41.6	20.5	0.00e+00	0	43	0	1477443584	51	4081
2026-01-01 13:21:31.22	105.08	28.71	-40.5	-41.4	20.7	0.00e+00	0	43	0	1484783616	51	3965
2026-01-01 13:21:32.22	104.85	28.84	-40.3	-41.2	20.8	0.00e+00	0	43	0	1492123648	51	3897
2026-01-01 13:21:33.22	104.61	28.96	-40.2	-41.1	20.9	0.00e+00	0	43	0	1499463680	51	3862
2026-01-01 13:21:34.22	104.37	29.09	-40.1	-41.0	21.0	0.00e+00	0	43	0	1505755136	51	3815
2026-01-01 13:21:35.22	104.13	29.22	-39.9	-40.8	21.2	0.00e+00	0	43	0	1513095168	50	3930
2026-01-01 13:21:36.22	103.89	29.35	-40.1	-41.0	21.1	0.00e+00	0	43	0	1520435200	50	4015
2026-01-01 13:21:37.22	103.65	29.48	-39.9	-40.7	21.2	0.00e+00	0	43	0	1527775232	50	3911
2026-01-01 13:21:38.22	103.40	29.61	-39.8	-40.6	21.2	0.00e+00	0	43	0	1535115264	50	3860
2026-01-01 13:21:39.22	103.15	29.74	-39.8	-40.6	21.2	0.00e+00	0	43	0	1542455296	50	3861
2026-01-01 13:21:40.21	102.91	29.87	-39.6	-40.5	21.4	0.00e+00	0	43	0	1549795328	50	3787
2026-01-01 13:21:41.21	102.65	30.00	-39.6	-40.4	21.4	0.00e+00	0	43	0	1557135360	49	3999
2026-01-01 13:21:42.21	102.40	30.13	-39.6	-40.4	21.4	0.00e+00	0	43	0	1564475392	49	3992
2026-01-01 13:21:43.21	102.14	30.26	-39.7	-40.6	21.3	0.00e+00	0	43	0	1570766848	49	4061
2026-01-01 13:21:44.21	101.89	30.39	-39.7	-40.5	21.3	0.00e+00	0	43	0	1578106880	49	4040
2026-01-01 13:21:45.21	101.63	30.52	-39.6	-40.5	21.3	0.00e+00	0	43	0	1585446912	49	4026
2026-01-01 13:21:46.20	101.37	30.65	-39.6	-40.5	21.3	0.00e+00	0	43	0	1592786944	49	4021
2026-01-01 13:21:47.20	101.10	30.78	-39.6	-40.4	21.4	0.00e+00	0	43	0	1600126976	49	4003
2026-01-01 13:21:48.20	100.83	30.91	-39.6	-40.4	21.4	0.00e+00	0	43	0	1607467008	49	4001
2026-01-01 13:21:49.20	100.57	31.04	-39.4	-40.2	21.5	0.00e+00	0	43	0	1614807040	49	3913
2026-01-01 13:21:50.20	100.30	31.16	-39.3	-40.1	21.6	0.00e+00	0	43	0	1622147072	49	3868
2026-01-01 13:21:51.19	100.02	31.29	-39.3	-40.2	21.6	0.00e+00	0	43	0	1629487104	49	3884
2026-01-01 13:21:52.19	99.75	31.42	-39.3	-40.2	21.6	0.00e+00	0	43	0	1635778560	49	3888
2026-01-01 13:21:53.19	99.47	31.55	-39.3	-40.2	21.6	0.00e+00	0	43	0	1643118592	49	3889
2026-01-01 13:21:54.19	99.19	31.68	-39.4	-40.3	21.5	0.00e+00	0	43	0	1650458624	49	3915
2026-01-01 13:21:55.19	98.91	31.81	-39.4	-40.3	21.5	0.00e+00	0	43	0	1657798656	49	3914
2026-01-01 13:21:56.19	98.63	31.93	-39.6	-40.5	21.3	0.00e+00	0	43	0	1665138688	49	4009
2026-01-01 13:21:57.19	98.34	32.06	-39.5	-40.4	21.4	0.00e+00	0	43	0	1672478720	49	3969
2026-01-01 13:21:58.20	98.05	32.19	-39.7	-40.5	21.4	0.00e+00	0	43	0	1679818752	49	4051
2026-01-01 13:21:59.20	97.76	32.32	-39.3	-40.2	21.4	0.00e+00	0	43	0	1687158784	49	3884
2026-01-01 13:22:00.20	97.46	32.44	-39.6	-40.4	21.4	0.00e+00	0	43	0	1693450240	49	4003
2026-01-01 13:22:01.20	97.17	32.57	-39.7	-40.5	21.3	0.00e+00	0	43	0	1700790272	49	4034
2026-01-01 13:22:02.20	96.87	32.69	-39.7	-40.6	21.3	0.00e+00	0	43	0	1708130304	49	4078
2026-01-01 13:22:03.20	96.57	32.82	-39.7	-40.5	21.3	0.00e+00	0	43	0	1715470336	49	4039
2026-01-01 13:22:04.20	96.27	32.94	-39.7	-40.6	21.3	0.00e+00	0	43	0	1722810368	49	4079
2026-01-01 13:22:05.19	95.96	33.07	-39.9	-40.8	21.2	4.50e-06	0	43	0	1730150400	49	4148
2026-01-01 13:22:06.19	95.66	33.19	-39.9	-40.7	21.2	0.00e+00	0	43	0	1736441856	49	4144
2026-01-01 13:22:07.18	95.35	33.32	-39.8	-40.7	21.3	0.00e+00	0	43	0	1743781888	49	4112
2026-01-01 13:22:08.18	95.04	33.44	-39.8	-40.7	21.3	0.00e+00	0	43	0	1751121920	49	4119
2026-01-01 13:22:09.18	94.72	33.56	-39.3	-40.2	21.4	0.00e+00	0	43	0	1758461952	49	3895
2026-01-01 13:22:10.18	94.41	33.68	-39.7	-40.6	21.4	0.00e+00	0	43	0	1765801984	49	4075
2026-01-01 13:22:11.18	94.09	33.81	-39.8	-40.6	21.3	0.00e+00	0	43	0	1773142016	49	4093
2026-01-01 13:22:12.18	93.77	33.93	-39.8	-40.7	21.3	0.00e+00	0	43	0	1780482048	49	4112
2026-01-01 13:22:13.18	93.44	34.05	-39.7	-40.6	21.4	0.00e+00	0	43	0	1787822080	49	4067
2026-01-01 13:22:14.18	93.12	34.17	-39.8	-40.7	21.3	0.00e+00	0	43	0	1795162112	49	4123
2026-01-01 13:22:15.18	92.79	34.29	-39.9	-40.7	21.3	0.00e+00	0	43	0	1801453568	49	4136
2026-01-01 13:22:16.18	92.46	34.41	-39.5	-40.4	21.3	0.00e+00	0	43	0	1808793600	49	3971
2026-01-01 13:22:17.18	92.12	34.53	-39.6	-40.5	21.4	0.00e+00	0	43	0	1816133632	49	4035
2026-01-01 13:22:18.17	91.79	34.64	-39.7	-40.5	21.4	0.00e+00	0	43	0	1823473664	49	4038
2026-01-01 13:22:19.17	91.45	34.76	-39.6	-40.4	21.5	2.20e-06	0	43	0	1830813696	49	3994
2026-01-01 13:22:20.17	91.11	34.88	-39.8	-40.7	21.3	0.00e+00	0	43	0	1838153728	49	4106
2026-01-01 13:22:21.18	90.76	34.99	-39.9	-40.8	21.2	1.10e-06	0	43	0	1845493760	49	4176
2026-01-01 13:22:22.18	90.42	35.11	-40.0	-40.9	21.1	0.00e+00	0	43	0	1852833792	49	4206
2026-01-01 13:22:23.17	90.07	35.22	-40.2	-41.1	20.9	0.00e+00	0	43	0	1859125248	49	4302
2026-01-01 13:22:24.17	89.72	35.33	-40.0	-40.9	21.1	0.00e+00	0	43	0	1866465280	49	4230
2026-01-01 13:22:25.17	89.37	35.45	-39.9	-40.8	21.2	0.00e+00	0	43	0	1873805312	49	4163
2026-01-01 13:22:26.17	89.01	35.56	-39.8	-40.7	21.2	0.00e+00	0	43	0	1881145344	49	4128
2026-01-01 13:22:27.16	88.66	35.67	-39.6	-40.5	21.4	0.00e+00	0	43	0	1888485376	49	4015
2026-01-01 13:22:28.16	88.30	35.78	-39.4	-40.2	21.6	0.00e+00	0	43	0	1895825408	49	3906
2026-01-01 13:22:29.15	87.94	35.88	-39.2	-40.1	21.7	0.00e+00	0	43	0	1903165440	49	3836
2026-01-01 13:22:30.15	87.57	35.99	-39.3	-40.2	21.6	0.00e+00	0	43	0	1910505472	49	3885
2026-01-01 13:22:31.15	87.21	36.10	-39.3	-40.2	21.6	0.00e+00	0	43	0	1917845504	49	3884
2026-01-01 13:22:32.15	86.84	36.21	-39.5	-40.3	21.5	0.00e+00	0	43	0	1924136960	49	3958
2026-01-01 13:22:33.15	86.46	36.31	-39.9	-40.8	21.1	0.00e+00	0	43	0	1931476992	49	4189
2026-01-01 13:22:34.15	86.09	36.41	-39.9	-40.9	21.1	0.00e+00	0	43	0	1938817024	49	4201
2026-01-01 13:22:35.15	85.71	36.52	-40.1	-41.0	20.9	0.00e+00	0	43	0	1946157056	49	4264
2026-01-01 13:22:36.15	85.33	36.62	-40.0	-40.9	21.0	0.00e+00	0	43	0	1953497088	49	4219
2026-01-01 13:22:37.15	84.95	36.72	-40.0	-40.9	21.0	0.00e+00	0	43	0	1960837120	49	4201
2026-01-01 13:22:38.15	84.57	36.82	-39.7	-40.6	21.3	0.00e+00	0	43	0	1968177152	49	4060
2026-01-01 13:22:39.16	84.18	36.92	-39.7	-40.6	21.3	0.00e+00	0	43	0	1975517184	49	4058
2026-01-01 13:22:40.15	83.79	37.01	-39.7	-40.5	21.3	0.00e+00	0	43	0	1981808640	49	4045
2026-01-01 13:22:41.15	83.40	37.11	-39.7	-40.5	21.3	0.00e+00	0	43	0	1989148672	49	4048
2026-01-01 13:22:42.16	83.00	37.20	-39.6	-40.5	21.4	0.00e+00	0	43	0	1996488704	49	4032
2026-01-01 13:22:43.15	82.61	37.30	-39.7	-40.6	21.2	0.00e+00	0	43	0	2003828736	49	4071
2026-01-01 13:22:44.15	82.21	37.39	-39.7	-40.5	21.3	0.00e+00	0	43	0	2011168768	49	4041
2026-01-01 13:22:45.15	81.81	37.48	-39.6	-40.5	21.4	0.00e+00	0	43	0	2018508800	49	4023
2026-01-01 13:22:46.14	81.41	37.57	-39.7	-40.6	21.3	0.00e+00	0	43	0	2025848832	49	4085
2026-01-01 13:22:47.14	81.01	37.66	-39.8	-40.7	21.2	0.00e+00	0	43	0	2033188864	49	4125
2026-01-01 13:22:48.14	80.60	37.74	-39.9	-40.8	21.1	0.00e+00	0	43	0	2040528896	49	4192
2026-01-01 13:22:49.14	80.19	37.83	-40.0	-40.9	21.0	0.00e+00	0	43	0	2046820352	49	4239
2026-01-01 13:22:50.14	79.78	37.91	-40.1	-41.1	20.9	0.00e+00	0	43	0	2054160384	49	4294
2026-01-01 13:22:51.15	79.36	37.99	-40.2	-41.1	20.9	0.00e+00	0	43	0	2061500416	49	4317
2026-01-01 13:22:52.15	78.95	38.07	-39.9	-40.8	21.2	0.00e+00	0	43	0	2068840448	49	4174
2026-01-01 13:22:53.15	78.53	38.15	-39.8	-40.7	21.3	0.00e+00	0	43	0	2076180480	49	4112
2026-01-01 13:22:54.15	78.11	38.23	-39.7	-40.5	21.5	0.00e+00	0	43	0	2083520512	49	4037
2026-01-01 13:22:55.15	77.69	38.31	-39.7	-40.6	21.4	0.00e+00	0	43	0	2090860544	49	4069
2026-01-01 13:22:56.16	77.26	38.38	-39.8	-40.6	21.4	0.00e+00	0	43	0	2098200576	49	4082
2026-01-01 13:22:57.16	76.84	38.45	-39.8	-40.6	21.3	0.00e+00	0	43	0	2105540608	49	4087
2026-01-01 13:22:58.15	76.41	38.52	-39.5	-40.3	21.4	0.00e+00	0	43	0	2111832064	49	3953
2026-01-01 13:22:59.16	75.98	38.59	-39.6	-40.5	21.2	0.00e+00	0	43	0	2119172096	49	4007
2026-01-01 13:23:00.16	75.55	38.66	-39.5	-40.4	21.3	0.00e+00	0	43	0	2126512128	49	3988
2026-01-01 13:23:01.15	75.12	38.73	-39.6	-40.4	21.3	0.00e+00	0	43	0	2133852160	49	4002
2026-01-01 13:23:02.15	74.69	38.79	-39.5	-40.4	21.3	0.00e+00	0	43	0	2141192192	49	3978
2026-01-01 13:23:03.15	74.25	38.85	-39.5	-40.4	21.3	0.00e+00	0	43	0	2148532224	49	3990
2026-01-01 13:23:04.15	73.81	38.91	-39.5	-40.3	21.4	0.00e+00	0	43	0	2155872256	49	3944
2026-01-01 13:23:05.15	73.37	38.97	-39.6	-40.5	21.4	0.00e+00	0	43	0	2163212288	49	4018
2026-01-01 13:23:06.15	72.93	39.03	-39.6	-40.4	21.3	0.00e+00	0	43	0	2169503744	49	3999
2026-01-01 13:23:07.15	72.49	39.08	-39.6	-40.5	21.2	0.00e+00	0	43	0	2176843776	49	4033
2026-01-01 13:23:08.15	72.05	39.14	-39.7	-40.6	21.2	0.00e+00	0	43	0	2184183808	49	4064
2026-01-01 13:23:09.15	71.60	39.19	-39.5	-40.4	21.3	0.00e+00	0	43	0	2191523840	49	3990
2026-01-01 13:23:10.14	71.16	39.24	-39.5	-40.4	21.3	0.00e+00	0	43	0	2198863872	49	3980
2026-01-01 13:23:11.14	70.71	39.28	-39.6	-40.5	21.2	0.00e+00	0	43	0	2206203904	49	4018
2026-01-01 13:23:12.13	70.27	39.33	-39.7	-40.5	21.1	0.00e+00	0	43	0	2212495360	49	4040
2026-01-01 13:23:13.13	69.82	39.37	-39.6	-40.5	21.1	0.00e+00	0	43	0	2219835392	49	4010
2026-01-01 13:23:14.13	69.37	39.41	-39.9	-40.8	21.1	0.00e+00	0	43	0	2227175424	49	4154
2026-01-01 13:23:15.13	68.91	39.45	-39.6	-40.4	21.2	0.00e+00	0	43	0	2234515456	49	4004
2026-01-01 13:23:16.12	68.46	39.49	-39.6	-40.4	21.3	0.00e+00	0	43	0	2241855488	49	3990
2026-01-01 13:23:17.12	68.01	39.53	-39.5	-40.4	21.3	0.00e+00	0	43	0	2249195520	49	3962
2026-01-01 13:23:18.13	67.55	39.56	-39.6	-40.4	21.2	0.00e+00	0	43	0	2256535552	49	3991
2026-01-01 13:23:19.12	67.10	39.59	-39.6	-40.5	21.2	0.00e+00	0	43	0	2263875584	49	4011
2026-01-01 13:23:20.12	66.64	39.62	-39.5	-40.4	21.3	0.00e+00	0	43	0	2271215616	49	3967
2026-01-01 13:23:21.12	66.18	39.65	-39.5	-40.4	21.4	0.00e+00	0	43	0	2277507072	49	3970
2026-01-01 13:23:22.11	65.73	39.67	-39.3	-40.2	21.4	0.00e+00	0	43	0	2284847104	49	3883
2026-01-01 13:23:23.12	65.26	39.70	-39.4	-40.3	21.4	0.00e+00	0	43	0	2292187136	49	3933
2026-01-01 13:23:24.11	64.81	39.72	-39.5	-40.3	21.3	0.00e+00	0	43	0	2299527168	49	3952
2026-01-01 13:23:25.11	64.35	39.74	-39.6	-40.5	21.2	0.00e+00	0	43	0	2306867200	49	4036
2026-01-01 13:23:26.11	63.88	39.76	-39.4	-40.3	21.4	0.00e+00	0	43	0	2314207232	49	3914
2026-01-01 13:23:27.11	63.42	39.77	-39.4	-40.2	21.4	0.00e+00	0	43	0	2321547264	49	3900
2026-01-01 13:23:28.11	62.96	39.78	-39.4	-40.2	21.4	0.00e+00	0	43	0	2328887296	49	3912
2026-01-01 13:23:29.11	62.50	39.79	-39.6	-40.4	21.2	0.00e+00	0	43	0	2335178752	49	3999
2026-01-01 13:23:30.11	62.03	39.80	-39.7	-40.6	21.0	0.00e+00	0	43	0	2342518784	49	4089
2026-01-01 13:23:31.11	61.57	39.81	-40.0	-40.9	20.8	0.00e+00	0	43	0	2349858816	49	4214
2026-01-01 13:23:32.11	61.11	39.81	-39.8	-40.7	21.0	0.00e+00	0	43	0	2357198848	49	4134
2026-01-01 13:23:33.11	60.65	39.82	-39.6	-40.5	21.2	0.00e+00	0	43	0	2364538880	49	4024
2026-01-01 13:23:34.11	60.18	39.82	-39.5	-40.4	21.2	0.00e+00	0	43	0	2371878912	49	3988
2026-01-01 13:23:35.11	59.72	39.82	-39.4	-40.3	21.4	0.00e+00	0	43	0	2379218944	49	3917
2026-01-01 13:23:36.11	59.26	39.81	-39.3	-40.2	21.4	0.00e+00	0	43	0	2386558976	49	3892
2026-01-01 13:23:37.11	58.79	39.80	-39.5	-40.3	21.3	0.00e+00	0	43	0	2393899008	49	3954
2026-01-01 13:23:38.12	58.33	39.80	-39.6	-40.5	21.2	0.00e+00	0	43	0	2400190464	49	4011
2026-01-01 13:23:39.12	57.86	39.79	-39.7	-40.6	21.1	0.00e+00	0	43	0	2407530496	49	4055
2026-01-01 13:23:40.12	57.40	39.77	-39.7	-40.6	21.1	0.00e+00	0	43	0	2414870528	49	4059
2026-01-01 13:23:41.12	56.94	39.76	-39.7	-40.5	21.1	0.00e+00	0	43	0	2422210560	49	4041
2026-01-01 13:23:42.12	56.48	39.74	-39.3	-40.1	21.4	0.00e+00	0	43	0	2429550592	49	3860
2026-01-01 13:23:43.12	56.02	39.72	-39.1	-40.0	21.6	0.00e+00	0	43	0	2436890624	48	4010
2026-01-01 13:23:44.12	55.56	39.70	-39.2	-40.1	21.5	0.00e+00	0	43	0	2444230656	48	4058
2026-01-01 13:23:45.12	55.10	39.68	-39.3	-40.1	21.5	0.00e+00	0	43	0	2451570688	48	4078
2026-01-01 13:23:46.12	54.64	39.65	-39.4	-40.3	21.3	0.00e+00	0	43	0	2458910720	48	4161
2026-01-01 13:23:47.12	54.18	39.63	-39.7	-40.5	21.1	0.00e+00	0	43	0	2465202176	48	4289
2026-01-01 13:23:48.12	53.72	39.60	-39.6	-40.5	21.2	0.00e+00	0	43	0	2472542208	48	4244
2026-01-01 13:23:49.12	53.27	39.57	-39.5	-40.4	21.2	0.00e+00	0	43	0	2479882240	48	4223
2026-01-01 13:23:50.11	52.82	39.53	-39.4	-40.3	21.4	0.00e+00	0	43	0	2487222272	48	4151
2026-01-01 13:23:51.11	52.36	39.50	-39.3	-40.2	21.5	0.00e+00	0	43	0	2494562304	48	4112
2026-01-01 13:23:52.11	51.91	39.46	-39.3	-40.1	21.5	0.00e+00	0	43	0	2501902336	48	4090
2026-01-01 13:23:53.11	51.45	39.42	-39.3	-40.1	21.5	0.00e+00	0	43	0	2509242368	48	4082
2026-01-01 13:23:54.11	51.00	39.38	-39.4	-40.3	21.3	0.00e+00	0	43	0	2516582400	48	4174
2026-01-01 13:23:55.11	50.55	39.34	-39.5	-40.4	21.2	0.00e+00	0	43	0	2522873856	48	4214
2026-01-01 13:23:56.11	50.10	39.29	-39.5	-40.4	21.2	0.00e+00	0	43	0	2530213888	48	4217
2026-01-01 13:23:57.10	49.66	39.24	-39.3	-40.1	21.4	0.00e+00	0	43	0	2537553920	48	4098
2026-01-01 13:23:58.10	49.22	39.20	-39.0	-39.9	21.6	0.00e+00	0	43	0	2544893952	48	3970
2026-01-01 13:23:59.10	48.77	39.15	-39.1	-39.9	21.6	0.00e+00	0	43	0	2552233984	48	3987
2026-01-01 13:24:00.10	48.33	39.09	-39.1	-39.9	21.6	0.00e+00	0	43	0	2559574016	48	3985
2026-01-01 13:24:01.09	47.89	39.04	-39.1	-40.0	21.6	0.00e+00	0	43	0	2566914048	48	4007
2026-01-01 13:24:02.10	47.44	38.98	-39.2	-40.1	21.5	0.00e+00	0	43	0	2574254080	48	4063
2026-01-01 13:24:03.09	47.01	38.92	-39.4	-40.3	21.3	0.00e+00	0	43	0	2581594112	48	4147
2026-01-01 13:24:04.09	46.57	38.86	-39.4	-40.3	21.3	0.00e+00	0	43	0	2587885568	48	4163
2026-01-01 13:24:05.09	46.14	38.80	-39.5	-40.4	21.2	0.00e+00	0	43	0	2595225600	48	4207
2026-01-01 13:24:06.09	45.70	38.74	-39.4	-40.3	21.3	0.00e+00	0	43	0	2602565632	48	4149
2026-01-01 13:24:07.09	45.27	38.67	-39.4	-40.2	21.3	0.00e+00	0	43	0	2609905664	48	4143
2026-01-01 13:24:08.09	44.84	38.61	-39.1	-40.0	21.6	0.00e+00	0	43	0	2617245696	48	4009
2026-01-01 13:24:09.09	44.41	38.54	-39.0	-39.9	21.6	0.00e+00	0	43	0	2624585728	48	3960
2026-01-01 13:24:10.09	43.99	38.47	-38.8	-39.7	21.8	0.00e+00	0	43	0	2631925760	48	3882
2026-01-01 13:24:11.09	43.56	38.39	-39.0	-39.8	21.6	0.00e+00	0	43	0	2638217216	48	3941
2026-01-01 13:24:12.09	43.14	38.32	-39.0	-39.9	21.6	0.00e+00	0	43	0	2645557248	48	3963
2026-01-01 13:24:13.09	42.72	38.24	-39.1	-40.0	21.5	0.00e+00	0	43	0	2652897280	48	4022
2026-01-01 13:24:14.09	42.30	38.17	-39.1	-40.0	21.5	0.00e+00	0	43	0	2660237312	48	4011
2026-01-01 13:24:15.09	41.88	38.09	-39.1	-40.0	21.5	0.00e+00	0	43	0	2667577344	48	4018
2026-01-01 13:24:16.09	41.47	38.01	-39.2	-40.1	21.4	0.00e+00	0	43	0	2674917376	48	4064
2026-01-01 13:24:17.09	41.05	37.93	-39.2	-40.1	21.4	0.00e+00	0	43	0	2682257408	48	4058
2026-01-01 13:24:18.08	40.65	37.85	-39.2	-40.1	21.4	0.00e+00	0	43	0	2688548864	48	4061
2026-01-01 13:24:19.08	40.24	37.76	-39.2	-40.1	21.3	0.00e+00	0	43	0	2695888896	48	4074
2026-01-01 13:24:20.08	39.83	37.67	-39.1	-40.0	21.4	0.00e+00	0	43	0	2703228928	48	4035
2026-01-01 13:24:21.07	39.43	37.59	-39.1	-40.0	21.4	0.00e+00	0	43	0	2710568960	48	4017
2026-01-01 13:24:22.07	39.03	37.50	-39.2	-40.1	21.3	0.00e+00	0	43	0	2717908992	48	4060
2026-01-01 13:24:23.07	38.63	37.41	-39.0	-39.9	21.5	0.00e+00	0	43	0	2725249024	48	3972
2026-01-01 13:24:24.07	38.23	37.32	-39.1	-40.0	21.4	0.00e+00	0	43	0	2732589056	48	4012
2026-01-01 13:24:25.08	37.83	37.22	-39.1	-40.0	21.4	0.00e+00	0	43	0	2739929088	48	4011
2026-01-01 13:24:26.08	37.44	37.13	-39.1	-40.0	21.3	0.00e+00	0	43	0	2747269120	48	4032
2026-01-01 13:24:27.08	37.05	37.04	-39.2	-40.1	21.3	0.00e+00	0	43	0	2753560576	48	4074
2026-01-01 13:24:28.08	36.66	36.94	-39.2	-40.1	21.3	0.00e+00	0	43	0	2760900608	48	4079
2026-01-01 13:24:29.08	36.27	36.84	-39.3	-40.2	21.2	0.00e+00	0	43	0	2768240640	48	4112
2026-01-01 13:24:30.08	35.89	36.74	-39.2	-40.1	21.3	0.00e+00	0	43	0	2775580672	48	4073
2026-01-01 13:24:31.08	35.51	36.64	-39.2	-40.1	21.2	0.00e+00	0	43	0	2782920704	48	4079
2026-01-01 13:24:32.07	35.13	36.54	-39.2	-40.1	21.3	0.00e+00	0	43	0	2790260736	48	4087
2026-01-01 13:24:33.07	34.76	36.44	-39.2	-40.0	21.2	0.00e+00	0	43	0	2797600768	48	4046
2026-01-01 13:24:34.07	34.38	36.34	-39.2	-40.0	21.3	0.00e+00	0	43	0	2804940800	48	4041
2026-01-01 13:24:35.06	34.01	36.23	-39.3	-40.2	21.3	0.00e+00	0	43	0	2811232256	48	4127
2026-01-01 13:24:36.06	33.64	36.13	-39.1	-40.0	21.3	0.00e+00	0	43	0	2818572288	48	4026
2026-01-01 13:24:37.06	33.28	36.02	-39.0	-39.9	21.3	0.00e+00	0	43	0	2825912320	48	3963
2026-01-01 13:24:38.06	32.91	35.91	-39.0	-39.9	21.3	0.00e+00	0	43	0	2833252352	48	3965
2026-01-01 13:24:39.06	32.55	35.81	-38.9	-39.8	21.4	0.00e+00	0	43	0	2840592384	48	3940
2026-01-01 13:24:40.06	32.19	35.70	-39.0	-39.8	21.3	0.00e+00	0	43	0	2847932416	48	3958
2026-01-01 13:24:41.06	31.83	35.59	-39.0	-39.9	21.3	0.00e+00	0	43	0	2855272448	48	3981
2026-01-01 13:24:42.06	31.48	35.48	-38.9	-39.8	21.4	0.00e+00	0	43	0	2862612480	48	3932
2026-01-01 13:24:43.06	31.12	35.36	-38.8	-39.7	21.5	0.00e+00	0	43	0	2869952512	48	3887
2026-01-01 13:24:44.06	30.77	35.25	-38.8	-39.6	21.6	0.00e+00	0	43	0	2876243968	48	3861
2026-01-01 13:24:45.05	30.43	35.14	-39.0	-39.9	21.6	0.00e+00	0	43	0	2883584000	48	3976
2026-01-01 13:24:46.05	30.08	35.02	-38.8	-39.6	21.6	0.00e+00	0	43	0	2890924032	48	3855
2026-01-01 13:24:47.05	29.74	34.91	-38.7	-39.6	21.6	0.00e+00	0	43	0	2898264064	48	3848
2026-01-01 13:24:48.05	29.40	34.79	-39.1	-39.9	21.5	0.00e+00	0	43	0	2905604096	48	3995
2026-01-01 13:24:49.05	29.06	34.68	-38.8	-39.6	21.4	0.00e+00	0	43	0	2912944128	47	4096
2026-01-01 13:24:50.04	28.73	34.56	-38.4	-39.3	21.5	0.00e+00	0	43	0	2920284160	47	3915
2026-01-01 13:24:51.04	28.40	34.44	-38.5	-39.3	21.4	0.00e+00	0	43	0	2927624192	47	3957
2026-01-01 13:24:52.04	28.07	34.32	-38.6	-39.5	21.3	0.00e+00	0	43	0	2934964224	47	4026
2026-01-01 13:24:53.04	27.74	34.21	-38.7	-39.6	21.2	0.00e+00	0	43	0	2941255680	47	4073
2026-01-01 13:24:54.04	27.41	34.09	-38.7	-39.6	21.1	0.00e+00	0	43	0	2948595712	47	4063
2026-01-01 13:24:55.04	27.09	33.97	-38.9	-39.8	21.2	0.00e+00	0	43	0	2955935744	47	4159
2026-01-01 13:24:56.04	26.77	33.84	-38.4	-39.2	21.4	0.00e+00	0	43	0	2963275776	47	3912
2026-01-01 13:24:57.04	26.45	33.72	-38.3	-39.2	21.4	0.00e+00	0	43	0	2970615808	47	3881
2026-01-01 13:24:58.03	26.14	33.60	-38.2	-39.0	21.6	0.00e+00	0	43	0	2976907264	47	3815
2026-01-01 13:24:59.03	25.82	33.48	-38.1	-39.0	21.5	0.00e+00	0	43	0	2984247296	46	4025
2026-01-01 13:25:00.03	25.51	33.36	-38.1	-39.0	21.6	0.00e+00	0	43	0	2991587328	46	4031
2026-01-01 13:25:01.02	25.21	33.24	-38.2	-39.0	21.5	0.00e+00	0	43	0	2998927360	46	4044
2026-01-01 13:25:02.02	24.90	33.11	-38.2	-39.1	21.5	0.00e+00	0	43	0	3006267392	46	4063
2026-01-01 13:25:03.02	24.60	32.99	-38.2	-39.1	21.5	0.00e+00	0	43	0	3013607424	46	4067
2026-01-01 13:25:04.02	24.29	32.86	-38.3	-39.2	21.4	0.00e+00	0	43	0	3020947456	46	4116
2026-01-01 13:25:05.02	23.99	32.74	-38.4	-39.2	21.4	0.00e+00	0	43	0	3028287488	46	4137
2026-01-01 13:25:06.02	23.70	32.61	-38.3	-39.2	21.5	1.10e-06	0	43	0	3035627520	46	4099
2026-01-01 13:25:07.02	23.40	32.49	-38.3	-39.1	21.4	0.00e+00	0	43	0	3041918976	46	4094
2026-01-01 13:25:08.02	23.11	32.36	-38.4	-39.3	21.3	0.00e+00	0	43	0	3049259008	46	4152
2026-01-01 13:25:09.02	22.82	32.23	-38.5	-39.4	21.2	0.00e+00	0	43	0	3056599040	46	4210
2026-01-01 13:25:10.02	22.53	32.11	-38.6	-39.5	21.1	0.00e+00	0	43	0	3063939072	46	4283
2026-01-01 13:25:11.01	22.25	31.98	-39.0	-39.9	21.1	1.10e-06	0	43	0	3071279104	46	4463
2026-01-01 13:25:12.01	21.96	31.86	-38.6	-39.5	21.1	0.00e+00	0	43	0	3078619136	47	4043
2026-01-01 13:25:13.01	21.68	31.73	-38.7	-39.6	21.1	0.00e+00	0	43	0	3085959168	47	4052
2026-01-01 13:25:14.01	21.40	31.60	-38.5	-39.4	21.2	0.00e+00	0	43	0	3093299200	47	3963
2026-01-01 13:25:15.02	21.12	31.47	-38.4	-39.3	21.3	0.00e+00	0	43	0	3100639232	47	3928
2026-01-01 13:25:16.01	20.85	31.34	-38.5	-39.4	21.2	0.00e+00	0	43	0	3106930688	47	3980
2026-01-01 13:25:17.01	20.58	31.22	-38.5	-39.4	21.2	0.00e+00	0	43	0	3114270720	47	3960
2026-01-01 13:25:18.00	20.31	31.09	-38.5	-39.4	21.2	0.00e+00	0	43	0	3121610752	47	3983
2026-01-01 13:25:19.01	20.04	30.96	-38.5	-39.4	21.1	0.00e+00	0	43	0	3128950784	47	3977
2026-01-01 13:25:20.01	19.77	30.83	-38.5	-39.4	21.2	0.00e+00	0	43	0	3136290816	47	3993
2026-01-01 13:25:21.01	19.51	30.70	-38.7	-39.6	21.1	0.00e+00	0	43	0	3143630848	47	4057
2026-01-01 13:25:22.00	19.25	30.57	-38.8	-39.7	20.9	0.00e+00	0	43	0	3150970880	47	4106
2026-01-01 13:25:23.00	18.99	30.45	-38.8	-39.7	20.9	0.00e+00	0	43	0	3158310912	47	4116
2026-01-01 13:25:24.00	18.73	30.32	-38.8	-39.7	20.8	0.00e+00	0	43	0	3164602368	47	4144
2026-01-01 13:25:25.00	18.48	30.19	-38.6	-39.5	21.0	0.00e+00	0	43	0	3171942400	47	4044
2026-01-01 13:25:26.00	18.22	30.06	-38.4	-39.2	21.2	0.00e+00	0	43	0	3179282432	47	3912
2026-01-01 13:25:27.00	17.97	29.93	-38.3	-39.2	21.3	0.00e+00	0	43	0	3186622464	47	3901
2026-01-01 13:25:28.00	17.72	29.80	-38.3	-39.2	21.3	0.00e+00	0	43	0	3193962496	47	3880
2026-01-01 13:25:29.00	17.48	29.67	-38.3	-39.1	21.3	0.00e+00	0	43	0	3201302528	47	3865
2026-01-01 13:25:30.00	17.23	29.54	-38.3	-39.2	21.2	0.00e+00	0	43	0	3208642560	47	3896
2026-01-01 13:25:31.00	16.99	29.41	-38.6	-39.5	21.1	0.00e+00	0	43	0	3215982592	47	4019
2026-01-01 13:25:32.00	16.75	29.28	-38.7	-39.6	21.0	0.00e+00	0	43	0	3223322624	47	4059
2026-01-01 13:25:33.00	16.51	29.15	-38.7	-39.7	20.9	0.00e+00	0	43	0	3229614080	47	4100
2026-01-01 13:25:34.00	16.27	29.02	-38.6	-39.5	21.0	0.00e+00	0	43	0	3236954112	47	4022
2026-01-01 13:25:35.00	16.03	28.90	-38.6	-39.5	21.0	0.00e+00	0	43	0	3244294144	47	4043
2026-01-01 13:25:35.99	15.80	28.77	-38.6	-39.5	21.0	0.00e+00	0	43	0	3251634176	47	4039
2026-01-01 13:25:37.00	15.57	28.64	-38.5	-39.4	21.1	0.00e+00	0	43	0	3258974208	47	3986
2026-01-01 13:25:38.00	15.34	28.51	-38.6	-39.5	21.0	0.00e+00	0	43	0	3266314240	47	4019
2026-01-01 13:25:39.00	15.11	28.38	-38.7	-39.6	20.9	0.00e+00	0	43	0	3273654272	47	4080
2026-01-01 13:25:40.00	14.88	28.25	-38.8	-39.7	20.8	0.00e+00	0	43	0	3280994304	47	4142
2026-01-01 13:25:40.99	14.66	28.12	-38.9	-39.8	20.7	0.00e+00	0	43	0	3287285760	47	4181
2026-01-01 13:25:41.99	14.44	27.99	-38.9	-39.9	20.7	0.00e+00	0	43	0	3294625792	47	4204
2026-01-01 13:25:42.99	14.22	27.87	-39.0	-39.9	20.9	0.00e+00	0	43	0	3301965824	48	3987
2026-01-01 13:25:43.99	14.00	27.74	-39.4	-40.3	20.9	0.00e+00	0	43	0	3309305856	48	4157
2026-01-01 13:25:44.99	13.78	27.61	-39.3	-40.2	21.0	0.00e+00	0	43	0	3316645888	48	4125
2026-01-01 13:25:45.99	13.57	27.48	-38.8	-39.7	21.1	0.00e+00	0	43	0	3323985920	48	3876
2026-01-01 13:25:46.99	13.35	27.35	-38.7	-39.6	21.1	0.00e+00	0	43	0	3331325952	48	3843
2026-01-01 13:25:48.00	13.14	27.23	-38.5	-39.4	21.1	0.00e+00	0	43	0	3338665984	47	3965
2026-01-01 13:25:48.99	12.93	27.10	-38.5	-39.4	21.0	0.00e+00	0	43	0	3346006016	47	3997
2026-01-01 13:25:49.99	12.72	26.97	-38.5	-39.4	21.0	0.00e+00	0	43	0	3352297472	47	3981
2026-01-01 13:25:50.99	12.51	26.84	-38.6	-39.6	20.9	0.00e+00	0	43	0	3359637504	47	4052
2026-01-01 13:25:51.99	12.31	26.72	-38.7	-39.7	20.8	0.00e+00	0	43	0	3366977536	47	4102
2026-01-01 13:25:52.99	12.11	26.59	-38.6	-39.5	20.9	0.00e+00	0	43	0	3374317568	47	4029
2026-01-01 13:25:53.99	11.90	26.46	-38.5	-39.4	21.0	0.00e+00	0	43	0	3381657600	47	3999
2026-01-01 13:25:54.99	11.70	26.34	-38.8	-39.7	21.1	0.00e+00	0	43	0	3388997632	47	4114
2026-01-01 13:25:55.99	11.50	26.21	-38.3	-39.2	21.1	0.00e+00	0	43	0	3395289088	47	3882
2026-01-01 13:25:56.98	11.31	26.09	-38.4	-39.3	21.1	0.00e+00	0	43	0	3402629120	47	3922
2026-01-01 13:25:57.98	11.11	25.96	-38.4	-39.3	21.0	0.00e+00	0	43	0	3409969152	47	3944
2026-01-01 13:25:58.98	10.92	25.84	-38.4	-39.3	21.0	0.00e+00	0	43	0	3417309184	47	3928
2026-01-01 13:25:59.98	10.73	25.71	-38.5	-39.4	20.9	0.00e+00	0	43	0	3424649216	47	3991
2026-01-01 13:26:00.98	10.54	25.58	-38.6	-39.5	20.8	0.00e+00	0	43	0	3431989248	47	4019
2026-01-01 13:26:01.98	10.35	25.46	-39.1	-40.0	20.8	0.00e+00	0	43	0	3439329280	47	4254
2026-01-01 13:26:02.97	10.16	25.34	-38.7	-39.6	20.7	0.00e+00	0	43	0	3446669312	47	4094
2026-01-01 13:26:03.97	9.98	25.21	-38.7	-39.6	20.8	0.00e+00	0	43	0	3452960768	47	4059
2026-01-01 13:26:04.97	9.79	25.09	-38.6	-39.5	20.8	0.00e+00	0	43	0	3460300800	47	4042
2026-01-01 13:26:05.97	9.61	24.96	-38.9	-39.8	20.9	0.00e+00	0	43	0	3467640832	47	4190
2026-01-01 13:26:06.97	9.43	24.84	-38.9	-39.8	20.9	0.00e+00	0	43	0	3474980864	47	4166
2026-01-01 13:26:07.97	9.24	24.72	-38.4	-39.3	21.0	0.00e+00	0	43	0	3482320896	47	3925
2026-01-01 13:26:08.96	9.07	24.60	-38.3	-39.2	21.1	0.00e+00	0	43	0	3489660928	47	3903
2026-01-01 13:26:09.96	8.89	24.47	-38.3	-39.2	21.1	0.00e+00	0	43	0	3497000960	47	3887
2026-01-01 13:26:10.96	8.71	24.35	-38.9	-39.8	21.0	1.10e-06	0	43	0	3504340992	47	4176
2026-01-01 13:26:11.96	8.54	24.23	-38.4	-39.3	21.0	0.00e+00	0	43	0	3511681024	47	3958
2026-01-01 13:26:12.96	8.37	24.11	-38.4	-39.3	21.1	0.00e+00	0	43	0	3517972480	47	3927
2026-01-01 13:26:13.96	8.19	23.98	-38.8	-39.6	20.9	2.20e-06	0	43	0	3525312512	47	4097
2026-01-01 13:26:14.96	8.02	23.86	-38.7	-39.6	20.8	0.00e+00	0	43	0	3532652544	47	4061
2026-01-01 13:26:15.95	7.86	23.74	-39.2	-39.8	20.6	1.10e-06	0	43	0	3539992576	47	4186
2026-01-01 13:26:16.95	7.69	23.62	-38.6	-39.5	20.8	0.00e+00	0	43	0	3547332608	47	4036
2026-01-01 13:26:17.95	7.52	23.50	-38.6	-39.5	20.8	0.00e+00	0	43	0	3554672640	47	4043
2026-01-01 13:26:18.95	7.35	23.38	-39.0	-39.9	20.6	0.00e+00	0	43	0	3562012672	47	4205
2026-01-01 13:26:19.95	7.19	23.26	-38.9	-39.8	20.7	0.00e+00	0	43	0	3569352704	47	4185
2026-01-01 13:26:20.95	7.03	23.14	-39.0	-39.9	20.7	0.00e+00	0	43	0	3576692736	47	4215
2026-01-01 13:26:21.95	6.87	23.02	-38.8	-39.7	20.7	0.00e+00	0	43	0	3582984192	47	4144
2026-01-01 13:26:22.95	6.71	22.90	-38.7	-39.6	20.9	0.00e+00	0	43	0	3590324224	47	4083
2026-01-01 13:26:23.94	6.55	22.79	-38.6	-39.5	21.0	0.00e+00	0	43	0	3597664256	47	4035
2026-01-01 13:26:24.94	6.39	22.67	-38.6	-39.5	21.0	0.00e+00	0	43	0	3605004288	47	4029
2026-01-01 13:26:25.94	6.23	22.55	-38.7	-39.6	20.9	0.00e+00	0	43	0	3612344320	47	4083
2026-01-01 13:26:26.94	6.08	22.43	-38.5	-39.4	20.8	0.00e+00	0	43	0	3618635776	47	3995
2026-01-01 13:26:27.93	5.93	22.32	-38.6	-39.6	20.7	0.00e+00	0	43	0	3625975808	47	4058
2026-01-01 13:26:28.93	5.77	22.20	-39.1	-40.0	20.5	0.00e+00	0	43	0	3633315840	47	4276
2026-01-01 13:26:29.92	5.62	22.08	-39.2	-40.2	20.4	0.00e+00	0	43	0	3640655872	47	4366
2026-01-01 13:26:30.92	5.47	21.97	-39.2	-40.2	20.5	0.00e+00	0	43	0	3647995904	48	4101
2026-01-01 13:26:31.92	5.32	21.85	-39.3	-40.3	20.4	0.00e+00	0	43	0	3655335936	48	4146
2026-01-01 13:26:32.92	5.17	21.73	-39.1	-40.1	20.5	0.00e+00	0	43	0	3662675968	48	4064
2026-01-01 13:26:33.91	5.03	21.62	-39.3	-40.3	20.5	0.00e+00	0	43	0	3670016000	48	4187
2026-01-01 13:26:34.92	4.88	21.50	-39.3	-40.3	20.6	0.00e+00	0	43	0	3677356032	48	4186
2026-01-01 13:26:35.92	4.73	21.39	-39.3	-40.3	20.6	0.00e+00	0	43	0	3683647488	48	4171
2026-01-01 13:26:36.91	4.59	21.28	-39.0	-40.0	20.6	0.00e+00	0	43	0	3690987520	48	4040
2026-01-01 13:26:37.91	4.45	21.16	-39.1	-40.1	20.5	0.00e+00	0	43	0	3698327552	48	4074
2026-01-01 13:26:38.91	4.31	21.05	-39.2	-40.2	20.4	0.00e+00	0	43	0	3705667584	48	4131
2026-01-01 13:26:39.91	4.17	20.93	-39.3	-40.3	20.3	0.00e+00	0	43	0	3713007616	48	4187
2026-01-01 13:26:40.90	4.03	20.82	-39.4	-40.4	20.2	0.00e+00	0	43	0	3720347648	48	4202
2026-01-01 13:26:41.90	3.89	20.71	-39.4	-40.4	20.2	0.00e+00	0	43	0	3727687680	49	3973
2026-01-01 13:26:42.90	3.75	20.60	-39.4	-40.4	20.2	0.00e+00	0	43	0	3735027712	49	3976
2026-01-01 13:26:43.90	3.61	20.48	-39.4	-40.3	20.3	0.00e+00	0	43	0	3742367744	49	3946
2026-01-01 13:26:44.90	3.48	20.37	-39.7	-40.7	20.3	0.00e+00	0	43	0	3748659200	49	4108
2026-01-01 13:26:45.90	3.34	20.26	-39.5	-40.5	20.4	0.00e+00	0	43	0	3755999232	49	4023
2026-01-01 13:26:46.90	3.21	20.15	-39.2	-40.2	20.4	0.00e+00	0	43	0	3763339264	49	3871
2026-01-01 13:26:47.90	3.08	20.04	-39.1	-40.1	20.4	0.00e+00	0	43	0	3770679296	49	3843
2026-01-01 13:26:48.90	2.95	19.93	-39.1	-40.1	20.4	0.00e+00	0	43	0	3778019328	49	3842
2026-01-01 13:26:49.90	2.82	19.82	-39.4	-40.4	20.4	0.00e+00	0	44	0	3785359360	49	3966
2026-01-01 13:26:50.90	2.69	19.71	-39.6	-40.5	20.3	0.00e+00	0	43	0	3792699392	49	4051
2026-01-01 13:26:51.89	2.56	19.60	-39.9	-40.8	20.1	0.00e+00	0	43	0	3800039424	49	4178
2026-01-01 13:26:52.89	2.43	19.49	-39.9	-40.8	20.1	0.00e+00	0	43	0	3806330880	49	4184
2026-01-01 13:26:53.89	2.30	19.38	-39.7	-40.6	20.0	0.00e+00	0	43	0	3813670912	49	4091
2026-01-01 13:26:54.89	2.18	19.27	-39.7	-40.7	19.9	0.00e+00	0	43	0	3821010944	49	4125
2026-01-01 13:26:55.89	2.05	19.16	-40.1	-41.1	19.9	0.00e+00	0	43	0	3828350976	49	4307
2026-01-01 13:26:56.89	1.93	19.05	-39.7	-40.7	19.8	0.00e+00	0	43	0	3835691008	49	4135
2026-01-01 13:26:57.89	1.81	18.95	-39.7	-40.8	19.8	0.00e+00	0	43	0	3843031040	49	4148
2026-01-01 13:26:58.88	1.68	18.84	-39.7	-40.7	19.9	0.00e+00	0	43	0	3849322496	49	4135
2026-01-01 13:26:59.89	1.56	18.73	-39.7	-40.7	19.9	0.00e+00	0	43	0	3856662528	49	4122
2026-01-01 13:27:00.88	1.44	18.63	-39.7	-40.7	19.9	0.00e+00	0	43	0	3864002560	49	4120
2026-01-01 13:27:01.88	1.32	18.52	-39.7	-40.7	19.9	0.00e+00	0	43	0	3871342592	49	4105
2026-01-01 13:27:02.89	1.20	18.41	-39.7	-40.7	19.9	0.00e+00	0	43	0	3878682624	49	4101
2026-01-01 13:27:03.88	1.09	18.31	-39.7	-40.6	19.9	0.00e+00	0	43	0	3886022656	49	4096
2026-01-01 13:27:04.88	0.97	18.20	-40.0	-41.0	19.9	0.00e+00	0	43	0	3893362688	49	4250
2026-01-01 13:27:05.88	0.85	18.10	-39.7	-40.7	19.8	0.00e+00	0	43	0	3900702720	49	4140
2026-01-01 13:27:06.88	0.74	17.99	-39.8	-40.8	19.8	0.00e+00	0	43	0	3908042752	49	4168
2026-01-01 13:27:07.89	0.62	17.89	-39.8	-40.8	19.7	0.00e+00	0	43	0	3914334208	49	4179
2026-01-01 13:27:08.89	0.51	17.78	-39.9	-41.0	19.7	0.00e+00	0	43	0	3921674240	49	4278
2026-01-01 13:27:09.89	0.39	17.68	-39.8	-40.8	19.7	0.00e+00	0	43	0	3929014272	49	4182
2026-01-01 13:27:10.89	0.28	17.58	-39.8	-40.9	19.7	0.00e+00	0	43	0	3936354304	49	4200
2026-01-01 13:27:11.89	0.17	17.47	-39.8	-40.9	19.7	0.00e+00	0	43	0	3943694336	49	4210
2026-01-01 13:27:12.89	0.06	17.37	-39.9	-40.9	19.6	0.00e+00	0	43	0	3951034368	49	4216
2026-01-01 13:27:13.89	359.95	17.27	-39.9	-40.9	19.6	0.00e+00	0	43	0	3958374400	49	4228
2026-01-01 13:27:14.89	359.84	17.17	-39.9	-40.9	19.7	0.00e+00	0	44	0	3965714432	49	4229
2026-01-01 13:27:15.89	359.73	17.06	-40.3	-41.3	19.6	0.00e+00	0	44	0	3972005888	49	4413
2026-01-01 13:27:16.88	359.62	16.96	-40.3	-41.3	19.5	0.00e+00	0	43	0	3979345920	50	4174
2026-01-01 13:27:17.88	359.52	16.86	-40.1	-41.3	19.4	0.00e+00	0	43	0	3986685952	50	4177
2026-01-01 13:27:18.88	359.41	16.76	-40.2	-41.3	19.3	0.00e+00	0	43	0	3994025984	50	4147
2026-01-01 13:27:19.88	359.31	16.66	-40.2	-41.3	19.3	0.00e+00	0	43	0	4001366016	50	4149
2026-01-01 13:27:20.88	359.20	16.56	-40.4	-41.5	19.1	0.00e+00	0	43	0	4008706048	50	4249
2026-01-01 13:27:21.88	359.10	16.46	-40.6	-41.7	19.2	0.00e+00	0	43	0	4016046080	50	4373
2026-01-01 13:27:22.87	358.99	16.36	-40.5	-41.6	19.0	0.00e+00	0	43	0	4023386112	51	4057
2026-01-01 13:27:23.87	358.89	16.26	-40.6	-41.7	19.1	0.00e+00	0	43	0	4030726144	51	4114
2026-01-01 13:27:24.87	358.79	16.16	-40.8	-41.9	19.0	0.00e+00	0	43	0	4037017600	51	4202
2026-01-01 13:27:25.87	358.69	16.06	-40.6	-41.6	19.0	0.00e+00	0	43	0	4044357632	51	4095
2026-01-01 13:27:26.87	358.59	15.97	-40.7	-41.8	18.9	0.00e+00	0	43	0	4051697664	51	4147
2026-01-01 13:27:27.87	358.49	15.87	-40.8	-41.9	18.9	0.00e+00	0	43	0	4059037696	51	4225
2026-01-01 13:27:28.87	358.39	15.77	-40.5	-41.6	19.0	0.00e+00	0	43	0	4066377728	51	4090
2026-01-01 13:27:29.87	358.29	15.67	-40.4	-41.6	19.0	0.00e+00	0	43	0	4073717760	51	4064
2026-01-01 13:27:30.87	358.19	15.58	-40.6	-41.8	19.1	0.00e+00	0	43	0	4081057792	51	4159
2026-01-01 13:27:31.86	358.10	15.48	-40.4	-41.5	19.1	0.00e+00	0	43	0	4088397824	51	4036
2026-01-01 13:27:32.86	358.00	15.38	-40.5	-41.7	19.1	0.00e+00	0	43	0	4094689280	51	4125
2026-01-01 13:27:33.86	357.90	15.29	-40.3	-41.4	19.1	0.00e+00	0	43	0	4102029312	51	3980
2026-01-01 13:27:34.86	357.81	15.19	-40.5	-41.6	19.2	0.00e+00	0	43	0	4109369344	51	4068
2026-01-01 13:27:35.86	357.71	15.10	-40.3	-41.3	19.2	0.00e+00	0	43	0	4116709376	51	3953
2026-01-01 13:27:36.86	357.62	15.00	-40.7	-41.7	19.1	0.00e+00	0	43	0	4124049408	51	4139
2026-01-01 13:27:37.86	357.53	14.90	-40.4	-41.4	19.1	0.00e+00	0	43	0	4131389440	51	3992
2026-01-01 13:27:38.86	357.43	14.81	-40.7	-41.7	19.1	0.00e+00	0	43	0	4138729472	51	4131
2026-01-01 13:27:39.86	357.34	14.72	-40.4	-41.5	19.1	0.00e+00	0	43	0	4146069504	51	4010
2026-01-01 13:27:40.85	357.25	14.62	-40.7	-41.8	19.0	0.00e+00	0	43	0	4153409536	51	4165
2026-01-01 13:27:41.86	357.16	14.53	-40.4	-41.5	19.0	0.00e+00	0	43	0	4159700992	51	4031
2026-01-01 13:27:42.86	357.07	14.43	-40.8	-41.9	18.9	0.00e+00	0	43	0	4167041024	51	4196
2026-01-01 13:27:43.86	356.98	14.34	-40.8	-41.9	19.0	0.00e+00	0	43	0	4174381056	51	4194
2026-01-01 13:27:44.86	356.89	14.25	-40.6	-41.6	19.0	0.00e+00	0	43	0	4181721088	51	4091
2026-01-01 13:27:45.86	356.80	14.15	-40.9	-42.0	18.9	0.00e+00	0	43	0	4189061120	51	4261
2026-01-01 13:27:46.86	356.71	14.06	-40.9	-42.0	18.9	0.00e+00	0	43	0	4196401152	51	4260
2026-01-01 13:27:47.86	356.63	13.97	-40.9	-42.0	18.8	0.00e+00	0	43	0	4203741184	51	4278
2026-01-01 13:27:48.86	356.54	13.88	-40.6	-41.7	18.8	0.00e+00	0	43	0	4211081216	51	4139
2026-01-01 13:27:49.86	356.45	13.79	-40.9	-42.1	18.8	0.00e+00	0	43	0	4218421248	51	4304
2026-01-01 13:27:50.86	356.37	13.69	-40.6	-41.8	18.8	0.00e+00	0	43	0	4224712704	51	4161
2026-01-01 13:27:51.86	356.28	13.60	-40.9	-42.1	18.7	0.00e+00	0	43	0	4232052736	51	4327
2026-01-01 13:27:52.86	356.20	13.51	-40.6	-41.8	18.7	0.00e+00	0	43	0	4239392768	51	4177
2026-01-01 13:27:53.85	356.11	13.42	-40.8	-42.1	18.7	0.00e+00	0	43	0	4246732800	51	4309
2026-01-01 13:27:54.85	356.03	13.33	-40.9	-42.2	18.6	0.00e+00	0	43	0	4254072832	51	4382
2026-01-01 13:27:55.85	355.95	13.24	-40.7	-42.0	18.6	0.00e+00	0	43	0	4261412864	51	4247
2026-01-01 13:27:56.85	355.87	13.15	-41.0	-42.2	18.5	0.00e+00	0	44	0	4268752896	51	4382
2026-01-01 13:27:57.85	355.78	13.06	-40.8	-42.0	18.4	0.00e+00	0	43	0	4276092928	51	4283
2026-01-01 13:27:58.85	355.70	12.97	-41.1	-42.4	18.4	0.00e+00	0	43	0	4282384384	51	4456
2026-01-01 13:27:59.85	355.62	12.88	-41.2	-42.4	18.4	0.00e+00	0	43	0	4289724416	51	4479
2026-01-01 13:28:00.86	355.54	12.79	-40.9	-42.2	18.3	0.00e+00	0	43	0	4297064448	51	4361
2026-01-01 13:28:01.85	355.46	12.71	-41.2	-42.6	18.2	0.00e+00	0	43	0	4304404480	51	4578
2026-01-01 13:28:02.85	355.38	12.62	-41.1	-42.6	18.2	0.00e+00	0	43	0	4311744512	51	4556
2026-01-01 13:28:03.85	355.30	12.53	-40.8	-42.4	18.2	0.00e+00	0	43	0	4319084544	51	4444
2026-01-01 13:28:04.85	355.22	12.44	-40.7	-42.4	18.2	0.00e+00	0	43	0	4326424576	51	4461
2026-01-01 13:28:05.84	355.15	12.36	-40.8	-42.5	18.0	0.00e+00	0	43	0	4333764608	51	4517
2026-01-01 13:28:06.84	355.07	12.27	-40.7	-42.5	18.0	0.00e+00	0	43	0	4341104640	51	4521
2026-01-01 13:28:07.84	354.99	12.18	-40.8	-42.6	17.9	0.00e+00	0	43	0	4347396096	51	4584
2026-01-01 13:28:08.84	354.91	12.10	-40.8	-42.7	17.9	0.00e+00	0	43	0	4354736128	51	4608
2026-01-01 13:28:09.84	354.84	12.01	-40.8	-42.7	17.9	0.00e+00	0	43	0	4362076160	51	4610
2026-01-01 13:28:10.84	354.76	11.92	-41.0	-42.8	17.8	0.00e+00	0	43	0	4369416192	51	4664
2026-01-01 13:28:11.84	354.69	11.84	-41.0	-42.8	17.7	4.50e-06	0	43	0	4376756224	52	4407
2026-01-01 13:28:12.83	354.61	11.75	-41.4	-43.0	17.7	0.00e+00	0	43	0	4383047680	52	4544
2026-01-01 13:28:13.83	354.54	11.67	-41.5	-43.1	17.7	0.00e+00	0	43	0	4390387712	52	4576
2026-01-01 13:28:14.83	354.47	11.58	-41.4	-43.0	17.7	0.00e+00	0	43	0	4397727744	52	4496
2026-01-01 13:28:15.83	354.39	11.50	-41.3	-42.8	17.8	0.00e+00	0	43	0	4405067776	52	4425
2026-01-01 13:28:16.83	354.32	11.41	-41.3	-42.9	17.7	0.00e+00	0	43	0	4412407808	52	4459
2026-01-01 13:28:17.82	354.25	11.33	-41.3	-42.8	17.7	0.00e+00	0	43	0	4419747840	52	4435
2026-01-01 13:28:18.83	354.18	11.24	-41.4	-43.0	17.6	0.00e+00	0	43	0	4427087872	52	4520
2026-01-01 13:28:19.82	354.10	11.16	-41.4	-42.9	17.6	0.00e+00	0	43	0	4434427904	52	4488
2026-01-01 13:28:20.83	354.03	11.08	-41.4	-43.0	17.6	0.00e+00	0	43	0	4441767936	52	4498
2026-01-01 13:28:21.83	353.96	10.99	-41.3	-42.9	17.7	0.00e+00	0	43	0	4448059392	52	4473
2026-01-01 13:28:22.82	353.89	10.91	-41.2	-42.8	17.8	0.00e+00	0	43	0	4455399424	52	4407
2026-01-01 13:28:23.82	353.82	10.83	-41.3	-42.9	17.7	0.00e+00	0	43	0	4462739456	52	4479
2026-01-01 13:28:24.82	353.75	10.75	-41.3	-42.9	17.7	0.00e+00	0	43	0	4470079488	52	4477
2026-01-01 13:28:25.82	353.68	10.66	-41.3	-42.9	17.6	0.00e+00	0	43	0	4477419520	52	4488
2026-01-01 13:28:26.82	353.61	10.58	-41.3	-42.9	17.7	0.00e+00	0	43	0	4484759552	52	4472
2026-01-01 13:28:27.82	353.55	10.50	-41.3	-42.9	17.7	0.00e+00	0	44	0	4492099584	52	4469
2026-01-01 13:28:28.82	353.48	10.42	-41.3	-42.9	17.6	0.00e+00	0	43	0	4499439616	52	4481
2026-01-01 13:28:29.82	353.41	10.34	-41.4	-42.9	17.6	0.00e+00	0	43	0	4506779648	52	4488
2026-01-01 13:28:30.81	353.34	10.25	-41.5	-43.0	17.6	0.00e+00	0	43	0	4513071104	52	4544
2026-01-01 13:28:31.81	353.28	10.17	-41.4	-42.8	17.7	0.00e+00	0	43	0	4520411136	52	4440
2026-01-01 13:28:32.81	353.21	10.09	-41.5	-42.9	17.6	0.00e+00	0	44	0	4527751168	52	4481
2026-01-01 13:28:33.81	353.15	10.01	-41.5	-42.9	17.6	0.00e+00	0	43	0	4535091200	52	4487
2026-01-01 13:28:34.81	353.08	9.93	-41.5	-42.9	17.6	0.00e+00	0	43	0	4542431232	52	4474
2026-01-01 13:28:35.81	353.02	9.85	-41.4	-43.0	17.6	0.00e+00	0	43	0	4549771264	52	4508
2026-01-01 13:28:36.82	352.95	9.77	-41.3	-42.9	17.7	0.00e+00	0	43	0	4557111296	52	4454
2026-01-01 13:28:37.81	352.89	9.69	-41.3	-43.0	17.6	0.00e+00	0	44	0	4564451328	52	4503
2026-01-01 13:28:38.81	352.82	9.61	-41.4	-43.0	17.5	0.00e+00	0	43	0	4570742784	52	4519
2026-01-01 13:28:39.80	352.76	9.53	-41.4	-43.1	17.5	0.00e+00	0	43	0	4578082816	52	4549
2026-01-01 13:28:40.80	352.70	9.45	-41.5	-43.1	17.4	0.00e+00	0	43	0	4585422848	52	4559
2026-01-01 13:28:41.79	352.63	9.38	-41.6	-43.2	17.4	0.00e+00	0	43	0	4592762880	52	4607
2026-01-01 13:28:42.79	352.57	9.30	-41.7	-43.2	17.3	0.00e+00	0	43	0	4600102912	52	4622
2026-01-01 13:28:43.79	352.51	9.22	-41.7	-43.1	17.4	0.00e+00	0	43	0	4607442944	53	4339
2026-01-01 13:28:44.79	352.45	9.14	-41.8	-43.2	17.3	0.00e+00	0	43	0	4613734400	53	4364
2026-01-01 13:28:45.79	352.39	9.06	-41.7	-43.1	17.4	0.00e+00	0	43	0	4622123008	53	4314
2026-01-01 13:28:46.79	352.32	8.99	-46.4	-50.2	11.3	0.00e+00	0	43	0	4629463040	61	6143
2026-01-01 13:28:47.79	352.26	8.91	-47.7	-61.9	3.8	8.47e-01	0	43	104	4629463040	66	17761
2026-01-01 13:28:48.79	352.20	8.83	-50.8	-62.2	3.8	8.48e-01	0	43	104	4629463040	71	13736
2026-01-01 13:28:49.79	352.14	8.75	-50.9	-62.2	3.8	8.47e-01	0	43	104	4629463040	71	13759
2026-01-01 13:28:50.80	352.08	8.68	-51.5	-62.4	3.8	8.46e-01	0	43	104	4629463040	72	13267
2026-01-01 13:28:51.80	352.02	8.60	-50.5	-62.5	3.8	8.47e-01	0	43	104	4629463040	71	14243
2026-01-01 13:28:52.80	351.96	8.52	-51.4	-62.5	3.8	8.47e-01	0	43	104	4629463040	72	13539
2026-01-01 13:28:53.80	351.90	8.45	-51.2	-62.5	3.8	8.46e-01	0	43	104	4629463040	72	13491
