passes_logs/2026/01/01/T1/T1__20260101_145727_FENGYUN_3E_rec.log

#Pass ID: 20260101_145727_FENGYUN 3E
#Satellite: FENGYUN 3E
#Configuration: FENGYUN 3E
#almurnet v.1.7.20251203
#Start time: 2026-01-01 14:57:29

#Version: 2.0.20230620
#Station: T1
#Location: 37.570604 lon 55.790049 lat
#TLE: 1 49008U 21062A   25365.98258168  .00000149  00000+0  90987-4 0  9990
#TLE: 2 49008  98.7481   6.2763 0001360 169.3782 190.7423 14.19883270232859

#Time	Az	El	Level	Level2	SNR	BER	BlckErr	Temp	State	Recorded	gain1	gain2
2026-01-01 14:57:29.13	184.21	5.15	-49.6	-61.4	3.8	8.47e-01	0	41	0	0	70	13272
2026-01-01 14:57:30.13	184.25	5.22	-49.6	-61.0	3.8	8.47e-01	0	41	104	0	68	14331
2026-01-01 14:57:31.14	184.30	5.29	-49.6	-60.9	3.8	8.47e-01	0	41	104	0	68	14095
2026-01-01 14:57:32.14	184.34	5.36	-49.6	-60.9	3.8	8.47e-01	0	41	104	0	68	14092
2026-01-01 14:57:33.14	184.39	5.43	-49.6	-60.8	3.8	8.45e-01	0	41	104	0	68	13887
2026-01-01 14:57:34.15	184.43	5.50	-49.6	-60.9	3.8	8.47e-01	0	41	104	0	68	14139
2026-01-01 14:57:35.16	184.48	5.57	-49.6	-61.0	3.8	8.47e-01	0	41	104	0	68	14319
2026-01-01 14:57:36.16	184.52	5.64	-49.6	-61.1	3.8	8.47e-01	0	42	104	0	68	14429
2026-01-01 14:57:37.16	184.56	5.71	-49.6	-61.3	3.8	8.48e-01	0	42	104	0	68	14763
2026-01-01 14:57:38.17	184.61	5.79	-49.6	-61.4	3.8	8.46e-01	0	41	104	0	68	14933
2026-01-01 14:57:39.17	184.66	5.86	-49.7	-61.4	3.8	8.47e-01	0	42	104	0	68	14996
2026-01-01 14:57:40.17	184.70	5.93	-49.7	-61.4	3.8	8.47e-01	0	42	104	0	68	15048
2026-01-01 14:57:41.18	184.75	6.00	-49.7	-61.5	3.8	8.45e-01	0	42	104	0	68	15183
2026-01-01 14:57:42.18	184.79	6.07	-49.7	-61.6	3.8	8.47e-01	0	42	104	0	68	15232
2026-01-01 14:57:43.19	184.84	6.14	-49.7	-61.6	3.8	8.47e-01	0	42	104	0	68	15350
2026-01-01 14:57:44.19	184.89	6.22	-49.7	-61.7	3.8	8.47e-01	0	42	104	0	68	15449
2026-01-01 14:57:45.19	184.93	6.29	-49.7	-61.7	3.8	8.45e-01	0	42	104	0	68	15488
2026-01-01 14:57:46.20	184.98	6.36	-49.7	-61.6	3.8	8.46e-01	0	42	104	0	68	15325
2026-01-01 14:57:47.20	185.03	6.43	-49.6	-61.3	3.8	8.46e-01	0	42	104	0	68	14747
2026-01-01 14:57:48.20	185.08	6.51	-49.6	-60.5	3.8	8.45e-01	0	42	104	0	68	13500
2026-01-01 14:57:49.21	185.12	6.58	-49.4	-59.3	3.8	8.46e-01	0	42	104	0	68	11722
2026-01-01 14:57:50.21	185.17	6.65	-49.2	-57.7	4.3	8.38e-01	0	42	0	0	68	9785
2026-01-01 14:57:51.22	185.22	6.73	-48.9	-56.2	5.0	7.99e-01	0	42	0	0	68	8257
2026-01-01 14:57:52.22	185.27	6.80	-48.6	-54.9	5.8	6.30e-01	0	42	0	0	68	7118
2026-01-01 14:57:53.23	185.32	6.87	-48.1	-53.7	6.7	2.41e-01	0	42	0	7340032	67	6539
2026-01-01 14:57:54.23	185.37	6.95	-47.8	-53.0	7.2	1.48e-01	0	42	0	14680064	66	6411
2026-01-01 14:57:55.23	185.41	7.02	-47.7	-52.7	7.5	1.02e-01	0	42	0	22020096	66	6198
2026-01-01 14:57:56.24	185.46	7.10	-47.7	-52.8	7.5	9.53e-02	0	42	0	29360128	66	6209
2026-01-01 14:57:57.23	185.51	7.17	-47.9	-53.4	7.0	1.31e-01	0	42	0	36700160	66	6651
2026-01-01 14:57:58.24	185.56	7.24	-48.3	-54.6	6.0	2.40e-01	0	42	0	44040192	66	7651
2026-01-01 14:57:59.24	185.61	7.32	-48.8	-56.5	4.8	7.57e-01	0	42	0	47185920	67	9052
2026-01-01 14:58:00.24	185.66	7.39	-49.2	-58.3	4.1	8.35e-01	0	42	0	47185920	67	11105
2026-01-01 14:58:01.25	185.71	7.47	-49.2	-58.3	4.1	8.42e-01	0	42	0	47185920	67	11138
2026-01-01 14:58:02.26	185.77	7.55	-48.7	-55.6	5.2	7.95e-01	0	42	0	47185920	67	8157
2026-01-01 14:58:03.26	185.82	7.62	-47.6	-52.4	7.8	1.68e-01	0	43	0	52428800	66	5961
2026-01-01 14:58:04.26	185.87	7.70	-46.5	-50.0	10.4	9.38e-03	0	42	0	59768832	63	5366
2026-01-01 14:58:05.27	185.92	7.77	-45.1	-47.8	12.6	3.46e-04	0	42	0	67108864	61	4653
2026-01-01 14:58:06.27	185.97	7.85	-44.0	-46.3	14.0	4.50e-06	0	42	0	74448896	58	4661
2026-01-01 14:58:07.28	186.02	7.93	-43.1	-45.0	15.2	0.00e+00	0	43	0	80740352	56	4543
2026-01-01 14:58:08.28	186.08	8.00	-42.2	-44.0	16.0	0.00e+00	0	42	0	88080384	55	4256
2026-01-01 14:58:09.28	186.13	8.08	-41.8	-43.5	16.4	0.00e+00	0	42	0	96468992	54	4291
2026-01-01 14:58:10.29	186.18	8.16	-41.6	-43.3	16.6	0.00e+00	0	43	0	102760448	53	4408
2026-01-01 14:58:11.29	186.23	8.24	-41.4	-43.2	16.8	0.00e+00	0	43	0	110100480	53	4351
2026-01-01 14:58:12.29	186.29	8.31	-41.6	-43.3	16.6	0.00e+00	0	43	0	117440512	53	4435
2026-01-01 14:58:13.30	186.34	8.39	-42.0	-43.8	16.2	0.00e+00	0	43	0	124780544	53	4683
2026-01-01 14:58:14.30	186.39	8.47	-42.4	-44.3	15.8	0.00e+00	0	43	0	132120576	54	4660
2026-01-01 14:58:15.31	186.45	8.55	-43.1	-45.1	14.9	0.00e+00	0	43	0	139460608	55	4857
2026-01-01 14:58:16.31	186.50	8.63	-43.9	-46.2	14.1	2.20e-06	0	43	0	146800640	57	4884
2026-01-01 14:58:17.31	186.56	8.71	-44.7	-47.2	13.1	1.37e-05	0	43	0	154140672	58	5199
2026-01-01 14:58:18.32	186.61	8.79	-45.5	-48.5	11.9	2.95e-04	0	43	0	161480704	60	5375
2026-01-01 14:58:19.32	186.67	8.87	-46.3	-49.8	10.5	2.49e-03	0	43	0	167772160	62	5562
2026-01-01 14:58:20.33	186.72	8.95	-47.0	-51.1	9.2	1.44e-02	0	43	0	175112192	63	6109
2026-01-01 14:58:21.33	186.78	9.02	-47.7	-52.7	7.5	7.82e-02	0	43	0	182452224	64	6918
2026-01-01 14:58:22.33	186.84	9.10	-48.1	-53.9	6.5	2.12e-01	0	43	0	189792256	65	7496
2026-01-01 14:58:23.34	186.89	9.19	-47.7	-52.4	7.8	1.70e-01	0	43	0	197132288	65	6318
2026-01-01 14:58:24.34	186.95	9.27	-47.5	-52.0	8.3	3.51e-02	0	43	0	204472320	65	6028
2026-01-01 14:58:25.34	187.01	9.35	-49.2	-57.0	4.0	8.47e-01	0	43	104	206569472	69	8537
2026-01-01 14:58:26.34	187.06	9.43	-46.6	-50.1	10.4	7.32e-05	0	43	0	210763776	62	5762
2026-01-01 14:58:27.34	187.12	9.51	-48.4	-54.3	6.1	7.43e-01	0	43	0	214958080	66	7373
2026-01-01 14:58:28.35	187.18	9.59	-44.7	-47.3	13.2	2.86e-05	0	43	0	222298112	60	4673
2026-01-01 14:58:29.35	187.24	9.67	-43.5	-45.6	14.7	0.00e+00	0	43	0	229638144	57	4553
2026-01-01 14:58:30.35	187.30	9.75	-43.3	-45.3	15.0	0.00e+00	0	43	0	236978176	56	4685
2026-01-01 14:58:31.36	187.36	9.84	-43.4	-45.4	14.9	0.00e+00	0	43	0	244318208	56	4724
2026-01-01 14:58:32.36	187.41	9.92	-43.1	-45.0	15.2	0.00e+00	0	43	0	250609664	56	4543
2026-01-01 14:58:33.36	187.47	10.00	-43.1	-45.0	15.3	0.00e+00	0	43	0	257949696	56	4516
2026-01-01 14:58:34.36	187.53	10.08	-42.9	-44.8	15.4	0.00e+00	0	43	0	265289728	56	4437
2026-01-01 14:58:35.37	187.59	10.17	-42.7	-44.6	15.5	0.00e+00	0	43	0	272629760	55	4590
2026-01-01 14:58:36.37	187.65	10.25	-42.5	-44.3	15.8	0.00e+00	0	43	0	279969792	55	4441
2026-01-01 14:58:37.38	187.72	10.33	-42.5	-44.3	15.8	0.00e+00	0	43	0	287309824	55	4429
2026-01-01 14:58:38.38	187.78	10.42	-42.4	-44.3	15.9	0.00e+00	0	43	0	294649856	55	4400
2026-01-01 14:58:39.38	187.84	10.50	-42.5	-44.4	15.7	0.00e+00	0	43	0	301989888	55	4468
2026-01-01 14:58:40.39	187.90	10.59	-42.3	-44.1	16.0	0.00e+00	0	43	0	309329920	55	4309
2026-01-01 14:58:41.39	187.96	10.67	-42.0	-43.7	16.4	0.00e+00	0	43	0	316669952	54	4387
2026-01-01 14:58:42.39	188.02	10.76	-42.0	-43.8	16.2	0.00e+00	0	43	0	324009984	54	4436
2026-01-01 14:58:43.39	188.09	10.84	-41.7	-43.5	16.6	0.00e+00	0	43	0	331350016	54	4264
2026-01-01 14:58:44.40	188.15	10.93	-41.8	-43.6	16.5	0.00e+00	0	43	0	337641472	53	4557
2026-01-01 14:58:45.40	188.21	11.01	-41.7	-43.5	16.6	0.00e+00	0	43	0	344981504	53	4494
2026-01-01 14:58:46.40	188.28	11.10	-41.7	-43.5	16.6	0.00e+00	0	43	0	352321536	53	4506
2026-01-01 14:58:47.40	188.34	11.18	-41.6	-43.4	16.7	0.00e+00	0	43	0	359661568	53	4462
2026-01-01 14:58:48.40	188.41	11.27	-41.5	-43.2	16.8	0.00e+00	0	43	0	367001600	53	4357
2026-01-01 14:58:49.40	188.47	11.36	-41.3	-43.0	17.0	0.00e+00	0	43	0	374341632	53	4279
2026-01-01 14:58:50.40	188.54	11.44	-41.2	-42.9	17.2	0.00e+00	0	43	0	381681664	52	4445
2026-01-01 14:58:51.40	188.60	11.53	-41.0	-42.7	17.3	0.00e+00	0	43	0	389021696	52	4359
2026-01-01 14:58:52.41	188.67	11.62	-41.1	-42.8	17.3	0.00e+00	0	43	0	395313152	52	4405
2026-01-01 14:58:53.41	188.73	11.71	-41.0	-42.7	17.3	0.00e+00	0	43	0	402653184	52	4376
2026-01-01 14:58:54.41	188.80	11.80	-40.9	-42.6	17.4	0.00e+00	0	43	0	409993216	52	4327
2026-01-01 14:58:55.41	188.87	11.88	-41.1	-42.9	17.1	0.00e+00	0	43	0	417333248	52	4447
2026-01-01 14:58:56.41	188.94	11.97	-41.2	-42.9	17.1	0.00e+00	0	43	0	424673280	52	4469
2026-01-01 14:58:57.41	189.00	12.06	-41.1	-42.8	17.2	0.00e+00	0	43	0	432013312	52	4437
2026-01-01 14:58:58.42	189.07	12.15	-41.1	-42.8	17.2	0.00e+00	0	43	0	439353344	52	4427
2026-01-01 14:58:59.42	189.14	12.24	-40.9	-42.6	17.4	0.00e+00	0	43	0	446693376	52	4336
2026-01-01 14:59:00.42	189.21	12.33	-40.8	-42.5	17.6	0.00e+00	0	43	0	454033408	52	4244
2026-01-01 14:59:01.42	189.28	12.42	-40.7	-42.3	17.7	0.00e+00	0	43	0	460324864	51	4436
2026-01-01 14:59:02.42	189.35	12.51	-40.5	-42.1	17.9	0.00e+00	0	43	0	467664896	51	4319
2026-01-01 14:59:03.42	189.42	12.60	-40.9	-42.6	17.5	0.00e+00	0	43	0	475004928	51	4572
2026-01-01 14:59:04.42	189.49	12.69	-40.8	-42.4	17.6	0.00e+00	0	43	0	482344960	51	4490
2026-01-01 14:59:05.43	189.56	12.79	-40.4	-42.1	17.9	0.00e+00	0	43	0	489684992	51	4308
2026-01-01 14:59:06.43	189.63	12.88	-40.3	-41.9	18.0	0.00e+00	0	43	0	497025024	51	4232
2026-01-01 14:59:07.43	189.70	12.97	-40.4	-42.1	17.9	0.00e+00	0	43	0	504365056	51	4302
2026-01-01 14:59:08.43	189.78	13.06	-40.3	-41.9	18.1	0.00e+00	0	43	0	511705088	51	4236
2026-01-01 14:59:09.43	189.85	13.15	-40.3	-41.9	18.0	0.00e+00	0	43	0	519045120	51	4228
2026-01-01 14:59:10.44	189.92	13.25	-40.3	-41.9	18.0	0.00e+00	0	43	0	526385152	51	4232
2026-01-01 14:59:11.44	190.00	13.34	-40.4	-42.0	18.0	0.00e+00	0	43	0	533725184	51	4263
2026-01-01 14:59:12.44	190.07	13.43	-40.3	-41.9	18.1	0.00e+00	0	43	0	541065216	51	4202
2026-01-01 14:59:13.44	190.15	13.53	-40.7	-42.3	17.8	0.00e+00	0	43	0	547356672	51	4422
2026-01-01 14:59:14.44	190.22	13.62	-40.5	-42.1	17.9	0.00e+00	0	44	0	554696704	51	4335
2026-01-01 14:59:15.44	190.30	13.72	-40.3	-41.9	18.1	0.00e+00	0	44	0	562036736	51	4222
2026-01-01 14:59:16.44	190.37	13.81	-40.2	-41.8	18.2	0.00e+00	0	43	0	569376768	51	4146
2026-01-01 14:59:17.45	190.45	13.91	-40.2	-41.7	18.2	0.00e+00	0	43	0	576716800	51	4145
2026-01-01 14:59:18.45	190.53	14.00	-40.2	-41.7	18.3	0.00e+00	0	43	0	584056832	50	4384
2026-01-01 14:59:19.45	190.60	14.10	-40.1	-41.6	18.3	0.00e+00	0	44	0	591396864	50	4333
2026-01-01 14:59:20.46	190.68	14.20	-40.2	-41.7	18.3	0.00e+00	0	43	0	598736896	50	4373
2026-01-01 14:59:21.46	190.76	14.29	-40.0	-41.5	18.5	0.00e+00	0	43	0	605028352	50	4266
2026-01-01 14:59:22.46	190.84	14.39	-39.8	-41.3	18.7	0.00e+00	0	43	0	612368384	50	4165
2026-01-01 14:59:23.46	190.92	14.49	-39.7	-41.2	18.8	0.00e+00	0	43	0	619708416	50	4123
2026-01-01 14:59:24.46	191.00	14.58	-39.8	-41.3	18.6	0.00e+00	0	43	0	627048448	50	4173
2026-01-01 14:59:25.47	191.08	14.68	-39.8	-41.3	18.6	0.00e+00	0	44	0	634388480	50	4191
2026-01-01 14:59:26.47	191.16	14.78	-39.8	-41.3	18.7	0.00e+00	0	44	0	641728512	50	4171
2026-01-01 14:59:27.47	191.24	14.88	-39.7	-41.2	18.7	0.00e+00	0	44	0	649068544	50	4140
2026-01-01 14:59:28.47	191.32	14.98	-39.3	-40.7	19.1	0.00e+00	0	44	0	656408576	49	4134
2026-01-01 14:59:29.48	191.41	15.08	-39.7	-41.2	18.8	0.00e+00	0	44	0	663748608	49	4353
2026-01-01 14:59:30.47	191.49	15.18	-39.6	-41.1	18.8	0.00e+00	0	44	0	670040064	49	4328
2026-01-01 14:59:31.47	191.57	15.28	-39.7	-41.2	18.7	0.00e+00	0	44	0	677380096	49	4369
2026-01-01 14:59:32.47	191.66	15.38	-39.7	-41.2	18.7	0.00e+00	0	44	0	684720128	49	4389
2026-01-01 14:59:33.48	191.74	15.48	-39.8	-41.3	18.7	0.00e+00	0	44	0	692060160	49	4422
2026-01-01 14:59:34.48	191.83	15.58	-39.7	-41.2	18.8	0.00e+00	0	44	0	699400192	49	4364
2026-01-01 14:59:35.48	191.91	15.68	-39.6	-41.2	18.8	0.00e+00	0	44	0	706740224	49	4345
2026-01-01 14:59:36.49	192.00	15.78	-39.6	-41.1	18.9	0.00e+00	0	44	0	714080256	49	4318
2026-01-01 14:59:37.49	192.08	15.88	-39.5	-41.0	18.9	0.00e+00	0	43	0	721420288	49	4266
2026-01-01 14:59:38.49	192.17	15.99	-39.4	-40.9	19.0	0.00e+00	0	44	0	728760320	49	4224
2026-01-01 14:59:39.49	192.26	16.09	-39.4	-40.9	19.0	0.00e+00	0	44	0	736100352	49	4222
2026-01-01 14:59:40.49	192.35	16.19	-39.5	-40.9	19.0	0.00e+00	0	44	0	743440384	49	4238
2026-01-01 14:59:41.50	192.44	16.30	-39.5	-41.0	19.0	0.00e+00	0	44	0	750780416	49	4251
2026-01-01 14:59:42.50	192.53	16.40	-39.3	-40.8	19.1	0.00e+00	0	44	0	757071872	49	4185
2026-01-01 14:59:43.51	192.62	16.51	-39.3	-40.8	19.1	0.00e+00	0	44	0	764411904	49	4182
2026-01-01 14:59:44.51	192.71	16.61	-39.4	-40.9	19.0	0.00e+00	0	44	0	771751936	48	4484
2026-01-01 14:59:45.51	192.80	16.72	-39.3	-40.8	19.2	0.00e+00	0	43	0	779091968	48	4407
2026-01-01 14:59:46.51	192.89	16.82	-39.2	-40.7	19.2	0.00e+00	0	44	0	786432000	48	4373
2026-01-01 14:59:47.51	192.99	16.93	-39.3	-40.8	19.2	0.00e+00	0	44	0	793772032	48	4399
2026-01-01 14:59:48.51	193.08	17.03	-39.3	-40.7	19.2	0.00e+00	0	44	0	801112064	48	4385
2026-01-01 14:59:49.52	193.17	17.14	-39.6	-41.1	18.9	0.00e+00	0	44	0	808452096	48	4575
2026-01-01 14:59:50.52	193.27	17.25	-39.2	-40.6	19.3	0.00e+00	0	44	0	814743552	48	4321
2026-01-01 14:59:51.52	193.36	17.36	-39.2	-40.6	19.3	0.00e+00	0	44	0	822083584	48	4336
2026-01-01 14:59:52.53	193.46	17.47	-39.1	-40.6	19.4	0.00e+00	0	44	0	829423616	48	4296
2026-01-01 14:59:53.53	193.56	17.57	-39.2	-40.6	19.4	0.00e+00	0	44	0	836763648	48	4297
2026-01-01 14:59:54.53	193.65	17.68	-39.2	-40.6	19.3	0.00e+00	0	43	0	844103680	48	4309
2026-01-01 14:59:55.53	193.75	17.79	-39.1	-40.5	19.4	0.00e+00	0	43	0	851443712	48	4246
2026-01-01 14:59:56.53	193.85	17.90	-39.0	-40.4	19.5	0.00e+00	0	44	0	858783744	48	4221
2026-01-01 14:59:57.53	193.95	18.01	-39.0	-40.4	19.5	0.00e+00	0	44	0	866123776	48	4205
2026-01-01 14:59:58.54	194.05	18.12	-38.9	-40.2	19.7	0.00e+00	0	44	0	873463808	48	4134
2026-01-01 14:59:59.54	194.15	18.23	-38.8	-40.2	19.7	0.00e+00	0	44	0	880803840	48	4122
2026-01-01 15:00:00.54	194.25	18.34	-38.9	-40.3	19.6	0.00e+00	0	44	0	888143872	48	4150
2026-01-01 15:00:01.55	194.36	18.46	-38.8	-40.1	19.7	0.00e+00	0	44	0	895483904	48	4097
2026-01-01 15:00:02.55	194.46	18.57	-38.7	-40.1	19.7	0.00e+00	0	44	0	901775360	48	4069
2026-01-01 15:00:03.55	194.56	18.68	-38.8	-40.2	19.7	0.00e+00	0	44	0	909115392	48	4104
2026-01-01 15:00:04.55	194.67	18.79	-38.8	-40.1	19.7	0.00e+00	0	44	0	916455424	48	4077
2026-01-01 15:00:05.56	194.77	18.91	-38.5	-39.9	19.6	0.00e+00	0	44	0	923795456	47	4235
2026-01-01 15:00:06.56	194.88	19.02	-38.6	-40.0	19.5	0.00e+00	0	44	0	931135488	47	4275
2026-01-01 15:00:07.56	194.99	19.14	-38.6	-40.0	19.5	0.00e+00	0	44	0	938475520	47	4267
2026-01-01 15:00:08.56	195.09	19.25	-38.6	-40.0	19.5	0.00e+00	0	44	0	945815552	47	4282
2026-01-01 15:00:09.57	195.20	19.37	-38.6	-40.1	19.4	0.00e+00	0	44	0	953155584	47	4300
2026-01-01 15:00:10.57	195.31	19.48	-39.0	-40.5	19.0	0.00e+00	0	43	0	959447040	47	4529
2026-01-01 15:00:11.57	195.42	19.60	-38.6	-40.0	19.5	0.00e+00	0	44	0	966787072	47	4261
2026-01-01 15:00:12.57	195.53	19.71	-38.6	-40.1	19.4	0.00e+00	0	44	0	974127104	47	4295
2026-01-01 15:00:13.57	195.64	19.83	-38.5	-40.0	19.5	0.00e+00	0	44	0	981467136	47	4256
2026-01-01 15:00:14.58	195.76	19.95	-38.6	-40.1	19.4	0.00e+00	0	44	0	988807168	47	4312
2026-01-01 15:00:15.58	195.87	20.07	-38.6	-40.0	19.5	0.00e+00	0	44	0	996147200	47	4282
2026-01-01 15:00:16.58	195.98	20.18	-38.7	-40.2	19.3	0.00e+00	0	44	0	1003487232	47	4366
2026-01-01 15:00:17.58	196.10	20.30	-38.8	-40.3	19.2	0.00e+00	0	44	0	1010827264	47	4420
2026-01-01 15:00:18.58	196.21	20.42	-38.7	-40.2	19.3	0.00e+00	0	44	0	1018167296	47	4370
2026-01-01 15:00:19.58	196.33	20.54	-38.8	-40.3	19.2	0.00e+00	0	44	0	1024458752	47	4422
2026-01-01 15:00:20.59	196.45	20.66	-38.7	-40.3	19.2	0.00e+00	0	44	0	1032847360	47	4399
2026-01-01 15:00:21.59	196.57	20.78	-38.7	-40.2	19.3	0.00e+00	0	44	0	1040187392	47	4360
2026-01-01 15:00:22.59	196.69	20.90	-38.6	-40.1	19.4	0.00e+00	0	44	0	1046478848	47	4304
2026-01-01 15:00:23.59	196.81	21.03	-38.5	-40.0	19.5	0.00e+00	0	44	0	1053818880	47	4288
2026-01-01 15:00:24.60	196.93	21.15	-38.5	-40.0	19.4	0.00e+00	0	44	0	1061158912	47	4272
2026-01-01 15:00:25.60	197.05	21.27	-38.6	-40.1	19.4	0.00e+00	0	44	0	1068498944	47	4323
2026-01-01 15:00:26.60	197.17	21.39	-38.5	-40.0	19.5	0.00e+00	0	44	0	1075838976	47	4253
2026-01-01 15:00:27.60	197.30	21.52	-38.4	-39.9	19.5	0.00e+00	0	44	0	1083179008	47	4224
2026-01-01 15:00:28.60	197.42	21.64	-38.4	-39.9	19.6	0.00e+00	0	44	0	1090519040	47	4212
2026-01-01 15:00:29.61	197.55	21.76	-38.4	-39.9	19.5	0.00e+00	0	44	0	1097859072	47	4234
2026-01-01 15:00:30.61	197.68	21.89	-38.4	-39.9	19.5	0.00e+00	0	44	0	1105199104	47	4224
2026-01-01 15:00:31.61	197.80	22.01	-38.3	-39.8	19.7	0.00e+00	0	44	0	1111490560	46	4424
2026-01-01 15:00:32.61	197.93	22.14	-38.4	-39.8	19.6	0.00e+00	0	44	0	1118830592	46	4429
2026-01-01 15:00:33.61	198.06	22.27	-38.4	-39.9	19.6	0.00e+00	0	44	0	1126170624	46	4474
2026-01-01 15:00:34.61	198.19	22.39	-38.3	-39.8	19.7	0.00e+00	0	44	0	1133510656	46	4399
2026-01-01 15:00:35.62	198.32	22.52	-38.3	-39.7	19.7	0.00e+00	0	44	0	1140850688	46	4355
2026-01-01 15:00:36.62	198.46	22.65	-38.4	-39.9	19.6	0.00e+00	0	44	0	1148190720	46	4452
2026-01-01 15:00:37.62	198.59	22.78	-38.3	-39.8	19.7	0.00e+00	0	43	0	1155530752	46	4396
2026-01-01 15:00:38.62	198.73	22.90	-38.3	-39.7	19.8	0.00e+00	0	44	0	1162870784	46	4345
2026-01-01 15:00:39.62	198.86	23.03	-38.4	-39.8	19.7	0.00e+00	0	44	0	1169162240	46	4419
2026-01-01 15:00:40.63	199.00	23.16	-38.4	-39.8	19.7	0.00e+00	0	44	0	1176502272	46	4412
2026-01-01 15:00:41.63	199.14	23.29	-38.4	-39.8	19.7	0.00e+00	0	44	0	1183842304	46	4432
2026-01-01 15:00:42.63	199.28	23.42	-38.4	-39.8	19.7	0.00e+00	0	44	0	1191182336	46	4438
2026-01-01 15:00:43.63	199.42	23.56	-38.4	-39.8	19.8	0.00e+00	0	44	0	1198522368	46	4409
2026-01-01 15:00:44.63	199.56	23.69	-38.4	-39.7	19.8	0.00e+00	0	44	0	1205862400	46	4384
2026-01-01 15:00:45.63	199.70	23.82	-38.3	-39.6	19.9	0.00e+00	0	44	0	1213202432	46	4331
2026-01-01 15:00:46.64	199.85	23.95	-38.2	-39.6	19.9	0.00e+00	0	44	0	1220542464	46	4316
2026-01-01 15:00:47.64	199.99	24.08	-38.2	-39.6	19.9	0.00e+00	0	44	0	1227882496	46	4306
2026-01-01 15:00:48.64	200.14	24.22	-38.2	-39.5	19.9	0.00e+00	0	44	0	1235222528	46	4287
2026-01-01 15:00:49.64	200.29	24.35	-38.1	-39.5	20.0	0.00e+00	0	44	0	1242562560	46	4271
2026-01-01 15:00:50.64	200.44	24.49	-38.2	-39.5	20.0	0.00e+00	0	44	0	1249902592	46	4281
2026-01-01 15:00:51.64	200.59	24.62	-38.2	-39.6	19.9	0.00e+00	0	44	0	1256194048	46	4316
2026-01-01 15:00:52.65	200.74	24.76	-38.3	-39.7	19.8	0.00e+00	0	44	0	1263534080	46	4356
2026-01-01 15:00:53.65	200.89	24.89	-38.1	-39.4	20.0	0.00e+00	0	44	0	1270874112	46	4224
2026-01-01 15:00:54.65	201.05	25.03	-37.9	-39.2	20.2	0.00e+00	0	44	0	1278214144	46	4124
2026-01-01 15:00:55.66	201.20	25.17	-37.8	-39.2	20.2	0.00e+00	0	44	0	1285554176	46	4102
2026-01-01 15:00:56.66	201.36	25.30	-37.8	-39.2	20.2	0.00e+00	0	44	0	1292894208	46	4104
2026-01-01 15:00:57.66	201.52	25.44	-37.9	-39.3	20.1	0.00e+00	0	44	0	1300234240	46	4173
2026-01-01 15:00:58.67	201.68	25.58	-37.8	-39.2	20.2	0.00e+00	0	44	0	1307574272	46	4109
2026-01-01 15:00:59.67	201.84	25.72	-38.0	-39.4	20.0	0.00e+00	0	44	0	1314914304	46	4197
2026-01-01 15:01:00.67	202.00	25.86	-37.9	-39.3	20.1	0.00e+00	0	44	0	1321205760	46	4167
2026-01-01 15:01:01.67	202.17	26.00	-38.0	-39.4	20.0	0.00e+00	0	44	0	1328545792	46	4221
2026-01-01 15:01:02.67	202.33	26.14	-37.9	-39.2	20.1	0.00e+00	0	44	0	1335885824	46	4144
2026-01-01 15:01:03.67	202.50	26.28	-37.9	-39.3	20.1	0.00e+00	0	44	0	1343225856	46	4175
2026-01-01 15:01:04.68	202.67	26.42	-37.9	-39.3	20.1	0.00e+00	0	44	0	1350565888	46	4166
2026-01-01 15:01:05.68	202.83	26.56	-38.0	-39.4	20.0	0.00e+00	0	44	0	1357905920	46	4226
2026-01-01 15:01:06.68	203.01	26.71	-37.9	-39.3	20.1	0.00e+00	0	44	0	1365245952	46	4147
2026-01-01 15:01:07.68	203.18	26.85	-37.9	-39.3	20.1	0.00e+00	0	44	0	1372585984	46	4171
2026-01-01 15:01:08.69	203.35	26.99	-37.8	-39.2	20.2	0.00e+00	0	44	0	1379926016	46	4109
2026-01-01 15:01:09.69	203.53	27.14	-37.6	-38.9	20.4	0.00e+00	0	44	0	1387266048	46	3985
2026-01-01 15:01:10.69	203.70	27.28	-37.6	-38.9	20.4	0.00e+00	0	44	0	1394606080	45	4210
2026-01-01 15:01:11.69	203.88	27.43	-37.7	-39.0	20.4	0.00e+00	0	44	0	1400897536	45	4252
2026-01-01 15:01:12.69	204.06	27.57	-37.5	-38.8	20.5	0.00e+00	0	44	0	1408237568	45	4177
2026-01-01 15:01:13.70	204.25	27.72	-37.4	-38.6	20.6	0.00e+00	0	44	0	1415577600	45	4090
2026-01-01 15:01:14.70	204.43	27.86	-37.7	-39.1	20.3	0.00e+00	0	44	0	1422917632	45	4292
2026-01-01 15:01:15.70	204.61	28.01	-37.5	-38.8	20.5	0.00e+00	0	44	0	1430257664	45	4179
2026-01-01 15:01:16.71	204.80	28.16	-37.5	-38.8	20.5	0.00e+00	0	44	0	1437597696	45	4189
2026-01-01 15:01:17.71	204.99	28.31	-37.6	-38.9	20.5	0.00e+00	0	43	0	1444937728	45	4237
2026-01-01 15:01:18.71	205.18	28.45	-37.5	-38.9	20.5	0.00e+00	0	44	0	1452277760	45	4194
2026-01-01 15:01:19.72	205.37	28.60	-37.6	-38.9	20.6	0.00e+00	0	44	0	1459617792	45	4203
2026-01-01 15:01:20.72	205.57	28.75	-37.5	-38.8	20.6	0.00e+00	0	44	0	1465909248	45	4183
2026-01-01 15:01:21.72	205.76	28.90	-37.6	-38.9	20.6	0.00e+00	0	44	0	1473249280	45	4200
2026-01-01 15:01:22.71	205.96	29.05	-37.6	-38.8	20.6	0.00e+00	0	44	0	1480589312	45	4193
2026-01-01 15:01:23.71	206.15	29.20	-37.5	-38.8	20.6	0.00e+00	0	44	0	1487929344	45	4189
2026-01-01 15:01:24.70	206.35	29.35	-37.5	-38.8	20.6	0.00e+00	0	44	0	1495269376	45	4185
2026-01-01 15:01:25.69	206.55	29.50	-37.5	-38.8	20.6	0.00e+00	0	44	0	1502609408	45	4165
2026-01-01 15:01:26.70	206.76	29.65	-37.5	-38.8	20.5	0.00e+00	0	44	0	1509949440	45	4182
2026-01-01 15:01:27.70	206.97	29.80	-37.6	-38.9	20.4	0.00e+00	0	44	0	1517289472	45	4232
2026-01-01 15:01:28.69	207.17	29.95	-37.5	-38.9	20.5	0.00e+00	0	44	0	1524629504	45	4203
2026-01-01 15:01:29.69	207.38	30.11	-37.5	-38.8	20.5	0.00e+00	0	44	0	1530920960	45	4175
2026-01-01 15:01:30.69	207.59	30.26	-37.6	-39.0	20.4	0.00e+00	0	44	0	1538260992	45	4253
2026-01-01 15:01:31.68	207.80	30.41	-37.6	-39.0	20.4	0.00e+00	0	44	0	1545601024	45	4267
2026-01-01 15:01:32.68	208.02	30.56	-37.7	-39.1	20.3	0.00e+00	0	44	0	1552941056	45	4313
2026-01-01 15:01:33.68	208.24	30.72	-37.7	-39.2	20.2	0.00e+00	0	44	0	1560281088	45	4361
2026-01-01 15:01:34.68	208.46	30.87	-37.7	-39.2	20.2	0.00e+00	0	44	0	1566572544	45	4364
2026-01-01 15:01:35.67	208.68	31.03	-37.6	-39.1	20.3	0.00e+00	0	44	0	1573912576	45	4298
2026-01-01 15:01:36.67	208.90	31.18	-37.5	-38.9	20.4	0.00e+00	0	44	0	1581252608	45	4240
2026-01-01 15:01:37.67	209.13	31.34	-37.5	-38.9	20.4	0.00e+00	0	44	0	1588592640	45	4194
2026-01-01 15:01:38.67	209.36	31.49	-37.4	-38.8	20.5	0.00e+00	0	44	0	1595932672	45	4161
2026-01-01 15:01:39.67	209.59	31.65	-37.5	-38.8	20.4	0.00e+00	0	44	0	1603272704	45	4181
2026-01-01 15:01:40.67	209.82	31.80	-37.5	-38.8	20.4	0.00e+00	0	44	0	1610612736	45	4182
2026-01-01 15:01:41.67	210.05	31.96	-37.4	-38.7	20.5	0.00e+00	0	44	0	1617952768	45	4131
2026-01-01 15:01:42.67	210.29	32.12	-37.6	-38.9	20.4	0.00e+00	0	44	0	1625292800	45	4229
2026-01-01 15:01:43.67	210.53	32.28	-37.6	-39.0	20.4	0.00e+00	0	44	0	1631584256	45	4264
2026-01-01 15:01:44.67	210.77	32.43	-37.6	-39.0	20.4	0.00e+00	0	44	0	1638924288	45	4263
2026-01-01 15:01:45.67	211.01	32.59	-37.6	-39.0	20.4	0.00e+00	0	44	0	1646264320	45	4246
2026-01-01 15:01:46.67	211.26	32.75	-37.5	-38.8	20.5	0.00e+00	0	44	0	1653604352	45	4186
2026-01-01 15:01:47.66	211.51	32.91	-37.5	-38.8	20.5	0.00e+00	0	44	0	1660944384	45	4167
2026-01-01 15:01:48.66	211.76	33.07	-37.3	-38.6	20.6	0.00e+00	0	44	0	1668284416	45	4085
2026-01-01 15:01:49.66	212.01	33.23	-37.4	-38.7	20.6	0.00e+00	0	44	0	1675624448	45	4134
2026-01-01 15:01:50.67	212.27	33.39	-37.3	-38.6	20.7	0.00e+00	0	44	0	1682964480	45	4054
2026-01-01 15:01:51.66	212.52	33.54	-37.3	-38.6	20.7	0.00e+00	0	44	0	1690304512	45	4088
2026-01-01 15:01:52.66	212.79	33.70	-37.2	-38.4	20.8	0.00e+00	0	44	0	1696595968	45	4000
2026-01-01 15:01:53.66	213.05	33.86	-37.2	-38.5	20.8	0.00e+00	0	44	0	1703936000	45	4029
2026-01-01 15:01:54.66	213.31	34.02	-37.2	-38.5	20.8	0.00e+00	0	44	0	1711276032	45	4019
2026-01-01 15:01:55.66	213.58	34.18	-37.3	-38.6	20.8	0.00e+00	0	44	0	1718616064	45	4057
2026-01-01 15:01:56.66	213.85	34.34	-37.4	-38.8	20.6	0.00e+00	0	44	0	1725956096	45	4150
2026-01-01 15:01:57.66	214.13	34.50	-37.4	-38.7	20.6	0.00e+00	0	44	0	1733296128	45	4142
2026-01-01 15:01:58.66	214.40	34.66	-37.5	-38.9	20.5	0.00e+00	0	44	0	1740636160	45	4196
2026-01-01 15:01:59.66	214.68	34.83	-37.6	-38.9	20.5	0.00e+00	0	44	0	1747976192	45	4240
2026-01-01 15:02:00.66	214.96	34.99	-37.7	-39.1	20.3	0.00e+00	0	44	0	1754267648	45	4323
2026-01-01 15:02:01.66	215.25	35.15	-37.7	-39.0	20.4	0.00e+00	0	44	0	1761607680	45	4275
2026-01-01 15:02:02.66	215.54	35.31	-37.7	-39.0	20.4	0.00e+00	0	44	0	1768947712	45	4283
2026-01-01 15:02:03.66	215.83	35.47	-37.6	-39.0	20.4	0.00e+00	0	44	0	1776287744	45	4246
2026-01-01 15:02:04.66	216.12	35.63	-37.6	-38.9	20.5	0.00e+00	0	44	0	1783627776	45	4235
2026-01-01 15:02:05.66	216.41	35.79	-37.7	-39.0	20.4	0.00e+00	0	44	0	1790967808	45	4282
2026-01-01 15:02:06.66	216.71	35.95	-37.7	-39.1	20.4	0.00e+00	0	43	0	1798307840	45	4311
2026-01-01 15:02:07.67	217.02	36.11	-37.6	-39.0	20.4	0.00e+00	0	44	0	1805647872	45	4251
2026-01-01 15:02:08.67	217.32	36.27	-37.6	-39.0	20.4	0.00e+00	0	44	0	1812987904	45	4266
2026-01-01 15:02:09.67	217.63	36.43	-37.5	-38.9	20.4	0.00e+00	0	44	0	1819279360	45	4224
2026-01-01 15:02:10.67	217.94	36.59	-37.8	-39.2	20.2	0.00e+00	0	44	0	1826619392	45	4384
2026-01-01 15:02:11.67	218.25	36.75	-37.8	-39.2	20.2	0.00e+00	0	44	0	1833959424	45	4386
2026-01-01 15:02:12.67	218.57	36.91	-37.8	-39.2	20.2	0.00e+00	0	44	0	1841299456	45	4352
2026-01-01 15:02:13.68	218.89	37.08	-37.8	-39.1	20.3	0.00e+00	0	44	0	1848639488	45	4337
2026-01-01 15:02:14.68	219.21	37.24	-38.0	-39.4	20.1	0.00e+00	0	44	0	1855979520	45	4448
2026-01-01 15:02:15.68	219.54	37.39	-38.0	-39.4	20.2	0.00e+00	0	44	0	1863319552	45	4459
2026-01-01 15:02:16.68	219.87	37.55	-38.2	-39.6	19.9	0.00e+00	0	44	0	1870659584	45	4580
2026-01-01 15:02:17.68	220.20	37.71	-37.8	-39.1	20.3	0.00e+00	0	44	0	1877999616	45	4336
2026-01-01 15:02:18.69	220.54	37.87	-38.3	-39.2	20.8	0.00e+00	0	44	0	1885339648	46	4128
2026-01-01 15:02:19.69	220.88	38.03	-38.2	-39.1	20.8	0.00e+00	0	44	0	1892679680	46	4086
2026-01-01 15:02:20.69	221.22	38.19	-38.3	-39.2	20.8	0.00e+00	0	44	0	1898971136	46	4125
2026-01-01 15:02:21.69	221.56	38.35	-38.2	-39.1	20.9	0.00e+00	0	44	0	1906311168	46	4081
2026-01-01 15:02:22.69	221.91	38.50	-38.2	-39.1	20.9	0.00e+00	0	44	0	1913651200	46	4086
2026-01-01 15:02:23.69	222.26	38.66	-38.2	-39.1	20.9	0.00e+00	0	44	0	1920991232	46	4053
2026-01-01 15:02:24.69	222.62	38.82	-38.2	-39.1	20.8	0.00e+00	0	44	0	1928331264	46	4080
2026-01-01 15:02:25.69	222.98	38.97	-38.2	-39.1	20.9	0.00e+00	0	44	0	1935671296	46	4078
2026-01-01 15:02:26.69	223.34	39.13	-38.2	-39.2	20.7	0.00e+00	0	44	0	1943011328	46	4112
2026-01-01 15:02:27.69	223.70	39.28	-38.2	-39.1	20.8	0.00e+00	0	44	0	1950351360	46	4091
2026-01-01 15:02:28.69	224.07	39.43	-38.4	-39.3	20.7	0.00e+00	0	44	0	1957691392	46	4174
2026-01-01 15:02:29.69	224.44	39.59	-38.4	-39.3	20.7	0.00e+00	0	44	0	1963982848	46	4188
2026-01-01 15:02:30.69	224.82	39.74	-38.5	-39.5	20.5	0.00e+00	0	44	0	1971322880	46	4259
2026-01-01 15:02:31.70	225.20	39.89	-38.6	-39.4	16.1	0.00e+00	0	43	0	1978662912	47	3977
2026-01-01 15:02:32.69	225.58	40.04	-38.4	-39.3	20.6	0.00e+00	0	44	0	1986002944	47	3952
2026-01-01 15:02:33.69	225.97	40.19	-38.4	-39.3	20.7	0.00e+00	0	44	0	1993342976	47	3944
2026-01-01 15:02:34.69	226.36	40.34	-38.5	-39.4	20.5	0.00e+00	0	44	0	2000683008	47	4004
2026-01-01 15:02:35.70	226.75	40.49	-38.3	-39.2	20.6	0.00e+00	0	44	0	2008023040	47	3880
2026-01-01 15:02:36.70	227.15	40.64	-38.0	-38.9	21.0	0.00e+00	0	44	0	2015363072	46	3989
2026-01-01 15:02:37.70	227.55	40.79	-38.0	-38.8	21.0	0.00e+00	0	44	0	2022703104	46	3955
2026-01-01 15:02:38.70	227.95	40.93	-37.9	-38.7	17.8	0.00e+00	0	44	0	2028994560	46	3881
2026-01-01 15:02:39.70	228.36	41.08	-38.1	-39.0	20.9	0.00e+00	0	44	0	2036334592	46	4032
2026-01-01 15:02:40.70	228.77	41.22	-38.1	-39.0	20.9	0.00e+00	0	44	0	2043674624	46	4014
2026-01-01 15:02:41.71	229.19	41.37	-38.5	-39.6	17.8	0.00e+00	0	44	0	2051014656	46	4298
2026-01-01 15:02:42.71	229.61	41.51	-38.5	-39.4	16.3	0.00e+00	0	44	0	2058354688	46	4219
2026-01-01 15:02:43.71	230.03	41.65	-38.3	-39.3	20.7	0.00e+00	0	44	0	2065694720	46	4156
2026-01-01 15:02:44.72	230.46	41.79	-38.2	-39.1	17.3	0.00e+00	0	44	0	2073034752	46	4066
2026-01-01 15:02:45.72	230.89	41.93	-38.3	-39.1	18.4	0.00e+00	0	44	0	2080374784	46	4091
2026-01-01 15:02:46.72	231.32	42.06	-38.2	-39.0	17.3	0.00e+00	0	44	0	2086666240	46	4037
2026-01-01 15:02:47.72	231.76	42.20	-38.1	-38.8	16.7	0.00e+00	0	44	0	2094006272	46	3958
2026-01-01 15:02:48.72	232.20	42.33	-38.1	-39.1	16.3	0.00e+00	0	44	0	2101346304	46	4058
2026-01-01 15:02:49.72	232.64	42.47	-38.6	-39.4	16.3	0.00e+00	0	44	0	2108686336	46	4215
2026-01-01 15:02:50.73	233.09	42.60	-38.6	-39.5	15.8	0.00e+00	0	44	0	2116026368	46	4254
2026-01-01 15:02:51.73	233.54	42.73	-38.6	-39.6	16.0	0.00e+00	0	44	0	2123366400	47	4092
2026-01-01 15:02:52.73	234.00	42.86	-38.6	-39.6	15.9	0.00e+00	0	44	0	2130706432	47	4084
2026-01-01 15:02:53.73	234.46	42.98	-38.4	-39.7	15.7	0.00e+00	0	44	0	2138046464	47	4116
2026-01-01 15:02:54.73	234.92	43.11	-38.6	-39.9	15.8	0.00e+00	0	44	0	2145386496	47	4198
2026-01-01 15:02:55.73	235.38	43.23	-38.7	-39.6	16.0	0.00e+00	0	44	0	2151677952	47	4070
2026-01-01 15:02:56.73	235.85	43.36	-38.9	-39.7	15.8	0.00e+00	0	44	0	2159017984	47	4120
2026-01-01 15:02:57.73	236.32	43.48	-38.7	-39.9	15.3	0.00e+00	0	44	0	2166358016	47	4207
2026-01-01 15:02:58.73	236.80	43.59	-38.5	-39.3	16.2	0.00e+00	0	44	0	2173698048	47	3940
2026-01-01 15:02:59.73	237.28	43.71	-38.6	-39.3	16.1	0.00e+00	0	44	0	2181038080	47	3942
2026-01-01 15:03:00.73	237.76	43.82	-38.6	-39.3	15.8	0.00e+00	0	44	0	2188378112	47	3938
2026-01-01 15:03:01.73	238.25	43.94	-38.7	-39.4	15.3	0.00e+00	0	44	0	2195718144	47	3993
2026-01-01 15:03:02.73	238.74	44.05	-38.7	-39.6	15.8	0.00e+00	0	44	0	2203058176	47	4076
2026-01-01 15:03:03.73	239.23	44.16	-38.9	-39.7	15.1	0.00e+00	0	44	0	2210398208	47	4115
2026-01-01 15:03:04.73	239.73	44.26	-38.8	-39.7	15.8	0.00e+00	0	44	0	2216689664	47	4117
2026-01-01 15:03:05.73	240.22	44.37	-38.8	-39.6	16.4	0.00e+00	0	43	0	2224029696	47	4062
2026-01-01 15:03:06.73	240.73	44.47	-38.8	-39.8	15.8	0.00e+00	0	44	0	2231369728	47	4180
2026-01-01 15:03:07.73	241.23	44.57	-38.6	-39.5	15.9	0.00e+00	0	44	0	2238709760	47	4020
2026-01-01 15:03:08.73	241.74	44.67	-38.4	-39.3	15.8	0.00e+00	0	44	0	2246049792	47	3947
2026-01-01 15:03:09.73	242.25	44.77	-38.3	-39.3	16.2	0.00e+00	0	44	0	2253389824	47	3918
2026-01-01 15:03:10.73	242.77	44.86	-38.4	-39.6	16.0	0.00e+00	0	44	0	2260729856	47	4070
2026-01-01 15:03:11.74	243.29	44.95	-38.6	-39.5	15.7	0.00e+00	0	44	0	2268069888	47	4026
2026-01-01 15:03:12.74	243.81	45.04	-39.1	-39.9	15.8	0.00e+00	0	44	0	2275409920	47	4236
2026-01-01 15:03:13.74	244.33	45.13	-39.5	-40.5	15.4	1.10e-06	0	44	0	2282749952	48	4244
2026-01-01 15:03:14.74	244.86	45.21	-39.5	-40.5	14.9	0.00e+00	0	44	0	2290089984	48	4259
2026-01-01 15:03:15.74	245.39	45.30	-39.5	-40.3	15.7	0.00e+00	0	44	0	2296381440	49	3947
2026-01-01 15:03:16.74	245.92	45.38	-39.3	-40.2	15.6	0.00e+00	0	44	0	2303721472	49	3904
2026-01-01 15:03:17.75	246.46	45.45	-39.5	-40.3	15.8	0.00e+00	0	44	0	2311061504	49	3924
2026-01-01 15:03:18.75	247.00	45.53	-39.6	-40.7	15.3	0.00e+00	0	44	0	2318401536	49	4107
2026-01-01 15:03:19.75	247.54	45.60	-39.7	-41.0	15.0	0.00e+00	0	44	0	2325741568	49	4247
2026-01-01 15:03:20.75	248.08	45.67	-39.2	-40.3	15.6	0.00e+00	0	44	0	2333081600	49	3947
2026-01-01 15:03:21.75	248.62	45.74	-39.2	-40.4	16.0	0.00e+00	0	43	0	2340421632	48	4204
2026-01-01 15:03:22.76	249.18	45.80	-39.1	-39.7	15.7	0.00e+00	0	43	0	2347761664	48	3896
2026-01-01 15:03:23.76	249.72	45.86	-38.9	-40.0	16.2	0.00e+00	0	43	0	2355101696	48	4041
2026-01-01 15:03:24.76	250.27	45.92	-39.0	-40.1	16.1	0.00e+00	0	44	0	2361393152	48	4059
2026-01-01 15:03:25.76	250.83	45.97	-38.8	-39.8	16.3	0.00e+00	0	44	0	2368733184	48	3930
2026-01-01 15:03:26.76	251.38	46.03	-39.0	-39.9	16.3	0.00e+00	0	44	0	2376073216	48	3971
2026-01-01 15:03:27.76	251.94	46.08	-38.9	-39.9	16.1	0.00e+00	0	44	0	2383413248	48	3978
2026-01-01 15:03:28.76	252.49	46.12	-39.2	-40.2	16.2	0.00e+00	0	43	0	2390753280	48	4108
2026-01-01 15:03:29.76	253.05	46.17	-39.2	-40.2	16.1	0.00e+00	0	44	0	2398093312	48	4113
2026-01-01 15:03:30.76	253.61	46.21	-39.2	-40.3	16.5	0.00e+00	0	43	0	2405433344	48	4190
2026-01-01 15:03:31.76	254.18	46.25	-39.3	-40.1	16.3	1.10e-06	0	44	0	2412773376	48	4098
2026-01-01 15:03:32.76	254.74	46.28	-39.0	-40.4	15.4	0.00e+00	0	44	0	2419064832	48	4196
2026-01-01 15:03:33.76	255.30	46.32	-38.9	-39.6	15.7	0.00e+00	0	44	0	2426404864	48	3860
2026-01-01 15:03:34.76	255.87	46.34	-38.8	-39.7	16.4	0.00e+00	0	44	0	2433744896	48	3893
2026-01-01 15:03:35.76	256.44	46.37	-38.9	-39.6	15.2	0.00e+00	0	44	0	2441084928	47	4083
2026-01-01 15:03:36.76	257.00	46.39	-38.6	-39.5	15.9	0.00e+00	0	43	0	2448424960	47	4049
2026-01-01 15:03:37.77	257.58	46.42	-39.1	-39.9	16.1	0.00e+00	0	44	0	2455764992	47	4196
2026-01-01 15:03:38.77	258.15	46.43	-39.1	-39.9	15.9	0.00e+00	0	44	0	2463105024	47	4218
2026-01-01 15:03:39.76	258.71	46.45	-39.3	-40.5	16.2	0.00e+00	0	44	0	2470445056	48	4274
2026-01-01 15:03:40.77	259.29	46.46	-39.3	-40.1	15.7	0.00e+00	0	44	0	2477785088	48	4098
2026-01-01 15:03:41.77	259.86	46.47	-39.3	-40.2	16.1	0.00e+00	0	43	0	2484076544	48	4115
2026-01-01 15:03:42.77	260.43	46.47	-39.1	-39.8	16.1	0.00e+00	0	44	0	2491416576	48	3958
2026-01-01 15:03:43.77	261.00	46.47	-38.8	-39.8	16.0	0.00e+00	0	44	0	2498756608	48	3958
2026-01-01 15:03:44.77	261.57	46.47	-38.6	-40.0	16.3	1.10e-06	0	44	0	2506096640	48	4021
2026-01-01 15:03:45.77	262.14	46.47	-38.9	-39.9	15.9	0.00e+00	0	44	0	2513436672	48	3959
2026-01-01 15:03:46.77	262.71	46.46	-39.3	-40.1	16.2	0.00e+00	0	44	0	2520776704	48	4060
2026-01-01 15:03:47.77	263.28	46.45	-39.4	-40.2	15.9	0.00e+00	0	44	0	2528116736	48	4138
2026-01-01 15:03:48.77	263.85	46.44	-39.1	-40.2	16.2	0.00e+00	0	44	0	2535456768	48	4121
2026-01-01 15:03:49.77	264.42	46.42	-39.2	-40.0	15.8	0.00e+00	0	44	0	2542796800	48	4031
2026-01-01 15:03:50.77	264.99	46.40	-39.1	-39.9	16.3	2.20e-06	0	44	0	2549088256	48	3992
2026-01-01 15:03:51.77	265.56	46.38	-40.2	-41.2	15.8	0.00e+00	0	43	0	2556428288	50	4132
2026-01-01 15:03:52.78	266.13	46.36	-39.4	-40.4	16.7	0.00e+00	0	44	0	2563768320	49	3970
2026-01-01 15:03:53.78	266.69	46.33	-39.6	-40.6	16.2	0.00e+00	0	44	0	2571108352	49	4073
2026-01-01 15:03:54.78	267.26	46.30	-39.8	-40.6	16.9	0.00e+00	0	44	0	2578448384	49	4079
2026-01-01 15:03:55.78	267.82	46.26	-39.1	-40.0	17.0	0.00e+00	0	43	0	2585788416	49	3814
2026-01-01 15:03:56.78	268.38	46.23	-38.9	-39.8	15.8	0.00e+00	0	43	0	2593128448	48	3925
2026-01-01 15:03:57.78	268.95	46.19	-38.8	-39.8	16.3	0.00e+00	0	44	0	2600468480	48	3923
2026-01-01 15:03:58.78	269.51	46.14	-39.0	-40.5	16.1	0.00e+00	0	44	0	2606759936	48	4284
2026-01-01 15:03:59.78	270.06	46.10	-39.4	-40.1	16.1	0.00e+00	0	44	0	2615148544	48	4085
2026-01-01 15:04:00.78	270.62	46.05	-39.5	-40.3	16.3	0.00e+00	0	44	0	2622488576	48	4167
2026-01-01 15:04:01.78	271.17	46.00	-39.3	-40.1	16.9	0.00e+00	0	44	0	2628780032	48	4094
2026-01-01 15:04:02.78	271.73	45.94	-39.1	-39.9	16.2	0.00e+00	0	44	0	2636120064	48	3987
2026-01-01 15:04:03.78	272.28	45.89	-38.8	-39.6	16.2	0.00e+00	0	44	0	2643460096	48	3847
2026-01-01 15:04:04.78	272.83	45.83	-38.6	-39.6	16.4	0.00e+00	0	44	0	2650800128	48	3830
2026-01-01 15:04:05.78	273.37	45.76	-38.8	-39.7	16.9	0.00e+00	0	44	0	2658140160	48	3869
2026-01-01 15:04:06.78	273.92	45.70	-39.1	-39.9	15.9	0.00e+00	0	43	0	2665480192	48	3968
2026-01-01 15:04:07.78	274.46	45.63	-39.2	-40.0	16.4	0.00e+00	0	43	0	2672820224	48	4044
2026-01-01 15:04:08.78	275.00	45.56	-39.4	-40.1	15.7	0.00e+00	0	44	0	2679111680	48	4057
2026-01-01 15:04:09.78	275.54	45.49	-39.3	-40.0	15.6	0.00e+00	0	43	0	2686451712	48	4050
2026-01-01 15:04:10.79	276.08	45.41	-39.1	-39.8	15.5	0.00e+00	0	43	0	2693791744	48	3951
2026-01-01 15:04:11.79	276.61	45.33	-38.9	-39.6	15.7	0.00e+00	0	43	0	2701131776	48	3866
2026-01-01 15:04:12.79	277.14	45.25	-38.7	-39.5	15.7	0.00e+00	0	44	0	2708471808	48	3799
2026-01-01 15:04:13.79	277.66	45.17	-39.1	-39.9	16.0	0.00e+00	0	44	0	2715811840	48	4000
2026-01-01 15:04:14.79	278.19	45.08	-39.4	-40.2	15.4	0.00e+00	0	44	0	2723151872	48	4128
2026-01-01 15:04:15.79	278.71	44.99	-39.3	-40.5	15.9	0.00e+00	0	43	0	2730491904	48	4288
2026-01-01 15:04:16.79	279.23	44.90	-39.3	-40.2	15.8	0.00e+00	0	43	0	2737831936	48	4133
2026-01-01 15:04:17.80	279.75	44.81	-39.4	-40.2	15.3	0.00e+00	0	43	0	2745171968	48	4123
2026-01-01 15:04:18.80	280.26	44.72	-38.9	-39.9	15.4	0.00e+00	0	44	0	2752512000	48	3973
2026-01-01 15:04:19.80	280.77	44.62	-39.0	-40.1	15.3	0.00e+00	0	44	0	2758803456	48	4091
2026-01-01 15:04:20.80	281.27	44.52	-39.2	-40.2	16.1	0.00e+00	0	44	0	2766143488	48	4105
2026-01-01 15:04:21.80	281.78	44.42	-39.2	-40.0	15.7	0.00e+00	0	44	0	2773483520	48	4008
2026-01-01 15:04:22.80	282.28	44.31	-39.2	-40.1	14.9	0.00e+00	0	44	0	2780823552	48	4078
2026-01-01 15:04:23.80	282.77	44.21	-39.1	-39.9	15.5	0.00e+00	0	43	0	2788163584	48	3970
2026-01-01 15:04:24.81	283.27	44.10	-38.9	-40.1	15.5	0.00e+00	0	43	0	2795503616	48	4094
2026-01-01 15:04:25.81	283.76	43.99	-38.9	-39.7	15.8	0.00e+00	0	44	0	2802843648	48	3890
2026-01-01 15:04:26.81	284.25	43.88	-38.9	-39.7	15.3	0.00e+00	0	43	0	2810183680	48	3913
2026-01-01 15:04:27.81	284.73	43.76	-39.0	-39.7	16.1	0.00e+00	0	44	0	2816475136	48	3891
2026-01-01 15:04:28.81	285.21	43.65	-38.8	-39.7	15.6	0.00e+00	0	43	0	2823815168	48	3892
2026-01-01 15:04:29.82	285.69	43.53	-39.2	-40.0	16.1	0.00e+00	0	43	0	2831155200	48	4036
2026-01-01 15:04:30.82	286.16	43.41	-39.2	-40.0	16.1	0.00e+00	0	43	0	2838495232	48	4022
2026-01-01 15:04:31.82	286.63	43.29	-39.0	-40.2	15.6	0.00e+00	0	43	0	2845835264	48	4139
2026-01-01 15:04:32.82	287.10	43.17	-38.8	-39.6	15.7	0.00e+00	0	44	0	2853175296	48	3837
2026-01-01 15:04:33.82	287.56	43.04	-38.3	-39.2	15.5	0.00e+00	0	43	0	2860515328	47	3883
2026-01-01 15:04:34.82	288.02	42.92	-38.4	-39.4	16.5	0.00e+00	0	44	0	2867855360	47	3982
2026-01-01 15:04:35.82	288.47	42.79	-38.3	-39.1	16.3	0.00e+00	0	44	0	2875195392	47	3850
2026-01-01 15:04:36.82	288.92	42.66	-38.6	-39.3	16.0	0.00e+00	0	44	0	2881486848	47	3936
2026-01-01 15:04:37.82	289.37	42.53	-38.6	-39.4	15.6	0.00e+00	0	43	0	2888826880	47	4002
2026-01-01 15:04:38.82	289.81	42.40	-38.8	-39.5	15.7	0.00e+00	0	43	0	2896166912	47	4026
2026-01-01 15:04:39.82	290.26	42.27	-38.6	-39.6	16.5	0.00e+00	0	43	0	2903506944	47	4056
2026-01-01 15:04:40.82	290.69	42.13	-38.7	-39.6	15.7	0.00e+00	0	43	0	2910846976	47	4079
2026-01-01 15:04:41.83	291.13	42.00	-38.6	-39.8	15.3	0.00e+00	0	43	0	2918187008	47	4171
2026-01-01 15:04:42.82	291.55	41.86	-38.6	-39.6	15.6	0.00e+00	0	44	0	2925527040	47	4052
2026-01-01 15:04:43.83	291.98	41.72	-38.4	-39.2	15.3	1.10e-06	0	44	0	2932867072	47	3889
2026-01-01 15:04:44.83	292.41	41.58	-38.6	-39.4	15.1	0.00e+00	0	44	0	2940207104	47	3997
2026-01-01 15:04:45.83	292.83	41.44	-38.6	-39.7	14.8	0.00e+00	0	43	0	2946498560	47	4110
2026-01-01 15:04:46.83	293.24	41.30	-38.6	-39.7	15.3	0.00e+00	0	43	0	2953838592	47	4120
2026-01-01 15:04:47.83	293.65	41.16	-38.5	-39.5	14.8	0.00e+00	0	43	0	2961178624	47	4024
2026-01-01 15:04:48.83	294.06	41.01	-38.7	-39.8	14.7	0.00e+00	0	43	0	2968518656	47	4162
2026-01-01 15:04:49.84	294.47	40.87	-38.6	-39.4	14.9	0.00e+00	0	44	0	2975858688	47	3993
2026-01-01 15:04:50.83	294.87	40.72	-38.7	-39.6	14.5	0.00e+00	0	43	0	2983198720	47	4095
2026-01-01 15:04:51.83	295.26	40.58	-38.6	-39.5	14.7	0.00e+00	0	43	0	2990538752	47	4007
2026-01-01 15:04:52.84	295.66	40.43	-38.7	-39.5	14.9	0.00e+00	0	43	0	2997878784	47	4035
2026-01-01 15:04:53.84	296.05	40.28	-38.7	-40.0	14.7	0.00e+00	0	43	0	3005218816	47	4275
2026-01-01 15:04:54.84	296.44	40.13	-38.7	-39.6	14.4	0.00e+00	0	43	0	3012558848	47	4063
2026-01-01 15:04:55.84	296.82	39.98	-38.6	-39.5	14.9	0.00e+00	0	43	0	3019898880	47	4005
2026-01-01 15:04:56.84	297.20	39.83	-38.6	-39.3	14.3	0.00e+00	0	43	0	3026190336	47	3952
2026-01-01 15:04:57.84	297.57	39.68	-38.6	-39.5	14.4	0.00e+00	0	43	0	3033530368	47	4014
2026-01-01 15:04:58.84	297.95	39.53	-38.4	-39.1	14.5	0.00e+00	0	43	0	3040870400	47	3829
2026-01-01 15:04:59.85	298.32	39.37	-38.2	-39.2	14.8	0.00e+00	0	43	0	3048210432	47	3878
2026-01-01 15:05:00.85	298.69	39.22	-38.2	-39.2	14.3	0.00e+00	0	43	0	3055550464	47	3876
2026-01-01 15:05:01.85	299.05	39.06	-38.3	-39.6	14.7	0.00e+00	0	43	0	3062890496	46	4306
2026-01-01 15:05:02.85	299.41	38.91	-38.3	-39.1	14.0	0.00e+00	0	43	0	3070230528	46	4083
2026-01-01 15:05:03.85	299.76	38.75	-38.6	-39.6	14.3	0.00e+00	0	43	0	3077570560	47	4061
2026-01-01 15:05:04.86	300.12	38.60	-38.6	-39.5	14.6	0.00e+00	0	43	0	3084910592	47	4015
2026-01-01 15:05:05.86	300.47	38.44	-38.6	-39.4	14.7	0.00e+00	0	43	0	3091202048	47	4003
2026-01-01 15:05:06.86	300.81	38.28	-38.7	-39.8	14.0	0.00e+00	0	43	0	3098542080	47	4165
2026-01-01 15:05:07.86	301.15	38.13	-38.7	-40.0	14.4	0.00e+00	0	43	0	3105882112	47	4252
2026-01-01 15:05:08.86	301.49	37.97	-38.6	-39.5	14.3	0.00e+00	0	44	0	3113222144	47	4043
2026-01-01 15:05:09.86	301.83	37.81	-38.5	-39.2	14.4	0.00e+00	0	43	0	3120562176	47	3878
2026-01-01 15:05:10.87	302.16	37.65	-38.3	-39.3	14.4	0.00e+00	0	43	0	3127902208	47	3930
2026-01-01 15:05:11.87	302.49	37.50	-38.1	-39.0	14.4	0.00e+00	0	43	0	3135242240	47	3818
2026-01-01 15:05:12.87	302.82	37.34	-38.2	-39.1	14.4	0.00e+00	0	43	0	3142582272	46	4062
2026-01-01 15:05:13.87	303.14	37.18	-38.4	-39.2	14.1	0.00e+00	0	44	0	3148873728	46	4112
2026-01-01 15:05:14.87	303.46	37.02	-38.1	-39.5	14.3	0.00e+00	0	43	0	3156213760	46	4268
2026-01-01 15:05:15.87	303.78	36.86	-38.4	-39.4	14.4	0.00e+00	0	43	0	3163553792	46	4211
2026-01-01 15:05:16.87	304.09	36.70	-38.3	-39.5	14.9	0.00e+00	0	43	0	3170893824	46	4249
2026-01-01 15:05:17.87	304.41	36.54	-38.5	-39.2	13.9	0.00e+00	0	43	0	3178233856	46	4102
2026-01-01 15:05:18.87	304.71	36.38	-38.4	-39.3	14.6	0.00e+00	0	43	0	3185573888	46	4166
2026-01-01 15:05:19.87	305.02	36.22	-38.6	-39.7	14.0	0.00e+00	0	43	0	3192913920	46	4367
2026-01-01 15:05:20.87	305.32	36.06	-38.4	-39.4	14.1	0.00e+00	0	43	0	3200253952	46	4196
2026-01-01 15:05:21.87	305.62	35.90	-38.4	-39.0	14.1	0.00e+00	0	43	0	3207593984	46	4015
2026-01-01 15:05:22.87	305.92	35.74	-38.1	-39.2	14.0	0.00e+00	0	43	0	3213885440	46	4125
2026-01-01 15:05:23.87	306.21	35.58	-38.1	-38.7	14.1	0.00e+00	0	43	0	3221225472	46	3882
2026-01-01 15:05:24.87	306.50	35.42	-38.0	-38.7	14.2	0.00e+00	0	43	0	3228565504	46	3871
2026-01-01 15:05:25.87	306.79	35.26	-38.1	-38.6	13.4	0.00e+00	0	43	0	3235905536	46	3856
2026-01-01 15:05:26.87	307.07	35.10	-38.1	-39.2	13.8	0.00e+00	0	43	0	3243245568	46	4102
2026-01-01 15:05:27.87	307.35	34.94	-38.1	-38.7	13.6	0.00e+00	0	43	0	3250585600	46	3896
2026-01-01 15:05:28.87	307.63	34.79	-37.9	-38.8	13.8	0.00e+00	0	43	0	3257925632	46	3922
2026-01-01 15:05:29.87	307.91	34.63	-38.2	-39.3	14.0	0.00e+00	0	43	0	3265265664	46	4165
2026-01-01 15:05:30.87	308.18	34.47	-38.1	-39.4	14.1	0.00e+00	0	43	0	3272605696	46	4224
2026-01-01 15:05:31.88	308.46	34.31	-38.3	-39.0	13.5	0.00e+00	0	43	0	3278897152	46	4042
2026-01-01 15:05:32.88	308.73	34.15	-38.5	-39.6	14.0	0.00e+00	0	43	0	3286237184	46	4314
2026-01-01 15:05:33.88	308.99	33.99	-38.7	-39.7	13.9	0.00e+00	0	43	0	3293577216	47	4100
2026-01-01 15:05:34.89	309.26	33.83	-38.9	-39.7	13.8	0.00e+00	0	43	0	3300917248	47	4123
2026-01-01 15:05:35.89	309.52	33.67	-38.7	-39.6	13.8	0.00e+00	0	43	0	3308257280	47	4067
2026-01-01 15:05:36.89	309.78	33.51	-38.6	-39.4	13.4	0.00e+00	0	43	0	3315597312	47	3964
2026-01-01 15:05:37.89	310.04	33.35	-38.5	-39.3	14.0	0.00e+00	0	43	0	3322937344	47	3940
2026-01-01 15:05:38.90	310.29	33.19	-38.3	-39.2	14.3	0.00e+00	0	43	0	3330277376	47	3901
2026-01-01 15:05:39.90	310.54	33.03	-38.4	-39.5	13.8	0.00e+00	0	43	0	3337617408	47	4012
2026-01-01 15:05:40.90	310.79	32.88	-38.4	-39.2	13.5	0.00e+00	0	44	0	3344957440	47	3897
2026-01-01 15:05:41.90	311.04	32.72	-38.1	-39.6	13.8	0.00e+00	0	43	0	3352297472	47	4053
2026-01-01 15:05:42.90	311.28	32.56	-38.2	-39.7	13.8	0.00e+00	0	43	0	3358588928	47	4101
2026-01-01 15:05:43.91	311.53	32.40	-38.2	-39.4	14.0	0.00e+00	0	43	0	3365928960	46	4228
2026-01-01 15:05:44.91	311.77	32.25	-38.1	-39.1	13.9	0.00e+00	0	43	0	3373268992	46	4073
2026-01-01 15:05:45.91	312.01	32.09	-38.2	-39.0	13.8	0.00e+00	0	43	0	3380609024	46	4050
2026-01-01 15:05:46.91	312.24	31.93	-38.4	-39.3	13.6	0.00e+00	0	43	0	3387949056	46	4182
2026-01-01 15:05:47.92	312.48	31.78	-38.1	-39.5	13.6	0.00e+00	0	43	0	3395289088	46	4250
2026-01-01 15:05:48.91	312.71	31.62	-38.6	-39.0	13.4	0.00e+00	0	43	0	3402629120	46	4037
2026-01-01 15:05:49.91	312.93	31.47	-38.4	-39.4	13.6	0.00e+00	0	43	0	3409969152	46	4220
2026-01-01 15:05:50.92	313.16	31.31	-38.3	-39.4	13.7	0.00e+00	0	43	0	3417309184	46	4237
2026-01-01 15:05:51.92	313.39	31.16	-38.5	-39.2	13.5	0.00e+00	0	44	0	3423600640	46	4133
2026-01-01 15:05:52.92	313.61	31.00	-38.6	-39.4	13.6	0.00e+00	0	43	0	3430940672	47	3993
2026-01-01 15:05:53.92	313.83	30.85	-38.6	-39.4	13.3	0.00e+00	0	44	0	3438280704	47	3976
2026-01-01 15:05:54.92	314.05	30.70	-38.5	-39.7	13.5	0.00e+00	0	43	0	3445620736	47	4117
2026-01-01 15:05:55.92	314.26	30.54	-38.8	-39.9	13.7	0.00e+00	0	43	0	3452960768	47	4222
2026-01-01 15:05:56.92	314.48	30.39	-38.6	-39.5	13.6	0.00e+00	0	43	0	3460300800	47	4020
2026-01-01 15:05:57.93	314.69	30.24	-38.9	-39.6	14.0	0.00e+00	0	43	0	3467640832	47	4068
2026-01-01 15:05:58.93	314.90	30.08	-38.6	-39.6	13.4	0.00e+00	0	43	0	3474980864	47	4080
2026-01-01 15:05:59.93	315.11	29.93	-38.6	-39.5	14.0	0.00e+00	0	44	0	3482320896	47	4036
2026-01-01 15:06:00.93	315.32	29.78	-38.6	-39.5	13.5	0.00e+00	0	43	0	3488612352	47	4010
2026-01-01 15:06:01.93	315.52	29.63	-38.4	-39.3	13.6	0.00e+00	0	43	0	3495952384	47	3958
2026-01-01 15:06:02.93	315.72	29.48	-38.4	-39.2	13.5	0.00e+00	0	43	0	3503292416	47	3888
2026-01-01 15:06:03.93	315.93	29.33	-38.5	-39.8	13.7	0.00e+00	0	43	0	3510632448	47	4185
2026-01-01 15:06:04.93	316.12	29.18	-38.3	-39.3	13.6	0.00e+00	0	43	0	3517972480	47	3954
2026-01-01 15:06:05.93	316.32	29.03	-38.4	-39.3	13.4	0.00e+00	0	43	0	3525312512	47	3936
2026-01-01 15:06:06.93	316.52	28.89	-38.6	-39.6	13.5	0.00e+00	0	43	0	3532652544	47	4069
2026-01-01 15:06:07.94	316.71	28.74	-38.6	-39.5	13.2	0.00e+00	0	43	0	3539992576	47	4009
2026-01-01 15:06:08.94	316.90	28.59	-38.8	-39.9	13.4	0.00e+00	0	43	0	3547332608	47	4202
2026-01-01 15:06:09.94	317.09	28.44	-38.6	-39.7	13.6	0.00e+00	0	43	0	3554672640	47	4137
2026-01-01 15:06:10.94	317.28	28.29	-38.6	-39.5	13.5	0.00e+00	0	43	0	3562012672	47	4043
2026-01-01 15:06:11.94	317.47	28.15	-38.7	-39.8	13.6	0.00e+00	0	43	0	3568304128	47	4152
2026-01-01 15:06:12.94	317.66	28.00	-38.9	-39.8	13.7	0.00e+00	0	43	0	3575644160	47	4151
2026-01-01 15:06:13.94	317.84	27.86	-39.0	-39.7	13.5	0.00e+00	0	43	0	3582984192	47	4105
2026-01-01 15:06:14.94	318.02	27.71	-38.9	-39.7	13.5	0.00e+00	0	43	0	3590324224	47	4139
2026-01-01 15:06:15.94	318.20	27.57	-38.9	-39.6	13.9	0.00e+00	0	43	0	3597664256	47	4093
2026-01-01 15:06:16.94	318.38	27.43	-38.8	-39.8	13.4	0.00e+00	0	43	0	3605004288	47	4165
2026-01-01 15:06:17.94	318.56	27.28	-38.9	-39.5	13.7	0.00e+00	0	43	0	3612344320	47	4045
2026-01-01 15:06:18.94	318.73	27.14	-38.5	-39.6	13.9	0.00e+00	0	43	0	3619684352	47	4055
2026-01-01 15:06:19.94	318.91	27.00	-38.7	-39.4	13.7	0.00e+00	0	43	0	3627024384	47	3983
2026-01-01 15:06:20.94	319.08	26.85	-38.5	-39.6	14.0	0.00e+00	0	43	0	3633315840	47	4058
2026-01-01 15:06:21.94	319.25	26.71	-38.4	-39.2	13.5	0.00e+00	0	43	0	3640655872	47	3907
2026-01-01 15:06:22.95	319.42	26.57	-38.6	-39.3	13.6	0.00e+00	0	43	0	3647995904	47	3951
2026-01-01 15:06:23.95	319.59	26.43	-38.4	-39.2	13.7	0.00e+00	0	43	0	3655335936	47	3898
2026-01-01 15:06:24.95	319.76	26.29	-38.5	-39.2	13.5	0.00e+00	0	43	0	3662675968	47	3907
2026-01-01 15:06:25.95	319.92	26.15	-38.4	-39.4	14.0	0.00e+00	0	43	0	3670016000	47	3981
2026-01-01 15:06:26.95	320.09	26.01	-38.4	-39.3	13.5	0.00e+00	0	43	0	3677356032	47	3922
2026-01-01 15:06:27.95	320.25	25.87	-38.6	-39.3	13.6	0.00e+00	0	43	0	3684696064	47	3956
2026-01-01 15:06:28.95	320.41	25.74	-38.6	-39.4	14.0	0.00e+00	0	43	0	3690987520	47	3965
2026-01-01 15:06:29.95	320.57	25.60	-38.6	-39.5	13.9	0.00e+00	0	43	0	3698327552	47	4051
2026-01-01 15:06:30.95	320.73	25.46	-38.7	-39.6	13.8	0.00e+00	0	43	0	3705667584	47	4059
2026-01-01 15:06:31.96	320.89	25.32	-38.8	-39.6	14.0	0.00e+00	0	43	0	3713007616	47	4075
2026-01-01 15:06:32.96	321.04	25.19	-38.8	-39.5	13.5	0.00e+00	0	43	0	3720347648	47	4025
2026-01-01 15:06:33.96	321.20	25.05	-38.8	-39.6	13.8	0.00e+00	0	43	0	3727687680	47	4058
2026-01-01 15:06:34.96	321.35	24.92	-38.8	-39.8	13.7	0.00e+00	0	43	0	3735027712	47	4178
2026-01-01 15:06:35.96	321.50	24.78	-38.9	-39.9	13.7	0.00e+00	0	43	0	3742367744	47	4219
2026-01-01 15:06:36.95	321.65	24.65	-38.7	-40.1	13.6	0.00e+00	0	43	0	3749707776	47	4314
2026-01-01 15:06:37.96	321.80	24.51	-38.7	-39.6	13.9	0.00e+00	0	43	0	3755999232	47	4065
2026-01-01 15:06:38.95	321.95	24.38	-38.8	-39.8	13.8	0.00e+00	0	43	0	3763339264	47	4186
2026-01-01 15:06:39.95	322.10	24.25	-38.8	-39.7	13.6	0.00e+00	0	43	0	3770679296	47	4137
2026-01-01 15:06:40.95	322.24	24.12	-38.7	-39.9	13.6	0.00e+00	0	43	0	3778019328	47	4207
2026-01-01 15:06:41.96	322.39	23.98	-38.7	-39.9	13.9	0.00e+00	0	43	0	3785359360	47	4208
2026-01-01 15:06:42.96	322.53	23.85	-38.5	-39.8	13.9	0.00e+00	0	43	0	3792699392	47	4148
2026-01-01 15:06:43.96	322.67	23.72	-38.8	-39.4	13.7	0.00e+00	0	43	0	3800039424	47	3992
2026-01-01 15:06:44.96	322.81	23.59	-38.8	-39.9	13.8	0.00e+00	0	43	0	3807379456	47	4225
2026-01-01 15:06:45.96	322.95	23.46	-38.7	-39.6	13.9	0.00e+00	0	43	0	3814719488	47	4053
2026-01-01 15:06:46.97	323.09	23.33	-38.7	-39.5	13.9	0.00e+00	0	43	0	3821010944	47	4031
2026-01-01 15:06:47.97	323.23	23.20	-38.9	-39.8	14.1	0.00e+00	0	43	0	3828350976	47	4175
2026-01-01 15:06:48.97	323.37	23.07	-38.9	-39.7	13.6	0.00e+00	0	43	0	3835691008	47	4142
2026-01-01 15:06:49.98	323.51	22.94	-38.9	-39.9	13.6	0.00e+00	0	43	0	3843031040	47	4229
2026-01-01 15:06:50.98	323.64	22.82	-39.1	-39.9	14.3	0.00e+00	0	43	0	3850371072	47	4207
2026-01-01 15:06:51.98	323.77	22.69	-39.1	-40.3	13.7	0.00e+00	0	43	0	3857711104	48	4153
2026-01-01 15:06:52.98	323.91	22.56	-39.2	-40.0	14.2	0.00e+00	0	43	0	3865051136	48	4027
2026-01-01 15:06:53.98	324.04	22.44	-39.4	-40.5	13.4	0.00e+00	0	43	0	3872391168	48	4250
2026-01-01 15:06:54.98	324.17	22.31	-39.2	-40.1	14.3	0.00e+00	0	43	0	3878682624	48	4062
2026-01-01 15:06:55.98	324.30	22.19	-39.0	-40.4	14.2	0.00e+00	0	43	0	3886022656	48	4205
2026-01-01 15:06:56.99	324.43	22.06	-39.3	-40.0	13.8	0.00e+00	0	43	0	3894411264	48	4039
2026-01-01 15:06:57.99	324.55	21.94	-39.2	-39.9	14.2	0.00e+00	0	43	0	3900702720	48	3968
2026-01-01 15:06:58.99	324.68	21.81	-39.0	-39.9	14.2	0.00e+00	0	43	0	3908042752	48	3991
2026-01-01 15:06:59.99	324.81	21.69	-39.1	-40.3	14.0	0.00e+00	0	43	0	3915382784	48	4179
2026-01-01 15:07:00.98	324.93	21.57	-39.1	-40.0	14.0	0.00e+00	0	43	0	3922722816	48	4019
2026-01-01 15:07:01.99	325.05	21.45	-39.1	-39.7	14.1	0.00e+00	0	43	0	3930062848	48	3879
2026-01-01 15:07:02.99	325.18	21.33	-38.8	-40.1	13.8	0.00e+00	0	43	0	3937402880	48	4080
2026-01-01 15:07:03.99	325.30	21.20	-38.9	-40.3	14.4	0.00e+00	0	43	0	3944742912	48	4162
2026-01-01 15:07:04.99	325.42	21.08	-38.9	-40.0	13.5	0.00e+00	0	43	0	3952082944	48	4021
2026-01-01 15:07:05.99	325.54	20.96	-39.2	-39.9	13.8	1.10e-06	0	43	0	3959422976	48	3983
2026-01-01 15:07:06.99	325.66	20.84	-39.2	-40.0	13.8	0.00e+00	0	43	0	3965714432	48	4039
2026-01-01 15:07:07.99	325.78	20.72	-39.2	-40.6	13.8	0.00e+00	0	43	0	3973054464	48	4340
2026-01-01 15:07:08.98	325.89	20.61	-39.4	-40.4	13.6	0.00e+00	0	43	0	3980394496	48	4205
2026-01-01 15:07:09.98	326.01	20.49	-39.4	-40.4	13.3	0.00e+00	0	43	0	3987734528	48	4232
2026-01-01 15:07:10.98	326.12	20.37	-39.5	-40.7	13.3	0.00e+00	0	43	0	3995074560	48	4388
2026-01-01 15:07:11.98	326.24	20.25	-39.6	-40.4	13.6	0.00e+00	0	43	0	4002414592	48	4221
2026-01-01 15:07:12.99	326.35	20.13	-39.4	-40.6	13.2	0.00e+00	0	43	0	4009754624	48	4329
2026-01-01 15:07:13.99	326.47	20.02	-39.5	-40.3	13.3	1.10e-06	0	43	0	4017094656	49	3947
2026-01-01 15:07:14.99	326.58	19.90	-39.6	-40.4	13.0	0.00e+00	0	43	0	4023386112	49	3977
2026-01-01 15:07:15.99	326.69	19.78	-39.5	-40.8	13.1	1.10e-06	0	43	0	4030726144	49	4189
2026-01-01 15:07:17.00	326.80	19.67	-39.6	-41.0	13.0	0.00e+00	0	43	0	4038066176	49	4245
2026-01-01 15:07:18.00	326.91	19.55	-39.5	-40.6	13.5	0.00e+00	0	43	0	4045406208	49	4055
2026-01-01 15:07:19.00	327.02	19.44	-39.8	-40.4	13.3	0.00e+00	0	43	0	4052746240	49	3996
2026-01-01 15:07:20.00	327.13	19.32	-39.7	-40.7	13.0	0.00e+00	0	43	0	4060086272	49	4121
2026-01-01 15:07:21.00	327.24	19.21	-39.6	-40.5	13.1	0.00e+00	0	43	0	4067426304	49	4034
2026-01-01 15:07:22.00	327.34	19.10	-39.6	-40.8	13.3	1.10e-06	0	43	0	4074766336	49	4174
2026-01-01 15:07:23.00	327.45	18.98	-39.7	-40.9	13.2	0.00e+00	0	43	0	4082106368	49	4215
2026-01-01 15:07:24.00	327.55	18.87	-39.8	-40.4	13.7	0.00e+00	0	43	0	4088397824	49	3973
2026-01-01 15:07:25.01	327.66	18.76	-39.6	-40.5	13.2	0.00e+00	0	43	0	4095737856	49	4010
2026-01-01 15:07:26.01	327.76	18.65	-39.6	-40.3	13.2	0.00e+00	0	43	0	4103077888	49	3955
2026-01-01 15:07:27.00	327.86	18.54	-39.5	-40.5	13.0	0.00e+00	0	43	0	4110417920	49	4012
2026-01-01 15:07:28.01	327.97	18.43	-39.6	-40.7	13.3	1.10e-06	0	43	0	4117757952	49	4103
2026-01-01 15:07:29.01	328.07	18.32	-39.7	-40.5	13.1	0.00e+00	0	43	0	4125097984	49	4026
2026-01-01 15:07:30.01	328.17	18.21	-39.5	-40.4	13.2	0.00e+00	0	43	0	4132438016	49	3962
2026-01-01 15:07:31.00	328.27	18.10	-39.4	-40.5	13.5	0.00e+00	0	43	0	4139778048	49	4046
2026-01-01 15:07:32.01	328.37	17.99	-39.6	-40.9	13.4	1.10e-06	0	43	0	4147118080	49	4218
2026-01-01 15:07:33.01	328.47	17.88	-39.5	-40.4	13.7	0.00e+00	0	43	0	4153409536	49	3996
2026-01-01 15:07:34.00	328.56	17.77	-39.6	-40.6	13.5	1.10e-06	0	43	0	4160749568	49	4060
2026-01-01 15:07:35.00	328.66	17.66	-39.6	-40.9	13.6	0.00e+00	0	43	0	4168089600	49	4207
2026-01-01 15:07:36.01	328.76	17.56	-39.6	-40.6	13.6	0.00e+00	0	43	0	4175429632	49	4095
2026-01-01 15:07:37.01	328.86	17.45	-39.6	-40.4	13.3	0.00e+00	0	43	0	4182769664	49	3982
2026-01-01 15:07:38.01	328.95	17.34	-39.8	-40.5	13.5	0.00e+00	0	43	0	4190109696	49	4016
2026-01-01 15:07:39.00	329.04	17.24	-39.8	-40.8	13.4	0.00e+00	0	43	0	4197449728	49	4177
2026-01-01 15:07:40.00	329.14	17.13	-39.9	-40.8	13.2	0.00e+00	0	43	0	4204789760	49	4151
2026-01-01 15:07:41.00	329.23	17.03	-39.9	-40.7	13.5	0.00e+00	0	43	0	4211081216	49	4121
2026-01-01 15:07:42.01	329.33	16.92	-39.8	-40.7	13.3	0.00e+00	0	43	0	4218421248	49	4113
2026-01-01 15:07:43.01	329.42	16.81	-40.0	-40.8	13.3	0.00e+00	0	43	0	4225761280	49	4179
2026-01-01 15:07:44.01	329.51	16.71	-40.0	-41.3	13.3	3.40e-06	0	43	0	4233101312	50	4190
2026-01-01 15:07:45.01	329.60	16.61	-40.1	-41.3	14.5	2.20e-06	0	43	0	4240441344	50	4159
2026-01-01 15:07:46.01	329.69	16.50	-40.0	-41.0	13.7	0.00e+00	0	43	0	4247781376	50	4018
2026-01-01 15:07:47.01	329.78	16.40	-40.3	-41.2	13.4	1.10e-06	0	43	0	4255121408	50	4138
2026-01-01 15:07:48.01	329.87	16.30	-40.3	-41.3	12.9	0.00e+00	0	43	0	4262461440	50	4169
2026-01-01 15:07:49.01	329.96	16.19	-40.2	-41.6	13.6	2.20e-06	0	43	0	4269801472	50	4333
2026-01-01 15:07:50.01	330.05	16.09	-40.5	-41.6	14.9	0.00e+00	0	43	0	4276092928	50	4338
2026-01-01 15:07:51.01	330.13	15.99	-40.4	-41.4	13.9	2.20e-06	0	43	0	4283432960	50	4220
2026-01-01 15:07:52.01	330.22	15.89	-40.4	-41.6	13.6	0.00e+00	0	43	0	4290772992	50	4313
2026-01-01 15:07:53.02	330.31	15.79	-40.5	-41.6	13.2	1.10e-06	0	43	0	4298113024	50	4321
2026-01-01 15:07:54.02	330.40	15.69	-40.5	-41.5	13.2	0.00e+00	0	43	0	4305453056	51	4046
2026-01-01 15:07:55.02	330.48	15.59	-40.7	-41.9	14.1	3.40e-06	0	43	0	4312793088	51	4219
2026-01-01 15:07:56.02	330.57	15.49	-40.4	-42.2	13.2	0.00e+00	0	43	0	4320133120	51	4367
2026-01-01 15:07:57.03	330.65	15.39	-40.5	-41.8	13.2	4.50e-06	0	43	0	4327473152	51	4156
2026-01-01 15:07:58.03	330.73	15.29	-40.6	-41.7	13.5	2.20e-06	0	43	0	4334813184	51	4139
2026-01-01 15:07:59.03	330.82	15.19	-40.8	-41.8	13.4	1.10e-06	0	43	0	4341104640	51	4177
2026-01-01 15:08:00.03	330.90	15.09	-40.8	-42.1	13.8	5.70e-06	0	43	0	4348444672	51	4292
2026-01-01 15:08:01.03	330.98	14.99	-40.8	-42.3	13.0	4.50e-06	0	43	0	4355784704	51	4399
2026-01-01 15:08:02.03	331.06	14.89	-40.8	-41.9	13.2	5.70e-06	0	43	0	4363124736	51	4200
2026-01-01 15:08:03.03	331.15	14.80	-40.6	-41.9	13.4	4.50e-06	0	43	0	4370464768	51	4225
2026-01-01 15:08:04.03	331.23	14.70	-40.6	-41.7	13.0	2.20e-06	0	43	0	4377804800	51	4133
2026-01-01 15:08:05.03	331.31	14.60	-40.6	-41.7	13.3	6.80e-06	0	43	0	4385144832	51	4115
2026-01-01 15:08:06.03	331.39	14.51	-40.9	-41.8	13.2	5.70e-06	0	43	0	4392484864	51	4186
2026-01-01 15:08:07.03	331.46	14.41	-40.8	-42.1	13.4	4.50e-06	0	43	0	4399824896	51	4314
2026-01-01 15:08:08.04	331.54	14.31	-40.9	-42.1	13.4	2.20e-06	0	43	0	4407164928	51	4327
2026-01-01 15:08:09.04	331.62	14.22	-40.9	-41.9	13.4	5.70e-06	0	43	0	4414504960	51	4238
2026-01-01 15:08:10.04	331.70	14.12	-40.8	-42.0	13.5	2.20e-06	0	43	0	4420796416	51	4284
2026-01-01 15:08:11.04	331.78	14.03	-40.9	-42.1	13.3	3.40e-06	0	43	0	4428136448	51	4322
2026-01-01 15:08:12.04	331.85	13.93	-40.8	-41.9	13.2	1.10e-06	0	43	0	4435476480	51	4198
2026-01-01 15:08:13.04	331.93	13.84	-40.8	-42.1	12.6	5.70e-06	0	43	0	4442816512	51	4304
2026-01-01 15:08:14.04	332.01	13.75	-41.0	-41.8	13.0	4.50e-06	0	43	0	4450156544	51	4166
2026-01-01 15:08:15.04	332.08	13.65	-41.0	-42.3	13.0	6.80e-06	0	43	0	4457496576	51	4440
2026-01-01 15:08:16.04	332.16	13.56	-40.9	-42.4	13.0	6.80e-06	0	43	0	4464836608	51	4489
2026-01-01 15:08:17.05	332.23	13.46	-41.1	-42.1	13.0	4.50e-06	0	43	0	4472176640	51	4334
2026-01-01 15:08:18.05	332.31	13.37	-41.3	-41.9	12.9	4.50e-06	0	43	0	4479516672	51	4236
2026-01-01 15:08:19.05	332.38	13.28	-41.1	-42.4	13.0	3.40e-06	0	43	0	4485808128	51	4475
2026-01-01 15:08:20.05	332.45	13.19	-41.1	-42.1	12.8	1.14e-05	0	43	0	4493148160	52	4060
2026-01-01 15:08:21.05	332.53	13.10	-41.0	-41.9	12.8	9.10e-06	0	43	0	4500488192	52	3985
2026-01-01 15:08:22.05	332.60	13.01	-41.0	-42.4	13.0	6.80e-06	0	43	0	4507828224	52	4234
2026-01-01 15:08:23.05	332.67	12.91	-41.2	-42.0	12.7	8.00e-06	0	43	0	4515168256	52	4017
2026-01-01 15:08:24.06	332.74	12.82	-41.0	-42.1	12.9	9.10e-06	0	43	0	4522508288	52	4070
2026-01-01 15:08:25.06	332.81	12.73	-41.1	-42.4	12.9	1.14e-05	0	43	0	4529848320	52	4201
2026-01-01 15:08:26.06	332.89	12.64	-41.3	-42.5	13.1	2.05e-05	0	43	0	4537188352	52	4254
2026-01-01 15:08:27.07	332.96	12.55	-41.4	-42.4	12.8	1.94e-05	0	43	0	4543479808	52	4219
2026-01-01 15:08:28.07	333.03	12.46	-41.3	-42.5	12.9	1.94e-05	0	43	0	4550819840	52	4266
2026-01-01 15:08:29.07	333.10	12.37	-41.3	-42.5	12.9	1.83e-05	0	43	0	4558159872	52	4264
2026-01-01 15:08:30.07	333.16	12.28	-41.5	-43.0	13.3	2.40e-05	0	43	0	4565499904	52	4505
2026-01-01 15:08:31.07	333.23	12.20	-41.6	-42.5	13.1	2.17e-05	0	43	0	4572839936	52	4248
2026-01-01 15:08:32.08	333.30	12.11	-41.5	-42.6	13.0	2.97e-05	0	43	0	4580179968	53	4065
2026-01-01 15:08:33.08	333.37	12.02	-41.6	-42.7	12.7	4.00e-05	0	43	0	4587520000	53	4131
2026-01-01 15:08:34.08	333.44	11.93	-41.8	-42.8	13.1	4.57e-05	0	43	0	4594860032	53	4183
2026-01-01 15:08:35.08	333.51	11.84	-41.8	-42.9	12.9	4.11e-05	0	43	0	4602200064	53	4206
2026-01-01 15:08:36.08	333.57	11.76	-41.6	-42.8	12.9	4.46e-05	0	43	0	4608491520	53	4154
2026-01-01 15:08:37.08	333.64	11.67	-41.5	-43.0	12.8	3.08e-05	0	43	0	4615831552	53	4278
2026-01-01 15:08:38.08	333.71	11.58	-41.8	-42.6	12.8	3.08e-05	0	43	0	4624220160	53	4088
2026-01-01 15:08:39.09	333.77	11.50	-41.4	-42.5	12.6	2.97e-05	0	43	0	4630511616	53	4019
2026-01-01 15:08:40.09	333.84	11.41	-41.6	-43.1	12.7	3.54e-05	0	43	0	4637851648	53	4301
2026-01-01 15:08:41.09	333.90	11.32	-41.6	-43.1	13.0	3.08e-05	0	43	0	4645191680	53	4293
2026-01-01 15:08:42.09	333.97	11.24	-41.5	-43.1	12.9	2.28e-05	0	43	0	4652531712	53	4306
2026-01-01 15:08:43.08	334.03	11.15	-41.6	-42.7	12.9	3.31e-05	0	43	0	4659871744	53	4116
2026-01-01 15:08:44.08	334.09	11.07	-41.6	-42.8	12.6	3.20e-05	0	43	0	4667211776	53	4159
2026-01-01 15:08:45.09	334.16	10.98	-41.6	-42.9	12.7	3.77e-05	0	43	0	4674551808	53	4209
2026-01-01 15:08:46.09	334.22	10.90	-41.6	-42.9	12.9	3.31e-05	0	43	0	4681891840	53	4207
2026-01-01 15:08:47.09	334.29	10.81	-41.6	-42.9	13.0	3.08e-05	0	43	0	4689231872	53	4217
2026-01-01 15:08:48.09	334.35	10.73	-41.8	-43.2	12.9	2.51e-05	0	43	0	4695523328	53	4367
2026-01-01 15:08:49.09	334.41	10.65	-41.4	-42.5	13.3	3.20e-05	0	43	0	4702863360	53	4033
2026-01-01 15:08:50.09	334.47	10.56	-41.7	-42.7	12.8	3.66e-05	0	43	0	4710203392	53	4125
