passes_logs/2026/01/01/T1/T1__20260101_003734_SUOMI_NPP_rec.log

#Pass ID: 20260101_003734_SUOMI NPP
#Satellite: SUOMI NPP
#Configuration: NPP
#almurnet v.1.7.20251203
#Start time: 2026-01-01 00:37:33

#Version: 2.0.20230620
#Station: T1
#Location: 37.570604 lon 55.790049 lat
#TLE: 1 37849U 11061A   25364.87906317  .00000195  00000+0  11345-3 0  9992
#TLE: 2 37849  98.7794 302.0592 0002571  89.2401 270.9069 14.19520347734561

#Time	Az	El	Level	Level2	SNR	BER	BlckErr	Temp	State	Recorded	gain1	gain2
2026-01-01 00:37:33.98	11.10	4.99	-51.6	-66.8	3.8	1.49e+00	0	37	0	0	73	22350
2026-01-01 00:37:34.98	11.06	5.06	-51.6	-66.8	3.8	1.49e+00	0	38	104	0	75	19909
2026-01-01 00:37:35.99	11.02	5.13	-51.6	-66.8	3.8	1.49e+00	0	37	104	0	75	19863
2026-01-01 00:37:36.99	10.98	5.20	-51.6	-66.8	3.8	1.49e+00	0	38	104	0	75	19874
2026-01-01 00:37:37.99	10.93	5.27	-51.6	-66.8	3.8	1.49e+00	0	38	104	0	75	19926
2026-01-01 00:37:39.00	10.89	5.34	-51.6	-66.8	3.8	1.49e+00	0	38	104	0	75	19877
2026-01-01 00:37:40.00	10.85	5.41	-51.6	-66.8	3.8	1.49e+00	0	38	104	0	75	19914
2026-01-01 00:37:41.01	10.81	5.48	-51.6	-66.8	3.8	1.49e+00	0	38	104	0	75	19960
2026-01-01 00:37:42.01	10.76	5.55	-51.6	-66.8	3.8	1.49e+00	0	38	104	0	75	19954
2026-01-01 00:37:43.02	10.72	5.62	-51.6	-66.7	3.8	1.49e+00	0	38	104	0	75	19815
2026-01-01 00:37:44.02	10.67	5.69	-51.6	-66.8	3.8	1.49e+00	0	38	104	0	75	19896
2026-01-01 00:37:45.02	10.63	5.76	-51.6	-66.8	3.8	1.49e+00	0	38	104	0	75	19856
2026-01-01 00:37:46.03	10.59	5.83	-51.6	-66.8	3.8	1.49e+00	0	38	104	0	75	19915
2026-01-01 00:37:47.03	10.54	5.90	-51.6	-66.8	3.8	1.49e+00	0	38	104	0	75	19898
2026-01-01 00:37:48.04	10.50	5.97	-51.6	-66.8	3.8	1.49e+00	0	38	104	0	75	19873
2026-01-01 00:37:49.04	10.45	6.04	-51.6	-66.8	3.8	1.49e+00	0	38	104	0	75	19931
2026-01-01 00:37:50.05	10.41	6.11	-51.7	-66.9	3.8	1.49e+00	0	38	104	0	75	20097
2026-01-01 00:37:51.05	10.36	6.19	-51.7	-66.9	3.8	1.49e+00	0	38	104	0	75	20086
2026-01-01 00:37:52.06	10.32	6.26	-51.7	-66.8	3.8	1.49e+00	0	38	104	0	75	20019
2026-01-01 00:37:53.06	10.27	6.33	-51.7	-66.9	3.8	1.49e+00	0	38	104	0	75	20073
2026-01-01 00:37:54.07	10.23	6.40	-51.6	-66.8	3.8	1.49e+00	0	38	104	0	75	20015
2026-01-01 00:37:55.07	10.18	6.47	-51.6	-66.8	3.8	1.49e+00	0	38	104	0	75	20011
2026-01-01 00:37:56.07	10.13	6.55	-51.6	-66.8	3.8	1.49e+00	0	38	104	0	75	19960
2026-01-01 00:37:57.08	10.09	6.62	-51.6	-66.8	3.8	1.49e+00	0	38	104	0	75	20033
2026-01-01 00:37:58.08	10.04	6.69	-51.7	-66.9	3.8	1.49e+00	0	39	104	0	75	20144
2026-01-01 00:37:59.08	9.99	6.76	-51.6	-66.8	3.8	1.49e+00	0	38	104	0	75	19866
2026-01-01 00:38:00.09	9.94	6.84	-51.6	-66.7	3.8	1.49e+00	0	38	104	0	75	19795
2026-01-01 00:38:01.09	9.90	6.91	-51.6	-66.7	3.8	1.49e+00	0	39	104	0	75	19832
2026-01-01 00:38:02.10	9.85	6.98	-51.6	-66.8	3.8	1.49e+00	0	39	104	0	75	19944
2026-01-01 00:38:03.10	9.80	7.06	-51.7	-66.8	3.8	1.49e+00	0	39	104	0	75	20000
2026-01-01 00:38:04.11	9.75	7.13	-51.6	-66.8	3.8	1.49e+00	0	39	104	0	75	19889
2026-01-01 00:38:05.11	9.70	7.21	-51.6	-66.8	3.8	1.49e+00	0	39	104	0	75	19961
2026-01-01 00:38:06.12	9.65	7.28	-51.6	-66.8	3.8	1.49e+00	0	39	104	0	75	19941
2026-01-01 00:38:07.12	9.60	7.35	-51.6	-66.8	3.8	1.49e+00	0	39	104	0	75	19958
2026-01-01 00:38:08.12	9.55	7.43	-51.6	-66.8	3.8	1.49e+00	0	39	104	0	75	19990
2026-01-01 00:38:09.13	9.50	7.50	-51.6	-66.8	3.8	1.49e+00	0	39	104	0	75	19923
2026-01-01 00:38:10.13	9.45	7.58	-51.6	-66.8	3.8	1.49e+00	0	39	104	0	75	19844
2026-01-01 00:38:11.14	9.40	7.65	-51.6	-66.8	3.8	1.49e+00	0	39	104	0	75	19922
2026-01-01 00:38:12.14	9.35	7.73	-51.6	-66.8	3.8	1.49e+00	0	39	104	0	75	19954
2026-01-01 00:38:13.15	9.30	7.81	-51.6	-66.8	3.8	1.49e+00	0	39	104	0	75	19992
2026-01-01 00:38:14.15	9.25	7.88	-51.7	-66.8	3.8	1.49e+00	0	39	104	0	75	19972
2026-01-01 00:38:15.15	9.20	7.96	-51.7	-66.8	3.8	1.49e+00	0	39	104	0	75	20000
2026-01-01 00:38:16.16	9.15	8.03	-51.7	-66.8	3.8	1.49e+00	0	39	104	0	75	20000
2026-01-01 00:38:17.16	9.09	8.11	-51.7	-66.9	3.8	1.49e+00	0	39	104	0	75	20088
2026-01-01 00:38:18.16	9.04	8.19	-51.6	-66.8	3.8	1.49e+00	0	39	104	0	75	19981
2026-01-01 00:38:19.17	8.99	8.26	-51.6	-66.8	3.8	1.49e+00	0	39	104	0	75	19911
2026-01-01 00:38:20.17	8.94	8.34	-51.7	-66.8	3.8	1.49e+00	0	39	104	0	75	19953
2026-01-01 00:38:21.18	8.88	8.42	-51.7	-66.8	3.8	1.49e+00	0	39	104	0	75	20004
2026-01-01 00:38:22.18	8.83	8.50	-51.6	-66.8	3.8	1.49e+00	0	39	104	0	75	20012
2026-01-01 00:38:23.19	8.77	8.57	-51.6	-66.8	3.8	1.49e+00	0	39	104	0	75	19969
2026-01-01 00:38:24.19	8.72	8.65	-51.6	-66.8	3.8	1.49e+00	0	39	104	0	75	19936
2026-01-01 00:38:25.20	8.67	8.73	-51.7	-66.9	3.8	1.49e+00	0	39	104	0	75	20074
2026-01-01 00:38:26.20	8.61	8.81	-51.6	-66.8	3.8	1.49e+00	0	39	104	0	75	19960
2026-01-01 00:38:27.21	8.56	8.89	-51.7	-66.9	3.8	1.49e+00	0	39	104	0	75	20087
2026-01-01 00:38:28.21	8.50	8.97	-51.7	-66.8	3.8	1.49e+00	0	39	104	0	75	20039
2026-01-01 00:38:29.21	8.44	9.04	-51.6	-66.8	3.8	1.49e+00	0	39	104	0	75	20064
2026-01-01 00:38:30.22	8.39	9.12	-51.6	-66.8	3.8	1.49e+00	0	39	104	0	75	19910
2026-01-01 00:38:31.22	8.33	9.20	-51.6	-66.8	3.8	1.49e+00	0	39	104	0	75	19951
2026-01-01 00:38:32.23	8.27	9.28	-51.6	-66.8	3.8	1.49e+00	0	40	104	0	75	19909
2026-01-01 00:38:33.23	8.22	9.36	-51.6	-66.8	3.8	1.49e+00	0	39	104	0	75	19982
2026-01-01 00:38:34.24	8.16	9.44	-51.6	-66.8	3.8	1.49e+00	0	39	104	0	75	19963
2026-01-01 00:38:35.24	8.10	9.52	-51.6	-66.8	3.8	1.49e+00	0	39	104	0	75	19871
2026-01-01 00:38:36.25	8.04	9.61	-51.6	-66.8	3.8	1.49e+00	0	39	104	0	75	19925
2026-01-01 00:38:37.25	7.98	9.69	-51.6	-66.8	3.8	1.49e+00	0	39	104	0	75	19977
2026-01-01 00:38:38.25	7.93	9.77	-51.6	-66.8	3.8	1.49e+00	0	40	104	0	75	20027
2026-01-01 00:38:39.26	7.87	9.85	-51.6	-66.8	3.8	1.49e+00	0	39	104	0	75	19977
2026-01-01 00:38:40.26	7.81	9.93	-51.6	-66.8	3.8	1.49e+00	0	39	104	0	75	19951
2026-01-01 00:38:41.27	7.75	10.01	-51.6	-66.8	3.8	1.49e+00	0	40	104	0	75	19909
2026-01-01 00:38:42.27	7.69	10.09	-51.7	-66.8	3.8	1.49e+00	0	39	104	0	75	19948
2026-01-01 00:38:43.28	7.62	10.18	-51.6	-66.8	3.8	1.49e+00	0	40	104	0	75	19990
2026-01-01 00:38:44.28	7.56	10.26	-51.6	-66.8	3.8	1.49e+00	0	40	104	0	75	20069
2026-01-01 00:38:45.29	7.50	10.34	-51.6	-66.8	3.8	1.49e+00	0	40	104	0	75	19927
2026-01-01 00:38:46.53	7.43	10.44	-51.6	-66.8	3.8	1.49e+00	0	40	104	0	75	19907
2026-01-01 00:38:47.41	7.37	10.52	-51.7	-66.8	3.8	1.49e+00	0	40	104	0	75	20047
2026-01-01 00:38:48.73	7.29	10.63	-51.6	-66.8	3.8	1.49e+00	0	40	104	0	75	19975
2026-01-01 00:38:49.45	7.24	10.69	-51.6	-66.8	3.8	1.49e+00	0	40	104	0	75	19980
2026-01-01 00:38:50.74	7.16	10.80	-51.6	-66.8	3.8	1.49e+00	0	40	104	0	75	19917
2026-01-01 00:38:51.46	7.12	10.86	-51.6	-66.8	3.8	1.49e+00	0	40	104	0	75	19867
2026-01-01 00:38:52.75	7.03	10.97	-51.6	-66.8	3.8	1.49e+00	0	40	104	0	75	19865
2026-01-01 00:38:53.47	6.99	11.03	-51.6	-66.8	3.8	1.49e+00	0	39	104	0	75	19881
2026-01-01 00:38:54.76	6.90	11.14	-51.7	-66.8	3.8	1.49e+00	0	40	104	0	75	20010
2026-01-01 00:38:55.47	6.86	11.20	-51.6	-66.8	3.8	1.49e+00	0	40	104	0	75	20031
2026-01-01 00:38:56.77	6.77	11.31	-51.6	-66.8	3.8	1.49e+00	0	40	104	0	75	19918
2026-01-01 00:38:57.48	6.72	11.37	-51.6	-66.8	3.8	1.49e+00	0	40	104	0	75	19893
2026-01-01 00:38:58.77	6.64	11.48	-51.6	-66.8	3.8	1.49e+00	0	40	104	0	75	19948
2026-01-01 00:38:59.49	6.59	11.54	-51.6	-66.8	3.8	1.49e+00	0	40	104	0	75	20026
2026-01-01 00:39:00.81	6.50	11.65	-51.6	-66.8	3.8	1.49e+00	0	40	104	0	75	19923
2026-01-01 00:39:01.53	6.45	11.72	-51.6	-66.8	3.8	1.49e+00	0	40	104	0	75	20001
2026-01-01 00:39:02.92	6.36	11.84	-51.6	-66.8	3.8	1.49e+00	0	40	104	0	75	19974
2026-01-01 00:39:03.64	6.31	11.90	-51.6	-66.8	3.8	1.49e+00	0	40	104	0	75	19967
2026-01-01 00:39:04.93	6.22	12.01	-51.7	-66.8	3.8	1.49e+00	0	40	104	0	75	20063
2026-01-01 00:39:05.64	6.17	12.08	-51.6	-66.8	3.8	1.49e+00	0	40	104	0	75	19928
2026-01-01 00:39:06.94	6.08	12.19	-51.6	-66.8	3.8	1.49e+00	0	40	104	0	75	19912
2026-01-01 00:39:07.65	6.03	12.25	-51.6	-66.8	3.8	1.49e+00	0	40	104	0	75	19963
2026-01-01 00:39:08.94	5.94	12.37	-51.7	-66.8	3.8	1.49e+00	0	40	104	0	75	20052
2026-01-01 00:39:09.66	5.89	12.43	-51.6	-66.8	3.8	1.49e+00	0	40	104	0	75	19922
2026-01-01 00:39:10.95	5.79	12.55	-51.6	-66.8	3.8	1.49e+00	0	40	104	0	75	19964
2026-01-01 00:39:11.67	5.74	12.61	-51.6	-66.8	3.8	1.49e+00	0	40	104	0	75	19937
2026-01-01 00:39:12.96	5.65	12.73	-51.6	-66.7	3.8	1.49e+00	0	40	104	0	75	19832
2026-01-01 00:39:13.68	5.60	12.79	-51.6	-66.8	3.8	1.49e+00	0	40	104	0	75	19941
2026-01-01 00:39:14.97	5.50	12.91	-51.6	-66.8	3.8	1.49e+00	0	40	104	0	75	19969
2026-01-01 00:39:15.69	5.45	12.97	-51.6	-66.8	3.8	1.49e+00	0	40	104	0	75	19922
2026-01-01 00:39:16.98	5.35	13.09	-51.6	-66.8	3.8	1.49e+00	0	40	104	0	75	19925
2026-01-01 00:39:17.69	5.30	13.15	-51.6	-66.8	3.8	1.49e+00	0	40	104	0	75	20007
2026-01-01 00:39:18.99	5.20	13.27	-51.6	-66.8	3.8	1.49e+00	0	40	104	0	75	19958
2026-01-01 00:39:19.70	5.15	13.34	-51.6	-66.7	3.8	1.49e+00	0	40	104	0	75	19822
2026-01-01 00:39:20.99	5.05	13.46	-51.6	-66.8	3.8	1.49e+00	0	40	104	0	75	19867
2026-01-01 00:39:21.71	4.99	13.52	-51.6	-66.8	3.8	1.49e+00	0	40	104	0	75	19953
2026-01-01 00:39:23.00	4.89	13.64	-51.6	-66.8	3.8	1.49e+00	0	40	104	0	75	19967
2026-01-01 00:39:23.72	4.84	13.71	-51.6	-66.8	3.8	1.49e+00	0	40	104	0	75	19855
2026-01-01 00:39:25.01	4.73	13.83	-51.6	-66.8	3.8	1.49e+00	0	40	104	0	75	19976
2026-01-01 00:39:25.73	4.68	13.90	-51.6	-66.7	3.8	1.49e+00	0	40	104	0	75	19815
2026-01-01 00:39:27.02	4.58	14.02	-51.6	-66.8	3.8	1.49e+00	0	40	104	0	75	19925
2026-01-01 00:39:27.74	4.52	14.09	-51.6	-66.8	3.8	1.49e+00	0	40	104	0	75	19918
2026-01-01 00:39:29.03	4.41	14.21	-51.6	-66.8	3.8	1.49e+00	0	40	104	0	75	19980
2026-01-01 00:39:29.74	4.36	14.27	-51.6	-66.8	3.8	1.49e+00	0	40	104	0	75	19959
2026-01-01 00:39:31.04	4.25	14.40	-51.6	-66.8	3.8	1.49e+00	0	40	104	0	75	19881
2026-01-01 00:39:31.75	4.19	14.47	-51.6	-66.8	3.8	1.49e+00	0	40	104	0	75	19867
2026-01-01 00:39:33.05	4.08	14.59	-51.6	-66.7	3.8	1.49e+00	0	40	104	0	75	19833
2026-01-01 00:39:33.76	4.02	14.66	-51.6	-66.8	3.8	1.49e+00	0	40	104	0	75	19849
2026-01-01 00:39:35.05	3.92	14.78	-51.6	-66.7	3.8	1.49e+00	0	40	104	0	75	19817
2026-01-01 00:39:35.77	3.85	14.85	-51.6	-66.8	3.8	1.49e+00	0	40	104	0	75	19882
2026-01-01 00:39:37.06	3.74	14.98	-51.6	-66.8	3.8	1.49e+00	0	40	104	0	75	19956
2026-01-01 00:39:37.78	3.68	15.05	-51.6	-66.8	3.8	1.49e+00	0	40	104	0	75	19977
2026-01-01 00:39:39.07	3.57	15.17	-51.6	-66.8	3.8	1.49e+00	0	40	104	0	75	19933
2026-01-01 00:39:39.79	3.51	15.24	-51.6	-66.7	3.8	1.49e+00	0	40	104	0	75	19826
2026-01-01 00:39:41.08	3.40	15.37	-51.6	-66.8	3.8	1.49e+00	0	40	104	0	75	19918
2026-01-01 00:39:41.80	3.33	15.44	-51.6	-66.8	3.8	1.49e+00	0	40	104	0	75	19853
2026-01-01 00:39:43.09	3.22	15.57	-51.6	-66.7	3.8	1.49e+00	0	40	104	0	75	19813
2026-01-01 00:39:43.80	3.16	15.64	-51.6	-66.8	3.8	1.49e+00	0	40	104	0	75	19895
2026-01-01 00:39:45.10	3.04	15.77	-51.6	-66.8	3.8	1.49e+00	0	40	104	0	75	19888
2026-01-01 00:39:45.81	2.97	15.84	-51.6	-66.8	3.8	1.49e+00	0	41	104	0	75	19962
2026-01-01 00:39:47.10	2.86	15.97	-51.6	-66.8	3.8	1.49e+00	0	40	104	0	75	19908
2026-01-01 00:39:47.82	2.79	16.04	-51.6	-66.8	3.8	1.49e+00	0	40	104	0	75	19888
2026-01-01 00:39:49.11	2.67	16.17	-51.6	-66.8	3.8	1.49e+00	0	40	104	0	75	19982
2026-01-01 00:39:49.83	2.60	16.24	-51.6	-66.7	3.8	1.49e+00	0	40	104	0	75	19764
2026-01-01 00:39:51.12	2.48	16.38	-51.6	-66.8	3.8	1.49e+00	0	40	104	0	75	19851
2026-01-01 00:39:51.84	2.41	16.45	-51.6	-66.7	3.8	1.49e+00	0	40	104	0	75	19744
2026-01-01 00:39:53.13	2.29	16.58	-51.6	-66.7	3.8	1.49e+00	0	41	104	0	75	19831
2026-01-01 00:39:53.85	2.22	16.65	-51.6	-66.7	3.8	1.49e+00	0	40	104	0	75	19798
2026-01-01 00:39:55.14	2.10	16.79	-51.6	-66.8	3.8	1.49e+00	0	40	104	0	75	19957
2026-01-01 00:39:55.85	2.03	16.86	-51.6	-66.8	3.8	1.49e+00	0	40	104	0	75	20061
2026-01-01 00:39:57.15	1.90	17.00	-51.6	-66.8	3.8	1.49e+00	0	40	104	0	75	19885
2026-01-01 00:39:57.87	1.83	17.07	-51.7	-66.8	3.8	1.49e+00	0	40	104	0	75	19978
2026-01-01 00:39:59.16	1.70	17.21	-51.6	-66.8	3.8	1.49e+00	0	40	104	0	75	20057
2026-01-01 00:39:59.87	1.63	17.28	-51.6	-66.8	3.8	1.49e+00	0	40	104	0	75	19903
2026-01-01 00:40:01.17	1.50	17.42	-51.6	-66.8	3.8	1.49e+00	0	40	104	0	75	19949
2026-01-01 00:40:01.88	1.43	17.49	-51.6	-66.8	3.8	1.49e+00	0	40	104	0	75	19853
2026-01-01 00:40:03.18	1.30	17.63	-51.6	-66.8	3.8	1.49e+00	0	40	104	0	75	19863
2026-01-01 00:40:03.89	1.22	17.70	-51.6	-66.7	3.8	1.49e+00	0	40	104	0	75	19833
2026-01-01 00:40:05.18	1.09	17.84	-51.6	-66.8	3.8	1.49e+00	0	40	104	0	75	19987
2026-01-01 00:40:05.90	1.01	17.92	-51.6	-66.8	3.8	1.49e+00	0	40	104	0	75	19982
2026-01-01 00:40:07.19	0.88	18.06	-51.7	-66.8	3.8	1.49e+00	0	40	104	0	75	20051
2026-01-01 00:40:07.91	0.80	18.14	-51.7	-66.8	3.8	1.49e+00	0	41	104	0	75	20024
2026-01-01 00:40:09.20	0.66	18.27	-51.7	-66.9	3.8	1.49e+00	0	40	104	0	75	20185
2026-01-01 00:40:09.92	0.59	18.35	-51.7	-66.8	3.8	1.49e+00	0	40	104	0	75	20028
2026-01-01 00:40:11.21	0.45	18.49	-51.7	-66.9	3.8	1.49e+00	0	40	104	0	75	20095
2026-01-01 00:40:11.93	0.37	18.57	-51.7	-66.9	3.8	1.49e+00	0	41	104	0	75	20122
2026-01-01 00:40:13.22	0.22	18.71	-51.7	-66.9	3.8	1.49e+00	0	41	104	0	75	20263
2026-01-01 00:40:13.94	0.14	18.79	-51.7	-66.8	3.8	1.49e+00	0	40	104	0	75	20056
2026-01-01 00:40:15.23	0.00	18.93	-51.7	-66.9	3.8	1.49e+00	0	41	104	0	75	20121
2026-01-01 00:40:15.94	359.92	19.01	-51.7	-66.9	3.8	1.49e+00	0	40	104	0	75	20137
2026-01-01 00:40:17.23	359.77	19.16	-51.7	-66.8	3.8	1.49e+00	0	41	104	0	75	20047
2026-01-01 00:40:17.95	359.69	19.24	-51.6	-66.8	3.8	1.49e+00	0	40	104	0	75	19992
2026-01-01 00:40:19.24	359.54	19.38	-51.7	-66.9	3.8	1.49e+00	0	40	104	0	75	20092
2026-01-01 00:40:19.96	359.46	19.46	-51.6	-66.8	3.8	1.49e+00	0	40	104	0	75	20023
2026-01-01 00:40:21.25	359.31	19.61	-51.6	-66.8	3.8	1.49e+00	0	40	104	0	75	19860
2026-01-01 00:40:21.97	359.22	19.69	-51.7	-66.8	3.8	1.49e+00	0	41	104	0	75	20053
2026-01-01 00:40:23.26	359.07	19.83	-51.7	-66.8	3.8	1.49e+00	0	41	104	0	75	20002
2026-01-01 00:40:23.98	358.98	19.92	-51.6	-66.8	3.8	1.49e+00	0	41	104	0	75	20001
2026-01-01 00:40:25.27	358.83	20.06	-51.6	-66.8	3.8	1.49e+00	0	40	104	0	75	19988
2026-01-01 00:40:25.98	358.74	20.15	-51.6	-66.8	3.8	1.49e+00	0	41	104	0	75	19898
2026-01-01 00:40:27.28	358.58	20.29	-51.6	-66.8	3.8	1.49e+00	0	41	104	0	75	19844
2026-01-01 00:40:27.99	358.50	20.38	-51.6	-66.8	3.8	1.49e+00	0	41	104	0	75	19970
2026-01-01 00:40:29.28	358.34	20.53	-51.6	-66.8	3.8	1.49e+00	0	41	104	0	75	19939
2026-01-01 00:40:30.00	358.25	20.61	-51.6	-66.8	3.8	1.49e+00	0	41	104	0	75	19882
2026-01-01 00:40:31.29	358.08	20.76	-51.6	-66.8	3.8	1.49e+00	0	41	104	0	75	19941
2026-01-01 00:40:32.01	357.99	20.84	-51.7	-66.8	3.8	1.49e+00	0	41	104	0	75	20038
2026-01-01 00:40:33.30	357.83	21.00	-51.6	-66.8	3.8	1.49e+00	0	41	104	0	75	19978
2026-01-01 00:40:34.05	357.73	21.08	-51.6	-66.8	3.8	1.49e+00	0	40	104	0	75	19899
2026-01-01 00:40:35.34	357.56	21.24	-51.6	-66.8	3.8	1.49e+00	0	40	104	0	75	19977
2026-01-01 00:40:36.14	357.45	21.33	-51.6	-66.7	3.8	1.49e+00	0	40	104	0	75	19811
2026-01-01 00:40:37.29	357.30	21.47	-51.6	-66.8	3.8	1.49e+00	0	41	104	0	75	19869
2026-01-01 00:40:38.36	357.16	21.59	-51.6	-66.8	3.8	1.49e+00	0	40	104	0	75	19875
2026-01-01 00:40:39.39	357.02	21.72	-51.6	-66.7	3.8	1.49e+00	0	41	104	0	75	19775
2026-01-01 00:40:40.56	356.86	21.86	-51.6	-66.8	3.8	1.49e+00	0	41	104	0	75	19842
2026-01-01 00:40:41.46	356.74	21.97	-51.6	-66.7	3.8	1.49e+00	0	41	104	0	75	19821
2026-01-01 00:40:42.60	356.58	22.11	-51.6	-66.7	3.8	1.49e+00	0	40	104	0	75	19797
2026-01-01 00:40:43.46	356.46	22.21	-51.6	-66.8	3.8	1.49e+00	0	40	104	0	75	20043
2026-01-01 00:40:44.61	356.30	22.35	-51.6	-66.8	3.8	1.49e+00	0	41	104	0	75	20019
2026-01-01 00:40:45.47	356.18	22.45	-51.6	-66.8	3.8	1.49e+00	0	40	104	0	75	19914
2026-01-01 00:40:46.62	356.01	22.60	-51.5	-66.7	3.8	1.49e+00	0	41	104	0	75	19839
2026-01-01 00:40:47.47	355.89	22.70	-51.6	-66.8	3.8	1.49e+00	0	41	104	0	75	19865
2026-01-01 00:40:48.62	355.72	22.84	-51.6	-66.8	3.8	1.49e+00	0	41	104	0	75	19900
2026-01-01 00:40:49.48	355.60	22.95	-51.6	-66.8	3.8	1.49e+00	0	41	104	0	75	19897
2026-01-01 00:40:50.63	355.43	23.09	-51.6	-66.8	3.8	1.49e+00	0	40	104	0	75	19874
2026-01-01 00:40:51.49	355.30	23.20	-51.6	-66.7	3.8	1.49e+00	0	41	104	0	75	19820
2026-01-01 00:40:52.64	355.13	23.34	-51.6	-66.8	3.8	1.49e+00	0	41	104	0	75	19844
2026-01-01 00:40:53.50	355.00	23.45	-51.6	-66.8	3.8	1.49e+00	0	41	104	0	75	19899
2026-01-01 00:40:54.73	354.81	23.60	-51.6	-66.8	3.8	1.49e+00	0	41	104	0	75	19884
2026-01-01 00:40:55.59	354.68	23.71	-51.6	-66.8	3.8	1.49e+00	0	40	104	0	75	19959
2026-01-01 00:40:56.74	354.50	23.86	-51.6	-66.8	3.8	1.49e+00	0	41	104	0	75	19911
2026-01-01 00:40:57.60	354.37	23.97	-51.6	-66.8	3.8	1.49e+00	0	41	104	0	75	19992
2026-01-01 00:40:58.75	354.19	24.11	-51.6	-66.8	3.8	1.49e+00	0	41	104	0	75	20034
2026-01-01 00:40:59.61	354.05	24.22	-51.7	-66.9	3.8	1.49e+00	0	41	104	0	75	20102
2026-01-01 00:41:00.76	353.86	24.37	-51.7	-66.8	3.8	1.49e+00	0	41	104	0	75	20024
2026-01-01 00:41:01.62	353.73	24.48	-51.7	-66.9	3.8	1.49e+00	0	41	104	0	75	20087
2026-01-01 00:41:02.76	353.54	24.63	-51.7	-66.8	3.8	1.49e+00	0	41	104	0	75	20028
2026-01-01 00:41:03.63	353.40	24.74	-51.7	-66.9	3.8	1.49e+00	0	41	104	0	75	20148
2026-01-01 00:41:04.77	353.21	24.89	-51.7	-66.9	3.8	1.49e+00	0	41	104	0	75	20112
2026-01-01 00:41:05.63	353.06	25.00	-51.7	-66.8	3.8	1.49e+00	0	41	104	0	75	20056
2026-01-01 00:41:06.78	352.87	25.15	-51.7	-66.8	3.8	1.49e+00	0	41	104	0	75	20016
2026-01-01 00:41:07.64	352.72	25.26	-51.7	-66.9	3.8	1.49e+00	0	41	104	0	75	20106
2026-01-01 00:41:08.79	352.53	25.41	-51.7	-66.9	3.8	1.49e+00	0	41	104	0	75	20163
2026-01-01 00:41:09.65	352.38	25.53	-51.8	-66.9	3.8	1.49e+00	0	41	104	0	75	20248
2026-01-01 00:41:10.80	352.18	25.68	-51.7	-66.9	3.8	1.49e+00	0	41	104	0	75	20179
2026-01-01 00:41:11.66	352.03	25.79	-51.8	-67.0	3.8	1.49e+00	0	41	104	0	75	20327
2026-01-01 00:41:12.81	351.82	25.95	-51.7	-66.9	3.8	1.49e+00	0	41	104	0	75	20191
2026-01-01 00:41:13.67	351.67	26.06	-51.7	-66.9	3.8	1.49e+00	0	41	104	0	75	20198
2026-01-01 00:41:14.82	351.46	26.21	-51.7	-66.9	3.8	1.49e+00	0	41	104	0	75	20104
2026-01-01 00:41:15.68	351.30	26.33	-51.7	-66.9	3.8	1.49e+00	0	41	104	0	75	20107
2026-01-01 00:41:16.83	351.09	26.48	-51.7	-66.9	3.8	1.49e+00	0	41	104	0	75	20174
2026-01-01 00:41:17.69	350.93	26.60	-51.7	-66.9	3.8	1.49e+00	0	41	104	0	75	20144
2026-01-01 00:41:18.83	350.72	26.75	-51.6	-66.8	3.8	1.49e+00	0	41	104	0	75	19978
2026-01-01 00:41:19.69	350.56	26.87	-51.7	-66.8	3.8	1.49e+00	0	41	104	0	75	19962
2026-01-01 00:41:20.84	350.34	27.02	-51.6	-66.8	3.8	1.49e+00	0	41	104	0	75	19988
2026-01-01 00:41:21.70	350.18	27.14	-51.6	-66.8	3.8	1.49e+00	0	41	104	0	75	19979
2026-01-01 00:41:22.85	349.95	27.30	-51.6	-66.8	3.8	1.49e+00	0	41	104	0	75	20013
2026-01-01 00:41:23.71	349.79	27.41	-51.6	-66.8	3.8	1.49e+00	0	41	104	0	75	19859
2026-01-01 00:41:24.86	349.56	27.57	-51.6	-66.8	3.8	1.49e+00	0	41	104	0	75	19993
2026-01-01 00:41:25.72	349.39	27.69	-51.6	-66.8	3.8	1.49e+00	0	41	104	0	75	19948
2026-01-01 00:41:26.86	349.16	27.84	-51.6	-66.8	3.8	1.49e+00	0	41	104	0	75	19894
2026-01-01 00:41:27.72	348.99	27.96	-51.6	-66.8	3.8	1.49e+00	0	41	104	0	75	19842
2026-01-01 00:41:28.87	348.75	28.12	-51.6	-66.7	3.8	1.49e+00	0	41	104	0	75	19802
2026-01-01 00:41:29.73	348.58	28.24	-51.6	-66.7	3.8	1.49e+00	0	41	104	0	75	19749
2026-01-01 00:41:30.88	348.34	28.40	-51.6	-66.8	3.8	1.49e+00	0	41	104	0	75	19864
2026-01-01 00:41:31.74	348.16	28.52	-51.6	-66.8	3.8	1.49e+00	0	41	104	0	75	19902
2026-01-01 00:41:32.88	347.92	28.68	-51.6	-66.7	3.8	1.49e+00	0	41	104	0	75	19837
2026-01-01 00:41:33.75	347.73	28.80	-51.6	-66.8	3.8	1.49e+00	0	41	104	0	75	19866
2026-01-01 00:41:34.89	347.49	28.95	-51.6	-66.8	3.8	1.49e+00	0	41	104	0	75	19894
2026-01-01 00:41:35.75	347.30	29.07	-51.6	-66.7	3.8	1.49e+00	0	41	104	0	75	19837
2026-01-01 00:41:36.90	347.05	29.24	-51.6	-66.7	3.8	1.49e+00	0	41	104	0	75	19829
2026-01-01 00:41:37.76	346.86	29.36	-51.6	-66.7	3.8	1.49e+00	0	41	104	0	75	19795
2026-01-01 00:41:38.91	346.60	29.52	-51.6	-66.7	3.8	1.49e+00	0	41	104	0	75	19787
2026-01-01 00:41:39.77	346.41	29.64	-51.5	-66.7	3.8	1.49e+00	0	41	104	0	75	19767
2026-01-01 00:41:40.92	346.15	29.80	-51.6	-66.8	3.8	1.49e+00	0	41	104	0	75	19875
2026-01-01 00:41:41.78	345.95	29.92	-51.6	-66.8	3.8	1.49e+00	0	41	104	0	75	19920
2026-01-01 00:41:42.93	345.69	30.08	-51.6	-66.7	3.8	1.49e+00	0	41	104	0	75	19776
2026-01-01 00:41:43.79	345.49	30.20	-51.6	-66.8	3.8	1.49e+00	0	41	104	0	75	19855
2026-01-01 00:41:44.94	345.22	30.37	-51.6	-66.7	3.8	1.49e+00	0	41	104	0	75	19760
2026-01-01 00:41:45.80	345.01	30.49	-51.6	-66.7	3.8	1.49e+00	0	41	104	0	75	19791
2026-01-01 00:41:46.94	344.74	30.65	-51.6	-66.7	3.8	1.49e+00	0	41	104	0	75	19744
2026-01-01 00:41:47.80	344.53	30.77	-51.5	-66.7	3.8	1.49e+00	0	41	104	0	75	19796
2026-01-01 00:41:48.95	344.25	30.93	-51.5	-66.7	3.8	1.49e+00	0	41	104	0	75	19705
2026-01-01 00:41:49.81	344.04	31.06	-51.6	-66.7	3.8	1.49e+00	0	41	104	0	75	19770
2026-01-01 00:41:50.96	343.76	31.22	-51.5	-66.7	3.8	1.49e+00	0	41	104	0	75	19765
2026-01-01 00:41:51.82	343.54	31.34	-51.5	-66.7	3.8	1.49e+00	0	41	104	0	75	19706
2026-01-01 00:41:52.97	343.25	31.51	-51.5	-66.7	3.8	1.49e+00	0	41	104	0	75	19732
2026-01-01 00:41:53.83	343.03	31.63	-51.5	-66.7	3.8	1.49e+00	0	41	104	0	75	19753
2026-01-01 00:41:54.98	342.74	31.79	-51.5	-66.7	3.8	1.49e+00	0	41	104	0	75	19735
2026-01-01 00:41:55.84	342.52	31.91	-51.5	-66.7	3.8	1.49e+00	0	41	104	0	75	19653
2026-01-01 00:41:56.99	342.22	32.08	-51.5	-66.7	3.8	1.49e+00	0	41	104	0	75	19712
2026-01-01 00:41:57.85	341.99	32.20	-51.5	-66.7	3.8	1.49e+00	0	41	104	0	75	19782
2026-01-01 00:41:59.00	341.68	32.36	-51.6	-66.8	3.8	1.49e+00	0	41	104	0	75	19937
2026-01-01 00:41:59.85	341.45	32.48	-51.6	-66.7	3.8	1.49e+00	0	41	104	0	75	19810
2026-01-01 00:42:01.00	341.14	32.65	-51.6	-66.7	3.8	1.49e+00	0	41	104	0	75	19795
2026-01-01 00:42:01.86	340.91	32.77	-51.5	-66.7	3.8	1.49e+00	0	41	104	0	75	19760
2026-01-01 00:42:03.01	340.59	32.93	-51.5	-66.7	3.8	1.49e+00	0	41	104	0	75	19746
2026-01-01 00:42:03.87	340.35	33.06	-51.5	-66.7	3.8	1.49e+00	0	41	104	0	75	19649
2026-01-01 00:42:05.02	340.03	33.22	-51.5	-66.7	3.8	1.49e+00	0	41	104	0	75	19765
2026-01-01 00:42:05.88	339.79	33.34	-51.5	-66.7	3.8	1.49e+00	0	41	104	0	75	19698
2026-01-01 00:42:07.03	339.46	33.50	-51.5	-66.7	3.8	1.49e+00	0	41	104	0	75	19722
2026-01-01 00:42:07.89	339.21	33.63	-51.6	-66.7	3.8	1.49e+00	0	41	104	0	75	19795
2026-01-01 00:42:09.03	338.88	33.79	-51.5	-66.7	3.8	1.49e+00	0	41	104	0	75	19704
2026-01-01 00:42:09.89	338.63	33.91	-51.5	-66.7	3.8	1.49e+00	0	41	104	0	75	19652
2026-01-01 00:42:11.04	338.29	34.07	-51.5	-66.7	3.8	1.49e+00	0	41	104	0	75	19754
2026-01-01 00:42:11.90	338.03	34.19	-51.5	-66.7	3.8	1.49e+00	0	41	104	0	75	19672
2026-01-01 00:42:13.05	337.68	34.35	-51.5	-66.7	3.8	1.49e+00	0	41	104	0	75	19659
2026-01-01 00:42:13.91	337.42	34.47	-51.5	-66.7	3.8	1.49e+00	0	41	104	0	75	19665
2026-01-01 00:42:15.06	337.07	34.63	-51.5	-66.7	3.8	1.49e+00	0	41	104	0	75	19648
2026-01-01 00:42:15.92	336.80	34.75	-51.5	-66.7	3.8	1.49e+00	0	41	104	0	75	19672
2026-01-01 00:42:17.07	336.45	34.91	-51.5	-66.7	3.8	1.49e+00	0	41	104	0	75	19681
2026-01-01 00:42:17.93	336.17	35.03	-51.5	-66.7	3.8	1.49e+00	0	41	104	0	75	19725
2026-01-01 00:42:19.08	335.81	35.19	-51.5	-66.7	3.8	1.49e+00	0	41	104	0	75	19782
2026-01-01 00:42:19.94	335.53	35.31	-51.5	-66.7	3.8	1.49e+00	0	41	104	0	75	19634
2026-01-01 00:42:21.08	335.17	35.47	-51.5	-66.7	3.8	1.49e+00	0	41	104	0	75	19694
2026-01-01 00:42:21.94	334.89	35.59	-51.5	-66.7	3.8	1.49e+00	0	41	104	0	75	19723
2026-01-01 00:42:23.09	334.51	35.74	-51.5	-66.7	3.8	1.49e+00	0	41	104	0	75	19738
2026-01-01 00:42:23.95	334.22	35.86	-51.5	-66.7	3.8	1.49e+00	0	41	104	0	75	19632
2026-01-01 00:42:25.10	333.84	36.02	-51.5	-66.7	3.8	1.49e+00	0	41	104	0	75	19711
2026-01-01 00:42:25.96	333.55	36.13	-51.5	-66.7	3.8	1.49e+00	0	41	104	0	75	19716
2026-01-01 00:42:27.11	333.16	36.29	-51.5	-66.7	3.8	1.49e+00	0	41	104	0	75	19733
2026-01-01 00:42:27.97	332.87	36.40	-51.5	-66.7	3.8	1.49e+00	0	41	104	0	75	19741
2026-01-01 00:42:29.12	332.47	36.55	-51.5	-66.7	3.8	1.49e+00	0	41	104	0	75	19673
2026-01-01 00:42:29.98	332.17	36.67	-51.5	-66.7	3.8	1.49e+00	0	41	104	0	75	19749
2026-01-01 00:42:31.13	331.77	36.82	-51.5	-66.6	3.8	1.49e+00	0	41	104	0	75	19601
2026-01-01 00:42:31.99	331.46	36.93	-51.5	-66.7	3.8	1.49e+00	0	41	104	0	75	19686
2026-01-01 00:42:33.13	331.06	37.08	-51.5	-66.7	3.8	1.49e+00	0	41	104	0	75	19736
2026-01-01 00:42:33.99	330.75	37.19	-51.5	-66.7	3.8	1.49e+00	0	41	104	0	75	19707
2026-01-01 00:42:35.14	330.33	37.34	-51.5	-66.7	3.8	1.49e+00	0	41	104	0	75	19739
2026-01-01 00:42:36.00	330.02	37.45	-51.5	-66.7	3.8	1.49e+00	0	41	104	0	75	19778
2026-01-01 00:42:37.15	329.59	37.60	-51.5	-66.7	3.8	1.49e+00	0	41	104	0	75	19738
2026-01-01 00:42:38.01	329.27	37.71	-51.5	-66.7	3.8	1.49e+00	0	41	104	0	75	19777
2026-01-01 00:42:39.16	328.84	37.85	-51.6	-66.7	3.8	1.49e+00	0	41	104	0	75	19726
2026-01-01 00:42:40.02	328.52	37.96	-51.6	-66.7	3.8	1.49e+00	0	41	104	0	75	19787
2026-01-01 00:42:41.17	328.08	38.10	-51.6	-66.8	3.8	1.49e+00	0	41	104	0	75	19898
2026-01-01 00:42:42.03	327.75	38.21	-51.6	-66.7	3.8	1.49e+00	0	41	104	0	75	19817
2026-01-01 00:42:43.18	327.31	38.35	-51.6	-66.7	3.8	1.49e+00	0	41	104	0	75	19827
2026-01-01 00:42:44.04	326.97	38.45	-51.5	-66.7	3.8	1.49e+00	0	41	104	0	75	19738
2026-01-01 00:42:45.19	326.52	38.59	-51.5	-66.7	3.8	1.49e+00	0	41	104	0	75	19779
2026-01-01 00:42:46.05	326.18	38.69	-51.6	-66.7	3.8	1.49e+00	0	41	104	0	75	19728
2026-01-01 00:42:47.20	325.73	38.82	-51.6	-66.7	3.8	1.49e+00	0	41	104	0	75	19814
2026-01-01 00:42:48.06	325.38	38.92	-51.6	-66.7	3.8	1.49e+00	0	41	104	0	75	19794
2026-01-01 00:42:49.20	324.92	39.05	-51.5	-66.7	3.8	1.49e+00	0	41	104	0	75	19774
2026-01-01 00:42:50.07	324.57	39.15	-51.6	-66.7	3.8	1.49e+00	0	41	104	0	75	19831
2026-01-01 00:42:51.21	324.10	39.28	-51.6	-66.8	3.8	1.49e+00	0	41	104	0	75	19907
2026-01-01 00:42:52.07	323.75	39.37	-51.6	-66.8	3.8	1.49e+00	0	41	104	0	75	19846
2026-01-01 00:42:53.22	323.27	39.50	-51.6	-66.8	3.8	1.49e+00	0	41	104	0	75	20011
2026-01-01 00:42:54.08	322.91	39.59	-51.6	-66.8	3.8	1.49e+00	0	41	104	0	75	19915
2026-01-01 00:42:55.23	322.43	39.72	-51.6	-66.8	3.8	1.49e+00	0	41	104	0	75	19898
2026-01-01 00:42:56.09	322.07	39.81	-51.6	-66.7	3.8	1.49e+00	0	41	104	0	75	19830
2026-01-01 00:42:57.24	321.58	39.92	-51.6	-66.8	3.8	1.49e+00	0	41	104	0	75	19893
2026-01-01 00:42:58.10	321.21	40.01	-51.6	-66.8	3.8	1.49e+00	0	41	104	0	75	19907
2026-01-01 00:42:59.25	320.71	40.13	-51.6	-66.8	3.8	1.49e+00	0	41	104	0	75	19954
2026-01-01 00:43:00.11	320.34	40.21	-51.6	-66.8	3.8	1.49e+00	0	41	104	0	75	19859
2026-01-01 00:43:01.26	319.84	40.33	-51.6	-66.8	3.8	1.49e+00	0	41	104	0	75	19958
2026-01-01 00:43:02.12	319.46	40.41	-51.5	-66.7	3.8	1.49e+00	0	41	104	0	75	19786
2026-01-01 00:43:03.26	318.95	40.52	-51.6	-66.8	3.8	1.49e+00	0	41	104	0	75	19909
2026-01-01 00:43:04.13	318.57	40.60	-51.6	-66.8	3.8	1.49e+00	0	41	104	0	75	19946
2026-01-01 00:43:05.27	318.06	40.70	-51.6	-66.8	3.8	1.49e+00	0	41	104	0	75	19859
2026-01-01 00:43:06.13	317.67	40.78	-51.6	-66.7	3.8	1.49e+00	0	41	104	0	75	19818
2026-01-01 00:43:07.28	317.15	40.88	-51.6	-66.8	3.8	1.49e+00	0	41	104	0	75	19935
2026-01-01 00:43:08.14	316.76	40.95	-51.6	-66.8	3.8	1.49e+00	0	41	104	0	75	19882
2026-01-01 00:43:09.29	316.23	41.04	-51.6	-66.7	3.8	1.49e+00	0	41	104	0	75	19814
2026-01-01 00:43:10.15	315.84	41.11	-51.6	-66.8	3.8	1.49e+00	0	41	104	0	75	19979
2026-01-01 00:43:11.30	315.31	41.21	-51.5	-66.7	3.8	1.49e+00	0	41	104	0	75	19718
2026-01-01 00:43:12.16	314.91	41.27	-51.5	-66.7	3.8	1.49e+00	0	41	104	0	75	19739
2026-01-01 00:43:13.31	314.37	41.36	-51.6	-66.8	3.8	1.49e+00	0	41	104	0	75	19935
2026-01-01 00:43:14.17	313.97	41.42	-51.6	-66.8	3.8	1.49e+00	0	41	104	0	75	19877
2026-01-01 00:43:15.32	313.43	41.51	-51.6	-66.8	3.8	1.49e+00	0	41	104	0	75	19861
2026-01-01 00:43:16.23	313.00	41.57	-51.6	-66.8	3.8	1.49e+00	0	41	104	0	75	19859
2026-01-01 00:43:17.23	312.52	41.64	-51.6	-66.8	3.8	1.49e+00	0	41	104	0	75	19876
2026-01-01 00:43:18.23	312.05	41.70	-51.6	-66.8	3.8	1.49e+00	0	41	104	0	75	19859
2026-01-01 00:43:19.24	311.56	41.77	-51.6	-66.8	3.8	1.49e+00	0	41	104	0	75	19910
2026-01-01 00:43:20.24	311.08	41.83	-51.6	-66.8	3.8	1.49e+00	0	41	104	0	75	19881
2026-01-01 00:43:21.25	310.60	41.89	-51.6	-66.8	3.8	1.49e+00	0	41	104	0	75	19883
2026-01-01 00:43:22.25	310.11	41.94	-51.5	-66.7	3.8	1.49e+00	0	41	104	0	75	19836
2026-01-01 00:43:23.26	309.62	42.00	-51.6	-66.7	3.8	1.49e+00	0	41	104	0	75	19783
2026-01-01 00:43:24.26	309.13	42.05	-51.5	-66.7	3.8	1.49e+00	0	41	104	0	75	19796
2026-01-01 00:43:25.26	308.65	42.10	-51.6	-66.7	3.8	1.49e+00	0	41	104	0	75	19841
2026-01-01 00:43:26.27	308.15	42.15	-51.6	-66.7	3.8	1.49e+00	0	41	104	0	75	19832
2026-01-01 00:43:27.27	307.66	42.19	-51.6	-66.8	3.8	1.49e+00	0	41	104	0	75	19846
2026-01-01 00:43:28.28	307.16	42.24	-51.6	-66.8	3.8	1.49e+00	0	41	104	0	75	19950
2026-01-01 00:43:29.28	306.67	42.28	-51.6	-66.8	3.8	1.49e+00	0	41	104	0	75	19870
2026-01-01 00:43:30.29	306.17	42.32	-51.6	-66.7	3.8	1.49e+00	0	41	104	0	75	19746
2026-01-01 00:43:31.29	305.67	42.35	-51.6	-66.7	3.8	1.49e+00	0	41	104	0	75	19817
2026-01-01 00:43:32.47	305.08	42.39	-51.6	-66.7	3.8	1.49e+00	0	41	104	0	75	19819
2026-01-01 00:43:33.36	304.64	42.42	-51.6	-66.8	3.8	1.49e+00	0	41	104	0	75	19842
2026-01-01 00:43:34.67	303.98	42.45	-51.5	-66.7	3.8	1.49e+00	0	41	104	0	75	19672
2026-01-01 00:43:35.38	303.63	42.47	-51.6	-66.7	3.8	1.49e+00	0	41	104	0	75	19753
2026-01-01 00:43:36.90	302.86	42.51	-51.6	-66.8	3.8	1.49e+00	0	41	104	0	75	19879
2026-01-01 00:43:37.62	302.50	42.52	-51.6	-66.7	3.8	1.49e+00	0	41	104	0	75	19777
2026-01-01 00:43:38.91	301.85	42.54	-51.6	-66.8	3.8	1.49e+00	0	41	104	0	75	19868
2026-01-01 00:43:39.62	301.49	42.55	-51.6	-66.8	3.8	1.49e+00	0	41	104	0	75	19874
2026-01-01 00:43:40.91	300.84	42.57	-51.6	-66.8	3.8	1.49e+00	0	41	104	0	75	19842
2026-01-01 00:43:41.63	300.48	42.58	-51.6	-66.8	3.8	1.49e+00	0	41	104	0	75	19854
2026-01-01 00:43:42.92	299.83	42.59	-51.6	-66.7	3.8	1.49e+00	0	41	104	0	75	19803
2026-01-01 00:43:43.64	299.47	42.59	-51.6	-66.8	3.8	1.49e+00	0	41	104	0	75	19849
2026-01-01 00:43:44.93	298.81	42.59	-51.6	-66.7	3.8	1.49e+00	0	41	104	0	75	19726
2026-01-01 00:43:45.65	298.45	42.59	-51.6	-66.7	3.8	1.49e+00	0	41	104	0	75	19826
2026-01-01 00:43:46.94	297.80	42.59	-51.6	-66.7	3.8	1.49e+00	0	41	104	0	75	19773
2026-01-01 00:43:47.66	297.44	42.59	-51.5	-66.7	3.8	1.49e+00	0	41	104	0	75	19838
2026-01-01 00:43:48.95	296.78	42.58	-51.5	-66.7	3.8	1.49e+00	0	41	104	0	75	19735
2026-01-01 00:43:49.67	296.42	42.57	-51.6	-66.8	3.8	1.49e+00	0	41	104	0	75	19871
2026-01-01 00:43:50.95	295.78	42.55	-51.6	-66.8	3.8	1.49e+00	0	41	104	0	75	19942
2026-01-01 00:43:51.67	295.41	42.54	-51.6	-66.8	3.8	1.49e+00	0	41	104	0	75	19959
2026-01-01 00:43:52.96	294.76	42.52	-51.6	-66.7	3.8	1.49e+00	0	41	104	0	75	19828
2026-01-01 00:43:53.68	294.40	42.51	-51.6	-66.7	3.8	1.49e+00	0	41	104	0	75	19749
2026-01-01 00:43:54.97	293.75	42.48	-51.5	-66.7	3.8	1.49e+00	0	41	104	0	75	19781
2026-01-01 00:43:55.69	293.39	42.46	-51.6	-66.7	3.8	1.49e+00	0	41	104	0	75	19804
2026-01-01 00:43:56.98	292.75	42.42	-51.5	-66.7	3.8	1.49e+00	0	41	104	0	75	19747
2026-01-01 00:43:57.70	292.39	42.40	-51.6	-66.8	3.8	1.49e+00	0	41	104	0	75	19863
2026-01-01 00:43:58.99	291.74	42.36	-51.6	-66.7	3.8	1.49e+00	0	41	104	0	75	19776
2026-01-01 00:43:59.71	291.39	42.33	-51.6	-66.7	3.8	1.49e+00	0	41	104	0	75	19777
2026-01-01 00:44:01.00	290.75	42.29	-51.6	-66.7	3.8	1.49e+00	0	41	104	0	75	19806
2026-01-01 00:44:01.72	290.39	42.26	-51.6	-66.8	3.8	1.49e+00	0	41	104	0	75	19857
2026-01-01 00:44:03.01	289.75	42.20	-51.6	-66.8	3.8	1.49e+00	0	41	104	0	75	19924
2026-01-01 00:44:03.73	289.40	42.17	-51.6	-66.8	3.8	1.49e+00	0	41	104	0	75	19903
2026-01-01 00:44:05.02	288.76	42.11	-51.6	-66.7	3.8	1.49e+00	0	41	104	0	75	19774
2026-01-01 00:44:05.74	288.41	42.08	-51.5	-66.7	3.8	1.49e+00	0	41	104	0	75	19790
2026-01-01 00:44:07.02	287.78	42.01	-51.6	-66.8	3.8	1.49e+00	0	41	104	0	75	19852
2026-01-01 00:44:07.74	287.43	41.97	-51.6	-66.7	3.8	1.49e+00	0	41	104	0	75	19826
2026-01-01 00:44:09.03	286.81	41.90	-51.5	-66.7	3.8	1.49e+00	0	41	104	0	75	19766
2026-01-01 00:44:09.75	286.46	41.86	-51.6	-66.7	3.8	1.49e+00	0	41	104	0	75	19768
2026-01-01 00:44:11.04	285.84	41.78	-51.5	-66.7	3.8	1.49e+00	0	41	104	0	75	19697
2026-01-01 00:44:11.76	285.49	41.73	-51.6	-66.7	3.8	1.49e+00	0	41	104	0	75	19823
2026-01-01 00:44:13.05	284.88	41.65	-51.6	-66.7	3.8	1.49e+00	0	41	104	0	75	19808
2026-01-01 00:44:13.77	284.53	41.60	-51.5	-66.7	3.8	1.49e+00	0	41	104	0	75	19765
2026-01-01 00:44:15.06	283.92	41.51	-51.5	-66.7	3.8	1.49e+00	0	41	104	0	75	19695
2026-01-01 00:44:15.78	283.58	41.46	-51.6	-66.8	3.8	1.49e+00	0	41	104	0	75	19846
2026-01-01 00:44:17.07	282.98	41.37	-51.5	-66.7	3.8	1.49e+00	0	41	104	0	75	19679
2026-01-01 00:44:17.79	282.64	41.32	-51.5	-66.7	3.8	1.49e+00	0	41	104	0	75	19631
2026-01-01 00:44:19.08	282.04	41.22	-51.5	-66.7	3.8	1.49e+00	0	41	104	0	75	19778
2026-01-01 00:44:19.79	281.71	41.16	-51.6	-66.7	3.8	1.49e+00	0	41	104	0	75	19808
2026-01-01 00:44:21.08	281.12	41.06	-51.5	-66.7	3.8	1.49e+00	0	41	104	0	75	19766
2026-01-01 00:44:21.80	280.79	41.00	-51.5	-66.6	3.8	1.49e+00	0	41	104	0	75	19600
2026-01-01 00:44:23.09	280.20	40.89	-51.5	-66.7	3.8	1.49e+00	0	41	104	0	75	19686
2026-01-01 00:44:23.81	279.87	40.82	-51.5	-66.7	3.8	1.49e+00	0	41	104	0	75	19815
2026-01-01 00:44:25.10	279.29	40.71	-51.5	-66.7	3.8	1.49e+00	0	41	104	0	75	19731
2026-01-01 00:44:25.82	278.96	40.64	-51.5	-66.7	3.8	1.49e+00	0	41	104	0	75	19729
2026-01-01 00:44:27.11	278.39	40.53	-51.5	-66.7	3.8	1.49e+00	0	41	104	0	75	19695
2026-01-01 00:44:27.83	278.07	40.46	-51.5	-66.7	3.8	1.49e+00	0	41	104	0	75	19697
2026-01-01 00:44:29.12	277.50	40.34	-51.5	-66.7	3.8	1.49e+00	0	41	104	0	75	19667
2026-01-01 00:44:29.84	277.18	40.27	-51.5	-66.7	3.8	1.49e+00	0	41	104	0	75	19706
2026-01-01 00:44:31.13	276.62	40.14	-51.6	-66.8	3.8	1.49e+00	0	41	104	0	75	19867
2026-01-01 00:44:31.84	276.31	40.07	-51.5	-66.7	3.8	1.49e+00	0	41	104	0	75	19760
2026-01-01 00:44:33.14	275.75	39.93	-51.5	-66.7	3.8	1.49e+00	0	41	104	0	75	19756
2026-01-01 00:44:33.85	275.45	39.86	-51.5	-66.7	3.8	1.49e+00	0	41	104	0	75	19728
2026-01-01 00:44:35.14	274.90	39.73	-51.5	-66.7	3.8	1.49e+00	0	41	104	0	75	19765
2026-01-01 00:44:35.86	274.60	39.65	-51.5	-66.7	3.8	1.49e+00	0	41	104	0	75	19765
2026-01-01 00:44:37.15	274.06	39.51	-51.5	-66.6	3.8	1.49e+00	0	41	104	0	75	19613
2026-01-01 00:44:37.87	273.76	39.43	-51.5	-66.6	3.8	1.49e+00	0	41	104	0	75	19609
2026-01-01 00:44:39.16	273.22	39.29	-51.6	-66.7	3.8	1.49e+00	0	41	104	0	75	19812
2026-01-01 00:44:39.88	272.93	39.21	-51.5	-66.7	3.8	1.49e+00	0	41	104	0	75	19721
2026-01-01 00:44:41.17	272.40	39.06	-51.5	-66.7	3.8	1.49e+00	0	41	104	0	75	19694
2026-01-01 00:44:41.89	272.11	38.98	-51.6	-66.8	3.8	1.49e+00	0	41	104	0	75	19887
2026-01-01 00:44:43.18	271.59	38.83	-51.6	-66.7	3.8	1.49e+00	0	41	104	0	75	19802
2026-01-01 00:44:43.90	271.30	38.75	-51.6	-66.7	3.8	1.49e+00	0	41	104	0	75	19835
2026-01-01 00:44:45.19	270.79	38.59	-51.6	-66.7	3.8	1.49e+00	0	41	104	0	75	19755
2026-01-01 00:44:45.90	270.51	38.51	-51.5	-66.7	3.8	1.49e+00	0	41	104	0	75	19723
2026-01-01 00:44:47.20	270.00	38.35	-51.5	-66.7	3.8	1.49e+00	0	41	104	0	75	19829
2026-01-01 00:44:47.91	269.73	38.27	-51.6	-66.8	3.8	1.49e+00	0	41	104	0	75	19842
2026-01-01 00:44:49.20	269.23	38.11	-51.5	-66.7	3.8	1.49e+00	0	41	104	0	75	19753
2026-01-01 00:44:49.92	268.96	38.02	-51.5	-66.7	3.8	1.49e+00	0	41	104	0	75	19765
2026-01-01 00:44:51.21	268.47	37.86	-51.5	-66.7	3.8	1.49e+00	0	41	104	0	75	19752
2026-01-01 00:44:51.92	268.20	37.77	-51.6	-66.7	3.8	1.49e+00	0	41	104	0	75	19826
2026-01-01 00:44:53.22	267.71	37.61	-51.6	-66.7	3.8	1.49e+00	0	41	104	0	75	19828
2026-01-01 00:44:53.94	267.45	37.51	-51.5	-66.7	3.8	1.49e+00	0	41	104	0	75	19814
2026-01-01 00:44:55.23	266.97	37.35	-51.6	-66.7	3.8	1.49e+00	0	41	104	0	75	19797
2026-01-01 00:44:55.94	266.72	37.26	-51.6	-66.7	3.8	1.49e+00	0	41	104	0	75	19825
2026-01-01 00:44:57.23	266.25	37.09	-51.5	-66.7	3.8	1.49e+00	0	41	104	0	75	19776
2026-01-01 00:44:57.95	265.99	37.00	-51.5	-66.7	3.8	1.49e+00	0	41	104	0	75	19808
2026-01-01 00:44:59.25	265.53	36.82	-51.6	-66.7	3.8	1.49e+00	0	41	104	0	75	19776
2026-01-01 00:44:59.96	265.28	36.73	-51.6	-66.7	3.8	1.49e+00	0	41	104	0	75	19761
2026-01-01 00:45:01.25	264.83	36.56	-51.5	-66.7	3.8	1.49e+00	0	41	104	0	75	19787
2026-01-01 00:45:01.97	264.58	36.46	-51.5	-66.7	3.8	1.49e+00	0	41	104	0	75	19780
2026-01-01 00:45:03.26	264.13	36.29	-51.5	-66.7	3.8	1.49e+00	0	41	104	0	75	19782
2026-01-01 00:45:03.98	263.88	36.19	-51.6	-66.7	3.8	1.49e+00	0	41	104	0	75	19752
2026-01-01 00:45:05.27	263.45	36.02	-51.5	-66.7	3.8	1.49e+00	0	41	104	0	75	19740
2026-01-01 00:45:05.99	263.21	35.92	-51.6	-66.7	3.8	1.49e+00	0	41	104	0	75	19735
2026-01-01 00:45:07.28	262.78	35.74	-51.5	-66.7	3.8	1.49e+00	0	41	104	0	75	19753
2026-01-01 00:45:08.00	262.54	35.65	-51.5	-66.7	3.8	1.49e+00	0	41	104	0	75	19695
2026-01-01 00:45:09.29	262.12	35.47	-51.5	-66.7	3.8	1.49e+00	0	42	104	0	75	19733
2026-01-01 00:45:10.00	261.89	35.37	-51.5	-66.7	3.8	1.49e+00	0	41	104	0	75	19752
2026-01-01 00:45:11.29	261.47	35.19	-51.5	-66.7	3.8	1.49e+00	0	41	104	0	75	19719
2026-01-01 00:45:12.19	261.18	35.07	-51.6	-66.7	3.8	1.49e+00	0	41	104	0	75	19802
2026-01-01 00:45:13.33	260.82	34.91	-51.6	-66.7	3.8	1.49e+00	0	41	104	0	75	19785
2026-01-01 00:45:14.40	260.49	34.76	-51.5	-66.7	3.8	1.49e+00	0	41	104	0	75	19708
2026-01-01 00:45:15.43	260.17	34.62	-51.6	-66.8	3.8	1.49e+00	0	41	104	0	75	19870
2026-01-01 00:45:16.61	259.80	34.45	-51.5	-66.7	3.8	1.49e+00	0	41	104	0	75	19724
2026-01-01 00:45:17.50	259.53	34.32	-51.6	-66.7	3.8	1.49e+00	0	42	104	0	75	19783
2026-01-01 00:45:18.53	259.22	34.18	-51.6	-66.8	3.8	1.49e+00	0	41	104	0	75	19945
2026-01-01 00:45:19.53	258.92	34.04	-51.6	-66.7	3.8	1.49e+00	0	41	104	0	75	19800
2026-01-01 00:45:20.54	258.62	33.90	-51.6	-66.7	3.8	1.49e+00	0	41	104	0	75	19839
2026-01-01 00:45:21.54	258.33	33.75	-51.6	-66.8	3.8	1.49e+00	0	41	104	0	75	19927
2026-01-01 00:45:22.54	258.04	33.61	-51.6	-66.7	3.8	1.49e+00	0	41	104	0	75	19769
2026-01-01 00:45:23.55	257.74	33.47	-51.6	-66.7	3.8	1.49e+00	0	41	104	0	75	19744
2026-01-01 00:45:24.55	257.46	33.33	-51.6	-66.7	3.8	1.49e+00	0	41	104	0	75	19793
2026-01-01 00:45:25.56	257.17	33.18	-51.6	-66.7	3.8	1.49e+00	0	42	104	0	75	19826
2026-01-01 00:45:26.56	256.89	33.04	-51.6	-66.7	3.8	1.49e+00	0	41	104	0	75	19798
2026-01-01 00:45:27.57	256.61	32.90	-51.5	-66.7	3.8	1.49e+00	0	41	104	0	75	19720
2026-01-01 00:45:28.57	256.33	32.75	-51.5	-66.7	3.8	1.49e+00	0	41	104	0	75	19671
2026-01-01 00:45:29.59	256.05	32.61	-51.6	-66.7	3.8	1.49e+00	0	41	104	0	75	19811
2026-01-01 00:45:30.63	255.77	32.46	-51.6	-66.8	3.8	1.49e+00	0	41	104	0	75	19856
2026-01-01 00:45:31.63	255.50	32.32	-51.5	-66.7	3.8	1.49e+00	0	41	104	0	75	19742
2026-01-01 00:45:32.63	255.23	32.17	-51.6	-66.7	3.8	1.49e+00	0	41	104	0	75	19803
2026-01-01 00:45:33.63	254.97	32.03	-51.6	-66.7	3.8	1.49e+00	0	41	104	0	75	19684
2026-01-01 00:45:34.64	254.70	31.89	-51.5	-66.7	3.8	1.49e+00	0	41	104	0	75	19793
2026-01-01 00:45:35.64	254.44	31.74	-51.5	-66.7	3.8	1.49e+00	0	42	104	0	75	19733
2026-01-01 00:45:36.64	254.19	31.60	-51.6	-66.7	3.8	1.49e+00	0	41	104	0	75	19642
2026-01-01 00:45:37.65	253.93	31.46	-51.6	-66.7	3.8	1.49e+00	0	42	104	0	75	19796
2026-01-01 00:45:38.65	253.67	31.31	-51.5	-66.7	3.8	1.49e+00	0	41	104	0	75	19639
2026-01-01 00:45:39.66	253.42	31.17	-51.6	-66.8	3.8	1.49e+00	0	41	104	0	75	19892
2026-01-01 00:45:40.66	253.17	31.03	-51.5	-66.7	3.8	1.49e+00	0	41	104	0	75	19759
2026-01-01 00:45:41.67	252.92	30.88	-51.5	-66.7	3.8	1.49e+00	0	41	104	0	75	19742
2026-01-01 00:45:42.67	252.68	30.74	-51.6	-66.7	3.8	1.49e+00	0	41	104	0	75	19728
2026-01-01 00:45:43.68	252.44	30.60	-51.5	-66.7	3.8	1.49e+00	0	41	104	0	75	19794
2026-01-01 00:45:44.68	252.20	30.45	-51.5	-66.7	3.8	1.49e+00	0	41	104	0	75	19718
2026-01-01 00:45:45.68	251.96	30.31	-51.5	-66.7	3.8	1.49e+00	0	41	104	0	75	19741
2026-01-01 00:45:46.69	251.72	30.17	-51.5	-66.7	3.8	1.49e+00	0	41	104	0	75	19752
2026-01-01 00:45:47.69	251.49	30.03	-51.5	-66.7	3.8	1.49e+00	0	41	104	0	75	19615
2026-01-01 00:45:48.70	251.25	29.88	-51.5	-66.7	3.8	1.49e+00	0	41	104	0	75	19714
2026-01-01 00:45:49.70	251.02	29.74	-51.5	-66.7	3.8	1.49e+00	0	41	104	0	75	19791
2026-01-01 00:45:50.71	250.79	29.60	-51.6	-66.7	3.8	1.49e+00	0	42	104	0	75	19760
2026-01-01 00:45:51.71	250.57	29.46	-51.5	-66.7	3.8	1.49e+00	0	41	104	0	75	19685
2026-01-01 00:45:52.71	250.34	29.32	-51.5	-66.7	3.8	1.49e+00	0	42	104	0	75	19667
2026-01-01 00:45:53.72	250.12	29.18	-51.5	-66.7	3.8	1.49e+00	0	42	104	0	75	19739
2026-01-01 00:45:54.72	249.90	29.04	-51.5	-66.7	3.8	1.49e+00	0	41	104	0	75	19685
2026-01-01 00:45:55.73	249.68	28.89	-51.5	-66.7	3.8	1.49e+00	0	41	104	0	75	19675
2026-01-01 00:45:56.73	249.47	28.75	-51.5	-66.7	3.8	1.49e+00	0	41	104	0	75	19624
2026-01-01 00:45:57.73	249.25	28.61	-51.5	-66.7	3.8	1.49e+00	0	41	104	0	75	19692
2026-01-01 00:45:58.74	249.04	28.47	-51.5	-66.7	3.8	1.49e+00	0	41	104	0	75	19641
2026-01-01 00:45:59.74	248.83	28.34	-51.5	-66.7	3.8	1.49e+00	0	41	104	0	75	19812
2026-01-01 00:46:00.75	248.62	28.19	-51.5	-66.7	3.8	1.49e+00	0	41	104	0	75	19708
2026-01-01 00:46:01.75	248.41	28.06	-51.5	-66.7	3.8	1.49e+00	0	41	104	0	75	19729
2026-01-01 00:46:02.76	248.20	27.92	-51.5	-66.6	3.8	1.49e+00	0	41	104	0	75	19611
2026-01-01 00:46:03.76	248.00	27.78	-51.6	-66.7	3.8	1.49e+00	0	41	104	0	75	19750
2026-01-01 00:46:04.76	247.80	27.64	-51.5	-66.7	3.8	1.49e+00	0	41	104	0	75	19797
2026-01-01 00:46:05.77	247.60	27.50	-51.5	-66.7	3.8	1.49e+00	0	41	104	0	75	19726
2026-01-01 00:46:06.77	247.40	27.36	-51.5	-66.7	3.8	1.49e+00	0	41	104	0	75	19732
2026-01-01 00:46:07.78	247.20	27.23	-51.5	-66.7	3.8	1.49e+00	0	41	104	0	75	19729
2026-01-01 00:46:08.78	247.01	27.09	-51.5	-66.7	3.8	1.49e+00	0	41	104	0	75	19699
2026-01-01 00:46:09.78	246.82	26.95	-51.5	-66.7	3.8	1.49e+00	0	41	104	0	75	19754
2026-01-01 00:46:10.79	246.62	26.82	-51.5	-66.7	3.8	1.49e+00	0	41	104	0	75	19683
2026-01-01 00:46:11.79	246.43	26.68	-51.5	-66.7	3.8	1.49e+00	0	41	104	0	75	19766
2026-01-01 00:46:12.80	246.25	26.54	-51.5	-66.7	3.8	1.49e+00	0	41	104	0	75	19756
2026-01-01 00:46:13.80	246.06	26.41	-51.5	-66.7	3.8	1.49e+00	0	41	104	0	75	19689
2026-01-01 00:46:14.81	245.87	26.27	-51.5	-66.6	3.8	1.49e+00	0	41	104	0	75	19589
2026-01-01 00:46:15.81	245.69	26.14	-51.5	-66.6	3.8	1.49e+00	0	41	104	0	75	19611
2026-01-01 00:46:16.81	245.51	26.01	-51.5	-66.7	3.8	1.49e+00	0	41	104	0	75	19714
2026-01-01 00:46:17.82	245.33	25.87	-51.5	-66.7	3.8	1.49e+00	0	41	104	0	75	19712
2026-01-01 00:46:18.82	245.15	25.74	-51.5	-66.7	3.8	1.49e+00	0	41	104	0	75	19695
2026-01-01 00:46:19.82	244.97	25.61	-51.5	-66.7	3.8	1.49e+00	0	41	104	0	75	19703
2026-01-01 00:46:20.83	244.80	25.47	-51.5	-66.7	3.8	1.49e+00	0	41	104	0	75	19683
2026-01-01 00:46:21.83	244.62	25.34	-51.5	-66.7	3.8	1.49e+00	0	41	104	0	75	19698
2026-01-01 00:46:22.84	244.45	25.21	-51.5	-66.7	3.8	1.49e+00	0	41	104	0	75	19727
2026-01-01 00:46:23.84	244.28	25.08	-51.5	-66.6	3.8	1.49e+00	0	41	104	0	75	19578
2026-01-01 00:46:24.84	244.11	24.94	-51.5	-66.7	3.8	1.49e+00	0	41	104	0	75	19670
2026-01-01 00:46:25.85	243.94	24.81	-51.5	-66.7	3.8	1.49e+00	0	41	104	0	75	19630
2026-01-01 00:46:26.85	243.77	24.68	-51.5	-66.7	3.8	1.49e+00	0	41	104	0	75	19650
2026-01-01 00:46:27.86	243.60	24.55	-51.5	-66.7	3.8	1.49e+00	0	41	104	0	75	19719
2026-01-01 00:46:28.86	243.44	24.42	-51.5	-66.7	3.8	1.49e+00	0	41	104	0	75	19622
2026-01-01 00:46:29.85	243.28	24.29	-51.5	-66.7	3.8	1.49e+00	0	41	104	0	75	19709
2026-01-01 00:46:30.85	243.12	24.17	-51.5	-66.6	3.8	1.49e+00	0	41	104	0	75	19520
2026-01-01 00:46:31.85	242.96	24.04	-51.5	-66.7	3.8	1.49e+00	0	41	104	0	74	20850
2026-01-01 00:46:32.86	242.80	23.91	-51.5	-66.7	3.8	1.49e+00	0	41	104	0	74	20911
2026-01-01 00:46:33.86	242.64	23.78	-51.5	-66.7	3.8	1.49e+00	0	42	104	0	74	20784
2026-01-01 00:46:34.86	242.49	23.65	-51.5	-66.7	3.8	1.49e+00	0	42	104	0	74	20858
2026-01-01 00:46:35.87	242.33	23.53	-51.5	-66.7	3.8	1.49e+00	0	41	104	0	74	20876
2026-01-01 00:46:36.87	242.18	23.40	-51.5	-66.6	3.8	1.49e+00	0	41	104	0	74	20736
2026-01-01 00:46:37.88	242.02	23.27	-51.5	-66.7	3.8	1.49e+00	0	41	104	0	74	20843
2026-01-01 00:46:38.88	241.87	23.15	-51.5	-66.7	3.8	1.49e+00	0	42	104	0	74	20820
2026-01-01 00:46:39.89	241.72	23.02	-51.5	-66.7	3.8	1.49e+00	0	41	104	0	74	20795
2026-01-01 00:46:40.89	241.57	22.90	-51.5	-66.6	3.8	1.49e+00	0	42	104	0	74	20720
2026-01-01 00:46:41.90	241.42	22.77	-51.5	-66.7	3.8	1.49e+00	0	41	104	0	74	20830
2026-01-01 00:46:42.90	241.28	22.65	-51.5	-66.7	3.8	1.49e+00	0	42	104	0	74	20781
2026-01-01 00:46:43.90	241.13	22.52	-51.5	-66.7	3.8	1.49e+00	0	41	104	0	74	20791
2026-01-01 00:46:44.91	240.99	22.40	-51.5	-66.6	3.8	1.49e+00	0	41	104	0	74	20772
2026-01-01 00:46:45.91	240.85	22.28	-51.5	-66.7	3.8	1.49e+00	0	41	104	0	74	20791
2026-01-01 00:46:46.92	240.70	22.15	-51.5	-66.7	3.8	1.49e+00	0	41	104	0	74	20893
2026-01-01 00:46:47.92	240.56	22.03	-51.5	-66.7	3.8	1.49e+00	0	41	104	0	74	20801
2026-01-01 00:46:48.92	240.42	21.91	-51.5	-66.7	3.8	1.49e+00	0	41	104	0	74	20782
2026-01-01 00:46:49.93	240.28	21.79	-51.5	-66.7	3.8	1.49e+00	0	41	104	0	74	20782
2026-01-01 00:46:50.93	240.15	21.67	-51.5	-66.7	3.8	1.49e+00	0	41	104	0	74	20838
2026-01-01 00:46:51.93	240.01	21.55	-51.5	-66.7	3.8	1.49e+00	0	41	104	0	74	20897
2026-01-01 00:46:52.94	239.88	21.42	-51.5	-66.7	3.8	1.49e+00	0	42	104	0	74	20820
2026-01-01 00:46:53.94	239.74	21.31	-51.5	-66.7	3.8	1.49e+00	0	41	104	0	74	20817
2026-01-01 00:46:54.95	239.61	21.18	-51.5	-66.7	3.8	1.49e+00	0	42	104	0	74	20796
2026-01-01 00:46:55.95	239.48	21.07	-51.5	-66.7	3.8	1.49e+00	0	42	104	0	74	20888
2026-01-01 00:46:56.96	239.34	20.95	-51.5	-66.6	3.8	1.49e+00	0	42	104	0	74	20744
2026-01-01 00:46:57.96	239.21	20.83	-51.5	-66.6	3.8	1.49e+00	0	41	104	0	74	20766
2026-01-01 00:46:58.96	239.09	20.71	-51.5	-66.7	3.8	1.49e+00	0	41	104	0	74	20902
2026-01-01 00:46:59.97	238.96	20.59	-51.5	-66.7	3.8	1.49e+00	0	41	104	0	74	20781
2026-01-01 00:47:00.97	238.83	20.48	-51.5	-66.7	3.8	1.49e+00	0	41	104	0	74	20811
2026-01-01 00:47:01.98	238.70	20.36	-51.5	-66.7	3.8	1.49e+00	0	42	104	0	74	20797
2026-01-01 00:47:02.98	238.58	20.24	-51.5	-66.7	3.8	1.49e+00	0	41	104	0	74	20801
2026-01-01 00:47:03.98	238.46	20.13	-51.5	-66.7	3.8	1.49e+00	0	41	104	0	74	20936
2026-01-01 00:47:04.99	238.33	20.01	-51.5	-66.7	3.8	1.49e+00	0	41	104	0	74	20920
2026-01-01 00:47:05.99	238.21	19.90	-51.5	-66.7	3.8	1.49e+00	0	42	104	0	74	20883
2026-01-01 00:47:07.00	238.09	19.78	-51.5	-66.7	3.8	1.49e+00	0	42	104	0	74	20852
2026-01-01 00:47:08.00	237.97	19.67	-51.5	-66.7	3.8	1.49e+00	0	41	104	0	74	20859
2026-01-01 00:47:09.01	237.85	19.55	-51.6	-66.7	3.8	1.49e+00	0	42	104	0	74	21000
2026-01-01 00:47:10.01	237.73	19.44	-51.6	-66.8	3.8	1.49e+00	0	41	104	0	74	21046
2026-01-01 00:47:11.02	237.61	19.33	-51.5	-66.7	3.8	1.49e+00	0	41	104	0	74	20951
2026-01-01 00:47:12.02	237.49	19.21	-51.6	-66.7	3.8	1.49e+00	0	41	104	0	74	21005
2026-01-01 00:47:13.02	237.38	19.10	-51.6	-66.7	3.8	1.49e+00	0	42	104	0	74	20998
2026-01-01 00:47:14.03	237.26	18.99	-51.6	-66.7	3.8	1.49e+00	0	41	104	0	74	20999
2026-01-01 00:47:15.03	237.15	18.88	-51.6	-66.8	3.8	1.49e+00	0	41	104	0	74	21021
2026-01-01 00:47:16.04	237.04	18.76	-51.5	-66.7	3.8	1.49e+00	0	42	104	0	74	20840
2026-01-01 00:47:17.04	236.92	18.65	-51.6	-66.8	3.8	1.49e+00	0	42	104	0	74	21020
2026-01-01 00:47:18.04	236.81	18.54	-51.6	-66.8	3.8	1.49e+00	0	41	104	0	74	21048
2026-01-01 00:47:19.05	236.70	18.43	-51.6	-66.7	3.8	1.49e+00	0	42	104	0	74	20938
2026-01-01 00:47:20.05	236.59	18.32	-51.6	-66.7	3.8	1.49e+00	0	41	104	0	74	20974
2026-01-01 00:47:21.06	236.48	18.21	-51.6	-66.7	3.8	1.49e+00	0	41	104	0	74	21017
2026-01-01 00:47:22.06	236.37	18.11	-51.6	-66.8	3.8	1.49e+00	0	42	104	0	74	21090
2026-01-01 00:47:23.06	236.27	18.00	-51.5	-66.7	3.8	1.49e+00	0	41	104	0	74	20954
2026-01-01 00:47:24.07	236.16	17.89	-51.6	-66.7	3.8	1.49e+00	0	42	104	0	74	21004
2026-01-01 00:47:25.07	236.05	17.78	-51.6	-66.8	3.8	1.49e+00	0	42	104	0	74	21114
2026-01-01 00:47:26.08	235.95	17.67	-51.6	-66.8	3.8	1.49e+00	0	41	104	0	74	21020
2026-01-01 00:47:27.08	235.84	17.57	-51.6	-66.8	3.8	1.49e+00	0	41	104	0	74	21040
2026-01-01 00:47:28.09	235.74	17.46	-51.6	-66.7	3.8	1.49e+00	0	41	104	0	74	21007
2026-01-01 00:47:29.09	235.64	17.35	-51.6	-66.7	3.8	1.49e+00	0	42	104	0	74	20997
2026-01-01 00:47:30.10	235.53	17.25	-51.6	-66.7	3.8	1.49e+00	0	42	104	0	74	20985
2026-01-01 00:47:31.10	235.43	17.14	-51.6	-66.8	3.8	1.49e+00	0	41	104	0	74	21091
2026-01-01 00:47:32.10	235.33	17.04	-51.6	-66.8	3.8	1.49e+00	0	42	104	0	74	21057
2026-01-01 00:47:33.11	235.23	16.93	-51.6	-66.8	3.8	1.49e+00	0	41	104	0	74	21031
2026-01-01 00:47:34.11	235.13	16.83	-51.6	-66.8	3.8	1.49e+00	0	41	104	0	74	21048
2026-01-01 00:47:35.12	235.03	16.72	-51.6	-66.8	3.8	1.49e+00	0	41	104	0	74	21087
2026-01-01 00:47:36.12	234.93	16.62	-51.6	-66.8	3.8	1.49e+00	0	41	104	0	74	21024
2026-01-01 00:47:37.13	234.84	16.51	-51.6	-66.8	3.8	1.49e+00	0	42	104	0	74	21108
2026-01-01 00:47:38.13	234.74	16.41	-51.6	-66.8	3.8	1.49e+00	0	42	104	0	74	21114
2026-01-01 00:47:39.14	234.64	16.31	-51.6	-66.8	3.8	1.49e+00	0	41	104	0	74	21058
2026-01-01 00:47:40.14	234.55	16.20	-51.6	-66.7	3.8	1.49e+00	0	42	104	0	74	20944
2026-01-01 00:47:41.14	234.45	16.10	-51.6	-66.7	3.8	1.49e+00	0	42	104	0	74	21014
2026-01-01 00:47:42.15	234.36	16.00	-51.6	-66.7	3.8	1.49e+00	0	42	104	0	74	20959
2026-01-01 00:47:43.15	234.27	15.90	-51.6	-66.8	3.8	1.49e+00	0	41	104	0	74	21157
2026-01-01 00:47:44.16	234.17	15.80	-51.6	-66.8	3.8	1.49e+00	0	41	104	0	74	21033
2026-01-01 00:47:45.16	234.08	15.70	-51.6	-66.8	3.8	1.49e+00	0	42	104	0	74	21117
2026-01-01 00:47:46.17	233.99	15.60	-51.6	-66.8	3.8	1.49e+00	0	41	104	0	74	21074
2026-01-01 00:47:47.17	233.90	15.50	-51.6	-66.7	3.8	1.49e+00	0	42	104	0	74	21003
2026-01-01 00:47:48.18	233.81	15.40	-51.6	-66.8	3.8	1.49e+00	0	42	104	0	74	21080
2026-01-01 00:47:49.18	233.72	15.30	-51.6	-66.8	3.8	1.49e+00	0	42	104	0	74	21089
2026-01-01 00:47:50.19	233.63	15.20	-51.6	-66.7	3.8	1.49e+00	0	41	104	0	74	20942
2026-01-01 00:47:51.19	233.54	15.10	-51.6	-66.7	3.8	1.49e+00	0	42	104	0	74	20960
2026-01-01 00:47:52.19	233.45	15.00	-51.6	-66.8	3.8	1.49e+00	0	41	104	0	74	21038
2026-01-01 00:47:53.20	233.37	14.90	-51.6	-66.8	3.8	1.49e+00	0	41	104	0	74	21140
2026-01-01 00:47:54.20	233.28	14.80	-51.6	-66.8	3.8	1.49e+00	0	42	104	0	74	21038
2026-01-01 00:47:55.21	233.19	14.71	-51.6	-66.8	3.8	1.49e+00	0	41	104	0	74	21042
2026-01-01 00:47:56.21	233.11	14.61	-51.6	-66.8	3.8	1.49e+00	0	42	104	0	74	21052
2026-01-01 00:47:57.22	233.02	14.51	-51.6	-66.8	3.8	1.49e+00	0	42	104	0	74	21131
2026-01-01 00:47:58.22	232.94	14.42	-51.6	-66.7	3.8	1.49e+00	0	42	104	0	74	20999
2026-01-01 00:47:59.22	232.85	14.32	-51.6	-66.7	3.8	1.49e+00	0	42	104	0	74	21007
2026-01-01 00:48:00.23	232.77	14.22	-51.6	-66.8	3.8	1.49e+00	0	41	104	0	74	21069
2026-01-01 00:48:01.23	232.69	14.13	-51.6	-66.8	3.8	1.49e+00	0	41	104	0	74	21042
2026-01-01 00:48:02.23	232.61	14.03	-51.6	-66.8	3.8	1.49e+00	0	42	104	0	74	21081
2026-01-01 00:48:03.24	232.52	13.94	-51.6	-66.8	3.8	1.49e+00	0	42	104	0	74	21199
2026-01-01 00:48:04.24	232.44	13.84	-51.6	-66.8	3.8	1.49e+00	0	42	104	0	74	21020
2026-01-01 00:48:05.25	232.36	13.75	-51.6	-66.8	3.8	1.49e+00	0	42	104	0	74	21099
2026-01-01 00:48:06.25	232.28	13.66	-51.6	-66.8	3.8	1.49e+00	0	42	104	0	74	21094
2026-01-01 00:48:07.25	232.20	13.56	-51.6	-66.8	3.8	1.49e+00	0	42	104	0	74	21081
2026-01-01 00:48:08.26	232.12	13.47	-51.6	-66.8	3.8	1.49e+00	0	42	104	0	74	21165
2026-01-01 00:48:09.26	232.05	13.38	-51.6	-66.8	3.8	1.49e+00	0	42	104	0	74	21094
2026-01-01 00:48:10.27	231.97	13.28	-51.6	-66.7	3.8	1.49e+00	0	42	104	0	74	20995
2026-01-01 00:48:11.27	231.89	13.19	-51.6	-66.8	3.8	1.49e+00	0	41	104	0	74	21033
2026-01-01 00:48:12.27	231.81	13.10	-51.6	-66.8	3.8	1.49e+00	0	42	104	0	74	21027
2026-01-01 00:48:13.50	231.72	12.99	-51.6	-66.8	3.8	1.49e+00	0	42	104	0	74	21086
2026-01-01 00:48:14.39	231.65	12.90	-51.6	-66.8	3.8	1.49e+00	0	42	104	0	74	21117
2026-01-01 00:48:15.59	231.56	12.80	-51.6	-66.8	3.8	1.49e+00	0	42	104	0	74	21049
2026-01-01 00:48:16.46	231.50	12.72	-51.6	-66.8	3.8	1.49e+00	0	42	104	0	74	21097
2026-01-01 00:48:17.79	231.40	12.60	-51.6	-66.8	3.8	1.49e+00	0	42	104	0	74	21024
2026-01-01 00:48:18.51	231.35	12.53	-51.6	-66.8	3.8	1.49e+00	0	42	104	0	74	21084
2026-01-01 00:48:19.79	231.25	12.42	-51.6	-66.8	3.8	1.49e+00	0	42	104	0	74	21059
2026-01-01 00:48:20.51	231.20	12.35	-51.6	-66.8	3.8	1.49e+00	0	42	104	0	74	21032
2026-01-01 00:48:21.80	231.11	12.24	-51.6	-66.7	3.8	1.49e+00	0	42	104	0	74	20959
2026-01-01 00:48:22.52	231.06	12.17	-51.5	-66.7	3.8	1.49e+00	0	42	104	0	74	20963
2026-01-01 00:48:23.81	230.96	12.06	-51.6	-66.8	3.8	1.49e+00	0	41	104	0	74	21058
2026-01-01 00:48:24.53	230.91	12.00	-51.6	-66.8	3.8	1.49e+00	0	42	104	0	74	21109
2026-01-01 00:48:25.82	230.82	11.88	-51.6	-66.8	3.8	1.49e+00	0	42	104	0	74	21036
2026-01-01 00:48:26.54	230.77	11.82	-51.6	-66.8	3.8	1.49e+00	0	42	104	0	74	21153
2026-01-01 00:48:27.86	230.68	11.70	-51.6	-66.8	3.8	1.49e+00	0	42	104	0	74	21079
2026-01-01 00:48:28.58	230.63	11.64	-51.6	-66.7	3.8	1.49e+00	0	42	104	0	74	21014
2026-01-01 00:48:29.93	230.54	11.52	-51.6	-66.7	3.8	1.49e+00	0	42	104	0	74	20995
2026-01-01 00:48:30.65	230.49	11.46	-51.6	-66.8	3.8	1.49e+00	0	42	104	0	74	21050
2026-01-01 00:48:31.94	230.40	11.35	-51.6	-66.8	3.8	1.49e+00	0	42	104	0	74	21048
2026-01-01 00:48:32.66	230.35	11.29	-51.6	-66.7	3.8	1.49e+00	0	42	104	0	74	21008
2026-01-01 00:48:33.95	230.27	11.18	-51.6	-66.8	3.8	1.49e+00	0	42	104	0	74	21129
2026-01-01 00:48:34.66	230.22	11.12	-51.6	-66.8	3.8	1.49e+00	0	41	104	0	74	21084
2026-01-01 00:48:35.95	230.13	11.01	-51.6	-66.8	3.8	1.49e+00	0	42	104	0	74	21070
2026-01-01 00:48:36.67	230.09	10.95	-51.6	-66.8	3.8	1.49e+00	0	42	104	0	74	21170
2026-01-01 00:48:37.96	230.00	10.84	-51.6	-66.8	3.8	1.49e+00	0	42	104	0	74	21086
2026-01-01 00:48:38.68	229.96	10.78	-51.6	-66.8	3.8	1.49e+00	0	42	104	0	74	21034
2026-01-01 00:48:39.97	229.87	10.67	-51.6	-66.8	3.8	1.49e+00	0	42	104	0	74	21080
2026-01-01 00:48:40.69	229.83	10.61	-51.6	-66.8	3.8	1.49e+00	0	42	104	0	74	21097
2026-01-01 00:48:41.98	229.74	10.50	-51.6	-66.7	3.8	1.49e+00	0	42	104	0	74	20908
2026-01-01 00:48:42.70	229.70	10.44	-51.6	-66.8	3.8	1.49e+00	0	42	104	0	74	21081
2026-01-01 00:48:43.99	229.62	10.33	-51.6	-66.7	3.8	1.49e+00	0	42	104	0	74	20957
2026-01-01 00:48:44.70	229.57	10.27	-51.6	-66.7	3.8	1.49e+00	0	42	104	0	74	20961
2026-01-01 00:48:46.00	229.49	10.16	-51.6	-66.7	3.8	1.49e+00	0	42	104	0	74	20957
2026-01-01 00:48:46.71	229.45	10.11	-51.6	-66.8	3.8	1.49e+00	0	42	104	0	74	21112
2026-01-01 00:48:48.01	229.37	10.00	-51.6	-66.8	3.8	1.49e+00	0	41	104	0	74	21058
2026-01-01 00:48:48.72	229.32	9.94	-51.6	-66.8	3.8	1.49e+00	0	42	104	0	74	21083
2026-01-01 00:48:50.01	229.24	9.84	-51.6	-66.8	3.8	1.49e+00	0	42	104	0	74	21063
2026-01-01 00:48:50.73	229.20	9.78	-51.6	-66.8	3.8	1.49e+00	0	42	104	0	74	21074
2026-01-01 00:48:52.02	229.12	9.67	-51.6	-66.8	3.8	1.49e+00	0	42	104	0	74	21071
2026-01-01 00:48:52.74	229.08	9.61	-51.6	-66.8	3.8	1.49e+00	0	42	104	0	74	21071
2026-01-01 00:48:54.03	229.00	9.51	-51.5	-66.7	3.8	1.49e+00	0	42	104	0	74	21005
2026-01-01 00:48:54.75	228.96	9.45	-51.6	-66.8	3.8	1.49e+00	0	42	104	0	74	21094
2026-01-01 00:48:56.04	228.88	9.35	-51.6	-66.7	3.8	1.49e+00	0	42	104	0	74	20902
2026-01-01 00:48:56.76	228.84	9.29	-51.5	-66.7	3.8	1.49e+00	0	42	104	0	74	20974
2026-01-01 00:48:58.05	228.77	9.19	-51.6	-66.7	3.8	1.49e+00	0	42	104	0	74	21006
2026-01-01 00:48:58.76	228.73	9.13	-51.6	-66.8	3.8	1.49e+00	0	42	104	0	74	21143
2026-01-01 00:49:00.06	228.65	9.03	-51.6	-66.8	3.8	1.49e+00	0	42	104	0	74	21094
2026-01-01 00:49:00.77	228.61	8.97	-51.6	-66.8	3.8	1.49e+00	0	42	104	0	74	21170
2026-01-01 00:49:02.06	228.54	8.87	-51.6	-66.8	3.8	1.49e+00	0	41	104	0	74	21052
2026-01-01 00:49:02.78	228.50	8.81	-51.6	-66.9	3.8	1.49e+00	0	41	104	0	74	21273
2026-01-01 00:49:04.07	228.42	8.71	-51.6	-66.8	3.8	1.49e+00	0	42	104	0	74	21074
2026-01-01 00:49:04.78	228.38	8.65	-51.6	-66.8	3.8	1.49e+00	0	42	104	0	74	21112
2026-01-01 00:49:06.08	228.31	8.55	-51.6	-66.8	3.8	1.49e+00	0	42	104	0	74	21034
2026-01-01 00:49:06.79	228.27	8.50	-51.6	-66.7	3.8	1.49e+00	0	42	104	0	74	21000
2026-01-01 00:49:08.08	228.20	8.40	-51.6	-66.8	3.8	1.49e+00	0	41	104	0	74	21029
2026-01-01 00:49:08.80	228.16	8.34	-51.6	-66.8	3.8	1.49e+00	0	42	104	0	74	21061
2026-01-01 00:49:10.09	228.09	8.24	-51.6	-66.7	3.8	1.49e+00	0	42	104	0	74	20951
2026-01-01 00:49:10.81	228.05	8.19	-51.6	-66.8	3.8	1.49e+00	0	42	104	0	74	21069
2026-01-01 00:49:12.10	227.98	8.09	-51.6	-66.8	3.8	1.49e+00	0	42	104	0	74	21061
2026-01-01 00:49:12.81	227.95	8.03	-51.6	-66.8	3.8	1.49e+00	0	42	104	0	74	21058
2026-01-01 00:49:14.10	227.88	7.93	-51.6	-66.8	3.8	1.49e+00	0	42	104	0	74	21137
2026-01-01 00:49:14.82	227.84	7.88	-51.6	-66.8	3.8	1.49e+00	0	42	104	0	74	21058
2026-01-01 00:49:16.11	227.77	7.78	-51.6	-66.7	3.8	1.49e+00	0	42	104	0	74	21011
2026-01-01 00:49:16.83	227.73	7.73	-51.6	-66.7	3.8	1.49e+00	0	41	104	0	74	20986
2026-01-01 00:49:18.12	227.67	7.63	-51.6	-66.7	3.8	1.49e+00	0	42	104	0	74	20914
2026-01-01 00:49:18.84	227.63	7.57	-51.6	-66.7	3.8	1.49e+00	0	42	104	0	74	20919
2026-01-01 00:49:20.13	227.56	7.48	-51.6	-66.7	3.8	1.49e+00	0	42	104	0	74	20984
2026-01-01 00:49:20.85	227.53	7.42	-51.6	-66.8	3.8	1.49e+00	0	41	104	0	74	21135
2026-01-01 00:49:22.14	227.46	7.33	-51.6	-66.8	3.8	1.49e+00	0	42	104	0	74	21060
2026-01-01 00:49:22.85	227.43	7.27	-51.5	-66.7	3.8	1.49e+00	0	42	104	0	74	20942
2026-01-01 00:49:24.15	227.36	7.18	-51.6	-66.8	3.8	1.49e+00	0	42	104	0	74	21036
2026-01-01 00:49:24.86	227.32	7.12	-51.6	-66.7	3.8	1.49e+00	0	42	104	0	74	20956
2026-01-01 00:49:26.15	227.26	7.03	-51.6	-66.8	3.8	1.49e+00	0	42	104	0	74	21054
2026-01-01 00:49:26.87	227.22	6.98	-51.6	-66.7	3.8	1.49e+00	0	42	104	0	74	21000
2026-01-01 00:49:28.16	227.16	6.88	-51.6	-66.8	3.8	1.49e+00	0	42	104	0	74	21175
2026-01-01 00:49:28.88	227.13	6.83	-51.6	-66.8	3.8	1.49e+00	0	42	104	0	74	21120
2026-01-01 00:49:30.17	227.06	6.73	-51.6	-66.7	3.8	1.49e+00	0	42	104	0	74	20995
2026-01-01 00:49:30.89	227.03	6.68	-51.6	-66.8	3.8	1.49e+00	0	42	104	0	74	21061
2026-01-01 00:49:32.18	226.97	6.59	-51.6	-66.8	3.8	1.49e+00	0	42	104	0	74	21063
2026-01-01 00:49:32.90	226.93	6.53	-51.6	-66.7	3.8	1.49e+00	0	42	104	0	74	21013
2026-01-01 00:49:34.19	226.87	6.44	-51.6	-66.8	3.8	1.49e+00	0	42	104	0	74	21047
2026-01-01 00:49:34.91	226.83	6.39	-51.5	-66.7	3.8	1.49e+00	0	42	104	0	74	20973
2026-01-01 00:49:36.20	226.77	6.30	-51.5	-66.7	3.8	1.49e+00	0	42	104	0	74	20933
2026-01-01 00:49:36.92	226.74	6.24	-51.6	-66.7	3.8	1.49e+00	0	42	104	0	74	20969
2026-01-01 00:49:38.21	226.68	6.15	-51.6	-66.7	3.8	1.49e+00	0	42	104	0	74	21015
2026-01-01 00:49:38.92	226.65	6.10	-51.6	-66.7	3.8	1.49e+00	0	42	104	0	74	21011
2026-01-01 00:49:40.21	226.59	6.01	-51.6	-66.7	3.8	1.49e+00	0	42	104	0	74	20999
2026-01-01 00:49:40.93	226.55	5.96	-51.6	-66.7	3.8	1.49e+00	0	42	104	0	74	20954
2026-01-01 00:49:42.22	226.49	5.87	-51.6	-66.8	3.8	1.49e+00	0	42	104	0	74	21042
2026-01-01 00:49:42.94	226.46	5.81	-51.6	-66.7	3.8	1.49e+00	0	42	104	0	74	20988
2026-01-01 00:49:44.23	226.40	5.72	-51.6	-66.8	3.8	1.49e+00	0	42	104	0	74	21027
2026-01-01 00:49:44.95	226.37	5.67	-51.6	-66.7	3.8	1.49e+00	0	42	104	0	74	20979
2026-01-01 00:49:46.24	226.31	5.58	-51.6	-66.7	3.8	1.49e+00	0	42	104	0	74	20952
2026-01-01 00:49:46.96	226.28	5.53	-51.6	-66.7	3.8	1.49e+00	0	42	104	0	74	21006
2026-01-01 00:49:48.25	226.22	5.44	-51.6	-66.7	3.8	1.49e+00	0	41	104	0	74	20993
2026-01-01 00:49:48.97	226.19	5.39	-51.5	-66.7	3.8	1.49e+00	0	42	104	0	74	20876
2026-01-01 00:49:50.26	226.14	5.30	-51.6	-66.8	3.8	1.49e+00	0	42	104	0	74	21048
2026-01-01 00:49:50.97	226.10	5.25	-51.6	-66.8	3.8	1.49e+00	0	42	104	0	74	21044
2026-01-01 00:49:52.27	226.05	5.16	-51.6	-66.8	3.8	1.49e+00	0	42	104	0	74	21089
2026-01-01 00:49:52.98	226.02	5.11	-51.6	-66.8	3.8	1.49e+00	0	42	104	0	74	21032
2026-01-01 00:49:54.28	225.96	5.02	-51.6	-66.8	3.8	1.49e+00	0	42	104	0	74	21048
2026-01-01 00:49:54.99	225.93	4.97	-51.6	-66.8	3.8	1.49e+00	0	42	104	0	74	21051

#Closed at: 2026-01-01 00:49:56
#Recorded file [0 MB]: D:/Data/31040_260101_033733.dat